2.58656556 0.32024409 -0.00057548 0.00000000
2.69411144 0.01746601 0.00216867 0.00000000
3.34372900 0.81112228 -0.00374651 0.00000000
2.32077974 1.50495848 -0.00322979 0.00000000
0.07220122 1.30258197 -0.00267150 0.00000000
0.63264514 1.38262376 -0.00334465 0.00000000
0.41952405 1.04503984 0.00027731 0.00000000
2.34647341 1.44701734 -0.00118889 0.00000000
3.96470753 0.65650797 -0.00087541 0.00000000
4.04200832 1.41711674 0.00115792 0.00000000
0.15282257 1.49663930 -0.00440740 0.00000000
1.13240592 1.49313568 -0.00197650 0.00000000
1.98941327 0.63330203 -0.00258861 0.00000000
0.17906569 0.24525294 -0.00078830 0.00000000
3.35000169 1.35971479 -0.00107764 0.00000000
1.15765781 0.34686436 -0.00226082 0.00000000
2.13015795 0.06133927 0.00178853 0.00000000
2.53817696 1.05076387 0.00011661 0.00000000
3.23525047 0.40562814 -0.00288319 0.00000000
0.51337834 0.21597983 -0.00280852 0.00000000
2.91112691 0.89046150 -0.00031159 0.00000000
0.36987716 0.37447679 0.00272884 0.00000000
0.45000561 1.26509333 0.00425051 0.00000000
1.26716862 0.00359314 0.00552247 0.00000000
3.10185629 0.73377677 -0.00175706 0.00000000
0.85960459 1.56108299 -0.00094752 0.00000000
1.91753503 0.42148032 0.00077446 0.00000000
3.28172098 0.64973338 -0.00076872 0.00000000
3.70708549 1.26181732 -0.00591114 0.00000000
4.13145317 0.69828977 0.00025488 0.00000000
3.73064547 0.96885022 -0.00310176 0.00000000
1.59410632 1.52183918 -0.00427479 0.00000000
1.56507334 1.39029515 0.00013925 0.00000000
0.28771921 0.04311636 -0.00168450 0.00000000
1.25362764 0.70889548 -0.00336835 0.00000000
0.46873013 0.56612444 0.00186445 0.00000000
1.86738321 1.11362377 0.00025243 0.00000000
3.40853469 1.42859497 -0.00179171 0.00000000
0.30282086 1.14833586 0.00243471 0.00000000
3.07818171 0.70449153 -0.00157066 0.00000000
3.44872720 1.33155794 0.00322115 0.00000000
1.72985228 0.08149122 -0.00057076 0.00000000
1.55557302 0.58837811 0.00267971 0.00000000
3.27708089 0.96116116 -0.00444176 0.00000000
3.94503900 0.44948327 -0.00103932 0.00000000
0.00304936 0.53195521 0.00020857 0.00000000
1.91846389 0.81170840 0.00176287 0.00000000
1.58770453 0.15385085 0.00129653 0.00000000
2.49674566 0.99738622 -0.00156213 0.00000000
1.90670672 0.73329921 -0.00098518 0.00000000
2.87923944 1.57575748 0.00255765 0.00000000
1.80029283 0.33005835 -0.00038434 0.00000000
1.64017412 1.21727107 -0.00329063 0.00000000
0.19772962 1.47107769 0.00025079 0.00000000
0.83528312 0.11417246 -0.00342619 0.00000000
2.03107689 1.00103442 -0.00254315 0.00000000
2.20025794 0.47704066 -0.00072361 0.00000000
2.66602813 1.25628643 -0.00259332 0.00000000
1.43071244 0.84738290 0.00371274 0.00000000
1.89353635 0.87663425 0.00304893 0.00000000
1.84650433 0.12924582 0.00109948 0.00000000
3.50630540 1.50191395 -0.00030394 0.00000000
2.04932642 1.14636121 -0.00214219 0.00000000
2.53613301 0.49706885 0.00263965 0.00000000
1.53035436 1.54206886 0.00158843 0.00000000
0.60463248 0.49199838 0.00299734 0.00000000
0.34482544 0.44652966 -0.00077318 0.00000000
1.64450210 0.18010745 -0.00198243 0.00000000
0.11841343 1.04484922 0.00331249 0.00000000
3.59731185 0.91344696 0.00142504 0.00000000
3.94762691 1.41910307 -0.00375242 0.00000000
3.27694349 0.32819242 -0.00494412 0.00000000
1.47038826 0.25806675 0.00294622 0.00000000
3.87182227 1.22153149 0.00281905 0.00000000
0.09820582 1.45285390 -0.00083655 0.00000000
0.54095050 0.15825775 0.00070314 0.00000000
2.22710749 1.45089623 -0.00010223 0.00000000
2.35460740 1.03146390 0.00276998 0.00000000
0.89108585 1.17634609 -0.00041718 0.00000000
1.16612494 0.99504417 0.00326209 0.00000000
2.59211700 1.12576378 0.00174938 0.00000000
2.06606351 0.86044469 0.00076848 0.00000000
4.10371789 0.13233967 -0.00014470 0.00000000
1.94931731 0.76683165 -0.00033085 0.00000000
4.03374930 0.29681770 -0.00107029 0.00000000
0.04985642 1.54746957 0.00095831 0.00000000
2.98307168 0.59216801 -0.00130743 0.00000000
2.96229368 0.03972239 0.00199471 0.00000000
0.30981270 1.23060130 0.00551326 0.00000000
0.25766530 0.51950844 -0.00438126 0.00000000
1.97485231 1.54826816 -0.00188712 0.00000000
2.65817979 1.13540896 -0.00088197 0.00000000
3.75051141 0.09897110 -0.00052871 0.00000000
0.78627750 0.95229169 0.00167835 0.00000000
2.94881356 1.41034485 0.00195240 0.00000000
1.33551495 0.72454743 -0.00080230 0.00000000
2.28997805 0.18950594 0.00143593 0.00000000
1.29250628 0.95041979 -0.00203321 0.00000000
0.89535540 0.44427994 -0.00132750 0.00000000
2.60964395 1.23766877 0.00048738 0.00000000
2.43075724 1.03483163 0.00497270 0.00000000
2.02927215 0.68714651 0.00041295 0.00000000
3.43293041 0.86192580 0.00043382 0.00000000
0.48199799 1.36051553 0.00022585 0.00000000
0.17899910 0.39450665 0.00357621 0.00000000
2.01389062 1.35646378 -0.00188501 0.00000000
3.09554365 0.62213866 -0.00204502 0.00000000
3.66050655 1.35552303 0.00102952 0.00000000
0.50162971 1.03906135 0.00146547 0.00000000
3.05392204 1.36784641 0.00191491 0.00000000
1.33503092 0.91895535 0.00315898 0.00000000
0.48473377 0.87195586 -0.00129702 0.00000000
1.41537525 1.24300032 0.00129865 0.00000000
0.43591505 1.34434771 -0.00118511 0.00000000
3.54000275 1.51722372 0.00857289 0.00000000
0.25055247 0.79389259 -0.00031559 0.00000000
1.40330146 1.35117673 -0.00431118 0.00000000
2.45444188 0.18471030 -0.00507513 0.00000000
3.43427585 0.99460769 -0.00033349 0.00000000
2.11313367 1.56759866 -0.00015770 0.00000000
1.95172008 0.05670039 -0.00083052 0.00000000
3.73727379 0.27720876 -0.00128479 0.00000000
1.59527466 1.28637745 -0.00272718 0.00000000
0.58309754 0.74899887 0.00197163 0.00000000
4.15368166 0.25975121 -0.00115542 0.00000000
0.21531476 0.52660416 0.00008586 0.00000000
2.31658850 0.02015198 -0.00184039 0.00000000
1.36097467 1.15266307 -0.00115224 0.00000000
3.23472001 0.69076194 0.00534771 0.00000000
0.79476449 1.53708411 0.00437068 0.00000000
3.64928829 1.35442894 -0.00149528 0.00000000
0.83338497 0.08821263 0.00229949 0.00000000
0.00420561 0.39379274 0.00058235 0.00000000
2.38401189 0.56392826 -0.00006290 0.00000000
3.52695639 0.33831056 0.00183174 0.00000000
1.47754498 0.00102867 0.00074862 0.00000000
1.22528766 0.82687938 0.00196363 0.00000000
0.45558969 0.83906974 0.00113805 0.00000000
0.31387434 0.20555297 0.00190305 0.00000000
1.78504460 1.55154830 -0.00109626 0.00000000
1.72755115 1.36499946 -0.00167883 0.00000000
0.59249714 1.11750617 0.00034314 0.00000000
4.00806740 1.32835545 0.00345882 0.00000000
0.75074196 0.19233089 0.00447129 0.00000000
0.29574166 1.10194959 0.00109464 0.00000000
0.62373542 1.27639612 -0.00144002 0.00000000
1.23942700 1.33189159 0.00210244 0.00000000
1.75469038 1.13669061 -0.00279174 0.00000000
3.68003797 0.77939640 -0.00096029 0.00000000
0.34948433 1.51680078 0.00123390 0.00000000
2.29937857 1.05049662 -0.00096169 0.00000000
3.55259072 0.45308529 0.00555292 0.00000000
3.47424747 0.23325958 -0.00654747 0.00000000
2.27534648 1.29758201 -0.00161727 0.00000000
2.08181893 1.36158396 0.00243606 0.00000000
1.01564417 0.45642310 0.00268476 0.00000000
2.80688290 0.18797777 0.00171069 0.00000000
2.00878217 0.53179212 0.00116056 0.00000000
2.92570833 1.45762363 -0.00236296 0.00000000
3.41888701 1.56421074 0.00184711 0.00000000
3.48623594 0.87530499 0.00051332 0.00000000
3.94902387 0.51837490 0.00119050 0.00000000
0.59069224 1.08564983 0.00223085 0.00000000
3.73393868 0.61989943 0.00033706 0.00000000
0.08879554 1.46239344 -0.00057871 0.00000000
1.67479402 0.43537929 0.00345804 0.00000000
1.30269420 0.09256907 0.00100654 0.00000000
0.10687361 1.49165942 0.00192979 0.00000000
3.06876867 0.74569755 0.00302729 0.00000000
0.06088706 0.69771980 -0.00019621 0.00000000
3.14498102 0.34118290 -0.00245093 0.00000000
1.73693941 0.65809451 -0.00354693 0.00000000
1.13866654 0.09246721 0.00095961 0.00000000
0.83074162 0.56502818 -0.00149191 0.00000000
4.05555472 0.31873250 -0.00428843 0.00000000
2.10231051 1.18836308 -0.00193938 0.00000000
0.17155461 1.14988184 0.00312552 0.00000000
3.68502911 0.61355766 -0.00246071 0.00000000
3.05554801 1.54455973 -0.00256800 0.00000000
1.94838736 0.33589032 0.00054374 0.00000000
1.24326849 1.35739930 0.00013557 0.00000000
0.76022909 0.19079695 0.00019812 0.00000000
0.15013285 0.60770570 -0.00023813 0.00000000
2.04642094 0.63903920 -0.00408490 0.00000000
2.87468541 1.22421285 0.00144361 0.00000000
0.99186919 1.36674335 0.00311262 0.00000000
3.48665715 1.00102025 -0.00107909 0.00000000
2.21006951 0.18355775 0.00178053 0.00000000
1.38751342 0.77439901 -0.00610049 0.00000000
2.28907024 1.38352293 0.00114589 0.00000000
2.37243352 0.94802265 -0.00164387 0.00000000
2.75057289 1.16094510 -0.00400396 0.00000000
2.21597252 0.85703384 0.00056221 0.00000000
2.69373060 0.49748146 0.00361922 0.00000000
1.54249077 1.29450137 -0.00287728 0.00000000
3.92125420 0.27391855 0.00398000 0.00000000
3.09413887 0.23037997 0.00145133 0.00000000
0.64115770 1.34255117 0.00236234 0.00000000
3.11048864 1.38978557 0.00202076 0.00000000
2.20567536 1.48264290 0.00078496 0.00000000
0.74518538 1.53822166 -0.00211199 0.00000000
0.54978966 0.45386831 -0.00112040 0.00000000
1.12861816 0.41311382 -0.00157090 0.00000000
1.21162888 1.48143204 -0.00121184 0.00000000
3.30319140 0.46687582 -0.00163075 0.00000000
1.51517656 1.41217268 -0.00129661 0.00000000
1.22417470 1.14553009 -0.00024451 0.00000000
3.61941432 0.15516257 -0.00301492 0.00000000
0.87617474 0.44329836 -0.00089997 0.00000000
2.09216091 0.15935455 0.00220888 0.00000000
2.65247431 1.48626876 0.00125742 0.00000000
0.06198880 1.21340746 0.00323918 0.00000000
3.44587196 0.00957743 -0.00258430 0.00000000
2.78867081 0.55674424 -0.00388996 0.00000000
0.01177142 1.25745905 -0.00143803 0.00000000
1.47368646 1.00778040 -0.00217608 0.00000000
1.22318558 1.49366616 0.00284569 0.00000000
1.28617789 0.39895558 -0.00271556 0.00000000
3.03593209 0.90478855 0.00346284 0.00000000
1.40316504 1.30233531 -0.00081798 0.00000000
2.98303744 0.26973642 0.00068667 0.00000000
3.99663141 1.03449964 0.00083778 0.00000000
0.56171580 0.59771340 0.00358732 0.00000000
0.38827887 0.78607316 0.00148513 0.00000000
2.90047186 0.80188526 -0.00247841 0.00000000
0.10360610 1.50726835 -0.00244833 0.00000000
3.03017726 0.20899814 0.00160266 0.00000000
3.08152413 0.69146496 0.00317091 0.00000000
0.39375360 0.87291489 0.00032739 0.00000000
3.59691122 0.38604534 -0.00492387 0.00000000
1.00025370 0.97741210 -0.00182775 0.00000000
1.42740598 1.18370284 0.00026213 0.00000000
3.24195562 0.94312413 0.00035295 0.00000000
1.54463564 0.04551988 -0.00269981 0.00000000
3.29445891 0.18085968 -0.00378798 0.00000000
3.58403005 0.42529000 0.00227618 0.00000000
3.87957015 0.79997431 0.00116603 0.00000000
2.69882164 1.55314298 0.00076837 0.00000000
1.84811137 1.24490499 0.00374377 0.00000000
2.59620614 1.51996176 -0.00266839 0.00000000
2.59311000 1.47537689 -0.00815261 0.00000000
0.18703594 0.07785326 0.00121710 0.00000000
3.05461932 1.13956220 0.00099866 0.00000000
0.31763287 0.76335249 -0.00141816 0.00000000
3.96135044 1.34822368 0.00247492 0.00000000
2.27885960 0.25689656 -0.00090608 0.00000000
0.50677239 1.38757479 -0.00399919 0.00000000
0.61291099 0.33361109 -0.00218201 0.00000000
3.84855404 0.76193936 0.00145474 0.00000000
0.13864040 1.33837058 -0.00347731 0.00000000
3.02088428 1.48936530 0.00091336 0.00000000
2.31486493 0.42245910 0.00401886 0.00000000
1.86287749 0.95645716 0.00001065 0.00000000
3.16158696 0.79496848 -0.00594814 0.00000000
1.76245662 1.18775968 0.00201696 0.00000000
0.16410686 1.53227626 -0.00021186 0.00000000
0.42191392 1.23770853 0.00055155 0.00000000
2.09250172 0.09037792 0.00300444 0.00000000
2.59784346 0.72315519 0.00091825 0.00000000
3.00734894 0.73902659 -0.00049811 0.00000000
2.24659351 0.00579509 0.00019835 0.00000000
2.54134085 1.16121405 0.00248647 0.00000000
3.03471743 0.75101484 0.00297865 0.00000000
1.22102814 0.99484386 -0.00621139 0.00000000
1.90871509 1.24588737 -0.00217321 0.00000000
3.49046141 1.39375902 -0.00075008 0.00000000
1.42664156 0.59660125 -0.00002163 0.00000000
4.00931549 1.20467606 0.00430726 0.00000000
3.28051845 0.73827706 -0.00079548 0.00000000
0.71536284 0.73677054 0.00070150 0.00000000
3.39892841 0.16075349 -0.00030152 0.00000000
1.32599912 1.07757800 -0.00224195 0.00000000
0.38981439 1.05927437 0.00183177 0.00000000
1.07617850 0.27177402 -0.00195053 0.00000000
0.75392676 1.35486718 -0.00049966 0.00000000
1.01436873 0.93480918 0.00009650 0.00000000
3.16626375 0.40608375 -0.00102637 0.00000000
0.51242643 0.49843246 0.00045140 0.00000000
1.40057372 0.97877076 0.00009375 0.00000000
1.09271619 0.23422868 -0.00261166 0.00000000
0.18717063 0.73340605 0.00159494 0.00000000
1.04543671 1.56748100 0.00294602 0.00000000
3.80128136 1.54898735 0.00267706 0.00000000
2.37842958 0.60884976 -0.00128504 0.00000000
0.45356827 1.23794977 -0.00004943 0.00000000
1.64146631 1.35599128 -0.00241498 0.00000000
1.17402885 0.86609609 -0.00022862 0.00000000
3.27948394 0.90525799 0.00316089 0.00000000
1.06385615 0.33648234 0.00168305 0.00000000
2.12471758 0.49973794 0.00053922 0.00000000
1.61090260 1.23466998 0.00077208 0.00000000
1.57725089 0.11243431 0.00263909 0.00000000
0.74931823 0.92974781 0.00450309 0.00000000
2.24778200 0.25025311 -0.00013024 0.00000000
0.06956763 0.59473466 0.00329660 0.00000000
0.55637645 0.95267948 -0.00444516 0.00000000
3.72146074 1.17535987 -0.00061269 0.00000000
1.46676121 1.23007054 -0.00551798 0.00000000
2.97332478 0.82367925 0.00018506 0.00000000
0.48629305 0.14870926 -0.00459439 0.00000000
1.91034902 0.20005771 -0.00325208 0.00000000
2.47306420 1.29616696 0.00064597 0.00000000
3.72411228 0.82981510 -0.00473818 0.00000000
0.33438927 1.11901385 -0.00121283 0.00000000
3.37480780 0.92812093 0.00073059 0.00000000
0.68732966 0.76557572 0.00091556 0.00000000
0.08097721 1.36427637 -0.00310398 0.00000000
1.02507353 1.18976681 0.00219011 0.00000000
1.88818848 0.30182157 0.00120626 0.00000000
1.83227117 0.33653936 0.00242256 0.00000000
3.05828220 0.45886546 -0.00181937 0.00000000
1.80451071 0.47636291 0.00193164 0.00000000
1.73901211 0.27640028 0.00436261 0.00000000
1.15553434 1.23159891 -0.00061763 0.00000000
3.59090547 0.94753531 0.00362770 0.00000000
1.27236775 1.35873866 -0.00162785 0.00000000
1.76985398 0.94327578 0.00237085 0.00000000
0.01494453 0.53137106 -0.00113542 0.00000000
2.33919164 0.32264850 0.00362670 0.00000000
2.65425397 0.88440513 -0.00117283 0.00000000
3.59742451 0.56750967 0.00186126 0.00000000
0.37800780 0.60210707 0.00346173 0.00000000
2.27790180 0.76811589 -0.00197382 0.00000000
4.04203243 0.37290754 -0.00246953 0.00000000
0.78700526 1.27453555 -0.00052290 0.00000000
3.33246750 0.50639969 -0.00204763 0.00000000
2.54449791 0.44572590 0.00047862 0.00000000
3.67424320 0.19808336 0.00509474 0.00000000
2.61402488 0.72486790 -0.00466125 0.00000000
2.25521288 0.01997679 -0.00124463 0.00000000
2.60184739 0.99079462 -0.00103107 0.00000000
2.87808372 1.42842384 -0.00396843 0.00000000
2.14910258 0.50695066 0.00277222 0.00000000
3.68563316 1.05445722 0.00299729 0.00000000
3.92235452 0.63554308 0.00267394 0.00000000
2.97035249 0.06977679 0.00178938 0.00000000
0.07847513 0.61259051 -0.00270811 0.00000000
1.29212833 1.03181324 0.00316057 0.00000000
1.77782517 0.60700980 0.00026021 0.00000000
3.56598737 1.45842342 0.00353420 0.00000000
1.63123875 0.14990466 0.00362665 0.00000000
3.87822127 1.38149107 -0.00323600 0.00000000
3.39507919 0.24339288 0.00153278 0.00000000
2.14071656 0.13392364 -0.00465860 0.00000000
3.44301558 0.64225997 -0.00349116 0.00000000
1.34281550 0.37371670 -0.00115429 0.00000000
1.69018582 1.22074054 -0.00169689 0.00000000
1.64428733 1.36317173 0.00234191 0.00000000
0.62997036 1.40082851 -0.00621838 0.00000000
2.15308985 0.59380980 0.00117074 0.00000000
2.82392550 1.15354701 -0.00147104 0.00000000
2.30196603 0.36280194 -0.00000902 0.00000000
0.50241146 1.52135064 0.00246460 0.00000000
1.20234459 0.33575492 0.00221234 0.00000000
2.94916980 1.15773009 -0.00005212 0.00000000
2.72697786 0.83502121 0.00425415 0.00000000
3.50469634 1.20546921 -0.00271545 0.00000000
2.84223825 0.73240675 0.00061444 0.00000000
2.77286830 1.48954861 -0.00103981 0.00000000
1.87598467 0.97600586 0.00062186 0.00000000
0.95627401 1.52775035 0.00246726 0.00000000
1.18819337 1.05401798 0.00432879 0.00000000
3.07307486 1.46274981 -0.00033961 0.00000000
3.26974410 0.75420249 0.00082395 0.00000000
3.52132409 0.37318529 -0.00164838 0.00000000
3.82534780 0.31114010 0.00172979 0.00000000
1.13525970 0.38657998 0.00365026 0.00000000
1.10694063 1.15443581 0.00093189 0.00000000
3.08354089 0.72703305 0.00154114 0.00000000
2.16660034 0.38791965 -0.00305266 0.00000000
3.59971683 0.69347735 0.00160456 0.00000000
2.29286306 0.84764171 0.00109877 0.00000000
2.41200395 0.92274570 -0.00247978 0.00000000
0.07550014 0.87032931 0.00309432 0.00000000
2.45095681 0.05501383 0.00309430 0.00000000
1.49021416 1.15383486 0.00174389 0.00000000
3.04393919 0.82146325 -0.00227998 0.00000000
2.54103132 1.51037690 -0.00047651 0.00000000
0.06773519 0.88427557 -0.00046087 0.00000000
0.68682481 1.28831136 -0.00020844 0.00000000
0.97963374 1.51405479 -0.00003279 0.00000000
0.27585686 0.14918902 -0.00065188 0.00000000
0.54331758 0.32045997 0.00037970 0.00000000
0.49712808 0.16309087 0.00344457 0.00000000
0.12479109 0.53250354 0.00158069 0.00000000
1.50046510 0.55022211 -0.00289839 0.00000000
0.57656499 1.34964834 -0.00043126 0.00000000
0.58559448 0.64546516 0.00206723 0.00000000
1.00216549 0.64709419 -0.00132702 0.00000000
3.49245203 0.87428062 0.00212786 0.00000000
3.30865964 1.48199727 -0.00017926 0.00000000
2.99942260 0.06369115 -0.00258705 0.00000000
0.84226298 0.54890835 0.00048357 0.00000000
2.98489020 0.26627598 0.00001682 0.00000000
3.33239724 0.57697161 -0.00076805 0.00000000
1.56684187 0.21964562 -0.00020517 0.00000000
0.91384782 0.87435768 -0.00058014 0.00000000
0.94750978 1.39473596 0.00002991 0.00000000
1.11871515 0.98309468 -0.00304656 0.00000000
4.03377569 0.86092213 -0.00053965 0.00000000
1.04827358 0.82215063 -0.00076272 0.00000000
1.42442825 0.01118259 -0.00147231 0.00000000
1.66105690 0.85536953 0.00082346 0.00000000
2.48624566 1.12799032 0.00092943 0.00000000
2.26276369 0.38792964 -0.00049544 0.00000000
2.92255314 1.43840406 -0.00079401 0.00000000
1.28226472 1.34222732 0.00007856 0.00000000
2.49078239 0.13525467 0.00485370 0.00000000
0.73523618 1.06059346 0.00211890 0.00000000
2.47477046 0.19360895 0.00077661 0.00000000
3.40185997 0.32970472 0.00316747 0.00000000
2.87258025 0.01166732 -0.00213186 0.00000000
2.20399614 0.65598978 -0.00150089 0.00000000
1.44718815 1.56582516 0.00343519 0.00000000
1.85407476 0.99703484 0.00220585 0.00000000
3.55840469 0.60406455 -0.00431019 0.00000000
1.63692817 0.68648664 -0.00243441 0.00000000
2.32962983 0.07872251 -0.00417446 0.00000000
2.40240694 1.25052915 0.00287182 0.00000000
0.29271420 1.26494666 -0.00155781 0.00000000
0.47004147 1.00525865 -0.00208433 0.00000000
0.37454634 1.06646397 0.00244954 0.00000000
0.73395467 0.57288891 0.00359605 0.00000000
3.05627152 0.20436902 0.00532539 0.00000000
2.25251411 1.22734083 -0.00054318 0.00000000
0.55449702 1.47858537 0.00074469 0.00000000
0.40456989 0.76890196 0.00067521 0.00000000
3.68898312 0.01053052 0.00434997 0.00000000
3.46903455 0.58848878 0.00158856 0.00000000
2.04483946 1.44959793 0.00090109 0.00000000
2.55407317 0.61784715 -0.00008641 0.00000000
4.16512030 1.15624710 -0.00291833 0.00000000
3.21347677 1.43939068 0.00018568 0.00000000
3.36465420 0.36108767 0.00051076 0.00000000
4.17730479 0.96800604 -0.00373170 0.00000000
2.29871585 0.51159660 -0.00006226 0.00000000
3.52072278 1.37107073 -0.00282129 0.00000000
0.01478323 0.61296632 0.00390997 0.00000000
3.20541139 0.56880732 -0.00317530 0.00000000
0.15383976 0.98094841 -0.00473996 0.00000000
0.69315822 0.20430655 0.00300911 0.00000000
2.03671541 1.38330434 0.00678819 0.00000000
0.26011237 0.68353908 0.00255051 0.00000000
1.74204695 0.80562145 -0.00032371 0.00000000
3.81876783 0.32481780 -0.00028045 0.00000000
0.32758234 0.63341202 0.00128501 0.00000000
2.23037291 1.47067063 -0.00296180 0.00000000
3.65782041 0.21320311 0.00300065 0.00000000
0.03277975 0.35112135 0.00306581 0.00000000
1.16499304 1.43503704 -0.00012589 0.00000000
3.28989866 0.40850344 -0.00070814 0.00000000
0.87021539 1.09131431 0.00323234 0.00000000
2.22217073 0.52623777 -0.00177839 0.00000000
1.10741692 1.51352718 0.00158044 0.00000000
0.34315993 1.00262513 -0.00551148 0.00000000
1.16743524 0.38541421 0.00258802 0.00000000
1.11250167 0.01201485 -0.00244486 0.00000000
2.24093775 0.11449862 -0.00024938 0.00000000
0.62887051 0.44531544 -0.00224643 0.00000000
2.56993927 0.11481860 0.00491079 0.00000000
3.14919755 0.15666714 -0.00155217 0.00000000
1.25522620 1.24406704 -0.00160992 0.00000000
0.72050233 1.02893242 0.00117798 0.00000000
3.80166107 1.23638308 0.00139766 0.00000000
1.26611989 0.89929293 0.00259755 0.00000000
1.10828492 0.66205435 0.00216751 0.00000000
1.81105359 1.15783995 0.00180062 0.00000000
0.76123598 0.43399313 -0.00149672 0.00000000
1.90718574 1.06970511 0.00229862 0.00000000
0.41262865 0.69830225 -0.00225445 0.00000000
0.09289698 1.17580340 -0.00256358 0.00000000
3.66501217 0.91853277 -0.00369244 0.00000000
1.80390745 0.27692312 0.00101139 0.00000000
2.51566844 0.82431073 0.00024843 0.00000000
2.01131478 0.34598565 -0.00299615 0.00000000
3.97770046 0.06710801 0.00102562 0.00000000
0.38273527 0.21848835 -0.00146546 0.00000000
3.73088297 0.54660159 0.00247433 0.00000000
3.73349529 1.39764506 0.00023458 0.00000000
1.27779705 0.09777807 0.00312227 0.00000000
4.09090171 1.43343162 -0.00244289 0.00000000
2.80515044 0.91636619 -0.00252223 0.00000000
3.44529069 1.10315212 -0.00170561 0.00000000
1.24215664 0.64157194 -0.00002807 0.00000000
3.60699811 1.32056031 0.00191452 0.00000000
1.70904134 0.72620622 -0.00192955 0.00000000
1.19213282 1.07280129 -0.00046664 0.00000000
3.74445413 1.48093638 -0.00025785 0.00000000
1.93869495 1.13526529 -0.00105006 0.00000000
1.32051485 1.27824581 0.00116880 0.00000000
3.11427650 1.24992847 0.00540431 0.00000000
0.01900911 1.11539253 0.00396717 0.00000000
1.45797155 1.42756805 -0.00478840 0.00000000
2.19420520 0.78649964 0.00350965 0.00000000
0.42220545 0.71751591 -0.00096496 0.00000000
0.50231618 1.14933620 0.00037788 0.00000000
0.98919713 1.03616126 -0.00186911 0.00000000
0.64092397 1.52407060 -0.00484893 0.00000000
0.08072189 0.47068991 -0.00078210 0.00000000
2.13450986 1.22923543 0.00092055 0.00000000
1.13683135 1.40312847 0.00522589 0.00000000
1.08037369 0.45699796 -0.00113885 0.00000000
1.89720303 0.34204756 0.00372226 0.00000000
3.97518501 1.29981990 -0.00192833 0.00000000
3.67553435 0.39028911 0.00066182 0.00000000
1.97190974 0.89576433 0.00333609 0.00000000
1.95528331 1.43114170 0.00028885 0.00000000
2.84964741 0.02434804 0.00319998 0.00000000
1.28865294 0.18935192 0.00367905 0.00000000
3.03989008 0.97358560 -0.00002621 0.00000000
2.22886876 0.23494990 0.00271067 0.00000000
2.27450843 1.06857848 -0.00094477 0.00000000
3.53025096 1.28091591 -0.00162535 0.00000000
3.84649290 0.70027005 0.00385079 0.00000000
3.77219186 1.36716691 -0.00325787 0.00000000
3.64351657 0.10833407 0.00067139 0.00000000
3.90083155 0.01866289 0.00322555 0.00000000
0.23754982 1.24104834 -0.00241427 0.00000000
2.74093374 0.19610378 0.00241567 0.00000000
2.45002993 0.43021286 -0.00160898 0.00000000
4.00971115 0.79846793 0.00246564 0.00000000
1.62268862 0.57191643 -0.00099922 0.00000000
0.49372008 1.13119898 0.00019550 0.00000000
0.82161021 0.76604979 -0.00179746 0.00000000
3.15650535 0.04071487 0.00265914 0.00000000
2.72871527 0.75526070 -0.00280140 0.00000000
1.55733447 1.39354523 0.00185091 0.00000000
0.44903383 0.39267641 0.00103006 0.00000000
1.14856653 1.27104133 -0.00446163 0.00000000
1.43904387 1.03801446 -0.00001301 0.00000000
2.38586765 0.95181975 0.00135031 0.00000000
3.44793887 1.32477539 0.00623704 0.00000000
1.79533774 0.44059112 0.00095325 0.00000000
4.06491167 1.01855530 0.00175111 0.00000000
1.50656899 1.15312373 -0.00031336 0.00000000
1.18967796 1.48603266 -0.00090773 0.00000000
0.95851744 0.66672602 -0.00042307 0.00000000
2.41565536 1.41802894 -0.00029613 0.00000000
2.45740809 0.28572351 -0.00299055 0.00000000
2.88638512 0.53441201 -0.00219389 0.00000000
0.18408398 1.14764164 -0.00475226 0.00000000
1.73471938 1.08763417 -0.00028769 0.00000000
2.66498030 0.21508550 -0.00443387 0.00000000
3.24685402 1.29979338 0.00533501 0.00000000
0.86942924 1.12970298 0.00386844 0.00000000
2.27554315 1.17138702 0.00282113 0.00000000
3.55672614 0.79868157 -0.00081284 0.00000000
0.11740229 0.65509925 -0.00608022 0.00000000
2.83704980 0.56457036 0.00028149 0.00000000
3.18988807 1.08576928 -0.00135961 0.00000000
0.52887056 0.38821736 -0.00244702 0.00000000
3.48657276 0.01949898 0.00079551 0.00000000
3.54901175 1.10731945 -0.00131712 0.00000000
2.37651715 0.74677518 -0.00093127 0.00000000
2.67068936 0.81441074 0.00066504 0.00000000
0.55509049 1.49908531 0.00121685 0.00000000
3.16721969 0.35423071 -0.00006156 0.00000000
2.56753523 0.48787258 0.00068941 0.00000000
1.59291803 1.09635102 0.00087345 0.00000000
1.95673568 0.53070339 0.00529552 0.00000000
0.91231516 0.52470975 0.00012588 0.00000000
3.69038214 0.78304570 -0.00099545 0.00000000
1.89311422 0.27390828 0.00231947 0.00000000
1.68451688 1.16899844 0.00235485 0.00000000
1.22039790 0.11532927 0.00085438 0.00000000
2.67364626 0.55115904 0.00049991 0.00000000
3.59861062 0.02033168 -0.00472747 0.00000000
0.92868783 0.72774527 -0.00069472 0.00000000
0.65216500 0.80715188 0.00207953 0.00000000
2.95510796 0.10536778 -0.00244853 0.00000000
0.15803050 1.19592485 -0.00107165 0.00000000
1.70934673 1.20005609 0.00130259 0.00000000
3.72957535 0.58710536 -0.00100617 0.00000000
3.47967630 1.33043971 0.00637206 0.00000000
3.42438692 1.38365472 0.00077315 0.00000000
1.75248048 1.42740598 0.00648029 0.00000000
3.87942001 0.85690588 -0.00412475 0.00000000
3.05320148 0.89914482 -0.00047206 0.00000000
0.84168403 0.01248371 -0.00183537 0.00000000
2.77001046 1.57681852 0.00239176 0.00000000
2.30460635 1.14498936 0.00162265 0.00000000
2.26525928 0.24828368 0.00059608 0.00000000
3.15951683 1.33954618 0.00028638 0.00000000
0.46710386 0.77147317 -0.00384497 0.00000000
3.26022285 0.12226098 0.00409326 0.00000000
0.22779890 1.37550824 0.00431717 0.00000000
2.66088739 0.36619144 0.00305363 0.00000000
1.19195420 0.81824124 0.00346878 0.00000000
0.81670016 0.85998029 -0.00026064 0.00000000
1.11864340 0.65592285 0.00140275 0.00000000
3.07100492 0.17777551 -0.00403773 0.00000000
4.00084253 1.19916386 -0.00649813 0.00000000
1.56231834 0.40610267 -0.00149589 0.00000000
2.14490160 1.30172242 -0.00112223 0.00000000
1.77916975 1.49449208 -0.00120795 0.00000000
2.09042314 0.12296253 -0.00012461 0.00000000
0.18801597 1.27301074 0.00292295 0.00000000
3.65865746 0.93864180 -0.00183442 0.00000000
2.86839857 1.14210215 0.00165667 0.00000000
2.08241751 0.74167673 -0.00109246 0.00000000
0.85685561 1.16617507 0.00711060 0.00000000
3.36113734 0.22528983 0.00051027 0.00000000
2.67329146 1.38059362 0.00075441 0.00000000
1.66428884 0.41826468 0.00194849 0.00000000
0.36451970 0.77388042 0.00226530 0.00000000
2.74697659 0.91888177 0.00179887 0.00000000
3.13344062 1.55489653 0.00078076 0.00000000
1.94083979 1.39917826 0.00759352 0.00000000
0.86381511 1.11423871 -0.00024004 0.00000000
2.69805207 0.30175926 -0.00097787 0.00000000
4.06380600 0.58561065 -0.00384045 0.00000000
0.82478322 0.36127398 -0.00021893 0.00000000
1.04661450 0.00585325 -0.00059122 0.00000000
1.33327613 1.34265737 -0.00030655 0.00000000
3.32314460 0.12743238 -0.00327271 0.00000000
4.10405549 1.46368865 -0.00018985 0.00000000
2.05308762 0.73732551 0.00060624 0.00000000
0.57275188 1.10886591 0.00543090 0.00000000
3.79159873 0.48197077 -0.00007091 0.00000000
1.53553074 1.31037808 -0.00018002 0.00000000
3.99040360 0.26307106 -0.00177904 0.00000000
0.16535314 1.31450944 -0.00087705 0.00000000
0.81734438 1.24136827 -0.00500339 0.00000000
0.69560099 0.38803109 0.00204787 0.00000000
2.78591806 0.59697710 -0.00031114 0.00000000
2.12451379 0.84274667 0.00017870 0.00000000
3.33004653 0.36991625 -0.00014221 0.00000000
0.34682174 1.45976941 -0.00299599 0.00000000
2.67437171 1.33950165 -0.00096087 0.00000000
0.23005007 0.58204219 0.00296838 0.00000000
2.85204636 1.14036979 -0.00042157 0.00000000
0.66735335 0.93550709 -0.00033877 0.00000000
3.12507526 0.02547391 -0.00604561 0.00000000
1.80153719 0.73518822 0.00085293 0.00000000
0.01343402 0.50359089 0.00499149 0.00000000
0.51970984 0.36739485 -0.00028541 0.00000000
0.39052988 0.25627078 -0.00334334 0.00000000
0.31352850 1.57669427 -0.00197754 0.00000000
2.11962279 1.52983554 0.00110517 0.00000000
1.55155567 1.17301876 -0.00148158 0.00000000
0.05948210 1.15892725 -0.00099932 0.00000000
2.43194350 0.80103073 -0.00195782 0.00000000
3.02363054 1.26877109 0.00069694 0.00000000
0.28032150 1.05528682 -0.00051561 0.00000000
0.62700439 0.90127491 0.00547559 0.00000000
3.19966312 0.44586749 0.00111101 0.00000000
3.47557448 1.16719198 0.00496439 0.00000000
1.50541478 1.07480969 -0.00051413 0.00000000
3.01423995 0.93853616 0.00033156 0.00000000
1.77615882 1.57056089 -0.00121950 0.00000000
0.89018984 0.24250011 -0.00071021 0.00000000
2.20974478 0.92551368 -0.00051983 0.00000000
2.56058263 1.21790548 -0.00183794 0.00000000
0.69349219 0.66941861 -0.00508063 0.00000000
1.47611609 1.21899640 0.00274584 0.00000000
0.94755621 0.43794402 -0.00034668 0.00000000
0.79259200 1.22128578 -0.00213176 0.00000000
2.87077313 0.36238512 -0.00350603 0.00000000
4.14860190 0.67723718 -0.00199769 0.00000000
3.48432844 0.04218699 -0.00198155 0.00000000
2.22109888 0.88716077 -0.00304582 0.00000000
2.76441427 1.34625824 -0.00117229 0.00000000
3.34643878 1.43437152 0.00156839 0.00000000
2.17544061 0.35982640 -0.00071720 0.00000000
1.11325670 0.48785924 -0.00038955 0.00000000
0.09952792 0.95759237 0.00076099 0.00000000
3.57454513 0.04111385 -0.00094053 0.00000000
3.19554346 0.97320574 0.00286770 0.00000000
2.69981516 0.61135445 0.00442870 0.00000000
1.81924628 1.24296432 0.00015607 0.00000000
1.52665992 0.98786107 -0.00041286 0.00000000
2.89936895 0.35359082 -0.00359350 0.00000000
2.53721081 0.91160614 -0.00008098 0.00000000
1.22897936 1.25262340 -0.00109327 0.00000000
3.22626087 1.46354611 -0.00145556 0.00000000
1.27459701 1.12146063 0.00109551 0.00000000
0.58671386 1.31855015 -0.00053516 0.00000000
2.51602900 1.34950752 -0.00287893 0.00000000
2.41072317 0.22084290 -0.00017258 0.00000000
0.46892775 1.47797951 0.00364853 0.00000000
2.63765351 0.30055440 0.00054726 0.00000000
2.38703278 0.09733692 -0.00002521 0.00000000
3.99602221 1.27589082 -0.00248366 0.00000000
1.42647201 0.77635223 0.00365816 0.00000000
3.73253110 0.08667447 -0.00100451 0.00000000
0.59351062 1.45552538 -0.00157607 0.00000000
0.93866383 0.51837092 -0.00501149 0.00000000
0.14285463 0.16638093 -0.00098354 0.00000000
2.93734525 1.46948678 0.00542632 0.00000000
3.54302066 1.51127834 -0.00273345 0.00000000
1.05660252 0.62123289 -0.00138790 0.00000000
0.25425530 1.22595800 -0.00062130 0.00000000
0.71719021 0.86520164 -0.00062668 0.00000000
2.23706893 0.97621630 0.00094590 0.00000000
1.56221846 0.46177574 -0.00273502 0.00000000
0.43034646 1.50588724 0.00224124 0.00000000
0.31828539 1.00547249 0.00017371 0.00000000
2.26016595 0.16196133 0.00719640 0.00000000
0.58306329 0.91949782 -0.00235329 0.00000000
2.39167043 0.22590424 -0.00361290 0.00000000
2.80779254 1.23329787 0.00361440 0.00000000
3.73663435 0.85524754 -0.00316815 0.00000000
0.50702708 0.73255326 -0.00215506 0.00000000
3.96697484 1.14205793 0.00122515 0.00000000
2.90810046 0.92524827 -0.00393968 0.00000000
1.38590530 0.59937404 0.00321179 0.00000000
3.22636111 1.10767118 0.00173735 0.00000000
1.42063773 0.25820750 0.00177298 0.00000000
0.06866554 0.96661017 0.00450873 0.00000000
0.94475317 1.51405672 -0.00182732 0.00000000
3.96812442 1.35551610 0.00335411 0.00000000
3.56002740 0.16690903 0.00309662 0.00000000
3.05602687 1.52236219 0.00219046 0.00000000
3.63262469 1.43361967 -0.00431032 0.00000000
3.39683439 1.55569012 0.00141757 0.00000000
3.10825207 0.68288231 -0.00261729 0.00000000
2.00097344 1.05069102 -0.00606444 0.00000000
1.06001766 0.80699089 -0.00322477 0.00000000
2.50597209 0.91889938 0.00102141 0.00000000
3.57240377 0.96192099 0.00076065 0.00000000
3.11759721 1.52978741 -0.00289395 0.00000000
2.89077293 0.87945864 -0.00110583 0.00000000
3.91096664 1.57890505 -0.00105179 0.00000000
0.79611578 1.31051467 -0.00558611 0.00000000
2.16832904 1.54605006 0.00030167 0.00000000
0.71083710 0.69241380 -0.00033796 0.00000000
3.31740560 0.29524072 0.00485441 0.00000000
1.81338524 0.27378506 0.00208261 0.00000000
0.91533087 0.95362433 0.00453697 0.00000000
1.37275769 0.19385392 0.00093563 0.00000000
1.59678082 0.86665630 0.00276112 0.00000000
0.77167449 0.86717289 0.00184415 0.00000000
0.60846677 0.89906024 -0.00312111 0.00000000
0.45992558 0.28842068 -0.00083108 0.00000000
1.08577344 1.40857635 -0.00222483 0.00000000
2.30469075 1.43275567 0.00025097 0.00000000
3.05404170 1.54909770 -0.00069751 0.00000000
0.86186906 0.03715226 0.00236739 0.00000000
2.34611695 0.12023595 -0.00342729 0.00000000
1.67571492 1.54178385 0.00191932 0.00000000
3.21122680 1.40380603 0.00059746 0.00000000
3.55495155 0.31178385 0.00409012 0.00000000
3.14223772 0.61479955 0.00046318 0.00000000
2.13515315 0.75132207 0.00139421 0.00000000
1.94721351 1.34111868 -0.00354862 0.00000000
0.96195554 0.72126412 -0.00055825 0.00000000
0.92076169 1.13421319 -0.00222028 0.00000000
0.52169644 0.55304774 -0.00562377 0.00000000
0.55333813 0.58889143 0.00135229 0.00000000
1.64344842 0.16323337 -0.00649168 0.00000000
1.08703489 0.98527671 -0.00180489 0.00000000
3.09355144 1.47953320 0.00072993 0.00000000
1.22822875 1.03776793 0.00252626 0.00000000
1.19501683 0.94492615 0.00377520 0.00000000
1.74038661 1.04145196 0.00032311 0.00000000
3.55398929 0.22521486 -0.00073948 0.00000000
1.10561320 0.03855851 0.00222467 0.00000000
0.09446951 0.74142195 0.00153255 0.00000000
0.77371357 0.48336506 0.00232432 0.00000000
1.03101712 1.46033200 0.00107319 0.00000000
3.91315802 0.30114009 -0.00103426 0.00000000
2.47441370 0.58654321 0.00035708 0.00000000
0.37929323 0.63148386 -0.00116469 0.00000000
0.06927991 1.56383379 -0.00192857 0.00000000
4.02030276 0.46292841 -0.00552204 0.00000000
0.19162375 0.70579358 0.00253394 0.00000000
0.46518779 0.78408680 -0.00282804 0.00000000
2.64503345 0.66503236 0.00564975 0.00000000
0.72230298 1.41175844 0.00364454 0.00000000
2.43466890 0.46936461 -0.00061698 0.00000000
2.49904287 1.43804061 0.00402907 0.00000000
0.98847974 0.98961758 -0.00448525 0.00000000
1.42847383 0.95650630 -0.00185561 0.00000000
0.27232010 0.46768047 -0.00320028 0.00000000
3.34013767 0.12928587 -0.00275282 0.00000000
0.70522899 1.52720529 0.00190924 0.00000000
2.74020801 0.12714052 0.00023610 0.00000000
0.25941996 0.36650076 -0.00081942 0.00000000
0.57779738 1.04424299 -0.00553778 0.00000000
2.72261291 1.53581905 0.00027426 0.00000000
1.32026111 0.63882419 0.00027173 0.00000000
3.31897181 0.65641845 0.00574122 0.00000000
1.74678931 0.46710262 -0.00166880 0.00000000
1.53531173 0.50444746 -0.00312888 0.00000000
0.93296480 0.22184745 0.00223513 0.00000000
2.66341875 1.09075541 -0.00115871 0.00000000
1.70166881 0.59077066 -0.00171352 0.00000000
2.03362917 0.05501331 0.00212415 0.00000000
2.81541267 0.77127792 -0.00334936 0.00000000
0.96802452 0.60152819 0.00044784 0.00000000
1.02513096 0.18967723 0.00005723 0.00000000
2.18492854 0.98678354 0.00081635 0.00000000
3.36160881 1.17264613 0.00215413 0.00000000
0.25367495 1.03700998 -0.00464765 0.00000000
3.42870105 1.08900561 -0.00050526 0.00000000
2.66920079 0.56836835 0.00482634 0.00000000
3.86491635 0.83217001 0.00724239 0.00000000
1.49188894 0.99804443 -0.00238288 0.00000000
0.23750760 0.46768038 0.00395809 0.00000000
3.62264760 1.48692916 0.00101460 0.00000000
0.63316545 1.39977587 -0.00492917 0.00000000
3.06453856 1.46044431 -0.00125212 0.00000000
3.51665115 1.17994861 0.00090939 0.00000000
1.85931601 0.94581836 0.00135457 0.00000000
0.20968770 0.36222384 -0.00197926 0.00000000
3.52179798 0.50353617 -0.00533408 0.00000000
0.23730156 0.29905733 -0.00257528 0.00000000
1.23265902 0.71943012 -0.00159601 0.00000000
1.87092785 1.55108435 0.00049792 0.00000000
0.05187582 0.15782980 0.00198111 0.00000000
2.09895935 0.30871737 0.00063689 0.00000000
1.97141666 0.46223023 -0.00136187 0.00000000
1.50129263 0.41424040 0.00040081 0.00000000
2.84273804 0.00097972 0.00450644 0.00000000
3.97319924 1.06370019 -0.00221360 0.00000000
3.20592244 0.40458997 0.00165823 0.00000000
0.36141453 1.22804396 0.00137107 0.00000000
3.19118326 0.95366490 -0.00213337 0.00000000
0.69230104 0.17984379 0.00163424 0.00000000
2.14717965 1.19249818 -0.00281146 0.00000000
0.14601967 0.61051507 0.00046341 0.00000000
1.20184591 0.50824326 -0.00051536 0.00000000
0.83750931 1.36352877 -0.00020783 0.00000000
3.12246110 1.00297477 -0.00071410 0.00000000
1.95551823 1.43129932 0.00383780 0.00000000
1.88850439 1.12915603 -0.00048336 0.00000000
2.93798096 0.02333085 0.00066783 0.00000000
0.87590782 0.79258336 0.00039824 0.00000000
1.99385970 0.85592389 0.00398143 0.00000000
1.32869820 0.35342177 0.00208510 0.00000000
0.12689435 1.31080983 0.00064518 0.00000000
1.37727775 0.11785504 0.00120103 0.00000000
0.99484070 0.51944586 0.00168896 0.00000000
0.48456509 0.62829014 0.00160737 0.00000000
2.02317998 0.89860634 0.00064539 0.00000000
0.32640823 1.03628274 0.00343964 0.00000000
0.60976843 0.99860507 0.00178018 0.00000000
2.82257469 0.66592907 -0.00081570 0.00000000
0.20369424 0.64123196 -0.00502866 0.00000000
2.50560976 0.02421227 -0.00543823 0.00000000
3.58560266 0.35736262 -0.00396649 0.00000000
2.94219103 1.21223281 0.00318687 0.00000000
3.02396027 1.03049183 0.00438946 0.00000000
2.84378147 0.98771225 0.00327586 0.00000000
2.36470236 0.95827433 -0.00358163 0.00000000
3.07398504 0.70732162 -0.00236286 0.00000000
3.58819725 1.51161943 0.00047200 0.00000000
2.53894229 1.18535114 -0.00060764 0.00000000
1.52098559 0.18178474 -0.00072433 0.00000000
1.13158348 1.17024844 -0.00264434 0.00000000
2.53046464 0.03602675 -0.00461195 0.00000000
3.36631183 1.28903713 0.00362126 0.00000000
3.03525132 0.11572501 -0.00551381 0.00000000
1.85555474 0.80773384 0.00240166 0.00000000
0.26541651 1.40567485 -0.00365457 0.00000000
0.47163669 1.49733525 0.00425301 0.00000000
3.09103421 0.33000696 0.00003761 0.00000000
3.62952673 0.42185332 0.00154774 0.00000000
3.06512870 1.51275982 0.00043197 0.00000000
1.17460926 1.55911068 -0.00210920 0.00000000
1.51894418 0.96406121 -0.00245036 0.00000000
0.82632276 0.51576441 -0.00154765 0.00000000
4.04534688 1.49135514 0.00203335 0.00000000
2.03973755 0.12663618 0.00036705 0.00000000
2.83337534 0.17013867 -0.00136613 0.00000000
2.30146249 1.23316587 -0.00390701 0.00000000
2.83756245 0.67953943 -0.00171462 0.00000000
0.54160024 0.23283505 -0.00205421 0.00000000
0.72050565 0.85738330 -0.00177628 0.00000000
2.06826655 1.22327613 -0.00184272 0.00000000
1.75455155 1.31070462 -0.00350274 0.00000000
3.12319529 0.85876129 0.00153376 0.00000000
0.47630777 1.51679807 -0.00045850 0.00000000
0.05455059 1.39467293 -0.00015062 0.00000000
0.26475437 0.12846848 -0.00133384 0.00000000
0.18362221 0.10739643 -0.00284341 0.00000000
1.77238369 0.58378533 -0.00193511 0.00000000
3.31007095 0.36770450 -0.00091794 0.00000000
2.32733279 0.00801078 -0.00431818 0.00000000
2.86728914 0.11857796 -0.00078931 0.00000000
2.79399149 1.34524507 -0.00177735 0.00000000
2.44459265 0.41190531 0.00183624 0.00000000
0.47425095 0.89810482 0.00468939 0.00000000
2.20346673 1.27743980 0.00338997 0.00000000
2.05088810 0.87656973 -0.00416758 0.00000000
2.76566414 1.13073860 0.00147114 0.00000000
2.58173193 1.30922361 0.00075566 0.00000000
1.50067183 0.27846642 -0.00144271 0.00000000
0.50171709 0.60286732 -0.00047427 0.00000000
3.89244838 1.50611406 0.00170935 0.00000000
1.50541271 0.19794135 0.00040469 0.00000000
3.77734344 0.84391656 -0.00571522 0.00000000
0.98689153 0.60639540 0.00552633 0.00000000
1.20827219 1.38507031 0.00568757 0.00000000
3.41218082 1.16238144 -0.00022966 0.00000000
1.49531381 1.30265459 -0.00185822 0.00000000
2.04360282 1.57765254 0.00048005 0.00000000
2.59075936 0.28439987 -0.00065385 0.00000000
3.94575627 0.75393803 0.00032487 0.00000000
2.34943854 0.24589468 -0.00458762 0.00000000
3.64794700 1.47882500 0.00111789 0.00000000
0.74396375 0.77107794 -0.00031907 0.00000000
3.48490814 0.63811579 -0.00034746 0.00000000
3.66200853 0.41173562 0.00031053 0.00000000
1.39176081 0.10747994 0.00065962 0.00000000
1.77075730 1.37340800 0.00027473 0.00000000
0.72615139 0.93408250 -0.00019639 0.00000000
2.10621339 0.23913899 0.00269637 0.00000000
1.70644274 0.51751888 0.00166766 0.00000000
0.48318490 1.48102299 0.00302636 0.00000000
1.66572331 0.92851717 -0.00142166 0.00000000
3.55539369 0.11143947 -0.00002656 0.00000000
1.42170747 1.29645324 0.00116820 0.00000000
0.24053550 1.18712163 0.00122079 0.00000000
2.74688188 0.70935081 0.00374956 0.00000000
3.07466609 0.79399988 -0.00622052 0.00000000
0.27769876 0.32495528 -0.00232432 0.00000000
2.32665590 1.48198007 -0.00063675 0.00000000
2.15908133 0.16317911 -0.00264432 0.00000000
2.05681081 0.26906729 0.00569953 0.00000000
0.30997543 0.92473247 0.00101503 0.00000000
2.09433084 0.92998422 -0.00087211 0.00000000
0.55331367 0.91573194 -0.00513418 0.00000000
1.01187690 0.31763475 0.00301173 0.00000000
2.06673561 0.33500393 -0.00025814 0.00000000
2.16705685 0.81227248 0.00535514 0.00000000
0.58463180 0.31340544 -0.00090374 0.00000000
1.19694587 1.51731350 0.00094153 0.00000000
1.75408814 0.62995528 0.00078940 0.00000000
1.18269435 0.24138962 -0.00388449 0.00000000
2.40190530 0.39451435 0.00032298 0.00000000
1.57805783 0.44025239 -0.00384173 0.00000000
4.01831373 0.00563677 0.00105513 0.00000000
0.71845319 1.44766848 -0.00058630 0.00000000
3.30977810 0.67932607 0.00080505 0.00000000
3.47820139 1.52888840 -0.00030348 0.00000000
3.31890604 0.35418581 0.00216044 0.00000000
1.42492862 0.80925625 0.00118019 0.00000000
2.47961880 0.60527533 0.00226658 0.00000000
0.16624063 0.37724382 -0.00107421 0.00000000
0.67631405 1.05037207 0.00181826 0.00000000
0.84050734 0.02192476 0.00038586 0.00000000
1.02763909 0.46927971 0.00075135 0.00000000
2.38391069 1.48469943 0.00220504 0.00000000
0.63011732 0.96917894 -0.00384442 0.00000000
2.04759228 0.90936532 0.00206830 0.00000000
0.71300575 1.03850182 -0.00105768 0.00000000
3.79154381 1.13598586 0.00130861 0.00000000
1.24784125 0.13440965 0.00026279 0.00000000
0.54812047 0.10447357 0.00168755 0.00000000
2.33700394 0.20700615 -0.00252130 0.00000000
3.55750441 1.30603469 -0.00061944 0.00000000
2.82648256 0.00969568 0.00181370 0.00000000
1.80705227 0.00671130 -0.00208015 0.00000000
2.90057275 0.49988201 -0.00100421 0.00000000
0.89885766 0.17988044 -0.00325383 0.00000000
2.08997608 0.49471060 0.00121075 0.00000000
1.53202130 0.79695626 0.00152713 0.00000000
0.26880111 0.27089943 0.00337792 0.00000000
1.25537556 0.81824243 0.00127320 0.00000000
3.57757495 1.00260213 0.00219535 0.00000000
2.93494889 1.45625995 0.00111016 0.00000000
2.13548370 1.09116493 -0.00207911 0.00000000
3.01557348 0.88610697 0.00207062 0.00000000
2.68641001 1.17633707 0.00207184 0.00000000
3.40442158 1.25187542 0.00096969 0.00000000
0.69569079 1.43183843 -0.00447804 0.00000000
1.27815163 0.13279513 0.00483978 0.00000000
4.17654286 0.14789239 -0.00096017 0.00000000
3.68868963 0.34449089 0.00239512 0.00000000
1.67150842 1.30241722 0.00395039 0.00000000
4.13655219 0.63987771 0.00434796 0.00000000
1.10076772 1.51469029 -0.00149804 0.00000000
2.26922159 0.82435354 -0.00094400 0.00000000
3.24850136 0.73023412 -0.00357040 0.00000000
3.69554569 0.52321276 -0.00108981 0.00000000
3.79148442 0.95373360 0.00101058 0.00000000
3.36831382 0.90273262 0.00057119 0.00000000
3.19612451 1.08155665 -0.00067656 0.00000000
0.86515120 1.35661547 -0.00325129 0.00000000
2.48574726 1.15585529 -0.00151660 0.00000000
1.46565686 0.07645893 -0.00183751 0.00000000
1.95499005 0.96367328 0.00304780 0.00000000
1.35647505 0.75803724 -0.00271482 0.00000000
2.45354005 1.49207913 0.00234954 0.00000000
2.31783604 0.34167300 -0.00194724 0.00000000
2.55386310 0.09523540 0.00043830 0.00000000
2.34144450 1.24453041 -0.00311150 0.00000000
2.39172526 0.37388892 -0.00144886 0.00000000
0.52849201 0.48525937 -0.00165639 0.00000000
1.03536017 0.58854082 0.00261957 0.00000000
1.69253258 0.82960292 0.00090720 0.00000000
2.00081653 0.66475274 -0.00215872 0.00000000
1.46712595 0.57861146 0.00027396 0.00000000
0.94912882 1.31655272 -0.00275200 0.00000000
4.01696628 1.07469665 -0.00263866 0.00000000
0.67693822 0.90015511 -0.00174043 0.00000000
0.17440754 0.81800951 0.00053713 0.00000000
3.48979038 0.73325244 0.00417785 0.00000000
1.75381545 1.50075201 -0.00084055 0.00000000
1.49355466 0.70458075 0.00123851 0.00000000
0.16255146 0.43406399 -0.00076108 0.00000000
4.15063753 0.83006712 0.00190296 0.00000000
3.91997457 1.43934352 -0.00224607 0.00000000
3.07395403 0.57637018 0.00033108 0.00000000
2.21853846 0.16818846 -0.00200647 0.00000000
1.58593181 0.62200738 0.00264122 0.00000000
2.92342416 0.61597438 -0.00414990 0.00000000
2.39349034 1.29385956 -0.00065467 0.00000000
0.46201628 0.53359582 -0.00117228 0.00000000
3.91389767 0.27448112 -0.00095733 0.00000000
1.09847375 0.82657323 0.00161226 0.00000000
1.12394760 1.10937926 0.00227937 0.00000000
3.34321675 0.74096617 0.00339171 0.00000000
2.94123545 0.16512526 0.00236061 0.00000000
3.86577532 0.83038142 0.00296177 0.00000000
2.30566773 0.37841528 0.00520387 0.00000000
1.07313460 0.36248097 0.00140283 0.00000000
1.30513212 0.25610301 0.00192227 0.00000000
1.73946777 0.89526168 0.00216212 0.00000000
0.95843957 0.85843058 0.00274656 0.00000000
0.88206651 0.97065578 -0.00314323 0.00000000
2.64601822 0.31743322 0.00437805 0.00000000
1.17554430 1.50719285 -0.00017880 0.00000000
0.08201813 0.53581041 -0.00073435 0.00000000
1.24477590 1.05850904 0.00227413 0.00000000
3.82827106 0.51736276 0.00327779 0.00000000
2.01591660 0.10546583 -0.00131480 0.00000000
3.68338850 0.12815190 0.00199665 0.00000000
0.78229328 0.95769610 0.00125969 0.00000000
0.03954030 0.95021142 0.00150336 0.00000000
3.60081630 0.08584243 0.00013278 0.00000000
1.43907647 1.02515784 0.00185006 0.00000000
1.59820354 0.74278449 0.00155443 0.00000000
1.52122819 0.51738617 0.00050457 0.00000000
2.11637196 1.22813120 -0.00064855 0.00000000
2.67911176 1.33000250 -0.00177556 0.00000000
1.72302763 1.10438184 0.00456802 0.00000000
0.78702817 0.24648880 0.00037061 0.00000000
3.97861215 1.00472463 -0.00132344 0.00000000
3.58646148 0.06244069 -0.00171478 0.00000000
1.34574389 0.31939578 0.00788878 0.00000000
3.71530147 0.29617428 0.00215291 0.00000000
0.79258373 1.47651495 -0.00136956 0.00000000
3.85423431 1.16390106 0.00129918 0.00000000
2.30036325 0.34456103 -0.00008296 0.00000000
3.89707523 1.32927947 -0.00171707 0.00000000
2.46097535 0.14771360 -0.00032217 0.00000000
2.48570599 0.38309323 -0.00098681 0.00000000
3.40938159 1.42726184 -0.00046976 0.00000000
2.83059378 0.98585354 0.00213222 0.00000000
0.79227133 0.98984995 0.00069096 0.00000000
3.78731124 0.13602436 -0.00086234 0.00000000
1.64411922 1.46769051 -0.00042122 0.00000000
3.64358818 0.92556393 -0.00468362 0.00000000
2.46720672 1.32640113 0.00102930 0.00000000
2.38957801 1.47859241 0.00104551 0.00000000
2.87530910 0.58131963 0.00041502 0.00000000
3.24403166 0.52595094 0.00096655 0.00000000
1.48132257 0.28852852 -0.00030422 0.00000000
1.54655410 1.17669571 0.00029556 0.00000000
1.70866049 0.60628383 -0.00197842 0.00000000
3.46113785 0.02244207 0.00085302 0.00000000
3.96752152 0.82080127 -0.00231490 0.00000000
1.98107818 1.18597684 0.00155331 0.00000000
3.48207999 1.21964343 0.00299321 0.00000000
2.69248940 0.65560846 0.00015768 0.00000000
3.35179061 0.11589476 -0.00041057 0.00000000
1.43586659 1.53302960 -0.00186354 0.00000000
3.20267006 0.34624249 0.00019715 0.00000000
2.22097866 1.37122466 -0.00363671 0.00000000
3.68754695 0.66173015 0.00441508 0.00000000
2.78159197 1.22381197 0.00379073 0.00000000
2.59868213 1.08866488 -0.00337233 0.00000000
0.91577224 0.57651436 0.00242105 0.00000000
3.60152621 0.10504855 0.00050721 0.00000000
1.19533749 0.33019315 -0.00331446 0.00000000
3.42314243 1.24745710 -0.00657783 0.00000000
