0.498884 0.301452 0.005901 0.0
1.569043 1.407704 -0.004290 0.0
0.063509 1.071846 0.001824 0.0
0.584528 2.257131 0.001189 0.0
1.182512 1.535212 -0.003401 0.0
2.100016 2.253571 -0.002284 0.0
3.955545 2.377990 0.002549 0.0
1.077956 1.671039 -0.001720 0.0
4.249698 0.362111 0.001208 0.0
0.038991 0.414383 0.002617 0.0
1.433274 2.103624 0.002360 0.0
0.810876 0.625481 -0.000867 0.0
2.583771 0.599986 0.005140 0.0
2.280455 0.930699 0.005599 0.0
2.263337 0.558761 0.003742 0.0
4.177438 2.049769 0.001789 0.0
0.152564 0.044155 0.002259 0.0
1.108769 1.644612 0.000653 0.0
2.048646 1.366318 -0.003326 0.0
2.528925 0.621013 0.001553 0.0
1.313585 1.390868 0.002916 0.0
0.037435 2.204498 0.004152 0.0
2.811884 0.903868 0.001969 0.0
1.479036 1.627141 -0.001155 0.0
3.781157 1.026676 0.002423 0.0
1.779366 0.159961 0.000919 0.0
0.268767 1.638506 -0.004640 0.0
4.304425 0.236189 -0.000132 0.0
1.466639 2.272596 -0.001895 0.0
2.883582 1.857271 0.002206 0.0
4.407813 0.718463 0.001185 0.0
0.771234 1.021186 -0.000499 0.0
1.959616 1.965591 -0.001350 0.0
0.723220 1.256088 -0.002786 0.0
3.016833 0.423545 0.000395 0.0
3.549377 1.850767 -0.005077 0.0
1.751132 2.064323 -0.000299 0.0
0.839427 1.573330 0.002021 0.0
2.853619 1.359907 -0.001146 0.0
3.283238 1.892600 -0.001759 0.0
0.144537 0.225186 0.003261 0.0
1.467553 1.553333 0.005923 0.0
2.975274 1.704990 -0.000248 0.0
0.868254 0.184990 -0.001308 0.0
1.654792 1.129422 0.002862 0.0
3.328232 0.450079 -0.003756 0.0
1.576849 2.422972 0.004583 0.0
1.639022 0.160851 -0.002722 0.0
0.995269 0.933450 -0.001283 0.0
2.399193 2.102332 -0.003379 0.0
1.455752 0.448314 -0.000675 0.0
2.135952 2.310983 0.008116 0.0
3.030609 2.171877 -0.001943 0.0
0.484502 0.426840 0.002025 0.0
2.154658 0.108168 0.003622 0.0
3.132415 0.567980 0.000426 0.0
1.049416 2.360884 0.004964 0.0
1.824079 0.602082 0.002782 0.0
2.499653 2.001934 0.000413 0.0
2.086481 0.354777 0.002415 0.0
0.298419 1.766009 0.001338 0.0
4.380597 1.600770 0.001666 0.0
2.528045 1.324167 0.003358 0.0
2.239356 1.036043 -0.001716 0.0
3.882502 2.325103 -0.003005 0.0
4.154560 0.471594 -0.005014 0.0
0.860940 0.526605 -0.002788 0.0
3.804183 0.533213 -0.003267 0.0
3.013554 1.357675 -0.002968 0.0
4.306292 0.408878 -0.002209 0.0
1.084629 0.762726 -0.001731 0.0
2.736654 2.419932 -0.005218 0.0
0.194073 0.025833 -0.001796 0.0
3.266247 1.733698 0.000156 0.0
2.881153 0.556948 0.000504 0.0
3.625155 1.742055 -0.001406 0.0
1.751421 2.382071 -0.002556 0.0
1.624023 0.327805 0.000178 0.0
0.149072 1.650666 -0.001659 0.0
3.395892 2.029797 -0.000385 0.0
0.327826 1.205938 -0.001843 0.0
0.525561 0.914764 -0.004935 0.0
3.037830 1.244496 0.000381 0.0
4.262535 2.031142 -0.001066 0.0
0.748033 0.131697 0.003909 0.0
0.018990 0.292905 0.001568 0.0
2.965053 1.393051 -0.002205 0.0
3.932254 0.039139 0.001595 0.0
3.553211 0.942328 -0.001930 0.0
0.166893 1.524044 0.000465 0.0
2.755731 0.404244 0.005241 0.0
1.276138 1.007686 -0.002007 0.0
1.930410 2.292807 0.001646 0.0
2.526871 0.458445 -0.002555 0.0
1.489042 0.463133 0.001240 0.0
2.527759 2.421918 0.003374 0.0
4.414581 0.953247 -0.002806 0.0
3.798776 2.282603 0.002289 0.0
1.315955 1.224892 -0.003793 0.0
2.910803 2.261663 0.000386 0.0
1.597629 0.004495 0.004393 0.0
4.450464 1.772767 0.003505 0.0
0.367214 0.042870 0.001185 0.0
2.180969 1.136236 -0.001797 0.0
3.820326 0.951750 -0.000215 0.0
2.554374 0.383249 0.006083 0.0
0.299660 1.573678 0.000099 0.0
2.682893 0.393630 -0.001889 0.0
3.798990 0.826301 -0.003530 0.0
0.837603 1.834964 -0.001762 0.0
3.313642 0.742130 -0.000227 0.0
0.040327 1.978113 0.003371 0.0
0.884462 0.234778 -0.002003 0.0
2.207828 1.819567 0.000141 0.0
0.446291 2.122350 -0.000546 0.0
3.805610 0.983867 0.001438 0.0
1.004787 1.128278 0.002256 0.0
1.990639 0.005545 -0.000647 0.0
3.511896 2.018033 -0.000483 0.0
1.062177 1.078914 0.001634 0.0
3.190083 1.667203 -0.001343 0.0
3.259845 1.073106 -0.000308 0.0
1.773887 0.026535 0.001135 0.0
3.939954 0.395083 0.003348 0.0
0.233734 1.131913 0.005642 0.0
2.994257 1.991071 -0.001097 0.0
0.744550 1.769465 0.004855 0.0
1.639796 1.374151 -0.000784 0.0
3.183613 0.448809 -0.003107 0.0
1.678588 1.126963 -0.001501 0.0
3.742667 0.450558 0.000622 0.0
3.547311 1.606853 -0.003288 0.0
1.875805 1.464652 -0.002424 0.0
1.835153 1.250889 -0.004439 0.0
1.193697 0.679663 0.002504 0.0
1.037910 0.914073 0.003609 0.0
1.763835 1.140730 0.003545 0.0
1.146227 1.487888 0.000848 0.0
0.512442 1.210470 -0.003010 0.0
4.141578 0.274176 0.001253 0.0
1.836193 0.240019 0.002782 0.0
3.655363 0.931336 0.005034 0.0
2.794476 1.713210 0.004012 0.0
0.063338 1.285113 -0.001968 0.0
3.142702 0.324669 -0.002887 0.0
0.792429 0.339087 0.004947 0.0
2.721275 1.403877 -0.002405 0.0
4.031530 0.338682 0.000314 0.0
0.144771 1.537381 0.001701 0.0
3.469406 0.599265 -0.000123 0.0
2.641627 2.348783 0.003191 0.0
3.544111 1.812834 -0.005036 0.0
1.587367 1.996622 -0.001683 0.0
4.277368 1.952133 0.006367 0.0
3.369555 1.329848 0.001801 0.0
2.642940 2.007137 0.001658 0.0
2.995628 1.195073 -0.001957 0.0
4.166681 0.805947 -0.000987 0.0
3.744170 2.111153 0.001756 0.0
1.086567 2.071591 0.003051 0.0
0.851808 2.415710 0.002241 0.0
1.039158 1.979247 0.002066 0.0
0.989977 0.401814 0.000595 0.0
0.347811 0.892473 -0.004274 0.0
2.309111 0.491954 0.002081 0.0
4.312507 2.392915 -0.002095 0.0
3.148651 2.318400 -0.003705 0.0
1.798875 1.803050 0.001875 0.0
3.118389 1.369815 -0.005474 0.0
1.188830 0.380621 0.001379 0.0
1.281429 1.309355 0.001534 0.0
0.010780 1.155478 0.002472 0.0
0.154718 1.443262 -0.001327 0.0
1.088120 0.501757 0.001194 0.0
0.723729 0.638148 0.000437 0.0
2.328610 1.893258 -0.003915 0.0
2.144716 2.217949 -0.000797 0.0
2.061381 0.159597 0.004374 0.0
3.244798 1.807615 0.001245 0.0
3.182746 2.200499 -0.001292 0.0
3.360109 2.365353 0.003789 0.0
4.154149 0.397274 -0.004448 0.0
3.638582 2.279310 0.000262 0.0
1.728593 1.411300 -0.002435 0.0
0.155664 2.235749 -0.002856 0.0
0.551669 0.007110 0.000771 0.0
0.335709 0.454428 0.005019 0.0
1.982161 2.104148 -0.000787 0.0
1.759819 0.462019 0.000561 0.0
0.357391 1.078960 0.001806 0.0
2.945727 2.370583 0.001877 0.0
0.031058 1.347017 -0.001333 0.0
3.618648 1.282062 -0.007392 0.0
2.166548 2.065318 0.000511 0.0
3.820602 0.152111 0.000910 0.0
4.069218 2.397582 0.000718 0.0
0.919410 1.803788 0.001523 0.0
3.178515 0.927725 0.001131 0.0
0.331057 1.494136 -0.005341 0.0
2.049013 2.467768 -0.000076 0.0
0.950269 1.798729 0.003339 0.0
0.136538 0.755794 -0.002884 0.0
3.689423 1.997937 0.002856 0.0
4.296593 1.546989 0.004555 0.0
0.385643 1.046378 -0.001671 0.0
3.966398 1.015097 0.000830 0.0
3.644709 2.080067 0.000679 0.0
3.141874 0.181291 -0.003371 0.0
2.808417 0.207236 0.000432 0.0
2.079099 1.475000 -0.001722 0.0
1.033104 0.037865 -0.003478 0.0
4.397269 1.716739 0.000946 0.0
1.608274 1.296674 0.003087 0.0
3.611982 2.175612 -0.003930 0.0
4.354530 0.524666 0.001310 0.0
0.917304 1.742137 0.000528 0.0
2.275762 0.546956 -0.001576 0.0
0.459950 0.270372 -0.001287 0.0
3.505521 0.578600 -0.003860 0.0
0.217392 0.144121 -0.000613 0.0
2.600196 0.112501 -0.001351 0.0
1.264808 0.435444 0.001948 0.0
1.093147 0.751929 -0.001745 0.0
3.354178 1.753817 -0.000458 0.0
1.498160 2.193567 -0.003248 0.0
4.224112 2.183136 0.001242 0.0
0.592456 0.306577 0.003199 0.0
0.844505 0.283571 -0.000777 0.0
1.648135 1.645461 0.002653 0.0
0.721616 1.395742 -0.004272 0.0
2.218219 2.287156 0.002167 0.0
1.530380 1.493566 -0.001025 0.0
4.392274 0.214428 0.002701 0.0
1.495880 0.895619 -0.001829 0.0
3.680016 0.742774 0.000128 0.0
3.476442 0.779917 0.006032 0.0
2.517282 2.106359 -0.004057 0.0
2.161443 0.508904 -0.001095 0.0
3.787916 0.375572 -0.006802 0.0
2.714397 0.185299 -0.000650 0.0
0.489875 1.751024 -0.005372 0.0
0.032772 0.744645 -0.002766 0.0
3.949455 0.939698 -0.002002 0.0
2.873372 1.817284 -0.001844 0.0
3.798874 0.451508 0.004468 0.0
4.093107 1.125266 -0.003525 0.0
1.626036 0.862964 -0.001746 0.0
1.529553 1.988993 0.001177 0.0
4.468934 1.892517 -0.000312 0.0
1.607533 1.376643 0.001133 0.0
3.602084 0.016093 0.002774 0.0
2.669046 1.150517 0.001796 0.0
3.776285 2.460671 0.002913 0.0
2.991905 0.809406 -0.000154 0.0
1.760105 0.253822 0.002202 0.0
2.787667 0.941331 0.001949 0.0
1.032063 2.048291 0.004282 0.0
4.084415 0.266550 0.000907 0.0
1.322151 1.807009 0.006150 0.0
1.580865 0.094643 0.001605 0.0
1.594439 1.420363 -0.003416 0.0
0.312683 0.643480 0.003960 0.0
2.582206 0.027240 -0.001232 0.0
3.044914 2.423240 -0.000962 0.0
1.826418 1.617998 -0.001242 0.0
2.171306 2.268372 -0.002680 0.0
0.026293 0.113230 -0.002057 0.0
3.888570 1.188008 -0.002918 0.0
0.744478 0.662487 -0.003641 0.0
4.112147 2.203508 0.000049 0.0
0.259491 1.302544 -0.003458 0.0
3.493929 1.531406 0.004345 0.0
1.516843 1.148882 0.002208 0.0
0.213870 2.107458 -0.000832 0.0
0.929476 1.804982 0.002027 0.0
2.578094 2.034161 -0.003436 0.0
1.634234 0.789668 0.001123 0.0
3.977311 1.454062 -0.001331 0.0
2.604684 1.227254 0.002799 0.0
3.885809 0.331672 -0.002054 0.0
4.242976 2.296193 0.002966 0.0
2.324023 1.491817 -0.002369 0.0
1.570771 2.017639 -0.000425 0.0
3.255669 0.293919 -0.002005 0.0
2.298354 2.271913 0.001257 0.0
2.086202 1.303644 -0.001463 0.0
0.034897 1.674913 -0.001946 0.0
0.067545 1.069169 0.001184 0.0
2.208560 2.270814 0.002736 0.0
1.702199 1.718283 -0.000079 0.0
1.180821 0.012936 -0.001575 0.0
1.430385 1.298519 0.003585 0.0
4.191993 0.920746 0.002722 0.0
3.538875 2.009788 -0.001264 0.0
4.086250 0.699596 -0.004047 0.0
0.225164 1.280475 -0.003810 0.0
2.380419 0.981274 0.000965 0.0
0.284446 0.768108 -0.005891 0.0
1.264703 0.619489 0.006872 0.0
2.608024 0.213815 0.001348 0.0
1.353981 1.719743 0.001504 0.0
0.912066 1.535509 0.000579 0.0
1.328250 0.186208 -0.001712 0.0
4.261185 1.378283 -0.002308 0.0
4.391370 2.173096 0.001558 0.0
3.574395 0.856903 0.000943 0.0
1.533859 0.051292 -0.000640 0.0
3.870561 0.626674 -0.000172 0.0
4.442965 2.363168 -0.003691 0.0
3.955531 2.454059 0.001104 0.0
2.367431 0.282386 0.001735 0.0
3.555998 1.586904 0.001613 0.0
1.034004 0.131603 -0.001045 0.0
3.191182 1.473357 0.004810 0.0
1.664994 2.050744 -0.000175 0.0
2.674628 2.359133 -0.001058 0.0
2.278281 2.323352 0.001915 0.0
3.254266 0.310292 -0.000407 0.0
3.244110 0.659335 0.002344 0.0
3.788884 0.891008 -0.000640 0.0
1.305402 1.593454 0.001992 0.0
0.114933 1.376313 0.002924 0.0
2.465226 1.650377 0.001703 0.0
0.885104 1.445360 -0.000226 0.0
2.257682 0.895180 -0.000235 0.0
2.326936 1.039127 0.002629 0.0
3.384992 1.440844 0.000027 0.0
3.856364 0.887936 -0.003167 0.0
1.830070 1.670114 -0.001371 0.0
2.100979 0.569506 -0.000233 0.0
2.729697 0.867281 0.001073 0.0
2.757426 1.222213 -0.000352 0.0
2.943278 0.074605 0.002679 0.0
2.664659 0.128800 0.003394 0.0
0.564950 -0.000114 -0.003996 0.0
2.874677 0.688685 0.000964 0.0
1.625620 1.012635 0.000681 0.0
0.958402 1.335488 0.004476 0.0
2.389066 0.345119 -0.001227 0.0
4.262961 2.008256 0.004174 0.0
0.775005 0.724091 0.001644 0.0
2.338486 0.428644 -0.001368 0.0
3.561257 2.168476 0.004200 0.0
1.936869 1.334057 0.000979 0.0
2.668234 0.086286 -0.001945 0.0
1.426094 1.765457 -0.000676 0.0
1.904721 1.385745 0.000508 0.0
1.234231 1.321654 0.000159 0.0
2.282426 0.828198 0.000739 0.0
0.506904 0.399588 -0.001458 0.0
0.559533 0.235150 0.000395 0.0
3.080879 0.471981 0.000143 0.0
3.450593 1.804478 -0.002082 0.0
3.678593 2.242387 0.001459 0.0
1.698978 0.912105 -0.000368 0.0
0.500020 1.070481 -0.001602 0.0
4.405598 2.457434 0.001270 0.0
2.739153 1.338040 -0.001801 0.0
0.592664 1.908918 0.003794 0.0
1.853892 1.863287 -0.001716 0.0
3.172524 2.305359 -0.000986 0.0
2.841980 0.767181 -0.001543 0.0
0.967671 1.971267 -0.004062 0.0
3.337879 1.953071 0.000571 0.0
1.152232 1.732783 -0.002986 0.0
0.359225 1.342849 -0.000463 0.0
3.366934 2.163583 0.001917 0.0
1.515907 0.199628 -0.000460 0.0
1.072243 0.759872 -0.003361 0.0
3.461575 2.006150 -0.001829 0.0
1.759860 0.822241 0.001429 0.0
2.484774 0.618010 0.002062 0.0
3.742495 1.711655 -0.001343 0.0
0.333352 0.104963 0.003406 0.0
1.512155 0.963126 -0.000659 0.0
1.847431 1.147177 -0.000350 0.0
3.880856 0.567351 -0.000632 0.0
2.784376 0.475902 0.001433 0.0
0.161578 2.123455 0.003056 0.0
1.443363 2.404938 -0.001957 0.0
1.899683 1.233839 -0.002674 0.0
2.225073 1.100607 0.001859 0.0
0.095532 1.067169 -0.003605 0.0
3.839557 0.098129 0.003549 0.0
1.501628 1.142731 -0.000656 0.0
2.887322 0.722161 -0.002177 0.0
2.058917 0.453976 -0.001353 0.0
0.953550 1.617586 -0.000580 0.0
1.008940 1.337690 -0.002235 0.0
4.435477 0.560402 -0.002770 0.0
1.216449 1.609368 -0.000540 0.0
1.023226 0.167844 -0.000607 0.0
2.220942 1.374439 -0.005186 0.0
4.060970 0.238328 0.002084 0.0
0.685244 0.611144 -0.000938 0.0
0.355080 0.586522 -0.001622 0.0
1.838052 1.190901 -0.000714 0.0
0.325178 1.487544 0.002374 0.0
0.836440 2.051924 0.005731 0.0
2.430043 1.517350 -0.001276 0.0
4.024921 2.452574 0.001479 0.0
3.811173 1.952720 0.001524 0.0
4.267141 1.802392 0.001607 0.0
2.555087 0.615235 -0.003598 0.0
1.351333 0.670229 0.004265 0.0
0.946642 1.150778 -0.002108 0.0
3.403360 2.440143 -0.002143 0.0
2.259939 0.388222 -0.001921 0.0
2.052937 2.396511 -0.004593 0.0
2.617176 0.848556 0.001174 0.0
3.848174 0.836052 0.004436 0.0
3.593989 0.056358 0.002920 0.0
4.168137 0.859892 0.000415 0.0
3.569298 0.441867 -0.000628 0.0
0.249214 0.943352 -0.000310 0.0
0.409006 0.676302 -0.004187 0.0
0.445105 0.504860 -0.000226 0.0
1.344820 0.246727 -0.002225 0.0
0.006953 1.524016 -0.001827 0.0
0.041735 0.679978 -0.002942 0.0
1.065547 2.411936 0.000550 0.0
4.050491 0.653510 0.001154 0.0
0.124777 1.030230 -0.000121 0.0
0.461619 0.401543 -0.000121 0.0
0.172645 2.102792 -0.001804 0.0
1.547561 1.035355 -0.000414 0.0
3.905303 1.780489 0.002607 0.0
3.675710 1.464503 -0.001402 0.0
3.466640 0.888103 -0.001950 0.0
2.326066 1.723595 -0.001819 0.0
1.477786 0.215290 -0.002388 0.0
2.988540 1.823010 0.002797 0.0
1.059389 1.544807 -0.004977 0.0
1.003617 1.588362 -0.000737 0.0
3.735797 1.766507 0.002471 0.0
0.833531 0.106405 -0.003015 0.0
3.699470 0.587865 0.001637 0.0
1.889232 1.465382 -0.003837 0.0
3.419322 1.081373 -0.004045 0.0
3.127282 1.631593 0.001993 0.0
2.370853 0.448141 0.003412 0.0
1.771060 0.125201 0.000149 0.0
2.241534 1.682485 -0.003215 0.0
0.842294 2.283322 0.002681 0.0
3.800280 0.544125 -0.000109 0.0
2.195612 1.913538 -0.001585 0.0
2.387232 2.233128 0.000186 0.0
0.665252 0.269101 0.000309 0.0
3.198026 0.841554 0.001175 0.0
1.730241 2.280229 -0.002688 0.0
2.735193 2.126136 0.000062 0.0
0.345086 0.706345 0.000396 0.0
3.264985 0.631027 0.000722 0.0
2.080374 1.115377 0.002051 0.0
0.706608 2.315430 -0.000719 0.0
0.824170 0.398319 -0.000065 0.0
4.169091 0.201202 0.002146 0.0
1.922404 1.697007 -0.001087 0.0
2.625104 1.518741 0.002916 0.0
0.781899 0.964846 -0.000975 0.0
2.258976 1.220003 -0.001508 0.0
3.800666 0.842332 -0.002383 0.0
0.793237 0.542161 -0.001896 0.0
0.355325 0.023950 0.000101 0.0
0.156361 1.026493 -0.001078 0.0
3.399034 0.537541 -0.001615 0.0
3.110068 2.399311 0.000951 0.0
0.150367 1.994295 -0.003084 0.0
0.115009 1.328653 -0.005649 0.0
2.526278 0.331798 -0.003062 0.0
4.098891 1.141843 0.001995 0.0
2.738040 1.041621 -0.000485 0.0
4.057220 0.867857 -0.001301 0.0
4.073164 2.255041 -0.001368 0.0
2.178910 2.018262 -0.000860 0.0
1.672557 2.331286 0.003009 0.0
3.290827 0.016940 0.002411 0.0
1.091711 1.167256 0.000071 0.0
0.583082 1.535147 -0.001802 0.0
1.468349 0.066229 0.002722 0.0
1.530328 0.908316 0.004346 0.0
0.646199 0.378955 0.001031 0.0
0.745169 0.222291 0.001830 0.0
2.035438 1.970330 -0.003159 0.0
1.464965 1.391456 0.000324 0.0
4.030015 1.505185 -0.000295 0.0
1.666281 0.357317 -0.001841 0.0
1.917545 2.148197 -0.005251 0.0
2.265860 0.595966 0.004321 0.0
2.082481 1.205700 0.003296 0.0
1.472217 0.136521 0.000209 0.0
4.020081 1.159959 -0.005947 0.0
3.003650 0.513750 -0.001109 0.0
2.170232 2.150519 -0.002726 0.0
1.543937 1.831774 0.006659 0.0
0.818795 1.179655 -0.000983 0.0
0.424344 1.440648 -0.000172 0.0
2.774000 1.439619 -0.003058 0.0
3.206595 0.925371 0.003396 0.0
2.572931 1.609505 0.000190 0.0
2.563076 2.192684 0.002664 0.0
2.233010 0.946281 0.002311 0.0
4.401400 2.468916 0.003993 0.0
0.406701 2.257180 -0.002917 0.0
3.944862 0.983916 0.002809 0.0
2.142040 0.462882 0.006790 0.0
3.245649 2.237747 -0.006377 0.0
4.398644 0.859364 -0.001223 0.0
3.406463 1.668138 -0.000045 0.0
3.950542 1.099833 -0.001643 0.0
2.625838 1.773018 -0.003184 0.0
1.440540 0.194699 0.000647 0.0
1.416093 1.054471 -0.006271 0.0
4.122709 0.433719 0.001644 0.0
0.602689 0.338340 -0.000478 0.0
1.556504 1.392443 0.000962 0.0
3.871765 2.087583 0.002009 0.0
0.609716 2.305892 0.003558 0.0
3.953944 2.036068 0.000096 0.0
0.262286 2.247797 -0.000136 0.0
1.101854 0.521597 0.000026 0.0
0.637736 0.767782 -0.001226 0.0
1.153626 0.288816 0.003341 0.0
1.730597 1.049879 0.002791 0.0
0.142696 2.117293 0.004239 0.0
3.472887 1.728436 -0.000685 0.0
3.238251 1.080439 -0.000774 0.0
0.691544 0.381679 0.004354 0.0
2.319539 2.166019 0.000408 0.0
1.251428 1.110111 0.004099 0.0
3.132614 1.999818 -0.008633 0.0
1.064633 1.458762 -0.001998 0.0
1.031129 0.614489 -0.002017 0.0
0.575089 1.259585 -0.000822 0.0
1.289586 1.922898 0.003332 0.0
1.554361 0.788453 -0.002195 0.0
0.005723 2.246659 0.001091 0.0
1.989296 0.852176 0.005589 0.0
2.720007 0.906098 -0.000271 0.0
3.046963 2.177719 -0.003149 0.0
2.289396 1.450626 -0.002705 0.0
1.465818 0.675830 -0.003784 0.0
2.310625 1.340762 -0.003651 0.0
0.875340 2.005512 0.000035 0.0
1.530115 1.700300 -0.000056 0.0
1.285520 1.689735 -0.002542 0.0
0.302618 0.062586 -0.000420 0.0
2.154506 0.518215 -0.003888 0.0
1.047760 2.443681 -0.001822 0.0
0.031192 0.243983 -0.000153 0.0
1.699121 0.949422 -0.000322 0.0
1.677524 0.449577 0.002567 0.0
1.344167 0.432390 0.002577 0.0
2.100780 1.113067 0.001742 0.0
0.896458 0.369883 0.002003 0.0
3.968401 0.662504 -0.001244 0.0
2.297628 0.092665 0.004670 0.0
0.706206 2.442404 0.002905 0.0
2.931508 1.378105 0.000575 0.0
2.075898 1.334114 -0.003186 0.0
3.104856 0.701989 -0.001550 0.0
4.307250 1.565761 -0.003365 0.0
2.408533 0.284952 0.000365 0.0
2.840908 2.420830 0.001525 0.0
2.415926 0.423854 0.003157 0.0
3.220483 1.519413 -0.002146 0.0
4.311652 1.855501 0.003280 0.0
3.767603 0.291122 0.004789 0.0
2.209697 1.869942 -0.005214 0.0
3.567619 0.833349 0.002327 0.0
2.631798 1.830971 0.000927 0.0
2.740583 1.075365 -0.002550 0.0
0.285813 2.134673 -0.001733 0.0
0.729491 0.693991 -0.000768 0.0
0.015829 1.824693 -0.001758 0.0
2.322036 1.855815 -0.004362 0.0
1.812389 0.051147 -0.001411 0.0
2.353149 1.612551 -0.001736 0.0
3.503553 0.031879 0.001690 0.0
2.365507 0.302657 0.002793 0.0
3.429652 1.578250 -0.000822 0.0
0.964361 1.475465 -0.000465 0.0
1.131704 1.065616 -0.001938 0.0
1.087207 0.792361 -0.000202 0.0
0.046163 2.316985 0.000378 0.0
0.979563 2.334072 0.003362 0.0
2.527873 2.379250 0.000283 0.0
0.869172 2.204034 0.005253 0.0
3.858915 0.443009 0.002378 0.0
4.269038 0.389612 0.005646 0.0
1.498528 1.502516 0.000159 0.0
0.753233 2.207276 -0.000534 0.0
0.828773 0.410994 0.002913 0.0
2.989900 1.050265 -0.001353 0.0
0.573231 2.325950 0.001282 0.0
0.216318 1.214192 -0.002448 0.0
1.314464 1.511435 -0.002849 0.0
0.070516 1.818925 0.002159 0.0
3.333121 0.822600 -0.000942 0.0
1.776473 0.071584 -0.002022 0.0
1.642824 0.180185 0.000511 0.0
0.638522 0.491842 0.002357 0.0
3.208940 1.069543 0.003515 0.0
2.412152 0.600875 0.003161 0.0
0.057046 0.084284 -0.004246 0.0
3.433977 1.975431 0.000688 0.0
3.230707 2.358697 -0.002486 0.0
2.495199 0.293521 0.000691 0.0
0.559401 0.043605 0.000167 0.0
1.631770 2.181734 0.002418 0.0
3.049458 1.805675 0.001377 0.0
3.200368 2.384089 -0.003444 0.0
0.353874 2.471254 -0.002005 0.0
2.199235 1.175544 0.003230 0.0
1.021898 1.064074 -0.001284 0.0
2.343358 1.786080 -0.002808 0.0
2.055055 0.848178 -0.000112 0.0
4.393077 2.370540 -0.006692 0.0
3.113173 0.379707 0.005566 0.0
3.460541 0.454041 -0.001866 0.0
1.782282 2.348684 0.000560 0.0
1.905516 0.116441 -0.000377 0.0
0.060840 1.630250 -0.004775 0.0
2.489527 0.958583 0.000397 0.0
4.076387 0.734451 0.000315 0.0
0.194224 0.624705 -0.001284 0.0
1.573370 1.673000 -0.004663 0.0
2.703296 1.453927 0.001393 0.0
1.651916 1.327492 -0.005990 0.0
3.928186 1.175301 -0.000818 0.0
0.177125 2.183578 0.002107 0.0
1.165590 2.120540 0.002251 0.0
2.257883 0.657231 -0.001290 0.0
4.405925 1.870203 0.003389 0.0
0.139557 0.650733 0.000376 0.0
2.155683 1.054639 -0.003054 0.0
4.433944 1.074912 0.001566 0.0
2.958133 1.695486 -0.001862 0.0
4.318055 0.730660 0.001534 0.0
1.470827 2.321085 -0.002956 0.0
0.334153 1.592230 0.003687 0.0
2.141544 1.873183 0.002094 0.0
2.259566 0.828800 -0.002274 0.0
1.068292 1.791939 -0.000766 0.0
0.347093 0.590827 0.000553 0.0
0.744002 0.778178 -0.002840 0.0
1.547552 1.412497 -0.000987 0.0
2.115975 0.784617 -0.001476 0.0
3.547735 0.432873 -0.002627 0.0
0.475072 1.056246 0.001321 0.0
2.722570 0.277785 0.004270 0.0
4.084567 2.467471 -0.001363 0.0
0.490565 1.802082 0.004033 0.0
0.760943 0.319159 0.004090 0.0
3.424869 0.624966 0.005563 0.0
3.840277 2.378320 0.000778 0.0
4.007751 0.542405 0.001096 0.0
1.666008 2.088912 -0.001679 0.0
3.670957 1.659516 -0.000480 0.0
3.039209 2.015318 0.001661 0.0
2.290280 1.752751 -0.001491 0.0
2.917296 1.043697 -0.003565 0.0
2.450094 0.076419 -0.002633 0.0
0.336379 1.790740 0.002486 0.0
3.948041 0.299351 -0.001058 0.0
0.239194 0.627228 -0.000746 0.0
0.074649 1.700919 -0.001933 0.0
0.983215 1.677022 0.000324 0.0
3.257710 0.804143 -0.000927 0.0
1.640376 0.763581 -0.000184 0.0
0.254444 0.328159 -0.002209 0.0
0.020541 1.040365 0.001568 0.0
3.612123 2.292271 0.007596 0.0
1.122218 0.229135 -0.000575 0.0
4.075857 0.616278 0.000772 0.0
0.809263 0.769931 0.002468 0.0
0.585955 1.817045 0.001574 0.0
4.158819 2.172540 -0.002092 0.0
3.540294 0.287832 -0.000036 0.0
2.817787 2.316482 -0.004671 0.0
0.684511 0.539067 0.002260 0.0
3.785435 2.186707 -0.002554 0.0
0.290518 1.451261 -0.002103 0.0
0.380546 1.225675 0.002627 0.0
0.010696 2.195366 0.000157 0.0
2.716907 2.424620 0.001821 0.0
0.870217 1.512833 0.001268 0.0
0.966999 1.594567 0.000644 0.0
2.871139 0.020099 -0.001707 0.0
1.126689 1.762675 -0.000257 0.0
3.564671 0.020775 -0.002204 0.0
1.537216 1.155473 0.001323 0.0
0.683558 1.407462 -0.003801 0.0
1.879985 0.071268 0.001111 0.0
3.060029 1.302126 0.000095 0.0
1.326397 0.580485 -0.001613 0.0
1.775425 2.256646 -0.000496 0.0
3.690119 1.635949 0.000178 0.0
3.690900 1.093488 -0.000462 0.0
2.900235 0.546250 0.002107 0.0
2.850984 2.080894 -0.002064 0.0
1.345641 1.043135 -0.000466 0.0
2.722491 0.114056 0.001592 0.0
2.963798 1.293255 -0.003037 0.0
2.348469 1.110710 -0.003894 0.0
0.584466 1.786161 -0.000748 0.0
0.288523 0.444843 0.000884 0.0
3.721191 0.471956 -0.002894 0.0
2.701845 1.142681 0.003122 0.0
3.415800 0.759710 0.005317 0.0
4.408985 1.569122 -0.000953 0.0
1.351297 0.865907 0.000585 0.0
0.209408 0.006712 -0.000216 0.0
0.731102 1.207382 0.005320 0.0
2.484055 1.243586 -0.002908 0.0
4.418670 1.967495 0.000418 0.0
1.841765 1.898599 -0.002607 0.0
4.288568 1.119692 0.000071 0.0
1.695840 0.309857 -0.001296 0.0
2.057576 1.717779 -0.002876 0.0
0.514872 1.423138 0.001537 0.0
0.433205 1.249158 -0.001687 0.0
1.178121 1.974484 0.000243 0.0
1.580511 1.689479 0.003443 0.0
2.571795 1.364336 0.000198 0.0
1.571339 0.592097 -0.001701 0.0
3.720380 1.410983 0.000390 0.0
2.845020 0.924942 -0.001280 0.0
2.072373 0.765097 -0.002195 0.0
4.438702 0.333183 0.002101 0.0
4.050734 0.770811 -0.000645 0.0
4.368238 1.795294 -0.004023 0.0
4.037081 0.290647 -0.000474 0.0
3.791473 1.635485 -0.000439 0.0
0.202682 1.771209 0.004573 0.0
4.094423 1.936804 0.000015 0.0
3.299689 1.377688 0.003417 0.0
2.726376 0.204688 0.005867 0.0
0.005735 0.762711 -0.000138 0.0
3.633266 0.959009 -0.001131 0.0
2.672703 0.417514 0.001277 0.0
2.320894 1.427911 -0.000503 0.0
4.398763 0.785559 -0.001478 0.0
2.260142 0.544257 0.001355 0.0
2.416402 1.177905 -0.000677 0.0
0.488860 2.059366 0.002904 0.0
0.023469 0.438838 -0.000503 0.0
3.836684 2.019515 -0.000188 0.0
2.658751 1.112950 -0.002848 0.0
1.469002 2.429320 0.000628 0.0
2.711369 2.376973 -0.003922 0.0
1.873133 2.336670 0.001822 0.0
1.497546 1.054567 0.001795 0.0
1.343193 0.132883 0.000815 0.0
3.355612 1.545909 0.001194 0.0
4.177264 0.269913 0.003286 0.0
3.108497 0.830332 -0.000498 0.0
4.361678 1.696843 -0.002976 0.0
2.459849 1.651572 -0.000624 0.0
1.849093 0.211463 -0.004375 0.0
1.304611 2.462684 -0.004720 0.0
1.037077 0.184933 0.006277 0.0
3.356653 0.057654 -0.005707 0.0
3.888031 0.782517 0.000364 0.0
3.564797 0.719648 0.003836 0.0
0.418866 1.595687 -0.002001 0.0
2.769970 1.388170 -0.002893 0.0
2.297397 0.450631 -0.002364 0.0
3.614515 0.151251 -0.003049 0.0
1.839274 1.795045 0.009009 0.0
3.990058 1.373676 -0.001982 0.0
1.183078 0.765931 0.000777 0.0
0.340054 0.277108 -0.002039 0.0
2.899776 2.317158 -0.000355 0.0
1.311413 2.420958 -0.001604 0.0
0.651686 2.266087 0.004983 0.0
3.845918 2.086343 0.000962 0.0
1.342018 1.293767 -0.003652 0.0
1.882383 0.041531 0.001548 0.0
0.101392 2.320688 -0.000382 0.0
1.197030 1.994059 -0.000662 0.0
0.484018 0.165677 0.001526 0.0
1.706931 0.966122 0.002466 0.0
3.699131 1.523547 0.003942 0.0
3.126333 2.226565 -0.002786 0.0
1.683425 0.009327 0.001764 0.0
2.636066 1.992297 -0.001290 0.0
1.366822 1.231171 0.004632 0.0
3.091207 1.091939 0.000126 0.0
0.861714 1.055711 -0.000185 0.0
3.713043 1.909808 0.000971 0.0
0.288130 1.071812 0.001866 0.0
4.201478 1.694175 0.001498 0.0
0.804948 2.441185 0.000165 0.0
0.047512 2.191312 0.003868 0.0
0.637871 2.360527 -0.006904 0.0
2.614824 1.913911 -0.002007 0.0
4.308415 0.654453 0.000174 0.0
4.337707 0.723943 -0.005143 0.0
1.150942 0.605237 0.001544 0.0
4.455085 0.328579 0.000570 0.0
2.323741 1.657831 -0.001064 0.0
3.423802 2.268100 0.001352 0.0
2.077557 1.530171 0.001294 0.0
1.948956 0.892175 -0.000435 0.0
3.051428 0.456775 -0.002052 0.0
4.074667 0.288165 0.002866 0.0
0.433454 0.958723 -0.000991 0.0
1.087170 2.422287 0.006386 0.0
3.920277 2.408658 0.003256 0.0
1.900004 0.776826 0.003368 0.0
2.857941 0.038479 0.003950 0.0
2.812392 1.504483 0.001951 0.0
0.387349 1.982561 0.003231 0.0
2.250500 0.494854 -0.000590 0.0
0.568089 0.274687 0.003991 0.0
1.390488 0.852086 0.000137 0.0
2.544527 1.080425 0.000236 0.0
3.431563 2.391056 0.003858 0.0
1.049659 0.377125 -0.000634 0.0
3.389519 0.327124 0.000592 0.0
1.723319 0.448817 0.000537 0.0
0.282044 1.242688 -0.002567 0.0
1.187747 0.863840 0.000646 0.0
2.340414 1.408065 0.003892 0.0
3.430981 0.546551 0.001337 0.0
4.294026 0.651048 -0.005117 0.0
3.220903 1.122526 -0.002050 0.0
2.472865 1.237966 -0.001002 0.0
1.782429 1.903856 -0.004061 0.0
0.919581 0.793785 0.001613 0.0
0.931434 1.852054 0.002505 0.0
2.039752 1.392537 -0.001627 0.0
0.991351 0.264599 -0.003734 0.0
3.234807 0.948384 0.000356 0.0
1.852340 2.342729 0.002053 0.0
1.753790 2.027514 -0.000225 0.0
0.032671 1.337591 -0.002777 0.0
0.623008 0.510016 0.003531 0.0
0.305224 0.640750 -0.002988 0.0
1.646786 1.458274 0.005402 0.0
1.104397 1.071303 -0.003675 0.0
1.080498 0.887156 -0.002913 0.0
0.819109 0.347721 0.004619 0.0
3.093837 1.282940 0.003663 0.0
2.413515 1.126281 -0.001308 0.0
1.966373 2.217335 -0.003948 0.0
2.648666 0.530921 0.001604 0.0
2.184939 1.103423 0.000608 0.0
2.682934 2.258887 0.000090 0.0
3.704011 1.023553 0.004996 0.0
0.529259 1.891625 0.005045 0.0
3.687230 0.249351 0.000103 0.0
4.223399 0.916552 0.000096 0.0
2.809695 0.076471 0.001012 0.0
1.353894 2.227439 -0.001521 0.0
1.182902 0.680725 -0.000764 0.0
4.255108 1.285772 0.000266 0.0
4.263528 1.066176 -0.000456 0.0
1.592774 1.774447 -0.001464 0.0
0.555908 0.777074 -0.001597 0.0
2.465181 0.207245 -0.002940 0.0
3.294547 2.478989 -0.003553 0.0
3.787206 0.957553 0.003342 0.0
1.345673 2.370462 0.000980 0.0
1.452665 0.719805 0.002975 0.0
3.167597 1.420758 -0.002108 0.0
3.782056 1.766287 -0.000120 0.0
3.818955 0.879547 0.002160 0.0
4.024604 2.338709 0.000857 0.0
2.987390 1.469146 -0.000965 0.0
1.494617 0.320912 0.001905 0.0
2.053349 2.325101 -0.001741 0.0
0.264703 0.941407 0.002785 0.0
1.939973 2.287892 -0.002671 0.0
2.225281 1.554242 0.003494 0.0
4.331228 0.520345 -0.000767 0.0
1.810076 2.427127 0.000647 0.0
1.287026 1.466477 -0.002868 0.0
0.524816 1.532404 -0.005273 0.0
0.193865 0.516181 -0.004983 0.0
2.962444 0.960587 0.001261 0.0
1.214276 0.035666 -0.000886 0.0
0.246713 0.368609 0.001216 0.0
0.924593 2.199069 0.003035 0.0
2.739181 2.085134 0.000900 0.0
2.464784 1.862344 -0.000797 0.0
2.988817 0.947221 -0.000596 0.0
1.744578 1.599471 0.000422 0.0
3.266691 1.473542 0.000808 0.0
2.796163 1.210954 0.003304 0.0
1.178107 2.003413 -0.002090 0.0
3.700475 0.231679 0.002850 0.0
1.364751 1.750971 0.001091 0.0
1.731121 1.825803 -0.001027 0.0
4.147263 0.957468 -0.004720 0.0
0.508483 1.520419 -0.002582 0.0
0.377685 1.592759 0.008179 0.0
1.486193 0.392401 -0.002352 0.0
4.457065 1.430413 -0.003375 0.0
2.729553 0.663291 0.000904 0.0
2.617699 0.687152 -0.001406 0.0
2.941460 0.777552 -0.000725 0.0
3.483968 0.690126 0.004962 0.0
2.056681 2.356149 -0.001986 0.0
2.434592 1.636152 -0.003798 0.0
1.972282 2.282967 0.005889 0.0
1.445703 0.858271 -0.003382 0.0
3.571598 1.720699 0.000039 0.0
2.836592 1.818881 -0.000010 0.0
0.926291 1.689733 -0.001776 0.0
3.409797 0.093424 -0.000762 0.0
3.669812 1.838124 -0.000932 0.0
3.707145 1.464579 -0.001160 0.0
1.483455 1.550269 -0.000380 0.0
3.768538 1.770677 0.002769 0.0
3.388843 0.754986 0.002122 0.0
1.695533 1.836648 0.000205 0.0
3.604921 1.379992 -0.001157 0.0
2.811145 1.688651 -0.002280 0.0
2.046334 0.493874 0.000174 0.0
4.001591 0.075521 0.003237 0.0
4.393554 1.919370 0.001137 0.0
0.249620 1.331670 0.000796 0.0
2.397356 2.005541 0.000408 0.0
3.934802 1.022760 -0.001273 0.0
0.767173 2.362260 -0.002653 0.0
2.130677 2.058816 -0.001621 0.0
1.660145 2.394371 0.003138 0.0
0.042731 2.068851 -0.004100 0.0
3.565906 0.357140 0.001289 0.0
1.878036 0.613667 0.001705 0.0
2.419301 2.211057 0.004156 0.0
0.813742 1.080337 -0.001968 0.0
4.040814 1.150467 0.001323 0.0
3.115705 0.400066 -0.003110 0.0
4.254526 0.372594 -0.002198 0.0
0.567208 0.327806 -0.005806 0.0
1.304488 1.310209 0.000487 0.0
2.431169 2.132254 -0.006469 0.0
3.232733 1.499183 0.002551 0.0
0.237930 1.626030 -0.003661 0.0
4.405154 2.428780 0.000221 0.0
4.214867 0.057096 0.000203 0.0
1.881195 1.033120 -0.002559 0.0
2.984893 2.330028 0.002830 0.0
3.984252 2.047164 0.000235 0.0
0.666425 0.502794 -0.000133 0.0
1.728512 1.796923 -0.001899 0.0
3.204111 0.940788 0.002310 0.0
1.898138 1.673469 0.002155 0.0
4.211770 1.000204 0.003948 0.0
3.684280 2.249282 0.000438 0.0
2.702979 1.092150 -0.001191 0.0
0.187978 0.164250 -0.001176 0.0
1.743333 0.085734 0.000976 0.0
0.026981 2.130475 -0.002622 0.0
2.547325 0.431224 0.000888 0.0
2.456358 1.633033 -0.002032 0.0
0.715242 1.008100 0.001001 0.0
0.556518 1.668446 -0.002152 0.0
4.342921 1.391732 -0.004530 0.0
2.193477 1.973184 -0.001433 0.0
1.046519 0.124159 0.002137 0.0
0.802035 1.560636 -0.000794 0.0
2.001396 0.505639 -0.001682 0.0
0.558922 1.567707 0.004460 0.0
2.263606 0.417058 -0.000886 0.0
0.807077 0.022610 -0.002858 0.0
3.184645 0.274047 0.000157 0.0
3.586171 0.763657 0.002023 0.0
3.904205 1.716611 0.001186 0.0
3.428715 1.038987 -0.000763 0.0
2.509322 2.435210 0.000978 0.0
3.148743 2.049866 -0.000805 0.0
3.575076 1.467438 -0.001407 0.0
1.149894 1.740552 -0.002131 0.0
3.405844 2.268437 -0.000096 0.0
1.964945 2.003424 0.001229 0.0
2.740737 1.448428 0.000885 0.0
3.976430 0.045652 0.000558 0.0
1.410940 0.465313 0.000221 0.0
2.908854 2.086526 0.002401 0.0
4.312899 0.897687 -0.004193 0.0
2.962616 0.826374 -0.000219 0.0
4.048502 2.407218 0.002380 0.0
3.691081 1.733436 -0.003555 0.0
0.434433 0.008407 -0.001043 0.0
4.014836 1.990605 0.003141 0.0
3.527531 2.204616 0.001441 0.0
3.586661 0.770781 0.000090 0.0
0.333689 1.417004 -0.000899 0.0
2.327257 0.931767 0.001608 0.0
2.301208 2.170502 -0.000245 0.0
3.093430 2.219988 0.000727 0.0
3.572059 0.861956 -0.001144 0.0
3.647693 2.140120 -0.001852 0.0
0.196225 0.990979 0.001401 0.0
0.622999 2.050019 0.002909 0.0
2.983326 1.458356 -0.003162 0.0
3.389087 1.655321 -0.001149 0.0
1.061730 0.262824 -0.000859 0.0
3.983994 2.014480 0.003610 0.0
1.056102 1.134055 -0.000144 0.0
2.873739 1.735230 -0.000999 0.0
2.889039 0.106805 0.000838 0.0
2.340218 0.038692 0.000417 0.0
2.814874 0.757749 -0.003768 0.0
1.151235 1.789290 0.001752 0.0
3.974217 2.216077 -0.002859 0.0
0.246983 1.311493 -0.003976 0.0
3.490458 1.137591 0.002801 0.0
1.722655 0.618294 0.001545 0.0
3.976346 0.882124 -0.009409 0.0
0.329696 2.305768 0.006217 0.0
2.581026 0.293800 0.004506 0.0
2.647912 0.800127 -0.000331 0.0
0.219835 1.160038 0.001630 0.0
0.521056 1.899429 -0.003782 0.0
0.212239 0.188902 0.001212 0.0
2.172327 2.185874 -0.001409 0.0
4.436161 1.141351 0.002247 0.0
1.492251 0.981651 -0.000909 0.0
0.063877 2.383686 -0.002424 0.0
0.527038 0.393047 0.000073 0.0
1.424987 2.431888 0.005487 0.0
1.905323 1.147678 0.002559 0.0
4.222388 0.789212 0.001661 0.0
3.730668 0.732347 0.003347 0.0
3.471804 0.444280 -0.002045 0.0
3.181205 1.705398 0.000306 0.0
1.609294 2.169313 0.003068 0.0
3.372502 2.249762 0.005567 0.0
4.166931 1.314318 0.001754 0.0
2.025426 1.970764 -0.003567 0.0
1.562678 1.391338 -0.002919 0.0
1.637893 1.397523 0.001689 0.0
2.390742 0.938771 -0.001099 0.0
1.699790 2.241196 -0.000381 0.0
0.165902 0.596474 0.001579 0.0
0.123706 0.155923 0.000564 0.0
3.233826 1.514485 0.001470 0.0
2.382526 1.868965 0.001153 0.0
2.419046 1.998827 -0.004405 0.0
0.221090 0.927031 -0.004183 0.0
2.689715 1.126805 0.001491 0.0
0.017995 2.151759 -0.002541 0.0
2.656173 2.017942 -0.000296 0.0
0.634475 1.585348 -0.000132 0.0
0.035725 2.049473 -0.003182 0.0
3.103063 1.875425 -0.003898 0.0
0.269101 1.485086 -0.001730 0.0
1.892376 1.897165 0.001275 0.0
0.485114 2.174190 0.003370 0.0
2.325171 0.968861 0.000693 0.0
2.695956 1.167016 0.003398 0.0
2.478224 1.787433 -0.002736 0.0
1.051693 0.281454 -0.002739 0.0
1.740635 1.841079 -0.005689 0.0
0.086369 0.004876 0.001427 0.0
3.285708 2.114184 -0.003489 0.0
3.004332 1.970662 -0.001583 0.0
0.177360 1.943869 0.000710 0.0
1.573774 1.403579 -0.005662 0.0
3.468105 1.826643 0.006233 0.0
1.492428 1.054599 -0.002918 0.0
3.145126 2.477333 0.002833 0.0
3.335529 0.374001 -0.003174 0.0
3.961133 1.776281 -0.002129 0.0
1.308521 1.598037 0.002130 0.0
0.990277 1.643833 -0.000848 0.0
0.732579 1.002126 0.001569 0.0
1.124519 0.898237 -0.001735 0.0
2.845071 2.148617 -0.000386 0.0
0.763139 0.058481 0.004470 0.0
4.211836 2.304563 0.000192 0.0
0.192240 1.594795 -0.004204 0.0
3.263122 2.453973 0.002559 0.0
2.827381 2.350907 0.004276 0.0
3.663751 0.483774 0.003691 0.0
1.701670 0.526180 -0.001703 0.0
2.710627 1.317056 0.001759 0.0
1.776739 0.914760 0.000223 0.0
3.947162 1.101208 0.001817 0.0
3.959322 0.254049 -0.003844 0.0
2.131461 1.636882 0.001548 0.0
0.209034 1.663367 0.000997 0.0
3.437418 1.286562 0.007358 0.0
1.203933 1.650115 -0.000007 0.0
1.782224 2.046831 -0.000626 0.0
3.734966 0.887682 -0.001559 0.0
0.692266 1.032567 0.000328 0.0
3.276320 0.700261 0.003035 0.0
2.526189 0.240735 0.004280 0.0
1.979840 1.471010 0.000924 0.0
4.284819 2.136072 0.000434 0.0
1.233682 0.763130 -0.001735 0.0
1.227019 1.876862 -0.000722 0.0
3.241796 1.270715 0.002518 0.0
1.924623 2.350186 -0.003829 0.0
1.268309 0.802944 0.001527 0.0
1.735741 2.207161 -0.008514 0.0
2.595359 1.579287 0.002231 0.0
2.358876 1.648281 -0.001342 0.0
0.083040 1.034992 -0.003353 0.0
3.671963 0.309341 0.001121 0.0
4.446754 0.761159 0.002282 0.0
1.471544 0.020359 0.001653 0.0
0.017689 0.359435 -0.000047 0.0
2.786797 1.421709 0.000943 0.0
0.441321 1.458286 0.006085 0.0
3.026896 0.477954 0.002795 0.0
1.475712 0.288351 -0.001187 0.0
2.454358 0.990385 -0.004414 0.0
1.896373 0.789927 0.002214 0.0
0.416000 1.839409 -0.001201 0.0
2.046156 2.075336 0.005031 0.0
4.364106 0.834926 0.005034 0.0
2.238440 0.383421 0.002090 0.0
4.267923 0.072478 0.000649 0.0
3.650616 1.933902 0.002362 0.0
1.918816 1.883498 0.002925 0.0
2.469779 0.484203 -0.000810 0.0
2.938282 0.748574 -0.000111 0.0
3.927393 2.306449 0.005229 0.0
1.986821 2.469815 -0.000106 0.0
0.771300 1.382315 -0.001173 0.0
1.848655 0.937402 -0.000791 0.0
1.310576 2.433079 0.000482 0.0
0.486303 0.041250 -0.001126 0.0
3.474951 2.180109 0.000700 0.0
2.491323 1.215665 -0.000901 0.0
2.801662 1.632363 0.004745 0.0
3.614834 0.234950 -0.004216 0.0
4.105607 2.098133 0.001365 0.0
4.377637 2.100027 0.001710 0.0
4.230408 0.054958 0.000476 0.0
3.916061 2.347048 -0.001924 0.0
1.277905 1.685313 -0.002893 0.0
0.403568 1.337324 0.000475 0.0
4.068875 2.207855 -0.001122 0.0
0.260899 0.899156 0.004364 0.0
3.127904 2.038055 -0.002068 0.0
1.069620 0.796914 -0.000191 0.0
1.423262 0.519808 0.002036 0.0
3.067782 2.253725 0.000958 0.0
2.103426 1.381639 -0.001853 0.0
4.114763 0.846440 -0.000159 0.0
1.946232 0.646210 -0.002941 0.0
2.359178 1.593083 -0.002489 0.0
1.774651 0.943619 0.003221 0.0
2.156610 0.180727 0.006378 0.0
3.227648 0.837055 -0.002076 0.0
0.590450 2.293228 0.001064 0.0
3.348973 0.101981 0.004192 0.0
1.589320 0.465622 -0.006661 0.0
1.220362 2.465734 -0.000449 0.0
1.544686 2.225661 -0.000422 0.0
1.377354 0.431290 -0.000145 0.0
1.279919 0.454154 0.000075 0.0
2.045495 1.296754 0.000204 0.0
3.613182 0.897729 0.003493 0.0
4.035000 0.609939 -0.000863 0.0
0.684948 1.248647 -0.004982 0.0
3.507258 0.157700 -0.003050 0.0
4.307551 1.576064 0.001184 0.0
0.993757 0.749149 -0.003867 0.0
2.273719 1.812750 0.002571 0.0
1.396767 2.160514 -0.003600 0.0
0.717037 1.174992 0.004395 0.0
3.960129 0.153410 -0.003792 0.0
3.013928 0.940286 0.002077 0.0
3.142432 1.001943 0.000810 0.0
0.486989 2.475018 0.002711 0.0
2.086038 0.411237 -0.001239 0.0
2.824822 0.788643 0.001688 0.0
2.118558 2.099727 0.000958 0.0
3.638604 0.518899 0.000316 0.0
0.593492 2.314162 0.000141 0.0
0.359431 0.891099 -0.000952 0.0
0.829881 1.610772 -0.000310 0.0
1.422335 1.667661 0.001472 0.0
1.852174 2.248549 0.003154 0.0
3.725725 1.376631 -0.000025 0.0
0.047506 0.558119 -0.002542 0.0
0.633798 0.938833 -0.001136 0.0
2.279968 0.406207 -0.002342 0.0
2.071770 2.375701 -0.000691 0.0
4.113173 2.293448 -0.003842 0.0
1.839536 0.325167 -0.000204 0.0
2.393670 0.063389 0.001338 0.0
4.352671 0.369264 0.002858 0.0
3.187094 0.837119 0.000745 0.0
3.047783 1.048646 0.000029 0.0
2.003739 2.434641 -0.001546 0.0
3.078758 2.198117 0.003272 0.0
2.438591 1.727026 0.006206 0.0
3.404961 1.939530 -0.003560 0.0
0.778819 1.286287 -0.000262 0.0
4.332048 0.264701 0.001047 0.0
2.685988 0.906782 0.000489 0.0
1.590207 1.298537 0.002248 0.0
1.315915 1.771967 -0.003671 0.0
3.002863 1.361467 0.000671 0.0
2.569352 0.513877 -0.003140 0.0
1.872567 0.970889 0.003487 0.0
0.376181 0.288797 0.001563 0.0
4.049756 2.155233 0.002694 0.0
4.102182 1.272700 0.000324 0.0
0.765379 1.350374 -0.000474 0.0
2.510939 1.092655 -0.006238 0.0
1.713961 2.350947 0.002050 0.0
3.991663 1.743382 -0.000502 0.0
0.450471 1.303921 0.000373 0.0
4.386722 1.727289 0.002387 0.0
2.199611 0.055754 -0.004644 0.0
2.477838 0.318364 0.000114 0.0
1.638021 1.546755 0.000617 0.0
1.999744 1.600885 0.002493 0.0
1.109505 1.862692 0.005245 0.0
0.516446 0.852864 0.000440 0.0
0.668607 0.006195 0.001506 0.0
4.368987 2.476393 -0.001341 0.0
4.373427 2.327050 0.003082 0.0
2.269674 2.220050 -0.002609 0.0
2.305566 1.170544 -0.001005 0.0
0.161760 1.426342 0.001854 0.0
1.314741 1.583059 -0.001342 0.0
1.857465 0.519550 -0.000326 0.0
1.260128 1.507651 0.000361 0.0
0.995848 1.102988 -0.005258 0.0
1.573026 2.451101 0.001606 0.0
0.517354 0.814431 0.001611 0.0
1.512562 0.825246 -0.002549 0.0
1.615180 0.674460 0.000746 0.0
1.471265 1.949779 0.002043 0.0
1.184270 2.038022 0.000313 0.0
1.487816 1.312133 0.003506 0.0
0.245638 2.250405 -0.000489 0.0
3.199027 1.093787 -0.001468 0.0
3.134624 1.746712 0.000478 0.0
4.375971 2.219833 -0.002952 0.0
1.434547 1.648306 -0.002197 0.0
1.268159 0.521741 -0.001807 0.0
3.784887 0.721377 -0.001279 0.0
2.777306 0.336370 -0.000052 0.0
0.506421 0.105987 -0.000960 0.0
1.430453 2.170965 0.001234 0.0
1.021972 0.925573 0.001596 0.0
0.943616 1.369139 -0.004278 0.0
3.668976 0.142892 -0.000607 0.0
1.863889 1.209209 -0.000719 0.0
0.583911 1.515518 0.003298 0.0
3.028859 1.843504 0.004592 0.0
2.296451 0.900669 0.000177 0.0
3.364954 1.967269 0.002187 0.0
0.419240 2.059052 0.001902 0.0
1.989397 1.610129 0.004605 0.0
0.359164 1.821004 -0.001436 0.0
1.897304 1.416109 -0.000317 0.0
3.905325 1.450470 0.001501 0.0
3.042889 1.611600 -0.001156 0.0
1.539919 0.111894 0.001165 0.0
3.618399 0.545194 0.000995 0.0
1.327150 0.045640 -0.004821 0.0
0.089921 0.792158 0.003414 0.0
0.363171 2.026637 -0.002563 0.0
2.779039 1.719444 0.002055 0.0
2.709493 0.424371 -0.000659 0.0
2.274299 2.435122 0.001348 0.0
4.099715 2.425506 -0.003211 0.0
0.007293 1.250843 -0.002900 0.0
2.263062 0.507611 0.001175 0.0
0.515313 1.561622 -0.001317 0.0
2.174932 1.496683 0.003304 0.0
0.929042 1.260548 -0.001222 0.0
3.048341 1.959235 -0.002947 0.0
1.277586 1.384199 0.002120 0.0
4.065963 0.590880 -0.000712 0.0
1.430609 0.337234 0.000440 0.0
3.434819 0.414760 0.002315 0.0
2.941278 0.499578 0.000883 0.0
2.616055 0.944127 0.000330 0.0
2.996986 1.251808 0.001018 0.0
0.377381 0.108724 -0.000728 0.0
1.282598 0.290186 -0.002598 0.0
2.062116 1.600556 -0.000364 0.0
1.344029 1.036582 -0.004740 0.0
4.283956 1.987445 0.003258 0.0
0.760640 0.850067 -0.000515 0.0
2.109824 0.886488 0.001379 0.0
4.159382 1.898409 0.005877 0.0
2.455826 0.965449 0.002190 0.0
3.435202 2.109851 -0.000636 0.0
4.338838 1.036831 -0.000695 0.0
0.646966 1.041433 0.004800 0.0
0.046131 0.954390 -0.001118 0.0
0.531255 0.017912 -0.004011 0.0
3.985195 1.938965 0.003924 0.0
1.731294 2.008573 0.002063 0.0
0.447007 1.152132 0.001759 0.0
3.292167 1.689753 0.001064 0.0
3.859193 1.836838 -0.002902 0.0
2.805103 1.844322 -0.001504 0.0
4.288895 0.280624 -0.001364 0.0
1.223053 0.859267 -0.000130 0.0
0.540545 1.656077 0.001123 0.0
1.618227 2.405158 0.000857 0.0
3.903598 2.179572 0.000274 0.0
4.252990 0.084424 0.005080 0.0
3.122622 0.197777 -0.000424 0.0
3.573064 0.358574 0.001765 0.0
0.122361 1.224386 -0.001466 0.0
3.746441 2.374290 -0.001811 0.0
4.462960 0.416832 -0.001022 0.0
2.492564 0.943272 -0.000449 0.0
2.766043 1.819696 -0.000830 0.0
1.753504 1.113073 0.003289 0.0
1.746941 1.664519 0.003136 0.0
3.747864 1.199143 -0.000491 0.0
3.947014 2.438287 0.001309 0.0
3.944735 1.431855 -0.000462 0.0
0.185305 0.430824 -0.001647 0.0
1.589813 0.900933 0.002762 0.0
2.392980 1.992663 0.004678 0.0
4.438293 0.363802 0.001782 0.0
0.530107 2.336334 0.001484 0.0
4.126228 1.496164 0.001667 0.0
2.783877 0.451059 -0.002998 0.0
4.388112 1.249375 -0.003683 0.0
1.464278 1.267804 0.001382 0.0
3.851684 0.843003 -0.001751 0.0
3.053140 1.612812 0.003753 0.0
2.999557 0.736973 -0.001595 0.0
0.637567 0.650783 -0.001136 0.0
3.632855 0.598791 -0.001298 0.0
3.458606 1.856375 -0.001368 0.0
3.994237 0.559133 -0.000817 0.0
0.158387 0.116478 -0.001697 0.0
3.089333 1.416344 0.000242 0.0
3.815565 1.872182 -0.001513 0.0
3.980092 0.254280 0.000843 0.0
3.432512 1.497701 0.001410 0.0
3.677715 0.290919 0.000906 0.0
4.370197 1.966618 0.003460 0.0
1.273089 2.124844 0.001232 0.0
4.031136 1.563165 -0.002430 0.0
3.796479 0.818873 -0.004286 0.0
0.040327 1.851151 -0.001925 0.0
4.348116 0.088110 0.001378 0.0
2.685093 0.956358 -0.000064 0.0
3.858063 1.191077 -0.002699 0.0
0.874296 0.627474 0.003232 0.0
2.702725 2.021991 -0.001078 0.0
1.072134 1.355514 -0.002762 0.0
3.672998 0.427211 0.000522 0.0
2.724283 0.455826 0.000921 0.0
3.928138 0.866058 0.000799 0.0
3.167268 0.704867 0.000312 0.0
0.565847 1.816020 -0.003304 0.0
0.550931 1.642403 0.002413 0.0
3.430643 0.333768 0.000538 0.0
1.675730 1.976657 0.001291 0.0
3.258071 0.550374 -0.001125 0.0
2.640534 0.547495 -0.002044 0.0
3.728077 1.449626 0.001742 0.0
4.253730 2.406803 -0.000115 0.0
1.212261 1.582953 -0.002792 0.0
0.339365 2.327771 -0.000853 0.0
4.210726 0.231249 0.001436 0.0
0.173595 0.847510 -0.003300 0.0
0.704506 1.991513 0.003913 0.0
3.444985 1.180257 0.000100 0.0
1.559290 0.800269 0.000480 0.0
3.526964 0.267986 0.003821 0.0
1.860763 1.273842 0.001009 0.0
2.567019 1.492348 0.001805 0.0
1.008781 0.473190 0.002738 0.0
1.837446 0.032686 0.002102 0.0
2.992454 1.081206 -0.000820 0.0
3.431546 0.136058 0.001793 0.0
0.818188 1.688170 0.002456 0.0
2.962270 2.201294 0.000364 0.0
4.123827 0.353971 0.002192 0.0
2.503638 0.780020 0.003275 0.0
1.573857 0.723704 -0.002218 0.0
1.435055 0.842805 -0.000854 0.0
2.518300 0.368035 -0.002080 0.0
2.058509 1.605765 0.001248 0.0
2.328161 1.490229 0.002215 0.0
3.156986 1.163683 -0.000579 0.0
4.156339 0.269152 -0.001103 0.0
1.365619 1.385657 0.000464 0.0
0.806506 0.940715 -0.004236 0.0
0.375523 2.194871 -0.002328 0.0
3.814433 1.196366 0.000427 0.0
3.200495 0.440388 0.001029 0.0
1.598896 2.188418 0.000134 0.0
1.435036 1.988928 -0.002601 0.0
1.709171 0.888482 -0.002693 0.0
0.246872 1.713339 0.001759 0.0
2.201477 0.244748 0.000105 0.0
1.846221 1.090698 -0.000176 0.0
3.506842 1.778810 0.001186 0.0
2.417440 2.360344 0.002831 0.0
2.462511 0.830518 0.003868 0.0
1.344152 1.006188 -0.001706 0.0
0.464165 1.980719 0.003639 0.0
3.161550 1.919963 -0.000308 0.0
2.047271 0.404982 -0.002257 0.0
2.467237 0.042635 -0.001457 0.0
4.040302 2.439126 -0.002171 0.0
4.158158 2.346363 -0.002146 0.0
1.251426 0.478309 0.005169 0.0
3.577415 1.206012 0.003183 0.0
3.339249 0.389881 0.000330 0.0
3.381218 2.034383 0.001545 0.0
0.313516 0.225812 -0.002694 0.0
2.995153 0.536148 0.001161 0.0
0.157908 0.224992 0.001488 0.0
1.973387 2.063319 0.002062 0.0
1.231778 1.797414 0.002057 0.0
4.024616 1.199983 -0.000818 0.0
1.856281 1.015816 0.002784 0.0
2.490966 0.766608 0.005837 0.0
4.281825 2.108559 0.001185 0.0
3.336876 0.797733 -0.001558 0.0
2.426287 1.036827 0.000944 0.0
4.026174 2.476322 -0.000217 0.0
0.882457 1.218329 -0.002729 0.0
3.406917 1.380896 0.003081 0.0
2.044587 1.702192 -0.002800 0.0
2.835826 0.065536 0.002989 0.0
0.281521 0.877488 0.004355 0.0
0.142762 0.662898 -0.000580 0.0
4.393866 0.724697 -0.001343 0.0
2.029655 1.644640 -0.001327 0.0
3.858863 0.670815 0.007019 0.0
4.296031 0.719482 0.001275 0.0
0.132393 0.098516 0.000068 0.0
2.745153 1.865830 0.000001 0.0
2.390017 2.254940 0.003189 0.0
2.047620 1.010234 0.000457 0.0
3.807278 0.060059 0.001068 0.0
0.794440 1.002275 -0.002953 0.0
0.592916 0.720234 0.001617 0.0
0.559200 1.746106 0.002694 0.0
2.001577 0.311058 0.001499 0.0
3.400099 0.135707 0.004733 0.0
1.181988 2.393164 -0.003133 0.0
1.419773 0.400535 -0.001191 0.0
0.566817 0.290317 -0.001985 0.0
3.515179 1.371531 0.000439 0.0
2.168245 0.233118 0.001952 0.0
3.685787 0.158762 0.002751 0.0
3.241281 1.950834 0.003280 0.0
2.491797 2.190969 0.004435 0.0
4.414835 1.576358 0.001786 0.0
0.920419 1.082788 -0.002265 0.0
3.829818 1.496687 -0.001771 0.0
3.021352 1.357634 0.000009 0.0
4.362314 0.075764 -0.004192 0.0
4.190987 1.720994 0.000151 0.0
2.037953 0.524654 0.000322 0.0
0.649392 1.606258 0.001020 0.0
0.394214 1.453425 -0.003400 0.0
2.964024 1.676063 0.001698 0.0
3.984679 0.640303 -0.001253 0.0
1.780000 0.085318 0.000345 0.0
3.529422 1.805003 0.004596 0.0
0.311792 0.168960 0.001437 0.0
2.465324 1.683967 0.001203 0.0
2.374092 1.210947 0.001449 0.0
3.065878 0.934117 -0.000619 0.0
0.952032 2.149624 0.002597 0.0
0.440717 1.437128 -0.000325 0.0
2.155607 1.961286 0.005072 0.0
3.308149 1.860182 0.003396 0.0
0.328558 2.106467 -0.001428 0.0
4.392731 0.516074 -0.001880 0.0
1.625089 1.746002 0.003434 0.0
3.197669 1.168618 -0.000228 0.0
0.473335 1.504720 0.000596 0.0
0.480952 2.466765 0.003739 0.0
4.282693 1.342352 -0.000892 0.0
4.388807 1.438171 -0.002614 0.0
1.993449 0.785681 -0.000483 0.0
0.753291 0.599789 -0.004156 0.0
2.239130 1.247870 -0.003222 0.0
3.022853 1.548076 0.003136 0.0
1.338608 0.552913 -0.002794 0.0
3.407572 1.183160 0.004743 0.0
1.987094 2.056529 -0.002715 0.0
4.346904 1.177307 0.000517 0.0
3.398335 1.569313 -0.000927 0.0
1.166925 2.069724 0.000039 0.0
0.143472 0.610278 -0.004209 0.0
1.025389 2.354813 0.002397 0.0
1.540268 0.457868 -0.003288 0.0
4.324219 2.207076 0.000148 0.0
2.696165 0.687974 -0.004246 0.0
1.589049 1.950298 0.001058 0.0
1.931633 0.792163 -0.000307 0.0
0.126441 1.705808 0.002604 0.0
0.438713 1.211200 0.000507 0.0
3.836358 2.218734 -0.002580 0.0
1.733011 0.811894 -0.002132 0.0
1.744134 0.337450 0.001298 0.0
2.234445 0.879883 0.000005 0.0
4.311896 2.089674 -0.001097 0.0
2.961301 0.132071 -0.000509 0.0
0.361600 1.104568 -0.001815 0.0
4.222932 0.312064 -0.001967 0.0
0.133606 1.966185 -0.001884 0.0
2.012273 0.041006 -0.003115 0.0
0.470927 1.128372 0.000846 0.0
2.077498 0.860107 -0.000264 0.0
1.952792 1.466299 -0.000661 0.0
0.170737 1.948274 0.003497 0.0
0.737760 2.373641 -0.001568 0.0
0.817789 1.416373 0.006510 0.0
4.183334 2.097293 0.004399 0.0
3.684220 0.513367 -0.004655 0.0
0.650665 0.219996 0.002239 0.0
