2.45074420 1.28676938 -0.00426447 0.00000000
3.49813464 1.72040196 0.00437450 0.00000000
0.69363758 1.66912358 0.00378157 0.00000000
3.79922951 2.41172695 0.00302981 0.00000000
2.86618272 1.66594814 -0.00191056 0.00000000
0.97940962 0.46848201 -0.00112462 0.00000000
2.66767128 2.07726728 -0.00051852 0.00000000
4.53389243 1.19302558 -0.00260922 0.00000000
3.99791155 0.00613738 -0.00610976 0.00000000
3.10844109 0.72784544 0.00502991 0.00000000
1.91980705 2.04223739 0.00096790 0.00000000
0.46368153 2.07811508 -0.00023346 0.00000000
3.96583239 0.61323366 -0.00068030 0.00000000
4.55047007 2.41172748 -0.00169996 0.00000000
3.14896972 0.68935428 0.00186920 0.00000000
4.47960644 0.20722702 -0.00185152 0.00000000
1.44006747 1.04574701 -0.00354774 0.00000000
1.61014774 1.24043131 0.00041486 0.00000000
4.48189488 2.27414546 -0.00012043 0.00000000
4.04405117 1.97619763 -0.00042515 0.00000000
2.41590975 1.65912727 0.00272875 0.00000000
4.20018687 2.39072754 -0.00182817 0.00000000
2.47451458 0.24650361 -0.00265594 0.00000000
0.65851606 2.23663360 -0.00464310 0.00000000
1.21775198 1.30523141 -0.00379772 0.00000000
3.73019499 1.40755642 0.00435362 0.00000000
2.09766338 0.24927453 0.00417796 0.00000000
2.80984754 2.18037780 -0.00175891 0.00000000
0.23134867 1.95236306 0.00165126 0.00000000
0.60012736 0.39167009 -0.00217225 0.00000000
0.68232666 0.68557752 -0.00222380 0.00000000
2.74362484 1.22983781 -0.00164300 0.00000000
2.70490144 0.83275305 -0.00054631 0.00000000
3.75422153 1.24544874 -0.00205771 0.00000000
0.61811354 1.13942531 -0.00609152 0.00000000
0.54079919 1.47272414 -0.00296187 0.00000000
1.10400109 1.85845951 -0.00296272 0.00000000
3.68323827 1.02499258 -0.00102912 0.00000000
2.80428513 1.92690222 0.00076980 0.00000000
2.84777006 1.04711686 0.00002994 0.00000000
0.05373237 1.05050347 -0.00169409 0.00000000
2.51636482 0.99874527 0.00248435 0.00000000
3.43811176 1.57718470 -0.00242016 0.00000000
4.39160345 0.68632831 0.00184518 0.00000000
4.75674465 0.62045401 0.00397604 0.00000000
2.03239998 1.93549471 0.00056029 0.00000000
3.05061735 0.22722379 -0.00143376 0.00000000
3.05708961 1.80348996 0.00245763 0.00000000
4.31282106 1.72493114 0.00483433 0.00000000
1.79254375 0.79189721 -0.00421328 0.00000000
2.01784624 0.18303230 -0.00348408 0.00000000
1.59553679 1.06125420 -0.00068134 0.00000000
1.69242110 0.41693094 -0.00480208 0.00000000
0.92702330 0.02154744 -0.00080564 0.00000000
2.60483673 1.51012160 -0.00473232 0.00000000
4.39554403 2.00726810 0.00014951 0.00000000
2.32073671 0.34972683 -0.00193558 0.00000000
1.34682914 0.25403926 -0.00247140 0.00000000
3.50220927 0.94905301 0.00324834 0.00000000
0.47431270 0.62434451 -0.00172377 0.00000000
1.24030908 1.25561519 0.00247013 0.00000000
2.19274681 0.05342104 0.00122435 0.00000000
1.64410350 2.33036026 -0.00258935 0.00000000
3.85393621 1.15281799 0.00011370 0.00000000
4.36849939 0.10043654 -0.00186380 0.00000000
4.38714671 0.55786325 0.00120840 0.00000000
3.32392734 1.20471997 0.00005231 0.00000000
4.74252935 0.72124246 0.00168754 0.00000000
0.95980009 0.28123141 -0.00082254 0.00000000
1.24102061 1.39679966 -0.00053548 0.00000000
0.81811282 0.08060912 -0.00561424 0.00000000
3.11590775 2.39401008 0.00180091 0.00000000
0.66055114 0.69629970 0.00246771 0.00000000
1.82521258 1.07626565 -0.00660738 0.00000000
4.76664063 0.53492992 -0.00040271 0.00000000
4.25669859 1.73465710 0.00006708 0.00000000
0.78827783 1.13218282 0.00142499 0.00000000
3.86319703 0.97767739 -0.00512765 0.00000000
2.68107461 2.12682551 -0.00526339 0.00000000
0.56944168 1.93300597 -0.00277011 0.00000000
3.05015251 0.01947387 0.00491650 0.00000000
0.32126626 0.48262037 0.00027287 0.00000000
4.72019347 1.62934250 -0.00110286 0.00000000
1.62662919 1.04431854 -0.00185324 0.00000000
0.35716898 2.42424811 -0.00170720 0.00000000
1.77879661 1.02221125 -0.00106676 0.00000000
3.32458318 2.35799249 0.00327610 0.00000000
3.69199631 0.99848962 -0.00581803 0.00000000
2.14674178 2.32582923 -0.00046064 0.00000000
2.43435827 2.06937504 -0.00013954 0.00000000
0.43725789 0.69647575 -0.00412404 0.00000000
4.32357321 0.31147657 -0.00192895 0.00000000
0.11511881 1.64239003 -0.00168199 0.00000000
3.70402793 0.41612166 0.00541270 0.00000000
0.34031694 2.03407862 0.00080913 0.00000000
2.74198677 0.87703495 0.00208731 0.00000000
2.29811983 0.05045649 0.00061400 0.00000000
4.37849056 1.94207507 0.00267199 0.00000000
3.71877350 0.65452588 -0.00198155 0.00000000
4.62073354 2.10658659 -0.00276716 0.00000000
2.80362505 1.69277835 -0.00058849 0.00000000
0.89078218 1.26308618 0.00133120 0.00000000
1.06913426 2.12546117 0.00497839 0.00000000
4.65234033 0.11699807 0.00002154 0.00000000
0.70344495 0.06966285 -0.00015976 0.00000000
2.13090365 2.17771600 -0.00274684 0.00000000
2.91094606 1.50642557 0.00012253 0.00000000
3.87014467 0.85856596 -0.00242101 0.00000000
1.27081704 1.30477458 0.00076574 0.00000000
3.80357419 2.44549644 0.00203024 0.00000000
4.89096517 0.12678577 -0.00245124 0.00000000
3.93879933 1.87553611 -0.00318269 0.00000000
1.99297668 0.43953119 0.00369310 0.00000000
3.58702565 0.12539973 -0.00074077 0.00000000
4.20591342 1.46759905 -0.00018860 0.00000000
0.47031319 1.34181266 0.00008686 0.00000000
4.83916425 1.45809262 -0.00011503 0.00000000
1.20173310 0.08559332 -0.00078938 0.00000000
1.44032348 0.69866399 -0.00455090 0.00000000
3.82952869 1.48781252 -0.00094797 0.00000000
2.77499746 0.45436106 -0.00073780 0.00000000
0.88323364 0.72790179 0.00049052 0.00000000
2.25496961 0.83362042 -0.00399662 0.00000000
1.95537759 0.47721659 -0.00227316 0.00000000
2.84917789 0.10854897 0.00017520 0.00000000
1.71347609 2.30741102 -0.00018668 0.00000000
3.35539969 1.97738171 0.00125196 0.00000000
4.55900301 0.72926009 -0.00273883 0.00000000
1.69604728 2.09415477 -0.00049721 0.00000000
1.06814305 0.99193036 -0.00008346 0.00000000
1.49642793 1.50061891 -0.00041187 0.00000000
0.54665505 1.71531311 0.00146855 0.00000000
3.54669109 0.69728487 -0.00137901 0.00000000
3.11872669 2.29388983 -0.00432935 0.00000000
1.13533766 2.07287063 0.00107230 0.00000000
1.64367269 1.55016658 -0.00094382 0.00000000
3.63507264 0.95885287 -0.00316795 0.00000000
0.95459997 0.38368401 0.00468822 0.00000000
4.77606345 1.00010013 0.00021751 0.00000000
0.72267509 1.03755306 -0.00023146 0.00000000
3.28621641 2.10894010 0.00098445 0.00000000
3.59136188 2.12826951 0.00404209 0.00000000
2.53735217 0.41387154 0.00176917 0.00000000
3.81867216 0.22075835 0.00090954 0.00000000
0.53119459 1.07037011 -0.00056372 0.00000000
0.81329883 0.48210092 0.00160432 0.00000000
3.95125424 1.42167875 -0.00059889 0.00000000
2.19791717 1.85282874 -0.00318866 0.00000000
1.97729734 0.09501239 0.00008006 0.00000000
1.68633197 2.01754833 0.00098405 0.00000000
2.27054898 0.66559384 0.00137541 0.00000000
0.58682387 0.16659362 0.00097755 0.00000000
4.41631438 2.24605731 0.00312961 0.00000000
2.95423295 1.67023061 -0.00194706 0.00000000
4.14753331 0.67347528 0.00124531 0.00000000
0.10930191 0.21257104 -0.00048448 0.00000000
4.13548476 1.49914929 0.00605581 0.00000000
4.07278884 1.89620990 -0.00004894 0.00000000
1.63785987 1.30606602 -0.00012219 0.00000000
2.31759510 0.27933475 -0.00145781 0.00000000
0.76246084 1.72747947 0.00205003 0.00000000
4.62286266 1.30327208 0.00105512 0.00000000
4.86246295 1.14794317 -0.00095078 0.00000000
4.54399942 0.92676269 0.00152018 0.00000000
4.49958932 1.76938618 -0.00030304 0.00000000
2.73163537 1.44522236 -0.00323406 0.00000000
1.87737455 0.58804154 -0.00326537 0.00000000
2.12201331 2.12755920 -0.00098643 0.00000000
2.63449939 0.87528823 -0.00034650 0.00000000
4.43027093 0.08646690 0.00105738 0.00000000
0.12246656 2.22813261 0.00146223 0.00000000
1.29067524 2.21793131 0.00053778 0.00000000
1.21575972 0.53946408 -0.00293395 0.00000000
2.07533460 0.45032527 -0.00416365 0.00000000
1.55908061 0.92164983 -0.00462603 0.00000000
2.39341419 1.63030745 0.00128125 0.00000000
0.76591426 2.01862014 -0.00110300 0.00000000
2.20157750 1.50637735 -0.00334080 0.00000000
2.05914562 0.97782961 -0.00129214 0.00000000
3.02316933 1.45219866 0.00008504 0.00000000
0.22392582 1.96946086 -0.00015132 0.00000000
1.54874755 1.27426972 0.00118451 0.00000000
1.00268350 1.30617922 -0.00476202 0.00000000
4.27321621 1.33051654 -0.00164818 0.00000000
2.80342290 1.33953178 -0.00353275 0.00000000
2.11275566 0.95119298 0.01064856 0.00000000
4.75397210 2.33759717 0.00092539 0.00000000
4.64314774 1.10945808 0.00305121 0.00000000
0.57352395 1.97541766 0.00177839 0.00000000
3.03920905 2.27181794 0.00103358 0.00000000
3.51429614 0.64093072 0.00000138 0.00000000
3.35270223 0.32968232 0.00358341 0.00000000
0.07157595 2.33839002 -0.00081307 0.00000000
3.96185331 1.18264445 0.00171742 0.00000000
2.87399460 1.67364687 -0.00268926 0.00000000
2.27181168 1.73778897 0.00149741 0.00000000
1.60871766 0.01070253 -0.00497195 0.00000000
3.38257263 0.22388623 0.00223762 0.00000000
0.32130413 0.79349940 -0.00117522 0.00000000
1.51746798 0.73632535 -0.00335640 0.00000000
4.57607187 0.88022862 0.00150064 0.00000000
4.51635869 0.05739549 -0.00120800 0.00000000
2.43511940 0.44409878 -0.00036023 0.00000000
2.28690944 0.29419842 0.00164174 0.00000000
2.49765748 0.73745915 0.00019212 0.00000000
2.95823347 1.92112167 0.00114583 0.00000000
3.68299299 1.19017655 -0.00289986 0.00000000
3.33734273 0.00036480 -0.00030983 0.00000000
2.49873557 0.64828797 -0.00023363 0.00000000
1.52199022 1.17580825 0.00164170 0.00000000
3.12673938 1.52893236 0.00130430 0.00000000
1.99023931 1.48028964 -0.00108606 0.00000000
0.88276679 0.85610935 0.00159318 0.00000000
0.43527909 1.36262816 0.00121508 0.00000000
3.47921689 1.86867554 0.00076926 0.00000000
0.97635094 2.00253003 -0.00323246 0.00000000
3.38127742 2.30547463 0.00169773 0.00000000
0.50077329 1.57934455 -0.00000659 0.00000000
4.33107321 0.11489485 -0.00154588 0.00000000
3.11710092 1.53857207 0.00048029 0.00000000
1.10252992 2.24938564 0.00197100 0.00000000
3.90115038 2.31104885 -0.00150617 0.00000000
4.14870075 0.30022427 0.00218053 0.00000000
1.26548451 2.02945152 -0.00347635 0.00000000
1.88132638 1.72828537 -0.00346785 0.00000000
2.75923554 1.97927143 0.00028380 0.00000000
0.28463152 0.66401806 0.00206622 0.00000000
2.18031582 1.69004958 0.00117089 0.00000000
0.56340937 0.65484482 0.00029869 0.00000000
4.09476670 1.99557234 -0.00148792 0.00000000
2.86148171 1.88201926 -0.00174516 0.00000000
1.18035645 0.46783482 -0.00085159 0.00000000
0.42655217 2.18695462 0.00192628 0.00000000
0.48214670 0.31429397 -0.00089257 0.00000000
4.24696401 1.97232706 -0.00051289 0.00000000
4.66090847 2.40500591 0.00295797 0.00000000
0.73995903 2.23925668 -0.00576392 0.00000000
2.39007752 1.85785474 -0.00047386 0.00000000
1.56548765 2.32459363 -0.00578390 0.00000000
1.30500034 1.93047002 -0.00021522 0.00000000
3.76715743 1.52041129 0.00290677 0.00000000
1.67866300 2.11545301 -0.00235722 0.00000000
1.42266409 2.13297945 0.00062945 0.00000000
4.25937831 2.25579438 -0.00021077 0.00000000
2.62385293 0.15691433 -0.00273538 0.00000000
4.41369121 2.44343215 0.00060532 0.00000000
1.85696121 1.10201091 0.00211110 0.00000000
0.81443628 0.44360233 -0.00806659 0.00000000
0.62505065 0.73661502 -0.00003120 0.00000000
0.92088973 0.72810763 0.00223156 0.00000000
4.01348011 0.24189063 0.00097515 0.00000000
4.34030224 0.46681972 0.00358679 0.00000000
4.34105445 1.65666596 0.00241308 0.00000000
4.89247738 1.08652726 0.00545451 0.00000000
3.80114808 0.11912797 0.00449780 0.00000000
2.27661569 0.87973969 -0.00008620 0.00000000
4.08873388 2.02636907 0.00039929 0.00000000
0.30074388 2.45640598 0.00050898 0.00000000
4.66587611 0.34713378 -0.00087253 0.00000000
4.19131051 2.15831425 0.00145014 0.00000000
2.25647379 0.75274151 0.00104815 0.00000000
2.02931296 0.06754752 0.00229984 0.00000000
3.83893534 1.81234226 -0.00000582 0.00000000
1.91712698 1.48101267 -0.00160127 0.00000000
1.13046856 0.86914343 0.00196446 0.00000000
3.36428993 0.99760508 -0.00179025 0.00000000
1.51787939 1.55245991 0.00214673 0.00000000
3.84069763 1.39755983 0.00310075 0.00000000
1.61675579 2.15272766 0.00130743 0.00000000
2.36473572 0.59988137 0.00149708 0.00000000
2.98484668 1.12023534 -0.00259514 0.00000000
1.65518950 1.28879786 -0.00048529 0.00000000
4.44820329 0.21100432 -0.00243137 0.00000000
3.69417810 0.28915309 0.00160941 0.00000000
3.63344163 0.31192694 -0.00029923 0.00000000
2.37942593 1.47792308 0.00609863 0.00000000
3.97036205 2.26446219 0.00129904 0.00000000
2.04218849 1.52397847 0.00442421 0.00000000
4.85141973 2.33586660 0.00124459 0.00000000
4.70868148 1.91943032 -0.00448246 0.00000000
2.42639820 0.56109136 0.00245395 0.00000000
2.77342159 0.01480952 -0.00191736 0.00000000
0.42479444 2.44041841 -0.00118551 0.00000000
3.46182076 0.85046930 -0.00179803 0.00000000
0.21387605 1.83807411 0.00135103 0.00000000
3.11262522 1.78738635 -0.00384019 0.00000000
2.47665207 1.23541404 0.00336687 0.00000000
0.46946037 1.98420871 -0.00064619 0.00000000
2.30851642 1.14084206 0.00057915 0.00000000
0.05270239 1.71909830 0.00201073 0.00000000
1.01642060 0.17401369 0.00084690 0.00000000
0.81756253 1.36413429 -0.00469886 0.00000000
1.69624414 1.42222488 -0.00022185 0.00000000
2.78037042 1.06850394 0.00139917 0.00000000
2.83039955 2.23528436 -0.00125782 0.00000000
1.19309502 0.49146347 0.00085859 0.00000000
0.21088025 1.20616873 -0.00303623 0.00000000
3.15646622 2.16136304 0.00592293 0.00000000
3.16383684 0.46031897 -0.00082191 0.00000000
0.40536798 0.15377066 -0.00051766 0.00000000
1.19004127 0.92551103 -0.00098702 0.00000000
3.27558643 2.29873291 -0.00298086 0.00000000
3.32769958 0.75928388 -0.00292722 0.00000000
4.87077844 0.68991950 0.00049317 0.00000000
2.80391917 0.64841712 0.00284220 0.00000000
1.47102473 0.02482574 -0.00261565 0.00000000
3.34798923 2.27306439 0.00042722 0.00000000
1.76658738 1.78602852 0.00387494 0.00000000
1.40746183 0.30331329 0.00241780 0.00000000
1.34451555 2.31619835 -0.00302775 0.00000000
4.69704119 1.44559903 0.00073344 0.00000000
1.87824885 0.60728436 0.00208961 0.00000000
2.86876935 0.95846694 0.00261383 0.00000000
1.70048475 1.51176909 -0.00117832 0.00000000
2.98042843 2.01283759 0.00149353 0.00000000
2.22693231 0.13114025 -0.00052760 0.00000000
2.74453831 0.44871657 0.00050168 0.00000000
3.50338980 0.10343681 0.00157875 0.00000000
1.85703991 0.46580231 0.00020194 0.00000000
0.84543406 1.92797771 -0.00407987 0.00000000
2.82144251 1.77082748 -0.00308953 0.00000000
1.98834122 0.93689828 0.00211454 0.00000000
1.60966435 1.96174603 0.00169086 0.00000000
2.35465577 0.37120574 0.00045727 0.00000000
2.13784471 2.26028187 -0.00131844 0.00000000
0.18010551 0.35789523 -0.00226674 0.00000000
4.24580189 1.03407723 0.00392629 0.00000000
1.45786388 0.33207215 -0.00121671 0.00000000
0.76387286 2.37026842 0.00487763 0.00000000
2.48063482 1.65349542 0.00410079 0.00000000
3.65309034 0.67938526 0.00236960 0.00000000
4.07810771 0.31480673 -0.00036134 0.00000000
4.01054524 0.64275812 0.00100977 0.00000000
0.62577757 0.37195246 -0.00154591 0.00000000
0.15788556 1.32236004 -0.00360018 0.00000000
0.64694376 2.04267846 0.00443206 0.00000000
3.12954607 0.62558311 0.00368573 0.00000000
2.24637813 2.06201079 0.00194462 0.00000000
0.12082894 1.45607980 0.00275406 0.00000000
4.64594372 1.07822415 0.00297865 0.00000000
0.00733856 1.55890868 0.00206583 0.00000000
1.77609384 1.86553417 -0.00293090 0.00000000
3.08841994 1.16072728 0.00043113 0.00000000
2.49143279 2.14128318 0.00000418 0.00000000
3.34539415 0.25826457 0.00365779 0.00000000
1.80402510 2.09880037 -0.00177895 0.00000000
0.84537777 1.14148824 -0.00088413 0.00000000
1.64032882 0.16758693 -0.00156719 0.00000000
0.03935784 0.54848210 0.00312591 0.00000000
3.54889011 0.42657626 -0.00662138 0.00000000
4.49355048 0.70800841 -0.00005464 0.00000000
3.29273471 1.40463802 -0.00056992 0.00000000
4.21507490 1.17745879 -0.00243450 0.00000000
0.57233515 2.13661987 -0.00061450 0.00000000
4.63860479 1.80551663 0.00096635 0.00000000
2.14028670 0.44125486 0.00403215 0.00000000
2.47880586 1.13269870 -0.00233830 0.00000000
1.82857994 0.28526444 0.00015231 0.00000000
1.63296905 0.53360255 0.00270808 0.00000000
1.58133627 1.89895577 -0.00534299 0.00000000
3.55943844 2.29476315 0.00068813 0.00000000
3.65261132 1.40023006 -0.00003388 0.00000000
2.54311061 0.03533957 0.00034406 0.00000000
2.24365392 1.91169829 0.00325204 0.00000000
0.78226079 1.53153916 0.00143536 0.00000000
4.53245015 0.47293824 -0.00136520 0.00000000
4.34458322 1.33146841 0.00050515 0.00000000
4.13802735 0.03457869 -0.00383342 0.00000000
4.10169488 1.63965799 0.00059014 0.00000000
3.93574561 1.30908924 -0.00309100 0.00000000
0.69359601 0.49040772 0.00075954 0.00000000
4.30804972 2.41996858 -0.00320691 0.00000000
3.27490791 2.47532811 0.00079311 0.00000000
3.29996565 1.19805184 0.00013913 0.00000000
3.48687326 1.94139473 -0.00516623 0.00000000
4.48597178 1.32164537 -0.00061447 0.00000000
1.95522438 1.96142210 -0.00362356 0.00000000
4.68112272 0.72639688 0.00060805 0.00000000
2.80241866 1.29178179 0.00224756 0.00000000
4.35150045 1.78293202 -0.00289819 0.00000000
3.72676050 0.37386667 -0.00044155 0.00000000
4.73176471 1.65007324 0.00118538 0.00000000
4.19930042 1.42413541 0.00506802 0.00000000
3.42899342 0.78619038 0.00194730 0.00000000
4.09475212 1.49724733 -0.00065509 0.00000000
3.78687342 1.88526173 -0.00410969 0.00000000
4.33246262 2.06337864 0.00203593 0.00000000
4.08078910 0.95489672 0.00314110 0.00000000
0.52992758 2.29314623 -0.00181870 0.00000000
3.58648783 2.43485168 0.00020647 0.00000000
3.28716141 2.04248287 0.00205480 0.00000000
2.29437615 1.40888990 -0.00546354 0.00000000
4.74759675 0.74821574 -0.00260015 0.00000000
4.27817959 2.08630916 0.00209228 0.00000000
0.53891216 0.30383206 -0.00228664 0.00000000
4.46329371 1.38851700 -0.00344743 0.00000000
3.37445933 0.98880992 -0.00535082 0.00000000
1.44115850 1.93147884 0.00226812 0.00000000
4.13082849 0.46623380 0.00037265 0.00000000
1.83658146 1.26640576 0.00219796 0.00000000
2.13961377 2.23365775 0.00045189 0.00000000
4.38936155 0.04014360 0.00082414 0.00000000
1.09167064 0.53735705 -0.00030821 0.00000000
4.73363258 1.61743962 -0.00218964 0.00000000
0.29289606 0.57481833 0.00053281 0.00000000
1.69735706 0.85042969 0.00478983 0.00000000
1.55616414 2.38401139 0.00036410 0.00000000
2.51003288 2.23809548 0.00375538 0.00000000
3.85216200 2.08151943 -0.00196459 0.00000000
2.89731636 0.86294324 0.00144422 0.00000000
3.19188199 2.42736949 0.00212152 0.00000000
2.47431203 1.13801457 0.00110872 0.00000000
3.18766664 1.46783658 0.00235505 0.00000000
0.35511982 1.64045088 -0.00256724 0.00000000
0.89855001 0.28281702 0.00453723 0.00000000
4.76224150 0.04115301 0.00117534 0.00000000
0.72485367 1.33818930 -0.00171444 0.00000000
3.42633642 0.39216726 -0.00233401 0.00000000
2.31202125 1.17465289 -0.00157283 0.00000000
3.43898796 0.15835200 0.00217087 0.00000000
1.43729385 2.00757160 0.00242186 0.00000000
0.95523292 1.88054361 0.00082380 0.00000000
1.05961146 1.43609607 -0.00075498 0.00000000
4.17982430 0.87656147 -0.00244489 0.00000000
1.14637754 2.11732764 -0.00333017 0.00000000
2.65068371 2.06334184 0.00025082 0.00000000
2.57254089 0.13748132 0.00407539 0.00000000
1.24409626 1.68381306 -0.00215592 0.00000000
2.10144862 2.18916547 -0.00046584 0.00000000
3.70962565 1.11812766 0.00206832 0.00000000
0.23460424 1.92359948 -0.00765169 0.00000000
2.24806938 0.53969228 0.00073848 0.00000000
3.11513457 1.43828767 -0.00311869 0.00000000
3.13067578 0.29336947 -0.00171328 0.00000000
4.60043716 2.08734958 -0.00378317 0.00000000
0.86632279 1.79723915 -0.00052369 0.00000000
3.62978748 0.66700886 0.00466524 0.00000000
4.27447720 0.88466718 -0.00047449 0.00000000
1.26148942 1.18896223 -0.00606151 0.00000000
1.45935657 1.05408742 0.00082562 0.00000000
3.06209728 1.63435734 0.00070073 0.00000000
2.14851494 2.32186676 0.00309977 0.00000000
1.89185922 1.17856501 -0.00143278 0.00000000
2.17567112 0.70568275 -0.00065935 0.00000000
1.92012266 1.19310436 0.00260126 0.00000000
0.48700075 0.95000241 -0.00294728 0.00000000
0.53757296 1.52199832 0.00309212 0.00000000
2.85289544 2.06405161 -0.00177254 0.00000000
1.98848914 2.31997135 0.00349176 0.00000000
2.40875581 1.85820107 -0.00174022 0.00000000
3.04105607 0.19056239 0.00163629 0.00000000
3.33404585 0.76545771 -0.00198633 0.00000000
1.74383030 0.72826046 0.00008303 0.00000000
0.40558706 0.11750787 0.00050385 0.00000000
4.26219924 1.78338702 0.00279922 0.00000000
1.38099681 0.23249593 0.00291636 0.00000000
3.93132872 2.29478846 0.00006691 0.00000000
0.68694039 2.47379675 0.00177392 0.00000000
3.84503530 0.96422170 0.00135670 0.00000000
2.16231289 2.22734916 -0.00101996 0.00000000
0.67047722 1.10218959 -0.00153085 0.00000000
2.50758691 2.46818386 -0.00194837 0.00000000
4.66427487 1.59125870 -0.00115438 0.00000000
1.49216408 0.83438666 -0.00480790 0.00000000
4.80025982 1.49231345 0.00040757 0.00000000
0.68919174 0.52257321 -0.00268987 0.00000000
4.21565239 0.20845134 -0.00231867 0.00000000
3.06865713 1.48373939 -0.00251138 0.00000000
1.99850403 1.10250661 -0.00546002 0.00000000
3.91376292 1.88489362 -0.00055455 0.00000000
4.29946549 0.23107772 -0.00073403 0.00000000
3.15412466 1.04979552 0.00252984 0.00000000
0.84015160 1.25608491 0.00124301 0.00000000
0.20254557 1.11742324 -0.00096794 0.00000000
4.68365610 0.86663223 -0.00176645 0.00000000
2.15065371 0.31750069 -0.00137535 0.00000000
1.51350399 0.24242279 0.00042935 0.00000000
1.65650630 0.87400828 -0.00050767 0.00000000
0.12578852 1.79885572 -0.00266005 0.00000000
0.03524159 1.10949550 0.00131796 0.00000000
2.71960504 2.24621171 0.00093180 0.00000000
3.02726810 0.19341485 0.00089594 0.00000000
0.56664977 0.78267887 0.00332319 0.00000000
4.18951470 0.06410133 0.00558830 0.00000000
1.07289433 1.35043815 -0.00078424 0.00000000
1.16872555 1.61443307 0.00522001 0.00000000
2.59433143 0.20699281 0.00208644 0.00000000
2.74320934 0.28927812 0.00259116 0.00000000
3.71036962 1.98341878 0.00087081 0.00000000
1.35717907 0.22145545 -0.00340859 0.00000000
2.82918102 1.36563058 0.00083472 0.00000000
0.74585254 0.36056162 -0.00396486 0.00000000
1.14340049 1.98710399 -0.00242750 0.00000000
1.14423418 0.63159454 0.00186451 0.00000000
0.06516920 2.03134592 -0.00128021 0.00000000
2.21738478 2.42438345 0.00270845 0.00000000
3.21179971 1.75030287 0.00114601 0.00000000
1.77519994 0.57382424 0.00110500 0.00000000
2.51876850 1.42570734 -0.00024463 0.00000000
2.31415039 0.85420293 -0.00389311 0.00000000
1.60231053 2.34936048 -0.00597989 0.00000000
1.66589996 1.02447149 0.00305214 0.00000000
3.56122185 2.10064526 0.00074437 0.00000000
2.00948694 1.74956314 -0.00117799 0.00000000
2.34326905 0.87006868 0.00275852 0.00000000
1.00099669 1.66421479 0.00428642 0.00000000
2.14300069 2.41174753 -0.00221803 0.00000000
4.31420761 0.04026572 0.00389977 0.00000000
1.55994925 0.75923827 0.00324114 0.00000000
2.09560979 1.85106504 -0.00032513 0.00000000
2.99960095 1.60216345 0.00048309 0.00000000
3.72348251 0.82067757 0.00030288 0.00000000
0.09053462 0.98625527 0.00030308 0.00000000
0.03967659 1.08240118 -0.00348504 0.00000000
0.61425137 0.13860013 0.00162194 0.00000000
0.80948198 2.42217956 0.00324427 0.00000000
3.43409593 0.55951515 -0.00061645 0.00000000
0.80784291 0.30975719 -0.00066923 0.00000000
1.34614247 1.26337473 0.00115810 0.00000000
2.89666996 1.81075506 0.00226194 0.00000000
3.92479260 1.63139885 0.00582048 0.00000000
3.29695872 1.84555575 0.00171448 0.00000000
2.27759828 1.90854727 0.00164845 0.00000000
0.51420756 1.10776517 -0.00107929 0.00000000
0.85833758 0.04797671 -0.00462455 0.00000000
0.65641638 2.42365600 -0.00409341 0.00000000
0.83637096 2.32866209 0.00177762 0.00000000
4.88186610 1.07188436 0.00309728 0.00000000
2.13006464 1.37816074 0.00237819 0.00000000
0.25857175 1.35844084 -0.00009758 0.00000000
1.43235086 0.96475796 0.00068736 0.00000000
3.57400530 0.65989299 0.00097465 0.00000000
4.80128983 0.32315668 -0.00431419 0.00000000
3.93567704 1.47537792 -0.00193176 0.00000000
3.84054581 0.97503585 -0.00064113 0.00000000
3.98389522 0.13578912 0.00448922 0.00000000
2.30887047 0.66803101 0.00006991 0.00000000
2.45342767 0.76939924 0.00035804 0.00000000
2.47945442 0.33392204 -0.00042321 0.00000000
4.78742187 0.53448010 -0.00170278 0.00000000
3.05454098 1.86667378 -0.00313606 0.00000000
0.58489265 0.80988670 -0.00037797 0.00000000
0.05568233 0.56701390 -0.00572603 0.00000000
1.32979965 0.17216889 0.00263227 0.00000000
3.68491522 2.22802899 0.00266440 0.00000000
3.23515761 0.38226461 -0.00162538 0.00000000
0.27817407 0.30436556 0.00051067 0.00000000
2.82814068 0.24585573 0.00194573 0.00000000
0.46774896 2.41376242 -0.00242435 0.00000000
0.74417262 1.60350812 0.00249770 0.00000000
0.91727277 1.83857915 -0.00222987 0.00000000
3.23656066 0.45777188 0.00080137 0.00000000
1.15237438 1.30290729 0.00188536 0.00000000
0.74295791 1.75692086 0.00479454 0.00000000
2.53216620 1.74270598 0.00164004 0.00000000
2.02711955 1.38059939 -0.00219562 0.00000000
2.75450222 1.79856912 -0.00242837 0.00000000
2.63257248 0.92232901 -0.00195195 0.00000000
0.20083731 1.84964193 -0.00245281 0.00000000
3.51110092 0.95215913 0.00123201 0.00000000
4.35692497 1.07991580 -0.00200593 0.00000000
4.16613131 1.13711001 -0.00029766 0.00000000
0.61289298 0.16465564 0.00343916 0.00000000
3.47710879 0.88279330 -0.00318929 0.00000000
2.10030261 0.75201492 -0.00094827 0.00000000
2.03008828 0.99123717 -0.00555060 0.00000000
3.87423450 0.81801741 0.00149071 0.00000000
1.22850705 2.01439285 0.00150329 0.00000000
3.35974509 0.38341155 -0.00030871 0.00000000
3.99500055 1.32829433 0.00091014 0.00000000
2.75026717 0.98364798 0.00135759 0.00000000
1.08942234 0.80081515 -0.00449490 0.00000000
3.43062874 1.44591742 -0.00032717 0.00000000
4.14073594 2.38583386 -0.00077973 0.00000000
1.96390011 2.24553761 -0.00251207 0.00000000
4.24125827 0.89675302 0.00165625 0.00000000
2.04260032 2.17213944 0.00120994 0.00000000
3.42062994 0.65597834 -0.00106159 0.00000000
0.64572996 1.84972842 0.00272821 0.00000000
0.83692191 1.94873443 -0.00484501 0.00000000
2.13575573 1.75338934 -0.00197408 0.00000000
2.16781131 1.57964206 -0.00250651 0.00000000
3.50923834 2.33379022 0.00445921 0.00000000
3.47557053 0.85784841 -0.00045152 0.00000000
0.42797960 0.77273995 0.00254203 0.00000000
4.42307799 0.70853052 0.00479938 0.00000000
2.64789813 0.90486767 -0.00209945 0.00000000
0.22486730 2.09063488 -0.00074153 0.00000000
1.01251731 0.66544646 0.00287969 0.00000000
0.92998836 2.36065449 0.00598478 0.00000000
3.12309741 2.10230214 0.00495771 0.00000000
0.39520827 0.22646624 -0.00208668 0.00000000
2.07514065 1.19588295 -0.00037888 0.00000000
1.92873895 1.25110314 0.00582675 0.00000000
4.42376542 2.03652995 0.00445543 0.00000000
2.08103404 0.41628308 -0.00402323 0.00000000
0.55604753 1.30456355 -0.00303222 0.00000000
1.20359740 2.08439962 -0.00236046 0.00000000
1.51610586 1.65195269 0.00291036 0.00000000
1.17335463 1.06732222 -0.00350301 0.00000000
1.65429047 1.00351304 -0.00122986 0.00000000
0.58511958 0.19890524 0.00168488 0.00000000
3.31320787 0.51550054 0.00192135 0.00000000
4.62197078 2.01992294 0.00411260 0.00000000
3.78497243 2.09176656 -0.00289294 0.00000000
4.67193098 1.71544933 -0.00378895 0.00000000
2.24457521 0.29268551 -0.00383934 0.00000000
3.01713784 1.49589425 0.00321419 0.00000000
4.60448246 2.11573742 -0.00065654 0.00000000
0.65713823 1.93164929 0.00097283 0.00000000
1.37030189 1.95759492 0.00419560 0.00000000
1.40639286 0.88623066 0.00000716 0.00000000
0.26310410 0.59777861 -0.00061335 0.00000000
4.85803729 1.39896644 -0.00281785 0.00000000
2.05615918 2.16348256 0.00169823 0.00000000
4.55655580 0.11879389 -0.00013191 0.00000000
1.73532969 0.03659442 0.00160416 0.00000000
0.05558719 1.75427799 -0.00005715 0.00000000
0.83947234 2.36772881 -0.00295819 0.00000000
0.67358006 0.68544789 0.00012605 0.00000000
1.59193990 0.85525032 -0.00074772 0.00000000
4.36450206 0.74267361 0.00334787 0.00000000
4.09933606 1.04632597 0.00134427 0.00000000
3.14063059 0.33956399 0.00153552 0.00000000
4.55130633 1.18454797 -0.00256904 0.00000000
4.58082118 1.41867636 0.00297889 0.00000000
2.77800658 0.93770248 -0.00233627 0.00000000
3.82707666 1.98112256 -0.00020337 0.00000000
3.79198424 2.46175518 -0.00010053 0.00000000
4.77509599 2.37488617 0.00163273 0.00000000
2.66106581 1.71100002 -0.00405463 0.00000000
2.50833712 1.34470752 -0.00070099 0.00000000
0.72235828 0.21803829 0.00147134 0.00000000
1.32069764 1.97696702 -0.00229080 0.00000000
1.11585593 2.23227546 0.00112943 0.00000000
0.88131372 1.38161991 -0.00247606 0.00000000
4.39490907 1.56295417 0.00185278 0.00000000
0.24170318 0.36167168 0.00202088 0.00000000
3.87789285 1.43759914 0.00565584 0.00000000
3.68295912 1.56390622 -0.00056035 0.00000000
2.93600792 0.97001808 0.00202791 0.00000000
2.01595280 2.44270819 -0.00014324 0.00000000
4.46775261 1.95354336 0.00060211 0.00000000
4.80922707 1.92295445 0.00010220 0.00000000
0.17786895 1.98359859 0.00708047 0.00000000
0.00633632 2.24813699 0.00057403 0.00000000
2.91071358 1.70601489 0.00003056 0.00000000
0.75086794 1.53520576 0.00002132 0.00000000
4.85786424 1.97391477 -0.00203683 0.00000000
3.78560790 1.60276138 -0.00210066 0.00000000
2.46751150 0.93503664 0.00171859 0.00000000
3.60417220 2.28039592 -0.00079049 0.00000000
2.78880219 1.44858028 -0.00137498 0.00000000
1.88499469 0.70929494 0.00152985 0.00000000
1.26654968 0.05264056 0.00126112 0.00000000
1.18165350 1.74934718 0.00301867 0.00000000
1.70889544 2.33778968 -0.00414706 0.00000000
3.57030180 2.09161848 0.00133821 0.00000000
2.95514845 1.34170263 -0.00145217 0.00000000
2.15501090 1.14555994 0.00086351 0.00000000
1.72161058 0.78434977 -0.00171602 0.00000000
4.42566551 1.03887561 -0.00256289 0.00000000
0.52426530 1.44791421 0.00011140 0.00000000
3.72001764 2.47312090 -0.00426708 0.00000000
1.97557551 1.57497220 -0.00210409 0.00000000
0.94927426 0.13638805 0.00275076 0.00000000
1.18906989 0.93341399 0.00176480 0.00000000
4.19813487 0.06696157 -0.00206187 0.00000000
0.33303984 1.81742156 -0.00195912 0.00000000
1.19356424 1.46907322 -0.00267204 0.00000000
4.42933645 2.17197099 -0.00317165 0.00000000
2.83166022 0.43892344 -0.00036738 0.00000000
4.86772097 0.14170400 0.00137825 0.00000000
0.28000196 0.52375507 0.00259656 0.00000000
0.53625734 0.60725427 0.00330676 0.00000000
3.27540861 2.02011368 0.00142585 0.00000000
4.55171136 2.32038330 -0.00086307 0.00000000
3.51027998 0.50409201 0.00267330 0.00000000
4.05513900 0.06714593 -0.00251976 0.00000000
2.65658861 1.93326876 0.00143171 0.00000000
3.60769890 2.26240478 -0.00082548 0.00000000
4.05152063 1.74601288 0.00037457 0.00000000
1.65703972 2.19780043 0.00047232 0.00000000
3.03212909 1.78570865 0.00347606 0.00000000
3.54936410 2.20838992 0.00375610 0.00000000
1.22471800 2.37950138 -0.00112811 0.00000000
2.99595191 1.84264422 -0.00179504 0.00000000
1.88410163 0.24113584 -0.00332258 0.00000000
3.29851970 2.21197663 -0.00341452 0.00000000
3.16896991 0.22317124 0.00169217 0.00000000
2.11973338 0.30458596 0.00356841 0.00000000
0.86281674 0.23632061 0.00071578 0.00000000
1.53700367 0.92572874 0.00198368 0.00000000
3.85106275 2.07843841 -0.00064785 0.00000000
4.30564007 1.19777596 0.00258818 0.00000000
1.45250268 1.53816049 -0.00326610 0.00000000
3.78767064 1.87624973 -0.00078916 0.00000000
0.00309794 1.04942646 -0.00064990 0.00000000
2.42630252 1.99068225 -0.00081790 0.00000000
4.11080820 1.74968131 -0.00559824 0.00000000
1.40007170 0.87083526 -0.00213344 0.00000000
4.89059314 0.77499857 -0.00005558 0.00000000
2.35522200 0.98154012 -0.00664362 0.00000000
1.37395096 0.84925641 -0.00346387 0.00000000
4.05429001 0.10042946 0.00118924 0.00000000
2.45737972 0.74271194 0.00086278 0.00000000
4.07638178 0.99756538 0.00207064 0.00000000
1.31758562 1.30415418 -0.00223680 0.00000000
3.49271535 2.01325634 0.00056064 0.00000000
1.44044216 2.20838327 -0.00392525 0.00000000
2.58163251 0.04826712 -0.00057631 0.00000000
3.32756791 2.05317770 -0.00155113 0.00000000
2.89150073 0.93587536 -0.00040225 0.00000000
1.16860512 2.43330843 -0.00179602 0.00000000
3.57391762 0.86042989 -0.00052216 0.00000000
3.63686694 0.24334726 -0.00212573 0.00000000
4.54915501 0.69692366 -0.00460961 0.00000000
3.18771921 1.36458049 -0.00151154 0.00000000
2.57897517 1.50385493 0.00116177 0.00000000
4.81569019 2.08472555 0.00314547 0.00000000
4.26695299 1.96890174 0.00196860 0.00000000
0.67921755 0.11233291 -0.00001085 0.00000000
1.27484925 1.60638338 0.00375669 0.00000000
0.26864559 1.44971984 -0.00223544 0.00000000
0.50450613 0.19508646 0.00198685 0.00000000
0.93535956 2.22985399 0.00107672 0.00000000
1.16774983 1.01517158 0.00151097 0.00000000
4.57541378 0.50335652 0.00320241 0.00000000
4.43413867 1.62727208 -0.00389524 0.00000000
0.85708337 0.05211535 -0.00180554 0.00000000
4.37180043 1.54230490 0.00143997 0.00000000
2.02312431 0.86440381 0.00355975 0.00000000
1.52730305 1.69309378 -0.00178910 0.00000000
2.70071273 2.18719144 0.00025801 0.00000000
1.22627887 1.63895887 0.00313336 0.00000000
4.76010525 0.28669116 -0.00085718 0.00000000
3.67245963 0.85054885 0.00113420 0.00000000
1.85540702 1.39641876 0.00095555 0.00000000
4.21496239 0.62346393 -0.00042384 0.00000000
4.83408273 1.18524191 -0.00118514 0.00000000
4.83904024 1.99537616 0.00044613 0.00000000
1.33533565 0.16486477 -0.00119473 0.00000000
1.84390757 1.87125034 -0.00381442 0.00000000
3.93286219 1.60164591 0.00525845 0.00000000
1.70989085 1.52787037 -0.00130975 0.00000000
3.37135189 0.27984858 -0.00048971 0.00000000
4.81776183 1.96384179 0.00250722 0.00000000
4.04065203 1.32199451 0.00003421 0.00000000
3.62424555 0.86346412 -0.00086034 0.00000000
2.99872465 2.20604364 0.00244943 0.00000000
0.73149855 1.74094091 0.00128515 0.00000000
1.82465656 1.32788736 -0.00006848 0.00000000
0.09409016 0.66853288 0.00454960 0.00000000
0.08907076 0.70956279 -0.00017637 0.00000000
3.85263935 0.50602118 0.00003809 0.00000000
3.89749058 1.97126962 0.00415108 0.00000000
4.60197378 1.58239335 -0.00145759 0.00000000
3.12877962 0.29651735 0.00326705 0.00000000
2.23388082 0.37874296 -0.00438035 0.00000000
1.55799583 0.93935007 0.00152055 0.00000000
0.97160359 1.46544593 -0.00597215 0.00000000
4.11295506 2.32687153 0.00032148 0.00000000
3.39435575 1.03214891 -0.00289899 0.00000000
4.52055819 1.79325432 -0.00310189 0.00000000
1.82176408 2.46774122 0.00136543 0.00000000
4.84176072 0.96833087 -0.00186140 0.00000000
1.40674350 0.41175838 -0.00115533 0.00000000
1.10611154 1.86264859 0.00330933 0.00000000
4.78585695 0.17894413 0.00112299 0.00000000
2.14955683 2.24894026 -0.00218448 0.00000000
0.09267717 2.22568517 0.00288255 0.00000000
4.41784067 1.35658191 0.00091123 0.00000000
4.14635729 1.34678341 0.00360243 0.00000000
1.85574896 1.66825576 0.00322802 0.00000000
3.08836355 0.07249050 0.00210532 0.00000000
3.63545763 0.26769106 0.00288893 0.00000000
1.18509650 1.50534231 0.00218072 0.00000000
4.69048158 1.15983672 0.00017314 0.00000000
4.37108652 0.27793887 0.00657156 0.00000000
2.79629656 1.58726097 -0.00021899 0.00000000
4.59027496 0.90180174 0.00006840 0.00000000
3.27398323 0.44720382 -0.00031179 0.00000000
3.92595815 0.81422932 0.00266763 0.00000000
2.71811184 2.01405473 0.00292961 0.00000000
1.65972776 0.11071000 0.00171451 0.00000000
0.49678726 0.01654827 0.00319678 0.00000000
3.67914065 0.74997560 0.00014913 0.00000000
4.41077493 1.71117534 0.00121857 0.00000000
1.64370793 1.73475313 0.00140957 0.00000000
1.55349700 1.45770104 0.00071448 0.00000000
2.35796048 0.55981259 -0.00188975 0.00000000
2.26407196 0.09354594 -0.00482444 0.00000000
2.03061275 0.11143411 -0.00224207 0.00000000
2.05538489 1.94507063 0.00074757 0.00000000
3.06133928 0.37082883 0.00186161 0.00000000
3.28936789 0.68664224 -0.00011546 0.00000000
4.39273267 0.96691675 -0.00001167 0.00000000
4.44528028 2.37902424 -0.00074059 0.00000000
2.18632063 1.90989330 -0.00043693 0.00000000
1.37735865 0.00069086 0.00042454 0.00000000
2.11231944 2.14688694 -0.00389238 0.00000000
4.27328059 1.41962748 0.00256671 0.00000000
4.86183606 0.75644851 -0.00087044 0.00000000
3.69868433 0.34439317 0.00173251 0.00000000
4.00649048 0.38647054 0.00062411 0.00000000
3.40764165 1.95098745 -0.00030631 0.00000000
2.25124836 1.14153893 0.00272438 0.00000000
4.76253257 0.64209112 0.00604417 0.00000000
1.61690394 2.03472974 0.00115974 0.00000000
0.95498862 0.00186022 -0.00107502 0.00000000
4.44145193 2.36933076 -0.00347919 0.00000000
2.38493626 0.73302613 0.00029906 0.00000000
0.38604578 1.02719731 -0.00669777 0.00000000
3.00213859 1.58570762 -0.00004607 0.00000000
4.82958256 2.21180431 0.00550956 0.00000000
3.12280838 0.71134139 0.00155123 0.00000000
1.96551190 0.32317466 0.00077245 0.00000000
2.85988787 0.64422111 -0.00426686 0.00000000
0.27332154 0.15590565 -0.00116414 0.00000000
4.32535073 2.15690575 0.00245004 0.00000000
1.65981335 2.42083587 -0.00225281 0.00000000
2.61802680 0.22856933 0.00428120 0.00000000
1.83820299 1.92448865 0.00168710 0.00000000
2.08030405 2.10681759 -0.00088798 0.00000000
0.52219139 0.66307349 0.00033065 0.00000000
0.30554078 1.66302704 -0.00153855 0.00000000
2.18377307 0.96262604 -0.00356991 0.00000000
4.60117256 1.59876297 -0.00153744 0.00000000
4.56244333 2.25988550 0.00014415 0.00000000
2.85820387 2.03172319 -0.00049045 0.00000000
0.49846443 2.18800592 0.00096100 0.00000000
0.20615855 2.33908874 0.00067839 0.00000000
3.53273890 1.23047637 0.00039436 0.00000000
2.25827286 1.49469719 -0.00110998 0.00000000
3.03676719 0.16420030 0.00101408 0.00000000
3.89856178 0.51602791 -0.00146658 0.00000000
1.44707146 1.17283903 0.00361123 0.00000000
1.54786780 1.39833227 -0.00174520 0.00000000
2.95592919 2.43529691 0.00357603 0.00000000
2.14140786 0.31440574 0.00083870 0.00000000
3.02517319 2.42328377 0.00010697 0.00000000
0.85523800 0.13271688 0.00565814 0.00000000
2.60904911 2.04885274 -0.00147051 0.00000000
4.23749289 0.86859774 0.00043445 0.00000000
1.15128260 2.12104013 0.00365454 0.00000000
4.28081132 2.03034692 -0.00084189 0.00000000
3.29601490 0.89025523 0.00046614 0.00000000
1.30001775 0.10359143 0.00313042 0.00000000
0.76297875 1.45034904 0.00280421 0.00000000
2.14987258 0.99352533 -0.00023504 0.00000000
0.49219272 2.27518592 0.00336484 0.00000000
0.92916533 0.25979181 -0.00212162 0.00000000
4.63805528 1.05866280 -0.00497238 0.00000000
0.23887520 0.55789103 -0.00074490 0.00000000
3.76546300 2.35744307 -0.00130207 0.00000000
2.71100217 0.96603639 -0.00587588 0.00000000
1.53465910 1.81608753 -0.00228302 0.00000000
4.85053127 2.27836453 0.00247492 0.00000000
1.82704309 1.27428301 -0.00246980 0.00000000
0.91611508 0.26518682 -0.00419936 0.00000000
0.61229862 1.14841315 -0.00201050 0.00000000
1.53248263 1.84878471 0.00185664 0.00000000
2.83104579 0.87631062 -0.00366451 0.00000000
0.79196738 1.52383163 -0.00065451 0.00000000
3.61700996 1.08568849 -0.00400523 0.00000000
0.59601632 0.66656745 -0.00502084 0.00000000
3.85315084 2.01813163 -0.00320777 0.00000000
0.96726826 1.76321105 -0.00390349 0.00000000
0.72761520 1.76688123 -0.00010685 0.00000000
0.55657285 0.70972411 -0.00161539 0.00000000
0.72532250 0.45675311 -0.00098226 0.00000000
0.42591841 0.80054157 -0.00363211 0.00000000
1.31506635 1.33584883 -0.00341370 0.00000000
1.10405115 1.88859048 -0.00030491 0.00000000
3.59756237 0.56134257 0.00182628 0.00000000
3.64859590 0.34912117 -0.00325053 0.00000000
2.46494763 1.04078169 0.00270236 0.00000000
1.85741706 1.32589466 -0.00005743 0.00000000
0.53832246 1.87589596 -0.00048874 0.00000000
1.52833207 1.78656244 -0.00328621 0.00000000
3.78276564 2.12813657 -0.00005955 0.00000000
4.58378815 0.03185877 0.00011876 0.00000000
4.86229641 2.40467164 -0.00354463 0.00000000
1.04925897 1.58684710 -0.00272143 0.00000000
2.04883933 2.04769318 -0.00094179 0.00000000
3.91855770 1.69066831 0.00521809 0.00000000
0.49877694 1.38349191 0.00538820 0.00000000
4.67071545 1.69538745 -0.00118333 0.00000000
2.36580816 2.35173992 -0.00088107 0.00000000
4.79228894 0.09392802 -0.00343619 0.00000000
2.55589880 0.36690420 -0.00044321 0.00000000
4.01977352 0.28934731 -0.00154307 0.00000000
4.41596052 0.69469815 -0.00149477 0.00000000
2.84850651 2.15726724 -0.00335796 0.00000000
2.58973526 2.47196960 -0.00350474 0.00000000
0.03781886 0.03464259 0.00053841 0.00000000
4.40730380 0.15202474 -0.00321755 0.00000000
3.83971167 1.15632532 -0.00047102 0.00000000
4.40096666 0.96316382 0.00020507 0.00000000
1.53794921 1.52565268 -0.00127081 0.00000000
0.37799186 1.13428428 -0.00160268 0.00000000
0.92828785 0.22493332 -0.00068580 0.00000000
0.99034719 0.15592804 -0.00006893 0.00000000
1.25813529 0.67156960 -0.00102632 0.00000000
1.80703278 0.41367617 -0.00553366 0.00000000
4.13996988 1.76080854 -0.00444918 0.00000000
4.04266245 2.38579851 -0.00045227 0.00000000
3.59022606 1.74977456 -0.00369540 0.00000000
0.96716280 1.26419419 0.00015165 0.00000000
4.34590232 1.18695751 -0.00218272 0.00000000
2.37312868 0.60722915 -0.00209312 0.00000000
3.09105919 0.44339429 -0.00002284 0.00000000
3.28553426 0.39345162 -0.00056077 0.00000000
4.66555207 1.60406287 -0.00453522 0.00000000
0.74786468 1.51509740 0.00184074 0.00000000
0.96268980 2.36085226 -0.00147901 0.00000000
3.61870258 0.49984425 -0.00093279 0.00000000
1.00247278 1.11664149 -0.00359099 0.00000000
2.65080295 1.09102626 -0.00578789 0.00000000
2.09032351 0.18568059 0.00182264 0.00000000
1.34674549 0.39877033 -0.00163530 0.00000000
1.69239576 1.41927340 -0.00064880 0.00000000
0.02697167 0.07118733 -0.00318502 0.00000000
0.48261262 0.04573596 -0.00240833 0.00000000
4.69176037 1.68621577 -0.00181474 0.00000000
4.87315902 1.04931816 -0.00034650 0.00000000
0.51784945 0.20202404 -0.00229037 0.00000000
1.71265026 2.17831580 -0.00311218 0.00000000
4.00723814 0.21912876 -0.00257826 0.00000000
4.71177189 1.41629386 -0.00220737 0.00000000
2.87052631 2.36698193 -0.00032666 0.00000000
0.88323450 0.51711045 -0.00322009 0.00000000
1.39332242 1.25155726 0.00217187 0.00000000
0.46337011 0.17305184 -0.00051974 0.00000000
2.45937774 2.18505912 -0.00259317 0.00000000
4.75347711 0.95020137 -0.00616535 0.00000000
4.66091257 0.69580827 0.00236131 0.00000000
3.00858971 0.54139458 0.00164262 0.00000000
2.98741801 1.06608687 0.00276198 0.00000000
1.75237507 1.66053787 -0.00331366 0.00000000
3.29890974 1.52063753 0.00315936 0.00000000
4.54785995 0.51841207 0.00498778 0.00000000
2.41894125 0.76651388 -0.00095897 0.00000000
1.05400130 1.72529207 0.00364530 0.00000000
2.06983976 1.68774746 -0.00264439 0.00000000
2.08180133 2.46590662 0.00303936 0.00000000
2.45366770 0.46982086 -0.00043778 0.00000000
1.95044726 2.15008529 0.00240904 0.00000000
3.61780358 0.81317143 -0.00146307 0.00000000
1.37897709 2.15427309 -0.00067638 0.00000000
2.74928188 1.71050494 0.00559873 0.00000000
3.46602779 0.99941134 0.00484296 0.00000000
0.01685087 1.69902951 0.00092486 0.00000000
2.23896251 2.33959908 0.00168859 0.00000000
3.03093728 2.34975264 0.00390226 0.00000000
3.10801789 2.17550544 -0.00274850 0.00000000
0.27010116 0.23746066 -0.00156065 0.00000000
3.11071222 0.26192210 -0.00074793 0.00000000
0.53276974 1.83267647 -0.00186629 0.00000000
0.65027541 2.41244043 0.00094533 0.00000000
1.24484454 1.92147937 0.00068731 0.00000000
1.66627370 1.01901965 0.00152402 0.00000000
2.97423019 2.06260673 0.00603587 0.00000000
2.29400921 0.16136787 0.00305922 0.00000000
1.65005060 1.56594182 0.00079835 0.00000000
3.77421821 1.55386503 -0.00088740 0.00000000
0.13691926 2.11262510 0.00136407 0.00000000
0.51169286 1.87866634 -0.00190819 0.00000000
2.26318549 1.19675920 -0.00697425 0.00000000
2.34247544 0.07849368 0.00037271 0.00000000
2.16067859 0.26896830 0.00062450 0.00000000
3.59784435 0.45868008 -0.00237642 0.00000000
4.66404515 0.88839574 0.00611778 0.00000000
1.38240240 0.57954443 -0.00068283 0.00000000
1.46926321 1.87463587 0.00123118 0.00000000
3.19231126 0.18431293 0.00052228 0.00000000
4.33365877 1.22404462 -0.00108093 0.00000000
4.17597910 0.95831824 -0.00039419 0.00000000
3.64381669 0.67239652 -0.00614312 0.00000000
4.62131351 1.71820500 -0.00364401 0.00000000
2.09577488 1.44866010 -0.00201860 0.00000000
4.88044872 0.51293861 0.00027317 0.00000000
4.75158532 1.36556392 0.00024921 0.00000000
0.53069891 0.63965830 -0.00081331 0.00000000
3.76862076 0.18008004 -0.00396147 0.00000000
4.85280493 1.11363714 -0.00118323 0.00000000
1.09199316 2.47520216 0.00037315 0.00000000
2.65006596 0.19134771 0.00272416 0.00000000
2.34833031 0.95885210 0.00341482 0.00000000
2.49942079 1.10067162 0.00443444 0.00000000
4.47960949 1.37388440 -0.00152764 0.00000000
0.63303781 1.45467083 0.00000113 0.00000000
4.68985260 2.18659015 -0.00290638 0.00000000
3.19720553 2.08396867 0.00232254 0.00000000
1.59318909 2.28973696 -0.00247496 0.00000000
3.10253767 1.61481965 -0.00060967 0.00000000
1.64150175 2.35422188 0.00259875 0.00000000
0.13641497 1.57120331 0.00248202 0.00000000
4.29652689 1.94194173 -0.00084061 0.00000000
1.86603168 1.72777581 0.00071190 0.00000000
0.81113728 1.50461283 -0.00069398 0.00000000
2.54905583 0.82800403 0.00260310 0.00000000
1.57533783 0.15304248 -0.00281972 0.00000000
1.91509342 1.75559003 0.00032421 0.00000000
3.96088261 0.16898755 -0.00230719 0.00000000
1.71012399 1.04774329 0.00184662 0.00000000
2.49068612 0.39103205 -0.00211938 0.00000000
2.40284667 0.17290270 0.00216573 0.00000000
1.92917060 0.70104361 0.00056443 0.00000000
1.47279980 0.82947061 0.00001856 0.00000000
0.54306059 2.23078298 0.00050370 0.00000000
2.30608509 1.44898272 0.00117107 0.00000000
3.02124628 2.38700896 0.00024448 0.00000000
3.77541064 1.77302296 -0.00103231 0.00000000
3.42885435 1.67023067 0.00044888 0.00000000
1.79689119 0.58645864 0.00255360 0.00000000
0.67386225 2.38746850 0.00164136 0.00000000
3.36612159 0.91044128 0.00337799 0.00000000
2.30048451 1.83449372 -0.00089335 0.00000000
2.88377159 1.67767473 -0.00387979 0.00000000
2.74340378 2.32636389 -0.00109043 0.00000000
1.67467555 1.88750285 0.00494842 0.00000000
4.86587647 1.25361219 -0.00008373 0.00000000
2.57993187 0.97096190 -0.00121056 0.00000000
4.81701634 0.77313394 -0.00036912 0.00000000
4.77265261 0.69866004 -0.00017100 0.00000000
4.72640417 1.01630261 -0.00073885 0.00000000
4.75312812 1.60277960 -0.00145832 0.00000000
1.29552219 0.32674383 -0.00192674 0.00000000
1.02953373 1.38847746 -0.00245810 0.00000000
1.84611081 0.14464565 0.00264708 0.00000000
2.59150642 0.12482317 -0.00060507 0.00000000
3.47204476 0.41574745 -0.00311512 0.00000000
3.25728498 0.86849197 -0.00060832 0.00000000
1.87248142 1.85019658 0.00175673 0.00000000
3.82483122 0.13967005 0.00194386 0.00000000
2.64355012 2.28946182 0.00130037 0.00000000
1.43082350 2.07673434 0.00027378 0.00000000
3.09513768 0.09325566 -0.00405506 0.00000000
2.24061345 1.84565928 0.00309518 0.00000000
2.27638909 1.52549709 0.00436981 0.00000000
2.48987871 0.76911407 -0.00441687 0.00000000
2.17339124 0.42221646 -0.00466364 0.00000000
4.82244480 0.18019522 0.00513196 0.00000000
2.93720542 2.31067686 -0.00012795 0.00000000
3.92665427 1.08017254 0.00228722 0.00000000
3.44878046 1.01596923 0.00394494 0.00000000
0.90193674 1.02077342 0.00269660 0.00000000
1.56702686 0.94708160 -0.00034702 0.00000000
3.44920116 1.51270162 0.00392325 0.00000000
0.28021458 1.33404198 0.00307022 0.00000000
0.27202587 2.07098542 0.00125657 0.00000000
4.44945445 1.60545985 0.00117488 0.00000000
0.37688106 0.25704071 -0.00080275 0.00000000
3.53831938 0.65721906 0.00015426 0.00000000
0.42490773 2.37923694 -0.00019326 0.00000000
2.12691999 2.06729357 -0.00033403 0.00000000
4.45283616 2.34500064 0.00463111 0.00000000
0.07248009 1.19444240 -0.00458609 0.00000000
1.83305241 2.13601182 -0.00336414 0.00000000
2.07735146 1.20097986 0.00156096 0.00000000
0.47741026 2.33955607 0.00065160 0.00000000
1.08556099 0.29842633 0.00170062 0.00000000
3.53454941 0.57144256 -0.00027526 0.00000000
3.89306628 0.35570504 -0.00162654 0.00000000
3.59067611 1.03803280 0.00262929 0.00000000
3.30583905 0.97817594 -0.00193615 0.00000000
2.62781468 1.02360013 0.00173994 0.00000000
1.90755028 2.04527833 -0.00034799 0.00000000
4.80160870 1.03505732 0.00189464 0.00000000
1.93712021 2.27457579 -0.00291679 0.00000000
1.17364442 2.21284690 -0.00203884 0.00000000
4.36792226 1.67883751 0.00466068 0.00000000
2.21729334 1.16023278 -0.00247467 0.00000000
1.12056707 1.96402010 0.00067932 0.00000000
2.75625498 1.44065151 -0.00548204 0.00000000
0.94502585 1.67206309 -0.00031168 0.00000000
2.08808682 0.43094696 -0.00006527 0.00000000
