1.26405679 0.64219843 -0.00139558 0.00000000
0.41825544 0.87960258 -0.00304648 0.00000000
1.70298596 0.37664012 0.00046962 0.00000000
2.07361481 0.54913911 0.00094586 0.00000000
3.47649846 0.98129451 0.00241874 0.00000000
2.57948855 1.44686000 -0.00203537 0.00000000
2.09887937 0.75264494 -0.00266498 0.00000000
2.09314526 1.19759393 0.00027997 0.00000000
2.22910939 1.55167530 -0.00315385 0.00000000
3.96617977 1.55762717 0.00059083 0.00000000
2.66923693 1.10493909 0.00103095 0.00000000
0.15130667 1.39594698 -0.00103088 0.00000000
0.74507068 0.23229453 -0.00230277 0.00000000
4.44205367 0.94875525 0.00126940 0.00000000
3.70115169 1.26717654 0.00010172 0.00000000
3.29172911 0.03857645 -0.00221286 0.00000000
4.15488829 0.63365585 -0.00048529 0.00000000
0.67199080 1.02735494 -0.00228496 0.00000000
3.93522858 1.38720520 -0.00325406 0.00000000
1.43859823 0.46536882 0.00088893 0.00000000
4.73983064 0.63617465 0.00211521 0.00000000
0.36363527 1.08600086 0.00089714 0.00000000
1.92104592 1.18619854 -0.00020813 0.00000000
4.47352803 0.49693209 0.00327471 0.00000000
4.01142240 0.93403021 -0.00365795 0.00000000
0.17121419 0.36444599 0.00282894 0.00000000
3.22992556 0.39827643 0.00244541 0.00000000
0.61492490 0.39662895 -0.00302752 0.00000000
3.47433632 0.72167259 -0.00088261 0.00000000
4.49425689 1.68180743 0.00228522 0.00000000
0.60866296 1.47494045 0.00119950 0.00000000
0.58083009 0.17594316 -0.00510381 0.00000000
2.10612766 0.16613904 0.00095220 0.00000000
2.72439290 1.30457752 -0.00119716 0.00000000
0.54592412 0.22103851 -0.00112100 0.00000000
1.84107904 0.22178903 0.00285853 0.00000000
0.18798879 0.16776292 0.00182568 0.00000000
2.33838281 1.40350632 0.00432120 0.00000000
1.17196961 0.19065462 -0.00070150 0.00000000
3.52752099 1.67978986 0.00206600 0.00000000
2.58038391 0.53362482 0.00242117 0.00000000
1.46801416 0.14550566 0.00215990 0.00000000
3.63627902 0.95806951 -0.00058742 0.00000000
3.10404829 1.03587807 0.00271212 0.00000000
4.49227239 0.62407416 -0.00377342 0.00000000
3.25407298 1.20546328 -0.00069087 0.00000000
0.38270588 0.01872969 0.00413604 0.00000000
1.78374316 1.08975871 -0.00055876 0.00000000
0.23588800 0.88022449 -0.00154934 0.00000000
1.22695343 1.60596887 -0.00297141 0.00000000
3.77955682 1.43183046 0.00065315 0.00000000
0.66198757 1.38784805 0.00098105 0.00000000
1.43419817 1.29095239 -0.00070400 0.00000000
4.48666697 0.97390656 0.00011609 0.00000000
2.34957097 0.44889389 -0.00381552 0.00000000
4.28121543 0.86171399 0.00059117 0.00000000
0.83770068 0.35423702 0.00132312 0.00000000
1.19205325 0.82777562 -0.00237709 0.00000000
3.93754636 1.52548410 -0.00061024 0.00000000
0.91817765 1.48400238 -0.00026735 0.00000000
2.20509306 0.92437986 0.00139816 0.00000000
2.19773827 1.16706335 0.00396787 0.00000000
2.33279502 0.51199061 -0.00056679 0.00000000
1.35451508 1.24435461 0.00049511 0.00000000
2.96130562 0.08800875 -0.00054855 0.00000000
3.96743112 1.43151720 0.00190736 0.00000000
0.38502173 0.80469188 0.00282225 0.00000000
2.66050316 0.97712997 0.00175807 0.00000000
1.54772747 1.25483266 -0.00098602 0.00000000
4.42021715 1.35623995 -0.00079565 0.00000000
3.19614128 1.25747295 0.00335189 0.00000000
3.14441979 1.13591217 -0.00328146 0.00000000
1.57649047 1.65909324 -0.00206325 0.00000000
0.74081642 0.79715969 0.00032329 0.00000000
0.45655746 0.89399079 -0.00011140 0.00000000
4.17442407 0.17152720 0.00519247 0.00000000
3.48135002 0.55097316 -0.00182414 0.00000000
3.00312761 0.10400418 0.00211800 0.00000000
4.81877303 1.60967089 0.00036164 0.00000000
3.86198451 0.62299012 -0.00132855 0.00000000
2.18170289 1.49793847 0.00091404 0.00000000
3.79921226 1.37168501 0.00280480 0.00000000
3.30836205 0.06114207 0.00480159 0.00000000
3.09646202 0.32007462 0.00241165 0.00000000
2.75348755 0.13807638 -0.00035696 0.00000000
2.91916925 0.63557897 -0.00111234 0.00000000
0.40576464 0.14159644 0.00078860 0.00000000
1.26074919 1.26920888 0.00495917 0.00000000
0.44785267 0.34921151 -0.00063684 0.00000000
2.17901408 1.52010942 -0.00047169 0.00000000
2.16540363 0.61713986 -0.00068320 0.00000000
1.78603026 1.66877051 0.00093608 0.00000000
1.84297778 0.54405343 0.00070305 0.00000000
2.65809539 1.44194955 -0.00072626 0.00000000
4.63789759 1.36192692 -0.00201095 0.00000000
1.64459253 1.06764092 -0.00344693 0.00000000
0.75464483 0.63391082 0.00352187 0.00000000
0.77055159 1.59764718 0.00116442 0.00000000
3.27492971 1.36896127 -0.00103132 0.00000000
2.03412248 0.71553364 0.00090333 0.00000000
2.51991265 1.03444014 0.00014453 0.00000000
0.33316346 0.17495195 -0.00316155 0.00000000
0.65709530 1.28585960 -0.00090498 0.00000000
3.66168108 1.11809792 0.00038243 0.00000000
0.88682279 0.85042096 0.00029811 0.00000000
2.47864948 1.75303866 0.00058421 0.00000000
1.88667140 0.86459163 -0.00136376 0.00000000
0.34763990 0.09193017 0.00178045 0.00000000
2.36666454 1.26878236 0.00021743 0.00000000
3.82320781 0.88311577 0.00109478 0.00000000
1.38731937 1.16948852 0.00304781 0.00000000
2.30868838 1.65150546 -0.00322288 0.00000000
0.18514621 0.51167718 -0.00189079 0.00000000
1.35125481 1.21040761 -0.00099003 0.00000000
3.96473415 0.08444439 -0.00007181 0.00000000
2.96824662 0.11838978 -0.00053935 0.00000000
2.84654932 0.06227791 -0.00083190 0.00000000
2.37808008 1.41812835 0.00127517 0.00000000
4.00601815 1.31484416 -0.00153050 0.00000000
4.19468717 0.62989195 0.00124981 0.00000000
3.16976580 1.63480048 -0.00193204 0.00000000
0.69174546 0.32672179 0.00234101 0.00000000
3.03917041 0.30325855 -0.00124477 0.00000000
0.29763685 0.13763462 -0.00134232 0.00000000
4.09103854 1.16640514 0.00119966 0.00000000
1.85188424 0.38833835 -0.00048078 0.00000000
4.45623382 1.66944460 -0.00166950 0.00000000
3.57356068 0.35426234 -0.00154701 0.00000000
2.85097550 1.45792708 -0.00041915 0.00000000
0.62717900 0.60518089 -0.00358529 0.00000000
2.51835223 1.54963975 0.00121443 0.00000000
3.09845095 1.06914120 0.00019941 0.00000000
1.45189016 0.55563245 -0.00105799 0.00000000
1.22138928 1.25445663 -0.00277781 0.00000000
3.97967338 1.50966079 0.00026064 0.00000000
1.50002823 1.07474105 -0.00384567 0.00000000
3.58655947 0.95712946 -0.00037499 0.00000000
3.69342181 0.95328974 -0.00080064 0.00000000
3.00118016 0.98279562 0.00278474 0.00000000
2.51780960 1.36258766 0.00172886 0.00000000
3.62693132 0.59652776 -0.00296401 0.00000000
1.43010381 0.56734939 0.00069122 0.00000000
2.06681152 0.48745364 0.00011502 0.00000000
2.15026027 1.45160147 0.00287697 0.00000000
0.93319535 1.73449314 -0.00023873 0.00000000
3.69975441 0.10175150 -0.00398883 0.00000000
3.04144163 0.59760906 0.00394733 0.00000000
1.63919147 0.17035904 0.00164880 0.00000000
2.37994720 0.21447238 -0.00036650 0.00000000
0.85666908 1.48008714 -0.00475568 0.00000000
2.31643261 0.73660396 -0.00405117 0.00000000
3.38378709 1.61467653 -0.00059636 0.00000000
3.34753422 0.17455921 -0.00047555 0.00000000
3.84770300 0.49254504 -0.00158686 0.00000000
1.24860572 0.58140568 0.00030194 0.00000000
2.85101038 0.08704735 0.00353570 0.00000000
0.48688873 0.85831550 0.00130999 0.00000000
3.72907892 0.46034068 0.00128131 0.00000000
4.62253318 1.23041925 -0.00114512 0.00000000
1.24496862 1.70319959 -0.00155015 0.00000000
4.59623511 0.12724606 0.00480620 0.00000000
0.57733146 0.90480004 -0.00232858 0.00000000
1.71636101 0.63426890 -0.00104089 0.00000000
0.36454218 0.92610580 -0.00098693 0.00000000
0.56048546 0.18346752 0.00037317 0.00000000
2.77500498 1.29643621 0.00282749 0.00000000
4.56623391 1.50478554 -0.00085538 0.00000000
3.41967480 0.60913214 0.00092799 0.00000000
1.53728614 0.72653577 0.00356443 0.00000000
4.78751596 1.28032653 0.00325922 0.00000000
4.50661748 0.41418886 0.00126860 0.00000000
4.80291853 1.10781962 -0.00005112 0.00000000
4.44849378 0.34149192 0.00239525 0.00000000
3.28630192 0.68842951 -0.00137644 0.00000000
3.78182716 0.93244566 0.00384295 0.00000000
0.30187858 1.12922519 -0.00051177 0.00000000
2.44908182 0.13027015 -0.00148943 0.00000000
0.67456645 1.30597313 -0.00029741 0.00000000
0.47560477 1.60904436 0.00164589 0.00000000
0.38114371 0.72057859 0.00165222 0.00000000
3.59339195 1.66862337 -0.00425250 0.00000000
1.18178258 0.93918451 0.00252751 0.00000000
3.72710152 1.44387805 -0.00209237 0.00000000
0.89605027 1.67034260 -0.00034437 0.00000000
0.63348032 0.20490855 -0.00217977 0.00000000
1.83281626 0.03811774 -0.00198682 0.00000000
3.96015039 1.40163002 0.00322621 0.00000000
4.83445965 1.30548304 0.00005757 0.00000000
2.98252089 1.38435495 -0.00046082 0.00000000
4.67050175 1.64484102 0.00054173 0.00000000
0.97878723 0.12942682 0.00482540 0.00000000
2.24895528 1.17863105 -0.00271770 0.00000000
0.56728239 1.03171419 0.00027727 0.00000000
3.42889172 1.30249762 -0.00025048 0.00000000
1.44588583 0.36994643 0.00050932 0.00000000
3.45412578 1.34569088 -0.00025245 0.00000000
3.04057481 0.73889667 -0.00439321 0.00000000
0.45966691 0.09521963 0.00055676 0.00000000
2.68725039 0.81269668 0.00036695 0.00000000
1.00933681 0.46176748 -0.00270910 0.00000000
3.28027176 1.36881043 -0.00142225 0.00000000
0.54019947 1.70084086 0.00167980 0.00000000
2.60099914 0.12254786 -0.00179652 0.00000000
0.45941921 0.04072462 0.00078056 0.00000000
0.24338717 0.01376805 0.00471756 0.00000000
3.56774210 0.75637787 -0.00022725 0.00000000
1.18485652 0.12955515 -0.00291052 0.00000000
3.25557682 0.12414087 -0.00446311 0.00000000
2.69823461 0.94808771 0.00010639 0.00000000
0.85700532 1.44131160 -0.00184923 0.00000000
1.34390163 1.62934441 0.00218311 0.00000000
3.13469772 0.31057522 0.00127734 0.00000000
3.14662841 1.06862515 0.00070423 0.00000000
3.29068226 0.05034084 -0.00322933 0.00000000
0.21358558 0.63499561 -0.00140123 0.00000000
4.47183532 0.26108045 -0.00050192 0.00000000
3.13697880 1.00314137 -0.00113362 0.00000000
1.76322033 1.42612260 -0.00099956 0.00000000
0.57495005 1.55147449 -0.00007556 0.00000000
3.96824170 0.29866437 0.00226632 0.00000000
3.62995668 1.46551184 0.00206572 0.00000000
4.05964293 0.21304035 0.00031786 0.00000000
0.34317127 1.35272916 -0.00359498 0.00000000
3.27318223 1.49044020 -0.00117564 0.00000000
1.14112656 0.70635267 -0.00073232 0.00000000
0.09484692 1.68476571 -0.00454584 0.00000000
1.81986347 1.57869380 0.00034275 0.00000000
4.67468229 0.93096932 -0.00139369 0.00000000
4.75469250 0.67329318 0.00340668 0.00000000
4.08583339 0.47544106 -0.00045748 0.00000000
1.01812653 0.28463678 -0.00251739 0.00000000
3.16449655 1.19027365 0.00107570 0.00000000
1.78759941 0.21927695 -0.00117695 0.00000000
0.75898012 0.01193340 -0.00002120 0.00000000
4.38564872 0.88821413 -0.00284058 0.00000000
4.85112917 0.67220000 -0.00511101 0.00000000
3.55447650 0.46275098 -0.00086967 0.00000000
4.69718445 0.10078295 0.00056178 0.00000000
2.21953857 0.89700917 -0.00153103 0.00000000
3.53018391 1.43948275 0.00092327 0.00000000
0.12796174 1.23444342 0.00302558 0.00000000
1.68403917 1.11635069 0.00498151 0.00000000
3.70014232 1.61634636 -0.00101515 0.00000000
0.44258977 1.22391262 0.00240913 0.00000000
1.26755930 0.11969839 -0.00299555 0.00000000
2.29588646 0.14209833 -0.00023066 0.00000000
4.27672828 0.80150335 -0.00091599 0.00000000
0.72752885 0.83095509 -0.00335500 0.00000000
1.60749443 1.66421940 0.00396668 0.00000000
1.74566117 1.64372718 0.00083150 0.00000000
2.07011606 1.45733761 0.00257674 0.00000000
0.73218848 1.58641567 0.00272671 0.00000000
1.26389491 0.01662630 0.00401339 0.00000000
2.91018696 0.71417692 -0.00150274 0.00000000
2.77437183 0.76956837 -0.00241077 0.00000000
3.95272378 0.70160724 -0.00321613 0.00000000
3.60901283 0.66626101 -0.00317148 0.00000000
2.47769662 1.15206568 -0.00312006 0.00000000
3.42425351 0.24130033 0.00579404 0.00000000
1.85648019 0.61478104 -0.00230067 0.00000000
2.71868637 0.75204649 -0.00004825 0.00000000
1.08174772 1.68582282 0.00015083 0.00000000
1.83755722 0.78046063 -0.00206638 0.00000000
0.71232744 1.18508331 0.00164721 0.00000000
3.06168249 1.27313767 0.00005030 0.00000000
3.67938626 1.05105546 -0.00247254 0.00000000
1.66335678 1.39932499 0.00309153 0.00000000
4.35266902 0.22890374 0.00009837 0.00000000
2.10936115 1.62663151 -0.00291310 0.00000000
1.81188044 1.67585884 -0.00085946 0.00000000
2.11259827 1.74909176 0.00538602 0.00000000
1.33506986 1.25237009 -0.00063606 0.00000000
1.06290481 1.74632463 0.00104627 0.00000000
0.73326805 0.36836152 -0.00406730 0.00000000
1.62702052 1.72223327 0.00278023 0.00000000
3.44553387 1.08728063 0.00059122 0.00000000
3.60423577 0.12789170 0.00124641 0.00000000
2.64727912 1.41430695 -0.00077837 0.00000000
2.15044231 1.63456318 0.00046871 0.00000000
3.24306943 1.53034110 -0.00310046 0.00000000
1.48616091 0.03733939 -0.00074016 0.00000000
1.02405802 0.42751252 0.00204912 0.00000000
1.64261794 0.94591945 -0.00186607 0.00000000
0.29228207 1.74619233 -0.00169186 0.00000000
1.00043028 0.18840183 0.00266335 0.00000000
0.50484781 1.58135738 -0.00251153 0.00000000
2.82058005 1.13818432 0.00035808 0.00000000
1.41954964 1.44992565 0.00502541 0.00000000
3.02987978 0.96182473 -0.00278513 0.00000000
1.44289613 1.61542997 -0.00054369 0.00000000
1.80100594 1.48677314 0.00659897 0.00000000
3.51274162 1.47550987 -0.00093283 0.00000000
2.72200612 1.36967334 0.00146114 0.00000000
2.92745321 0.01613629 -0.00050997 0.00000000
1.16393485 0.01501303 0.00086046 0.00000000
3.68277017 1.47995162 -0.00009970 0.00000000
0.16137614 1.29874011 -0.00483413 0.00000000
4.40089489 0.88987560 -0.00230788 0.00000000
2.89656430 0.51923453 0.00081798 0.00000000
1.84500301 0.96267475 0.00048701 0.00000000
4.41220561 0.56748011 0.00347585 0.00000000
3.78465570 1.58714200 -0.00066928 0.00000000
1.10071174 0.82741148 0.00214846 0.00000000
3.02770773 1.43113119 0.00168925 0.00000000
1.24995930 0.49702190 -0.00523419 0.00000000
4.51007165 0.09642057 -0.00150134 0.00000000
1.24240528 1.42094573 -0.00069134 0.00000000
3.43329148 0.19916027 0.00375989 0.00000000
3.68224862 0.14710518 0.00282604 0.00000000
3.85449056 1.03583949 -0.00327229 0.00000000
0.09729152 1.32910955 0.00039802 0.00000000
4.05334370 0.37560887 -0.00258905 0.00000000
1.95956983 1.28051813 0.00135445 0.00000000
1.88934669 0.00501122 0.00044875 0.00000000
1.87957580 0.55027709 -0.00195467 0.00000000
1.41141021 0.36615426 0.00219963 0.00000000
2.73113794 1.41201642 0.00046061 0.00000000
2.31284943 1.68163243 0.00228017 0.00000000
1.79859760 0.29205543 0.00358694 0.00000000
2.12509941 0.06471143 0.00310179 0.00000000
4.22754184 0.38906038 0.00420535 0.00000000
2.01803850 0.25198932 0.00216608 0.00000000
3.87060437 0.18837095 -0.00187778 0.00000000
0.66905256 1.20209447 0.00405317 0.00000000
4.44391161 1.09498966 0.00084324 0.00000000
2.33482667 1.68425763 -0.00107166 0.00000000
4.41975905 1.64319396 0.00098113 0.00000000
3.98395693 0.35115642 0.00078845 0.00000000
3.57821911 0.89493761 -0.00200387 0.00000000
4.10658287 1.75410121 -0.00023152 0.00000000
2.99331767 0.22305643 -0.00560492 0.00000000
4.55046060 0.02018120 -0.00087750 0.00000000
3.58804324 1.45481814 -0.00442358 0.00000000
2.31178886 0.05192100 -0.00045932 0.00000000
1.37210992 0.59289693 0.00244450 0.00000000
2.29314818 0.17562391 0.00414927 0.00000000
1.05229527 1.34994056 0.00654355 0.00000000
4.22256761 0.77867479 -0.00052399 0.00000000
3.83657567 1.02785410 -0.00298010 0.00000000
2.03744015 1.22992099 0.00489362 0.00000000
3.64500483 0.04173311 0.00019138 0.00000000
3.08964457 0.41806160 0.00077092 0.00000000
3.51949862 1.66905262 -0.00000334 0.00000000
1.92232292 0.48209470 0.00366692 0.00000000
4.05602355 0.82015074 -0.00066096 0.00000000
2.49513051 0.72288486 0.00349694 0.00000000
3.08333707 0.10914107 0.00223455 0.00000000
2.55612751 0.65174748 -0.00167292 0.00000000
2.43887136 1.71142035 -0.00221061 0.00000000
1.04798366 0.26995680 -0.00211838 0.00000000
3.71790515 0.63692890 0.00134662 0.00000000
3.67650742 0.85027721 -0.00111516 0.00000000
2.89708405 1.25231483 0.00232965 0.00000000
2.14416550 1.70512950 -0.00101937 0.00000000
0.53667529 1.41646819 0.00255800 0.00000000
1.13808121 1.08744853 0.00138545 0.00000000
1.11767137 1.67435498 -0.00140408 0.00000000
3.74537460 1.28647976 -0.00122826 0.00000000
4.45176626 1.19626536 -0.00367721 0.00000000
2.45247909 1.52478059 0.00432913 0.00000000
0.51625455 0.37582667 0.00251750 0.00000000
0.26512821 1.09852967 -0.00081475 0.00000000
0.12985185 0.52982484 0.00252928 0.00000000
4.60295066 0.10580943 0.00480253 0.00000000
3.62869342 1.44852134 0.00135697 0.00000000
3.76550866 1.25842589 -0.00142737 0.00000000
4.60758112 0.25293155 0.00079664 0.00000000
4.39608962 0.73272009 -0.00182830 0.00000000
2.85352660 0.16826181 -0.00227144 0.00000000
4.75056466 0.29273218 -0.00028828 0.00000000
1.76226201 1.38191036 -0.00219479 0.00000000
4.03359444 1.40874577 0.00557478 0.00000000
3.12031965 0.77295435 -0.00223729 0.00000000
2.43085309 0.50070825 -0.00499445 0.00000000
3.04916943 1.14957972 -0.00428593 0.00000000
3.04110571 1.43670904 -0.00115854 0.00000000
0.23326246 1.03296298 0.00314272 0.00000000
0.90102394 0.35430297 -0.00158948 0.00000000
1.37467649 1.43814591 0.00299022 0.00000000
0.25018376 0.02669744 -0.00144805 0.00000000
0.01042399 0.52065317 -0.00104831 0.00000000
1.04526536 1.31684981 -0.00274872 0.00000000
0.72861910 1.07106027 0.00340283 0.00000000
1.34789509 1.36666755 0.00541415 0.00000000
3.66425656 0.19384012 -0.00221006 0.00000000
2.40500459 0.62465731 -0.00145962 0.00000000
1.99477008 1.70498079 0.00250827 0.00000000
0.13893252 1.42156175 0.00305748 0.00000000
2.12928248 1.29201766 0.00299385 0.00000000
2.81948499 0.77475215 0.00448287 0.00000000
3.27462453 1.54053810 -0.00259681 0.00000000
1.35318349 0.49803380 0.00124798 0.00000000
0.10042267 0.92065264 -0.00176174 0.00000000
1.06116717 0.50963295 -0.00221986 0.00000000
3.19981315 0.81431297 0.00003628 0.00000000
2.32244616 1.41668588 0.00249215 0.00000000
2.44703135 0.89732174 -0.00164048 0.00000000
1.83534499 1.38217860 -0.00416415 0.00000000
3.33889811 0.91384805 0.00189052 0.00000000
2.99466554 1.59320229 -0.00044816 0.00000000
4.44916880 0.43652093 0.00265329 0.00000000
1.21267607 1.41078410 0.00004099 0.00000000
1.95770884 0.79882601 -0.00257646 0.00000000
2.91113163 0.09326951 0.00165029 0.00000000
4.70288155 1.74853429 0.00017282 0.00000000
2.27097313 0.96112838 -0.00357472 0.00000000
3.61169485 0.50822112 -0.00078138 0.00000000
1.17431491 0.40044832 -0.00089468 0.00000000
2.67828054 0.95495114 0.00205185 0.00000000
2.71723795 0.42367536 0.00035397 0.00000000
4.75329404 0.23241185 0.00208673 0.00000000
1.34407369 1.19466109 -0.00163801 0.00000000
1.51506013 0.12171268 -0.00056931 0.00000000
2.60853833 0.44309616 0.00416459 0.00000000
4.21513260 0.82477734 -0.00186229 0.00000000
2.56666176 0.18341434 0.00513815 0.00000000
0.24112657 1.55170611 0.00046283 0.00000000
3.81224851 1.48084108 0.00265964 0.00000000
3.82324295 0.03243187 -0.00332536 0.00000000
1.81395037 1.54768844 -0.00001020 0.00000000
2.54710989 0.12211362 0.00059220 0.00000000
0.22029674 0.69826963 0.00898902 0.00000000
2.75993224 0.90479489 0.00055110 0.00000000
0.74443782 0.38890226 -0.00124264 0.00000000
1.05771980 1.09024931 -0.00163869 0.00000000
2.29953848 0.23114064 0.00103095 0.00000000
3.56884738 0.80743205 0.00333426 0.00000000
4.56299243 1.17738205 -0.00098718 0.00000000
0.62347648 0.37546097 0.00633202 0.00000000
2.47694136 0.60150062 -0.00337107 0.00000000
0.80008999 0.49050081 -0.00190983 0.00000000
1.00997693 0.38992191 0.00080065 0.00000000
1.76066686 0.11901056 -0.00504682 0.00000000
0.75435127 0.01597903 -0.00153923 0.00000000
4.33378132 0.38723682 0.00004267 0.00000000
3.66108905 0.60784828 -0.00391318 0.00000000
2.85870586 1.05701786 -0.00289741 0.00000000
2.44177531 1.47137972 -0.00158793 0.00000000
2.57673946 0.93733484 0.00067407 0.00000000
0.68388020 0.54453908 0.00193078 0.00000000
2.30691884 1.28006715 0.00082074 0.00000000
0.99085253 0.16501773 0.00365247 0.00000000
3.60647726 0.18189371 0.00524032 0.00000000
3.62450075 0.24185281 0.00249220 0.00000000
0.10215787 0.03772390 0.00188268 0.00000000
3.30938084 0.46878418 -0.00016804 0.00000000
4.34006863 0.83714285 0.00433908 0.00000000
0.91930693 0.28059741 0.00519855 0.00000000
0.94329095 0.16900577 0.00315990 0.00000000
3.47329700 0.06241254 0.00204075 0.00000000
3.59667226 1.39697354 -0.00033339 0.00000000
0.41228146 0.71456347 0.00393661 0.00000000
1.39700747 0.28504378 -0.00062216 0.00000000
0.33811820 0.27224781 -0.00180615 0.00000000
2.17266671 0.94383212 0.00242524 0.00000000
0.45736540 0.60347711 0.00270801 0.00000000
3.99229319 1.45014062 0.00019521 0.00000000
3.32216648 1.43427665 -0.00203006 0.00000000
4.14572742 1.23986824 -0.00631067 0.00000000
0.48400498 1.75590546 0.00286437 0.00000000
1.94998297 0.85255327 0.00013828 0.00000000
4.14812801 0.86585116 0.00351498 0.00000000
2.04715126 1.65035399 0.00180091 0.00000000
1.16576313 0.66105332 -0.00160578 0.00000000
3.25456287 0.72559860 0.00126705 0.00000000
4.06182142 0.52347300 0.00067928 0.00000000
3.62537262 0.82224492 -0.00631950 0.00000000
4.40714015 1.58668092 0.00359184 0.00000000
2.69789483 0.79649865 -0.00176124 0.00000000
1.59105631 0.09344654 0.00182051 0.00000000
1.55933578 0.47201572 0.00119016 0.00000000
0.62368824 0.66434386 -0.00195393 0.00000000
1.82323229 0.78041028 -0.00229677 0.00000000
4.30678248 1.61307515 -0.00109633 0.00000000
2.54519888 0.14662968 0.00159594 0.00000000
3.70502613 1.51825097 0.00361240 0.00000000
0.49793269 1.51658740 0.00199366 0.00000000
1.01102792 0.12522867 -0.00142333 0.00000000
4.07081989 0.01677181 0.00272759 0.00000000
0.99261934 0.22181763 0.00231855 0.00000000
1.86133682 0.85863320 0.00197088 0.00000000
0.34956113 0.35271964 0.00262302 0.00000000
2.80097919 1.36034042 -0.00570846 0.00000000
1.60384237 1.53808817 -0.00072118 0.00000000
0.05091091 0.92699743 0.00217114 0.00000000
2.54490444 0.06790634 0.00643435 0.00000000
3.76296971 1.34721185 -0.00389390 0.00000000
3.48571744 0.37021371 -0.00441739 0.00000000
3.36032406 1.51880895 0.00104557 0.00000000
4.30104432 0.30231269 -0.00898479 0.00000000
2.90777199 0.65759698 0.00003193 0.00000000
1.81591513 1.61334143 -0.00319973 0.00000000
1.58188242 0.66604593 -0.00046563 0.00000000
3.44980677 0.07072852 0.00150141 0.00000000
4.57922890 0.87086491 0.00159982 0.00000000
0.92556784 1.60772135 0.00149773 0.00000000
0.70465327 0.84766111 0.00313379 0.00000000
3.46269725 1.53053967 -0.00039807 0.00000000
1.77672331 1.43856029 0.00036194 0.00000000
2.46281501 0.67599411 -0.00055725 0.00000000
1.25230329 0.03387962 -0.00375883 0.00000000
1.55439716 0.09496149 -0.00097496 0.00000000
3.20290845 0.22746091 0.00165729 0.00000000
1.55564266 0.19497077 0.00086739 0.00000000
4.51551920 1.43105041 -0.00122817 0.00000000
1.78771784 0.12198356 -0.00300624 0.00000000
1.15760097 1.24660607 0.00059854 0.00000000
2.93865296 1.34091806 0.00211762 0.00000000
3.33594642 0.67086102 -0.00243190 0.00000000
0.35711230 0.66850225 0.00041825 0.00000000
1.88963494 0.23419509 -0.00157674 0.00000000
4.33667126 1.38355407 -0.00085802 0.00000000
2.37891251 0.33282104 0.00451238 0.00000000
2.13930235 0.92284479 0.00369125 0.00000000
3.35883485 1.50493937 -0.00493818 0.00000000
4.54498745 0.74990010 -0.00410761 0.00000000
1.27152748 1.18889233 0.00359609 0.00000000
4.22280186 1.72206296 -0.00137977 0.00000000
3.68574099 0.96996977 0.00174324 0.00000000
0.09761631 0.80223170 0.00182294 0.00000000
0.77388080 0.57885902 0.00116189 0.00000000
1.97373133 1.49435453 0.00314631 0.00000000
2.38088704 1.42524363 -0.00110596 0.00000000
3.69719173 0.42689824 0.00006358 0.00000000
1.09132183 0.97835228 -0.00364708 0.00000000
1.02195348 0.81827492 -0.00194306 0.00000000
1.14572537 0.28510249 0.00221618 0.00000000
1.87402092 0.56578042 0.00013273 0.00000000
0.49136376 0.88791200 0.00230262 0.00000000
4.33673297 1.69405540 0.00015226 0.00000000
3.87409992 0.68791455 0.00557415 0.00000000
2.18664146 1.04573634 -0.00187182 0.00000000
4.64033571 0.96969499 -0.00186481 0.00000000
2.75119081 0.36518286 0.00189180 0.00000000
4.44178081 0.00522644 0.00109073 0.00000000
4.49516624 1.20654233 -0.00419678 0.00000000
3.73992128 0.96911067 -0.00003473 0.00000000
1.24084058 1.70405929 -0.00505028 0.00000000
1.27554550 1.56404596 -0.00067791 0.00000000
1.62081786 1.05413616 0.00134903 0.00000000
2.69110054 0.12969898 0.00115078 0.00000000
0.25755315 1.54638142 0.00194330 0.00000000
2.60625460 1.51685094 -0.00079596 0.00000000
0.48788370 0.31890863 0.00031689 0.00000000
3.48614913 1.07938840 0.00171081 0.00000000
3.40239172 1.03562239 -0.00140628 0.00000000
3.44390740 1.35714969 -0.00035785 0.00000000
1.41991670 0.62384813 0.00080502 0.00000000
1.45093866 1.19132943 -0.00317228 0.00000000
0.86028887 0.38144597 -0.00221409 0.00000000
0.19758777 0.89830526 0.00080525 0.00000000
2.31785492 0.69808402 0.00075864 0.00000000
1.96636152 0.81026112 -0.00231141 0.00000000
0.79270467 0.13738765 -0.00109033 0.00000000
0.12279795 0.24933802 0.00129843 0.00000000
3.80082741 1.26993026 0.00226460 0.00000000
3.43344301 0.96639105 0.00202821 0.00000000
3.08688224 1.42438202 -0.00186417 0.00000000
3.18125553 1.20821109 -0.00179808 0.00000000
0.87949938 0.80937010 0.00214717 0.00000000
4.51626691 0.58777756 0.00027058 0.00000000
1.53617558 1.73832268 -0.00062103 0.00000000
4.06107460 1.23991642 0.00277819 0.00000000
1.62445308 1.34529838 -0.00039650 0.00000000
3.70439599 1.17213498 -0.00051252 0.00000000
4.80003075 1.46548994 0.00141622 0.00000000
4.49186564 1.65957075 0.00185405 0.00000000
4.29589766 0.69727928 0.00655182 0.00000000
0.48806916 0.33418564 0.00272782 0.00000000
1.91225403 0.17763837 -0.00390474 0.00000000
0.65826750 0.14438069 0.00128045 0.00000000
3.70352928 0.23948481 -0.00100837 0.00000000
2.68384845 0.30210089 0.00329129 0.00000000
4.02652103 1.68531695 -0.00296522 0.00000000
1.36253491 1.29910494 0.00120316 0.00000000
2.01166775 0.01001462 0.00509440 0.00000000
1.20324632 1.48143080 0.00109834 0.00000000
3.71182449 0.16155668 0.00266762 0.00000000
2.89385473 0.78572358 0.00046361 0.00000000
0.39970547 1.65609218 -0.00019773 0.00000000
0.68050425 0.30707819 -0.00057471 0.00000000
1.47918306 1.16793837 0.00168044 0.00000000
0.31737849 0.52217674 0.00049777 0.00000000
2.90465566 1.50316390 -0.00260730 0.00000000
0.25611808 1.27228878 -0.00408928 0.00000000
1.87432280 0.40070007 0.00155432 0.00000000
0.42418588 0.93478714 0.00079270 0.00000000
2.20915054 0.92875706 -0.00016259 0.00000000
1.62426474 0.89286030 0.00018741 0.00000000
4.63772582 1.45735141 -0.00400612 0.00000000
1.76318888 0.33234413 -0.00258335 0.00000000
2.12800205 1.43322769 0.00388865 0.00000000
4.75580013 1.35594017 -0.00187256 0.00000000
2.64314922 1.27590008 0.00042139 0.00000000
1.93002315 0.67246302 0.00330704 0.00000000
2.15899568 0.49031557 0.00276134 0.00000000
0.43767712 0.68106043 -0.00431198 0.00000000
3.04764718 1.59638829 -0.00358138 0.00000000
1.37795294 1.62771449 -0.00067597 0.00000000
0.11461421 0.65359344 -0.00287804 0.00000000
4.69772088 0.98009594 0.00249447 0.00000000
3.73394503 0.44374282 0.00168509 0.00000000
2.62644755 0.68096585 0.00052541 0.00000000
3.98328424 0.25026225 -0.00199486 0.00000000
4.64862332 0.38768881 -0.00049261 0.00000000
1.30222937 0.10791199 -0.00075420 0.00000000
0.28474776 0.46167772 -0.00235733 0.00000000
0.15655059 0.01942681 0.00378936 0.00000000
4.06074295 1.02190041 0.00444992 0.00000000
3.80946315 0.34134598 0.00115656 0.00000000
1.76745303 1.46182630 -0.00072647 0.00000000
4.83897073 0.05541193 0.00130835 0.00000000
1.28856540 1.22127284 -0.00136356 0.00000000
3.04609801 0.88538541 -0.00169071 0.00000000
3.62648468 0.54296547 -0.00449768 0.00000000
3.08869386 1.06363745 0.00293948 0.00000000
4.07776661 0.88082734 0.00170970 0.00000000
1.81574039 0.71758665 0.00025061 0.00000000
0.03444012 0.38192401 -0.00065392 0.00000000
4.75592245 0.02857370 -0.00154003 0.00000000
0.05639894 1.29066417 -0.00021942 0.00000000
3.90141449 1.09217405 0.00331590 0.00000000
1.59454899 0.35561628 0.00122348 0.00000000
3.62946463 1.74952168 -0.00007922 0.00000000
4.18339788 0.50781763 -0.00314160 0.00000000
4.27261448 0.97431182 0.00446024 0.00000000
2.31688373 0.67941541 0.00078647 0.00000000
0.99542198 1.15084497 0.00116784 0.00000000
1.55017539 1.20440927 0.00241481 0.00000000
4.23612460 1.66547330 -0.00109799 0.00000000
3.13603364 1.06393677 -0.00217286 0.00000000
4.38108792 0.07107421 0.00174148 0.00000000
0.97040637 0.50047248 -0.00233499 0.00000000
2.38026703 0.99605787 0.00043775 0.00000000
4.37074006 1.10608458 0.00179621 0.00000000
2.00238430 0.84928440 0.00077371 0.00000000
1.95240873 0.90898189 0.00166032 0.00000000
4.32759314 0.18672551 -0.00083298 0.00000000
3.49908776 1.62512746 -0.00366810 0.00000000
3.80277317 0.78488929 0.00174102 0.00000000
4.02337421 0.52560726 -0.00282991 0.00000000
2.93332171 0.25635616 -0.00244566 0.00000000
4.28530101 0.32647812 0.00153458 0.00000000
1.43454904 1.42576124 0.00461385 0.00000000
1.58299562 1.16233396 0.00477401 0.00000000
2.84318815 0.64088786 -0.00202046 0.00000000
3.13115996 0.34724253 -0.00236980 0.00000000
2.81026596 1.43664019 -0.00171424 0.00000000
4.11548276 0.34937701 0.00076011 0.00000000
4.43302333 0.93351233 -0.00091030 0.00000000
3.35181684 1.01269402 0.00118629 0.00000000
4.71994737 0.59401552 0.00102511 0.00000000
3.96537697 0.12400760 -0.00189442 0.00000000
1.95947398 0.96346064 -0.00118776 0.00000000
3.28919973 0.68959347 0.00409567 0.00000000
0.86593683 1.64751432 -0.00009534 0.00000000
3.86441565 1.11640989 0.00097349 0.00000000
1.85017376 1.64360335 0.00411842 0.00000000
4.19842703 0.97446217 0.00073067 0.00000000
2.83694429 0.59972672 -0.00117975 0.00000000
4.86039276 0.28585930 -0.00166857 0.00000000
1.55972268 0.19022894 0.00061470 0.00000000
2.37924557 1.34209317 -0.00129609 0.00000000
3.60723197 1.34502436 -0.00383270 0.00000000
1.32901588 0.79090212 -0.00579202 0.00000000
1.69690728 1.60655794 0.00002880 0.00000000
0.89516830 1.33128363 0.00576772 0.00000000
3.15603964 1.56597454 -0.00114122 0.00000000
3.40341127 0.03727045 -0.00125725 0.00000000
1.32378656 0.09928305 -0.00294149 0.00000000
0.82179248 0.40063694 -0.00149936 0.00000000
0.73153715 0.71166688 0.00180548 0.00000000
4.43896953 1.06738145 -0.00376255 0.00000000
4.35483630 1.55859508 -0.00023006 0.00000000
0.34317333 0.58035400 0.00000180 0.00000000
0.18651592 0.98828887 -0.00493622 0.00000000
0.93438376 0.32321159 0.00084731 0.00000000
1.58563495 1.05356567 0.00472222 0.00000000
3.57159729 0.60262083 -0.00442645 0.00000000
3.35591467 0.64919727 0.00267364 0.00000000
3.28300103 1.64966160 0.00190202 0.00000000
1.82319157 0.98424682 0.00001538 0.00000000
2.28866590 0.38960719 0.00055218 0.00000000
1.92431660 1.57231263 0.00390504 0.00000000
1.07815578 0.18695654 0.00156799 0.00000000
1.73563843 1.22782946 -0.00397003 0.00000000
4.56455529 0.74619400 0.00066846 0.00000000
0.85706269 0.13634960 -0.00067682 0.00000000
0.67978008 1.13876476 0.00051782 0.00000000
0.80469055 1.04552517 0.00301881 0.00000000
1.57485414 0.51615309 0.00043669 0.00000000
1.52799402 0.94339057 -0.00274091 0.00000000
2.72260650 0.66398577 0.00131252 0.00000000
0.57895660 1.54614274 -0.00090569 0.00000000
0.38126332 0.67250618 0.00327577 0.00000000
1.37581244 0.28802621 0.00163835 0.00000000
1.60845132 0.62589993 0.00122970 0.00000000
4.30981068 0.90403035 0.00371652 0.00000000
1.86071572 1.71970593 0.00112651 0.00000000
0.68996802 0.40779332 -0.00357632 0.00000000
1.15212818 1.70828862 -0.00123390 0.00000000
0.52971278 1.67488786 -0.00265955 0.00000000
3.36748556 0.16843095 0.00069392 0.00000000
1.24106555 0.21404955 0.00421503 0.00000000
1.54194682 1.27430289 -0.00351786 0.00000000
3.66393145 0.00873252 -0.00137782 0.00000000
3.41980263 0.87667084 -0.00150880 0.00000000
1.32247797 1.29415150 0.00002495 0.00000000
0.42030568 0.66143913 -0.00443236 0.00000000
2.73760781 0.19765186 -0.00251065 0.00000000
1.89568396 0.60583205 0.00096462 0.00000000
0.17794322 1.21879289 0.00331443 0.00000000
3.40800305 1.06223981 0.00315358 0.00000000
2.23281759 0.75145991 -0.00229108 0.00000000
0.48658077 1.63728157 -0.00114137 0.00000000
0.62007485 0.88422662 -0.00016736 0.00000000
0.62957079 1.51017405 -0.00536013 0.00000000
1.15991477 0.67608915 0.00179754 0.00000000
1.43866970 0.66724611 -0.00085112 0.00000000
1.31719466 0.35130668 -0.00311340 0.00000000
4.14033311 1.17166644 -0.00005831 0.00000000
1.63742189 1.72108523 0.00081444 0.00000000
0.01536215 1.21393706 -0.00185777 0.00000000
1.67153595 0.69824853 0.00197272 0.00000000
0.88364338 0.73190042 -0.00538930 0.00000000
4.64868277 1.30004837 0.00131149 0.00000000
3.63668997 0.97811650 -0.00396096 0.00000000
1.36859253 1.19793234 -0.00034966 0.00000000
0.50344143 0.88069588 -0.00136903 0.00000000
0.78448671 0.02884365 0.00248335 0.00000000
4.74671098 0.43781296 -0.00290414 0.00000000
0.00084313 0.03046887 -0.00241226 0.00000000
0.04503218 1.63842164 0.00032567 0.00000000
2.68152611 0.44421780 -0.00125287 0.00000000
3.18640107 0.14629613 -0.00327819 0.00000000
3.98009752 0.61106611 0.00020880 0.00000000
1.06172988 1.32305813 0.00730655 0.00000000
2.82966462 1.05019233 -0.00217572 0.00000000
0.42306508 1.51882310 -0.00557867 0.00000000
0.03699163 0.19039956 0.00276192 0.00000000
3.52080326 0.71384567 -0.00192491 0.00000000
0.69123523 0.23929154 0.00528038 0.00000000
3.43743208 0.71662607 0.00231924 0.00000000
1.10125149 1.53522841 0.00469052 0.00000000
3.77716873 0.96571835 -0.00246717 0.00000000
3.23894824 0.29489438 0.00018761 0.00000000
2.02407976 1.08566808 0.00218381 0.00000000
0.08008759 1.06297946 -0.00053333 0.00000000
2.05061261 1.53437766 -0.00358142 0.00000000
0.61346297 1.20222591 0.00091545 0.00000000
0.89942835 1.37887844 0.00092596 0.00000000
1.48072067 0.60385346 0.00555889 0.00000000
1.10342459 0.49238295 0.00247797 0.00000000
3.70845044 0.72844170 -0.00008986 0.00000000
4.81962137 0.90419929 0.00181618 0.00000000
4.48453051 1.19412360 -0.00480767 0.00000000
4.28191025 0.34727260 0.00090711 0.00000000
1.18319382 1.09627368 0.00042384 0.00000000
0.84203346 1.57377010 -0.00165793 0.00000000
3.72141579 0.02113184 -0.00123031 0.00000000
4.01935532 1.54454605 -0.00453167 0.00000000
0.99861811 0.23666259 0.00483730 0.00000000
4.00977824 1.63296178 0.00016352 0.00000000
2.56151497 0.37648497 -0.00322360 0.00000000
4.01330382 1.74341196 0.00009804 0.00000000
1.62111398 0.81956303 0.00209060 0.00000000
0.36821105 0.89285569 0.00063769 0.00000000
3.41744506 1.16458199 0.00077634 0.00000000
0.28226741 1.15952262 0.00184431 0.00000000
4.15286201 1.49653686 0.00001481 0.00000000
3.97850651 0.31042747 0.00027941 0.00000000
3.29146792 1.60333716 0.00023782 0.00000000
1.47016605 0.22250888 -0.00191905 0.00000000
0.47464357 0.80414014 -0.00079027 0.00000000
2.99293309 0.04506569 -0.00218233 0.00000000
0.98055123 1.34666847 0.00124186 0.00000000
0.70015747 0.93857699 0.00438980 0.00000000
3.37657211 0.26157908 0.00282895 0.00000000
2.28004816 0.99832393 -0.00027644 0.00000000
2.87998902 0.20029072 -0.00628731 0.00000000
4.61039425 0.15034542 0.00305413 0.00000000
4.63362338 0.50733522 -0.00416020 0.00000000
0.25892444 0.33505114 0.00216150 0.00000000
4.42554300 0.77599131 -0.00049526 0.00000000
1.43476785 1.51068559 -0.00494001 0.00000000
0.07838185 0.63362711 -0.00129002 0.00000000
4.07400039 0.90308294 0.00108151 0.00000000
2.49014034 1.70633341 0.00073435 0.00000000
0.92206292 0.85756379 0.00081406 0.00000000
2.32288554 1.05696993 0.00080274 0.00000000
4.00326662 1.60756368 0.00069411 0.00000000
1.60373020 0.75510899 -0.00355896 0.00000000
0.93544212 1.45279761 0.00114535 0.00000000
2.57299359 0.60091749 0.00095900 0.00000000
3.77912504 1.20662989 0.00143582 0.00000000
2.89100076 1.22856941 0.00389964 0.00000000
2.65774869 0.02591042 -0.00127215 0.00000000
4.32768584 1.30862797 -0.00093758 0.00000000
0.69547399 1.12696442 0.00283294 0.00000000
4.49965573 1.49658148 0.00059948 0.00000000
4.76907452 1.28608100 -0.00189802 0.00000000
1.80059726 0.60389997 0.00079772 0.00000000
1.61264425 0.26537700 0.00204877 0.00000000
3.01246788 0.37971596 -0.00054670 0.00000000
2.74191348 1.63727764 0.00201906 0.00000000
0.65672266 0.72340667 -0.00133331 0.00000000
0.14910587 0.59305287 0.00124409 0.00000000
3.50486224 0.31550560 0.00438348 0.00000000
0.92911003 1.41439149 0.00103274 0.00000000
3.46027179 0.51168499 -0.00024255 0.00000000
3.61298974 1.35508957 0.00079579 0.00000000
4.37469048 1.68585273 0.00055757 0.00000000
2.49297508 0.98956719 -0.00311547 0.00000000
1.14771662 1.06807732 -0.00125149 0.00000000
2.52801447 1.34857005 -0.00034000 0.00000000
3.50551889 0.67103338 -0.00005537 0.00000000
4.54276589 1.06250142 -0.00354432 0.00000000
0.16340883 1.49709201 -0.00103536 0.00000000
1.33233459 1.25658935 -0.00140386 0.00000000
1.07869925 1.15829538 -0.00230713 0.00000000
4.19160616 0.93457172 0.00025085 0.00000000
4.08591448 0.39361338 0.00043744 0.00000000
1.43275954 0.71199736 -0.00546843 0.00000000
3.93119308 1.17476114 -0.00036225 0.00000000
2.67627855 1.55669737 0.00353639 0.00000000
2.12408749 1.49089028 -0.00258076 0.00000000
0.81371749 0.97551155 0.00096457 0.00000000
3.46583779 1.48120296 -0.00284787 0.00000000
0.02556769 1.43615132 0.00215889 0.00000000
3.84546552 0.90253378 0.00183243 0.00000000
4.79982928 0.47793356 0.00262272 0.00000000
1.05321647 0.57512238 -0.00439187 0.00000000
0.92360153 1.57008395 -0.00151524 0.00000000
0.80410275 0.48355186 -0.00042206 0.00000000
0.75153783 1.52253518 0.00142396 0.00000000
3.20638702 0.68201390 -0.00192633 0.00000000
3.85314484 0.45409139 0.00311705 0.00000000
3.70344635 0.50224772 0.00276839 0.00000000
1.77184115 0.58249425 0.00227112 0.00000000
0.68189131 0.79642270 -0.00095533 0.00000000
2.16721731 1.17172493 -0.00134851 0.00000000
2.72412230 0.53045887 -0.00081853 0.00000000
0.35224883 0.09782051 0.00145619 0.00000000
0.20974477 0.43352474 0.00312284 0.00000000
4.58668798 1.57946298 0.00262949 0.00000000
0.83551420 0.56521464 -0.00005854 0.00000000
4.23222129 0.96868467 0.00159130 0.00000000
1.86171749 0.30246482 -0.00068005 0.00000000
0.82816297 0.21756966 -0.00368604 0.00000000
4.71883550 0.40374162 0.00143316 0.00000000
2.81118829 0.88578204 0.00445396 0.00000000
2.47693006 0.41176402 -0.00202972 0.00000000
0.85903762 1.56894828 0.00279953 0.00000000
1.57216286 1.31029196 0.00279535 0.00000000
1.09256587 0.61665084 -0.00425996 0.00000000
1.12725799 1.04121594 -0.00224543 0.00000000
4.80257050 1.60058261 -0.00040457 0.00000000
1.12293423 0.37430728 0.00242292 0.00000000
0.46955628 1.71308292 0.00092980 0.00000000
4.29915747 1.46630254 0.00329374 0.00000000
3.82644766 0.16410455 -0.00036979 0.00000000
1.56099248 1.59419354 0.00288846 0.00000000
0.90059057 1.54106964 0.00081097 0.00000000
0.25174986 1.40055827 -0.00366169 0.00000000
1.63411522 0.96581362 0.00143868 0.00000000
0.87825147 0.18428702 -0.00363988 0.00000000
0.57962250 1.40253030 -0.00363478 0.00000000
4.65989382 0.57156676 0.00296906 0.00000000
2.43689830 0.47024858 0.00088878 0.00000000
1.71955023 1.61638216 -0.00116842 0.00000000
2.01395687 1.24261895 0.00295643 0.00000000
3.38347446 0.90764285 -0.00082452 0.00000000
1.91673688 0.88152127 0.00238159 0.00000000
0.36077266 1.13544573 0.00165296 0.00000000
4.14937109 1.41261737 -0.00148929 0.00000000
0.35607688 1.47753232 0.00023128 0.00000000
4.27036540 1.01743093 -0.00067204 0.00000000
2.92793584 1.35991897 0.00304402 0.00000000
1.52924872 1.00474416 0.00011120 0.00000000
2.79636513 0.46540817 0.00126425 0.00000000
2.93152542 0.26985938 0.00004439 0.00000000
0.75468379 1.26780933 0.00099126 0.00000000
2.34127388 0.10908714 -0.00535531 0.00000000
0.39110708 1.34138198 0.00464867 0.00000000
1.82212056 1.73495620 0.00206162 0.00000000
0.86666932 1.49394237 -0.00259778 0.00000000
4.20167739 0.88046939 -0.00220461 0.00000000
3.01054733 0.36826479 0.00079377 0.00000000
3.07851948 1.53936454 -0.00203099 0.00000000
4.19903369 1.24987026 -0.00150282 0.00000000
3.42227379 0.06385136 -0.00319517 0.00000000
3.71222597 0.27348798 -0.00504856 0.00000000
3.61418061 1.50527195 -0.00160382 0.00000000
1.64312819 1.03378075 -0.00158200 0.00000000
4.61114391 0.26826212 0.00058320 0.00000000
2.26069323 0.11155868 0.00376252 0.00000000
4.79113406 0.55943787 -0.00147690 0.00000000
1.62801707 0.42430623 -0.00333741 0.00000000
1.08803964 0.52558776 0.00342673 0.00000000
3.39491251 1.51986365 0.00177876 0.00000000
4.65891628 0.94075401 0.00003176 0.00000000
2.61465755 1.17924000 0.00273082 0.00000000
1.01559767 1.12280397 0.00136032 0.00000000
2.02322015 0.93304558 0.00101454 0.00000000
2.03184064 0.38089879 -0.00052377 0.00000000
0.27527763 1.10101145 0.00011716 0.00000000
2.65383616 0.45742792 0.00322761 0.00000000
4.37529894 1.23166413 0.00132758 0.00000000
4.35109106 0.55582855 -0.00065997 0.00000000
4.01121129 0.59087053 -0.00039048 0.00000000
1.75472184 0.82410033 -0.00013663 0.00000000
4.43162303 0.47107369 0.00049867 0.00000000
1.76456963 0.29879621 -0.00107292 0.00000000
2.73331614 1.42820286 -0.00102931 0.00000000
2.09470451 0.94540734 -0.00145801 0.00000000
1.61219350 1.54920927 0.00488573 0.00000000
1.01535204 0.46570465 0.00031383 0.00000000
3.26576588 0.97476896 0.00186938 0.00000000
0.33605866 0.36755023 0.00244248 0.00000000
3.98980620 0.61428445 -0.00095840 0.00000000
2.45096600 1.72219511 0.00004357 0.00000000
2.63944636 1.63422116 -0.00140388 0.00000000
1.52097220 0.95657278 0.00214067 0.00000000
4.08055860 1.25830044 -0.00203575 0.00000000
3.86429151 1.33811737 0.00404009 0.00000000
1.75783198 0.86558711 0.00005071 0.00000000
4.12046952 1.74808810 0.00029488 0.00000000
0.16632259 0.51066451 0.00226341 0.00000000
3.18395486 0.86741750 -0.00308928 0.00000000
2.03021258 1.15148629 -0.00266025 0.00000000
1.48959723 0.64759861 0.00015687 0.00000000
2.17837273 1.06171732 -0.00183610 0.00000000
3.30971244 1.05872770 0.00006177 0.00000000
0.14599132 1.40122521 0.00114551 0.00000000
3.41143930 0.59719618 0.00049787 0.00000000
3.86682723 0.70929318 -0.00147685 0.00000000
1.58267508 0.26012555 -0.00221486 0.00000000
4.24982562 0.20146921 0.00109519 0.00000000
2.73080986 0.60266192 -0.00252203 0.00000000
0.53974072 1.36317116 -0.00055078 0.00000000
4.36054395 0.13942909 0.00076358 0.00000000
0.08447487 1.09049631 0.00347597 0.00000000
1.75227470 0.03249324 -0.00224708 0.00000000
2.78913195 1.40538806 0.00146592 0.00000000
0.11318364 0.25143676 -0.00088418 0.00000000
3.77581903 0.89950368 0.00443348 0.00000000
3.36671424 0.19276972 0.00075317 0.00000000
0.31574796 1.08993824 -0.00030879 0.00000000
1.69846024 1.42209799 0.00316625 0.00000000
1.50506659 0.64063181 0.00371173 0.00000000
3.22442747 0.36756042 -0.00085954 0.00000000
0.99775622 0.68840207 0.00109520 0.00000000
2.25221473 1.57227800 -0.00123792 0.00000000
1.36797578 0.06572573 0.00324333 0.00000000
0.23752932 1.31903943 0.00069222 0.00000000
4.85118605 0.63047723 -0.00358585 0.00000000
4.28557707 1.22136877 0.00014395 0.00000000
1.94681481 1.26587243 -0.00201170 0.00000000
1.05314556 0.81757134 0.00437281 0.00000000
4.05030080 1.53086645 -0.00199415 0.00000000
3.58523896 1.19510217 -0.00182808 0.00000000
0.34253685 0.47437773 0.00059614 0.00000000
0.63662274 0.55274842 0.00233785 0.00000000
2.64193000 0.17589504 -0.00130766 0.00000000
1.63453481 1.30616119 -0.00299725 0.00000000
2.19961194 0.52014482 0.00220606 0.00000000
1.95607515 1.65748938 0.00218739 0.00000000
0.05202278 1.41183219 -0.00134697 0.00000000
4.64287817 1.64603005 -0.00012605 0.00000000
4.83366766 1.59510986 0.00097100 0.00000000
4.25592161 1.21287201 -0.00323584 0.00000000
2.14096660 0.34944579 0.00033781 0.00000000
3.41706240 0.66740978 0.00207970 0.00000000
4.37536181 0.35287553 -0.00024964 0.00000000
2.64274439 0.50287352 -0.00170089 0.00000000
3.14281399 0.72757536 0.00243799 0.00000000
0.68825907 0.91462132 0.00190607 0.00000000
2.54952599 0.73973008 -0.00241514 0.00000000
4.13347663 1.59420753 0.00017313 0.00000000
0.70946969 0.98105254 -0.00163564 0.00000000
4.72943629 0.94158114 -0.00047783 0.00000000
4.08165424 1.48511891 0.00498844 0.00000000
1.65569495 0.92603949 0.00088323 0.00000000
3.67015028 0.78997783 -0.00198219 0.00000000
0.66835744 0.87257010 -0.00039402 0.00000000
3.68457961 0.13105068 0.00166144 0.00000000
3.51220863 0.27619672 0.00077967 0.00000000
2.08039267 1.43073519 -0.00172724 0.00000000
4.21575155 1.39159309 0.00134721 0.00000000
4.68467531 0.30258842 -0.00120649 0.00000000
0.15286605 0.16286168 -0.00348065 0.00000000
1.01744617 1.04724188 0.00162362 0.00000000
3.08438515 1.49488474 0.00012742 0.00000000
4.59118975 0.60019413 0.00071731 0.00000000
0.11388866 0.54702626 0.00003139 0.00000000
1.24036409 1.22322961 -0.00056762 0.00000000
4.13852173 0.39531011 0.00161759 0.00000000
0.86403868 1.09205833 0.00261320 0.00000000
1.35232129 0.70640298 -0.00278328 0.00000000
0.11596109 0.44369380 0.00005658 0.00000000
0.48467171 0.24531942 -0.00031954 0.00000000
1.46343393 1.30145554 -0.00339807 0.00000000
1.61475906 1.20161466 -0.00011840 0.00000000
2.15405040 1.13950962 0.00170335 0.00000000
2.40866437 1.54482895 -0.00310191 0.00000000
0.54671776 0.91216850 0.00205134 0.00000000
4.34407642 0.66095986 0.00314865 0.00000000
4.38480268 1.37380559 0.00411455 0.00000000
0.76432846 1.45862253 -0.00064347 0.00000000
3.15547635 0.33520472 0.00304577 0.00000000
1.39317749 1.38432686 0.00266432 0.00000000
3.68643693 0.11744391 0.00189886 0.00000000
0.74148549 0.47509425 -0.00143657 0.00000000
2.04675007 0.53706855 -0.00193340 0.00000000
0.62274370 1.26137361 0.00509984 0.00000000
1.22033065 1.35609875 -0.00248252 0.00000000
2.51089598 0.83965509 -0.00087667 0.00000000
0.77991931 0.83020354 -0.00254763 0.00000000
0.44666851 0.33812725 0.00196761 0.00000000
1.20071760 0.27435163 0.00052999 0.00000000
1.86458885 0.38797036 0.00041830 0.00000000
4.41328419 0.65907257 -0.00087734 0.00000000
3.49734134 1.74883869 -0.00032564 0.00000000
1.01107302 0.98438602 0.00085730 0.00000000
2.11837409 0.61860462 0.00008861 0.00000000
3.19043877 1.16561514 0.00065521 0.00000000
1.02582072 0.53955792 -0.00334616 0.00000000
3.63035055 0.25377391 0.00117915 0.00000000
4.68903356 0.90326089 0.00144379 0.00000000
2.10644495 0.09975623 0.00229736 0.00000000
4.61443526 0.58574888 -0.00218565 0.00000000
0.91866349 0.41487990 0.00491025 0.00000000
1.82927585 1.18073960 0.00113958 0.00000000
4.72943374 1.47538166 -0.00161121 0.00000000
3.46090809 0.95438031 -0.00016348 0.00000000
1.08378170 0.12831379 -0.00050874 0.00000000
4.19229264 0.87114244 0.00177219 0.00000000
1.26967210 1.06526824 0.00136068 0.00000000
2.58442550 1.75833674 -0.00127021 0.00000000
0.36590238 0.31906078 0.00066675 0.00000000
0.02193451 1.07716937 0.00390841 0.00000000
3.91593320 1.07112602 -0.00057862 0.00000000
1.43781927 1.42469284 -0.00254013 0.00000000
3.38344603 1.09742964 0.00074159 0.00000000
0.29647825 1.24181134 0.00251354 0.00000000
2.21221251 0.52580529 -0.00504286 0.00000000
0.45428568 1.37084058 0.00220564 0.00000000
1.94528096 0.57404462 0.00290792 0.00000000
4.06249268 1.19175398 -0.00525648 0.00000000
4.78057920 0.87904300 0.00130793 0.00000000
2.74483155 0.22324571 0.00287876 0.00000000
2.85975748 0.47743900 0.00079765 0.00000000
0.65857996 0.62082878 -0.00555893 0.00000000
2.98199944 0.63970789 -0.00374921 0.00000000
1.69329175 0.81511071 -0.00379722 0.00000000
2.32409467 0.65462513 0.00307827 0.00000000
4.53738528 0.51521250 0.00039309 0.00000000
4.65561769 0.21467458 0.00182496 0.00000000
1.79284009 1.61288602 -0.00563501 0.00000000
0.56003425 0.36210923 0.00127568 0.00000000
3.12902508 0.77207479 0.00266985 0.00000000
0.02828071 0.50294935 -0.00063699 0.00000000
1.34538207 1.33694275 -0.00292455 0.00000000
0.06214483 0.31993647 0.00124778 0.00000000
4.57797214 0.46461232 -0.00294439 0.00000000
1.44296190 0.82998477 0.00421541 0.00000000
3.24564425 0.48373793 0.00012757 0.00000000
2.54925796 1.32931099 -0.00164324 0.00000000
3.35777512 1.35705271 -0.00012447 0.00000000
1.82059385 1.38722339 -0.00410627 0.00000000
0.06284314 0.53364461 0.00072105 0.00000000
1.23094001 0.75405831 0.00216904 0.00000000
4.84660676 1.36245536 0.00145454 0.00000000
0.05803436 1.20859271 0.00405053 0.00000000
0.34524923 0.54121651 0.00342918 0.00000000
2.74493376 0.05679493 -0.00082676 0.00000000
4.55545505 1.17695278 -0.00316384 0.00000000
4.32350723 1.68614077 0.00367644 0.00000000
0.17861555 1.29536469 0.00185654 0.00000000
