4.35958784 2.06960733 -0.00100572 0.00000000
1.19901415 0.07678589 0.00227073 0.00000000
2.59322985 0.98027266 -0.00050927 0.00000000
1.23833746 0.94833753 0.00047142 0.00000000
0.54246610 2.25092690 -0.00446225 0.00000000
1.41456406 1.15344848 0.00037918 0.00000000
4.39950283 2.20866653 -0.00017937 0.00000000
3.21928958 0.85080769 0.00266051 0.00000000
1.76399469 2.34985839 -0.00143711 0.00000000
3.01835417 2.27861096 0.00209015 0.00000000
3.30213766 1.63112065 0.00233121 0.00000000
0.60619358 0.46007105 -0.00013826 0.00000000
3.32191206 1.85165531 0.00165088 0.00000000
0.23679892 1.21053947 0.00038286 0.00000000
4.14836441 2.30745566 0.00252527 0.00000000
0.89143621 0.29364694 -0.00373693 0.00000000
3.65072062 1.02769107 0.00048737 0.00000000
2.26873690 0.78564634 0.00405478 0.00000000
0.08527016 2.22198456 0.00361817 0.00000000
1.37931641 0.36621050 0.00104862 0.00000000
3.51986205 1.19781201 -0.00111902 0.00000000
2.00173953 1.72144819 0.00286331 0.00000000
4.35635546 1.24674649 0.00039020 0.00000000
1.27066024 0.57521153 -0.00012917 0.00000000
2.17222525 1.14237660 -0.00175607 0.00000000
1.63462633 0.12827008 0.00365640 0.00000000
2.51924052 0.46856026 -0.00496855 0.00000000
1.51417886 1.67217486 -0.00070250 0.00000000
1.00569906 0.83787257 -0.00286682 0.00000000
2.36829455 2.23631941 -0.00014466 0.00000000
0.46278167 1.17287493 0.00069757 0.00000000
1.35149385 0.07397002 -0.00261374 0.00000000
1.25023807 1.45417541 0.00633105 0.00000000
0.42804399 2.36974416 -0.00028268 0.00000000
3.24252334 1.25227205 0.00027308 0.00000000
0.72065165 1.97180855 -0.00507503 0.00000000
1.19564008 1.08242535 0.00133935 0.00000000
2.95148961 1.29665197 -0.00061510 0.00000000
2.88125600 2.28969687 0.00066863 0.00000000
0.97090983 0.25275786 -0.00053464 0.00000000
2.75468536 2.06156579 0.00350495 0.00000000
3.64599852 0.51144640 0.00111987 0.00000000
2.98470557 1.73640009 -0.00005114 0.00000000
3.44979620 1.91444145 0.00076644 0.00000000
4.35615719 1.56410852 0.00043335 0.00000000
0.20528915 2.23086034 0.00042951 0.00000000
1.85884850 2.33420051 0.00210862 0.00000000
3.65021971 0.74621117 -0.00262093 0.00000000
0.01896004 1.85031189 0.00113647 0.00000000
3.67582814 0.71257668 -0.00020487 0.00000000
0.81965504 1.17152386 -0.00006555 0.00000000
0.68408031 0.51221560 0.00116356 0.00000000
3.98207096 0.38899416 0.00414848 0.00000000
1.85637281 0.05479151 -0.00199356 0.00000000
0.67128619 2.36451919 -0.00077223 0.00000000
1.39890220 0.70566923 0.00280730 0.00000000
2.42825320 1.83155224 0.00145747 0.00000000
0.77016401 1.30087732 0.00203150 0.00000000
1.50291523 1.39624850 -0.00006204 0.00000000
4.54747264 0.78897832 0.00441372 0.00000000
1.88109627 1.68561946 0.00366964 0.00000000
1.51781968 1.72726784 0.00103735 0.00000000
2.15620652 1.42618336 0.00062754 0.00000000
1.14630462 2.31424109 0.00237273 0.00000000
4.08095432 1.70529345 0.00083357 0.00000000
4.05954238 2.26832730 -0.00301313 0.00000000
0.49971997 2.19679565 0.00064154 0.00000000
2.75946906 0.65895214 0.00071007 0.00000000
2.02634314 0.97201999 0.00199423 0.00000000
1.17139303 1.89884462 -0.00249992 0.00000000
3.22649350 1.50118056 -0.00023859 0.00000000
2.43635007 1.23807940 -0.00013568 0.00000000
0.69145828 1.27322092 0.00240119 0.00000000
2.96940024 1.41495067 -0.00216843 0.00000000
2.45995136 0.86423879 0.00259285 0.00000000
1.24482661 1.58252712 -0.00319862 0.00000000
3.89707225 1.44752428 0.00313225 0.00000000
4.30675605 1.55773545 -0.00187272 0.00000000
2.18698591 0.23968755 -0.00099124 0.00000000
2.52762563 0.41297675 0.00031515 0.00000000
2.73328684 0.02006602 0.00206973 0.00000000
3.04177258 0.87592134 -0.00446784 0.00000000
1.85840830 1.69287184 -0.00443873 0.00000000
2.03400518 0.28270061 -0.00430983 0.00000000
3.50944289 0.29566698 0.00267298 0.00000000
0.55538040 1.90408631 0.00001286 0.00000000
0.24853520 1.92099565 -0.00483629 0.00000000
0.00332021 2.37517002 -0.00104000 0.00000000
3.43061052 2.13399932 -0.00242640 0.00000000
2.93177023 1.69211389 -0.00011556 0.00000000
0.30430110 0.76188448 -0.00160876 0.00000000
3.76540441 0.20156273 -0.00584449 0.00000000
2.90633246 0.95116114 0.00346158 0.00000000
2.55536021 0.81052354 0.00074377 0.00000000
2.81307839 2.00106783 -0.00008396 0.00000000
1.16001485 1.85249316 -0.00023723 0.00000000
2.93686903 2.31713219 0.00005178 0.00000000
0.69286127 0.72424666 0.00086860 0.00000000
0.48390502 1.11352449 0.00199344 0.00000000
1.41907925 0.20501623 0.00247405 0.00000000
0.55822421 1.19776328 -0.00409835 0.00000000
3.18404879 0.05935331 -0.00121533 0.00000000
3.57087160 1.29010474 -0.00040590 0.00000000
0.68624749 0.72062458 -0.00063757 0.00000000
0.42684337 0.60155448 -0.00491908 0.00000000
2.21548279 1.43003260 0.00271744 0.00000000
0.66268451 1.33790692 -0.00216134 0.00000000
3.65828927 1.51875844 0.00114028 0.00000000
3.61436131 1.45327524 -0.00009002 0.00000000
4.17724548 0.25611440 -0.00119320 0.00000000
1.51424770 2.38384639 0.00084365 0.00000000
2.33789059 1.01641457 -0.00150920 0.00000000
0.63044027 1.55921527 0.00192382 0.00000000
1.40520072 1.04810917 -0.00018699 0.00000000
3.80595398 2.17228714 0.00097133 0.00000000
3.96613328 2.06008991 -0.00157679 0.00000000
3.46943907 0.86552638 0.00001749 0.00000000
4.21600690 0.70247440 -0.00175432 0.00000000
0.53369467 1.18930064 0.00273292 0.00000000
1.17359129 1.52042837 0.00011947 0.00000000
0.67366634 2.36254118 0.00230184 0.00000000
1.23505240 1.71339150 -0.00198493 0.00000000
0.95306164 0.01441899 0.00944483 0.00000000
3.15773577 2.36585265 0.00148076 0.00000000
3.49205567 1.75609600 0.00168513 0.00000000
3.04502565 0.34481670 0.00089896 0.00000000
2.97975880 0.84660413 -0.00020656 0.00000000
0.08208329 1.83063797 -0.00391196 0.00000000
3.18132718 0.29137716 0.00157062 0.00000000
3.02416867 0.73164381 -0.00229145 0.00000000
3.14075201 2.13596320 0.00079644 0.00000000
1.89121354 2.33242079 0.00167249 0.00000000
0.03685839 1.96448541 0.00009197 0.00000000
0.82925027 1.77962038 -0.00118401 0.00000000
3.51956554 2.23505368 -0.00034740 0.00000000
2.47327550 0.86209336 -0.00396351 0.00000000
3.00789483 2.33643497 -0.00924612 0.00000000
3.82399334 0.48233152 0.00288806 0.00000000
2.17134698 1.74558661 0.00041849 0.00000000
2.73633412 1.85708847 -0.00130274 0.00000000
2.78439119 1.78078255 0.00115861 0.00000000
4.00785877 0.09255128 -0.00315743 0.00000000
3.65233183 1.95009086 -0.00264024 0.00000000
0.84144718 0.89952299 -0.00348225 0.00000000
2.78690782 1.43617215 -0.00108749 0.00000000
2.74647430 0.95756882 0.00252868 0.00000000
3.65631079 1.41579893 -0.00329112 0.00000000
4.05267398 2.23674175 -0.00153581 0.00000000
1.36328640 0.12113903 0.00536852 0.00000000
2.53280581 0.46588878 -0.00201486 0.00000000
1.15196132 2.12059825 0.00048398 0.00000000
2.77584069 0.60761326 -0.00172391 0.00000000
1.15146966 0.53812799 -0.00021916 0.00000000
3.99547822 0.97258067 -0.00401887 0.00000000
4.35811113 1.64986428 -0.00461873 0.00000000
4.53755306 2.22221070 0.00037203 0.00000000
4.20925189 2.43312115 -0.00236703 0.00000000
0.07780159 0.40080035 -0.00143892 0.00000000
1.96080945 1.62387135 -0.00240342 0.00000000
0.29130178 0.49138009 0.00073918 0.00000000
3.89731175 1.02515438 0.00259154 0.00000000
2.17256028 0.14061316 0.00484879 0.00000000
0.11784225 2.40043228 -0.00340155 0.00000000
0.41143697 0.62581560 -0.00477031 0.00000000
2.38159590 0.43999890 0.00279380 0.00000000
4.08961755 0.63747888 0.00099367 0.00000000
0.22622200 0.26646288 -0.00237868 0.00000000
1.66740561 0.35646999 -0.00247823 0.00000000
0.71659090 2.38293263 -0.00271492 0.00000000
4.05914870 0.15140818 0.00180022 0.00000000
3.24580332 1.82897463 0.00142281 0.00000000
0.58658379 0.49089531 -0.00665883 0.00000000
0.70632241 0.40963296 0.00306093 0.00000000
1.61410877 0.97805284 -0.00125856 0.00000000
4.22864192 2.21307044 0.00184466 0.00000000
4.02786376 0.69250925 -0.00043352 0.00000000
0.02078612 0.91757574 -0.00125846 0.00000000
4.19005642 1.68160149 -0.00208079 0.00000000
3.50985946 1.05927924 -0.00089957 0.00000000
0.79877372 1.42909212 0.00242119 0.00000000
2.54725035 1.43393916 0.00024828 0.00000000
2.05449385 0.05752399 -0.00181713 0.00000000
2.75935754 2.24827326 -0.00170462 0.00000000
4.14034488 1.38283387 -0.00378250 0.00000000
2.90383091 2.24105184 0.00256831 0.00000000
0.59830729 0.28824384 -0.00186218 0.00000000
0.61455700 1.43336357 0.00032340 0.00000000
1.66868120 0.41455950 -0.00017925 0.00000000
1.63207859 2.09498923 -0.00043115 0.00000000
3.83464483 1.61614180 0.00247411 0.00000000
4.27485232 2.33801800 -0.00021852 0.00000000
2.27152460 2.34678902 0.00031232 0.00000000
4.33249199 0.15192629 -0.00261572 0.00000000
2.73368223 0.07233861 0.00224817 0.00000000
4.50760497 1.03205757 0.00103363 0.00000000
1.99210890 1.90636167 0.00346915 0.00000000
2.05042001 0.67664350 -0.00003517 0.00000000
0.74358622 1.53868408 0.00035209 0.00000000
0.05234977 0.32223438 -0.00104598 0.00000000
3.15006275 1.35853562 -0.00006735 0.00000000
1.33189672 2.41715451 0.00074184 0.00000000
3.58547140 0.68955050 -0.00072147 0.00000000
1.39468185 1.46904966 -0.00463818 0.00000000
1.97916739 1.84414806 -0.00244159 0.00000000
0.93792338 0.59638336 0.00129940 0.00000000
2.83905851 1.02528693 0.00163473 0.00000000
0.15520067 0.99241036 -0.00310952 0.00000000
1.31527006 2.08854004 0.00201027 0.00000000
3.10081367 1.98484620 -0.00245359 0.00000000
1.39292203 1.58494717 0.00251430 0.00000000
1.90347049 2.34135158 -0.00395530 0.00000000
3.36913013 0.75422792 -0.00291337 0.00000000
2.58688108 1.44312884 -0.00228731 0.00000000
0.06886903 1.21068015 -0.00270783 0.00000000
3.91193706 0.01326351 0.00051909 0.00000000
1.83444266 2.21386854 0.00272207 0.00000000
3.79051816 0.09598996 -0.00247857 0.00000000
3.33658860 1.80838077 -0.00676187 0.00000000
0.33577127 1.31777300 -0.00320714 0.00000000
2.52380243 0.19478355 0.00259569 0.00000000
0.23497135 2.12017740 0.00340743 0.00000000
3.52191739 0.03024819 -0.00236704 0.00000000
0.08433097 0.79015157 -0.00005204 0.00000000
2.29583353 1.05962053 -0.00084722 0.00000000
1.59259788 0.86052173 0.00359787 0.00000000
4.16684673 0.88743509 0.00660809 0.00000000
0.85867656 1.55601778 -0.00478816 0.00000000
1.88367598 0.93092109 -0.00241447 0.00000000
0.27643835 0.68539730 -0.00248437 0.00000000
2.62828823 1.88622444 0.00004363 0.00000000
4.00745164 0.21834054 0.00015513 0.00000000
2.47146724 0.25772084 0.00124401 0.00000000
1.00149704 0.01474255 -0.00215252 0.00000000
3.02037253 1.01767313 0.00002278 0.00000000
4.03664737 1.28639101 0.00201913 0.00000000
4.44899915 1.77566645 -0.00001939 0.00000000
1.46449125 1.82434537 0.00064348 0.00000000
2.50225048 1.62961952 0.00315225 0.00000000
4.21851681 2.26022136 0.00493007 0.00000000
1.31115598 2.38341550 0.00257887 0.00000000
3.07659736 1.00444220 0.00314454 0.00000000
1.55168275 2.25697964 0.00261420 0.00000000
0.52435705 2.40121069 0.00099796 0.00000000
0.88670586 2.44062742 0.00235875 0.00000000
2.09118059 1.53806811 -0.00161436 0.00000000
1.35564921 2.41447329 0.00201085 0.00000000
2.11446079 1.27041774 0.00138648 0.00000000
0.82930096 1.13520115 0.00212990 0.00000000
0.29383528 1.46683179 -0.00015410 0.00000000
0.45779959 0.45647708 -0.00470955 0.00000000
0.23447648 2.30670292 0.00474117 0.00000000
2.14551210 1.16490324 -0.00277673 0.00000000
2.71642445 2.21314726 -0.00431907 0.00000000
3.15955577 2.42046124 0.00161765 0.00000000
2.60105567 0.38998828 -0.00093803 0.00000000
0.19645882 1.86476830 -0.00179412 0.00000000
4.03390840 2.17134991 0.00120164 0.00000000
0.89412449 1.96108012 -0.00044380 0.00000000
2.94442874 1.40553263 0.00092440 0.00000000
2.66709848 0.10140148 0.00167115 0.00000000
3.30083441 0.18484388 0.00595737 0.00000000
1.67851742 1.74516952 0.00133440 0.00000000
0.34171906 2.14007602 0.00053351 0.00000000
0.97353158 1.45179253 0.00120228 0.00000000
1.14078829 2.32541141 0.00253518 0.00000000
0.71437031 0.21384126 -0.00056450 0.00000000
2.88427898 1.69492600 0.00336292 0.00000000
2.03946104 1.01915222 0.00048085 0.00000000
2.78775741 1.04999475 -0.00124087 0.00000000
0.31197158 1.19315062 0.00070625 0.00000000
1.08084221 0.66988644 -0.00338120 0.00000000
0.36446517 1.25882075 -0.00203027 0.00000000
2.73305520 0.44224394 0.00035706 0.00000000
2.60802538 1.96365455 -0.00464592 0.00000000
3.75197420 0.54156633 -0.00448732 0.00000000
3.77795154 0.63104070 0.00106916 0.00000000
1.52165611 1.01252475 0.00234192 0.00000000
3.27616943 1.44652869 0.00152228 0.00000000
2.83035452 2.18543566 -0.00198391 0.00000000
1.14192658 0.12744374 -0.00016974 0.00000000
1.72032882 0.17931164 0.00045728 0.00000000
4.24533433 0.70046182 0.00066086 0.00000000
1.25798243 1.00485599 0.00461260 0.00000000
2.02313061 0.60033085 0.00380039 0.00000000
2.92685890 0.60019337 -0.00127663 0.00000000
3.00132894 0.92893318 0.00179717 0.00000000
0.08673451 1.14765371 0.00207380 0.00000000
2.49276659 0.52754663 -0.00450134 0.00000000
0.78414953 0.39628875 -0.00140189 0.00000000
1.79135483 1.86063041 0.00264659 0.00000000
3.18551743 0.05719694 0.00045769 0.00000000
0.54151517 2.03282257 -0.00018783 0.00000000
2.24160947 2.33460899 0.00248978 0.00000000
0.92416463 1.91526715 -0.00233638 0.00000000
3.08254388 1.38265344 0.00425444 0.00000000
3.16007187 0.79010270 -0.00157776 0.00000000
1.64571957 1.79738686 0.00322696 0.00000000
0.40120187 1.91011823 -0.00265384 0.00000000
4.02555982 1.46239589 -0.00068206 0.00000000
2.50716403 0.04630432 0.00261656 0.00000000
0.53916083 0.97797455 0.00013418 0.00000000
0.58917627 1.71816694 -0.00068110 0.00000000
2.90090470 0.67251293 -0.00089898 0.00000000
2.73824951 1.38353405 0.00364303 0.00000000
2.94122836 0.62615293 0.00093163 0.00000000
2.22604429 2.08788642 0.00067501 0.00000000
1.35014424 0.30497265 0.00044540 0.00000000
0.09599891 0.27146227 -0.00130943 0.00000000
0.60998631 0.36510019 0.00063725 0.00000000
0.69821214 0.24188747 -0.00165967 0.00000000
0.04815082 2.03881421 0.00161427 0.00000000
2.71087519 1.37366057 -0.00315241 0.00000000
1.75414846 1.17003786 0.00569226 0.00000000
3.90715901 1.34873641 -0.00211755 0.00000000
2.13164584 1.38735911 -0.00385691 0.00000000
4.55914188 0.78393652 -0.00322781 0.00000000
1.22264058 1.99952551 -0.00214130 0.00000000
0.29898185 0.19599855 -0.00163539 0.00000000
1.64752859 2.37219371 -0.00182346 0.00000000
1.56938964 0.59204466 0.00095944 0.00000000
4.05426215 2.40922478 0.00212443 0.00000000
1.78508418 0.27124983 0.00167592 0.00000000
4.36641795 0.98534768 -0.00323746 0.00000000
3.98734159 1.16733228 -0.00232631 0.00000000
0.84403556 1.39932700 0.00092603 0.00000000
0.05512987 0.36318802 0.00345120 0.00000000
4.37715425 1.50236796 0.00031298 0.00000000
3.04153971 0.63260291 -0.00550329 0.00000000
1.07335108 0.97510484 -0.00352187 0.00000000
1.99548419 2.09749026 -0.00233486 0.00000000
4.42335913 0.40088944 -0.00272553 0.00000000
2.97307965 0.92155194 -0.00374435 0.00000000
0.95872167 2.31865714 -0.00118087 0.00000000
4.28060862 2.39224252 0.00013815 0.00000000
4.39781745 0.57060745 0.00181527 0.00000000
2.33799636 0.62083872 0.00274534 0.00000000
0.10059825 0.41832198 -0.00443745 0.00000000
0.37385831 0.24016996 -0.00248260 0.00000000
1.04370788 1.43618115 0.00317661 0.00000000
4.35425995 1.64326907 0.00337891 0.00000000
0.76285088 1.25555026 -0.00044654 0.00000000
2.49791658 2.34631393 0.00011105 0.00000000
2.50423295 0.23264708 -0.00101097 0.00000000
2.42077431 0.07590527 0.00024438 0.00000000
4.23887493 0.32469174 0.00401000 0.00000000
2.91685699 1.35792512 -0.00100933 0.00000000
1.08131517 0.52730757 0.00484478 0.00000000
2.42592982 1.97535878 -0.00003530 0.00000000
0.59121118 1.53107680 -0.00486654 0.00000000
1.42244784 2.22030310 0.00183872 0.00000000
1.22294043 2.20957790 0.00083083 0.00000000
2.62647469 0.80952018 -0.00383643 0.00000000
3.16043746 0.72417354 -0.00146573 0.00000000
4.44097350 0.31722351 0.00218373 0.00000000
4.42222809 1.84643670 -0.00060581 0.00000000
1.33088816 2.18121599 0.00075869 0.00000000
2.26902653 0.04279536 0.00087117 0.00000000
3.86800994 0.59782190 -0.00319398 0.00000000
1.07737952 0.90383215 0.00226432 0.00000000
1.74844592 1.04366552 0.00064998 0.00000000
1.22251261 2.16135010 0.00050034 0.00000000
0.61662310 1.91683145 0.00002887 0.00000000
2.40561379 0.18205300 0.00349871 0.00000000
3.28067052 0.62234831 0.00114662 0.00000000
1.23655925 0.00770369 -0.00106165 0.00000000
1.33896665 2.19844741 0.00324099 0.00000000
1.93713611 0.80831098 -0.00132401 0.00000000
2.43415604 2.36938299 -0.00142943 0.00000000
1.45179791 1.47404735 0.00267103 0.00000000
1.22301200 0.50001623 -0.00272015 0.00000000
3.92983349 1.68257171 0.00303521 0.00000000
3.11837351 0.80438123 0.00220998 0.00000000
1.65427355 0.58450626 -0.00294382 0.00000000
2.66812274 1.13911702 -0.00155449 0.00000000
1.03072545 0.75401063 -0.00311100 0.00000000
2.28147288 1.06927146 -0.00133642 0.00000000
0.04492671 0.54787853 -0.00180403 0.00000000
1.28100344 1.59844109 -0.00272442 0.00000000
0.84329804 0.40383073 0.00238061 0.00000000
2.31802143 1.97375951 0.00144918 0.00000000
2.89661137 1.81892482 -0.00028480 0.00000000
4.50095566 0.54222405 -0.00282768 0.00000000
1.98588538 0.03341138 -0.00191177 0.00000000
2.75527424 1.31018500 0.00431378 0.00000000
3.70242562 0.30865760 0.00092571 0.00000000
0.03502430 1.14790623 0.00024500 0.00000000
1.58024028 0.08422199 0.00334755 0.00000000
3.63564154 0.84090037 0.00184349 0.00000000
0.86515546 0.94786699 -0.00114038 0.00000000
0.71932889 1.54421445 0.00183829 0.00000000
3.72029032 2.08952131 -0.00390406 0.00000000
2.59722155 2.39896985 0.00075152 0.00000000
4.17735193 1.55964261 0.00103550 0.00000000
3.78422085 0.82891748 0.00202218 0.00000000
1.91411207 2.33419665 -0.00226819 0.00000000
1.03054279 1.80483716 0.00023596 0.00000000
1.64372619 1.52947398 0.00034232 0.00000000
2.09382766 2.15631668 -0.00199803 0.00000000
2.57765998 0.08499200 0.00407049 0.00000000
1.67231668 0.90604237 -0.00095261 0.00000000
3.13945043 0.61912856 -0.00003632 0.00000000
3.89967967 1.41115881 -0.00233129 0.00000000
4.40168185 0.87270448 -0.00590863 0.00000000
2.43973407 1.65454147 -0.00046545 0.00000000
3.31689205 1.47595429 -0.00041520 0.00000000
0.42643703 1.47146352 -0.00281694 0.00000000
3.77861872 1.33056212 -0.00290154 0.00000000
2.29416352 0.87118161 -0.00031287 0.00000000
3.89228926 1.89376943 -0.00232275 0.00000000
1.22464552 1.92605214 0.00256863 0.00000000
1.62839004 0.01605922 -0.00041903 0.00000000
2.83352984 1.66480554 -0.00611107 0.00000000
0.71021125 1.17454238 0.00144019 0.00000000
1.10798588 0.94740688 0.00186250 0.00000000
2.12876275 0.54548004 -0.00055555 0.00000000
4.30519948 0.62158044 0.00246703 0.00000000
2.31639260 2.37751833 0.00037983 0.00000000
1.47327221 1.43214276 -0.00165217 0.00000000
3.76991138 0.86306549 -0.00395724 0.00000000
0.73707604 0.00940682 -0.00123079 0.00000000
2.58788184 2.30120463 -0.00343439 0.00000000
1.94744783 1.81859527 0.00275806 0.00000000
3.79463196 0.26479343 -0.00212525 0.00000000
3.72128438 0.60392167 0.00276012 0.00000000
2.30822497 0.33318745 0.00257782 0.00000000
0.67927705 1.90408120 -0.00010494 0.00000000
3.45964285 0.51926421 0.00332476 0.00000000
2.92960543 1.66876557 0.00247594 0.00000000
0.96278597 1.74391918 -0.00305298 0.00000000
0.56689654 0.33114400 -0.00429267 0.00000000
0.58160470 0.78488447 0.00426297 0.00000000
0.79285169 0.78038438 -0.00401502 0.00000000
3.22297433 1.14823911 0.00172602 0.00000000
3.60453389 1.37075834 -0.00085930 0.00000000
1.18347605 0.36104241 0.00581112 0.00000000
4.11572856 1.37469106 -0.00222790 0.00000000
2.43318041 1.42454840 -0.00429389 0.00000000
0.76592455 1.48806841 0.00318570 0.00000000
0.57105920 0.38544615 -0.00128750 0.00000000
1.75688282 2.21091744 -0.00076879 0.00000000
1.31116763 0.46969950 0.00162026 0.00000000
4.39154432 1.17056505 -0.00049865 0.00000000
3.29113186 1.23706723 0.00178281 0.00000000
3.85616889 1.76142338 0.00178254 0.00000000
2.14348681 1.19121900 -0.00028212 0.00000000
0.93667411 1.80068043 0.00304489 0.00000000
1.04858170 1.88519323 -0.00279835 0.00000000
2.37214791 0.76766870 0.00065702 0.00000000
2.67357702 1.13515476 -0.00470177 0.00000000
3.70654234 0.32155845 -0.00268625 0.00000000
4.41732967 0.83138818 -0.00196255 0.00000000
2.51405707 2.13971993 0.00656014 0.00000000
2.44825651 1.59382482 -0.00081718 0.00000000
4.24095601 1.05795071 0.00001088 0.00000000
1.67937091 0.08697739 0.00251009 0.00000000
2.04481293 1.13905612 0.00036558 0.00000000
1.79492781 1.73100409 0.00124748 0.00000000
1.99702199 1.44697700 0.00063443 0.00000000
2.66598321 0.54387983 -0.00166848 0.00000000
4.51730983 1.69393403 -0.00069234 0.00000000
1.46237474 2.27316318 0.00478723 0.00000000
3.32116881 0.29343134 -0.00096398 0.00000000
2.93177880 1.05088612 -0.00497638 0.00000000
0.07019555 1.49569240 -0.00065886 0.00000000
2.55428876 1.36620834 0.00026354 0.00000000
0.68212093 1.47552247 -0.00080962 0.00000000
1.98195980 0.55443617 0.00133550 0.00000000
2.84784496 1.68731153 0.00444618 0.00000000
1.25237745 0.51008084 0.00002331 0.00000000
1.55571054 1.88196530 -0.00059056 0.00000000
4.20790975 0.89884655 0.00238651 0.00000000
0.67532016 2.32493585 -0.00109942 0.00000000
2.18118547 0.37832387 0.00124127 0.00000000
3.96085539 1.64680218 -0.00253672 0.00000000
3.25879765 0.83085717 0.00224438 0.00000000
0.96460425 1.71887098 0.00058845 0.00000000
3.46021817 1.29640209 -0.00231627 0.00000000
1.83961269 1.17987159 0.00520492 0.00000000
2.04341239 0.11868685 0.00355084 0.00000000
1.10476002 0.79781942 -0.00082578 0.00000000
3.48042587 0.49269680 0.00097921 0.00000000
2.96995311 1.48775606 -0.00432348 0.00000000
3.68659770 0.25367429 -0.00290328 0.00000000
0.88484053 1.91037757 -0.00348645 0.00000000
3.02516207 1.42216046 -0.00334116 0.00000000
4.25320820 1.71597012 0.00031984 0.00000000
1.74445231 1.94932554 -0.00228519 0.00000000
0.28336130 0.93050413 -0.00005695 0.00000000
0.40010967 2.13449406 0.00266719 0.00000000
0.10349121 1.75618330 0.00433117 0.00000000
0.05159646 0.23723890 -0.00003048 0.00000000
0.43323441 1.99304285 0.00333780 0.00000000
3.75400586 0.11561191 0.00429525 0.00000000
2.34387440 1.09984562 -0.00875355 0.00000000
1.69024709 1.31303839 0.00052255 0.00000000
0.90800287 2.38601164 0.00124098 0.00000000
0.21038477 1.86639617 0.00004309 0.00000000
2.49597351 1.13438210 -0.00044885 0.00000000
0.05424518 0.78380014 0.00323899 0.00000000
0.31050683 1.34780714 0.00690397 0.00000000
1.25897654 0.39566847 0.00186952 0.00000000
3.93619203 1.08572161 0.00126540 0.00000000
0.30113820 0.33209137 0.00096702 0.00000000
2.68754243 1.94160925 -0.00242945 0.00000000
2.61684420 2.35048298 0.00112839 0.00000000
3.10718244 0.69635908 0.00246691 0.00000000
2.60406099 1.64718712 -0.00051416 0.00000000
3.16746283 1.27625674 0.00257861 0.00000000
3.52517202 0.68720255 0.00154041 0.00000000
0.24785767 1.23371929 -0.00492460 0.00000000
4.10580091 1.92043191 0.00397536 0.00000000
1.70498439 2.32343667 -0.00009638 0.00000000
0.99928085 0.04952516 -0.00177609 0.00000000
2.12103310 0.44608638 0.00101597 0.00000000
3.81599399 0.46346540 -0.00274321 0.00000000
4.44577632 1.59120819 -0.00139807 0.00000000
1.41980448 2.34192785 0.00366823 0.00000000
2.18543702 1.46427433 0.00023992 0.00000000
0.61004893 0.08246217 0.00069354 0.00000000
4.47553767 1.99431760 -0.00100242 0.00000000
3.66284024 0.31909414 0.00025348 0.00000000
2.56784449 0.81009374 0.00105164 0.00000000
0.52939076 0.50760143 -0.00360562 0.00000000
0.71148593 0.96078503 0.00165395 0.00000000
2.20845863 0.61149115 0.00046664 0.00000000
0.83503030 2.39625203 0.00280117 0.00000000
1.31587889 0.40842207 0.00288205 0.00000000
1.88578942 1.37581049 -0.00054849 0.00000000
3.57004631 1.18447349 0.00394647 0.00000000
3.77782274 1.39081901 -0.00216230 0.00000000
2.52808421 1.02731276 -0.00075628 0.00000000
1.77129170 0.70137117 0.00452031 0.00000000
3.92842251 1.91796445 -0.00224731 0.00000000
0.45828934 1.80642369 0.00246866 0.00000000
2.41904269 2.34970028 0.00212948 0.00000000
2.01042901 2.10812901 0.00000334 0.00000000
1.64352860 0.20114181 -0.00123020 0.00000000
3.44699649 0.01809954 0.00103705 0.00000000
3.81314401 1.49856271 -0.00351756 0.00000000
0.00251311 0.28362797 0.00279425 0.00000000
3.45927593 0.27747836 0.00004122 0.00000000
2.47802359 1.33972161 0.00283671 0.00000000
0.17941351 1.20326207 0.00141044 0.00000000
3.73027162 0.93739461 -0.00379813 0.00000000
3.42183134 1.84331843 -0.00093039 0.00000000
2.65462672 0.95670795 -0.00027360 0.00000000
4.53332170 0.95397209 -0.00217559 0.00000000
3.34668363 1.15206738 -0.00153856 0.00000000
1.91615422 0.23541861 -0.00363579 0.00000000
1.35689697 0.77947630 -0.00164056 0.00000000
4.13036659 0.18459946 -0.00054728 0.00000000
2.36097710 0.40488463 0.00231006 0.00000000
0.99072207 0.99538231 -0.00053478 0.00000000
0.46286092 2.27168188 0.00214790 0.00000000
2.75460197 1.37993089 0.00265387 0.00000000
2.41462470 1.33199689 -0.00012543 0.00000000
1.14598916 2.31638033 -0.00291339 0.00000000
2.67962021 1.70232352 -0.00065352 0.00000000
0.26356547 0.16358188 0.00216651 0.00000000
4.15857277 1.48767207 0.00002690 0.00000000
0.62575428 1.71629712 -0.00200043 0.00000000
4.49801806 0.39543511 -0.00135285 0.00000000
0.15867185 1.47889497 0.00243248 0.00000000
1.65452414 0.53876476 0.00001799 0.00000000
1.52157696 0.85335945 -0.00316319 0.00000000
4.02505760 0.32535363 0.00091366 0.00000000
0.56077595 0.99624584 -0.00406663 0.00000000
1.12418280 1.81608681 -0.00254118 0.00000000
1.55130023 0.78028015 -0.00108820 0.00000000
2.33707988 0.64203014 -0.00180028 0.00000000
4.24285282 1.40947687 0.00191466 0.00000000
3.87512900 1.39176084 -0.00028807 0.00000000
3.77111647 0.90572851 -0.00182245 0.00000000
2.19367448 2.17893784 -0.00683563 0.00000000
0.96654678 1.57987276 -0.00012368 0.00000000
2.54725740 0.13129671 0.00009536 0.00000000
2.34606973 0.53061772 0.00167195 0.00000000
0.18548224 1.78387974 0.00126780 0.00000000
4.09978537 0.13185019 -0.00129494 0.00000000
0.90060821 1.98147852 0.00037179 0.00000000
0.64800456 1.20100953 -0.00216179 0.00000000
0.01849291 1.14069209 0.00014350 0.00000000
2.12963339 1.38930451 -0.00013818 0.00000000
0.98992182 2.20050499 -0.00233259 0.00000000
2.23293635 0.63673103 -0.00127044 0.00000000
4.27294685 0.87103187 -0.00164076 0.00000000
0.05592967 0.72926277 -0.00204870 0.00000000
3.54422109 0.08707581 -0.00284565 0.00000000
2.68455574 1.65059764 -0.00279802 0.00000000
2.83652230 2.08592036 0.00226288 0.00000000
2.15259932 0.06886503 -0.00112632 0.00000000
4.32932540 0.11484279 0.00131880 0.00000000
1.35698508 1.71630548 0.00646317 0.00000000
3.03341230 0.78957473 0.00030970 0.00000000
0.45938112 0.90902935 -0.00124474 0.00000000
3.53269929 1.01175627 0.00074288 0.00000000
2.49758259 2.00126481 -0.00411851 0.00000000
4.45814158 0.74745207 -0.00189780 0.00000000
4.50941407 1.62679833 0.00175854 0.00000000
2.99025603 1.96649278 0.00029667 0.00000000
1.96504067 1.39566335 0.00092615 0.00000000
4.25473320 1.18993676 -0.00173136 0.00000000
3.31492458 0.57210254 -0.00185845 0.00000000
4.44379745 2.17629015 0.00157045 0.00000000
3.58768053 0.42168280 0.00391875 0.00000000
3.24579750 0.78154958 -0.00038255 0.00000000
3.49786879 1.15290644 0.00570809 0.00000000
2.82003371 2.02248422 0.00162729 0.00000000
1.52492347 1.60941765 0.00098501 0.00000000
0.27371545 1.21317095 -0.00038631 0.00000000
4.13848688 1.16175268 -0.00297984 0.00000000
2.58521443 1.31844925 0.00122121 0.00000000
2.58517747 1.70354917 -0.00305161 0.00000000
3.47796414 1.92332411 0.00144915 0.00000000
3.44324785 1.00644066 -0.00003592 0.00000000
2.32949115 2.00810752 -0.00146582 0.00000000
3.93069162 1.11833328 0.00115347 0.00000000
3.21029935 1.93073030 -0.00138624 0.00000000
3.20711442 0.20687665 0.00341751 0.00000000
2.99844284 1.35233719 0.00266884 0.00000000
4.12741338 1.59053020 -0.00564915 0.00000000
2.18281807 1.35824194 -0.00052767 0.00000000
1.62667955 1.79597122 -0.00141888 0.00000000
2.36824065 2.16255652 0.00248752 0.00000000
0.20547083 1.43026185 -0.00129527 0.00000000
2.33516609 1.74147367 0.00143915 0.00000000
3.83294702 2.11330917 0.00622334 0.00000000
3.89356023 0.29613321 -0.00045229 0.00000000
2.51715122 1.37462434 0.00497318 0.00000000
3.52476650 2.00192393 0.00254807 0.00000000
0.48664690 1.49508734 -0.00108675 0.00000000
3.28393803 1.04735130 0.00199298 0.00000000
2.37006451 0.02749282 0.00243692 0.00000000
3.24250408 1.39711383 0.00174638 0.00000000
2.86346893 0.19502035 0.00181156 0.00000000
3.61077977 1.87585314 -0.00130003 0.00000000
3.90761246 2.11642860 0.00137480 0.00000000
1.64293676 0.74460551 -0.00213756 0.00000000
2.93955866 0.65455029 0.00275127 0.00000000
1.63813909 1.51908094 0.00364530 0.00000000
3.07753979 1.91521807 0.00256803 0.00000000
0.66410560 0.45767957 0.00084111 0.00000000
3.05326112 1.63143321 0.00130410 0.00000000
1.80775150 0.78076895 -0.00224705 0.00000000
1.27223998 0.82938600 -0.00042443 0.00000000
3.46408034 1.52464096 0.00075602 0.00000000
2.26788686 0.97660086 -0.00003623 0.00000000
2.58476095 1.64505383 0.00012630 0.00000000
3.13052374 1.72402625 -0.00155103 0.00000000
0.70549506 2.35429852 -0.00134824 0.00000000
0.54002706 0.87032731 0.00391055 0.00000000
2.49709286 0.81853390 0.00137680 0.00000000
0.75635363 1.68841567 -0.00094853 0.00000000
1.92655936 1.99191952 -0.00452542 0.00000000
2.15063608 1.50184239 -0.00153824 0.00000000
1.37182742 2.35454163 0.00381849 0.00000000
0.89350384 1.48537986 -0.00100843 0.00000000
0.51613993 2.02964160 -0.00047713 0.00000000
0.16286089 1.46998889 0.00403917 0.00000000
1.71163943 0.38662353 0.00159818 0.00000000
3.15820455 0.49059987 -0.00209639 0.00000000
2.84410749 1.16126874 -0.00048700 0.00000000
2.03775376 1.12409768 0.00405442 0.00000000
3.76868797 0.07490901 -0.00171926 0.00000000
1.18158057 1.53337302 0.00087892 0.00000000
0.05319153 0.03591580 -0.00295323 0.00000000
3.32403140 1.53994478 0.00379109 0.00000000
0.02451707 0.07407951 0.00042714 0.00000000
2.55697872 1.68003483 0.00580966 0.00000000
4.04472616 0.12922312 -0.00063854 0.00000000
1.31740190 2.39695128 -0.00192662 0.00000000
0.15281280 0.81555174 0.00237534 0.00000000
3.37367541 0.92275707 -0.00252477 0.00000000
1.72231221 1.58698393 0.00073542 0.00000000
2.09033998 1.95308912 0.00238832 0.00000000
0.40919649 0.99054365 -0.00150534 0.00000000
1.58808316 1.32139374 0.00222614 0.00000000
1.95961984 1.35833631 -0.00373332 0.00000000
0.84924025 1.87376355 0.00147053 0.00000000
2.71993961 1.77721059 -0.00012941 0.00000000
0.59975971 1.49894511 0.00195506 0.00000000
2.08406790 0.78235734 -0.00220883 0.00000000
3.33131166 0.24028092 0.00255361 0.00000000
0.76226811 0.41693585 -0.00215426 0.00000000
3.60958481 1.15005585 -0.00062629 0.00000000
0.48832212 0.53020540 0.00016881 0.00000000
2.15502521 1.54103962 0.00092274 0.00000000
2.41523503 1.18998525 0.00446026 0.00000000
3.77088004 0.79189278 -0.00081344 0.00000000
1.86769874 1.90467756 -0.00781249 0.00000000
4.54080064 1.27923097 0.00274771 0.00000000
4.15827640 0.26389189 0.00390141 0.00000000
3.40292400 1.00921099 -0.00061290 0.00000000
1.30809224 1.90347438 0.00154484 0.00000000
0.50807219 0.18385197 0.00492466 0.00000000
3.13011075 0.16541043 0.00184941 0.00000000
3.88273124 0.79792347 -0.00032994 0.00000000
0.54887201 1.52230235 -0.00038278 0.00000000
0.96805393 2.37716614 -0.00012990 0.00000000
0.02913312 0.82303698 0.00196052 0.00000000
2.61429224 2.01176954 -0.00158293 0.00000000
1.35324327 0.42588462 0.00044356 0.00000000
0.21650114 0.39294373 0.00128237 0.00000000
1.93069793 0.39204627 -0.00445015 0.00000000
3.52759182 1.21087350 0.00076933 0.00000000
4.30624792 1.26855534 -0.00123005 0.00000000
4.13085244 1.97758963 -0.00158465 0.00000000
4.15181591 1.85198629 0.00219274 0.00000000
3.31686588 2.18222425 -0.00297954 0.00000000
1.71730452 1.30268846 0.00092639 0.00000000
3.80508032 0.20207793 0.00268632 0.00000000
3.73926374 2.32361024 0.00155451 0.00000000
4.19209577 1.77940257 0.00439007 0.00000000
1.45028265 1.85683498 0.00071343 0.00000000
1.33494159 2.35410954 -0.00491235 0.00000000
3.51737042 0.89281038 0.00152057 0.00000000
0.48299623 0.73319633 -0.00524971 0.00000000
1.44467107 1.45899453 0.00048159 0.00000000
0.19917068 2.07924749 -0.00223294 0.00000000
4.45818465 2.35205702 -0.00154346 0.00000000
4.55480191 2.03100092 -0.00149766 0.00000000
2.71447786 0.83467865 0.00477192 0.00000000
1.33436155 0.04868498 0.00103077 0.00000000
0.39853876 1.63170221 -0.00035394 0.00000000
1.49156227 1.88774547 -0.00071286 0.00000000
1.07168139 1.93351832 0.00072043 0.00000000
0.10867032 0.33021900 -0.00108437 0.00000000
3.47768111 0.99588821 0.00062526 0.00000000
0.49462647 0.44040524 -0.00430794 0.00000000
3.77259390 0.75267540 -0.00215042 0.00000000
0.25910828 1.32050403 -0.00096440 0.00000000
4.25366338 1.79210712 -0.00298737 0.00000000
1.33458041 0.44170951 0.00376600 0.00000000
2.61092970 1.77022383 -0.00220762 0.00000000
2.16595413 2.20099226 -0.00168618 0.00000000
1.18425031 0.04675669 -0.00313719 0.00000000
0.05967947 1.04289633 -0.00026280 0.00000000
0.36837529 1.28974296 -0.00331602 0.00000000
4.09516045 1.35036420 0.00125133 0.00000000
2.18625703 1.62564335 -0.00054317 0.00000000
1.25126038 1.98612192 0.00452858 0.00000000
3.40692647 1.86020895 0.00104145 0.00000000
1.29882290 1.79886518 -0.00133946 0.00000000
0.83765420 0.51570858 -0.00049478 0.00000000
3.34659699 1.44566577 -0.00004191 0.00000000
4.49485494 0.83207550 0.00193489 0.00000000
2.02623732 0.98863140 0.00262570 0.00000000
4.52517610 1.38835160 -0.00300364 0.00000000
2.76824989 0.37916784 0.00321901 0.00000000
1.37958832 0.11695757 -0.00198469 0.00000000
3.52600967 0.58902740 -0.00140253 0.00000000
4.25069774 0.95124743 0.00188273 0.00000000
3.67578191 1.65819781 0.00008935 0.00000000
2.53734338 2.31971006 -0.00332563 0.00000000
1.60171736 2.22945327 -0.00178573 0.00000000
0.98082799 0.24740365 -0.00104707 0.00000000
2.17761847 1.48350278 0.00215012 0.00000000
2.68006052 0.09326196 -0.00049444 0.00000000
1.85096619 2.14967246 0.00354588 0.00000000
4.45282061 0.01015176 -0.00321855 0.00000000
2.18755149 0.96813721 0.00267945 0.00000000
0.97344052 1.44654229 0.00225985 0.00000000
2.71129463 1.24728351 -0.00457437 0.00000000
2.71928265 1.89470884 -0.00032642 0.00000000
0.21978733 0.21853630 0.00358198 0.00000000
2.16286451 1.28790576 -0.00198340 0.00000000
0.73827469 0.99995481 -0.00293284 0.00000000
2.40341682 2.43229909 0.00074089 0.00000000
1.19466164 0.65579633 0.00134007 0.00000000
3.81096888 2.14150959 -0.00074741 0.00000000
1.31634975 1.32288642 -0.00337371 0.00000000
0.69736667 0.49101379 0.00223576 0.00000000
0.76999365 0.92486912 -0.00000239 0.00000000
2.18260988 2.09949074 0.00249191 0.00000000
0.79081444 2.20854516 0.00002909 0.00000000
3.58084396 2.03457663 0.00239718 0.00000000
3.04243208 1.90705377 -0.00021100 0.00000000
2.16457618 1.08875147 -0.00276312 0.00000000
2.22698303 0.82257012 -0.00076719 0.00000000
0.13892326 0.96573582 0.00132856 0.00000000
4.47208577 0.37483184 0.00197756 0.00000000
3.01499118 1.24797983 -0.00204200 0.00000000
1.77304176 1.07477173 0.00265461 0.00000000
2.56775229 1.99009522 -0.00176393 0.00000000
1.45003881 0.92990027 -0.00070589 0.00000000
1.88184648 1.33792571 -0.00186461 0.00000000
1.13517585 0.63231973 0.00240399 0.00000000
3.04439740 0.86493064 -0.00004098 0.00000000
4.15369669 2.03907269 0.00301311 0.00000000
0.30474594 0.71307750 -0.00067393 0.00000000
0.87252496 0.06141661 -0.00615809 0.00000000
0.46948424 2.38048501 0.00341596 0.00000000
4.16574735 0.67216064 -0.00170516 0.00000000
2.03877463 1.71440942 0.00112706 0.00000000
2.22316319 0.53735185 0.00098312 0.00000000
0.98254141 1.38989973 0.00174086 0.00000000
3.69568287 1.35694101 0.00176875 0.00000000
0.38004860 2.08485099 0.00350009 0.00000000
0.82044112 1.16805980 0.00176477 0.00000000
4.38385472 1.17233367 -0.00100216 0.00000000
2.17257460 0.54907808 -0.00173537 0.00000000
4.33571884 0.81493876 -0.00102512 0.00000000
2.35810227 0.26039473 0.00025477 0.00000000
1.38010914 2.20000840 0.00276353 0.00000000
3.32862419 2.27564368 -0.00298789 0.00000000
3.76344504 0.61129478 -0.00313386 0.00000000
0.59696381 1.16947646 -0.00188247 0.00000000
2.25194910 0.85937598 -0.00072617 0.00000000
3.64186132 2.22861124 -0.00282269 0.00000000
3.86823509 2.26493403 0.00029213 0.00000000
2.46426714 2.05867004 -0.00171072 0.00000000
3.41126041 1.44459121 0.00125673 0.00000000
0.88461159 0.03871458 0.00290333 0.00000000
2.73758709 1.36088524 -0.00241387 0.00000000
4.17285003 1.81212726 -0.00251151 0.00000000
4.56123546 1.65507506 -0.00117525 0.00000000
1.86264711 1.01837177 0.00283038 0.00000000
3.64019554 2.08649743 0.00160225 0.00000000
3.58496350 0.30051263 -0.00303500 0.00000000
0.15857382 2.37140721 0.00254252 0.00000000
2.32908125 1.78265211 0.00007226 0.00000000
1.54353220 0.16388123 -0.00109281 0.00000000
2.00468056 0.87277163 0.00273459 0.00000000
3.31974490 0.25444590 -0.00030246 0.00000000
0.27199356 1.55487831 0.00013599 0.00000000
0.63550241 2.32037129 -0.00047864 0.00000000
4.51468713 2.22429025 0.00197083 0.00000000
3.78149454 0.98229297 -0.00070263 0.00000000
0.34080252 1.81974519 0.00119275 0.00000000
2.78276860 0.37794339 -0.00183665 0.00000000
1.70285277 0.34964000 0.00159960 0.00000000
1.70945482 0.69819499 -0.00161664 0.00000000
3.14035973 2.07510224 0.00246151 0.00000000
1.77019036 1.00897774 -0.00004733 0.00000000
0.79256017 0.11187009 0.00079250 0.00000000
4.00056438 1.92799786 -0.00261748 0.00000000
3.24296524 1.89234326 -0.00118772 0.00000000
2.84844657 0.59554891 0.00345463 0.00000000
4.29408758 1.20367853 0.00022095 0.00000000
2.59732709 2.21050974 -0.00090414 0.00000000
4.24080710 2.33751483 -0.00562759 0.00000000
0.75479511 0.52803996 0.00072981 0.00000000
4.34830251 2.16579696 0.00299311 0.00000000
0.94121339 1.98607608 0.00069401 0.00000000
1.39357061 1.76372778 0.00471826 0.00000000
3.87667625 0.41247879 0.00069875 0.00000000
0.68393958 0.79200628 -0.00382330 0.00000000
4.48804000 1.67994502 0.00599548 0.00000000
4.55274790 2.43376411 0.00216478 0.00000000
3.04028453 2.38074926 -0.00101710 0.00000000
1.70235211 0.10456305 -0.00035369 0.00000000
1.62722821 0.11629809 -0.00509607 0.00000000
3.96264414 0.15241783 -0.00132077 0.00000000
0.89239519 2.02575810 -0.00193814 0.00000000
3.07627577 1.22774153 -0.00226333 0.00000000
3.43984877 1.16771863 -0.00192943 0.00000000
0.95260905 1.03702270 0.00141355 0.00000000
2.97304329 0.70655906 -0.00360148 0.00000000
3.37707235 1.88810494 0.00000744 0.00000000
1.65633561 0.34890138 0.00228359 0.00000000
3.48133135 0.96124400 -0.00130135 0.00000000
2.51786388 1.69235847 0.00204970 0.00000000
4.31402130 2.24169681 -0.00122670 0.00000000
0.54491934 1.14436156 0.00379557 0.00000000
2.27865166 2.33504647 0.00429138 0.00000000
2.59951797 1.87342181 -0.00075724 0.00000000
0.47637662 1.59866220 -0.00231317 0.00000000
0.46669422 2.39523419 -0.00369212 0.00000000
2.24331855 1.53920472 0.00253112 0.00000000
3.51753837 0.06406151 0.00320432 0.00000000
2.92978037 0.11405058 -0.00236753 0.00000000
0.68332572 0.11604197 0.00076019 0.00000000
4.48774707 2.34247698 -0.00134980 0.00000000
0.14470758 0.54425133 -0.00045424 0.00000000
3.55915930 1.42717003 -0.00104359 0.00000000
4.08759634 2.24641929 0.00003528 0.00000000
3.03491234 1.31432182 -0.00134808 0.00000000
1.29130247 1.75772538 0.00460052 0.00000000
2.66393133 0.83868798 -0.00150239 0.00000000
4.09889295 1.39491919 0.00338932 0.00000000
0.15708262 0.89714527 -0.00149522 0.00000000
3.62084056 1.52229951 0.00079979 0.00000000
2.33615171 1.61578007 0.00120783 0.00000000
2.83850927 1.25371716 0.00269776 0.00000000
1.35870996 2.40911994 -0.00025078 0.00000000
3.18410424 1.78313825 0.00141738 0.00000000
4.53984741 1.67990319 -0.00199912 0.00000000
0.20970267 2.43750501 0.00241164 0.00000000
1.78531732 1.99166600 -0.00354503 0.00000000
3.64629916 1.33181351 -0.00065361 0.00000000
3.41492593 1.74502375 -0.00045572 0.00000000
3.58980976 0.05872128 0.00170938 0.00000000
2.40572049 1.62578789 0.00163905 0.00000000
4.43976941 1.67143829 0.00149326 0.00000000
2.83856926 0.46532443 -0.00121233 0.00000000
1.99241737 0.97811607 -0.00212944 0.00000000
1.32442207 0.55966809 -0.00128760 0.00000000
1.36465001 2.17755546 -0.00226286 0.00000000
0.52975737 1.39568535 -0.00033187 0.00000000
3.91242081 2.10446718 -0.01084590 0.00000000
2.71388420 0.83773260 -0.00116792 0.00000000
0.50398553 1.63281523 -0.00010716 0.00000000
0.52217231 2.11197321 -0.00279032 0.00000000
1.94855787 2.01719929 -0.00079700 0.00000000
3.21906991 1.56293915 -0.00048806 0.00000000
1.82671997 2.10498296 -0.00285099 0.00000000
0.71617655 0.62295270 0.00080595 0.00000000
3.98741794 2.19295911 -0.00086606 0.00000000
0.23913047 1.70028874 -0.00100334 0.00000000
3.34447154 2.32027187 -0.00368069 0.00000000
0.52382267 1.30712590 -0.00079586 0.00000000
0.34715298 1.40680271 0.00000733 0.00000000
0.31452304 2.17101828 -0.00244969 0.00000000
3.21193306 2.35739095 -0.00525538 0.00000000
3.87109503 0.17201482 0.00300547 0.00000000
3.46010587 2.16415060 -0.00331289 0.00000000
1.59778699 1.49348225 0.00119995 0.00000000
3.15532036 1.79098652 -0.00198303 0.00000000
4.38047634 2.07009414 -0.00376152 0.00000000
3.09986410 1.53148463 0.00642434 0.00000000
0.71506949 0.14745785 -0.00687780 0.00000000
2.87428942 0.14155912 -0.00063654 0.00000000
3.32448280 0.49342267 0.00274810 0.00000000
0.81887058 0.10059118 0.00008462 0.00000000
2.01265680 0.52787159 0.00218172 0.00000000
2.66943070 1.22738474 0.00514185 0.00000000
0.28496038 0.92700950 -0.00007608 0.00000000
1.09037836 1.71879793 0.00082879 0.00000000
2.18834102 0.95243743 0.00142596 0.00000000
1.71584232 1.01471053 0.00055282 0.00000000
4.10624749 2.07902925 -0.00253535 0.00000000
4.43016570 1.30730843 -0.00123277 0.00000000
2.02931056 2.39323665 0.00140985 0.00000000
1.72446507 0.11523566 -0.00078286 0.00000000
0.50398421 2.02020866 -0.00232974 0.00000000
3.07752238 2.13200755 0.00184927 0.00000000
3.23288949 0.51921373 0.00064192 0.00000000
2.26882826 2.42965334 0.00234296 0.00000000
3.54407275 1.75031222 0.00023812 0.00000000
4.56211519 0.35489789 0.00074716 0.00000000
2.60438500 1.45539449 0.00433070 0.00000000
1.18475531 0.37438426 0.00052658 0.00000000
1.90257477 0.44723578 0.00311006 0.00000000
3.28147432 0.04608630 0.00288525 0.00000000
3.50986852 1.86739797 -0.00022863 0.00000000
1.50028263 0.71662473 -0.00054800 0.00000000
2.63019914 1.15849145 -0.00138023 0.00000000
4.37835848 1.29387353 -0.00468671 0.00000000
4.24801795 2.30563418 -0.00159766 0.00000000
0.02602912 0.25902940 -0.00200483 0.00000000
2.84119781 1.34191866 0.00122357 0.00000000
3.05812189 0.12314955 0.00223309 0.00000000
1.69418217 2.18245205 0.00298560 0.00000000
3.28398054 2.19199394 0.00153991 0.00000000
2.05929398 0.26704244 0.00242413 0.00000000
3.30144897 2.02145684 0.00213376 0.00000000
0.70885214 2.24499759 -0.00365526 0.00000000
2.15683434 0.58659138 -0.00023126 0.00000000
3.85909520 0.49778030 0.00208632 0.00000000
0.57813290 0.87465216 0.00030133 0.00000000
4.32970522 1.51380699 0.00066327 0.00000000
3.21556802 0.24924802 0.00179908 0.00000000
3.15048840 0.06634891 -0.00170371 0.00000000
1.81665542 1.36239514 -0.00208122 0.00000000
3.81379053 1.11168109 0.00221272 0.00000000
4.00685850 2.03838869 0.00530521 0.00000000
1.27669657 0.21895356 0.00252786 0.00000000
0.14953733 0.01204765 0.00117015 0.00000000
1.96663865 1.73664162 -0.00772979 0.00000000
1.18244436 1.39620172 0.00063055 0.00000000
3.58106674 2.35319964 0.00182727 0.00000000
2.04743478 0.50893561 0.00230254 0.00000000
2.36987509 1.29421265 -0.00005679 0.00000000
1.49131301 1.06166723 0.00125144 0.00000000
1.42612717 0.43469064 -0.00031870 0.00000000
1.01819848 0.37263926 -0.00121329 0.00000000
4.31770249 1.15157519 0.00053133 0.00000000
3.35640319 1.84725903 0.00209147 0.00000000
2.17302042 2.10083015 0.00198013 0.00000000
3.00325083 1.07438126 0.00186877 0.00000000
2.38500503 2.20925758 0.00186741 0.00000000
3.08943139 1.36154973 0.00270403 0.00000000
3.29469050 0.93414504 0.00206630 0.00000000
0.51525623 2.04631708 -0.00037262 0.00000000
2.25049502 1.75471862 0.00464665 0.00000000
3.12490265 2.01596202 -0.00027517 0.00000000
1.87584571 0.70394550 -0.00410935 0.00000000
4.04955578 2.25148504 -0.00203530 0.00000000
1.39538935 0.22293623 -0.00043906 0.00000000
0.84742529 1.53398113 -0.00135332 0.00000000
3.98039956 2.39578745 0.00147776 0.00000000
2.14810236 1.76083233 0.00079452 0.00000000
3.17165518 1.23400061 0.00130624 0.00000000
4.00423353 0.63645515 -0.00245032 0.00000000
3.94756185 1.40997146 -0.00082862 0.00000000
2.17454679 0.19568583 0.00353802 0.00000000
4.54358925 0.08200388 -0.00128432 0.00000000
4.24373662 1.90367765 -0.00278685 0.00000000
1.04734856 1.52631101 0.00235356 0.00000000
0.23760518 0.99408240 0.00093610 0.00000000
1.26355776 1.61148828 -0.00033790 0.00000000
1.69372465 0.17761010 -0.00278082 0.00000000
1.71920545 1.03099689 -0.00014417 0.00000000
1.49578141 1.81413041 -0.00244741 0.00000000
0.21332515 1.59878179 0.00180112 0.00000000
1.69104622 1.37425891 -0.00374025 0.00000000
0.51858017 2.34061258 -0.00214878 0.00000000
4.11049654 1.35500279 -0.00094011 0.00000000
1.32564362 2.03065834 0.00039012 0.00000000
3.26215345 0.78720178 -0.00103401 0.00000000
0.34395749 0.53629669 -0.00443850 0.00000000
0.35456354 0.54600535 -0.00217032 0.00000000
1.07122786 1.02513443 -0.00236714 0.00000000
0.39118649 1.11015321 0.00168507 0.00000000
4.20404481 0.81848687 0.00018228 0.00000000
0.55059031 2.17568737 0.00296184 0.00000000
1.30255305 2.20907577 0.00096864 0.00000000
0.18031468 2.17015157 -0.00074986 0.00000000
2.42180089 1.70659077 -0.00029870 0.00000000
3.86505755 2.31617954 -0.00198937 0.00000000
0.00500273 1.59003169 -0.00343765 0.00000000
1.26228992 0.64999239 -0.00237457 0.00000000
1.14491225 1.45984009 -0.00118001 0.00000000
0.71754525 2.14024092 -0.00522643 0.00000000
2.91681186 0.43644121 -0.00180944 0.00000000
0.34861774 0.10686956 -0.00151167 0.00000000
2.02430596 1.58835339 -0.00116013 0.00000000
3.44661691 0.21671658 0.00065089 0.00000000
3.77425589 1.87024455 0.00253502 0.00000000
1.34596420 0.95839553 0.00235566 0.00000000
1.80670662 1.67474895 0.00370127 0.00000000
3.45017031 0.73461482 -0.00176131 0.00000000
1.22752449 1.17622307 0.00166679 0.00000000
1.56777239 1.07319739 -0.00316285 0.00000000
0.87179216 1.05653937 -0.00447786 0.00000000
1.86728846 0.72486335 0.00009575 0.00000000
1.61804222 0.59390432 -0.00237962 0.00000000
0.69196854 1.66189638 -0.00417352 0.00000000
0.46862800 1.48217229 -0.00012481 0.00000000
0.28152738 0.84717899 0.00204016 0.00000000
3.39416712 1.86815716 -0.00299049 0.00000000
4.27718973 0.26223705 -0.00062547 0.00000000
1.56592392 0.68279311 0.00077091 0.00000000
2.45733132 0.85805220 -0.00174789 0.00000000
2.90181249 1.56741101 0.00350043 0.00000000
1.25059945 1.13954567 0.00167003 0.00000000
4.30533039 0.48403974 0.00114747 0.00000000
1.42083745 1.03378131 -0.00083646 0.00000000
3.39081159 1.30894851 0.00191594 0.00000000
3.89378096 1.51810011 0.00132791 0.00000000
2.83272541 0.43231082 0.00010964 0.00000000
0.49223125 1.22294504 0.00221598 0.00000000
1.67066876 0.98759352 -0.00198861 0.00000000
2.48571027 0.76231751 0.00497662 0.00000000
3.15646849 1.25027773 -0.00128506 0.00000000
1.17488578 2.16083352 -0.00453511 0.00000000
0.65110523 1.47758190 0.00156629 0.00000000
3.87135156 0.08719367 -0.00384192 0.00000000
2.05554163 0.96721947 0.00043829 0.00000000
3.12359974 1.42790453 0.00153607 0.00000000
0.97521019 2.12053346 0.00224881 0.00000000
0.52423835 2.34019801 -0.00524108 0.00000000
1.83587304 1.85021214 0.00034518 0.00000000
1.30130520 0.76523640 -0.00028397 0.00000000
2.05082637 0.85219265 0.00291843 0.00000000
1.37019656 2.28725552 -0.00424917 0.00000000
3.15790751 2.40944204 -0.00061494 0.00000000
3.87567688 2.05899602 -0.00143303 0.00000000
0.60809552 0.13944195 -0.00028504 0.00000000
0.87545820 1.01099345 0.00007057 0.00000000
2.06227435 1.53892596 0.00267355 0.00000000
4.07307930 0.73679053 -0.00114327 0.00000000
1.57037947 0.87760371 0.00262144 0.00000000
1.80370588 0.27062128 -0.00079281 0.00000000
3.54190239 1.32780396 -0.00057310 0.00000000
2.32273512 0.93269352 -0.00171422 0.00000000
2.95767177 1.25157264 -0.00488096 0.00000000
0.66958890 2.11644664 0.00088548 0.00000000
