2.66613855 0.72468664 0.00039962 0.00000000
3.37092724 1.16317251 0.00083912 0.00000000
1.06827035 0.56484133 0.00210735 0.00000000
2.17164155 1.63004607 -0.00033652 0.00000000
0.35798413 0.48407884 0.00159652 0.00000000
0.38531007 0.45992704 -0.00358203 0.00000000
3.39126733 1.41539738 0.00027157 0.00000000
4.10605264 1.84690931 -0.00242344 0.00000000
0.25729870 0.36622967 -0.00346045 0.00000000
0.27690713 1.86583773 -0.00030406 0.00000000
3.11473604 0.40879841 -0.00108554 0.00000000
1.33677668 1.57471696 -0.00014427 0.00000000
1.19730536 0.12916283 -0.00042940 0.00000000
2.55739395 0.99498778 -0.00275163 0.00000000
0.26944155 0.12205729 0.00110841 0.00000000
1.10415913 0.97606445 -0.00002656 0.00000000
3.18275742 1.62963457 0.00298839 0.00000000
3.30789942 2.06431608 0.00178437 0.00000000
3.44481045 0.69301235 0.00110707 0.00000000
2.62040955 0.54430789 -0.00262442 0.00000000
2.48050375 1.60839003 -0.00298002 0.00000000
3.88924795 0.79953482 0.00078062 0.00000000
0.03890192 1.05156061 -0.00141470 0.00000000
0.93582339 0.69999179 0.00019948 0.00000000
3.80939338 0.21577839 -0.00163611 0.00000000
3.85731649 0.69327278 -0.00060023 0.00000000
2.83146034 1.82123046 -0.00250347 0.00000000
2.53353956 0.09404995 0.00124109 0.00000000
3.65423223 1.80920426 0.00080537 0.00000000
3.99543847 0.50934236 0.00074258 0.00000000
1.01546826 0.70950610 -0.00065053 0.00000000
1.66016984 1.65268554 -0.00154325 0.00000000
3.51403292 1.04489902 0.00040649 0.00000000
0.02890054 0.68085794 0.00182242 0.00000000
3.22195367 1.45620105 0.00211498 0.00000000
3.34096549 1.38779064 -0.00459330 0.00000000
2.59011358 0.33233690 0.00165746 0.00000000
1.68999854 0.46456880 0.00670098 0.00000000
2.28967872 1.42681502 -0.00121202 0.00000000
2.02891904 1.12600745 -0.00528575 0.00000000
0.52775472 0.07231821 -0.00084952 0.00000000
3.60154642 0.28286985 0.00124673 0.00000000
2.90435454 1.67254350 -0.00108516 0.00000000
3.80206763 0.84376955 0.00013496 0.00000000
3.28184545 1.42421475 0.00134257 0.00000000
2.01835926 0.48398446 0.00198699 0.00000000
3.30601599 2.03741738 0.00137741 0.00000000
3.68328916 1.04815864 -0.00515454 0.00000000
1.48508519 1.96608392 0.00010057 0.00000000
0.45675708 0.85629594 0.00139174 0.00000000
0.69228581 0.30321585 0.00057047 0.00000000
3.51378069 1.54621768 -0.00123795 0.00000000
0.72203450 0.76973891 0.00007371 0.00000000
3.17139286 0.92454229 -0.00270137 0.00000000
3.21744192 1.35510779 -0.00443411 0.00000000
2.01725985 0.32898837 0.00052346 0.00000000
1.08417121 0.12758058 -0.00068294 0.00000000
2.54517554 0.92814221 0.00237881 0.00000000
1.63341240 0.34448132 0.00044455 0.00000000
0.61898822 0.67259265 0.00435639 0.00000000
0.32167460 0.30455838 0.00229302 0.00000000
1.15509984 1.16452701 -0.00273435 0.00000000
2.33388140 1.07719293 -0.00196391 0.00000000
3.50759455 0.04327793 -0.00172789 0.00000000
4.05058730 1.90752728 -0.00057090 0.00000000
2.53698213 0.92861658 0.00238073 0.00000000
0.73673389 0.37869038 -0.00104761 0.00000000
1.75088968 0.65230958 0.00324773 0.00000000
1.93409946 1.88220452 -0.00370882 0.00000000
2.72242780 2.05198727 -0.00534873 0.00000000
2.62714820 1.96822296 0.00226762 0.00000000
3.05309032 1.22375595 -0.00052796 0.00000000
3.49958658 1.76802883 -0.00039060 0.00000000
1.67557232 0.79902091 0.00146848 0.00000000
1.64498775 1.98304870 -0.00035257 0.00000000
4.03328021 0.14516433 0.00138382 0.00000000
3.93427819 0.88927172 0.00019239 0.00000000
0.52548088 1.11294550 0.00066847 0.00000000
0.36711369 0.80245763 0.00218960 0.00000000
2.56979611 1.64901188 -0.00609862 0.00000000
3.87675537 0.36112638 -0.00026817 0.00000000
1.56029608 0.57544095 0.00309253 0.00000000
3.58281639 0.88733631 0.00078989 0.00000000
0.47034045 0.39991766 -0.00002865 0.00000000
2.72875403 0.14099634 0.00546079 0.00000000
3.87375717 1.67022929 -0.00218608 0.00000000
2.98572446 2.03784992 0.00263902 0.00000000
3.71815580 0.35766598 -0.00507033 0.00000000
1.09722601 0.69984122 0.00356676 0.00000000
3.75098749 0.57838242 0.00035412 0.00000000
3.19827065 0.13865055 0.00091801 0.00000000
2.15668735 0.31497561 -0.00102495 0.00000000
1.99873908 0.31800906 0.00220222 0.00000000
2.03751959 1.43419543 -0.00047040 0.00000000
0.20967477 1.50303370 -0.00129356 0.00000000
0.96818649 0.28276758 0.00004515 0.00000000
0.32330423 0.62262707 0.00153973 0.00000000
1.89443477 0.65162136 0.00054797 0.00000000
3.53176123 0.15306613 -0.00127749 0.00000000
2.53559567 0.84592935 0.00218106 0.00000000
0.73909972 1.55662081 0.00365794 0.00000000
0.91564074 1.41749068 0.00111685 0.00000000
0.95120028 1.31028933 -0.00016976 0.00000000
1.17827800 1.20739720 -0.00034555 0.00000000
3.52011892 0.22074395 -0.00317291 0.00000000
1.26040556 1.36194163 -0.00108577 0.00000000
0.48003785 1.16953971 -0.00127624 0.00000000
1.17189991 0.53597104 0.00540034 0.00000000
0.37394607 1.76030064 -0.00523311 0.00000000
0.80261383 0.17077827 0.00125186 0.00000000
4.06827344 1.44428717 -0.00032822 0.00000000
2.82458386 1.10821534 -0.00069792 0.00000000
3.63273470 1.92719527 -0.00109476 0.00000000
3.18029276 1.26301733 -0.00268595 0.00000000
2.27396780 1.73228419 0.00287640 0.00000000
1.72602613 0.26509309 -0.00030377 0.00000000
4.19400312 1.61880799 -0.00112694 0.00000000
1.74195464 0.41046746 0.00264826 0.00000000
0.24551301 1.98844822 -0.00210970 0.00000000
3.31851688 1.14024434 0.00290138 0.00000000
3.62092903 0.63967057 0.00116887 0.00000000
3.93653576 1.89534861 0.00128935 0.00000000
3.52950769 0.74630202 0.00180397 0.00000000
3.21961588 1.33000240 0.00228231 0.00000000
0.19043726 1.94590035 0.00037920 0.00000000
2.66349393 1.67103259 -0.00214258 0.00000000
0.29211118 0.02357317 -0.00184079 0.00000000
1.86098010 1.13520061 -0.00052473 0.00000000
1.46159758 0.39032536 -0.00013755 0.00000000
3.90026565 1.97477011 -0.00304516 0.00000000
1.93675316 1.14008917 -0.00394728 0.00000000
2.12739226 0.72481018 0.00084081 0.00000000
3.45556400 0.55526908 0.00007059 0.00000000
1.71622029 1.03336584 -0.00094098 0.00000000
2.07970199 1.16388218 0.00236504 0.00000000
0.91609297 1.19434047 0.00349421 0.00000000
2.51976729 1.22298405 -0.00111979 0.00000000
0.29248397 0.33564193 0.00326444 0.00000000
0.04081679 0.86277499 -0.00056043 0.00000000
0.01650541 0.98462966 -0.00167066 0.00000000
3.71529601 0.32154760 -0.00147453 0.00000000
1.00114552 0.13095881 -0.00128741 0.00000000
2.78990022 1.20851544 -0.00230476 0.00000000
2.38358797 0.93528117 0.00396534 0.00000000
0.25453252 1.91287785 -0.00025937 0.00000000
1.22599722 1.46920599 0.00309704 0.00000000
1.12378931 1.31443227 0.00350060 0.00000000
3.99436436 0.81346359 -0.00010422 0.00000000
2.71365582 1.10201680 -0.00181438 0.00000000
3.53893140 1.72771289 0.00031862 0.00000000
2.63227134 1.93595046 -0.00407563 0.00000000
3.58477501 1.32624873 0.00408094 0.00000000
3.81597307 0.82832473 0.00648473 0.00000000
1.52385003 0.72032337 -0.00137555 0.00000000
0.83377456 1.48350660 0.00052666 0.00000000
2.53772858 1.99072576 0.00022109 0.00000000
3.00787484 1.23003883 -0.00469400 0.00000000
1.65506598 0.98915748 -0.00153941 0.00000000
2.76178955 1.14977398 0.00181657 0.00000000
3.33276889 1.80627808 -0.00133968 0.00000000
1.43659816 0.80958562 -0.00080405 0.00000000
3.56603103 0.38795339 0.00098761 0.00000000
4.08843197 0.31861045 -0.00139592 0.00000000
0.61305099 0.81097974 -0.00208350 0.00000000
3.10377246 1.38934928 -0.00277798 0.00000000
4.19289689 0.67129501 0.00040535 0.00000000
3.55833210 1.61803822 -0.00087429 0.00000000
2.51883237 0.21489422 0.00320135 0.00000000
1.47375402 1.01094911 -0.00222319 0.00000000
0.90133676 0.09812076 -0.00522912 0.00000000
1.45432812 0.11720962 0.00022954 0.00000000
0.39628469 1.06987221 -0.00040690 0.00000000
3.76473054 0.03857344 0.00041542 0.00000000
1.99460474 0.73369190 -0.00024795 0.00000000
2.37278434 1.89811590 -0.00019928 0.00000000
0.79828650 1.31844015 -0.00131201 0.00000000
3.02147654 1.78419273 -0.00306815 0.00000000
3.86844540 1.81912573 0.00101078 0.00000000
3.51955511 0.17435564 0.00125955 0.00000000
0.06279315 0.29209834 -0.00039004 0.00000000
3.16009245 0.31816244 0.00048519 0.00000000
1.50141603 0.65958795 0.00352187 0.00000000
3.66289995 0.36993117 0.00008598 0.00000000
1.85397484 1.55128967 -0.00079835 0.00000000
3.99908454 1.73638385 0.00081816 0.00000000
0.81038228 1.22114093 0.00094884 0.00000000
1.30983796 1.66628397 -0.00230546 0.00000000
3.42083148 0.03749310 -0.00258928 0.00000000
0.17531767 1.72581898 -0.00388904 0.00000000
3.75878975 0.47472719 0.00249828 0.00000000
1.44375231 0.88137046 0.00053935 0.00000000
1.27795461 0.39935596 -0.00127252 0.00000000
0.54580694 0.68941027 0.00432889 0.00000000
3.46797806 1.38485634 -0.00176613 0.00000000
0.38623834 0.02049858 0.00091912 0.00000000
3.29812474 1.69460935 0.00165760 0.00000000
1.71317147 1.31124040 0.00360419 0.00000000
3.68750397 0.12995926 -0.00424211 0.00000000
1.37998573 0.16259263 0.00248321 0.00000000
2.37484329 0.74170744 -0.00186823 0.00000000
2.98818408 1.22504898 -0.00228403 0.00000000
3.20982863 1.07989110 -0.00011744 0.00000000
3.26222826 1.93162516 0.00328390 0.00000000
2.93760516 0.14823916 -0.00338985 0.00000000
4.12587775 0.83231502 -0.00292991 0.00000000
0.73795197 0.49564905 0.00171650 0.00000000
2.95612626 1.96765518 0.00004300 0.00000000
2.95219227 2.06885122 -0.00100239 0.00000000
2.12921658 0.09223957 0.00127717 0.00000000
2.53598384 0.39302822 -0.00410484 0.00000000
2.05724072 0.48374466 -0.00355832 0.00000000
2.77165720 1.29937810 0.00195694 0.00000000
2.83363361 0.46670626 -0.00076149 0.00000000
2.34958914 1.45150802 0.00055173 0.00000000
2.29900147 0.96318071 -0.00191708 0.00000000
3.15420282 0.80837328 -0.00671814 0.00000000
2.98013252 1.94492668 -0.00066341 0.00000000
0.46932448 1.68645100 -0.00127439 0.00000000
3.02374490 1.54623739 -0.00388838 0.00000000
0.74569009 0.45749693 0.00469191 0.00000000
0.32685595 1.15594443 -0.00601223 0.00000000
3.60716456 1.98844004 -0.00145874 0.00000000
1.09855569 1.10110663 0.00334344 0.00000000
3.28898716 1.94775776 0.00098849 0.00000000
3.76510740 1.17782393 -0.00180188 0.00000000
2.55925702 0.25653298 0.00011676 0.00000000
3.44476279 0.82820015 -0.00364328 0.00000000
1.84079782 0.89980401 -0.00602685 0.00000000
2.86915876 1.78252605 -0.00238735 0.00000000
1.33036644 1.75399136 -0.00371054 0.00000000
1.56326988 0.80075150 0.00213761 0.00000000
0.09143604 0.05640257 -0.00040048 0.00000000
2.72797760 0.70830793 -0.00195660 0.00000000
1.72525983 0.18006635 0.00249131 0.00000000
2.91425784 0.22346898 -0.00100077 0.00000000
3.27598709 0.70693844 -0.00309615 0.00000000
1.30145497 1.24799104 -0.00103863 0.00000000
0.98133598 0.56141447 0.00176692 0.00000000
3.94438912 0.52420046 -0.00239078 0.00000000
0.22840125 0.68865618 -0.00093728 0.00000000
3.65568046 0.71781143 0.00162675 0.00000000
0.20120895 2.04731889 -0.00046223 0.00000000
3.15433592 0.09273960 0.00077269 0.00000000
1.48209881 1.26407984 0.00078483 0.00000000
3.48457052 1.40975998 -0.00148679 0.00000000
0.95973606 1.37699901 -0.00121749 0.00000000
1.45997578 1.28876224 0.00020814 0.00000000
2.91495738 1.02789042 0.00076197 0.00000000
3.72528253 0.98091626 -0.00021640 0.00000000
1.16137229 1.98967698 -0.00167307 0.00000000
0.59944460 1.27874535 -0.00265710 0.00000000
4.01609169 1.10145040 -0.00147109 0.00000000
3.74759428 1.40869086 0.00031048 0.00000000
0.00623291 0.39982058 -0.00047673 0.00000000
0.77232722 1.15466389 0.00106854 0.00000000
3.39296366 0.23078903 0.00457997 0.00000000
4.03257262 1.05321858 -0.00373169 0.00000000
2.73552316 2.00056414 0.00267593 0.00000000
3.32949648 1.35377332 -0.00138429 0.00000000
3.76933185 1.16628682 0.00012709 0.00000000
2.87268655 0.24133089 -0.00111471 0.00000000
4.13299633 1.87769005 0.00335513 0.00000000
3.46248689 0.55384639 0.00310382 0.00000000
0.79052206 0.39546139 0.00230261 0.00000000
3.55654602 0.80602479 0.00131268 0.00000000
0.24419558 0.14495687 0.00496575 0.00000000
2.90076202 1.25291841 -0.00066039 0.00000000
3.33863378 0.04098156 -0.00267134 0.00000000
3.76381979 0.69579580 -0.00310890 0.00000000
3.40873062 0.60925280 -0.00227136 0.00000000
0.28058760 0.73722928 -0.00048690 0.00000000
3.18371673 1.02047411 -0.00297336 0.00000000
1.87714727 0.05974910 0.00026622 0.00000000
3.87695518 0.39415670 -0.00352743 0.00000000
0.01809535 0.41012565 0.00337434 0.00000000
3.47807933 1.52913213 -0.00029218 0.00000000
1.35828243 0.81412457 0.00966822 0.00000000
0.28983313 1.47138269 0.00111250 0.00000000
0.66592097 0.08811019 0.00335485 0.00000000
2.32977860 1.25001116 -0.00213102 0.00000000
3.87158622 0.36427358 -0.00475547 0.00000000
1.50506282 0.53359971 -0.00075305 0.00000000
3.45015858 1.85134866 -0.00293059 0.00000000
4.16161922 1.23599399 -0.00119278 0.00000000
3.70543778 0.27557931 0.00087515 0.00000000
3.06354343 1.08902244 0.00234306 0.00000000
1.31032090 0.72330768 0.00008402 0.00000000
4.04799474 1.73039200 0.00238991 0.00000000
0.07488878 0.45356388 -0.00171194 0.00000000
0.79987065 0.88577940 0.00082091 0.00000000
3.60154787 1.43119640 0.00283986 0.00000000
2.68127885 1.45324116 -0.00246244 0.00000000
0.10126739 0.53123783 0.00265165 0.00000000
3.53431072 1.45528299 0.00011913 0.00000000
0.66345598 0.37515801 -0.00028799 0.00000000
2.02651442 0.55597258 0.00040524 0.00000000
3.05062109 0.77152279 0.00245467 0.00000000
1.90229563 1.93967331 0.00279562 0.00000000
0.19796017 0.69442947 0.00515473 0.00000000
3.11982945 0.05794615 -0.00002342 0.00000000
1.55450513 1.49989847 -0.00498684 0.00000000
1.63233520 0.12469820 -0.00205352 0.00000000
0.86023382 2.05916730 0.00067585 0.00000000
1.02984752 1.24526966 0.00308366 0.00000000
0.99083578 1.28106690 -0.00166661 0.00000000
0.58028044 0.74697880 -0.00428078 0.00000000
1.97150706 0.75894027 -0.00105344 0.00000000
1.40730964 0.22250857 -0.00066143 0.00000000
1.24955812 1.93287269 -0.00628847 0.00000000
1.56153576 0.64703423 0.00043481 0.00000000
0.42034867 0.75567659 -0.00052227 0.00000000
1.50913311 1.83557486 0.00141440 0.00000000
2.85739991 1.33638453 -0.00050740 0.00000000
3.60998675 0.32390015 0.00297024 0.00000000
2.80939967 1.91575043 -0.00070097 0.00000000
0.67979541 1.57279054 -0.00058726 0.00000000
0.20036880 0.89787326 0.00135732 0.00000000
2.77494056 1.65340719 0.00256745 0.00000000
1.24790165 1.49649091 -0.00098824 0.00000000
2.77470089 0.72241732 -0.00108521 0.00000000
0.56083322 1.09737156 0.00367494 0.00000000
1.94030518 1.34061314 0.00187576 0.00000000
3.40751577 0.85009459 0.00201989 0.00000000
1.10830877 1.75400774 -0.00194718 0.00000000
2.15333859 1.68289403 0.00004054 0.00000000
3.93985110 1.14018607 -0.00307664 0.00000000
2.49214244 0.07634665 0.00035369 0.00000000
0.03058350 1.73332333 -0.00162779 0.00000000
4.00663435 1.25638070 -0.00025665 0.00000000
4.13974436 1.00907863 0.00129208 0.00000000
1.69332371 1.49847643 0.00541272 0.00000000
2.28328942 1.08758976 0.00332738 0.00000000
2.41805935 1.13178080 0.00023919 0.00000000
3.80293835 0.26126327 0.00398131 0.00000000
1.59713186 0.22459885 -0.00181149 0.00000000
2.70670704 0.42432982 0.00421470 0.00000000
2.46584740 0.60460326 0.00053269 0.00000000
0.06989268 1.07175598 -0.00443083 0.00000000
2.30361160 0.80718589 -0.00154964 0.00000000
1.19156124 1.44072281 -0.00111786 0.00000000
1.78542483 1.18947477 0.00471361 0.00000000
1.97768780 1.31403013 0.00424507 0.00000000
1.74987249 0.07732263 0.00118379 0.00000000
1.76474763 1.42875990 0.00132745 0.00000000
0.67200770 0.90021852 -0.00088766 0.00000000
0.94809222 1.78759700 -0.00020069 0.00000000
3.60278412 0.80610563 -0.00309405 0.00000000
1.77725105 1.28196413 0.00174636 0.00000000
1.83915118 1.63009342 -0.00052001 0.00000000
3.91917054 0.83505011 0.00086816 0.00000000
3.76942162 1.32684061 0.00033116 0.00000000
3.31466871 0.56019255 -0.00156958 0.00000000
0.16863761 1.08843846 -0.00309960 0.00000000
1.54623223 1.34814013 0.00029272 0.00000000
1.35530908 0.76184819 -0.00473778 0.00000000
2.64282604 0.96884291 0.00005643 0.00000000
3.36756544 0.93375415 -0.00275593 0.00000000
4.00734886 0.74029220 0.00033983 0.00000000
0.46037347 0.59388045 0.00211053 0.00000000
1.90112777 1.52704594 -0.00222740 0.00000000
1.82447752 1.28226352 -0.00109956 0.00000000
0.12317561 0.77556307 0.00208560 0.00000000
3.16597510 1.54328010 -0.00196430 0.00000000
4.04879574 1.17341628 -0.00097171 0.00000000
1.19550636 0.93363855 0.00205656 0.00000000
1.48398360 1.11984564 -0.00492473 0.00000000
1.12834486 0.38881606 -0.00139558 0.00000000
0.37304607 0.39159095 -0.00299037 0.00000000
2.98316390 0.36584411 -0.00274313 0.00000000
2.16996145 0.98031050 -0.00124840 0.00000000
0.44790940 0.02173010 -0.00161164 0.00000000
1.27472510 1.77399120 -0.00036064 0.00000000
0.93051324 1.71512187 -0.00556135 0.00000000
2.22398758 1.50823863 -0.00176398 0.00000000
3.19102160 0.16336601 0.00489267 0.00000000
1.35002786 1.89484083 -0.00015416 0.00000000
1.99343792 1.78571990 -0.00264410 0.00000000
1.51483400 0.52464999 0.00254355 0.00000000
2.30914841 1.73951205 -0.00038149 0.00000000
0.70480847 2.02911997 0.00010642 0.00000000
3.45773239 0.25512897 -0.00039375 0.00000000
3.69414637 1.03574768 -0.00538917 0.00000000
1.26214535 1.29119221 0.00051417 0.00000000
0.99622647 0.59751070 0.00288535 0.00000000
1.68197352 0.02320667 -0.00166598 0.00000000
3.66960609 1.08391584 -0.00215719 0.00000000
1.15591631 1.57911045 0.00041493 0.00000000
1.63679434 2.02784662 0.00117762 0.00000000
3.95595251 0.92940574 -0.00126233 0.00000000
4.01158387 2.00042693 0.00209462 0.00000000
4.07544883 2.01196229 0.00442969 0.00000000
3.04691840 1.53219732 0.00128824 0.00000000
1.92991124 0.95461635 -0.00008192 0.00000000
2.78022646 1.62028639 -0.00161111 0.00000000
2.24068076 1.67584501 -0.00004631 0.00000000
4.10447920 0.90083827 0.00339112 0.00000000
2.65186508 0.07630578 -0.00215932 0.00000000
0.57140109 1.56599689 0.00321286 0.00000000
1.65464817 1.85966747 0.00068711 0.00000000
2.86703035 1.72397732 -0.00197215 0.00000000
2.11447218 1.32028542 0.00057456 0.00000000
0.97969361 0.70557651 -0.00645976 0.00000000
4.14939587 1.65650225 0.00449443 0.00000000
2.18900869 0.08517084 0.00204785 0.00000000
2.59425875 1.32497639 0.00046073 0.00000000
2.97236072 0.67820126 -0.00006766 0.00000000
0.32188060 0.50324422 0.00044597 0.00000000
4.09625348 0.89519545 -0.00163543 0.00000000
3.07308657 1.85255611 -0.00311227 0.00000000
3.08819833 0.46346371 0.00226334 0.00000000
3.16190055 1.04525513 0.00450070 0.00000000
3.63556756 1.98374467 -0.00077605 0.00000000
1.82488570 1.72815612 0.00149304 0.00000000
2.26247604 1.74882141 0.00251173 0.00000000
2.35061641 0.92741462 -0.00340624 0.00000000
1.20930840 1.30236256 0.00232602 0.00000000
3.73558648 2.05548636 -0.00159118 0.00000000
2.13343859 1.89810053 -0.00187163 0.00000000
0.03974722 1.79907016 0.00017612 0.00000000
2.85127215 1.01258198 0.00389596 0.00000000
3.30013276 0.65216859 -0.00000346 0.00000000
2.30213996 1.15196131 -0.00048213 0.00000000
3.71595879 0.10159140 -0.00347529 0.00000000
2.04524395 1.36043183 0.00111245 0.00000000
0.33324981 0.40053975 -0.00317394 0.00000000
4.12913335 1.77089529 0.00159916 0.00000000
3.73424168 0.51288943 -0.00449587 0.00000000
0.89610028 2.01478887 -0.00110474 0.00000000
1.74734203 0.19620389 0.00037701 0.00000000
2.33021675 1.28001854 -0.00170125 0.00000000
3.36399638 0.98552291 -0.00138528 0.00000000
3.60497520 0.81159045 -0.00275452 0.00000000
2.91986288 1.52522489 -0.00383345 0.00000000
2.60557270 1.71478982 -0.00146400 0.00000000
0.49305104 0.22374368 0.00433536 0.00000000
2.89195566 0.45097499 0.00094465 0.00000000
0.65016689 1.34135718 0.00366736 0.00000000
2.62623039 1.77397387 -0.00489605 0.00000000
1.90370263 0.91782863 0.00024843 0.00000000
1.11589148 0.98949071 0.00049715 0.00000000
1.38172287 0.01039679 -0.00074276 0.00000000
3.34851902 1.84043130 0.00531640 0.00000000
2.02477839 0.77206700 -0.00127745 0.00000000
2.65519601 0.50121557 -0.00359812 0.00000000
2.66396099 0.12321037 0.00004187 0.00000000
3.38577141 0.91628328 -0.00196640 0.00000000
1.02965763 1.59954787 -0.00283602 0.00000000
1.47540270 1.49404926 -0.00160298 0.00000000
3.13481198 0.15161768 0.00272335 0.00000000
1.89630714 1.49017943 0.00013671 0.00000000
0.71759885 1.37670929 0.00377284 0.00000000
3.83531499 0.45109973 -0.00243281 0.00000000
0.77813128 0.51902516 0.00214764 0.00000000
1.07944097 0.10625450 0.00345465 0.00000000
1.73918267 1.68851091 -0.00455529 0.00000000
1.27191762 0.62921873 -0.00076111 0.00000000
3.60094410 0.00448978 -0.00677972 1.00000000
2.94491687 -0.00240606 0.00093005 1.00000000
1.12555848 -0.00118792 0.00126847 1.00000000
3.47238317 -0.00054464 0.00288208 1.00000000
2.57694757 0.00195584 0.00377888 1.00000000
4.01911476 0.00161339 -0.00112378 1.00000000
3.16074106 0.00018244 -0.00573190 1.00000000
0.24208698 -0.00224594 0.00670070 1.00000000
0.83249664 -0.00039685 -0.00269020 1.00000000
0.15391602 0.00402058 0.00084838 1.00000000
3.11434475 -0.00067735 -0.00200700 1.00000000
2.53140962 -0.00254191 0.00007595 1.00000000
2.04097244 0.00108308 -0.00084551 1.00000000
1.23037716 0.00103533 -0.00332174 1.00000000
0.54435047 0.00095041 0.00360164 1.00000000
3.05470002 -0.00032251 -0.00040560 1.00000000
3.29961351 -0.00363355 -0.00169351 1.00000000
1.24147297 0.00256456 -0.00343981 1.00000000
3.17760008 0.00239868 0.00525737 1.00000000
1.83052756 -0.00078937 -0.00375512 1.00000000
2.66459367 0.00068162 0.00093891 1.00000000
4.12666878 0.00045309 -0.00316823 1.00000000
3.65524417 -0.00395893 -0.00294948 1.00000000
2.45930318 -0.00022425 -0.00047500 1.00000000
1.23805113 -0.00099279 -0.00084040 1.00000000
3.96057122 0.00070544 -0.00393502 1.00000000
2.34471370 -0.00526825 -0.00393854 1.00000000
0.21775111 -0.00104321 -0.00171208 1.00000000
3.34127677 -0.00017261 -0.00050863 1.00000000
3.93998945 0.00148311 -0.00271895 1.00000000
3.21854212 -0.00114992 -0.00253818 1.00000000
1.54896689 -0.00276494 0.00086621 1.00000000
2.51514629 -0.00078744 -0.00228469 1.00000000
0.10447018 -0.00157950 -0.00171435 1.00000000
2.08463902 -0.00129878 0.00124065 1.00000000
1.31630396 0.00165356 0.00354750 1.00000000
1.53513454 -0.00025603 0.00094588 1.00000000
0.19588576 0.00072511 -0.00355621 1.00000000
3.67780753 0.00379708 -0.00575100 1.00000000
3.29416864 -0.00284146 -0.00160793 1.00000000
2.96332561 0.00368557 -0.00154948 1.00000000
0.35216999 0.00118353 0.00043370 1.00000000
1.40084849 0.00162979 0.00185247 1.00000000
2.27541151 -0.00020609 0.00068439 1.00000000
0.76938900 -0.00188480 -0.00484113 1.00000000
0.47047979 0.00234068 -0.00067641 1.00000000
4.11583295 0.00144071 0.00066827 1.00000000
2.10385252 0.00128958 -0.00110374 1.00000000
1.11136585 -0.00197203 0.00216017 1.00000000
0.98988776 -0.00165998 0.00540217 1.00000000
1.03211060 -0.00572431 0.00057158 1.00000000
3.89929489 -0.00208363 0.00510135 1.00000000
0.24972038 0.00239969 0.00343808 1.00000000
3.96558802 0.00308864 -0.00169135 1.00000000
3.22025616 -0.00563618 0.00115431 1.00000000
1.98602723 0.00055976 -0.00144096 1.00000000
2.43220991 0.00267182 0.00232820 1.00000000
2.32137710 -0.00047380 0.00035046 1.00000000
4.19198741 -0.00029663 -0.00229152 1.00000000
2.88814230 0.00053270 -0.00153069 1.00000000
2.49922545 0.00093585 0.00148764 1.00000000
2.79379336 0.00406670 -0.00283110 1.00000000
1.10197112 0.00073129 0.00192909 1.00000000
3.93068309 -0.00085486 -0.00109658 1.00000000
3.69961965 -0.00171905 -0.00112963 1.00000000
0.30732453 0.00027111 0.00111237 1.00000000
0.04180109 0.00027573 -0.00055365 1.00000000
3.04784163 -0.00098273 -0.00072781 1.00000000
0.64311630 0.00099287 0.00284830 1.00000000
3.31116079 -0.00079024 -0.00156556 1.00000000
3.26327686 0.00445942 -0.00047758 1.00000000
3.95536886 -0.00294197 0.00283733 1.00000000
3.44080570 0.00149886 0.00212962 1.00000000
1.98849260 -0.00225968 -0.00017177 1.00000000
2.94461353 -0.00408376 0.00408297 1.00000000
2.66043024 -0.00460041 -0.00590796 1.00000000
1.13582222 -0.00339659 -0.00219484 1.00000000
0.30220215 0.00218834 0.00262482 1.00000000
1.61177970 0.00225917 0.00042673 1.00000000
2.27741644 0.00082935 0.00043634 1.00000000
0.75951111 0.00020706 0.00129811 1.00000000
0.20276976 0.00202718 -0.00392095 1.00000000
0.24619936 0.00016708 -0.00097753 1.00000000
1.70611247 0.00309996 -0.00049488 1.00000000
1.91454863 0.00111345 0.00094113 1.00000000
3.03882605 -0.00095953 0.00164924 1.00000000
0.32465149 0.00039815 -0.00165966 1.00000000
1.26310224 0.00017034 -0.00056469 1.00000000
0.29502090 -0.00309938 0.00647246 1.00000000
3.94092988 0.00438896 -0.00126242 1.00000000
1.42726463 -0.00076773 0.00198253 1.00000000
3.87243693 -0.00045345 -0.00238524 1.00000000
4.11846189 -0.00057936 -0.00132897 1.00000000
3.76732899 0.00037480 -0.00051222 1.00000000
0.11582422 -0.00040341 0.00136441 1.00000000
3.10426998 -0.00141269 0.00192995 1.00000000
0.77164203 0.00340268 0.00159175 1.00000000
3.02341251 -0.00172262 -0.00395603 1.00000000
3.95797189 -0.00372982 -0.00068437 1.00000000
2.74338512 -0.00512580 0.00415087 1.00000000
3.62927579 -0.00102783 -0.00326355 1.00000000
1.79800748 0.00127349 0.00007891 1.00000000
3.42997858 -0.00358802 0.00045951 1.00000000
1.81755501 0.00406681 -0.00352661 1.00000000
1.00708477 0.00451914 0.00186251 1.00000000
1.99176830 0.00022051 0.00311022 1.00000000
0.78511895 0.00473658 -0.00246971 1.00000000
4.02917438 0.00366621 0.00096137 1.00000000
2.76282248 -0.00062469 -0.00174258 1.00000000
3.04377492 0.00223162 0.00130656 1.00000000
2.96933094 0.00105162 -0.00270898 1.00000000
2.51643122 0.00121055 -0.00055813 1.00000000
3.64892659 0.00316563 0.00321074 1.00000000
1.77138258 0.00494768 0.00061101 1.00000000
3.59298288 -0.00084052 0.00332462 1.00000000
4.12082944 0.00165335 0.00084782 1.00000000
2.52368286 0.00244177 -0.00109493 1.00000000
0.00573346 -0.00061670 -0.00001353 1.00000000
3.91095889 -0.00059001 0.00322132 1.00000000
4.15599657 0.00067957 -0.00316294 1.00000000
1.04059704 0.00170964 -0.00049865 1.00000000
2.17354324 0.00154844 0.00031453 1.00000000
4.14041944 0.00064714 0.00208461 1.00000000
2.42328311 0.00146405 -0.00114595 1.00000000
2.02993363 -0.00342555 0.00005504 1.00000000
0.17322101 0.00198368 0.00258200 1.00000000
1.83494140 0.00066794 0.00252387 1.00000000
1.84733226 -0.00159497 -0.00031052 1.00000000
0.48785468 0.00204406 -0.00199322 1.00000000
3.31371302 0.00415116 0.00362058 1.00000000
0.35652518 0.00179561 0.00070173 1.00000000
3.63839530 0.00214036 0.00014199 1.00000000
0.12881392 0.00268825 0.00045167 1.00000000
2.76532678 -0.00190738 -0.00402364 1.00000000
3.72891025 -0.00316312 -0.00017907 1.00000000
1.56997946 0.00173253 -0.00406907 1.00000000
2.48403999 0.00304207 0.00138375 1.00000000
2.90630595 -0.00244620 -0.00121511 1.00000000
3.10957387 -0.00231964 -0.00103153 1.00000000
3.66068216 0.00618719 0.00385438 1.00000000
1.02401908 0.00068757 0.00001340 1.00000000
4.08453839 -0.00178505 0.00063739 1.00000000
1.72301786 0.00198350 -0.00146398 1.00000000
2.15759728 -0.00559667 -0.00037518 1.00000000
3.33446562 0.00247591 -0.00220551 1.00000000
2.96432500 -0.00063853 -0.00222284 1.00000000
0.85692286 0.00342139 -0.00019649 1.00000000
1.34938899 0.00181687 0.00022926 1.00000000
2.95256236 0.00322787 -0.00292166 1.00000000
0.05512476 0.00001146 0.00217867 1.00000000
0.41281323 -0.00154053 0.00051266 1.00000000
0.07208854 0.00030308 0.00166889 1.00000000
2.03819328 0.00136837 0.00060059 1.00000000
3.10781958 0.00119002 -0.00400007 1.00000000
1.26772629 -0.00421561 -0.00081921 1.00000000
3.89513569 0.00221512 0.00391057 1.00000000
3.92142442 -0.00128812 0.00718438 1.00000000
3.16243742 -0.00064609 -0.00174133 1.00000000
0.47301815 0.00389318 -0.00202862 1.00000000
4.09288203 0.00006934 0.00193615 1.00000000
3.10121758 0.00484671 -0.00487092 1.00000000
1.25366145 0.00156721 0.00372694 1.00000000
1.01468596 0.00185080 0.00058204 1.00000000
1.97886702 -0.00528131 0.00532708 1.00000000
1.21800130 -0.00034207 -0.00091591 1.00000000
3.84975544 -0.00222862 0.00001838 1.00000000
4.10891058 -0.00257447 -0.00291146 1.00000000
0.60372799 -0.00290222 0.00366623 1.00000000
3.59704136 0.00008593 -0.00112671 1.00000000
1.96952752 0.00181419 -0.00088792 1.00000000
2.34337307 -0.00384171 0.00288977 1.00000000
1.92651646 -0.00010344 0.00012969 1.00000000
2.31632262 -0.00012087 -0.00131352 1.00000000
1.28084421 0.00049880 -0.00362695 1.00000000
4.06641265 -0.00070232 0.00123251 1.00000000
0.59936364 0.00223771 -0.00181708 1.00000000
2.22668170 -0.00044550 0.00130556 1.00000000
3.44754517 0.00328706 0.00040886 1.00000000
0.39051729 -0.00364053 -0.00005840 1.00000000
3.90848186 0.00034989 -0.00108459 1.00000000
3.01191899 0.00642503 -0.00150987 1.00000000
0.71846121 0.00020791 -0.00271376 1.00000000
2.11042186 -0.00323225 -0.00115685 1.00000000
0.17009866 -0.00256499 0.00029020 1.00000000
3.55291663 0.00097393 0.00001518 1.00000000
3.62852748 -0.00020440 -0.00288696 1.00000000
3.33396815 -0.00188322 0.00179949 1.00000000
1.18222080 0.00219301 0.00229860 1.00000000
1.08373188 -0.00054716 -0.00076018 1.00000000
2.56461206 -0.00117977 -0.00035880 1.00000000
3.88742598 0.00204735 0.00251516 1.00000000
0.51224832 0.00189144 0.00154999 1.00000000
1.57787753 -0.00443734 0.00237810 1.00000000
0.55397071 0.00350127 0.00014778 1.00000000
0.34847317 -0.00325436 0.00001208 1.00000000
3.08301256 -0.00123384 0.00070519 1.00000000
2.16633760 -0.00028019 0.00300477 1.00000000
1.98153415 0.00063786 -0.00397989 1.00000000
1.11023687 0.00086129 0.00047703 1.00000000
4.16495961 -0.00021303 -0.00425792 1.00000000
0.32761345 -0.00519522 -0.00049136 1.00000000
0.63334253 -0.00060105 0.00161392 1.00000000
0.79879002 0.00208862 -0.00352133 1.00000000
3.28929971 -0.00051558 0.00183195 1.00000000
2.86005136 0.00343745 -0.00449921 1.00000000
2.61606478 -0.00054665 -0.00194451 1.00000000
1.36221851 0.00054098 0.00001542 1.00000000
3.69218276 0.00361968 0.00373957 1.00000000
1.24882844 0.00006159 0.00117359 1.00000000
2.82745045 0.00034765 -0.00138104 1.00000000
2.49543067 -0.00062034 0.00264113 1.00000000
3.64011314 -0.00214505 -0.00514731 1.00000000
3.50442250 -0.00064017 -0.00049157 1.00000000
1.53305272 -0.00485117 -0.00165744 1.00000000
4.04989386 -0.00239673 -0.00257486 1.00000000
1.98492187 0.00100652 0.00152382 1.00000000
3.95799830 0.00117029 -0.00188357 1.00000000
3.62071861 0.00040053 0.00218687 1.00000000
2.36217063 0.00151847 -0.02658535 0.00000000
1.01848819 0.00107921 -0.17242362 0.00000000
3.25593718 -0.00439383 -0.10996533 0.00000000
4.03552326 0.00213783 -0.17112950 0.00000000
1.26381180 0.00454314 -0.18826478 0.00000000
2.40954581 -0.00264556 -0.00814272 0.00000000
4.13710128 0.00052104 -0.03841914 0.00000000
4.01041280 0.00465243 -0.12313384 0.00000000
0.24505903 0.00216984 -0.14780902 0.00000000
2.09237556 0.00270034 -0.09487001 0.00000000
3.86389338 0.00211826 -0.11626752 0.00000000
1.25320577 -0.00468659 -0.11902492 0.00000000
0.31591053 0.00221141 -0.11667645 0.00000000
0.38167380 0.00369891 -0.15801438 0.00000000
1.04078814 0.00304674 -0.04976669 0.00000000
3.86339482 -0.00043796 -0.15010883 0.00000000
2.58740302 -0.00104882 -0.08702320 0.00000000
1.58634965 -0.00017527 -0.09754312 0.00000000
0.63575964 0.00251713 -0.15785034 0.00000000
1.42436197 -0.00092729 -0.02893574 0.00000000
2.85564687 0.00019318 -0.13180940 0.00000000
1.11847625 0.00180994 -0.00590206 0.00000000
3.26515654 0.00631928 -0.07726437 0.00000000
3.35804414 -0.00461896 -0.16355000 0.00000000
0.83131238 0.00139461 -0.17810377 0.00000000
3.34445015 -0.00068143 -0.06458010 0.00000000
0.35024963 0.00302869 -0.17187513 0.00000000
2.02004165 -0.00325501 -0.13832128 0.00000000
3.51252350 -0.00117950 -0.13508888 0.00000000
1.06193134 -0.00459359 -0.04280085 0.00000000
0.27186759 0.00088979 -0.15351986 0.00000000
0.73868169 -0.00406751 -0.05535615 0.00000000
3.76440346 -0.00225613 -0.18522948 0.00000000
3.31103144 -0.00216006 -0.18243824 0.00000000
2.70931155 -0.00151386 -0.18640596 0.00000000
3.46604385 0.00453643 -0.00908701 0.00000000
1.24341769 -0.00335856 -0.07223841 0.00000000
0.19930762 0.00065682 -0.03254630 0.00000000
3.04960380 0.00402533 -0.18074585 0.00000000
0.62754244 -0.00062567 -0.06706589 0.00000000
0.51417172 0.00388114 -0.16779520 0.00000000
3.11826158 -0.00146800 -0.05720617 0.00000000
2.95920134 -0.00211670 -0.02937354 0.00000000
2.79400834 -0.00097072 -0.12893291 0.00000000
0.84863304 0.00451157 -0.08399313 0.00000000
0.88212403 -0.00308542 -0.11277089 0.00000000
0.97170004 -0.00148496 -0.03124441 0.00000000
1.87922273 -0.00169776 -0.08698178 0.00000000
0.96701451 -0.00020608 -0.04963136 0.00000000
3.20580110 -0.00228928 -0.12961523 0.00000000
1.41440992 -0.00099839 -0.13829165 0.00000000
0.59942683 0.00428374 -0.13547025 0.00000000
3.52665397 -0.00032161 -0.05822683 0.00000000
3.61919656 -0.00084855 -0.10664028 0.00000000
1.97267410 -0.00182318 -0.11763581 0.00000000
0.17822996 0.00033840 -0.05439187 0.00000000
2.26257148 -0.00037388 -0.00398193 0.00000000
0.72835859 -0.00653893 -0.10298994 0.00000000
3.08607216 0.00138208 -0.01757386 0.00000000
3.61916003 -0.00004429 -0.19127477 0.00000000
2.02661653 0.00080365 -0.12484114 0.00000000
0.39908008 -0.00021172 -0.01855133 0.00000000
3.40048138 0.00026793 -0.20310162 0.00000000
2.55770836 0.00151981 -0.01231420 0.00000000
4.01319580 0.00074226 -0.18515042 0.00000000
1.95833622 -0.00040696 -0.17575990 0.00000000
1.59663559 0.00054264 -0.00366203 0.00000000
0.92300890 -0.00070033 -0.16488908 0.00000000
1.51371878 0.00037204 -0.02508037 0.00000000
0.17317906 0.00248053 -0.03942135 0.00000000
1.44003475 0.00435905 -0.16230398 0.00000000
1.34557195 -0.00060479 -0.03373440 0.00000000
3.92584908 -0.00068899 -0.01933487 0.00000000
4.00295649 0.00123673 -0.13670645 0.00000000
2.27885303 0.00248449 -0.11237612 0.00000000
3.21601211 -0.00140707 -0.02059916 0.00000000
0.43145269 -0.00060406 -0.09487704 0.00000000
3.06324453 -0.00110013 -0.13751787 0.00000000
1.95181997 0.00602873 -0.16623447 0.00000000
2.45053464 -0.00069984 -0.03783723 0.00000000
1.47414598 -0.00014748 -0.13586562 0.00000000
3.86592218 0.00403308 -0.17162959 0.00000000
2.46493557 0.00096763 -0.10256261 0.00000000
1.62163088 -0.00198696 -0.15662463 0.00000000
3.06999663 0.00235509 -0.18691249 0.00000000
0.44783648 0.00066547 -0.15291675 0.00000000
0.68130721 -0.00042093 -0.13517488 0.00000000
0.99036073 -0.00278177 -0.02510159 0.00000000
0.38491891 -0.00115429 -0.16622219 0.00000000
0.87420054 0.00282017 -0.02968741 0.00000000
1.56778373 -0.00089606 -0.05699973 0.00000000
0.09928527 0.00287287 -0.08480407 0.00000000
1.44196143 -0.00367496 -0.05854397 0.00000000
1.12055939 -0.00330375 -0.03934770 0.00000000
3.66361743 0.00185171 -0.16319331 0.00000000
0.56028424 0.00050734 -0.18250130 0.00000000
1.92138220 -0.00255536 -0.01916964 0.00000000
1.47384807 -0.00060626 -0.06078674 0.00000000
3.79456000 0.00349091 -0.15987069 0.00000000
0.02653364 0.00225840 -0.14871528 0.00000000
1.44283961 0.00233573 -0.02716578 0.00000000
1.30933301 0.00016429 -0.15934020 0.00000000
4.07587018 0.00142401 -0.05580891 0.00000000
1.69804884 0.00287339 -0.17888833 0.00000000
2.69113896 0.00222007 -0.14941850 0.00000000
3.39849415 -0.00414256 -0.16682236 0.00000000
0.75243529 0.00384223 -0.03610276 0.00000000
3.72817552 -0.00094264 -0.09036039 0.00000000
1.69738284 0.00055510 -0.01555260 0.00000000
4.10483610 0.00349477 -0.04979237 0.00000000
4.08172948 -0.00021811 -0.11374863 0.00000000
2.81354090 0.00143464 -0.06167081 0.00000000
2.51123771 -0.00333800 -0.16335271 0.00000000
2.40035309 -0.00049105 -0.12113940 0.00000000
3.41754908 -0.00048627 -0.13662837 0.00000000
2.19382198 -0.00084724 -0.05746094 0.00000000
2.33381431 0.00075402 -0.08164779 0.00000000
1.16318114 -0.00216393 -0.15859411 0.00000000
2.89686601 0.00293468 -0.07248989 0.00000000
3.67222799 0.00280490 -0.01019661 0.00000000
2.14127469 0.00260371 -0.17329792 0.00000000
1.12734661 0.00218004 -0.07933367 0.00000000
2.23930174 0.00171024 -0.13510518 0.00000000
3.82675696 -0.00268394 -0.04375208 0.00000000
2.65388202 -0.00190991 -0.15918390 0.00000000
0.54532530 0.00183813 -0.13583532 0.00000000
3.47280331 -0.00171798 -0.09710576 0.00000000
4.11259263 0.00090692 -0.11047017 0.00000000
0.85439627 -0.00088796 -0.20368211 0.00000000
1.72284675 -0.00153190 -0.21119403 0.00000000
1.15591149 -0.00029628 -0.09000072 0.00000000
1.21220239 -0.00197075 -0.02342238 0.00000000
2.26582312 0.00114398 -0.17383884 0.00000000
4.08547720 0.00138239 -0.19810170 0.00000000
3.27875323 -0.00067985 -0.14006061 0.00000000
2.22945060 -0.00045199 -0.10039069 0.00000000
0.73059520 -0.00080037 -0.18747476 0.00000000
2.05722453 0.00004679 -0.16032144 0.00000000
1.74464280 0.00240461 -0.11180668 0.00000000
0.83519706 -0.00335628 -0.20739292 0.00000000
1.00954096 0.00516404 -0.16312609 0.00000000
3.02450065 0.00213882 -0.18552222 0.00000000
3.04869457 -0.00049003 -0.17709077 0.00000000
1.80475073 -0.00018577 -0.14240738 0.00000000
2.63485343 -0.00351202 -0.07352244 0.00000000
2.73043577 0.00246649 -0.08845091 0.00000000
1.30794169 0.00127311 -0.18385563 0.00000000
2.34809900 0.00102938 -0.06335824 0.00000000
2.23171743 -0.00020119 -0.09462463 0.00000000
0.31419790 0.00270588 -0.11081731 0.00000000
0.93562194 -0.00031744 -0.06102974 0.00000000
1.72500329 0.00340933 -0.06235611 0.00000000
3.06422727 0.00110301 -0.03174736 0.00000000
3.95622829 -0.00126942 -0.15443688 0.00000000
0.12468881 0.00078741 -0.17318568 0.00000000
0.70106067 -0.00027932 -0.00467068 0.00000000
3.82407134 0.00248517 -0.07352212 0.00000000
0.87050460 0.00135590 -0.09465942 0.00000000
3.06140888 0.00295002 -0.04041578 0.00000000
2.48021507 -0.00346937 -0.11188243 0.00000000
3.20237380 -0.00371060 -0.04322996 0.00000000
4.15091070 0.00125930 -0.06749458 0.00000000
2.70956027 -0.00163096 -0.13375953 0.00000000
3.57469491 0.00443140 -0.11448584 0.00000000
2.98795879 -0.00524717 -0.20179863 0.00000000
2.92154514 0.00040703 -0.11858123 0.00000000
0.84763550 0.00625012 -0.09359750 0.00000000
3.10281488 0.00373239 -0.04368285 0.00000000
2.54886269 -0.00062613 -0.14026705 0.00000000
0.53260346 0.00173890 -0.09764765 0.00000000
1.53769803 -0.00054473 -0.19177778 0.00000000
0.35091199 -0.00402039 -0.16389002 0.00000000
1.59952776 0.00066689 -0.13798913 0.00000000
3.27455987 -0.00387788 -0.15403053 0.00000000
3.19305427 0.00266621 -0.14093687 0.00000000
0.84908786 -0.00001034 -0.16993721 0.00000000
2.23148447 0.00292223 -0.00312578 0.00000000
2.92322677 -0.00552851 -0.02894921 0.00000000
1.43306376 -0.00023840 -0.04988772 0.00000000
3.72142778 0.00026182 -0.06184608 0.00000000
3.11827011 -0.00207268 -0.06840516 0.00000000
1.09894554 -0.00472912 -0.02457083 0.00000000
3.92435508 -0.00014813 -0.16639852 0.00000000
3.88824644 0.00081112 -0.17977135 0.00000000
0.50215681 -0.00249809 -0.20831136 0.00000000
0.73188915 0.00385359 -0.03451685 0.00000000
0.24554583 0.00109133 -0.18118806 0.00000000
4.18731366 0.00371588 -0.05653812 0.00000000
0.24345198 0.00082401 -0.19507117 0.00000000
1.59900545 -0.00023705 -0.01880518 0.00000000
0.33074022 -0.00009805 -0.13261940 0.00000000
2.11885848 -0.00016438 -0.03164787 0.00000000
1.37718996 0.00325788 -0.03325274 0.00000000
3.96171615 -0.00191216 -0.04522829 0.00000000
1.16830993 0.00252448 -0.04166600 0.00000000
2.99303334 0.00455046 -0.06670659 0.00000000
0.85650599 0.00435736 -0.17693950 0.00000000
0.76997128 -0.00326886 -0.04296660 0.00000000
2.33922734 0.00227786 -0.02067573 0.00000000
1.73906720 0.00181110 -0.15725303 0.00000000
1.49979702 -0.00386053 -0.07883112 0.00000000
2.15137643 -0.00011395 -0.17635436 0.00000000
3.00144070 0.00008967 -0.03292705 0.00000000
3.22208134 0.00161859 -0.07926583 0.00000000
1.73177795 0.00132466 -0.16171156 0.00000000
4.04713553 0.00185291 -0.04269371 0.00000000
2.20473466 -0.00472856 -0.02977610 0.00000000
1.06651127 -0.00132134 -0.17655857 0.00000000
0.68387145 -0.00201048 -0.02544628 0.00000000
0.85932309 -0.00203517 -0.03320420 0.00000000
4.09498514 -0.00195844 -0.05305203 0.00000000
2.25036587 -0.00012008 -0.12223928 0.00000000
0.16546480 0.00292530 -0.15514348 0.00000000
2.95635227 0.00239553 -0.18126598 0.00000000
0.88313069 0.00255991 -0.11604872 0.00000000
3.79436091 -0.00592361 -0.02799784 0.00000000
2.25187275 0.00265355 -0.18818454 0.00000000
0.14248935 0.00436034 -0.15685814 0.00000000
2.46820492 -0.00036944 -0.11832176 0.00000000
2.14314638 0.00095275 -0.19447786 0.00000000
1.24012990 -0.00219068 -0.06127757 0.00000000
2.77692655 -0.00503016 -0.00759974 0.00000000
1.50082198 0.00196591 -0.03795397 0.00000000
0.70044828 -0.00213752 -0.21037202 0.00000000
1.01472154 0.00450098 -0.15877991 0.00000000
1.18585920 -0.00370295 -0.12543571 0.00000000
2.41866200 0.00249105 -0.01225496 0.00000000
0.11834147 -0.00092472 -0.06155169 0.00000000
0.47696256 0.00464806 -0.20775183 0.00000000
1.64398820 -0.00052047 -0.06218631 0.00000000
2.81884633 -0.00225687 -0.07088481 0.00000000
2.92051068 -0.00173332 -0.07945524 0.00000000
0.26760879 -0.00048967 -0.16335614 0.00000000
1.55935056 -0.00274160 -0.08849481 0.00000000
3.06246149 0.00276674 -0.18642786 0.00000000
0.19684135 -0.00154512 -0.18623540 0.00000000
4.00620845 -0.00222147 -0.08103840 0.00000000
2.43589291 0.00337044 -0.16285268 0.00000000
2.02905862 0.00247291 -0.02748794 0.00000000
1.50239398 -0.00213172 -0.09802939 0.00000000
1.73848181 0.00092951 -0.04369662 0.00000000
0.95527893 -0.00039711 -0.01204588 0.00000000
0.38157258 0.00065584 -0.14142699 0.00000000
3.62289809 0.00121877 -0.06375264 0.00000000
3.75003426 -0.00090556 -0.18596988 0.00000000
0.16693428 -0.00164023 -0.14326709 0.00000000
0.79025361 0.00174482 -0.05409278 0.00000000
2.67470979 0.00143583 -0.08180837 0.00000000
0.95541003 -0.00178341 -0.02136774 0.00000000
3.21038464 0.00176301 -0.17441741 0.00000000
1.60055416 -0.00080319 -0.00363604 0.00000000
3.39552680 -0.00036617 -0.19597944 0.00000000
2.38539033 0.00097222 -0.10602377 0.00000000
2.14208670 0.00006139 -0.10259716 0.00000000
2.16173786 0.00117941 -0.15834050 0.00000000
1.46721990 -0.00282426 -0.01211350 0.00000000
1.74836071 -0.00176414 -0.01105574 0.00000000
1.56363018 0.00088823 -0.18386476 0.00000000
2.53837749 0.00176280 -0.14372656 0.00000000
1.72717435 -0.00035855 -0.12352330 0.00000000
3.97683707 -0.00086838 -0.08131022 0.00000000
0.31558890 -0.00125234 -0.08010576 0.00000000
2.54009433 -0.00002844 -0.12209340 0.00000000
3.35804801 0.00346167 -0.14752747 0.00000000
0.18147625 0.00076944 -0.04907960 0.00000000
2.76323120 0.00248046 -0.15924057 0.00000000
0.76115480 0.00174890 -0.08175541 0.00000000
3.60447972 0.00392079 -0.18118101 0.00000000
0.27001969 -0.00073440 -0.18104226 0.00000000
2.44781113 -0.00392427 -0.19480427 0.00000000
3.85950416 0.00368689 -0.08790361 0.00000000
3.40667457 -0.00066445 -0.10010836 0.00000000
0.34639644 -0.00228677 -0.01849443 0.00000000
3.59907006 0.00191098 -0.03325970 0.00000000
0.07661691 -0.00487209 -0.14768536 0.00000000
2.21949711 0.00329187 -0.10575840 0.00000000
0.22613259 -0.00172662 -0.02413010 0.00000000
1.30316538 0.00086607 -0.00061714 0.00000000
0.15092755 -0.00038183 -0.05419027 0.00000000
4.08096082 0.00137076 -0.20090941 0.00000000
2.74630303 0.00017550 -0.17967929 0.00000000
3.11917625 -0.00125599 -0.00551340 0.00000000
0.06505053 -0.00603351 -0.08683513 0.00000000
2.34030079 -0.00465065 -0.12302011 0.00000000
2.80363214 0.00064210 -0.12862734 0.00000000
3.64384098 0.00064946 -0.09730630 0.00000000
2.29872732 0.00517677 -0.08587487 0.00000000
3.98481364 0.00326533 -0.09750559 0.00000000
1.22026024 -0.00053110 -0.00786652 0.00000000
1.16181247 -0.00019723 -0.04488206 0.00000000
3.65163312 0.00495383 -0.11124623 0.00000000
0.83601240 0.00337833 -0.19563285 0.00000000
2.37721700 -0.00015061 -0.20932928 0.00000000
3.48935874 0.00220248 -0.16462294 0.00000000
3.55134739 -0.00279670 -0.05694722 0.00000000
0.67832757 -0.00401617 -0.11516928 0.00000000
1.00992760 -0.00367382 -0.01267248 0.00000000
0.50368149 0.00094752 -0.07281126 0.00000000
3.18072324 -0.00131307 -0.05051993 0.00000000
1.23340459 -0.00106840 -0.06368926 0.00000000
3.09843059 0.00102097 -0.14709493 0.00000000
2.21753387 0.00051235 -0.08030892 0.00000000
1.37332117 0.00232918 -0.20761756 0.00000000
1.22430224 0.00013445 -0.19922445 0.00000000
3.23051412 0.00095515 -0.10395885 0.00000000
0.30466820 0.00019256 -0.04694252 0.00000000
2.95270264 -0.00223928 -0.11782517 0.00000000
1.87322980 -0.00236003 -0.05764119 0.00000000
1.96951685 -0.00343901 -0.07678260 0.00000000
0.28999461 -0.00167998 -0.02343917 0.00000000
0.32377144 0.00405845 -0.12260691 0.00000000
3.11201093 0.00279601 -0.20537606 0.00000000
4.15996481 -0.00232230 -0.14469065 0.00000000
1.51657748 0.00124795 -0.10117581 0.00000000
1.40782215 0.00070971 -0.06814815 0.00000000
1.95887988 -0.00110530 -0.18689867 0.00000000
0.38806415 -0.00012253 -0.09627895 0.00000000
2.20164788 -0.00245942 -0.15279449 0.00000000
2.91374223 0.00098509 -0.21093471 0.00000000
2.56538800 -0.00098251 -0.09922295 0.00000000
2.90378555 -0.00059400 -0.08954654 0.00000000
0.11347171 -0.00090230 -0.15816182 0.00000000
3.70938595 -0.00468551 -0.13721491 0.00000000
3.58689937 0.00140358 -0.17456006 0.00000000
3.10420244 0.00139069 -0.15250287 0.00000000
1.66229764 0.00171915 -0.12288358 0.00000000
2.13273478 0.00015721 -0.10366815 0.00000000
2.51164584 0.00051779 -0.15774386 0.00000000
3.60380511 -0.00158729 -0.02670090 0.00000000
3.97934307 0.00366825 -0.02944760 0.00000000
1.19958232 -0.00173375 -0.04684205 0.00000000
3.66752603 -0.00251479 -0.02136836 0.00000000
1.42477493 -0.00226144 -0.07124805 0.00000000
1.43208708 0.00047943 -0.03430987 0.00000000
2.49101190 0.00328373 -0.18338708 0.00000000
0.33334584 -0.00159766 -0.09789023 0.00000000
2.36360984 -0.00159827 -0.01650927 0.00000000
1.11350906 0.00050990 -0.05912514 0.00000000
0.05866701 0.00466649 -0.20356462 0.00000000
1.41017995 0.00044435 -0.07685024 0.00000000
2.98330947 0.00152950 -0.17069423 0.00000000
3.75979070 0.00199210 -0.02180257 0.00000000
2.49253170 -0.00017702 -0.16713690 0.00000000
0.04519188 0.00208116 -0.19834198 0.00000000
0.00393570 0.00084106 -0.12811505 0.00000000
0.40625541 -0.00036513 -0.09898648 0.00000000
1.49342400 0.00009997 -0.17779833 0.00000000
2.95465322 0.00375724 -0.18010795 0.00000000
3.87758486 0.00281681 -0.12444477 0.00000000
0.32561112 0.00214892 -0.11313002 0.00000000
1.93376789 0.00431577 -0.00014952 0.00000000
2.99254706 -0.00157585 -0.03508752 0.00000000
2.53732373 0.00371132 -0.01006461 0.00000000
0.75237104 -0.00312111 -0.10257138 0.00000000
3.61449972 0.00339215 -0.20413157 0.00000000
4.10781801 -0.00290842 -0.03656867 0.00000000
3.26796210 0.00039948 -0.13741195 0.00000000
1.92090783 -0.00118275 -0.07557360 0.00000000
2.29288563 0.00160586 -0.01181520 0.00000000
4.16260881 0.00334139 -0.18625510 0.00000000
0.05315909 0.00071019 -0.00683167 0.00000000
3.71241472 -0.00333578 -0.00864980 0.00000000
1.91767937 -0.00160327 -0.07279136 0.00000000
3.11309853 0.00134277 -0.05969516 0.00000000
2.23361855 0.00069333 -0.07493210 0.00000000
0.14044710 0.00143757 -0.02637392 0.00000000
3.95555265 0.00010530 -0.00032741 0.00000000
1.37922037 -0.00151420 -0.08870924 0.00000000
2.88735134 -0.00118576 -0.05336974 0.00000000
0.93586802 -0.00059041 -0.16453824 0.00000000
1.11537819 -0.00065248 -0.01821870 0.00000000
1.07276117 -0.00423928 -0.13701194 0.00000000
0.95522547 0.00077705 -0.00234515 0.00000000
3.70578831 -0.00056857 -0.15832248 0.00000000
0.00718008 -0.00201858 -0.18782451 0.00000000
0.01216819 0.00303303 -0.13099422 0.00000000
1.00616937 -0.00071349 -0.17777767 0.00000000
4.02211283 0.00287958 -0.12415524 0.00000000
3.05236695 -0.00086601 -0.20706442 0.00000000
3.84675007 -0.00339051 -0.18694371 0.00000000
0.20455948 -0.00343159 -0.10156071 0.00000000
2.96856293 0.00117030 -0.18357424 0.00000000
3.33745228 0.00013938 -0.10578419 0.00000000
1.38465278 0.00016811 -0.03244608 0.00000000
2.23624619 -0.00086412 -0.19296750 0.00000000
2.90000839 0.00236306 -0.07718811 0.00000000
0.98664042 -0.00000081 -0.08692363 0.00000000
3.16668283 0.00179236 -0.17768798 0.00000000
2.41410197 -0.00311741 -0.04363176 0.00000000
3.46098396 0.00231449 -0.18469278 0.00000000
3.05198013 0.00191276 -0.05380761 0.00000000
0.31649740 -0.00131045 -0.19545302 0.00000000
2.38373718 0.00246990 -0.18027336 0.00000000
