2.771603 1.370706 -0.001015 0.0
0.375704 1.855746 -0.001286 0.0
1.458386 0.114372 0.000437 0.0
2.570797 1.001650 0.000663 0.0
4.093004 1.852048 -0.000448 0.0
1.550589 0.008071 0.001032 0.0
3.666849 0.527530 0.001001 0.0
3.298876 0.542085 -0.002612 0.0
0.440681 0.051058 -0.005688 0.0
2.425413 1.473171 -0.002887 0.0
2.146973 0.822036 0.001831 0.0
0.954801 0.223040 0.001147 0.0
2.089893 0.784106 -0.000092 0.0
1.474316 2.336495 0.000365 0.0
1.285759 1.039623 0.002446 0.0
2.868257 1.764440 -0.000795 0.0
3.561595 0.124340 -0.002710 0.0
1.321503 1.705656 0.003230 0.0
2.069876 0.808148 0.003175 0.0
1.407527 0.795876 -0.000366 0.0
2.540227 2.244230 -0.001551 0.0
2.621890 2.227592 -0.002214 0.0
2.043279 2.256384 -0.002502 0.0
1.683044 2.249520 0.001279 0.0
2.457676 2.139003 0.000741 0.0
4.063605 2.257904 -0.003603 0.0
1.404347 1.897756 -0.002286 0.0
4.144695 0.859898 -0.000642 0.0
1.058976 1.115072 -0.002294 0.0
0.761604 0.980449 0.001188 0.0
0.407953 2.292069 -0.003181 0.0
2.285814 0.403411 -0.000808 0.0
2.931238 1.000219 -0.002292 0.0
2.156939 0.896061 -0.003742 0.0
0.273141 0.163317 -0.001096 0.0
1.143147 0.035880 -0.004695 0.0
3.155059 0.552518 -0.003393 0.0
0.584285 0.616924 -0.000589 0.0
3.207277 0.322926 0.000162 0.0
1.053397 0.748504 0.004093 0.0
1.476555 0.870751 0.000355 0.0
2.406429 2.149172 -0.000252 0.0
2.628482 1.891933 -0.000616 0.0
2.863928 1.133596 -0.000735 0.0
0.824407 0.141780 0.001465 0.0
1.307089 0.104286 0.001197 0.0
1.159586 1.085479 0.000903 0.0
1.285580 1.302131 -0.000404 0.0
0.874073 0.025308 0.001923 0.0
1.894586 1.386230 0.000753 0.0
3.474331 0.891856 -0.000364 0.0
4.088821 1.489814 -0.000141 0.0
3.363890 0.556645 -0.003489 0.0
0.596377 1.447023 -0.000495 0.0
1.868843 1.309243 -0.004322 0.0
3.524456 2.120834 0.001622 0.0
1.056581 1.657561 0.001279 0.0
0.377460 1.941777 -0.000872 0.0
3.965697 1.906819 0.003049 0.0
2.603022 1.776822 -0.000471 0.0
0.342821 0.087237 -0.000325 0.0
1.057625 1.773971 -0.001676 0.0
0.604038 0.284091 0.000847 0.0
1.002035 1.662929 -0.003785 0.0
2.935348 1.488347 -0.003041 0.0
1.874052 1.162166 -0.001542 0.0
1.034612 1.020054 -0.002396 0.0
1.036059 1.964195 -0.005076 0.0
2.876459 1.140024 -0.005350 0.0
1.731873 0.666443 0.000407 0.0
3.526171 2.176423 -0.000643 0.0
3.044838 1.753611 0.000737 0.0
0.193354 0.634079 0.001807 0.0
3.858324 1.131058 -0.000924 0.0
2.824966 0.250516 0.002239 0.0
0.909437 0.559357 0.001200 0.0
1.526001 0.498506 -0.001395 0.0
3.612522 2.027461 0.000434 0.0
0.528680 1.206838 0.003453 0.0
1.405369 1.875296 -0.001672 0.0
3.481347 0.556705 -0.002820 0.0
0.385740 0.408961 0.000123 0.0
2.063535 2.178963 -0.001875 0.0
0.875622 2.138114 -0.001589 0.0
2.399151 0.709613 0.000626 0.0
0.781042 0.827216 -0.000826 0.0
3.841739 1.702000 0.002277 0.0
0.327070 0.546443 -0.001326 0.0
1.730330 1.394417 -0.005364 0.0
1.783079 0.721153 -0.001729 0.0
2.788875 1.742939 -0.005827 0.0
2.119085 1.699938 0.001808 0.0
4.178161 1.057440 0.001818 0.0
3.136987 0.207010 0.004998 0.0
2.134849 0.867709 0.002627 0.0
3.972271 1.287722 0.000586 0.0
1.913352 1.650289 0.001046 0.0
3.044066 1.860170 -0.000404 0.0
0.509199 0.347314 0.002224 0.0
2.864686 1.699496 -0.002083 0.0
2.096742 1.550889 -0.002260 0.0
0.335532 0.852840 -0.000304 0.0
3.470904 0.727813 -0.002504 0.0
3.587369 0.380692 0.000493 0.0
1.546917 2.212933 0.004026 0.0
2.827408 0.844355 0.003144 0.0
1.938704 0.328846 0.001632 0.0
0.074990 1.499388 -0.003212 0.0
2.281055 1.575408 0.001496 0.0
4.035468 0.891554 0.000532 0.0
1.670138 2.222229 -0.002043 0.0
0.576179 1.658107 -0.000564 0.0
2.116413 1.526761 0.002326 0.0
2.570400 2.118657 0.000890 0.0
0.817161 0.840015 -0.002259 0.0
3.413875 2.214026 0.003438 0.0
2.663191 2.018803 -0.001744 0.0
2.844582 0.293484 0.003424 0.0
1.149160 2.279053 0.000565 0.0
0.188802 1.648773 0.001177 0.0
2.925379 0.303419 -0.001437 0.0
2.011995 0.844541 -0.000636 0.0
3.649550 1.072519 0.002430 0.0
4.024697 0.402771 0.000146 0.0
1.898049 0.643201 0.001687 0.0
2.381309 2.289814 -0.000555 0.0
2.440269 1.509878 -0.000838 0.0
0.947318 1.214147 -0.002608 0.0
3.003436 0.454030 0.001271 0.0
2.160846 1.466773 0.000274 0.0
2.026694 0.854082 0.002717 0.0
3.688766 0.161101 -0.002666 0.0
4.238846 1.790552 0.002328 0.0
1.827998 1.289265 0.002911 0.0
2.817866 0.742474 0.001614 0.0
0.544713 1.709138 -0.002293 0.0
3.018124 1.216884 0.000448 0.0
2.193576 1.941936 0.001918 0.0
1.966317 1.490672 0.003832 0.0
3.094287 2.084874 0.001322 0.0
3.560829 1.375487 -0.004600 0.0
0.637444 2.058028 0.002843 0.0
4.230434 1.447872 -0.000573 0.0
1.341201 2.104651 0.000288 0.0
3.920508 0.441414 -0.003002 0.0
3.001427 1.617036 0.002099 0.0
0.763524 1.226296 -0.001513 0.0
0.897430 2.249928 -0.002218 0.0
2.236599 1.603899 -0.000466 0.0
1.179540 1.799359 -0.000975 0.0
0.520272 1.449094 -0.002456 0.0
2.675866 2.257077 -0.002349 0.0
4.130401 1.934864 -0.000019 0.0
1.745082 1.833653 0.001358 0.0
2.203501 2.232655 -0.005199 0.0
2.681943 0.411644 0.001316 0.0
2.490843 1.616557 -0.004166 0.0
0.505204 0.808622 0.001448 0.0
2.923466 1.872468 -0.000835 0.0
3.817681 1.996541 -0.002841 0.0
1.500261 2.286657 0.000740 0.0
2.173118 0.038946 -0.002668 0.0
1.903929 0.980208 -0.002094 0.0
2.295941 1.238694 0.003459 0.0
3.795237 0.347862 -0.000054 0.0
1.539630 0.637342 0.004318 0.0
3.416935 0.827782 0.000264 0.0
2.976412 0.364568 -0.001621 0.0
0.695812 1.310770 0.001349 0.0
3.401012 2.330216 0.000478 0.0
0.334234 1.406293 0.001259 0.0
3.244153 1.453762 -0.007223 0.0
3.377712 0.164299 0.001633 0.0
3.982859 1.148334 -0.001808 0.0
1.434370 0.857057 -0.001610 0.0
3.250907 1.998351 0.000781 0.0
3.273749 1.935470 -0.005521 0.0
0.869472 1.464240 -0.002583 0.0
0.341350 0.370852 -0.003471 0.0
3.378127 2.129685 -0.000688 0.0
0.834474 0.684456 -0.000087 0.0
1.193907 0.159073 0.001452 0.0
0.088851 1.609429 -0.000393 0.0
1.901192 1.326959 -0.000381 0.0
2.455372 1.017365 -0.000256 0.0
2.543911 0.036821 0.000898 0.0
0.470721 1.984258 0.001625 0.0
0.745738 1.897430 -0.002795 0.0
0.717452 1.964390 -0.002419 0.0
3.139712 0.876453 -0.002869 0.0
0.941115 0.782040 0.000011 0.0
4.077460 0.856461 0.005020 0.0
0.168107 0.183157 0.003190 0.0
2.069367 1.677023 -0.004841 0.0
3.897737 1.985002 -0.001088 0.0
3.955141 1.966500 0.000674 0.0
2.389903 1.214682 0.000836 0.0
2.527865 0.365148 -0.000715 0.0
3.842177 1.400033 0.000756 0.0
1.738443 0.729328 -0.002258 0.0
2.006198 1.016520 -0.000813 0.0
3.598827 0.445758 -0.002820 0.0
0.453727 0.141220 -0.002058 0.0
2.714918 2.196851 -0.003012 0.0
1.750042 0.777289 0.003304 0.0
0.283594 0.734140 -0.000291 0.0
3.803905 1.639982 0.003165 0.0
1.409712 2.330941 -0.002577 0.0
0.211400 1.865595 -0.001613 0.0
0.078243 1.646905 0.000660 0.0
2.348926 2.153573 0.000711 0.0
1.500295 1.926492 -0.003986 0.0
3.034869 0.804636 -0.001297 0.0
2.987437 0.937832 0.001374 0.0
2.636466 0.647987 -0.001804 0.0
3.850082 0.491112 0.002039 0.0
1.940059 1.628057 -0.000658 0.0
1.763623 0.123877 -0.005456 0.0
0.684384 2.064046 -0.001352 0.0
1.275085 1.826269 0.001117 0.0
3.563485 1.113557 0.000235 0.0
0.288742 1.839754 -0.000018 0.0
2.000642 1.076034 0.002216 0.0
3.069509 0.432597 -0.001530 0.0
0.271443 0.230604 -0.001140 0.0
0.305304 1.056203 -0.000807 0.0
3.726408 1.997751 0.000197 0.0
0.811272 0.812926 -0.001308 0.0
0.939380 1.315813 0.001958 0.0
1.546133 1.847453 -0.002297 0.0
0.887696 2.339246 -0.001192 0.0
1.323069 2.099513 -0.000214 0.0
1.752834 2.241395 0.000518 0.0
2.377815 1.249539 -0.000022 0.0
0.641745 0.233574 0.002123 0.0
1.228439 1.730217 0.002436 0.0
2.572732 0.150479 -0.001101 0.0
3.046375 1.451612 -0.000086 0.0
1.304880 1.344863 0.001869 0.0
4.143511 1.171220 0.002840 0.0
0.995481 1.771175 0.000386 0.0
1.957929 0.168024 0.002130 0.0
4.175860 1.776700 0.001423 0.0
0.101344 1.747967 0.003230 0.0
2.510967 0.506348 0.006032 0.0
1.821979 1.383404 0.001793 0.0
0.804625 1.130136 -0.001106 0.0
3.918821 1.169761 -0.002238 0.0
2.352840 0.043248 0.001482 0.0
0.316271 1.789337 0.003908 0.0
1.709125 1.673445 0.000881 0.0
2.442700 0.831470 -0.002608 0.0
2.885949 1.473132 -0.005087 0.0
1.111678 0.283361 0.002463 0.0
0.344024 1.559682 -0.000712 0.0
0.113336 1.866622 -0.002349 0.0
3.842343 0.570702 0.000398 0.0
3.439599 1.036654 -0.000990 0.0
0.056687 0.327218 -0.001568 0.0
2.067515 1.495517 0.001742 0.0
3.202912 0.504038 -0.000604 0.0
3.813139 0.544387 -0.000103 0.0
1.644389 2.089705 -0.005926 0.0
3.766934 2.096447 0.001023 0.0
3.454033 0.004689 0.003863 0.0
2.737203 2.026782 0.000616 0.0
0.667987 0.860847 0.001611 0.0
3.937243 1.652456 0.000846 0.0
0.655565 1.648729 -0.003377 0.0
2.884921 2.289300 0.002625 0.0
3.283317 1.366963 0.005112 0.0
0.353476 1.956593 0.001031 0.0
1.185861 1.421335 0.000985 0.0
0.143037 1.664746 0.002604 0.0
0.912771 0.897818 0.000367 0.0
2.465518 0.333936 -0.000470 0.0
4.167750 0.887235 0.002000 0.0
1.736665 1.344631 0.003381 0.0
2.545029 1.379473 -0.001269 0.0
2.338826 2.336560 -0.001569 0.0
3.373824 0.392011 -0.001162 0.0
0.859236 0.287478 0.000634 0.0
3.460184 1.709631 0.000386 0.0
2.046473 2.190035 0.000212 0.0
2.283242 1.400532 0.003624 0.0
2.551113 1.874879 0.000156 0.0
0.385484 0.368781 -0.004234 0.0
0.495196 0.546271 0.005193 0.0
1.889824 1.805862 0.002046 0.0
3.664408 0.527336 -0.003172 0.0
1.890846 0.616444 0.000408 0.0
1.213617 0.128815 0.002196 0.0
0.196102 0.187195 -0.001477 0.0
1.859081 0.342530 0.002019 0.0
1.191371 1.723326 -0.004061 0.0
3.321927 0.510422 -0.000705 0.0
1.099695 0.827681 -0.004469 0.0
1.551281 0.940458 0.002944 0.0
2.698195 1.980380 -0.000002 0.0
2.419081 1.440742 0.006306 0.0
0.076604 1.829156 0.000236 0.0
1.386203 1.449612 -0.000551 0.0
0.703991 0.969637 0.006365 0.0
2.758973 2.245613 0.001877 0.0
1.251808 2.158492 0.001881 0.0
1.650767 1.988030 -0.000059 0.0
3.662215 0.475262 0.000567 0.0
3.726077 1.058947 0.001428 0.0
2.048388 0.349458 -0.000090 0.0
0.562122 0.578848 -0.000661 0.0
1.943048 1.918784 -0.000976 0.0
2.900639 0.939094 -0.001097 0.0
0.656949 1.001692 -0.001919 0.0
0.258698 0.598546 -0.002915 0.0
1.821706 1.337338 0.000743 0.0
1.037892 0.907065 -0.001473 0.0
2.131099 1.160977 0.001467 0.0
2.074742 1.619874 -0.004305 0.0
2.676898 0.815069 0.001880 0.0
1.635884 1.969804 -0.000737 0.0
4.190657 0.311698 -0.000714 0.0
3.962001 0.593603 0.000422 0.0
1.814895 1.115668 -0.000265 0.0
0.379948 1.461019 -0.002269 0.0
2.755874 1.788263 0.003360 0.0
1.342613 1.676330 -0.001237 0.0
3.962041 0.938106 -0.001185 0.0
0.542356 2.342598 0.004403 0.0
2.321299 0.570766 -0.000839 0.0
0.361758 0.560817 0.001743 0.0
4.188493 0.848484 0.001512 0.0
2.576957 0.854269 0.004100 0.0
2.144552 1.948190 0.000139 0.0
2.791203 0.899893 -0.001847 0.0
2.860944 2.202803 0.000721 0.0
0.937452 0.591098 0.002810 0.0
3.169845 1.365306 -0.002955 0.0
0.819958 1.214614 0.001106 0.0
2.322788 0.778765 -0.001496 0.0
4.022427 1.585954 0.003848 0.0
1.235742 0.005974 -0.003914 0.0
2.092410 1.223244 -0.005411 0.0
0.242785 1.613580 0.000077 0.0
0.176638 0.686021 -0.000935 0.0
3.830751 1.885941 0.001798 0.0
1.205904 1.242863 -0.000292 0.0
0.316750 1.869266 0.002515 0.0
3.631998 1.206249 0.002240 0.0
2.626490 1.764345 -0.006140 0.0
0.981062 1.476883 -0.001854 0.0
3.036216 0.261834 0.003020 0.0
0.083145 0.685773 0.002151 0.0
4.059613 1.137951 0.000323 0.0
2.627655 0.348714 0.001236 0.0
2.330356 0.965745 -0.001172 0.0
2.908081 0.581102 -0.001692 0.0
3.670557 1.902397 -0.001535 0.0
0.700505 1.665934 -0.000821 0.0
1.063882 1.280838 0.001214 0.0
0.957639 1.445068 -0.002313 0.0
1.964740 1.611159 0.002590 0.0
2.467379 1.979205 -0.000101 0.0
1.939184 1.681473 0.000098 0.0
1.709028 0.878119 -0.001136 0.0
0.400884 1.240312 0.003679 0.0
3.421245 2.321894 0.000915 0.0
2.849291 0.148252 -0.000342 0.0
1.237298 1.359280 0.000788 0.0
3.150717 0.278574 -0.001328 0.0
1.141993 1.901813 -0.000504 0.0
1.696162 2.117342 -0.002051 0.0
1.112299 2.069442 -0.001334 0.0
1.545418 1.753042 0.002954 0.0
0.859833 1.513681 -0.004628 0.0
4.120553 1.519981 -0.004159 0.0
2.367989 0.771903 0.005333 0.0
3.929927 0.908046 -0.005353 0.0
2.986402 0.776151 -0.000014 0.0
1.134611 0.542518 -0.001052 0.0
1.839328 2.239897 0.000989 0.0
2.136448 2.335537 -0.000175 0.0
2.195797 1.973423 0.002565 0.0
2.547095 2.098444 0.001214 0.0
0.301206 1.488610 -0.000555 0.0
3.677797 0.492354 -0.002085 0.0
1.498035 0.485683 -0.005026 0.0
1.021460 0.327669 -0.000904 0.0
1.365189 1.930134 0.001981 0.0
2.321226 2.155678 -0.001415 0.0
1.311745 2.003676 0.002377 0.0
2.387853 0.933139 0.000243 0.0
2.205637 1.521631 -0.003342 0.0
4.222906 0.602353 -0.004787 0.0
0.797396 0.044897 -0.000481 0.0
2.762659 2.262233 0.001985 0.0
2.783529 0.230285 0.000675 0.0
2.553584 1.559462 -0.000015 0.0
2.286247 1.452840 -0.001834 0.0
3.248244 1.245139 0.004731 0.0
2.070409 1.915002 -0.004583 0.0
1.846352 1.980180 0.003624 0.0
3.140150 2.021312 0.001876 0.0
0.388153 1.775934 -0.000130 0.0
2.737872 0.272917 -0.002574 0.0
4.050842 0.132465 -0.001243 0.0
2.734583 0.077601 0.001040 0.0
2.614538 1.702487 -0.001623 0.0
1.906394 0.375676 0.002104 0.0
0.292143 1.953325 -0.002644 0.0
2.978790 1.992212 -0.003515 0.0
0.199643 2.315822 -0.006269 0.0
3.177330 1.274169 -0.001226 0.0
3.156986 1.377507 -0.003393 0.0
2.767970 1.709039 0.000723 0.0
3.516930 0.572069 -0.005284 0.0
0.692387 0.227685 -0.001198 0.0
0.368044 2.085187 -0.000398 0.0
0.904787 0.165445 -0.004015 0.0
2.787393 1.127609 0.003187 0.0
2.358315 0.680555 0.000925 0.0
1.108031 1.335856 -0.002598 0.0
3.931035 0.672541 -0.000029 0.0
1.643890 1.919169 -0.001381 0.0
0.279701 2.255854 0.002984 0.0
2.555777 1.966962 0.002650 0.0
2.951713 0.858158 -0.005486 0.0
3.454382 0.266412 -0.001528 0.0
3.394868 0.934071 -0.003097 0.0
2.539685 0.360549 -0.003608 0.0
1.808685 2.054837 -0.000536 0.0
0.074897 0.106888 0.001867 0.0
3.072129 0.331871 -0.004930 0.0
0.019569 1.494871 -0.006162 0.0
2.702840 1.698698 0.001420 0.0
0.426487 0.464942 0.001435 0.0
0.795514 1.209703 -0.002883 0.0
2.349561 1.070148 -0.001495 0.0
0.433411 1.747420 -0.000574 0.0
2.568781 2.232363 0.002849 0.0
1.599783 1.549112 0.001459 0.0
2.522228 0.802978 0.004239 0.0
2.454667 0.205468 -0.000999 0.0
2.027531 1.834974 -0.001813 0.0
1.664778 1.499078 0.001795 0.0
0.173869 0.930961 0.002444 0.0
0.469844 1.963683 -0.000774 0.0
3.788878 0.890834 0.005129 0.0
3.811425 2.137241 -0.000132 0.0
2.405750 0.114751 0.001721 0.0
3.441238 0.109807 0.001629 0.0
2.393395 0.120523 -0.001327 0.0
3.534477 1.715110 -0.000052 0.0
0.329639 0.773881 0.001111 0.0
3.870732 1.158163 0.002813 0.0
2.901982 1.903949 -0.000652 0.0
1.540567 1.185737 -0.001870 0.0
0.560624 2.058465 -0.002148 0.0
0.098731 1.656189 -0.001908 0.0
3.082831 1.746833 0.003780 0.0
2.486441 1.718666 -0.002089 0.0
0.798103 2.261109 -0.001882 0.0
2.130380 2.214279 0.000420 0.0
2.918528 0.323414 0.003168 0.0
2.175420 0.263154 0.001344 0.0
2.998030 0.044851 0.000884 0.0
3.272202 1.635406 -0.001220 0.0
4.124084 0.216928 -0.000534 0.0
2.504242 2.096888 -0.000522 0.0
0.766874 1.750346 0.001863 0.0
3.584748 1.418885 -0.001173 0.0
1.439075 2.046133 -0.001056 0.0
1.520231 0.806507 0.000254 0.0
2.520638 1.550753 -0.004644 0.0
3.119431 0.188509 -0.007295 0.0
3.666424 0.886801 -0.001898 0.0
1.484228 0.446474 -0.003366 0.0
1.370582 1.951999 0.002624 0.0
1.208824 1.886792 0.001491 0.0
3.669392 0.194099 0.001761 0.0
3.426533 0.993504 -0.001721 0.0
0.922016 0.075801 -0.002710 0.0
1.744469 0.799410 0.000403 0.0
3.406033 1.701130 -0.002760 0.0
0.459524 0.479893 0.000933 0.0
3.168465 1.078543 0.002692 0.0
1.558772 1.455083 0.004494 0.0
0.150602 1.954055 -0.001185 0.0
1.312465 0.608797 0.000061 0.0
2.681782 2.234878 0.002588 0.0
1.337117 1.432561 0.003036 0.0
1.996630 1.496360 -0.000728 0.0
3.048349 1.492522 0.002937 0.0
1.173045 0.809126 -0.000629 0.0
3.679651 0.055058 -0.000372 0.0
3.309630 1.740926 -0.004959 0.0
4.161319 0.314382 0.001991 0.0
0.784519 1.671509 0.002234 0.0
2.809409 0.271102 0.000466 0.0
2.248514 0.524725 -0.003115 0.0
1.814203 1.533262 0.001644 0.0
1.034934 2.163571 -0.003059 0.0
3.342835 2.144031 -0.003584 0.0
3.625957 1.192050 -0.005551 0.0
3.000965 2.061054 -0.003899 0.0
1.350229 0.416915 -0.000642 0.0
2.742638 0.146994 0.000791 0.0
2.010165 1.023974 0.001930 0.0
3.531732 2.328238 0.003063 0.0
0.003851 0.784490 0.001788 0.0
2.425384 1.098029 0.000557 0.0
2.581296 1.064467 0.000669 0.0
2.379068 1.790824 0.003407 0.0
1.874844 2.080955 0.001195 0.0
3.061773 1.630785 0.000925 0.0
2.404263 2.295913 0.001509 0.0
0.375334 1.092793 0.002162 0.0
2.890949 1.170065 -0.003682 0.0
3.508045 1.549341 0.003344 0.0
0.284119 1.385479 -0.002259 0.0
0.293337 1.346742 0.002338 0.0
3.468114 1.841413 0.001618 0.0
3.230823 1.296348 0.002478 0.0
1.968069 1.608794 0.000303 0.0
3.833725 1.667165 0.004224 0.0
2.458271 2.037549 -0.000119 0.0
0.370953 0.091880 -0.001407 0.0
2.776286 0.460358 -0.001447 0.0
0.656879 0.111572 0.002440 0.0
2.464768 1.344120 0.001910 0.0
3.924885 2.010241 0.001179 0.0
2.846531 1.857233 0.003763 0.0
2.590622 1.892357 0.000266 0.0
0.699157 1.913737 -0.002282 0.0
3.283191 1.229747 -0.001749 0.0
2.198807 1.368696 -0.005342 0.0
2.761758 1.166907 0.000214 0.0
4.103090 0.084490 0.000033 0.0
1.647223 0.399040 -0.003155 0.0
1.399596 1.670135 -0.000450 0.0
1.986877 2.338615 0.000769 0.0
2.224503 0.251776 0.000869 0.0
2.726813 0.484051 0.000277 0.0
3.201551 1.654938 0.004017 0.0
2.085006 2.305324 0.001695 0.0
2.233267 0.471339 0.002377 0.0
0.815365 0.029859 0.004679 0.0
4.129388 0.790595 -0.000210 0.0
4.254294 0.742234 -0.002132 0.0
3.277599 2.014396 -0.000907 0.0
2.165578 0.978033 -0.002576 0.0
0.426982 2.043031 0.001657 0.0
2.078799 0.486011 0.005110 0.0
1.589994 1.013650 -0.005353 0.0
3.340285 0.785487 -0.000451 0.0
1.011767 2.171754 0.003404 0.0
4.249681 1.212650 -0.003036 0.0
1.201204 1.017133 -0.000894 0.0
1.349660 1.989245 -0.001154 0.0
0.974920 0.792513 -0.000957 0.0
0.204913 1.948059 0.001710 0.0
4.132526 1.141621 0.000696 0.0
1.977666 0.307367 0.001565 0.0
3.779827 0.675790 -0.001562 0.0
1.803199 0.935402 0.003273 0.0
2.386016 1.209293 0.002581 0.0
1.900855 1.085323 -0.004079 0.0
3.712630 0.473602 -0.002967 0.0
2.479242 0.954085 -0.003367 0.0
2.023500 0.641189 -0.001020 0.0
1.437096 0.167486 -0.001507 0.0
2.719758 0.500261 -0.000398 0.0
2.040149 2.115447 0.000586 0.0
0.929726 0.548575 -0.000184 0.0
0.651317 2.166607 -0.003215 0.0
0.112265 0.392431 0.004528 0.0
0.516683 0.140445 -0.004897 0.0
2.635991 0.662578 -0.001356 0.0
0.468487 0.178357 -0.001073 0.0
2.892162 1.052610 0.001692 0.0
3.554506 0.715184 -0.000879 0.0
3.920334 2.030089 0.001110 0.0
1.991678 1.690282 0.003645 0.0
1.968044 1.909443 0.001440 0.0
0.595652 0.388336 -0.000144 0.0
1.977259 2.198957 0.000696 0.0
2.132561 1.913275 0.001063 0.0
0.944576 1.119145 0.001547 0.0
2.106886 0.338982 -0.002253 0.0
3.760865 0.381344 -0.001118 0.0
3.684153 0.422755 -0.002295 0.0
0.692561 0.164157 0.002434 0.0
3.281736 1.414173 -0.000787 0.0
3.442621 0.603025 0.002161 0.0
0.860591 0.067230 -0.001679 0.0
0.584933 0.994632 0.002646 0.0
2.670137 1.027989 0.001255 0.0
1.323248 0.162137 0.001391 0.0
1.719211 0.324756 0.001520 0.0
4.126438 1.668184 0.001489 0.0
2.561209 1.396397 -0.002220 0.0
1.999979 1.795370 0.000198 0.0
0.310669 2.320747 -0.000803 0.0
1.786133 1.321033 0.000221 0.0
3.449035 0.646229 0.002671 0.0
3.516968 1.652930 -0.001148 0.0
0.743503 1.644251 -0.002528 0.0
0.642875 1.954681 0.000546 0.0
2.067245 1.063776 0.002534 0.0
0.967280 2.105470 0.005297 0.0
3.954602 0.272084 -0.000050 0.0
0.088209 1.598167 -0.003206 0.0
4.228689 0.279605 0.000587 0.0
1.556010 0.867569 0.000523 0.0
4.170505 1.572747 0.003044 0.0
0.904145 1.902847 0.002283 0.0
0.470631 1.396714 -0.004623 0.0
3.183239 1.758648 -0.000909 0.0
4.081202 2.100729 -0.002163 0.0
0.136305 0.640261 0.002581 0.0
0.301827 0.532714 -0.002281 0.0
3.809069 0.150654 -0.002634 0.0
0.913359 2.192274 0.001825 0.0
1.996459 2.321526 0.004154 0.0
3.093176 0.434146 -0.002498 0.0
2.636121 1.452621 -0.003952 0.0
3.791468 0.757161 -0.000848 0.0
3.017361 0.505228 -0.000418 0.0
2.544524 0.844346 -0.001656 0.0
2.147501 0.334917 -0.002967 0.0
1.219042 2.253134 -0.002327 0.0
1.823118 2.265748 -0.001070 0.0
2.804665 0.807049 -0.002438 0.0
0.218466 1.238880 0.002595 0.0
3.255087 1.873320 0.000764 0.0
4.116518 1.687335 -0.004453 0.0
1.019461 1.411610 -0.000265 0.0
0.933207 1.411296 -0.000942 0.0
3.562374 0.863481 0.001588 0.0
3.872004 1.785816 0.003723 0.0
0.264323 2.136046 -0.002528 0.0
0.843980 2.067852 -0.001571 0.0
3.692986 1.672645 0.002403 0.0
0.093697 0.181265 0.001062 0.0
0.627069 0.311516 -0.000519 0.0
0.926587 0.301778 0.002890 0.0
0.041794 0.308756 -0.001345 0.0
1.773893 1.531940 0.003264 0.0
0.955553 1.265176 0.001133 0.0
2.328861 0.124416 -0.000455 0.0
0.779645 0.021174 0.000426 0.0
3.891575 0.984297 -0.001563 0.0
3.373155 0.955302 0.002096 0.0
4.253514 0.281536 -0.001199 0.0
3.229581 2.085252 -0.001407 0.0
2.297260 0.780602 0.002583 0.0
1.171791 2.194751 -0.002315 0.0
2.352172 0.439038 -0.000581 0.0
2.686638 1.556026 0.000351 0.0
1.191439 0.312710 -0.000748 0.0
2.494631 1.119116 0.002202 0.0
0.368609 0.181152 0.003025 0.0
3.607219 0.001882 -0.001538 0.0
3.445247 0.623386 0.001673 0.0
1.059492 1.528977 0.000891 0.0
4.263751 1.616173 -0.003243 0.0
3.175502 0.407778 -0.000542 0.0
2.163325 1.265110 -0.000592 0.0
1.050168 1.807390 -0.001809 0.0
2.036055 1.823635 0.004185 0.0
2.531423 1.032053 -0.000215 0.0
0.937097 2.123837 0.001722 0.0
1.322596 0.645532 0.001477 0.0
3.069444 2.148615 0.002449 0.0
3.939050 1.754417 0.001777 0.0
1.589309 1.413473 0.000242 0.0
2.744873 0.889162 -0.000176 0.0
0.011067 0.591825 0.000906 0.0
1.389984 1.008738 -0.003156 0.0
2.106449 0.040962 0.000144 0.0
0.848440 1.288801 -0.000981 0.0
4.038421 1.465529 -0.002330 0.0
0.927489 1.780274 0.000428 0.0
1.623979 2.332390 0.000745 0.0
1.831922 1.400931 0.004200 0.0
0.925186 0.614667 0.003154 0.0
4.047352 0.495727 0.003891 0.0
4.138301 0.108492 0.000430 0.0
1.376092 2.328372 0.000228 0.0
2.211762 0.876187 0.000854 0.0
1.789144 1.646140 -0.002511 0.0
3.097598 0.045379 -0.002686 0.0
0.814106 2.213906 0.001250 0.0
2.884003 1.654795 -0.000289 0.0
2.692621 1.557134 0.003181 0.0
0.203572 0.362058 0.002381 0.0
1.114387 2.096281 -0.001772 0.0
3.562068 1.874524 0.000942 0.0
3.436276 0.230682 -0.003407 0.0
1.663823 1.357746 0.003805 0.0
4.170339 1.146833 -0.000626 0.0
0.546998 0.145658 0.001691 0.0
0.000959 0.304705 0.003730 0.0
3.185913 1.356098 -0.000976 0.0
1.244737 2.159014 0.001165 0.0
4.003859 1.250750 0.003274 0.0
1.392196 0.318279 -0.003957 0.0
3.406154 2.072656 0.002240 0.0
1.467817 0.313850 0.002342 0.0
4.176172 0.026359 -0.001125 0.0
1.520875 0.341568 -0.000481 0.0
2.067254 1.483481 0.000439 0.0
1.854041 2.032349 0.001091 0.0
1.727333 0.779143 0.002837 0.0
4.145314 0.245622 0.000220 0.0
1.126270 0.272512 -0.001949 0.0
0.333810 0.045233 -0.002912 0.0
1.187305 2.009350 -0.002315 0.0
0.249948 0.978759 -0.000683 0.0
0.679245 0.639437 -0.001877 0.0
2.584290 1.862169 0.000623 0.0
1.019270 1.187892 0.001659 0.0
0.619779 1.007921 -0.002471 0.0
1.362333 0.024214 0.000008 0.0
2.690645 0.178065 0.001664 0.0
3.507604 2.018752 0.000218 0.0
3.202383 1.599460 -0.004503 0.0
4.148182 1.623472 -0.001462 0.0
1.013745 0.101485 0.001245 0.0
2.026024 1.676053 0.000567 0.0
1.450869 1.768951 -0.004177 0.0
2.397685 0.462393 0.001371 0.0
4.025676 0.049327 -0.000512 0.0
0.068327 0.366831 -0.003498 0.0
3.296515 2.231871 -0.002110 0.0
0.430095 1.357321 -0.002604 0.0
2.432096 0.918769 -0.005366 0.0
3.124364 1.984897 0.001920 0.0
0.496724 1.827821 -0.000949 0.0
4.185619 2.262648 -0.001537 0.0
2.458917 0.681975 0.003866 0.0
3.254522 2.340578 0.002671 0.0
2.060983 0.390690 0.000064 0.0
1.047916 1.202175 -0.003332 0.0
1.467254 2.030689 0.000064 0.0
2.993619 1.999954 -0.002690 0.0
1.513610 1.100791 0.003161 0.0
2.860298 0.113866 -0.000019 0.0
0.453022 1.725762 -0.001503 0.0
0.513749 1.119889 -0.001441 0.0
1.773108 2.135641 -0.002590 0.0
1.018825 0.758712 -0.011125 0.0
1.957100 1.240315 -0.001605 0.0
3.439561 1.749109 0.002666 0.0
2.860695 0.921679 0.005457 0.0
1.877051 0.513541 -0.001498 0.0
1.739144 1.128407 0.004299 0.0
3.343680 0.484131 -0.003320 0.0
0.462165 2.278038 0.000889 0.0
1.495493 1.228630 -0.000243 0.0
1.334023 1.788498 0.000476 0.0
1.704462 1.174147 0.000013 0.0
3.536495 2.289649 -0.003378 0.0
2.666791 2.022302 -0.002405 0.0
2.164614 2.193684 0.001318 0.0
2.551694 0.751703 -0.001446 0.0
1.372752 1.745987 0.007827 0.0
1.408686 1.184288 -0.002224 0.0
3.539137 1.904542 0.002231 0.0
3.629275 0.085744 -0.000391 0.0
1.960873 2.208195 0.001194 0.0
0.922317 0.408218 0.001138 0.0
3.277035 1.586234 0.003802 0.0
0.552979 1.090011 -0.001581 0.0
0.129316 0.101384 -0.001490 0.0
0.033074 1.182693 -0.002914 0.0
3.417096 1.588320 0.001647 0.0
2.337407 2.154322 -0.000358 0.0
0.975013 1.364493 0.000492 0.0
0.484256 1.719136 -0.000271 0.0
0.684941 0.300743 -0.003145 0.0
3.301697 1.966229 0.002556 0.0
4.044199 2.016815 0.003736 0.0
0.617842 0.970293 0.004201 0.0
0.477213 1.789096 0.004356 0.0
2.088202 0.023494 0.001800 0.0
0.873926 2.279282 -0.002141 0.0
4.246917 0.553973 -0.002289 0.0
2.552910 0.421318 -0.000336 0.0
2.264882 1.845059 -0.001954 0.0
2.026534 1.983532 0.002372 0.0
0.207268 0.483147 0.002329 0.0
1.476218 1.087134 0.001912 0.0
0.596878 1.053050 0.005290 0.0
4.181030 1.074351 -0.002402 0.0
3.567329 0.111346 -0.000473 0.0
1.856206 1.874870 -0.001428 0.0
3.283050 0.228936 -0.000552 0.0
3.402580 1.443255 -0.000961 0.0
2.614402 0.236511 -0.001226 0.0
2.243271 0.260593 0.003300 0.0
1.238607 1.507647 -0.006376 0.0
3.026613 2.162065 0.001906 0.0
3.786307 2.208458 0.000642 0.0
0.131745 0.984520 -0.001672 0.0
0.255590 0.404910 -0.001455 0.0
3.987881 1.153822 -0.002446 0.0
1.332074 2.095492 -0.003897 0.0
2.815922 0.828059 0.003670 0.0
1.167304 0.589546 0.000765 0.0
0.622935 1.165115 0.000626 0.0
1.042434 2.234129 -0.001473 0.0
0.987544 2.263933 0.002763 0.0
2.653154 1.618139 -0.002864 0.0
2.701394 1.093344 0.000601 0.0
2.060725 1.550656 0.002990 0.0
2.613860 0.782048 0.003153 0.0
3.027036 0.733286 -0.001566 0.0
4.181276 2.211249 -0.001438 0.0
2.591048 0.255094 0.002614 0.0
1.575174 1.015911 -0.000529 0.0
0.259005 1.415810 0.005911 0.0
2.299699 0.194248 -0.003577 0.0
3.612116 1.910213 0.000696 0.0
3.690109 1.738690 -0.004155 0.0
3.370495 2.191945 -0.002473 0.0
3.435200 1.627365 0.003149 0.0
2.826316 1.717057 -0.005977 0.0
1.401337 1.304867 0.001989 0.0
1.016423 1.683900 0.002763 0.0
4.272181 1.912231 0.000967 0.0
3.785497 1.734117 -0.003602 0.0
2.748588 0.172766 -0.003222 0.0
2.134574 2.091788 -0.001160 0.0
2.510513 1.324315 0.001279 0.0
4.256452 1.422557 0.003450 0.0
2.801543 1.441263 -0.002791 0.0
0.846736 0.901458 -0.000400 0.0
4.243412 1.272036 -0.000201 0.0
1.612640 1.091599 0.000687 0.0
1.645792 1.872821 -0.000943 0.0
2.720612 2.168787 -0.001950 0.0
2.254873 1.734010 -0.002282 0.0
1.805987 2.264376 -0.001233 0.0
1.305688 2.114600 0.004725 0.0
1.340280 1.414429 0.001554 0.0
2.843712 0.474772 0.000007 0.0
2.227459 1.435098 0.004071 0.0
2.646433 0.150568 -0.000672 0.0
0.828769 0.407429 0.000823 0.0
0.210858 1.904020 0.005235 0.0
4.124057 2.063438 0.002531 0.0
4.234851 2.232367 -0.001150 0.0
2.577874 0.229738 -0.002545 0.0
0.813566 0.979047 0.004110 0.0
3.676970 0.504298 -0.001641 0.0
1.098413 0.611287 -0.000005 0.0
1.998698 1.513211 0.001877 0.0
3.653193 0.251071 -0.000865 0.0
0.063538 0.124433 0.002243 0.0
0.423927 0.356450 0.002351 0.0
1.086888 1.957107 -0.001442 0.0
4.011531 1.185590 0.000340 0.0
1.636361 1.341777 -0.002624 0.0
1.520650 2.067390 -0.000908 0.0
0.270964 1.596121 -0.005113 0.0
1.197415 0.587846 -0.002635 0.0
0.747479 2.057078 -0.003228 0.0
1.547851 0.455045 -0.003065 0.0
0.163863 1.449289 -0.006118 0.0
1.794685 0.062116 0.001414 0.0
3.813656 0.543127 -0.003776 0.0
2.703184 2.335529 0.000243 0.0
1.924349 1.560801 0.000090 0.0
0.665860 1.732957 -0.003693 0.0
3.162543 0.843265 0.000608 0.0
2.390016 0.719521 0.001489 0.0
4.229283 1.470363 -0.001618 0.0
1.306013 0.010344 0.002053 0.0
3.025630 1.724665 0.000216 0.0
1.741337 1.358015 -0.000976 0.0
2.802876 1.042828 -0.003845 0.0
1.372460 0.933122 -0.001864 0.0
0.414235 2.203465 0.002320 0.0
3.141920 2.181622 -0.001200 0.0
3.518167 1.366664 0.002017 0.0
3.287922 2.228419 0.002769 0.0
4.046665 0.823549 -0.000251 0.0
3.045711 1.335596 0.001876 0.0
0.771787 1.787101 0.004773 0.0
3.207127 1.851276 0.001025 0.0
1.038673 1.360654 0.003693 0.0
3.510509 0.534334 0.001172 0.0
4.050261 0.279483 0.002776 0.0
2.689086 0.846081 -0.004518 0.0
1.050286 1.621740 -0.000292 0.0
3.644261 0.234927 -0.000649 0.0
0.681404 1.014217 -0.000222 0.0
3.810169 1.249590 0.002492 0.0
0.134302 0.681481 -0.001894 0.0
3.716063 2.220588 0.001102 0.0
1.663879 0.491854 0.003439 0.0
1.864785 1.581574 -0.001470 0.0
2.816798 1.012114 0.003955 0.0
2.994550 2.038843 0.000646 0.0
1.225418 2.180935 0.002092 0.0
1.288756 2.108797 0.004007 0.0
2.802681 2.149644 0.001358 0.0
3.623981 0.628743 0.002945 0.0
4.233629 0.332345 -0.000177 0.0
1.758450 0.318251 0.002549 0.0
3.641383 0.836231 -0.002101 0.0
1.126001 1.810981 -0.001223 0.0
2.115430 0.607454 0.009105 0.0
3.253538 2.209286 0.000536 0.0
0.247613 2.161698 0.001467 0.0
0.089560 0.911323 0.002291 0.0
1.509210 0.649933 -0.005241 0.0
3.898934 0.681226 0.000490 0.0
0.022090 0.846063 0.001879 0.0
0.820674 2.153095 -0.000862 0.0
2.760420 0.771733 -0.000062 0.0
0.233443 2.115883 -0.001992 0.0
1.317026 1.915512 -0.000616 0.0
3.295097 1.231044 0.001071 0.0
3.803031 1.679528 0.003573 0.0
2.644941 0.324087 0.003458 0.0
2.105587 2.014157 0.002111 0.0
0.206621 1.766373 0.004483 0.0
0.043073 1.872673 0.001660 0.0
1.407984 0.942738 0.001171 0.0
0.443956 0.459600 -0.000236 0.0
1.909176 0.142870 -0.002673 0.0
1.401822 2.102119 0.003489 0.0
3.956582 0.608209 0.000459 0.0
0.427599 0.852220 -0.002701 0.0
3.047466 1.763728 -0.002915 0.0
1.078357 0.486019 0.004578 0.0
1.624918 2.250211 0.000017 0.0
0.044488 1.199583 0.000413 0.0
0.532734 0.212234 -0.000574 0.0
1.531843 1.757766 -0.003822 0.0
0.261947 0.315162 -0.000122 0.0
2.841140 2.284721 0.003043 0.0
3.894552 0.866695 -0.000897 0.0
0.699500 0.230821 -0.001813 0.0
3.724336 1.400656 -0.004511 0.0
0.045824 0.872742 0.002550 0.0
2.867249 0.859266 0.005248 0.0
1.386017 0.700418 -0.000850 0.0
2.506237 0.848001 0.003326 0.0
3.071033 0.102518 0.002932 0.0
1.127703 0.314709 -0.002623 0.0
2.429986 0.515182 0.001345 0.0
0.327554 1.380341 0.004150 0.0
2.956262 0.715519 0.002539 0.0
3.497179 1.436032 0.001381 0.0
1.516193 1.321611 0.000241 0.0
1.920347 1.208668 0.002745 0.0
1.534090 1.022971 0.001885 0.0
3.774940 1.029008 0.003054 0.0
3.226664 0.976914 -0.004628 0.0
1.748105 0.422023 -0.000103 0.0
4.123706 0.998079 -0.000537 0.0
1.495560 1.862540 -0.000955 0.0
3.369395 0.355376 0.004243 0.0
1.624902 2.021656 -0.002947 0.0
2.331079 2.023015 0.001352 0.0
4.151231 1.602774 0.002948 0.0
3.938325 1.819431 0.001157 0.0
2.392239 1.056673 0.003571 0.0
2.188125 0.437672 -0.002857 0.0
1.127712 2.035271 0.003011 0.0
3.473555 2.017114 -0.000853 0.0
1.940106 1.549098 0.000949 0.0
1.081271 0.709241 -0.004894 0.0
3.270088 0.778715 -0.001122 0.0
0.801988 0.771740 0.000313 0.0
1.889022 1.333579 0.000746 0.0
2.598713 0.323830 0.000389 0.0
2.835757 0.912089 0.002086 0.0
1.107795 1.900424 -0.000523 0.0
2.576856 0.451611 0.002012 0.0
0.873994 0.769083 0.002501 0.0
1.497600 2.080749 -0.001005 0.0
2.071795 1.307583 0.002301 0.0
1.486473 0.801182 -0.001423 0.0
1.244072 1.539781 0.004538 0.0
3.716326 1.964923 -0.000562 0.0
0.231536 0.267287 0.001490 0.0
4.208630 1.629379 0.000528 0.0
2.883875 0.188107 0.005484 0.0
1.401277 0.999291 0.000412 0.0
3.463427 2.181386 0.000344 0.0
0.441915 2.236920 0.004960 0.0
1.378890 0.316059 0.000055 0.0
2.001113 0.494610 0.000393 0.0
1.512610 1.507634 -0.000022 0.0
0.437569 1.357085 -0.001671 0.0
1.243368 0.838160 0.001920 0.0
1.814951 0.748762 -0.000428 0.0
2.465114 0.873500 -0.000398 0.0
0.047363 0.452376 -0.004023 0.0
0.115326 1.190962 0.002176 0.0
1.531449 0.266465 -0.000903 0.0
0.641825 2.280518 -0.000158 0.0
3.464309 0.272630 -0.000606 0.0
1.691589 1.323561 -0.001829 0.0
1.076983 0.561535 -0.000956 0.0
2.577314 0.557848 0.000962 0.0
0.528733 0.782025 -0.002532 0.0
0.483626 1.144006 0.002403 0.0
4.246466 1.105108 0.006128 0.0
2.613312 0.018918 -0.005058 0.0
2.903201 2.135337 -0.000441 0.0
0.576875 1.897407 -0.001188 0.0
2.530144 1.407712 0.000265 0.0
0.928695 1.536411 -0.001288 0.0
1.324427 0.470780 -0.003553 0.0
4.205803 1.863073 0.001141 0.0
1.140089 2.340947 0.002314 0.0
0.781992 2.002532 -0.000335 0.0
0.808414 0.795657 -0.001222 0.0
2.579886 0.335873 0.000379 0.0
3.906445 0.843182 -0.003072 0.0
3.722727 1.846917 0.004594 0.0
2.877391 1.732920 0.000798 0.0
2.012370 1.831186 -0.000707 0.0
0.464173 2.282194 0.001451 0.0
3.548624 0.887765 -0.000799 0.0
1.024038 2.080091 -0.000569 0.0
2.157935 1.295182 -0.002260 0.0
0.262050 0.353903 0.002064 0.0
0.234978 1.484480 -0.001538 0.0
1.462435 0.788705 -0.003515 0.0
2.705065 1.202624 0.006078 0.0
1.659203 0.726500 0.002265 0.0
0.064562 1.425950 0.001575 0.0
4.214939 0.299641 0.000642 0.0
3.022565 1.136158 -0.001518 0.0
1.804314 2.172054 0.004692 0.0
3.477865 0.741521 0.002053 0.0
0.709415 1.695482 -0.000620 0.0
3.898341 2.319829 0.000420 0.0
0.218688 1.552281 0.002577 0.0
3.701815 1.629228 -0.000563 0.0
0.019607 2.206539 0.000578 0.0
3.828557 1.704573 0.002473 0.0
2.487013 1.006942 0.005207 0.0
2.553894 0.684160 0.002342 0.0
0.178343 1.999472 0.000981 0.0
0.396252 0.308398 0.001250 0.0
1.942195 1.050899 -0.003161 0.0
0.594261 0.894569 -0.001424 0.0
0.899305 1.580487 0.004272 0.0
3.737024 1.394661 -0.004643 0.0
1.111164 1.766324 0.002229 0.0
0.357983 2.049334 0.002243 0.0
1.810220 2.049078 -0.001644 0.0
0.800854 1.299065 -0.003901 0.0
3.612216 1.181874 -0.002537 0.0
0.888576 0.798595 -0.001032 0.0
2.517791 1.151172 -0.001497 0.0
3.530425 2.231011 -0.000510 0.0
2.485507 2.036172 0.003462 0.0
3.809972 2.005685 -0.000410 0.0
0.524338 0.141045 -0.001182 0.0
4.057628 2.229050 0.000451 0.0
2.471726 1.559231 -0.003290 0.0
0.105071 1.981279 -0.002222 0.0
4.002048 1.128371 -0.001523 0.0
1.231816 0.105726 0.006009 0.0
0.650386 2.254211 0.000869 0.0
1.852909 1.264724 -0.000147 0.0
1.009124 0.951491 -0.001638 0.0
3.886806 0.816272 0.001135 0.0
4.235235 1.381864 -0.004689 0.0
1.354999 1.861143 -0.001008 0.0
3.253235 2.016840 0.002396 0.0
0.767950 1.243371 0.002577 0.0
2.912128 1.235913 -0.001734 0.0
1.494331 1.163827 0.003430 0.0
1.765420 1.555322 0.004247 0.0
0.057260 1.587506 -0.001581 0.0
4.154677 0.635658 -0.001301 0.0
1.702584 1.445355 0.000747 0.0
1.068648 1.952845 -0.000848 0.0
2.652304 0.213056 -0.001920 0.0
3.530891 1.793458 0.000558 0.0
4.167655 1.788289 0.000817 0.0
3.877910 1.788115 0.001412 0.0
2.539112 0.260039 0.005623 0.0
4.012981 2.013736 -0.000055 0.0
3.747737 0.692849 -0.001018 0.0
0.024806 1.657574 0.003510 0.0
2.123739 2.235284 0.000819 0.0
3.286074 2.103567 -0.001781 0.0
3.924362 1.922026 -0.002477 0.0
1.751870 0.592667 -0.000691 0.0
0.403060 0.354619 0.001481 0.0
1.978900 2.056464 0.000918 0.0
2.675359 1.171887 0.001386 0.0
2.016342 0.206566 -0.002590 0.0
2.152533 0.117223 0.002623 0.0
0.767867 1.495115 -0.005240 0.0
0.111834 0.761369 -0.003471 0.0
1.793341 1.164949 0.004232 0.0
1.254929 1.883929 -0.000228 0.0
3.998883 0.015877 0.003298 0.0
0.095805 1.328025 -0.002734 0.0
2.093897 0.804294 -0.001016 0.0
0.247217 1.314893 0.000579 0.0
1.122184 2.143015 -0.000553 0.0
2.087086 0.889171 0.002499 0.0
1.779245 1.077508 0.001694 0.0
0.550370 0.760769 0.002741 0.0
0.615012 1.026057 0.003069 0.0
1.113687 0.481517 -0.002308 0.0
3.770466 1.268755 0.000721 0.0
2.223648 0.645247 -0.001843 0.0
2.209046 0.843365 0.001691 0.0
3.398571 2.311920 0.002072 0.0
3.793926 0.032756 -0.002415 0.0
4.116839 1.273897 0.001802 0.0
0.355051 0.220049 0.000892 0.0
1.644073 0.878056 0.000536 0.0
0.686453 0.878608 0.001231 0.0
0.377837 2.242851 0.002623 0.0
2.949429 1.563086 0.001746 0.0
0.792350 0.340849 -0.000090 0.0
0.856484 1.128110 0.005211 0.0
3.501052 0.106734 -0.001011 0.0
2.924040 1.936903 0.001738 0.0
1.041892 1.904348 -0.002023 0.0
4.056303 1.849305 -0.003469 0.0
1.511899 0.750515 0.005046 0.0
0.965562 1.821649 -0.001401 0.0
0.744662 1.551089 0.000730 0.0
3.739799 2.126441 -0.000337 0.0
3.714984 0.274349 -0.002628 0.0
0.075368 1.643352 -0.001532 0.0
1.468019 1.749702 -0.000592 0.0
2.891680 0.544208 -0.000129 0.0
3.374657 0.897336 -0.004978 0.0
0.757939 2.324432 -0.002273 0.0
1.118985 2.259562 -0.003929 0.0
0.498593 0.422263 -0.002112 0.0
3.422574 1.820682 -0.000401 0.0
2.896835 0.096034 -0.000185 0.0
1.154265 0.152398 -0.000186 0.0
3.403687 0.535982 0.001502 0.0
1.050724 1.406940 0.005473 0.0
2.309450 1.099333 -0.001611 0.0
3.492313 0.592196 -0.000730 0.0
4.056344 1.704236 -0.002177 0.0
0.920417 0.034889 0.003279 0.0
2.434254 0.629518 -0.001660 0.0
0.454898 1.426287 -0.001026 0.0
2.881325 2.151788 0.004830 0.0
0.203898 1.771967 -0.000814 0.0
4.218280 1.434135 0.002007 0.0
0.989627 1.089689 -0.000849 0.0
4.264545 0.899110 0.001361 0.0
4.256909 2.141097 0.001002 0.0
3.910281 1.595206 -0.004794 0.0
1.419424 0.244003 -0.001249 0.0
3.868751 0.632169 -0.001256 0.0
0.861530 0.554548 0.003064 0.0
2.634166 1.583861 0.000831 0.0
3.089712 0.115609 -0.000422 0.0
0.362619 1.531718 0.000587 0.0
2.096618 0.586819 -0.002044 0.0
1.945259 0.566179 -0.004322 0.0
3.790486 1.704631 -0.002762 0.0
2.438547 1.728729 -0.004278 0.0
3.588764 1.240382 0.001188 0.0
3.368025 0.009382 0.002344 0.0
3.770212 0.285405 0.002665 0.0
0.939068 0.109393 -0.001133 0.0
2.355769 1.579302 -0.002864 0.0
0.199392 1.114330 -0.001951 0.0
0.701326 1.475366 0.004918 0.0
3.528955 1.778241 -0.000754 0.0
2.139734 1.273059 0.002436 0.0
1.414861 1.883760 -0.002495 0.0
2.958442 0.169158 0.004344 0.0
1.943708 1.117044 -0.000347 0.0
3.156888 0.178628 0.002995 0.0
0.347010 1.682260 0.000120 0.0
0.472492 1.671076 0.006203 0.0
1.966379 1.256701 0.004633 0.0
3.914190 1.906347 0.001265 0.0
3.422990 0.079600 0.000153 0.0
4.200387 2.142475 0.002695 0.0
1.298010 1.606277 -0.001438 0.0
3.723136 1.028763 0.003878 0.0
3.534358 0.688617 0.000085 0.0
0.838497 0.087510 -0.000728 0.0
3.933150 2.192666 -0.001907 0.0
3.677261 0.584791 0.001906 0.0
1.667892 0.751903 0.000212 0.0
2.441563 0.519479 -0.002496 0.0
0.867241 0.715095 -0.001262 0.0
0.902370 0.681827 0.003070 0.0
3.710884 2.078309 -0.002904 0.0
1.969599 0.715774 0.001567 0.0
2.357373 0.744601 -0.000139 0.0
4.083968 0.557664 0.003362 0.0
1.945377 2.190827 0.000594 0.0
2.537498 1.018935 -0.000289 0.0
3.012612 0.656046 0.002434 0.0
2.974343 0.817750 0.002087 0.0
3.601690 1.787629 -0.000964 0.0
4.083178 1.204341 -0.000700 0.0
1.122991 0.024418 -0.000001 0.0
1.312177 1.731404 -0.002321 0.0
0.595189 0.307133 -0.001247 0.0
4.099802 2.154127 0.002411 0.0
0.469232 2.298821 0.001517 0.0
3.244326 0.797400 0.001319 0.0
4.273466 2.072410 -0.000903 0.0
2.044975 0.099877 -0.001379 0.0
2.668300 0.221186 -0.004763 0.0
3.896679 0.491842 -0.007221 0.0
1.641583 2.118417 -0.000313 0.0
2.731375 1.447795 -0.002078 0.0
0.594480 0.704089 0.004797 0.0
1.987503 0.261969 -0.002428 0.0
2.517144 1.268098 0.001510 0.0
2.102499 1.274344 0.001179 0.0
0.900451 1.056568 -0.000345 0.0
3.896994 0.010053 -0.002283 0.0
0.889479 1.643180 0.000215 0.0
1.713887 0.133039 0.001024 0.0
4.019310 0.939145 -0.001556 0.0
2.872111 2.228493 -0.000157 0.0
0.146541 2.142475 -0.002305 0.0
0.316044 0.075074 0.000637 0.0
1.644635 1.591362 0.005278 0.0
2.063629 1.891030 -0.002090 0.0
2.141587 2.289718 0.003302 0.0
3.966124 1.584544 0.003223 0.0
0.637832 1.072796 0.002276 0.0
1.088322 1.277791 -0.000848 0.0
0.102781 1.831274 -0.000475 0.0
3.003074 1.640859 -0.000777 0.0
4.237235 0.106603 0.003918 0.0
1.672965 1.713329 -0.000054 0.0
1.809427 2.223585 -0.000039 0.0
1.361742 2.009741 0.001981 0.0
3.092122 0.554890 -0.004007 0.0
0.524702 2.192437 -0.003917 0.0
1.246190 0.735121 0.000095 0.0
4.179545 0.287784 0.000880 0.0
3.614012 2.112155 -0.000400 0.0
2.194657 1.910571 0.000994 0.0
0.900527 0.978844 -0.001891 0.0
1.250856 0.218783 -0.004996 0.0
1.836582 1.648810 0.002357 0.0
0.749190 0.326553 0.001868 0.0
1.098235 1.381872 -0.001962 0.0
3.544053 0.917268 -0.001190 0.0
2.990358 1.983761 0.001696 0.0
0.824275 1.478024 -0.000140 0.0
1.795747 1.747328 -0.001215 0.0
0.453090 0.013095 0.003020 0.0
3.756620 0.788756 0.002424 0.0
1.388941 0.894474 -0.002211 0.0
3.095389 1.859266 0.000613 0.0
1.453150 0.078358 0.002377 0.0
3.238308 2.229670 -0.002795 0.0
1.535679 0.743736 0.002145 0.0
3.761816 0.272933 -0.001905 0.0
2.811722 0.954924 0.002696 0.0
1.700172 1.505477 0.001727 0.0
0.552115 0.022516 0.002336 0.0
1.913160 1.660057 0.000509 0.0
1.533031 1.982187 -0.001963 0.0
1.052279 0.755569 -0.000466 0.0
3.061675 2.062625 -0.002451 0.0
1.057203 0.656088 -0.001326 0.0
3.334329 1.414183 0.000433 0.0
1.203086 2.286524 0.005054 0.0
3.506930 2.243733 -0.002816 0.0
1.603058 1.498933 -0.000271 0.0
1.102013 0.063072 -0.001291 0.0
3.281179 1.648839 -0.000896 0.0
3.221387 0.476346 -0.002974 0.0
1.797694 1.637070 -0.001691 0.0
3.340791 2.206053 -0.000939 0.0
2.892375 1.945874 0.000482 0.0
2.368312 2.132151 0.000953 0.0
2.555901 0.554662 0.001681 0.0
0.225912 1.859565 -0.000881 0.0
0.295598 2.284481 0.000392 0.0
1.523558 1.338725 0.002177 0.0
4.135637 1.825042 0.007907 0.0
2.050269 2.152409 -0.000678 0.0
1.883139 1.508826 -0.000044 0.0
0.212325 0.551234 0.002082 0.0
1.361364 1.343340 0.003713 0.0
3.341720 0.900543 0.002924 0.0
3.168076 0.545106 0.000013 0.0
3.169048 1.625728 -0.000500 0.0
1.498848 1.065859 0.004624 0.0
2.814075 0.814359 0.001015 0.0
1.444456 0.164500 -0.002254 0.0
1.492765 0.460566 -0.001766 0.0
2.972639 1.609085 0.001145 0.0
2.648056 1.829558 -0.000006 0.0
2.385446 0.041697 0.001249 0.0
0.669062 0.349107 -0.002007 0.0
2.917385 0.672496 -0.001491 0.0
0.750095 0.869384 0.000004 0.0
1.864271 0.284679 0.000921 0.0
2.097191 0.260588 0.000543 0.0
1.258562 1.991838 0.001996 0.0
1.932534 2.025021 0.000356 0.0
1.012559 1.972877 0.001253 0.0
1.623251 1.030116 -0.002949 0.0
2.664697 0.351578 -0.002819 0.0
3.374743 0.869685 -0.002783 0.0
2.150093 0.950236 0.003696 0.0
1.658918 1.495918 0.002106 0.0
2.403008 1.838953 -0.003032 0.0
1.486079 1.162276 0.001610 0.0
0.018540 0.143588 -0.001510 0.0
2.985438 0.338467 -0.001277 0.0
1.643209 0.220880 0.002849 0.0
3.714956 0.222607 0.000184 0.0
2.193267 1.666986 -0.000187 0.0
4.096119 0.598968 0.001338 0.0
3.539989 0.730865 -0.002105 0.0
0.340717 1.271860 0.001302 0.0
1.513445 1.985501 -0.001985 0.0
1.444747 2.111395 -0.003955 0.0
1.382616 1.054819 0.000111 0.0
3.493457 2.109150 0.000213 0.0
3.164749 0.655192 -0.001494 0.0
1.665097 0.065417 -0.000093 0.0
2.168003 1.443577 0.000127 0.0
2.939789 1.657216 -0.004195 0.0
1.097667 1.092006 0.007467 0.0
3.202935 2.040817 0.000626 0.0
1.383933 1.504657 -0.002452 0.0
3.533063 1.678868 0.004813 0.0
1.686582 0.948872 0.001487 0.0
1.807860 1.159406 0.000655 0.0
1.292950 1.588562 0.001005 0.0
0.590822 1.826413 0.003522 0.0
1.192209 0.872182 0.002738 0.0
0.150058 0.878860 0.003324 0.0
4.031951 2.328405 0.000656 0.0
3.395726 0.217430 0.000321 0.0
2.637300 2.104664 -0.000137 0.0
2.525627 0.098425 0.004007 0.0
2.606184 0.519021 0.002255 0.0
3.291774 0.799268 0.001143 0.0
3.020358 0.488296 -0.005948 0.0
4.193807 0.633406 -0.001855 0.0
4.258114 1.599349 0.001944 0.0
1.592234 1.219549 -0.001821 0.0
3.546530 1.780777 0.001677 0.0
0.931330 0.595131 0.003088 0.0
2.766964 1.313621 0.001545 0.0
2.504812 2.164076 0.001025 0.0
3.441627 0.309724 0.000699 0.0
2.134636 1.076643 0.001931 0.0
2.559139 2.047895 -0.001396 0.0
2.132105 0.391753 -0.001184 0.0
2.863639 1.810257 -0.000073 0.0
2.861581 1.268136 -0.001946 0.0
3.403615 0.251336 -0.003878 0.0
3.608436 1.548875 0.002046 0.0
3.929851 1.669633 -0.000819 0.0
3.394505 1.154364 0.000921 0.0
0.423580 0.126905 0.000670 0.0
3.489056 2.043227 -0.001082 0.0
4.076127 1.836324 0.003385 0.0
2.804187 0.252350 0.003795 0.0
2.748881 1.974401 -0.000972 0.0
1.236602 1.330923 0.000052 0.0
3.652169 0.265823 -0.000658 0.0
2.668151 0.304825 0.001445 0.0
3.581891 0.886625 -0.002656 0.0
3.962272 0.373179 0.000931 0.0
2.284688 0.997985 0.002009 0.0
2.414333 0.678226 0.001423 0.0
3.078768 1.687748 0.001967 0.0
1.233465 1.461956 0.002762 0.0
1.098472 1.936426 -0.000681 0.0
2.744345 1.207118 0.000744 0.0
2.570614 0.719024 -0.002838 0.0
1.431872 0.319426 0.003135 0.0
2.065767 0.183760 -0.000043 0.0
1.814247 0.200382 0.002794 0.0
3.960439 1.924528 0.000655 0.0
4.154554 1.613247 0.000924 0.0
2.430002 1.910755 -0.002005 0.0
0.469616 0.994797 0.002105 0.0
1.034968 0.861910 0.000000 0.0
4.014062 1.464631 0.003650 0.0
3.063984 0.282039 -0.002810 0.0
2.967167 2.020295 -0.000996 0.0
1.649307 0.357586 -0.002120 0.0
3.269196 1.269424 0.001030 0.0
2.353286 0.429183 -0.002013 0.0
3.645865 1.730231 0.002116 0.0
3.640469 1.482471 0.001029 0.0
2.995947 1.662831 -0.003100 0.0
1.919525 2.121270 -0.007081 0.0
2.295414 1.634160 -0.002989 0.0
1.626370 0.012162 0.003080 0.0
3.095506 0.884097 0.002697 0.0
0.456156 0.731010 0.000724 0.0
3.497230 0.480529 0.002006 0.0
2.631755 0.796249 0.001592 0.0
1.328814 1.249246 0.000286 0.0
3.262185 0.063986 -0.003452 0.0
1.766731 0.840474 -0.000267 0.0
4.061678 1.925615 0.001111 0.0
1.747896 1.914540 0.002150 0.0
4.074731 1.822028 -0.001084 0.0
3.198757 1.241484 0.003561 0.0
3.370931 0.681149 0.000337 0.0
3.077508 1.679409 -0.002725 0.0
3.202435 0.199594 0.000318 0.0
2.546494 0.379649 -0.001213 0.0
3.348948 0.229739 0.001296 0.0
0.810500 1.304546 -0.002502 0.0
3.919721 1.675348 0.005259 0.0
2.751876 2.294356 -0.004096 0.0
0.675226 1.482045 -0.001114 0.0
4.263962 2.303388 0.001649 0.0
3.158781 1.967078 -0.002727 0.0
2.812536 0.631108 0.001224 0.0
3.611143 0.530091 -0.004422 0.0
4.033422 2.171124 0.000624 0.0
3.624553 0.106475 0.000946 0.0
2.870878 1.176103 0.002596 0.0
2.897228 0.674585 0.002597 0.0
3.077348 1.590043 0.002008 0.0
2.632531 1.750247 -0.001082 0.0
2.353942 0.252707 -0.000922 0.0
1.479806 1.383865 0.003155 0.0
1.999804 1.409384 0.000842 0.0
1.109070 1.276794 -0.001073 0.0
0.351055 0.435681 -0.000182 0.0
1.508357 0.394595 -0.002334 0.0
2.498509 0.729861 0.004048 0.0
1.233770 0.578799 -0.002877 0.0
0.127650 0.645015 0.002462 0.0
0.253966 0.040765 -0.000164 0.0
0.658726 1.079520 -0.005695 0.0
3.634062 0.235363 -0.001862 0.0
0.548929 0.805568 -0.001679 0.0
1.802548 0.716244 -0.002381 0.0
4.075536 2.193636 -0.000017 0.0
0.809930 1.504952 -0.002068 0.0
2.165061 0.274947 0.003030 0.0
0.324181 1.416588 -0.001095 0.0
1.152793 0.033691 0.001242 0.0
1.400690 0.976658 0.001680 0.0
1.833840 1.733576 -0.002257 0.0
3.285927 1.566428 0.002454 0.0
0.101216 1.448632 0.000381 0.0
2.210856 1.600467 0.000690 0.0
2.487372 1.060095 0.003476 0.0
2.797746 1.082626 0.000063 0.0
3.911241 1.592034 0.000392 0.0
1.300002 2.061136 -0.000696 0.0
0.933758 2.266696 -0.001983 0.0
1.980618 0.695155 0.000275 0.0
3.305454 2.313711 -0.000955 0.0
0.323228 0.617761 -0.000198 0.0
2.189328 1.571379 -0.001907 0.0
3.977762 0.466231 0.004169 0.0
0.912319 2.200680 0.000460 0.0
3.069316 1.871282 -0.001670 0.0
1.949283 1.944750 -0.002473 0.0
3.634250 1.602992 -0.000431 0.0
1.581591 2.176545 0.000879 0.0
3.650340 1.723033 -0.000473 0.0
1.025773 1.575745 0.002380 0.0
0.899053 2.221641 -0.003100 0.0
3.986048 0.825605 -0.002180 0.0
2.043574 1.092754 0.000238 0.0
0.438295 1.228986 0.000777 0.0
3.716278 1.718207 -0.004688 0.0
3.587582 0.477061 0.000762 0.0
0.106119 0.857187 -0.003482 0.0
1.058691 0.049306 -0.000520 0.0
0.291357 0.666872 0.000551 0.0
0.162261 2.161775 0.000596 0.0
1.324693 0.477936 0.001530 0.0
1.754010 0.715591 -0.000473 0.0
4.058974 1.997103 0.000541 0.0
0.584671 1.764888 0.001209 0.0
0.607116 1.472163 0.001806 0.0
1.923401 1.967266 -0.002622 0.0
2.659180 0.077695 -0.000592 0.0
1.837035 1.869554 -0.001650 0.0
2.552181 1.545766 -0.003784 0.0
0.963739 1.803923 -0.000453 0.0
3.743067 0.286023 0.005741 0.0
1.143524 1.309718 0.003125 0.0
3.733137 1.314496 0.003910 0.0
2.385625 0.895853 -0.003264 0.0
1.236952 0.670511 -0.003985 0.0
2.624883 0.938513 -0.000064 0.0
1.785965 1.507323 -0.001280 0.0
1.063850 1.326210 0.001975 0.0
2.872853 0.274881 -0.000005 0.0
1.432389 0.190938 -0.002479 0.0
0.642741 0.955593 -0.004313 0.0
2.881269 0.645403 -0.000599 0.0
3.289685 0.829596 -0.000360 0.0
1.332458 0.014098 0.000227 0.0
2.646380 0.685369 -0.002713 0.0
3.268827 0.940988 -0.003221 0.0
3.965211 1.772008 0.001442 0.0
3.823482 2.163340 0.002695 0.0
2.180185 2.063815 -0.001668 0.0
3.275964 2.191244 -0.000762 0.0
