3.414113 1.012345 0.000123 0.0
0.320160 0.526593 -0.001336 0.0
3.949021 2.416761 -0.000255 0.0
2.103797 0.400291 0.002899 0.0
4.105542 0.921727 -0.005032 0.0
3.520057 0.305848 0.003800 0.0
0.552486 0.472579 -0.000088 0.0
1.980999 1.185738 -0.003412 0.0
3.721689 0.664783 0.000788 0.0
3.840460 1.257413 0.000363 0.0
3.540724 0.715953 0.000257 0.0
3.929182 0.455197 0.000625 0.0
1.671004 0.959368 0.001791 0.0
0.556309 0.394382 -0.003605 0.0
4.010118 1.021496 0.002588 0.0
3.582277 1.973457 0.001091 0.0
0.977811 0.805265 -0.000186 0.0
3.096033 1.958994 -0.000191 0.0
1.343271 2.078408 0.003927 0.0
0.815277 0.983505 0.003419 0.0
3.229761 1.597125 -0.000924 0.0
1.111410 2.329293 -0.000788 0.0
2.032403 0.113274 -0.001377 0.0
3.822013 0.611497 0.003365 0.0
4.214330 2.212191 0.000293 0.0
3.250726 1.753522 -0.000633 0.0
2.503713 0.002904 -0.003044 0.0
0.391427 0.814687 -0.003175 0.0
0.882172 2.136601 -0.000998 0.0
3.843582 0.315003 -0.000312 0.0
0.858633 1.070969 0.000619 0.0
0.955018 -0.000056 0.001283 0.0
0.052341 0.764462 -0.001313 0.0
3.211316 2.412058 -0.000394 0.0
3.964377 1.345839 0.000231 0.0
0.520589 1.813691 0.005553 0.0
0.799717 0.600129 0.000982 0.0
1.334698 1.974506 -0.002686 0.0
3.530824 1.378848 -0.000696 0.0
2.040540 2.139236 0.000155 0.0
3.157894 2.307317 0.005934 0.0
0.348083 0.436938 0.000042 0.0
0.148503 0.344695 -0.000066 0.0
0.278349 1.587288 -0.000240 0.0
3.812163 1.267517 0.000350 0.0
1.834239 2.056432 0.000427 0.0
0.255028 1.905263 -0.001650 0.0
2.299507 0.726033 -0.000715 0.0
0.804148 2.114826 0.000937 0.0
1.763236 0.680333 -0.000220 0.0
0.494450 0.998880 -0.000184 0.0
0.640523 1.306295 0.004330 0.0
2.060281 0.508748 -0.005124 0.0
2.688988 0.570471 -0.007057 0.0
1.031861 0.547185 -0.000189 0.0
4.352136 2.067669 0.004971 0.0
1.227650 1.156414 0.001028 0.0
0.775463 1.679622 -0.001759 0.0
3.110859 1.862368 0.003284 0.0
1.767853 0.356280 -0.001210 0.0
0.144997 0.534211 -0.000242 0.0
1.713594 1.910415 0.001232 0.0
4.236112 1.274520 0.001039 0.0
1.255889 2.142430 -0.006374 0.0
2.166895 1.241841 0.001349 0.0
4.366405 2.441706 0.002103 0.0
1.605949 0.920099 0.000745 0.0
1.418181 1.522285 0.003674 0.0
4.248060 1.263001 0.009267 0.0
2.956924 0.793000 0.000049 0.0
1.701312 1.735265 -0.000172 0.0
1.822319 2.281510 0.000987 0.0
1.978040 0.515479 -0.002093 0.0
1.629957 1.680999 -0.000956 0.0
3.783724 1.910578 0.002543 0.0
1.819542 2.100670 -0.003049 0.0
2.408352 1.986197 -0.006067 0.0
0.625033 0.202114 0.000629 0.0
0.154673 0.535022 0.005914 0.0
1.558882 0.913517 0.003373 0.0
2.442162 2.398595 -0.004050 0.0
2.104230 0.652274 -0.002511 0.0
1.542450 0.696095 0.004017 0.0
0.777155 1.787879 0.000026 0.0
2.686701 1.199659 -0.001081 0.0
2.756703 2.068156 0.000352 0.0
3.959809 2.117945 0.000799 0.0
2.346115 1.166215 -0.002703 0.0
3.350410 0.445980 0.001132 0.0
0.774011 0.625141 0.000911 0.0
0.267468 1.372433 0.001112 0.0
1.545743 1.141914 -0.001769 0.0
0.553510 1.603922 0.000688 0.0
3.118722 0.384584 -0.000947 0.0
2.594194 1.263500 0.002568 0.0
3.064401 1.644043 0.000424 0.0
2.521777 1.851115 -0.001120 0.0
3.261608 1.363844 0.002719 0.0
1.688600 0.044017 -0.001031 0.0
2.330241 0.872936 -0.006534 0.0
3.720988 2.429281 -0.000442 0.0
3.046962 1.276590 0.003816 0.0
1.205725 0.771899 0.003871 0.0
0.059156 1.822682 0.002815 0.0
0.269035 1.136220 -0.003143 0.0
3.647460 1.083129 -0.000923 0.0
1.019882 0.927317 -0.001769 0.0
4.338955 0.948234 0.004145 0.0
2.197590 2.196817 0.001923 0.0
2.701372 1.311722 0.000800 0.0
2.646353 1.809414 0.002398 0.0
3.186847 1.600128 -0.000936 0.0
3.191386 2.023276 0.000754 0.0
1.910909 0.751066 0.001456 0.0
4.087850 0.807563 -0.000743 0.0
1.146249 0.951845 -0.002626 0.0
3.086342 0.086501 0.002775 0.0
0.408253 0.751520 -0.003564 0.0
0.439238 1.494124 -0.001765 0.0
3.036571 2.394378 0.006860 0.0
1.308589 2.253116 -0.000540 0.0
0.315345 1.965343 -0.005325 0.0
3.674715 0.241639 -0.004000 0.0
3.925109 1.601970 -0.000098 0.0
0.361022 2.203413 -0.002622 0.0
0.050600 2.348325 -0.002588 0.0
0.586209 1.395885 0.003440 0.0
3.935366 0.359243 0.001717 0.0
4.148561 1.823293 -0.000918 0.0
2.445029 2.439509 0.000201 0.0
3.393287 0.011212 -0.001069 0.0
3.003281 0.389586 0.001345 0.0
2.342692 0.402290 -0.000059 0.0
1.689026 1.228869 0.000307 0.0
3.878816 0.394351 0.002273 0.0
0.398815 1.276257 -0.001139 0.0
1.091332 1.845765 0.001375 0.0
4.142038 1.779347 -0.002914 0.0
2.837594 1.043782 -0.002381 0.0
3.930167 0.675256 0.000646 0.0
1.336563 2.294923 -0.000170 0.0
2.534872 1.551185 -0.004930 0.0
0.334402 0.875149 0.002950 0.0
1.403364 1.472769 0.001348 0.0
1.608793 0.805198 0.000763 0.0
3.614516 1.746240 -0.000648 0.0
2.381575 1.211312 -0.003284 0.0
0.794240 1.540633 -0.001981 0.0
1.991473 0.271222 -0.001417 0.0
4.121599 0.837934 0.000290 0.0
3.731369 1.078045 0.004984 0.0
3.531261 1.545571 -0.000955 0.0
4.078310 2.208690 -0.005001 0.0
0.039748 0.145173 0.001572 0.0
4.113008 1.601966 -0.002450 0.0
3.921258 0.879049 -0.002744 0.0
0.974361 1.514003 -0.003074 0.0
4.276378 0.213557 0.002021 0.0
0.870365 0.902810 -0.001504 0.0
1.443611 2.116313 0.000190 0.0
0.188512 2.386101 0.000361 0.0
3.538114 1.539767 -0.002950 0.0
3.978600 0.279911 0.002204 0.0
1.145279 1.692429 -0.000959 0.0
0.977648 0.216444 -0.001832 0.0
2.176479 1.952184 0.003405 0.0
3.836582 1.373207 0.003144 0.0
4.063803 0.691226 -0.001114 0.0
3.841155 1.304797 0.004473 0.0
1.461920 0.206871 0.000547 0.0
4.184489 2.320036 0.002570 0.0
1.978686 1.401759 -0.000197 0.0
3.959608 2.186251 -0.001984 0.0
2.975558 0.598367 -0.000429 0.0
1.525695 2.050599 -0.000357 0.0
4.128695 2.134140 0.000772 0.0
1.468867 0.928627 0.003019 0.0
0.995955 2.394619 0.000790 0.0
2.636906 2.063668 -0.003101 0.0
2.475983 1.872936 -0.002410 0.0
1.132724 2.003553 -0.002266 0.0
2.366111 1.736669 0.000467 0.0
3.394635 0.225031 -0.004090 0.0
2.995863 1.602376 0.002706 0.0
0.815951 1.495270 -0.001883 0.0
1.172051 0.373925 -0.001883 0.0
2.060871 0.356181 -0.001008 0.0
3.252254 0.363527 0.002735 0.0
2.941613 0.349290 0.002001 0.0
1.413764 2.364360 0.001882 0.0
1.151402 1.094880 -0.003806 0.0
3.779824 0.598213 -0.002569 0.0
1.648163 1.325378 0.003225 0.0
3.564208 2.196254 -0.000480 0.0
0.712922 0.553853 0.001452 0.0
1.885654 1.541122 -0.003043 0.0
3.418987 0.041120 -0.000612 0.0
2.677108 1.620356 -0.002257 0.0
2.119851 0.683470 -0.001296 0.0
2.039302 0.397702 -0.000874 0.0
0.332710 0.265494 0.000612 0.0
3.976631 2.258753 -0.003757 0.0
2.500276 0.135664 0.000899 0.0
1.013812 1.185552 0.001579 0.0
3.749941 0.391635 -0.004565 0.0
1.546910 0.517753 0.002605 0.0
3.586811 0.571688 0.003553 0.0
2.392042 0.142369 -0.000092 0.0
2.152436 0.329038 -0.003135 0.0
0.994714 1.207719 0.001986 0.0
0.114296 2.277047 0.002637 0.0
1.427636 0.135669 0.001880 0.0
2.387670 1.161623 0.003408 0.0
0.619265 0.878397 0.005193 0.0
2.118275 1.242192 -0.004970 0.0
1.300987 1.537371 -0.003260 0.0
2.251016 1.364527 0.005057 0.0
3.280891 0.092225 0.002281 0.0
3.728535 2.420974 -0.002842 0.0
3.368563 0.740678 -0.000571 0.0
3.444617 0.665893 -0.002618 0.0
4.122798 0.589820 -0.001563 0.0
2.222365 1.022036 0.000467 0.0
1.878992 0.646009 0.003005 0.0
3.217352 2.295560 -0.000784 0.0
1.961992 0.748110 -0.004492 0.0
0.898299 1.957771 -0.004889 0.0
4.359165 0.847568 -0.001683 0.0
4.165218 2.291853 -0.002909 0.0
0.034975 2.074003 0.002096 0.0
0.432395 2.245260 0.000116 0.0
2.109370 2.051742 -0.002320 0.0
4.114966 0.134918 -0.001867 0.0
1.743138 1.390854 -0.006337 0.0
2.557527 1.434598 -0.005761 0.0
1.863479 1.156007 0.004290 0.0
2.689539 1.992489 -0.003034 0.0
2.790473 1.462302 0.001514 0.0
2.926056 1.788682 -0.004116 0.0
4.376497 1.717532 0.000925 0.0
0.727375 2.394331 0.004685 0.0
2.288458 0.429638 -0.000204 0.0
1.713413 1.838254 -0.001385 0.0
2.405469 0.962268 0.000585 0.0
0.970652 0.366978 0.002815 0.0
1.609318 0.948219 0.001350 0.0
2.971235 0.021190 -0.003152 0.0
3.631814 2.049319 -0.000248 0.0
1.155798 1.032159 0.001096 0.0
1.874671 0.063212 -0.005048 0.0
3.693902 2.411761 -0.000211 0.0
1.964348 2.068017 0.002154 0.0
0.621916 1.960949 0.000423 0.0
2.244410 1.208955 0.000478 0.0
0.003768 0.360301 -0.003593 0.0
1.337503 0.739466 -0.001922 0.0
2.993467 1.268639 0.000438 0.0
1.757572 0.737350 0.002113 0.0
2.732705 1.197987 -0.003433 0.0
3.641776 2.314301 0.006014 0.0
0.343659 2.278208 0.001750 0.0
2.124965 0.181537 -0.003070 0.0
3.038929 1.440135 -0.001435 0.0
0.197229 1.614909 -0.000360 0.0
3.030840 0.696568 0.000324 0.0
3.513485 1.617343 0.000001 0.0
0.997748 1.775284 0.000197 0.0
2.729462 0.783645 0.001975 0.0
4.279366 0.204643 0.001302 0.0
1.069861 0.972790 0.003284 0.0
1.204213 0.566449 0.003538 0.0
2.752254 0.538515 0.002069 0.0
0.351201 0.132325 -0.004019 0.0
2.841708 1.130767 -0.002516 0.0
0.909156 1.480435 -0.003331 0.0
0.828056 2.039749 0.002630 0.0
1.101378 0.595653 0.000679 0.0
3.441289 1.133154 -0.001167 0.0
2.642562 2.061157 -0.001323 0.0
1.370457 1.221054 -0.002876 0.0
0.704504 2.282271 -0.002292 0.0
2.215712 1.928822 -0.003674 0.0
1.730636 1.655661 -0.002341 0.0
2.734832 1.563112 -0.002224 0.0
1.710645 0.193829 0.002442 0.0
3.494797 2.171579 0.000665 0.0
4.061381 1.162747 -0.001196 0.0
2.159841 1.024884 -0.000821 0.0
1.252922 1.475339 -0.001813 0.0
2.233221 1.748256 0.002983 0.0
1.930897 0.861502 0.000694 0.0
4.122670 2.279694 -0.000595 0.0
1.380570 0.402764 -0.000252 0.0
2.158326 0.063510 -0.000527 0.0
3.776974 0.686849 -0.000860 0.0
2.065349 0.527467 0.002207 0.0
3.780853 1.626227 0.001305 0.0
0.643486 0.407144 0.000908 0.0
2.749950 2.186975 -0.006216 0.0
1.863462 0.071493 -0.002039 0.0
2.158434 0.902139 -0.000313 0.0
0.394109 1.568465 -0.001396 0.0
0.035309 2.284344 0.000723 0.0
3.066577 0.433509 0.001394 0.0
2.066636 1.950732 -0.001378 0.0
2.148357 2.096599 -0.003197 0.0
3.367985 1.031346 -0.003196 0.0
2.209422 1.160321 -0.002261 0.0
1.113183 0.154249 0.000344 0.0
3.740546 1.884193 0.002305 0.0
2.325116 0.520707 -0.001388 0.0
4.382613 2.367006 0.000734 0.0
0.451083 1.756458 0.000946 0.0
3.691680 1.621619 0.004314 0.0
1.156695 0.638413 0.002304 0.0
1.789964 0.576874 -0.000467 0.0
2.572447 1.652099 -0.001350 0.0
2.489687 0.163229 -0.004348 0.0
3.574024 1.106424 0.001110 0.0
1.289518 0.276324 -0.002826 0.0
3.139365 1.400033 -0.000349 0.0
2.233188 0.200332 0.001440 0.0
3.119911 2.126500 -0.003378 0.0
2.427861 2.079338 0.003170 0.0
0.593914 0.343379 -0.003954 0.0
1.449677 0.972703 0.001396 0.0
3.664151 0.146838 -0.000720 0.0
2.516889 0.182666 0.000736 0.0
3.832462 0.777150 0.002659 0.0
0.911236 2.057538 -0.000459 0.0
2.391839 2.041370 0.004458 0.0
4.241541 0.260034 0.004593 0.0
1.641170 1.655858 0.002747 0.0
0.259864 1.592541 -0.002706 0.0
0.565574 2.416505 0.001265 0.0
1.223787 1.923211 -0.003742 0.0
0.242419 0.944369 -0.004367 0.0
3.420370 2.423594 0.000536 0.0
2.236760 1.852308 -0.001384 0.0
0.621446 0.444798 0.001041 0.0
1.732572 0.829401 -0.000652 0.0
1.658809 1.843660 0.004430 0.0
3.842403 2.305842 -0.002105 0.0
3.428533 2.370164 0.000481 0.0
4.004090 1.248968 0.002656 0.0
2.209577 1.621445 -0.000004 0.0
0.567137 0.300814 0.002954 0.0
3.133357 2.140997 -0.002794 0.0
3.610333 1.582354 0.000545 0.0
1.546961 0.283039 -0.002110 0.0
0.740825 1.050991 -0.000287 0.0
1.797427 0.024489 0.001566 0.0
2.690933 1.866113 0.001185 0.0
1.504831 2.376348 -0.001669 0.0
0.509529 2.298229 -0.003198 0.0
2.209931 1.977610 -0.004487 0.0
0.424917 2.185489 0.003407 0.0
3.565495 2.308891 0.002688 0.0
0.343846 2.202065 -0.001805 0.0
2.607180 0.976969 -0.002295 0.0
0.272604 1.585479 0.000255 0.0
3.550477 0.636745 0.001412 0.0
4.194612 0.302450 -0.005476 0.0
0.742994 1.519333 0.000283 0.0
0.747813 1.360431 -0.000860 0.0
0.915390 0.566080 0.001415 0.0
1.848054 0.621076 -0.000946 0.0
3.193295 1.948936 0.005120 0.0
1.566975 1.140706 0.004818 0.0
0.056892 2.165104 0.002931 0.0
4.428574 1.983291 -0.001299 0.0
2.920365 2.378762 -0.002523 0.0
1.997491 1.378359 -0.003813 0.0
1.015196 0.423248 0.000004 0.0
2.268420 0.068055 0.000857 0.0
3.883542 0.236204 -0.000542 0.0
1.156337 2.257322 0.001644 0.0
1.684015 0.536335 -0.003296 0.0
0.928328 1.852032 0.002155 0.0
1.838284 0.817804 0.000293 0.0
2.057488 2.211607 -0.001082 0.0
2.704413 0.677169 0.000002 0.0
3.875254 1.045345 0.000249 0.0
3.892151 0.842907 -0.000329 0.0
1.697223 0.332905 0.000597 0.0
2.706407 2.215591 0.001701 0.0
3.272770 2.416489 0.000928 0.0
1.023413 1.480656 0.001156 0.0
2.046639 0.026448 0.001840 0.0
0.420664 1.932408 -0.004174 0.0
1.136529 1.286995 -0.001817 0.0
1.205213 0.584641 -0.004180 0.0
1.642883 1.198493 -0.003735 0.0
3.518788 2.037249 0.001620 0.0
3.027629 2.069232 0.003450 0.0
3.306449 1.097465 0.004517 0.0
2.224509 1.376760 -0.001454 0.0
0.717356 2.068533 -0.002248 0.0
2.195984 0.625750 0.001535 0.0
1.900267 0.679611 -0.006503 0.0
1.697026 0.478077 0.001245 0.0
4.174830 1.177501 -0.002184 0.0
3.134393 0.525649 0.000037 0.0
1.815260 1.862990 -0.000156 0.0
1.960674 0.836031 0.004075 0.0
0.998358 0.752040 -0.004802 0.0
1.216949 0.846856 0.000005 0.0
1.457386 1.008199 0.003306 0.0
3.520837 0.467883 -0.000121 0.0
3.955726 0.822759 0.004283 0.0
0.348117 1.269500 -0.000367 0.0
2.070315 1.506817 -0.001253 0.0
2.503461 0.427396 -0.001994 0.0
4.380985 1.181897 0.002680 0.0
2.227370 1.858033 0.001816 0.0
0.523071 0.754264 0.005407 0.0
2.524631 0.690967 0.003283 0.0
4.142704 1.495324 -0.001704 0.0
3.423718 0.462507 -0.001790 0.0
2.132753 1.391771 0.002035 0.0
2.226790 0.777741 0.000305 0.0
4.204713 1.180368 -0.001560 0.0
1.432358 1.040829 -0.000118 0.0
0.198366 1.869038 -0.002341 0.0
4.331200 0.070218 0.003949 0.0
3.925854 1.752955 -0.004608 0.0
3.923907 0.640806 0.000393 0.0
1.177453 2.004032 0.003464 0.0
3.617591 1.344903 -0.001481 0.0
2.905888 1.610259 -0.000633 0.0
2.378739 0.148211 -0.001344 0.0
1.875691 1.279444 0.002635 0.0
3.555291 1.591895 0.006101 0.0
4.214840 1.053193 -0.000289 0.0
3.433433 0.209769 -0.002855 0.0
3.981837 0.077921 0.007748 0.0
1.331641 1.588909 -0.001878 0.0
1.573706 0.862924 0.001844 0.0
0.168316 1.970708 -0.002113 0.0
2.581953 2.226522 -0.004726 0.0
2.417212 1.290067 0.001278 0.0
2.718838 0.733449 0.001500 0.0
3.427971 0.219222 0.001361 0.0
3.578365 0.230819 -0.001273 0.0
2.730387 1.769702 0.005378 0.0
2.932887 0.878490 -0.001030 0.0
0.514440 1.836619 0.001356 0.0
2.470762 2.355011 -0.000688 0.0
4.008467 0.795473 -0.002704 0.0
0.245733 0.426329 -0.002744 0.0
3.978486 1.428850 -0.001301 0.0
0.984473 1.900388 -0.001483 0.0
2.791538 2.208375 0.001878 0.0
1.995385 1.703239 0.001124 0.0
2.323161 2.062534 0.000683 0.0
1.594905 0.287098 -0.002631 0.0
2.462528 0.477838 -0.004131 0.0
4.039642 1.644292 0.002282 0.0
2.163757 0.744087 -0.001475 0.0
4.256840 0.537463 0.000077 0.0
0.359134 1.735182 -0.001119 0.0
1.267157 0.747712 0.000697 0.0
0.880182 1.057522 -0.005570 0.0
2.009983 0.875786 -0.002150 0.0
3.692237 0.867054 0.001182 0.0
1.183628 0.044246 0.002615 0.0
1.421249 1.298043 0.001615 0.0
3.508985 0.002637 0.001568 0.0
2.090802 1.596207 -0.000138 0.0
1.072099 0.383500 -0.000052 0.0
4.014701 0.054028 0.001063 0.0
0.614964 1.612370 0.004139 0.0
1.519981 0.066236 0.005637 0.0
0.605250 1.613964 -0.001455 0.0
2.569221 0.723726 -0.000580 0.0
3.332700 1.949195 0.002679 0.0
2.541900 1.383536 -0.001752 0.0
2.598262 2.033664 0.006530 0.0
2.381289 1.780941 -0.004068 0.0
0.031314 1.157783 -0.002018 0.0
0.947079 2.422121 0.001357 0.0
4.390646 0.771058 0.001201 0.0
0.380962 -0.002406 -0.002775 0.0
2.613408 2.046973 -0.006028 0.0
3.793005 0.230996 -0.002025 0.0
2.201787 0.010055 0.003623 0.0
4.351414 0.901687 -0.000612 0.0
0.015239 1.791269 0.000533 0.0
0.711776 1.191033 -0.003936 0.0
3.993639 0.091699 -0.002296 0.0
2.125678 1.223424 -0.001828 0.0
3.208734 2.383498 0.000971 0.0
2.513558 2.163441 0.002732 0.0
2.572910 0.530192 0.000126 0.0
2.977633 2.257629 0.001908 0.0
0.238220 2.008002 0.001868 0.0
1.033507 1.721345 0.002752 0.0
0.530804 0.984124 -0.001239 0.0
1.568941 1.842878 0.000731 0.0
1.096615 0.404047 0.005769 0.0
3.578818 1.732130 -0.002509 0.0
2.681789 1.490190 0.001036 0.0
0.501769 0.393652 0.001030 0.0
4.341741 1.525029 0.002292 0.0
2.407783 1.439655 -0.002749 0.0
1.026419 1.706634 -0.003700 0.0
3.722565 1.700619 -0.001101 0.0
1.132957 1.824294 -0.000049 0.0
2.816876 0.102848 0.001527 0.0
2.228934 1.794533 0.000011 0.0
3.960242 1.643770 0.001490 0.0
2.717616 0.087264 -0.002397 0.0
2.803425 1.951468 -0.000077 0.0
2.987780 0.186759 0.001983 0.0
2.108587 0.522129 -0.001526 0.0
1.491360 2.091599 -0.000687 0.0
0.530764 0.422165 -0.001391 0.0
2.130998 2.372485 0.001971 0.0
2.462418 2.038654 0.001052 0.0
2.607523 2.215654 0.001467 0.0
1.914520 1.550152 0.000730 0.0
1.032924 1.009194 -0.001703 0.0
1.061796 1.861672 0.001254 0.0
0.863876 0.615478 0.002913 0.0
3.208050 0.110345 0.005146 0.0
3.678911 0.990555 0.000359 0.0
2.216068 1.866727 -0.000591 0.0
2.957800 2.020324 0.003396 0.0
3.359970 2.332511 -0.000201 0.0
1.794029 1.028533 0.000028 0.0
2.093943 0.103357 0.001332 0.0
2.287678 0.985936 -0.001858 0.0
1.227025 0.131880 -0.003465 0.0
0.144167 0.310892 0.001334 0.0
0.145674 2.287547 -0.001317 0.0
4.270522 1.212187 0.001781 0.0
1.255644 1.763552 0.003564 0.0
3.768965 2.260433 -0.001032 0.0
0.034616 0.091875 -0.000900 0.0
2.751156 0.462861 -0.005120 0.0
0.197300 0.253197 0.001334 0.0
1.370926 2.177537 -0.008668 0.0
1.220636 2.236014 -0.007440 0.0
0.116445 0.767008 0.001094 0.0
2.590395 0.531031 0.000517 0.0
1.887216 1.959485 -0.000104 0.0
2.857133 0.190308 -0.000208 0.0
1.888617 0.081255 0.002877 0.0
4.298807 2.124538 0.000129 0.0
0.053459 1.493273 -0.001975 0.0
0.609346 1.529976 0.003215 0.0
0.098947 0.483153 0.002711 0.0
2.339985 0.609575 0.002036 0.0
2.676090 0.376770 -0.002828 0.0
3.253819 0.422335 0.003322 0.0
0.914823 1.064634 0.000235 0.0
2.322176 1.524888 -0.003223 0.0
2.563529 0.991445 -0.001949 0.0
2.928791 1.283071 -0.000023 0.0
3.118092 0.216333 -0.002358 0.0
2.239268 2.233507 0.001005 0.0
2.013519 1.666993 0.000215 0.0
2.261934 1.374136 0.000793 0.0
1.478209 0.353065 0.000230 0.0
2.668522 1.315399 0.000319 0.0
2.283866 1.749075 0.002727 0.0
0.922817 1.079579 0.000366 0.0
4.232734 1.371946 0.004601 0.0
2.570083 2.239058 0.005352 0.0
1.623075 1.578499 -0.000638 0.0
0.438561 1.547998 0.003035 0.0
1.413466 1.617629 -0.004984 0.0
3.781469 2.002166 0.002405 0.0
0.217763 0.278475 -0.000724 0.0
1.369133 0.287735 -0.003376 0.0
1.837304 0.016574 0.005152 0.0
2.573091 0.922716 -0.001218 0.0
0.141326 2.180164 0.002056 0.0
4.213991 2.256767 -0.006424 0.0
0.347127 0.934859 -0.000756 0.0
4.419739 0.925876 0.001608 0.0
0.355272 0.639059 -0.001759 0.0
0.510493 0.295416 -0.002058 0.0
0.935089 0.476771 -0.000346 0.0
4.116152 0.733889 -0.000908 0.0
2.749478 1.964367 0.002347 0.0
3.437617 1.101165 0.006171 0.0
2.299510 0.357433 0.002947 0.0
1.669108 2.039436 0.002126 0.0
0.347203 0.917518 0.003049 0.0
3.919360 1.130790 -0.000819 0.0
2.702986 2.066688 0.001463 0.0
3.927203 1.429493 0.002963 0.0
3.219492 2.299978 0.000030 0.0
4.076509 1.597930 0.001250 0.0
3.577909 2.102115 0.001296 0.0
2.098458 0.322743 0.000155 0.0
2.668915 1.653115 0.000464 0.0
2.295874 1.175946 0.000122 0.0
2.986039 0.962541 -0.002419 0.0
0.357113 1.543709 0.000735 0.0
1.237997 1.176504 -0.003477 0.0
2.254919 1.535122 0.002022 0.0
0.477910 0.445819 -0.000720 0.0
3.050340 1.170091 0.000314 0.0
0.720627 1.567031 -0.002735 0.0
0.057343 0.480884 0.003129 0.0
4.332207 1.866687 0.001166 0.0
0.710616 1.227314 0.002075 0.0
3.674853 2.371459 0.002039 0.0
0.026965 1.871798 -0.001935 0.0
3.987968 1.193838 0.000217 0.0
1.766775 1.790518 0.001992 0.0
0.202366 0.829608 0.000428 0.0
0.478825 0.303850 -0.000785 0.0
3.385714 0.822119 0.003142 0.0
3.407778 1.678427 -0.000007 0.0
3.537460 0.289296 0.001609 0.0
2.228689 1.946371 -0.001448 0.0
1.209916 0.934614 -0.002320 0.0
0.476020 1.564475 0.000166 0.0
0.231243 1.725877 -0.004696 0.0
0.377868 0.397150 0.000395 0.0
2.793185 0.375500 -0.000067 0.0
4.123130 2.206209 0.000342 0.0
4.199184 0.548884 0.002107 0.0
1.742308 0.338452 -0.001237 0.0
2.561198 0.685238 0.002432 0.0
3.921428 0.345243 0.002631 0.0
4.067226 1.049190 -0.001495 0.0
1.688374 1.152526 -0.001944 0.0
2.986716 0.460528 0.003854 0.0
0.938116 1.316932 0.000214 0.0
2.020460 2.315658 0.001528 0.0
4.083775 0.075509 -0.006959 0.0
1.738382 2.315290 0.005042 0.0
1.020094 1.682669 -0.001724 0.0
0.199716 0.807573 -0.002433 0.0
1.237621 0.183800 -0.001785 0.0
0.930893 2.414778 -0.002855 0.0
2.166984 1.215008 0.001055 0.0
3.258050 1.957263 -0.000662 0.0
2.707134 2.263623 0.002068 0.0
1.117217 0.837170 -0.003014 0.0
0.500830 0.733508 0.001278 0.0
3.142554 1.299348 -0.000828 0.0
3.017929 0.540226 -0.005939 0.0
4.215518 2.200209 0.000619 0.0
1.858617 0.036842 -0.002115 0.0
0.007861 0.522407 -0.000113 0.0
2.210369 1.392727 -0.002492 0.0
1.822424 0.415543 0.002014 0.0
2.835908 1.486462 -0.002104 0.0
1.642281 2.287246 -0.000710 0.0
3.180224 1.262420 -0.000990 0.0
3.892610 0.845458 -0.000607 0.0
3.049378 1.578576 0.006734 0.0
3.975273 0.266828 0.005752 0.0
0.653706 2.301769 -0.002216 0.0
0.586388 2.095583 0.001543 0.0
2.022925 1.025255 0.004225 0.0
2.665929 1.134337 0.002323 0.0
2.909560 1.236913 -0.002492 0.0
3.782227 1.482970 -0.002037 0.0
3.144400 1.994855 0.002852 0.0
3.457053 0.829519 -0.001932 0.0
3.413657 1.221531 0.001335 0.0
2.735787 2.224367 0.001830 0.0
1.498019 0.427684 -0.004780 0.0
3.006620 2.014947 -0.002277 0.0
0.094194 1.214069 0.000258 0.0
2.441325 0.541523 -0.001616 0.0
3.383970 1.269436 0.000754 0.0
0.440633 1.637938 0.003758 0.0
2.978746 2.261644 -0.000581 0.0
2.129404 0.093727 0.004723 0.0
4.022121 1.417077 -0.001822 0.0
4.290466 0.287297 -0.001200 0.0
3.541181 2.297392 -0.001964 0.0
3.622153 0.378155 -0.002476 0.0
2.628207 1.974549 -0.004319 0.0
1.310214 1.137823 0.000482 0.0
0.564151 1.817552 0.003575 0.0
1.206834 1.585699 0.004449 0.0
2.510234 1.081958 -0.001179 0.0
3.515416 2.190123 0.000986 0.0
4.116886 0.976495 0.003457 0.0
2.832366 2.260247 -0.002184 0.0
3.998368 2.326006 -0.000073 0.0
1.245805 0.850863 -0.001682 0.0
1.798957 0.671444 -0.003036 0.0
3.630287 1.361036 -0.005789 0.0
2.574408 0.368284 0.003300 0.0
0.613362 0.212731 0.000196 0.0
3.131437 2.039295 -0.005477 0.0
2.170499 1.024519 -0.001080 0.0
1.579849 2.210446 0.000599 0.0
2.254510 2.260264 -0.001591 0.0
0.154005 1.245694 0.002982 0.0
1.363494 2.203901 -0.000491 0.0
2.548102 0.217653 -0.001186 0.0
4.090287 1.351629 -0.003541 0.0
3.155971 0.900512 -0.000002 0.0
0.200136 1.906826 0.004658 0.0
3.563282 1.423604 -0.004126 0.0
2.995090 1.316025 -0.000599 0.0
3.447145 0.972653 -0.000883 0.0
0.663464 0.300221 -0.005501 0.0
1.559286 0.424810 -0.000168 0.0
3.573755 1.755614 -0.002029 0.0
4.201570 1.216060 0.003369 0.0
1.344278 0.672503 -0.003676 0.0
3.482706 1.381182 0.001513 0.0
1.290975 0.157949 -0.002609 0.0
3.984363 2.052108 0.001949 0.0
3.653273 0.480659 0.002123 0.0
3.408483 1.710332 -0.000648 0.0
0.578729 1.609258 0.003335 0.0
0.650659 1.823270 0.000181 0.0
2.596462 0.045441 -0.003155 0.0
3.542364 0.136114 -0.000134 0.0
1.946192 0.389805 -0.001956 0.0
2.805170 1.512646 -0.001768 0.0
3.501760 0.702611 -0.004740 0.0
3.062373 0.002817 -0.000443 0.0
0.636061 1.627501 -0.003175 0.0
4.244802 0.851929 0.001032 0.0
1.489027 0.234202 0.000969 0.0
2.873701 0.797464 -0.000569 0.0
3.608948 2.004669 0.003881 0.0
1.594702 0.926816 0.003587 0.0
2.914863 1.754234 0.002422 0.0
2.192017 0.613506 0.003614 0.0
3.360652 1.773330 -0.003659 0.0
0.147175 0.179370 -0.000961 0.0
1.099559 1.456890 -0.000337 0.0
3.558185 0.586198 0.001661 0.0
4.003775 0.182981 0.001201 0.0
2.379502 0.754591 0.001339 0.0
3.231911 0.514444 -0.001716 0.0
2.123026 1.836796 -0.004274 0.0
2.180118 1.070909 -0.002613 0.0
1.502974 1.160907 -0.000317 0.0
1.543012 1.221467 0.000362 0.0
2.619523 1.283889 0.000072 0.0
4.417416 1.778840 -0.000024 0.0
4.434662 1.280655 0.001349 0.0
0.765427 2.327429 -0.001161 0.0
1.506612 0.967689 0.000036 0.0
3.079121 0.337646 0.002675 0.0
0.265314 1.636079 -0.000041 0.0
3.623518 0.853915 0.004969 0.0
0.663460 1.875605 -0.000162 0.0
2.738749 1.785289 0.000812 0.0
1.932379 1.136587 0.001760 0.0
0.216641 1.927735 -0.002252 0.0
4.308454 2.014730 -0.001847 0.0
4.102467 1.027897 -0.000711 0.0
1.070821 0.764279 0.003340 0.0
1.233211 1.250972 -0.002384 0.0
0.158894 1.278998 -0.002523 0.0
1.798994 0.524864 0.004269 0.0
1.855854 1.613752 -0.001970 0.0
0.839078 1.272362 0.002657 0.0
0.399647 2.228322 0.002338 0.0
1.808637 1.688507 0.000166 0.0
2.968319 1.932833 -0.002484 0.0
2.034792 1.977692 -0.002328 0.0
0.923837 0.785438 -0.000972 0.0
3.867452 2.005031 0.001163 0.0
3.425748 1.561250 -0.003011 0.0
3.369919 2.444943 -0.000706 0.0
0.325244 1.397868 0.001821 0.0
1.986078 1.820304 0.000440 0.0
2.598851 1.295958 0.001175 0.0
2.647942 1.214015 -0.001623 0.0
0.049427 1.393552 -0.000972 0.0
0.150324 0.261711 -0.001231 0.0
1.010924 2.362579 0.003275 0.0
2.673285 1.094293 0.001002 0.0
3.254249 2.083828 0.000045 0.0
1.324647 1.738801 0.000133 0.0
3.994133 1.079508 0.002309 0.0
1.268903 0.620903 -0.002935 0.0
0.805819 1.089280 0.001462 0.0
1.445224 1.260841 -0.000974 0.0
4.107514 0.239163 0.004390 0.0
0.585641 2.249669 0.002437 0.0
0.143684 0.896390 -0.002041 0.0
1.159906 1.677565 -0.001163 0.0
1.732155 0.127459 0.003612 0.0
2.848506 0.735610 0.001016 0.0
1.466147 0.980492 0.002181 0.0
0.728885 0.451187 0.001333 0.0
0.724182 1.222605 -0.003940 0.0
1.598124 0.874688 0.001520 0.0
3.761953 0.843134 0.003660 0.0
2.200823 1.842384 -0.000274 0.0
0.791647 2.400957 -0.000808 0.0
1.242742 1.161527 -0.000256 0.0
4.138038 2.300387 -0.004015 0.0
0.335504 1.679249 -0.000504 0.0
0.501275 0.942759 -0.001287 0.0
0.228896 1.662317 0.001320 0.0
1.322961 0.745140 0.003088 0.0
2.558367 1.588505 0.003797 0.0
0.433312 1.877139 -0.001106 0.0
2.498334 0.374260 0.003440 0.0
0.299100 1.042260 -0.000938 0.0
4.084873 0.269957 0.001722 0.0
0.134961 1.301554 0.000578 0.0
3.735049 1.797839 -0.002897 0.0
0.680671 1.605417 0.002552 0.0
4.173057 0.372690 0.002484 0.0
1.228101 0.895101 -0.002523 0.0
3.745280 1.093341 0.001225 0.0
0.919316 2.127189 0.003168 0.0
1.516352 1.977035 -0.000908 0.0
3.859999 1.000754 -0.002862 0.0
3.601715 0.702195 0.001063 0.0
1.404211 1.172718 -0.001116 0.0
2.550569 1.069370 0.001859 0.0
0.779330 0.788040 -0.003395 0.0
4.324449 1.501990 -0.000026 0.0
3.524867 1.165772 0.001588 0.0
1.997070 2.036391 -0.000756 0.0
0.117747 0.859189 -0.000233 0.0
0.362645 1.618844 0.000606 0.0
1.437869 2.229205 0.000670 0.0
0.459305 1.899876 -0.001392 0.0
3.071144 1.420072 0.002342 0.0
0.265064 0.278234 -0.001107 0.0
1.406137 1.980478 0.000636 0.0
1.897637 0.576537 0.002735 0.0
2.564941 2.300392 -0.005303 0.0
1.227487 0.811505 -0.000946 0.0
3.037677 1.443316 0.000175 0.0
1.711043 0.901617 0.001240 0.0
2.102027 1.380038 0.002357 0.0
0.310164 2.330721 0.003639 0.0
3.115299 0.626872 0.000687 0.0
3.406606 1.209278 0.001663 0.0
1.650305 2.155478 0.002824 0.0
0.464157 0.911912 -0.003065 0.0
0.403705 1.919376 -0.001171 0.0
1.019830 1.428070 0.001745 0.0
3.806254 0.816190 0.001836 0.0
1.373864 1.867943 -0.002225 0.0
3.530228 1.663738 0.004353 0.0
0.899141 0.933157 0.000600 0.0
3.392177 1.965222 -0.004403 0.0
2.281463 0.321625 0.002308 0.0
4.414479 0.298016 0.002636 0.0
4.341417 0.295473 -0.000475 0.0
0.519098 0.178164 0.000997 0.0
2.813149 0.513375 0.003606 0.0
3.340936 0.270466 -0.002555 0.0
1.532015 1.090335 -0.004074 0.0
4.112039 1.240487 -0.000116 0.0
2.251623 1.107255 -0.000010 0.0
2.116804 1.944599 0.002201 0.0
3.298771 0.109606 -0.000128 0.0
2.346977 2.394917 0.001246 0.0
4.118425 0.534231 -0.001215 0.0
4.199389 0.222356 -0.001312 0.0
4.303260 1.783477 0.004545 0.0
1.164477 0.048075 0.000572 0.0
0.642538 0.928774 0.001957 0.0
1.062404 1.131790 -0.001251 0.0
1.870508 2.217498 0.001831 0.0
2.287231 0.635672 -0.003968 0.0
0.420144 2.341468 -0.001049 0.0
3.624107 1.036004 -0.001291 0.0
2.849466 1.807515 -0.002756 0.0
2.870567 0.060212 -0.001024 0.0
4.141549 1.100869 -0.001259 0.0
3.971491 1.343472 0.001155 0.0
1.496146 0.823226 -0.002251 0.0
1.631852 1.653003 -0.002121 0.0
1.503909 0.212905 -0.004995 0.0
1.680998 0.355909 -0.002638 0.0
0.033978 0.942140 -0.001310 0.0
1.339308 1.297466 0.001387 0.0
4.024130 1.626583 0.001311 0.0
3.858730 0.099444 0.004004 0.0
1.329029 1.501919 -0.003291 0.0
3.214145 2.222773 0.001042 0.0
2.219474 1.888787 -0.002701 0.0
1.975147 1.828062 0.004603 0.0
1.613676 0.293675 -0.000018 0.0
0.453538 0.366089 0.005162 0.0
3.049663 2.106237 0.000325 0.0
3.577098 1.067436 0.000512 0.0
0.618631 1.432863 -0.003147 0.0
0.419424 0.404052 -0.000638 0.0
0.819839 1.641033 0.001532 0.0
3.041283 2.331114 0.001539 0.0
0.301720 0.067898 0.000102 0.0
2.205526 1.253462 -0.003097 0.0
3.895347 0.471858 0.001929 0.0
4.083565 0.292187 -0.003095 0.0
1.475905 0.411779 0.001951 0.0
1.008784 1.398262 0.003214 0.0
2.098187 1.160573 -0.000319 0.0
1.750592 1.438474 -0.000535 0.0
2.405932 0.704734 0.000107 0.0
3.132488 2.142460 -0.004056 0.0
4.162140 1.059774 -0.001668 0.0
2.538064 2.099415 -0.000686 0.0
3.032346 0.469723 -0.005084 0.0
2.924458 2.006309 0.002838 0.0
0.535650 1.353663 0.003379 0.0
0.302431 2.074936 -0.005167 0.0
0.739218 0.732595 0.003483 0.0
0.179059 1.643383 0.002914 0.0
3.723791 1.764299 0.001454 0.0
4.374693 0.712718 0.000976 0.0
4.036790 2.317180 0.004643 0.0
0.348640 0.827491 0.003693 0.0
3.248416 0.733269 0.003336 0.0
3.902385 1.319900 -0.001338 0.0
0.875372 0.391535 0.004733 0.0
0.044674 0.101926 0.000930 0.0
0.529423 0.190669 -0.000605 0.0
4.007608 2.092158 0.002010 0.0
3.790921 0.883620 0.002737 0.0
2.849552 0.328415 -0.001953 0.0
4.018053 1.913693 0.001662 0.0
2.724068 1.421240 -0.004895 0.0
0.673186 1.172394 -0.001704 0.0
1.008245 0.338102 -0.001006 0.0
4.133708 0.373616 -0.001600 0.0
2.822977 1.338283 0.002784 0.0
0.880627 1.343114 0.002421 0.0
4.044181 0.739484 -0.001133 0.0
0.350310 0.045352 -0.001060 0.0
0.533449 1.207783 -0.003272 0.0
2.389757 1.393735 -0.001234 0.0
1.822166 0.894257 0.001754 0.0
1.091735 1.623887 -0.000102 0.0
1.285801 1.389481 -0.004639 0.0
2.009165 1.177815 0.001438 0.0
3.907082 1.434454 0.002036 0.0
2.221846 2.050805 0.004098 0.0
1.149691 2.179529 -0.002800 0.0
1.640235 1.162783 0.004204 0.0
3.571401 0.459050 -0.004015 0.0
0.199406 1.279274 -0.000325 0.0
0.286825 0.940972 0.002257 0.0
2.175464 1.143008 0.001772 0.0
3.674924 0.695196 0.003948 0.0
3.976430 0.172342 0.001089 0.0
0.364239 1.557182 -0.000230 0.0
2.629256 0.445083 -0.001293 0.0
2.680874 1.918944 -0.001355 0.0
1.871938 2.154886 -0.001738 0.0
2.904434 2.198274 -0.001569 0.0
3.729284 0.499869 -0.000716 0.0
0.808491 1.065608 0.002235 0.0
4.006984 0.311204 -0.001745 0.0
1.175052 0.089731 0.000610 0.0
3.204666 0.754754 0.001949 0.0
0.529138 0.496008 0.001321 0.0
3.951921 2.119831 -0.003176 0.0
0.281518 2.448704 -0.004639 0.0
3.047960 1.384851 -0.001168 0.0
2.310718 2.276187 0.004175 0.0
3.773606 0.406562 0.002292 0.0
1.600423 2.023170 0.003907 0.0
0.736834 2.065629 0.001386 0.0
2.666987 1.945166 0.002092 0.0
3.102346 1.525308 0.001929 0.0
3.678883 0.873775 0.002842 0.0
0.066683 1.298529 0.000388 0.0
3.622329 2.035459 -0.001324 0.0
0.929801 1.998651 -0.000208 0.0
4.379797 1.652135 -0.001716 0.0
3.153450 1.016084 -0.003408 0.0
2.787732 0.616212 -0.001404 0.0
2.510915 1.335987 0.001693 0.0
3.204359 0.298649 -0.001227 0.0
2.627061 1.697596 -0.002492 0.0
0.002055 1.534971 -0.000195 0.0
3.645443 0.870136 0.003139 0.0
3.157131 1.789422 -0.004881 0.0
0.048556 0.253366 -0.001764 0.0
2.805997 0.026416 -0.000796 0.0
2.922446 0.261104 0.000306 0.0
3.569653 1.703976 0.001404 0.0
3.553293 2.103042 -0.000855 0.0
3.481536 0.398165 0.002935 0.0
0.727427 0.916508 -0.000638 0.0
2.070785 0.808296 0.000709 0.0
4.132186 0.927027 -0.000031 0.0
3.267407 1.101632 0.000883 0.0
3.229554 1.787446 0.001798 0.0
2.832937 0.793102 -0.000334 0.0
2.492809 0.482637 -0.002112 0.0
0.912942 1.642381 0.000648 0.0
0.211973 1.855275 -0.000679 0.0
1.426696 2.077746 -0.003117 0.0
0.438798 0.569663 0.003588 0.0
3.712248 2.262477 -0.000857 0.0
3.799667 0.027096 -0.003547 0.0
3.340860 1.800974 0.001053 0.0
0.715234 1.901459 -0.002011 0.0
1.930831 0.639847 -0.000382 0.0
0.375363 1.961748 0.001898 0.0
3.904749 1.313575 0.001961 0.0
1.483661 1.623357 -0.001080 0.0
0.898341 2.427267 0.001456 0.0
3.031292 1.289720 0.000094 0.0
0.180558 0.745862 -0.003213 0.0
4.179560 0.382500 0.000022 0.0
3.439067 0.724520 -0.003751 0.0
1.626544 0.953611 0.001066 0.0
0.438091 0.649224 0.000457 0.0
2.637061 2.447174 0.000550 0.0
4.076134 1.682561 0.000520 0.0
0.107094 2.416144 -0.000382 0.0
0.183652 1.430674 -0.001950 0.0
1.166669 1.020490 0.005524 0.0
0.980294 0.124168 0.001632 0.0
3.241460 2.422761 0.000479 0.0
0.029304 0.781838 -0.002605 0.0
2.100407 0.279131 0.004693 0.0
0.017877 1.106169 -0.002444 0.0
3.053137 2.442269 0.003459 0.0
0.650278 1.122893 -0.001055 0.0
0.807872 0.467072 -0.000339 0.0
2.160338 0.426530 0.003109 0.0
1.923266 1.113261 0.003431 0.0
2.746154 2.218886 -0.005976 0.0
0.453782 2.393416 -0.002541 0.0
0.986636 1.344169 0.000307 0.0
1.602026 2.041506 0.000302 0.0
2.743511 1.641469 -0.002661 0.0
3.004757 1.413599 0.002038 0.0
1.879750 2.004969 0.002791 0.0
1.824281 2.144093 0.002132 0.0
0.390043 1.501037 0.005050 0.0
2.171097 1.807299 0.000087 0.0
0.032959 2.279736 -0.000271 0.0
2.729792 0.142505 -0.001163 0.0
1.604338 1.003433 -0.001140 0.0
0.163563 0.302264 0.001586 0.0
0.912116 0.780426 0.003896 0.0
2.891620 1.442102 -0.002974 0.0
0.657217 0.816307 -0.001465 0.0
0.843194 1.295473 0.003340 0.0
2.000498 2.247884 -0.000870 0.0
4.159494 0.820635 -0.004776 0.0
3.424997 0.281090 0.002633 0.0
1.009497 0.454527 -0.003316 0.0
3.847474 0.637570 -0.002710 0.0
3.410878 0.973385 -0.003331 0.0
1.371229 1.120931 0.003826 0.0
2.715887 0.642769 0.002909 0.0
2.648337 1.922162 -0.000434 0.0
0.399928 1.357032 -0.000491 0.0
3.204074 0.011350 -0.001643 0.0
4.182578 2.139414 0.002044 0.0
4.112526 0.715752 0.002817 0.0
1.699563 0.068510 -0.001345 0.0
0.785651 0.655312 -0.000374 0.0
2.166715 2.448358 -0.000396 0.0
3.449489 1.223288 0.001875 0.0
1.835184 2.311165 -0.001538 0.0
3.437263 2.352105 -0.001855 0.0
2.405334 2.256187 0.000345 0.0
2.620232 0.296255 0.002230 0.0
2.409199 1.955686 -0.000207 0.0
2.035619 1.816959 -0.000940 0.0
2.869773 0.108026 0.003337 0.0
2.803236 0.690182 0.001106 0.0
1.734080 1.647927 0.002106 0.0
2.631180 1.993876 -0.000231 0.0
0.613647 0.602725 -0.000042 0.0
1.082839 2.077758 -0.003182 0.0
1.599500 1.998917 0.002055 0.0
4.202455 1.484702 0.001964 0.0
0.235965 1.938431 -0.000160 0.0
3.592085 1.605841 0.000357 0.0
3.403682 1.135348 -0.000514 0.0
0.102544 1.265903 0.002131 0.0
1.160353 2.197867 0.001509 0.0
0.805924 1.043570 -0.001511 0.0
3.337392 0.837596 0.001689 0.0
2.487221 0.359337 -0.000582 0.0
0.392634 0.017934 0.002542 0.0
3.034344 2.016258 0.003929 0.0
3.758960 1.892237 -0.000568 0.0
0.729641 2.011933 0.002672 0.0
2.410999 1.648604 0.002036 0.0
2.134192 1.441864 0.000807 0.0
2.039591 0.497679 -0.001329 0.0
3.031893 0.269713 0.004364 0.0
1.117685 0.418468 0.001437 0.0
4.360012 1.341111 0.000877 0.0
3.403141 0.377237 0.002109 0.0
1.783329 0.158358 -0.001930 0.0
4.256222 1.072659 -0.004003 0.0
3.170520 1.493778 -0.002145 0.0
1.977419 1.066765 0.001822 0.0
4.161819 1.390579 -0.001835 0.0
4.176149 0.165590 -0.002943 0.0
2.998066 0.134293 -0.002135 0.0
1.508373 2.420448 -0.001967 0.0
2.672948 0.572420 0.000631 0.0
0.440176 0.422753 0.001125 0.0
0.588651 1.394039 0.004738 0.0
1.900065 2.355756 0.004058 0.0
0.314508 2.152687 0.000583 0.0
3.026835 0.483377 0.000707 0.0
0.540470 1.139821 -0.001450 0.0
2.525357 0.478365 0.000099 0.0
3.925177 1.641090 -0.001181 0.0
2.810659 1.633962 0.000754 0.0
1.232629 1.366751 -0.003121 0.0
4.258101 1.346645 0.006203 0.0
0.643214 0.394038 -0.000996 0.0
1.561647 0.109986 0.001970 0.0
1.300884 2.420962 -0.001659 0.0
1.923120 1.405450 -0.000754 0.0
1.972337 1.594305 -0.001790 0.0
4.388506 0.123379 -0.003264 0.0
2.370355 0.377949 -0.001357 0.0
0.582691 0.527595 0.000333 0.0
3.035441 1.735674 -0.001063 0.0
3.390722 0.074065 -0.000688 0.0
0.687817 1.545722 -0.002210 0.0
1.869165 0.039536 0.001000 0.0
3.388476 2.027754 0.000222 0.0
3.534460 1.227372 -0.001421 0.0
3.783845 0.842523 0.002034 0.0
1.159390 0.626342 0.002535 0.0
0.079202 0.330305 -0.003291 0.0
1.404883 1.894209 0.001840 0.0
0.159201 2.335729 -0.000950 0.0
3.956502 1.787001 -0.001728 0.0
2.584793 0.132870 0.003655 0.0
3.449357 1.974585 0.002264 0.0
2.648200 0.359413 0.000736 0.0
2.706392 1.585994 0.004597 0.0
0.344122 2.148876 0.000816 0.0
2.074573 1.669903 0.000247 0.0
1.546627 0.684458 0.005016 0.0
0.542743 1.568647 0.004179 0.0
3.928608 1.286426 0.004792 0.0
1.091728 1.388030 -0.000903 0.0
3.442713 0.282476 0.003649 0.0
1.204581 0.463896 0.000829 0.0
1.532476 2.269422 0.000661 0.0
3.517928 0.376782 -0.002273 0.0
0.848382 1.061707 -0.000287 0.0
2.741966 0.731918 -0.002147 0.0
1.594149 0.889954 0.001466 0.0
3.709279 1.517529 -0.001315 0.0
0.698486 0.975840 0.001194 0.0
2.512786 1.793832 -0.001224 0.0
4.347159 0.344916 0.000455 0.0
4.054428 1.839191 0.000572 0.0
0.328906 0.289151 -0.001720 0.0
2.749059 0.126814 -0.004150 0.0
4.134234 1.352315 -0.001757 0.0
0.083351 2.320766 0.003137 0.0
1.315025 0.910049 -0.002553 0.0
2.456657 2.296135 0.000092 0.0
2.324040 0.741319 -0.001660 0.0
0.495704 1.968883 -0.000150 0.0
3.807239 2.026522 0.002495 0.0
3.262869 1.835000 0.003768 0.0
0.335017 2.327541 0.001794 0.0
3.001261 1.307281 -0.001010 0.0
0.639090 2.278632 0.002822 0.0
2.658052 2.198199 0.005314 0.0
3.379244 0.783499 0.002361 0.0
0.828535 1.242353 0.000214 0.0
4.046195 0.283065 0.002968 0.0
2.084860 1.628423 -0.004945 0.0
2.430088 0.016971 -0.000060 0.0
1.001535 0.642162 -0.004341 0.0
3.156495 0.037306 0.000671 0.0
0.595858 1.266633 -0.000592 0.0
2.219597 1.986885 0.001484 0.0
1.424281 0.170017 0.001362 0.0
2.229845 1.676022 0.001485 0.0
1.263976 1.235190 0.002186 0.0
3.394260 0.227963 -0.000197 0.0
1.315289 0.156160 0.001094 0.0
3.976295 1.191245 -0.002879 0.0
2.421893 0.324702 0.005689 0.0
3.113380 1.417952 -0.001353 0.0
2.637187 0.384046 0.000045 0.0
2.959436 0.610736 -0.002591 0.0
2.773090 2.334996 -0.000894 0.0
0.512755 1.494029 -0.002022 0.0
1.471613 1.831749 0.000833 0.0
0.587655 2.084071 0.000808 0.0
0.091968 1.464111 -0.001578 0.0
2.869149 0.872425 0.002025 0.0
3.332991 0.374620 -0.002053 0.0
1.374485 2.007270 0.005408 0.0
1.043338 0.743871 0.002997 0.0
1.116988 0.074655 0.006456 0.0
1.068746 1.947305 0.001577 0.0
1.291759 0.497111 -0.000536 0.0
2.857821 1.244012 -0.004622 0.0
3.336089 1.123874 -0.002024 0.0
1.118025 1.453939 -0.002869 0.0
2.856802 1.683821 -0.002590 0.0
2.873016 2.065290 0.000473 0.0
0.539553 0.257463 -0.003050 0.0
0.070332 0.609612 0.003413 0.0
3.794899 2.217101 0.002574 0.0
3.625127 0.546269 -0.000345 0.0
2.459226 1.696257 0.000055 0.0
3.553969 1.108786 0.002874 0.0
4.389018 0.549394 0.000728 0.0
2.435551 2.169694 -0.003424 0.0
0.103135 2.032536 0.001097 0.0
3.799611 2.159370 -0.002347 0.0
1.829146 1.531576 0.000943 0.0
0.101244 0.572264 -0.002847 0.0
1.913522 2.367551 -0.001044 0.0
2.578164 1.886534 -0.000707 0.0
3.340109 0.193483 -0.000700 0.0
1.184488 1.486891 -0.001790 0.0
1.390941 1.791245 -0.001906 0.0
1.705032 1.946402 0.000195 0.0
1.809116 1.908960 0.001645 0.0
3.819925 0.325057 -0.000061 0.0
2.913234 2.220683 -0.001583 0.0
1.918515 0.395902 -0.001459 0.0
1.771680 0.526752 0.002164 0.0
1.883240 2.107296 -0.001358 0.0
4.438543 0.541006 -0.000608 0.0
3.982433 0.329264 0.001091 0.0
3.885296 0.283690 0.001222 0.0
3.121831 2.153269 -0.003406 0.0
1.804698 0.347149 0.000664 0.0
2.647790 0.126274 0.007105 0.0
1.511935 0.355360 -0.000439 0.0
2.703819 1.634229 0.003250 0.0
2.836075 0.276845 -0.000893 0.0
2.563083 1.572064 0.002117 0.0
0.626597 1.260349 0.002220 0.0
1.864586 0.281389 0.001286 0.0
2.245327 0.892311 -0.001549 0.0
2.631122 1.349731 -0.005492 0.0
1.041194 1.234006 0.002385 0.0
3.904184 0.758201 0.003771 0.0
3.225864 1.799892 0.002685 0.0
2.143998 0.215324 -0.002262 0.0
3.701731 0.469904 0.000605 0.0
0.587551 1.354075 0.001544 0.0
3.095868 0.958791 -0.002423 0.0
3.789639 0.693464 -0.000534 0.0
4.099674 0.625547 -0.003732 0.0
4.093178 1.415209 0.000512 0.0
4.194219 0.521638 0.003623 0.0
2.672661 1.611283 0.002477 0.0
3.237994 0.217662 -0.004873 0.0
0.271806 1.418731 0.002067 0.0
0.674046 1.577965 -0.001549 0.0
4.096072 1.417709 -0.002945 0.0
3.277620 1.484339 0.001750 0.0
3.353307 1.294559 -0.001110 0.0
1.037147 2.002814 0.000039 0.0
0.133036 0.581465 -0.001166 0.0
2.243798 1.369029 0.002650 0.0
2.759439 1.119269 0.003669 0.0
2.136825 1.858465 -0.000153 0.0
0.281113 1.036181 -0.004108 0.0
2.285118 1.556109 0.003754 0.0
1.837584 0.054248 -0.003002 0.0
0.079707 0.377559 0.005336 0.0
3.295113 0.323415 -0.001152 0.0
4.415105 0.251319 -0.000518 0.0
4.301157 1.598697 -0.000211 0.0
4.395000 2.400321 -0.001303 0.0
1.881601 1.613624 0.002433 0.0
0.108555 0.164867 0.003503 0.0
0.854894 1.305836 -0.000622 0.0
0.149672 0.690167 0.002034 0.0
2.529342 0.592274 0.000427 0.0
3.530366 0.070522 -0.000056 0.0
1.688011 0.344564 0.002390 0.0
0.535066 2.325112 0.001153 0.0
3.959503 0.995303 -0.001130 0.0
2.947250 1.058978 0.002933 0.0
0.858014 1.050771 0.000157 0.0
2.643046 0.444890 0.001046 0.0
2.639931 1.438143 -0.001724 0.0
0.366594 0.777014 -0.000387 0.0
3.351463 2.382661 0.002411 0.0
1.644322 1.307076 0.003847 0.0
1.725647 1.736154 0.000541 0.0
4.087130 1.898904 -0.004815 0.0
4.175922 2.189463 -0.000220 0.0
2.654193 0.984106 0.000484 0.0
2.668312 1.703420 -0.002147 0.0
0.325502 1.076126 -0.000474 0.0
1.689820 0.015401 0.002342 0.0
1.160968 1.772456 -0.003222 0.0
2.189225 1.361574 -0.000170 0.0
1.760747 0.971053 0.000461 0.0
1.358544 1.416678 0.002884 0.0
2.465993 1.619664 -0.001955 0.0
1.746294 2.167909 -0.003185 0.0
2.754731 0.876611 0.003096 0.0
1.581290 0.860820 -0.001313 0.0
2.309008 2.091136 0.000311 0.0
0.569694 0.427049 0.001382 0.0
1.178545 1.201176 0.003323 0.0
2.238481 1.393976 -0.004157 0.0
0.765432 0.584339 0.000379 0.0
1.371470 0.742090 -0.000954 0.0
3.845660 0.238245 -0.000283 0.0
2.095450 2.032831 0.001258 0.0
1.132978 1.422390 -0.002887 0.0
1.267305 1.922629 0.000389 0.0
2.260783 1.647251 -0.001420 0.0
2.335014 0.598314 -0.002693 0.0
0.997315 1.096469 0.003293 0.0
3.610890 2.250234 -0.000761 0.0
0.656927 2.284247 -0.001620 0.0
2.282619 1.616289 0.000212 0.0
1.389176 1.288204 -0.000019 0.0
3.473893 0.613823 0.002441 0.0
1.168463 2.423664 0.002739 0.0
1.331447 1.483703 -0.001520 0.0
3.470736 0.004973 -0.000927 0.0
1.152441 0.909454 0.004366 0.0
2.294122 0.388454 -0.001568 0.0
1.086788 0.324634 0.000120 0.0
0.257709 1.967902 0.001097 0.0
3.488424 1.367421 0.001084 0.0
0.543153 1.527417 -0.000699 0.0
2.156945 1.351843 0.001101 0.0
3.578782 0.624399 0.002738 0.0
0.252493 0.173564 -0.000818 0.0
0.656348 2.409371 -0.002882 0.0
0.548217 1.305069 0.000837 0.0
3.756365 0.056785 0.006557 0.0
1.446438 1.041114 0.004664 0.0
1.922248 0.682022 -0.001394 0.0
3.029080 1.934294 0.001642 0.0
1.298139 1.384475 0.002886 0.0
3.008917 2.285177 0.003315 0.0
3.405703 0.781176 0.001891 0.0
2.378790 0.729248 -0.003105 0.0
0.028992 1.450425 -0.003006 0.0
3.536941 1.871069 0.003822 0.0
4.365637 0.666424 0.001296 0.0
0.287780 0.158636 -0.005451 0.0
1.033796 2.092818 0.004745 0.0
0.207555 1.093281 -0.004460 0.0
2.877336 1.107536 -0.001385 0.0
2.374261 1.929445 -0.003045 0.0
0.060879 1.763017 0.001598 0.0
2.425872 1.986095 -0.002873 0.0
0.638123 0.812834 0.002986 0.0
2.346878 0.232773 -0.001749 0.0
1.479966 1.277942 0.001853 0.0
1.699389 1.710070 0.000684 0.0
3.247185 1.687824 0.000348 0.0
2.661686 0.066271 0.001309 0.0
0.045422 1.842388 0.000256 0.0
0.507452 2.219304 -0.000641 0.0
1.137605 0.525468 -0.000894 0.0
1.826233 1.182728 0.003820 0.0
1.591700 1.835936 -0.001045 0.0
2.749690 2.193700 -0.000763 0.0
1.846969 1.844424 -0.002119 0.0
4.173474 2.083442 0.000407 0.0
2.466615 1.067726 -0.001948 0.0
3.849776 0.154599 0.003150 0.0
2.141194 2.411227 0.003247 0.0
3.618897 1.834466 -0.001896 0.0
1.094901 1.682898 0.000313 0.0
1.552661 1.349532 0.002642 0.0
3.703014 1.303917 0.004136 0.0
1.238453 1.023299 0.003893 0.0
3.479826 2.131796 0.000150 0.0
4.013512 1.666446 0.000021 0.0
1.065818 0.572205 0.003859 0.0
1.950162 1.474026 0.000559 0.0
4.291597 2.349634 0.002660 0.0
1.509292 1.536406 -0.000374 0.0
2.457661 0.966509 -0.002958 0.0
3.561718 0.853380 0.000627 0.0
4.208139 1.576566 0.001647 0.0
0.681152 1.871206 0.003417 0.0
4.242673 1.489309 0.002496 0.0
3.402825 1.677188 0.002145 0.0
2.152321 1.411668 0.000808 0.0
0.224274 1.886858 0.000923 0.0
4.397739 1.613978 0.001752 0.0
1.999002 0.842335 -0.003813 0.0
1.918032 0.432851 -0.001609 0.0
0.698392 1.162909 -0.002749 0.0
0.159509 1.429087 -0.002490 0.0
2.037850 1.930118 0.004460 0.0
1.771710 1.867255 -0.001007 0.0
4.293092 0.510996 0.000652 0.0
2.851135 1.512052 0.004088 0.0
3.635362 0.641248 -0.002081 0.0
3.711065 0.037809 -0.005164 0.0
3.673250 1.553565 -0.001977 0.0
1.184325 0.565603 0.000675 0.0
2.792540 1.563421 -0.001329 0.0
4.235102 0.767231 0.005957 0.0
2.301638 1.271360 -0.002674 0.0
0.277108 0.327223 -0.004430 0.0
0.174325 0.230088 0.003583 0.0
1.679935 1.978262 -0.002788 0.0
2.081776 1.748292 -0.002602 0.0
0.353298 1.721347 -0.003958 0.0
0.945899 0.220172 0.000791 0.0
0.281748 1.763059 -0.000613 0.0
4.133967 2.108459 -0.000190 0.0
0.896291 1.944472 -0.003209 0.0
0.136434 1.222627 -0.001676 0.0
0.507202 1.710216 -0.002139 0.0
4.298020 1.047144 -0.002087 0.0
1.510332 1.175456 -0.001805 0.0
2.732595 1.966791 -0.001147 0.0
3.351512 1.167979 -0.004173 0.0
2.115458 0.067840 0.001292 0.0
0.700774 1.066118 -0.000502 0.0
3.434534 0.959415 -0.001470 0.0
1.687759 1.657041 -0.000106 0.0
0.650299 0.363616 -0.003999 0.0
0.892379 1.552675 -0.000154 0.0
1.000897 0.755549 0.000170 0.0
0.966030 0.763199 0.001002 0.0
3.818691 0.860349 -0.003496 0.0
0.340045 1.228196 -0.002051 0.0
3.704577 1.778999 0.000090 0.0
3.091034 1.751721 -0.002058 0.0
2.355715 1.154030 -0.001642 0.0
3.818386 0.484812 -0.003406 0.0
1.717230 1.166204 -0.004278 0.0
1.518691 0.910615 0.000194 0.0
2.058363 1.561732 -0.005316 0.0
0.042211 2.287699 0.003431 0.0
1.952924 2.277388 -0.001760 0.0
0.040757 1.781904 -0.001811 0.0
3.462248 1.613511 0.001789 0.0
0.982607 1.362740 -0.001616 0.0
1.877641 0.334411 -0.007109 0.0
3.176124 0.080788 0.001156 0.0
0.592032 1.182967 -0.002409 0.0
3.525225 1.663383 -0.000230 0.0
0.208453 1.037418 0.003894 0.0
3.595724 1.604614 0.003686 0.0
3.537779 0.254451 0.002673 0.0
1.802263 1.854711 0.002190 0.0
2.378622 2.134956 0.002639 0.0
0.944088 1.429333 0.000915 0.0
3.920117 0.686133 0.002934 0.0
3.919022 2.031478 -0.006853 0.0
1.198093 2.252575 -0.004452 0.0
0.042560 0.010963 0.004748 0.0
3.111697 2.308404 0.000579 0.0
0.693389 0.866014 -0.002908 0.0
3.072497 0.259189 0.003202 0.0
1.553370 0.603996 -0.004030 0.0
2.658464 0.038383 -0.000734 0.0
1.690686 2.304596 0.004748 0.0
3.276755 0.682580 -0.000246 0.0
2.971034 2.351605 0.000898 0.0
0.576938 0.260734 -0.000550 0.0
1.583730 1.708196 0.001069 0.0
2.168004 0.958778 -0.002336 0.0
2.350947 1.546957 -0.001889 0.0
2.248035 2.433371 -0.000217 0.0
0.471994 1.167752 -0.000791 0.0
1.669347 1.353423 -0.001105 0.0
3.938628 0.333406 0.000136 0.0
0.745972 0.448216 -0.001926 0.0
3.500210 2.416994 0.003421 0.0
4.135629 2.001481 -0.001740 0.0
4.429047 0.141560 -0.000198 0.0
3.025796 1.320286 -0.000530 0.0
1.915002 1.558743 0.000684 0.0
0.459900 0.562486 -0.000489 0.0
0.400974 1.824338 -0.001965 0.0
3.197685 1.310158 0.003831 0.0
2.758826 1.300768 -0.000214 0.0
2.898874 2.227105 -0.001652 0.0
2.935668 2.435477 0.004142 0.0
1.371762 1.903508 -0.000405 0.0
0.348296 0.378869 0.000093 0.0
1.819244 1.216310 -0.000407 0.0
1.944970 0.538826 -0.002391 0.0
2.580816 0.369576 -0.002803 0.0
1.163153 1.567733 -0.000956 0.0
3.364093 1.697199 -0.001123 0.0
3.635050 1.790536 -0.000279 0.0
3.472980 0.483865 0.001021 0.0
0.836380 1.497441 0.002194 0.0
0.503970 1.355730 -0.001033 0.0
0.042864 0.161316 0.003924 0.0
3.073031 2.088845 0.000411 0.0
1.204909 1.096165 -0.002580 0.0
4.183994 1.968916 0.000463 0.0
0.746879 0.210867 -0.004611 0.0
2.420067 1.363211 -0.000534 0.0
2.496238 0.375977 0.001265 0.0
0.213154 1.851212 -0.001281 0.0
0.634757 0.879119 0.001280 0.0
3.468726 2.179438 0.000360 0.0
0.495333 0.915455 0.001136 0.0
0.654488 1.717015 -0.000063 0.0
2.893141 2.136478 -0.000427 0.0
4.369364 1.602444 -0.001154 0.0
0.118208 1.742892 -0.003426 0.0
2.049707 0.267205 -0.001019 0.0
4.277181 2.166902 0.004576 0.0
2.200312 2.019072 0.002177 0.0
1.230242 2.045177 0.000500 0.0
