0.65158877 1.44470409 0.00084662 0.00000000
4.00993035 0.01108813 0.00331865 0.00000000
2.95370246 1.13849137 0.00116729 0.00000000
0.17780531 0.54459820 0.00394341 0.00000000
0.30647088 1.20723559 -0.00130518 0.00000000
0.12763773 1.57143528 0.00024405 0.00000000
3.58544760 1.39472744 -0.00081309 0.00000000
0.04697841 0.02278019 -0.00139296 0.00000000
3.52947539 1.04308316 -0.00355363 0.00000000
3.84800603 0.65434224 -0.00160810 0.00000000
3.90724256 1.23242666 0.00096182 0.00000000
1.10579306 1.37597368 0.00222030 0.00000000
0.78979064 0.82626332 -0.00042521 0.00000000
2.75086899 1.00900606 0.00375588 0.00000000
1.08861298 0.04161561 -0.00371381 0.00000000
0.17592564 0.28676901 -0.00308654 0.00000000
3.12324441 0.10301093 0.00085896 0.00000000
2.88495681 0.54018974 -0.00017821 0.00000000
1.66132792 1.17769583 -0.00516791 0.00000000
1.09145664 1.38929093 0.00317044 0.00000000
2.28601221 1.53786241 -0.00142852 0.00000000
2.61792255 0.17259334 0.00313202 0.00000000
2.81851667 0.08120182 -0.00016557 0.00000000
1.79317378 0.88532622 0.00137220 0.00000000
1.83208604 0.06145244 -0.00078816 0.00000000
0.84084234 1.19753837 0.00257660 0.00000000
0.00236049 1.06530625 -0.00036937 0.00000000
2.95447976 0.21829377 -0.00239800 0.00000000
3.89086511 0.53366663 -0.00072070 0.00000000
3.92628128 0.24215078 0.00008845 0.00000000
3.36245149 1.34660222 0.00103013 0.00000000
0.50792069 1.16293877 0.00359583 0.00000000
2.84475078 0.71517423 -0.00213983 0.00000000
1.60735055 0.75341749 -0.00026613 0.00000000
3.22772332 0.60769016 -0.00075622 0.00000000
2.34330887 0.96724892 0.00580175 0.00000000
3.32599868 0.57686333 -0.00212240 0.00000000
1.97432011 0.21491378 -0.00328943 0.00000000
1.40041384 0.69878137 -0.00080269 0.00000000
2.19183300 0.74118561 0.00217703 0.00000000
1.09399598 0.71906738 -0.00214986 0.00000000
1.25679538 0.94737693 -0.00341537 0.00000000
0.93933379 0.91336633 -0.00337770 0.00000000
3.91095860 1.48240756 -0.00241539 0.00000000
0.70731845 0.36542549 0.00257047 0.00000000
2.69805789 0.55550247 -0.00134625 0.00000000
0.52584830 1.08169793 -0.00426381 0.00000000
0.97528579 0.46732132 -0.00229126 0.00000000
0.94548957 0.43855623 0.00284933 0.00000000
0.44351291 0.17325875 -0.00033904 0.00000000
3.55154424 0.66038568 -0.00078241 0.00000000
2.53192415 0.83398781 0.00076978 0.00000000
0.48540760 1.19242344 0.00253857 0.00000000
1.72024774 0.34209076 -0.00168732 0.00000000
2.65643648 0.46686801 0.00237453 0.00000000
0.87589187 1.04112260 0.00068031 0.00000000
0.95558550 0.43254705 0.00068554 0.00000000
0.74048408 1.54720355 -0.00065368 0.00000000
3.11198390 0.59162638 -0.00248369 0.00000000
3.06388722 1.29033369 0.00446820 0.00000000
2.35348214 0.22154066 -0.00061371 0.00000000
3.29868857 1.22561542 0.00190825 0.00000000
1.30782333 0.41383622 -0.00022887 0.00000000
0.82609238 0.25827295 0.00146426 0.00000000
0.75444828 0.63224069 -0.00166273 0.00000000
1.88321420 1.41611527 0.00205878 0.00000000
2.91559586 0.13287764 -0.00334608 0.00000000
3.43462749 0.77198088 0.00044141 0.00000000
0.04547423 0.58779871 -0.00492383 0.00000000
2.04513952 0.61540892 0.00283898 0.00000000
0.90395649 1.48702911 -0.00282289 0.00000000
2.58870435 0.83965957 -0.00289735 0.00000000
1.39593962 0.02676040 -0.00684607 0.00000000
3.61892187 0.00165456 -0.00270354 0.00000000
3.68535328 0.43887871 -0.00474883 0.00000000
1.17562285 1.12744818 -0.00025432 0.00000000
0.55545239 0.38013164 0.00086297 0.00000000
0.99251897 0.12106461 0.00117126 0.00000000
1.86382362 1.30783148 -0.00013810 0.00000000
1.41160128 0.27357640 -0.00123612 0.00000000
0.04659812 1.29381572 -0.00233382 0.00000000
0.23760110 1.51898033 -0.00320178 0.00000000
2.16387622 0.00894964 0.00106062 0.00000000
1.38128104 0.19672989 -0.00370843 0.00000000
2.48569686 0.05580624 -0.00113886 0.00000000
1.48988492 0.31691345 -0.00260626 0.00000000
3.19287236 1.36884740 -0.00304353 0.00000000
1.33134286 1.37951982 -0.00124660 0.00000000
0.62423844 0.73519474 -0.00120793 0.00000000
2.21205150 1.68804340 0.00405346 0.00000000
3.71884503 0.04845167 0.00063875 0.00000000
1.69373670 0.61240434 -0.00307258 0.00000000
3.66527764 0.50075321 0.00063911 0.00000000
2.01612863 0.45585518 -0.00360079 0.00000000
3.06059121 1.07159570 0.00178138 0.00000000
0.58512849 0.61720583 0.00127426 0.00000000
1.27697347 1.52470573 -0.00423166 0.00000000
1.27954405 0.01218322 -0.00005696 0.00000000
0.10212893 1.36819982 0.00091229 0.00000000
2.84051460 1.71460739 -0.00027063 0.00000000
2.96170728 0.78723944 -0.00104169 0.00000000
3.58042044 1.26822380 0.00034748 0.00000000
1.38743139 1.15037588 -0.00116168 0.00000000
3.61717655 1.58442051 0.00224482 0.00000000
2.58949671 0.15073704 -0.00362680 0.00000000
1.19404402 1.31942317 0.00174348 0.00000000
3.12269434 0.66381770 -0.00230021 0.00000000
2.38441996 1.23175496 -0.00232543 0.00000000
0.85466676 1.50216620 -0.00206604 0.00000000
3.50368638 0.72178841 0.00264157 0.00000000
0.16265446 0.73805372 -0.00232702 0.00000000
3.46917323 1.22568854 -0.00145687 0.00000000
0.03229179 0.97102365 -0.00011109 0.00000000
1.28822633 0.01382234 -0.00510838 0.00000000
2.22694521 0.31722131 0.00115823 0.00000000
0.99804879 1.32599521 0.00191477 0.00000000
3.92992507 1.30069048 0.00004034 0.00000000
3.48850964 0.93897712 0.00346181 0.00000000
2.22878080 0.36208354 -0.00010498 0.00000000
0.26357651 0.23552512 -0.00186225 0.00000000
0.94894417 0.37037344 -0.00196372 0.00000000
3.32182807 0.58212957 -0.00117789 0.00000000
0.70035141 1.06992203 -0.00090750 0.00000000
2.28289796 0.63392149 0.00326943 0.00000000
0.80624963 1.47325650 -0.00050695 0.00000000
3.70535174 1.54473875 -0.00130711 0.00000000
3.78609259 1.57914459 -0.00169306 0.00000000
3.29661451 1.61292578 0.00114324 0.00000000
2.34269693 1.49055734 0.00038650 0.00000000
3.35809708 0.57032061 0.00351810 0.00000000
3.93453337 0.78455268 -0.00239163 0.00000000
2.01536806 1.67194121 0.00087862 0.00000000
3.64142686 1.57644342 -0.00367951 0.00000000
0.51120842 0.52068067 -0.00355136 0.00000000
1.53761444 1.54655830 0.00154908 0.00000000
1.54464360 0.37021761 0.00106839 0.00000000
3.53261744 0.40601580 -0.00175200 0.00000000
2.84348007 1.11648539 -0.00317976 0.00000000
2.22298559 0.44202316 -0.00096969 0.00000000
1.62782428 0.37936684 0.00163228 0.00000000
1.50598186 0.93200108 -0.00176951 0.00000000
0.82363015 1.20015887 0.00146192 0.00000000
1.57754627 1.59353376 0.00063726 0.00000000
0.25012664 1.65274759 0.00022996 0.00000000
3.18081512 1.52567228 -0.00147614 0.00000000
0.42359407 0.21409036 0.00056675 0.00000000
1.81447605 1.16540615 0.00269940 0.00000000
0.44731397 0.76997454 0.00132777 0.00000000
2.68678290 1.28452866 -0.00176693 0.00000000
3.24233383 1.05226614 -0.00442905 0.00000000
1.38739094 1.07907658 -0.00023119 0.00000000
1.96062658 0.38694043 0.00200668 0.00000000
0.02665280 1.71756734 -0.00646962 0.00000000
1.98471121 1.29375729 0.00175707 0.00000000
2.43973017 0.05269751 -0.00015677 0.00000000
1.79966324 0.91988563 -0.00651233 0.00000000
2.26409477 1.35359608 0.00020708 0.00000000
2.42327569 1.35979656 0.00161954 0.00000000
1.07926501 0.89472420 -0.00303146 0.00000000
1.19545750 1.19258494 0.00023041 0.00000000
2.91378342 0.83276188 0.00229870 0.00000000
2.43646314 0.92497574 -0.00190086 0.00000000
1.52947170 0.02808267 -0.00016060 0.00000000
0.91531517 1.35386875 -0.00272759 0.00000000
0.42810484 1.12233277 -0.00369632 0.00000000
1.74639062 1.71228303 -0.00092199 0.00000000
2.44022148 1.28929082 -0.00217535 0.00000000
2.45836475 1.67572822 -0.00230204 0.00000000
2.41676155 1.01563722 -0.00005715 0.00000000
1.22081074 0.03729966 -0.00016166 0.00000000
2.11222976 0.73752328 -0.00522532 0.00000000
1.48087389 1.48871142 0.00213101 0.00000000
3.51063239 1.40107746 0.00085212 0.00000000
0.08007309 0.31503878 0.00420333 0.00000000
0.78250528 0.33872691 0.00094363 0.00000000
2.86505759 1.36121897 -0.00182076 0.00000000
1.33696349 0.30956854 0.00245931 0.00000000
2.40860134 0.48726160 -0.00044328 0.00000000
3.69912754 0.88968402 0.00200444 0.00000000
2.41753657 1.05294823 0.00077550 0.00000000
0.25342667 1.53244272 -0.00468204 0.00000000
0.08823240 0.15183105 0.00002890 0.00000000
0.83311998 0.02128453 0.00162974 0.00000000
1.57390788 0.43779387 0.00475073 0.00000000
3.39963437 0.04918542 0.00609114 0.00000000
3.56369531 0.64742569 -0.00390415 0.00000000
2.39054447 0.04647227 -0.00301928 0.00000000
1.53928185 0.20170835 0.00296466 0.00000000
0.68401325 1.69724654 0.00247958 0.00000000
0.38723699 0.85124201 -0.00024845 0.00000000
3.81484848 1.04162349 -0.00157233 0.00000000
1.57317371 1.44030820 -0.00266989 0.00000000
3.63851738 0.60719862 0.00609269 0.00000000
0.98623944 0.76538830 0.00341017 0.00000000
3.33673637 1.56857727 -0.00332055 0.00000000
2.42689438 0.50884752 0.00597798 0.00000000
0.95088030 1.70716302 0.00125716 0.00000000
0.98416286 0.67563172 0.00088027 0.00000000
1.30352623 0.06220401 0.00412360 0.00000000
3.07991907 0.00088325 0.00511133 0.00000000
1.49962197 0.25102166 0.00240783 0.00000000
0.60366007 0.28361096 -0.00210231 0.00000000
3.44476251 1.50043628 0.00074072 0.00000000
1.13639452 1.37808927 0.00024521 0.00000000
2.81896476 0.31921411 -0.00202280 0.00000000
1.35430966 0.31460691 -0.00091465 0.00000000
2.98554163 1.02362700 -0.00126524 0.00000000
3.15703107 0.34800905 0.00140495 0.00000000
3.37271644 0.56938203 -0.00025009 0.00000000
0.96336902 1.42456124 -0.00084244 0.00000000
1.43384759 0.61182754 0.00128625 0.00000000
3.99835003 0.44557148 0.00383067 0.00000000
1.56382646 1.70832199 -0.00467520 0.00000000
0.44354778 0.50765197 -0.00070864 0.00000000
2.77722462 0.73987758 -0.00068637 0.00000000
1.44775713 0.29415996 0.00491080 0.00000000
0.58229841 0.48107222 -0.00019542 0.00000000
3.59242417 1.66750323 0.00312025 0.00000000
3.86067931 1.07744868 -0.00304347 0.00000000
1.81913201 1.08162131 0.00204421 0.00000000
1.02635818 0.83913276 -0.00003253 0.00000000
0.91428348 1.45759877 -0.00153246 0.00000000
1.37223150 0.27570066 -0.00134086 0.00000000
3.10380904 0.69146005 -0.00189886 0.00000000
0.78256059 0.01816659 0.00135853 0.00000000
3.46879929 0.07424251 -0.00119268 0.00000000
1.39058289 0.59904067 0.00249395 0.00000000
2.49709055 1.46854340 0.00396643 0.00000000
2.08171526 1.04660736 -0.00334197 0.00000000
2.89635256 0.22930277 -0.00158468 0.00000000
1.03519690 0.19550403 0.00233789 0.00000000
2.55030841 0.59290211 0.00153564 0.00000000
0.08996278 1.18795018 0.00536042 0.00000000
1.88540500 0.75123604 0.00151162 0.00000000
0.10958812 1.65011031 -0.00012397 0.00000000
0.48426026 0.44071523 0.00010374 0.00000000
2.17249735 0.55081931 0.00382822 0.00000000
3.68031713 1.44918775 0.00279461 0.00000000
0.49226245 1.18177816 -0.00083153 0.00000000
3.49985954 1.29595282 0.00149110 0.00000000
1.68934543 0.66894629 0.00142428 0.00000000
1.22958491 0.09714450 -0.00250167 0.00000000
1.65081550 0.46629072 -0.00277662 0.00000000
3.07269945 0.80178948 0.00145848 0.00000000
3.02388225 1.58001281 -0.00293647 0.00000000
2.22358485 0.42356160 -0.00087039 0.00000000
3.03638284 1.45448335 -0.00064329 0.00000000
3.94505929 1.62375922 -0.00016694 0.00000000
2.12111202 1.28510560 0.00074083 0.00000000
1.40012255 0.38303980 0.00236809 0.00000000
3.87222653 0.93213461 0.00409175 0.00000000
3.15467563 1.61659013 -0.00035292 0.00000000
0.75328157 0.03522371 -0.00202424 0.00000000
0.17553010 1.09970681 0.00306927 0.00000000
3.86059199 0.37022711 0.00056736 0.00000000
2.14352626 0.03572544 0.00366698 0.00000000
2.77932263 0.95778030 -0.00258603 0.00000000
0.57929696 1.11786314 0.00226054 0.00000000
2.10610843 0.66614089 -0.00063253 0.00000000
3.35818202 0.95712577 0.00573336 0.00000000
2.20723269 0.36679015 0.00396831 0.00000000
1.12679904 0.16129295 0.00045291 0.00000000
1.19126454 0.34903285 -0.00501229 0.00000000
2.74687873 0.35102281 0.00416549 0.00000000
1.39809344 0.53077144 -0.00041147 0.00000000
3.08275317 1.30626083 -0.00179604 0.00000000
0.27152830 0.73230648 -0.00117555 0.00000000
1.86547586 1.39482090 0.00293919 0.00000000
1.12653480 0.45621751 0.00221645 0.00000000
0.34177974 0.70742262 0.00202186 0.00000000
1.34991640 0.29403276 0.00271825 0.00000000
3.52078470 1.49853260 -0.00203385 0.00000000
1.94980827 1.16721293 0.00015393 0.00000000
0.03780475 0.40745709 -0.00325952 0.00000000
0.03938985 1.06612907 0.00018991 0.00000000
0.68381161 1.25139129 0.00241850 0.00000000
0.25046529 1.07285151 0.00070677 0.00000000
0.38201858 0.57307434 0.00690132 0.00000000
2.51478590 0.05395803 0.00237874 0.00000000
0.17673108 0.24312178 0.00317223 0.00000000
0.66083332 1.69510554 -0.00092541 0.00000000
1.93771057 0.26944388 -0.00183116 0.00000000
0.64009977 1.35260712 -0.00008874 0.00000000
2.88569724 1.63153107 -0.00452140 0.00000000
0.36845817 1.40242014 0.00011533 0.00000000
0.12838623 0.87735002 0.00332622 0.00000000
1.83925630 0.18622221 -0.00286488 0.00000000
2.66059794 0.20768746 -0.00219656 0.00000000
3.00283872 1.59020522 0.00169082 0.00000000
0.76577699 0.72850713 -0.00077300 0.00000000
0.81489343 0.77940247 -0.00384857 0.00000000
3.27590495 1.59730204 -0.00495629 0.00000000
1.34498450 0.95979471 0.00188001 0.00000000
4.03094242 0.36451311 0.00369958 0.00000000
2.21831906 0.64304023 -0.00027790 0.00000000
1.15255616 1.67781967 0.00267947 0.00000000
3.73335314 1.21819675 -0.00073823 0.00000000
3.42164447 1.26091554 -0.00002615 0.00000000
0.19552559 1.22183901 -0.00408370 0.00000000
2.79662366 1.43250963 -0.00360761 0.00000000
3.29430285 0.09492093 -0.00119569 0.00000000
2.44872141 0.41117208 -0.00089759 0.00000000
2.77057993 0.05459817 0.00074683 0.00000000
2.42729612 0.56865022 0.00018872 0.00000000
1.70214177 0.53333788 0.00054461 0.00000000
2.07403095 0.63292861 -0.00185200 0.00000000
1.64282329 0.86961905 0.00230834 0.00000000
2.52516043 1.55853081 0.00039960 0.00000000
3.28281978 0.83785038 -0.00456355 0.00000000
4.02101410 0.90953727 0.00456505 0.00000000
0.58495105 1.43197737 -0.00421990 0.00000000
2.22139235 0.53688385 0.00195214 0.00000000
1.77570329 1.15663749 -0.00364936 0.00000000
3.26592799 0.75599530 0.00054046 0.00000000
1.90038161 1.19987760 -0.00031455 0.00000000
1.89658914 1.39222528 0.00333068 0.00000000
0.49716414 1.64411132 -0.00106409 0.00000000
0.66433759 0.57648000 0.00211079 0.00000000
2.45754458 0.22658173 -0.00060377 0.00000000
1.14302779 0.58921439 0.00203544 0.00000000
3.57288795 1.01198968 -0.00426229 0.00000000
2.85626401 1.04716808 -0.00084494 0.00000000
3.04543553 0.95296167 -0.00341301 0.00000000
0.85248666 0.75988282 -0.00130264 0.00000000
2.98711805 0.44329424 0.00504322 0.00000000
3.75187953 0.21490468 0.00112847 0.00000000
2.67524929 0.52301708 0.00084230 0.00000000
1.31821765 0.94648899 0.00374352 0.00000000
2.76285729 1.61019008 -0.00076312 0.00000000
2.53923064 0.48127245 0.00004646 0.00000000
1.45371078 1.19814108 -0.00444199 0.00000000
3.06074219 0.54215799 0.00013950 0.00000000
1.35365633 0.17408724 -0.00338413 0.00000000
1.63419790 0.93176504 -0.00166000 0.00000000
1.59248806 0.25402587 0.00083200 0.00000000
3.03730548 0.34445045 0.00087239 0.00000000
0.79802626 0.96632625 -0.00136996 0.00000000
1.68371302 1.17410405 0.00170976 0.00000000
2.23551722 1.68867777 -0.00182594 0.00000000
2.72546657 0.62443574 0.00038468 0.00000000
3.32754577 1.61030976 0.00304645 0.00000000
2.38173388 0.21660095 -0.00335288 0.00000000
2.36521166 0.33231689 0.00039252 0.00000000
4.02896788 0.41660726 0.00349172 0.00000000
1.72795149 1.22966167 0.00548661 0.00000000
3.43453188 0.65335117 -0.00262101 0.00000000
4.01896944 1.13774122 -0.00296274 0.00000000
1.72135568 1.34176858 -0.00004169 0.00000000
0.58575716 0.39481329 -0.00405120 0.00000000
1.67245508 1.10343534 0.00216638 0.00000000
2.55170426 1.45153311 -0.00257414 0.00000000
2.82796111 0.89948077 -0.00072499 0.00000000
3.21565132 1.60663188 0.00221412 0.00000000
1.34194419 0.23472282 -0.00167641 0.00000000
1.71351993 0.85715605 0.00175654 0.00000000
1.43837052 1.07601183 0.00158474 0.00000000
1.86833080 1.16995124 0.00231946 0.00000000
0.37956144 1.17059233 0.00067152 0.00000000
1.82798896 0.93651238 -0.00454845 0.00000000
1.22055738 1.68063766 -0.00110529 0.00000000
3.20403318 0.95713296 -0.00164588 0.00000000
1.17386988 0.50501128 -0.00423069 0.00000000
0.70359831 0.73908042 0.00202224 0.00000000
0.56744773 1.44264865 -0.00325926 0.00000000
3.11709900 1.17113301 0.00046008 0.00000000
1.01933211 0.72173553 -0.00317652 0.00000000
3.86011912 0.30252863 0.00577483 0.00000000
2.97520835 0.32784199 0.00124468 0.00000000
1.23778060 1.09565874 -0.00016402 0.00000000
0.55198630 1.46242632 0.00255311 0.00000000
3.31597114 1.30981219 -0.00696846 0.00000000
3.01411089 0.76007089 -0.00269239 0.00000000
1.15518029 1.17711929 -0.00046425 0.00000000
1.67800909 1.62475668 0.00761135 0.00000000
1.30967913 0.91493708 0.00202795 0.00000000
1.66626030 1.21553233 -0.00018449 0.00000000
3.40508595 1.36206900 0.00150460 0.00000000
4.02779846 0.00080326 -0.00000333 0.00000000
2.76272137 1.70987964 -0.00125642 0.00000000
0.93902816 0.45473751 0.00003488 0.00000000
4.02195820 0.12659257 -0.00013676 0.00000000
1.92220036 0.22920318 0.00055277 0.00000000
3.50334859 0.05875093 -0.00208958 0.00000000
3.82569390 0.17613245 0.00091697 0.00000000
0.16370582 0.97845001 0.00199580 0.00000000
2.10341086 1.04249849 0.00127884 0.00000000
1.41895959 1.19045320 0.00279420 0.00000000
3.44327798 0.88402671 0.00123490 0.00000000
2.81375228 0.82605844 -0.00056206 0.00000000
2.68781368 0.11964192 0.00044325 0.00000000
1.58027202 0.01488348 -0.00140531 0.00000000
2.91929062 1.35439644 -0.00446911 0.00000000
1.05691566 0.09387601 0.00006225 0.00000000
0.17821661 0.61092957 0.00126795 0.00000000
3.86076046 0.09602083 0.00236460 0.00000000
1.49085809 1.67399276 -0.00047582 0.00000000
1.85318779 0.84968691 0.00138230 0.00000000
3.63917572 0.25231903 0.00293663 0.00000000
0.07915838 1.46968605 0.00357356 0.00000000
0.75616686 1.58344676 0.00181496 0.00000000
2.78958102 0.85286647 -0.00543761 0.00000000
1.75635902 0.73188936 -0.00519273 0.00000000
0.44488042 1.09401290 -0.00359492 0.00000000
1.77258726 1.48840092 0.00122758 0.00000000
1.91768547 0.16493822 0.00013375 0.00000000
1.29419159 1.22601804 0.00166187 0.00000000
0.15685405 0.65042697 0.00142036 0.00000000
3.04404380 1.62324515 0.00010303 0.00000000
2.15972198 0.25423964 -0.00212926 0.00000000
0.62675939 0.60109327 -0.00016056 0.00000000
0.50638038 1.04017539 -0.00220619 0.00000000
2.81764391 0.72931253 -0.00066812 0.00000000
1.43903536 1.59758202 -0.00147084 0.00000000
0.16112353 0.25140151 -0.00132209 0.00000000
3.17659026 1.57230868 0.00149015 0.00000000
2.57024926 1.07473083 0.00068190 0.00000000
2.08724181 0.48503219 -0.00002589 0.00000000
1.64237022 0.01516176 0.00260277 0.00000000
1.08357209 1.03231056 -0.00306121 0.00000000
2.80548863 1.29940314 0.00038988 0.00000000
0.52109758 1.16461072 0.00470905 0.00000000
2.68026766 0.27918984 -0.00000953 0.00000000
2.04838676 0.92158791 -0.00561062 0.00000000
3.49912377 0.96649450 -0.00166506 0.00000000
1.69425571 0.36100709 0.00189410 0.00000000
1.87920759 0.78996427 -0.00159079 0.00000000
1.08606024 0.67771099 0.00022296 0.00000000
3.58565725 1.69549579 -0.00154301 0.00000000
3.69314363 0.06780503 -0.00390477 0.00000000
2.77937637 0.80788470 -0.00124252 0.00000000
0.55684026 0.06093925 -0.00000818 0.00000000
1.55628448 1.44761021 0.00271611 0.00000000
4.02779699 1.32078921 -0.00162795 0.00000000
2.21305244 0.30012637 -0.00039261 0.00000000
2.78568129 0.18839054 0.00050832 0.00000000
1.13234241 0.52623877 -0.00227948 0.00000000
0.83589659 0.88090129 -0.00011183 0.00000000
3.17369819 0.32343431 -0.00113643 0.00000000
2.60526284 0.60529537 -0.00283828 0.00000000
3.35902931 0.07554422 -0.00044516 0.00000000
3.63978663 1.16725317 -0.00265644 0.00000000
0.32595138 0.04397755 0.00342709 0.00000000
1.30281515 1.18182665 0.00078146 0.00000000
0.20443920 0.00273063 0.00300058 0.00000000
3.52211867 0.57912111 0.00045131 0.00000000
2.03903373 0.56366527 0.00112415 0.00000000
3.56112230 0.33586756 -0.00290444 0.00000000
2.69848046 0.51050348 -0.00197575 0.00000000
2.31315404 0.24503764 0.00037847 0.00000000
2.71624479 1.25171516 -0.00213913 0.00000000
3.85674401 1.19735314 0.00018840 0.00000000
2.90956992 1.53244157 -0.00367597 0.00000000
3.76004952 0.38704888 -0.00036507 0.00000000
1.28292888 0.62108506 -0.00031966 0.00000000
1.56527236 0.79078631 -0.00064509 0.00000000
1.56644059 0.15001235 -0.00130081 0.00000000
1.40941384 0.04400537 -0.00246902 0.00000000
2.61006271 1.34665864 0.00091307 0.00000000
3.71906137 0.75196269 -0.00412291 0.00000000
2.46031138 0.86746677 0.00272198 0.00000000
1.66030295 1.38545354 0.00023847 0.00000000
3.50200435 0.78154396 0.00222390 0.00000000
1.91330138 0.87112124 -0.00222552 0.00000000
3.24801120 0.10396849 0.00241403 0.00000000
2.44990255 0.30605848 -0.00070581 0.00000000
1.65500079 1.07412368 -0.00389567 0.00000000
2.19217996 1.68944079 -0.00217688 0.00000000
0.11453345 0.59195194 0.00071100 0.00000000
0.97010868 0.44864385 0.00023226 0.00000000
2.81650206 0.28320203 0.00443623 0.00000000
0.81010793 0.97478837 -0.00021242 0.00000000
1.92842824 0.04001887 0.00213388 0.00000000
2.95621882 0.40232741 0.00055874 0.00000000
0.59902045 0.68622643 -0.00239683 0.00000000
1.16614436 0.77445310 0.00114558 0.00000000
2.73945322 0.42299285 0.00257730 0.00000000
1.35775295 0.68524765 0.00587419 0.00000000
3.13013164 0.29771945 -0.00089890 0.00000000
0.78404559 0.66024659 0.00209129 0.00000000
1.82409168 0.41574280 -0.00081798 0.00000000
1.66749065 0.75880182 0.00192263 0.00000000
1.40671587 0.21123717 -0.00240190 0.00000000
0.74467528 0.39504950 -0.00030262 0.00000000
0.71657577 1.12824880 0.00224993 0.00000000
3.53010726 0.31912867 0.00641202 0.00000000
1.61086660 1.19007819 -0.00122540 0.00000000
2.82669316 0.55829182 0.00189162 0.00000000
1.11621591 0.37619529 0.00484232 0.00000000
3.00344251 1.13355284 -0.00224695 0.00000000
3.50078263 1.30028323 0.00276183 0.00000000
0.16179360 1.03248804 0.00304821 0.00000000
3.52774081 0.82752093 -0.00132607 0.00000000
2.75587311 1.60782037 0.00164703 0.00000000
4.00281387 0.48418715 -0.00220654 0.00000000
0.39506262 0.26743449 0.00253341 0.00000000
2.14556679 1.11628843 0.00435772 0.00000000
1.97820168 0.67785377 -0.00117016 0.00000000
0.89406721 0.13748433 0.00017727 0.00000000
0.62631973 0.92330174 -0.00685376 0.00000000
0.79105556 1.54703296 0.00185017 0.00000000
3.82533623 1.08692543 -0.00131346 0.00000000
2.09471221 1.07843528 0.00591602 0.00000000
1.76352022 1.16463589 0.00255489 0.00000000
3.85327663 0.90518581 0.00447323 0.00000000
3.94659127 0.99659970 -0.00215529 0.00000000
0.14260572 0.70196842 0.00189354 0.00000000
3.79538488 1.34557193 -0.00272769 0.00000000
2.68657637 1.59125883 -0.00359430 0.00000000
1.04375652 0.63442099 -0.00160464 0.00000000
2.64540028 0.67624283 -0.00003853 0.00000000
1.38603117 1.11215113 -0.00077755 0.00000000
2.09087856 0.12662225 -0.00034439 0.00000000
0.46354001 1.62544073 -0.00059666 0.00000000
3.56633418 1.37081333 0.00059447 0.00000000
2.85283593 1.62033971 -0.00426138 0.00000000
2.22021049 0.02225700 -0.00129302 0.00000000
2.59579229 0.72685604 0.00061844 0.00000000
3.55546805 1.66926879 0.00249285 0.00000000
0.68008465 1.42282208 0.00044411 0.00000000
1.56421724 0.47414636 -0.00248755 0.00000000
2.85063074 1.46690980 0.00046152 0.00000000
3.05607096 0.61704614 -0.00324625 0.00000000
2.28170040 1.45815956 -0.00220713 0.00000000
3.42811158 0.40544747 0.00117227 0.00000000
1.23140836 0.16483401 0.00028197 0.00000000
2.72518259 1.27690396 0.00150457 0.00000000
2.61085146 0.48720751 0.00052618 0.00000000
0.98204297 1.58548017 0.00268363 0.00000000
0.66583660 1.57664237 0.00055226 0.00000000
0.94028218 1.26098370 0.00043494 0.00000000
3.04577679 0.21288760 -0.00352089 0.00000000
3.05462757 0.60344192 0.00233381 0.00000000
0.29050138 0.32492576 -0.00156367 0.00000000
2.31161049 0.07673604 0.00001105 0.00000000
3.18167381 0.07845982 0.00166418 0.00000000
3.53462410 0.71840128 0.00013404 0.00000000
2.35196487 1.06036568 -0.00578740 0.00000000
1.25838125 0.07522312 -0.00048831 0.00000000
1.18942843 0.65690470 -0.00187828 0.00000000
3.51641599 1.24403310 -0.00160238 0.00000000
2.02402696 1.63606216 0.00097314 0.00000000
1.54870353 1.67540477 0.00166232 0.00000000
2.75544013 0.28422426 -0.00331621 0.00000000
2.99586226 0.77330099 -0.00400079 0.00000000
1.12325171 0.59134050 -0.00118730 0.00000000
1.17389056 1.45922077 -0.00143701 0.00000000
2.77205806 0.58039831 -0.00240977 0.00000000
0.08262786 0.95202917 -0.00250135 0.00000000
3.78369764 0.84325661 -0.00486656 0.00000000
0.14759693 0.14167528 0.00185279 0.00000000
1.34570704 0.75192389 -0.00433102 0.00000000
3.48429840 0.14939272 -0.00073901 0.00000000
2.98864072 0.16426544 0.00031287 0.00000000
3.30777379 0.69320239 -0.00219174 0.00000000
0.49092550 0.64501998 0.00018196 0.00000000
0.65760559 1.11897510 -0.00110617 0.00000000
1.43714046 0.65412575 0.00206417 0.00000000
2.73174941 0.96373741 0.00286791 0.00000000
1.24427344 1.20142681 -0.00294997 0.00000000
2.23518284 0.03886577 0.00408640 0.00000000
2.08333416 0.24740029 -0.00272752 0.00000000
2.32514256 0.68148843 0.00520532 0.00000000
1.78265624 0.55447041 -0.00383115 0.00000000
0.22169425 0.31823875 -0.00110685 0.00000000
3.76663632 0.77146766 0.00033884 0.00000000
1.09265359 0.24362561 0.00223797 0.00000000
3.67550253 0.65526167 -0.00058188 0.00000000
2.19621823 1.00689217 -0.00017797 0.00000000
1.28216077 0.85586194 -0.00033466 0.00000000
0.32805890 1.14402816 -0.00040386 0.00000000
1.86934490 0.85512965 -0.00060252 0.00000000
2.15478355 1.30116743 -0.00273899 0.00000000
1.89442375 0.96569554 -0.00333827 0.00000000
2.84410221 1.17642788 -0.00449886 0.00000000
2.58616181 0.56133426 -0.00290764 0.00000000
0.77835127 1.33175908 0.00267376 0.00000000
2.61668290 0.45122658 -0.00085870 0.00000000
0.00777816 1.04496818 0.00232734 0.00000000
1.58906894 0.54260727 -0.00280416 0.00000000
2.57284502 0.05977614 -0.00185130 0.00000000
2.52847348 1.33251389 0.00337379 0.00000000
3.49549192 0.74891319 0.00159744 0.00000000
3.51531794 1.03060036 0.00464729 0.00000000
3.75454432 0.68368713 -0.00187547 0.00000000
3.65808044 0.32495859 -0.00107995 0.00000000
1.77263379 0.77625807 0.00088291 0.00000000
2.43267005 1.45341838 0.00399149 0.00000000
1.04776162 0.40473617 0.00171084 0.00000000
1.15377356 0.44904439 -0.00152580 0.00000000
0.77960626 0.99296011 -0.00306036 0.00000000
2.67534173 0.60379207 -0.00787255 0.00000000
3.88607345 1.57398660 -0.00227441 0.00000000
1.29534773 0.79794785 0.00130388 0.00000000
2.74193351 0.20418996 0.00282978 0.00000000
1.89425947 1.68180579 -0.00138810 0.00000000
2.43016098 1.43071437 -0.00085914 0.00000000
3.81477767 1.40475919 -0.00166571 0.00000000
3.47408432 0.14860804 0.00150765 0.00000000
0.85516714 0.79791140 0.00618755 0.00000000
2.52394607 0.44958865 -0.00148623 0.00000000
1.04170736 1.09184230 0.00153911 0.00000000
2.49882076 0.57632810 -0.00172842 0.00000000
1.60550031 0.72710060 0.00089856 0.00000000
0.92318365 0.39194550 -0.00387725 0.00000000
3.09023507 1.10535802 -0.00051306 0.00000000
0.22162463 0.47872733 -0.00303028 0.00000000
0.22394452 0.48538799 0.00560582 0.00000000
0.01579128 1.61985039 0.00112361 0.00000000
3.04456683 1.21824929 0.00488856 0.00000000
3.67515523 1.29045786 0.00044325 0.00000000
2.60769677 0.10848083 -0.00145241 0.00000000
0.31902535 0.75039557 -0.00014735 0.00000000
1.89095179 1.47884778 0.00277014 0.00000000
3.89046414 1.30175189 0.00157746 0.00000000
2.43238889 0.84926726 -0.00232040 0.00000000
3.87890074 0.78574590 0.00687966 0.00000000
3.05161524 0.49045446 0.00395748 0.00000000
0.24728380 1.45133033 -0.00053668 0.00000000
2.57296265 1.09702531 0.00405935 0.00000000
1.29302948 1.60986895 -0.00304708 0.00000000
0.05160844 0.09436360 0.00271058 0.00000000
3.26910805 0.01323141 0.00053770 0.00000000
0.43323144 0.94590960 0.00213996 0.00000000
4.00734300 0.97541140 0.00171145 0.00000000
2.93662741 1.18845955 -0.00155288 0.00000000
2.15969430 1.67674170 0.00197265 0.00000000
1.62049413 1.26543319 -0.00229517 0.00000000
1.84499973 0.69794091 0.00439242 0.00000000
3.79587008 0.02427052 0.00112087 0.00000000
3.76285407 0.55733713 -0.00016050 0.00000000
3.23268197 0.46146296 -0.00195458 0.00000000
2.99901769 1.26387023 0.00177447 0.00000000
0.11510228 0.91566332 -0.00060023 0.00000000
2.08579744 1.66066913 -0.00303427 0.00000000
1.05054685 1.12937288 -0.00228685 0.00000000
2.00316463 1.20979075 -0.00415771 0.00000000
0.89186555 0.88167541 -0.00254986 0.00000000
3.32061086 1.13582281 -0.00056302 0.00000000
2.79422801 1.54451832 0.00483326 0.00000000
2.28626647 1.18832525 -0.00108734 0.00000000
2.63527729 0.71634514 0.00209592 0.00000000
3.08809437 1.35221228 0.00064556 0.00000000
1.37877193 1.13045986 -0.00078318 0.00000000
0.95427662 1.57758659 0.00032813 0.00000000
2.38235323 0.26670216 0.00113454 0.00000000
0.42663354 1.59787594 0.00357440 0.00000000
3.86317320 1.40823378 0.00199419 0.00000000
1.47750824 1.07378682 0.00471316 0.00000000
3.02660365 0.86286742 -0.00375853 0.00000000
3.56192076 0.90429326 0.00045819 0.00000000
0.24019215 0.69301264 -0.00027440 0.00000000
0.08823734 1.63072028 0.00145396 0.00000000
3.96364926 1.47448263 -0.00010698 0.00000000
3.23237448 0.18128773 -0.00091706 0.00000000
0.34700317 1.24828850 0.00218280 0.00000000
3.79906901 1.48431509 0.00111457 0.00000000
3.16158944 1.16827246 0.00087586 0.00000000
3.47466847 1.30954399 0.00523520 0.00000000
2.40926688 0.68792613 -0.00028711 0.00000000
1.64444286 0.26237074 0.00206787 0.00000000
3.94395477 1.55923864 0.00280799 0.00000000
2.73537191 1.62107178 0.00032904 0.00000000
0.02238282 0.98173578 0.00392535 0.00000000
0.03721329 1.50185359 -0.00133684 0.00000000
2.03646442 0.88198759 -0.00328779 0.00000000
1.54514699 1.13410556 0.00188405 0.00000000
0.93599947 1.64565549 0.00133449 0.00000000
2.93916892 0.03452576 0.00270329 0.00000000
3.25074604 0.83367099 -0.00205527 0.00000000
3.76061412 0.36470966 -0.00327602 0.00000000
1.31617143 1.50158170 0.00525359 0.00000000
3.52673440 1.49576017 0.00760147 0.00000000
3.46845936 0.13029408 0.00237926 0.00000000
1.17550584 1.01263027 -0.00258623 0.00000000
3.49830488 0.95415695 0.00091854 0.00000000
2.51059102 0.39743554 0.00300543 0.00000000
0.86230817 0.55747582 0.00013162 0.00000000
3.33799719 1.55589198 -0.00180939 0.00000000
2.55754475 1.17863808 0.00125000 0.00000000
0.11077148 1.04344361 -0.00434275 0.00000000
1.64061755 0.90052698 0.00053017 0.00000000
2.28788252 0.29569579 0.00218379 0.00000000
1.46652457 0.27851343 0.00028641 0.00000000
2.26047287 1.55437868 -0.00258539 0.00000000
1.30891226 0.79155416 -0.00175598 0.00000000
3.48151282 0.26038512 0.00207200 0.00000000
3.10297042 1.62427879 0.00095127 0.00000000
0.37128625 0.82781789 0.00069668 0.00000000
2.83328681 1.11019621 0.00232590 0.00000000
3.48944640 0.40942456 -0.00112282 0.00000000
0.95079536 1.55792543 -0.00279894 0.00000000
3.32114983 1.35930393 0.00329496 0.00000000
0.67094248 0.08394772 -0.00221242 0.00000000
3.90989507 0.25635088 -0.00140872 0.00000000
3.68132437 1.19552139 0.00443601 0.00000000
2.63005681 1.53402230 0.00196964 0.00000000
0.65700629 0.76075178 0.00117406 0.00000000
0.38508658 1.36645063 -0.00164675 0.00000000
2.91621181 1.22747546 -0.00390126 0.00000000
1.51305250 0.07734369 -0.00170177 0.00000000
3.67138498 0.09111535 -0.00214291 0.00000000
0.54586896 1.61129907 -0.00095026 0.00000000
2.52027944 1.06698903 -0.00064882 0.00000000
0.36015938 1.11719244 -0.00072342 0.00000000
2.60647664 0.17587223 0.00046151 0.00000000
0.20645281 1.10541567 0.00383502 0.00000000
0.89810954 0.14446386 -0.00167982 0.00000000
3.42360339 0.67776356 0.00465653 0.00000000
2.90485573 1.07952074 0.00244471 0.00000000
2.12488682 1.02973880 0.00091069 0.00000000
0.62360857 0.29657933 -0.00315423 0.00000000
2.78994101 0.20673540 -0.00394962 0.00000000
3.58859744 0.21547239 0.00212732 0.00000000
1.28101049 0.59498415 0.00162550 0.00000000
1.79438510 1.71353544 -0.00144751 0.00000000
1.99453145 1.65382543 0.00208727 0.00000000
2.93461068 1.04831389 -0.00003742 0.00000000
0.08564253 0.85315957 0.00504090 0.00000000
2.29244756 1.41208252 0.00556193 0.00000000
1.21114838 1.37622300 0.00032135 0.00000000
1.76808186 0.33879336 0.00280989 0.00000000
1.20406447 0.97495064 0.00262588 0.00000000
3.98884857 0.45851840 0.00116766 0.00000000
2.52333527 0.69346357 0.00075329 0.00000000
0.00840391 1.28582620 -0.00386667 0.00000000
1.95786874 0.24820468 -0.00267730 0.00000000
2.49528201 0.52964757 0.00512106 0.00000000
3.41830444 0.38619935 0.00041000 0.00000000
3.43049140 0.87812668 -0.00303668 0.00000000
0.46396631 0.86166118 0.00298812 0.00000000
1.11199104 0.87683208 0.00466195 0.00000000
3.56892839 1.21476324 -0.00308328 0.00000000
1.88146248 0.90123985 0.00063031 0.00000000
1.70429205 0.66944849 0.00131984 0.00000000
1.82934681 0.55865324 0.00035860 0.00000000
0.39128428 1.21894056 -0.00414155 0.00000000
1.15939360 0.58704236 -0.00097380 0.00000000
3.97683347 0.29848730 0.00357294 0.00000000
1.16927877 0.04096409 -0.00203982 0.00000000
1.67394709 1.08303078 0.00162102 0.00000000
1.03665068 0.96445072 -0.00024567 0.00000000
2.79147731 0.71893931 0.00356187 0.00000000
3.43488949 0.44732143 -0.00290622 0.00000000
0.15132419 0.61920448 0.00031897 0.00000000
2.13838262 1.09512667 0.00056826 0.00000000
0.07669144 1.45138296 0.00007744 0.00000000
2.30798060 1.04678648 0.00101210 0.00000000
2.19488949 0.23928922 0.00088451 0.00000000
0.22168127 0.55809105 0.00020489 0.00000000
1.44169401 0.75908926 0.00016027 0.00000000
1.39140956 0.34738967 -0.00377450 0.00000000
3.48964960 0.12137053 -0.00361141 0.00000000
2.22208481 0.73344405 0.00340592 0.00000000
3.59915593 0.96569933 0.00121511 0.00000000
0.52909072 0.33450149 0.00343039 0.00000000
4.01294897 0.49621863 -0.00081147 0.00000000
1.63478463 0.85202414 0.00226126 0.00000000
0.85371485 1.11753941 -0.00113767 0.00000000
0.64701966 0.55904171 -0.00179172 0.00000000
0.11700184 0.81526112 0.00182272 0.00000000
2.18501556 1.63563404 -0.00469855 0.00000000
0.69326598 1.00763283 0.00083491 0.00000000
2.97511501 1.36475524 -0.00070217 0.00000000
3.40573409 1.00956989 -0.00049070 0.00000000
2.69608965 1.21270103 0.00014139 0.00000000
2.34276427 1.51044489 0.00307718 0.00000000
0.61827806 1.33238843 0.00207436 0.00000000
3.21394222 1.23607214 -0.00351815 0.00000000
2.89130618 1.19681373 0.00236569 0.00000000
1.53453234 1.09758701 -0.00222177 0.00000000
0.53070946 1.36499741 -0.00050091 0.00000000
2.42212160 0.88104357 -0.00026610 0.00000000
2.74074510 1.17803848 0.00279709 0.00000000
2.13035596 0.14340811 -0.00336270 0.00000000
0.67107911 0.50585734 0.00091245 0.00000000
0.91120763 0.34419422 0.00162847 0.00000000
2.73462357 1.64992359 -0.00348551 0.00000000
2.52093766 1.11308449 -0.00094788 0.00000000
2.45571405 0.42934186 -0.00256766 0.00000000
2.52510308 1.43243457 -0.00041875 0.00000000
0.96491686 0.29651955 -0.00201752 0.00000000
3.72647070 1.21077425 0.00497189 0.00000000
3.47006710 0.12847552 -0.00077153 0.00000000
3.63584050 0.69093491 0.00064503 0.00000000
2.41064682 0.55953755 0.00579709 0.00000000
3.51252024 0.75491316 -0.00566656 0.00000000
2.21855447 1.58645388 0.00483578 0.00000000
3.54556666 1.40051361 0.00122833 0.00000000
3.00554297 1.03183180 -0.00341107 0.00000000
1.79084010 0.55751932 -0.00138282 0.00000000
0.60849194 0.58507621 -0.00373335 0.00000000
0.32723437 1.62367594 0.00397935 0.00000000
3.67053153 0.60328344 0.00234605 0.00000000
1.96136099 1.67221667 -0.00152297 0.00000000
3.94413790 0.43996238 -0.00175382 0.00000000
2.90813930 0.11156166 -0.00109453 0.00000000
1.81446833 1.67597378 0.00081609 0.00000000
0.33154069 0.04827839 0.00146263 0.00000000
0.64822132 0.12358225 -0.00465066 0.00000000
1.51047855 1.28169577 -0.00289946 0.00000000
1.10135172 0.22515404 0.00176393 0.00000000
2.48359362 0.65986685 0.00275174 0.00000000
1.08708920 0.36004147 -0.00147922 0.00000000
0.03630357 1.34012766 -0.00279817 0.00000000
1.52931815 0.81627401 0.00057799 0.00000000
3.54197048 0.71961453 0.00154740 0.00000000
3.99374109 1.39938514 -0.00094937 0.00000000
0.15425343 0.15441855 0.00676114 0.00000000
1.57243904 1.08728749 0.00374639 0.00000000
0.87524242 1.37805245 0.00251259 0.00000000
2.74837676 1.03933980 -0.00299478 0.00000000
0.76505661 0.28295674 0.00082777 0.00000000
1.06437134 0.94962043 -0.00453244 0.00000000
2.44509768 1.35883073 -0.00317521 0.00000000
0.14776831 0.37006388 -0.00077471 0.00000000
3.77224514 0.23210553 -0.00534945 0.00000000
3.22450021 0.63969085 -0.00481324 0.00000000
1.20151252 0.51592094 -0.00094532 0.00000000
2.21033353 0.76175597 -0.00334222 0.00000000
0.95687393 1.06464065 -0.00308450 0.00000000
2.14469285 1.17643674 -0.00329127 0.00000000
0.58758596 1.60197231 -0.00361815 0.00000000
3.59417311 0.01061251 0.00102155 0.00000000
1.96175509 0.65205100 0.00094255 0.00000000
2.48775381 0.99793847 0.00403129 0.00000000
3.77105286 1.37354192 0.00246279 0.00000000
3.69355073 0.90801832 0.00267800 0.00000000
2.41595131 1.11818800 0.00464086 0.00000000
3.78391067 1.43584648 -0.00063197 0.00000000
1.52171643 1.41136526 0.00397769 0.00000000
1.63830362 1.71987825 -0.00136294 0.00000000
2.94603814 0.38378285 -0.00109125 0.00000000
3.80005711 0.80715344 0.00300096 0.00000000
3.43182381 0.93447994 -0.00167441 0.00000000
0.46884053 0.63087769 -0.00390365 0.00000000
3.58052465 0.63441276 -0.00299615 0.00000000
0.18202439 1.69493034 0.00046260 0.00000000
1.22751874 1.47058490 0.00084769 0.00000000
3.67018718 1.34716171 -0.00451114 0.00000000
0.07281298 1.70011718 0.00166685 0.00000000
3.85034127 0.04251343 -0.00155898 0.00000000
3.16732983 0.39921557 -0.00402256 0.00000000
2.99684068 1.48957807 0.00244334 0.00000000
1.59519335 0.66854883 -0.00315783 0.00000000
0.19170590 1.37098726 -0.00084997 0.00000000
2.13763104 1.32171587 -0.00311241 0.00000000
1.22044310 1.15129115 -0.00409983 0.00000000
3.45703713 0.41239314 -0.00121564 0.00000000
3.82043072 1.40794607 -0.00345725 0.00000000
3.78821690 0.48427672 0.00421870 0.00000000
3.66604442 0.08380466 -0.00242878 0.00000000
0.88037789 0.01758051 0.00105340 0.00000000
2.53709710 0.98444849 0.00255686 0.00000000
1.18441119 1.62854885 0.00149987 0.00000000
0.20551308 0.49580391 0.00075268 0.00000000
0.79123113 1.05242978 -0.00152663 0.00000000
1.87734982 0.38544647 -0.00025766 0.00000000
1.27298319 0.18505780 -0.00188640 0.00000000
1.77153961 1.69985351 0.00594765 0.00000000
2.37996000 0.56265015 0.00051674 0.00000000
1.86649588 1.14948818 -0.00244731 0.00000000
3.33014080 0.81956304 0.00181827 0.00000000
3.84867063 0.37180060 0.00357032 0.00000000
0.16886916 1.03044398 0.00049434 0.00000000
1.20571172 0.16613624 -0.00215292 0.00000000
2.55129772 0.42999563 -0.00290309 0.00000000
2.29063937 1.45575877 -0.00058131 0.00000000
2.64088682 1.40083235 0.00000544 0.00000000
1.42186133 1.49644499 0.00038918 0.00000000
0.16387315 1.52584016 -0.00174742 0.00000000
3.63723437 1.17863005 0.00399079 0.00000000
3.07339561 1.38495674 -0.00560777 0.00000000
3.49678668 1.49221457 -0.00029933 0.00000000
2.02820729 0.61607482 0.00165573 0.00000000
0.28974620 0.80832937 -0.00452621 0.00000000
1.57161641 0.50167255 -0.00182859 0.00000000
0.75774654 0.10241681 0.00107581 0.00000000
2.83465226 0.65553973 -0.00031097 0.00000000
1.64782345 0.86742059 0.00163139 0.00000000
3.75636603 0.07118363 -0.00185274 0.00000000
2.74511974 1.44035342 0.00585461 0.00000000
1.86201390 1.11210165 0.00037543 0.00000000
3.31515865 0.00149945 -0.00266695 0.00000000
2.38326060 1.53171075 -0.00286368 0.00000000
0.47055381 1.02293119 -0.00083156 0.00000000
0.55872767 1.08461603 -0.00214540 0.00000000
0.77023351 1.42800733 -0.00215002 0.00000000
1.82866204 0.32811887 0.00331769 0.00000000
0.39525668 1.06852471 0.00381437 0.00000000
2.78520704 0.61981011 -0.00077022 0.00000000
2.57913668 0.17668213 -0.00346869 0.00000000
0.90997754 0.68403663 0.00207351 0.00000000
3.72738454 1.48403401 0.00214085 0.00000000
1.22341419 1.03606768 0.00009807 0.00000000
2.47833025 1.40501474 0.00345585 0.00000000
3.86130477 0.29366719 0.00004056 0.00000000
2.85666859 1.48818185 0.00350095 0.00000000
3.69724073 1.07006957 -0.00298691 0.00000000
3.41904901 1.55199142 0.00361869 0.00000000
0.69879457 0.50142511 0.00030096 0.00000000
3.15608095 1.41400810 0.00040162 0.00000000
0.74665476 0.91424205 0.00082390 0.00000000
3.90894767 1.53734505 -0.00077070 0.00000000
1.64008596 0.47986030 -0.00226877 0.00000000
3.37181362 1.52430825 -0.00287051 0.00000000
1.14046112 1.65837761 0.00105620 0.00000000
1.05691805 1.60826152 -0.00062569 0.00000000
2.77086972 1.49323441 -0.00176234 0.00000000
0.33884921 0.99942275 0.00042273 0.00000000
1.21545953 0.16158666 0.00176725 0.00000000
0.29349661 1.47324643 0.00289506 0.00000000
3.12747093 0.19676848 -0.00232909 0.00000000
3.21896387 0.32657426 0.00069235 0.00000000
2.79694548 0.32412591 0.00096308 0.00000000
2.30225759 1.17545303 -0.00057557 0.00000000
0.18096212 0.69482610 0.00050534 0.00000000
0.53316966 1.44703247 0.00162142 0.00000000
1.03681681 0.68478454 0.00475369 0.00000000
3.56693633 1.66236225 -0.00103137 0.00000000
2.12364673 0.27006821 -0.00335316 0.00000000
1.26275683 1.16584284 0.00178548 0.00000000
2.24860433 1.03494023 -0.00195513 0.00000000
3.31372584 0.32018020 -0.00220990 0.00000000
0.61664399 0.62640394 0.00472000 0.00000000
0.97558082 0.75398326 -0.00003486 0.00000000
1.53454598 0.83175516 0.00060697 0.00000000
3.70664526 0.19250486 0.00194180 0.00000000
2.06542395 0.01813118 0.00600955 0.00000000
3.53173708 1.10201189 -0.00264711 0.00000000
3.17174276 1.49693391 -0.00030852 0.00000000
1.48566470 1.07782889 -0.00084923 0.00000000
0.10280379 1.41533281 0.00070546 0.00000000
0.77708877 1.19930764 0.00039896 0.00000000
2.10046223 1.63634142 0.00130372 0.00000000
1.32981286 0.17585632 -0.00319243 0.00000000
2.85893943 1.37806639 -0.00262803 0.00000000
0.31861428 0.93891689 0.00203414 0.00000000
2.21412578 0.98249583 0.00154758 0.00000000
2.42773982 1.71855409 0.00290228 0.00000000
1.69383978 1.33226512 -0.00195082 0.00000000
0.76565402 0.46656337 -0.00325217 0.00000000
3.99457866 1.48690283 -0.00103135 0.00000000
1.64202531 0.02065166 0.00119753 0.00000000
1.79218221 0.31316628 -0.00492815 0.00000000
3.19565857 1.63456199 0.00164720 0.00000000
0.80010469 0.48129149 -0.00241079 0.00000000
0.52435498 1.53246389 0.00170392 0.00000000
3.14641799 1.03831912 0.00083962 0.00000000
2.38552279 0.56267811 -0.00040919 0.00000000
3.25438136 0.72661943 -0.00074072 0.00000000
0.27248900 0.99292839 -0.00121061 0.00000000
0.88443289 1.09142463 -0.00740497 0.00000000
3.83586849 1.36870200 0.00142431 0.00000000
3.17842484 0.34620459 0.00065215 0.00000000
3.63748017 0.26910927 -0.00159968 0.00000000
0.07087238 0.11432563 -0.00027524 0.00000000
2.74049660 1.63667428 -0.00192626 0.00000000
0.04966140 1.62538058 0.00114627 0.00000000
3.42278001 0.93969123 -0.00396482 0.00000000
0.50187655 0.40432753 -0.00024417 0.00000000
0.42773038 0.47874873 -0.00108872 0.00000000
2.46223178 0.60360207 0.00021611 0.00000000
1.09740890 1.53601995 -0.00007666 0.00000000
0.10369528 1.24486672 -0.00018791 0.00000000
2.96434293 1.04271825 0.00091190 0.00000000
0.35415387 1.14246648 -0.00275412 0.00000000
3.92059693 1.64051053 -0.00100890 0.00000000
0.28748039 0.58398612 -0.00204712 0.00000000
3.84651740 1.13251489 -0.00096938 0.00000000
1.58860888 1.13017793 -0.00228373 0.00000000
1.86391989 0.58860756 -0.00131469 0.00000000
3.02151387 0.87686634 -0.00526749 0.00000000
2.21758833 0.79414059 0.00304551 0.00000000
3.45222417 0.09018233 0.00220453 0.00000000
2.81491773 1.25824341 0.00135122 0.00000000
1.66650923 1.50017250 0.00229174 0.00000000
2.05232722 1.55037245 0.00000001 0.00000000
0.34959938 1.00464393 0.00121232 0.00000000
2.55104892 1.23990704 0.00123110 0.00000000
1.75022189 1.45566588 0.00187236 0.00000000
0.43503348 1.59440305 0.00059607 0.00000000
0.16691113 1.65566099 -0.00072822 0.00000000
0.68097789 0.88145378 0.00068667 0.00000000
3.83925932 1.33633756 -0.00308036 0.00000000
4.02796387 0.75101693 -0.00065092 0.00000000
3.58018060 1.31406308 0.00244625 0.00000000
0.53866376 1.29302706 -0.00156157 0.00000000
0.02302887 0.22181878 0.00020185 0.00000000
2.60921681 0.27492465 -0.00267087 0.00000000
0.05477005 1.65498975 -0.00094672 0.00000000
2.17259724 0.49533860 0.00356767 0.00000000
1.96991222 1.31059698 -0.00106787 0.00000000
2.39129421 0.19669715 -0.00506353 0.00000000
0.89132410 1.16896631 -0.00359147 0.00000000
3.52188392 0.61945389 0.00130989 0.00000000
3.93104224 1.62995963 0.00011679 0.00000000
2.82724419 1.39397815 0.00224743 0.00000000
2.33825004 0.59429990 -0.00029871 0.00000000
1.42180588 0.21621292 0.00241713 0.00000000
0.36786891 1.60790304 0.00141532 0.00000000
2.57005017 0.56376889 0.00326848 0.00000000
2.39538093 1.46692727 0.00328930 0.00000000
0.41770722 0.58583478 0.00389099 0.00000000
3.80329175 0.34859906 0.00093972 0.00000000
2.77085056 1.42510995 -0.00495985 0.00000000
0.34259418 0.68292838 -0.00169853 0.00000000
3.80684807 0.49405619 -0.00127557 0.00000000
1.21452116 0.32379019 -0.00120853 0.00000000
3.51957379 0.52240904 -0.00296414 0.00000000
0.99287579 0.92254863 0.00354822 0.00000000
3.84871182 0.63345331 -0.00113069 0.00000000
2.03623866 1.49939811 -0.00055104 0.00000000
1.72630288 0.31287261 0.00457127 0.00000000
3.28733570 0.38008707 0.00012128 0.00000000
0.79653727 1.04595805 0.00149907 0.00000000
1.13335889 1.66489336 -0.00436198 0.00000000
3.27836027 0.84303272 0.00062313 0.00000000
1.48684028 1.21744661 -0.00080346 0.00000000
0.99378287 0.51883357 -0.00031612 0.00000000
3.03686093 0.05154565 -0.00141252 0.00000000
2.74949850 0.13180473 -0.00018317 0.00000000
3.65866897 1.51240069 -0.00509342 0.00000000
3.65368606 0.58755897 -0.00062111 0.00000000
0.01652357 0.46888122 0.00164125 0.00000000
0.07278677 0.44717758 -0.00138540 0.00000000
1.53709767 0.38860436 -0.00138182 0.00000000
2.79126189 0.04196769 -0.00224699 0.00000000
1.10226796 0.16914358 0.00099472 0.00000000
0.77760808 0.49156832 0.00225597 0.00000000
1.54966448 0.45543626 0.00182809 0.00000000
2.29707272 1.59910214 -0.00141315 0.00000000
3.54606621 0.94634064 -0.00250995 0.00000000
3.76863513 0.47345790 -0.00167743 0.00000000
1.85612693 1.65129781 0.00138945 0.00000000
1.83866800 1.25587966 -0.00224637 0.00000000
2.50836226 0.59824962 0.00049627 0.00000000
2.70872115 1.24787238 -0.00103232 0.00000000
1.35966674 0.02797277 -0.00362049 0.00000000
3.56477817 1.54965679 0.00213641 0.00000000
3.29217507 0.05220699 0.00332763 0.00000000
3.10459628 1.02116478 0.00130575 0.00000000
1.72710854 1.26305379 -0.00235416 0.00000000
1.22494653 0.94348550 0.00040095 0.00000000
0.80388362 0.13981527 -0.00049623 0.00000000
1.85112644 1.04306876 0.00041904 0.00000000
3.32837399 1.59929152 0.00038328 0.00000000
0.61318629 1.27881800 0.00252181 0.00000000
1.78486654 0.38850872 0.00372296 0.00000000
3.19827660 0.69681326 -0.00239044 0.00000000
1.21620932 0.48073521 0.00145077 0.00000000
1.22829194 1.30643310 -0.00133695 0.00000000
0.94909422 1.28799898 -0.00323254 0.00000000
3.81941746 1.46233855 -0.00077728 0.00000000
1.57455358 1.61725742 0.00075908 0.00000000
2.08142210 1.24930979 0.00067837 0.00000000
1.88331089 1.02310346 0.00285793 0.00000000
3.61470482 0.51399772 -0.00119540 0.00000000
2.33102199 0.56415152 0.00166277 0.00000000
0.89527645 0.93977953 0.00101049 0.00000000
3.22978269 1.26527295 -0.00062333 0.00000000
2.61445927 0.69991531 0.00234087 0.00000000
1.98501791 1.31763219 -0.00468767 0.00000000
3.68838002 1.60039828 -0.00086157 0.00000000
3.27299391 0.55844538 -0.00162092 0.00000000
0.47732490 0.53415782 -0.00004410 0.00000000
2.66034752 0.81429798 0.00089691 0.00000000
3.00056942 0.59011006 -0.00284739 0.00000000
2.29567919 1.67425613 -0.00185232 0.00000000
3.05037781 1.06472947 -0.00113955 0.00000000
0.98288423 0.53127678 -0.00232901 0.00000000
3.94131453 1.13276704 -0.00058350 0.00000000
1.45456405 0.54507990 0.00101790 0.00000000
0.92155354 0.34217476 -0.00126421 0.00000000
1.29118535 0.61380561 0.00268204 0.00000000
3.14612232 0.12998019 -0.00105321 0.00000000
2.82432552 1.63656583 0.00458683 0.00000000
2.46670487 0.99863292 0.00309885 0.00000000
1.97888542 1.42258501 0.00538075 0.00000000
