0.56472482 1.43304205 0.00089465 0.00000000
0.16687877 1.07799036 -0.00037965 0.00000000
3.16739411 0.48511980 -0.00001469 0.00000000
3.32395935 1.06627248 -0.00114801 0.00000000
1.66098565 0.77519513 -0.00408730 0.00000000
1.79957625 1.55660556 -0.00149007 0.00000000
3.82938075 1.01655576 -0.00101779 0.00000000
1.46242319 1.39292599 -0.00234184 0.00000000
0.90650945 1.59665560 -0.00101441 0.00000000
2.76099428 0.30284354 0.00251889 0.00000000
3.31528244 0.94154922 0.00141982 0.00000000
2.49569864 0.04243759 -0.00318076 0.00000000
3.46599382 1.03864683 -0.00627853 0.00000000
2.82689481 1.24348259 0.00052700 0.00000000
3.01994437 0.22490914 0.00213621 0.00000000
1.80574263 0.08627358 0.00257263 0.00000000
0.22615560 1.50729191 -0.00107565 0.00000000
1.88036426 1.19626937 -0.00165191 0.00000000
2.47845231 0.56832684 0.00240613 0.00000000
1.94195944 0.13202507 -0.00236330 0.00000000
2.21412276 1.25928028 0.00440839 0.00000000
3.25554041 0.44596213 -0.00155911 0.00000000
3.98676747 0.98304412 -0.00022916 0.00000000
2.56685795 0.95759394 0.00155806 0.00000000
2.26780915 0.04479583 0.00088566 0.00000000
2.30412723 1.06540159 -0.00140658 0.00000000
2.33369923 0.15656501 0.00201125 0.00000000
1.59692425 0.46085801 0.00169376 0.00000000
0.49793786 0.45067653 0.00468132 0.00000000
0.62270103 1.11166803 -0.00084875 0.00000000
3.40932413 0.78435917 -0.00009529 0.00000000
2.82249605 0.03428244 -0.00131189 0.00000000
3.42248052 0.87855860 -0.00378313 0.00000000
1.23628555 0.45382935 -0.00498067 0.00000000
4.03045441 0.21583190 0.00021324 0.00000000
2.50248314 0.93247393 -0.00333632 0.00000000
3.24723667 0.35585760 -0.00008166 0.00000000
2.83365341 0.59247752 -0.00026690 0.00000000
0.19688577 1.46270734 0.00004694 0.00000000
3.25679998 0.75298138 0.00017952 0.00000000
0.13392662 1.17404224 0.00230012 0.00000000
1.96429320 0.07258478 0.00117149 0.00000000
2.78775287 0.48906484 -0.00286671 0.00000000
0.65971172 0.98456399 -0.00200781 0.00000000
2.63534384 0.63896295 -0.00296142 0.00000000
0.90963306 1.37569028 -0.00297302 0.00000000
2.54321744 1.14086784 0.00365254 0.00000000
0.35762113 1.31055071 -0.00189324 0.00000000
1.21994068 1.46364729 -0.00028523 0.00000000
2.53618550 0.22639282 0.00075107 0.00000000
2.31384725 1.06358654 -0.00087287 0.00000000
0.79379541 0.14806200 -0.00236355 0.00000000
3.80387616 0.82964778 -0.00141484 0.00000000
0.53022567 0.13848431 0.00244787 0.00000000
2.94650314 0.57453741 -0.00040470 0.00000000
3.50483035 1.54486783 -0.00195838 0.00000000
1.19184675 0.18718410 0.00174599 0.00000000
3.58516247 0.66306937 0.00243960 0.00000000
1.52426143 1.38207252 -0.00249099 0.00000000
1.95398580 1.44140339 -0.00219181 0.00000000
1.89198256 0.14080272 0.00175221 0.00000000
3.45778593 0.69720639 0.00222842 0.00000000
2.21179690 0.56717271 0.00093263 0.00000000
3.82434483 1.49244504 -0.00082958 0.00000000
1.53479071 0.38570840 0.00072945 0.00000000
2.43392512 1.02490991 0.00088016 0.00000000
0.70785941 0.42104254 0.00109200 0.00000000
1.36352373 0.11374145 0.00032121 0.00000000
1.99913485 0.15624226 -0.00226668 0.00000000
3.30435755 0.58473253 -0.00047932 0.00000000
1.41244687 1.42973210 0.00118091 0.00000000
1.24651884 0.16529804 0.00294773 0.00000000
0.83201675 0.83693306 0.00302842 0.00000000
3.78349562 0.18432501 0.00172793 0.00000000
0.90955378 1.00586813 0.00021786 0.00000000
3.37208676 1.28707946 0.00099721 0.00000000
0.98839353 1.38021632 -0.00097072 0.00000000
2.33396900 0.51515644 0.00094821 0.00000000
3.10143539 0.25734962 0.00236199 0.00000000
3.43697561 1.56201326 -0.00106558 0.00000000
1.86083729 1.16946050 0.00128330 0.00000000
1.01061574 0.08393463 -0.00495742 0.00000000
0.48114122 0.08099613 -0.00066385 0.00000000
0.63143745 0.47155455 -0.00104046 0.00000000
3.40981908 1.57962805 0.00038456 0.00000000
0.17594102 0.91599883 -0.00174985 0.00000000
3.15597586 0.59261294 -0.00151997 0.00000000
2.56957411 1.51345532 -0.00140057 0.00000000
3.49258381 0.66012259 -0.00135154 0.00000000
1.83030407 0.33233824 0.00353151 0.00000000
1.15163793 1.31078642 -0.00015743 0.00000000
0.72487144 0.35284789 -0.00198860 0.00000000
1.84218683 1.32047661 0.00052657 0.00000000
2.82653509 0.82519888 -0.00325528 0.00000000
2.23834050 0.09683700 -0.00429194 0.00000000
1.48852090 0.00236961 0.00012135 0.00000000
0.35437832 0.88369791 -0.00354000 0.00000000
0.35644636 0.31932378 0.00076404 0.00000000
4.02871822 0.05900900 0.00064827 0.00000000
3.96356200 0.01379126 0.00076452 0.00000000
3.92931814 1.21576310 0.00142868 0.00000000
0.33479217 0.32831968 -0.00209426 0.00000000
0.49837412 1.26523620 0.00188117 0.00000000
2.32796610 1.46733098 -0.00116835 0.00000000
3.35964361 1.54226465 0.00005418 0.00000000
0.82696782 0.80426635 0.00158223 0.00000000
1.46257652 0.14816093 -0.00061470 0.00000000
1.44503540 1.38280049 0.00178565 0.00000000
1.10590883 0.77337670 -0.00061188 0.00000000
2.97438423 0.55442684 -0.00263922 0.00000000
0.67972375 0.05343584 0.00011080 0.00000000
2.14444448 1.57231858 0.00740921 0.00000000
2.76950315 1.21120508 -0.00089635 0.00000000
3.47339362 0.66348058 0.00122101 0.00000000
1.56804981 0.73736741 0.00050029 0.00000000
0.82627032 1.57713027 0.00431323 0.00000000
1.28430927 0.66309540 -0.00024056 0.00000000
3.86139504 1.20869122 0.00289131 0.00000000
0.75473890 0.59548700 0.00192460 0.00000000
0.64930941 0.76225748 -0.00643448 0.00000000
0.50861068 0.61344685 -0.00160762 0.00000000
2.43045875 0.76172510 -0.00591276 0.00000000
1.84338250 1.59284128 0.00018597 0.00000000
2.31524810 0.61496221 0.00018519 0.00000000
2.60899652 0.43181028 0.00057596 0.00000000
1.94174449 0.08757349 0.00373074 0.00000000
0.62334424 0.59735182 0.00055120 0.00000000
2.78887675 0.28562668 -0.00133365 0.00000000
2.05366133 0.61757556 -0.00005251 0.00000000
2.40460809 0.40625484 0.00243312 0.00000000
1.86833075 1.36486726 0.00175367 0.00000000
2.80343274 0.25129596 -0.00139142 0.00000000
1.37258407 0.53182753 0.00038077 0.00000000
2.88174722 0.05801679 -0.00527413 0.00000000
2.08587152 1.27988092 0.00386161 0.00000000
0.91419103 0.28212585 0.00017176 0.00000000
0.49499032 0.30083212 -0.00081107 0.00000000
0.91422517 0.46250101 -0.00079209 0.00000000
0.88071306 0.61011555 -0.00147058 0.00000000
3.02471889 1.03933591 0.00039748 0.00000000
3.96844742 0.33574106 -0.00074486 0.00000000
1.20723704 0.44976906 -0.00074066 0.00000000
0.70318693 1.08713937 0.00421319 0.00000000
1.52839557 1.23122087 0.00181546 0.00000000
3.40246556 0.21287170 0.00021304 0.00000000
3.91122383 1.38112285 -0.00233375 0.00000000
1.14861588 0.99782157 -0.00675334 0.00000000
0.67159874 0.01545886 -0.00229965 0.00000000
3.19127514 1.22866745 0.00025215 0.00000000
1.60370148 0.62584543 -0.00297888 0.00000000
0.18686709 0.36672072 0.00236104 0.00000000
1.35688625 1.26697354 0.00158581 0.00000000
2.80480372 0.50199964 0.00122111 0.00000000
4.01554459 0.79868132 0.00061447 0.00000000
3.80205684 0.16185353 0.00281670 0.00000000
0.06541591 0.69679411 0.00043711 0.00000000
2.74537377 0.14147793 -0.00402175 0.00000000
0.95795374 0.77611772 -0.00113188 0.00000000
0.90922726 1.04519044 -0.00194848 0.00000000
0.47933326 0.25883397 0.00066716 0.00000000
2.96380735 0.77262851 0.00219381 0.00000000
2.10115188 0.12240675 -0.00149048 0.00000000
0.44397332 1.03114603 0.00274061 0.00000000
0.87689012 0.47241124 -0.00081275 0.00000000
0.52115003 0.25472842 0.00027633 0.00000000
0.26190406 0.47340633 -0.00418979 0.00000000
3.64463368 0.04095047 -0.00331587 0.00000000
3.14462423 0.31062175 0.00689059 0.00000000
2.99716583 0.53681210 0.00041366 0.00000000
1.05615720 0.10830875 -0.00361537 0.00000000
3.91242475 0.56721754 -0.00121822 0.00000000
1.43454191 0.19363191 0.00016984 0.00000000
3.48602836 0.46870276 0.00110926 0.00000000
2.74030511 1.46193269 -0.00008433 0.00000000
0.83030736 0.49107600 -0.00219861 0.00000000
3.56832650 0.70939098 0.00233301 0.00000000
0.53569521 1.22925376 0.00000933 0.00000000
1.88693508 1.36955505 0.00146301 0.00000000
3.02063006 1.43048796 0.00236364 0.00000000
0.94164120 0.89593829 -0.00022316 0.00000000
1.17814108 0.16664498 0.00430943 0.00000000
4.01264172 0.91090480 0.00013914 0.00000000
3.26407254 0.37631886 0.00175351 0.00000000
0.85711612 0.43177375 -0.00061884 0.00000000
0.86385180 1.36303787 -0.00284702 0.00000000
3.19351703 0.03490923 0.00251332 0.00000000
0.74885093 0.56708423 0.00182183 0.00000000
1.14988022 1.28096083 0.00147530 0.00000000
2.81040749 1.58594424 -0.00074529 0.00000000
0.23092515 0.70074951 -0.00777541 0.00000000
0.90549649 0.16383341 0.00590204 0.00000000
3.43000825 1.54278910 0.00220682 0.00000000
0.77569917 0.73811928 -0.00056395 0.00000000
1.22282325 0.72859086 -0.00075879 0.00000000
0.68985382 1.03189424 0.00188738 0.00000000
3.59450726 0.49942074 -0.00007332 0.00000000
0.83473256 0.54619259 -0.00135398 0.00000000
3.99607768 0.95941779 0.00196378 0.00000000
3.94867843 0.61079240 0.00245886 0.00000000
0.00908415 0.69620983 0.00309644 0.00000000
3.38743550 0.03113593 -0.00053386 0.00000000
2.59090233 1.50090868 0.00298814 0.00000000
0.31855253 1.32891614 0.00180690 0.00000000
0.13268301 1.03813746 -0.00015476 0.00000000
1.91583375 0.64767295 0.00183161 0.00000000
0.24662077 0.94023648 0.00081604 0.00000000
3.16485571 1.32050394 -0.00183610 0.00000000
3.08938297 0.92960823 -0.00176247 0.00000000
1.20560817 1.43005061 -0.00056765 0.00000000
0.38397017 0.66883768 -0.00443568 0.00000000
2.87852389 1.33927974 -0.00135084 0.00000000
0.11302387 0.50115697 0.00104407 0.00000000
1.05522262 0.95365118 -0.00273244 0.00000000
2.62199011 1.12844917 -0.00095185 0.00000000
0.92844260 0.15371677 0.00035006 0.00000000
0.51300860 0.86139567 -0.00242351 0.00000000
1.33482773 1.04894634 0.00194457 0.00000000
0.68699680 1.06279778 0.00237418 0.00000000
0.68991103 0.18656756 0.00211879 0.00000000
0.48604423 1.30118786 -0.00310922 0.00000000
2.83245243 0.22234628 0.00144191 0.00000000
0.10019771 0.18878406 -0.00468572 0.00000000
3.49621701 0.21715165 -0.00067080 0.00000000
2.51478224 0.52663019 0.00274290 0.00000000
2.37321615 1.19454834 -0.00017429 0.00000000
2.43656460 0.08933168 0.00187687 0.00000000
0.91809633 0.74441518 -0.00171790 0.00000000
3.72867134 1.27303714 0.00177674 0.00000000
1.38946702 0.00965192 -0.00180826 0.00000000
2.98366501 0.43998609 -0.00143564 0.00000000
3.85785734 1.23195048 0.00063492 0.00000000
2.56538986 0.48122646 0.00119920 0.00000000
3.62500793 1.35419509 -0.00152437 0.00000000
3.97938158 0.90397316 -0.00015520 0.00000000
2.06821654 0.74545710 0.00031670 0.00000000
1.57351970 1.46912503 -0.00448274 0.00000000
0.86132526 0.78255657 0.00169954 0.00000000
1.70437591 0.54233601 -0.00073902 0.00000000
2.85145540 0.64537849 -0.00074946 0.00000000
0.97765119 1.28410293 -0.00002513 0.00000000
0.24658693 0.94227903 0.00052237 0.00000000
2.38025885 0.89399791 0.00015655 0.00000000
1.55856608 0.62588970 -0.00309692 0.00000000
0.24122450 1.41747181 0.00089574 0.00000000
2.06744340 0.62391319 -0.00537667 0.00000000
1.45662496 0.83524778 -0.00174030 0.00000000
1.29475616 0.42398431 0.00137085 0.00000000
1.35408423 1.25500200 -0.00219875 0.00000000
2.33322794 0.79677288 0.00264305 0.00000000
3.39440716 0.34890671 -0.00025625 0.00000000
0.76195412 0.15631017 0.00326881 0.00000000
0.15286246 0.34202697 0.00185164 0.00000000
0.06997388 0.57176283 -0.00102292 0.00000000
0.24138356 0.74846831 -0.00071538 0.00000000
1.19193972 0.00648195 0.00223867 0.00000000
2.61200337 0.38857330 0.00013397 0.00000000
3.72531885 0.80309951 -0.00207566 0.00000000
1.17423058 1.12562889 -0.00298143 0.00000000
1.12910563 0.46533067 0.00098987 0.00000000
0.87494392 1.10705338 -0.00035631 0.00000000
2.59330216 0.15252049 -0.00213213 0.00000000
0.07322343 1.03584831 0.00136549 0.00000000
0.67001212 0.57558639 0.00515575 0.00000000
2.50980890 0.15592879 0.00157074 0.00000000
1.61008391 0.10553044 0.00060418 0.00000000
2.03478467 0.30679022 0.00307551 0.00000000
1.20441987 0.57357148 0.00365608 0.00000000
3.69477026 0.72826222 0.00137169 0.00000000
1.94109451 0.21707059 0.00275095 0.00000000
2.14806224 0.85830278 -0.00057767 0.00000000
0.93722812 0.59010761 -0.00128320 0.00000000
2.56907386 0.63676637 0.00105727 0.00000000
2.26817989 0.03053582 -0.00233495 0.00000000
2.84150794 1.18785330 0.00113184 0.00000000
2.29763800 1.42617626 0.00113482 0.00000000
0.85804346 1.31115224 0.00222346 0.00000000
3.83413722 0.24391610 0.00177772 0.00000000
0.40240603 0.31866519 -0.00451550 0.00000000
0.14101654 0.00805577 0.00073072 0.00000000
0.30644520 0.22604999 -0.00023886 0.00000000
0.62014774 1.43293606 0.00232573 0.00000000
0.34177882 0.16092122 0.00386476 0.00000000
2.10743066 0.89624168 -0.00132906 0.00000000
2.36743732 0.54862900 -0.00154863 0.00000000
0.59831357 0.26113630 0.00371738 0.00000000
2.30241790 0.69034764 -0.00111673 0.00000000
0.92004395 0.65499598 0.00025440 0.00000000
1.52143440 0.59333223 -0.00184291 0.00000000
2.43043027 0.15612485 0.00019319 0.00000000
2.99564037 0.30372073 0.00624262 0.00000000
1.58837354 0.90645221 -0.00031894 0.00000000
3.20149829 1.43752077 -0.00498068 0.00000000
1.01838427 1.16468331 -0.00110098 0.00000000
1.35795719 0.98958471 -0.00088232 0.00000000
1.35797979 0.63588379 -0.00069525 0.00000000
1.75724778 0.05099559 -0.00255323 0.00000000
1.24213565 1.07113701 0.00291203 0.00000000
0.62700028 1.19565464 0.00087815 0.00000000
3.65722919 0.75362602 0.00284997 0.00000000
2.15545028 0.23207575 0.00329543 0.00000000
3.51193529 0.20030421 -0.00182364 0.00000000
0.29159484 1.45628036 0.00047324 0.00000000
1.77070563 1.26718716 -0.00081333 0.00000000
1.65552320 1.60812736 0.00497677 0.00000000
0.20049818 0.17184104 -0.00485607 0.00000000
3.35287203 1.45221305 0.00491839 0.00000000
1.50897207 0.59710454 -0.00475798 0.00000000
0.76369145 1.13796072 -0.00264442 0.00000000
3.21771938 0.99057406 -0.00019496 0.00000000
3.35575532 0.60367864 0.00000160 0.00000000
2.66191784 0.94478597 0.00029706 0.00000000
2.48134108 0.21244756 0.00028017 0.00000000
3.24280039 1.08217626 -0.00267965 0.00000000
1.22932142 0.01980737 0.00399317 0.00000000
2.24580410 0.33096916 -0.00076422 0.00000000
1.45058816 0.90765631 0.00342113 0.00000000
2.18354655 1.48240371 0.00012419 0.00000000
0.75219840 0.10024692 -0.00066404 0.00000000
3.01960881 1.00054595 -0.00283046 0.00000000
0.93527787 0.97666384 0.00034698 0.00000000
2.89392795 0.79980842 0.00325838 0.00000000
2.89450017 0.30345316 -0.00529294 0.00000000
3.85067198 0.14471362 0.00275363 0.00000000
1.35740219 1.38698705 0.00141007 0.00000000
2.22668412 0.15763176 -0.00132238 0.00000000
1.85003506 1.17024109 -0.00415451 0.00000000
2.94230646 1.11876782 0.00006130 0.00000000
1.53087674 0.49149553 -0.00093780 0.00000000
0.52958359 1.59379061 -0.00142853 0.00000000
2.45328886 1.47123837 -0.00046971 0.00000000
3.96515221 0.36889640 -0.00076392 0.00000000
0.74990118 1.28788751 -0.00585272 0.00000000
1.27020622 0.57745832 0.00242650 0.00000000
1.51276175 0.72952611 -0.00193123 0.00000000
2.30244638 0.56659020 -0.00295332 0.00000000
1.32789639 0.22627162 -0.00469825 0.00000000
3.07958999 0.11721211 -0.00031686 0.00000000
2.31608728 1.48732242 -0.00211294 0.00000000
3.75958052 1.45522664 0.00038928 0.00000000
0.30711236 1.28361406 0.00081833 0.00000000
0.04178100 1.04346749 -0.00087311 0.00000000
1.31610427 0.73634623 0.00006848 0.00000000
0.11098892 0.27972324 0.00178753 0.00000000
1.61021277 0.07252001 -0.00200527 0.00000000
0.57433518 0.34296909 -0.00305553 0.00000000
3.87484426 1.22689268 -0.00190357 0.00000000
2.89899165 1.40752800 -0.00443889 0.00000000
3.59407723 0.73981003 -0.00201688 0.00000000
0.44977627 1.32270255 0.00345962 0.00000000
2.57977792 1.45919285 -0.00199419 0.00000000
0.49269559 0.11714241 -0.00123184 0.00000000
2.96788489 0.34986830 0.00160100 0.00000000
1.98508225 0.88257627 -0.00119893 0.00000000
3.92235818 1.23550232 0.00072504 0.00000000
0.17145361 1.45910040 0.00025008 0.00000000
2.44595264 1.24326318 0.00296789 0.00000000
0.42241406 1.42482981 0.00364917 0.00000000
0.52479581 1.19695288 -0.00169698 0.00000000
3.13875789 0.39983732 0.00094606 0.00000000
2.52319566 1.57496325 -0.00226869 0.00000000
0.86544060 0.35660393 0.00211827 0.00000000
1.95530491 0.42511343 0.00120201 0.00000000
2.66133320 0.78694320 0.00186109 0.00000000
1.24816856 0.59853076 0.00029139 0.00000000
1.45095052 0.82352353 0.00132758 0.00000000
0.35966301 0.45373875 0.00313985 0.00000000
0.41426357 1.14881037 -0.00036840 0.00000000
3.17594340 1.50864635 -0.00374620 0.00000000
1.85208066 1.17983790 -0.00087030 0.00000000
3.10251957 0.02045250 -0.00032062 0.00000000
0.90825978 0.35693107 -0.00299409 0.00000000
0.88446181 0.20584587 0.00021103 0.00000000
1.35040288 0.81957110 0.00192765 0.00000000
3.65463742 0.51246388 0.00106082 0.00000000
3.20138768 1.13396936 0.00316853 0.00000000
1.59419647 1.36640107 -0.00282897 0.00000000
3.37265294 1.34184907 0.00012830 0.00000000
4.04676626 1.48127841 0.00047210 0.00000000
1.97456717 0.65027580 -0.00324817 0.00000000
1.27662058 1.02700392 -0.00584226 0.00000000
3.55334162 0.27219002 -0.00272566 0.00000000
3.10084911 1.37594483 -0.00018597 0.00000000
0.66772505 0.08150934 -0.00524159 0.00000000
1.51772287 1.29196411 0.00137196 0.00000000
3.34932027 0.77911030 0.00215077 0.00000000
0.00735809 0.93568781 0.00220728 0.00000000
2.10294767 1.22420487 -0.00008228 0.00000000
3.42802300 1.00273921 0.00197664 0.00000000
2.54219432 1.28659278 -0.00122790 0.00000000
0.33640607 0.89547190 -0.00051539 0.00000000
3.97378117 0.86226075 0.00230388 0.00000000
1.41800208 1.18412873 0.00049319 0.00000000
1.72346577 0.10294286 0.00148361 0.00000000
1.41130828 0.50830297 0.00089470 0.00000000
2.40837387 0.70042348 -0.00021359 0.00000000
3.21585943 0.78208782 0.00266751 0.00000000
2.81947301 1.23251104 0.00048305 0.00000000
0.43742222 1.52052676 -0.00024981 0.00000000
2.97821650 0.61254837 -0.00071858 0.00000000
0.05651068 0.64727305 0.00127319 0.00000000
3.54110319 1.01617054 0.00361021 0.00000000
2.70899585 1.39425192 0.00199144 0.00000000
3.94887946 0.66756588 -0.00458586 0.00000000
2.02209111 0.79991678 -0.00226615 0.00000000
2.03920259 0.30592952 -0.00054603 0.00000000
4.04466484 1.56392501 -0.00040980 0.00000000
2.37584476 1.58097949 -0.00634791 0.00000000
1.56303186 1.20741830 0.00032716 0.00000000
2.56017161 0.95712635 0.00323062 0.00000000
4.01192220 0.08442046 0.00343168 0.00000000
2.63046492 1.06868907 -0.00291472 0.00000000
3.02620151 1.00401881 -0.00132247 0.00000000
2.33642628 1.08547490 0.00517493 0.00000000
1.12759495 0.39229425 -0.00076138 0.00000000
3.57707454 0.57677297 0.00012707 0.00000000
3.47581417 1.38320066 0.00012311 0.00000000
1.50765698 0.54905164 0.00102286 0.00000000
0.80306274 1.00464822 -0.00033223 0.00000000
1.30496681 0.85323868 0.00168538 0.00000000
2.84336112 0.78594852 -0.00176296 0.00000000
1.71663992 0.44242302 -0.00194877 0.00000000
2.91011730 1.35477120 -0.00123669 0.00000000
1.82775552 1.48142545 0.00127456 0.00000000
2.22547252 1.38722729 0.00085717 0.00000000
0.37845026 1.43771691 -0.00273658 0.00000000
3.68228125 1.08048363 0.00382509 0.00000000
3.19033399 1.37917467 0.00215578 0.00000000
0.11334105 0.20303239 -0.00463529 0.00000000
0.43148631 1.23331859 0.00110528 0.00000000
4.03081970 1.29961642 0.00001474 0.00000000
0.46671238 1.57228037 -0.00140845 0.00000000
3.77917903 1.05024072 0.00358691 0.00000000
3.16208503 0.60599080 0.00054599 0.00000000
0.88674013 0.31096248 0.00479285 0.00000000
1.45069588 1.11136498 -0.00300409 0.00000000
2.28391582 0.36811186 0.00141457 0.00000000
0.53253873 0.12337489 0.00365496 0.00000000
2.88224629 0.49653884 0.00003187 0.00000000
2.65098476 1.47764935 -0.00207002 0.00000000
2.93119465 0.83903534 0.00228763 0.00000000
1.72426648 0.90631126 0.00120558 0.00000000
3.70674111 0.24488686 -0.00161442 0.00000000
0.38570393 1.06576452 -0.00174406 0.00000000
2.20334653 0.49641220 -0.00014288 0.00000000
1.21924000 0.82552727 -0.00101168 0.00000000
1.66359109 0.15941238 -0.00068792 0.00000000
2.81022025 0.42873493 0.00187024 0.00000000
1.60043106 0.42351846 0.00300251 0.00000000
0.00898901 1.25100089 -0.00382306 0.00000000
1.36010655 0.69132911 0.00038921 0.00000000
0.55134460 0.17951225 0.00002470 0.00000000
3.83511416 1.11817825 0.00225896 0.00000000
3.14895869 0.28983182 0.00254966 0.00000000
0.20889095 1.53069000 0.00162629 0.00000000
0.46146300 0.96364304 -0.00183717 0.00000000
1.50598824 1.18467987 -0.00089967 0.00000000
1.21397413 1.33383697 -0.00540669 0.00000000
1.92723721 1.41004282 0.00139473 0.00000000
3.37519991 1.60619577 0.00107896 0.00000000
0.27051678 1.08710420 0.00359911 0.00000000
1.97484737 0.95075879 0.00185157 0.00000000
2.81877173 0.18410841 0.00706854 0.00000000
1.73822290 0.94577019 -0.00407455 0.00000000
0.92924776 0.75014524 -0.00029062 0.00000000
2.71058560 0.04469672 0.00039794 0.00000000
0.91153702 0.87187386 -0.00248194 0.00000000
0.93083135 1.58596466 0.00243131 0.00000000
1.55255213 0.42512040 -0.00009239 0.00000000
1.47050997 1.36537360 -0.00556652 0.00000000
2.64640620 0.85512422 0.00492838 0.00000000
1.75378951 0.71338349 -0.00695591 0.00000000
0.23201067 0.40187552 0.00084775 0.00000000
3.46309980 0.81875058 0.00307353 0.00000000
2.09773439 1.50696037 -0.00704029 0.00000000
1.92011011 0.20893272 0.00082236 0.00000000
1.44090762 0.81787665 -0.00083294 0.00000000
3.31084004 1.56653839 0.00220219 0.00000000
0.14622534 0.64041814 -0.00156837 0.00000000
2.53168547 0.06288409 -0.00085384 0.00000000
0.03086818 0.07230313 0.00228165 0.00000000
3.97588035 0.37103856 0.00091834 0.00000000
2.36604785 0.48118126 -0.00101328 0.00000000
1.04241275 0.15572625 -0.00187802 0.00000000
3.26279421 0.22160193 0.00150246 0.00000000
0.73574516 1.35662718 0.00055450 0.00000000
3.27451242 0.09563278 0.00395330 0.00000000
3.40806391 1.52099157 0.00062333 0.00000000
2.39722779 0.26350090 0.00032931 0.00000000
2.08836492 1.19284014 -0.00031457 0.00000000
3.44062250 1.37234549 0.00051560 0.00000000
3.77462864 1.32408089 -0.00158043 0.00000000
3.78606779 1.36216976 0.00021363 0.00000000
0.16348022 0.32228634 0.00200376 0.00000000
3.59994785 0.12757272 -0.00334478 0.00000000
3.58590460 0.87802976 0.00301564 0.00000000
1.94677834 0.71653997 -0.00224014 0.00000000
1.67029275 0.13863223 -0.00021723 0.00000000
0.33717544 1.51931673 -0.00093964 0.00000000
3.72554845 1.04450970 -0.00053635 0.00000000
0.71770942 0.98342057 -0.00208016 0.00000000
1.34548442 1.58449788 -0.00057639 0.00000000
3.00616192 0.07084310 0.00256199 0.00000000
3.45876819 0.82339597 0.00304784 0.00000000
3.46831200 0.31911137 -0.00063055 0.00000000
1.10960456 1.00127995 -0.00211245 0.00000000
2.54658913 0.48731788 -0.00000515 0.00000000
0.72627105 1.06523420 0.00556219 0.00000000
2.69728107 1.60578310 0.00204209 0.00000000
1.66953463 1.18388214 0.00158458 0.00000000
3.58303428 0.63708064 0.00136154 0.00000000
0.41618436 1.06430793 -0.00129824 0.00000000
0.55101146 0.92981731 -0.00139430 0.00000000
2.47432323 0.20734313 0.00037315 0.00000000
2.86049994 0.38582199 0.00198728 0.00000000
3.23664553 0.64592508 0.00091729 0.00000000
3.48851547 1.24940010 0.00353394 0.00000000
0.55405242 0.38831343 0.00147477 0.00000000
3.73352780 1.53100846 -0.00020740 0.00000000
2.81349269 0.74969015 0.00042094 0.00000000
2.03138066 0.94102380 0.00415620 0.00000000
2.29956265 0.22624812 0.00038115 0.00000000
2.85692598 0.89998567 -0.00639904 0.00000000
0.04279136 0.25837285 0.00143511 0.00000000
0.48892006 0.39376256 -0.00132737 0.00000000
3.21553892 1.01648762 0.00295990 0.00000000
2.67795651 1.57885400 -0.00191023 0.00000000
2.10923553 1.56605225 0.00108158 0.00000000
2.62869929 0.19992693 -0.00258376 0.00000000
1.51588741 0.36951106 0.00338994 0.00000000
0.12753017 0.93250640 -0.00140791 0.00000000
3.82732120 0.25685399 -0.00132736 0.00000000
3.70137176 1.60248563 -0.00581135 0.00000000
0.30879148 0.18085008 0.00416006 0.00000000
2.52417854 0.89240234 -0.00321597 0.00000000
3.23606937 0.60346121 0.00105971 0.00000000
2.89527353 0.85468631 -0.00057579 0.00000000
0.65489392 0.69296950 -0.00091019 0.00000000
3.70686087 1.28965813 -0.00202886 0.00000000
2.81781385 1.17715483 -0.00212202 0.00000000
3.84181774 1.20532206 0.00243031 0.00000000
1.02935108 1.56327638 -0.00214005 0.00000000
1.75790966 0.17445440 0.00345216 0.00000000
1.33033259 1.09657666 0.00005854 0.00000000
0.67819453 1.33875555 -0.00212224 0.00000000
3.26477622 0.94736582 0.00230344 0.00000000
2.26980025 0.49843181 -0.00210325 0.00000000
0.63025599 0.24863663 -0.00491153 0.00000000
2.25007347 0.96122925 0.00119419 0.00000000
0.27548178 1.52026357 0.00112849 0.00000000
0.22466844 1.58437236 -0.00022567 0.00000000
2.76303624 0.77738492 0.00043763 0.00000000
2.62391968 1.46504434 0.00193982 0.00000000
3.24742740 0.86464991 0.00065827 0.00000000
1.57871524 0.56542610 -0.00317134 0.00000000
1.98833529 1.37298381 0.00326744 0.00000000
3.64712410 0.86731792 -0.00250163 0.00000000
0.72917485 0.25525150 0.00088318 0.00000000
2.61832126 1.06917906 -0.00326708 0.00000000
2.28330436 0.28006780 -0.00044322 0.00000000
0.23081313 0.50713367 0.00095708 0.00000000
0.92786287 1.54895745 0.00645467 0.00000000
1.86627922 0.03135658 0.00005236 0.00000000
3.40051719 0.96926017 -0.00329602 0.00000000
1.08381115 1.25268700 -0.00097200 0.00000000
3.13093389 1.12339491 0.00094622 0.00000000
2.79857532 0.08467027 -0.00521423 0.00000000
3.89274226 0.80268638 0.00121692 0.00000000
3.59399220 0.39950878 0.00455943 0.00000000
1.92732593 0.13691924 0.00252971 0.00000000
1.91234877 0.55662157 -0.00024801 0.00000000
3.30111442 0.62085960 0.00211732 0.00000000
0.54408339 0.92327747 -0.00131552 0.00000000
0.18930359 0.06289208 -0.00004994 0.00000000
0.82723126 1.19054403 0.00475918 0.00000000
1.18280743 0.56871844 0.00263544 0.00000000
0.85206914 0.28756263 0.00040449 0.00000000
0.40052808 0.15946325 -0.00233301 0.00000000
1.02866918 1.06021604 0.00492867 0.00000000
3.38370142 1.04093787 0.00115806 0.00000000
0.49374712 0.54241139 0.00342597 0.00000000
1.96288742 1.27783306 0.00334416 0.00000000
1.92007045 0.53369694 -0.00003034 0.00000000
2.93093460 0.95809288 -0.00332189 0.00000000
2.02632725 0.41203801 -0.00253222 0.00000000
0.97642697 1.28038121 -0.00284435 0.00000000
0.47570368 1.47554142 -0.00247752 0.00000000
0.51572181 1.34190074 0.00300964 0.00000000
3.67435127 1.27652229 0.00079070 0.00000000
1.06722747 0.51220914 -0.00396379 0.00000000
2.48905600 1.56444397 -0.00105572 0.00000000
1.04238393 1.50327345 0.00183750 0.00000000
1.27033562 0.10606204 0.00125967 0.00000000
1.09364242 1.45522679 -0.00020938 0.00000000
0.74606130 1.09183002 0.00262187 0.00000000
0.01105982 1.06022465 -0.00129584 0.00000000
0.67285991 1.02519225 -0.00348579 0.00000000
1.89724876 0.68850132 -0.00056019 0.00000000
2.22831648 0.84464573 -0.00045690 0.00000000
2.46077272 0.03582519 0.00096365 0.00000000
1.22865079 0.89525713 0.00264695 0.00000000
1.50165962 1.38851201 0.00055562 0.00000000
3.46110156 1.16355878 -0.00566381 0.00000000
3.20553957 1.44743656 -0.00068140 0.00000000
2.09384383 1.37899887 -0.00151056 0.00000000
0.67225576 0.09922892 0.00439342 0.00000000
0.17787254 0.14826706 0.00039084 0.00000000
2.97343382 1.15060222 -0.00148788 0.00000000
0.36455026 0.88903591 -0.00040529 0.00000000
1.14983657 0.09337589 0.00127741 0.00000000
0.96127102 0.51061753 0.00257814 0.00000000
1.78091842 1.03072215 -0.00109037 0.00000000
2.72290882 0.54027536 -0.00258341 0.00000000
3.94505827 0.52585443 0.00034398 0.00000000
0.99492866 1.49216142 -0.00172338 0.00000000
1.57436072 0.56467924 -0.00140779 0.00000000
0.64954936 0.95165175 0.00941414 0.00000000
1.73661123 1.50160784 0.00347704 0.00000000
3.26580128 1.00778737 -0.00329413 0.00000000
3.28677484 1.12393665 0.00124332 0.00000000
1.86979595 0.36692258 -0.00242984 0.00000000
3.22582194 1.09355362 -0.00058382 0.00000000
0.37240952 0.53288093 0.00229292 0.00000000
3.70677833 0.60284521 0.00221593 0.00000000
3.73331523 1.52461230 0.00147601 0.00000000
1.18101670 0.07685385 -0.00339510 0.00000000
0.86919988 1.08768916 0.00068818 0.00000000
0.09885782 0.41748154 -0.00005617 0.00000000
0.74452596 1.61177397 -0.00293269 0.00000000
1.60910208 0.15429035 0.00062594 0.00000000
1.43828295 0.63365285 0.00007932 0.00000000
2.35620026 1.31577751 -0.00071838 0.00000000
2.87068622 0.90869592 -0.00222949 0.00000000
0.93503156 0.80822689 -0.00372563 0.00000000
0.94899397 0.51448922 0.00233217 0.00000000
3.97866026 0.23639289 -0.00158941 0.00000000
3.09047262 0.98724450 0.00187978 0.00000000
3.53836112 1.22197987 -0.00062709 0.00000000
2.23069566 0.83230942 -0.00159900 0.00000000
1.52742264 0.70215634 -0.00240938 0.00000000
3.48376646 1.57905907 0.00225000 0.00000000
3.08475387 1.49873099 -0.00117533 0.00000000
2.36425674 1.54622905 0.00007042 0.00000000
3.64048731 1.36249830 0.00437628 0.00000000
4.04689734 1.46975830 0.00037970 0.00000000
1.57425750 1.58358327 0.00056210 0.00000000
3.30531761 0.93319466 0.00179092 0.00000000
2.82481493 0.64745067 -0.00487279 0.00000000
3.49718982 0.88218045 -0.00338843 0.00000000
3.52490825 0.15878746 0.00232417 0.00000000
1.01680421 0.75823873 -0.00425941 0.00000000
4.01361930 1.05019019 0.00542594 0.00000000
1.27584497 0.44003246 -0.00278986 0.00000000
0.46432770 0.24721603 0.00196230 0.00000000
1.92113784 0.91044374 -0.00096200 0.00000000
0.17062088 0.07059310 0.00111022 0.00000000
2.39600258 0.85449372 0.00204308 0.00000000
0.03358816 0.53746648 -0.00008102 0.00000000
2.27885974 1.54221515 -0.00311735 0.00000000
0.20066943 0.05021486 -0.00231094 0.00000000
0.17721021 1.08701566 -0.00137403 0.00000000
0.21261439 1.44792934 0.00436142 0.00000000
0.16166113 1.35388660 -0.00305085 0.00000000
2.40257787 1.42175112 -0.00394574 0.00000000
1.64915341 0.95400276 0.00055459 0.00000000
1.95618441 0.37600850 -0.00157494 0.00000000
0.73341010 1.59027147 0.00119504 0.00000000
0.36089418 0.51489876 0.00114637 0.00000000
0.59436133 0.88525019 0.00262261 0.00000000
0.51083969 1.31924727 0.00429257 0.00000000
0.85641320 0.00372870 -0.00151408 0.00000000
3.75606239 0.58746396 0.00179449 0.00000000
1.53897613 0.65240304 0.00203267 0.00000000
1.80776119 0.51417045 -0.00086307 0.00000000
0.25555660 1.52906744 0.00278941 0.00000000
1.58546752 0.41745581 0.00022507 0.00000000
2.17038719 0.63173584 0.00169814 0.00000000
3.51758374 0.49185799 -0.00107443 0.00000000
2.99137924 0.52768178 -0.00163536 0.00000000
4.01959783 1.54038615 0.00215923 0.00000000
0.68981896 1.30957950 -0.00101420 0.00000000
1.70132690 0.79914888 -0.00174229 0.00000000
2.54927632 0.03273810 -0.00541526 0.00000000
0.79262288 1.53538411 0.00152109 0.00000000
1.85464309 1.57065817 -0.00085014 0.00000000
2.08468874 0.44274252 0.00396349 0.00000000
3.19433734 0.10424528 0.00089870 0.00000000
2.35743875 0.56235098 0.00041165 0.00000000
2.53300492 0.92455531 0.00814561 0.00000000
2.03112355 0.54492407 0.00046845 0.00000000
1.27280303 1.60854006 -0.00169181 0.00000000
2.74242330 1.50265383 -0.00171183 0.00000000
3.18253262 0.85321846 0.00001521 0.00000000
3.57551702 0.30616269 0.00031175 0.00000000
1.13593147 0.39096838 0.00079811 0.00000000
3.11537339 0.52859963 0.00476662 0.00000000
2.82177865 1.26344556 -0.00205233 0.00000000
1.06388956 0.23992521 -0.00099263 0.00000000
1.06740854 0.77381233 -0.00255043 0.00000000
1.53644043 1.03076156 -0.00336792 0.00000000
1.72816455 1.55758168 -0.00130025 0.00000000
1.46751790 1.51833109 0.00161163 0.00000000
1.35155781 1.24137004 0.00222988 0.00000000
1.88160657 0.35903670 -0.00026839 0.00000000
1.49737481 0.69419270 -0.00031553 0.00000000
0.87729248 0.42603736 -0.00159863 0.00000000
0.38905737 0.55375741 0.00069142 0.00000000
3.52734628 1.34381428 0.00511306 0.00000000
0.64856149 0.16642318 0.00085242 0.00000000
1.10002402 0.15886375 -0.00225109 0.00000000
1.77983527 0.09563798 -0.00006787 0.00000000
0.61607291 1.23324207 -0.00239221 0.00000000
0.54499021 0.46066137 -0.00281810 0.00000000
1.26061606 1.60143453 -0.00119689 0.00000000
2.56320457 1.26661521 0.00190521 0.00000000
2.57020898 1.40430763 0.00091111 0.00000000
3.85191606 1.16846924 0.00295681 0.00000000
0.61872598 1.27141479 -0.00063753 0.00000000
0.76560114 0.89639603 -0.00087028 0.00000000
1.47456749 0.37663537 0.00114802 0.00000000
3.62976296 0.58626778 0.00159496 0.00000000
2.76175913 0.31973177 0.00253172 0.00000000
1.48381797 0.21762222 0.00048263 0.00000000
2.35940586 0.41607202 -0.00144418 0.00000000
0.75623116 1.54624113 0.00310008 0.00000000
0.76296800 0.93684341 0.00545184 0.00000000
3.89200558 0.23734371 -0.00080224 0.00000000
3.84441842 1.04492578 0.00068600 0.00000000
1.95108616 1.05854770 0.00155773 0.00000000
1.22923544 1.28017153 0.00404094 0.00000000
1.21823877 0.33392282 0.00002839 0.00000000
3.17899195 1.55567283 0.00225993 0.00000000
2.20398465 1.33626646 0.00197848 0.00000000
1.49068849 0.12936840 0.00137456 0.00000000
2.58862200 0.91263695 0.00191841 0.00000000
2.49498010 0.39872977 0.00111285 0.00000000
3.28777345 0.56662792 0.00119212 0.00000000
0.69621345 0.17181357 0.00065312 0.00000000
2.01285393 1.31263484 -0.00156658 0.00000000
3.68809472 1.16091280 0.00290914 0.00000000
1.31061389 1.58313123 -0.00226868 0.00000000
0.10046618 0.42667926 0.00209455 0.00000000
3.82035399 0.56139508 -0.00557859 0.00000000
1.68401330 1.38500994 0.00412310 0.00000000
0.42357111 0.16084675 -0.00179942 0.00000000
1.44343518 1.50637852 -0.00359307 0.00000000
3.50722259 1.14597094 -0.00009814 0.00000000
3.95235438 1.27232557 0.00305927 0.00000000
2.65448742 0.73620088 0.00356347 0.00000000
3.10907409 0.95696500 -0.00194141 0.00000000
0.94909884 1.17802732 -0.00038297 0.00000000
2.48959834 1.55681014 -0.00198982 0.00000000
2.07609434 1.36503732 0.00034420 0.00000000
2.28589819 1.26081534 -0.00138642 0.00000000
3.18156633 1.37490471 0.00398282 0.00000000
3.09644814 0.80598378 0.00105964 0.00000000
3.97627143 0.37134560 -0.00128610 0.00000000
3.04810697 1.28648962 -0.00221300 0.00000000
0.93480984 0.59536315 0.00116107 0.00000000
0.14885360 1.29456362 0.00000620 0.00000000
0.03175776 1.37885437 0.00014096 0.00000000
1.42306101 0.00509318 -0.00000740 0.00000000
2.27189347 1.52782615 0.00455553 0.00000000
2.56192232 1.28931258 0.00231859 0.00000000
2.38907963 1.13392339 0.00001403 0.00000000
0.64690616 1.20203434 -0.00244526 0.00000000
0.67343293 0.95791497 0.00229538 0.00000000
3.22522781 1.32374307 -0.00409948 0.00000000
0.48912398 0.11020323 -0.00001759 0.00000000
1.10682435 0.60049453 0.00350889 0.00000000
0.76328111 1.23922124 0.00234504 0.00000000
0.01101004 1.15673531 -0.00058228 0.00000000
1.55254040 0.47862704 -0.00071929 0.00000000
1.38024670 0.62250820 -0.00268509 0.00000000
1.25471855 0.40816794 0.00579034 0.00000000
0.53421965 0.03894025 -0.00043740 0.00000000
0.43539192 0.57666898 0.00137645 0.00000000
1.57554617 1.34930515 -0.00550770 0.00000000
3.19713206 1.22966341 0.00186690 0.00000000
2.31087356 0.27074855 0.00004262 0.00000000
2.03305141 1.50337560 -0.00502450 0.00000000
3.46552185 1.27889873 0.00391027 0.00000000
2.23831028 0.91823508 -0.00206097 0.00000000
0.12278815 1.07359805 0.00264352 0.00000000
2.52760840 0.57101589 -0.00099227 0.00000000
2.65635749 0.49049306 0.00382160 0.00000000
1.28113363 0.86032113 0.00167729 0.00000000
3.90691729 1.56400091 -0.00166491 0.00000000
1.69976889 0.71568305 -0.00269767 0.00000000
3.31169347 0.88730947 -0.00195874 0.00000000
0.35669034 0.28027355 0.00012841 0.00000000
1.97098596 1.09292973 -0.00059222 0.00000000
2.43057470 0.41234421 -0.00113934 0.00000000
0.97832224 1.39764384 -0.00067056 0.00000000
4.04094337 1.41978670 -0.00141612 0.00000000
2.22020916 0.53075788 0.00064204 0.00000000
0.20106061 0.58629093 -0.00072696 0.00000000
3.62341379 0.60499351 -0.00137156 0.00000000
0.94190708 0.44510259 0.00322029 0.00000000
3.69893563 0.20300639 -0.00089481 0.00000000
1.82264729 0.79224861 0.00071190 0.00000000
1.09484511 1.06905921 -0.00163143 0.00000000
1.97273477 0.12800670 -0.00064116 0.00000000
2.09817363 0.59998935 -0.00112479 0.00000000
2.77245330 1.03363882 -0.00098820 0.00000000
2.03062596 1.29966285 -0.00244331 0.00000000
1.14414641 0.14642990 -0.00113554 0.00000000
2.74344573 0.53114993 0.00005851 0.00000000
0.00788057 0.58457054 -0.00152143 0.00000000
0.43427999 1.57752836 0.00352039 0.00000000
2.32958649 0.85050060 0.00432335 0.00000000
2.35488931 0.89139274 0.00245426 0.00000000
3.98517195 0.97262359 0.00091432 0.00000000
2.18889699 1.19998947 0.00195949 0.00000000
3.20523125 0.11188827 0.00326133 0.00000000
2.42486471 0.30905830 0.00181296 0.00000000
2.05538222 0.24322705 -0.00478070 0.00000000
2.96769451 0.47605639 0.00010425 0.00000000
0.10612845 1.52674781 -0.00199087 0.00000000
0.80851848 0.68900267 0.00069017 0.00000000
1.50588603 1.25418838 0.00501244 0.00000000
3.70950344 1.05070291 0.00267845 0.00000000
0.10735304 0.52376443 -0.00605778 0.00000000
1.97616284 1.49772373 -0.00411406 0.00000000
3.21341154 1.16905873 -0.00106621 0.00000000
0.99563709 1.02491950 -0.00630304 0.00000000
1.23457667 0.49170515 -0.00149492 0.00000000
0.40577689 0.12807201 -0.00094555 0.00000000
3.23483609 0.07019578 -0.00218464 0.00000000
0.96524172 1.27478457 0.00319609 0.00000000
3.71742153 0.37466873 0.00553578 0.00000000
3.47103971 1.35719616 0.00154910 0.00000000
0.72120849 1.16191892 0.00334187 0.00000000
0.18768648 0.05450014 0.00100515 0.00000000
1.09942793 0.43374876 0.00016302 0.00000000
1.46082601 1.42545276 0.00225103 0.00000000
3.92108431 0.83270320 0.00011710 0.00000000
2.50681943 1.17968060 0.00518685 0.00000000
0.29503347 0.94873851 -0.00135935 0.00000000
3.31017228 1.43296910 0.00255365 0.00000000
0.94062088 1.18966273 0.00205959 0.00000000
1.41724684 1.03787264 -0.00235905 0.00000000
1.58761255 1.38171636 -0.00092948 0.00000000
2.80576933 1.03300467 -0.00283789 0.00000000
1.49411796 1.53146631 0.00169549 0.00000000
0.87941455 1.56380266 -0.00372098 0.00000000
1.42415053 0.46462548 0.00316616 0.00000000
3.04495193 0.61246007 0.00027387 0.00000000
2.22333438 1.26917862 -0.00390936 0.00000000
2.20683637 0.91370946 -0.00321333 0.00000000
0.98856631 0.22266538 -0.00176170 0.00000000
3.08267052 1.02689802 0.00070887 0.00000000
0.30427935 1.54848227 0.00571397 0.00000000
3.04384351 0.98652944 -0.00247030 0.00000000
2.28025357 1.26862736 0.00063056 0.00000000
1.03848176 0.40871176 0.00041126 0.00000000
2.69505268 1.51643640 -0.00388165 0.00000000
2.45726989 0.51254005 0.00017461 0.00000000
2.67157093 0.02706516 -0.00157043 0.00000000
2.58299828 0.21501006 0.00004588 0.00000000
2.01162234 0.01212814 0.00021495 0.00000000
3.69625553 1.49186383 0.00205634 0.00000000
2.94889898 1.55038038 0.00167506 0.00000000
3.11131375 1.22577415 0.00370551 0.00000000
0.25421609 1.40153587 -0.00329338 0.00000000
0.81658721 0.21645074 0.00052905 0.00000000
1.29320742 0.28920740 0.00366535 0.00000000
3.43072234 0.73920195 -0.00295015 0.00000000
4.00124869 1.04140768 0.00370231 0.00000000
2.13366478 1.56634803 -0.00004567 0.00000000
3.39053034 0.07026225 0.00116001 0.00000000
1.70912904 0.79850793 0.00098197 0.00000000
4.04930423 0.68440396 -0.00216531 0.00000000
3.36181666 1.33653992 -0.00379484 0.00000000
0.33762814 1.48533019 -0.00095950 0.00000000
2.94731659 1.05876067 0.00559924 0.00000000
3.93376336 0.14737034 -0.00101984 0.00000000
3.96617330 1.49000234 -0.00580814 0.00000000
3.38581834 0.90233309 -0.00315617 0.00000000
3.32920219 0.40593327 -0.00426199 0.00000000
0.66507600 0.34589441 0.00112444 0.00000000
0.80846269 0.45569653 0.00417351 0.00000000
3.67041832 0.64689741 -0.00450950 0.00000000
1.97899872 0.01130946 0.00328201 0.00000000
2.55540773 0.65050453 0.00420915 0.00000000
3.49555029 0.15892245 0.00027882 0.00000000
3.80947699 1.02892974 -0.00179066 0.00000000
3.50765553 0.94075467 -0.00142680 0.00000000
3.12033369 1.25021850 -0.00417999 0.00000000
0.70719451 0.30676886 0.00133489 0.00000000
2.52219334 0.58938523 -0.00124215 0.00000000
1.94000374 0.70972965 -0.00084253 0.00000000
3.49949373 0.69351190 -0.00036783 0.00000000
2.36171724 0.29412602 0.00000475 0.00000000
3.88382277 0.41158906 -0.00048427 0.00000000
3.91832239 0.14269062 -0.00290089 0.00000000
1.84175496 1.48731856 -0.00157255 0.00000000
0.24994564 0.85436479 0.00031057 0.00000000
3.28473203 0.71030169 0.00033346 0.00000000
1.47378997 0.68806836 -0.00163542 0.00000000
3.11412720 1.34270036 0.00001348 0.00000000
0.74497522 0.59869493 -0.00170004 0.00000000
2.85131857 1.18186186 -0.00108926 0.00000000
3.12710337 0.69025566 -0.00133930 0.00000000
2.71541534 1.38422493 0.00445009 0.00000000
2.35171412 1.53614603 0.00475909 0.00000000
2.71648504 0.44432148 0.00358869 0.00000000
0.26104728 0.38797476 -0.00537557 0.00000000
3.16714987 0.07702629 -0.00484378 0.00000000
2.21633953 0.17868399 -0.00167540 0.00000000
3.90173800 1.36094715 0.00062920 0.00000000
0.13353265 1.36046660 0.00196337 0.00000000
1.47238627 1.18432604 0.00051824 0.00000000
2.78183045 1.56533104 -0.00054323 0.00000000
1.75887857 1.26728885 -0.00667473 0.00000000
2.89813238 1.53737889 -0.00138954 0.00000000
1.62980046 0.14236525 -0.00060832 0.00000000
2.25858354 0.35179907 -0.00016301 0.00000000
1.78860843 1.60819121 0.00017835 0.00000000
3.89264443 0.94220335 -0.00090880 0.00000000
3.54855012 0.31352583 0.00014515 0.00000000
3.47486428 0.69801194 -0.00156529 0.00000000
1.08929175 0.18866596 -0.00093993 0.00000000
2.74707290 0.91164092 0.00074987 0.00000000
0.66050427 1.24454638 0.00100462 0.00000000
0.65496270 0.58562527 -0.00208069 0.00000000
3.94714712 0.55893965 -0.00233147 0.00000000
2.08546052 0.75048500 -0.00318375 0.00000000
3.61646209 0.42131433 -0.00117804 0.00000000
2.40159461 0.11955296 0.00023812 0.00000000
3.16715161 0.04874462 -0.00120637 0.00000000
2.94252396 0.52056791 0.00266248 0.00000000
3.89344834 0.42744908 -0.00032382 0.00000000
0.14187177 0.73443715 0.00142177 0.00000000
0.62866962 0.11924287 -0.00265782 0.00000000
0.32893695 1.58660527 0.00204411 0.00000000
3.16717650 1.12140531 -0.00172020 0.00000000
1.89143257 0.86436898 -0.00116851 0.00000000
3.94999961 0.79055793 0.00025833 0.00000000
1.70295234 0.65212961 0.00211344 0.00000000
3.14587370 1.16483066 -0.00205566 0.00000000
2.65294322 0.20880540 -0.00125780 0.00000000
2.04293607 0.27740354 -0.00591203 0.00000000
2.29233239 0.78299610 -0.00376416 0.00000000
1.46921260 0.86090938 0.00049836 0.00000000
1.49141713 1.03826690 -0.00233399 0.00000000
3.47523477 0.25185019 0.00084855 0.00000000
3.39206950 0.68237421 0.00335501 0.00000000
1.76718174 1.29142043 0.00194072 0.00000000
2.57322373 0.93314887 -0.00278842 0.00000000
1.56391610 0.31094476 0.00006123 0.00000000
1.10400141 0.95890383 0.00444537 0.00000000
2.53617340 1.58758893 -0.00055660 0.00000000
1.09174436 0.48065639 -0.00031787 0.00000000
0.26652794 0.77315868 -0.00001190 0.00000000
2.80320352 0.82722301 -0.00211356 0.00000000
0.66044659 0.23012668 0.00103372 0.00000000
3.73636073 0.83814853 0.00111489 0.00000000
1.34938340 0.74730511 0.00369255 0.00000000
3.25459401 0.58970308 -0.00140245 0.00000000
3.52566510 1.43621118 -0.00251921 0.00000000
3.61777743 0.91373065 0.00021695 0.00000000
1.09731832 1.00334357 0.00196975 0.00000000
3.57802767 1.07710277 -0.00100175 0.00000000
3.59288506 1.23926167 0.00091256 0.00000000
0.20350754 1.44170746 -0.00308554 0.00000000
2.54512643 1.55594418 -0.00179227 0.00000000
0.23328504 1.59828560 -0.00126601 0.00000000
0.61138616 0.21503054 0.00352956 0.00000000
1.02309244 0.22035875 0.00026415 0.00000000
3.91068845 0.42010840 -0.00447373 0.00000000
2.24432964 0.63523016 -0.00329555 0.00000000
2.45804512 0.20808903 -0.00458480 0.00000000
2.95873421 1.01718178 -0.00027785 0.00000000
0.94873695 0.07272511 -0.00001481 0.00000000
4.03909791 0.06377679 0.00199205 0.00000000
0.12412581 0.70210206 0.00256528 0.00000000
0.07029377 1.25496665 0.00206301 0.00000000
3.32245253 0.19417203 0.00125304 0.00000000
2.73927267 0.32568001 -0.00007543 0.00000000
1.25576258 0.31892403 0.00109481 0.00000000
1.60758943 0.98032495 -0.00444878 0.00000000
3.44733665 0.99263841 -0.00278099 0.00000000
3.25416814 1.24026611 0.00182914 0.00000000
3.17819706 0.71303594 0.00187577 0.00000000
2.33069543 0.70637504 -0.00540337 0.00000000
3.60208311 0.41399601 0.00128761 0.00000000
1.94494258 1.09764211 0.00181827 0.00000000
2.76441468 1.03079798 0.00107313 0.00000000
0.24879179 0.90510833 0.00090279 0.00000000
0.08452632 1.40051140 -0.00209705 0.00000000
1.83610247 0.83149670 -0.00050032 0.00000000
0.18155882 1.12946673 0.00451603 0.00000000
2.48957683 1.27382900 -0.00939210 0.00000000
1.99939785 0.10909123 -0.00099051 0.00000000
1.51476661 1.20139369 0.00182764 0.00000000
0.49904525 1.43484833 -0.00107322 0.00000000
2.17651989 0.40210706 0.00081286 0.00000000
2.51346418 0.33933391 -0.00033192 0.00000000
3.27159322 0.49186761 -0.00225404 0.00000000
1.52788754 1.34691061 -0.00241169 0.00000000
1.93330687 0.46523301 0.00194515 0.00000000
1.79943100 0.03604113 0.00166979 0.00000000
2.92133128 0.37436934 -0.00088750 0.00000000
0.09526850 0.55269834 0.00209947 0.00000000
2.51282517 0.35124983 -0.00344972 0.00000000
4.01587927 1.44137938 -0.00099459 0.00000000
2.43550117 0.06317149 0.00189942 0.00000000
2.51373107 1.09315594 0.00022333 0.00000000
2.16855371 1.40501479 -0.00162543 0.00000000
1.14808298 0.21192096 0.00062104 0.00000000
0.12598340 0.38090313 -0.00151035 0.00000000
0.69878218 0.22792742 -0.00335369 0.00000000
0.01546936 0.98850979 0.00058005 0.00000000
3.83859061 1.47367263 -0.00269175 0.00000000
1.20966954 1.58644465 0.00233474 0.00000000
3.73925335 0.82867406 -0.00119757 0.00000000
3.13465992 0.94854149 0.00204279 0.00000000
2.61836798 1.18630933 -0.00223815 0.00000000
1.20842178 1.31492721 -0.00183934 0.00000000
1.84060112 0.38660479 -0.00032664 0.00000000
0.77682321 1.28711636 0.00319079 0.00000000
4.00693549 0.52340601 -0.00187184 0.00000000
3.12848107 0.57531301 0.00448860 0.00000000
1.31932685 0.68757996 0.00260830 0.00000000
1.44301142 1.39542933 -0.00412445 0.00000000
1.15405681 1.59451268 -0.00335418 0.00000000
0.88981332 1.50649494 -0.00303548 0.00000000
3.97335371 0.62290821 -0.00168779 0.00000000
1.36981245 0.47983344 -0.00124977 0.00000000
1.04685499 0.16677954 0.00260440 0.00000000
0.51373505 0.19848811 -0.00075887 0.00000000
3.17349372 0.34741184 0.00054157 0.00000000
1.47617011 1.30139036 -0.00378534 0.00000000
0.76963411 0.96115775 0.00016505 0.00000000
3.42677494 1.13846268 0.00055606 0.00000000
3.07909043 0.97288857 0.00508222 0.00000000
2.14381573 1.40738034 -0.00140254 0.00000000
2.95967442 0.23735412 -0.00020879 0.00000000
0.55512658 0.12836205 0.00385082 0.00000000
2.10230775 1.57222885 0.00273397 0.00000000
3.76204012 0.79185570 -0.00224150 0.00000000
3.98502785 1.57814698 0.00113521 0.00000000
2.59206888 1.13612952 0.00136870 0.00000000
1.17871150 1.04034637 0.00092385 0.00000000
2.48685301 0.05278509 0.00460498 0.00000000
2.33015942 1.50700108 -0.00303246 0.00000000
0.78470460 0.27562049 0.00099261 0.00000000
2.32969884 0.64467375 0.00432222 0.00000000
1.47993140 0.99785279 0.00028848 0.00000000
2.04659849 1.34604560 0.00258704 0.00000000
2.30270865 0.90959747 0.00145549 0.00000000
3.46728113 1.53683626 0.00485443 0.00000000
0.72930957 0.39961178 -0.00164262 0.00000000
0.20783997 1.58305031 -0.00011424 0.00000000
2.93317218 0.91096071 0.00497807 0.00000000
1.31446268 0.24348448 -0.00001341 0.00000000
0.38245659 0.18188482 0.00516232 0.00000000
1.55537836 1.49703597 0.00007104 0.00000000
0.58957242 0.15736883 0.00369740 0.00000000
0.74374730 0.14323977 0.00172636 0.00000000
4.02138619 0.33154012 -0.00005153 0.00000000
0.36575441 0.38558109 0.00156419 0.00000000
3.95248675 1.52483446 -0.00305375 0.00000000
0.30178557 0.76223421 -0.00111866 0.00000000
3.74422728 1.33501021 0.00520703 0.00000000
2.75914728 1.22600595 -0.00005580 0.00000000
0.28751138 0.33998218 0.00371707 0.00000000
1.30718636 0.20857563 -0.00079512 0.00000000
3.02889721 0.48999945 0.00215830 0.00000000
4.04162267 0.98590969 -0.00148988 0.00000000
1.09710609 0.51599959 0.00267147 0.00000000
2.20958043 0.00414764 -0.00493922 0.00000000
1.87191106 1.59045053 -0.00019291 0.00000000
3.54152515 0.70855178 0.00528094 0.00000000
3.74056819 0.15353353 -0.00145936 0.00000000
3.19159396 1.49809748 0.00350660 0.00000000
1.52356331 1.21719247 0.00552953 0.00000000
1.10898453 1.21704943 0.00254163 0.00000000
