4.14020606 0.29869078 0.00180832 0.00000000
3.24475566 1.48882989 -0.00569325 0.00000000
2.15612384 0.92560987 0.00281565 0.00000000
2.70521971 0.88182566 0.00292704 0.00000000
2.73833646 0.89464472 -0.00007434 0.00000000
1.50457211 0.33336130 -0.00081535 0.00000000
0.15208444 0.34513728 -0.00275163 0.00000000
2.15711681 0.89029899 0.00027567 0.00000000
0.66509455 1.20469719 0.00035239 0.00000000
1.06203973 0.62656763 0.00363020 0.00000000
3.18401596 1.17066200 -0.00191454 0.00000000
3.44279177 0.52569488 -0.00114301 0.00000000
0.31654542 0.94410205 -0.00318707 0.00000000
0.83462226 0.43651880 -0.00001632 0.00000000
1.75555323 1.08549183 0.00268651 0.00000000
1.54011470 0.91972036 -0.00157456 0.00000000
2.08949530 0.03359489 -0.00019404 0.00000000
0.32256653 0.53011508 -0.00345797 0.00000000
2.08879629 0.19051940 -0.00442840 0.00000000
1.68884059 0.17524147 0.00287364 0.00000000
3.18637428 0.96131751 0.00131589 0.00000000
2.91009226 0.78499492 -0.00733663 0.00000000
2.30055575 0.18755576 0.00309060 0.00000000
1.38702555 0.05406424 0.00437662 0.00000000
0.71823131 1.29973018 0.00240249 0.00000000
2.98532277 0.27038724 -0.00159199 0.00000000
0.70874284 1.17106462 0.00310568 0.00000000
0.20240512 0.29881655 0.00124531 0.00000000
0.69197487 1.05600089 0.00068650 0.00000000
2.40008477 0.80578434 -0.00313623 0.00000000
3.69277291 0.65651908 -0.00039025 0.00000000
4.18394728 0.99015307 -0.00490383 0.00000000
3.11021948 0.54761179 -0.00228302 0.00000000
1.08895879 1.02608236 0.00152943 0.00000000
3.59440211 0.71963254 -0.00189865 0.00000000
3.58529101 1.01050944 0.00093469 0.00000000
1.76528970 1.34836374 -0.00181264 0.00000000
1.96652687 1.15834632 -0.00175157 0.00000000
1.03617446 1.16364629 -0.00102153 0.00000000
3.29570965 0.63379079 -0.00330908 0.00000000
2.13521515 0.53052750 -0.00041320 0.00000000
3.24151114 0.93602668 -0.00175692 0.00000000
2.82591024 0.40164592 0.00087346 0.00000000
0.07644742 1.07144527 -0.00073296 0.00000000
3.21209702 1.48023692 0.00170479 0.00000000
0.73344755 0.96155984 0.00339450 0.00000000
0.85146668 1.36550029 0.00210504 0.00000000
0.36276826 0.37229295 -0.00029835 0.00000000
0.52971424 1.52173881 -0.00024709 0.00000000
0.15049095 1.23457380 -0.00081113 0.00000000
1.52451357 0.63814532 -0.00187543 0.00000000
0.69988329 1.29460712 0.00154767 0.00000000
2.17212356 1.30584966 -0.00131255 0.00000000
0.25803372 0.33663825 0.00248885 0.00000000
2.22236006 0.79487055 0.00025150 0.00000000
0.48816333 0.38844352 0.00180764 0.00000000
2.26773963 0.21194906 0.00042149 0.00000000
0.49808240 0.15113132 0.00015852 0.00000000
0.13526877 0.02740161 -0.00273716 0.00000000
2.85257770 1.27664135 0.00433747 0.00000000
1.35261915 0.18348504 -0.00048752 0.00000000
3.31120217 0.60765960 -0.00246133 0.00000000
3.44458512 0.54276952 0.00215391 0.00000000
0.25265916 1.39155943 -0.00079288 0.00000000
0.10887311 1.29878797 0.00232084 0.00000000
1.19745978 0.35883313 0.00125387 0.00000000
1.31335011 1.04095558 0.00018393 0.00000000
3.74388603 0.11438789 -0.00178901 0.00000000
2.37914186 1.48258079 -0.00163259 0.00000000
3.50087236 0.94409522 0.00547238 0.00000000
3.61913139 0.78621966 -0.00208526 0.00000000
3.45088240 0.17314797 0.00229788 0.00000000
2.58991639 0.32060139 -0.00119383 0.00000000
3.58994775 0.92300541 -0.00475690 0.00000000
0.31183102 0.15650640 -0.00214497 0.00000000
1.36960843 0.88480598 -0.00421017 0.00000000
2.29189592 1.46599908 0.00138791 0.00000000
2.47494620 1.32957417 -0.00021337 0.00000000
2.82834867 0.89621015 0.00151283 0.00000000
1.43340365 0.36503897 -0.00136499 0.00000000
0.27708716 1.18161441 0.00016060 0.00000000
2.15731034 0.71602373 0.00177202 0.00000000
3.00119228 0.44174144 -0.00134133 0.00000000
2.05276877 0.25591249 -0.00290600 0.00000000
0.65107749 0.41662692 0.00338933 0.00000000
2.51346488 0.53245083 -0.00555662 0.00000000
3.90639144 1.39401282 -0.00318737 0.00000000
3.84556279 0.26737003 -0.00432225 0.00000000
0.94489750 0.39393387 0.00253711 0.00000000
0.23620173 1.02330584 -0.00177734 0.00000000
0.39538572 0.52736542 0.00377250 0.00000000
2.05809436 0.43454393 -0.00047889 0.00000000
2.09713302 0.95365361 0.00217273 0.00000000
2.72842764 1.18340858 0.00211865 0.00000000
3.93159955 1.51881967 -0.00050188 0.00000000
3.56278882 1.15419107 0.00407094 0.00000000
2.45523569 1.18061669 -0.00005121 0.00000000
1.54385925 0.47749726 -0.00290326 0.00000000
2.42631594 1.26199853 -0.00112563 0.00000000
3.38732904 0.65753038 0.00218811 0.00000000
1.03957465 0.61500152 0.00109122 0.00000000
0.11708579 1.39652725 -0.00368540 0.00000000
3.14071751 0.08036876 -0.00002984 0.00000000
1.84556028 1.49097259 0.00105503 0.00000000
2.49353843 0.48613513 0.00267768 0.00000000
0.64579428 0.60057800 -0.00237507 0.00000000
3.31357077 0.91876737 -0.00020114 0.00000000
2.88922553 0.24064814 0.00139796 0.00000000
0.08653058 0.48632605 -0.00190069 0.00000000
4.15476574 0.52249774 0.00489856 0.00000000
4.02488569 1.07834332 0.00434701 0.00000000
4.01483772 1.21102263 0.00162038 0.00000000
3.76212480 0.95930936 -0.00226069 0.00000000
0.81146550 0.34878632 0.00263317 0.00000000
3.93460935 0.64006437 -0.00186993 0.00000000
2.98238388 1.30502730 0.00075981 0.00000000
3.34774303 0.42144814 -0.00065328 0.00000000
3.56828303 0.36018054 -0.00221499 0.00000000
3.89247762 1.34112904 0.00091730 0.00000000
2.63246032 1.24879459 0.00351125 0.00000000
0.93678927 1.07733196 0.00050696 0.00000000
2.58514182 1.27852320 0.00033564 0.00000000
1.93411360 1.37242340 0.00082221 0.00000000
1.73900409 0.92192928 -0.00263021 0.00000000
2.85339457 0.78455341 -0.00216280 0.00000000
3.23904469 1.28649546 -0.00127437 0.00000000
2.84924387 1.51659116 0.00326503 0.00000000
1.14958825 0.76234897 0.00172736 0.00000000
0.35331780 0.65053002 0.00121586 0.00000000
1.05990178 0.46735388 -0.00082905 0.00000000
0.50214196 0.14167813 -0.00201756 0.00000000
1.71741614 1.17914986 -0.00230721 0.00000000
3.78586083 1.46845586 0.00109824 0.00000000
0.39325425 0.90563939 0.00495989 0.00000000
2.66535332 0.63441031 -0.00056360 0.00000000
1.48805660 0.67239337 -0.00344506 0.00000000
1.57931752 0.20993005 0.00122230 0.00000000
2.39102351 0.24443218 -0.00099406 0.00000000
4.01908546 0.90527178 0.00030982 0.00000000
0.54875262 0.48066083 -0.00169704 0.00000000
2.94052470 0.64586529 0.00035957 0.00000000
0.94201871 0.90215848 0.00178308 0.00000000
2.55616010 0.56522198 0.00283825 0.00000000
3.36492775 0.01068053 0.00626010 0.00000000
3.48732512 0.86292024 0.00345494 0.00000000
3.30742922 0.79045324 -0.00078972 0.00000000
1.44213436 1.07775733 0.00104569 0.00000000
1.96018653 1.33672656 -0.00494909 0.00000000
2.24345929 1.34794758 -0.00289220 0.00000000
0.93127795 0.63258435 0.00624335 0.00000000
1.14886928 0.12662970 0.00097067 0.00000000
1.77829151 0.40440160 0.00347166 0.00000000
4.01112187 0.77036481 0.00103613 0.00000000
2.24938321 0.53043269 0.00166246 0.00000000
0.91412524 0.56603955 0.00165155 0.00000000
3.83247028 0.88294816 0.00373664 0.00000000
0.53011962 0.35677016 -0.00107215 0.00000000
3.58336803 1.48491064 -0.00092240 0.00000000
4.10397047 0.10355059 -0.00287252 0.00000000
3.22524007 0.89061937 -0.00078962 0.00000000
2.33336621 0.01441994 -0.00250215 0.00000000
4.15356568 0.03706883 0.00045199 0.00000000
1.69414823 0.86211211 0.00001599 0.00000000
0.19392219 0.19215035 0.00162677 0.00000000
2.11926980 0.69419988 -0.00012177 0.00000000
1.88951496 1.05639198 0.00569125 0.00000000
2.72090415 1.26598654 0.00237105 0.00000000
3.19282084 0.69180631 -0.00337025 0.00000000
3.49863985 0.65076482 0.00036506 0.00000000
0.60968988 1.07281570 -0.00237008 0.00000000
1.09743283 1.21587455 0.00485274 0.00000000
2.41952034 0.38543238 0.00116595 0.00000000
1.47927926 0.82437291 0.00141469 0.00000000
3.67521687 1.20894290 0.00046357 0.00000000
0.62086665 1.18015713 -0.00052705 0.00000000
0.49305842 0.09198794 -0.00173123 0.00000000
1.89939425 0.51256240 -0.00361324 0.00000000
3.31259357 0.34915190 0.00340810 0.00000000
2.68656147 1.12175934 -0.00428981 0.00000000
1.31225329 1.24327868 0.00272775 0.00000000
2.82033227 0.87376155 0.00137424 0.00000000
0.08343862 1.22209133 0.00133904 0.00000000
3.83345219 0.95632422 0.00343599 0.00000000
1.41411132 1.18567942 0.00341030 0.00000000
3.58744312 1.41484558 -0.00313724 0.00000000
1.50997639 0.02512832 -0.00275390 0.00000000
3.49344549 1.47565078 -0.00006133 0.00000000
2.63321371 0.40564938 0.00262910 0.00000000
3.56757784 0.28388125 -0.00314780 0.00000000
3.89861712 1.05562126 0.00110393 0.00000000
2.06301141 0.53479802 -0.00300267 0.00000000
0.56340742 0.69407472 -0.00166264 0.00000000
0.45207298 0.01314044 0.00198133 0.00000000
0.19108191 0.82479252 0.00126243 0.00000000
4.08902517 1.08592957 -0.00099713 0.00000000
1.74717910 1.47480036 -0.00104817 0.00000000
2.65755125 0.04451520 0.00267248 0.00000000
2.93630919 1.31657003 -0.00014390 0.00000000
3.44439989 1.41769026 -0.00188363 0.00000000
0.47456300 1.39021813 0.00073258 0.00000000
3.87110813 0.79600074 0.00117465 0.00000000
2.27357855 0.03718297 -0.00119059 0.00000000
3.61047946 1.14335544 -0.00053619 0.00000000
3.77494895 1.09678010 -0.00426856 0.00000000
1.92512884 0.54117923 -0.00105642 0.00000000
3.08244686 1.22537821 -0.00026887 0.00000000
3.84940204 0.65467727 0.00269204 0.00000000
1.01170177 1.48364170 -0.00125866 0.00000000
2.05297011 1.44948553 -0.00446540 0.00000000
1.57709221 1.06301936 -0.00145890 0.00000000
0.10264754 0.90021667 0.00302370 0.00000000
3.68415764 0.08211327 -0.00404507 0.00000000
2.85600018 0.62839080 -0.00232213 0.00000000
0.19684800 0.74443764 0.00020379 0.00000000
3.52688963 1.01459757 -0.00149202 0.00000000
3.90009424 0.05543369 -0.00258653 0.00000000
2.15698621 1.45106572 0.00416615 0.00000000
4.07542030 1.00649816 0.00156809 0.00000000
1.69582269 1.28359979 0.00466685 0.00000000
4.05385222 0.47623197 0.00278125 0.00000000
2.98312785 0.55287117 -0.00140388 0.00000000
0.31419953 0.34198162 0.00243074 0.00000000
3.85980724 0.28718445 0.00142097 0.00000000
3.36339820 1.19874288 0.00014976 0.00000000
3.22641843 0.62061914 -0.00242725 0.00000000
2.84900559 1.52092274 -0.00337492 0.00000000
1.76379404 0.45231211 0.00003143 0.00000000
0.84854294 0.00848874 -0.00279902 0.00000000
2.14204223 0.23520881 0.00041498 0.00000000
3.10140264 0.21654970 -0.00015790 0.00000000
3.90491990 1.48527243 -0.00129541 0.00000000
0.11093576 0.36287029 0.00001749 0.00000000
4.20330838 1.23732009 -0.00507840 0.00000000
2.49976536 1.36385148 -0.00541222 0.00000000
4.21119361 0.05859864 0.00208215 0.00000000
2.90718675 0.44461317 0.00089010 0.00000000
0.90184289 0.79197813 0.00166577 0.00000000
0.79098875 0.83261790 0.00091991 0.00000000
0.76223764 0.85698110 0.00378440 0.00000000
3.25373439 0.94692905 0.00135691 0.00000000
2.34168733 0.94107639 -0.00363651 0.00000000
2.80541952 0.05357810 -0.00313259 0.00000000
3.54473171 0.20052779 -0.00290466 0.00000000
1.81143658 0.63966533 -0.00167053 0.00000000
2.89518727 0.99758647 0.00355675 0.00000000
1.36046017 0.96864605 -0.00035404 0.00000000
3.71853508 0.95557490 0.00342950 0.00000000
3.77006052 1.32636422 -0.00297690 0.00000000
1.32966533 1.42991829 0.00070338 0.00000000
1.91233652 0.01612228 -0.00060321 0.00000000
2.24124593 1.21628318 -0.00054365 0.00000000
2.90552409 0.28602035 -0.00172215 0.00000000
4.22031592 1.00359549 0.00355848 0.00000000
1.59732815 1.02631921 -0.00052311 0.00000000
3.71224293 0.50939299 0.00175710 0.00000000
3.05067851 0.24931326 -0.00019436 0.00000000
1.76093586 1.16750303 0.00371154 0.00000000
0.44046877 1.33378635 0.00032017 0.00000000
1.40681195 0.78790284 0.00043476 0.00000000
1.46008630 0.46955760 -0.00578529 0.00000000
1.96450740 1.35573315 0.00047942 0.00000000
2.77215471 1.19177876 0.00387387 0.00000000
1.29351658 0.68343923 0.00073980 0.00000000
3.27757935 0.85250732 0.00247262 0.00000000
2.42004587 0.82840734 0.00546619 0.00000000
3.72804404 0.98867828 0.00043396 0.00000000
3.42743261 0.42421271 -0.00156495 0.00000000
0.37207462 1.01018382 -0.00287319 0.00000000
0.93226112 0.90457031 -0.00039489 0.00000000
1.84063499 0.85068924 -0.00490176 0.00000000
1.93506971 0.89978967 -0.00139032 0.00000000
2.41987583 1.21974250 -0.00573857 0.00000000
1.51248893 0.11879767 0.00028979 0.00000000
2.70745213 0.90141226 -0.00141426 0.00000000
1.21783836 0.31464710 0.00478085 0.00000000
2.62534203 1.51998171 0.00440048 0.00000000
0.34195422 1.23955951 -0.00176833 0.00000000
0.36422272 0.92925141 0.00079736 0.00000000
0.04112495 0.69969072 -0.00073965 0.00000000
4.07979421 1.09281216 -0.00092137 0.00000000
4.18148382 1.05964384 -0.00120993 0.00000000
0.94896550 0.95992056 0.00041722 0.00000000
1.83307382 0.86427542 -0.00122800 0.00000000
1.38158049 0.60362304 0.00170361 0.00000000
3.61409091 1.52939313 -0.00144579 0.00000000
0.69109841 0.15065698 -0.00061939 0.00000000
1.23476778 0.45323727 -0.00090766 0.00000000
1.22582755 0.26887278 -0.00035315 0.00000000
2.18395798 1.09517103 -0.00026935 0.00000000
1.57445804 1.07541966 0.00095658 0.00000000
2.78614063 0.79069805 -0.00143689 0.00000000
1.16690162 1.23645361 0.00492342 0.00000000
1.30140102 0.97740362 -0.00165414 0.00000000
4.09914605 0.07481376 0.00148984 0.00000000
0.84190812 0.13545102 -0.00253957 0.00000000
4.09294674 1.35610973 -0.00084387 0.00000000
1.48031399 0.48129359 -0.00076709 0.00000000
0.67437952 0.16911594 0.00267785 0.00000000
3.42881161 1.03278806 0.00503952 0.00000000
0.72996753 0.40018836 0.00117496 0.00000000
4.06644812 1.33016654 0.00434482 0.00000000
0.76773515 0.84245493 -0.00238181 0.00000000
0.39360626 0.42975889 0.00172873 0.00000000
3.81617639 1.13388982 0.00150354 0.00000000
0.07249160 0.52375471 0.00270059 0.00000000
2.45331980 0.64538864 0.00205975 0.00000000
0.77814129 0.27388766 0.00323559 0.00000000
1.23322813 0.47698387 -0.00111942 0.00000000
1.09196368 0.15479998 -0.00085397 0.00000000
2.68158045 1.42372199 -0.00303467 0.00000000
1.95427865 0.78062676 -0.00254261 0.00000000
2.79310075 0.48941496 -0.00350871 0.00000000
2.92736773 1.40769538 0.00026148 0.00000000
4.21714968 0.41092891 -0.00291564 0.00000000
2.14293473 0.10303962 -0.00194974 0.00000000
2.79257602 0.16371360 0.00283045 0.00000000
4.05734093 0.88564659 -0.00113440 0.00000000
2.91659953 1.47891496 -0.00089766 0.00000000
3.12951764 0.42671270 -0.00592408 0.00000000
3.15704187 0.31347570 0.00484150 0.00000000
2.55127063 1.01616672 0.00313971 0.00000000
0.55085582 0.72441402 0.00020893 0.00000000
1.30698830 0.63175294 0.00312154 0.00000000
0.35712663 1.47182267 -0.00025698 0.00000000
3.81645598 1.48774607 -0.00387099 0.00000000
0.73253501 1.35912909 -0.00105216 0.00000000
0.33328008 0.73878835 -0.00486597 0.00000000
0.07994013 0.54147616 0.00246791 0.00000000
2.49120236 0.27629823 0.00068917 0.00000000
3.48349908 0.24821827 0.00355965 0.00000000
2.97552434 1.48015276 -0.00090301 0.00000000
1.37780058 1.15323212 0.00689158 0.00000000
3.25538180 1.00610461 0.00251367 0.00000000
1.79669483 0.16666667 0.00101819 0.00000000
0.98421089 0.92518755 -0.00217801 0.00000000
0.56986213 1.39735251 0.00316517 0.00000000
0.85901942 1.11437432 -0.00084523 0.00000000
0.28644125 0.50408324 0.00013836 0.00000000
1.18224000 1.03084007 -0.00006615 0.00000000
0.08312613 0.30605689 -0.00492363 0.00000000
3.74300844 0.25535041 -0.00268677 0.00000000
2.74584264 1.53429939 -0.00293707 0.00000000
3.94818244 0.16349475 -0.00143233 0.00000000
2.33091001 0.23089122 0.00531481 0.00000000
1.15360068 0.45502533 0.00308071 0.00000000
4.15720987 0.60684455 0.00065486 0.00000000
0.44255118 1.10944104 -0.00039678 0.00000000
0.18266791 0.90963088 -0.00170676 0.00000000
2.65143199 1.28071264 -0.00086203 0.00000000
3.18969720 1.48580263 -0.00073788 0.00000000
2.50426307 0.23263183 -0.00069821 0.00000000
1.89281593 0.09850637 0.00119991 0.00000000
1.28962688 0.35574846 -0.00038323 0.00000000
2.28489703 1.37489558 -0.00070171 0.00000000
2.97216610 0.20619622 0.00090544 0.00000000
2.79964507 1.13906339 -0.00505082 0.00000000
2.99683374 0.01623749 0.00343841 0.00000000
3.02306055 1.22582294 -0.00540386 0.00000000
3.20151241 1.44040962 0.00248567 0.00000000
0.92013774 0.55710749 -0.00183508 0.00000000
2.79106122 0.78467024 -0.00407627 0.00000000
0.61922533 1.43528539 0.00005036 0.00000000
0.05601515 0.35392837 0.00095143 0.00000000
0.12088746 0.94661862 0.00213480 0.00000000
0.42405506 0.37936782 0.00438372 0.00000000
4.13135654 0.78188388 0.00018143 0.00000000
1.40798295 0.01292673 0.00023448 0.00000000
0.92959709 0.92691832 -0.00423045 0.00000000
3.06077897 1.05614215 -0.00211590 0.00000000
1.02644026 0.17125587 0.00435892 0.00000000
2.26773681 0.23252651 -0.00053803 0.00000000
0.98242779 0.81674477 -0.00157227 0.00000000
3.46099455 1.37241798 0.00214004 0.00000000
4.03155022 0.82719778 0.00463915 0.00000000
1.14690047 0.67335196 0.00429603 0.00000000
4.16246603 0.80255648 -0.00054378 0.00000000
1.92915798 1.31231776 -0.00117316 0.00000000
0.92312778 0.13704804 -0.00107785 0.00000000
3.21021509 0.01895442 -0.00073548 0.00000000
1.60642230 0.99914998 -0.00188415 0.00000000
1.40412459 0.08454769 0.00022900 0.00000000
3.36882048 1.25685380 -0.00350875 0.00000000
1.28691359 0.18017193 0.00220548 0.00000000
0.19350466 0.22461859 0.00213052 0.00000000
3.02972253 0.84300491 0.00106472 0.00000000
1.13732099 0.05480707 0.00089141 0.00000000
0.28383340 1.49735309 0.00178831 0.00000000
3.94937809 1.53480368 -0.00120095 0.00000000
4.11972088 0.19030033 -0.00070752 0.00000000
3.42535883 0.29265196 0.00151926 0.00000000
2.36101349 0.11866324 -0.00025251 0.00000000
4.08637749 1.49174016 -0.00092900 0.00000000
3.81530617 1.30932477 0.00127232 0.00000000
1.55005088 0.35493213 -0.00327767 0.00000000
1.20612780 1.23672483 -0.00261845 0.00000000
1.75790725 1.31085225 0.00035987 0.00000000
0.49800456 1.37192178 0.00192859 0.00000000
2.36474986 0.33962575 -0.00077725 0.00000000
3.69870884 1.34755330 -0.00086950 0.00000000
3.50674044 0.62295312 -0.00474962 0.00000000
4.10710866 1.14012118 -0.00031850 0.00000000
3.04550724 1.01491037 -0.00026567 0.00000000
3.77096959 0.21096878 0.00094016 0.00000000
0.80496918 0.94469408 0.00219422 0.00000000
0.06953561 0.45772426 -0.00501733 0.00000000
2.31198449 0.99924657 -0.00288564 0.00000000
3.26364806 0.03276849 -0.00249421 0.00000000
3.21825180 0.92591201 -0.00064172 0.00000000
0.56080763 0.22113873 0.00193090 0.00000000
3.49300972 0.81319956 -0.00696199 0.00000000
3.16428192 1.31404549 -0.00093049 0.00000000
3.12000186 0.62437249 -0.00162047 0.00000000
2.25242980 0.20274887 0.00165450 0.00000000
2.20344878 1.13002738 0.00260730 0.00000000
0.82590355 0.78001820 -0.00217196 0.00000000
0.62118138 0.49461134 0.00504641 0.00000000
3.06281521 1.52723473 0.00018522 0.00000000
0.88445043 1.32775013 -0.00256759 0.00000000
3.38778872 0.15204217 -0.00134384 0.00000000
2.04485041 1.23124327 0.00121566 0.00000000
1.63824915 0.60739838 0.00318745 0.00000000
2.05792616 0.40108161 -0.00484630 0.00000000
2.33642328 0.37715283 -0.00504075 0.00000000
2.02528759 1.18804416 0.00596695 0.00000000
4.12631563 0.64114666 -0.00125665 0.00000000
0.71243754 0.60431789 -0.00070479 0.00000000
1.43159968 1.33328296 0.00286203 0.00000000
0.00037289 0.96001397 -0.00498538 0.00000000
3.73446488 0.03303514 -0.00050873 0.00000000
3.95582542 0.69985963 -0.00257101 0.00000000
2.26541613 1.09113708 -0.00136059 0.00000000
2.26269575 0.98033449 -0.00261630 0.00000000
4.02866318 0.46874477 -0.00198114 0.00000000
0.44380965 0.71591929 0.00238699 0.00000000
1.39620462 0.80103022 0.00506293 0.00000000
4.05450463 1.06913348 -0.00186843 0.00000000
3.05958655 0.81903377 0.00053964 0.00000000
3.28537579 0.27701111 -0.00108954 0.00000000
3.36755073 0.96684918 -0.00053697 0.00000000
0.15877934 0.24982410 -0.00102647 0.00000000
1.30486276 1.25434683 -0.00407037 0.00000000
2.70344022 0.85281119 0.00052188 0.00000000
0.60970376 0.74831888 0.00370768 0.00000000
1.21712495 1.53188981 0.00252378 0.00000000
1.14132386 1.18296673 0.00185895 0.00000000
1.06193650 1.02908452 0.00197605 0.00000000
2.31343341 0.78267473 -0.00022475 0.00000000
3.04254433 0.44950470 -0.00006818 0.00000000
1.96351725 1.20636066 0.00650422 0.00000000
3.60375083 0.90599785 0.00015204 0.00000000
2.20466105 0.34086915 0.00012226 0.00000000
3.40614278 0.94435816 -0.00248965 0.00000000
0.14504752 0.79247642 -0.00276903 0.00000000
1.64923092 1.00148244 -0.00141389 0.00000000
1.81438619 0.67343712 0.00126310 0.00000000
3.05821383 0.32005341 0.00079370 0.00000000
1.38419238 0.74775291 0.00010459 0.00000000
0.71228648 0.17359167 0.00012357 0.00000000
1.58115189 0.58024377 0.00100820 0.00000000
1.57848354 0.15840979 -0.00023107 0.00000000
1.10094350 0.25301709 -0.00312221 0.00000000
1.08720437 1.40047973 -0.00109339 0.00000000
3.77593769 0.92995575 -0.00257257 0.00000000
2.99160610 0.14633486 0.00122059 0.00000000
3.14001086 0.13718379 -0.00766559 0.00000000
0.13233171 0.66672160 0.00040491 0.00000000
1.56274354 0.05124107 -0.00382115 0.00000000
2.82693159 1.33614943 -0.00421066 0.00000000
2.56341657 0.96781754 0.00266779 0.00000000
0.15600173 0.01880054 0.00170677 0.00000000
0.95692985 1.51688133 -0.00037596 0.00000000
4.08006027 0.10997729 0.00112935 0.00000000
2.26823876 0.65300198 0.00002462 0.00000000
0.07017554 0.48367329 -0.00311815 0.00000000
1.48766573 1.12205069 0.00007871 0.00000000
2.31791414 0.85585306 -0.00128495 0.00000000
2.00798378 0.71368805 0.00234694 0.00000000
4.15039950 1.36690558 0.00272460 0.00000000
3.04902916 0.27934709 -0.00278128 0.00000000
0.25409600 0.52306446 0.00471254 0.00000000
2.94159481 0.51811125 -0.00437620 0.00000000
3.43860531 0.62236751 0.00014979 0.00000000
2.32861016 1.17616965 -0.00031922 0.00000000
1.63216266 1.34807257 -0.00011567 0.00000000
2.14277136 1.24223739 -0.00387306 0.00000000
4.12726369 1.08962664 0.00020950 0.00000000
0.44046020 0.23217445 0.00176067 0.00000000
3.95075456 0.84515284 -0.00237894 0.00000000
0.10673130 0.44337321 -0.00198678 0.00000000
1.22085333 1.13591861 -0.00375601 0.00000000
3.47994668 0.92742464 -0.00040645 0.00000000
3.62224348 0.49972928 -0.00076809 0.00000000
1.28009126 0.88835759 -0.00277557 0.00000000
1.02051318 1.00615498 0.00141851 0.00000000
0.19663894 1.28035151 -0.00033344 0.00000000
1.88883953 0.46197452 -0.00308479 0.00000000
1.03918176 0.57393515 -0.00138207 0.00000000
0.11726344 1.16787978 0.00186544 0.00000000
1.60474311 0.71482203 -0.00335989 0.00000000
2.16762667 0.02056200 -0.00374721 0.00000000
3.99495353 1.32244039 0.00029106 0.00000000
3.40877581 0.21013383 -0.00020283 0.00000000
0.12169207 0.06170727 0.00028859 0.00000000
0.45550819 1.03830167 -0.00011971 0.00000000
2.76048079 0.43499857 -0.00292731 0.00000000
2.57444799 0.22986856 -0.00428853 0.00000000
2.04508702 1.45285139 0.00087859 0.00000000
0.88070382 1.15806497 0.00347261 0.00000000
0.67796184 1.30966224 -0.00193061 0.00000000
0.06284424 0.86757839 0.00064676 0.00000000
1.89436572 1.36635006 -0.00100821 0.00000000
2.41842215 0.32506721 -0.00121232 0.00000000
1.88660383 0.94119409 -0.00215111 0.00000000
0.05858841 0.51947742 -0.00165885 0.00000000
1.65344187 0.91137861 -0.00132493 0.00000000
1.74778949 0.19472605 -0.00308563 0.00000000
3.23608395 1.38765650 0.00492653 0.00000000
2.33572648 1.40632683 -0.00133720 0.00000000
1.62258695 0.18885750 0.00062229 0.00000000
0.18308191 0.08117878 0.00346927 0.00000000
2.41958570 0.50621932 -0.00135645 0.00000000
2.82606081 0.13757351 0.00276581 0.00000000
3.60094284 0.03801676 0.00061918 0.00000000
3.38115297 1.21146108 -0.00141918 0.00000000
4.04227171 1.42910617 0.00062681 0.00000000
1.93875905 1.32179375 -0.00098052 0.00000000
3.05400405 1.07716701 0.00106643 0.00000000
3.84765251 0.84591104 -0.00182875 0.00000000
0.52965445 1.06100748 0.00046125 0.00000000
3.19268203 0.64175412 -0.00289643 0.00000000
3.56658068 1.51136870 -0.00007394 0.00000000
4.13730318 0.20951736 -0.00156224 0.00000000
2.19748535 1.37878740 -0.00176941 0.00000000
2.59458289 1.38274236 0.00048723 0.00000000
3.46732411 0.07247443 -0.00194444 0.00000000
3.77047345 0.25583512 0.00443218 0.00000000
0.98743793 1.44317213 0.00124758 0.00000000
3.82175424 0.23970283 0.00231623 0.00000000
4.21072098 0.42359031 0.00163333 0.00000000
3.86375061 0.58405052 0.00048933 0.00000000
4.04643326 1.15307848 0.00232905 0.00000000
3.38971958 1.42069192 -0.00324801 0.00000000
2.97420942 0.05708393 0.00108168 0.00000000
0.65130761 0.45682020 -0.00290018 0.00000000
2.02831652 0.45253213 -0.00032398 0.00000000
3.30968728 0.62377410 0.00034056 0.00000000
2.37779192 0.32688355 -0.00344240 0.00000000
0.92676503 0.58816721 0.00128676 0.00000000
1.29799136 0.61773247 -0.00015821 0.00000000
2.67555228 0.41214851 0.00033412 0.00000000
1.24934669 0.16370674 -0.00270584 0.00000000
1.01237495 0.77456993 -0.00133050 0.00000000
2.08629001 0.90664174 0.00065076 0.00000000
0.76503798 1.34076434 0.00294264 0.00000000
1.09856920 1.25168997 0.00061920 0.00000000
1.57199449 1.38640963 -0.00172517 0.00000000
3.84845359 0.35900694 -0.00353387 0.00000000
2.24716831 1.36140223 0.00020504 0.00000000
0.89296521 0.74821657 0.00003892 0.00000000
4.13125568 1.45103534 -0.00042850 0.00000000
4.19617515 0.44389791 -0.00087564 0.00000000
4.20472093 0.77342864 0.00339890 0.00000000
1.22267587 1.17012793 -0.00196271 0.00000000
0.10411590 0.50131562 -0.00033220 0.00000000
3.41546028 0.74663493 -0.00116757 0.00000000
3.58103031 0.41453640 0.00157201 0.00000000
0.56219576 1.09966522 -0.00070772 0.00000000
1.23372888 1.42827941 0.00099844 0.00000000
3.39834365 0.89215384 -0.00049352 0.00000000
2.73281833 0.66423454 0.00305271 0.00000000
3.51418256 0.05901291 -0.00064587 0.00000000
2.34049428 1.13412364 0.00133186 0.00000000
3.84217523 0.99655415 -0.00020999 0.00000000
0.15123891 0.30906569 -0.00032548 0.00000000
0.87498625 1.18597259 0.00066753 0.00000000
4.14220755 0.11028645 0.00014276 0.00000000
0.71219613 0.45784557 0.00359027 0.00000000
3.07645826 0.17942950 -0.00394295 0.00000000
3.79134608 0.92211485 -0.00121387 0.00000000
1.44659964 1.16254732 0.00317145 0.00000000
1.23222530 0.85217897 -0.00193465 0.00000000
1.57004329 0.27329820 -0.00106811 0.00000000
3.56557555 0.57605575 -0.00202864 0.00000000
0.77065238 0.93972039 0.00059868 0.00000000
0.95036302 0.01624610 -0.00029500 0.00000000
2.72557958 0.71295286 -0.00068154 0.00000000
2.97424143 0.11897252 0.00145826 0.00000000
4.14322028 1.27588382 -0.00008139 0.00000000
3.97789884 0.11611001 0.00258410 0.00000000
3.84773057 1.49403720 0.00392727 0.00000000
2.95494898 0.95897002 0.00091911 0.00000000
1.26400064 1.31601619 0.00007782 0.00000000
0.48074661 0.70988275 -0.00179336 0.00000000
2.37739142 1.16811101 -0.00008192 0.00000000
2.96553136 1.24597288 -0.00246140 0.00000000
4.19866196 1.42399723 -0.00012359 0.00000000
1.58488941 1.21934575 -0.00273138 0.00000000
2.24760826 1.16528703 -0.00044741 0.00000000
3.19228085 0.86470549 0.00054779 0.00000000
0.86483634 1.46955589 -0.00134141 0.00000000
0.93739188 1.37010560 -0.00056148 0.00000000
3.25864209 1.49542840 0.00141659 0.00000000
3.01069595 0.09320009 0.00117952 0.00000000
1.40465641 1.03870672 -0.00453548 0.00000000
3.11265048 0.39326856 0.00159771 0.00000000
2.18049519 0.89507688 0.00016576 0.00000000
3.09845913 0.77318065 0.00235683 0.00000000
0.35301058 1.29708449 0.00047560 0.00000000
0.68214038 0.14905147 -0.00112634 0.00000000
0.41470484 0.00905135 -0.00372441 0.00000000
0.34501243 1.18523556 0.00257337 0.00000000
0.39682678 1.03443431 -0.00214618 0.00000000
1.04511768 1.36779896 0.00167920 0.00000000
2.64463259 0.89915204 0.00069698 0.00000000
3.50320201 1.33483795 0.00843002 0.00000000
2.04786802 1.28371346 0.00041271 0.00000000
1.17687794 0.22945082 -0.00179178 0.00000000
2.63860859 0.68184907 -0.00017130 0.00000000
1.11254673 1.00301032 -0.00077536 0.00000000
1.34574234 0.86913443 0.00038150 0.00000000
3.95351303 0.84422034 -0.00287686 0.00000000
3.23261514 0.61777223 -0.00121579 0.00000000
2.85976186 0.12338675 -0.00261029 0.00000000
2.10420321 0.39840872 0.00555916 0.00000000
0.73686377 1.45261710 0.00181205 0.00000000
1.74775331 0.15692112 0.00252246 0.00000000
1.24075583 0.41077052 -0.00341721 0.00000000
3.59862173 0.13558991 -0.00179142 0.00000000
0.78537092 0.00695065 -0.00639716 0.00000000
0.35764250 1.22774899 -0.00314975 0.00000000
2.47022241 0.84267386 0.00312569 0.00000000
4.03653908 0.43544690 -0.00022771 0.00000000
1.22628705 0.79744440 0.00258980 0.00000000
2.49632637 0.37062091 -0.00117780 0.00000000
2.17851643 0.10081885 -0.00189531 0.00000000
1.27205383 1.02659059 0.00103807 0.00000000
2.01780916 1.03368656 -0.00235634 0.00000000
4.15301492 0.37219731 -0.00310578 0.00000000
0.07534513 1.10878431 -0.00357441 0.00000000
1.46930341 0.70572529 0.00150118 0.00000000
0.78055948 1.37694264 0.00183022 0.00000000
2.10515025 1.29775966 0.00489359 0.00000000
3.93103679 1.18777637 0.00439157 0.00000000
1.34115144 0.61225060 0.00196013 0.00000000
1.35840819 0.96152713 0.00707768 0.00000000
2.68473163 1.36189229 0.00524351 0.00000000
2.92410394 0.68156174 -0.00214404 0.00000000
3.31917337 0.85505622 -0.00399228 0.00000000
4.16126768 0.61442358 0.00063077 0.00000000
1.38142523 0.68177172 -0.00036527 0.00000000
3.46011792 0.03863256 -0.00033395 0.00000000
3.84036078 1.38963776 0.00357819 0.00000000
3.75068321 0.97771563 -0.00682142 0.00000000
3.47064761 1.51937458 -0.00155410 0.00000000
3.59343957 1.15033328 0.00160117 0.00000000
2.13041891 0.81208983 -0.00019860 0.00000000
0.23143666 0.60339140 -0.00041114 0.00000000
1.50387247 0.58470560 -0.00412662 0.00000000
2.66454175 0.53211599 0.00121827 0.00000000
3.86992668 1.00591189 0.00038826 0.00000000
0.32018740 0.58915127 0.00028845 0.00000000
1.36192511 1.01430139 -0.00244345 0.00000000
2.77824304 0.45433591 0.00427124 0.00000000
4.18429912 0.97011672 -0.00264365 0.00000000
2.21685200 0.97138971 0.00455981 0.00000000
0.71655862 0.25198794 0.00004585 0.00000000
3.80514901 1.01701251 0.00212004 0.00000000
3.42407015 1.43129983 -0.00208798 0.00000000
3.98587522 1.02535085 0.00224292 0.00000000
2.81276529 0.51421884 -0.00124517 0.00000000
2.40496550 0.45667257 -0.00184159 0.00000000
2.81890073 0.15018077 -0.00338102 0.00000000
1.18762217 0.18384976 0.00100579 0.00000000
0.07426982 0.84098042 0.00200955 0.00000000
1.65171502 0.31516120 0.00195011 0.00000000
3.20785589 1.36714671 0.00308209 0.00000000
1.69972568 1.15353948 -0.00204908 0.00000000
0.34090414 1.21913723 -0.00410666 0.00000000
1.45130031 1.12323753 0.00239401 0.00000000
1.75411053 0.03486879 -0.00228144 0.00000000
0.76537084 0.40403351 0.00377636 0.00000000
0.80210309 0.54376785 -0.00224852 0.00000000
1.19056258 0.53945370 0.00004183 0.00000000
0.17021204 0.81030278 0.00054932 0.00000000
0.55493130 0.18247315 0.00134021 0.00000000
4.01037728 0.75535982 0.00138424 0.00000000
1.50156883 1.21793037 -0.00097677 0.00000000
1.96840986 1.03695664 -0.00055300 0.00000000
1.97051504 0.10322283 0.00022944 0.00000000
3.53410784 0.63116621 0.00197448 0.00000000
0.99449495 0.67445597 0.00211023 0.00000000
2.91841129 1.14472069 -0.00332663 0.00000000
3.13470869 0.11802369 -0.00356157 0.00000000
3.47883784 1.30741258 -0.00150522 0.00000000
2.33972189 0.24263800 0.00496977 0.00000000
0.41343115 1.04274099 0.00043836 0.00000000
1.14385480 0.40348249 -0.00245896 0.00000000
1.85336417 0.30452907 0.00456083 0.00000000
0.01718566 0.35714116 0.00003316 0.00000000
3.50307356 1.49740627 0.00240682 0.00000000
2.59937130 0.79754629 0.00076303 0.00000000
2.29734788 1.48863102 -0.00137431 0.00000000
1.56884081 1.52776685 -0.00802843 0.00000000
1.02192985 1.08019595 -0.00296831 0.00000000
3.58684522 0.13500888 0.00116795 0.00000000
2.73765013 0.73800481 -0.00217070 0.00000000
3.16643437 0.42074323 -0.00046848 0.00000000
3.53965599 0.12023293 0.00698005 0.00000000
3.45462475 0.39275050 -0.00251316 0.00000000
0.05829098 1.42502102 -0.00088876 0.00000000
2.46046451 0.63024106 -0.00052508 0.00000000
3.30439579 0.95449429 0.00058696 0.00000000
4.04568488 0.91934838 0.00531759 0.00000000
2.72118437 0.28258112 -0.00262655 0.00000000
2.86004212 0.24397947 -0.00233182 0.00000000
3.93667740 0.72830669 -0.00071164 0.00000000
2.06815088 0.97621215 0.00297790 0.00000000
1.40488508 0.48502395 -0.00210597 0.00000000
2.43213061 0.52358238 0.00489613 0.00000000
1.55187581 0.58645559 0.00124834 0.00000000
3.58791423 1.29304678 0.00050580 0.00000000
0.76176635 1.42220236 -0.00129185 0.00000000
2.17348212 0.73657487 0.00186779 0.00000000
0.40036765 0.38164205 0.00194510 0.00000000
3.54077478 0.23371840 -0.00119401 0.00000000
2.48905750 0.03712307 0.00042562 0.00000000
2.73723607 0.81698797 -0.00033411 0.00000000
0.96888803 0.41442182 -0.00033388 0.00000000
1.51559968 0.01249774 -0.00042418 0.00000000
1.91865571 0.35463259 -0.00146465 0.00000000
3.40155433 0.02497488 0.00055140 0.00000000
3.10035399 0.78909321 0.00163810 0.00000000
3.74658798 0.26935922 0.00311192 0.00000000
0.80165174 0.09804666 -0.00626856 0.00000000
3.68860578 1.12550510 -0.00054025 0.00000000
2.05781025 0.81551175 -0.00164897 0.00000000
0.96254922 0.92472450 -0.00050755 0.00000000
3.95664081 0.36720561 -0.00042532 0.00000000
2.46093076 0.48329462 0.00017414 0.00000000
3.74366042 1.22440836 0.00073279 0.00000000
0.80285999 0.69166326 0.00188504 0.00000000
1.56243504 0.63947440 -0.00108750 0.00000000
3.15132564 0.15162674 0.00167757 0.00000000
3.70914026 1.05160313 -0.00209861 0.00000000
1.40753151 0.55486812 -0.00031377 0.00000000
1.87892359 1.02935870 -0.00336740 0.00000000
3.56077552 0.07657722 -0.00083162 0.00000000
3.72097092 1.17403191 0.00227827 0.00000000
4.08044663 0.35237986 -0.00300781 0.00000000
0.66962301 0.39129487 0.00338578 0.00000000
1.35854472 0.82667975 -0.00236139 0.00000000
1.70192588 1.20617297 0.00216968 0.00000000
4.17281081 0.73573934 -0.00258444 0.00000000
0.46035012 0.18799409 -0.00196815 0.00000000
3.38867936 0.46458848 0.00029244 0.00000000
0.96490438 0.75605134 0.00131496 0.00000000
4.21288912 1.04272928 0.00201072 0.00000000
3.43366904 0.61334072 0.00055016 0.00000000
2.47126176 0.08513768 -0.00028148 0.00000000
1.48581132 0.13371253 -0.00105837 0.00000000
0.93780953 1.39177965 -0.00111947 0.00000000
1.70606821 1.41782751 -0.00328085 0.00000000
3.88034727 1.27707232 0.00034983 0.00000000
1.68337383 0.25593848 -0.00015682 0.00000000
0.82452099 1.09784237 -0.00129514 0.00000000
3.14841790 0.18117394 -0.00019138 0.00000000
0.46909284 0.10592728 0.00194912 0.00000000
1.05962799 0.43843621 0.00322243 0.00000000
1.37874881 0.91129205 -0.00086566 0.00000000
1.81558941 0.67457167 0.00446357 0.00000000
3.27915377 0.69623276 0.00001517 0.00000000
3.52258635 1.16908771 -0.00009031 0.00000000
3.05835692 0.04451027 0.00090660 0.00000000
0.62547309 0.69565997 0.00131792 0.00000000
2.09998045 0.81074671 -0.00002274 0.00000000
3.87261539 1.42928878 0.00371030 0.00000000
3.12840580 1.21521581 0.00024816 0.00000000
1.35424544 0.21324659 0.00152095 0.00000000
0.82851328 1.34466403 0.00069872 0.00000000
0.97800421 0.54035005 -0.00079666 0.00000000
1.53894165 0.89613206 0.00110424 0.00000000
3.01597459 0.88524132 0.00202169 0.00000000
1.85121106 0.67739496 0.00052828 0.00000000
0.73314178 1.13542520 -0.00107943 0.00000000
1.14743094 0.67311044 0.00076043 0.00000000
3.70066484 0.62199452 -0.00110027 0.00000000
1.86676103 0.47740355 -0.00010413 0.00000000
0.64875788 0.41088943 -0.00302078 0.00000000
1.25765031 0.26520952 0.00036442 0.00000000
4.13135395 0.37749530 -0.00121438 0.00000000
0.67421855 0.83252671 0.00092115 0.00000000
0.07547801 0.19570834 0.00182963 0.00000000
3.38355916 1.17518798 -0.00432612 0.00000000
1.92406822 0.10732068 0.00045857 0.00000000
0.60742803 0.20420947 0.00099167 0.00000000
1.11097007 0.72993415 0.00308877 0.00000000
0.97156474 1.49528317 -0.00105301 0.00000000
3.15109337 0.77303779 -0.00160629 0.00000000
2.89335877 0.71319433 -0.00169662 0.00000000
2.77598537 0.92568733 -0.00096709 0.00000000
4.22423071 1.49084153 0.00206964 0.00000000
2.01622211 0.11072024 -0.00013946 0.00000000
0.98309711 0.61324802 0.00204074 0.00000000
1.95085893 0.90095903 -0.00008781 0.00000000
2.40687479 0.30105336 0.00122182 0.00000000
0.51047566 0.56846163 -0.00139435 0.00000000
3.66798117 0.92235374 0.00383644 0.00000000
3.99019546 0.36651445 0.00520146 0.00000000
2.69564568 1.15231751 0.00012941 0.00000000
2.69841219 0.73881854 -0.00091025 0.00000000
3.59466333 0.31199180 0.00505097 0.00000000
0.01896498 0.56403131 0.00220766 0.00000000
1.29139205 1.46201632 0.00143942 0.00000000
1.50098352 0.84414865 -0.00209201 0.00000000
2.84237929 0.79663562 -0.00091352 0.00000000
1.21388352 0.93945743 0.00156953 0.00000000
2.64357940 0.56297597 -0.00235850 0.00000000
4.04157562 1.11072722 -0.00077798 0.00000000
0.73108431 0.48689854 -0.00214631 0.00000000
2.77315862 1.38020350 -0.00034067 0.00000000
1.12662497 1.07331279 -0.00423917 0.00000000
1.43849093 0.55224803 -0.00382799 0.00000000
3.31106241 0.95129211 0.00007533 0.00000000
4.19781071 0.37617500 0.00066714 0.00000000
2.98899047 0.28927805 -0.00211850 0.00000000
3.05945801 1.36415969 -0.00279574 0.00000000
0.88896603 0.79839190 -0.00184385 0.00000000
0.27527212 0.72794709 0.00213104 0.00000000
3.46653149 1.43564682 -0.00338370 0.00000000
2.07412244 0.15635373 -0.00386919 0.00000000
1.80273263 1.07454324 -0.00116654 0.00000000
3.56005689 0.19269803 0.00154358 0.00000000
1.72966417 1.40695231 0.00305380 0.00000000
0.12860343 1.49704047 0.00213298 0.00000000
3.67615429 0.68968606 -0.00504247 0.00000000
3.54029057 0.62327800 -0.00170643 0.00000000
3.14180071 1.31621985 -0.00592748 0.00000000
1.20817689 0.68201286 0.00306220 0.00000000
2.36791230 1.19604253 0.00118229 0.00000000
0.74794116 1.35895663 -0.00301150 0.00000000
2.18540006 0.90629742 -0.00280628 0.00000000
3.64777140 1.14200021 -0.00249055 0.00000000
4.08218964 1.48242084 -0.00076171 0.00000000
2.40792243 1.04975579 0.00010654 0.00000000
2.55377195 0.15060695 -0.00198315 0.00000000
1.73608736 0.49165808 -0.00132657 0.00000000
2.29816869 0.42332766 0.00235498 0.00000000
0.37613447 0.34742528 0.00150544 0.00000000
3.96417847 0.16491721 -0.00270104 0.00000000
2.57604474 1.21222573 0.00140348 0.00000000
0.52030570 0.29139790 0.00116965 0.00000000
3.49053903 1.47467400 0.00088332 0.00000000
2.15815712 0.66755699 0.00032522 0.00000000
0.60734591 0.45216190 0.00062183 0.00000000
1.61417359 1.11302223 0.00030903 0.00000000
3.74098994 1.15980672 0.00239554 0.00000000
1.24789766 0.57094681 -0.00164794 0.00000000
1.18579174 0.78376515 -0.00037138 0.00000000
1.90648068 0.46748671 0.00178660 0.00000000
1.84832369 0.18372078 0.00077316 0.00000000
3.66877481 1.30901051 0.00184893 0.00000000
0.21365579 0.56388819 -0.00113997 0.00000000
1.83257908 0.17383903 -0.00528945 0.00000000
2.48274154 0.69625293 0.00146478 0.00000000
3.53382089 0.32850968 0.00279558 0.00000000
3.29947027 1.03124440 -0.00333762 0.00000000
2.76728342 1.34697577 -0.00110336 0.00000000
4.11587037 0.06016517 -0.00244581 0.00000000
3.30075828 0.22949497 0.00004467 0.00000000
3.02779998 0.60855058 -0.00191406 0.00000000
2.21241763 0.99758930 -0.00019807 0.00000000
3.32531419 1.37100574 0.00176357 0.00000000
0.14458318 0.25762513 0.00145774 0.00000000
1.51779216 0.98889663 -0.00186925 0.00000000
4.18979799 1.44576472 -0.00144850 0.00000000
3.72657789 0.14257352 0.00156343 0.00000000
4.16691693 0.50997228 -0.00100471 0.00000000
2.49957191 0.63643479 0.00282628 0.00000000
2.44129187 0.91152471 -0.00133922 0.00000000
2.75778295 0.02205424 -0.00268911 0.00000000
1.29188076 0.47608680 -0.00184745 0.00000000
3.41326320 1.45333257 0.00156138 0.00000000
1.09451022 1.28111020 -0.00388800 0.00000000
4.10739514 1.42632233 0.00501907 0.00000000
0.78631853 0.94643039 0.00055932 0.00000000
0.14027729 1.15172566 0.00331863 0.00000000
0.98667634 0.39378584 -0.00347035 0.00000000
1.05686260 1.08079619 -0.00177947 0.00000000
4.05803411 1.28485716 0.00245987 0.00000000
2.71487538 1.20174013 -0.00292434 0.00000000
1.73281692 0.44898562 -0.00114650 0.00000000
0.03083267 1.39167709 0.00329249 0.00000000
2.96789045 0.82619027 0.00108115 0.00000000
3.96518992 0.41986688 0.00382656 0.00000000
4.00250923 1.12931529 -0.00135268 0.00000000
1.58082115 0.47405968 0.00177032 0.00000000
1.18711662 1.14049146 0.00375085 0.00000000
1.94457247 0.09897262 0.00373725 0.00000000
2.73787688 1.16730942 -0.00278063 0.00000000
1.90014266 0.96978971 0.00311414 0.00000000
4.11901420 1.44647800 0.00212341 0.00000000
1.95832367 1.44920981 -0.00262713 0.00000000
1.09596792 0.24309894 0.00041771 0.00000000
2.57676823 0.17180112 -0.00132463 0.00000000
2.47596759 0.32452109 0.00068339 0.00000000
2.88336504 0.47273356 0.00196527 0.00000000
1.81603364 0.59834925 0.00529501 0.00000000
2.27720323 1.01583743 0.00246358 0.00000000
1.59187792 1.51495701 -0.00190734 0.00000000
3.49430578 0.05239077 0.00365098 0.00000000
2.49824378 0.87092399 0.00074792 0.00000000
2.94975494 0.35268344 -0.00021061 0.00000000
3.22854684 1.33579484 -0.00229267 0.00000000
0.00352546 0.03453620 0.00098284 0.00000000
0.14107375 0.20419516 0.00647894 0.00000000
0.01169862 1.03572819 0.00055164 0.00000000
1.29935274 0.07079547 -0.00162860 0.00000000
3.23330928 1.18398048 0.00041291 0.00000000
2.26795777 1.44658015 0.00262096 0.00000000
3.87968381 0.56876485 0.00151830 0.00000000
0.10612399 1.02566793 0.00232371 0.00000000
1.52475495 1.30352301 0.00077406 0.00000000
3.14858200 0.12492379 -0.00134629 0.00000000
1.77326928 1.32637201 -0.00080528 0.00000000
2.02299005 0.60412332 0.00154444 0.00000000
2.32312285 0.10987228 -0.00670331 0.00000000
4.00123167 0.60389970 -0.00329931 0.00000000
0.57604767 0.51883158 0.00002813 0.00000000
2.42170987 0.38678470 -0.00032848 0.00000000
1.81484679 0.86879931 0.00039158 0.00000000
1.19759549 0.97236532 -0.00200577 0.00000000
4.16425444 0.45316656 -0.00023617 0.00000000
1.38277741 0.42185042 -0.00304939 0.00000000
1.99126790 0.73429693 0.00478259 0.00000000
1.57498329 1.49972418 0.00117395 0.00000000
1.17161114 0.18217653 0.00012807 0.00000000
3.26842955 0.60155912 -0.00028079 0.00000000
2.69294230 0.95914464 0.00045006 0.00000000
3.01761352 1.01968643 0.00224225 0.00000000
3.28535412 0.85882526 -0.00013428 0.00000000
0.66161582 0.51870105 -0.00065560 0.00000000
0.78139011 1.01858410 0.00046568 0.00000000
0.97661719 1.07465896 0.00038347 0.00000000
1.34121654 1.00124204 0.00450906 0.00000000
0.67445251 1.04282709 -0.00138593 0.00000000
0.21896130 1.13535065 -0.00287552 0.00000000
3.72997654 1.51801060 -0.00224005 0.00000000
1.63198400 1.00809417 0.00160504 0.00000000
0.21017489 0.01389182 0.00219797 0.00000000
0.15171726 0.87838349 -0.00041014 0.00000000
3.81660949 0.39555129 -0.00402604 0.00000000
3.68566919 0.83263887 0.00272153 0.00000000
3.36690627 0.68535856 -0.00344746 0.00000000
1.09601789 1.06379394 -0.00124442 0.00000000
1.27660802 1.44727430 0.00330236 0.00000000
2.02657696 0.97769499 0.00097511 0.00000000
0.99857774 0.97343711 -0.00140534 0.00000000
2.93712121 0.25542052 0.00151417 0.00000000
0.26870963 0.66780008 -0.00037126 0.00000000
0.71596790 0.38675498 -0.00250212 0.00000000
1.85392233 0.91843312 0.00096621 0.00000000
2.84091099 0.36368136 0.00041717 0.00000000
0.01581343 0.10966945 -0.00337166 0.00000000
0.77346292 0.28723085 0.00050208 0.00000000
1.47325185 0.91521988 -0.00032483 0.00000000
3.40254987 0.51784431 0.00242779 0.00000000
0.52813859 1.43631292 0.00175017 0.00000000
2.73449639 0.71332733 0.00174462 0.00000000
0.03349239 0.79108145 -0.00103684 0.00000000
0.55686393 1.03255345 -0.00418943 0.00000000
1.35934211 1.30598275 0.00667763 0.00000000
2.08459542 1.25467431 0.00158755 0.00000000
3.98160905 0.30753356 -0.00022914 0.00000000
0.21285162 0.29790507 0.00195434 0.00000000
2.37524323 1.24899254 0.00028550 0.00000000
2.36881344 0.97225302 -0.00424028 0.00000000
1.24605139 1.23761701 0.00173970 0.00000000
0.66278835 1.11027076 -0.00338818 0.00000000
0.52737306 0.63397311 0.00188162 0.00000000
0.53729925 1.52592641 0.00182823 0.00000000
0.90603536 0.00462463 0.00442035 0.00000000
0.21071907 0.16141181 0.00085798 0.00000000
2.02293397 0.20787104 0.00217919 0.00000000
0.16141872 1.09559997 -0.00193205 0.00000000
1.84298351 0.09660904 -0.00477802 0.00000000
3.17933334 0.22908769 -0.00489152 0.00000000
2.24975134 0.04004107 -0.00135494 0.00000000
1.81020158 0.60994118 -0.00318022 0.00000000
0.09381675 1.12174881 0.00034788 0.00000000
1.60889557 0.30123118 -0.00001777 0.00000000
2.67460961 0.48765536 0.00024271 0.00000000
3.07776182 1.38810877 0.00139804 0.00000000
0.17620865 1.16705023 -0.00419414 0.00000000
1.97803353 0.68848907 -0.00178158 0.00000000
2.59339983 0.18705023 -0.00113676 0.00000000
0.49027322 0.25857175 -0.00189597 0.00000000
0.49545255 1.18004591 -0.00264068 0.00000000
4.21143285 1.52724067 -0.00192202 0.00000000
3.44750032 0.38823652 0.00384413 0.00000000
2.12339382 1.47465535 0.00244994 0.00000000
1.46116874 1.49266921 0.00100920 0.00000000
1.67026023 0.46721627 0.00002590 0.00000000
0.21936721 0.07594891 0.00218796 0.00000000
2.04944649 0.77708764 0.00113109 0.00000000
3.83557285 0.61895827 -0.00077831 0.00000000
1.19333135 0.61696190 0.00389442 0.00000000
4.12042294 0.03961949 -0.00181747 0.00000000
4.14442811 0.39262552 0.00137751 0.00000000
0.98669653 1.46405990 -0.00055197 0.00000000
0.58052123 0.77955286 0.00249397 0.00000000
4.10381986 0.66437327 -0.00102198 0.00000000
1.48651690 0.20407764 -0.00050158 0.00000000
1.57641139 1.49055465 0.00284943 0.00000000
3.07264256 0.47795332 0.00153798 0.00000000
2.82696687 1.26141103 0.00213174 0.00000000
3.48199351 0.96262407 0.00149160 0.00000000
2.23266772 0.41574033 -0.00422562 0.00000000
3.29194220 0.01598395 -0.00319500 0.00000000
4.18433344 1.02429581 0.00130443 0.00000000
3.23973264 0.38041113 0.00044656 0.00000000
3.88747687 1.01558981 0.00040606 0.00000000
1.49618452 0.71347793 -0.00442873 0.00000000
1.13909440 0.25414395 -0.00146529 0.00000000
0.68364524 0.59993742 -0.00188315 0.00000000
2.80325626 0.52748799 -0.00052999 0.00000000
1.36844209 0.22589930 -0.00610130 0.00000000
2.30240394 0.66726643 -0.00136232 0.00000000
4.06640667 1.36174938 -0.00334389 0.00000000
3.79864965 0.44650848 0.00057101 0.00000000
3.36361606 0.81102779 0.00150193 0.00000000
3.64573809 0.36184671 -0.00050684 0.00000000
4.05849887 0.27403721 -0.00026459 0.00000000
2.90919722 1.44637737 0.00051640 0.00000000
2.60272860 1.48358656 0.00026562 0.00000000
0.34752166 0.95903572 0.00093377 0.00000000
2.30645206 1.32311248 -0.00356184 0.00000000
3.51740981 1.02325119 0.00399060 0.00000000
0.66990513 1.04691493 -0.00039818 0.00000000
3.12671509 0.32617844 0.00360420 0.00000000
3.86352049 1.39468542 0.00263992 0.00000000
3.40852449 1.39199608 0.00618312 0.00000000
0.38771973 0.70270529 0.00113315 0.00000000
1.13305718 0.41262459 0.00276426 0.00000000
0.52709676 0.68881517 -0.00159352 0.00000000
0.22607505 1.31734476 -0.00636092 0.00000000
0.54812347 0.77448954 0.00039158 0.00000000
0.38798667 1.15099110 -0.00131554 0.00000000
0.17861462 1.20523475 -0.00136947 0.00000000
1.30044436 0.55873032 -0.00494239 0.00000000
3.85777940 0.40532102 0.00304040 0.00000000
2.30095116 0.33275614 0.00303598 0.00000000
0.11350889 0.97871522 -0.00040203 0.00000000
3.14909906 0.11292873 -0.00389009 0.00000000
2.75875430 0.35389103 -0.00212345 0.00000000
0.32837408 1.23960712 -0.00070226 0.00000000
1.16223901 0.63646298 -0.00192444 0.00000000
1.10790534 1.36599643 0.00389634 0.00000000
0.86902732 1.37139391 0.00074618 0.00000000
2.83351991 1.22721626 0.00537029 0.00000000
1.38917503 0.84328880 -0.00454049 0.00000000
4.09276631 0.46452878 0.00044176 0.00000000
2.28005037 0.65541413 0.00204383 0.00000000
0.62678739 0.30690170 0.00114253 0.00000000
3.57776542 0.75719035 -0.00213022 0.00000000
1.14934996 0.00065990 0.00138669 0.00000000
2.54919467 1.09066560 -0.00088704 0.00000000
3.88440828 0.89395064 -0.00277558 0.00000000
2.85301709 0.87579023 0.00487698 0.00000000
1.30159320 1.25433814 0.00160061 0.00000000
1.12325643 0.46178662 -0.00280999 0.00000000
2.26355832 1.16705574 -0.00137739 0.00000000
3.92541656 1.35000796 0.00173039 0.00000000
2.37118171 0.76007127 -0.00454954 0.00000000
3.52863226 0.47436868 0.00148537 0.00000000
3.17775427 1.15113691 -0.00065884 0.00000000
2.17512442 1.11397248 -0.00373928 0.00000000
1.77851524 1.34416558 -0.00045953 0.00000000
3.21126151 1.39766790 0.00318787 0.00000000
