3.26525830 0.46655570 -0.00243649 0.00000000
3.60049680 1.34392505 -0.00067181 0.00000000
2.79812979 0.45365821 0.00259487 0.00000000
1.86495162 1.65918699 0.00216770 0.00000000
4.11761638 1.80696609 0.00294931 0.00000000
3.90750299 1.74933707 -0.00357165 0.00000000
4.33395913 0.38220696 -0.00109980 0.00000000
0.44451321 0.11127420 0.00033812 0.00000000
0.85398903 0.70988975 -0.00118067 0.00000000
0.15604626 1.54418484 -0.00407108 0.00000000
2.29175825 0.42239921 0.00083934 0.00000000
2.12380144 1.91330030 -0.00110760 0.00000000
3.28890836 0.29505422 -0.00281179 0.00000000
1.34892682 1.16553812 -0.00151422 0.00000000
0.59383680 0.31231887 -0.00020277 0.00000000
0.73406987 0.92383672 0.00371185 0.00000000
3.20119219 1.77619128 0.00527157 0.00000000
0.10459576 1.27373956 -0.00108552 0.00000000
2.77849145 0.06098092 -0.00574222 0.00000000
4.16415344 0.02024474 0.00318518 0.00000000
3.15255596 0.10779938 0.00337920 0.00000000
1.40955344 1.84690490 0.00361019 0.00000000
0.64569974 0.53896974 -0.00141060 0.00000000
0.45170091 1.11400156 0.00580880 0.00000000
0.12729718 0.61046507 0.00012554 0.00000000
1.52852169 1.57493018 -0.00327975 0.00000000
1.63466633 1.37071258 0.00253715 0.00000000
0.53703511 0.78396397 0.00008440 0.00000000
1.62287636 0.16404405 -0.00323895 0.00000000
0.12634645 0.89062797 -0.00093948 0.00000000
0.89186301 0.45960126 0.00009332 0.00000000
1.97385155 1.57806782 0.00148288 0.00000000
0.49109150 0.55363238 -0.00283767 0.00000000
0.54737574 1.39545077 -0.00300639 0.00000000
0.30517055 1.11516138 0.00121019 0.00000000
3.71259788 0.40147565 0.00483266 0.00000000
2.54380997 1.41649953 -0.00042576 0.00000000
1.88271881 0.76510811 0.00367776 0.00000000
2.86046187 0.81256551 -0.00069804 0.00000000
4.25628094 1.50633451 0.00146249 0.00000000
2.11871004 0.51827610 -0.00304217 0.00000000
0.28477747 0.72635852 -0.00117580 0.00000000
0.88187820 0.82420699 -0.00129594 0.00000000
0.59677061 0.60339682 0.00037184 0.00000000
0.21989466 0.42853583 -0.00211548 0.00000000
4.04620799 1.06491995 0.00099775 0.00000000
3.67004947 1.67518563 -0.00133325 0.00000000
1.16417235 1.14330565 -0.00227212 0.00000000
0.22239435 1.50834444 0.00218516 0.00000000
0.35519501 0.40325926 0.00343819 0.00000000
1.24047308 1.86889471 -0.00435241 0.00000000
3.54503477 1.63863606 0.00374254 0.00000000
2.28194958 0.10800184 -0.00122026 0.00000000
0.66533344 0.11407685 0.00187010 0.00000000
0.84737462 0.87580457 0.00136828 0.00000000
4.32670960 0.21888033 0.00137061 0.00000000
3.46643491 1.25438153 0.00022514 0.00000000
3.43779401 0.29815238 -0.00022389 0.00000000
1.70070369 1.79624020 0.00057330 0.00000000
0.89023773 0.86884805 -0.00102140 0.00000000
2.42055908 1.84677728 0.00350235 0.00000000
2.41926641 0.44619555 -0.00009771 0.00000000
1.83606921 0.87433542 0.00469650 0.00000000
3.66703683 1.73887310 -0.00075716 0.00000000
1.89634248 0.85369911 -0.00146807 0.00000000
3.44452833 0.71794120 0.00168762 0.00000000
2.69726498 1.76363100 0.00143089 0.00000000
0.71595444 0.73703253 0.00243682 0.00000000
4.15536146 1.47206064 0.00073922 0.00000000
0.80108414 1.48316342 -0.00243316 0.00000000
1.96645248 0.12686350 -0.00056745 0.00000000
0.17149946 0.71841136 0.00261088 0.00000000
3.12016442 1.30490809 -0.00475401 0.00000000
2.11005359 1.61489264 -0.00121170 0.00000000
2.42653918 0.22594364 -0.00008347 0.00000000
1.93032290 0.27277711 0.00252576 0.00000000
1.83615242 0.33360769 -0.00423608 0.00000000
3.41451628 1.83396518 0.00177868 0.00000000
4.33310273 1.50285267 0.00188155 0.00000000
4.07222376 1.93067559 0.00119795 0.00000000
1.50925579 0.83274517 0.00159988 0.00000000
0.51607608 1.41374439 0.00336726 0.00000000
3.62532498 1.02800784 0.00170551 0.00000000
1.78717665 1.33158655 -0.00008477 0.00000000
1.54653367 0.98081429 0.00075679 0.00000000
1.22341743 1.47021433 -0.00274844 0.00000000
3.41798011 1.39791176 -0.00263757 0.00000000
0.61203725 1.46500693 -0.00276797 0.00000000
2.05997092 1.46315824 -0.00271467 0.00000000
0.88703898 1.64893500 0.00066809 0.00000000
3.47447720 0.02737434 0.00093208 0.00000000
0.08760313 0.37762798 -0.00196642 0.00000000
0.15054422 1.52448853 -0.00167501 0.00000000
1.56900941 0.94963986 -0.00033922 0.00000000
4.32024946 1.03683586 0.00248685 0.00000000
1.75894635 0.95767506 -0.00213682 0.00000000
3.02089404 0.78472333 0.00235877 0.00000000
1.51918885 0.32921893 0.00040151 0.00000000
3.19308568 1.16566431 -0.00215655 0.00000000
1.95650178 0.99330478 0.00121350 0.00000000
3.24718578 1.13447951 0.00093871 0.00000000
2.73644804 1.04099027 0.00440362 0.00000000
0.58865502 1.21902592 -0.00222924 0.00000000
0.36583210 0.54858085 0.00669246 0.00000000
2.26560152 0.10066721 -0.00147040 0.00000000
1.93100036 1.24334952 -0.00149836 0.00000000
3.72392613 1.82980030 -0.00155972 0.00000000
1.25878945 0.99272645 0.00079584 0.00000000
2.34872756 1.61554294 0.00234965 0.00000000
2.53264222 1.68402028 0.00272412 0.00000000
2.76094315 0.48096061 0.00082938 0.00000000
1.35484240 1.20413551 0.00098873 0.00000000
3.56706128 1.37438355 0.00147612 0.00000000
3.11155030 0.59503046 -0.00328682 0.00000000
3.45137450 0.44088751 -0.00155292 0.00000000
2.95260664 1.92695682 0.00252172 0.00000000
4.23081958 0.91210755 0.00208955 0.00000000
4.06086966 0.76466945 -0.00017861 0.00000000
1.26710049 0.39139059 -0.00105845 0.00000000
2.66466465 0.38340579 0.00031623 0.00000000
0.46088939 1.68072784 0.00332654 0.00000000
2.60517350 0.22100852 0.00198663 0.00000000
3.77804082 0.66334270 -0.00176762 0.00000000
1.64132027 1.45214913 0.00236747 0.00000000
0.77012926 0.89714445 0.00207915 0.00000000
1.97780169 1.20534203 0.00054773 0.00000000
1.33596338 0.12359876 0.00232938 0.00000000
1.75145366 1.79575497 0.00036634 0.00000000
0.09090317 0.73322796 0.00013779 0.00000000
0.03351610 0.60657010 -0.00418338 0.00000000
2.16520482 0.97505521 -0.00102981 0.00000000
0.30906965 0.43900651 0.00563321 0.00000000
3.09468304 1.81672686 0.00319428 0.00000000
1.79970967 1.24554821 -0.00123538 0.00000000
3.01787316 1.38250836 -0.00336520 0.00000000
3.39114332 1.02055291 0.00180757 0.00000000
4.23789135 1.74670720 0.00341226 0.00000000
1.11741786 0.12042814 0.00050499 0.00000000
2.63750271 0.05838652 -0.00318100 0.00000000
2.41934694 0.01689855 0.00185725 0.00000000
1.53650455 1.44811779 -0.00199456 0.00000000
0.24368127 0.21088762 0.00090453 0.00000000
0.83686847 1.70525792 0.00014967 0.00000000
3.68729435 1.87771966 -0.00234331 0.00000000
2.65600228 0.57257374 -0.00494870 0.00000000
1.34600764 0.18143500 0.00478474 0.00000000
0.66209526 1.54736481 0.00085021 0.00000000
1.56490100 1.04134374 0.00177930 0.00000000
1.21025240 1.68069657 0.00099413 0.00000000
2.33831331 0.69088448 0.00489867 0.00000000
1.94126196 0.98667950 0.00288490 0.00000000
2.15595621 1.26623177 0.00022183 0.00000000
2.91832451 0.71202000 0.00015391 0.00000000
2.98693308 0.58164841 0.00109129 0.00000000
0.95283026 0.99121400 -0.00167236 0.00000000
4.42663273 1.53590257 0.00003824 0.00000000
3.22611010 0.42598855 -0.00281324 0.00000000
0.80330488 1.70928261 -0.00020434 0.00000000
4.12670524 0.43446082 -0.00163629 0.00000000
2.71466863 0.46431968 0.00268525 0.00000000
0.63724298 0.95591266 0.00094948 0.00000000
1.05831695 1.15345442 -0.00120844 0.00000000
0.62247284 0.44907257 0.00045634 0.00000000
2.15148358 1.18559100 -0.00030376 0.00000000
0.09728963 0.76305017 -0.00043100 0.00000000
2.35011094 0.13814556 0.00588757 0.00000000
3.40453825 1.50578788 -0.00125524 0.00000000
1.14880385 0.35860056 -0.00317165 0.00000000
2.44500319 1.57698683 0.00194994 0.00000000
0.17395412 0.11645534 0.00547741 0.00000000
1.85335904 0.09112830 -0.00254058 0.00000000
1.40838202 1.89587621 0.00478475 0.00000000
1.64925366 0.86208859 -0.00184028 0.00000000
4.21901184 0.61883727 -0.00086962 0.00000000
2.77344864 1.82198223 -0.00141577 0.00000000
0.10322501 1.25927028 -0.00232450 0.00000000
3.64192211 1.08031414 0.00149245 0.00000000
0.66546140 1.85604698 0.00199453 0.00000000
1.83169120 1.56914106 0.00280621 0.00000000
3.13832738 1.70945020 0.00065590 0.00000000
0.02807480 0.19635758 -0.00223304 0.00000000
4.41046161 1.11360739 -0.00355864 0.00000000
0.89285933 1.46034201 -0.00341507 0.00000000
2.73818186 0.95064246 -0.00188378 0.00000000
1.89691383 1.84556615 -0.00042919 0.00000000
1.04547398 0.08193622 0.00463130 0.00000000
2.71384061 1.16134087 0.00000705 0.00000000
1.37250608 1.30838713 -0.00189524 0.00000000
0.16669912 0.02704780 -0.00129632 0.00000000
0.62627808 0.40132452 -0.00142350 0.00000000
1.64541298 0.69338220 -0.00225494 0.00000000
2.98205848 1.64624112 -0.00160510 0.00000000
1.26231726 1.46316733 -0.00266991 0.00000000
2.74058992 0.79428789 0.00137949 0.00000000
1.37047307 0.88994632 0.00147983 0.00000000
2.23110263 0.68838575 -0.00176808 0.00000000
0.76120662 1.45617845 -0.00125562 0.00000000
3.63599363 1.74396520 -0.00295394 0.00000000
0.48383670 0.53845097 -0.00065186 0.00000000
1.73080416 0.59214203 0.00214591 0.00000000
0.11798407 1.51197421 -0.00364145 0.00000000
3.52699190 0.18605295 -0.00036674 0.00000000
0.41730135 1.21702845 -0.00247220 0.00000000
0.93251192 0.25227671 0.00172859 0.00000000
0.41142201 0.03831859 -0.00233454 0.00000000
3.40171334 0.89959618 -0.00056328 0.00000000
0.82371441 0.33417622 0.00074672 0.00000000
2.49256209 1.71661819 0.00182130 0.00000000
1.05054662 0.78066551 -0.00581427 0.00000000
4.37566090 1.22875644 0.00309517 0.00000000
2.73222045 1.32081047 -0.00293999 0.00000000
4.19766387 0.06765821 0.00300838 0.00000000
0.36381187 0.17680043 0.00127483 0.00000000
3.10609002 0.89676842 0.00184486 0.00000000
2.79327933 1.67684690 0.00342419 0.00000000
0.85660953 1.12560410 -0.00219764 0.00000000
2.41044444 1.70263973 0.00041907 0.00000000
0.80881911 1.77738966 0.00168596 0.00000000
2.90949090 1.44440135 0.00133695 0.00000000
2.09848053 0.78976993 -0.00067023 0.00000000
0.89394704 0.99580544 -0.00101269 0.00000000
1.34292619 0.17446018 0.00217087 0.00000000
3.42708389 1.65484291 -0.00121215 0.00000000
3.63813026 1.87070995 0.00235051 0.00000000
1.37139997 0.65444010 -0.00072724 0.00000000
4.29247578 1.10961741 0.00010811 0.00000000
0.36342623 0.37293736 0.00270896 0.00000000
2.60413679 0.14532332 -0.00078588 0.00000000
1.62339916 1.35696917 -0.00067192 0.00000000
3.50739102 0.67324496 -0.00026236 0.00000000
1.92040769 0.43782641 0.00019109 0.00000000
1.17975685 1.41850322 0.00142271 0.00000000
0.34888074 0.19108498 -0.00081681 0.00000000
2.37759977 1.72965974 0.00053525 0.00000000
2.68687729 0.16900068 -0.00224452 0.00000000
2.93119316 1.30928883 0.00016438 0.00000000
4.23621609 0.90033657 0.00035265 0.00000000
0.50678812 0.84082642 0.00111894 0.00000000
1.54787792 0.33104980 0.00188896 0.00000000
2.07163351 0.93633586 -0.00098824 0.00000000
3.66222041 0.53870979 0.00356067 0.00000000
2.66302764 1.91850179 0.00003722 0.00000000
3.35248776 0.62514113 0.00137489 0.00000000
4.38195775 0.14664584 0.00258854 0.00000000
4.34054904 1.04908104 0.00213770 0.00000000
2.51916361 1.82365983 0.00282358 0.00000000
2.69199814 0.85561038 0.00062938 0.00000000
1.49411511 1.53994252 -0.00477778 0.00000000
0.31265985 1.07716109 0.00177344 0.00000000
2.60580040 0.58812901 0.00235895 0.00000000
3.53819011 1.36239680 -0.00408702 0.00000000
3.59411098 0.25384029 0.00178300 0.00000000
1.39300191 1.29183778 0.00042365 0.00000000
4.21226805 0.40304039 -0.00040199 0.00000000
2.19113376 1.68047228 -0.00071670 0.00000000
3.11789322 0.31700540 0.00039998 0.00000000
3.61311096 1.26272666 0.00041471 0.00000000
2.80163698 1.89010221 0.00097222 0.00000000
3.38192437 0.72675099 0.00000780 0.00000000
3.90296169 1.40135699 0.00302107 0.00000000
3.44877198 1.40980514 -0.00155194 0.00000000
2.03581937 0.33382073 -0.00018118 0.00000000
4.33245062 0.89769310 0.00036842 0.00000000
0.50149434 0.09466170 0.00192424 0.00000000
2.79081096 0.36098717 -0.00368460 0.00000000
0.89841205 0.63215803 -0.00127294 0.00000000
0.06284121 1.72250285 -0.00007444 0.00000000
0.90456317 1.83097650 -0.00027052 0.00000000
1.55717779 1.43260174 0.00151935 0.00000000
3.32879150 1.83639994 0.00119092 0.00000000
2.17634944 1.53244418 -0.00136349 0.00000000
0.13253570 1.63279058 -0.00084214 0.00000000
3.69062479 0.27934966 -0.00128860 0.00000000
3.85084941 1.56714651 -0.00081175 0.00000000
2.30907672 1.80482193 0.00108102 0.00000000
0.38914422 0.36362291 0.00344512 0.00000000
4.16827045 1.33398164 -0.00078965 0.00000000
3.09079098 1.03220756 -0.00073141 0.00000000
3.06242650 1.06207952 0.00037866 0.00000000
4.22340850 1.46518098 -0.00579801 0.00000000
1.59153218 0.83691151 0.00170398 0.00000000
1.95795871 1.25670649 -0.00177694 0.00000000
1.64889319 0.85436332 0.00051420 0.00000000
1.24175055 1.60667230 0.00155343 0.00000000
0.04378059 0.55823887 -0.00037837 0.00000000
0.37975061 0.01244784 0.00026532 0.00000000
0.07186453 0.75688972 0.00046583 0.00000000
2.60325395 0.18679722 0.00196247 0.00000000
4.23367965 1.28149963 -0.00025412 0.00000000
3.22565454 0.41572258 0.00475059 0.00000000
0.08351622 1.06550502 -0.00461379 0.00000000
0.40644940 0.36968937 0.00145522 0.00000000
0.31742412 1.39830004 -0.00114218 0.00000000
0.55927642 0.89584507 0.00147225 0.00000000
4.14239115 1.70225555 -0.00219400 0.00000000
3.07300032 0.21455319 0.00658395 0.00000000
1.45908106 0.03370365 0.00170828 0.00000000
1.92494129 0.74223401 -0.00138829 0.00000000
1.60635045 0.18388717 -0.00371167 0.00000000
0.35671223 1.80785971 0.00423885 0.00000000
3.09329312 0.08521028 -0.00216564 0.00000000
1.98551875 0.05242757 -0.00039072 0.00000000
0.03818458 0.63803926 -0.00053080 0.00000000
3.03613344 0.31864437 0.00171073 0.00000000
3.52776482 0.21513291 -0.00018803 0.00000000
4.13318784 1.13158445 0.00106907 0.00000000
0.30361403 1.06770372 0.00445891 0.00000000
1.69521743 0.95388049 -0.00151022 0.00000000
3.20162014 1.20515254 -0.00236107 0.00000000
1.63765273 0.71868774 0.00374222 0.00000000
0.49842853 0.20012114 0.00494075 0.00000000
2.52675967 0.46159079 0.00526154 0.00000000
0.44979745 1.28040078 -0.00179338 0.00000000
2.00075666 1.37093622 0.00131003 0.00000000
4.00335982 0.56826734 0.00010406 0.00000000
2.89765556 0.41758935 0.00074753 0.00000000
2.03490947 0.96588488 -0.00412878 0.00000000
1.57368109 0.31425575 -0.00085438 0.00000000
4.25927191 1.14001161 0.00142622 0.00000000
1.08462471 0.45397255 0.00278527 0.00000000
3.32037097 1.58607355 -0.00141391 0.00000000
2.76262473 1.14148085 -0.00019439 0.00000000
4.16034605 0.64957266 -0.00246327 0.00000000
0.48030387 1.04437143 0.00090877 0.00000000
0.98204461 0.06672247 0.00016058 0.00000000
0.68115695 0.88466770 0.00160537 0.00000000
3.41719506 0.81519072 -0.00010594 0.00000000
2.73965891 0.19459165 0.00264252 0.00000000
1.87848078 0.90602536 0.00172860 0.00000000
1.57689629 0.36807877 0.00226266 0.00000000
3.58101467 1.25802589 -0.00146727 0.00000000
2.20732882 1.93601611 -0.00003387 0.00000000
1.98195827 1.88339697 -0.00030968 0.00000000
3.77817234 1.54452063 -0.00340788 0.00000000
4.33395348 0.39066985 -0.00233367 0.00000000
2.98077275 1.76403000 0.00292522 0.00000000
4.34024294 1.31683482 -0.00153928 0.00000000
2.18132676 0.59770146 0.00096248 0.00000000
0.43773434 0.87137152 -0.00217804 0.00000000
3.08451274 1.69635565 0.00273687 0.00000000
4.21109216 1.90720530 0.00404744 0.00000000
3.24889958 0.90210208 -0.00135953 0.00000000
4.31139304 0.86635621 0.00053200 0.00000000
3.84050304 0.88903219 0.00306690 0.00000000
0.42857344 1.58800380 0.00870196 0.00000000
2.34599077 1.23312696 -0.00174185 0.00000000
3.62368123 0.47324932 0.00406989 0.00000000
1.55236542 0.62885476 -0.00156623 0.00000000
0.66612233 0.37534510 -0.00025396 0.00000000
3.32583379 1.71448995 -0.00204273 0.00000000
0.17699515 1.14958666 -0.00059292 0.00000000
0.82371478 1.85177619 -0.00016973 0.00000000
1.58905316 1.46877215 0.00175392 0.00000000
2.24232234 0.39537994 -0.00259252 0.00000000
2.39840141 1.17470958 0.00127959 0.00000000
1.69041878 1.66404811 0.00185270 0.00000000
3.93275868 0.61929006 0.00136642 0.00000000
2.84048722 1.03741389 0.00332101 0.00000000
2.34169962 0.95153120 0.00185997 0.00000000
0.75275618 0.72291431 0.00192737 0.00000000
3.74264668 1.44426204 0.00069233 0.00000000
2.11034865 1.27084436 -0.00125204 0.00000000
0.48139889 0.36762497 0.00285872 0.00000000
3.64051738 0.02277518 0.00180102 0.00000000
2.88156642 1.93609968 -0.00732431 0.00000000
4.11305601 1.71094532 0.00000056 0.00000000
4.16638718 1.53655656 0.00064276 0.00000000
3.91396632 1.67019018 -0.00096352 0.00000000
2.47415015 1.11914163 0.00103502 0.00000000
3.03298051 0.64588241 -0.00007588 0.00000000
1.01443082 0.68306964 -0.00145147 0.00000000
1.72502547 0.83374344 0.00203354 0.00000000
2.75976393 1.20070758 0.00467102 0.00000000
4.20989625 1.64011714 0.00000405 0.00000000
2.17413859 0.72860743 -0.00355558 0.00000000
0.78947106 1.52147876 -0.00078654 0.00000000
3.43041764 1.81926320 -0.00247338 0.00000000
0.07811607 1.57227084 -0.00122042 0.00000000
1.68473960 0.91113876 0.00193068 0.00000000
4.35525492 1.65985351 0.00450055 0.00000000
1.46405845 0.22308692 0.00075752 0.00000000
0.81767241 1.27207953 0.00448855 0.00000000
1.22941739 0.47565535 0.00246035 0.00000000
4.04837064 1.92271408 -0.00128814 0.00000000
3.05346712 0.54699173 0.00490063 0.00000000
2.62376656 0.35659924 0.00230829 0.00000000
1.00125964 0.93126545 -0.00047859 0.00000000
0.25797724 0.03070759 0.00059830 0.00000000
2.99598458 0.16593438 -0.00177670 0.00000000
0.68540733 0.52198501 -0.00099677 0.00000000
0.56437997 1.71220299 0.00110101 0.00000000
2.84271339 1.57689007 -0.00097880 0.00000000
1.01233959 1.87854867 -0.00285876 0.00000000
1.67936789 1.72557637 -0.00346393 0.00000000
4.42484187 0.03725743 0.00262039 0.00000000
2.16022100 1.28135982 0.00204676 0.00000000
4.18796798 0.55900391 -0.00433776 0.00000000
0.69040272 0.93521125 -0.00214171 0.00000000
3.07247662 1.08954494 0.00077929 0.00000000
2.88153550 1.17841732 -0.00502176 0.00000000
1.31008254 0.14041690 -0.00005809 0.00000000
0.34450482 0.69525955 0.00384794 0.00000000
2.88185698 0.91949487 0.00033219 0.00000000
1.13740650 1.91771790 0.00255463 0.00000000
2.28284839 0.05071905 0.00104390 0.00000000
1.95012219 1.29535053 0.00141982 0.00000000
2.04032326 1.69454809 -0.00310717 0.00000000
1.94543921 0.84788530 0.00188118 0.00000000
1.40866905 0.46626069 0.00042655 0.00000000
4.27734232 1.23700161 -0.00207876 0.00000000
0.09727859 1.85289439 0.00217120 0.00000000
3.02697167 0.85692458 -0.00377955 0.00000000
4.03900302 0.48756126 -0.00457726 0.00000000
0.52492494 1.06472154 -0.00208353 0.00000000
2.38483144 0.13455543 -0.00326059 0.00000000
0.00313272 0.90645770 0.00052572 0.00000000
2.03991317 1.93684236 -0.00113566 0.00000000
0.54657224 0.62785629 0.00115743 0.00000000
1.17958550 0.69982513 0.00156993 0.00000000
1.36193592 0.58190792 0.00187968 0.00000000
1.40235060 1.33500171 -0.00316826 0.00000000
1.40298950 1.02391104 0.00149543 0.00000000
0.96639983 0.53424371 0.00452935 0.00000000
2.67090435 1.81703380 0.00152417 0.00000000
1.93960919 0.32632787 0.00304437 0.00000000
3.95213453 0.96587201 -0.00407846 0.00000000
4.38952333 1.26727600 0.00010419 0.00000000
2.45405841 0.10829880 0.00282257 0.00000000
0.40613748 0.60356404 0.00061739 0.00000000
3.94040867 1.39754251 -0.00494519 0.00000000
4.40667696 1.05626610 0.00019543 0.00000000
3.40709354 0.07880654 0.00014943 0.00000000
3.36278191 1.54529524 -0.00275587 0.00000000
0.89447533 1.04147101 0.00027412 0.00000000
1.60885616 0.24035394 0.00077856 0.00000000
2.88888936 1.01132573 -0.00054428 0.00000000
0.82609541 1.74380870 -0.00317183 0.00000000
2.37906787 1.79159134 0.00259122 0.00000000
2.49248748 0.39626477 0.00208321 0.00000000
0.47478100 1.65815036 0.00160452 0.00000000
0.58358197 1.75242514 0.00240958 0.00000000
2.32085713 1.46735508 0.00072129 0.00000000
3.08730088 1.89430877 0.00231145 0.00000000
0.64202414 0.39828723 0.00121763 0.00000000
0.08273606 0.68284284 0.00102913 0.00000000
3.34107903 0.21035056 0.00068998 0.00000000
0.34285028 1.13717928 0.00400669 0.00000000
3.06242746 1.57492741 -0.00097774 0.00000000
3.67507280 1.35617620 0.00206734 0.00000000
3.39890492 1.45303054 -0.00002650 0.00000000
1.86030278 1.27332603 0.00135954 0.00000000
3.94423156 1.93614581 0.00317034 0.00000000
1.29784032 0.83786231 0.00081008 0.00000000
2.66413962 1.68651671 0.00490428 0.00000000
2.73353797 1.63872271 -0.00291959 0.00000000
3.70902458 1.14093686 -0.00095257 0.00000000
2.29328586 1.32584714 -0.00187949 0.00000000
4.21647267 0.07427357 0.00054870 0.00000000
2.63013762 1.38295526 0.00287612 0.00000000
2.48088510 0.67362971 0.00322843 0.00000000
1.68544819 0.54654471 0.00274423 0.00000000
1.38346631 1.19325065 -0.00346728 0.00000000
1.14653687 0.91469141 0.00306271 0.00000000
3.99366418 0.28060824 -0.00061524 0.00000000
0.41009682 1.20272117 -0.00005216 0.00000000
2.76260167 1.36473464 0.00138718 0.00000000
0.65235559 0.03006648 -0.00036046 0.00000000
0.63325169 0.19343582 -0.00469332 0.00000000
0.01425904 0.72420277 0.00155904 0.00000000
2.66868836 1.48272402 -0.00061551 0.00000000
4.34374705 0.09951447 -0.00379250 0.00000000
1.46389242 0.54694422 -0.00019501 0.00000000
0.27790009 0.21959707 -0.00172482 0.00000000
0.67851089 0.31745398 -0.00084680 0.00000000
2.22339367 0.04590388 0.00205866 0.00000000
2.04046466 0.73706006 0.00281611 0.00000000
4.32925238 0.02090508 0.00383373 0.00000000
0.53336484 0.87719125 0.00038154 0.00000000
3.21205627 1.79572660 0.00297767 0.00000000
1.68988719 1.52320806 -0.00391679 0.00000000
1.06613327 1.78099128 0.00006414 0.00000000
4.38369532 0.40602204 0.00192162 0.00000000
2.04602671 1.54417007 -0.00188677 0.00000000
1.25272511 0.33793020 -0.00074947 0.00000000
0.03698305 0.44472936 -0.00117303 0.00000000
0.44047460 0.79694170 0.00415339 0.00000000
0.81565350 0.34550112 -0.00461697 0.00000000
1.48868659 1.89524923 -0.00538205 0.00000000
0.74175444 1.18510584 0.00214296 0.00000000
2.66252821 0.63760187 -0.00104339 0.00000000
1.41919645 1.44810538 0.00117862 0.00000000
0.56497152 0.94614622 -0.00102082 0.00000000
2.44744088 0.00745371 0.00239362 0.00000000
1.32301024 1.20169785 -0.00000843 0.00000000
4.43320338 1.89080941 -0.00319410 0.00000000
1.46206076 0.90621460 -0.00226225 0.00000000
3.02465002 1.32711984 -0.00806192 0.00000000
0.47590068 1.65935824 -0.00153377 0.00000000
1.71351522 0.28591677 -0.00325788 0.00000000
3.40847982 0.65509044 -0.00271247 0.00000000
2.00428496 1.57348442 -0.00034021 0.00000000
3.10877027 0.03048114 -0.00371640 0.00000000
1.30830473 0.64351423 -0.00211653 0.00000000
2.52072124 0.87771598 -0.00105998 0.00000000
1.43085331 0.54305423 0.00155562 0.00000000
1.89852194 0.92741480 -0.00144592 0.00000000
1.55489097 1.00325992 0.00269309 0.00000000
0.05654971 0.53545880 -0.00055566 0.00000000
3.77501140 1.89930524 -0.00733184 0.00000000
2.19853897 1.72300301 -0.00052163 0.00000000
3.44587903 0.39404139 0.00015233 0.00000000
1.09996318 1.53528636 -0.00246168 0.00000000
1.16592309 0.94226875 -0.00094108 0.00000000
1.99684995 0.42365594 -0.00190373 0.00000000
1.27539274 1.47809367 -0.00083547 0.00000000
4.28311316 0.46357227 0.00142830 0.00000000
1.57867774 1.44725919 0.00264249 0.00000000
1.47027518 1.06547189 -0.00437209 0.00000000
2.14011443 0.65235240 0.00163792 0.00000000
3.21906521 0.74426500 -0.00342379 0.00000000
0.75088861 0.74291696 0.00098956 0.00000000
0.21709030 1.16801348 0.00035450 0.00000000
0.03134540 0.73259020 0.00062946 0.00000000
0.11847616 0.34792654 0.00077938 0.00000000
3.87033580 1.33376863 0.00082287 0.00000000
0.02657232 1.25661402 0.00062409 0.00000000
3.09817025 1.82701428 -0.00116599 0.00000000
1.05310398 0.19064427 -0.00446932 0.00000000
1.60975665 1.67525688 -0.00032158 0.00000000
2.06991338 0.45892994 -0.00105368 0.00000000
3.88481571 0.70915653 -0.00185034 0.00000000
0.74612758 1.57415948 0.00310517 0.00000000
2.28005902 0.91147012 0.00287890 0.00000000
3.78989082 1.59167386 0.00132608 0.00000000
4.43155821 1.92103377 0.00163760 0.00000000
1.64351460 1.12845086 0.00068752 0.00000000
2.07639518 1.24116806 0.00074436 0.00000000
4.06323886 0.26250656 0.00186797 0.00000000
3.17633464 1.43472144 -0.00777591 0.00000000
1.09841332 0.05446224 0.00096926 0.00000000
2.45207970 1.04353247 0.00048653 0.00000000
3.04573650 1.30564971 -0.00008899 0.00000000
1.61789989 1.44483950 0.00101238 0.00000000
4.42334312 1.74223438 -0.00009319 0.00000000
0.45161519 1.18141122 0.00060701 0.00000000
1.39691560 0.98303616 0.00264834 0.00000000
3.26618385 1.00984981 -0.00076583 0.00000000
0.02195793 0.59868570 -0.00218671 0.00000000
4.42719855 0.53823311 -0.00165775 0.00000000
0.57008398 0.73570321 0.00069711 0.00000000
0.65686200 0.62704980 -0.00242778 0.00000000
4.34867631 1.80065160 -0.00136332 0.00000000
1.52393973 1.66464946 0.00120402 0.00000000
3.35263637 1.70555183 0.00237978 0.00000000
3.36306783 0.74378706 0.00295140 0.00000000
0.17379188 1.11855672 0.00450751 0.00000000
3.43346267 0.27137636 -0.00256944 0.00000000
1.79685548 1.47023545 -0.00258949 0.00000000
2.84354266 0.12720642 0.00464280 0.00000000
4.21263175 0.25539081 0.00044696 0.00000000
2.58449152 1.26574246 -0.00251093 0.00000000
0.39970014 0.26973132 0.00029545 0.00000000
3.85821936 0.70485886 0.00538996 0.00000000
3.08905056 0.16616863 0.00034342 0.00000000
3.05465065 1.28665785 -0.00205305 0.00000000
4.41300572 1.08316321 0.00126723 0.00000000
3.34991045 0.91509761 -0.00312687 0.00000000
1.31560056 0.92368158 -0.00216093 0.00000000
0.61187651 0.25403264 -0.00268200 0.00000000
1.49033908 0.62710811 0.00340968 0.00000000
2.28989522 0.33288248 -0.00145586 0.00000000
1.74394094 1.50299266 -0.00132284 0.00000000
3.68452000 0.30645022 -0.00095791 0.00000000
3.07063155 1.39910203 0.00194457 0.00000000
1.58103153 0.80457391 -0.00105897 0.00000000
1.68899792 0.40020446 0.00300160 0.00000000
2.12929632 0.22572701 -0.00020948 0.00000000
2.27653755 1.02598918 0.00066101 0.00000000
1.02546091 0.70431694 -0.00159380 0.00000000
1.24406631 1.76334544 -0.00146042 0.00000000
0.37907137 0.21738771 -0.00032219 0.00000000
2.69343585 1.59623031 -0.00490872 0.00000000
4.20786684 0.13176821 -0.00351657 0.00000000
0.40526352 1.93437634 0.00586503 0.00000000
2.22412661 0.54929994 0.00004653 0.00000000
3.37897352 1.68683758 0.00030747 0.00000000
1.03199754 1.44967415 0.00073082 0.00000000
3.11912643 0.34880541 0.00320838 0.00000000
2.28894757 1.04671755 -0.00166616 0.00000000
3.41791289 1.14566469 0.00292937 0.00000000
2.45300143 1.76210565 -0.00254536 0.00000000
2.67443629 0.94010129 -0.00078930 0.00000000
0.63416905 0.08666291 0.00117492 0.00000000
4.29810269 0.76692800 0.00008441 0.00000000
4.10526016 0.66969301 0.00294412 0.00000000
1.73999394 0.50234257 0.00039338 0.00000000
2.00366906 1.76624824 -0.00058913 0.00000000
2.32470251 0.85476893 -0.00250186 0.00000000
4.26477839 0.34331421 -0.00122388 0.00000000
2.98133139 1.14266132 0.00214767 0.00000000
0.88161450 0.47001424 0.00021759 0.00000000
4.34689432 1.16535373 0.00111462 0.00000000
0.77482320 0.48969702 0.00026129 0.00000000
0.94702774 1.92923204 0.00006566 0.00000000
3.34132647 1.01473929 0.00517764 0.00000000
1.51788385 1.24428860 0.00011652 0.00000000
0.25804622 1.53513670 0.00306314 0.00000000
1.93060475 0.92380299 0.00151288 0.00000000
1.39242428 0.85821601 -0.00300937 0.00000000
1.38599937 0.32854161 -0.00126169 0.00000000
1.98201398 1.09831837 0.00034721 0.00000000
2.62894284 0.95689174 -0.00077955 0.00000000
0.08491373 0.38644736 -0.00063910 0.00000000
3.30967076 1.23486468 -0.00063377 0.00000000
4.11431266 1.12505565 0.00218395 0.00000000
0.27599355 1.14797984 -0.00152449 0.00000000
1.55238827 0.35148348 0.00122924 0.00000000
4.23787266 1.54775833 0.00263420 0.00000000
2.03081623 0.42551436 0.00040313 0.00000000
2.22228208 1.00493526 -0.00441744 0.00000000
0.43997546 1.49298529 -0.00167852 0.00000000
4.15787787 0.00813408 -0.00548317 0.00000000
2.82297902 0.44174313 0.00346968 0.00000000
3.47925115 1.88177990 0.00262454 0.00000000
0.37007593 0.93492963 0.00259362 0.00000000
2.86789860 0.13873279 -0.00362118 0.00000000
3.87739205 0.47235044 0.00191983 0.00000000
2.49339729 0.14857666 0.00317638 0.00000000
2.51305388 1.83677535 -0.00184411 0.00000000
4.33479734 0.75298261 -0.00044299 0.00000000
2.47158142 0.88441377 -0.00248987 0.00000000
3.37506650 0.61617435 -0.00268000 0.00000000
1.49503728 1.41173729 -0.00219021 0.00000000
2.34785868 0.54831004 0.00404546 0.00000000
3.14025759 0.66969711 0.00133895 0.00000000
4.08442793 0.46081479 -0.00001167 0.00000000
0.82938509 0.10918311 0.00009804 0.00000000
1.79946028 1.73730671 -0.00367060 0.00000000
0.92338343 0.20850424 0.00179002 0.00000000
3.01207635 1.18972128 -0.00109712 0.00000000
3.70600865 1.31815899 -0.00620293 0.00000000
2.03273247 1.29010180 0.00477565 0.00000000
3.83943113 0.38841480 -0.00026124 0.00000000
1.92752497 0.90055430 -0.00160603 0.00000000
3.52993549 1.91182113 -0.00127376 0.00000000
3.41434989 0.10449310 0.00206720 0.00000000
1.22947530 0.50104491 0.00232691 0.00000000
2.03046602 0.98200927 -0.00211485 0.00000000
0.77717727 1.49055987 -0.00280338 0.00000000
0.59767600 1.28036443 -0.00074891 0.00000000
2.66296237 1.48405568 -0.00118801 0.00000000
3.80138831 1.03567897 -0.00095985 0.00000000
2.12723222 1.33102936 0.00152034 0.00000000
0.70794383 0.41406978 0.00155973 0.00000000
2.21942448 0.62925441 -0.00209603 0.00000000
1.20799166 1.34500467 -0.00291012 0.00000000
1.10592781 0.16311326 -0.00078263 0.00000000
0.47423852 1.93395798 0.00126684 0.00000000
3.96323590 1.85666660 0.00282005 0.00000000
1.94232009 0.59072255 0.00212694 0.00000000
0.25193129 0.68731936 0.00169626 0.00000000
2.83668604 0.02350943 -0.00379849 0.00000000
2.51749799 1.14380220 0.00194385 0.00000000
2.97776590 0.53396464 0.00078901 0.00000000
1.43388829 1.20266951 0.00133483 0.00000000
4.22438601 0.34045889 -0.00331828 0.00000000
0.83115053 1.38222378 -0.00002680 0.00000000
3.44202168 0.68546173 -0.00209465 0.00000000
3.56040782 0.46043761 -0.00068374 0.00000000
1.78394675 0.68524776 -0.00140081 0.00000000
0.01908884 1.50494755 0.00055917 0.00000000
4.21344731 0.76746889 0.00333830 0.00000000
3.19904776 0.18727461 0.00146598 0.00000000
2.43280732 0.20299565 0.00324437 0.00000000
2.91309506 0.06761079 0.00035658 0.00000000
0.06796754 0.86935230 -0.00095828 0.00000000
2.59602017 0.00776917 0.00037902 0.00000000
1.42750008 0.43841201 0.00651153 0.00000000
3.22975356 1.24889976 0.00228109 0.00000000
2.03429917 0.80313309 -0.00165316 0.00000000
1.46214620 1.72694445 0.00091629 0.00000000
0.43998182 1.76610224 -0.00571786 0.00000000
0.69321410 1.56918045 -0.00116212 0.00000000
3.29234463 1.56311547 -0.00147584 0.00000000
3.69089325 0.31414923 -0.00245446 0.00000000
1.73901783 0.66703742 0.00251445 0.00000000
4.06924503 1.27501166 -0.00156896 0.00000000
2.31418274 0.97424740 -0.00043530 0.00000000
0.89376053 1.13610087 -0.00133630 0.00000000
0.52046874 0.66380066 -0.00430466 0.00000000
0.45883996 0.60929044 0.00131882 0.00000000
3.16730743 0.59471930 0.00039947 0.00000000
3.95354630 0.15446113 0.00024247 0.00000000
0.73210022 0.04806613 -0.00413545 0.00000000
0.16565988 1.02138798 0.00408634 0.00000000
1.54538161 0.12272981 0.00122737 0.00000000
3.44826533 1.59546367 -0.00088691 0.00000000
2.80371512 1.41357391 -0.00290053 0.00000000
2.10469950 0.55775457 -0.00296740 0.00000000
4.19526604 0.36818145 0.00086355 0.00000000
0.09162336 0.29383888 0.00170988 0.00000000
1.60407458 0.29264457 0.00116956 0.00000000
0.22737031 0.66755744 -0.00248250 0.00000000
2.99418399 0.71599938 0.00196949 0.00000000
1.26972411 1.18236300 0.00208824 0.00000000
2.23435248 1.18112928 0.00138734 0.00000000
0.28677425 1.35917701 0.00063875 0.00000000
0.83699414 0.06946501 0.00170410 0.00000000
1.77822142 1.26074527 0.00129233 0.00000000
1.72340714 1.77169013 0.00286710 0.00000000
0.20793919 0.73095028 0.00524366 0.00000000
3.18030461 1.88588958 -0.00393124 0.00000000
3.80964634 0.15648824 -0.00492385 0.00000000
4.20943686 1.22620727 -0.00079537 0.00000000
0.71943547 1.61021943 -0.00012673 0.00000000
3.76834108 1.34733326 0.00152243 0.00000000
2.91396373 1.41494226 0.00516054 0.00000000
1.01657346 0.64333068 -0.00547691 0.00000000
1.32440291 0.26175356 0.00348530 0.00000000
4.37908126 0.50597320 0.00296657 0.00000000
4.04689557 1.61913242 -0.00258263 0.00000000
3.90724178 1.69604043 -0.00125566 0.00000000
2.85310885 0.22972512 0.00152652 0.00000000
1.52243854 1.56078953 -0.00349937 0.00000000
2.76240089 0.55460810 -0.00042514 0.00000000
3.73836588 0.10308241 -0.00460055 0.00000000
0.57597306 1.42623660 0.00052112 0.00000000
2.40970375 1.76751364 0.00233724 0.00000000
1.92659500 1.32402089 0.00028211 0.00000000
1.05299445 1.86929263 0.00221294 0.00000000
3.64212735 1.76461935 -0.00103489 0.00000000
2.44686529 1.63105505 0.00113842 0.00000000
3.74713751 1.52403816 -0.00054120 0.00000000
1.36911322 0.86850837 0.00017126 0.00000000
0.14426926 1.47113184 0.00192163 0.00000000
3.60745956 1.60782397 0.00236171 0.00000000
2.92002082 1.33484020 -0.00150145 0.00000000
1.57248288 0.49386979 -0.00397411 0.00000000
0.19248274 1.33363963 -0.00069845 0.00000000
3.30088335 1.45942648 0.00371080 0.00000000
1.94989534 1.06070914 -0.00038103 0.00000000
2.39675710 1.36387825 0.00092000 0.00000000
1.64476153 1.68445709 -0.00265909 0.00000000
3.64353167 1.38745806 -0.00325611 0.00000000
4.25917436 0.39539611 -0.00004793 0.00000000
1.28872058 0.99791626 0.00174403 0.00000000
2.89780824 0.66067883 -0.00079554 0.00000000
0.92806402 0.23930630 0.00055980 0.00000000
0.72082650 0.36744328 -0.00087657 0.00000000
0.87331534 1.46325437 -0.00091271 0.00000000
3.14615299 1.12041367 -0.00309826 0.00000000
0.11708264 1.60427043 0.00016558 0.00000000
4.03345258 1.86046161 -0.00119136 0.00000000
1.98140612 1.55658994 -0.00135958 0.00000000
0.21675203 1.89039158 0.00315742 0.00000000
2.69356566 0.44380106 0.00008564 0.00000000
4.33886846 1.28024854 -0.00033698 0.00000000
1.96308045 0.13083931 -0.00341650 0.00000000
2.81898039 1.86454941 -0.00173902 0.00000000
3.56610885 1.36020715 -0.00034561 0.00000000
1.00751044 1.34829597 -0.00148224 0.00000000
1.90004768 0.56643717 0.00328530 0.00000000
2.13926548 0.16836863 -0.00075909 0.00000000
3.40626338 1.36849710 -0.00081805 0.00000000
3.50660053 0.18019324 0.00260126 0.00000000
4.02347405 0.60262760 0.00406465 0.00000000
0.86570853 0.73317400 -0.00425695 0.00000000
1.43361793 0.05264354 0.00090684 0.00000000
1.30495930 1.29561137 0.00026606 0.00000000
0.18346626 1.48313819 0.00235112 0.00000000
3.91201259 1.15391539 -0.00197539 0.00000000
1.02550112 1.74022792 0.00290882 0.00000000
1.06886339 0.40148445 -0.00627517 0.00000000
2.29673930 1.34974908 -0.00154789 0.00000000
1.24170999 0.47774491 0.00035184 0.00000000
1.01977860 1.36949379 0.00311523 0.00000000
1.19861475 0.68599655 0.00030954 0.00000000
0.24473175 0.67306669 0.00174734 0.00000000
0.32164793 0.46673604 -0.00200814 0.00000000
3.04619523 0.96960288 -0.00365690 0.00000000
3.57582100 0.21607708 -0.00026968 0.00000000
3.78938300 0.02867649 -0.00050684 0.00000000
0.73260281 1.04472942 -0.00190893 0.00000000
2.56402033 1.15587393 -0.00567524 0.00000000
4.16140090 0.74887526 0.00206608 0.00000000
4.22815587 0.63128493 0.00068690 0.00000000
1.69156336 1.74560525 0.00260257 0.00000000
0.89772396 1.37028965 0.00042863 0.00000000
0.39807135 0.35896465 0.00083375 0.00000000
2.44433147 1.91276864 0.00146516 0.00000000
1.90566580 1.90561721 -0.00073488 0.00000000
3.97874481 0.18838406 0.00074311 0.00000000
1.81249533 1.05692873 -0.00374693 0.00000000
0.92220234 1.82386828 0.00503403 0.00000000
1.02335977 0.62296848 -0.00093876 0.00000000
3.04253142 1.56439466 0.00023268 0.00000000
3.96786028 0.60610490 -0.00413314 0.00000000
1.72396760 1.70667338 0.00131212 0.00000000
4.23693079 0.80682289 0.00114137 0.00000000
1.17962141 0.99174324 0.00080144 0.00000000
1.74395107 1.31820994 -0.00014834 0.00000000
1.75624554 1.26682672 0.00141594 0.00000000
0.04711289 1.43990872 -0.00325008 0.00000000
0.59303953 0.08641280 -0.00350525 0.00000000
3.08198261 1.03129780 -0.00160652 0.00000000
2.85761379 1.81653501 -0.00292757 0.00000000
0.41852542 0.88935214 -0.00044921 0.00000000
1.10232679 0.59176935 -0.00230925 0.00000000
2.52072770 0.48627303 -0.00269823 0.00000000
3.60372059 0.63648939 -0.00153851 0.00000000
3.63151773 1.59758984 0.00267783 0.00000000
0.55386599 0.43857055 0.00046360 0.00000000
3.32017061 1.74568689 -0.00201853 0.00000000
1.33293516 1.44955004 0.00171039 0.00000000
1.53209741 1.01461422 0.00295646 0.00000000
1.31590471 1.12606154 0.00182108 0.00000000
1.14697738 0.12560649 0.00104602 0.00000000
2.39890799 0.92686549 -0.00639636 0.00000000
2.47770565 0.33022500 -0.00067724 0.00000000
1.55163026 0.64672650 -0.00095257 0.00000000
2.80488666 1.54083973 -0.00458799 0.00000000
0.79312562 1.38678383 -0.00179881 0.00000000
0.20338163 0.63907367 -0.00442180 0.00000000
3.91741359 1.26888636 -0.00289537 0.00000000
1.98469896 1.07096394 -0.00129295 0.00000000
1.04003301 0.61308971 0.00012750 0.00000000
3.31891827 0.88367546 -0.00130378 0.00000000
0.49259289 1.34967040 0.00135389 0.00000000
2.65385163 1.55023373 -0.00145578 0.00000000
1.63125772 0.28496126 -0.00029914 0.00000000
3.78379449 0.69224331 -0.00483378 0.00000000
3.58633251 1.31871696 -0.00182647 0.00000000
3.67955501 0.93296139 0.00084579 0.00000000
1.57463165 0.36927818 -0.00323122 0.00000000
2.82243274 0.50969463 0.00385602 0.00000000
3.48739180 1.16517678 0.00026729 0.00000000
2.87195454 1.02951156 0.00257223 0.00000000
0.52701031 0.90058478 0.00090488 0.00000000
2.82236560 0.92380361 0.00092308 0.00000000
0.24453437 1.83751969 0.00326857 0.00000000
2.55406225 1.40717723 -0.00539233 0.00000000
3.64912068 1.08901806 -0.00289532 0.00000000
2.40462264 0.22486743 -0.00038364 0.00000000
3.21224430 0.42411855 0.00099475 0.00000000
0.28588636 0.25698719 0.00210159 0.00000000
1.33567165 0.78080633 0.00030922 0.00000000
4.25000145 0.14379803 0.00315654 0.00000000
3.89234360 1.57706860 -0.00115453 0.00000000
0.88278651 1.65037868 -0.00258398 0.00000000
0.63784364 1.43915102 -0.00265586 0.00000000
3.72785306 0.56786850 -0.00125591 0.00000000
3.43589912 0.33865852 0.00608113 0.00000000
4.01743102 1.59105936 0.00332174 0.00000000
0.02342758 1.39882102 -0.00473930 0.00000000
2.81988965 0.98029604 0.00059087 0.00000000
2.63934382 0.75776955 -0.00127825 0.00000000
4.38720819 1.00069847 -0.00252516 0.00000000
3.86882219 0.30226514 -0.00337111 0.00000000
4.35382665 1.33818964 0.00198102 0.00000000
2.65377523 0.37892949 0.00371705 0.00000000
0.71998255 1.86722477 0.00097425 0.00000000
3.97133021 1.82167160 0.00133716 0.00000000
1.43276828 0.83327578 -0.00192251 0.00000000
4.32167877 1.30395698 0.00168558 0.00000000
1.66191056 0.16682881 0.00272480 0.00000000
2.46930507 0.09023869 0.00032861 0.00000000
3.46981422 0.14049375 0.00187269 0.00000000
2.41374320 0.05834100 -0.00304919 0.00000000
0.46819850 0.52450469 0.00322721 0.00000000
2.62182043 0.78896916 -0.00300266 0.00000000
4.23024154 0.58184487 0.00054253 0.00000000
3.30436060 0.50743554 0.00380124 0.00000000
3.23391181 0.26504464 -0.00044951 0.00000000
0.34613200 0.17873129 -0.00133837 0.00000000
1.53364030 0.11750691 -0.00278649 0.00000000
0.48899297 0.81537322 0.00171403 0.00000000
0.54160688 0.20901541 -0.00102815 0.00000000
2.13558489 1.20202964 0.00111561 0.00000000
1.10673047 1.67524302 -0.00317479 0.00000000
2.04906103 1.91455773 -0.00111004 0.00000000
2.35852623 1.03487903 -0.00335230 0.00000000
0.87125022 0.96035927 -0.00204687 0.00000000
4.15187821 1.59553346 -0.00026740 0.00000000
1.28731231 0.91655837 -0.00087090 0.00000000
0.90152839 0.53258557 -0.00275820 0.00000000
4.43142180 1.92574996 0.00053574 0.00000000
2.01209546 0.93527156 0.00137642 0.00000000
1.77160651 1.43944414 0.00500371 0.00000000
2.05215247 0.25349470 -0.00313428 0.00000000
4.30197298 1.48993294 0.00171510 0.00000000
3.15496124 0.96065551 -0.00018461 0.00000000
0.30399789 0.00222640 0.00364247 0.00000000
4.23503057 0.37459361 0.00195401 0.00000000
3.73202276 1.36806273 -0.00347222 0.00000000
0.45267630 1.25202802 -0.00159048 0.00000000
0.70310258 0.32926807 -0.00295490 0.00000000
3.77818571 1.47436302 -0.00286770 0.00000000
2.82295540 1.09192992 0.00273821 0.00000000
4.06092200 1.92533035 -0.00173463 0.00000000
4.11874281 0.73720454 0.00252887 0.00000000
0.89192226 0.34464532 -0.00023436 0.00000000
1.46256905 1.38964771 0.00031246 0.00000000
3.37090818 0.55369024 0.00099490 0.00000000
0.88988164 1.34312350 0.00003292 0.00000000
2.27882599 0.32453369 -0.00097866 0.00000000
2.88026956 0.67513074 0.00238830 0.00000000
2.18077158 0.79065890 0.00246679 0.00000000
2.89258840 0.76445835 0.00074974 0.00000000
0.34819176 0.66697059 0.00226080 0.00000000
2.40376905 1.25485131 0.00128761 0.00000000
3.24870019 0.72903516 0.00212493 0.00000000
2.08212987 1.71554620 0.00227980 0.00000000
2.74536548 0.90924544 0.00849126 0.00000000
0.48856804 0.19850452 -0.00045772 0.00000000
2.88311751 0.28870327 0.00123099 0.00000000
2.84613088 0.29287947 0.00251395 0.00000000
0.77434906 0.84674775 -0.00015004 0.00000000
1.73384063 0.21075772 -0.00158093 0.00000000
2.25182582 0.80099514 0.00327085 0.00000000
0.62366389 0.47102221 -0.00070534 0.00000000
2.60527604 1.25944660 0.00321744 0.00000000
2.44131833 1.15528426 0.00179304 0.00000000
1.95354478 0.71077345 0.00090274 0.00000000
0.49746984 0.68036731 0.00184666 0.00000000
1.09270329 0.88498287 -0.00003882 0.00000000
1.53170994 0.18689952 -0.00068165 0.00000000
0.63468412 1.56580982 -0.00276764 0.00000000
4.09752126 0.68513185 -0.00435584 0.00000000
1.93128133 0.80997597 0.00170422 0.00000000
0.89154793 1.88248274 0.00398082 0.00000000
0.18262652 1.28854312 -0.00220507 0.00000000
2.66852963 1.31405762 0.00091212 0.00000000
1.70890037 1.50371165 -0.00133024 0.00000000
1.52991486 1.69383698 0.00115658 0.00000000
1.91685718 0.93535059 -0.00008310 0.00000000
0.46547502 0.40837022 0.00401782 0.00000000
1.90975939 1.16621755 -0.00005888 0.00000000
0.84875012 1.19550847 -0.00232266 0.00000000
4.30549936 0.12948841 0.00230767 0.00000000
4.02133234 0.14666381 -0.00215844 0.00000000
0.04341714 0.82791305 0.00093839 0.00000000
0.63885344 1.35350868 -0.00071854 0.00000000
1.32726615 1.64862606 0.00226645 0.00000000
2.84596219 0.32508573 0.00364873 0.00000000
1.53411440 1.56009064 -0.00014985 0.00000000
0.26045026 1.59723442 0.00120102 0.00000000
4.25650543 1.37301992 0.00187961 0.00000000
2.22233275 1.50093810 0.00062107 0.00000000
1.94206208 0.26639722 0.00171974 0.00000000
3.34695603 1.58366702 0.00509734 0.00000000
1.67389017 0.60578841 -0.00055201 0.00000000
0.97001647 0.00917703 0.00145426 0.00000000
3.50796302 0.62639584 -0.00083448 0.00000000
1.69576622 1.77419502 -0.00086496 0.00000000
4.18819527 1.00261969 -0.00149981 0.00000000
4.38870988 1.37498311 -0.00011446 0.00000000
0.79994715 1.90191237 0.00078981 0.00000000
0.79512475 1.27819139 0.00224758 0.00000000
3.48277203 1.13371754 -0.00057337 0.00000000
2.37157942 1.44802601 -0.00165543 0.00000000
0.05707191 1.60501058 -0.00384422 0.00000000
3.47607458 0.07098278 -0.00495267 0.00000000
1.09351993 1.16893828 0.00015117 0.00000000
0.23633049 1.66503406 0.00504747 0.00000000
2.70604735 0.64690601 -0.00394463 0.00000000
2.10017763 0.79673865 -0.00195950 0.00000000
2.37847258 0.50802919 -0.00038438 0.00000000
2.95125171 1.45061026 0.00381099 0.00000000
2.67475294 0.25382319 -0.00235269 0.00000000
2.42207977 0.29070704 -0.00368106 0.00000000
1.04848082 1.46964964 -0.00021960 0.00000000
0.69718407 0.42582788 -0.00002954 0.00000000
1.24246594 1.00237276 -0.00268904 0.00000000
3.05756021 0.44352239 0.00004087 0.00000000
3.35828055 1.47967303 -0.00419705 0.00000000
4.13668652 0.75598894 0.00313907 0.00000000
2.24135934 0.82452979 -0.00254394 0.00000000
0.75959088 1.76073249 0.00489299 0.00000000
1.61180032 1.08566449 0.00312431 0.00000000
1.14639913 1.38051003 0.00063536 0.00000000
3.44176218 0.57599025 0.00434903 0.00000000
4.04669954 0.49208293 -0.00512473 0.00000000
2.57018170 1.50256366 -0.00197025 0.00000000
0.83745643 1.89887191 -0.00093276 0.00000000
3.29432102 1.12530551 -0.00227712 0.00000000
3.58859532 0.03006866 -0.00112901 0.00000000
1.84696294 1.82344177 0.00062383 0.00000000
4.42236305 0.27921844 0.00230779 0.00000000
0.48950429 1.39511450 -0.00017873 0.00000000
0.06946217 1.91285718 -0.00068774 0.00000000
3.96630329 0.14696882 -0.00119647 0.00000000
3.20989250 1.10222200 -0.00256462 0.00000000
1.85676863 1.68620374 -0.00020221 0.00000000
2.49914381 1.47612856 0.00114658 0.00000000
0.15901571 1.88191520 0.00307442 0.00000000
0.84256798 1.84305789 0.00225232 0.00000000
2.38409567 1.34214343 -0.00198884 0.00000000
1.07498965 0.56166573 -0.00168410 0.00000000
3.70787869 1.14944627 0.00638472 0.00000000
4.30803699 0.63876926 -0.00013047 0.00000000
2.33094398 0.76844096 0.00093415 0.00000000
0.20558974 0.27702794 0.00328684 0.00000000
4.10877715 0.64857185 -0.00577291 0.00000000
2.45147169 1.93503014 0.00288629 0.00000000
4.22039379 1.02971473 -0.00129116 0.00000000
4.23242391 1.23925463 -0.00213863 0.00000000
0.18414583 0.91002908 -0.00076661 0.00000000
0.58613287 1.27274018 0.00015678 0.00000000
3.83902056 0.29620100 -0.00186259 0.00000000
0.83450342 0.96069557 0.00069816 0.00000000
3.48980144 1.20952558 0.00038279 0.00000000
1.83437186 0.01765974 -0.00157725 0.00000000
0.85384029 0.20849854 -0.00001944 0.00000000
2.21912212 0.87880137 0.00414895 0.00000000
0.44597645 1.72154836 0.00152399 0.00000000
2.53177378 1.68715094 -0.00191251 0.00000000
1.63676096 1.64611314 -0.00166316 0.00000000
2.42050728 1.04494368 -0.00098589 0.00000000
1.35925517 1.51066252 -0.00563643 0.00000000
3.14223872 1.40517584 -0.00040309 0.00000000
2.71268015 1.11773646 0.00062311 0.00000000
2.53244805 1.04649285 -0.00251822 0.00000000
1.46367410 0.30272392 0.00419985 0.00000000
1.67714296 1.53937796 -0.00115959 0.00000000
2.38341186 1.61579350 0.00070870 0.00000000
2.04032975 1.83498480 0.00005000 0.00000000
3.67385262 0.19927594 -0.00119252 0.00000000
1.21574806 1.80274002 0.00105025 0.00000000
3.19135421 0.79183741 0.00088847 0.00000000
0.29025015 0.32751895 -0.00052741 0.00000000
2.43266885 1.20694851 0.00132637 0.00000000
1.96710617 1.87589627 0.00019741 0.00000000
2.51165272 1.45141812 -0.00200005 0.00000000
2.80495888 1.24005055 0.00197602 0.00000000
2.43504643 0.79780742 -0.00100280 0.00000000
1.61308804 1.18086285 0.00061807 0.00000000
3.91136861 0.76637215 0.00159340 0.00000000
1.23500824 1.70738988 -0.00282252 0.00000000
0.19455658 0.84247328 0.00090139 0.00000000
2.56275154 1.74311190 0.00059736 0.00000000
1.70830256 1.92327561 -0.00049110 0.00000000
0.60288580 0.82130517 0.00270875 0.00000000
3.35620386 1.74140349 0.00389640 0.00000000
1.35542712 0.41102618 0.00078453 0.00000000
4.33875523 0.69756280 0.00183772 0.00000000
1.87176389 0.40747248 0.00027952 0.00000000
3.99766079 1.65420508 -0.00208819 0.00000000
4.32741615 1.81790869 0.00026668 0.00000000
3.59974911 1.76466542 -0.00333733 0.00000000
1.38372917 1.11836711 0.00660524 0.00000000
2.24809433 0.57453923 -0.00434189 0.00000000
0.44836178 0.92408586 -0.00153803 0.00000000
1.82038634 1.62607080 -0.00013450 0.00000000
1.46563832 0.14429509 -0.00253128 0.00000000
4.02443295 1.46167505 0.00268083 0.00000000
1.00217193 0.79763341 -0.00339055 0.00000000
0.89949815 0.28212396 -0.00265256 0.00000000
3.30799129 1.07654612 0.00028781 0.00000000
4.16176957 1.04587948 -0.00001037 0.00000000
3.60556391 1.64637984 0.00152977 0.00000000
1.20129815 1.83256678 -0.00447852 0.00000000
4.07959413 0.21236267 0.00274078 0.00000000
2.38800839 1.79776333 0.00438199 0.00000000
0.08030416 1.76213399 -0.00500856 0.00000000
2.74988909 0.77358654 -0.00157617 0.00000000
1.03625420 1.65611944 -0.00083008 0.00000000
1.52899443 0.33773527 0.00706010 0.00000000
3.17146730 1.71537506 0.00049390 0.00000000
0.19451977 1.35002191 -0.00324042 0.00000000
4.14987217 1.76155239 0.00285823 0.00000000
0.88685515 1.09502806 -0.00010808 0.00000000
0.83219004 1.91950437 0.00102258 0.00000000
1.32027024 0.62897566 0.00423494 0.00000000
3.61253933 1.36180368 0.00245407 0.00000000
3.55037056 1.81081041 0.00199456 0.00000000
4.24062972 0.75787933 0.00090121 0.00000000
1.79006109 1.64078501 0.00207995 0.00000000
4.39543602 0.98016647 0.00306550 0.00000000
1.83651103 0.40658241 0.00096669 0.00000000
