1.994861 0.803763 -0.002280 0.0
0.220331 1.645960 -0.002003 0.0
2.327836 1.438937 -0.001931 0.0
0.151695 1.773259 0.000456 0.0
2.923254 0.073472 0.001207 0.0
3.662892 2.083647 -0.003888 0.0
1.107570 0.468441 -0.001655 0.0
3.627695 1.497285 -0.001998 0.0
3.194113 1.038825 -0.004022 0.0
0.640922 1.768388 0.000662 0.0
4.439392 0.592365 -0.005991 0.0
1.558788 0.931382 0.000447 0.0
1.485299 1.578226 0.001604 0.0
2.791474 1.673512 0.000702 0.0
0.087931 1.302660 0.000485 0.0
2.519694 0.426464 -0.000365 0.0
0.330929 2.012906 -0.001513 0.0
4.085394 1.476368 0.003326 0.0
1.387003 0.181281 0.002070 0.0
0.376535 2.289476 -0.002119 0.0
3.134544 1.748360 0.001651 0.0
1.223278 2.178917 -0.003883 0.0
0.336880 2.279203 0.002164 0.0
3.894650 0.226428 0.001581 0.0
1.330921 1.017376 0.002998 0.0
2.927984 2.246676 0.003618 0.0
0.595228 1.707193 -0.003972 0.0
2.336634 2.170975 -0.005520 0.0
3.948343 0.669743 -0.006686 0.0
3.788906 1.105188 0.002197 0.0
3.411284 0.804760 -0.001469 0.0
0.957708 1.163216 -0.001852 0.0
4.363845 2.136027 -0.006434 0.0
2.614117 0.467935 -0.004425 0.0
4.184532 1.150331 -0.002469 0.0
3.497655 0.137357 0.002106 0.0
2.121757 0.307889 0.001208 0.0
1.422937 0.335486 0.004155 0.0
4.173779 1.460026 -0.001917 0.0
3.271466 0.392418 -0.000876 0.0
1.184771 0.481302 0.000783 0.0
1.416850 1.974671 0.003229 0.0
0.135130 0.653072 0.001036 0.0
2.224556 1.379257 0.002230 0.0
3.728537 1.752945 0.001011 0.0
2.606807 0.601539 -0.001081 0.0
0.233825 1.069219 -0.000583 0.0
3.428109 2.205211 0.005475 0.0
0.458315 1.755661 0.001908 0.0
4.506933 1.087347 -0.001965 0.0
3.300431 0.727187 0.000297 0.0
3.091147 0.898831 -0.000627 0.0
0.563327 1.522653 -0.000317 0.0
3.520407 0.657869 0.003575 0.0
1.154666 0.169701 -0.000885 0.0
1.101144 0.105801 -0.003913 0.0
0.931591 1.394053 -0.002480 0.0
3.679212 0.612951 -0.000373 0.0
1.036102 0.999585 0.005842 0.0
4.457785 1.331254 0.002490 0.0
3.873763 0.060930 -0.001167 0.0
1.673358 1.407034 0.001330 0.0
4.230557 1.135414 -0.001480 0.0
0.953620 0.208191 0.002736 0.0
3.029300 0.115574 -0.000563 0.0
2.399573 0.122267 -0.000205 0.0
2.548173 2.224629 0.000122 0.0
1.337497 2.064386 -0.001513 0.0
0.056814 1.312591 0.001151 0.0
0.134259 1.847316 0.005900 0.0
1.725290 1.288357 0.000565 0.0
4.521916 0.628687 -0.002108 0.0
3.789412 2.048944 0.004253 0.0
1.278954 0.949332 0.002263 0.0
3.418774 0.587743 0.003397 0.0
4.373841 1.685626 0.002383 0.0
2.704009 0.720063 0.002967 0.0
0.940495 2.229853 0.000117 0.0
0.164110 0.012392 -0.001250 0.0
1.901197 1.437511 0.001223 0.0
3.697119 1.208911 0.002115 0.0
3.581445 0.666138 -0.000353 0.0
1.805599 1.702818 -0.002612 0.0
2.109686 1.421101 0.002077 0.0
1.269390 1.204737 0.000947 0.0
3.253581 1.701701 0.001641 0.0
3.360137 1.637507 0.000729 0.0
4.181055 1.676220 0.000795 0.0
3.442159 0.903883 -0.000577 0.0
0.302390 0.745310 -0.000840 0.0
3.920072 1.369900 -0.001186 0.0
2.416364 1.496034 0.000206 0.0
0.499777 0.800165 -0.003151 0.0
0.977251 0.004877 -0.001636 0.0
3.554598 1.659234 -0.003975 0.0
1.422027 1.659871 -0.002471 0.0
3.689107 1.662225 -0.002207 0.0
4.592194 1.553659 -0.001161 0.0
3.987417 0.543107 -0.001314 0.0
1.903092 2.076544 0.001827 0.0
4.067253 1.679979 -0.003712 0.0
4.296308 2.268195 0.001019 0.0
1.370005 1.982553 0.003017 0.0
0.641613 0.179242 0.001423 0.0
1.595876 2.029000 0.001288 0.0
3.217261 1.641698 0.004596 0.0
4.342933 1.818366 0.002036 0.0
2.613910 2.141467 0.002994 0.0
3.993884 1.207483 0.002779 0.0
3.767784 2.151832 0.001124 0.0
2.688321 1.900869 -0.001204 0.0
2.073709 0.122429 0.001365 0.0
2.125903 1.757988 0.002539 0.0
4.443276 1.620107 -0.000341 0.0
4.361667 0.952710 0.000643 0.0
2.430982 1.645621 -0.002886 0.0
2.599972 0.794744 0.002971 0.0
1.718521 0.929309 0.001271 0.0
4.061157 0.590584 -0.002424 0.0
1.905545 1.397059 0.002290 0.0
3.899388 1.180427 -0.001417 0.0
2.794021 0.284847 -0.003166 0.0
1.982438 1.131704 -0.002583 0.0
3.289084 0.262475 0.000411 0.0
0.799827 2.197724 0.002195 0.0
1.763469 1.888530 -0.001771 0.0
2.989541 0.150965 -0.001351 0.0
3.780011 0.324535 -0.004005 0.0
3.145631 0.646373 0.000176 0.0
0.514747 1.456563 -0.000613 0.0
0.912565 0.295824 -0.002574 0.0
3.068727 0.513619 0.000097 0.0
2.928754 0.288938 -0.000929 0.0
4.582589 2.168499 -0.002704 0.0
2.103405 1.998397 -0.003142 0.0
4.145849 0.366643 -0.000635 0.0
2.634844 2.150916 0.000454 0.0
4.547912 1.589742 0.002171 0.0
2.359293 1.226376 -0.002652 0.0
4.440174 1.970508 0.004631 0.0
1.613016 1.962286 -0.001744 0.0
2.237792 0.635099 0.000756 0.0
2.413201 0.308723 0.001163 0.0
4.262747 0.638403 0.005243 0.0
2.499364 0.904875 -0.000245 0.0
0.024528 1.610401 -0.003973 0.0
3.659772 2.055075 0.001973 0.0
0.652098 1.146990 -0.003244 0.0
2.856748 1.895911 0.000329 0.0
0.914971 0.082865 0.002684 0.0
1.276951 1.090054 0.000075 0.0
0.054629 1.821583 -0.002383 0.0
2.741289 0.777369 0.000641 0.0
2.638518 1.384814 0.001088 0.0
2.750117 0.562170 0.000230 0.0
0.711199 0.450364 0.001012 0.0
2.928260 0.817019 -0.001094 0.0
4.485284 1.203594 0.002735 0.0
0.170146 0.602034 -0.001008 0.0
3.741886 1.500218 -0.000597 0.0
4.087314 0.059694 0.000554 0.0
0.420800 0.910161 0.000204 0.0
1.373378 0.180151 -0.001216 0.0
0.686316 0.284675 -0.000989 0.0
1.975261 1.330488 0.001853 0.0
1.711106 1.040634 0.000437 0.0
1.417386 2.032277 -0.000029 0.0
2.181090 0.038483 0.002330 0.0
0.424839 0.917104 -0.000488 0.0
1.127020 1.285315 -0.005212 0.0
3.806684 0.171474 -0.002512 0.0
2.847095 1.809468 -0.001947 0.0
1.944685 1.798705 -0.001614 0.0
0.569293 0.831461 0.000533 0.0
4.485882 1.679792 -0.001298 0.0
3.759173 0.570322 0.000466 0.0
0.431189 1.651445 -0.000766 0.0
0.011368 0.006522 -0.000138 0.0
1.853001 2.235975 -0.000933 0.0
4.306155 1.591551 0.004521 0.0
4.390216 0.845503 -0.004332 0.0
3.871121 1.237169 -0.002976 0.0
1.729631 2.298508 0.001810 0.0
4.474013 1.147928 0.001468 0.0
4.259102 1.857317 0.003783 0.0
2.613936 0.386542 0.002835 0.0
4.051071 0.832588 0.000456 0.0
3.019587 1.901944 -0.000776 0.0
2.402706 1.353166 0.000794 0.0
2.897363 1.166153 -0.002041 0.0
1.191219 2.081757 0.000104 0.0
1.781529 1.697844 0.000096 0.0
2.521591 1.190962 -0.001619 0.0
0.543910 0.413581 -0.002353 0.0
1.283486 1.752424 -0.001099 0.0
3.817500 0.785609 -0.000778 0.0
3.482632 2.060513 0.001525 0.0
4.024181 1.656123 -0.005969 0.0
4.554659 0.509780 0.002800 0.0
1.606978 0.751207 0.000202 0.0
3.839276 1.386338 0.000969 0.0
4.447564 0.177403 -0.006037 0.0
2.102086 1.747028 0.000840 0.0
1.666238 1.882493 -0.000905 0.0
4.135156 1.640724 -0.002329 0.0
0.705297 1.151922 0.001154 0.0
3.203178 0.468936 -0.003489 0.0
1.031199 1.728503 0.003849 0.0
2.324087 2.007147 -0.003686 0.0
3.877493 2.210988 0.002284 0.0
4.077178 0.406766 0.004966 0.0
0.770205 0.537171 0.004499 0.0
2.706855 1.101961 0.000830 0.0
0.224181 1.940277 0.003374 0.0
4.077405 1.173427 0.007331 0.0
4.076863 0.099375 -0.000818 0.0
2.973976 0.876096 -0.000478 0.0
3.965785 0.539050 -0.001846 0.0
1.530221 1.428363 0.002101 0.0
2.691296 2.065344 0.000310 0.0
0.479372 0.871445 0.002382 0.0
0.815898 1.746504 0.001010 0.0
2.407150 0.171431 0.001600 0.0
2.207981 0.525456 -0.000692 0.0
0.697437 0.037993 -0.001183 0.0
4.324083 1.802165 -0.001397 0.0
4.333939 0.637193 0.003745 0.0
0.128004 1.572884 0.002257 0.0
0.199980 0.495046 -0.000421 0.0
2.631574 1.162788 0.000816 0.0
3.745689 1.943268 -0.000946 0.0
2.628782 0.224016 -0.002151 0.0
1.421538 0.180216 0.000668 0.0
4.321142 1.378053 0.000321 0.0
4.163729 1.612168 0.001168 0.0
3.699555 1.111292 0.004984 0.0
2.640956 1.842787 -0.005301 0.0
3.213780 0.008123 -0.002761 0.0
0.550280 2.195488 -0.002621 0.0
1.310030 1.730398 -0.000649 0.0
2.640597 0.779333 -0.000566 0.0
3.998068 0.276811 0.000724 0.0
1.811995 1.746685 -0.004087 0.0
0.520940 0.815397 0.002481 0.0
3.006192 1.288339 -0.002046 0.0
1.281455 0.940439 -0.001204 0.0
2.733982 1.545735 -0.002070 0.0
1.747991 1.279709 0.002844 0.0
4.165934 1.670482 0.000198 0.0
0.145414 1.646332 0.004218 0.0
4.158633 0.243382 -0.000664 0.0
0.784764 1.215373 0.000247 0.0
0.652270 0.697995 0.006339 0.0
2.618296 1.940645 0.001483 0.0
1.534092 0.142075 -0.000862 0.0
4.054168 0.150191 0.003257 0.0
2.816992 2.100258 0.001576 0.0
4.081635 0.680290 0.001330 0.0
0.262433 1.263880 0.002890 0.0
1.904442 1.354425 0.001638 0.0
1.921099 2.053936 -0.000199 0.0
1.863015 1.518987 -0.001057 0.0
2.406493 1.778296 0.002400 0.0
1.653706 1.694101 0.002997 0.0
0.071588 0.190478 0.002031 0.0
1.754663 1.793828 0.004438 0.0
2.583281 0.426887 -0.003121 0.0
1.051112 0.625898 0.005161 0.0
0.845708 0.502853 0.005251 0.0
2.202913 0.927199 -0.002189 0.0
1.513046 2.224315 0.002461 0.0
1.087163 0.407467 -0.003826 0.0
0.387996 0.772563 -0.000383 0.0
3.070879 0.189958 0.002797 0.0
1.330519 1.825182 -0.002698 0.0
3.894175 1.464357 0.003308 0.0
3.361073 0.382414 0.000466 0.0
2.201830 2.302269 0.000625 0.0
0.919594 2.244177 -0.002186 0.0
3.337928 1.723417 -0.001048 0.0
1.477173 0.498918 -0.000832 0.0
2.068746 0.363499 -0.004909 0.0
2.721308 0.624217 -0.002072 0.0
1.779627 0.831937 -0.001389 0.0
0.159902 2.200942 0.002153 0.0
4.500548 2.105557 -0.000103 0.0
1.151297 1.114797 0.001184 0.0
0.138676 1.799139 -0.002812 0.0
0.204511 0.569997 0.001806 0.0
1.411263 0.334437 -0.002052 0.0
0.650584 1.237710 0.003030 0.0
1.321433 2.233591 0.003708 0.0
0.606341 1.849204 -0.001591 0.0
0.938150 1.948082 -0.003040 0.0
1.186636 1.304198 0.000483 0.0
2.263369 0.256891 -0.000746 0.0
0.745805 0.523818 0.002293 0.0
0.140632 0.200015 -0.000640 0.0
3.795583 1.420681 -0.001930 0.0
4.588703 0.190686 -0.001084 0.0
4.028631 0.818442 0.000147 0.0
2.186419 1.132787 -0.002909 0.0
3.377593 1.515721 -0.001734 0.0
2.996232 1.496260 0.000512 0.0
4.110174 0.751769 -0.002577 0.0
0.254377 1.389119 0.003206 0.0
3.713354 1.570943 0.004099 0.0
1.956310 2.048441 -0.001636 0.0
4.573199 0.119022 0.002193 0.0
4.330632 0.013682 0.001331 0.0
1.701805 0.528111 0.002554 0.0
4.292939 1.904081 -0.000741 0.0
0.515609 1.807886 -0.000821 0.0
0.341208 1.724376 0.001973 0.0
4.224432 0.663754 0.002351 0.0
3.986841 0.086555 0.005266 0.0
2.789585 1.566840 -0.005883 0.0
0.755050 0.009182 0.000580 0.0
4.493517 1.423290 -0.000899 0.0
0.796697 0.658661 0.000714 0.0
1.549424 0.760118 -0.000987 0.0
3.640140 1.279806 0.002069 0.0
2.266360 1.688744 -0.003479 0.0
0.052605 2.217269 -0.001831 0.0
2.808140 0.762476 -0.000186 0.0
2.745682 0.446627 -0.002606 0.0
2.281935 2.177686 -0.000180 0.0
2.923415 2.104812 0.000681 0.0
1.182781 0.148184 0.000314 0.0
0.264820 0.804746 0.003404 0.0
3.986334 1.114545 0.002211 0.0
1.458486 1.408351 0.002563 0.0
1.805312 0.353410 -0.000770 0.0
3.266869 1.226205 0.000020 0.0
0.117030 2.165353 -0.004177 0.0
1.010725 0.971197 -0.000684 0.0
4.488912 0.588133 0.003417 0.0
0.635846 0.752851 0.000955 0.0
1.748281 2.233916 -0.001472 0.0
2.160573 1.901087 0.000589 0.0
3.997523 1.559034 -0.004633 0.0
1.870229 0.343691 0.002945 0.0
2.735365 2.030666 0.001786 0.0
2.118779 1.351542 0.003731 0.0
1.069596 0.465094 -0.005243 0.0
0.509824 1.520443 0.005006 0.0
1.397704 2.019250 0.000634 0.0
1.941438 0.925426 -0.002012 0.0
4.274307 2.081130 -0.006085 0.0
4.420362 2.075240 -0.003004 0.0
0.387056 1.438430 0.002193 0.0
3.295683 2.156732 -0.001271 0.0
3.842762 0.394752 -0.000538 0.0
2.187966 0.945019 -0.002101 0.0
0.015709 1.194832 0.001639 0.0
0.888041 0.724415 -0.005402 0.0
3.614661 2.100429 0.002245 0.0
4.268880 0.903611 -0.003217 0.0
0.913419 1.583482 -0.001528 0.0
0.279982 1.423554 -0.000089 0.0
1.498184 0.264851 0.000730 0.0
1.097730 1.553611 0.001323 0.0
2.233899 0.914711 0.002349 0.0
1.406195 1.381304 -0.002825 0.0
0.343470 2.263893 0.005203 0.0
1.016176 0.474774 0.003866 0.0
2.956749 1.965952 0.002632 0.0
2.164607 1.498590 -0.000594 0.0
1.801481 1.463528 0.002208 0.0
0.377232 1.372404 0.000261 0.0
3.909716 2.012235 -0.000178 0.0
3.456555 1.510962 0.001991 0.0
1.782659 1.658448 0.002325 0.0
4.610222 1.608988 -0.000402 0.0
4.205458 2.141301 0.000070 0.0
2.985703 2.002670 0.002651 0.0
2.926629 1.317533 -0.001405 0.0
4.157119 1.518481 0.002734 0.0
1.165521 2.112028 -0.000528 0.0
3.310036 0.515994 0.004687 0.0
0.258217 1.520717 -0.001467 0.0
1.814147 0.828907 0.003014 0.0
3.070873 2.177286 -0.001827 0.0
2.743166 0.946712 -0.000520 0.0
0.527123 0.672629 -0.000925 0.0
1.663787 2.218392 0.001045 0.0
0.734204 0.947483 -0.002813 0.0
1.513447 1.050446 -0.000649 0.0
2.652932 0.471571 -0.002103 0.0
4.038563 1.383445 -0.003369 0.0
0.010686 0.322121 -0.004584 0.0
4.040211 0.601947 0.001172 0.0
0.491952 1.921640 -0.001317 0.0
2.607365 0.583501 -0.000105 0.0
2.413788 1.072565 -0.000019 0.0
4.208731 0.678552 0.002216 0.0
3.408228 0.467792 -0.003103 0.0
2.740323 0.354838 0.000151 0.0
4.328465 0.507660 -0.002646 0.0
4.225646 1.199173 -0.002589 0.0
2.790997 2.032528 0.004370 0.0
3.158312 1.862329 0.001540 0.0
1.625378 1.058425 -0.000010 0.0
4.256819 1.505146 0.000195 0.0
0.675723 0.516896 -0.004372 0.0
1.789975 1.293584 0.000917 0.0
1.575111 0.055113 -0.001284 0.0
0.011802 0.861686 -0.001328 0.0
0.963902 0.675133 0.001514 0.0
4.270571 1.559852 -0.002510 0.0
1.474385 0.312776 -0.001111 0.0
4.336027 0.180559 -0.000602 0.0
2.652181 1.629179 0.002551 0.0
3.357487 0.217475 -0.004284 0.0
1.265701 0.446102 0.003998 0.0
0.661019 0.905083 0.003658 0.0
2.219955 2.295002 0.003817 0.0
1.826973 1.661002 -0.000252 0.0
4.414774 0.154628 -0.001144 0.0
4.548060 0.779653 -0.000550 0.0
2.665245 1.333952 -0.001237 0.0
3.935902 0.999581 0.003968 0.0
1.780798 0.383236 0.001195 0.0
1.753878 2.131438 0.002389 0.0
2.844522 1.022137 -0.000531 0.0
2.075045 1.781717 -0.002088 0.0
1.840156 0.716717 0.001879 0.0
2.890234 2.245611 -0.000637 0.0
1.308988 0.401073 0.000102 0.0
3.591652 0.904202 0.000159 0.0
1.582104 0.770545 -0.003124 0.0
1.680922 0.449913 0.000840 0.0
3.304058 0.657774 -0.000978 0.0
1.222487 0.239124 0.003630 0.0
3.001613 0.091901 -0.000064 0.0
1.222669 0.319082 0.000285 0.0
4.451328 1.628630 -0.000578 0.0
1.599820 1.644482 -0.000578 0.0
4.422095 0.932194 -0.001645 0.0
1.426511 1.515421 -0.000621 0.0
4.281815 1.228826 0.003504 0.0
1.232407 1.031738 -0.002710 0.0
0.265301 1.641774 -0.003990 0.0
3.223415 2.266651 0.000215 0.0
3.427349 1.076796 0.000701 0.0
0.633193 0.891258 0.001033 0.0
3.853223 0.514922 0.005063 0.0
2.698167 1.257023 0.000850 0.0
0.931210 1.185966 -0.002915 0.0
4.049689 1.658722 0.002616 0.0
4.371748 1.256587 -0.001511 0.0
3.114666 1.113729 0.001091 0.0
1.395249 1.324598 -0.003218 0.0
0.291397 0.516726 -0.000404 0.0
3.546207 0.225082 -0.003420 0.0
2.007025 2.182201 0.002919 0.0
3.992685 1.198920 0.002489 0.0
1.281668 1.935846 -0.000778 0.0
2.915708 1.696024 -0.002740 0.0
4.072236 0.282325 0.002902 0.0
3.993163 1.243896 -0.000747 0.0
0.387130 1.803280 0.001130 0.0
2.167151 1.409034 0.001249 0.0
1.317558 0.763657 0.001810 0.0
4.314791 1.905300 0.000219 0.0
1.467941 2.293599 0.003089 0.0
2.527107 0.412557 0.001331 0.0
4.213560 2.095503 -0.006880 0.0
1.022053 2.299586 0.000552 0.0
2.043418 0.091441 -0.000013 0.0
1.464919 0.560819 -0.000077 0.0
2.917485 0.984080 0.000641 0.0
2.501985 2.277506 -0.005317 0.0
0.880981 0.627280 0.002443 0.0
0.853681 0.108355 -0.002828 0.0
1.046993 1.514595 -0.002594 0.0
2.690965 0.988198 -0.000220 0.0
2.232054 0.682572 0.002091 0.0
2.245686 0.405274 -0.002112 0.0
3.910322 0.976968 -0.004185 0.0
0.152631 0.214847 0.001090 0.0
0.033655 0.555797 0.000427 0.0
3.028268 0.978847 0.004371 0.0
3.724531 0.991198 -0.001075 0.0
0.883131 0.612075 0.000343 0.0
4.452839 1.656977 0.001294 0.0
3.747130 0.755020 -0.001776 0.0
0.818210 2.135632 0.000154 0.0
0.203800 1.511319 -0.003734 0.0
1.306135 0.003888 0.005058 0.0
4.294496 1.203401 0.000118 0.0
2.613121 1.003875 0.002628 0.0
3.330713 0.720369 0.001034 0.0
2.730118 0.694019 -0.000636 0.0
3.704890 1.589325 0.000818 0.0
0.924117 0.772325 0.000413 0.0
0.645915 1.991200 -0.001588 0.0
1.585826 2.257638 0.001063 0.0
3.461277 1.024409 0.000026 0.0
1.175566 1.939897 0.000723 0.0
1.242458 0.802968 -0.000778 0.0
1.157245 2.106615 -0.002347 0.0
0.751240 0.052486 -0.000522 0.0
0.427194 1.710922 -0.000030 0.0
4.547222 2.142212 -0.001121 0.0
3.823378 0.839211 0.000217 0.0
1.310937 1.627672 -0.000497 0.0
4.374561 2.121661 0.002959 0.0
1.185439 0.637521 0.000817 0.0
2.324027 0.507869 -0.002119 0.0
2.765545 0.281487 -0.002374 0.0
2.052846 1.955772 0.001561 0.0
1.997326 1.555105 -0.003277 0.0
2.907335 2.180393 0.001790 0.0
1.399445 0.488278 0.003628 0.0
0.448671 0.525486 -0.002242 0.0
2.784147 1.383120 -0.001489 0.0
4.312679 2.299483 -0.002090 0.0
3.480658 1.896135 -0.003028 0.0
3.381511 0.563234 -0.001537 0.0
2.190618 1.779190 0.000718 0.0
4.264138 1.052869 0.000014 0.0
1.652249 1.774629 -0.000134 0.0
3.801025 0.194890 0.004630 0.0
3.912673 1.092287 0.002805 0.0
3.445967 0.539540 -0.003842 0.0
3.653715 1.261343 -0.001488 0.0
0.595887 0.540171 -0.000105 0.0
3.098699 0.605592 0.000885 0.0
4.012122 0.517104 0.003121 0.0
1.643246 0.376788 -0.000120 0.0
1.189385 0.063285 0.000257 0.0
3.468408 0.010352 -0.001494 0.0
1.988785 1.368736 -0.004408 0.0
3.985689 0.348958 0.001500 0.0
1.027668 1.106966 -0.001691 0.0
1.963976 2.066205 0.000230 0.0
0.482357 2.254702 -0.001912 0.0
2.073158 0.054411 -0.001549 0.0
0.959894 1.371422 -0.001483 0.0
1.266421 1.347975 -0.002376 0.0
4.057571 1.323142 -0.000629 0.0
4.542011 1.661095 0.001295 0.0
4.055073 0.180347 -0.005636 0.0
0.340454 2.136841 -0.001497 0.0
1.997682 1.769046 0.001617 0.0
0.000505 1.016084 -0.002862 0.0
1.333735 1.943239 -0.001325 0.0
1.807746 2.039208 0.000444 0.0
4.205053 2.126360 0.000745 0.0
0.317240 0.895880 -0.001441 0.0
4.047115 1.658911 -0.002524 0.0
2.195784 0.756494 -0.002569 0.0
0.381370 0.966272 -0.000078 0.0
2.011877 1.759024 -0.000657 0.0
3.407108 0.712139 0.000574 0.0
0.129691 1.948895 -0.000943 0.0
2.848287 0.411584 0.000576 0.0
0.499338 0.333654 -0.001952 0.0
2.313113 0.973008 0.001620 0.0
2.726231 0.249100 0.001080 0.0
2.947110 0.340651 -0.003032 0.0
3.141016 1.725717 -0.000474 0.0
2.650125 2.135575 -0.002055 0.0
3.673270 0.936587 0.002638 0.0
0.872703 1.157113 0.000152 0.0
3.936796 0.151516 -0.001029 0.0
4.105451 1.580331 0.000021 0.0
3.134516 0.020942 0.000229 0.0
4.244940 0.147183 -0.002090 0.0
0.262840 2.182392 0.002218 0.0
0.791765 1.858067 -0.003040 0.0
0.726522 0.003067 -0.001372 0.0
0.300083 1.073810 -0.003916 0.0
1.539880 0.828201 0.002433 0.0
2.492075 2.109371 0.000309 0.0
0.192380 0.943166 0.002968 0.0
4.609480 1.470843 -0.000083 0.0
1.455897 0.935862 -0.002396 0.0
4.344946 2.297138 -0.001803 0.0
0.065118 1.400606 -0.003817 0.0
0.018664 1.110229 -0.000163 0.0
1.219458 1.661489 0.003120 0.0
0.791362 2.134019 -0.000755 0.0
2.574012 0.125282 0.003797 0.0
0.877869 0.825722 -0.000211 0.0
1.008943 1.509765 -0.000337 0.0
3.575104 1.767114 0.001470 0.0
2.030450 0.253850 -0.004238 0.0
3.885713 2.199148 -0.000345 0.0
0.051898 2.084195 -0.000647 0.0
2.827734 0.313356 -0.001518 0.0
2.808943 1.843137 -0.001738 0.0
3.252967 0.619818 -0.000774 0.0
0.662423 2.262638 0.001146 0.0
2.629259 0.145102 0.004071 0.0
1.408868 2.170151 0.004231 0.0
0.378894 0.418975 -0.000793 0.0
0.016243 0.608052 -0.000064 0.0
3.978669 1.982271 0.000650 0.0
0.509758 1.521269 -0.000477 0.0
3.186400 0.208540 0.005253 0.0
1.191252 0.065163 -0.001601 0.0
0.804102 1.368558 -0.001986 0.0
2.980359 1.680838 0.005347 0.0
2.142774 1.100087 0.000786 0.0
2.738911 2.112812 -0.002142 0.0
2.882581 0.913004 -0.004219 0.0
2.992014 1.495798 0.000783 0.0
4.516405 1.574864 -0.003935 0.0
0.927997 1.514725 0.003204 0.0
2.992063 0.666543 -0.001731 0.0
3.661915 0.421498 -0.001901 0.0
3.569302 1.875872 -0.001001 0.0
1.158532 0.681402 -0.003380 0.0
3.912566 0.932138 -0.004422 0.0
1.128795 0.739162 0.002423 0.0
4.144617 0.781392 0.001998 0.0
2.358505 1.574463 -0.002624 0.0
0.502990 1.429975 -0.004413 0.0
0.467854 0.236571 -0.003318 0.0
0.571196 0.229589 -0.001571 0.0
2.046282 0.278850 -0.002087 0.0
3.979208 1.333588 -0.002310 0.0
4.375653 0.097748 0.003615 0.0
2.419148 0.015450 -0.004500 0.0
1.020701 0.837962 -0.002553 0.0
0.122528 0.983213 -0.002559 0.0
4.624070 1.201484 -0.001558 0.0
4.386659 0.619783 -0.004002 0.0
1.966530 1.024948 -0.000352 0.0
4.282271 0.657500 0.001460 0.0
3.995403 1.960084 0.000470 0.0
0.475709 0.732635 0.000513 0.0
4.216920 0.437216 -0.003110 0.0
1.864470 1.818116 -0.002172 0.0
3.490868 1.454865 -0.004197 0.0
3.717364 1.435900 -0.001038 0.0
0.487857 0.707172 0.000445 0.0
0.806020 1.335949 0.005314 0.0
2.121400 0.913061 -0.002978 0.0
4.360683 0.652727 0.001791 0.0
0.294882 1.659508 -0.001536 0.0
2.419772 1.283629 -0.000297 0.0
4.581388 2.151444 0.004868 0.0
2.518703 0.564392 -0.003899 0.0
2.025415 1.210541 -0.004083 0.0
3.785261 0.174325 0.000101 0.0
4.145037 0.078447 -0.005419 0.0
3.158017 0.985949 0.000895 0.0
3.688154 1.618714 -0.002671 0.0
2.756302 0.098157 0.003951 0.0
0.694311 0.095155 0.001509 0.0
2.245200 0.957037 0.001314 0.0
1.947083 0.153466 -0.001025 0.0
0.800107 1.623956 0.000265 0.0
2.105230 1.010579 0.001658 0.0
3.472868 1.297682 -0.000115 0.0
2.319545 1.170078 0.005121 0.0
2.269119 1.033420 -0.000183 0.0
3.987093 0.694456 -0.004300 0.0
0.995213 1.371431 0.001139 0.0
3.600112 0.691607 -0.000080 0.0
4.283177 1.309876 -0.002815 0.0
1.049892 1.878014 0.003092 0.0
2.353310 0.117822 -0.001363 0.0
0.316042 0.309450 -0.001663 0.0
2.162486 0.977880 0.001778 0.0
1.710398 1.798524 0.004450 0.0
4.265623 2.007123 -0.001998 0.0
0.354585 1.376709 -0.001064 0.0
1.306051 0.449791 0.005105 0.0
3.340203 1.313546 -0.002664 0.0
0.658901 0.880731 -0.001444 0.0
3.820914 0.900716 0.006076 0.0
1.167060 0.784071 0.001956 0.0
0.458951 1.050894 0.000326 0.0
0.184913 0.406435 -0.005929 0.0
2.866356 0.448081 0.004918 0.0
4.580835 1.410695 -0.000120 0.0
2.353047 1.054901 -0.001738 0.0
0.902896 1.441907 0.002056 0.0
4.613122 0.448467 -0.002872 0.0
1.171795 0.873694 -0.002867 0.0
1.820729 0.080809 0.002542 0.0
1.494008 1.498427 -0.003954 0.0
0.627250 1.844527 0.005632 0.0
0.773364 1.910920 -0.001813 0.0
3.067800 0.017968 -0.000955 0.0
2.304709 0.946374 -0.002027 0.0
4.230019 0.873520 -0.004109 0.0
4.046113 1.093932 0.002083 0.0
2.235504 1.378477 -0.000746 0.0
4.062413 0.717603 -0.000134 0.0
1.715084 2.139576 -0.000933 0.0
0.513583 0.636264 0.001364 0.0
0.446582 0.193375 -0.001476 0.0
0.303875 1.130424 -0.001514 0.0
2.371354 0.784695 0.001652 0.0
0.861542 2.057273 0.000813 0.0
3.607940 0.225711 0.000667 0.0
2.233304 1.706962 -0.003721 0.0
4.613726 1.005614 -0.000807 0.0
1.752514 2.278991 0.003491 0.0
3.441936 2.182378 0.006025 0.0
1.750197 1.822992 0.004000 0.0
3.119763 1.758499 -0.003810 0.0
2.187123 1.633912 -0.001710 0.0
0.775833 1.256352 -0.001642 0.0
1.090071 1.921524 0.006644 0.0
2.823584 0.394524 -0.003214 0.0
0.118377 1.370615 0.001666 0.0
2.742364 0.113858 0.001954 0.0
3.249218 0.688032 0.003525 0.0
2.010357 1.739526 -0.001138 0.0
3.720629 0.615856 -0.001323 0.0
3.473588 1.214401 0.004019 0.0
3.337871 0.780939 0.001224 0.0
1.318972 2.287091 0.001859 0.0
2.986703 1.285591 -0.001355 0.0
1.055794 1.427523 -0.004454 0.0
1.758883 2.300891 0.004578 0.0
1.999638 1.477676 -0.000808 0.0
3.287937 0.918849 0.001012 0.0
2.751599 2.227957 0.002415 0.0
0.028595 0.831648 -0.004523 0.0
1.063251 1.118497 0.000239 0.0
4.616264 2.139007 -0.001900 0.0
3.859097 1.667145 0.000568 0.0
2.241735 2.228437 0.004797 0.0
1.726954 0.984520 -0.003049 0.0
0.564918 0.827520 0.003268 0.0
3.606461 0.586073 0.002708 0.0
3.817889 0.377387 0.000790 0.0
3.525974 0.117878 -0.002025 0.0
3.796570 1.558169 -0.005356 0.0
3.766629 2.258346 0.000641 0.0
2.057868 0.646655 -0.001691 0.0
3.932936 1.689095 -0.002864 0.0
1.492052 1.731928 -0.002113 0.0
0.764983 0.375145 -0.001199 0.0
4.292329 1.310053 0.000575 0.0
0.258816 0.483604 -0.004844 0.0
2.665055 0.818698 -0.005219 0.0
4.270158 0.143761 0.003999 0.0
3.927379 0.793519 0.003747 0.0
2.422487 1.270280 -0.001440 0.0
0.180354 0.952126 -0.001464 0.0
0.025536 0.441500 -0.000431 0.0
3.736469 1.187959 -0.001158 0.0
0.535353 2.055633 0.003182 0.0
4.169327 1.627736 0.000316 0.0
0.343431 0.358333 -0.004081 0.0
1.035220 1.580565 -0.004709 0.0
1.754367 0.296345 -0.001280 0.0
4.615167 0.162952 0.001937 0.0
2.529290 0.627403 -0.001341 0.0
0.021023 1.824079 0.002193 0.0
2.063158 1.688343 -0.000063 0.0
1.078526 1.240280 -0.001558 0.0
4.023012 0.220548 -0.002037 0.0
1.769701 1.043323 -0.000439 0.0
2.212521 2.143462 0.001712 0.0
1.559411 2.161065 0.000616 0.0
3.596485 1.166470 0.002200 0.0
0.382601 1.847146 -0.000826 0.0
3.379258 1.319001 -0.001985 0.0
2.039089 1.161371 -0.001690 0.0
2.474933 1.956398 -0.000743 0.0
0.132782 0.214002 0.002076 0.0
0.133098 2.182598 0.003049 0.0
3.725116 1.564089 0.000085 0.0
1.813326 2.266025 -0.000446 0.0
2.565515 0.895923 0.001065 0.0
1.167742 1.742825 -0.002557 0.0
1.678132 1.914693 0.001068 0.0
2.708518 2.239389 0.001526 0.0
0.918316 1.763557 0.003880 0.0
3.360709 0.058380 -0.002403 0.0
3.517344 0.174102 -0.001021 0.0
1.276085 1.322476 -0.006679 0.0
4.465551 0.039854 0.002056 0.0
0.577368 0.089951 -0.001913 0.0
3.761896 0.198765 0.000837 0.0
3.632069 2.120377 -0.002807 0.0
1.913060 0.518917 0.002809 0.0
3.070092 2.159997 0.001223 0.0
0.853452 0.017723 -0.000256 0.0
1.845317 1.474728 0.000439 0.0
3.966895 0.263158 -0.001570 0.0
3.412208 2.110613 -0.001983 0.0
3.209406 0.183966 -0.000022 0.0
1.325100 1.573092 -0.005449 0.0
1.362194 2.014722 0.002669 0.0
1.473764 1.924679 -0.002190 0.0
3.736946 0.712725 -0.000040 0.0
4.209866 0.135009 0.002929 0.0
3.487221 1.080953 -0.005343 0.0
0.597398 1.013506 -0.000065 0.0
1.414673 1.331430 -0.003866 0.0
4.554196 0.591160 -0.000554 0.0
3.852304 1.371271 -0.001773 0.0
1.998982 0.153463 0.002446 0.0
3.373784 0.725041 0.001435 0.0
3.102299 1.863043 -0.000556 0.0
0.654798 0.822325 0.000768 0.0
3.205856 0.391573 -0.000550 0.0
1.964190 1.470005 -0.003703 0.0
0.646616 1.383048 0.004168 0.0
3.837324 1.310606 0.004010 0.0
2.941562 0.193440 -0.004377 0.0
1.270308 0.292174 -0.000839 0.0
3.959695 0.154620 -0.001812 0.0
2.815859 1.692926 -0.004491 0.0
2.986072 1.226720 -0.001946 0.0
3.657962 1.147601 0.001682 0.0
3.921318 0.703090 0.002364 0.0
3.021315 1.107132 -0.000771 0.0
0.445736 1.268742 0.001842 0.0
2.950168 1.914774 -0.001438 0.0
4.227308 1.830447 0.000890 0.0
0.686087 1.135033 -0.001598 0.0
0.696739 1.411894 -0.001512 0.0
2.796557 1.863580 -0.001435 0.0
2.981665 0.092714 -0.002011 0.0
3.513461 1.983997 0.003933 0.0
4.326193 2.238873 0.002127 0.0
2.045610 0.916204 -0.000376 0.0
4.485766 1.237545 -0.003901 0.0
3.892978 0.575627 -0.005476 0.0
2.193497 0.909061 0.001626 0.0
2.874485 2.254501 0.001269 0.0
1.552872 2.190261 0.000683 0.0
0.232056 0.286484 -0.000546 0.0
3.953961 2.288480 0.005207 0.0
3.793875 2.075739 0.001220 0.0
2.658516 0.929476 -0.002045 0.0
0.380378 2.179060 -0.003990 0.0
3.927625 0.547235 0.001213 0.0
1.068880 2.055235 0.003839 0.0
0.824702 0.253035 0.002400 0.0
2.750743 0.196872 0.001329 0.0
4.569409 1.130199 -0.000342 0.0
1.492936 1.402442 -0.003573 0.0
0.844785 2.012788 0.003041 0.0
2.756110 0.615744 0.002844 0.0
0.820546 0.756733 -0.001535 0.0
4.510466 1.032508 -0.003702 0.0
0.511882 0.551621 -0.001141 0.0
0.683306 0.650855 -0.003066 0.0
0.694135 0.753802 -0.003012 0.0
1.312260 0.551113 -0.004102 0.0
3.905989 0.256732 0.001734 0.0
4.190246 2.267450 -0.001970 0.0
3.486792 0.937430 -0.002538 0.0
2.356617 1.469312 0.000786 0.0
2.632072 0.154408 -0.002154 0.0
3.767222 0.269869 -0.004693 0.0
0.562578 1.285909 -0.003357 0.0
0.611498 0.645410 0.001208 0.0
1.077102 1.422704 -0.002599 0.0
3.699681 1.543986 0.000610 0.0
3.881049 1.304546 0.000094 0.0
2.503740 1.028323 -0.001082 0.0
0.861355 0.457149 -0.002392 0.0
0.978658 1.574737 0.000017 0.0
4.633320 1.065998 -0.005575 0.0
0.686080 2.052434 0.000153 0.0
3.292451 0.028301 -0.003095 0.0
2.497268 0.419705 -0.002507 0.0
3.888022 1.231310 0.000110 0.0
2.421689 0.568753 -0.001369 0.0
4.359301 0.703512 -0.001233 0.0
1.395548 1.829499 -0.000381 0.0
1.251001 0.031821 -0.002390 0.0
3.635384 1.662941 -0.000277 0.0
3.253011 1.411815 0.002151 0.0
0.642747 1.693840 0.000331 0.0
0.054850 1.620814 0.000222 0.0
4.451436 1.524819 -0.002141 0.0
1.990955 2.052176 -0.004623 0.0
4.580966 0.255306 0.001688 0.0
1.902505 1.664467 0.002805 0.0
0.066484 1.057533 0.003850 0.0
0.561304 0.488581 0.001972 0.0
4.507431 0.739966 0.000414 0.0
4.006227 1.672404 -0.003989 0.0
4.160095 1.692840 -0.001567 0.0
2.615077 1.567889 -0.002335 0.0
3.712669 0.636363 -0.001803 0.0
4.620935 0.341226 0.002088 0.0
3.925625 0.751354 0.000112 0.0
2.714354 1.057104 -0.000424 0.0
4.060774 0.899304 0.002599 0.0
2.675292 0.518586 -0.001331 0.0
2.500383 0.507752 -0.000374 0.0
1.374043 0.263951 -0.004351 0.0
3.022439 1.273659 -0.002364 0.0
4.429864 0.688569 0.003296 0.0
2.150028 0.825068 0.004329 0.0
0.029166 1.766610 0.006376 0.0
3.762750 2.005036 -0.001048 0.0
4.487131 0.920641 -0.001230 0.0
2.966907 0.892565 -0.001755 0.0
2.049144 2.049129 0.000799 0.0
4.249264 0.377644 -0.005796 0.0
4.218968 0.831466 -0.002690 0.0
2.557428 1.861911 -0.001919 0.0
3.209753 1.533395 -0.000143 0.0
2.699363 1.550494 -0.001181 0.0
4.056359 0.368803 -0.005626 0.0
3.141374 0.025018 -0.000732 0.0
0.492916 1.228557 0.002208 0.0
3.031189 1.727215 0.000330 0.0
3.757905 2.145492 0.000333 0.0
1.232678 0.479718 -0.002739 0.0
4.609363 0.574923 -0.001909 0.0
3.073432 1.766835 -0.000709 0.0
3.242951 0.901385 0.004038 0.0
1.364417 1.603158 -0.001046 0.0
2.223814 1.917268 0.002518 0.0
1.723098 2.299566 -0.000676 0.0
0.794706 1.756035 -0.000217 0.0
3.178273 1.331279 -0.004199 0.0
2.392485 1.577910 -0.000617 0.0
1.174178 1.668042 -0.002892 0.0
0.372465 1.814923 -0.001251 0.0
1.390331 0.569478 0.000203 0.0
3.589026 0.539701 -0.001192 0.0
2.206611 1.943780 0.000874 0.0
3.055286 1.757585 -0.002673 0.0
0.892155 1.369898 -0.000597 0.0
0.672506 0.012846 0.003191 0.0
1.228970 1.215225 -0.000783 0.0
0.332572 1.406922 -0.000179 0.0
2.148455 0.977024 -0.002443 0.0
2.916809 0.817345 -0.003385 0.0
2.828348 1.838719 0.002216 0.0
4.364919 1.333987 -0.005018 0.0
1.663450 1.965543 0.002365 0.0
2.697617 0.358584 0.004113 0.0
2.411354 0.607761 0.001901 0.0
1.810223 0.234084 -0.001726 0.0
1.332523 1.317796 0.000849 0.0
3.992538 1.632338 -0.000779 0.0
1.632741 0.012162 0.000389 0.0
0.366226 1.148606 -0.004731 0.0
1.216412 1.650115 -0.001616 0.0
3.327722 0.255201 -0.003118 0.0
1.248379 0.896278 0.001144 0.0
2.764827 2.261014 0.000470 0.0
1.206765 0.344153 0.004454 0.0
0.648358 1.584733 0.004388 0.0
1.120176 0.689281 -0.001967 0.0
1.838426 2.237124 0.004616 0.0
3.330005 0.011270 -0.003097 0.0
1.806551 0.770128 -0.003314 0.0
1.675131 2.050271 -0.003024 0.0
1.645932 1.473406 0.004887 0.0
2.215413 1.667945 0.000244 0.0
4.067171 0.141897 -0.000483 0.0
1.320082 2.057109 0.005006 0.0
1.414116 1.411458 0.004304 0.0
1.405779 1.127854 0.004963 0.0
3.136299 1.009372 0.001140 0.0
1.307155 0.520340 -0.000494 0.0
3.522520 1.988680 -0.003191 0.0
3.077073 0.497484 -0.000927 0.0
0.750517 1.063727 0.001118 0.0
0.782077 0.749764 0.000544 0.0
1.791163 0.324275 -0.000809 0.0
3.433371 1.966054 0.002729 0.0
1.818506 0.709231 0.001004 0.0
2.217519 0.083072 0.000512 0.0
1.463230 0.506302 0.002295 0.0
2.789659 1.803565 -0.003562 0.0
0.248941 0.837970 -0.003354 0.0
0.451031 0.966755 -0.001865 0.0
1.520214 0.501005 -0.000390 0.0
3.718636 1.910921 0.002909 0.0
2.795706 1.265274 -0.001982 0.0
4.018779 1.514377 0.003067 0.0
0.004491 2.120480 -0.004102 0.0
3.299035 0.076870 0.000986 0.0
4.409207 1.117085 -0.000203 0.0
4.210119 1.898807 -0.003417 0.0
2.073863 0.482805 -0.000940 0.0
1.608257 2.107701 0.002552 0.0
3.801458 1.453999 -0.002223 0.0
2.098690 0.512266 0.000461 0.0
3.890368 1.805733 0.002378 0.0
1.674384 1.312492 -0.001223 0.0
3.153637 2.177314 -0.002295 0.0
0.968598 1.107558 -0.004216 0.0
1.220801 0.562954 -0.004459 0.0
4.497423 0.553696 0.001759 0.0
0.462490 1.833308 0.001762 0.0
2.566890 1.607072 -0.002544 0.0
3.194999 0.850389 0.002011 0.0
1.931449 1.578411 -0.001174 0.0
2.538581 2.010273 -0.002222 0.0
3.786596 1.713588 0.001385 0.0
4.565659 1.631252 -0.003677 0.0
0.573967 1.565849 -0.000779 0.0
0.555659 0.329307 -0.000601 0.0
3.043833 1.007113 0.003821 0.0
0.318059 0.285720 0.001182 0.0
1.732459 1.749868 0.001206 0.0
4.097586 1.003079 0.003887 0.0
2.235895 0.873567 -0.002295 0.0
1.767668 1.550750 0.002761 0.0
2.590578 2.009579 -0.002826 0.0
2.713931 1.417569 0.002082 0.0
0.495507 0.802676 -0.000619 0.0
1.083290 1.620982 0.000839 0.0
2.568246 1.976761 -0.004419 0.0
3.938354 1.774138 -0.001411 0.0
3.394310 0.829928 -0.002520 0.0
1.840419 1.409810 0.000223 0.0
0.393471 0.157662 -0.002086 0.0
4.036682 0.165358 -0.001807 0.0
2.269311 0.442084 -0.003437 0.0
0.444375 0.140559 -0.002783 0.0
0.019070 0.424900 0.002084 0.0
1.774162 0.139043 -0.004003 0.0
4.423944 0.323983 -0.000369 0.0
1.037874 0.435815 0.001533 0.0
1.680869 1.078319 0.003950 0.0
1.961526 2.231032 -0.000077 0.0
2.764237 1.597767 0.000046 0.0
1.922893 0.864127 0.000037 0.0
1.813192 1.395678 0.004517 0.0
1.728528 0.903341 -0.001476 0.0
1.414278 1.427857 -0.002073 0.0
1.578792 1.591754 -0.001563 0.0
3.861238 1.150034 0.000486 0.0
2.342123 2.088582 0.000651 0.0
1.961763 1.349606 0.001673 0.0
2.639397 2.093793 0.000637 0.0
2.900216 1.621451 -0.005228 0.0
1.971594 1.037307 0.000921 0.0
0.779270 2.076506 0.001887 0.0
3.673756 0.703301 -0.000758 0.0
0.199411 2.154645 -0.001589 0.0
0.143174 1.243412 -0.001403 0.0
4.241012 1.814256 0.001520 0.0
4.577924 0.541562 -0.001701 0.0
3.681106 0.011362 0.001002 0.0
3.569871 1.516793 -0.005998 0.0
3.599880 1.513078 0.001619 0.0
3.047379 1.902279 0.001549 0.0
2.169927 1.383028 0.002884 0.0
4.177109 1.685501 0.001854 0.0
3.096210 0.472906 0.000762 0.0
3.962756 1.431204 -0.003292 0.0
3.557598 1.267567 0.002275 0.0
0.285607 0.559506 0.002986 0.0
1.676455 1.272633 -0.003865 0.0
1.414054 1.485829 0.004224 0.0
0.975359 1.704140 0.002286 0.0
2.946351 2.070097 -0.003744 0.0
0.560169 1.487177 -0.001720 0.0
3.167021 1.012976 -0.003905 0.0
1.289135 0.577480 -0.000725 0.0
4.067036 1.164876 -0.003161 0.0
1.139577 0.013879 -0.002612 0.0
4.356480 0.772220 -0.003553 0.0
3.142106 1.921621 -0.002804 0.0
4.095698 1.783462 0.000957 0.0
2.331196 1.601500 0.001087 0.0
0.477471 2.314254 -0.003888 0.0
1.340912 1.981907 -0.001637 0.0
3.797353 1.668312 0.001513 0.0
3.466381 0.755029 0.000322 0.0
0.348812 1.436742 0.001716 0.0
1.949458 0.851232 -0.006381 0.0
0.619212 1.772781 0.001184 0.0
3.480701 2.220740 -0.000335 0.0
2.062589 0.807079 0.001083 0.0
3.120925 1.614499 0.001205 0.0
2.745037 1.954382 0.002384 0.0
0.014468 1.188275 0.000890 0.0
2.771189 1.947572 -0.002296 0.0
2.904180 2.169988 0.000468 0.0
2.964976 0.728602 0.000197 0.0
3.613223 1.829501 0.000786 0.0
0.686123 0.165646 0.000995 0.0
1.695540 2.045493 0.000217 0.0
1.153727 1.510961 0.005780 0.0
0.253284 0.510739 0.002879 0.0
1.189060 1.655775 -0.002496 0.0
2.542244 0.591552 -0.007454 0.0
4.593679 0.593690 -0.003387 0.0
2.028533 0.539217 -0.003761 0.0
0.634302 1.902475 0.002700 0.0
3.875490 1.185593 0.001746 0.0
0.639727 0.180249 0.001089 0.0
2.731381 0.055687 0.000472 0.0
1.967670 1.340207 -0.001223 0.0
0.080454 0.549333 0.007187 0.0
4.157346 0.368328 -0.002089 0.0
2.893770 1.374517 -0.000368 0.0
3.308127 2.232881 0.002532 0.0
0.346302 2.061254 0.002554 0.0
2.901772 1.530644 0.005464 0.0
4.104699 2.108640 0.001490 0.0
3.960393 0.965841 0.002038 0.0
4.003613 1.591733 0.004511 0.0
2.929144 1.489819 0.000986 0.0
1.556392 1.973317 0.003275 0.0
0.405575 0.134797 0.000312 0.0
0.039114 0.545286 0.000856 0.0
2.686801 0.948660 0.004161 0.0
4.195845 0.201326 0.001558 0.0
4.172042 1.625455 0.000116 0.0
2.572231 1.441031 -0.002252 0.0
0.244936 1.083914 0.001048 0.0
1.879427 1.733697 0.004401 0.0
1.030775 0.334797 -0.003919 0.0
1.646356 1.024644 0.001672 0.0
4.533384 0.840108 0.000632 0.0
3.326740 2.206405 0.000589 0.0
3.832545 0.259090 0.002505 0.0
0.890019 0.991662 -0.003051 0.0
1.231775 0.604149 0.002457 0.0
3.451363 1.333068 -0.000873 0.0
1.667108 0.748892 0.004259 0.0
0.476439 0.781341 -0.006657 0.0
0.514396 1.644370 -0.001598 0.0
3.929642 0.697119 0.002058 0.0
3.840209 1.666139 0.000595 0.0
4.582354 2.217440 0.000805 0.0
2.768929 2.069141 0.002785 0.0
0.232600 1.066717 -0.000796 0.0
3.157127 1.521631 -0.000661 0.0
1.867960 1.980170 0.000343 0.0
1.865709 2.167123 -0.002229 0.0
0.238601 0.903483 -0.001797 0.0
2.976385 1.285490 0.004161 0.0
2.150279 1.079913 -0.000996 0.0
0.011398 1.584183 0.000603 0.0
2.843339 1.755785 0.003001 0.0
2.052829 1.066544 -0.001602 0.0
1.628652 1.865425 -0.001101 0.0
0.027138 0.596873 -0.000587 0.0
0.566892 1.048209 -0.002069 0.0
2.197113 0.668363 0.001864 0.0
2.729906 0.357647 -0.000274 0.0
3.498943 0.844995 -0.003850 0.0
3.318849 0.677040 -0.000814 0.0
4.310243 1.000429 -0.000444 0.0
2.483629 1.387935 0.001882 0.0
2.685274 1.147261 0.000042 0.0
1.271034 0.380481 -0.002934 0.0
3.788600 1.826612 -0.000805 0.0
1.630850 0.272412 -0.002087 0.0
0.068339 1.092849 -0.000689 0.0
1.355090 0.449181 0.001888 0.0
2.690656 0.561401 -0.000086 0.0
2.097887 1.380602 0.002229 0.0
0.578077 0.802908 -0.001050 0.0
4.554571 0.589265 0.000008 0.0
3.226973 1.909131 0.002284 0.0
1.977999 2.297612 0.001134 0.0
0.540421 0.049581 -0.004064 0.0
3.018944 1.799769 -0.002606 0.0
1.653056 0.322624 0.001651 0.0
3.846689 0.598143 0.000539 0.0
0.767913 0.784184 -0.004942 0.0
0.407524 0.774073 0.004653 0.0
0.364223 1.213630 -0.001256 0.0
4.535917 0.116332 -0.002480 0.0
2.152532 0.502412 -0.001634 0.0
3.802455 2.047410 0.000073 0.0
1.711576 0.060873 0.002891 0.0
3.335981 0.256119 -0.003179 0.0
0.465080 0.633964 -0.002670 0.0
0.255853 1.996515 0.001782 0.0
4.386078 1.113778 -0.000267 0.0
1.149788 0.792466 0.005109 0.0
0.767169 0.942614 -0.001253 0.0
2.753901 0.792744 -0.000642 0.0
1.267117 1.646467 -0.002444 0.0
0.672646 0.565937 -0.005063 0.0
1.638608 0.451064 -0.002397 0.0
1.377944 1.754473 -0.001465 0.0
1.397460 1.752500 0.002574 0.0
2.724624 1.044835 0.001137 0.0
3.097074 1.512665 -0.001005 0.0
1.394910 1.250009 0.002098 0.0
4.451402 0.214431 0.001433 0.0
1.236908 0.686407 0.004594 0.0
4.552671 1.938782 -0.001541 0.0
1.898816 2.087584 0.000078 0.0
0.226986 1.224736 -0.000997 0.0
3.281061 1.803360 -0.001403 0.0
3.007927 1.649055 0.000074 0.0
4.568477 0.114353 0.000003 0.0
2.725439 0.982333 0.001145 0.0
2.632553 1.202606 -0.004499 0.0
2.284389 0.647818 -0.000146 0.0
1.256167 0.973207 0.000612 0.0
1.116145 0.673460 0.002423 0.0
2.409727 0.941720 -0.002809 0.0
2.875785 0.829279 0.001631 0.0
2.121523 0.808751 0.001818 0.0
2.587527 1.185577 -0.000374 0.0
0.967407 0.686459 -0.003465 0.0
3.822162 0.765896 -0.001864 0.0
0.973565 1.697307 -0.000370 0.0
3.937721 2.042621 0.003154 0.0
0.058432 1.248975 -0.003439 0.0
3.624208 0.665164 0.002374 0.0
0.811361 2.110374 0.002779 0.0
4.078825 0.183135 -0.000237 0.0
0.783639 0.755025 0.002398 0.0
1.779931 0.953934 0.002450 0.0
1.881602 0.871583 -0.000477 0.0
1.834280 0.352366 0.003166 0.0
3.988544 1.036285 0.002428 0.0
0.964900 0.877931 -0.000686 0.0
1.526287 0.941173 0.000625 0.0
1.505095 1.033865 -0.000163 0.0
2.016546 0.083643 0.002837 0.0
4.331838 1.906508 -0.001665 0.0
0.730846 0.041809 -0.000696 0.0
1.273423 1.973726 0.004547 0.0
0.434697 1.242000 -0.002806 0.0
4.340686 2.053875 0.002552 0.0
2.788319 1.431218 0.004637 0.0
1.145115 1.471938 -0.004034 0.0
0.410347 0.247786 -0.000020 0.0
1.185264 0.632067 -0.000349 0.0
2.671227 1.714664 0.000493 0.0
4.109635 1.584654 0.003734 0.0
3.923171 0.515559 0.001772 0.0
0.799233 0.409912 0.000407 0.0
2.461841 0.399651 0.001828 0.0
3.179479 1.989985 -0.000897 0.0
2.620329 1.801530 0.000711 0.0
3.874366 0.214062 -0.003760 0.0
1.396863 1.770455 -0.000583 0.0
0.721044 1.356407 0.000699 0.0
1.604237 1.213136 -0.000472 0.0
3.874808 1.546224 -0.000404 0.0
2.093103 1.929060 -0.002944 0.0
0.673200 0.198177 0.000353 0.0
4.079095 1.560067 -0.002171 0.0
0.601239 1.479849 -0.000486 0.0
3.620210 1.804749 0.000485 0.0
1.067651 1.497303 -0.004180 0.0
0.654030 1.590440 -0.000859 0.0
4.178926 0.102630 0.001912 0.0
3.929974 1.258210 0.002520 0.0
4.049780 0.518381 0.000580 0.0
3.470164 0.913862 -0.001684 0.0
2.229174 0.021496 0.004368 0.0
0.932553 0.020011 0.002168 0.0
2.283708 1.387127 0.001940 0.0
1.403011 1.343767 0.001753 0.0
2.164571 1.981933 -0.004542 0.0
2.242781 0.133299 0.000749 0.0
0.479067 1.673877 0.003396 0.0
2.639456 1.754929 0.002099 0.0
1.612585 1.874796 0.000613 0.0
4.371437 0.174486 0.000810 0.0
2.075198 1.590636 0.002583 0.0
0.915441 0.732521 0.003161 0.0
1.686616 0.761650 0.002698 0.0
3.592875 0.385220 -0.006139 0.0
1.765735 0.565780 0.001609 0.0
3.163041 0.712175 -0.000544 0.0
0.558110 0.638624 -0.000124 0.0
0.235835 0.267245 -0.000344 0.0
0.885790 2.141708 -0.000062 0.0
2.112133 0.367201 0.001220 0.0
0.183254 1.291297 0.000971 0.0
1.655908 1.885020 -0.000603 0.0
2.342448 0.615459 -0.001437 0.0
0.811549 0.776665 -0.000804 0.0
3.635976 1.437207 0.003872 0.0
2.764691 0.367051 -0.002437 0.0
2.267686 1.924665 0.000358 0.0
1.030900 1.338196 -0.004283 0.0
2.208850 1.759057 0.003815 0.0
2.343674 1.500453 -0.000626 0.0
1.942882 0.615995 0.002236 0.0
2.883321 0.676137 0.001007 0.0
2.908829 0.669432 0.003289 0.0
1.804946 1.090328 0.001769 0.0
4.137173 2.310358 -0.000964 0.0
2.127417 1.827619 -0.003150 0.0
3.887443 0.352298 0.005126 0.0
2.116317 0.249402 0.003047 0.0
0.067036 1.929349 -0.004004 0.0
3.601159 0.251433 0.000042 0.0
0.760549 0.616658 -0.001786 0.0
4.604699 0.451888 0.001852 0.0
4.450254 0.964866 0.000845 0.0
3.961776 0.462372 0.003255 0.0
1.104997 1.127443 -0.003153 0.0
4.552300 2.177834 0.000749 0.0
0.867735 1.597269 -0.001421 0.0
1.930337 1.552203 0.001049 0.0
3.284180 0.062534 -0.000489 0.0
1.141189 1.495904 -0.000570 0.0
3.454937 0.152685 0.002266 0.0
2.773101 1.996355 -0.000536 0.0
4.095981 2.195631 0.003027 0.0
1.558767 0.688860 -0.002961 0.0
2.098114 1.694741 -0.001372 0.0
0.360131 1.356873 0.007032 0.0
0.901953 0.138479 0.000442 0.0
0.235846 0.076565 -0.000766 0.0
0.542298 0.552594 0.001077 0.0
0.833996 1.150557 0.002780 0.0
1.658900 2.199461 -0.002557 0.0
1.869415 0.059948 0.003163 0.0
2.750733 1.715952 0.003954 0.0
3.825328 0.557437 -0.002010 0.0
1.272698 2.308158 -0.000366 0.0
3.534326 1.814136 0.001165 0.0
3.038699 1.142705 -0.000409 0.0
3.513880 1.277228 -0.001325 0.0
0.690951 1.126349 0.002642 0.0
4.393031 0.893218 -0.002757 0.0
4.263862 0.866549 -0.001328 0.0
2.858924 1.937522 0.002643 0.0
1.636717 0.579444 -0.001722 0.0
0.210871 1.291927 -0.000149 0.0
2.313485 0.676298 0.000107 0.0
3.053360 0.921674 -0.006225 0.0
1.735298 0.192346 0.000692 0.0
1.039219 1.896606 -0.000070 0.0
2.656083 1.982057 0.000171 0.0
4.247516 0.149810 -0.002331 0.0
3.459729 1.497696 -0.000901 0.0
0.084190 0.624074 -0.003457 0.0
3.867028 0.344286 0.001119 0.0
3.765920 1.115758 0.001819 0.0
1.327645 1.119238 -0.003640 0.0
2.953794 1.718933 0.001265 0.0
0.836695 1.275970 -0.002211 0.0
2.699113 1.606037 0.001643 0.0
0.338222 2.110352 0.003113 0.0
3.072139 1.013513 -0.002675 0.0
0.031501 0.898212 0.001064 0.0
0.863217 1.616543 0.002254 0.0
2.586671 1.887223 -0.002043 0.0
4.408004 1.537908 0.005218 0.0
3.234792 0.029293 0.000045 0.0
0.174411 1.065509 0.002219 0.0
3.588372 0.457694 -0.001536 0.0
1.373278 0.965341 0.005018 0.0
4.621123 1.707850 0.001714 0.0
4.398287 0.587464 -0.000089 0.0
3.637311 0.149346 0.000651 0.0
4.038731 0.375415 -0.000791 0.0
2.183113 0.271113 0.005637 0.0
1.403307 2.149168 -0.002289 0.0
3.801285 1.769302 -0.003105 0.0
3.833787 1.197407 0.000392 0.0
3.715068 2.312997 0.000908 0.0
0.802367 2.184932 -0.002199 0.0
4.016526 2.103989 -0.000146 0.0
4.230846 1.395028 0.000410 0.0
2.818579 1.289404 0.001344 0.0
3.318535 1.726151 0.004160 0.0
1.182753 0.643013 0.001384 0.0
2.998507 2.210994 -0.002433 0.0
2.416988 1.636881 0.000204 0.0
3.535418 0.921677 0.002152 0.0
1.914748 1.081351 0.001241 0.0
1.249226 1.678085 0.000599 0.0
0.761137 2.062238 0.001819 0.0
3.441177 1.584360 -0.000634 0.0
1.692965 0.765656 -0.000046 0.0
2.880148 0.892555 0.000956 0.0
0.040474 0.419043 -0.001968 0.0
0.873552 1.891596 0.002836 0.0
3.301253 0.334503 -0.002974 0.0
3.794522 0.269186 -0.002463 0.0
2.657279 1.187956 -0.001339 0.0
1.533477 1.411952 0.003282 0.0
1.748305 0.855148 0.000700 0.0
0.649718 0.705843 -0.003605 0.0
3.582787 2.148583 0.000896 0.0
0.932445 0.930804 0.002148 0.0
4.574756 1.177120 0.000339 0.0
4.099916 0.087828 0.002231 0.0
3.666054 1.992576 0.000877 0.0
2.482769 1.503489 0.001965 0.0
2.485013 1.917289 -0.000829 0.0
0.497933 1.299269 -0.005514 0.0
3.361033 1.558297 -0.003058 0.0
1.436847 0.372807 -0.002954 0.0
2.956101 0.131866 0.004855 0.0
3.975414 0.322171 -0.005218 0.0
2.998326 0.298926 0.000506 0.0
0.943087 0.006596 -0.002123 0.0
4.352319 0.123008 0.002545 0.0
2.995488 0.301326 0.000002 0.0
3.194762 1.174075 0.002784 0.0
1.425810 2.152355 0.001193 0.0
3.026874 0.755174 -0.001865 0.0
1.617657 0.349682 0.002115 0.0
0.746479 0.309294 0.000169 0.0
1.579750 0.118290 0.000536 0.0
0.252925 0.481057 0.000255 0.0
1.347359 2.020047 0.000492 0.0
0.713677 0.256509 0.004519 0.0
4.416443 2.253778 0.000634 0.0
0.703073 0.775597 -0.001479 0.0
0.648244 1.493421 0.000148 0.0
1.721459 1.809765 -0.002244 0.0
2.849253 1.418861 -0.000015 0.0
0.372327 1.791168 0.000074 0.0
2.282514 1.627003 0.003416 0.0
2.113931 1.461502 0.001748 0.0
1.950224 0.979223 0.001985 0.0
0.032542 2.106601 -0.000107 0.0
4.072773 1.209284 0.000347 0.0
1.492319 2.229494 0.002682 0.0
3.672017 0.268418 0.001510 0.0
1.410383 0.111443 -0.001665 0.0
4.405324 1.400971 0.003045 0.0
1.930710 0.315687 -0.004570 0.0
3.089084 0.377190 0.003223 0.0
4.249420 1.788169 0.003256 0.0
2.065224 1.068285 0.003304 0.0
2.984009 1.816299 0.001271 0.0
0.513464 1.574328 -0.002842 0.0
4.291224 0.700283 0.001374 0.0
4.137789 1.975503 -0.000112 0.0
4.442392 2.215366 -0.002784 0.0
1.693473 0.296786 -0.001736 0.0
2.005430 0.986645 -0.004463 0.0
1.438745 0.711444 -0.000787 0.0
0.489102 1.603238 0.004042 0.0
0.130269 0.572970 -0.001957 0.0
3.227467 2.024567 0.001881 0.0
4.201953 2.212086 -0.002030 0.0
4.601593 1.947464 -0.001255 0.0
1.976613 0.169707 0.003439 0.0
2.091277 1.087050 -0.001233 0.0
2.684003 2.303062 0.000960 0.0
4.304478 1.810191 -0.001680 0.0
4.252750 1.782771 -0.000947 0.0
0.424716 1.476514 0.001805 0.0
0.585060 1.930723 0.001551 0.0
1.100484 0.966430 0.001403 0.0
3.075079 0.218635 -0.000740 0.0
0.289258 1.821120 0.004069 0.0
3.419438 0.572447 0.003221 0.0
1.085512 1.010080 -0.002740 0.0
4.395848 0.657543 0.003450 0.0
3.017063 1.106601 -0.000666 0.0
0.577013 1.213754 -0.000272 0.0
0.486034 0.700648 0.001282 0.0
2.680311 1.537089 -0.002342 0.0
2.639642 1.958119 0.001846 0.0
1.817154 1.587302 -0.001728 0.0
2.362126 1.488042 0.002591 0.0
3.600971 0.790835 -0.002935 0.0
1.181829 1.278259 0.004064 0.0
2.487299 1.772946 -0.004248 0.0
1.036798 1.109878 -0.000056 0.0
1.117416 1.362123 0.002229 0.0
0.669712 2.026662 0.001207 0.0
0.127055 0.932445 -0.001646 0.0
1.593320 0.004717 -0.002394 0.0
2.644550 2.006956 -0.001441 0.0
3.184091 0.804968 -0.002087 0.0
0.018477 1.239381 0.004720 0.0
2.926570 1.138716 -0.000382 0.0
2.262899 1.100043 -0.003203 0.0
4.357467 0.950249 0.002038 0.0
2.162940 0.231797 -0.000261 0.0
0.585070 1.826746 0.001780 0.0
4.129049 1.915805 -0.004469 0.0
3.459443 1.844174 -0.004677 0.0
4.619067 0.040762 0.000794 0.0
2.429541 0.123623 -0.005315 0.0
2.599166 2.209865 -0.000158 0.0
3.317980 0.855330 -0.000620 0.0
2.975235 0.066667 -0.000369 0.0
3.460577 2.122844 -0.001474 0.0
4.460624 1.060097 -0.001418 0.0
0.965848 0.825828 0.002152 0.0
4.205786 0.078190 0.003874 0.0
2.826645 1.838427 0.002185 0.0
3.541276 0.829715 -0.000944 0.0
1.833416 2.012157 0.002178 0.0
0.938149 2.059236 0.001100 0.0
3.466907 0.417412 -0.002404 0.0
1.146970 1.826977 0.004695 0.0
0.258725 1.447502 0.001260 0.0
0.455257 1.530705 -0.000700 0.0
2.496798 0.143075 0.002938 0.0
0.158867 2.293342 0.000740 0.0
2.113986 0.868264 0.000054 0.0
1.034885 0.608150 -0.003412 0.0
2.674949 0.067624 0.001204 0.0
0.748373 1.972612 -0.000499 0.0
1.284418 0.053235 0.004297 0.0
3.711474 1.903956 0.002688 0.0
2.578929 1.290679 -0.002236 0.0
3.509508 0.345394 0.001414 0.0
2.477997 0.003379 -0.000720 0.0
0.237096 1.135065 0.000478 0.0
1.550304 1.434226 -0.000085 0.0
4.006027 2.089170 -0.001212 0.0
1.657162 1.721670 -0.002064 0.0
1.445183 1.341087 -0.001942 0.0
1.666757 0.813470 -0.001492 0.0
4.423974 2.006560 -0.001171 0.0
2.884006 1.102026 -0.000212 0.0
2.699577 0.794703 -0.001453 0.0
1.031271 0.092470 0.001308 0.0
0.012682 0.512587 -0.003769 0.0
2.742237 1.407229 0.000540 0.0
0.639314 1.599959 -0.001406 0.0
2.653916 0.198875 0.000633 0.0
