1.26272968 1.85555100 -0.00090788 0.00000000
2.50902503 1.45890777 -0.00437565 0.00000000
3.91077574 1.08359892 -0.00429313 0.00000000
0.26808290 1.62355516 -0.00179102 0.00000000
4.46239209 0.48228472 0.00400404 0.00000000
0.75545625 0.21332985 -0.00063466 0.00000000
2.50940042 1.29964851 -0.00055039 0.00000000
4.18566111 1.81929007 0.00031464 0.00000000
3.79861921 0.63329167 -0.00001448 0.00000000
2.76430606 1.93408907 -0.00503749 0.00000000
1.90807327 1.11385645 0.00016617 0.00000000
4.49502196 0.01651614 -0.00051007 0.00000000
2.75047043 0.31782653 0.00183556 0.00000000
2.85962298 0.56082092 0.00100277 0.00000000
3.12132186 0.21759808 0.00271525 0.00000000
0.03683600 1.30798304 -0.00197190 0.00000000
2.61480763 0.66124105 -0.00318538 0.00000000
0.26438133 0.54334444 -0.00363293 0.00000000
2.65337376 0.72547019 -0.00261600 0.00000000
0.16997977 1.06729001 -0.00010454 0.00000000
1.54397184 1.76590210 -0.00371090 0.00000000
0.93140698 1.84010439 -0.00028844 0.00000000
1.18486071 1.66970770 -0.00072297 0.00000000
4.13361907 0.48655271 -0.00215652 0.00000000
1.66522754 0.79599257 0.00007246 0.00000000
3.17416760 1.01877713 -0.00189700 0.00000000
3.03380724 1.72974896 -0.00023754 0.00000000
0.34781850 0.12768813 0.00071181 0.00000000
0.61818626 1.71490705 -0.00005193 0.00000000
0.31668211 1.79187542 0.00204231 0.00000000
0.96976468 0.36983645 -0.00045782 0.00000000
0.52953568 0.97880693 0.00187106 0.00000000
3.36627602 0.22013627 0.00200498 0.00000000
1.81845804 1.22780462 -0.00534098 0.00000000
1.31748062 0.64492056 -0.00110929 0.00000000
1.07648936 1.62727962 -0.00312602 0.00000000
4.33421111 0.68886140 -0.00108298 0.00000000
1.45300754 1.42843366 0.00052075 0.00000000
2.25708975 1.29395924 -0.00099086 0.00000000
3.84319320 0.12981325 -0.00521510 0.00000000
1.08887100 0.62843370 -0.00436213 0.00000000
2.43610052 1.60267453 0.00141391 0.00000000
0.03819780 1.50895147 -0.00058925 0.00000000
3.91510979 0.46105961 -0.00380887 0.00000000
1.40095191 1.68339792 0.00316048 0.00000000
2.72715765 0.66959863 -0.00198719 0.00000000
1.83288270 0.58295732 -0.00101016 0.00000000
0.69629375 1.26310632 0.00015637 0.00000000
1.56557292 1.82791533 -0.00476994 0.00000000
1.27368488 0.63448158 -0.00469980 0.00000000
1.38244553 0.89037219 0.00174271 0.00000000
0.56596684 1.53927445 0.00314509 0.00000000
3.40533956 1.52229006 -0.00265088 0.00000000
3.59026660 0.67901125 0.00029138 0.00000000
0.95584809 0.73970767 0.00228114 0.00000000
2.38360581 1.71167735 0.00104650 0.00000000
3.06238460 0.50189257 -0.00265651 0.00000000
2.87382879 1.06268280 0.00328866 0.00000000
4.24809500 1.77130315 0.00024065 0.00000000
2.47142413 0.88667507 -0.00038263 0.00000000
0.84647922 1.10916363 0.00293513 0.00000000
3.59568760 1.58107815 0.00271745 0.00000000
3.47832712 1.30875703 -0.00143755 0.00000000
3.03119225 1.33765171 -0.00002908 0.00000000
2.02159078 0.88771905 -0.00245142 0.00000000
2.89342324 1.64171948 -0.00300503 0.00000000
3.93800486 0.38962930 0.00011963 0.00000000
1.78292231 1.19396455 -0.00097017 0.00000000
0.55921582 0.37948755 -0.00263105 0.00000000
3.47500599 1.85771838 0.00292180 0.00000000
3.00869646 0.20724066 0.00434523 0.00000000
0.10499315 0.83389670 0.00648322 0.00000000
3.76863084 0.51882619 0.00033705 0.00000000
4.52959563 1.29044029 -0.00548495 0.00000000
3.07667629 1.71328620 -0.00338376 0.00000000
3.46558603 0.06497469 0.00435975 0.00000000
3.76583222 0.67484308 -0.00072530 0.00000000
2.27214717 1.01551919 0.00056133 0.00000000
3.73650443 0.97102978 0.00105841 0.00000000
4.00132968 0.21553545 0.00264497 0.00000000
0.74156252 1.57328823 -0.00628288 0.00000000
3.04769572 1.68186425 0.00329163 0.00000000
0.33789425 0.10946212 0.00557057 0.00000000
0.06531823 0.81082831 -0.00354425 0.00000000
3.76662214 1.64569898 0.00037729 0.00000000
0.76512620 0.77938096 -0.00168992 0.00000000
1.99781217 0.56143180 -0.00158715 0.00000000
2.95535292 0.30656276 0.00199482 0.00000000
2.32827002 1.18310434 0.00033859 0.00000000
2.34763383 0.27668703 -0.00023887 0.00000000
2.51203412 0.47775134 -0.00301585 0.00000000
0.54735027 1.93923400 -0.00417027 0.00000000
3.62295300 0.55796016 -0.00166341 0.00000000
2.91693256 0.54670159 -0.00178925 0.00000000
2.61189242 1.79931725 -0.00153339 0.00000000
1.40990687 1.02504580 -0.00117011 0.00000000
4.52895674 0.82698382 -0.00317490 0.00000000
2.76097367 0.38792283 -0.00142658 0.00000000
1.84418756 1.66018785 0.00119550 0.00000000
3.26037332 1.63938839 -0.00592295 0.00000000
1.83089462 0.25059057 0.00115540 0.00000000
2.41491961 1.89161115 -0.00415879 0.00000000
3.12117440 1.90237211 0.00182530 0.00000000
4.08218034 1.33482265 -0.00212828 0.00000000
2.26829415 1.66094733 -0.00010271 0.00000000
0.95041242 1.37370565 -0.00221854 0.00000000
2.05156289 1.00905369 0.00092359 0.00000000
4.01873456 0.77354355 -0.00181263 0.00000000
3.24142691 0.70459380 0.00339408 0.00000000
2.14419098 0.01027013 0.00032360 0.00000000
2.52827755 1.54307643 -0.00041963 0.00000000
0.71805540 1.40904395 -0.00025372 0.00000000
2.49102471 0.09162552 -0.00005406 0.00000000
3.86847617 1.71292506 -0.00635329 0.00000000
3.96098601 0.57145824 -0.00303955 0.00000000
0.73834060 1.26750826 0.00036545 0.00000000
1.14109803 1.17546926 0.00218334 0.00000000
1.55420384 0.76296427 0.00335065 0.00000000
0.59779146 1.73892725 -0.00064431 0.00000000
1.21108603 0.56317507 -0.00086983 0.00000000
3.78362968 1.21422387 0.00056685 0.00000000
2.98235745 1.41168127 0.00039802 0.00000000
0.79022746 0.81664694 0.00344020 0.00000000
1.82494918 0.84208708 0.00538592 0.00000000
2.24020270 1.39788860 -0.00019198 0.00000000
4.07946588 1.33463796 -0.00490800 0.00000000
2.12013819 1.19115506 0.00067203 0.00000000
3.97631337 1.90681323 0.00118863 0.00000000
4.56723962 1.03319968 0.00265865 0.00000000
4.07681232 0.24897897 0.00121820 0.00000000
4.21211788 0.19210312 -0.00028802 0.00000000
1.61119228 1.43335896 0.00375823 0.00000000
0.97353780 1.60435224 0.00285961 0.00000000
2.60571277 0.72129617 -0.00112744 0.00000000
2.36522465 1.80931798 -0.00203805 0.00000000
3.80686249 0.83852050 0.00465109 0.00000000
0.91754382 0.27348892 -0.00152017 0.00000000
0.49642126 0.95317842 0.00142817 0.00000000
1.50401094 0.98455904 -0.00007538 0.00000000
1.57688543 1.58814059 -0.00265010 0.00000000
3.23702682 0.67335850 -0.00283777 0.00000000
2.10970077 0.69612930 -0.00133033 0.00000000
1.70695027 1.44481959 -0.00187924 0.00000000
3.67064281 0.34097233 0.00367893 0.00000000
1.35080635 1.11336563 0.00164606 0.00000000
1.43719098 1.27029674 -0.00424242 0.00000000
0.78797273 0.69029128 0.00013934 0.00000000
0.61914843 0.09891633 0.00439532 0.00000000
4.37782577 1.13407099 0.00566878 0.00000000
1.76865073 0.34508263 -0.00370317 0.00000000
0.61265392 1.30784726 -0.00322941 0.00000000
2.75401696 1.56825335 0.00204869 0.00000000
1.23135047 0.39080669 -0.00154721 0.00000000
2.79962976 1.89675999 -0.00246890 0.00000000
3.96784195 0.98394576 -0.00142750 0.00000000
1.42644787 0.90034311 0.00053459 0.00000000
1.19441319 1.95098805 -0.00084828 0.00000000
3.96854407 0.64880222 -0.00073449 0.00000000
0.70520614 1.13469901 -0.00109205 0.00000000
4.16965314 0.20322246 -0.00241140 0.00000000
2.47125228 0.42860852 0.00089008 0.00000000
4.18963529 0.48335134 0.00153986 0.00000000
3.96996071 1.92579716 0.00329593 0.00000000
2.21882163 1.45244331 -0.00416887 0.00000000
3.68101871 0.75874100 0.00150100 0.00000000
4.20739940 0.04316906 0.00185918 0.00000000
2.20845564 0.36276098 -0.00233395 0.00000000
0.20420638 0.25471175 0.00113134 0.00000000
3.20935117 1.18199848 0.00139575 0.00000000
1.26901503 0.93346476 -0.00126254 0.00000000
2.40259401 0.88363484 0.00341729 0.00000000
2.96808823 0.41809905 0.00091019 0.00000000
1.75063973 1.49933622 0.00319430 0.00000000
0.53935198 0.12614310 0.00302441 0.00000000
4.41391178 1.65143826 -0.00378740 0.00000000
0.47256976 0.30654103 -0.00187798 0.00000000
0.53762374 0.60708907 -0.00325896 0.00000000
3.24909494 1.18784799 -0.00225550 0.00000000
3.66818655 0.88991051 0.00064708 0.00000000
0.05572162 1.68262358 -0.00001423 0.00000000
0.15746385 0.02440174 0.00068488 0.00000000
0.74866845 1.48547546 0.00388942 0.00000000
4.00727975 1.47782577 -0.00147655 0.00000000
0.56829865 0.46067088 -0.00327862 0.00000000
2.79322675 1.47976786 -0.00053785 0.00000000
0.95324454 1.81751305 0.00254970 0.00000000
0.07652961 1.87798758 -0.00300530 0.00000000
4.29336287 0.84820079 -0.00299460 0.00000000
1.79990963 0.71964939 -0.00032305 0.00000000
2.47931639 0.44300306 -0.00355308 0.00000000
0.29231248 1.70208864 0.00046959 0.00000000
2.35525809 0.12726284 0.00003611 0.00000000
4.55428713 0.21257669 0.00350429 0.00000000
4.56550843 0.55069462 -0.00107359 0.00000000
4.18705917 1.78315010 0.00322450 0.00000000
2.22294200 1.49038118 0.00267956 0.00000000
2.42521449 1.56737212 0.00179888 0.00000000
0.76886728 1.49733324 0.00245110 0.00000000
1.75458589 1.49960559 0.00020634 0.00000000
0.06236224 1.46061809 0.00682276 0.00000000
0.43020600 0.93116753 0.00342132 0.00000000
1.26833950 0.66047055 -0.00003375 0.00000000
4.05841403 1.82544936 -0.00232947 0.00000000
2.61816162 1.27270705 0.00374422 0.00000000
3.68389473 0.54923044 0.00384811 0.00000000
0.46032350 1.11977706 -0.00373562 0.00000000
0.29696920 0.98209231 -0.00384488 0.00000000
0.04451892 1.75018473 0.00047750 0.00000000
1.77192871 0.34033501 0.00114433 0.00000000
1.97942931 0.20551324 0.00258189 0.00000000
3.79957761 0.13193234 0.00151044 0.00000000
1.19011321 1.94640101 -0.00216086 0.00000000
0.34872374 0.63984017 -0.00050617 0.00000000
2.42207933 0.75971755 0.00180382 0.00000000
0.64422814 1.69446004 0.00006831 0.00000000
4.27553327 0.51205635 0.00356347 0.00000000
3.40939363 1.82140441 0.00410872 0.00000000
3.22227288 0.35879216 -0.00003035 0.00000000
2.61630396 0.03376229 0.00084432 0.00000000
3.95195250 0.51138169 0.00209332 0.00000000
4.58427167 0.26353821 -0.00182629 0.00000000
4.33033366 0.64197947 -0.00294875 0.00000000
1.25303866 0.24282565 0.00145717 0.00000000
2.88303818 1.69344813 -0.00339787 0.00000000
4.17559867 0.29453790 -0.00323570 0.00000000
4.00166261 0.27246227 0.00022702 0.00000000
0.88568118 0.07450660 0.00197480 0.00000000
0.30184983 0.17763111 0.00044859 0.00000000
0.52268594 0.51281305 0.00168823 0.00000000
0.11327639 1.58353323 0.00386988 0.00000000
3.81801959 0.46256262 -0.00148461 0.00000000
3.43108737 1.72832638 -0.00131242 0.00000000
0.24180180 0.25396633 0.00100407 0.00000000
3.43702058 1.62500887 -0.00016194 0.00000000
2.60647501 0.34749256 0.00052415 0.00000000
2.63103225 0.05839891 -0.00060732 0.00000000
0.33587139 0.32014211 0.00060891 0.00000000
1.80486220 1.01955449 -0.00132047 0.00000000
1.72872144 1.04689388 -0.00235937 0.00000000
0.15345539 1.05768877 0.00267456 0.00000000
3.16583877 1.36540067 0.00214445 0.00000000
0.45515902 1.22327236 -0.00193673 0.00000000
1.06930565 1.15949899 0.00132234 0.00000000
3.40207832 1.77388743 0.00050148 0.00000000
3.38543009 0.84377129 0.00165286 0.00000000
0.32725767 0.19938230 -0.00243508 0.00000000
2.08331198 0.31607965 -0.00117074 0.00000000
4.57804411 1.81097625 -0.00115044 0.00000000
1.18801462 0.85854562 -0.00066985 0.00000000
0.94582491 0.63883337 0.00672798 0.00000000
2.78569396 1.61709517 0.00116450 0.00000000
2.48874051 0.62095471 0.00103067 0.00000000
2.93659106 1.26739631 0.00098509 0.00000000
2.77671451 1.57582040 0.00049961 0.00000000
2.60807530 0.72922117 0.00059502 0.00000000
2.01625495 0.97245448 -0.00216156 0.00000000
0.46792650 1.89658108 0.00495435 0.00000000
0.17315453 0.33256482 -0.00012064 0.00000000
1.32908342 0.07163902 -0.00427076 0.00000000
2.59920124 1.75819241 -0.00026880 0.00000000
3.09480853 0.63391203 0.00059707 0.00000000
0.81998864 0.41786313 -0.00131171 0.00000000
2.21972327 1.42891558 -0.00353033 0.00000000
2.19836425 0.38926935 -0.00118866 0.00000000
4.01565367 1.85833419 -0.00395464 0.00000000
0.94112526 0.59593449 0.00337274 0.00000000
4.29277583 0.86607588 -0.00206000 0.00000000
3.34660890 1.47482363 0.00176135 0.00000000
3.22231790 0.99135879 -0.00388160 0.00000000
3.31911910 0.97497266 -0.00234076 0.00000000
4.46340811 1.77232128 0.00345608 0.00000000
1.20979943 0.62952924 0.00204437 0.00000000
2.87212737 0.19684183 -0.00328002 0.00000000
3.52258400 0.32003090 -0.00251563 0.00000000
1.67030031 0.94482814 0.00149524 0.00000000
2.67335823 1.75617194 0.00026533 0.00000000
2.22214253 1.92715429 -0.00074970 0.00000000
0.35680661 0.46388208 0.00211252 0.00000000
1.85771550 0.26229079 0.00138695 0.00000000
2.85200693 0.56533815 -0.00388457 0.00000000
2.16754593 1.15278348 0.00173357 0.00000000
4.25061059 0.60867467 0.00063360 0.00000000
3.00224227 1.74819536 -0.00179560 0.00000000
3.30937092 0.78904128 0.00118951 0.00000000
0.30965876 0.62607623 -0.00055008 0.00000000
4.39844905 0.54768711 0.00275686 0.00000000
0.25809437 1.70327919 0.00207324 0.00000000
1.86446856 1.27837023 -0.00350549 0.00000000
2.25733314 1.65182674 0.00238408 0.00000000
2.70127300 1.33250977 0.00332007 0.00000000
1.47291838 0.52597705 0.00109145 0.00000000
0.32343717 0.52679728 -0.00019942 0.00000000
2.81361166 0.10233552 -0.00433482 0.00000000
4.21186120 1.12352020 0.00352503 0.00000000
0.24700929 0.79608978 0.00049528 0.00000000
2.52469477 0.19986746 -0.00323583 0.00000000
1.00414690 1.63390633 0.00122571 0.00000000
2.87654724 0.77325774 0.00484135 0.00000000
1.86423732 1.23166873 0.00317623 0.00000000
3.88595875 1.30765003 0.00042015 0.00000000
2.20085141 0.86047767 -0.00281677 0.00000000
3.19271522 0.24631918 -0.00395826 0.00000000
1.60395524 1.95435298 -0.00539848 0.00000000
0.98871517 1.17314319 -0.00210833 0.00000000
3.99606059 0.54076482 0.00314207 0.00000000
1.58272178 1.09267723 0.00250790 0.00000000
1.20972087 0.73190775 -0.00239203 0.00000000
2.77956569 0.63076782 -0.00060649 0.00000000
1.23279010 1.20951014 0.00186312 0.00000000
3.25588283 1.45339877 0.00103824 0.00000000
1.28995603 1.61187371 -0.00718481 0.00000000
3.46847385 0.70493559 0.00452969 0.00000000
1.81754305 1.61180266 0.00430840 0.00000000
1.87107365 0.77014641 -0.00337567 0.00000000
2.63128038 0.23563844 0.00055584 0.00000000
4.42062583 0.79779734 0.00040390 0.00000000
3.29044302 1.93877612 -0.00184314 0.00000000
2.22832481 1.50722576 -0.00081881 0.00000000
1.24068552 0.71198355 0.00079116 0.00000000
2.60427375 1.13255981 0.00358383 0.00000000
3.71059350 1.90012894 -0.00296045 0.00000000
1.61362265 0.64482119 -0.00098497 0.00000000
1.87469500 1.52465846 0.00303958 0.00000000
1.64845037 0.51435430 -0.00132060 0.00000000
0.33669950 0.72825702 0.00221507 0.00000000
3.39417774 1.58299824 -0.00122427 0.00000000
0.85447516 0.07859012 0.00176436 0.00000000
1.65451996 0.38293388 0.00259600 0.00000000
2.35739577 0.31268208 0.00089337 0.00000000
1.77162833 1.42512005 0.00183875 0.00000000
2.21458796 0.76078652 -0.00257576 0.00000000
0.30707955 0.27698079 -0.00200447 0.00000000
0.71187759 1.10041178 -0.00109621 0.00000000
1.16589004 1.37565011 0.00267066 0.00000000
2.73073272 0.18146032 -0.00048269 0.00000000
3.31821567 1.24050116 0.00207099 0.00000000
0.52770747 1.87279376 0.00437849 0.00000000
0.92118647 0.31659854 0.00178890 0.00000000
2.15147906 1.36639698 0.00383890 0.00000000
2.21440637 0.96304479 -0.00303868 0.00000000
0.58023686 0.02022808 0.00133940 0.00000000
2.96310265 1.74833668 -0.00089024 0.00000000
2.90800616 0.73844284 0.00170343 0.00000000
0.47708150 0.16692152 0.00012979 0.00000000
3.91101453 0.69418345 0.00023816 0.00000000
3.94906900 0.26279442 -0.00114162 0.00000000
0.56826043 0.15690182 0.00070199 0.00000000
4.37532219 1.71362654 0.00271018 0.00000000
1.79796543 1.46574303 0.00279925 0.00000000
3.75145129 0.52901050 0.00602648 0.00000000
3.50076509 0.10744434 -0.00154779 0.00000000
4.09404766 1.09766272 0.00398079 0.00000000
0.99923091 0.70175345 -0.00235620 0.00000000
3.21245629 1.01328708 -0.00202256 0.00000000
3.00913603 0.09021882 -0.00105440 0.00000000
0.13600243 0.89438538 -0.00023504 0.00000000
3.34809298 0.22701553 -0.00017842 0.00000000
2.65651659 0.82172126 -0.00046562 0.00000000
3.78319048 0.09845230 -0.00378308 0.00000000
1.28814848 0.82262706 0.00119033 0.00000000
3.22425797 0.62620870 0.00097724 0.00000000
4.03820990 1.25164644 -0.00058230 0.00000000
3.31906229 1.48631411 -0.00129596 0.00000000
1.80060844 1.50494604 0.00129900 0.00000000
1.25901607 1.56948032 -0.00160236 0.00000000
1.25107506 1.42630056 0.00221941 0.00000000
3.02848730 0.34865553 0.00162149 0.00000000
0.05211156 1.08860580 -0.00587077 0.00000000
0.37434033 0.61219830 -0.00059256 0.00000000
0.74272805 0.67069970 -0.00074527 0.00000000
4.49058905 0.99875532 -0.00267372 0.00000000
1.45811431 0.43685270 -0.00466912 0.00000000
3.18886314 0.56826763 0.00019939 0.00000000
0.74751060 1.06440052 0.00226625 0.00000000
1.01232508 0.39070266 -0.00029492 0.00000000
0.43392136 0.17440978 -0.00052675 0.00000000
3.16787495 1.64822179 0.00213325 0.00000000
3.34929778 1.50472038 -0.00310649 0.00000000
0.43494460 0.70109644 -0.00128866 0.00000000
4.27150699 1.61604910 0.00279690 0.00000000
3.86081315 0.98768853 -0.00471333 0.00000000
4.41434397 1.10202083 -0.00208155 0.00000000
3.32312879 0.07934356 -0.00335905 0.00000000
4.24024557 1.15328390 0.00118518 0.00000000
1.14155634 1.61299140 0.00339878 0.00000000
2.97281726 0.89143224 -0.00367493 0.00000000
1.06159410 0.66059682 -0.00364122 0.00000000
4.29820971 0.84579605 0.00137587 0.00000000
1.06188637 1.27427798 0.00191834 0.00000000
3.90238303 1.45130680 0.00398814 0.00000000
4.36922806 1.34928710 -0.00112218 0.00000000
0.93335893 1.67727442 0.00156369 0.00000000
1.67012473 1.72726887 -0.00314708 0.00000000
3.87337271 0.35952903 0.00511581 0.00000000
0.04486335 0.71261119 -0.00059145 0.00000000
4.29083088 1.62100392 0.00114087 0.00000000
1.23707933 1.51055320 -0.00014413 0.00000000
4.33400015 0.18657228 0.00226795 0.00000000
2.31165222 0.95204198 0.00312957 0.00000000
3.63649782 0.48448640 -0.00001779 0.00000000
2.41383320 0.38788928 0.00162771 0.00000000
3.23188898 1.70194320 0.00231222 0.00000000
3.64875340 1.55104170 0.00565759 0.00000000
0.84703713 1.42599729 0.00067902 0.00000000
2.64710707 0.58009818 -0.00331610 0.00000000
0.77178171 0.68091281 0.00141101 0.00000000
1.28890931 0.81528255 -0.00101493 0.00000000
4.35270613 0.46020017 0.00223768 0.00000000
2.27542425 1.38360849 0.00034296 0.00000000
4.47996189 0.54845086 -0.00143500 0.00000000
0.08895151 1.29578937 -0.00257875 0.00000000
0.75912014 0.83930346 -0.00050426 0.00000000
0.61714422 0.97000306 0.00253168 0.00000000
1.65664131 0.29059801 -0.00295836 0.00000000
0.56073235 1.55233849 -0.00217386 0.00000000
0.39833138 0.49219201 0.00466258 0.00000000
3.83516082 0.61499438 -0.00441060 0.00000000
3.60786656 0.50616648 0.00165977 0.00000000
1.95756931 0.96107157 -0.00353600 0.00000000
0.81132002 0.05976337 -0.00199155 0.00000000
0.46719264 1.74611779 -0.00073457 0.00000000
1.05919415 1.08666283 0.00187794 0.00000000
1.50901638 0.88099514 -0.00425950 0.00000000
0.22502144 0.77833669 -0.00128896 0.00000000
4.43310286 0.22654056 0.00459839 0.00000000
3.63327584 0.02847022 -0.00082694 0.00000000
3.48827785 1.93851315 0.00243313 0.00000000
4.24437905 1.64653749 0.00136101 0.00000000
3.77686107 1.21505747 -0.00065800 0.00000000
4.42959188 0.93338442 0.00024834 0.00000000
2.62387036 0.19445618 -0.00309363 0.00000000
1.43709897 0.52629367 0.00304556 0.00000000
1.50578148 1.65633807 -0.00120457 0.00000000
2.34234793 0.55139967 -0.00354404 0.00000000
0.23833782 1.88943189 -0.00277572 0.00000000
4.40913867 0.16972273 0.00273920 0.00000000
4.36364711 0.07182823 0.00053540 0.00000000
3.37295686 0.78857214 -0.00027372 0.00000000
4.12146419 0.61498549 0.00087861 0.00000000
4.41118878 1.01756916 0.00187856 0.00000000
1.56402449 1.42349735 -0.00209389 0.00000000
3.84740320 0.33856170 -0.00144980 0.00000000
4.47635426 0.69381597 0.00048643 0.00000000
1.83201062 0.12537707 0.00064091 0.00000000
4.42494581 0.83002149 -0.00054190 0.00000000
1.73541183 0.02152919 0.00029713 0.00000000
1.90208885 1.51959604 0.00064896 0.00000000
2.84033648 0.00752226 -0.00175072 0.00000000
0.72639297 1.35208039 -0.00235243 0.00000000
0.60526943 1.58799928 0.00370349 0.00000000
0.40429243 0.93391957 -0.00168102 0.00000000
3.35075289 0.94978519 -0.00322579 0.00000000
2.92592862 1.86598841 0.00930931 0.00000000
4.47100455 0.03690157 -0.00247155 0.00000000
4.52045777 0.82139648 -0.00000169 0.00000000
1.28563035 1.71300716 0.00053882 0.00000000
1.17667862 0.85215372 -0.00061601 0.00000000
1.02839475 0.90084574 -0.00405652 0.00000000
2.61525896 0.75242923 -0.00123345 0.00000000
2.01035842 1.59712292 0.00310286 0.00000000
1.60736014 1.52040728 0.00077616 0.00000000
1.97712571 0.30118848 -0.00317738 0.00000000
3.28973202 1.09038513 0.00158213 0.00000000
1.23014628 1.26942005 0.00275699 0.00000000
3.64939659 0.84551675 -0.00183065 0.00000000
1.25420459 0.60654342 -0.00173699 0.00000000
3.26181614 0.84170978 0.00020881 0.00000000
0.78558588 1.23822365 0.00156452 0.00000000
3.56295574 1.00420835 0.00343958 0.00000000
2.24306391 0.83542121 -0.00142241 0.00000000
2.39468094 0.48558632 -0.00178578 0.00000000
3.06362011 1.24207475 -0.00619620 0.00000000
1.03450804 0.07266844 0.00146568 0.00000000
3.01343774 1.77676602 0.00405089 0.00000000
0.13790877 0.59891902 0.00184424 0.00000000
2.68473348 0.41729301 -0.00022548 0.00000000
2.94013584 1.31074472 0.00555343 0.00000000
3.98864644 0.26091699 0.00111065 0.00000000
2.25668594 0.87143154 0.00182831 0.00000000
3.18622914 0.61888071 0.00494987 0.00000000
0.07423033 0.43535794 -0.00054430 0.00000000
0.52731663 0.26399480 0.00004228 0.00000000
1.07859655 1.83866021 0.00165623 0.00000000
2.84221164 1.20869030 0.00277415 0.00000000
2.71616555 1.34312834 0.00225975 0.00000000
3.29930654 0.73925640 -0.00229066 0.00000000
3.34872061 0.43048328 -0.00037196 0.00000000
2.22466181 1.37354989 -0.00208172 0.00000000
1.86592399 1.39078657 0.00081973 0.00000000
3.60525328 0.57966410 0.00153817 0.00000000
0.96481627 0.83324703 0.00203552 0.00000000
0.24310999 1.01179798 -0.00552806 0.00000000
1.21350831 1.92702972 -0.00169193 0.00000000
1.96801347 0.22143864 0.00040445 0.00000000
0.36476179 0.30742691 0.00137112 0.00000000
0.47835641 0.03716411 0.00202041 0.00000000
3.57334958 1.01000514 -0.00185542 0.00000000
2.95848102 0.85629208 -0.00139756 0.00000000
0.46589959 0.38360093 0.00112118 0.00000000
4.49313236 1.30273445 -0.00290450 0.00000000
0.53033059 0.36054324 0.00095393 0.00000000
3.00447014 0.82768165 -0.00012014 0.00000000
3.82035252 1.15827815 0.00044631 0.00000000
2.18976401 0.30933729 0.00034030 0.00000000
4.51286509 0.25883389 -0.00069074 0.00000000
1.82578074 0.32032541 -0.00282684 0.00000000
0.27839665 0.60790323 0.00241506 0.00000000
2.11618404 0.70572761 -0.00158376 0.00000000
0.28062562 0.04282409 -0.00001156 0.00000000
3.17399426 1.79890397 -0.00052081 0.00000000
3.80821760 1.47804247 0.00060210 0.00000000
1.36553241 0.98818311 -0.00363312 0.00000000
2.45434024 0.03644072 -0.00047736 0.00000000
0.61010140 0.97588343 0.00049277 0.00000000
1.14382104 0.83099840 0.00387886 0.00000000
1.53912088 0.25181872 -0.00070976 0.00000000
4.32732927 0.02598827 -0.00495972 0.00000000
2.54018711 0.34458309 0.00015314 0.00000000
3.27346125 0.15424556 -0.00311589 0.00000000
3.37006237 1.49821708 -0.00043180 0.00000000
3.02782772 1.85742784 -0.00128720 0.00000000
2.18307723 1.96000689 0.00387643 0.00000000
2.68644969 0.11594964 -0.00134198 0.00000000
1.36237949 1.77476245 -0.00067062 0.00000000
4.41643906 1.41497800 0.00419404 0.00000000
0.01365503 1.84859657 0.00082857 0.00000000
0.00475955 1.49292256 -0.00258231 0.00000000
1.77668942 1.48229127 -0.00162833 0.00000000
0.38608082 0.35371142 -0.00005740 0.00000000
4.09613591 1.53560500 -0.00120394 0.00000000
1.41843567 1.32170644 0.00197389 0.00000000
0.87592116 0.41605922 -0.00014030 0.00000000
4.51407952 0.09226183 0.00215922 0.00000000
2.54251696 1.93679561 -0.00172847 0.00000000
4.00325667 0.71555098 -0.00188694 0.00000000
1.29394165 1.19426613 -0.00120410 0.00000000
3.95308717 1.94859365 -0.00000459 0.00000000
3.71529303 0.50255581 0.00384427 0.00000000
1.45086159 0.08915813 0.00153927 0.00000000
1.88257662 1.26175010 0.00291669 0.00000000
0.50967552 0.34045125 -0.00111285 0.00000000
2.20866883 0.75285613 -0.00028873 0.00000000
0.34556400 1.93635957 -0.00168455 0.00000000
1.37981728 1.87231798 -0.00446896 0.00000000
2.65044970 1.72368032 0.00019971 0.00000000
3.11709116 1.58552051 -0.00112779 0.00000000
2.11236614 1.42385489 -0.00256839 0.00000000
0.39422251 0.75493748 0.00091718 0.00000000
3.89220149 0.38027086 0.00350424 0.00000000
3.75248964 1.53887509 -0.00125925 0.00000000
2.06697315 1.12773224 0.00383211 0.00000000
3.68879602 0.21634029 -0.00206905 0.00000000
4.14069003 0.25158451 -0.00303224 0.00000000
0.02560754 1.46904059 0.00438543 0.00000000
1.66681816 1.30791298 -0.00084210 0.00000000
1.42730904 0.59821785 0.00084861 0.00000000
3.32890221 0.65911581 -0.00049422 0.00000000
0.30565849 1.10750108 0.00038546 0.00000000
2.70983474 0.96807011 0.00195346 0.00000000
0.27976844 0.62744106 -0.00195856 0.00000000
3.30376392 1.26196389 -0.00410650 0.00000000
3.77603527 1.53258497 0.00114535 0.00000000
3.33689488 1.51888858 -0.00643260 0.00000000
0.48125171 0.37244588 0.00511587 0.00000000
0.01027398 0.63371294 -0.00139162 0.00000000
1.01366420 1.77855398 0.00211453 0.00000000
0.81993536 1.40185775 -0.00052279 0.00000000
0.71008599 0.45369511 0.00180169 0.00000000
1.05316054 1.46225163 -0.00256965 0.00000000
4.00471581 1.09121813 -0.00135107 0.00000000
4.50132177 1.81007090 0.00047561 0.00000000
1.10943709 1.77266011 0.00220154 0.00000000
0.79601933 1.63382231 0.00048361 0.00000000
2.59112807 1.60314902 0.00257004 0.00000000
3.07207972 1.46358982 -0.00045248 0.00000000
3.44980114 1.56846422 0.00100614 0.00000000
3.29839557 0.73666420 0.00284180 0.00000000
2.07630655 0.75406187 0.00184969 0.00000000
1.76773460 0.25121248 -0.00161226 0.00000000
3.98696271 1.37907151 0.00053576 0.00000000
4.05066035 0.19149049 -0.00013556 0.00000000
1.94285131 0.21444865 0.00372779 0.00000000
3.28550823 1.92559428 0.00204098 0.00000000
0.46062405 0.86134657 -0.00313874 0.00000000
3.95166574 1.00560903 -0.00203429 0.00000000
0.50537736 0.93339103 0.00223014 0.00000000
3.88980621 1.34794235 0.00374920 0.00000000
3.98553426 0.27701040 0.00333253 0.00000000
3.39853899 0.07245664 -0.00075678 0.00000000
2.05583768 1.27534965 0.00108795 0.00000000
1.75916227 1.82380451 -0.00612260 0.00000000
2.94253388 1.12103463 -0.00040017 0.00000000
1.78844139 0.24167121 0.00178943 0.00000000
0.65270405 1.15675167 0.00223723 0.00000000
4.00100078 0.30261909 -0.00256306 0.00000000
0.29082486 0.58124409 -0.00203651 0.00000000
2.74074685 0.17367194 -0.00285074 0.00000000
3.15414661 1.46136408 -0.00020173 0.00000000
3.64948792 0.77795164 -0.00177522 0.00000000
0.54542478 1.61006498 -0.00259976 0.00000000
0.31568028 1.06658747 -0.00131758 0.00000000
4.16888256 1.69628835 -0.00349207 0.00000000
1.66392965 0.18575850 0.00160694 0.00000000
2.06184689 1.23492383 -0.00171707 0.00000000
2.40948856 0.94192402 -0.00087394 0.00000000
2.94848023 1.14298846 0.00266048 0.00000000
0.69077693 0.92017851 -0.00142066 0.00000000
1.25943218 0.85549724 0.00080210 0.00000000
2.52914700 0.43806836 0.00083009 0.00000000
3.36452743 1.63428927 -0.00052901 0.00000000
2.17066204 0.52147512 -0.00348551 0.00000000
1.71803282 1.85852556 0.00267757 0.00000000
1.27885028 0.15608244 0.00018719 0.00000000
3.12773434 1.84275139 0.00236703 0.00000000
0.99492109 1.30706811 0.00201864 0.00000000
0.09785898 0.44758979 0.00094516 0.00000000
0.62195987 0.09829131 0.00194848 0.00000000
0.55023184 1.76636251 0.00009893 0.00000000
0.14158208 0.91353421 -0.00083667 0.00000000
2.35640554 1.06552794 -0.00331964 0.00000000
0.67238738 1.37287980 0.00296743 0.00000000
4.30506450 0.78969082 -0.00490562 0.00000000
1.45596389 0.91355112 0.00131140 0.00000000
1.70246330 1.28591099 -0.00077087 0.00000000
4.34056386 1.62344442 0.00646631 0.00000000
2.15341481 0.08398625 0.00398204 0.00000000
1.77839671 1.17417050 -0.00156383 0.00000000
4.05009372 0.38836706 -0.00048000 0.00000000
0.18834228 1.54295871 0.00049096 0.00000000
0.33287431 0.01942866 -0.00098023 0.00000000
3.24110170 1.07611686 -0.00220032 0.00000000
1.60595162 0.22596307 -0.00167072 0.00000000
2.85625490 0.29665932 -0.00074137 0.00000000
3.59759734 0.87540250 -0.00191614 0.00000000
0.75026609 0.29952077 0.00202686 0.00000000
3.32242786 0.80822233 0.00117879 0.00000000
2.44807469 0.79204416 -0.00430362 0.00000000
2.55262256 0.11915009 -0.00013278 0.00000000
0.17977107 1.15392566 -0.00393015 0.00000000
0.47294360 1.21349592 -0.00113106 0.00000000
2.94614707 1.75881709 -0.00226990 0.00000000
3.59699904 1.83897513 0.00144397 0.00000000
3.35603328 0.53145212 0.00079904 0.00000000
4.55883256 0.03931575 0.00465087 0.00000000
1.55771362 1.35903305 0.00281184 0.00000000
2.65216215 1.06658942 0.00103218 0.00000000
3.58817014 1.82605358 -0.00063891 0.00000000
1.36425275 0.21636883 -0.00426343 0.00000000
2.60478632 0.70783871 0.00325566 0.00000000
3.75989197 1.29321822 0.00170790 0.00000000
2.19018323 1.83004424 0.00099482 0.00000000
2.87011584 1.93184980 -0.00234965 0.00000000
2.02154018 0.10031422 -0.00113922 0.00000000
1.66943305 1.00153749 -0.00047329 0.00000000
4.20906944 1.92237862 0.00353029 0.00000000
1.84722999 1.88801244 -0.00422630 0.00000000
3.17924537 1.84169151 0.00269511 0.00000000
3.13221850 0.00125636 -0.00094631 0.00000000
3.88286909 1.71108651 -0.00205098 0.00000000
4.55879525 1.64393544 0.00138303 0.00000000
2.67191033 0.16412953 -0.00265642 0.00000000
2.01947039 1.37977611 0.00254367 0.00000000
1.30813044 0.63003287 0.00026991 0.00000000
0.54569149 1.61711132 0.00192699 0.00000000
1.89686579 1.78146090 0.00478489 0.00000000
3.93400014 0.02917018 -0.00150112 0.00000000
3.28289256 1.53853470 -0.00055849 0.00000000
2.94832915 0.80854208 -0.00177835 0.00000000
2.81855296 0.69080566 -0.00022398 0.00000000
3.81501909 1.33790576 -0.00206529 0.00000000
1.32493633 1.28637393 -0.00007713 0.00000000
0.96823131 0.19876946 0.00238771 0.00000000
2.65362527 0.15545531 0.00175699 0.00000000
4.10593493 1.60379438 0.00056240 0.00000000
0.46969815 1.39026985 -0.00287440 0.00000000
0.13388775 0.70612167 0.00287313 0.00000000
2.96009343 0.72474777 -0.00689097 0.00000000
3.22307243 1.27516404 -0.00086992 0.00000000
2.37373278 1.15894591 -0.00434774 0.00000000
1.54494995 1.11870529 -0.00124306 0.00000000
0.46147795 1.21379388 -0.00170694 0.00000000
1.85734563 1.41360023 0.00229424 0.00000000
0.91605047 1.29426624 0.00339375 0.00000000
0.95659180 0.33041989 0.00037244 0.00000000
2.18754206 1.22950103 0.00390935 0.00000000
0.55252658 1.11945536 -0.00386127 0.00000000
1.63362301 1.06681678 0.00571648 0.00000000
0.32895352 0.98468254 -0.00050824 0.00000000
1.75468634 0.56285810 0.00014189 0.00000000
4.44765619 0.62643545 0.00254387 0.00000000
2.26345401 1.78196447 -0.00086140 0.00000000
0.86088330 0.42262747 0.00003935 0.00000000
0.01146413 0.73331358 -0.00280606 0.00000000
4.11967815 1.62645539 -0.00390828 0.00000000
4.56716974 1.26480070 -0.00144668 0.00000000
0.45463037 1.17541447 -0.00121366 0.00000000
3.34709677 0.37519037 0.00041490 0.00000000
3.94727016 0.02258862 0.00271158 0.00000000
4.30143906 1.11458287 0.00202465 0.00000000
0.43972694 0.62942151 0.00372790 0.00000000
4.40000004 0.80865415 -0.00298895 0.00000000
0.79303123 0.84775579 -0.00214924 0.00000000
2.61478580 0.23093266 0.00226293 0.00000000
2.27447535 0.74626108 0.00401854 0.00000000
0.09208532 0.63337181 0.00106787 0.00000000
2.83340368 1.39304420 -0.00084662 0.00000000
3.59261727 0.74213218 0.00012919 0.00000000
0.33017107 0.51815093 -0.00218389 0.00000000
1.96266749 1.42519274 0.00075253 0.00000000
4.19121206 1.88530645 0.00248166 0.00000000
2.50068951 1.81035662 0.00131086 0.00000000
1.20188595 1.33956385 0.00525859 0.00000000
4.06581638 0.00314727 -0.00241322 0.00000000
3.25594263 0.68105283 0.00103598 0.00000000
2.75169534 1.89293163 0.00097276 0.00000000
4.32445949 0.44293365 -0.00308331 0.00000000
3.66064002 0.92967415 -0.00203344 0.00000000
1.13477723 0.30997433 -0.00320721 0.00000000
1.31262357 1.39084387 0.00219725 0.00000000
2.49419435 1.55618578 0.00272270 0.00000000
2.06560340 1.20267602 -0.00208175 0.00000000
0.80284353 0.37919543 -0.00313210 0.00000000
2.46495494 0.96017026 -0.00140564 0.00000000
1.39697323 1.43104528 -0.00268778 0.00000000
0.68851135 0.28532939 0.00059339 0.00000000
4.08642928 0.98946662 -0.00028085 0.00000000
2.34522426 0.40506886 -0.00218644 0.00000000
1.12544806 0.98984043 0.00197125 0.00000000
3.24519070 1.08924414 0.00033205 0.00000000
3.50359839 0.18122343 0.00260295 0.00000000
0.63905986 1.27433502 -0.00204619 0.00000000
2.74626337 1.09921359 0.00145494 0.00000000
4.43341862 1.49016518 0.00252473 0.00000000
1.19262514 0.10995769 0.00247279 0.00000000
0.83253051 0.34920579 -0.00105208 0.00000000
0.04927810 0.21012090 -0.00454682 0.00000000
0.08189307 1.06346451 0.00260780 0.00000000
2.36550385 0.49981328 0.00548126 0.00000000
3.87312276 0.13780639 -0.00217890 0.00000000
1.49462840 0.85202175 0.00205159 0.00000000
3.06869746 0.47321285 -0.00041155 0.00000000
1.63978333 0.64133372 0.00020230 0.00000000
0.06283077 1.47858737 -0.00009670 0.00000000
1.83591579 1.72084489 0.00046261 0.00000000
0.23254143 0.72368605 -0.00046702 0.00000000
1.32394936 0.52683136 -0.00299892 0.00000000
3.10797078 1.83197198 0.00185544 0.00000000
3.50328431 0.70643789 -0.00210796 0.00000000
2.43709339 0.53567347 -0.00264095 0.00000000
3.13301697 0.17768932 0.00171402 0.00000000
0.60004914 0.59047035 -0.00450456 0.00000000
2.76304520 0.92162195 0.00208771 0.00000000
0.52368047 1.43164121 0.00668429 0.00000000
1.69206404 1.43948328 0.00048595 0.00000000
4.38352110 1.47517449 0.00238290 0.00000000
2.38399787 0.98302310 -0.00102732 0.00000000
3.26869754 1.52930278 0.00334835 0.00000000
4.29841980 0.39419250 -0.00076350 0.00000000
2.56075954 0.71155148 -0.00497222 0.00000000
2.93923888 0.85805305 0.00030169 0.00000000
4.22465081 1.71505865 -0.00357516 0.00000000
2.48691560 0.32133245 -0.00046164 0.00000000
0.90028764 0.87740252 0.00066944 0.00000000
4.07387193 0.16223588 0.00025798 0.00000000
4.21421309 1.90449935 0.00195637 0.00000000
1.52061199 0.01878806 -0.00226733 0.00000000
3.62529090 1.01981559 0.00094115 0.00000000
4.44745489 1.86674909 0.00199443 0.00000000
1.62074997 1.38918485 -0.00256885 0.00000000
2.82063487 0.17060962 0.00208309 0.00000000
2.71064403 1.89327543 0.00131453 0.00000000
3.10435581 0.20968610 0.00293854 0.00000000
2.49237497 1.25627019 0.00117173 0.00000000
4.23916418 0.13027190 -0.00204423 0.00000000
3.43023796 1.52041237 0.00089114 0.00000000
2.54250938 0.96464580 -0.00407781 0.00000000
1.26448692 1.91625920 0.00045350 0.00000000
4.33169509 1.70997723 -0.00043958 0.00000000
4.48030361 1.13331179 -0.00322645 0.00000000
4.00866781 1.06486275 0.00380907 0.00000000
3.53542703 0.83046478 -0.00391367 0.00000000
3.89535333 1.69699893 0.00052243 0.00000000
2.18919386 1.15028870 -0.00483554 0.00000000
0.38551822 1.53440956 0.00045178 0.00000000
1.34154070 1.39657133 0.00473719 0.00000000
1.28792821 1.03041734 0.00058662 0.00000000
3.92620502 0.41106829 -0.00381387 0.00000000
4.11914338 1.01411427 0.00039650 0.00000000
2.62167851 0.04718359 0.00012507 0.00000000
0.35595357 1.50194290 -0.00055143 0.00000000
2.00283210 1.27245083 -0.00284006 0.00000000
3.42207854 0.45750305 -0.00099947 0.00000000
1.44950252 0.84534804 -0.00097801 0.00000000
1.86486360 1.57061198 0.00054177 0.00000000
2.00309998 0.40195480 -0.00124484 0.00000000
2.57854872 0.02610298 -0.00227783 0.00000000
1.56489613 1.56190518 -0.00079269 0.00000000
3.81531494 1.89291116 -0.00375008 0.00000000
0.32334766 1.89377721 0.00464911 0.00000000
1.15328934 1.61673840 -0.00082004 0.00000000
2.61759673 1.37793478 -0.00050083 0.00000000
1.50537133 0.53336339 0.00365766 0.00000000
4.49571845 1.65461247 0.00257396 0.00000000
2.25616767 0.93943391 -0.00190019 0.00000000
1.61637266 1.21211011 -0.00114100 0.00000000
0.23307241 0.10869734 -0.00462973 0.00000000
1.31466939 1.65575632 0.00069564 0.00000000
0.84351381 1.28812954 0.00108919 0.00000000
2.80972393 0.92971813 -0.00105035 0.00000000
3.85134366 0.69151591 0.00153066 0.00000000
1.63514631 0.45286398 -0.00424112 0.00000000
2.10627163 0.58066055 -0.00217798 0.00000000
2.47655767 0.93876166 0.00297361 0.00000000
4.15166699 1.61218627 -0.00249859 0.00000000
3.85032090 1.19994176 -0.00106626 0.00000000
4.51232198 1.76861953 -0.00369887 0.00000000
1.07977351 1.70994574 0.00227457 0.00000000
1.85652207 1.85069194 -0.00148655 0.00000000
3.81161417 1.48708662 -0.00183202 0.00000000
4.31852799 0.88878012 -0.00108123 0.00000000
2.12653001 0.22397965 0.00325531 0.00000000
2.20761914 0.56708948 -0.00137826 0.00000000
2.37714928 0.65230901 -0.00316113 0.00000000
2.23129627 0.18109135 0.00127339 0.00000000
0.57612374 0.82528894 -0.00105376 0.00000000
0.29312362 1.06172025 0.00037365 0.00000000
1.60899703 1.75626600 -0.00149916 0.00000000
3.66154499 0.57963663 -0.00438182 0.00000000
2.68922626 1.31629946 -0.00134233 0.00000000
3.42465068 1.55122349 0.00248021 0.00000000
1.91685337 1.92831489 -0.00140114 0.00000000
1.55366552 1.74729158 0.00065875 0.00000000
1.56724760 1.79366180 0.00294055 0.00000000
0.27895981 0.54616689 -0.00230353 0.00000000
2.52501556 0.11470813 -0.00056118 0.00000000
2.32161186 0.44948855 0.00191448 0.00000000
0.66178706 0.92261062 -0.00132724 0.00000000
1.53358310 0.55917860 -0.00003277 0.00000000
3.85040541 0.43806533 -0.00198937 0.00000000
1.47562774 1.27269263 -0.00127214 0.00000000
1.98965077 0.26498556 -0.00038150 0.00000000
4.12738200 1.02135442 -0.00016983 0.00000000
3.51473068 1.36477271 0.00084399 0.00000000
2.48840151 0.30311134 -0.00015109 0.00000000
3.21980377 0.64251386 -0.00102158 0.00000000
3.42054790 0.48940688 0.00214141 0.00000000
2.38112801 1.94334259 -0.00068254 0.00000000
3.97469664 0.09764578 -0.00208251 0.00000000
1.62015458 1.46639627 -0.00007096 0.00000000
4.11995233 1.04819407 -0.00249045 0.00000000
0.14525110 1.37683423 0.00199429 0.00000000
0.26174566 1.11145842 -0.00069969 0.00000000
4.32408341 1.10964946 -0.00367423 0.00000000
3.00328111 1.48114115 -0.00334988 0.00000000
0.55782832 0.45147696 -0.00051213 0.00000000
3.29534755 0.25482669 0.00332288 0.00000000
0.59196650 0.21360981 0.00195634 0.00000000
3.92856978 0.77437775 -0.00256759 0.00000000
4.22760862 0.84167875 -0.00218307 0.00000000
2.50807624 0.19496451 0.00123535 0.00000000
0.35609586 0.28546225 0.00145180 0.00000000
2.74751140 0.32178468 -0.00010905 0.00000000
2.25720007 0.33241488 0.00166066 0.00000000
2.60500642 1.54383536 0.00076266 0.00000000
0.66696530 1.65580357 0.00063945 0.00000000
4.29738728 1.21863270 0.00235402 0.00000000
2.68246035 0.50579761 -0.00135828 0.00000000
3.87561812 0.48373767 -0.00134785 0.00000000
0.37027198 1.15019722 0.00080521 0.00000000
2.71934800 1.83291819 0.00019358 0.00000000
1.99583610 1.71138633 -0.00307011 0.00000000
1.46056345 1.66413046 0.00013941 0.00000000
2.56846992 1.75650225 0.00152398 0.00000000
4.55664199 0.62107874 -0.00111685 0.00000000
2.36647879 1.70291168 -0.00125524 0.00000000
3.21138608 1.78044887 -0.00189435 0.00000000
0.20854864 0.55386409 0.00188246 0.00000000
1.25610990 1.00265128 -0.00026543 0.00000000
0.53278359 0.18247276 0.00368539 0.00000000
0.53376082 1.19983037 -0.00042887 0.00000000
3.85092107 1.30173053 -0.00159222 0.00000000
0.87615023 1.70213729 0.00204968 0.00000000
4.47226882 1.80753394 0.00344669 0.00000000
2.84916776 1.07088679 0.00044094 0.00000000
1.46081108 0.58910991 -0.00239552 0.00000000
0.66101906 1.04709555 -0.00015848 0.00000000
3.72732961 1.88238613 -0.00335494 0.00000000
2.45559625 0.56709948 0.00333719 0.00000000
1.64442157 0.21237746 -0.00177719 0.00000000
1.00872544 0.18327681 -0.00170700 0.00000000
1.11219678 1.14041957 -0.00182689 0.00000000
2.95641174 1.87781810 0.00327131 0.00000000
2.99880837 1.35388382 0.00374035 0.00000000
4.52153883 1.30212552 -0.00183523 0.00000000
2.25430915 1.46196972 -0.00066607 0.00000000
1.79636483 0.38258049 0.00050947 0.00000000
4.20383018 0.65251435 -0.00227171 0.00000000
3.80467915 0.93800712 -0.00227591 0.00000000
1.35575969 1.35444793 0.00310569 0.00000000
0.61468705 0.62308329 0.00089520 0.00000000
3.05732040 0.10557430 -0.00011171 0.00000000
3.28654874 0.01836483 -0.00048360 0.00000000
4.26662664 1.61176424 0.00004061 0.00000000
2.29688516 0.46126267 -0.00644682 0.00000000
3.22799685 0.52797251 -0.00333455 0.00000000
3.19197391 0.03371819 0.00122424 0.00000000
2.83511077 0.50170152 0.00078958 0.00000000
0.13691407 1.05748880 0.00279702 0.00000000
1.69243607 1.53767329 0.00151064 0.00000000
1.03540185 1.67135670 0.00146709 0.00000000
2.20589943 1.82706907 0.00077992 0.00000000
2.19981065 1.26600239 0.00070666 0.00000000
2.19022913 0.55222068 0.00083928 0.00000000
3.66397821 1.86478087 0.00115379 0.00000000
3.65050461 0.27511651 0.00352111 0.00000000
3.55598448 0.55186387 -0.00176533 0.00000000
1.88170147 0.60858985 0.00048998 0.00000000
2.31639195 1.59281982 0.00026946 0.00000000
0.23079297 1.27335695 -0.00244919 0.00000000
3.26957154 0.61370937 -0.00161800 0.00000000
2.32217635 0.16363577 -0.00140495 0.00000000
0.23074285 1.35359861 -0.00013922 0.00000000
2.26244171 1.18915498 0.00222870 0.00000000
0.28993262 1.05421150 0.00228836 0.00000000
4.54261719 1.88562375 0.00049923 0.00000000
0.58622504 1.50165959 0.00059192 0.00000000
2.88973597 1.06024972 0.00061923 0.00000000
2.41986156 1.44933813 -0.00106078 0.00000000
0.81160848 0.23222853 0.00410952 0.00000000
1.60705955 1.67013748 0.00086034 0.00000000
1.94837335 0.51401804 -0.00259400 0.00000000
0.41081313 1.74558731 -0.00205901 0.00000000
4.13423919 0.98101746 0.00125982 0.00000000
3.95426521 1.89852255 0.00010396 0.00000000
0.66847467 1.47589717 0.00788476 0.00000000
3.35004108 0.33499695 0.00006761 0.00000000
3.02789555 1.46700445 -0.00591911 0.00000000
2.09144685 1.70392975 0.00099047 0.00000000
0.05931733 0.75352430 -0.00123233 0.00000000
3.95897160 1.69108418 -0.00040902 0.00000000
1.92949843 0.50781519 0.00263371 0.00000000
0.68698842 1.82233016 -0.00202980 0.00000000
3.98466613 1.87302724 -0.00155757 0.00000000
0.62824473 0.27636746 0.00020788 0.00000000
2.73200677 0.77158773 -0.00385042 0.00000000
2.32262798 0.22699631 0.00160909 0.00000000
2.81900997 1.03703906 0.00644651 0.00000000
0.93302574 1.80108020 -0.00238336 0.00000000
1.81431498 0.10524541 -0.00620871 0.00000000
0.54569983 0.80311386 0.00441039 0.00000000
4.31902754 1.34443577 0.00355374 0.00000000
0.95009640 0.95395436 0.00113308 0.00000000
3.26679904 1.34904927 0.00037454 0.00000000
3.72650219 0.52730661 -0.00068247 0.00000000
0.18058065 0.30902198 0.00113690 0.00000000
2.51677623 1.38891009 -0.00130044 0.00000000
4.37398153 0.52171750 0.00190823 0.00000000
1.41603609 0.03220652 -0.00276136 0.00000000
3.61937155 1.87108123 -0.00272357 0.00000000
1.76639436 0.16215086 -0.00142782 0.00000000
3.36467716 1.64624268 0.00184447 0.00000000
0.87296127 0.62256705 -0.00078831 0.00000000
4.08964789 1.27659001 -0.00060038 0.00000000
0.60417269 1.92747305 0.00232940 0.00000000
3.97158687 0.45865539 -0.00276902 0.00000000
0.55575787 1.38525021 -0.00422125 0.00000000
2.78768788 1.17316776 0.00304164 0.00000000
0.31293275 1.52952456 -0.00053594 0.00000000
0.40771489 1.10771955 0.00009066 0.00000000
3.33253752 1.04822376 0.00069667 0.00000000
1.94291931 1.60167584 -0.00080227 0.00000000
1.92300176 1.19880962 -0.00031108 0.00000000
0.06922815 1.16678690 -0.00335237 0.00000000
2.23824720 0.52825130 0.00429122 0.00000000
0.06111294 0.41635313 -0.00094005 0.00000000
0.25854383 1.71933117 0.00150059 0.00000000
2.85787765 1.66377458 0.00239907 0.00000000
4.07454958 0.80634684 -0.00053687 0.00000000
2.83964799 1.37622344 0.00258781 0.00000000
2.74107087 1.78439266 0.00107069 0.00000000
0.99290475 0.26205286 -0.00067074 0.00000000
4.41954053 1.82089629 0.00075577 0.00000000
2.58611274 1.14593468 0.00283061 0.00000000
1.45336708 1.74126318 0.00107843 0.00000000
0.45936340 0.21142202 0.00063718 0.00000000
3.62766206 0.75028588 -0.00088106 0.00000000
2.11913627 1.37161873 -0.00449156 0.00000000
0.02883108 1.66408248 -0.00026811 0.00000000
1.34969776 1.55412894 -0.00176017 0.00000000
2.29513142 1.35813308 0.00064986 0.00000000
0.47023457 0.03585769 -0.00079422 0.00000000
0.95637789 0.26281205 -0.00283350 0.00000000
3.49753962 1.36907213 0.00040352 0.00000000
3.87970231 1.85688192 -0.00458154 0.00000000
1.96067922 0.97874630 0.00527094 0.00000000
0.38318289 0.21014546 0.00145183 0.00000000
1.78579633 1.49555898 -0.00119338 0.00000000
2.31439161 0.95367953 0.00319334 0.00000000
0.19919280 0.80128682 0.00108441 0.00000000
4.58448833 1.77341565 -0.00177136 0.00000000
3.96885113 1.44171524 -0.00108761 0.00000000
1.03047914 1.25635812 0.00336986 0.00000000
2.34009449 1.87974536 -0.00010009 0.00000000
0.36321610 1.69359812 0.00008483 0.00000000
2.64649592 1.22275519 0.00072054 0.00000000
3.84314420 0.95562334 -0.00297937 0.00000000
4.54590621 1.24165700 -0.00227149 0.00000000
0.15763734 1.62585550 0.00008996 0.00000000
2.30799210 0.32993755 -0.00187243 0.00000000
1.97935531 1.15696978 0.00048546 0.00000000
0.31964943 0.04728324 0.00155822 0.00000000
2.63359272 1.93934599 0.00384725 0.00000000
2.51680166 1.80992791 0.00180783 0.00000000
2.57679638 1.26625776 -0.00448075 0.00000000
3.02426488 0.91986005 -0.00084604 0.00000000
0.45807922 0.51592709 0.00008468 0.00000000
2.69139190 1.26387032 -0.00570283 0.00000000
3.84113446 0.26728338 0.00036770 0.00000000
0.83756518 0.97930116 0.00616860 0.00000000
3.56678819 0.92517612 -0.00207916 0.00000000
2.53097508 1.79397751 0.00493850 0.00000000
0.33921553 0.24795391 -0.00279428 0.00000000
0.56870401 0.52230184 0.00426995 0.00000000
0.01917395 1.66299798 0.00253774 0.00000000
4.53742271 1.45117465 -0.00031077 0.00000000
0.35091774 0.92971742 -0.00040157 0.00000000
3.69945974 0.44269880 0.00096644 0.00000000
2.55080207 0.19004094 -0.00000402 0.00000000
4.18863267 1.41088829 -0.00161904 0.00000000
2.30726633 1.43879388 -0.00400166 0.00000000
0.65249399 1.03175726 -0.00176620 0.00000000
1.18873138 1.66213575 -0.00009749 0.00000000
0.83973130 1.51288412 0.00224022 0.00000000
4.28741687 0.28423555 -0.00448671 0.00000000
3.76899371 1.05991343 -0.00157952 0.00000000
3.17831671 0.48510505 -0.00115736 0.00000000
0.86329376 0.39151658 -0.00271726 0.00000000
0.47035094 1.16650752 -0.00033531 0.00000000
1.57823628 1.52937945 0.00404187 0.00000000
0.62334633 1.00828823 0.00028984 0.00000000
0.96145647 1.70775573 0.00357511 0.00000000
0.38714978 1.78465677 0.00063107 0.00000000
4.37803821 0.13437925 -0.00117492 0.00000000
0.51660428 1.52487406 -0.00384441 0.00000000
4.00777753 0.49479816 -0.00567161 0.00000000
2.82860782 0.90367953 0.00399480 0.00000000
3.44848922 1.42650679 0.00078421 0.00000000
1.10860360 1.36125769 -0.00444274 0.00000000
3.41001194 0.76393057 0.00161994 0.00000000
0.37137726 1.24724067 -0.00066518 0.00000000
1.83036588 1.47953407 0.00283463 0.00000000
2.22782531 0.54412552 0.00067748 0.00000000
2.88299763 1.07482120 -0.00239801 0.00000000
1.48909774 1.11242493 0.00075661 0.00000000
0.16623802 1.88536166 -0.00057544 0.00000000
3.98637450 0.09553455 -0.00255119 0.00000000
1.52833668 0.93005323 -0.00013185 0.00000000
0.81160232 1.92030950 0.00250702 0.00000000
3.77136489 0.78648187 -0.00265263 0.00000000
0.65783161 1.45891423 -0.00377398 0.00000000
2.10684310 1.70371114 0.00606885 0.00000000
0.04389247 0.73072014 -0.00139856 0.00000000
4.43524938 1.74091782 -0.00386559 0.00000000
1.46527435 1.93420925 0.00299074 0.00000000
3.75948000 0.89509407 -0.00398045 0.00000000
3.74887764 0.64543678 0.00303303 0.00000000
4.03344862 1.88476943 -0.00071717 0.00000000
1.52501432 1.38569989 -0.00011646 0.00000000
4.23637890 0.40596810 0.00188054 0.00000000
4.30409697 0.75887274 0.00107373 0.00000000
0.44052022 0.77802767 0.00307279 0.00000000
4.38069244 0.25527763 -0.00157900 0.00000000
4.31544330 0.57931769 0.00356080 0.00000000
2.56727972 0.11574139 0.00095099 0.00000000
3.51465695 1.04642886 0.00033725 0.00000000
2.56565980 0.97032112 0.00181219 0.00000000
4.42392053 1.54031744 0.00032983 0.00000000
2.37533952 1.45564516 0.00183595 0.00000000
