3.38170102 0.05045194 0.00446011 0.00000000
2.88742176 1.01575339 0.00027541 0.00000000
1.34228501 0.24650114 0.00246861 0.00000000
1.87818604 0.52207828 -0.00045421 0.00000000
0.33395233 0.84822893 -0.00082134 0.00000000
1.46403623 1.29875552 -0.00264900 0.00000000
0.22829574 0.43371009 -0.00069031 0.00000000
2.52259135 0.89863430 0.00339401 0.00000000
0.02507650 0.21085104 -0.00382598 0.00000000
0.75959664 1.27778738 -0.00114593 0.00000000
1.42471702 1.25966472 0.00086646 0.00000000
0.04633261 1.20069865 -0.00175403 0.00000000
4.15946633 0.15304308 0.00028542 0.00000000
0.28963708 1.03294009 -0.00183192 0.00000000
0.26575629 0.03709767 0.00122322 0.00000000
1.30851731 0.49774517 0.00058626 0.00000000
1.32927246 0.07950963 0.00094879 0.00000000
0.32017370 0.87391354 0.00470553 0.00000000
3.89197797 0.73190185 0.00199259 0.00000000
0.32701813 1.16422309 0.00255848 0.00000000
2.48640021 0.42354284 0.00510308 0.00000000
1.46844362 0.41248338 0.00198603 0.00000000
3.46335022 0.76301714 -0.00186782 0.00000000
4.20509163 0.08060899 0.00109191 0.00000000
0.92227423 1.16515826 0.00100641 0.00000000
0.14387873 0.74859532 -0.00192162 0.00000000
3.17727160 1.25030227 -0.00010674 0.00000000
1.00968172 0.39365092 -0.00455532 0.00000000
4.14962871 1.44212597 -0.00016077 0.00000000
3.34961870 0.72740673 0.00154064 0.00000000
1.69137645 1.35064913 0.00313803 0.00000000
3.49206884 1.06070998 0.00017485 0.00000000
3.27557271 0.45382641 0.00430865 0.00000000
4.02448436 0.79539203 -0.00352649 0.00000000
1.85495959 1.26981064 -0.00035413 0.00000000
3.95254711 1.08021035 -0.00321189 0.00000000
0.87607445 0.09240706 -0.00206516 0.00000000
4.13202019 0.55522816 0.00483289 0.00000000
2.93797158 1.24371906 0.00035161 0.00000000
2.22405229 0.84554599 -0.00312149 0.00000000
3.53429284 1.14530716 -0.00155125 0.00000000
1.11514765 1.36249754 0.00397347 0.00000000
1.15816540 0.48950248 0.00153376 0.00000000
0.28694109 1.26829384 0.00161189 0.00000000
2.41738406 1.11289301 0.00195241 0.00000000
1.47180448 1.14056849 0.00306156 0.00000000
0.32631598 1.41856635 -0.00331239 0.00000000
3.32937978 0.38891369 -0.00047788 0.00000000
3.22047743 0.53224217 -0.00078542 0.00000000
4.07908899 0.21765393 -0.00592565 0.00000000
0.63998393 0.06369774 0.00454457 0.00000000
3.89552356 1.01598123 -0.00340176 0.00000000
1.28822429 1.38942256 0.00195041 0.00000000
2.19323624 0.39868080 0.00001147 0.00000000
2.72897903 0.84629370 0.00021082 0.00000000
1.65526894 0.76925357 0.00021072 0.00000000
3.76613992 1.27294234 0.00047308 0.00000000
4.09659839 1.03080005 -0.00098351 0.00000000
0.52266436 1.48483272 0.00594850 0.00000000
3.46442886 0.74077594 -0.00072525 0.00000000
0.52727273 0.79001209 -0.00106546 0.00000000
4.07736941 0.94969443 -0.00174672 0.00000000
3.81608036 1.36452931 0.00187519 0.00000000
2.00798781 1.21846679 -0.00006330 0.00000000
1.68617850 0.52107469 -0.00107641 0.00000000
2.20390337 0.69264769 0.00185785 0.00000000
3.42007725 0.78742392 -0.00494316 0.00000000
2.18523611 1.31662153 0.00143643 0.00000000
0.18017322 0.43700158 0.00119477 0.00000000
2.90121459 0.47146995 -0.00076348 0.00000000
0.58361138 0.27297762 -0.00223559 0.00000000
0.02050668 0.20614817 -0.00335550 0.00000000
0.78016505 1.24276382 0.00044789 0.00000000
3.15760503 1.23178062 0.00345169 0.00000000
0.34076294 1.16091843 0.00155591 0.00000000
0.94083544 0.03020259 -0.00084840 0.00000000
3.63789236 0.19671246 -0.00168754 0.00000000
1.60381117 1.24747384 0.00301492 0.00000000
1.14811784 0.98127186 -0.00159467 0.00000000
2.44949153 0.45822156 -0.00147313 0.00000000
1.32511367 0.36377667 0.00154365 0.00000000
2.86471184 1.18690293 -0.00383544 0.00000000
0.30366506 0.62540266 0.00408223 0.00000000
1.14589045 0.51251067 0.00106606 0.00000000
0.01537804 0.39648702 -0.00198719 0.00000000
1.50589137 0.44225662 0.00219929 0.00000000
3.06377771 0.18187743 0.00135966 0.00000000
2.87197941 0.28890467 0.00427282 0.00000000
3.69521560 0.99477581 -0.00082562 0.00000000
3.80836365 0.91117327 0.00122707 0.00000000
3.42733848 0.02167560 0.00012872 0.00000000
0.08347380 1.15993677 0.00226903 0.00000000
3.31523082 1.46896863 -0.00268388 0.00000000
3.37791286 0.47886333 0.00130693 0.00000000
3.47404652 1.18852565 0.00190498 0.00000000
4.02245066 0.66473136 0.00064102 0.00000000
0.78520958 0.25092910 -0.00210348 0.00000000
4.16912290 0.11156463 0.00006142 0.00000000
2.38741520 0.89816987 -0.00098692 0.00000000
1.01679064 0.06874223 -0.00417075 0.00000000
3.06938968 1.20965818 -0.00332330 0.00000000
2.25758084 0.61477544 0.00125708 0.00000000
4.12240521 1.23642292 -0.00093545 0.00000000
0.54759236 1.22422220 -0.00120443 0.00000000
0.42867840 1.02492896 -0.00059372 0.00000000
2.12382664 0.31612399 0.00003042 0.00000000
1.83090237 0.22396039 0.00298730 0.00000000
2.75871854 0.74842144 0.00417313 0.00000000
1.43917652 1.11163025 0.00213654 0.00000000
3.08757831 0.44625922 -0.00442650 0.00000000
0.48814364 0.94561721 0.00552092 0.00000000
2.79861307 0.88516209 0.00068522 0.00000000
1.99456435 0.77608909 -0.00087499 0.00000000
0.81825139 0.65547781 0.00101940 0.00000000
0.87945121 0.54873061 0.00074808 0.00000000
2.91620062 0.40758657 0.00197155 0.00000000
4.24091844 1.08013042 -0.00139665 0.00000000
2.85094821 0.92582842 0.00283068 0.00000000
4.25371021 0.22327555 -0.00040163 0.00000000
0.47278982 0.75752118 0.00248037 0.00000000
1.33285606 0.56496267 0.00593594 0.00000000
0.76751503 0.00642331 0.00564464 0.00000000
0.98763213 0.52096481 -0.00177866 0.00000000
1.42600337 0.86137903 0.00341842 0.00000000
3.85296423 0.88283003 -0.00110470 0.00000000
1.54198545 0.10894984 -0.00049827 0.00000000
0.17357406 0.47995023 -0.00181931 0.00000000
0.92452791 0.48935349 0.00173277 0.00000000
1.69241892 0.83545454 0.00298686 0.00000000
4.11980134 0.31245083 -0.00117320 0.00000000
0.78885267 1.05275772 0.00255983 0.00000000
0.03787763 1.04833786 0.00388023 0.00000000
2.24656905 0.43832162 -0.00330254 0.00000000
1.38467202 0.93338119 -0.00258723 0.00000000
3.40840690 0.01774732 -0.00253151 0.00000000
3.59556102 1.25422501 -0.00246708 0.00000000
1.64580315 0.88217894 -0.00144651 0.00000000
1.61414935 0.94906327 0.00019356 0.00000000
1.36598018 0.67618583 0.00165662 0.00000000
3.14589761 1.37976677 -0.00346084 0.00000000
2.71783439 1.00891814 0.00203338 0.00000000
1.40380285 0.62700819 0.00256882 0.00000000
1.36642251 1.01632650 0.00121818 0.00000000
2.47254446 1.23224482 0.00077438 0.00000000
0.23619584 0.36561909 -0.00006088 0.00000000
0.32418650 0.33658840 0.00348823 0.00000000
3.68156592 0.27809165 0.00074479 0.00000000
1.60864865 1.09935637 -0.00158048 0.00000000
1.66401165 0.04247629 -0.00063042 0.00000000
1.08217873 1.50768404 -0.00222444 0.00000000
1.04043297 0.63362737 -0.00017875 0.00000000
2.39860840 0.17006608 0.00280581 0.00000000
1.67754325 0.24136640 -0.00208194 0.00000000
1.28391146 0.72815525 0.00289817 0.00000000
1.20025064 0.39530616 -0.00423013 0.00000000
0.26406339 0.89256751 0.00276327 0.00000000
1.36824192 0.12889347 -0.00022525 0.00000000
0.53718188 1.25549783 -0.00155418 0.00000000
0.77277055 0.41634547 -0.00028396 0.00000000
0.95384735 1.25365019 -0.00456935 0.00000000
1.43065526 1.08891712 -0.00330107 0.00000000
3.70980736 0.58534438 0.00576492 0.00000000
1.94959366 0.55805875 0.00357648 0.00000000
0.24963603 0.76737418 -0.00307068 0.00000000
0.18169253 0.94208244 0.00089411 0.00000000
2.29264312 1.02388499 -0.00133203 0.00000000
0.68401992 1.52798294 0.00484489 0.00000000
1.30978787 0.33898939 0.00147664 0.00000000
3.42829296 0.03940276 -0.00208403 0.00000000
3.62987574 0.16619465 0.00234837 0.00000000
0.43700060 1.21511186 -0.00096924 0.00000000
4.13438344 0.43993953 -0.00036092 0.00000000
0.64626416 1.05310470 -0.00148503 0.00000000
2.61545939 0.28629116 0.00090559 0.00000000
1.95634035 1.06956784 0.00301716 0.00000000
2.67578095 0.14851358 0.00097290 0.00000000
3.03689062 0.76552813 -0.00098676 0.00000000
1.86118000 0.07774484 0.00089554 0.00000000
2.58051621 0.11015608 -0.00114187 0.00000000
2.44468109 0.47726932 0.00419733 0.00000000
3.38328292 1.39948881 0.00233340 0.00000000
0.41071024 1.43962304 0.00027206 0.00000000
3.42578718 0.52520999 -0.00036444 0.00000000
0.71674881 1.27599289 -0.00114962 0.00000000
4.09454802 0.08250196 0.00272770 0.00000000
2.72167530 0.24879766 0.00225916 0.00000000
2.59613927 0.49783542 0.00139763 0.00000000
2.76499237 0.30076040 0.00332624 0.00000000
1.54190163 1.22347883 0.00307477 0.00000000
0.57266826 0.92758143 0.00228908 0.00000000
1.70141213 0.67027816 -0.00281203 0.00000000
0.21535852 0.53371632 0.00336913 0.00000000
3.12689470 0.53155568 0.00361808 0.00000000
1.35520409 0.19206949 -0.00153188 0.00000000
0.05424153 0.00921462 0.00814506 0.00000000
1.04782943 0.54662274 -0.00502741 0.00000000
1.96512586 0.28128515 0.00300476 0.00000000
2.33806549 0.45184950 -0.00296080 0.00000000
1.00402406 0.40643822 -0.00419307 0.00000000
2.57679511 0.31417304 -0.00318915 0.00000000
1.00215222 0.77461466 -0.00217793 0.00000000
2.13362637 1.49052840 0.00005041 0.00000000
2.56487652 0.77470964 -0.00053874 0.00000000
1.34815168 0.47910701 0.00130350 0.00000000
2.41590299 1.21552524 0.00481610 0.00000000
3.42439353 1.27058159 0.00115099 0.00000000
3.27420478 0.82853995 0.00377656 0.00000000
2.98382517 1.17314352 -0.00309393 0.00000000
0.53388049 1.13197290 -0.00317519 0.00000000
4.09307603 1.17307181 0.00098675 0.00000000
2.65592578 1.28459145 0.00202670 0.00000000
2.32435402 0.11755125 0.00709080 0.00000000
1.21244604 1.17460510 -0.00099007 0.00000000
1.63373316 1.02469118 -0.00002646 0.00000000
3.72707808 1.35768589 -0.00311364 0.00000000
2.36491855 0.49704534 -0.00364063 0.00000000
2.72593500 0.69344871 0.00148507 0.00000000
0.43497950 0.79298823 0.00127945 0.00000000
1.14018971 0.64277953 -0.00320498 0.00000000
1.94166726 0.06411889 0.00141468 0.00000000
2.87193002 1.40006889 -0.00163295 0.00000000
2.52252378 0.91317347 0.00389352 0.00000000
2.40407269 0.38659298 -0.00252482 0.00000000
0.50922875 0.64131707 0.00338603 0.00000000
0.59494025 1.19644842 -0.00041120 0.00000000
1.31310847 0.27618457 -0.00084128 0.00000000
2.93291345 0.74134340 -0.00021016 0.00000000
0.79672930 0.04367557 -0.00398327 0.00000000
3.07081560 1.23190840 0.00111985 0.00000000
3.24114412 1.39758573 0.00377535 0.00000000
3.50571610 0.61082381 0.00280999 0.00000000
3.13395581 1.13239531 -0.00078292 0.00000000
2.85072143 0.77742793 0.00274052 0.00000000
2.35754804 0.66656711 0.00096234 0.00000000
0.86352183 0.06554716 -0.00249744 0.00000000
0.53865054 0.29202184 -0.00098610 0.00000000
4.21713395 0.00336479 0.00217547 0.00000000
3.64321640 0.48633777 -0.00683488 0.00000000
0.79611859 0.38524190 -0.00155535 0.00000000
0.17802593 0.17532854 0.00070427 0.00000000
3.62485204 0.13757284 0.00218750 0.00000000
3.28366618 0.16293825 0.00536522 0.00000000
4.10341338 0.99872350 -0.00078831 0.00000000
2.68016011 0.21813756 -0.00048590 0.00000000
3.32794920 0.75431986 -0.00139169 0.00000000
2.49169240 1.25574586 -0.00074439 0.00000000
1.14372503 0.47585812 -0.00467659 0.00000000
2.63529171 0.34057548 0.00047922 0.00000000
2.88284801 1.45476017 0.00204533 0.00000000
3.03212309 1.37168467 0.00065930 0.00000000
1.16585043 0.97701320 -0.00040755 0.00000000
0.78375570 0.17803187 0.00005837 0.00000000
0.33769854 0.48025567 0.00303912 0.00000000
0.73293986 0.61461335 0.00194221 0.00000000
3.03292338 1.28778957 0.00127942 0.00000000
2.18182712 0.64357065 -0.00431905 0.00000000
1.40025261 0.22522157 -0.00066465 0.00000000
3.46918223 0.97360060 0.00061260 0.00000000
0.17882778 0.50638773 0.00184541 0.00000000
3.37890929 1.14913337 0.00328537 0.00000000
1.04670874 0.05426394 0.00168170 0.00000000
3.63802481 0.29382445 -0.00118751 0.00000000
4.15381801 0.59635282 -0.00197666 0.00000000
0.80038214 1.26658319 0.00126549 0.00000000
3.27586118 1.07261867 0.00163302 0.00000000
3.27837104 0.01361201 -0.00292035 0.00000000
3.91648412 0.34513570 0.00068816 0.00000000
0.47535042 0.29917409 0.00273013 0.00000000
0.65911554 0.54615659 0.00109588 0.00000000
0.67860272 0.50315658 0.00150141 0.00000000
0.69025339 1.16654926 -0.00138443 0.00000000
1.28114327 1.42876215 -0.00328690 0.00000000
3.18763868 0.75013427 0.00359446 0.00000000
1.70133122 0.43229785 0.00129065 0.00000000
0.64998803 1.02835276 -0.00325758 0.00000000
3.90612822 1.42784727 0.00208762 0.00000000
1.60230083 1.43384087 0.00078188 0.00000000
3.41263884 0.31400496 -0.00064852 0.00000000
0.66909300 0.55642712 -0.00309604 0.00000000
2.93015195 0.75903234 -0.00523275 0.00000000
1.72475631 1.32915839 -0.00158826 0.00000000
0.66110504 1.27273109 -0.00109241 0.00000000
3.71890425 0.91693580 -0.00010252 0.00000000
3.28083248 0.30680386 -0.00445615 0.00000000
3.64927625 0.49806479 -0.00138588 0.00000000
0.32732890 0.95406775 0.00109828 0.00000000
1.79036951 0.05130348 0.00297412 0.00000000
1.23629771 1.14854576 0.00259480 0.00000000
0.67747165 0.64892451 -0.00162217 0.00000000
0.68178473 0.83677879 -0.00140252 0.00000000
1.23453607 1.25840544 -0.00113206 0.00000000
0.69051175 1.20777061 0.00073818 0.00000000
4.03590649 0.73095310 -0.00058744 0.00000000
3.84516947 0.61676031 -0.00076875 0.00000000
0.17578495 1.25651503 -0.00041045 0.00000000
3.32865130 0.47157650 -0.00265237 0.00000000
2.73266341 1.01133956 -0.00023983 0.00000000
4.08014919 0.37916938 -0.00039861 0.00000000
3.72439991 1.21147225 -0.00041488 0.00000000
2.23527728 1.05505229 0.00288726 0.00000000
2.46793609 1.18119140 0.00051572 0.00000000
1.23796198 1.41208816 0.00638880 0.00000000
0.17237957 0.76825625 -0.00178934 0.00000000
2.22764244 0.31501653 0.00124412 0.00000000
1.89452595 0.95308628 0.00040515 0.00000000
2.27343923 0.92016237 0.00087382 0.00000000
2.14324475 1.27528643 0.00209253 0.00000000
2.58951930 0.86843883 0.00237316 0.00000000
3.49268598 0.31715957 -0.00076855 0.00000000
1.40109611 0.96834308 -0.00054063 0.00000000
1.34564437 0.43929486 0.00178244 0.00000000
0.60544688 0.67227154 -0.00277986 0.00000000
1.26932440 0.36089045 -0.00027749 0.00000000
3.72724606 1.23250443 0.00484979 0.00000000
3.16647010 1.01534536 0.00134185 0.00000000
0.04743513 0.97699818 -0.00025680 0.00000000
2.74661614 0.03438150 -0.00012374 0.00000000
3.22448438 0.25837278 -0.00083359 0.00000000
1.86196347 0.70117392 -0.00103863 0.00000000
3.55042262 1.05888323 -0.00365887 0.00000000
0.56592223 0.39277152 0.00000854 0.00000000
3.64745088 0.53573857 -0.00220828 0.00000000
1.37388661 0.74540717 -0.00137169 0.00000000
3.34073402 0.45520232 0.00362375 0.00000000
2.28974075 0.29457955 0.00264022 0.00000000
1.95170489 0.27128882 -0.00619333 0.00000000
2.42910337 0.84394043 0.00441800 0.00000000
0.11759649 1.42644829 -0.00154490 0.00000000
1.81085708 0.55034671 0.00263559 0.00000000
0.05425475 0.18773374 -0.00320972 0.00000000
0.81891726 0.66955416 -0.00011228 0.00000000
4.02311089 0.65133130 0.00099061 0.00000000
0.41426193 0.18060419 -0.00215573 0.00000000
2.34895775 0.42676866 -0.00048513 0.00000000
0.00863587 0.99431940 -0.00051813 0.00000000
1.58977366 0.27484189 -0.00302844 0.00000000
2.12273422 0.73315663 -0.00368637 0.00000000
2.74874362 0.75724557 0.00408866 0.00000000
2.52338061 0.45257636 -0.00413018 0.00000000
2.86293014 0.16245170 -0.00029031 0.00000000
3.80929642 0.94681469 0.00203106 0.00000000
0.76299442 1.42179473 -0.00277649 0.00000000
3.65382477 0.62417867 -0.00036848 0.00000000
0.93847940 0.04477448 0.00229825 0.00000000
3.01903856 1.04445373 -0.00374016 0.00000000
3.44019358 0.47071414 0.00077928 0.00000000
1.65735604 0.69825900 -0.00142904 0.00000000
2.13700820 1.00700454 0.00238042 0.00000000
3.59224586 0.48706200 0.00083005 0.00000000
4.21439075 0.45802089 -0.00048836 0.00000000
0.15861529 0.82752150 -0.00640351 0.00000000
1.35394844 0.34427400 0.00036834 0.00000000
1.86501570 0.35467642 0.00050515 0.00000000
2.81316320 0.63531258 -0.00085463 0.00000000
2.39997761 1.07816589 -0.00390083 0.00000000
0.27253154 0.01036926 -0.00150159 0.00000000
1.88936051 0.84975518 -0.00083986 0.00000000
3.18613793 0.03013780 0.00257461 0.00000000
1.09655199 0.14319341 0.00139606 0.00000000
3.91694483 1.24269631 -0.00121875 0.00000000
2.43170725 1.39634703 -0.00600971 0.00000000
3.96191018 0.30396629 -0.00094766 0.00000000
4.05367825 1.13086790 -0.00104264 0.00000000
3.35948123 0.82588815 -0.00142596 0.00000000
1.10244492 0.54550694 0.00103366 0.00000000
0.38259152 0.88858936 -0.00058372 0.00000000
3.31880803 0.11601929 0.00142113 0.00000000
0.85265330 1.19347261 -0.00032940 0.00000000
1.32564711 0.18112602 -0.00023141 0.00000000
0.68300531 0.45943100 -0.00407623 0.00000000
3.08446119 0.29973031 0.00288896 0.00000000
2.18569800 1.02085492 0.00248992 0.00000000
2.52907694 1.41606591 -0.00389334 0.00000000
0.47650556 1.52072667 0.00192588 0.00000000
1.10011368 0.39759484 -0.00132615 0.00000000
0.24040646 1.04065924 -0.00102469 0.00000000
3.59816833 1.16679313 0.00206309 0.00000000
3.67485664 0.86660480 -0.00385506 0.00000000
1.59248450 1.08196981 -0.00091295 0.00000000
1.66714227 1.19371872 0.00192614 0.00000000
2.44355319 0.08664647 -0.00071261 0.00000000
1.39482531 0.53218087 0.00054978 0.00000000
2.42652844 1.51422640 0.00701772 0.00000000
2.12876207 0.02450935 -0.00029019 0.00000000
1.11928283 0.65890692 0.00005210 0.00000000
4.05678408 0.90372793 -0.00280911 0.00000000
3.86573518 1.29634081 -0.00138498 0.00000000
0.15004172 0.83958419 -0.00173763 0.00000000
1.21462745 1.28839073 -0.00074483 0.00000000
3.59415624 1.10913184 -0.00047260 0.00000000
3.96369882 1.05264227 0.00083226 0.00000000
2.70432465 0.89447435 -0.00065080 0.00000000
2.40158831 0.68424471 -0.00171479 0.00000000
2.73506680 1.47641690 -0.00161291 0.00000000
4.23843064 0.06960041 -0.00178396 0.00000000
2.77770395 0.56153040 0.00126706 0.00000000
1.08131368 0.18292800 0.00364777 0.00000000
2.72518599 0.55292618 -0.00418939 0.00000000
4.10574387 1.00528198 0.00056825 0.00000000
2.94400220 0.35089876 0.00355357 0.00000000
1.17398274 0.72313164 0.00187054 0.00000000
1.30671750 1.41913545 -0.00082226 0.00000000
3.61123185 0.56733066 -0.00392984 0.00000000
0.97365871 0.69868281 0.00237867 0.00000000
1.87186883 1.37998725 -0.00121103 0.00000000
2.13795062 1.26605415 -0.00142045 0.00000000
2.15952909 1.37506928 -0.00025662 0.00000000
0.28025507 0.77213674 0.00446334 0.00000000
0.74351217 0.60953420 0.00198378 0.00000000
0.85503759 0.87527980 0.00075626 0.00000000
2.75411089 0.55296356 0.00275335 0.00000000
2.35435433 0.38239152 -0.00012736 0.00000000
2.09564673 0.09143487 0.00523789 0.00000000
1.42453860 1.39574612 0.00380107 0.00000000
2.28307844 0.11058720 0.00089615 0.00000000
0.20570423 1.03101157 0.00164956 0.00000000
1.03994560 0.63073342 -0.00329770 0.00000000
3.72683819 1.21792840 0.00219891 0.00000000
0.40056173 1.05665957 0.00357946 0.00000000
0.05937825 0.70866483 0.00042703 0.00000000
1.42965312 0.94960154 0.00095626 0.00000000
3.09533961 1.39218208 -0.00478354 0.00000000
0.21993561 0.96854522 0.00184322 0.00000000
2.17642710 1.07015186 -0.00189498 0.00000000
2.91697139 0.96648121 0.00181781 0.00000000
3.78279908 1.35113369 -0.00065213 0.00000000
2.91560809 0.42577451 0.00386718 0.00000000
3.89140580 0.19440540 0.00228255 0.00000000
3.67055963 1.18243188 0.00322498 0.00000000
4.25027180 0.17169905 -0.00110938 0.00000000
1.59985927 1.39611552 0.00437785 0.00000000
0.44234579 0.73376486 0.00245445 0.00000000
0.27671347 0.48278073 0.00191260 0.00000000
3.27854353 0.94755125 0.00280435 0.00000000
3.33008232 1.17625928 0.00336239 0.00000000
2.94854729 1.41809700 0.00134452 0.00000000
0.50414228 0.49746999 0.00453972 0.00000000
2.90283664 0.19828816 -0.00008710 0.00000000
3.78510779 0.42514682 0.00166151 0.00000000
3.44919561 0.96864392 -0.00031513 0.00000000
3.39459824 1.49450593 -0.00201511 0.00000000
2.20595669 0.84321595 -0.00100046 0.00000000
1.10284629 0.43393398 0.00074310 0.00000000
1.99126372 1.41203877 -0.00012341 0.00000000
1.86630184 1.40789857 -0.00088834 0.00000000
0.81285511 0.28755268 -0.00646671 0.00000000
3.28558621 0.62506961 -0.00113955 0.00000000
4.21714080 1.32337987 -0.00197924 0.00000000
3.11773127 0.14942216 -0.00162848 0.00000000
0.74666271 1.17057523 -0.00251326 0.00000000
1.81511664 1.11966682 0.00488420 0.00000000
0.56894305 0.08776791 -0.00369157 0.00000000
1.07512170 0.06861747 0.00337076 0.00000000
3.23165569 0.62679303 -0.00034185 0.00000000
2.36038923 0.21992087 -0.00498542 0.00000000
2.13036654 0.47735444 -0.00280438 0.00000000
0.37579437 1.05979189 0.00261417 0.00000000
2.56995123 0.08976529 -0.00220278 0.00000000
1.29092720 0.79287075 0.00422356 0.00000000
2.58672881 1.39538146 -0.00014293 0.00000000
0.65524686 1.21382563 -0.00026847 0.00000000
1.79785890 0.44129806 0.00334495 0.00000000
2.00622039 1.50426300 0.00523065 0.00000000
2.43330129 0.85711934 -0.00007566 0.00000000
1.19432110 0.09647238 -0.00117518 0.00000000
0.54097623 0.18913218 0.00037888 0.00000000
2.59260530 1.37230731 0.00334053 0.00000000
1.37927877 0.21756621 0.00012526 0.00000000
2.00422806 0.39993747 0.00125938 0.00000000
1.60150238 0.69734014 0.00035563 0.00000000
1.87896687 1.13044083 -0.00358609 0.00000000
2.93403194 1.11275311 0.00390836 0.00000000
2.11724058 0.08461672 -0.00080360 0.00000000
0.79551307 0.79803937 0.00084459 0.00000000
0.75409986 0.04863284 0.00303444 0.00000000
1.78278428 0.53068746 -0.00178357 0.00000000
3.83383327 0.99079155 0.00067876 0.00000000
3.89686944 0.99537477 0.00019240 0.00000000
4.24811682 0.17319143 -0.00344545 0.00000000
1.50683113 0.10575134 -0.00331938 0.00000000
1.30224191 0.70488105 -0.00233955 0.00000000
0.20317630 0.27756485 -0.00107911 0.00000000
1.81657164 0.60716044 -0.00308119 0.00000000
0.10412301 0.92527432 0.00363389 0.00000000
1.49015854 0.53030543 -0.00270224 0.00000000
1.59099448 0.10103855 -0.00237098 0.00000000
4.05107506 1.26376122 0.00125152 0.00000000
3.92447985 1.39503884 -0.00069148 0.00000000
1.48898491 0.64745835 -0.00262419 0.00000000
2.05337298 0.67186069 -0.00201402 0.00000000
4.16479723 0.76005848 0.00186513 0.00000000
3.14659474 0.27950290 0.00248774 0.00000000
1.81488829 0.45801496 0.00291935 0.00000000
0.35197883 0.22873246 0.00178260 0.00000000
0.34949982 0.49312052 -0.00086779 0.00000000
0.95786644 1.40329161 0.00005367 0.00000000
2.96937084 0.30362323 -0.00245873 0.00000000
0.80045104 0.17081339 0.00136398 0.00000000
0.13405883 0.09027666 0.00309127 0.00000000
1.29578919 0.19737126 0.00383943 0.00000000
0.06247264 1.14535382 -0.00230144 0.00000000
3.85773531 0.12634997 -0.00013664 0.00000000
1.54292084 0.46788310 0.00478193 0.00000000
1.52286795 0.42523069 -0.00059782 0.00000000
0.55359490 0.79902376 -0.00313319 0.00000000
4.09098390 1.28779538 -0.00109244 0.00000000
3.80641650 1.13450730 0.00229935 0.00000000
1.74568726 1.41339170 0.00268457 0.00000000
0.38464222 1.22566124 0.00485518 0.00000000
1.55264449 0.28929796 0.00132972 0.00000000
2.82992154 0.89802120 -0.00016720 0.00000000
2.08761641 1.38621172 0.00138474 0.00000000
1.16485836 1.46607518 -0.00350735 0.00000000
1.27690595 0.32455848 0.00461714 0.00000000
2.83669538 0.18146702 0.00219788 0.00000000
1.06977643 0.92718838 -0.00094679 0.00000000
3.73655199 0.82595278 0.00273470 0.00000000
4.03676163 1.31128224 -0.00137933 0.00000000
3.21480437 0.06935494 0.00472331 0.00000000
0.57775105 1.50351122 0.00232155 0.00000000
1.77533565 0.37352455 0.00389356 0.00000000
0.36765675 0.15409545 0.00267965 0.00000000
0.35471234 0.78498164 0.00147160 0.00000000
2.17033635 1.10662452 0.00111081 0.00000000
3.53818741 1.47649179 0.00005815 0.00000000
2.33327366 0.00214772 0.00373284 0.00000000
0.48019122 0.79006666 0.00153137 0.00000000
0.80401070 1.23997137 -0.00475597 0.00000000
0.29162174 0.23877332 -0.00010124 0.00000000
3.94030067 1.19613699 0.00438000 0.00000000
3.57078908 1.26170410 -0.00101015 0.00000000
1.97564889 0.15766302 0.00134496 0.00000000
0.58524408 1.35104402 -0.00174224 0.00000000
3.90713816 0.35786173 0.00258672 0.00000000
2.93601304 0.94960089 0.00285782 0.00000000
0.78952987 1.32146478 0.00028526 0.00000000
2.92610621 1.48396106 0.00360691 0.00000000
1.43595533 0.35348535 0.00040477 0.00000000
1.26029054 1.32028592 0.00208148 0.00000000
3.63795115 1.13687166 -0.00100223 0.00000000
4.08384439 0.40908488 -0.00219701 0.00000000
0.49281858 0.19348400 -0.00204077 0.00000000
2.20820435 0.84993394 -0.00000487 0.00000000
3.37438545 0.76639195 -0.00357940 0.00000000
4.05566093 0.94453593 -0.00358618 0.00000000
1.86074430 1.11131098 0.00126517 0.00000000
2.55914866 0.39921104 0.00144580 0.00000000
4.23637394 0.72271345 0.00242353 0.00000000
2.70063285 0.82446109 -0.00454850 0.00000000
2.16074298 0.43739552 0.00094884 0.00000000
1.10668434 0.07824322 -0.00062426 0.00000000
2.78765165 0.82796288 0.00451923 0.00000000
0.16152381 1.00155490 0.00145883 0.00000000
0.76635221 1.06019527 0.00477788 0.00000000
2.71945778 0.90276765 0.00124849 0.00000000
0.96443986 0.80322126 0.00269654 0.00000000
2.49552248 1.29953926 0.00231248 0.00000000
1.96812548 0.71331248 0.00059729 0.00000000
3.45783929 0.04992514 0.00021144 0.00000000
0.23593546 1.36985153 0.00088304 0.00000000
2.00565760 1.17081439 0.00197865 0.00000000
3.78196529 0.65325178 0.00049418 0.00000000
3.48526508 0.11625534 -0.00300256 0.00000000
2.85262870 0.85803734 0.00039543 0.00000000
0.94175876 0.23584232 -0.00341499 0.00000000
0.41509760 0.47647338 -0.00318067 0.00000000
2.99911070 1.09573079 -0.00274931 0.00000000
0.09256949 0.15196675 -0.00184308 0.00000000
2.85709247 0.75416353 0.00128232 0.00000000
2.99951227 0.78883388 0.00074639 0.00000000
1.99394463 0.39791667 -0.00302910 0.00000000
2.00689521 0.45567677 -0.00309580 0.00000000
3.54196546 0.77355407 0.00013979 0.00000000
0.84104551 1.40522961 0.00178690 0.00000000
2.98771551 0.26693060 0.00368348 0.00000000
2.52266283 0.25227605 -0.00600231 0.00000000
0.37144254 0.76222999 0.00341158 0.00000000
1.96221789 0.77184030 -0.00323712 0.00000000
0.80119976 0.90531640 0.00119353 0.00000000
1.81155770 0.32151267 0.00376584 0.00000000
2.02216513 0.24947120 -0.00035513 0.00000000
0.01832035 0.97009540 0.00248843 0.00000000
0.66842109 1.49302789 0.00717584 0.00000000
3.42254016 0.26687200 -0.00443915 0.00000000
0.56075888 0.82773968 0.00092860 0.00000000
3.47575194 0.73783502 -0.00022925 0.00000000
0.87701160 1.48157554 -0.00089378 0.00000000
1.06580514 1.34200588 0.00071552 0.00000000
2.78085116 0.07430910 0.00211351 0.00000000
2.44652126 1.10677331 -0.00077992 0.00000000
0.29629274 1.51597670 -0.00055897 0.00000000
0.95769484 0.76460109 -0.00209785 0.00000000
0.29805194 0.26017492 0.00245399 0.00000000
2.66654335 0.90641165 0.00405025 0.00000000
0.47388792 0.34277647 0.00279886 0.00000000
1.18535646 0.31764364 0.00073463 0.00000000
0.21387939 0.69323244 0.00249397 0.00000000
0.43000123 1.26924652 -0.00218859 0.00000000
1.72706148 0.98746739 0.00076463 0.00000000
1.22198365 0.30170576 0.00228649 0.00000000
1.34999077 1.06541266 -0.00179761 0.00000000
3.65790884 1.12620248 -0.00132231 0.00000000
2.53524352 0.33582298 -0.00280656 0.00000000
1.33542086 1.27819997 -0.00010408 0.00000000
1.98113450 0.70907186 0.00158922 0.00000000
1.68491160 0.86695873 -0.00011212 0.00000000
3.70634214 1.20732864 -0.00059154 0.00000000
2.50740779 0.71478261 0.00087402 0.00000000
0.94353120 0.78316905 -0.00179268 0.00000000
0.03530112 0.01118154 0.00093823 0.00000000
2.90338678 0.46017480 0.00254661 0.00000000
2.00396215 1.19309472 -0.00057824 0.00000000
4.11050063 0.27517099 0.00295649 0.00000000
0.43170924 0.98270805 0.00071214 0.00000000
4.13526517 0.94189831 0.00133432 0.00000000
3.58967988 1.03421676 -0.00350978 0.00000000
1.05569076 1.10733181 0.00034782 0.00000000
3.58454139 0.75625264 -0.00200339 0.00000000
0.86934308 0.10252143 -0.00515016 0.00000000
1.66398310 0.03454831 0.00176793 0.00000000
1.24240330 0.04121180 -0.00176885 0.00000000
0.99617316 1.00414932 -0.00398705 0.00000000
1.83255018 1.24591024 -0.00174098 0.00000000
1.04276621 0.02606004 0.00115460 0.00000000
0.61176822 1.25997220 -0.00178378 0.00000000
2.84778666 0.18766428 0.00217155 0.00000000
0.79498468 0.36815213 -0.00051361 0.00000000
2.68022183 0.52346895 -0.00141325 0.00000000
1.78002567 0.74636687 0.00117572 0.00000000
2.49299307 0.93983561 -0.00015464 0.00000000
2.11404024 0.02755094 -0.00023819 0.00000000
1.31750853 1.34663742 -0.00347033 0.00000000
0.56892004 0.94167035 0.00272216 0.00000000
0.62153857 0.32449865 0.00052311 0.00000000
0.12639099 0.95791852 0.00556330 0.00000000
4.21784416 0.37687172 -0.00017847 0.00000000
0.00587405 0.49553573 0.00088226 0.00000000
1.41195374 0.32180988 0.00002406 0.00000000
0.34018463 0.01056346 -0.00188054 0.00000000
3.61913817 0.48660215 0.00020017 0.00000000
0.88909819 0.23946003 -0.00549788 0.00000000
2.65195775 1.05630593 0.00333448 0.00000000
2.85089536 0.42063785 -0.00321445 0.00000000
2.12296467 0.00630545 0.00425685 0.00000000
0.84469061 0.64676307 0.00087034 0.00000000
1.55324843 0.57834330 -0.00213804 0.00000000
0.69336568 1.47785196 0.00168329 0.00000000
1.73692815 0.80287426 -0.00382872 0.00000000
3.31826488 0.21481410 0.00459398 0.00000000
0.31294408 0.89739748 -0.00129661 0.00000000
4.10349652 1.10907030 -0.00334767 0.00000000
1.42879261 0.89370227 0.00188998 0.00000000
1.81260637 1.51689272 0.00279965 0.00000000
1.40250757 0.91192099 -0.00171422 0.00000000
0.53087305 0.63771619 0.00039135 0.00000000
4.16978695 0.03711891 0.00142034 0.00000000
1.15633383 0.83750008 0.00186808 0.00000000
2.19788626 0.88759567 0.00001345 0.00000000
2.74230605 0.05608199 -0.00228435 0.00000000
4.23044840 0.83176176 0.00031194 0.00000000
3.79525263 1.21620381 -0.00283168 0.00000000
1.37312720 0.08462976 0.00089307 0.00000000
3.83794977 0.62434035 -0.00228025 0.00000000
0.41740362 1.32399239 0.00074092 0.00000000
4.21836152 0.54195087 0.00134755 0.00000000
0.16212650 1.20317544 0.00060797 0.00000000
3.73258271 1.40551521 -0.00109212 0.00000000
3.96961977 0.22823345 0.00118898 0.00000000
0.62443639 0.16617496 0.00597846 0.00000000
2.00339685 0.95799533 0.00020367 0.00000000
1.34867408 1.31412922 0.00372108 0.00000000
2.55951885 0.72835069 -0.00367267 0.00000000
2.83411968 0.05385965 0.00011947 0.00000000
0.26437001 0.68291765 -0.00126856 0.00000000
3.89189575 0.03865027 0.00286645 0.00000000
2.02553600 1.50495746 -0.00029954 0.00000000
3.72142876 0.40969357 -0.00050587 0.00000000
4.15582892 0.65296019 0.00056083 0.00000000
3.31817780 1.00902709 -0.00173421 0.00000000
0.49670394 1.46109640 -0.00021549 0.00000000
0.18582999 0.50607302 -0.00425091 0.00000000
2.98453412 0.09302062 -0.00210313 0.00000000
0.39522046 0.99830032 0.00322624 0.00000000
2.53958353 0.27485676 -0.00060412 0.00000000
1.41810375 1.49270911 -0.00164094 0.00000000
2.02885802 1.09285635 -0.00027983 0.00000000
0.57973961 1.09667471 0.00410784 0.00000000
3.20727951 1.48556738 0.00163818 0.00000000
2.56458585 1.35439502 0.00055040 0.00000000
3.07064765 1.40051271 0.00110913 0.00000000
1.32914294 1.43288537 -0.00016132 0.00000000
3.02906196 0.55839883 -0.00218777 0.00000000
3.82861194 0.39418381 -0.00770816 0.00000000
0.35644984 0.32164089 0.00417556 0.00000000
1.36469390 1.49617535 0.00103118 0.00000000
1.09423331 0.66381059 -0.00218549 0.00000000
0.90631979 0.72549911 0.00088976 0.00000000
3.42986691 0.08069674 0.00226734 0.00000000
3.51053626 0.44370445 0.00294027 0.00000000
3.51448971 0.09538318 -0.00097589 0.00000000
2.13121673 1.03279852 0.00104826 0.00000000
1.03571779 0.47392865 0.00289151 0.00000000
3.98729883 0.40492295 0.00526379 0.00000000
2.87084108 1.37445256 0.00040879 0.00000000
1.14682959 0.85925908 0.00067228 0.00000000
3.22662989 0.83105021 -0.00285577 0.00000000
2.49909122 0.31131131 0.00161429 0.00000000
3.89335127 1.32517535 0.00204801 0.00000000
0.83788125 0.21746268 -0.00247282 0.00000000
2.00272527 1.43109285 -0.00195503 0.00000000
2.06800199 0.94354561 -0.00281941 0.00000000
4.05889874 1.25527343 0.00126370 0.00000000
2.43632026 1.25081555 0.00258653 0.00000000
1.23468134 0.39025234 0.00477010 0.00000000
1.74510804 0.45688694 -0.00300540 0.00000000
4.18351833 1.34096892 -0.00354681 0.00000000
4.00894308 1.34148339 0.00035503 0.00000000
3.18612773 0.67483610 -0.00206392 0.00000000
3.43881254 0.41585179 -0.00119993 0.00000000
2.00967346 1.16095514 -0.00184668 0.00000000
0.56243258 0.06120259 -0.00008347 0.00000000
4.22368436 0.76377567 -0.00485014 0.00000000
1.95190792 0.65526227 -0.00121649 0.00000000
2.95399414 1.23964230 0.00250479 0.00000000
4.09801689 1.11540288 0.00121147 0.00000000
2.00776947 0.24474685 -0.00470956 0.00000000
0.67811633 0.15522169 -0.00096764 0.00000000
3.96167866 1.18284537 -0.00055100 0.00000000
3.86283065 0.52157980 0.00526682 0.00000000
2.70840544 1.52189287 0.00643856 0.00000000
1.14615163 0.35012627 0.00059443 0.00000000
4.11647709 0.48205954 0.00220424 0.00000000
2.51531134 0.87031645 0.00070663 0.00000000
1.59551952 0.64100265 0.00457966 0.00000000
3.66823552 0.84664708 0.00207816 0.00000000
1.87718943 1.26116173 -0.00260809 0.00000000
0.90659117 1.29457911 0.00626662 0.00000000
3.12663743 0.43102201 0.00253231 0.00000000
3.01803634 1.13148482 -0.00122615 0.00000000
1.76593352 0.25051282 -0.00041107 0.00000000
0.74432218 0.85210061 -0.00078678 0.00000000
1.34296309 1.15608094 -0.00264752 0.00000000
3.20511546 0.46759094 -0.00084561 0.00000000
1.98445890 0.87788491 -0.00158316 0.00000000
2.88373966 1.27263375 0.00449469 0.00000000
3.61352932 1.23175961 -0.00059966 0.00000000
2.55526121 0.37535091 0.00077548 0.00000000
0.03327871 0.43252001 0.00324102 0.00000000
3.77213894 0.13063837 -0.00302762 0.00000000
3.99074526 1.52882181 0.00092051 0.00000000
3.18447934 0.53697142 -0.00297888 0.00000000
1.50154753 1.41642321 -0.00183536 0.00000000
0.02556921 1.34044012 -0.00548921 0.00000000
2.82142997 0.08621582 -0.00206308 0.00000000
3.17077231 1.33289537 0.00100745 0.00000000
0.05456825 0.37946997 0.00411311 0.00000000
2.74481809 1.32628480 -0.00251126 0.00000000
3.01646025 0.90766358 -0.00024878 0.00000000
2.70500919 0.77196206 0.00113250 0.00000000
3.49259912 0.65578478 -0.00314659 0.00000000
2.93711050 0.11936707 0.00549828 0.00000000
1.05495862 0.90630784 0.00390835 0.00000000
0.49213763 0.57017618 -0.00249251 0.00000000
0.12831248 0.12885505 -0.00234577 0.00000000
0.44172635 0.00997964 -0.00618844 0.00000000
0.55272200 1.42122112 0.00299839 0.00000000
0.32991312 0.45742087 0.00000296 0.00000000
1.70156938 1.09970074 -0.00308921 0.00000000
1.57987351 1.40589688 0.00094110 0.00000000
1.32388060 0.09942063 0.00348137 0.00000000
0.33288803 0.69012263 0.00076371 0.00000000
3.51278793 0.46910932 0.00274169 0.00000000
3.67678237 1.25118991 -0.00110409 0.00000000
0.22912613 0.79376214 0.00152742 0.00000000
1.33577441 0.09686297 0.00335593 0.00000000
1.87629382 1.06850544 -0.00345410 0.00000000
3.43595335 0.39027881 -0.00241388 0.00000000
3.40964329 1.19816798 0.00411465 0.00000000
3.34364467 0.59335958 -0.00150099 0.00000000
2.51827447 0.62665998 0.00224059 0.00000000
2.40552655 0.09398160 0.00099055 0.00000000
2.93450938 0.38322664 -0.00188168 0.00000000
0.40227935 0.33361546 0.00070874 0.00000000
0.45247004 0.48650818 0.00339212 0.00000000
1.62326318 0.21103338 0.00171708 0.00000000
4.20365608 1.24537991 0.00698935 0.00000000
1.49788631 0.41505751 0.00236969 0.00000000
3.18968777 1.47162055 0.00178077 0.00000000
0.76827418 1.17938753 0.00160436 0.00000000
0.20532896 0.06855715 0.00151576 0.00000000
2.05741317 0.45364750 0.00262182 0.00000000
2.08663884 0.54364266 0.00116755 0.00000000
3.67896763 1.05459827 -0.00041463 0.00000000
0.07469199 0.61725114 0.00145032 0.00000000
2.41107318 1.46182784 0.00123617 0.00000000
3.46804461 0.28333214 0.00125275 0.00000000
1.72923066 1.49878036 -0.00129562 0.00000000
2.11703393 0.58104394 -0.00068095 0.00000000
3.66301654 0.65192364 -0.00259289 0.00000000
0.59062224 0.28491152 -0.00228445 0.00000000
1.29582333 0.67016247 0.00056187 0.00000000
1.41920679 1.28189102 0.00152722 0.00000000
0.06246908 0.09591053 -0.00239107 0.00000000
2.04711864 1.41568763 0.00377685 0.00000000
3.41500914 0.21812206 0.00150751 0.00000000
1.16965938 0.33979229 0.00055248 0.00000000
2.72934210 0.05604792 0.00138916 0.00000000
0.30760369 1.28108033 0.00017019 0.00000000
4.12936521 0.39769282 -0.00041431 0.00000000
0.30156832 1.10175431 -0.00036124 0.00000000
2.33023064 0.13251057 -0.00370424 0.00000000
4.03415914 0.23371767 -0.00214387 0.00000000
3.55515561 0.17724059 0.00208533 0.00000000
1.51971192 1.42361055 0.00286143 0.00000000
3.06951297 0.04075205 0.00195378 0.00000000
0.96642346 0.10334210 0.00062450 0.00000000
1.20945436 0.44197411 -0.00357790 0.00000000
1.60806386 1.25131564 0.00346547 0.00000000
4.22448624 1.27313500 -0.00099643 0.00000000
1.90057531 0.15304597 0.00175570 0.00000000
3.94690475 1.29896778 0.00478817 0.00000000
0.28473048 0.93284921 0.00422272 0.00000000
4.02753391 0.78687184 -0.00074602 0.00000000
3.24270645 0.76562706 0.00393490 0.00000000
3.01304923 1.29689250 0.00359510 0.00000000
0.30556302 0.13415330 -0.00208435 0.00000000
1.79106450 1.11208890 -0.00081774 0.00000000
3.11087249 0.24099406 0.00171027 0.00000000
1.75915891 0.10593405 -0.00437729 0.00000000
2.31287428 1.17390963 -0.00286798 0.00000000
2.75572241 0.27901953 -0.00262204 0.00000000
4.08557171 0.69525555 0.00030257 0.00000000
2.06928657 0.28661662 0.00578000 0.00000000
0.87120270 1.44013530 0.00153395 0.00000000
2.89494976 0.56406795 0.00125058 0.00000000
3.03892460 0.31307801 0.00375711 0.00000000
2.91061610 1.13329293 -0.00047157 0.00000000
1.36551480 0.64706526 0.00310180 0.00000000
1.24803744 0.38626545 0.00039289 0.00000000
1.35832008 0.79648444 -0.00537790 0.00000000
4.07505258 0.07434180 0.00499861 0.00000000
4.17883292 0.01542147 0.00098196 0.00000000
1.26219381 1.47134565 0.00106995 0.00000000
0.83392390 1.12474370 0.00155760 0.00000000
1.88274433 0.47861804 0.00128126 0.00000000
1.44892743 0.88282543 0.00330115 0.00000000
0.45778033 0.77106068 -0.00426701 0.00000000
3.11113377 1.17167391 0.00180425 0.00000000
1.70100699 0.60385926 -0.00338743 0.00000000
1.19799950 0.55139298 -0.00140864 0.00000000
1.67362088 1.02373443 0.00010718 0.00000000
1.74393685 0.21621412 0.00214614 0.00000000
0.33667530 0.19519403 -0.00027896 0.00000000
3.20787651 1.08869778 0.00124334 0.00000000
3.72509735 0.01234829 0.00304026 0.00000000
1.05394087 0.11647890 -0.00042710 0.00000000
2.68122588 1.07040964 -0.00214769 0.00000000
0.55247095 0.03208321 -0.00147188 0.00000000
2.51897652 0.78996859 0.00371460 0.00000000
2.94869381 1.17055608 0.00106930 0.00000000
2.42914544 0.94086416 -0.00262117 0.00000000
3.41562706 1.23772300 0.00088117 0.00000000
1.28212361 0.03226301 0.00004291 0.00000000
0.91978820 1.51271311 -0.00118541 0.00000000
1.71610328 1.16328873 0.00160680 0.00000000
1.67690217 0.48220125 -0.00480965 0.00000000
2.54568568 0.50248007 0.00034649 0.00000000
2.89002952 1.17482604 0.00231678 0.00000000
1.16493167 1.32535917 0.00192638 0.00000000
0.79452485 0.43652681 0.00116269 0.00000000
2.04428014 0.67836661 -0.00166356 0.00000000
1.03045243 1.22425149 0.00054417 0.00000000
3.78288849 1.49162006 -0.00093480 0.00000000
1.78406781 0.43837148 -0.00267185 0.00000000
2.49588466 0.49428076 0.00351626 0.00000000
0.52466726 0.89436573 0.00048258 0.00000000
4.09554453 1.02885179 0.00428011 0.00000000
1.00172289 1.22506908 0.00236124 0.00000000
0.67130618 0.87396586 -0.00117684 0.00000000
1.57757726 0.98370458 -0.00149287 0.00000000
4.08111377 0.20470830 -0.00091059 0.00000000
0.47926027 1.04830145 0.00327660 0.00000000
0.87133340 1.10680220 -0.00184608 0.00000000
3.34257654 0.01896112 0.00034711 0.00000000
4.00903105 0.21972577 0.00067806 0.00000000
4.22150708 0.49596094 -0.00033602 0.00000000
3.09958759 0.52532023 0.00345825 0.00000000
0.80101464 0.40570798 0.00029744 0.00000000
3.53109189 1.07804337 0.00191797 0.00000000
1.02045892 0.11156625 -0.00098783 0.00000000
2.41926358 1.42290876 0.00270820 0.00000000
0.84803274 1.11598660 0.00223678 0.00000000
2.73865139 0.67826821 0.00105679 0.00000000
0.38733325 1.14754374 0.00046477 0.00000000
3.67510267 1.14425628 -0.00260078 0.00000000
3.12624418 1.17285081 -0.00072090 0.00000000
1.10009894 0.81959689 -0.00011913 0.00000000
0.33647281 1.33383213 -0.00347008 0.00000000
1.91094670 0.42305210 -0.00187355 0.00000000
4.06670417 0.33408047 -0.00405688 0.00000000
3.67541122 0.10229525 -0.00239251 0.00000000
0.08976527 0.48941559 -0.00155368 0.00000000
1.34395125 0.98091052 -0.00003010 0.00000000
3.76693171 0.63644487 -0.00251191 0.00000000
3.93642494 0.29650538 -0.00038616 0.00000000
3.92419137 0.89011961 0.00070833 0.00000000
1.60157839 0.92153411 0.00166376 0.00000000
4.20932276 0.80299436 -0.00106185 0.00000000
0.29429035 1.40327505 -0.00030725 0.00000000
0.39630163 1.36038408 0.00057264 0.00000000
2.18473512 0.39491275 0.00199776 0.00000000
3.35527858 0.99821220 -0.00057214 0.00000000
0.89041457 0.62503893 0.00261028 0.00000000
2.65701082 1.33366662 0.00100422 0.00000000
4.01472001 1.24318735 -0.00001431 0.00000000
2.56129379 0.28869693 -0.00263881 0.00000000
2.23909725 1.11941090 -0.00017356 0.00000000
3.43408250 1.09516888 0.00009018 0.00000000
3.78071073 1.48313913 0.00364925 0.00000000
0.08740200 0.53435076 0.00123124 0.00000000
0.45871783 1.22714013 0.00445049 0.00000000
0.25105782 0.57474929 -0.00125642 0.00000000
2.35703320 0.32864674 0.00194363 0.00000000
1.87680313 0.38253605 -0.00186941 0.00000000
2.00268754 1.19890011 0.00099874 0.00000000
0.53991709 0.79502547 0.00053064 0.00000000
3.05605760 0.70299092 0.00222668 0.00000000
2.20443765 0.89568870 0.00041441 0.00000000
0.74962723 0.39419663 0.00164755 0.00000000
1.82221840 0.30645010 -0.00072066 0.00000000
1.85491598 0.80452016 0.00738358 0.00000000
0.67185573 1.23653338 0.00253930 0.00000000
3.83165470 0.18959260 -0.00299431 0.00000000
2.61844875 0.99119274 0.00152526 0.00000000
1.17306742 1.43696894 0.00381294 0.00000000
0.93809492 0.92083986 0.00134028 0.00000000
3.33972739 0.26193375 -0.00171323 0.00000000
3.63509709 0.20306616 0.00121530 0.00000000
0.77101066 1.47427435 -0.00244028 0.00000000
0.29777664 0.60425113 0.00047076 0.00000000
3.62621878 1.41752141 -0.00139921 0.00000000
0.39985226 0.60669627 -0.00383844 0.00000000
3.19549393 0.42146353 -0.00000698 0.00000000
1.26034929 0.30078380 -0.00187364 0.00000000
1.07442898 0.93701524 -0.00099730 0.00000000
4.23260803 1.20903497 0.00647443 0.00000000
1.10875214 0.85778589 -0.00075370 0.00000000
3.85625538 1.52618627 -0.00168402 0.00000000
2.58968953 0.05663082 0.00285418 0.00000000
0.46885559 0.76604232 -0.00185522 0.00000000
2.89691222 0.89533491 0.00081873 0.00000000
0.20413141 1.03120710 0.00029424 0.00000000
0.48883297 0.99999452 0.00527650 0.00000000
0.55284333 0.01410012 0.00204432 0.00000000
2.35051950 0.75796010 0.00051887 0.00000000
3.46949930 0.80818682 0.00017207 0.00000000
1.54600237 0.66754288 -0.00000839 0.00000000
3.32401556 0.21392469 -0.00175508 0.00000000
0.25933958 1.37842270 0.00215334 0.00000000
3.62962703 0.35521702 0.00235410 0.00000000
1.67431070 1.47741844 0.00435704 0.00000000
3.63085668 1.07571802 0.00226777 0.00000000
2.96943579 1.46790126 0.00146896 0.00000000
2.33211938 0.53707056 0.00058192 0.00000000
1.41175958 0.80036339 -0.00045312 0.00000000
3.99229560 1.13067773 -0.00104218 0.00000000
3.43226078 0.97375551 -0.00008517 0.00000000
0.28936031 0.63659716 -0.00230977 0.00000000
1.00686801 0.14611204 -0.00161191 0.00000000
1.77427150 1.15520475 0.00138302 0.00000000
2.69142535 1.18799717 -0.00215881 0.00000000
3.42970246 1.26141350 -0.00891904 0.00000000
3.03423026 0.80409249 0.00133999 0.00000000
2.55671889 0.96537009 -0.00251669 0.00000000
1.00902757 0.69316607 -0.00054896 0.00000000
1.09345899 0.95308806 -0.00287335 0.00000000
3.09524691 1.34822157 -0.00114529 0.00000000
1.79666327 1.17683076 0.00066215 0.00000000
2.75314907 0.37785979 0.00179911 0.00000000
2.83890469 0.58708304 -0.00374097 0.00000000
2.08262196 1.01698202 0.00202075 0.00000000
0.23755940 1.09797706 0.00093728 0.00000000
0.50507653 0.34081171 0.00217173 0.00000000
3.52646690 1.48543440 0.00041665 0.00000000
0.34101099 1.28295911 -0.00144594 0.00000000
2.83786478 0.21131071 -0.00481303 0.00000000
1.27565727 0.88813670 -0.00530159 0.00000000
4.00674369 1.14182956 0.00373171 0.00000000
0.71194163 1.28463706 0.00132215 0.00000000
3.51362208 0.05276989 -0.00261322 0.00000000
2.20661641 0.82665153 -0.00028781 0.00000000
4.08726586 0.34402716 -0.00051078 0.00000000
0.50756903 0.66646004 -0.00236052 0.00000000
3.58676011 0.14103697 0.00271386 0.00000000
1.85974514 1.49845764 0.00148755 0.00000000
2.53066291 0.13846737 -0.00155361 0.00000000
2.84513996 1.20957251 0.00067263 0.00000000
2.28293500 0.48844988 -0.00134806 0.00000000
0.55032184 0.33782838 -0.00315876 0.00000000
4.08683493 1.24746561 0.00297870 0.00000000
1.34984581 0.40251514 -0.00326323 0.00000000
1.12562076 0.13597425 -0.00136226 0.00000000
3.63639354 0.73453062 -0.00093812 0.00000000
1.65254351 1.40227922 0.00170637 0.00000000
3.79286660 1.10160405 -0.00519782 0.00000000
1.16132764 0.07280708 0.00305352 0.00000000
0.77446877 0.39323880 0.00212271 0.00000000
1.23882875 0.58008657 -0.00278847 0.00000000
2.20207826 1.30778427 0.00184087 0.00000000
1.37116832 0.36536619 0.00081752 0.00000000
2.46484890 0.66247966 0.00275658 0.00000000
0.92093051 1.07036457 -0.00203048 0.00000000
1.14407514 0.21243172 0.00476949 0.00000000
3.10903718 1.31979069 -0.00213945 0.00000000
1.85306079 1.24626560 0.00109730 0.00000000
2.99396199 0.45738688 0.00087252 0.00000000
0.24189461 1.18232525 0.00028620 0.00000000
2.83303805 0.44411129 -0.00087355 0.00000000
2.64223158 0.60666214 -0.00149599 0.00000000
1.41532427 0.78073934 -0.00173715 0.00000000
2.76783242 0.75566327 0.00209715 0.00000000
1.39599362 0.26355450 0.00289291 0.00000000
0.80167162 0.98220472 -0.00046825 0.00000000
2.91721979 0.92372774 0.00422951 0.00000000
0.26636237 0.87986295 -0.00029937 0.00000000
4.00263382 0.33761070 0.00092302 0.00000000
3.06706228 0.47836124 0.00177315 0.00000000
3.83850968 1.27995523 -0.00194533 0.00000000
3.96309955 1.39823397 0.00121161 0.00000000
1.37146279 1.30736668 -0.00307603 0.00000000
3.16220628 1.24019345 -0.00028190 0.00000000
0.66468189 0.60299972 -0.00280372 0.00000000
0.40080310 0.76247502 -0.00002136 0.00000000
0.29382509 0.58591089 -0.00166553 0.00000000
0.43415944 1.24900011 0.00270482 0.00000000
1.10278982 0.36085370 -0.00232243 0.00000000
0.86445288 0.20362503 -0.00236870 0.00000000
0.92959766 0.45132051 -0.00191517 0.00000000
1.33176266 0.28161366 -0.00085862 0.00000000
0.42390646 0.77603964 0.00280961 0.00000000
2.52434351 0.32938978 -0.00018168 0.00000000
1.97331774 0.50097564 -0.00209174 0.00000000
0.04774061 1.49270099 0.00277005 0.00000000
4.21623826 0.25448149 0.00251371 0.00000000
3.30380217 1.49568414 0.00177821 0.00000000
1.57347967 0.48119835 -0.00088646 0.00000000
2.01201611 1.20978044 -0.00504437 0.00000000
1.54395616 0.07925771 -0.00368162 0.00000000
3.06869343 0.99089713 0.00295614 0.00000000
4.13763860 1.06522858 -0.00022083 0.00000000
3.39886416 0.19726097 0.00014349 0.00000000
0.34356688 0.79128348 -0.00025129 0.00000000
0.35232796 0.42004693 0.00194114 0.00000000
1.93484285 0.94300503 -0.00294444 0.00000000
0.54605905 0.79265739 -0.00218041 0.00000000
1.54700704 1.50543876 -0.00120216 0.00000000
2.69662677 0.10709533 0.00355758 0.00000000
0.52530338 0.59669289 0.00266422 0.00000000
3.52471202 1.21205181 -0.00175745 0.00000000
2.75711387 0.02871544 -0.00047770 0.00000000
3.36621748 0.26551982 0.00360933 0.00000000
0.19465547 0.25670751 0.00095889 0.00000000
4.20332778 1.08177037 0.00212767 0.00000000
3.12470285 1.33442939 0.00275845 0.00000000
0.78294946 0.06909748 0.00139346 0.00000000
3.15708274 0.82035769 -0.00166318 0.00000000
2.01084354 0.41661985 0.00273451 0.00000000
1.64530359 1.05483363 0.00110399 0.00000000
1.06334487 0.92775337 -0.00189373 0.00000000
3.55343611 0.68639082 -0.00005203 0.00000000
2.94318001 0.73148154 0.00081402 0.00000000
4.04440817 1.13325989 0.00119060 0.00000000
3.75136441 1.01675536 -0.00089678 0.00000000
0.36218531 1.48626781 -0.00278901 0.00000000
2.62107752 0.58852946 -0.00114047 0.00000000
1.15693937 0.25832600 -0.00254306 0.00000000
3.57594151 0.35192553 -0.00130925 0.00000000
3.06891375 1.24485599 0.00265002 0.00000000
2.13106542 0.29030652 -0.00229713 0.00000000
