0.732700 0.922288 -0.000381 0.0
0.625372 0.495366 -0.000823 0.0
1.038510 1.470329 0.004944 0.0
3.512303 0.213102 0.000335 0.0
2.620306 0.439737 -0.000485 0.0
2.776077 1.125974 0.002212 0.0
4.082190 0.255879 0.002728 0.0
3.643129 0.731223 0.003422 0.0
1.226244 0.192616 -0.000421 0.0
3.832656 1.082876 -0.002421 0.0
1.726271 0.019239 0.002174 0.0
3.260907 1.517558 0.002407 0.0
3.503651 0.700510 0.000641 0.0
0.882602 0.058847 0.000308 0.0
1.388281 0.444385 -0.001819 0.0
-0.001593 1.072299 -0.001776 0.0
4.113395 1.395329 -0.004373 0.0
3.816544 0.149969 0.001818 0.0
1.316211 1.294061 0.001886 0.0
1.537374 0.357753 -0.004024 0.0
0.433255 1.464196 0.000539 0.0
3.899891 0.472838 0.000610 0.0
1.820912 0.812386 -0.002029 0.0
2.994434 0.245451 -0.000163 0.0
1.480415 0.166053 -0.000207 0.0
1.558284 1.423474 -0.001840 0.0
4.075283 1.557193 -0.000758 0.0
0.761426 0.218713 -0.000971 0.0
0.874080 1.351742 0.003668 0.0
0.955611 1.199779 0.001412 0.0
3.043973 1.072325 0.001174 0.0
1.419392 1.481931 0.003181 0.0
3.001747 0.909629 -0.000558 0.0
3.467144 0.685814 0.003765 0.0
2.283022 0.060999 -0.002633 0.0
0.622645 1.602093 0.001228 0.0
2.442359 0.386641 -0.000399 0.0
1.289211 1.313677 -0.001735 0.0
3.724934 1.486818 0.002875 0.0
1.932455 1.579324 0.001219 0.0
2.145702 1.376795 -0.000471 0.0
1.803609 0.235894 0.000481 0.0
3.352977 0.367367 0.000911 0.0
3.430572 0.406881 -0.002492 0.0
1.124700 0.517951 -0.000281 0.0
2.964719 0.434915 -0.002233 0.0
1.164685 1.359495 -0.002192 0.0
2.896172 1.572022 -0.000682 0.0
1.128764 1.083291 0.001853 0.0
0.538495 0.639969 -0.000104 0.0
3.246803 1.320226 0.000737 0.0
3.345334 0.782298 -0.002344 0.0
1.517508 0.032849 0.000117 0.0
1.044272 1.554307 0.003803 0.0
0.848864 0.589974 -0.001063 0.0
1.295113 1.144225 0.004443 0.0
1.697105 0.014565 -0.001807 0.0
3.567809 0.746569 -0.001494 0.0
1.842801 0.737708 0.003001 0.0
4.126815 1.210592 -0.001882 0.0
1.904090 0.974270 0.002584 0.0
2.932516 1.624878 0.003626 0.0
0.384206 1.135331 -0.000001 0.0
1.170482 0.849795 -0.003124 0.0
2.723095 1.497337 -0.001357 0.0
3.151548 1.149977 0.001631 0.0
3.675089 0.955566 -0.006172 0.0
1.548956 1.198426 0.002382 0.0
1.276665 1.078187 -0.002678 0.0
2.062500 0.227826 -0.001164 0.0
3.354015 0.189394 0.000481 0.0
0.580937 1.360759 0.001013 0.0
2.046366 0.463510 0.001379 0.0
0.287426 0.751791 -0.001770 0.0
2.692605 1.555053 0.003587 0.0
3.135216 1.163624 -0.000803 0.0
3.218122 1.493882 0.000260 0.0
1.827404 1.303731 -0.003434 0.0
3.159183 0.566800 0.000213 0.0
3.651152 0.493900 0.006650 0.0
3.401954 1.013995 0.002175 0.0
0.995505 1.067048 0.000652 0.0
2.757627 0.333987 -0.000845 0.0
0.450043 0.359278 0.002084 0.0
0.237742 0.435924 0.000683 0.0
1.168520 1.417956 -0.003480 0.0
2.661482 0.556517 -0.000140 0.0
0.817349 0.795240 -0.000606 0.0
3.112762 1.131508 0.001251 0.0
4.069487 1.458651 0.005148 0.0
1.277626 1.421658 -0.002388 0.0
1.793337 1.055059 -0.001054 0.0
2.601913 0.438364 0.000291 0.0
3.976209 1.085475 0.002221 0.0
0.592512 0.862997 0.000240 0.0
2.713214 1.264955 -0.000469 0.0
3.646035 0.855563 -0.004078 0.0
2.922112 0.869695 0.002771 0.0
3.035376 1.401793 -0.002183 0.0
0.452972 0.447492 -0.000387 0.0
1.889273 0.228172 0.003849 0.0
2.442301 1.453533 0.002261 0.0
1.366975 1.389722 -0.000215 0.0
0.889275 0.163546 -0.003012 0.0
2.324644 0.464422 0.000244 0.0
1.850607 1.624758 0.000248 0.0
3.473045 0.062746 -0.003106 0.0
1.353170 1.113484 -0.002454 0.0
2.633165 1.522223 0.000022 0.0
1.751284 0.184488 0.001782 0.0
3.841516 1.436119 -0.002462 0.0
1.002843 0.314989 0.000555 0.0
1.453359 1.567811 0.000154 0.0
1.377664 0.085919 0.002122 0.0
2.758153 0.997378 -0.001344 0.0
2.664734 0.892833 0.000112 0.0
0.042720 0.965838 0.002820 0.0
3.527668 0.872251 0.000881 0.0
2.045341 0.810951 0.002466 0.0
0.130411 1.460189 -0.002133 0.0
0.622277 0.924332 0.001731 0.0
0.264332 1.479163 0.002186 0.0
4.044234 0.670677 0.001942 0.0
3.967490 0.656058 0.003006 0.0
1.507528 1.285188 0.001007 0.0
0.939962 1.152786 0.005367 0.0
0.098934 0.447028 -0.000527 0.0
3.902603 0.579509 0.000508 0.0
3.964786 0.674699 -0.005091 0.0
3.682757 1.413690 0.000076 0.0
1.884903 1.191945 0.000727 0.0
2.142754 0.100048 -0.005391 0.0
3.743670 0.491820 -0.000359 0.0
0.984533 1.321262 -0.000188 0.0
3.428981 0.614469 -0.004560 0.0
3.283177 0.590974 0.002146 0.0
0.641209 1.323718 -0.000231 0.0
1.240239 0.087162 0.002293 0.0
3.904762 1.236808 0.001394 0.0
0.677582 0.483809 -0.002105 0.0
3.940837 0.597065 0.002958 0.0
1.042800 1.222535 -0.003057 0.0
3.749495 0.083604 -0.001804 0.0
3.962803 0.426845 -0.002133 0.0
1.299774 0.662877 0.002071 0.0
3.734455 1.021898 0.002732 0.0
1.605830 1.453323 0.001361 0.0
1.490968 0.782025 0.000585 0.0
0.502343 1.445000 -0.001777 0.0
1.429631 0.994084 -0.001325 0.0
1.984398 1.062647 0.001238 0.0
0.212001 1.184850 0.000554 0.0
1.704647 0.357930 -0.002099 0.0
3.360141 0.930405 0.002429 0.0
4.046875 0.355832 0.000060 0.0
3.397541 1.420203 0.002383 0.0
3.866196 1.348853 -0.001956 0.0
1.065068 0.526059 0.000446 0.0
3.859273 1.109471 -0.000266 0.0
1.410455 0.514958 0.005055 0.0
3.510160 0.422040 0.000638 0.0
3.402498 0.129826 0.000271 0.0
2.118615 0.706101 0.001843 0.0
2.980663 0.168096 -0.003795 0.0
3.297021 0.385199 -0.000812 0.0
1.502244 0.269861 0.002747 0.0
2.308489 0.912565 0.002002 0.0
1.043523 1.344805 0.001411 0.0
0.319523 1.135567 -0.002677 0.0
1.735713 0.169651 0.002865 0.0
1.130452 1.040418 0.002072 0.0
2.720242 0.122251 -0.001144 0.0
0.132382 0.495115 0.001713 0.0
4.126333 1.557355 0.000435 0.0
2.126288 1.553416 -0.000952 0.0
0.550730 1.599780 -0.000723 0.0
3.548194 0.207460 -0.000243 0.0
3.062162 0.671988 0.004085 0.0
1.440669 1.032199 0.002365 0.0
0.784083 0.141406 -0.005356 0.0
2.298603 0.342979 -0.002076 0.0
0.640843 1.351620 -0.003982 0.0
3.377229 1.358879 0.003914 0.0
3.721405 1.215888 -0.001961 0.0
2.482189 1.012284 -0.001891 0.0
2.188975 0.667157 -0.001668 0.0
0.738740 0.010257 -0.002560 0.0
0.134238 1.534880 -0.003356 0.0
1.869185 1.387983 0.002921 0.0
2.280385 1.633411 0.003402 0.0
3.354462 1.607206 0.002562 0.0
3.688209 0.429088 -0.002638 0.0
0.259786 1.578052 0.002031 0.0
1.007368 0.280060 0.001401 0.0
0.869252 0.433963 -0.000724 0.0
0.768021 1.339104 0.001446 0.0
3.816904 0.852826 -0.002493 0.0
3.182753 0.668583 0.000463 0.0
3.853374 1.279932 -0.002122 0.0
0.799676 1.127595 -0.000574 0.0
1.189678 0.312788 0.000554 0.0
3.288164 0.336210 -0.001112 0.0
3.502518 1.206039 0.004099 0.0
1.711592 0.278017 -0.000835 0.0
0.060473 0.545337 -0.002943 0.0
3.018061 1.222060 0.003500 0.0
0.965552 0.051522 0.000859 0.0
0.258985 0.929961 -0.003249 0.0
3.090485 1.269172 -0.003562 0.0
2.258831 0.200361 0.003011 0.0
3.891403 0.878256 -0.003261 0.0
4.023361 1.109834 -0.002110 0.0
0.727247 1.509980 0.002318 0.0
1.684425 0.309150 -0.004528 0.0
3.521153 0.455898 0.005986 0.0
3.158207 1.258901 -0.000582 0.0
3.920533 1.156587 -0.000186 0.0
1.802560 0.065476 0.000795 0.0
3.835764 0.708989 0.001755 0.0
3.509167 0.647165 0.001142 0.0
1.055892 0.794016 -0.001096 0.0
3.374958 1.547608 0.001924 0.0
2.456206 1.125512 -0.000060 0.0
1.013218 0.758105 0.004328 0.0
2.187733 0.264033 0.000047 0.0
0.555033 0.047779 0.001372 0.0
3.410049 1.423146 -0.001890 0.0
2.358709 0.517668 -0.000894 0.0
3.155613 0.934937 0.000636 0.0
0.335614 0.394392 -0.003968 0.0
1.719003 0.732106 0.002143 0.0
3.434211 0.506773 -0.000286 0.0
2.472846 0.824317 0.000339 0.0
3.639606 1.563711 -0.000808 0.0
1.626325 0.705204 -0.000895 0.0
0.391190 0.682897 0.004139 0.0
0.698682 0.239099 0.000220 0.0
1.797934 1.518366 0.005322 0.0
0.823901 0.502330 -0.000028 0.0
3.902194 0.316648 -0.000769 0.0
1.508418 0.912304 -0.003138 0.0
0.670181 1.505271 0.000432 0.0
1.303376 0.490208 0.003594 0.0
3.852156 0.237177 -0.000913 0.0
2.238398 1.391333 0.003666 0.0
0.232302 0.777822 0.000946 0.0
1.386539 0.825190 -0.001166 0.0
3.918027 0.743408 0.003355 0.0
1.509366 0.066113 0.001674 0.0
2.497412 0.296882 0.000028 0.0
1.417701 0.074722 -0.001250 0.0
3.647476 0.363345 -0.001141 0.0
1.483758 0.535702 0.000006 0.0
0.927513 0.393777 0.002526 0.0
3.158684 1.198513 -0.003422 0.0
1.978338 0.465533 -0.005033 0.0
1.568445 0.850608 0.002436 0.0
1.942470 1.451590 -0.000602 0.0
1.930768 1.158129 -0.002431 0.0
1.246589 0.143500 -0.000503 0.0
2.820977 0.780485 -0.002541 0.0
1.808265 1.307147 0.000561 0.0
1.180000 0.799220 0.000946 0.0
2.770707 1.414868 0.001472 0.0
2.081295 0.033821 -0.001374 0.0
1.769948 1.237130 0.003663 0.0
0.347735 1.475105 0.000624 0.0
4.062684 1.061794 0.000973 0.0
3.284458 0.473115 0.002370 0.0
0.166050 0.174555 -0.000642 0.0
2.478039 0.131551 -0.000928 0.0
1.705106 0.769075 0.002267 0.0
2.291860 1.172641 -0.001066 0.0
0.765866 1.117847 -0.001176 0.0
0.042528 1.562525 -0.001578 0.0
1.199906 0.062096 -0.003419 0.0
2.757540 1.508762 0.002847 0.0
3.742154 1.523389 0.001331 0.0
0.466237 1.386654 0.003202 0.0
3.579788 0.048965 -0.006290 0.0
0.830477 1.542386 0.000982 0.0
3.917094 0.343857 -0.000478 0.0
3.132482 1.022338 -0.000432 0.0
3.030859 0.425330 -0.001577 0.0
2.784313 0.176938 -0.002218 0.0
3.457581 0.008226 -0.002149 0.0
0.460950 1.362912 -0.002718 0.0
2.652599 0.801454 -0.001791 0.0
1.996339 1.343447 0.004437 0.0
1.001883 0.749196 -0.001610 0.0
2.720022 0.406563 0.006063 0.0
0.232925 1.085548 -0.002773 0.0
0.463849 1.469212 0.003258 0.0
0.810184 0.609207 -0.000304 0.0
3.183426 0.161191 -0.002942 0.0
2.492900 0.083497 -0.001586 0.0
2.211298 1.293926 -0.003747 0.0
2.208330 1.102794 0.003892 0.0
0.495773 0.479154 -0.003371 0.0
3.735368 1.414504 -0.000593 0.0
2.768896 1.026593 -0.001665 0.0
0.689510 0.971634 -0.003639 0.0
2.616804 1.443628 0.001866 0.0
3.993192 1.365212 0.000142 0.0
2.308064 0.768062 0.004851 0.0
3.949996 1.116018 -0.004362 0.0
0.614564 1.301701 -0.003503 0.0
1.239663 0.254364 -0.001639 0.0
1.435198 1.097351 0.002218 0.0
2.618951 0.234969 -0.001281 0.0
0.224570 0.312935 -0.002211 0.0
1.534615 1.314889 0.000924 0.0
1.280738 0.034575 -0.000103 0.0
2.508726 0.607732 -0.001720 0.0
2.386365 0.436420 0.003186 0.0
2.757016 1.304372 0.000910 0.0
2.763477 1.487127 0.002659 0.0
1.640691 0.113208 0.001111 0.0
0.736813 1.643961 0.001647 0.0
3.831121 1.212481 0.002170 0.0
1.964896 0.388674 0.003551 0.0
1.421977 0.838736 0.001604 0.0
2.117908 1.430045 -0.000383 0.0
0.970744 0.239196 -0.000699 0.0
2.717395 0.884811 -0.001140 0.0
3.395818 0.794412 0.000436 0.0
0.898270 0.722445 -0.000465 0.0
0.654069 0.885030 0.000642 0.0
0.449728 0.710054 -0.002105 0.0
3.700943 1.598930 -0.005289 0.0
2.532467 1.189882 0.003464 0.0
0.042989 0.729707 0.003069 0.0
1.975294 0.013265 -0.003914 0.0
3.767446 1.485597 0.001276 0.0
3.159196 1.576530 0.003920 0.0
1.421514 0.510645 0.001724 0.0
3.524500 0.535086 -0.004661 0.0
3.438970 1.178457 0.001107 0.0
3.970020 0.559570 0.007437 0.0
3.455349 0.411283 0.004759 0.0
1.772201 1.412234 0.002001 0.0
2.628426 0.262945 0.000108 0.0
1.194240 0.433332 0.002717 0.0
3.092338 0.122727 0.001038 0.0
1.542446 0.821829 0.000959 0.0
3.270401 0.500091 0.002852 0.0
2.664682 0.802291 -0.000998 0.0
1.442845 1.144959 -0.001917 0.0
1.346811 1.139787 -0.002666 0.0
2.879871 0.687843 0.003470 0.0
3.246760 1.275719 -0.000626 0.0
3.414363 1.106931 -0.002640 0.0
1.641828 0.290660 0.002273 0.0
1.364921 1.340988 -0.005446 0.0
2.200829 0.129163 -0.001420 0.0
4.023215 0.320774 0.002458 0.0
0.261519 1.544324 -0.000970 0.0
0.950251 0.291975 -0.000232 0.0
1.620542 0.912883 0.003679 0.0
0.425135 0.749193 -0.000449 0.0
2.051349 0.227369 0.001127 0.0
0.561087 0.308848 -0.000609 0.0
2.988755 1.422989 0.000085 0.0
3.169832 0.788554 -0.005022 0.0
1.038246 1.307181 0.000647 0.0
0.912326 0.694728 -0.000448 0.0
2.888495 0.798826 -0.001161 0.0
2.019137 0.753820 -0.003905 0.0
2.333498 0.664903 -0.002078 0.0
3.107392 0.050965 -0.003066 0.0
2.390557 0.565379 0.002305 0.0
3.852587 1.613862 -0.001285 0.0
4.123182 0.982934 -0.007741 0.0
3.631371 1.127032 -0.003224 0.0
2.903852 1.330523 0.002679 0.0
3.804623 0.819565 0.002183 0.0
4.115540 1.101960 -0.001513 0.0
1.643923 1.540986 0.002348 0.0
1.301492 0.817445 -0.000896 0.0
2.927282 1.642403 0.001724 0.0
0.866467 0.174368 0.000528 0.0
2.886461 1.388797 0.001017 0.0
3.841167 0.124843 -0.000187 0.0
3.399761 0.397432 -0.002756 0.0
2.653144 0.806915 -0.001608 0.0
1.811660 0.781607 0.000715 0.0
3.989741 0.950945 -0.001988 0.0
0.057930 0.942504 0.001237 0.0
3.006798 0.043405 -0.001243 0.0
0.265051 1.088817 0.000986 0.0
1.243200 1.390343 -0.001550 0.0
0.913802 0.910270 -0.003108 0.0
2.948751 0.572895 0.000061 0.0
2.930398 0.240886 -0.000235 0.0
3.542966 1.124432 -0.004120 0.0
2.621006 0.112832 0.002959 0.0
3.294193 1.140966 -0.001532 0.0
1.818209 1.593071 0.004623 0.0
0.452593 0.698284 0.000750 0.0
2.703416 0.196564 -0.000231 0.0
1.395595 0.754074 -0.002380 0.0
3.085662 0.824031 -0.000419 0.0
0.061185 0.066284 -0.001082 0.0
2.574396 0.998692 -0.000087 0.0
0.142292 0.814548 -0.000473 0.0
0.552853 0.318267 -0.000091 0.0
2.429010 0.425025 -0.001245 0.0
2.969421 1.205787 -0.002614 0.0
3.492440 0.394028 -0.001144 0.0
1.764798 0.837851 -0.003045 0.0
1.150627 0.561598 -0.001215 0.0
3.048252 0.328649 0.001777 0.0
1.015947 0.438988 -0.003240 0.0
3.550526 1.641839 0.000334 0.0
1.232002 1.449734 0.004634 0.0
3.803989 0.926398 0.002786 0.0
0.256204 1.044588 0.000048 0.0
3.008985 0.934129 -0.000141 0.0
3.572873 0.233720 0.004253 0.0
1.859689 0.427330 -0.002531 0.0
0.603262 0.785726 0.000627 0.0
4.090081 1.435788 0.000482 0.0
1.773685 1.524012 0.000710 0.0
1.761971 0.139810 0.000828 0.0
1.233943 0.506399 -0.001063 0.0
2.550550 0.891991 -0.000610 0.0
3.784833 1.041711 -0.002873 0.0
2.451303 0.127258 -0.003971 0.0
4.051623 0.932776 -0.002073 0.0
2.529327 0.347206 -0.000537 0.0
0.049701 0.342370 0.002949 0.0
0.052400 1.548651 0.001149 0.0
1.099469 1.075256 -0.001552 0.0
1.998639 0.159398 -0.002994 0.0
0.907834 1.553534 0.000222 0.0
0.337160 0.244734 0.001274 0.0
2.677393 1.271217 0.002042 0.0
0.087510 0.368778 -0.001296 0.0
3.032383 1.215477 0.005506 0.0
0.256821 0.427763 0.003320 0.0
3.637926 0.375184 0.000056 0.0
2.256132 0.693786 0.000192 0.0
1.522044 0.319398 0.001005 0.0
3.442284 0.254499 0.001635 0.0
2.833713 1.154211 0.000816 0.0
2.498749 0.912982 -0.002850 0.0
1.333749 1.384811 0.001644 0.0
0.721713 0.782670 0.000722 0.0
1.004675 1.305238 -0.001513 0.0
2.817719 1.539352 -0.001347 0.0
1.229340 1.242959 -0.000697 0.0
3.561888 0.694852 -0.001816 0.0
3.694603 1.197476 -0.001735 0.0
3.648355 1.107946 0.000852 0.0
3.668124 0.918444 0.000953 0.0
0.469067 0.708786 0.001683 0.0
1.604655 1.273383 -0.000459 0.0
1.125036 1.084763 0.002085 0.0
0.373320 1.501557 -0.002163 0.0
1.346059 1.378719 0.000373 0.0
1.168743 1.085528 -0.000884 0.0
1.093960 1.538816 0.001952 0.0
1.460675 1.377028 0.002953 0.0
0.059806 0.880130 0.002349 0.0
2.702820 1.346296 0.000180 0.0
0.289972 0.002674 -0.002508 0.0
1.652082 0.260419 0.001883 0.0
2.809951 0.295437 -0.001108 0.0
3.488829 0.254182 -0.001210 0.0
0.148384 1.308317 0.003127 0.0
1.386814 1.139849 -0.000047 0.0
1.986620 1.160054 0.000055 0.0
0.994930 0.950531 -0.000429 0.0
1.662628 1.063661 0.000588 0.0
0.204449 1.311538 -0.000699 0.0
1.103123 0.583532 0.003529 0.0
2.017437 1.584859 0.000120 0.0
0.173726 1.215723 -0.001541 0.0
1.650179 1.628696 0.003325 0.0
3.890911 0.480917 -0.001042 0.0
2.783751 1.629663 -0.000181 0.0
3.046665 0.424363 -0.001514 0.0
2.171447 0.403494 0.002816 0.0
1.105159 0.026638 -0.003062 0.0
1.089330 1.044442 -0.006273 0.0
3.290998 0.739210 0.002693 0.0
1.523704 0.034323 0.002114 0.0
0.789893 0.938480 -0.001086 0.0
0.848933 0.374006 -0.002191 0.0
3.175227 0.633982 -0.001577 0.0
2.530244 1.570335 0.000691 0.0
1.382920 0.132172 0.005101 0.0
1.205841 1.443200 0.000092 0.0
1.118574 0.188289 0.000149 0.0
0.853727 1.473890 -0.001165 0.0
3.908673 1.571440 -0.000378 0.0
2.922484 0.090857 0.004343 0.0
2.371859 0.495099 0.003769 0.0
0.828726 0.233255 0.001695 0.0
0.319506 0.041626 -0.002175 0.0
1.632534 1.336551 -0.002997 0.0
0.091812 0.872545 -0.002762 0.0
1.201941 0.430976 -0.000012 0.0
2.019264 1.552194 -0.004262 0.0
0.915096 1.124459 0.004488 0.0
1.555972 0.899020 0.004864 0.0
0.076518 0.037226 0.000952 0.0
0.979754 0.331305 -0.001699 0.0
3.703375 1.195434 -0.002189 0.0
1.667567 1.289618 -0.000375 0.0
3.940734 0.618102 0.000344 0.0
1.926942 0.334497 -0.002997 0.0
3.229604 0.693939 0.004526 0.0
3.956463 0.524068 0.002704 0.0
0.174911 0.838446 -0.000154 0.0
1.896497 0.457066 -0.003488 0.0
0.440726 0.809901 -0.000328 0.0
1.779940 0.702001 0.005761 0.0
0.961115 1.397807 0.000408 0.0
3.591482 0.176338 -0.005194 0.0
2.544567 0.237380 0.004195 0.0
1.507957 0.940927 0.003763 0.0
1.790223 1.348173 0.002246 0.0
3.870921 1.631920 -0.002535 0.0
3.587750 1.194637 0.000811 0.0
2.290104 0.053490 0.002592 0.0
3.275065 1.576994 -0.001987 0.0
1.042036 1.262244 0.000938 0.0
2.316252 1.631188 0.000149 0.0
2.177679 0.017513 -0.000565 0.0
0.476820 0.124596 0.000230 0.0
2.638122 1.553064 0.004735 0.0
2.145759 0.731786 -0.000243 0.0
3.967382 0.576604 -0.001610 0.0
3.250919 0.939659 -0.002081 0.0
1.558712 0.816266 -0.002344 0.0
1.830381 0.235720 0.002654 0.0
0.914368 1.270470 -0.001041 0.0
2.334338 0.014705 -0.001534 0.0
2.061452 0.118768 -0.001275 0.0
1.173877 0.969429 0.000465 0.0
0.912162 0.194538 -0.002885 0.0
3.375786 0.624188 -0.002628 0.0
2.043188 1.504108 -0.003412 0.0
1.838432 1.526239 0.000649 0.0
0.220716 0.246774 -0.001529 0.0
3.040550 0.741810 0.002147 0.0
2.625382 1.589227 -0.001595 0.0
2.379902 0.663201 -0.004577 0.0
3.759448 1.526096 -0.002137 0.0
0.666274 0.061023 0.006325 0.0
0.747815 1.407109 -0.000581 0.0
0.100924 1.454120 0.002042 0.0
3.896869 1.502535 -0.001324 0.0
3.277303 0.990096 0.002972 0.0
3.313346 0.348898 -0.001409 0.0
0.466913 0.993188 0.003732 0.0
0.589470 1.599085 0.003182 0.0
2.102279 1.654453 -0.003146 0.0
2.844412 1.477043 -0.000751 0.0
0.696004 0.679825 0.000978 0.0
1.305060 0.840633 0.003592 0.0
3.056571 0.703480 -0.000943 0.0
1.071367 0.706673 0.002586 0.0
4.014052 0.936346 0.000748 0.0
2.819323 0.732274 0.004305 0.0
1.572148 1.002758 0.000222 0.0
0.684598 0.469407 0.003231 0.0
3.326434 0.606991 0.004224 0.0
2.774220 0.592030 0.001795 0.0
0.874852 1.453053 -0.004948 0.0
2.881795 1.610121 -0.002760 0.0
2.674821 0.623042 0.000562 0.0
0.726063 0.261039 -0.006343 0.0
1.037687 0.458035 -0.003731 0.0
2.633678 1.481717 -0.002015 0.0
3.735048 0.876562 0.002094 0.0
1.415812 0.264982 -0.002947 0.0
3.644975 1.036014 -0.001892 0.0
0.794438 1.048909 0.002852 0.0
3.039859 0.464970 0.001170 0.0
1.516811 0.711689 -0.001043 0.0
3.885867 0.734393 -0.000955 0.0
3.985837 0.662391 -0.001098 0.0
2.483646 0.805715 0.000369 0.0
2.394374 1.530007 0.001637 0.0
3.007193 1.145255 0.000268 0.0
1.753117 0.797971 -0.004770 0.0
3.213564 1.257297 0.000150 0.0
2.636247 1.349556 -0.002849 0.0
0.542923 1.508286 -0.001903 0.0
4.021553 0.342542 0.002461 0.0
0.436867 0.686463 -0.002578 0.0
1.505180 0.104539 -0.001100 0.0
0.323265 1.567141 -0.003400 0.0
3.990006 1.039619 -0.003873 0.0
3.111867 1.459996 -0.000427 0.0
1.228119 1.134621 0.001660 0.0
3.202784 0.804453 0.005841 0.0
1.091637 1.066280 -0.001960 0.0
0.083354 0.547548 0.001455 0.0
0.813144 0.309215 0.001531 0.0
1.928323 0.947765 0.000513 0.0
1.161579 0.427270 -0.002111 0.0
0.974705 0.030506 -0.000611 0.0
3.052116 1.228243 0.001574 0.0
2.781725 0.789296 0.000028 0.0
0.216075 0.189891 -0.001130 0.0
3.411747 1.002755 0.002578 0.0
0.438932 1.298306 -0.001529 0.0
2.625819 1.477185 -0.002249 0.0
1.318307 1.285242 0.000053 0.0
3.992431 1.209193 0.003734 0.0
3.651837 0.078274 -0.007148 0.0
0.460613 0.648428 0.003247 0.0
2.930931 1.065950 0.001209 0.0
2.416211 0.504874 0.000444 0.0
1.808104 0.592633 -0.000564 0.0
0.422410 1.419776 -0.000406 0.0
1.426513 0.956531 0.002086 0.0
3.293495 0.825029 -0.001028 0.0
4.010016 0.253637 0.000020 0.0
1.107774 1.614358 -0.004192 0.0
3.787981 0.958146 0.001952 0.0
3.785791 1.148963 -0.001181 0.0
2.905269 1.615187 0.002059 0.0
1.975676 0.273308 0.001745 0.0
2.453132 0.276899 -0.001605 0.0
1.578455 0.392461 0.001588 0.0
3.770857 0.738261 0.005153 0.0
3.756422 0.054283 -0.003111 0.0
0.279849 1.405170 -0.001580 0.0
0.243087 1.527229 -0.001709 0.0
1.545552 1.303789 0.003073 0.0
1.082972 0.080184 -0.000718 0.0
0.083216 0.778135 -0.001805 0.0
1.839274 1.070243 0.003906 0.0
3.210535 1.251906 0.000578 0.0
0.153812 0.799106 -0.003030 0.0
1.773960 1.013712 -0.001496 0.0
1.836300 1.036635 0.002286 0.0
1.080776 1.169055 -0.000995 0.0
1.523071 0.504011 -0.000682 0.0
2.260214 0.167282 -0.001013 0.0
0.105277 0.977707 0.002229 0.0
3.885612 1.427044 -0.000325 0.0
0.667657 0.543673 0.000600 0.0
0.409057 0.983919 0.001526 0.0
0.768882 1.531537 0.002151 0.0
1.794263 0.465110 -0.000042 0.0
0.600918 0.917269 -0.001439 0.0
3.716199 1.213185 -0.001933 0.0
0.927257 1.224024 -0.004502 0.0
0.342710 0.384822 -0.001757 0.0
3.086034 0.516446 0.002788 0.0
4.113638 0.954981 0.002143 0.0
4.079816 0.658204 0.001358 0.0
0.185774 0.758408 0.005234 0.0
0.885316 1.502338 -0.002941 0.0
3.885952 1.026198 -0.002221 0.0
0.061080 0.457558 -0.001743 0.0
3.034962 1.485122 0.002627 0.0
0.493585 0.067117 -0.001315 0.0
0.602347 1.553224 -0.004480 0.0
0.200919 0.335038 0.001668 0.0
3.981693 0.848427 0.003776 0.0
2.192337 1.231797 -0.001829 0.0
0.990272 0.683374 0.001589 0.0
2.416353 0.535162 0.000677 0.0
3.874197 1.048498 -0.000494 0.0
2.040072 1.113500 0.001606 0.0
3.827708 0.340674 0.000954 0.0
0.945714 0.615926 0.001933 0.0
0.331288 0.630908 0.007072 0.0
2.165014 1.396124 -0.002789 0.0
1.092066 0.558109 0.001270 0.0
1.843371 0.320582 -0.002502 0.0
0.247836 0.226640 -0.000836 0.0
3.494784 0.926191 -0.000394 0.0
1.802630 1.190949 0.001666 0.0
1.923322 1.464625 -0.004225 0.0
0.012385 1.383465 0.001661 0.0
1.380456 0.337081 -0.004379 0.0
1.970663 0.704740 0.000435 0.0
0.880335 1.635187 0.002823 0.0
2.606496 0.938960 0.000642 0.0
2.579050 1.638329 0.001358 0.0
1.799543 0.278570 0.001601 0.0
0.357739 0.746913 0.002965 0.0
3.831811 1.057052 -0.001076 0.0
2.917561 1.133517 -0.001046 0.0
1.790376 0.719297 0.002234 0.0
2.813178 0.752853 0.000669 0.0
2.190486 1.200152 0.000343 0.0
3.619163 1.040486 -0.001603 0.0
3.752856 1.487381 0.004214 0.0
0.584957 0.120751 0.001779 0.0
1.274571 0.525020 -0.001964 0.0
3.716794 0.807463 0.003024 0.0
3.006688 0.588158 -0.000740 0.0
0.564929 0.399082 0.001613 0.0
1.545434 1.260163 0.000802 0.0
0.386037 0.028494 0.000143 0.0
1.860948 1.614690 0.003499 0.0
0.251982 1.156322 -0.000518 0.0
1.261147 0.835975 0.004098 0.0
0.347173 1.422476 -0.000867 0.0
0.753399 1.095881 -0.002720 0.0
2.791387 0.073797 -0.002025 0.0
3.893610 0.967352 0.001317 0.0
0.282382 1.372812 -0.002086 0.0
2.006513 1.355969 0.002021 0.0
0.274628 0.797212 -0.000302 0.0
3.924807 1.436320 -0.000278 0.0
1.078797 0.617309 0.001701 0.0
3.218911 0.150272 -0.003792 0.0
1.648100 0.603573 -0.002471 0.0
3.467476 1.490398 0.002671 0.0
2.012718 0.455509 0.002027 0.0
2.677695 0.974132 0.002929 0.0
3.950606 0.327325 -0.001031 0.0
0.149389 1.026972 0.001633 0.0
2.671310 0.321402 0.001354 0.0
1.589713 0.167450 -0.004601 0.0
3.861108 0.928585 0.000650 0.0
0.527893 0.792750 -0.000793 0.0
3.358959 0.159261 -0.002606 0.0
3.077341 1.040843 -0.001091 0.0
2.738311 1.570174 -0.000344 0.0
3.614355 0.418782 0.003501 0.0
0.387926 1.607244 0.000373 0.0
2.169474 0.082287 0.000350 0.0
0.734419 1.441627 0.002741 0.0
0.389412 0.243464 -0.002155 0.0
4.071592 0.749549 0.003080 0.0
0.004434 0.427242 -0.002281 0.0
2.525820 1.067634 0.004486 0.0
1.037357 0.320524 -0.002012 0.0
3.943435 0.052073 -0.001971 0.0
0.645171 0.949842 0.001614 0.0
3.921897 0.590671 -0.000056 0.0
3.373811 1.444246 -0.001160 0.0
3.465311 0.726681 -0.001617 0.0
0.994480 1.040531 0.001607 0.0
2.329963 0.936697 0.002450 0.0
3.965511 0.615613 -0.001691 0.0
2.743873 0.834114 -0.000004 0.0
3.165054 1.472129 0.000955 0.0
0.844669 0.954918 0.004451 0.0
0.036411 0.121238 -0.001195 0.0
1.361515 0.957997 0.002307 0.0
2.050133 1.588268 0.002949 0.0
3.142456 0.408399 0.000804 0.0
2.585020 1.121199 0.000191 0.0
1.156515 1.163962 -0.002035 0.0
3.572515 1.649044 -0.002291 0.0
1.728530 0.977837 0.000150 0.0
2.111206 0.108929 -0.003090 0.0
1.652736 0.845300 -0.005323 0.0
3.501150 0.870884 0.000211 0.0
1.783948 0.626408 -0.002804 0.0
0.749058 0.174646 0.001803 0.0
1.716676 0.290419 0.001835 0.0
3.236754 0.609143 -0.001737 0.0
3.040891 1.476800 -0.001329 0.0
0.053804 0.812411 -0.003783 0.0
0.761052 0.606592 0.003091 0.0
0.701795 0.686745 -0.000619 0.0
3.129201 1.383158 -0.003885 0.0
0.072408 0.571644 -0.002040 0.0
3.782405 0.433168 0.000921 0.0
0.187586 0.453241 -0.001218 0.0
1.942532 1.611702 0.001776 0.0
0.537081 0.859498 0.003224 0.0
0.686381 1.597626 0.000590 0.0
4.011489 1.257352 0.002510 0.0
4.053881 1.454585 -0.002558 0.0
0.877800 0.276356 0.002847 0.0
0.285522 1.415036 0.002960 0.0
3.880799 0.364018 0.003288 0.0
2.929504 0.737800 0.000591 0.0
3.398816 1.462587 -0.002848 0.0
3.735804 1.570358 -0.000524 0.0
3.211872 1.628308 0.001978 0.0
0.153230 0.774933 -0.000153 0.0
0.381772 0.681567 0.000394 0.0
0.802823 0.190765 0.003217 0.0
1.116077 0.324851 -0.006862 0.0
2.593766 0.266216 0.000248 0.0
0.989214 0.785525 0.000361 0.0
3.900616 0.731634 -0.001049 0.0
2.196791 0.410501 0.003471 0.0
3.630421 0.846884 -0.001823 0.0
1.817648 1.227194 0.003639 0.0
2.139671 1.579322 -0.000570 0.0
2.104600 0.271431 -0.001483 0.0
2.078886 0.552661 -0.005220 0.0
2.187301 1.546289 -0.002068 0.0
3.942949 1.527399 -0.000738 0.0
3.938596 0.186357 0.001988 0.0
0.524725 0.659356 -0.004937 0.0
3.240623 1.231482 -0.004674 0.0
3.793086 1.355863 0.001223 0.0
3.816664 0.580420 -0.000786 0.0
2.816186 1.390903 -0.003287 0.0
1.920179 1.057252 -0.000082 0.0
0.688771 0.472730 0.000084 0.0
3.469895 0.419013 0.001507 0.0
3.423131 0.093326 0.000356 0.0
3.538755 0.536471 -0.001319 0.0
0.632881 1.313032 -0.004530 0.0
0.638320 1.170806 0.000330 0.0
0.036292 1.543534 0.005646 0.0
0.976795 0.475844 -0.000362 0.0
2.580752 0.670501 0.002064 0.0
1.431842 1.140834 0.008753 0.0
1.624517 0.794860 0.003870 0.0
3.508448 0.960023 0.001585 0.0
2.723405 1.207677 0.001319 0.0
2.222072 0.365506 0.000492 0.0
0.675637 1.652517 -0.001768 0.0
4.072041 1.216178 -0.004284 0.0
1.160379 0.672909 0.006663 0.0
2.705489 1.471998 -0.002071 0.0
0.753388 0.480151 -0.002667 0.0
2.602276 0.059099 -0.000148 0.0
1.017444 0.552236 -0.000508 0.0
3.884295 0.562686 0.000722 0.0
2.446078 1.401474 -0.001454 0.0
1.408782 1.611102 0.003248 0.0
1.430248 0.987301 -0.001086 0.0
0.319889 0.137381 -0.001394 0.0
2.851836 0.189885 0.001247 0.0
3.995843 0.798333 -0.003606 0.0
2.739970 1.240064 0.000000 0.0
2.959328 1.251171 0.000367 0.0
0.755622 0.120698 -0.003242 0.0
4.009997 1.490121 0.003264 0.0
2.871677 0.488798 -0.002310 0.0
4.121214 0.930510 0.004512 0.0
2.496868 0.491504 -0.000993 0.0
1.222659 1.291412 -0.001845 0.0
3.661093 0.959022 -0.001002 0.0
2.084736 0.964730 -0.001253 0.0
2.751603 0.628688 -0.001022 0.0
0.651764 1.195985 0.000979 0.0
0.637395 1.263143 0.002775 0.0
1.048083 1.256137 0.002904 0.0
3.991081 1.130675 -0.001819 0.0
3.843859 1.363273 0.000646 0.0
3.414547 1.018849 -0.003093 0.0
3.778790 1.643475 0.003663 0.0
0.398424 1.293522 0.004562 0.0
4.009256 1.360264 -0.002254 0.0
1.251677 0.476481 0.002505 0.0
0.803082 0.810532 0.002363 0.0
2.609942 1.424749 0.001536 0.0
0.370222 1.138588 -0.000490 0.0
1.589202 1.252794 -0.001365 0.0
2.099080 1.271447 -0.000284 0.0
3.669887 1.429857 0.003722 0.0
0.460919 1.178696 0.002175 0.0
3.680262 0.850545 0.002366 0.0
0.258585 1.037031 -0.006200 0.0
4.090466 1.594881 -0.000047 0.0
2.166744 1.325674 0.000822 0.0
3.110072 0.305457 0.003289 0.0
1.533018 0.751554 -0.000800 0.0
3.820585 0.615843 0.000061 0.0
3.276790 1.173895 -0.001220 0.0
0.971357 0.302143 -0.002915 0.0
2.583425 1.167361 0.001822 0.0
3.458628 0.364145 -0.000041 0.0
3.346516 0.480947 -0.001303 0.0
3.637237 0.694135 0.001909 0.0
0.871869 1.227828 -0.003766 0.0
1.591472 0.045337 -0.001417 0.0
2.923510 0.649388 0.000875 0.0
4.064745 0.420988 -0.000434 0.0
2.305511 0.030102 0.000910 0.0
1.894913 0.742053 0.000366 0.0
0.074280 1.579825 0.000761 0.0
3.603430 0.250222 0.003821 0.0
1.602933 0.920912 -0.001179 0.0
0.562507 1.512801 0.001499 0.0
1.258916 0.685311 0.002004 0.0
3.876703 0.645550 0.002421 0.0
1.862476 0.943377 0.000125 0.0
3.120131 0.260521 0.000770 0.0
1.426010 1.261349 0.003184 0.0
1.737771 1.501230 -0.001102 0.0
0.390830 1.058309 -0.001478 0.0
3.837796 1.049095 -0.000579 0.0
3.273572 0.943943 -0.004705 0.0
3.915770 1.196831 -0.002227 0.0
2.454952 0.251436 -0.002397 0.0
2.486117 0.893797 -0.001075 0.0
3.111262 1.563368 0.000121 0.0
1.458348 0.699591 -0.001232 0.0
1.673483 0.966233 -0.000230 0.0
2.238971 1.116414 0.001861 0.0
1.768843 0.324887 0.002241 0.0
2.862413 1.399265 0.000502 0.0
0.668379 0.923525 -0.003408 0.0
1.448957 0.239013 0.000338 0.0
1.977772 1.468814 0.000049 0.0
2.292876 1.313061 0.004134 0.0
3.192665 0.130206 0.002827 0.0
1.138839 0.127157 0.002978 0.0
0.738820 0.920595 -0.003571 0.0
3.608695 0.501253 -0.000887 0.0
0.738512 1.024594 -0.001048 0.0
3.804795 0.536771 -0.003227 0.0
3.562243 1.058485 0.001003 0.0
2.809763 1.500415 -0.000207 0.0
3.764584 0.235083 0.000279 0.0
0.147862 1.065672 -0.001114 0.0
0.008488 0.644198 -0.002616 0.0
3.396699 0.238594 -0.001374 0.0
3.138787 0.782587 -0.001402 0.0
2.758637 0.008414 0.003551 0.0
1.113466 1.134589 0.000121 0.0
0.888765 0.905587 -0.000073 0.0
3.431942 1.169000 0.001228 0.0
2.036077 0.907136 -0.002400 0.0
2.961957 1.271271 -0.001814 0.0
3.001917 1.289102 -0.002164 0.0
0.273176 0.224763 -0.003191 0.0
3.583928 1.001607 -0.000746 0.0
2.168900 1.381792 -0.001001 0.0
2.776979 0.430250 -0.000118 0.0
1.691091 1.590617 0.001713 0.0
2.137499 1.335922 -0.000187 0.0
0.686797 1.223361 0.002399 0.0
3.722434 0.727826 -0.002059 0.0
3.329106 0.329097 0.000423 0.0
1.239085 0.241216 -0.005486 0.0
0.119214 0.100296 0.002292 0.0
3.329322 1.562645 -0.002759 0.0
2.235779 0.748502 0.001185 0.0
1.279780 0.776660 0.001720 0.0
2.625875 0.609847 -0.003727 0.0
0.485768 1.559670 -0.000278 0.0
1.111264 0.482743 -0.002621 0.0
1.565400 0.668444 -0.001356 0.0
1.561102 1.527654 0.000461 0.0
2.861978 0.860369 -0.000112 0.0
0.061240 0.780153 0.001637 0.0
2.190803 1.512635 0.000633 0.0
2.894237 0.144096 -0.003487 0.0
1.263736 1.059011 0.003905 0.0
2.259352 1.013513 -0.001245 0.0
1.112690 1.403214 0.002064 0.0
1.080202 0.504395 0.001435 0.0
3.946153 1.270580 -0.001335 0.0
0.489276 0.911705 0.001907 0.0
2.175435 0.070558 0.003391 0.0
0.646327 0.654571 -0.000652 0.0
2.243876 1.246045 -0.002235 0.0
3.629606 1.494914 0.002975 0.0
0.556830 0.465530 0.001922 0.0
1.391133 1.023642 -0.001758 0.0
1.845885 0.473755 0.000150 0.0
2.769521 1.271530 0.000334 0.0
0.018476 0.233647 -0.002509 0.0
0.664633 0.506753 -0.001767 0.0
2.870832 1.082496 0.001836 0.0
2.104095 0.135660 0.008177 0.0
1.586417 0.407421 0.002911 0.0
2.599463 0.633600 0.002036 0.0
0.927301 0.712742 -0.001596 0.0
1.395791 0.411052 -0.001078 0.0
2.660754 0.228502 0.002335 0.0
3.440457 1.537281 0.001161 0.0
2.381457 0.326016 0.000733 0.0
2.528568 0.307664 -0.001460 0.0
1.520424 0.838615 -0.000871 0.0
4.039181 1.211305 -0.000396 0.0
0.533653 0.511882 -0.000848 0.0
1.057320 0.991390 -0.001484 0.0
1.061942 1.097372 -0.000681 0.0
0.422310 0.866234 -0.000667 0.0
1.185987 1.009254 0.003561 0.0
2.348609 0.247842 0.000330 0.0
2.381896 1.638944 0.001220 0.0
0.866645 1.188582 0.002925 0.0
1.330968 0.552582 -0.002549 0.0
1.352624 1.474996 -0.001330 0.0
3.092340 0.863981 0.000087 0.0
3.066177 0.949982 -0.001975 0.0
0.942768 0.310786 0.000572 0.0
0.603005 0.905467 0.000286 0.0
3.910864 0.779019 -0.001055 0.0
3.896711 0.981568 -0.000212 0.0
0.696881 0.146318 -0.002312 0.0
3.190168 0.607089 0.002233 0.0
0.034774 1.491946 0.003855 0.0
2.435568 0.105019 0.002479 0.0
1.021701 1.170499 -0.001618 0.0
2.783980 0.833985 0.002942 0.0
1.590348 1.622404 0.000884 0.0
2.468679 0.019047 -0.002378 0.0
2.793955 0.306033 -0.002029 0.0
2.190174 0.746226 0.002357 0.0
2.679529 0.809593 0.000230 0.0
1.861759 0.606049 0.002687 0.0
1.085124 1.009346 -0.005254 0.0
1.436580 0.476027 -0.002388 0.0
0.623007 0.885450 -0.000565 0.0
2.021693 1.328854 -0.000376 0.0
2.980276 1.508884 0.001879 0.0
1.165745 0.803331 0.002468 0.0
2.104040 0.975864 0.000698 0.0
4.098446 1.545552 -0.002756 0.0
2.739365 0.949838 0.000643 0.0
2.777661 1.104317 -0.000047 0.0
2.253811 1.213416 -0.002312 0.0
0.186403 0.200115 -0.000485 0.0
1.186443 1.397497 0.000819 0.0
3.651046 0.804920 0.002916 0.0
3.494382 1.365365 0.003522 0.0
1.278579 0.638990 -0.002686 0.0
1.729995 0.669061 0.003561 0.0
0.724381 1.179366 -0.000411 0.0
0.759755 0.485621 0.002187 0.0
3.215213 0.556276 0.000359 0.0
0.587945 1.099724 -0.003204 0.0
0.997029 0.852556 0.000583 0.0
2.545475 0.387651 0.003266 0.0
1.403221 0.148010 -0.000292 0.0
0.580599 0.547435 -0.003024 0.0
2.914356 0.427842 0.001216 0.0
2.860339 0.370513 -0.002085 0.0
2.976624 0.633675 0.000779 0.0
2.281955 0.646556 0.003689 0.0
3.708640 0.192871 0.000285 0.0
2.281779 0.904225 -0.003865 0.0
3.334020 0.926091 -0.000755 0.0
0.681846 1.247672 0.000063 0.0
1.056645 0.240108 -0.001362 0.0
0.477729 0.554834 -0.003043 0.0
2.465506 1.186036 0.002815 0.0
2.762545 0.622430 0.002027 0.0
1.158108 0.957893 -0.003108 0.0
2.738526 0.288407 -0.000010 0.0
0.157064 1.204825 -0.000655 0.0
3.850843 0.322175 -0.001898 0.0
3.460052 0.268724 -0.002915 0.0
3.149458 0.426882 -0.003744 0.0
3.878090 1.566085 -0.003023 0.0
3.988183 0.351020 0.004213 0.0
0.894637 1.152728 -0.003061 0.0
0.894406 0.950279 -0.001221 0.0
2.068748 0.625365 -0.005223 0.0
3.395657 0.654837 -0.002992 0.0
2.446476 0.565574 -0.004108 0.0
3.558362 0.027725 -0.008112 0.0
3.616053 1.507976 -0.000211 0.0
2.947548 1.643292 -0.002899 0.0
3.751830 0.978599 -0.004425 0.0
0.643469 0.524294 -0.000894 0.0
2.896781 0.969724 -0.003795 0.0
0.949217 0.409235 0.004413 0.0
0.069159 1.419831 -0.004767 0.0
1.897830 1.466463 -0.003996 0.0
3.728593 1.212592 -0.000895 0.0
1.141673 0.268483 0.003495 0.0
1.185021 1.072771 0.003039 0.0
3.098600 0.403092 -0.000651 0.0
0.396328 0.260639 0.001389 0.0
0.974038 0.598976 -0.000724 0.0
1.434436 1.600861 -0.001430 0.0
1.510553 1.129618 -0.000746 0.0
4.038726 1.428246 -0.003445 0.0
2.810112 0.350088 -0.001015 0.0
4.091102 1.417132 -0.001924 0.0
2.606322 1.377943 -0.001838 0.0
2.973107 1.208774 -0.001472 0.0
2.692777 0.042804 -0.002823 0.0
0.581866 0.662754 0.004258 0.0
0.107919 0.805623 -0.001541 0.0
2.021760 0.580664 0.003009 0.0
1.776611 0.881874 -0.002336 0.0
4.077182 1.094667 0.004516 0.0
2.019155 1.023061 0.000006 0.0
4.067356 1.162526 -0.000517 0.0
2.611937 1.104938 0.000797 0.0
1.280926 0.820230 0.000476 0.0
1.446493 0.141944 0.002307 0.0
1.301041 0.939114 -0.001300 0.0
3.757586 0.657133 0.002132 0.0
3.662503 0.844446 -0.001595 0.0
1.590191 0.191688 -0.003574 0.0
2.662237 1.508934 0.000460 0.0
3.523257 0.198901 -0.001526 0.0
1.337972 0.658271 0.000417 0.0
3.110841 0.703575 -0.003670 0.0
3.566471 1.234225 0.003380 0.0
1.241047 0.182263 0.002527 0.0
3.967247 0.297549 -0.001806 0.0
3.051019 0.163690 -0.002225 0.0
3.507941 0.679503 0.000591 0.0
1.005795 1.003158 0.005117 0.0
1.049187 0.151821 0.004885 0.0
4.072587 1.205572 -0.000512 0.0
1.095481 0.520656 0.006278 0.0
3.884109 1.406951 0.002858 0.0
3.909770 1.645483 0.000455 0.0
2.770022 0.369191 0.001723 0.0
1.994292 1.633662 -0.000596 0.0
1.299663 0.945771 -0.000324 0.0
2.372591 0.656324 -0.000217 0.0
1.842520 0.813293 -0.001601 0.0
2.249458 0.728145 0.001395 0.0
3.624791 0.702438 -0.002866 0.0
1.151708 1.112475 0.004236 0.0
0.937690 1.154700 -0.001513 0.0
4.113658 0.961879 0.000190 0.0
0.315581 0.836250 0.002209 0.0
3.935290 1.544209 -0.003668 0.0
2.498822 0.183976 -0.000248 0.0
2.447678 1.231069 -0.000704 0.0
1.723178 0.375914 -0.003271 0.0
3.826346 0.577497 -0.001511 0.0
0.621661 1.398041 0.001762 0.0
1.704923 0.898704 -0.005361 0.0
2.031273 1.443715 -0.000068 0.0
2.448426 0.199690 -0.002888 0.0
2.670610 0.483145 0.003008 0.0
3.098826 0.466267 0.003203 0.0
3.434631 1.310718 0.003412 0.0
2.961885 1.237095 -0.000550 0.0
0.687770 0.354068 -0.003243 0.0
0.215751 0.675900 -0.004058 0.0
1.721337 1.652477 -0.001084 0.0
2.409380 0.218242 -0.002818 0.0
2.438153 1.412968 0.002436 0.0
1.247570 0.487500 -0.002587 0.0
3.612650 1.052837 -0.000662 0.0
1.275399 0.581213 -0.001397 0.0
1.853139 1.180701 0.001232 0.0
0.462067 0.718100 0.002752 0.0
2.347553 0.052164 0.000914 0.0
3.614584 0.482922 -0.000518 0.0
3.523896 0.727819 0.004370 0.0
1.004682 1.000805 0.001612 0.0
3.423316 0.467783 -0.000925 0.0
0.916229 0.189676 0.001869 0.0
4.064929 0.772814 0.002702 0.0
1.190929 0.140717 0.001064 0.0
1.768121 0.684303 -0.003233 0.0
2.973923 1.117585 -0.003430 0.0
1.770941 1.227879 -0.002984 0.0
3.134820 1.490727 0.004914 0.0
2.193559 0.423753 -0.001256 0.0
3.124415 0.750460 0.001758 0.0
1.181891 0.391067 -0.002539 0.0
3.983185 0.667958 -0.005163 0.0
1.432748 1.317329 -0.001926 0.0
1.174241 1.122843 -0.003514 0.0
3.335032 0.211927 -0.001294 0.0
2.628507 0.500038 -0.001661 0.0
3.383309 0.610092 -0.002140 0.0
2.125113 0.391293 -0.003180 0.0
1.896403 1.567614 -0.001258 0.0
3.399705 0.713910 0.002554 0.0
3.302045 0.720568 0.002545 0.0
2.274436 1.295121 -0.000918 0.0
3.139325 0.004679 0.000360 0.0
1.317950 0.309630 -0.004659 0.0
0.974718 0.804873 -0.001141 0.0
0.501713 0.218315 0.005743 0.0
3.542748 0.534963 -0.002433 0.0
1.529442 0.228152 0.001947 0.0
0.095391 1.344162 0.000045 0.0
2.514694 1.001028 0.002461 0.0
2.164148 1.291996 -0.002914 0.0
2.119319 1.100613 -0.001628 0.0
0.492665 1.164913 -0.002268 0.0
1.056456 0.493232 0.003048 0.0
4.076252 0.888496 -0.002392 0.0
3.246665 0.050248 -0.001680 0.0
2.455898 1.241671 0.004267 0.0
1.091352 0.640116 0.000997 0.0
3.340019 0.400253 0.001125 0.0
2.538489 0.296204 0.002805 0.0
1.576212 1.119997 -0.002386 0.0
0.880977 0.762744 0.004445 0.0
4.118936 1.016099 -0.000847 0.0
3.770129 0.842261 0.001007 0.0
2.929443 1.019718 -0.000642 0.0
2.369998 1.034518 0.003660 0.0
2.859499 1.586758 -0.004563 0.0
1.155921 0.741755 -0.004437 0.0
1.361865 1.277437 0.003103 0.0
1.333921 0.559494 -0.001190 0.0
3.566504 1.232938 -0.006415 0.0
0.904022 1.255754 0.000542 0.0
0.588120 1.139219 0.001878 0.0
1.745604 1.438199 -0.000451 0.0
2.462980 1.215476 -0.002133 0.0
2.667547 1.100228 0.001021 0.0
4.061540 1.566811 0.002149 0.0
3.925351 1.602444 -0.000111 0.0
3.756687 0.443834 0.000551 0.0
0.878762 0.021844 -0.002675 0.0
0.188421 0.221779 0.001049 0.0
1.529771 1.401303 -0.003694 0.0
1.278868 1.088622 -0.001860 0.0
0.162943 0.463525 -0.002008 0.0
0.134881 1.260662 0.003843 0.0
3.999302 0.100645 -0.000114 0.0
3.503624 1.439901 0.001366 0.0
3.542884 1.570308 -0.000238 0.0
3.308794 1.086087 0.000915 0.0
0.743286 0.510591 -0.001211 0.0
3.353388 0.115057 0.002899 0.0
1.202588 1.602665 -0.000549 0.0
2.923897 1.353973 -0.002902 0.0
2.752221 0.772928 0.001141 0.0
3.331126 1.506441 0.000899 0.0
1.291930 0.806447 0.001257 0.0
0.784867 0.691128 -0.003208 0.0
2.397273 1.460957 -0.003692 0.0
2.185373 1.183103 0.002081 0.0
3.606271 1.465311 0.000356 0.0
3.305514 0.693912 0.001735 0.0
1.888564 0.585938 -0.002903 0.0
4.089119 0.106402 -0.001924 0.0
3.653285 1.111931 0.000364 0.0
2.501589 0.021622 0.002173 0.0
1.651494 0.152723 -0.000479 0.0
0.250544 0.884989 -0.000074 0.0
1.987172 0.341067 -0.006397 0.0
1.131035 1.245197 0.002167 0.0
0.324616 0.907199 -0.000192 0.0
0.639041 0.872345 -0.003787 0.0
2.134602 0.276955 0.003431 0.0
3.398494 1.147767 0.002880 0.0
0.921974 0.529502 0.002797 0.0
2.752502 0.398920 -0.001661 0.0
1.337877 0.842038 -0.001677 0.0
0.148431 1.263477 0.003436 0.0
3.710627 0.010203 0.000523 0.0
0.022614 1.119618 0.001252 0.0
2.974947 0.373479 0.001854 0.0
1.322441 0.582579 0.001774 0.0
1.667937 0.062497 0.000266 0.0
2.174261 0.908860 0.004045 0.0
1.290085 1.600101 -0.004378 0.0
1.977450 0.905026 0.000105 0.0
2.188912 0.422311 0.002874 0.0
2.219085 0.632947 -0.002618 0.0
2.402911 0.109191 -0.002683 0.0
2.124184 0.618830 -0.000226 0.0
1.875882 0.785667 0.005325 0.0
0.881367 0.587826 -0.003650 0.0
2.810389 0.908668 0.000029 0.0
0.162114 0.254101 -0.000850 0.0
2.534347 0.814444 -0.001901 0.0
4.120603 0.671421 -0.001786 0.0
2.327913 0.195995 0.002492 0.0
3.473503 0.796541 0.001762 0.0
1.376935 1.058217 0.000717 0.0
3.528530 0.263600 -0.001123 0.0
0.342989 1.253226 -0.001663 0.0
0.141202 1.377053 0.000308 0.0
3.207333 0.290831 0.000443 0.0
0.150335 0.969206 -0.002407 0.0
3.840411 1.341534 -0.000693 0.0
0.271957 0.287071 -0.002431 0.0
1.033991 0.155696 -0.004139 0.0
1.850093 0.263986 0.002643 0.0
1.856434 0.843523 -0.001504 0.0
3.809642 0.354596 0.002213 0.0
2.957350 0.434677 -0.001598 0.0
3.905661 1.178966 0.002085 0.0
0.938109 1.131630 0.001319 0.0
1.232863 0.267737 0.003486 0.0
2.070442 1.007547 0.002335 0.0
3.061675 0.055566 -0.002809 0.0
2.597015 0.243650 -0.001689 0.0
3.282727 0.919839 -0.000948 0.0
1.844837 1.047809 -0.001386 0.0
1.544586 0.194682 -0.002960 0.0
0.631655 0.073664 0.000877 0.0
3.202308 1.103299 -0.000298 0.0
1.110081 0.590215 -0.000729 0.0
3.936423 1.289015 0.002338 0.0
0.857537 0.298159 -0.000265 0.0
3.468015 0.755210 0.001830 0.0
0.741381 0.725346 -0.000481 0.0
3.554701 0.589616 0.003032 0.0
1.918971 0.980760 -0.002312 0.0
2.116020 0.655450 -0.002769 0.0
3.270128 1.227243 -0.002259 0.0
0.951812 1.117241 -0.002610 0.0
0.859248 0.707239 -0.002360 0.0
3.005938 0.314596 0.000630 0.0
1.087799 1.400542 0.001228 0.0
1.078765 1.367674 0.000354 0.0
3.537860 0.176263 -0.001340 0.0
1.974386 0.388035 0.002248 0.0
1.132313 1.311935 0.000663 0.0
0.282642 0.855986 -0.000830 0.0
3.980345 1.600535 0.002313 0.0
2.389023 1.180996 0.004530 0.0
2.763305 0.012854 0.001076 0.0
3.271876 0.530015 -0.006065 0.0
3.188568 0.731877 0.003208 0.0
1.783596 1.560989 -0.000612 0.0
3.569505 1.036835 0.000691 0.0
2.491372 0.979523 0.003685 0.0
2.884656 0.285565 0.002130 0.0
1.141761 0.566228 0.001147 0.0
1.635294 0.645823 -0.002085 0.0
3.545440 0.479317 0.000040 0.0
1.383187 0.193340 0.001936 0.0
3.506295 0.242310 -0.000692 0.0
2.142263 1.150420 -0.001525 0.0
1.394812 1.016055 -0.000399 0.0
1.075385 1.315580 -0.000873 0.0
1.698755 1.174393 0.004256 0.0
0.483099 0.346439 -0.000703 0.0
1.513218 0.205943 0.000437 0.0
4.067145 1.388050 0.003890 0.0
2.561591 1.528023 -0.004649 0.0
3.918545 0.962459 -0.000938 0.0
4.060856 0.419819 -0.001390 0.0
0.084993 0.976321 -0.001549 0.0
2.792090 1.349929 -0.000741 0.0
1.216705 0.376975 0.000808 0.0
0.039388 1.578535 0.002647 0.0
1.346176 0.158459 -0.000224 0.0
3.679464 1.053651 -0.000030 0.0
0.810434 0.547156 0.001867 0.0
1.153623 0.852862 0.000579 0.0
0.851424 0.601292 0.000794 0.0
1.093729 1.027348 -0.005635 0.0
0.081916 0.837794 -0.000988 0.0
2.850194 0.660936 0.002214 0.0
1.833453 0.221479 0.000253 0.0
0.012565 0.872363 0.001458 0.0
4.000196 0.081813 -0.005318 0.0
2.732847 1.594410 -0.001044 0.0
1.084774 0.441423 -0.000137 0.0
0.572075 0.980631 0.000756 0.0
0.704189 0.392674 -0.001140 0.0
2.752006 1.119368 0.004439 0.0
0.597666 0.996172 -0.001736 0.0
0.377686 0.929441 0.001061 0.0
0.299327 0.788258 0.003243 0.0
3.594479 1.233378 -0.002033 0.0
3.273046 0.768250 -0.000420 0.0
1.686016 1.101863 -0.000117 0.0
3.798461 0.408814 -0.000167 0.0
2.114281 1.582465 0.002180 0.0
3.345292 0.522607 -0.002423 0.0
0.553200 0.993734 -0.000557 0.0
1.802899 0.391248 -0.002494 0.0
1.726205 0.396350 0.001806 0.0
1.693190 0.844953 0.002306 0.0
0.033235 1.284081 0.001136 0.0
2.829771 0.083541 0.000250 0.0
3.890703 0.633263 -0.003123 0.0
1.935907 0.188387 0.001367 0.0
3.585881 1.407738 -0.000097 0.0
3.127696 0.176006 -0.002585 0.0
2.220914 1.204644 0.001794 0.0
2.358989 1.016268 -0.000803 0.0
3.555959 0.446989 -0.002757 0.0
2.459730 0.662528 -0.001809 0.0
0.356969 1.274409 -0.000674 0.0
0.373700 1.599582 -0.000476 0.0
1.735375 0.241759 0.002188 0.0
0.406797 0.292338 0.002308 0.0
2.247004 0.675687 -0.000754 0.0
3.289105 0.266738 0.004645 0.0
2.402648 0.204627 -0.001107 0.0
1.431650 1.457038 0.000052 0.0
2.208981 1.175852 0.000831 0.0
2.763481 0.485241 0.002376 0.0
3.582164 1.385591 -0.001841 0.0
1.502888 1.104625 -0.004396 0.0
0.633116 0.935811 -0.004182 0.0
1.916467 0.354372 0.001100 0.0
0.111153 0.829757 -0.002592 0.0
1.460017 0.936933 0.003739 0.0
2.121226 0.470501 0.005097 0.0
0.167271 0.552035 0.001082 0.0
1.075487 0.871978 0.001772 0.0
0.071383 1.614327 0.001625 0.0
3.649606 1.644157 0.004968 0.0
1.797878 0.482906 -0.001693 0.0
2.997137 1.318877 0.000763 0.0
0.027196 0.604986 0.004681 0.0
1.216009 1.244013 0.004000 0.0
3.541933 1.483497 -0.000595 0.0
1.426927 1.399413 0.001361 0.0
1.445205 1.426250 -0.000006 0.0
0.593178 0.338041 0.000054 0.0
2.756852 1.401016 -0.000421 0.0
0.022408 0.302681 0.002179 0.0
2.153459 1.076543 -0.002294 0.0
0.479206 1.530548 0.001977 0.0
0.550908 0.042529 -0.004059 0.0
2.752335 1.411340 -0.001177 0.0
1.066948 0.420612 -0.004480 0.0
1.118022 0.765140 0.002324 0.0
1.559157 0.575240 -0.001337 0.0
2.037318 0.613630 0.004278 0.0
0.089475 1.398378 0.001584 0.0
0.740116 0.948366 -0.000598 0.0
0.838848 1.600952 -0.000629 0.0
1.753194 0.520695 -0.003557 0.0
3.758145 0.142302 0.001517 0.0
3.637001 1.304197 0.000871 0.0
0.277351 0.571814 0.000615 0.0
3.465103 0.210860 0.003354 0.0
0.015168 0.487433 -0.001536 0.0
2.491688 0.181450 0.000538 0.0
1.509802 1.420224 0.000203 0.0
3.793765 0.404343 -0.000723 0.0
2.165845 0.494842 -0.003329 0.0
1.625799 0.693358 -0.003021 0.0
2.637232 1.271570 -0.002413 0.0
0.985346 0.081904 0.000247 0.0
0.197324 0.746154 -0.002338 0.0
2.315625 0.443041 0.004184 0.0
2.300652 0.637750 0.005417 0.0
0.251977 0.854985 -0.000667 0.0
1.821479 0.635259 0.001342 0.0
2.940963 1.011510 0.003041 0.0
0.539621 0.284479 -0.000926 0.0
1.378933 1.428993 -0.002009 0.0
0.934201 0.066262 -0.000832 0.0
0.750912 0.461552 -0.002734 0.0
3.338494 0.851603 -0.004538 0.0
2.892254 0.367558 -0.001073 0.0
1.385796 0.777383 0.000122 0.0
1.906297 0.567506 0.006772 0.0
2.009886 1.447664 0.000615 0.0
3.297787 0.213222 -0.000433 0.0
3.078298 0.156703 0.002914 0.0
2.988548 0.002846 -0.002145 0.0
3.131349 0.126910 -0.001847 0.0
3.043525 0.287568 0.003556 0.0
0.614517 1.483451 0.001582 0.0
1.323674 0.471151 0.000940 0.0
1.568727 0.835653 -0.000689 0.0
1.987633 0.675338 -0.000029 0.0
2.382457 1.467615 0.000066 0.0
0.362442 0.920476 -0.000273 0.0
1.166910 0.317898 -0.000310 0.0
0.814308 0.014351 0.001117 0.0
4.088111 0.358225 -0.000770 0.0
0.939748 0.703060 -0.002209 0.0
1.915782 0.482372 -0.001255 0.0
0.913433 0.040595 0.002704 0.0
3.518081 1.480887 0.001287 0.0
2.665049 1.053889 -0.002171 0.0
3.513838 0.361880 -0.000745 0.0
1.419660 0.484437 -0.002997 0.0
1.841516 1.315402 -0.003254 0.0
2.272301 1.533889 -0.001830 0.0
0.440251 1.009293 0.001074 0.0
0.332331 0.393742 -0.002082 0.0
1.340284 0.466023 0.000456 0.0
3.109195 1.058497 0.001336 0.0
3.534240 0.585118 -0.001454 0.0
2.069920 1.447021 0.001076 0.0
1.781671 0.695276 -0.001970 0.0
3.250924 1.650639 0.003391 0.0
3.157356 0.047896 0.001842 0.0
1.642780 1.154059 0.000527 0.0
3.873766 1.112833 -0.000829 0.0
0.494273 0.087294 0.003399 0.0
1.409914 0.109613 0.002045 0.0
1.621449 1.492896 -0.002453 0.0
1.119810 1.103430 -0.001969 0.0
1.423554 0.965777 -0.003290 0.0
2.892501 0.583108 -0.005599 0.0
0.138016 1.410433 0.002025 0.0
3.087085 0.004632 -0.000863 0.0
3.142336 0.109465 0.002558 0.0
0.850324 0.118401 -0.001335 0.0
2.405846 1.218547 0.000554 0.0
3.561250 0.344889 -0.003625 0.0
1.137701 1.135780 -0.000076 0.0
3.664204 0.456973 0.001364 0.0
3.447305 1.362970 -0.001913 0.0
3.820038 0.166258 0.000657 0.0
0.368389 0.246279 0.001591 0.0
2.935385 1.182166 0.000035 0.0
3.423402 1.484708 0.001256 0.0
3.770111 0.962224 0.000369 0.0
2.684075 1.499452 -0.001230 0.0
1.389256 1.296318 -0.002418 0.0
2.242643 1.101612 -0.001253 0.0
3.061518 0.424506 0.005871 0.0
1.025427 0.228059 -0.004903 0.0
0.076439 1.086430 0.001858 0.0
2.494393 0.537791 0.000348 0.0
0.552138 0.026669 0.002685 0.0
1.155636 0.830898 -0.004053 0.0
2.821193 0.948419 0.005072 0.0
2.819408 1.526054 0.000134 0.0
1.336116 1.538865 -0.006448 0.0
0.166312 0.851576 -0.004907 0.0
1.781827 0.361522 0.001348 0.0
0.743280 0.305041 0.001641 0.0
3.210931 0.608302 -0.000869 0.0
0.071749 0.960874 0.000814 0.0
2.973036 0.598069 0.000726 0.0
3.733740 0.795302 0.001259 0.0
0.200853 0.477377 0.004118 0.0
2.713326 0.617030 -0.004532 0.0
0.908221 1.112545 -0.003771 0.0
4.024775 0.016557 0.000621 0.0
3.940697 1.298242 -0.001924 0.0
3.156891 0.799428 -0.003735 0.0
1.220055 0.277606 0.000663 0.0
2.180349 0.196129 -0.002490 0.0
