3.762472 1.785771 0.000125 0.0
1.816294 1.597955 0.002393 0.0
1.475285 0.194268 0.001843 0.0
4.162642 1.118168 -0.001805 0.0
0.409906 1.287583 -0.002679 0.0
0.913205 0.095547 0.001268 0.0
4.294850 1.847184 0.001675 0.0
4.838776 1.119286 0.004471 0.0
2.822874 0.655353 0.004172 0.0
3.897862 0.498220 -0.000615 0.0
0.659409 1.745752 0.000132 0.0
3.742934 0.876929 -0.000216 0.0
4.168154 0.384828 0.006144 0.0
1.674786 0.348572 -0.002281 0.0
4.607501 1.088223 0.002971 0.0
3.704177 0.411695 -0.000695 0.0
1.661868 1.415452 -0.000295 0.0
0.205972 1.703049 -0.000946 0.0
3.618867 0.302278 -0.002776 0.0
2.566231 0.645079 -0.000535 0.0
0.041100 1.172219 -0.000143 0.0
3.399961 0.465741 0.001349 0.0
2.076717 1.659951 -0.001698 0.0
2.505867 1.204327 -0.000846 0.0
1.594969 1.399433 0.001256 0.0
0.401073 0.932972 0.003550 0.0
3.359753 1.138552 -0.000269 0.0
4.251000 1.500318 0.002911 0.0
3.989809 0.046795 0.001288 0.0
1.544747 0.503583 -0.001661 0.0
3.355237 0.971971 -0.004559 0.0
4.376350 1.685873 0.001376 0.0
2.691169 0.774041 -0.000630 0.0
1.788589 0.965772 -0.001016 0.0
0.389383 0.203699 -0.002645 0.0
4.678387 0.392384 0.000195 0.0
3.061925 1.154701 -0.000721 0.0
1.968722 0.152601 0.002286 0.0
3.593915 1.533631 0.004612 0.0
4.632080 0.140513 0.003616 0.0
4.173570 0.755236 0.003166 0.0
0.591565 0.882538 0.000845 0.0
2.442904 1.283916 0.001058 0.0
3.873997 0.030534 -0.000734 0.0
2.863465 1.589017 0.004115 0.0
1.950397 0.112022 -0.002786 0.0
2.658826 1.394596 0.003910 0.0
1.353965 0.101114 -0.001186 0.0
0.918499 0.407597 -0.003391 0.0
0.771117 1.046662 0.001595 0.0
1.620253 1.169531 -0.000346 0.0
2.366825 1.208356 0.002006 0.0
1.784855 0.890474 -0.001031 0.0
3.835284 1.518233 0.003220 0.0
4.207805 0.624753 -0.002192 0.0
2.525956 1.054741 0.001559 0.0
3.955061 0.627665 0.000716 0.0
0.471760 1.410055 0.000077 0.0
4.185081 1.313585 0.001205 0.0
3.376888 0.134373 0.000326 0.0
1.734251 0.249073 0.002825 0.0
0.542921 0.204509 0.003336 0.0
2.253543 0.089973 -0.003775 0.0
1.941464 1.104560 -0.004428 0.0
3.255177 1.624461 0.001295 0.0
1.762674 1.025610 -0.001850 0.0
1.532267 0.767516 0.001382 0.0
0.964545 0.090723 0.002133 0.0
0.075751 0.202908 -0.001844 0.0
0.726596 0.716295 -0.001210 0.0
1.271593 0.388028 0.001035 0.0
0.737969 1.103816 -0.004526 0.0
3.686892 0.322995 -0.003808 0.0
4.114686 0.010265 0.000477 0.0
2.553006 1.477761 -0.000222 0.0
3.986466 0.689969 -0.001020 0.0
2.037331 1.540969 0.000640 0.0
2.252036 1.043094 -0.000832 0.0
4.055929 1.583818 0.001895 0.0
1.499490 0.540187 0.004674 0.0
1.006698 0.308319 -0.002517 0.0
2.256203 0.131561 0.002098 0.0
0.227952 0.479143 -0.002957 0.0
3.745479 1.086776 -0.005150 0.0
0.987252 1.809596 -0.001007 0.0
4.531213 0.130435 0.004826 0.0
0.975922 1.492130 0.003904 0.0
1.642662 0.826696 0.004322 0.0
0.648949 0.384210 -0.000552 0.0
0.197898 0.160821 0.000599 0.0
4.266045 1.003032 0.000607 0.0
1.914275 0.805315 0.001522 0.0
4.469451 1.503160 0.002000 0.0
3.848710 0.325695 -0.005946 0.0
0.696290 0.385644 -0.000539 0.0
0.861113 1.810160 0.001110 0.0
4.184226 0.247623 -0.000501 0.0
2.719874 1.181174 -0.002367 0.0
2.526370 1.147368 -0.002312 0.0
3.250786 0.669619 -0.002755 0.0
2.113434 1.347883 -0.001660 0.0
4.694805 0.240949 -0.002661 0.0
3.233574 1.823605 0.000077 0.0
2.697953 0.399880 0.001128 0.0
4.511177 1.094652 0.000804 0.0
0.331197 1.578056 -0.001835 0.0
2.629172 0.979419 0.000806 0.0
0.923921 1.419880 0.000721 0.0
2.665164 0.437589 0.000240 0.0
2.489362 1.629016 -0.003931 0.0
4.717711 0.465483 0.001997 0.0
2.097891 0.898899 -0.002776 0.0
2.846654 0.603778 0.000380 0.0
3.551548 0.218536 0.000866 0.0
0.453303 1.140253 0.000514 0.0
4.470471 0.899948 -0.000692 0.0
1.202351 0.461997 -0.001008 0.0
4.189957 1.097192 0.004137 0.0
2.665257 0.729095 -0.003070 0.0
0.966260 1.466803 0.000989 0.0
3.763768 0.795994 -0.001127 0.0
2.548191 1.323241 -0.002152 0.0
1.217310 0.728834 -0.001687 0.0
4.046624 0.562666 0.000091 0.0
0.184017 0.702657 0.001621 0.0
4.160230 0.660244 0.000295 0.0
1.353573 1.720910 -0.003872 0.0
4.449340 1.352359 0.004371 0.0
1.059606 1.005817 -0.000255 0.0
2.179701 0.872185 0.001006 0.0
1.983168 1.376441 0.001864 0.0
0.568720 0.668397 0.002784 0.0
0.786918 1.046006 0.001292 0.0
1.808551 0.549759 0.000894 0.0
3.246766 0.838785 -0.002574 0.0
0.478540 0.724423 -0.002846 0.0
1.879146 0.100703 -0.001570 0.0
2.734712 1.292771 -0.003817 0.0
3.137540 1.174949 -0.002763 0.0
2.288916 0.654147 0.002806 0.0
3.115522 0.928156 -0.002897 0.0
0.676978 1.452218 0.001894 0.0
3.804271 0.862845 0.002317 0.0
1.790459 1.527089 0.000312 0.0
4.253669 0.363948 0.003764 0.0
3.934636 0.866794 -0.001541 0.0
4.386113 0.475398 0.000008 0.0
1.573342 0.352115 0.000292 0.0
4.271617 0.448813 0.000418 0.0
4.640696 0.329885 0.000307 0.0
0.384940 1.381538 0.001169 0.0
4.808557 1.207376 0.001674 0.0
1.970044 1.523231 0.001681 0.0
3.382249 0.176338 0.004360 0.0
1.081289 0.383357 0.002296 0.0
4.094922 1.396322 -0.000117 0.0
2.914164 1.186470 0.000612 0.0
4.215198 0.441681 0.001963 0.0
0.860209 1.809183 0.002625 0.0
1.033103 1.066271 -0.004863 0.0
1.217660 1.369643 0.003583 0.0
4.438508 1.439828 -0.000227 0.0
4.403019 1.695877 0.001126 0.0
4.149574 0.340285 0.000457 0.0
1.148454 0.685605 -0.001211 0.0
3.372005 1.301375 -0.000368 0.0
3.211044 1.687266 0.000179 0.0
3.764336 1.096936 0.002840 0.0
2.851866 1.666637 -0.003745 0.0
4.190925 1.458383 0.001939 0.0
4.697282 0.511672 -0.001375 0.0
4.371354 1.785243 -0.004561 0.0
4.063254 1.018617 0.000415 0.0
1.047954 0.613483 0.001445 0.0
1.870266 1.729991 -0.001996 0.0
0.797172 0.924828 0.003377 0.0
2.357489 1.400641 -0.005423 0.0
4.685485 1.799076 0.000334 0.0
4.763168 0.827820 0.003531 0.0
2.213806 1.774211 0.002616 0.0
4.771015 1.257149 0.002733 0.0
4.518842 1.519711 0.000064 0.0
2.649776 0.142440 -0.002151 0.0
0.800367 0.823223 0.002886 0.0
0.371249 0.444963 -0.002631 0.0
3.455828 1.422456 -0.000625 0.0
2.080112 0.615148 -0.003175 0.0
3.817318 0.269076 -0.005152 0.0
0.262449 1.370047 0.003505 0.0
1.516562 0.237427 0.003485 0.0
3.711607 1.782054 -0.000547 0.0
2.142777 0.608044 -0.001914 0.0
2.048613 1.209544 0.005917 0.0
0.613981 0.886573 -0.002866 0.0
0.069775 1.110599 0.002767 0.0
2.927266 1.442048 0.001175 0.0
4.417906 1.100227 -0.000371 0.0
3.688251 0.519709 0.000816 0.0
0.974658 1.465012 -0.001056 0.0
4.654276 0.677940 0.002890 0.0
0.858075 1.618664 0.001837 0.0
3.688827 0.376688 -0.000467 0.0
1.587100 1.196017 0.001830 0.0
3.736848 1.794648 0.001678 0.0
0.167715 0.330143 0.001653 0.0
0.359848 0.869875 0.001864 0.0
2.572009 1.414796 -0.000475 0.0
3.198193 1.171074 -0.004425 0.0
1.473893 0.809902 -0.003423 0.0
0.511918 0.634866 -0.003829 0.0
0.734657 1.321801 0.002644 0.0
3.307988 0.974184 -0.002027 0.0
0.822189 1.812932 0.001948 0.0
4.213010 1.510531 0.003007 0.0
0.597274 1.591452 0.001398 0.0
2.147972 1.067965 0.002231 0.0
2.899685 0.792674 0.002244 0.0
3.806717 1.143625 0.002248 0.0
0.463621 0.388097 -0.000944 0.0
0.424781 1.467748 -0.003083 0.0
1.531487 0.702803 0.000847 0.0
2.745338 0.376418 -0.003395 0.0
2.670910 0.933211 -0.002404 0.0
0.477983 0.825141 -0.001116 0.0
0.817790 1.752455 0.005339 0.0
3.932703 1.029565 0.003386 0.0
1.319662 0.771579 -0.003140 0.0
2.689387 0.585842 -0.003664 0.0
2.050694 1.533910 0.001318 0.0
2.346505 1.437778 -0.001983 0.0
4.809798 0.707694 -0.001041 0.0
2.227685 1.686275 0.004064 0.0
3.276914 0.523525 -0.002020 0.0
0.913684 0.419869 -0.001534 0.0
0.629419 1.570251 -0.000899 0.0
2.123122 0.625365 0.001853 0.0
2.400908 0.155196 0.002224 0.0
3.413554 1.551051 0.000466 0.0
4.617986 0.817907 -0.000192 0.0
2.753319 0.007395 -0.002420 0.0
4.491274 0.970586 0.005562 0.0
1.921104 0.512913 -0.001900 0.0
0.967673 0.128987 0.001629 0.0
2.892668 1.081422 0.000399 0.0
2.559857 0.781627 -0.002192 0.0
2.326337 0.262861 -0.000822 0.0
4.251078 0.419344 -0.002981 0.0
1.037014 1.299623 -0.006155 0.0
3.666184 0.345075 0.004320 0.0
1.103449 0.754736 -0.000793 0.0
4.197516 0.633919 0.003953 0.0
2.674151 0.693056 0.000078 0.0
4.236415 0.400060 -0.002914 0.0
2.834833 0.579729 0.001625 0.0
2.908889 0.715527 -0.001162 0.0
4.610932 1.392292 0.002091 0.0
3.321737 0.739939 0.004887 0.0
3.634078 1.366555 0.001625 0.0
0.454856 1.126024 0.002583 0.0
1.728990 0.379268 0.001864 0.0
1.620400 0.472859 -0.002357 0.0
2.448893 1.177065 0.001851 0.0
1.229376 1.065302 0.003724 0.0
3.899208 0.423606 -0.003228 0.0
3.685190 0.879072 -0.004649 0.0
3.105779 0.180711 0.002465 0.0
1.095514 1.494684 -0.001670 0.0
3.100392 1.514775 -0.001639 0.0
1.974884 1.431259 0.002490 0.0
4.536366 0.228695 -0.004975 0.0
0.291338 0.808201 -0.001124 0.0
2.369494 1.349396 0.000435 0.0
3.162698 0.937227 -0.000514 0.0
2.138517 0.283777 -0.000607 0.0
1.448981 0.454508 -0.001758 0.0
4.559252 1.208482 0.000980 0.0
0.000555 0.916381 -0.006262 0.0
0.356764 0.042439 -0.003066 0.0
3.398760 1.542967 -0.003814 0.0
0.980158 0.890716 -0.000519 0.0
1.171819 0.301481 0.001141 0.0
1.630093 1.149543 0.001140 0.0
4.729143 0.960701 0.000182 0.0
2.788399 1.393151 0.002172 0.0
1.480950 0.019556 -0.000674 0.0
1.895207 0.532475 0.001944 0.0
2.879627 1.099225 0.005608 0.0
4.180642 0.597931 0.003643 0.0
3.765695 0.740624 0.002639 0.0
2.909564 0.448849 -0.000032 0.0
1.502562 0.680736 -0.002105 0.0
4.518150 0.509163 0.004225 0.0
3.084017 1.334746 -0.000029 0.0
3.971726 0.329486 -0.000734 0.0
2.171582 1.446549 -0.001668 0.0
4.829601 1.113378 -0.001370 0.0
4.670608 1.426657 0.000233 0.0
3.430314 1.256636 -0.000523 0.0
0.588143 0.330911 -0.000201 0.0
3.180884 0.690585 -0.002785 0.0
2.819506 0.995719 0.007679 0.0
0.022233 1.225489 -0.002133 0.0
4.505329 1.533051 0.000269 0.0
3.424332 1.562929 0.002806 0.0
3.663929 1.638140 0.000404 0.0
0.034161 0.273599 0.001622 0.0
0.364709 1.614482 -0.000587 0.0
0.393266 0.260028 0.002254 0.0
2.884006 0.891404 0.002227 0.0
4.350607 0.986862 -0.000320 0.0
4.283283 0.596264 -0.000267 0.0
1.685791 0.109298 0.003591 0.0
3.611246 1.401368 0.002766 0.0
3.827795 0.344350 0.002568 0.0
3.219704 0.750292 -0.001395 0.0
0.322641 1.206583 -0.000745 0.0
0.037763 0.419937 -0.003276 0.0
2.545998 1.439905 -0.000935 0.0
2.509383 1.210959 0.001251 0.0
2.436959 0.064517 0.000448 0.0
1.417162 0.263389 0.001416 0.0
3.512664 0.596953 0.000623 0.0
3.955319 0.006105 0.000789 0.0
2.707186 0.628546 0.002191 0.0
3.228402 0.964843 -0.002567 0.0
4.771581 1.253279 -0.004705 0.0
2.772688 1.409572 -0.001185 0.0
1.216006 0.520154 -0.004498 0.0
3.709395 1.776571 -0.000321 0.0
1.743345 1.103347 0.002618 0.0
2.864286 0.678520 0.001346 0.0
1.668911 1.779790 -0.000423 0.0
3.594798 0.018686 0.002710 0.0
2.447663 0.255480 0.001128 0.0
0.883574 1.277944 -0.001854 0.0
0.603987 0.837183 0.002927 0.0
1.754778 0.952421 0.001564 0.0
0.620856 1.802624 0.004820 0.0
4.540647 0.939992 0.001366 0.0
2.509519 1.367162 -0.002894 0.0
1.803304 1.141522 0.000413 0.0
0.940134 1.333159 0.000143 0.0
2.659082 1.558503 -0.002085 0.0
3.760641 0.223191 -0.003337 0.0
1.203119 0.590076 0.000363 0.0
2.629669 0.600853 0.001515 0.0
1.836404 1.497076 0.002213 0.0
3.800975 0.064651 -0.001384 0.0
0.207848 0.564795 0.002863 0.0
3.608091 0.892551 0.001803 0.0
0.756110 0.171843 -0.001340 0.0
1.323590 1.528444 0.003063 0.0
0.837342 0.978136 -0.001331 0.0
2.226565 1.129822 0.000810 0.0
3.099032 1.394211 -0.000729 0.0
1.800172 0.425888 -0.002840 0.0
1.287334 1.059921 -0.001248 0.0
2.350409 1.551593 -0.004343 0.0
4.807110 0.216138 -0.001454 0.0
0.149065 1.632695 -0.000709 0.0
1.935833 0.100337 0.001402 0.0
4.100716 0.002885 -0.003220 0.0
0.963599 1.702481 -0.001469 0.0
1.271610 1.465123 -0.004792 0.0
1.316063 0.441654 0.002379 0.0
0.977782 1.641044 0.001564 0.0
1.767215 1.192584 -0.003360 0.0
4.642927 1.656908 -0.001345 0.0
1.736124 1.603522 -0.000862 0.0
1.063325 0.102698 0.000965 0.0
2.238609 0.333958 0.000244 0.0
1.547049 1.533708 0.000415 0.0
4.033510 0.862591 -0.000408 0.0
1.736263 0.651894 -0.002422 0.0
2.315164 1.643213 0.000681 0.0
4.009447 0.504492 -0.001336 0.0
4.278514 1.802791 0.002237 0.0
0.013754 0.231632 0.000752 0.0
3.717401 0.537063 -0.001630 0.0
1.247458 1.364448 -0.004742 0.0
1.458062 0.304415 -0.000508 0.0
3.163382 0.758160 0.004048 0.0
3.314768 0.061048 -0.001811 0.0
3.759738 0.163424 0.003531 0.0
4.738573 0.105558 0.000693 0.0
4.328338 0.927760 -0.001585 0.0
3.982385 0.750135 -0.000465 0.0
4.252329 0.126444 -0.003131 0.0
2.874177 0.377932 -0.001752 0.0
3.907193 0.140527 0.003040 0.0
1.730905 1.515688 -0.000337 0.0
3.050973 1.789425 0.005062 0.0
2.639685 0.439526 0.003045 0.0
0.894712 1.207711 0.004107 0.0
2.295633 0.738455 0.004257 0.0
0.138860 1.131437 -0.002649 0.0
0.206585 0.675139 0.001735 0.0
3.820444 1.096397 0.002317 0.0
0.669362 0.217980 0.001933 0.0
3.139912 0.951469 0.000865 0.0
0.387785 0.270447 0.000013 0.0
4.098951 0.692770 0.003191 0.0
1.901430 1.674960 0.003002 0.0
0.808630 0.495593 -0.005249 0.0
4.382206 0.774801 -0.002128 0.0
3.709936 0.279639 -0.001056 0.0
4.485062 0.288042 -0.001225 0.0
2.270987 0.788984 0.000026 0.0
2.191048 0.265926 -0.000130 0.0
3.712657 1.055636 -0.000590 0.0
2.941049 0.045680 0.000010 0.0
0.127600 0.276992 0.001553 0.0
4.696014 1.095318 0.002121 0.0
4.581117 1.096092 -0.001830 0.0
2.317472 1.042849 -0.000339 0.0
4.137089 0.585857 -0.002078 0.0
3.274208 0.650033 0.001050 0.0
0.369803 1.524104 0.001353 0.0
1.738798 1.341644 -0.006387 0.0
1.528012 1.218020 0.003285 0.0
0.714646 0.038182 0.000759 0.0
3.370169 1.647311 0.000315 0.0
2.331706 0.319285 -0.000440 0.0
0.525733 0.920023 -0.002599 0.0
3.079627 0.065645 0.000097 0.0
0.570947 1.512069 -0.002348 0.0
2.506128 0.322811 0.000328 0.0
1.190771 1.585033 -0.003013 0.0
4.072639 1.827541 -0.000522 0.0
0.496847 0.926117 -0.001348 0.0
4.235597 1.701695 -0.000665 0.0
1.161487 1.585903 0.000883 0.0
2.199529 1.019422 0.002650 0.0
2.193916 1.557980 0.000116 0.0
2.141371 1.655012 0.001877 0.0
3.034846 1.826292 -0.001468 0.0
1.285601 0.840347 0.000230 0.0
0.071629 0.368493 0.000937 0.0
0.420071 0.106307 -0.002848 0.0
2.188626 1.501694 -0.003422 0.0
2.433215 1.672445 -0.000986 0.0
4.312100 0.762118 -0.000767 0.0
4.287710 0.133034 0.002098 0.0
0.180846 0.879263 -0.001718 0.0
3.357135 0.690949 0.000064 0.0
3.903573 1.468570 0.005907 0.0
1.948378 0.545744 -0.002074 0.0
2.288148 1.003897 -0.003307 0.0
4.325277 0.343691 0.001500 0.0
0.936163 0.220299 -0.001188 0.0
1.888971 1.116225 -0.001301 0.0
0.453190 0.741732 0.000063 0.0
3.470370 0.195406 0.002348 0.0
0.004785 1.569128 -0.000996 0.0
1.725365 0.022503 -0.001050 0.0
0.213806 0.961846 0.000957 0.0
0.670394 1.616393 0.001258 0.0
2.284172 0.430786 -0.003344 0.0
0.591283 1.568057 -0.003296 0.0
3.215778 0.663000 0.004002 0.0
2.622498 0.304225 0.002625 0.0
4.257726 1.780612 -0.002352 0.0
2.024424 0.993089 -0.001730 0.0
2.201011 1.362968 0.001821 0.0
4.091077 1.462824 0.000562 0.0
0.411217 0.407526 0.001026 0.0
0.528587 1.281232 0.001523 0.0
2.055025 1.446908 0.000803 0.0
4.584995 0.030999 -0.000427 0.0
3.402924 0.755768 0.000634 0.0
2.807975 1.723170 -0.000417 0.0
0.333900 0.396611 0.004358 0.0
3.919708 0.495073 -0.001148 0.0
4.711697 0.633786 0.001596 0.0
4.549705 1.534203 -0.000197 0.0
4.148345 0.573314 -0.001541 0.0
3.979433 0.751444 -0.001978 0.0
0.977463 1.267141 0.003489 0.0
3.618922 1.697410 0.003326 0.0
1.621384 0.146303 -0.000272 0.0
0.079650 1.712490 -0.001498 0.0
0.518419 1.781607 -0.000267 0.0
1.963877 1.503176 -0.001938 0.0
1.152577 0.055965 0.001410 0.0
4.771509 0.722301 -0.005381 0.0
2.943402 0.694266 -0.003115 0.0
3.130458 0.608485 0.001246 0.0
1.078295 1.151893 0.002086 0.0
0.485275 0.873813 0.000656 0.0
0.491382 0.867481 -0.004212 0.0
1.843901 0.988830 -0.000022 0.0
3.741600 1.534786 0.002313 0.0
1.345746 0.183044 -0.000784 0.0
4.323489 1.679754 -0.002013 0.0
2.582043 1.823003 -0.003464 0.0
1.906143 1.520970 0.001927 0.0
1.639893 0.440173 -0.000056 0.0
1.603517 0.874532 0.004818 0.0
0.873321 0.611690 -0.001692 0.0
0.069631 0.474087 0.000411 0.0
2.100058 0.427502 0.001794 0.0
4.739065 0.827052 0.002682 0.0
0.962290 0.832215 -0.001346 0.0
4.469807 1.095729 -0.000908 0.0
0.582486 0.548317 0.001960 0.0
2.761099 1.493541 -0.004716 0.0
2.671259 1.474255 -0.004170 0.0
2.008462 1.560225 0.000836 0.0
1.851716 1.184033 -0.006786 0.0
3.530439 1.377027 -0.001922 0.0
3.880084 0.255785 -0.002904 0.0
3.549259 1.109486 -0.001099 0.0
3.419373 0.070834 -0.000966 0.0
1.823847 0.534261 0.000022 0.0
1.336751 0.079826 0.003975 0.0
1.723838 1.657219 -0.000493 0.0
4.371192 0.174239 0.003235 0.0
4.594878 0.037818 -0.000972 0.0
0.507759 1.560010 0.000762 0.0
1.685083 1.090915 0.002525 0.0
4.802770 0.588427 -0.002047 0.0
4.487971 1.543878 -0.001349 0.0
2.993767 0.121311 0.000445 0.0
2.934073 0.111581 0.001254 0.0
4.028194 1.745650 0.001320 0.0
1.269787 0.948026 0.004245 0.0
3.646174 1.821374 -0.000570 0.0
0.280892 0.019700 -0.001800 0.0
4.352106 1.380450 0.000978 0.0
2.315016 1.833662 0.003635 0.0
3.167928 0.262031 0.001520 0.0
1.287452 0.131727 0.000059 0.0
1.997153 1.594210 -0.002218 0.0
1.640288 1.487740 0.002239 0.0
2.684193 1.385029 0.005999 0.0
2.163334 1.696397 0.001850 0.0
3.622708 1.824977 -0.003246 0.0
2.172394 0.532227 0.002274 0.0
1.506227 1.392599 -0.000451 0.0
1.912002 0.761466 -0.000823 0.0
3.226764 0.861063 -0.001817 0.0
4.079699 0.877363 -0.000460 0.0
1.408406 0.219317 0.000176 0.0
3.674345 1.151917 -0.002148 0.0
1.593423 0.709846 0.000094 0.0
4.123591 1.756168 0.001846 0.0
3.492923 0.165805 0.000149 0.0
0.218379 0.846882 0.002011 0.0
2.678990 1.329329 0.003908 0.0
2.052332 1.380867 0.002193 0.0
4.467576 0.681892 -0.003425 0.0
3.992264 0.977935 0.000281 0.0
3.540397 1.816722 -0.001778 0.0
4.015237 1.649040 -0.001680 0.0
3.552789 1.350045 -0.001510 0.0
1.319821 0.254787 0.001371 0.0
0.351185 0.245314 0.003685 0.0
2.734117 1.263025 0.000363 0.0
3.583263 1.379228 -0.002175 0.0
4.447439 1.815400 0.004474 0.0
2.187289 1.690460 -0.000668 0.0
4.779010 1.734295 0.000309 0.0
2.487631 0.282114 -0.000956 0.0
1.204690 1.133628 -0.003845 0.0
3.974419 0.539511 0.004201 0.0
2.884891 1.249914 -0.003851 0.0
2.370263 0.116727 0.000407 0.0
4.662744 1.128086 -0.000210 0.0
2.955339 0.345698 -0.004531 0.0
2.835227 0.470569 -0.003411 0.0
1.526647 1.794870 0.000133 0.0
3.329545 0.364878 0.003549 0.0
2.585052 1.654046 -0.000422 0.0
1.721198 1.378758 0.003586 0.0
0.523186 0.938213 0.001956 0.0
1.937883 0.358217 -0.000759 0.0
1.281564 1.426519 0.003360 0.0
1.424705 1.165396 0.000413 0.0
2.880824 1.300227 0.004745 0.0
0.870337 1.146360 0.000384 0.0
1.692327 1.725309 0.000885 0.0
0.653710 1.065879 0.006136 0.0
2.619821 0.575765 -0.002337 0.0
4.063619 1.771896 0.001745 0.0
3.860826 0.944389 -0.001984 0.0
2.542606 0.750728 -0.003366 0.0
4.822711 1.215209 -0.001059 0.0
0.763798 0.865345 0.001232 0.0
1.557546 0.826650 0.000114 0.0
3.536294 1.336137 0.000888 0.0
3.615304 1.751721 0.003552 0.0
2.276928 0.769022 0.001056 0.0
1.235461 0.768390 -0.000353 0.0
4.281404 1.469065 0.004430 0.0
4.507969 0.700850 0.001622 0.0
0.185916 1.148051 0.000948 0.0
4.788503 1.574214 -0.001396 0.0
3.855142 0.199049 0.002071 0.0
0.821630 0.504625 0.001143 0.0
1.587638 0.299191 0.001672 0.0
0.115363 0.687516 0.000132 0.0
4.812341 1.439685 0.003523 0.0
0.689039 0.099456 -0.000676 0.0
3.009137 0.403337 0.000301 0.0
0.158963 0.228180 0.001668 0.0
3.736945 0.098478 -0.000740 0.0
3.096454 0.580334 0.000450 0.0
1.258921 0.833599 -0.002970 0.0
1.571171 1.009237 -0.004055 0.0
2.813413 0.778218 0.000103 0.0
2.300905 0.909443 0.000029 0.0
2.200842 1.544782 0.003735 0.0
4.131008 0.843231 0.002320 0.0
1.646770 1.044827 0.003174 0.0
1.635912 0.829488 0.000584 0.0
1.817883 1.727620 0.000499 0.0
3.823138 1.250437 0.000354 0.0
3.370458 1.307777 0.001132 0.0
3.559870 1.499232 0.000742 0.0
0.516837 1.679436 0.000685 0.0
2.383284 0.373556 -0.000977 0.0
3.789438 1.628691 0.002964 0.0
1.684324 0.185496 -0.000865 0.0
0.054248 0.976037 -0.002395 0.0
4.483160 0.543708 0.003157 0.0
4.254341 1.746580 -0.001666 0.0
3.832862 0.165477 -0.003844 0.0
1.302488 1.797612 -0.005127 0.0
2.577832 0.897287 -0.002343 0.0
0.426066 0.346341 -0.001773 0.0
4.792944 0.319826 0.002639 0.0
1.877260 0.316300 -0.003705 0.0
2.528314 0.821364 -0.000300 0.0
4.240866 0.060221 0.003017 0.0
1.548559 1.814139 0.001844 0.0
4.222413 0.370449 -0.005413 0.0
0.376449 1.814431 0.000916 0.0
0.585538 0.510380 0.001038 0.0
2.641458 1.293885 0.000418 0.0
1.350866 1.675122 -0.002212 0.0
1.355408 1.760870 0.000026 0.0
4.549089 1.730659 -0.004729 0.0
1.977047 0.825626 0.000690 0.0
4.450052 1.196870 0.000521 0.0
2.799933 1.156969 0.002531 0.0
1.347383 1.326733 -0.000054 0.0
3.233666 1.677800 -0.000816 0.0
3.617422 1.318448 -0.000820 0.0
2.521376 0.618837 -0.004595 0.0
2.915519 1.053054 -0.004509 0.0
3.247191 1.036654 -0.004076 0.0
3.623541 1.011365 -0.001100 0.0
1.702523 0.724600 -0.001151 0.0
0.121712 1.308976 0.003563 0.0
2.905755 1.427766 0.001979 0.0
3.136412 0.463932 0.001362 0.0
2.690292 0.021426 0.000176 0.0
4.006494 0.715513 0.003774 0.0
1.256220 1.242684 0.000285 0.0
2.786983 0.501641 -0.005410 0.0
1.862686 0.154012 -0.000313 0.0
2.058324 0.476443 -0.000027 0.0
1.340416 0.719368 0.000741 0.0
1.156547 1.137069 0.000792 0.0
2.267191 0.410467 0.001849 0.0
4.529277 0.964580 0.001898 0.0
4.371481 0.923996 0.001280 0.0
3.808326 0.520731 0.002330 0.0
0.653148 0.827222 -0.002860 0.0
0.722276 0.910444 0.000790 0.0
1.108244 0.167151 0.000710 0.0
2.793470 1.593331 -0.002966 0.0
1.704372 0.243458 0.000207 0.0
0.113167 0.530320 0.003527 0.0
0.218674 0.021587 0.001091 0.0
0.445582 0.236194 -0.002178 0.0
4.810909 0.029661 0.000314 0.0
1.385520 0.578691 0.001074 0.0
0.168040 0.879389 -0.000628 0.0
1.568480 0.038800 0.003014 0.0
2.742264 1.030926 0.001277 0.0
0.945424 1.046285 0.000060 0.0
4.823489 1.618983 0.000747 0.0
2.041989 1.128198 -0.000460 0.0
3.997277 1.485420 0.001858 0.0
2.306614 0.314408 -0.002585 0.0
4.639328 1.264155 -0.001503 0.0
2.309998 0.680850 0.003927 0.0
1.118321 0.866227 -0.002122 0.0
4.265356 1.095206 -0.002281 0.0
2.649272 1.522035 -0.000332 0.0
3.842771 1.362170 -0.000976 0.0
4.821861 0.168549 0.000694 0.0
2.038507 0.311700 -0.001095 0.0
0.359359 1.565544 -0.002295 0.0
3.867024 1.431669 0.003650 0.0
1.334785 1.487319 -0.001814 0.0
0.409869 0.875489 0.001792 0.0
2.557878 1.024225 -0.004061 0.0
0.667073 1.401358 -0.001292 0.0
1.924403 1.501747 -0.001208 0.0
3.153376 1.006757 0.003568 0.0
2.696382 1.480377 -0.000575 0.0
3.218784 1.245434 0.001224 0.0
0.753681 1.545955 0.002511 0.0
0.407702 0.672283 0.000102 0.0
1.940971 1.040045 -0.000151 0.0
4.015164 0.912462 -0.000438 0.0
0.453234 0.877985 -0.002182 0.0
0.377271 0.812621 -0.000213 0.0
4.746279 1.364197 0.000559 0.0
2.949099 0.611655 -0.000793 0.0
1.307139 0.367488 0.000722 0.0
4.472980 1.414032 -0.001913 0.0
3.294783 1.688615 -0.002030 0.0
3.684775 0.585871 0.001209 0.0
2.844158 1.461518 -0.006053 0.0
3.034735 1.115662 -0.001475 0.0
2.380209 0.556426 0.001585 0.0
1.719612 1.068736 -0.000968 0.0
2.925590 0.950263 0.001193 0.0
0.886218 1.404177 0.002022 0.0
3.343618 0.985523 -0.002282 0.0
0.807013 1.451816 0.003814 0.0
4.378971 0.782136 -0.000828 0.0
0.229481 0.420236 0.000485 0.0
2.757908 1.519864 -0.001134 0.0
3.557197 1.053817 0.001014 0.0
1.422698 0.855680 0.004919 0.0
4.556007 0.640419 -0.002170 0.0
4.162391 1.078762 0.000500 0.0
3.049282 1.381053 0.001310 0.0
4.017683 1.180442 0.003754 0.0
0.353153 1.583420 0.000904 0.0
0.740527 0.195144 -0.002627 0.0
3.158832 0.224140 0.005204 0.0
2.575849 1.306377 0.002712 0.0
1.204138 1.797515 -0.000102 0.0
2.918633 1.198744 0.006524 0.0
2.211328 1.621911 -0.000774 0.0
2.590947 0.302141 0.000406 0.0
2.402769 1.209287 0.001468 0.0
3.789187 0.274272 -0.003288 0.0
0.928941 1.596416 0.002550 0.0
3.125226 0.465801 -0.001778 0.0
4.289090 0.992173 0.001417 0.0
2.621799 0.436585 -0.000537 0.0
4.246185 0.561066 0.000315 0.0
2.657310 0.531455 0.000888 0.0
1.426476 1.401487 0.000556 0.0
4.829305 1.239870 -0.002365 0.0
1.108876 1.073728 0.000293 0.0
0.957314 0.076387 0.002246 0.0
1.963910 0.722307 -0.003249 0.0
0.133216 0.127920 0.006578 0.0
4.132079 0.457657 0.000326 0.0
3.106783 1.809465 -0.002817 0.0
1.532154 0.338357 -0.001230 0.0
3.924581 0.916881 0.000368 0.0
0.975333 1.114083 -0.002646 0.0
0.291307 1.143040 -0.000767 0.0
2.327122 1.117914 -0.000693 0.0
2.909793 0.040492 -0.002655 0.0
3.496528 1.531550 -0.001106 0.0
0.732513 0.809835 -0.001698 0.0
1.245205 0.053543 -0.001872 0.0
1.584502 0.760543 0.001102 0.0
0.153034 0.753778 0.003716 0.0
3.387582 1.304996 0.001437 0.0
0.082599 1.663331 -0.004696 0.0
4.794460 1.157397 -0.001444 0.0
3.102696 1.107912 -0.001466 0.0
3.067516 1.311457 -0.002359 0.0
1.100948 0.014881 -0.002692 0.0
3.209992 0.044605 0.000814 0.0
0.045097 1.245592 -0.001292 0.0
3.063533 0.970022 -0.002096 0.0
0.962472 0.280277 0.001054 0.0
0.891636 1.763495 0.002879 0.0
1.851454 0.512321 -0.003037 0.0
2.514235 1.115244 -0.000468 0.0
4.376669 0.782422 0.003863 0.0
0.342678 1.205908 0.000947 0.0
3.659053 0.134835 0.003341 0.0
2.203835 1.729510 -0.002135 0.0
3.304992 1.792440 0.000203 0.0
0.247132 1.404262 -0.001027 0.0
2.218807 0.277859 -0.000064 0.0
3.277331 0.179703 -0.003076 0.0
0.568860 1.300853 -0.000718 0.0
4.298450 1.131297 0.001553 0.0
1.496558 0.411571 -0.001571 0.0
2.549422 1.174104 0.001487 0.0
0.833753 1.004321 0.001714 0.0
3.727609 1.709923 0.005648 0.0
2.869484 0.167843 0.000291 0.0
3.008878 0.286832 -0.000380 0.0
0.345256 0.277830 -0.003100 0.0
3.278221 0.096497 0.003268 0.0
0.077163 1.116133 0.004336 0.0
0.876773 0.876024 0.000152 0.0
2.617013 1.622542 0.001093 0.0
1.936185 0.911341 0.001315 0.0
4.794151 0.870897 0.001588 0.0
2.262864 1.469745 0.001853 0.0
2.569676 0.158204 -0.000843 0.0
3.116830 0.320793 0.001096 0.0
0.614697 0.876964 0.000313 0.0
2.962729 1.605091 -0.000135 0.0
0.417682 0.381595 0.002349 0.0
1.987058 1.590023 0.001925 0.0
1.589433 0.468819 0.001930 0.0
0.757405 1.719866 0.000618 0.0
2.358466 0.146055 -0.000237 0.0
2.817395 1.091907 -0.003186 0.0
0.660844 1.848350 -0.003052 0.0
0.122004 1.175838 -0.001915 0.0
3.739065 1.302652 -0.000632 0.0
0.038591 1.793645 -0.000988 0.0
0.183684 1.293454 -0.001667 0.0
0.433175 0.475862 0.002797 0.0
3.585177 0.740375 -0.000209 0.0
0.080724 1.647434 -0.000925 0.0
1.779446 1.429668 -0.002377 0.0
2.185228 0.186244 0.001950 0.0
2.682660 0.796001 0.000112 0.0
3.029558 1.040065 0.002480 0.0
0.935487 1.275571 0.001185 0.0
3.585407 0.737127 0.000816 0.0
1.191878 1.799320 -0.000940 0.0
1.296812 0.395938 0.001762 0.0
4.329008 1.001013 0.002530 0.0
0.705674 1.743878 0.000337 0.0
2.745148 0.118229 0.003847 0.0
1.930670 1.091202 -0.000534 0.0
4.286319 1.346230 -0.002807 0.0
0.605146 0.472300 0.001937 0.0
0.838014 1.285376 0.001271 0.0
4.168874 1.417624 0.000076 0.0
3.620525 1.684393 0.003080 0.0
3.688291 1.769277 -0.000263 0.0
3.461413 0.692672 -0.002656 0.0
1.218976 1.748699 -0.001047 0.0
0.319903 0.265250 -0.003336 0.0
3.563933 1.249887 -0.001635 0.0
2.497370 0.121204 -0.001591 0.0
4.024706 0.219335 0.001415 0.0
4.162396 0.264411 0.002801 0.0
3.516796 0.827894 0.000071 0.0
0.976824 0.802813 -0.004171 0.0
3.677649 0.928711 -0.001625 0.0
3.393467 0.194502 -0.001823 0.0
0.891856 1.088183 0.003523 0.0
0.906544 1.462702 0.001263 0.0
3.275095 1.124556 0.001061 0.0
0.426178 0.638993 0.004619 0.0
1.111759 1.037150 -0.004015 0.0
3.710404 1.531847 -0.001967 0.0
3.387094 1.295933 -0.007211 0.0
4.836905 0.112928 0.000874 0.0
0.832499 0.284703 0.002887 0.0
3.139988 1.579588 -0.000449 0.0
2.430999 0.846346 0.003829 0.0
1.824714 1.086788 -0.003940 0.0
3.785952 0.707965 0.001716 0.0
4.685282 1.035688 -0.003741 0.0
1.601682 0.208204 0.001379 0.0
4.440509 0.705719 0.000087 0.0
1.645550 1.036436 0.000656 0.0
4.771457 1.622054 -0.001065 0.0
4.051626 1.456818 0.001263 0.0
1.945598 1.064628 -0.002547 0.0
4.129666 1.791980 -0.001693 0.0
1.698010 0.484687 0.001071 0.0
1.125146 0.216539 -0.001907 0.0
4.136491 0.491994 0.002816 0.0
0.352118 1.786091 0.003653 0.0
3.136535 1.830859 -0.000215 0.0
2.162265 1.581249 -0.000921 0.0
0.668977 1.504439 0.001606 0.0
4.422217 1.293421 -0.002317 0.0
3.740281 1.810511 0.002331 0.0
4.447377 1.379547 -0.002942 0.0
3.674368 0.484348 -0.001757 0.0
3.361646 1.573941 0.000378 0.0
1.796438 0.774075 0.001450 0.0
3.074112 0.575904 -0.002753 0.0
2.105984 0.858749 0.004560 0.0
0.756331 0.337424 -0.001123 0.0
2.953293 1.095537 0.000530 0.0
0.563426 1.585456 0.003023 0.0
0.908133 1.332121 0.001664 0.0
4.578451 0.004080 0.001419 0.0
1.119958 1.310170 -0.001669 0.0
1.951292 1.134588 -0.000168 0.0
3.156525 1.493740 0.000203 0.0
1.796609 0.583516 0.003217 0.0
2.805325 0.921198 -0.001058 0.0
4.711213 0.640781 -0.000699 0.0
1.245768 0.017345 0.002901 0.0
2.331100 0.738593 0.002702 0.0
0.335457 1.155285 -0.001350 0.0
0.897625 1.747400 0.002111 0.0
0.019448 0.109196 0.000188 0.0
2.135635 1.373193 0.003115 0.0
1.019781 0.948862 0.004182 0.0
2.491217 0.730228 0.002077 0.0
0.073720 0.617803 -0.001838 0.0
0.850215 0.030006 -0.002405 0.0
1.407259 0.486024 -0.006962 0.0
3.523892 1.516023 0.001069 0.0
0.704845 1.435560 0.001307 0.0
2.363138 0.182739 -0.004251 0.0
0.218855 1.024949 0.001939 0.0
4.015228 0.801577 0.000160 0.0
1.584340 0.856453 0.003324 0.0
3.898959 0.373503 0.001592 0.0
1.043475 1.234629 -0.002167 0.0
0.041768 0.968043 0.002983 0.0
4.576598 1.071967 -0.005201 0.0
2.170983 1.820910 0.001412 0.0
2.534162 0.369550 -0.000434 0.0
4.768831 1.439885 0.000397 0.0
4.526886 1.345406 -0.000804 0.0
2.848773 0.233433 0.004098 0.0
1.717776 0.549182 -0.001514 0.0
1.045688 0.974462 -0.001702 0.0
3.998674 1.374165 0.000905 0.0
0.386896 0.277626 -0.000657 0.0
0.880307 1.381228 -0.000056 0.0
0.565268 1.719571 0.000448 0.0
0.626694 1.129905 -0.000271 0.0
4.640065 1.151352 0.000597 0.0
4.818232 1.733995 -0.000576 0.0
2.911984 0.382535 -0.006129 0.0
4.535242 0.324086 0.001288 0.0
0.370810 0.652271 -0.004342 0.0
0.906205 0.522244 0.000856 0.0
3.433137 1.812969 -0.002454 0.0
3.449481 0.472769 -0.004388 0.0
3.153992 0.005564 -0.001824 0.0
2.109584 1.766656 0.004385 0.0
4.611705 0.733448 -0.000964 0.0
0.816051 0.548427 0.001915 0.0
3.691968 1.731104 0.000850 0.0
0.085718 1.094985 -0.003400 0.0
1.495478 1.267469 0.002340 0.0
3.255047 0.198688 -0.003496 0.0
4.428352 1.499822 -0.001042 0.0
0.698048 1.599315 -0.000276 0.0
1.316983 1.417923 -0.003546 0.0
3.275392 1.557995 0.003357 0.0
4.109807 0.242792 -0.003260 0.0
4.407412 0.476003 -0.001614 0.0
4.578388 1.552025 0.000796 0.0
0.026609 0.574111 0.003521 0.0
0.746378 1.184962 0.000829 0.0
0.066712 1.084686 0.000496 0.0
4.183941 0.876112 -0.001468 0.0
1.868154 0.242070 0.000831 0.0
3.123188 1.836447 0.001371 0.0
1.472615 0.142552 0.002064 0.0
1.467514 1.207186 -0.003674 0.0
2.992430 0.748161 0.002511 0.0
2.283113 1.765415 -0.001704 0.0
3.308578 0.281598 -0.000062 0.0
0.133005 0.652548 -0.001140 0.0
3.441563 1.223191 -0.000720 0.0
4.049726 1.187601 -0.000717 0.0
0.269130 0.723890 0.000489 0.0
3.263168 1.648937 0.000191 0.0
3.776822 1.488292 0.001922 0.0
1.745650 1.801753 -0.002005 0.0
1.943596 1.510392 -0.000544 0.0
0.896211 0.198063 -0.000652 0.0
4.100389 1.061820 -0.001558 0.0
1.039803 1.846328 -0.000440 0.0
3.425761 1.533116 -0.001413 0.0
3.091529 0.601640 0.004279 0.0
3.207942 0.732192 -0.000259 0.0
1.786263 0.332970 0.002489 0.0
3.758484 0.976095 -0.001262 0.0
4.096771 1.347632 -0.000375 0.0
2.139140 0.846717 -0.005683 0.0
1.162158 1.496138 0.003011 0.0
1.828303 0.767380 0.002975 0.0
0.301260 0.138685 0.005348 0.0
2.786723 1.808562 0.000589 0.0
1.701422 1.193903 0.003435 0.0
2.111401 0.429654 0.000068 0.0
2.638615 0.038854 -0.000265 0.0
2.717876 1.592209 -0.000622 0.0
0.166474 0.017481 0.001535 0.0
1.213576 1.129185 -0.005171 0.0
4.007434 0.980309 -0.001352 0.0
0.789991 0.451150 0.004386 0.0
3.883734 0.561005 -0.000244 0.0
3.063050 0.123059 -0.003796 0.0
4.492914 1.081281 0.001402 0.0
3.660823 0.233261 0.005460 0.0
2.457474 0.897964 0.000397 0.0
2.333154 0.928912 -0.000853 0.0
2.959881 1.497648 0.000512 0.0
4.501340 1.156052 0.006441 0.0
2.269833 0.986740 0.000495 0.0
4.219821 0.064965 0.001006 0.0
0.759607 1.504992 0.002603 0.0
3.243536 0.437624 -0.001074 0.0
1.434457 0.061761 0.000387 0.0
3.148799 1.408837 -0.002429 0.0
0.229473 0.659897 -0.000588 0.0
2.039058 0.981047 0.001633 0.0
4.429036 1.372255 -0.002639 0.0
0.462820 0.563984 0.000930 0.0
0.333342 0.635783 0.003245 0.0
2.249160 0.362737 0.000945 0.0
0.119059 1.045826 0.003166 0.0
1.609516 1.217941 0.002245 0.0
1.788141 0.212587 0.000491 0.0
0.106360 0.604723 -0.001932 0.0
0.274371 0.395257 -0.001201 0.0
0.131259 0.604502 -0.004282 0.0
0.065531 1.257007 0.002545 0.0
0.347255 0.104035 0.006181 0.0
1.213433 0.984541 -0.001301 0.0
3.563565 1.250358 0.003957 0.0
3.760680 1.380932 -0.003492 0.0
2.707285 0.625561 -0.000675 0.0
2.957576 1.369429 0.003727 0.0
2.518395 0.449252 -0.002902 0.0
0.203446 1.818480 -0.001074 0.0
4.575143 1.249984 -0.001163 0.0
3.133807 1.732622 0.000394 0.0
0.697778 1.366581 0.001588 0.0
4.238628 0.977446 0.001562 0.0
0.368420 1.324589 0.001194 0.0
4.381030 0.486026 -0.003285 0.0
0.702711 0.464376 0.005296 0.0
2.572706 0.382286 -0.000149 0.0
0.553543 0.412473 -0.002312 0.0
0.538571 0.785465 -0.002555 0.0
1.216489 0.437536 -0.001439 0.0
1.545340 1.543980 -0.000632 0.0
2.621691 0.911456 -0.001258 0.0
0.332890 0.821943 0.002055 0.0
4.211397 1.150674 0.003930 0.0
4.690622 0.667410 -0.003079 0.0
1.814500 0.102118 0.000344 0.0
1.818326 0.694991 -0.000774 0.0
3.207889 0.033970 0.005368 0.0
3.391418 0.382893 -0.001794 0.0
1.082945 1.292053 -0.001487 0.0
1.316165 0.322962 -0.001967 0.0
4.375715 0.174027 0.004221 0.0
3.957899 1.198390 -0.001598 0.0
3.172772 1.302003 0.001534 0.0
0.224854 1.575645 -0.002147 0.0
3.902013 1.571815 -0.001512 0.0
3.664979 0.927658 0.001115 0.0
3.185359 1.842597 0.001209 0.0
2.046147 0.309462 -0.000163 0.0
1.187857 0.577060 0.001356 0.0
4.566081 1.227272 -0.000156 0.0
3.319423 0.164053 -0.000462 0.0
3.604551 0.548837 0.001982 0.0
0.836542 1.516026 -0.001659 0.0
2.674585 1.580555 -0.000208 0.0
2.138585 0.829109 0.002266 0.0
0.080438 0.002773 -0.002849 0.0
1.310166 1.594381 0.002036 0.0
3.283895 0.803376 0.000485 0.0
0.614603 1.792996 0.000528 0.0
1.206759 1.668521 0.004031 0.0
3.532544 1.035815 0.001057 0.0
2.627752 1.311253 0.001720 0.0
1.423225 1.222288 -0.001434 0.0
4.204245 1.433183 0.002723 0.0
4.192790 0.758982 -0.000197 0.0
3.066711 0.279383 0.001456 0.0
0.118787 0.961373 0.000188 0.0
1.020078 0.896889 0.001355 0.0
1.979883 0.831445 0.002640 0.0
2.900237 1.005200 -0.004738 0.0
0.465546 0.251716 -0.003242 0.0
4.209932 0.515709 -0.005389 0.0
3.641781 0.144703 -0.002343 0.0
4.475202 1.211266 0.004956 0.0
2.831223 0.411390 -0.002781 0.0
4.097051 1.214135 0.002478 0.0
3.949984 0.299534 0.001279 0.0
1.369246 1.554861 0.003541 0.0
0.747872 1.013815 -0.000147 0.0
2.197983 1.447682 -0.000841 0.0
0.986745 0.143361 0.003544 0.0
2.814494 1.350441 -0.000615 0.0
2.906716 0.583054 -0.002453 0.0
0.352167 0.902880 -0.000069 0.0
0.166490 1.689471 0.001004 0.0
4.499755 1.068406 0.001067 0.0
2.897640 0.712649 0.001744 0.0
3.195098 0.848574 0.002518 0.0
2.249784 1.622858 0.001121 0.0
1.535786 1.385653 -0.003422 0.0
2.377851 0.660450 0.003150 0.0
4.398143 1.314780 0.003659 0.0
4.759737 1.065756 0.000431 0.0
2.740308 1.543089 -0.002250 0.0
3.452470 1.401969 0.007001 0.0
3.609337 1.145368 0.001124 0.0
2.193187 0.484625 0.004645 0.0
1.250014 0.881496 -0.002699 0.0
2.073849 1.824380 -0.002338 0.0
2.592955 1.122952 0.001271 0.0
0.711291 1.101549 -0.003303 0.0
1.477652 1.673096 0.003779 0.0
2.921300 1.026206 -0.003763 0.0
0.820190 1.404517 0.001570 0.0
0.848477 1.842400 -0.002019 0.0
3.312166 1.676672 -0.002660 0.0
3.941968 0.639250 -0.002349 0.0
1.396034 1.305314 0.001210 0.0
2.394056 0.750461 -0.001321 0.0
0.063735 0.444173 -0.003048 0.0
2.390608 0.985280 -0.000230 0.0
0.382667 1.354945 0.001270 0.0
2.973234 0.013579 0.001051 0.0
2.910063 0.649152 -0.002913 0.0
2.622142 0.299711 0.000474 0.0
0.365798 1.382255 0.003301 0.0
2.984798 0.462635 -0.001393 0.0
4.741496 1.685066 0.001458 0.0
3.911520 1.614459 0.002431 0.0
3.033288 0.060803 -0.001418 0.0
3.771180 0.159717 0.004155 0.0
3.215099 1.838832 0.001079 0.0
1.950750 1.834275 -0.000861 0.0
4.219643 0.332757 0.002719 0.0
4.313729 0.086751 -0.004024 0.0
2.512345 1.767713 0.000516 0.0
3.023881 0.981166 -0.000878 0.0
1.035172 0.308758 -0.003609 0.0
0.134822 1.796719 -0.002656 0.0
1.662437 0.975939 0.001974 0.0
4.409785 1.211675 0.001394 0.0
1.140290 1.064948 0.000128 0.0
3.865508 0.454181 0.001764 0.0
3.902959 0.275425 -0.005032 0.0
2.017599 0.105698 0.000514 0.0
3.104249 0.637589 0.005532 0.0
0.892723 0.944630 0.003875 0.0
0.232885 1.529281 0.000531 0.0
1.172094 0.392986 0.001987 0.0
0.159969 0.969836 -0.001807 0.0
1.253114 1.383013 0.000993 0.0
0.097290 0.111946 0.000064 0.0
0.266600 0.798727 -0.003028 0.0
1.188611 1.248910 0.000874 0.0
2.476259 0.191778 -0.004164 0.0
2.051837 0.328061 -0.005458 0.0
0.825410 0.043872 -0.000754 0.0
2.119444 1.150591 0.002255 0.0
4.621285 1.069597 0.007093 0.0
2.542258 0.199638 0.000526 0.0
1.376119 0.788716 0.002553 0.0
1.596516 1.318019 -0.001022 0.0
0.169139 1.217505 -0.000353 0.0
0.348922 0.601801 0.000194 0.0
0.914206 1.312212 0.001579 0.0
2.340452 1.710183 0.000967 0.0
1.579638 0.873138 0.003432 0.0
1.349808 0.935478 0.002311 0.0
2.635471 0.763299 0.001122 0.0
1.608529 0.280964 0.000557 0.0
4.181706 1.599975 -0.001794 0.0
1.456697 0.708278 -0.001468 0.0
2.147085 0.777906 -0.000483 0.0
0.107259 0.180778 0.002101 0.0
3.588826 0.091194 -0.002675 0.0
4.261537 0.556070 0.000328 0.0
0.934847 0.995179 0.000359 0.0
1.205697 0.693946 0.002209 0.0
3.753222 1.026882 0.005322 0.0
1.929235 0.224109 -0.001876 0.0
4.272248 1.166627 0.003975 0.0
0.522347 0.608811 0.000549 0.0
3.989627 0.046124 -0.003784 0.0
4.404534 0.795430 0.000819 0.0
3.348835 0.961086 0.000806 0.0
4.665483 1.123960 0.004037 0.0
4.267381 1.285761 -0.003481 0.0
2.620809 0.130388 -0.002356 0.0
0.052062 0.129387 0.002392 0.0
1.748160 0.460259 -0.003741 0.0
3.524099 1.585004 -0.000400 0.0
1.209220 1.050096 0.000587 0.0
1.577088 1.552396 0.000301 0.0
4.392457 0.383190 0.000549 0.0
1.328185 1.223873 -0.001350 0.0
4.007156 1.591075 0.003043 0.0
3.513895 0.229526 0.001956 0.0
1.693301 0.267730 -0.000055 0.0
2.823280 1.524907 -0.006873 0.0
4.152956 1.474429 -0.003508 0.0
1.616222 1.029982 0.000609 0.0
1.281539 1.739136 -0.000890 0.0
4.294790 1.022004 -0.000574 0.0
0.917059 0.601352 -0.002194 0.0
3.287707 0.975173 0.000018 0.0
1.510303 1.515365 -0.004184 0.0
4.655306 1.709155 -0.003505 0.0
2.761304 1.775267 0.004789 0.0
2.052461 1.325449 0.003400 0.0
3.098032 0.445836 0.001215 0.0
4.256762 0.015909 0.000378 0.0
1.016974 1.399385 0.003470 0.0
1.841396 1.664425 -0.002022 0.0
3.504435 1.687053 -0.001130 0.0
0.522834 0.860031 0.002479 0.0
0.921130 1.100309 -0.000898 0.0
0.394858 0.832735 0.000199 0.0
2.659974 0.565964 0.001572 0.0
2.272883 0.441398 -0.002087 0.0
1.610435 1.432162 -0.000979 0.0
1.059143 1.531155 -0.000074 0.0
2.910253 1.823601 -0.004284 0.0
0.613090 0.720091 -0.000099 0.0
0.760522 0.856333 0.002651 0.0
2.082337 1.533170 0.001152 0.0
2.876716 0.555686 -0.005219 0.0
4.203026 1.760761 0.001709 0.0
1.347104 0.996134 0.000357 0.0
4.523725 1.495547 -0.001286 0.0
2.858449 1.823287 0.004364 0.0
3.140310 0.671661 -0.001040 0.0
0.278326 1.662116 0.000990 0.0
1.407089 0.981158 -0.000527 0.0
3.338933 0.666406 -0.001922 0.0
3.402095 1.413817 0.001804 0.0
1.994597 1.050100 -0.000545 0.0
2.546481 0.335544 -0.001412 0.0
4.176278 1.151734 -0.000962 0.0
0.743905 1.787878 0.003173 0.0
2.016822 0.904752 -0.000775 0.0
2.560424 1.484577 0.002302 0.0
1.569427 1.808287 0.002048 0.0
3.308332 0.633605 -0.005128 0.0
3.137201 0.725545 0.002655 0.0
0.210351 0.222655 0.003030 0.0
2.269778 1.357318 -0.001346 0.0
3.492121 1.274298 0.000562 0.0
3.725754 0.076364 -0.000167 0.0
3.133382 1.358462 -0.000373 0.0
2.092143 0.995537 0.000475 0.0
2.183586 0.804278 0.006534 0.0
2.155229 1.375109 0.001132 0.0
1.268107 0.227944 -0.003238 0.0
0.550853 0.378903 -0.002148 0.0
1.697334 0.380322 0.001543 0.0
2.129929 0.441881 0.000525 0.0
0.706219 1.848267 0.000808 0.0
3.613688 1.062844 -0.002111 0.0
2.267748 0.185544 -0.001509 0.0
4.173555 0.249337 -0.002084 0.0
4.218838 1.228943 0.001217 0.0
1.535061 0.132275 0.005100 0.0
0.097127 1.630892 -0.002644 0.0
0.971885 0.716660 -0.001398 0.0
1.183017 0.443833 0.005309 0.0
0.872585 1.749852 0.002506 0.0
1.840870 0.702741 -0.003558 0.0
2.491955 1.769404 -0.002762 0.0
3.532007 1.550561 -0.002624 0.0
1.700926 0.140678 -0.000257 0.0
1.498520 1.737839 -0.004015 0.0
0.517869 0.507272 0.000189 0.0
0.516730 0.337795 0.001672 0.0
2.460374 1.692415 -0.000144 0.0
0.257550 1.692542 0.000158 0.0
0.569619 0.557849 -0.000998 0.0
4.491994 0.821881 0.002318 0.0
0.037422 0.886718 -0.000726 0.0
3.505508 1.811987 -0.001287 0.0
2.992303 0.975859 0.000698 0.0
3.040379 0.058729 -0.002627 0.0
1.750236 1.003322 -0.002056 0.0
2.409742 1.552390 0.001331 0.0
1.922026 0.366761 -0.000823 0.0
2.534694 1.799877 0.002489 0.0
2.109838 0.211589 0.001442 0.0
2.787796 0.664473 0.006469 0.0
2.292352 0.411524 0.005093 0.0
4.389664 0.738622 0.001515 0.0
2.464515 0.498112 0.000612 0.0
3.568519 1.006557 0.004242 0.0
3.584713 1.126552 -0.001448 0.0
2.027613 1.265505 0.005059 0.0
3.976022 1.706419 0.000859 0.0
2.575290 1.145881 0.004388 0.0
0.490828 0.970481 0.002559 0.0
1.732294 0.335351 -0.001339 0.0
3.136254 0.093386 0.000164 0.0
4.085288 0.254626 0.000367 0.0
2.611807 0.967991 -0.003203 0.0
2.580134 0.373607 0.000138 0.0
2.216496 1.035054 0.001076 0.0
1.712003 0.411709 -0.000462 0.0
1.943319 1.544978 -0.000343 0.0
3.401863 0.077680 0.002247 0.0
4.562165 1.466953 0.000890 0.0
1.589685 1.394796 -0.004846 0.0
3.205072 0.385409 0.000351 0.0
3.014540 1.472945 0.003610 0.0
1.159651 0.018611 0.004056 0.0
1.211501 0.898688 0.002488 0.0
4.719942 1.624286 -0.000894 0.0
3.927701 0.385020 0.003820 0.0
2.231334 1.780560 0.000942 0.0
0.095257 1.203542 0.002120 0.0
3.569529 0.136738 0.002883 0.0
3.587640 1.121941 0.000922 0.0
3.471737 0.525083 0.002978 0.0
4.460901 0.087051 0.000343 0.0
2.595740 0.046468 0.001143 0.0
2.449963 0.744375 0.004174 0.0
0.043869 0.017031 -0.000866 0.0
3.863512 0.114083 0.002805 0.0
2.708336 1.464280 -0.002223 0.0
2.890484 0.797356 -0.001328 0.0
2.102386 0.394407 -0.004193 0.0
4.541170 0.818024 -0.002718 0.0
3.788697 1.704725 0.001771 0.0
1.482440 1.082973 -0.003488 0.0
2.771750 0.868937 -0.001782 0.0
3.453693 1.110085 -0.003838 0.0
4.103297 1.084833 0.000127 0.0
0.320309 0.316321 0.000055 0.0
2.654909 0.415837 0.005244 0.0
0.575445 0.290973 -0.000197 0.0
4.162726 0.759822 -0.000557 0.0
2.846385 0.885057 0.000498 0.0
3.675185 1.231693 -0.000202 0.0
0.749044 0.285978 -0.002574 0.0
1.318373 0.894678 0.003333 0.0
2.613517 1.304652 -0.001233 0.0
2.743337 1.803656 -0.001919 0.0
1.267630 0.766400 -0.000347 0.0
4.370493 1.836573 0.000265 0.0
0.016867 1.322485 -0.003693 0.0
3.284394 0.334030 0.000594 0.0
0.126299 0.558824 0.001313 0.0
1.962668 1.049211 -0.000727 0.0
3.543979 1.686874 0.002878 0.0
3.168090 0.262437 -0.000816 0.0
1.341495 1.696355 -0.000345 0.0
2.606841 1.217064 -0.003229 0.0
1.513246 1.119077 0.000585 0.0
2.906244 0.747273 0.004245 0.0
4.252076 0.237334 0.001619 0.0
1.826035 1.376306 -0.002031 0.0
1.540670 0.100952 0.002787 0.0
1.775179 1.717058 0.001941 0.0
2.872116 0.458876 0.000790 0.0
2.982819 1.831782 0.000128 0.0
0.766729 1.652211 -0.003487 0.0
2.458475 0.971394 -0.001102 0.0
2.952717 0.903064 0.001127 0.0
3.638117 1.017687 -0.004872 0.0
2.642360 0.882164 -0.000258 0.0
3.485443 0.232623 0.004567 0.0
2.733334 1.147246 -0.002063 0.0
4.176667 0.458682 -0.002295 0.0
1.806940 0.880715 -0.001009 0.0
0.910906 1.218876 -0.003092 0.0
3.440934 0.423732 -0.006594 0.0
0.154225 1.031861 -0.001425 0.0
0.182963 0.869920 0.000913 0.0
4.303071 0.015961 -0.002495 0.0
4.717415 1.061203 0.004926 0.0
2.560982 1.187025 -0.005230 0.0
3.265644 0.394730 -0.003005 0.0
2.504018 0.585462 -0.001876 0.0
1.929127 0.798473 -0.002129 0.0
2.119706 1.047221 -0.003945 0.0
2.426631 1.343426 0.002164 0.0
0.622575 1.081455 0.000604 0.0
4.030679 0.748430 -0.001452 0.0
0.786626 0.668144 0.000381 0.0
0.878876 1.483334 0.003101 0.0
1.589537 0.084148 0.001816 0.0
4.238990 0.968900 0.001091 0.0
4.408414 0.024486 0.003459 0.0
1.940515 1.830250 0.002515 0.0
1.536095 0.784506 -0.001076 0.0
1.117212 0.290984 -0.004150 0.0
3.209335 1.441865 -0.001011 0.0
2.547612 1.772887 -0.000046 0.0
0.979461 1.070534 0.001863 0.0
0.063197 1.069577 -0.001937 0.0
3.991328 1.780861 0.002838 0.0
4.358715 0.298955 0.002550 0.0
1.426381 0.052623 0.000877 0.0
2.832953 0.009333 0.002485 0.0
4.535694 0.236880 0.001036 0.0
0.260257 0.933955 -0.000826 0.0
2.104624 0.545694 0.001826 0.0
4.553700 0.426025 -0.000431 0.0
2.305299 1.793351 0.000847 0.0
0.459675 1.211169 -0.001134 0.0
4.451024 0.910438 0.001627 0.0
3.365652 0.251052 0.002896 0.0
0.868560 0.285045 0.000709 0.0
4.794256 1.589395 0.003831 0.0
1.841887 1.747360 -0.005707 0.0
4.030062 1.409934 -0.001802 0.0
0.946424 1.695621 -0.001197 0.0
1.328614 0.521702 -0.003844 0.0
0.062226 0.288198 -0.003909 0.0
1.869214 1.273087 0.003159 0.0
0.436622 0.852209 0.001092 0.0
0.513266 1.173386 0.008045 0.0
1.599211 0.130754 0.003116 0.0
3.058796 1.767163 0.002979 0.0
2.895198 0.184523 -0.002638 0.0
3.368586 1.810138 0.001237 0.0
3.870401 1.098952 -0.001257 0.0
4.557046 1.608068 -0.002200 0.0
3.867338 0.613923 -0.003772 0.0
2.245000 1.214386 -0.000741 0.0
2.776828 1.781377 0.004403 0.0
0.332897 1.532619 0.000427 0.0
4.153901 1.381576 0.002479 0.0
2.240733 0.352285 0.002761 0.0
4.792536 1.653192 -0.002017 0.0
1.953372 1.406348 0.000140 0.0
1.320011 1.646030 0.002060 0.0
0.531355 1.591998 -0.001776 0.0
3.187945 1.508780 -0.001381 0.0
4.600662 1.023745 0.001372 0.0
1.268058 0.797634 -0.000410 0.0
4.736598 1.130224 0.000509 0.0
3.666623 1.492641 0.003549 0.0
2.113529 0.830977 -0.002394 0.0
1.160613 1.591513 -0.002768 0.0
4.369849 1.418345 0.000378 0.0
4.750844 0.841339 -0.000157 0.0
0.285586 1.246473 0.000138 0.0
3.392947 1.603285 0.001452 0.0
3.990516 0.078143 0.000670 0.0
3.838438 1.055038 0.003223 0.0
3.193950 1.451585 -0.000741 0.0
1.127873 1.270429 -0.001591 0.0
0.505552 1.037721 0.001868 0.0
1.834711 1.739772 -0.001011 0.0
2.746958 1.498157 -0.002281 0.0
1.638049 1.749528 0.001295 0.0
3.238805 0.612685 0.002877 0.0
0.097859 1.381691 0.002849 0.0
1.173130 0.296746 -0.000723 0.0
2.043892 1.570609 -0.001897 0.0
0.797091 1.851175 -0.002275 0.0
1.653297 0.269110 0.000643 0.0
0.320450 1.037520 0.000839 0.0
2.117384 1.718931 -0.001322 0.0
0.796841 1.697696 0.004505 0.0
0.879582 0.842778 -0.000030 0.0
2.349240 0.520064 0.003116 0.0
2.153591 0.168854 -0.001759 0.0
1.658235 0.720898 -0.000456 0.0
0.764502 1.779653 -0.000516 0.0
0.543959 1.366416 0.002875 0.0
4.472995 0.079199 -0.003132 0.0
1.175456 0.350908 -0.001249 0.0
4.746985 0.253733 -0.001076 0.0
3.142845 0.330955 -0.003946 0.0
0.207943 1.363417 -0.003046 0.0
1.438412 1.239747 0.001792 0.0
2.916240 0.126290 -0.001418 0.0
1.205810 1.356225 0.000809 0.0
4.334277 1.533156 -0.000992 0.0
4.401859 0.114390 0.002310 0.0
1.027979 0.776995 -0.002826 0.0
3.828405 1.439978 0.004248 0.0
4.149378 0.029611 -0.000232 0.0
3.662153 1.803952 0.004086 0.0
3.020069 0.167454 -0.001803 0.0
3.973917 0.583671 -0.002017 0.0
2.380351 1.309368 0.001437 0.0
2.950886 1.105218 -0.003005 0.0
3.031869 0.263903 -0.001275 0.0
1.455193 0.550282 0.002703 0.0
2.759354 1.287665 0.000964 0.0
0.833475 0.941576 0.001078 0.0
4.342947 1.755261 0.001256 0.0
4.639335 1.122472 0.000440 0.0
2.615452 1.116105 -0.002817 0.0
0.999800 0.963331 -0.003404 0.0
2.014433 1.599558 -0.000928 0.0
1.854727 0.853418 0.004810 0.0
4.561022 1.657570 0.000473 0.0
1.042783 0.321080 -0.002317 0.0
1.691083 1.678867 -0.002174 0.0
3.136906 0.735247 -0.004740 0.0
3.747707 0.334986 -0.000949 0.0
4.060512 0.348389 0.002693 0.0
4.439987 1.397267 0.001178 0.0
2.225346 1.180489 0.000470 0.0
0.184861 0.978600 0.000978 0.0
0.879803 1.223166 -0.000078 0.0
1.639097 1.112711 0.000349 0.0
3.664076 0.248600 -0.002701 0.0
0.099736 0.228023 -0.000729 0.0
0.771139 1.534196 -0.002188 0.0
2.683821 1.736340 -0.000628 0.0
3.249509 0.129365 0.001514 0.0
3.327046 1.178817 -0.003419 0.0
4.344167 1.832415 -0.002943 0.0
3.368939 0.523189 0.002181 0.0
4.185050 0.204935 -0.001176 0.0
4.596632 1.660798 0.002725 0.0
1.940215 0.777376 -0.000336 0.0
2.738143 0.054093 -0.001979 0.0
1.158185 1.742521 -0.000084 0.0
2.048845 0.732273 -0.005860 0.0
3.235020 1.537925 0.001984 0.0
0.450529 0.116356 0.002197 0.0
