2.469637 0.139447 0.000740 0.0
1.916638 1.421582 -0.002612 0.0
4.024814 0.115127 0.000185 0.0
3.747643 1.352739 -0.000513 0.0
1.538701 1.046548 -0.001807 0.0
2.668637 0.746681 -0.002249 0.0
0.503733 1.600889 0.001576 0.0
0.975842 1.484755 0.001731 0.0
0.223232 1.580256 -0.001834 0.0
1.637047 1.545673 0.004363 0.0
2.291601 0.878386 0.000797 0.0
2.884306 0.697851 0.000935 0.0
3.324102 0.132999 0.002688 0.0
2.844418 1.166523 0.000438 0.0
3.637990 1.517236 0.000674 0.0
1.043517 1.277614 -0.002088 0.0
3.696874 1.508697 -0.002721 0.0
3.340320 1.202409 -0.000299 0.0
2.107672 1.114593 -0.000543 0.0
3.784483 0.117662 0.000455 0.0
3.707547 0.680382 0.002393 0.0
1.488042 0.336636 -0.000709 0.0
3.573331 1.257279 -0.000981 0.0
3.668979 0.891508 0.001607 0.0
1.534875 0.343624 -0.001225 0.0
2.392315 0.860899 0.001783 0.0
3.567718 0.576209 -0.000969 0.0
2.458430 0.382771 -0.003936 0.0
2.186315 0.961738 -0.003048 0.0
1.432741 1.564999 -0.002170 0.0
4.096533 0.598915 -0.001459 0.0
3.480973 1.375046 0.002253 0.0
0.665511 0.467545 0.002145 0.0
1.131674 1.369919 -0.002582 0.0
3.883113 0.791967 0.001013 0.0
2.336958 1.556038 0.003051 0.0
3.924892 0.239965 0.000704 0.0
4.179736 1.438193 0.001979 0.0
1.622976 0.026360 0.001538 0.0
1.330661 1.254394 -0.000063 0.0
2.258744 1.142921 -0.004137 0.0
1.517229 0.665756 -0.003135 0.0
3.164316 0.089430 0.001116 0.0
0.521558 1.210937 0.000409 0.0
3.055555 1.145055 0.000071 0.0
4.161220 0.088425 -0.002429 0.0
0.904188 1.073934 -0.000227 0.0
0.215092 1.104094 -0.001976 0.0
1.798527 0.491650 -0.002131 0.0
1.464870 1.404600 0.001143 0.0
4.146228 0.793251 0.000290 0.0
3.766608 1.349941 0.000027 0.0
1.597146 0.006915 -0.000230 0.0
0.562426 1.192527 -0.000965 0.0
2.960825 0.706098 0.001286 0.0
0.122885 1.293132 0.000275 0.0
1.615207 0.130069 -0.003159 0.0
2.586710 0.529894 -0.001667 0.0
1.100181 0.943654 -0.005905 0.0
2.155881 0.494308 0.001614 0.0
3.301053 0.308639 0.000707 0.0
0.772973 1.029213 -0.005021 0.0
0.909195 1.455508 0.001238 0.0
0.694267 1.007428 0.002358 0.0
2.991617 0.643534 0.002553 0.0
4.084021 0.052338 -0.002693 0.0
2.226349 0.385660 -0.004279 0.0
2.086794 0.633864 -0.000418 0.0
2.983813 1.094720 -0.000504 0.0
1.761857 1.585073 0.002038 0.0
2.425256 0.629709 -0.000099 0.0
0.189265 1.502293 0.001308 0.0
3.790259 0.243136 -0.003721 0.0
0.875398 1.379210 0.002765 0.0
1.480195 1.590826 0.004184 0.0
3.663153 0.771202 -0.001478 0.0
3.381987 0.920966 -0.005301 0.0
2.040509 1.007256 -0.000361 0.0
0.017369 0.722663 0.000218 0.0
3.933675 0.554096 -0.003931 0.0
2.144691 1.296760 -0.003050 0.0
0.636936 1.316396 0.001695 0.0
2.305212 0.965793 -0.000189 0.0
4.185835 0.246970 -0.001921 0.0
2.701564 0.309923 0.003942 0.0
4.055425 0.114594 0.005638 0.0
0.015420 0.586121 -0.004189 0.0
2.994127 0.979194 0.001540 0.0
0.523058 1.292735 -0.000498 0.0
3.839206 0.600102 0.002106 0.0
4.077989 1.053303 -0.003747 0.0
0.112591 0.904988 -0.000323 0.0
3.321656 0.324529 -0.002198 0.0
3.957360 1.245569 0.004214 0.0
4.162939 1.016652 0.003415 0.0
3.927903 0.831022 0.000006 0.0
0.607327 0.900947 -0.002505 0.0
3.495969 0.833652 0.001884 0.0
2.468666 0.959971 0.001547 0.0
1.934150 0.467862 0.001845 0.0
3.341534 0.813303 -0.001302 0.0
1.151933 0.558241 -0.000507 0.0
3.375762 0.885725 -0.000503 0.0
1.734541 0.217724 -0.003245 0.0
2.312326 0.769226 0.000396 0.0
1.997160 0.157700 0.002660 0.0
3.970197 1.539724 0.002306 0.0
0.674991 1.099212 -0.001201 0.0
1.506907 0.743614 0.000146 0.0
4.021257 0.793725 0.002190 0.0
2.605978 1.318667 0.001323 0.0
0.119152 0.391744 -0.003227 0.0
2.206901 0.567797 0.000817 0.0
1.880980 0.837746 0.006110 0.0
0.295231 0.431694 -0.000765 0.0
1.624023 0.817592 0.001899 0.0
2.469988 1.571217 -0.001211 0.0
1.124232 1.507837 0.001018 0.0
3.560250 0.940540 -0.003207 0.0
2.127893 0.071032 0.000022 0.0
1.936750 0.477019 -0.001993 0.0
2.822134 0.340877 -0.002217 0.0
2.416899 0.967051 0.002368 0.0
2.047585 0.435614 -0.001930 0.0
3.958436 0.690837 0.001547 0.0
0.233123 0.578259 -0.003502 0.0
0.870212 0.587950 0.000318 0.0
0.689338 0.752607 0.001321 0.0
2.655419 1.595438 0.001896 0.0
0.828180 1.475350 0.001976 0.0
3.356768 1.407021 -0.002748 0.0
3.511697 1.387141 0.000331 0.0
3.797632 0.065434 -0.000618 0.0
0.842838 0.574281 -0.003605 0.0
1.710250 0.623845 0.004034 0.0
0.570982 0.454940 0.003283 0.0
3.422524 0.374623 -0.000090 0.0
2.489773 0.993823 0.001812 0.0
2.344563 1.536327 0.000409 0.0
1.985190 1.490675 -0.003186 0.0
3.497761 0.729515 0.002631 0.0
3.191570 0.112553 0.000815 0.0
4.123826 0.979434 -0.000495 0.0
0.360901 0.227338 -0.002888 0.0
1.782177 0.628460 0.002450 0.0
1.332312 1.470614 0.002658 0.0
2.842067 1.249076 0.000314 0.0
3.773537 0.930519 -0.000276 0.0
0.279608 0.032375 0.005142 0.0
2.824674 1.067450 0.004278 0.0
1.495456 1.444051 0.004862 0.0
2.492534 0.690290 0.000902 0.0
0.726241 0.696583 -0.002735 0.0
0.797635 0.496117 0.000963 0.0
0.175559 1.231259 -0.000981 0.0
3.472311 1.355933 -0.000193 0.0
0.696123 1.256900 0.002815 0.0
2.744578 0.058837 0.001857 0.0
0.148391 0.767293 0.000136 0.0
1.619038 0.536810 -0.000707 0.0
4.093991 0.220366 0.003127 0.0
1.482549 1.001937 0.000396 0.0
3.833252 0.216813 0.003748 0.0
2.681633 1.580594 0.000639 0.0
2.515007 0.871647 0.000558 0.0
1.844903 0.711080 -0.003275 0.0
3.322922 1.167555 -0.005503 0.0
0.882035 1.596338 -0.001372 0.0
1.647360 1.015073 0.002968 0.0
2.890081 1.106399 0.004226 0.0
0.323438 0.186138 0.001400 0.0
3.757347 0.715263 -0.000085 0.0
3.831728 1.337230 0.004462 0.0
1.481343 0.104779 0.001381 0.0
3.571366 0.790452 -0.002819 0.0
3.979198 1.145082 0.002492 0.0
4.060705 0.189262 -0.000629 0.0
0.512874 0.509206 -0.000306 0.0
1.601161 1.226280 -0.003146 0.0
1.080233 0.271722 0.002201 0.0
1.962950 0.464329 0.001726 0.0
3.946288 0.845261 -0.003005 0.0
3.773164 0.393269 -0.002299 0.0
3.623895 1.185626 -0.001713 0.0
2.758028 0.619872 -0.001186 0.0
2.295002 0.381010 -0.003270 0.0
1.687272 0.558530 0.000623 0.0
3.837560 0.272097 0.000437 0.0
2.365009 0.813404 -0.002371 0.0
4.101910 0.446376 0.002287 0.0
1.275739 1.478852 0.000381 0.0
2.798233 0.015324 -0.003532 0.0
2.023726 0.364025 0.004238 0.0
1.803703 0.066957 -0.002762 0.0
0.523931 0.592728 -0.001452 0.0
1.665153 0.104653 -0.001097 0.0
4.032065 0.153882 0.001075 0.0
2.451376 1.202693 -0.001447 0.0
3.601504 1.594810 -0.000284 0.0
0.044906 1.054416 -0.002405 0.0
0.942627 0.173761 -0.001893 0.0
2.286289 0.970591 -0.000782 0.0
1.813215 0.019390 0.001950 0.0
1.260971 0.661341 -0.000634 0.0
1.955249 1.195281 0.000992 0.0
1.731315 1.000974 0.004212 0.0
2.022653 0.430955 -0.002148 0.0
0.206908 0.853954 0.003506 0.0
3.127942 0.827354 0.003017 0.0
3.094351 1.525391 0.000768 0.0
2.867843 0.033054 -0.002279 0.0
2.640727 0.743104 -0.002092 0.0
3.180214 1.057239 0.002219 0.0
4.148798 0.230464 0.000702 0.0
1.328668 0.202128 0.003610 0.0
2.292230 0.593964 0.000925 0.0
2.061897 1.298739 -0.002821 0.0
1.729207 1.310276 0.001634 0.0
1.009679 0.526495 0.004871 0.0
0.133699 0.358869 0.003642 0.0
1.796962 0.975220 -0.001571 0.0
0.073301 1.090502 -0.001307 0.0
3.001252 0.591587 0.001164 0.0
1.940841 0.212048 0.000519 0.0
2.279536 1.484967 0.003134 0.0
0.777888 0.326073 0.001023 0.0
0.253275 1.428453 -0.002831 0.0
0.954073 0.959468 -0.002806 0.0
3.583526 0.675675 -0.001510 0.0
0.203224 0.764974 -0.000623 0.0
0.086260 1.052798 -0.001166 0.0
2.530720 1.052234 0.000817 0.0
2.859835 1.076768 -0.003370 0.0
1.178215 0.823266 0.002085 0.0
1.124182 1.545927 0.003449 0.0
0.946205 1.349199 0.007818 0.0
2.296211 1.124501 -0.003263 0.0
3.238777 0.177972 -0.004805 0.0
1.498449 1.427375 0.001459 0.0
0.259258 1.313046 -0.001661 0.0
1.495722 0.040961 -0.000023 0.0
2.534371 1.519849 -0.000730 0.0
2.485146 0.389477 0.000998 0.0
0.751219 0.901123 0.001596 0.0
0.801295 1.548609 -0.002742 0.0
3.123363 0.026029 -0.004141 0.0
3.706698 0.505516 -0.001358 0.0
0.031523 1.096964 0.000651 0.0
0.068940 1.056119 -0.000010 0.0
3.273911 0.592062 0.000601 0.0
0.494147 0.338604 -0.000373 0.0
2.980949 0.161146 -0.000628 0.0
0.858484 0.315647 0.001279 0.0
2.952928 0.351924 0.004339 0.0
2.974836 0.007281 -0.002483 0.0
2.745025 1.144867 -0.000817 0.0
0.684371 0.501197 0.005197 0.0
4.166160 0.195889 -0.002208 0.0
1.173260 0.051147 -0.002866 0.0
2.080741 1.560731 -0.003274 0.0
1.406796 1.275171 -0.002513 0.0
0.985722 0.141337 -0.001856 0.0
1.778682 1.459261 -0.002407 0.0
4.082987 1.588208 -0.000578 0.0
3.253646 1.129501 0.000137 0.0
3.480005 1.340082 0.004687 0.0
2.717888 0.955595 0.001028 0.0
3.366212 1.361732 0.001707 0.0
1.314464 0.918105 -0.002553 0.0
2.735019 0.632783 -0.003694 0.0
2.078868 1.440905 0.004521 0.0
0.152211 1.216464 -0.002784 0.0
2.211387 1.287720 0.001678 0.0
2.445055 0.392859 0.000177 0.0
1.663222 1.441396 -0.000386 0.0
2.167532 1.480566 -0.008023 0.0
3.643454 0.506687 0.001623 0.0
3.569333 1.065160 0.001210 0.0
3.410718 0.482897 0.001810 0.0
3.580356 0.781170 -0.000880 0.0
0.106312 0.692039 0.002337 0.0
3.873505 1.321804 0.000834 0.0
1.148799 0.792953 -0.001440 0.0
3.702438 0.985324 -0.000890 0.0
1.465674 0.175308 -0.003155 0.0
2.720228 0.970507 -0.002471 0.0
1.568737 0.133130 0.001527 0.0
2.004933 0.450357 -0.000885 0.0
2.659269 0.625259 -0.000800 0.0
2.909386 1.055667 -0.000128 0.0
3.698693 0.412761 -0.000615 0.0
2.071398 0.482205 0.002263 0.0
3.982212 0.650292 0.000619 0.0
1.244116 0.782154 0.002336 0.0
3.791597 0.153583 -0.005336 0.0
0.099647 0.868151 0.003053 0.0
1.870837 0.396488 -0.000106 0.0
0.370093 0.347177 0.002939 0.0
1.546514 1.256969 -0.000168 0.0
3.047653 1.278629 -0.001046 0.0
3.539893 0.259167 0.001660 0.0
4.060396 1.162962 -0.002224 0.0
3.068291 0.506731 -0.000436 0.0
0.657326 1.507428 0.002360 0.0
3.724406 0.936358 0.003242 0.0
0.437567 0.184412 0.000170 0.0
3.604029 1.485129 0.001241 0.0
3.303205 0.291640 -0.000068 0.0
2.298627 1.377957 -0.000189 0.0
2.248166 0.407202 0.000120 0.0
1.143473 1.405321 0.001066 0.0
1.750765 0.068577 0.001332 0.0
3.064555 0.547476 -0.000419 0.0
2.744560 0.646331 -0.004110 0.0
2.020682 0.756120 0.000885 0.0
3.388229 0.085320 -0.003278 0.0
2.819817 0.012437 0.000877 0.0
0.681967 1.329426 0.000152 0.0
2.335418 0.590210 -0.002717 0.0
3.454859 0.721712 0.000833 0.0
3.648221 0.274744 0.000943 0.0
1.422671 0.177365 0.001160 0.0
1.914403 0.869066 0.001139 0.0
3.051161 0.956435 0.004893 0.0
1.345907 1.305105 0.000209 0.0
2.106425 0.571895 -0.001874 0.0
0.243658 0.373656 0.000085 0.0
4.011067 0.611638 0.001584 0.0
3.409845 0.387645 0.000559 0.0
3.787582 0.100884 -0.001725 0.0
0.285258 1.484246 0.000242 0.0
1.015585 1.315831 -0.002924 0.0
3.475162 0.628578 -0.002402 0.0
0.070974 0.893457 -0.005518 0.0
1.826297 0.954058 0.001215 0.0
0.461450 1.284470 0.003952 0.0
2.157912 0.142369 -0.001800 0.0
1.876923 1.490606 -0.001347 0.0
1.528838 1.332649 -0.000815 0.0
0.733071 1.501148 -0.000384 0.0
0.146551 0.935359 -0.003267 0.0
0.355246 0.004363 -0.002449 0.0
0.788246 0.146228 -0.001031 0.0
3.083315 0.568835 0.000681 0.0
2.194151 0.532873 -0.000504 0.0
2.180364 0.424665 0.001755 0.0
3.648001 0.322001 0.004296 0.0
0.942674 1.533433 0.003599 0.0
0.249426 1.351627 -0.001149 0.0
0.949420 0.308710 -0.002327 0.0
1.613805 0.960548 0.000961 0.0
2.097190 1.562670 0.000192 0.0
2.503524 1.447624 0.000735 0.0
3.387340 0.548411 -0.003227 0.0
0.437767 1.340288 -0.000412 0.0
2.200212 0.908898 0.000531 0.0
1.877857 0.210254 0.001175 0.0
0.641945 0.399383 0.006173 0.0
0.755385 0.183374 0.001857 0.0
2.165948 0.456606 -0.002118 0.0
2.603658 1.500204 -0.001778 0.0
3.677424 0.616462 -0.003029 0.0
0.630163 1.253622 -0.003981 0.0
0.583027 0.483674 -0.003931 0.0
2.105996 1.531853 0.002828 0.0
0.055319 0.703336 -0.000264 0.0
0.778142 1.334308 0.000577 0.0
1.617831 0.585096 0.004143 0.0
3.982396 0.431248 0.002408 0.0
1.550504 0.140977 0.001126 0.0
4.120415 0.520078 -0.001594 0.0
2.143668 0.705675 -0.002092 0.0
2.868577 0.592317 0.004660 0.0
3.487010 1.542762 0.000188 0.0
0.143446 0.762368 0.002231 0.0
2.765306 0.787173 -0.000409 0.0
1.470699 1.457697 0.005859 0.0
0.285446 0.459975 0.002085 0.0
1.325530 1.069083 -0.001006 0.0
2.459876 0.040217 0.001555 0.0
3.168364 1.541895 0.000533 0.0
3.182851 0.606635 -0.001273 0.0
3.233445 0.766140 -0.000235 0.0
3.596208 0.111271 -0.002538 0.0
2.565476 0.407618 0.005018 0.0
3.041750 1.042025 0.000551 0.0
2.316943 1.265394 0.002887 0.0
1.984037 0.043262 -0.003327 0.0
1.402094 1.388066 0.001168 0.0
1.519125 1.262290 0.003559 0.0
1.718535 1.300677 0.000100 0.0
0.373497 1.061231 -0.003674 0.0
3.763065 1.338819 -0.000321 0.0
0.271524 0.240607 0.000280 0.0
1.453219 1.331768 0.001675 0.0
4.136830 1.219115 -0.004938 0.0
2.681270 1.002458 -0.003816 0.0
3.407749 1.192120 0.003686 0.0
3.676181 1.352139 0.001089 0.0
3.526858 1.315879 -0.001376 0.0
3.392833 1.519100 0.002703 0.0
3.861246 0.971316 0.000958 0.0
0.687877 1.411713 0.001556 0.0
0.336533 0.325426 0.001315 0.0
0.947713 0.522345 -0.002362 0.0
3.515238 0.315754 0.000305 0.0
1.247238 0.257285 0.001226 0.0
2.282835 0.237156 -0.000779 0.0
1.434764 0.798416 0.000357 0.0
4.007815 0.117450 0.005308 0.0
1.598160 0.029835 0.004532 0.0
1.999042 0.918752 0.002211 0.0
0.926603 0.406020 -0.000033 0.0
0.624437 1.344111 0.005176 0.0
2.343245 1.036263 -0.000342 0.0
2.835391 0.894697 -0.000728 0.0
3.228018 1.518121 0.000715 0.0
1.479505 1.198141 0.000509 0.0
2.338710 0.494966 -0.001834 0.0
0.462264 0.305807 -0.003984 0.0
2.291624 0.053629 0.003115 0.0
4.011274 0.452711 0.002177 0.0
0.174319 0.896447 0.001897 0.0
0.300881 0.504685 0.001806 0.0
0.825140 0.151855 -0.001217 0.0
2.780990 1.328681 -0.001884 0.0
1.775621 0.612214 0.001341 0.0
1.842050 1.563158 0.002482 0.0
3.420647 0.420360 0.000280 0.0
3.009099 0.055417 -0.002570 0.0
3.385608 0.938292 0.007019 0.0
3.777103 0.528249 -0.002842 0.0
0.495161 1.373152 -0.004507 0.0
3.319486 0.164157 -0.004294 0.0
2.058096 1.062981 0.000224 0.0
1.626732 0.013907 -0.000096 0.0
1.723835 0.345359 -0.001452 0.0
2.830337 1.059838 0.000056 0.0
0.340878 1.523753 -0.001474 0.0
3.585057 1.251454 -0.003757 0.0
1.772699 0.021395 0.000035 0.0
3.639308 0.490114 -0.003202 0.0
0.266298 0.763581 -0.000067 0.0
3.354261 1.273974 0.001321 0.0
4.094206 1.167524 -0.000941 0.0
2.798292 1.347395 -0.001546 0.0
3.865303 0.458625 0.000290 0.0
3.601216 1.356051 -0.000970 0.0
1.247012 1.402081 0.001198 0.0
3.322710 0.420794 0.000382 0.0
2.498239 0.573081 -0.000347 0.0
2.211739 0.014055 0.000195 0.0
3.040958 0.376326 0.001896 0.0
2.781830 1.214252 -0.002271 0.0
2.214894 0.285032 -0.000128 0.0
2.012640 1.049939 0.003895 0.0
3.335419 0.158994 0.000573 0.0
4.002936 0.270807 0.001075 0.0
2.842914 0.722581 -0.000819 0.0
2.935963 1.296312 0.001695 0.0
2.108146 1.555124 0.002208 0.0
2.519737 0.235533 0.002267 0.0
3.479175 0.757452 -0.000971 0.0
1.410366 0.561565 -0.002780 0.0
1.698605 0.886372 0.003310 0.0
0.759358 0.430838 -0.002722 0.0
2.803831 0.602918 0.004229 0.0
0.146799 0.568416 -0.002359 0.0
2.224716 0.431554 0.003887 0.0
3.283592 0.997756 -0.005995 0.0
1.427729 0.556926 0.000042 0.0
1.740197 0.653471 -0.003267 0.0
2.406533 0.489370 -0.002363 0.0
2.613126 0.753387 -0.000868 0.0
1.662693 0.066971 0.001006 0.0
3.792316 0.989882 0.001085 0.0
3.844836 0.527135 0.001827 0.0
2.695143 1.363140 0.002992 0.0
2.249292 0.635512 0.000900 0.0
3.697208 1.411738 0.005581 0.0
3.894384 0.987018 -0.000703 0.0
2.424685 1.422905 -0.003704 0.0
1.075940 0.314720 -0.000598 0.0
3.316705 0.467136 -0.004487 0.0
2.883864 0.517273 0.001259 0.0
0.368547 0.199297 0.005037 0.0
1.095878 0.131736 -0.001526 0.0
2.584353 0.108038 -0.000607 0.0
0.277883 1.321943 -0.004297 0.0
1.358311 0.360266 -0.002830 0.0
3.600159 0.841448 -0.000120 0.0
2.332150 1.478137 -0.004382 0.0
0.417383 0.235172 0.002389 0.0
2.194929 0.687350 0.000595 0.0
2.079471 0.317143 0.000409 0.0
1.950808 1.172906 0.002219 0.0
2.771911 1.455015 0.000608 0.0
0.554663 1.356810 -0.005865 0.0
1.002082 1.135273 0.000389 0.0
3.374359 0.891996 -0.000492 0.0
4.079490 0.152776 0.001721 0.0
2.728039 0.209157 0.002153 0.0
0.267742 0.719403 -0.000311 0.0
3.615203 1.094819 -0.004488 0.0
3.071059 0.932836 -0.000059 0.0
1.446228 0.617806 -0.004320 0.0
1.213602 0.986865 0.003619 0.0
2.874537 0.806892 0.002493 0.0
0.535956 1.479068 -0.001070 0.0
3.774979 1.512437 -0.003632 0.0
2.772439 1.549371 0.000324 0.0
1.196692 0.676841 -0.003359 0.0
1.085019 0.030012 -0.003841 0.0
1.128650 0.816606 -0.002442 0.0
2.974039 0.774329 -0.001530 0.0
3.105157 0.037228 -0.005308 0.0
0.533769 0.031797 -0.002260 0.0
3.742023 0.370739 0.002172 0.0
1.048168 0.187836 -0.001804 0.0
2.635007 0.180731 0.004427 0.0
3.981967 1.539425 0.002190 0.0
0.611348 1.225975 0.000831 0.0
3.480801 1.498803 0.002464 0.0
2.518412 1.100460 0.005594 0.0
1.260697 1.440040 -0.004872 0.0
4.128129 0.297289 0.000475 0.0
1.580826 0.749768 0.001719 0.0
0.860178 0.998775 0.002287 0.0
2.746674 0.014401 -0.000107 0.0
1.070977 0.712205 0.000131 0.0
3.035595 1.456320 0.001582 0.0
0.525820 0.826354 -0.006047 0.0
3.756344 0.619555 0.002433 0.0
2.765779 1.243134 -0.001329 0.0
0.330724 0.935804 0.002310 0.0
1.257560 0.907705 0.003464 0.0
2.946173 0.360616 -0.000998 0.0
1.133393 0.429678 0.003107 0.0
1.640033 0.609833 -0.001673 0.0
1.863168 1.197451 0.000628 0.0
2.127957 0.683836 -0.001522 0.0
1.712524 1.265656 0.000968 0.0
1.552039 1.171381 0.000739 0.0
0.100382 0.797576 0.001089 0.0
0.971107 0.382921 0.000397 0.0
0.365472 0.632614 -0.001783 0.0
3.890181 0.264013 -0.000491 0.0
0.469581 0.480756 0.002522 0.0
3.796710 0.450155 -0.001627 0.0
0.667928 0.116028 0.000190 0.0
3.780311 0.596802 0.000801 0.0
2.709518 1.288375 -0.000492 0.0
3.682881 0.885726 0.004522 0.0
1.669696 1.370736 -0.001636 0.0
3.540851 0.695401 -0.000392 0.0
3.023956 0.037730 -0.004905 0.0
2.448809 1.192769 0.004955 0.0
0.294284 0.593910 0.003264 0.0
0.736630 0.785822 -0.001108 0.0
1.965998 0.032083 0.000946 0.0
2.916254 1.509648 -0.002690 0.0
2.290265 0.739399 0.000373 0.0
3.126854 0.358542 -0.003677 0.0
2.257235 1.196892 0.000851 0.0
3.219752 0.177085 -0.000146 0.0
3.561055 1.539661 0.001405 0.0
0.019272 0.774044 -0.000127 0.0
2.480972 1.440356 0.001493 0.0
1.838936 1.492686 -0.002191 0.0
0.033880 0.270389 0.003806 0.0
4.156463 0.035198 -0.004391 0.0
2.520172 0.638929 0.002830 0.0
3.292138 1.460747 0.002500 0.0
2.431543 0.518666 0.000267 0.0
2.545604 0.837665 0.000647 0.0
2.157888 0.290682 0.001288 0.0
2.842354 1.311105 0.002559 0.0
1.261840 1.193644 0.000597 0.0
1.477205 1.170273 0.000772 0.0
1.823058 0.614891 -0.004434 0.0
2.857925 0.119817 -0.001503 0.0
3.606172 1.531079 0.002438 0.0
1.064895 0.874965 0.000669 0.0
2.092662 0.768518 0.000741 0.0
3.776211 0.262481 0.001763 0.0
1.420944 0.545320 0.004787 0.0
4.139572 0.296543 0.005243 0.0
3.647306 0.058083 -0.000959 0.0
1.777557 0.191539 -0.004472 0.0
1.456600 1.002848 0.001147 0.0
3.278066 0.237860 0.000666 0.0
2.294218 0.303430 0.000174 0.0
2.333315 0.057491 -0.003346 0.0
3.154254 0.801657 -0.000664 0.0
1.383277 0.461732 0.000446 0.0
0.253274 0.809610 -0.001407 0.0
3.472670 0.525788 0.000412 0.0
0.480784 1.468959 0.000290 0.0
0.426644 1.345054 -0.001185 0.0
2.137677 1.028319 0.002007 0.0
2.094135 0.850973 -0.003066 0.0
1.510694 1.032668 -0.000021 0.0
3.164091 0.026944 0.001349 0.0
0.946031 1.209626 0.001219 0.0
0.797887 0.766510 0.003729 0.0
2.212572 1.370249 -0.002492 0.0
2.205248 1.111179 0.002043 0.0
3.686850 0.491182 -0.001440 0.0
1.462494 0.944817 0.003526 0.0
4.062676 0.823537 0.002979 0.0
0.551907 1.276595 -0.001680 0.0
2.802085 0.565361 0.002188 0.0
3.738980 1.004668 0.000755 0.0
0.041786 0.919674 -0.004857 0.0
3.836874 0.652393 -0.001155 0.0
1.310039 1.331266 -0.003785 0.0
3.492223 1.283394 0.000777 0.0
3.868780 0.237925 0.002384 0.0
1.274499 0.079139 -0.002916 0.0
1.215651 0.108277 0.001800 0.0
1.009792 0.036645 0.002601 0.0
3.419188 1.039026 0.005084 0.0
1.962116 0.501947 0.005394 0.0
2.534500 0.010008 0.000121 0.0
1.801352 1.515064 -0.003559 0.0
3.147226 1.204268 0.003535 0.0
0.287311 0.638334 0.000159 0.0
1.558969 1.226037 0.000187 0.0
0.493672 1.357171 0.002825 0.0
3.441161 0.293567 -0.002109 0.0
1.424920 1.501878 -0.000533 0.0
1.893601 0.991398 0.004892 0.0
1.220519 1.234031 0.004638 0.0
3.489249 0.011641 -0.003885 0.0
0.045032 0.495050 0.002040 0.0
2.898577 0.789352 0.000498 0.0
2.502284 1.245146 0.004129 0.0
3.512170 1.524686 -0.000444 0.0
2.408088 0.749686 0.003006 0.0
1.076014 1.000412 0.001593 0.0
2.460226 0.110257 -0.002196 0.0
1.147451 1.005035 0.003430 0.0
2.285435 0.825776 0.001913 0.0
1.816453 1.349520 0.001139 0.0
0.153680 1.115155 -0.001689 0.0
0.502344 0.468520 -0.001221 0.0
1.147694 0.499815 -0.003600 0.0
0.288188 0.724256 -0.001331 0.0
2.562235 0.203682 0.001040 0.0
2.286322 0.710337 -0.000970 0.0
4.145671 1.448021 0.003532 0.0
2.438523 0.866651 -0.003131 0.0
3.368416 0.803219 -0.000057 0.0
3.595161 1.252000 -0.000864 0.0
1.998225 0.794990 -0.002008 0.0
0.477188 1.467730 0.000588 0.0
2.422864 0.362572 -0.002457 0.0
3.468131 0.652889 0.002388 0.0
2.009014 0.993810 0.004275 0.0
0.742326 0.008872 0.001532 0.0
3.589318 0.627496 0.002314 0.0
0.609697 0.190643 0.000373 0.0
1.941629 0.892503 0.001126 0.0
2.262670 0.888580 -0.003536 0.0
3.210187 0.536920 -0.004488 0.0
0.454734 0.617268 -0.000266 0.0
2.435321 0.089024 0.000514 0.0
3.617848 0.411922 0.002592 0.0
3.926983 0.111865 -0.003871 0.0
1.577259 1.263698 0.001628 0.0
3.092963 0.689796 0.000729 0.0
2.346389 0.231956 0.001741 0.0
2.248405 1.578171 0.006237 0.0
3.319086 0.377916 -0.000889 0.0
2.760689 1.526933 -0.002499 0.0
2.066519 0.247192 0.004674 0.0
2.865747 0.414266 0.000516 0.0
1.497573 1.591163 -0.000635 0.0
3.969480 1.422856 -0.000691 0.0
1.959356 0.031166 -0.001470 0.0
2.583029 0.419909 0.001291 0.0
1.437831 1.107358 -0.000757 0.0
2.346037 0.865976 0.004913 0.0
2.256365 1.407035 0.000366 0.0
2.226546 0.570506 -0.001184 0.0
3.709401 0.764375 0.000690 0.0
0.116238 0.550178 0.000901 0.0
3.800083 0.649231 -0.000775 0.0
1.860814 0.827993 -0.001083 0.0
1.378439 1.537719 0.003716 0.0
1.262463 0.429573 0.000139 0.0
2.051112 0.492135 -0.004297 0.0
3.831489 0.246819 0.001933 0.0
0.545829 0.970127 0.000635 0.0
2.919438 0.427136 0.000584 0.0
1.873318 0.370281 0.004097 0.0
1.345632 1.584094 0.001129 0.0
3.155790 1.452654 -0.002294 0.0
2.883859 1.110456 0.002936 0.0
0.786294 0.448127 -0.003121 0.0
1.450944 0.200039 0.000858 0.0
2.290767 0.166489 -0.002318 0.0
2.309933 0.631664 -0.002777 0.0
3.557939 1.524629 0.001734 0.0
0.473698 0.404819 0.004686 0.0
0.823815 1.259390 0.001005 0.0
3.982235 0.166207 0.000774 0.0
3.948267 0.004835 0.001925 0.0
1.395280 0.998488 -0.002056 0.0
1.946739 0.048238 -0.002194 0.0
1.118335 0.003688 0.003374 0.0
2.175785 1.570039 0.001106 0.0
3.772274 0.929411 0.007322 0.0
0.431624 1.160376 -0.000323 0.0
1.933169 0.101298 -0.001714 0.0
2.532421 0.202014 -0.002094 0.0
2.539432 0.793294 0.005320 0.0
2.742887 0.704030 0.001594 0.0
0.873806 1.471252 0.002323 0.0
0.812612 0.966083 0.000201 0.0
3.573771 0.728526 -0.004665 0.0
0.648854 1.570614 -0.000727 0.0
1.341583 1.401090 -0.001669 0.0
2.925692 0.385746 -0.001442 0.0
4.028316 0.102915 0.001404 0.0
0.111310 1.416016 0.000608 0.0
2.891459 0.634044 0.001814 0.0
0.074759 1.034289 0.002937 0.0
3.909451 1.534050 -0.003092 0.0
4.024051 0.724990 0.001962 0.0
1.189406 0.564732 -0.002302 0.0
1.364012 0.537129 -0.001174 0.0
0.364925 1.154517 -0.001223 0.0
0.634717 1.267138 -0.000176 0.0
2.636555 0.235753 -0.002632 0.0
3.080907 0.727606 -0.000254 0.0
0.513475 0.149541 0.000360 0.0
3.457371 0.090452 -0.003351 0.0
3.534855 0.906014 -0.002315 0.0
1.202598 0.351209 -0.002549 0.0
3.325813 0.205736 0.001688 0.0
0.768029 1.110578 0.000399 0.0
0.464584 1.144176 0.000136 0.0
2.317426 0.415605 0.000412 0.0
1.509094 0.209967 0.005929 0.0
3.010086 0.097534 0.000252 0.0
4.096538 1.410695 0.001297 0.0
1.479610 0.771385 0.004061 0.0
4.017187 0.744522 -0.000588 0.0
0.269160 0.787399 0.001242 0.0
1.398543 0.241127 -0.003431 0.0
2.868482 0.768478 0.003001 0.0
1.908685 0.473239 -0.000052 0.0
2.897004 1.050509 -0.001044 0.0
1.952436 0.214653 0.000416 0.0
0.175898 1.406002 -0.001243 0.0
3.744032 1.071698 0.001059 0.0
4.143911 1.059013 0.003039 0.0
1.165841 0.125896 0.001703 0.0
0.746620 0.704809 0.000007 0.0
1.795925 0.647917 0.003819 0.0
1.836037 0.111520 -0.002219 0.0
0.285090 0.699744 -0.000562 0.0
0.831292 1.280670 0.000180 0.0
2.759512 0.428661 -0.001490 0.0
1.809902 0.566311 0.002381 0.0
3.054233 0.420339 0.001064 0.0
0.321456 1.498021 -0.000484 0.0
3.585081 1.520823 -0.000780 0.0
3.770581 1.332216 0.002973 0.0
0.902063 1.589677 -0.002132 0.0
2.098311 0.478810 0.002704 0.0
0.277047 1.589059 0.003562 0.0
2.739787 1.157539 -0.001523 0.0
1.569407 0.460497 0.000096 0.0
1.304100 1.330069 0.002006 0.0
1.596551 1.195801 -0.001562 0.0
1.006314 0.571007 -0.000385 0.0
3.986351 1.231683 -0.001274 0.0
0.598642 0.967470 -0.002222 0.0
3.282525 0.776768 -0.003447 0.0
3.760707 1.478465 0.002680 0.0
2.600412 0.721644 0.000403 0.0
3.846451 0.835003 0.003012 0.0
1.202852 0.595761 -0.002317 0.0
3.200668 0.813065 0.004026 0.0
1.893647 0.487769 -0.001956 0.0
2.999698 1.534543 -0.000566 0.0
0.914504 0.300453 0.003015 0.0
1.906222 1.422662 -0.003983 0.0
3.956980 1.131023 -0.001092 0.0
2.895826 1.496996 -0.000083 0.0
0.393065 0.307372 -0.003069 0.0
2.752520 0.130759 0.000439 0.0
3.602734 1.514802 0.001139 0.0
3.395834 0.177213 0.000618 0.0
1.857173 1.206671 -0.001125 0.0
2.049841 0.388871 -0.004881 0.0
2.362213 1.155335 -0.000663 0.0
3.946288 0.479345 0.000151 0.0
0.095876 0.298913 0.000254 0.0
2.450230 1.565096 0.001566 0.0
1.612017 0.111651 -0.002829 0.0
3.867331 0.086401 0.000670 0.0
1.859954 0.496518 -0.005777 0.0
3.073273 0.657802 0.000507 0.0
3.053567 0.394478 0.003121 0.0
1.036485 0.442353 -0.000364 0.0
3.636589 0.393745 0.002593 0.0
0.041341 0.255719 -0.000606 0.0
1.476661 1.219442 -0.000627 0.0
2.657707 0.990746 0.000835 0.0
3.180028 0.743576 -0.000526 0.0
1.598695 0.088398 0.003507 0.0
4.186494 0.529159 -0.002194 0.0
1.173404 0.852243 -0.001183 0.0
2.135738 1.426805 0.000337 0.0
2.133232 1.375509 -0.001252 0.0
2.724165 1.002312 0.003789 0.0
2.467730 1.292489 -0.000157 0.0
4.002689 1.505634 0.001200 0.0
0.833473 0.830597 -0.001671 0.0
1.535037 0.087402 -0.001960 0.0
2.251020 0.425368 0.003100 0.0
1.967995 0.040589 0.003382 0.0
3.974217 1.217982 -0.000064 0.0
3.381512 1.473587 -0.002766 0.0
0.156441 1.463601 -0.005076 0.0
3.603841 0.030094 0.004455 0.0
2.332816 1.540848 -0.000924 0.0
1.694211 1.216304 -0.001501 0.0
1.648937 0.761562 0.001067 0.0
4.026390 0.296300 0.002144 0.0
0.466551 0.272069 0.000818 0.0
2.880552 0.848810 0.002192 0.0
2.803340 1.349071 -0.000402 0.0
3.862841 1.545431 -0.001478 0.0
2.153193 0.334220 0.001535 0.0
3.045806 1.170444 0.005445 0.0
2.107403 0.255206 0.003899 0.0
3.933982 1.490276 -0.003137 0.0
0.009692 0.499235 -0.003130 0.0
2.914266 0.642991 0.001223 0.0
2.183242 1.125084 -0.000483 0.0
0.754899 0.151780 -0.001947 0.0
3.425142 0.743168 0.000217 0.0
0.085770 0.458773 0.001842 0.0
2.521847 1.121776 0.000856 0.0
2.515252 0.397543 -0.005553 0.0
0.833527 1.400483 0.000966 0.0
2.843930 0.456527 0.000397 0.0
0.310957 0.474174 0.001944 0.0
2.986164 1.563793 0.000527 0.0
0.569042 1.067012 0.000114 0.0
0.126904 1.324113 -0.003131 0.0
2.606236 0.075941 -0.002136 0.0
3.991978 0.448790 -0.001249 0.0
2.023877 0.816864 0.001233 0.0
1.917819 0.424718 0.000662 0.0
0.352368 0.506590 0.000289 0.0
3.083601 0.880485 0.002596 0.0
3.334846 1.071831 -0.002079 0.0
0.778751 1.554382 -0.001389 0.0
0.573264 1.041012 -0.004496 0.0
3.151442 0.336417 0.000507 0.0
3.003179 0.710648 0.000458 0.0
1.855591 0.173962 -0.002341 0.0
1.383580 0.948506 0.004314 0.0
1.138694 0.901861 -0.004503 0.0
2.316900 0.166770 0.000634 0.0
1.258293 0.860053 -0.000114 0.0
3.824591 1.223141 -0.001644 0.0
0.066356 1.549239 0.002430 0.0
0.543072 1.562871 0.002901 0.0
3.539465 0.819927 0.007514 0.0
1.026825 0.220370 -0.000620 0.0
4.144499 0.307261 0.005633 0.0
0.497965 0.916204 0.003206 0.0
0.365017 0.777474 0.001413 0.0
1.652304 0.326636 0.005956 0.0
2.998565 0.001302 -0.002389 0.0
1.215768 0.249655 -0.000262 0.0
1.398634 0.221426 -0.008757 0.0
2.519495 0.277992 0.001181 0.0
2.907841 0.758978 -0.001669 0.0
0.030925 1.375315 -0.003297 0.0
1.730682 0.494377 -0.003437 0.0
1.348771 0.756727 0.000823 0.0
2.248352 1.444561 -0.002224 0.0
1.171474 1.556552 0.000276 0.0
1.716663 0.638920 0.002300 0.0
2.494352 0.940245 0.002602 0.0
3.085999 0.005720 -0.002507 0.0
0.770963 0.822894 -0.000412 0.0
0.333257 0.862691 -0.006919 0.0
0.285873 1.545369 -0.000400 0.0
3.648600 1.320472 -0.002682 0.0
0.119940 0.695548 -0.001574 0.0
1.941764 0.823936 -0.000312 0.0
2.377731 0.518994 0.002535 0.0
0.945207 0.662879 -0.000503 0.0
0.732419 1.103307 0.001567 0.0
2.025480 1.325018 -0.000557 0.0
1.983993 0.157212 0.002125 0.0
1.801180 1.045278 0.000076 0.0
2.280616 1.574418 -0.000680 0.0
1.658078 1.271868 0.001200 0.0
2.566349 0.171297 0.001780 0.0
1.255047 0.733770 0.001374 0.0
0.838304 1.122424 0.004278 0.0
2.554734 0.132484 0.000597 0.0
2.222526 0.699024 0.000642 0.0
3.709104 0.380872 0.002947 0.0
0.678609 1.188990 0.000678 0.0
0.177888 0.838760 0.000138 0.0
1.708704 0.227389 0.003884 0.0
1.124769 0.268555 -0.003678 0.0
0.171335 1.219209 -0.000236 0.0
1.159280 1.305723 0.001158 0.0
0.753036 0.044188 -0.004233 0.0
0.898526 1.364030 -0.001550 0.0
2.769386 0.335315 0.003645 0.0
2.573753 1.196026 0.002941 0.0
3.078278 1.311394 -0.000139 0.0
0.626043 0.889424 -0.000722 0.0
0.376302 0.990526 -0.001976 0.0
3.789839 0.169318 -0.001808 0.0
0.260946 1.536663 0.001186 0.0
1.040893 0.683483 0.001018 0.0
1.600351 1.234721 -0.001595 0.0
3.027269 1.464128 0.003115 0.0
2.390609 0.361202 -0.000493 0.0
1.874123 0.857553 0.002186 0.0
0.601671 1.027128 0.004262 0.0
3.126879 1.142029 0.004261 0.0
1.155931 1.518522 -0.001873 0.0
2.201811 0.355912 -0.002856 0.0
4.023756 1.584516 0.001427 0.0
1.770101 0.049278 -0.001432 0.0
4.117844 0.480024 0.000529 0.0
1.429306 1.230879 0.005491 0.0
1.349590 0.638684 0.000405 0.0
0.359433 1.192251 -0.000534 0.0
3.957660 1.212382 0.003839 0.0
2.179996 0.253483 -0.005321 0.0
0.515807 0.779648 -0.003411 0.0
2.331685 0.222270 0.000829 0.0
3.623714 0.485267 0.001832 0.0
4.066811 1.339986 0.000724 0.0
2.873574 0.604804 0.000633 0.0
1.739047 0.328810 -0.001617 0.0
1.870233 1.169845 0.003630 0.0
0.889753 1.283871 0.001815 0.0
0.002774 0.824733 0.002505 0.0
3.342111 0.091778 -0.000621 0.0
2.663966 0.187525 0.001535 0.0
2.492900 1.009821 -0.000239 0.0
3.174702 0.339579 0.002451 0.0
0.353724 0.663338 -0.003916 0.0
3.700683 1.054996 0.001547 0.0
0.721999 0.948877 0.001271 0.0
1.177915 0.334056 -0.004145 0.0
1.539529 1.193673 -0.001503 0.0
2.549396 0.483796 0.001766 0.0
2.938223 0.459967 0.004373 0.0
1.040492 0.491670 0.001939 0.0
0.233945 0.817585 0.000592 0.0
0.046657 0.021250 -0.001473 0.0
1.692014 0.328469 -0.001083 0.0
1.143470 0.822978 -0.003412 0.0
2.255667 1.029881 -0.000770 0.0
3.449612 0.175068 -0.000685 0.0
0.452658 1.050555 -0.000571 0.0
0.220376 0.441282 -0.000551 0.0
0.726140 0.141551 0.000359 0.0
1.707531 0.676487 -0.000431 0.0
3.989887 0.725303 -0.001212 0.0
0.043951 0.562743 0.000086 0.0
0.212803 1.176787 0.003886 0.0
0.917832 0.451526 -0.004888 0.0
1.935600 1.504118 -0.003521 0.0
1.502685 1.448798 0.000772 0.0
2.773243 0.033471 -0.001618 0.0
1.434474 0.072815 -0.000706 0.0
2.892148 1.307297 -0.001046 0.0
2.219701 0.786784 -0.000897 0.0
2.552038 1.095721 -0.001258 0.0
2.338469 1.546965 -0.001028 0.0
1.709895 0.364683 0.001737 0.0
3.137467 0.046181 -0.000279 0.0
0.089054 1.185147 -0.002493 0.0
1.182749 0.861714 -0.003210 0.0
2.776060 1.532182 0.001322 0.0
1.330558 0.414758 0.004588 0.0
0.136606 0.798337 0.006290 0.0
0.755301 0.506233 0.001659 0.0
0.941158 0.182625 -0.001536 0.0
3.329476 1.198431 0.000033 0.0
2.320881 0.232732 -0.002157 0.0
4.166346 0.019076 0.003895 0.0
3.337050 0.397478 -0.000382 0.0
1.562851 0.238430 -0.001437 0.0
2.736789 1.246391 0.000973 0.0
3.253573 0.122171 -0.003095 0.0
2.550217 0.511371 0.005557 0.0
2.847024 0.060698 -0.000580 0.0
2.193203 0.373695 -0.000588 0.0
3.614836 1.204096 -0.002005 0.0
1.252613 0.239802 0.006384 0.0
2.879464 1.189714 0.004131 0.0
1.648451 0.070370 -0.002802 0.0
2.517085 0.280741 -0.002909 0.0
3.370532 0.023691 -0.002188 0.0
4.078704 1.413639 -0.005082 0.0
1.005738 0.900499 0.000183 0.0
2.210769 0.665072 0.001006 0.0
1.397794 0.915261 0.001352 0.0
2.485962 1.107563 -0.002377 0.0
0.336898 0.757671 -0.004076 0.0
0.554175 0.070132 0.001311 0.0
1.959906 0.641583 0.000666 0.0
4.034684 1.377198 0.001719 0.0
3.537148 0.201629 -0.000590 0.0
0.681946 0.492114 0.003268 0.0
2.716866 0.521235 0.003648 0.0
2.714340 0.624363 0.002838 0.0
0.969177 1.024408 0.003039 0.0
0.224244 0.883175 0.002619 0.0
4.050075 0.457394 0.001755 0.0
3.778208 1.416690 0.003393 0.0
0.794617 1.435106 0.000738 0.0
1.861143 0.214929 0.001603 0.0
2.767881 0.987678 -0.000202 0.0
4.147189 1.565171 0.002177 0.0
1.445105 0.106427 -0.000724 0.0
2.860844 1.323759 0.000007 0.0
2.058483 0.341444 0.001140 0.0
2.257848 0.610457 0.003563 0.0
1.451686 1.138160 0.002066 0.0
0.720673 0.088904 0.000576 0.0
0.978569 0.692572 -0.001283 0.0
2.605357 0.369017 -0.002517 0.0
3.043663 1.257700 0.000379 0.0
1.742555 0.245955 0.001201 0.0
3.747245 1.210403 -0.002130 0.0
2.618641 0.066182 0.003596 0.0
2.938510 1.466537 0.000265 0.0
1.778168 1.485389 -0.001325 0.0
1.784706 0.840035 -0.000874 0.0
2.061632 0.876753 -0.000950 0.0
4.138559 0.688187 -0.004610 0.0
3.761866 0.271758 0.001138 0.0
1.176443 0.397117 0.001602 0.0
3.464302 1.108884 0.003995 0.0
1.427685 0.571603 0.002470 0.0
0.704722 0.300425 0.000107 0.0
2.518487 0.352219 0.002029 0.0
1.348744 1.522584 -0.002421 0.0
2.147494 0.456814 -0.002160 0.0
1.866588 0.403389 0.002773 0.0
1.282076 0.870569 0.004570 0.0
0.477742 1.035691 0.001378 0.0
0.894965 1.399569 -0.000637 0.0
1.749033 1.508480 -0.000199 0.0
1.833649 1.111913 -0.000094 0.0
1.389904 0.273038 -0.003760 0.0
3.089796 0.265152 0.000572 0.0
2.124592 0.719932 -0.001986 0.0
3.618489 1.197049 0.003151 0.0
1.341256 1.393535 -0.001634 0.0
3.427710 1.195568 0.001107 0.0
1.022450 0.681164 -0.001424 0.0
4.118520 0.850361 -0.000780 0.0
3.304177 0.963481 -0.000665 0.0
3.799391 0.529640 0.001809 0.0
2.017600 0.613690 -0.006463 0.0
0.071481 1.335897 -0.004736 0.0
0.626458 0.098965 -0.000184 0.0
3.287644 1.113227 -0.002132 0.0
1.332510 0.028007 0.002201 0.0
1.128957 0.329978 -0.001340 0.0
3.717183 0.827115 -0.002944 0.0
1.411963 0.261584 -0.001215 0.0
0.098442 1.567392 -0.000775 0.0
3.280173 1.301738 -0.001911 0.0
1.678598 1.358337 -0.004959 0.0
1.116513 1.541585 -0.001452 0.0
2.320346 1.152594 -0.000910 0.0
2.327862 0.926992 0.003937 0.0
2.817288 0.666487 -0.002698 0.0
3.336666 0.583722 -0.000410 0.0
1.790874 0.950328 -0.003227 0.0
1.969255 0.479038 0.002039 0.0
0.795851 1.563323 -0.000706 0.0
0.747814 0.081410 0.000246 0.0
2.243288 0.929540 -0.000090 0.0
0.263521 0.808254 -0.000655 0.0
3.401408 1.301743 -0.004279 0.0
2.137727 0.682251 0.001035 0.0
0.285347 0.174257 0.000824 0.0
1.724632 1.502376 -0.000281 0.0
0.781616 0.815420 0.000571 0.0
2.335895 1.324553 -0.002353 0.0
0.104633 0.531284 -0.003146 0.0
4.148431 0.048068 -0.000601 0.0
0.208181 0.289774 0.003654 0.0
1.306563 0.031811 0.000011 0.0
1.572758 0.824145 0.005599 0.0
1.773139 0.900851 0.002226 0.0
3.770916 0.015684 -0.001588 0.0
1.248774 0.567686 -0.002557 0.0
0.296905 1.455500 0.001116 0.0
3.909563 0.515056 -0.000081 0.0
0.696754 0.262466 0.000024 0.0
1.075382 1.194415 -0.000861 0.0
1.647982 0.566195 0.001997 0.0
1.542914 0.335624 0.003401 0.0
4.142626 0.964072 -0.002792 0.0
0.146924 0.137555 0.003004 0.0
1.634801 1.030342 -0.003089 0.0
0.645568 0.101764 0.000267 0.0
3.858916 0.519885 0.000862 0.0
1.538727 0.657977 0.001180 0.0
0.498722 1.552774 -0.000037 0.0
0.305342 0.139208 -0.002242 0.0
3.236119 0.514183 -0.000481 0.0
0.303362 1.131191 0.004473 0.0
3.301763 0.891301 -0.001318 0.0
0.720374 1.430745 -0.002409 0.0
3.964243 1.465918 -0.000698 0.0
1.909667 0.150197 -0.000168 0.0
0.021318 1.148671 0.003567 0.0
0.328728 1.378601 -0.002528 0.0
2.597037 1.433892 -0.003202 0.0
2.286287 1.433924 0.001530 0.0
3.812552 0.829552 -0.005566 0.0
3.713036 0.958325 0.004105 0.0
1.545122 0.232202 0.001340 0.0
0.144817 1.118867 -0.002757 0.0
3.717451 0.103911 -0.003905 0.0
3.473567 0.850296 0.001767 0.0
0.635641 0.791979 0.001356 0.0
0.436400 0.818820 0.002287 0.0
0.790927 1.159729 -0.003426 0.0
1.126827 0.716238 -0.001704 0.0
3.909170 0.037416 0.001967 0.0
0.811585 0.478363 -0.000055 0.0
3.427279 1.021357 -0.001466 0.0
2.291952 0.528543 -0.000196 0.0
2.635764 0.830765 0.000120 0.0
0.562885 0.777656 -0.003997 0.0
1.709652 1.313135 0.000805 0.0
1.036998 1.560287 -0.000853 0.0
3.740051 1.453316 0.000911 0.0
3.441341 0.670770 0.001246 0.0
0.306251 0.751554 0.004000 0.0
2.655721 0.116841 0.002338 0.0
1.822368 0.377138 0.004838 0.0
1.542062 1.233731 0.001562 0.0
1.741112 0.282502 0.002221 0.0
0.578095 1.546433 0.000106 0.0
2.610254 0.712510 -0.001448 0.0
1.022966 0.357102 0.000244 0.0
1.720874 1.324016 0.001226 0.0
3.790288 0.456856 0.001176 0.0
1.593469 0.607299 0.002585 0.0
2.872192 0.874202 -0.000100 0.0
4.096521 0.699949 -0.006692 0.0
3.823542 1.163675 -0.000157 0.0
3.813341 1.255632 0.002115 0.0
2.863490 0.035033 -0.001768 0.0
4.189051 0.514325 0.003830 0.0
4.010687 0.688716 -0.001870 0.0
4.113696 0.180427 0.003293 0.0
0.365511 0.952754 0.004203 0.0
0.204734 0.863643 -0.000781 0.0
0.675786 0.338104 0.000897 0.0
0.244457 1.414752 0.001760 0.0
3.083542 0.896252 -0.002786 0.0
2.005627 0.501974 0.001556 0.0
3.546830 1.264905 0.004461 0.0
3.085614 0.288852 0.001760 0.0
0.436394 1.153271 0.004237 0.0
2.496019 1.488340 -0.002020 0.0
2.162781 1.299855 -0.000243 0.0
1.936724 1.302907 -0.000591 0.0
2.727698 0.598330 -0.000768 0.0
3.439383 0.315461 0.000106 0.0
0.091689 0.066871 0.003914 0.0
0.576269 1.190293 -0.004937 0.0
2.491372 0.895252 0.002293 0.0
2.791066 0.538269 0.000144 0.0
1.562701 0.861878 0.002921 0.0
1.556418 1.145795 -0.003208 0.0
2.475837 1.303753 -0.001960 0.0
3.510921 1.583638 0.004592 0.0
2.711853 1.487476 0.000369 0.0
1.088963 0.602484 0.001120 0.0
3.862269 0.193317 -0.002091 0.0
1.586345 0.233325 0.002744 0.0
0.161894 1.258590 0.002787 0.0
0.249841 0.743730 0.000785 0.0
1.965847 1.471236 0.005085 0.0
0.340733 1.398613 -0.000537 0.0
0.114265 0.212556 0.000964 0.0
1.355510 1.023454 -0.002764 0.0
2.029955 0.281940 -0.002584 0.0
2.098750 1.159289 -0.003716 0.0
2.189696 0.367298 -0.001374 0.0
4.168469 1.046856 -0.001575 0.0
1.400149 1.492764 -0.004374 0.0
2.787924 1.468748 0.003133 0.0
0.131155 1.255283 -0.003077 0.0
2.219553 0.360041 -0.003253 0.0
3.868849 0.631355 -0.005054 0.0
1.641853 0.599103 -0.001127 0.0
3.453789 1.518831 0.001285 0.0
2.105729 0.400458 -0.000148 0.0
2.824157 0.112736 0.004132 0.0
0.467002 1.304369 0.003551 0.0
2.454257 1.159700 0.003717 0.0
1.095461 1.448810 0.000059 0.0
2.422453 0.047253 0.000519 0.0
3.232962 1.559993 -0.001081 0.0
3.975731 0.601926 0.001530 0.0
2.821828 1.018244 -0.004975 0.0
1.645779 1.399873 0.002711 0.0
0.711796 0.205031 -0.003045 0.0
2.285761 1.475668 -0.002927 0.0
3.646769 1.222414 0.001890 0.0
0.907834 0.931186 0.000904 0.0
4.111428 0.721660 0.001754 0.0
1.895832 0.853201 -0.005359 0.0
3.428067 1.173592 0.002204 0.0
1.229996 0.928219 -0.001477 0.0
1.931398 0.937208 0.001873 0.0
2.991186 0.667538 0.000421 0.0
0.591636 0.412455 0.001757 0.0
1.191701 0.630039 -0.000548 0.0
1.555569 0.798439 -0.003309 0.0
2.197161 0.598372 -0.000652 0.0
1.943506 0.292882 -0.004450 0.0
2.095419 0.796831 0.000225 0.0
0.498946 1.115866 -0.001253 0.0
0.217777 0.467062 0.003603 0.0
2.447047 0.994902 -0.002890 0.0
2.232708 0.735656 -0.000214 0.0
1.582247 1.289401 -0.000493 0.0
3.804387 0.728006 -0.001617 0.0
2.294508 0.556086 -0.002613 0.0
1.466128 1.513733 -0.000555 0.0
3.546113 0.675675 -0.002656 0.0
4.072973 0.720830 0.002139 0.0
3.460730 1.044971 -0.000473 0.0
2.104284 0.669710 -0.001830 0.0
0.985674 0.165278 -0.005389 0.0
1.831065 0.190806 0.003175 0.0
1.340355 1.053706 0.001434 0.0
1.807151 0.377125 0.002151 0.0
2.866802 0.851064 0.000109 0.0
1.689119 0.000604 0.000710 0.0
0.505583 1.379793 -0.003054 0.0
1.615602 0.608557 0.003356 0.0
1.179937 1.322682 -0.006426 0.0
4.058874 1.069843 0.001602 0.0
0.855435 0.332453 -0.001710 0.0
3.732789 1.373187 -0.000617 0.0
3.333406 1.432158 0.000731 0.0
1.741947 1.199738 -0.000539 0.0
1.770149 0.761595 -0.000518 0.0
1.766450 0.564054 0.001940 0.0
2.492411 0.371999 0.000538 0.0
3.709693 0.030724 -0.001291 0.0
0.765300 0.306984 -0.001602 0.0
3.961433 0.217176 0.000160 0.0
1.996042 0.822856 -0.002040 0.0
1.323009 0.489549 0.000515 0.0
1.405131 1.380506 0.003608 0.0
0.167567 0.191959 -0.002506 0.0
3.405601 0.112040 -0.002118 0.0
2.179825 0.215376 0.001492 0.0
1.053109 0.963213 0.001560 0.0
1.324874 0.669858 -0.002911 0.0
3.592555 0.202126 0.001346 0.0
1.417490 0.773434 -0.000765 0.0
1.116911 0.718474 -0.000174 0.0
1.251989 0.309261 -0.001520 0.0
0.699993 0.695324 -0.000453 0.0
0.527947 0.340438 -0.000305 0.0
3.161952 1.586701 0.001021 0.0
1.919398 0.009802 0.002400 0.0
1.504763 0.102971 0.002580 0.0
3.491122 1.037530 -0.002002 0.0
1.824772 0.228145 -0.000357 0.0
1.202435 0.769488 0.002702 0.0
1.975897 1.418756 0.003880 0.0
2.974821 0.192429 0.002252 0.0
3.678621 0.535746 -0.001364 0.0
2.953754 1.365665 -0.001187 0.0
1.092295 0.096871 0.000454 0.0
1.922955 0.070405 0.000654 0.0
3.292488 1.540576 -0.000660 0.0
0.459117 0.128353 0.002168 0.0
1.364100 0.729595 0.001993 0.0
2.736253 0.429636 0.000642 0.0
2.274252 1.018602 0.000062 0.0
2.530831 0.990291 -0.002465 0.0
2.723597 0.390122 0.000159 0.0
1.587168 0.718307 0.001932 0.0
1.633100 0.640495 -0.000983 0.0
1.068601 0.184678 0.005245 0.0
3.418296 0.482210 -0.005576 0.0
3.934300 0.092300 0.000948 0.0
2.643630 0.617437 0.003023 0.0
2.044890 0.973134 0.000940 0.0
2.565110 1.496507 -0.001680 0.0
1.433038 0.512009 0.000245 0.0
0.604207 0.240352 -0.000317 0.0
1.962768 0.831001 0.002578 0.0
0.694889 0.291776 0.002133 0.0
1.058730 0.971177 -0.000485 0.0
1.463202 1.214876 0.001656 0.0
3.653000 0.731929 0.003343 0.0
4.059006 1.351591 0.001704 0.0
0.107982 1.209658 -0.004371 0.0
3.920727 1.299967 -0.004321 0.0
1.528585 0.608661 0.000668 0.0
0.931889 0.993529 -0.001135 0.0
3.498373 0.629169 -0.001130 0.0
1.525178 0.438383 -0.001445 0.0
1.877802 0.684220 -0.002316 0.0
0.455426 0.076946 0.000264 0.0
0.256685 1.197093 -0.000790 0.0
2.326644 0.547166 -0.000101 0.0
0.329690 1.046698 -0.006296 0.0
1.486251 0.701668 0.002274 0.0
4.035203 0.327983 -0.002872 0.0
1.161391 1.350351 0.003561 0.0
3.641225 0.061098 -0.001718 0.0
2.081405 0.045947 0.000204 0.0
2.306922 0.125930 0.000498 0.0
0.560185 0.771683 0.000248 0.0
2.811295 1.316724 0.000455 0.0
3.394604 1.483247 -0.000511 0.0
2.793216 0.490993 0.002521 0.0
1.545383 1.556842 0.000287 0.0
0.355441 1.594524 -0.000993 0.0
2.857117 0.588500 0.000678 0.0
0.821095 0.607141 0.001265 0.0
0.800016 1.431174 0.003545 0.0
0.908545 1.311371 0.000821 0.0
0.229870 0.069058 -0.001383 0.0
0.024916 0.259590 0.001866 0.0
1.614419 0.687459 -0.001820 0.0
1.676566 1.072858 0.002452 0.0
3.250124 0.807253 0.001907 0.0
2.829476 0.921747 -0.001249 0.0
0.165948 1.187084 -0.003268 0.0
1.947629 0.446742 0.004263 0.0
2.552670 1.069533 -0.000336 0.0
1.620730 0.591124 -0.000471 0.0
1.560059 0.141547 -0.003087 0.0
2.096342 0.164871 0.001542 0.0
3.906465 0.436348 0.003017 0.0
1.086796 0.368485 -0.002832 0.0
0.434965 0.868919 -0.000710 0.0
0.513398 1.315246 -0.000588 0.0
2.871741 0.970242 -0.002400 0.0
1.406887 1.511609 0.001220 0.0
2.429661 1.070117 -0.005477 0.0
2.029832 0.919556 -0.002772 0.0
2.509668 0.267004 0.000515 0.0
0.848491 0.512906 0.002144 0.0
2.773054 0.371703 -0.000109 0.0
3.402108 1.019647 0.000453 0.0
4.023519 0.366086 0.001573 0.0
3.832609 0.985391 -0.001904 0.0
0.693235 1.291668 -0.003525 0.0
4.011542 0.702372 0.002849 0.0
2.217758 0.996047 -0.002522 0.0
1.139813 0.485171 0.002039 0.0
3.976652 0.892650 -0.000535 0.0
2.981276 0.358610 -0.000557 0.0
1.947615 1.180799 0.003391 0.0
4.072402 0.252002 -0.001184 0.0
1.823026 0.248803 0.000144 0.0
2.648481 0.602402 0.001940 0.0
3.581269 0.912317 0.000788 0.0
1.038603 0.060460 -0.002414 0.0
0.796886 0.710465 -0.001861 0.0
3.673013 1.567501 -0.004667 0.0
1.832343 1.411793 -0.000015 0.0
3.244197 1.322396 0.000260 0.0
3.371797 1.257218 0.001011 0.0
0.110696 0.937030 0.000469 0.0
0.749041 1.453272 -0.002332 0.0
1.869342 0.762111 -0.002642 0.0
0.976786 1.334427 -0.000712 0.0
3.190330 1.253568 0.001535 0.0
1.070565 0.121929 0.002038 0.0
3.888427 0.167569 -0.000383 0.0
2.750958 0.946649 0.000124 0.0
3.991477 1.040108 -0.001129 0.0
1.020924 1.254710 -0.000610 0.0
1.553462 1.541802 0.002224 0.0
0.831859 1.597469 0.000702 0.0
0.782811 1.196962 -0.001866 0.0
2.282179 1.283810 0.007506 0.0
2.880455 0.056056 0.001743 0.0
2.036937 0.355053 -0.002820 0.0
1.762803 0.159049 -0.003750 0.0
1.944812 0.038551 0.000760 0.0
0.946396 0.490541 -0.002112 0.0
1.200407 0.415318 0.002362 0.0
2.198918 1.486715 -0.000203 0.0
3.749427 1.584072 -0.000647 0.0
3.131234 0.352287 0.003264 0.0
0.737466 0.999046 -0.003780 0.0
1.351798 0.169147 -0.004075 0.0
2.556913 0.647911 0.004368 0.0
2.239602 0.136037 0.001922 0.0
3.702565 1.594846 0.003811 0.0
3.067585 0.952613 -0.003918 0.0
0.731759 1.247227 -0.005064 0.0
4.036917 0.755287 -0.000577 0.0
1.528705 1.053743 -0.000723 0.0
1.966355 0.850507 -0.000781 0.0
1.683372 0.534570 0.001084 0.0
1.233035 0.705182 0.000514 0.0
1.233089 0.624347 -0.000034 0.0
3.076441 1.307031 -0.002466 0.0
3.051739 1.550202 -0.000664 0.0
0.765092 1.034340 -0.001972 0.0
2.326995 0.124773 0.001938 0.0
2.879524 0.395031 0.000512 0.0
2.621790 0.094538 0.003211 0.0
0.930263 1.376899 0.000635 0.0
2.907562 1.126451 -0.003438 0.0
2.783127 0.052936 -0.006416 0.0
3.669698 0.715638 -0.001321 0.0
1.186617 0.716788 -0.001291 0.0
0.932356 1.280959 0.001039 0.0
1.798710 0.543820 0.003452 0.0
0.038638 0.585565 0.002860 0.0
3.783776 1.145664 0.000085 0.0
1.267309 0.955654 0.001856 0.0
3.082609 0.218296 -0.000068 0.0
2.348327 1.309634 0.003918 0.0
1.996106 0.243565 -0.000361 0.0
1.378126 0.738095 0.001528 0.0
4.175036 1.268119 0.004492 0.0
1.974670 1.404232 0.004918 0.0
2.148012 1.407751 0.000333 0.0
1.973392 0.323981 -0.000434 0.0
3.429544 1.391850 -0.001628 0.0
0.248275 0.643650 -0.004762 0.0
0.146295 0.705504 0.002875 0.0
2.630983 0.672977 -0.000279 0.0
0.358036 0.911185 -0.009172 0.0
4.143046 0.405809 0.000288 0.0
2.724739 0.993631 0.004192 0.0
2.354495 0.933303 0.000265 0.0
1.288827 1.243345 -0.001835 0.0
0.897086 0.060471 -0.001205 0.0
0.907642 0.967930 0.003243 0.0
2.096383 1.439487 -0.001355 0.0
2.864710 0.239729 -0.002082 0.0
3.378164 1.276401 0.000455 0.0
1.662570 0.863992 -0.001346 0.0
3.117207 0.239337 0.001590 0.0
4.031785 0.375152 0.001102 0.0
2.905622 0.574327 0.000052 0.0
1.889933 0.580905 -0.004308 0.0
2.470975 0.721003 -0.004416 0.0
1.334018 1.457345 -0.001190 0.0
2.028452 0.531505 -0.003387 0.0
2.913533 0.970479 0.000086 0.0
3.801676 0.046950 0.003222 0.0
0.198905 0.494938 0.001266 0.0
1.924429 0.796586 -0.000015 0.0
2.431174 0.023318 -0.000871 0.0
3.638835 1.255763 -0.000282 0.0
0.430851 0.405109 0.003297 0.0
3.814294 1.052790 -0.000033 0.0
2.337150 0.359964 -0.001176 0.0
3.647574 0.154680 -0.001149 0.0
2.841175 0.200483 -0.000766 0.0
2.963653 1.482440 -0.002561 0.0
1.112729 0.374852 0.005339 0.0
0.995832 0.320884 -0.003268 0.0
1.196305 1.552506 -0.000873 0.0
0.235202 0.015298 0.002342 0.0
2.714045 0.708429 0.001831 0.0
1.965838 1.457917 0.002969 0.0
2.802180 0.823125 0.001661 0.0
0.152667 1.586104 0.002166 0.0
1.712419 0.344802 -0.001378 0.0
4.079225 0.618763 -0.003009 0.0
3.073068 0.054277 -0.002997 0.0
1.245107 1.242463 -0.004219 0.0
2.585787 1.269990 0.001907 0.0
2.888355 0.582669 -0.002749 0.0
2.900302 0.253736 0.001132 0.0
3.752847 0.582666 0.001186 0.0
0.954225 0.073660 -0.004506 0.0
0.474342 1.149286 0.000868 0.0
1.854623 0.328322 -0.004412 0.0
3.304252 0.770006 -0.003291 0.0
2.338226 0.731002 0.000763 0.0
1.880518 0.511474 0.002292 0.0
3.408373 0.673943 0.003370 0.0
3.589416 0.694470 0.004888 0.0
1.068321 1.232621 0.001724 0.0
2.809882 0.240209 0.001990 0.0
1.872127 1.415475 0.001757 0.0
1.320108 0.761800 0.001606 0.0
1.368940 1.312435 -0.002787 0.0
4.082661 0.146117 -0.005302 0.0
0.449781 1.560335 -0.004142 0.0
3.322330 0.622334 0.005656 0.0
3.877662 0.008729 0.000242 0.0
2.270909 0.445277 0.002346 0.0
0.068893 1.208899 -0.002826 0.0
0.726291 1.393760 -0.007248 0.0
