3.41206831 0.80330160 -0.00092487 0.00000000
0.29564015 0.45446711 -0.00187729 0.00000000
2.99696309 1.90787315 0.00175696 0.00000000
3.90913983 0.83845331 -0.00279936 0.00000000
0.54260565 0.21043385 -0.00025054 0.00000000
4.12504723 0.22828612 0.00033675 0.00000000
0.40697276 0.81053111 -0.00105680 0.00000000
2.50986512 1.81968426 0.00219479 0.00000000
0.34541722 1.46151765 0.00000620 0.00000000
1.35387046 1.28724776 -0.00293725 0.00000000
2.16672685 1.65161561 -0.00149302 0.00000000
0.75945371 0.98501632 -0.00153703 0.00000000
1.10191366 1.82242258 0.00192646 0.00000000
2.34908560 0.59823767 -0.00071624 0.00000000
0.93908466 1.21358799 0.00221568 0.00000000
3.92571445 1.62148320 -0.00048275 0.00000000
1.47905766 0.52833533 -0.00026247 0.00000000
0.88723198 1.04823102 -0.00095140 0.00000000
4.18255410 1.18876390 -0.00129839 0.00000000
2.46353470 1.26028558 0.00001505 0.00000000
2.21161269 1.44788422 -0.00163758 0.00000000
3.28852914 2.17102893 0.00303406 0.00000000
2.72257522 1.40221589 -0.00158171 0.00000000
1.34765912 0.12084527 0.00252171 0.00000000
1.80624370 0.47849223 0.00117376 0.00000000
3.65844738 0.79690507 -0.00269426 0.00000000
2.11065799 0.27143593 0.00044386 0.00000000
3.57841123 1.01456528 -0.00160732 0.00000000
1.00286598 1.54268986 0.00363323 0.00000000
3.98948402 1.99615700 -0.00078159 0.00000000
2.96929482 0.89254520 -0.00377704 0.00000000
1.80498344 0.95810178 0.00027761 0.00000000
1.29065904 0.33899285 0.00020167 0.00000000
4.22458007 0.19436693 -0.00184380 0.00000000
3.59103698 0.91348273 0.00185098 0.00000000
3.92652142 0.54049019 -0.00378379 0.00000000
0.78676659 1.40957559 -0.00123494 0.00000000
3.55654747 0.42230740 -0.00111018 0.00000000
0.51431693 0.87586467 0.00140665 0.00000000
2.40777900 1.13106553 0.00430913 0.00000000
2.56498399 0.40219207 0.00394742 0.00000000
2.52378366 0.82511567 -0.00340050 0.00000000
0.28910364 1.59321547 0.00165934 0.00000000
0.06043193 0.49536031 -0.00195473 0.00000000
1.13415520 0.68679641 0.00050664 0.00000000
0.95335837 1.55962402 -0.00260985 0.00000000
2.64606976 0.94027395 0.00209720 0.00000000
4.09885752 1.46122661 0.00020714 0.00000000
0.43287601 0.36809951 0.00132920 0.00000000
0.96377862 0.53423787 0.00423423 0.00000000
2.81836182 0.55293812 -0.00137099 0.00000000
4.02817363 1.96075666 -0.00332319 0.00000000
2.22501677 1.54277049 0.00264053 0.00000000
3.85766375 0.59218599 0.00061846 0.00000000
1.35915928 0.78630584 0.00069655 0.00000000
3.75545298 0.53845748 -0.00029076 0.00000000
0.26319678 0.62322218 -0.00195694 0.00000000
1.93618088 0.04004416 0.00334185 0.00000000
1.72211134 0.38431551 0.00136549 0.00000000
0.03470719 0.61926482 0.00296730 0.00000000
2.34958809 1.33361722 -0.00038175 0.00000000
1.45825373 2.07911707 -0.00097223 0.00000000
3.52630732 0.56973599 0.00235926 0.00000000
2.30240784 1.17661389 -0.00122410 0.00000000
0.19659504 1.34861568 0.00123504 0.00000000
2.39614654 1.57365151 0.00079649 0.00000000
3.16089474 0.71355198 0.00104353 0.00000000
1.89571536 1.52171574 -0.00105839 0.00000000
2.43383074 0.36977167 -0.00406792 0.00000000
1.20012299 1.35142147 -0.00136119 0.00000000
0.03222367 1.08104231 -0.00298499 0.00000000
0.43148149 1.44788866 -0.00467300 0.00000000
1.68857169 0.80872626 0.00060011 0.00000000
0.82419593 0.30306563 0.00142268 0.00000000
2.37408442 0.96926368 -0.00063509 0.00000000
3.70330085 0.54894847 -0.00184194 0.00000000
1.89677762 0.67416224 0.00280503 0.00000000
0.96491363 0.08410555 0.00394414 0.00000000
2.44955438 1.69196651 0.00489486 0.00000000
2.66039401 2.08749120 -0.00175117 0.00000000
3.06906814 0.64622178 0.00175064 0.00000000
2.32767862 1.09293946 -0.00089317 0.00000000
2.43977090 1.08112846 -0.00409642 0.00000000
0.26145154 0.11445638 0.00290732 0.00000000
3.05445241 0.41564111 -0.00163658 0.00000000
2.82548656 0.90924359 -0.00238072 0.00000000
2.90278432 0.42993679 0.00195942 0.00000000
2.34733629 1.08224614 0.00006054 0.00000000
0.75241770 0.69746107 0.00066530 0.00000000
0.90696802 2.08818018 0.00187141 0.00000000
1.23504505 0.58220746 0.00156236 0.00000000
1.29152048 1.36684311 -0.00389818 0.00000000
3.66113668 0.44863013 0.00274801 0.00000000
1.00471485 0.91234125 -0.00340257 0.00000000
0.82133900 0.23327206 -0.00159326 0.00000000
1.71202700 1.13032913 0.00512079 0.00000000
0.00900252 1.01696903 0.00417469 0.00000000
1.80051468 1.79637873 0.00030856 0.00000000
2.13451004 0.92081829 0.00184336 0.00000000
0.73469063 0.60603007 -0.00054875 0.00000000
3.78177702 0.85147354 -0.00032357 0.00000000
3.27215565 1.25498157 0.00140733 0.00000000
1.89086856 1.78072402 -0.00079918 0.00000000
0.45476303 0.73942323 0.00490286 0.00000000
1.07969335 0.25571083 0.00481685 0.00000000
0.95396347 1.76920453 0.00121503 0.00000000
3.42473095 1.81862645 -0.00124240 0.00000000
0.34672643 1.86416905 -0.00036097 0.00000000
2.05218620 1.19143122 0.00213696 0.00000000
2.43277920 1.95424883 0.00108573 0.00000000
2.72278944 1.77724274 0.00138972 0.00000000
2.54279691 1.69238917 -0.00140083 0.00000000
1.63856479 1.24436513 0.00150274 0.00000000
0.90863888 0.65021553 -0.00044748 0.00000000
3.02589885 2.15533003 -0.00097644 0.00000000
2.01880848 1.63118137 -0.00309393 0.00000000
2.79636025 2.10972277 0.00033444 0.00000000
3.88814083 0.26973830 -0.00365337 0.00000000
0.46895284 0.39028849 0.00074256 0.00000000
1.62983246 1.84171713 -0.00080428 0.00000000
3.12572873 0.05027262 0.00464801 0.00000000
4.47116758 1.50721699 0.00134623 0.00000000
0.89845044 1.57017398 0.00133245 0.00000000
3.11527003 0.46897772 -0.00116699 0.00000000
3.07946282 0.65622881 -0.00080892 0.00000000
1.46340956 0.71996836 0.00281722 0.00000000
2.34119778 1.54174836 -0.00187481 0.00000000
3.78331705 0.18645966 -0.00100640 0.00000000
1.88556729 0.65974746 -0.00072363 0.00000000
2.17030604 0.15159121 -0.00250167 0.00000000
1.56914487 0.43851720 0.00563079 0.00000000
4.02984705 1.99767640 -0.00178862 0.00000000
2.79720593 1.43432554 0.00195622 0.00000000
3.07230528 1.05340724 -0.00083580 0.00000000
2.45103893 1.93688215 0.00225542 0.00000000
3.04573837 1.23226509 0.00070640 0.00000000
3.36321675 1.30754058 0.00495754 0.00000000
2.12410816 1.92779990 0.00071930 0.00000000
0.74840770 0.44913337 0.00055548 0.00000000
3.52071165 0.77084304 -0.00370381 0.00000000
3.69298504 1.67320864 -0.00237442 0.00000000
2.45792526 1.89835564 0.00119686 0.00000000
3.19553167 1.80911050 0.00127280 0.00000000
4.13530930 0.71821666 -0.00319345 0.00000000
2.80893428 0.85875909 -0.00069745 0.00000000
3.38247768 1.86178865 0.00149038 0.00000000
0.41316825 0.51843619 -0.00068678 0.00000000
4.07737610 0.10023016 0.00382808 0.00000000
3.43207158 0.95311504 0.00204617 0.00000000
1.63159560 1.00082696 -0.00043640 0.00000000
2.71147847 1.21744891 0.00270799 0.00000000
3.39393459 0.93139716 -0.00160698 0.00000000
4.34544613 1.50223491 0.00029801 0.00000000
2.22952096 1.13275885 -0.00050648 0.00000000
0.12194365 0.39378922 -0.00052749 0.00000000
0.01115987 1.73709013 -0.00025896 0.00000000
3.22327738 0.37602573 0.00195859 0.00000000
3.86601265 1.74515221 0.00244476 0.00000000
0.47767492 0.64696747 0.00064256 0.00000000
1.07460699 0.40111011 -0.00281628 0.00000000
3.28694284 0.83107165 -0.00177644 0.00000000
4.33174791 1.45487217 -0.00408585 0.00000000
1.76657200 2.03425673 0.00281595 0.00000000
4.13147518 0.08686479 0.00084513 0.00000000
0.99645591 0.81875689 -0.00239982 0.00000000
1.54171631 1.24924019 -0.00072205 0.00000000
1.99166428 0.91595922 0.00084702 0.00000000
2.12796076 0.78858851 -0.00296617 0.00000000
3.00399950 0.67204290 0.00066690 0.00000000
2.49617590 0.10222680 -0.00137951 0.00000000
1.18165656 1.26806194 -0.00446266 0.00000000
1.53369175 1.70152288 -0.00205089 0.00000000
0.09714181 0.91295823 -0.00156651 0.00000000
0.21750124 0.52730512 -0.00773749 0.00000000
4.40846344 2.06380750 -0.00123954 0.00000000
0.38517403 1.86959440 -0.00144856 0.00000000
3.08679762 0.12566275 0.00232556 0.00000000
4.07708589 1.79641816 -0.00265686 0.00000000
0.55441620 0.28697958 -0.00097947 0.00000000
1.69995490 1.92606056 -0.00356608 0.00000000
2.14515325 1.23187034 -0.00266206 0.00000000
0.39323380 0.78516442 -0.00211195 0.00000000
1.78180626 0.74920660 0.00377186 0.00000000
3.77498831 0.35320730 -0.00440396 0.00000000
2.99939331 1.74391862 -0.00091750 0.00000000
4.37722773 0.96107159 -0.00124847 0.00000000
4.18877095 1.89656878 -0.00051185 0.00000000
2.37668948 1.54578801 -0.00265886 0.00000000
2.87182152 1.26029779 -0.00062613 0.00000000
0.54562944 0.44329791 -0.00172760 0.00000000
2.97430728 1.41215104 0.00168966 0.00000000
4.44355037 1.94299751 0.00055068 0.00000000
2.95084815 0.11756599 0.00072857 0.00000000
1.64100847 1.52030243 0.00238282 0.00000000
3.99960545 0.82216920 0.00217675 0.00000000
3.29966845 1.75780883 -0.00397837 0.00000000
0.75671137 1.06615065 0.00072143 0.00000000
3.31568025 0.52665163 -0.00129524 0.00000000
2.25392264 0.40975795 -0.00066139 0.00000000
0.67842314 0.53359347 -0.00144497 0.00000000
0.35676849 1.19416704 0.00028706 0.00000000
2.67572066 0.71248798 0.00038761 0.00000000
1.39501960 1.48152169 0.00429338 0.00000000
1.82008222 0.85932907 0.00092411 0.00000000
4.01951498 0.80026051 0.00260605 0.00000000
1.47246859 2.07655010 0.00080250 0.00000000
1.06404724 0.81920774 -0.00023652 0.00000000
1.40127957 1.63474311 -0.00085112 0.00000000
0.46023903 0.21223915 -0.00018672 0.00000000
4.07882653 0.92703380 0.00167091 0.00000000
0.14822244 1.09057846 0.00036260 0.00000000
0.98255081 1.80594830 -0.00282276 0.00000000
0.32905910 1.50856412 -0.00184281 0.00000000
0.89016829 0.41115281 -0.00071471 0.00000000
0.97752521 0.34221977 -0.00145691 0.00000000
1.95565724 1.04787131 -0.00120555 0.00000000
0.98620766 0.60549175 0.00140491 0.00000000
0.81191745 1.63367396 0.00287657 0.00000000
3.56569287 1.92650104 -0.00114470 0.00000000
1.86034554 0.35976396 -0.00431744 0.00000000
2.75365331 1.52785765 -0.00116280 0.00000000
2.29520039 0.10397339 0.00184218 0.00000000
1.67338044 0.49359095 0.00207739 0.00000000
3.39166516 0.73419393 -0.00213967 0.00000000
0.27201363 1.96436500 0.00138235 0.00000000
0.40524631 1.64617117 0.00436853 0.00000000
2.26527986 0.76493148 -0.00010080 0.00000000
3.03551869 0.77326505 -0.00069433 0.00000000
2.49540105 1.54712521 0.00246342 0.00000000
0.59510022 0.48582949 0.00194997 0.00000000
4.36736236 1.24941206 -0.00210772 0.00000000
3.05072046 0.66839745 -0.00125432 0.00000000
1.20765621 2.18191706 0.00006151 0.00000000
2.15163315 1.25076706 0.00145047 0.00000000
1.75894729 0.50336722 -0.00077616 0.00000000
0.73841699 0.65363159 -0.00245707 0.00000000
1.29515727 1.35085374 -0.00255396 0.00000000
2.54627971 1.75145443 0.00041199 0.00000000
4.31192886 0.31156499 -0.00019812 0.00000000
2.04996547 0.24664937 -0.00399273 0.00000000
0.32157439 1.65097478 0.00284812 0.00000000
0.53380208 0.43105545 -0.00364487 0.00000000
1.26726987 1.93641863 -0.00077987 0.00000000
3.77990101 1.02541324 -0.00532536 0.00000000
3.27381802 0.68376109 0.00889925 0.00000000
0.18308352 1.17653515 0.00115206 0.00000000
0.28269025 1.24236471 0.00072299 0.00000000
0.22881075 1.35077110 -0.00054907 0.00000000
3.81231803 0.00483427 -0.00016621 0.00000000
2.47702722 0.44614072 -0.00281666 0.00000000
3.88975921 1.49465368 -0.00209328 0.00000000
0.35038338 1.54955640 -0.00070342 0.00000000
0.75049239 2.02784423 0.00185477 0.00000000
0.45949157 0.86870753 0.00118482 0.00000000
4.19732050 0.29943840 -0.00408685 0.00000000
4.15204608 0.26770263 0.00181530 0.00000000
4.37224857 0.25070742 -0.00129325 0.00000000
4.11865471 2.01918316 -0.00005286 0.00000000
3.86309015 1.19244895 -0.00009833 0.00000000
0.32916668 1.00578563 -0.00091095 0.00000000
0.75652848 0.28900535 0.00238635 0.00000000
0.09102403 0.81198386 -0.00139269 0.00000000
0.20765309 0.76410108 0.00259522 0.00000000
2.44897722 0.82681344 -0.00069057 0.00000000
1.13104775 1.49136111 0.00024906 0.00000000
1.73891172 2.07221926 -0.00428724 0.00000000
3.94447053 2.06907271 -0.00193571 0.00000000
4.26475810 1.56012102 -0.00463051 0.00000000
3.03572122 1.97730612 0.00346712 0.00000000
1.07363062 1.53010909 0.00295192 0.00000000
1.47715224 0.40838987 0.00116039 0.00000000
3.81470654 1.21280325 0.00431266 0.00000000
3.46066292 0.07611682 0.00322932 0.00000000
0.96095736 1.25001995 -0.00100897 0.00000000
0.67957512 0.54911379 0.00282426 0.00000000
0.70634889 0.62465161 0.00000599 0.00000000
0.64523368 1.96697844 -0.00519209 0.00000000
4.27743389 0.69144710 0.00295129 0.00000000
3.69123776 0.98528270 0.00154144 0.00000000
2.41624624 0.56121833 0.00482069 0.00000000
0.15553413 1.15960457 0.00276456 0.00000000
0.60860521 0.86336830 0.00446007 0.00000000
2.81857963 1.06370900 -0.00648220 0.00000000
1.02416164 0.28003323 0.00165179 0.00000000
1.93716769 0.89874674 0.00188999 0.00000000
3.65263257 1.96619947 -0.00040354 0.00000000
0.94922276 2.08918125 0.00301197 0.00000000
1.92252427 0.45517935 0.00119176 0.00000000
1.52663136 1.50488921 -0.00154551 0.00000000
2.27682073 1.82687947 0.00072158 0.00000000
1.24543275 0.88238433 -0.00287196 0.00000000
0.17639654 1.40664339 -0.00169800 0.00000000
2.01020342 0.73583196 0.00289855 0.00000000
1.49683505 0.13224312 -0.00319446 0.00000000
1.25367654 0.18104934 0.00527464 0.00000000
0.59814086 0.23622658 0.00219411 0.00000000
1.08021326 0.25795509 0.00012534 0.00000000
4.31367645 1.80539102 0.00176937 0.00000000
3.91602741 2.16721198 0.00021579 0.00000000
1.05864381 1.54334315 0.00030044 0.00000000
1.37185941 0.43255819 -0.00145227 0.00000000
0.64293386 1.84716269 0.00255331 0.00000000
2.08654912 1.85562993 -0.00451334 0.00000000
4.26900314 1.30041670 -0.00163055 0.00000000
1.26154276 1.53360628 -0.00078909 0.00000000
3.39209826 0.98326695 0.00054527 0.00000000
4.16300120 0.20814481 -0.00027246 0.00000000
0.91260603 0.35921797 0.00256036 0.00000000
2.26938666 0.81148117 0.00055383 0.00000000
0.70436990 1.85687359 -0.00012871 0.00000000
1.38481801 1.26062395 0.00347327 0.00000000
3.74550936 1.04018573 -0.00346507 0.00000000
4.36016589 1.37127868 -0.00011802 0.00000000
2.60770936 0.19268341 -0.00470983 0.00000000
3.39925345 0.62110508 -0.00216652 0.00000000
0.26158169 0.99052691 0.00015537 0.00000000
2.11326491 1.05386383 -0.00232844 0.00000000
3.36709390 0.84550313 0.00041185 0.00000000
2.87601367 1.90652080 -0.00004667 0.00000000
2.62818693 1.69244331 0.00104661 0.00000000
3.18286843 1.85545725 0.00261563 0.00000000
2.14142689 1.14033275 -0.00401212 0.00000000
1.68844407 1.56821290 0.00219949 0.00000000
4.28458787 0.01277209 0.00119452 0.00000000
3.83833233 0.73151602 0.00052846 0.00000000
4.25055503 1.91895104 -0.00819786 0.00000000
2.20302471 0.21119546 0.00034129 0.00000000
2.78676931 0.51387428 -0.00132147 0.00000000
2.84692255 1.58034352 -0.00541169 0.00000000
3.48710996 0.13887964 -0.00079472 0.00000000
2.76878888 0.73867956 -0.00072632 0.00000000
1.80730565 1.55808746 -0.00013603 0.00000000
3.65964625 0.96971012 0.00199313 0.00000000
3.15809519 1.82357733 0.00031919 0.00000000
2.98388421 0.13990739 -0.00142861 0.00000000
2.66314752 1.43937752 0.00143795 0.00000000
3.11915586 0.45888884 0.00149327 0.00000000
0.76250490 0.01396646 0.00034960 0.00000000
1.04966446 1.24478015 0.00063492 0.00000000
0.35283016 0.62938568 0.00423134 0.00000000
2.56426966 0.81581517 0.00618146 0.00000000
1.08718199 1.83309259 0.00520588 0.00000000
2.20600740 0.31996987 -0.00146339 0.00000000
4.12652234 2.12422027 0.00168785 0.00000000
0.21239717 1.30299529 -0.00103834 0.00000000
3.51786394 0.40633913 0.00240071 0.00000000
0.39205013 0.10627062 0.00018933 0.00000000
2.51967959 0.27385948 0.00214059 0.00000000
1.37913490 0.94354997 -0.00383471 0.00000000
0.18900651 1.18050234 0.00175098 0.00000000
4.12447569 0.33520479 -0.00109988 0.00000000
4.28463807 1.91081320 -0.00235777 0.00000000
3.63899162 2.09973212 0.00279272 0.00000000
0.51314025 1.07302317 -0.00102910 0.00000000
1.70886103 0.95399436 0.00308400 0.00000000
1.78894482 0.57638828 0.00380014 0.00000000
0.05597240 0.78634092 0.00224537 0.00000000
2.93250579 1.58245220 0.00598673 0.00000000
3.21606354 0.28980849 0.00013224 0.00000000
3.09187951 2.17144886 -0.00019104 0.00000000
1.45385981 1.75713958 0.00084842 0.00000000
4.16726401 0.03173008 -0.00240847 0.00000000
2.21065863 1.02818814 -0.00386746 0.00000000
3.69599708 0.63736948 0.00057129 0.00000000
3.17893582 1.76224839 -0.00076233 0.00000000
1.92391817 1.54895552 -0.00007791 0.00000000
2.75809907 0.45727217 -0.00175972 0.00000000
2.85168442 0.02232780 -0.00349836 0.00000000
0.04587985 0.82321951 -0.00108766 0.00000000
3.67875706 0.40197546 0.00103166 0.00000000
0.43189084 0.53128809 0.00547244 0.00000000
3.34827695 0.65231267 -0.00026509 0.00000000
0.90122067 1.93769429 0.00096250 0.00000000
4.47101740 2.13945480 -0.00154123 0.00000000
2.54731589 0.79841791 -0.00317754 0.00000000
3.10091904 1.75785408 0.00347780 0.00000000
4.36029463 1.76389282 -0.00164161 0.00000000
0.78211852 0.31526441 0.00231110 0.00000000
2.80143794 2.16916880 0.00006617 0.00000000
3.24588421 1.89045420 -0.00105063 0.00000000
0.38875020 1.05298024 -0.00427831 0.00000000
2.36317439 1.90011766 -0.00072811 0.00000000
0.09875352 1.18882860 0.00104761 0.00000000
3.63365922 1.38344972 0.00070106 0.00000000
4.35880369 0.64781903 -0.00062210 0.00000000
1.23523239 1.12455356 0.00422746 0.00000000
3.12628870 2.07603792 0.00083730 0.00000000
0.99022159 1.56083744 0.00073909 0.00000000
2.72815910 1.83823987 0.00009889 0.00000000
3.52247448 0.95869486 -0.00167836 0.00000000
3.82927752 1.21064381 0.00040149 0.00000000
1.13596120 1.59042898 -0.00184076 0.00000000
0.33986381 1.99986502 0.00046927 0.00000000
2.40904899 0.90138157 -0.00357571 0.00000000
3.84957988 1.34835239 -0.00163884 0.00000000
2.03688018 0.36387521 -0.00182113 0.00000000
0.25195922 1.87474876 -0.00269492 0.00000000
0.71934411 1.10925745 -0.00410484 0.00000000
2.34477482 1.29233183 0.00346504 0.00000000
3.24906353 0.79207747 -0.00160227 0.00000000
2.34514021 0.69978319 0.00048138 0.00000000
3.58501293 0.40748137 -0.00214052 0.00000000
3.16027212 1.81367794 -0.00071353 0.00000000
2.70415177 1.12538972 0.00081338 0.00000000
3.18650523 0.50862018 0.00635736 0.00000000
3.05755217 0.39661983 0.00282512 0.00000000
0.89061941 1.64713130 0.00128061 0.00000000
4.05711976 0.47923916 0.00200916 0.00000000
2.06570522 0.39699888 0.00308971 0.00000000
2.38424528 0.38295215 -0.00194061 0.00000000
0.94839866 0.82904680 0.00190527 0.00000000
3.83228358 0.38133470 -0.00448934 0.00000000
0.29974401 1.81526008 0.00335282 0.00000000
2.45363573 1.70917925 -0.00258437 0.00000000
3.57593432 0.08059238 0.00175772 0.00000000
0.93512624 1.52974875 0.00112375 0.00000000
0.95981939 1.53000484 0.00533863 0.00000000
3.73895320 1.52218447 0.00159687 0.00000000
4.41228475 1.78054809 -0.00119466 0.00000000
3.49364711 1.04832608 0.00151975 0.00000000
1.52135178 2.05843164 0.00432432 0.00000000
1.85644367 1.57883770 -0.00081010 0.00000000
0.38257801 0.29087048 0.00201259 0.00000000
0.04084452 1.46311090 0.00021926 0.00000000
2.85338096 0.47095201 0.00034052 0.00000000
0.02503705 0.71883698 0.00045745 0.00000000
1.81900043 1.00788284 -0.00031739 0.00000000
0.24462267 1.10611044 0.00168514 0.00000000
3.47914619 1.42187911 -0.00252139 0.00000000
3.36384970 0.91147033 -0.00016869 0.00000000
4.13647826 0.98531870 -0.00193408 0.00000000
2.13332690 0.58542420 -0.00148408 0.00000000
1.21338822 0.17061493 -0.00294322 0.00000000
2.98613952 0.96260199 0.00250855 0.00000000
2.70001685 2.04080367 0.00045848 0.00000000
1.54256226 1.87400351 0.00342420 0.00000000
3.52884157 1.84360606 0.00323581 0.00000000
4.10207023 0.77590576 -0.00123564 0.00000000
0.19740755 2.16574367 0.00110545 0.00000000
0.33727246 1.39600522 0.00168383 0.00000000
2.70367170 0.33810123 0.00075153 0.00000000
0.88555524 0.38694974 -0.00516680 0.00000000
0.13605851 1.90411455 -0.00059034 0.00000000
3.11274979 0.51743947 0.00226410 0.00000000
2.65161381 0.76598709 -0.00080993 0.00000000
1.87921912 1.62214751 -0.00042246 0.00000000
3.17542931 1.81471867 -0.00172534 0.00000000
2.72147086 1.22927959 0.00229904 0.00000000
4.32766333 1.61876647 0.00092171 0.00000000
3.96090157 2.10092623 0.00058659 0.00000000
4.18183616 0.07902398 -0.00112036 0.00000000
3.48048047 1.01567018 -0.00235852 0.00000000
0.98395761 1.72320877 0.00246995 0.00000000
3.47156334 0.84323909 -0.00201293 0.00000000
3.83621089 1.30630066 0.00086059 0.00000000
3.39880914 1.09016989 0.00048541 0.00000000
1.50744240 0.45192506 -0.00230040 0.00000000
0.15977192 0.07449340 -0.00590311 0.00000000
3.25722544 0.88675836 0.00205856 0.00000000
1.84127376 0.97122212 0.00162803 0.00000000
3.92647050 1.75412340 0.00201565 0.00000000
2.63294782 1.40963579 0.00426759 0.00000000
2.96200110 0.38881533 -0.00485213 0.00000000
0.27736521 1.76159270 -0.00081275 0.00000000
3.67387122 2.10120307 -0.00351036 0.00000000
1.94864778 0.54465002 0.00210217 0.00000000
0.78769710 0.70704553 0.00213590 0.00000000
2.01989729 1.07726736 0.00060692 0.00000000
2.10633124 1.54707572 -0.00245711 0.00000000
0.66086607 0.44244286 -0.00173373 0.00000000
0.07235989 0.95235896 0.00209791 0.00000000
0.22571482 0.55751809 -0.00588066 0.00000000
2.14160089 0.08221495 -0.00511828 0.00000000
3.39198487 0.46353067 0.00329606 0.00000000
3.57848971 1.80209222 -0.00001258 0.00000000
2.82637281 1.48122639 0.00181020 0.00000000
4.09662072 1.41096513 -0.00079440 0.00000000
3.14226820 0.00556807 0.00088095 0.00000000
4.05868826 1.07612082 -0.00043743 0.00000000
0.56594505 0.21990958 0.00248245 0.00000000
4.05439567 0.87449917 0.00354856 0.00000000
0.07742525 0.55295677 0.00453477 0.00000000
0.71441057 1.32719835 0.00066265 0.00000000
0.52729481 0.95068370 -0.00181883 0.00000000
4.12816869 0.92004942 0.00195547 0.00000000
3.74835452 2.05452406 0.00356661 0.00000000
4.28135405 2.13532915 -0.00091195 0.00000000
2.28383283 0.85324417 0.00032872 0.00000000
4.12606128 2.17045766 -0.00068534 0.00000000
4.28901849 1.66537678 -0.00220155 0.00000000
1.54496589 0.69470254 -0.00118338 0.00000000
0.77697687 1.76063106 -0.00181461 0.00000000
3.25376141 0.73318038 0.00476011 0.00000000
2.85118953 0.14480259 0.00192886 0.00000000
3.74843789 0.48737018 0.00051135 0.00000000
3.36025737 0.45700805 0.00250357 0.00000000
3.42165007 1.99970682 -0.00088988 0.00000000
1.99007459 1.62214745 0.00560244 0.00000000
4.38247171 0.57291567 -0.00408259 0.00000000
0.82380322 2.10082775 -0.00106682 0.00000000
0.26131550 1.15613413 -0.00444473 0.00000000
0.40502570 0.15632433 -0.00206885 0.00000000
3.42253123 1.49387840 0.00580390 0.00000000
0.95206042 0.91723484 -0.00119059 0.00000000
1.06523333 1.22930830 -0.00712382 0.00000000
0.42360810 0.75588672 -0.00033897 0.00000000
0.24117954 1.10558043 0.00125823 0.00000000
0.11569486 1.25822613 0.00158442 0.00000000
1.64303860 1.03768858 0.00419539 0.00000000
2.48962850 0.61259877 -0.00280740 0.00000000
0.34581968 1.11687164 -0.00361553 0.00000000
1.84252233 1.26364141 0.00231647 0.00000000
3.45088245 1.40103772 0.00297444 0.00000000
0.74102561 0.21346026 -0.00180358 0.00000000
1.54083944 1.56765638 0.00120084 0.00000000
3.64256100 1.84504666 0.00057754 0.00000000
1.54696632 1.64012633 0.00270472 0.00000000
1.33725859 2.04685069 -0.00349650 0.00000000
1.79185591 0.92259813 0.00136741 0.00000000
3.10303412 2.02780963 -0.00092185 0.00000000
1.67226057 1.66160274 0.00092471 0.00000000
2.83061683 0.26719466 0.00196197 0.00000000
2.93017173 1.16960430 -0.00029122 0.00000000
3.15766491 0.48618506 -0.00174829 0.00000000
0.44745968 1.07100541 0.00146996 0.00000000
4.28396889 1.37539610 0.00169692 0.00000000
2.78962573 2.09469244 -0.00324533 0.00000000
2.03931291 1.80436538 0.00155864 0.00000000
0.95509000 1.12526986 0.00132778 0.00000000
2.18849243 1.28418457 0.00114012 0.00000000
0.66563258 1.08332805 0.00141718 0.00000000
1.66749591 0.87345206 0.00301518 0.00000000
1.34960348 0.97980399 0.00439558 0.00000000
2.28054039 0.58081430 0.00079494 0.00000000
1.86449028 1.04732468 0.00218816 0.00000000
3.93906564 1.25202266 -0.00226250 0.00000000
2.59191278 0.46478178 -0.00055688 0.00000000
3.73722150 1.95937901 -0.00189609 0.00000000
0.60782956 2.13670053 -0.00332818 0.00000000
2.70783511 0.73827066 -0.00302506 0.00000000
4.37204951 0.31147820 0.00152657 0.00000000
1.50221814 0.86252435 -0.00079289 0.00000000
0.96035914 1.28734479 -0.00185348 0.00000000
0.15065892 1.59145568 0.00016157 0.00000000
1.34108928 0.92564452 0.00238292 0.00000000
3.74320044 2.14199372 -0.00034352 0.00000000
1.30612856 0.74601178 -0.00376517 0.00000000
0.05935396 1.16136653 0.00443921 0.00000000
3.83349809 1.58769677 0.00454066 0.00000000
4.46990728 1.52757768 -0.00116508 0.00000000
2.70891496 1.54575174 -0.00032164 0.00000000
0.77405946 1.85088399 -0.00152396 0.00000000
0.97536718 1.11937504 -0.00067719 0.00000000
2.66122895 1.82040395 0.00471034 0.00000000
3.52088384 1.30719870 -0.00532136 0.00000000
3.30818214 2.03233565 -0.00005137 0.00000000
2.36656563 1.18705911 -0.00092812 0.00000000
1.39492771 0.43910878 0.00344235 0.00000000
2.01923282 1.18446786 -0.00135286 0.00000000
4.37430651 0.85528827 0.00080113 0.00000000
0.50326973 1.28787081 0.00257496 0.00000000
3.02249096 0.58607001 0.00595575 0.00000000
3.70434011 0.16201003 -0.00153569 0.00000000
0.67484542 1.47028485 0.00151564 0.00000000
1.78786904 0.11129532 -0.00174994 0.00000000
1.27188513 0.33927247 0.00081681 0.00000000
3.79392303 0.46167877 -0.00379381 0.00000000
1.67470260 0.47947061 0.00132336 0.00000000
0.85054215 2.12994203 0.00253268 0.00000000
1.39412535 0.65294873 -0.00381077 0.00000000
3.24537872 1.86694597 -0.00133987 0.00000000
1.08757688 0.49182315 0.00368313 0.00000000
3.41169221 1.13637206 0.00103357 0.00000000
3.83866590 0.30010561 0.00399732 0.00000000
2.51905137 0.99281487 0.00164963 0.00000000
1.82052046 0.08923748 0.00165328 0.00000000
2.50694925 0.97481183 0.00543720 0.00000000
2.71852478 2.10167320 0.00225384 0.00000000
2.29933869 0.71939691 -0.00261796 0.00000000
0.21353866 1.27047514 -0.00212366 0.00000000
1.84258362 2.04458208 0.00036868 0.00000000
4.13749795 1.04826864 -0.00233561 0.00000000
0.81118202 0.53202205 -0.00381339 0.00000000
1.04327531 1.90083541 0.00127851 0.00000000
4.22519346 1.42014514 0.00247021 0.00000000
0.11292503 2.15066349 0.00373693 0.00000000
3.28414261 1.77120312 0.00144309 0.00000000
1.13376773 0.85082923 0.00423943 0.00000000
3.41904569 0.78707578 0.00072551 0.00000000
1.01561952 1.58344620 0.00181920 0.00000000
3.77430997 0.59375474 -0.00018283 0.00000000
3.83038597 1.95891126 -0.00083620 0.00000000
1.89269154 0.34097548 -0.00114692 0.00000000
4.33344504 0.54426704 -0.00576186 0.00000000
1.52903139 0.36865143 0.00126229 0.00000000
1.44483149 1.61709837 -0.00051073 0.00000000
3.83885755 1.81793503 0.00072794 0.00000000
4.46337946 2.16806945 -0.00337411 0.00000000
3.99827062 1.90893097 0.00028841 0.00000000
4.13038377 2.07713409 0.00400293 0.00000000
3.09698244 0.99363210 0.00047016 0.00000000
4.33028198 2.05169829 -0.00408207 0.00000000
0.56144596 0.89533122 0.00349600 0.00000000
0.00320644 1.21653366 -0.00004611 0.00000000
3.22248271 0.56582747 0.00151434 0.00000000
0.84431558 0.27445874 -0.00129842 0.00000000
4.39057305 1.72075332 0.00142759 0.00000000
0.19010987 0.18975247 0.00046885 0.00000000
1.36110982 0.56907710 0.00634432 0.00000000
2.08115436 0.12051365 -0.00239588 0.00000000
3.24921754 0.26528574 -0.00136808 0.00000000
1.52539829 0.87877996 -0.00108353 0.00000000
0.64499276 1.78863306 0.00152755 0.00000000
3.29043255 0.01418691 -0.00146619 0.00000000
1.50499280 2.16264085 0.00260371 0.00000000
0.82000565 1.77245161 -0.00160004 0.00000000
3.74707471 0.22175238 0.00594122 0.00000000
2.79160613 0.06450403 -0.00095789 0.00000000
2.31213699 0.61185861 -0.00354533 0.00000000
4.28062747 1.47332865 -0.00114655 0.00000000
2.59683217 0.65273079 -0.00077735 0.00000000
2.32453208 0.42406234 -0.00167134 0.00000000
1.23289126 0.09871511 -0.00138503 0.00000000
1.25951351 0.70356084 0.00559913 0.00000000
3.97586208 0.96244794 0.00255968 0.00000000
1.15406763 1.19159700 0.00015445 0.00000000
2.59292747 0.34700026 -0.00471655 0.00000000
1.31560738 0.29143576 -0.00064937 0.00000000
4.41677060 1.12717735 0.00022038 0.00000000
2.86855449 1.37878049 -0.00038062 0.00000000
1.61812577 0.01852627 0.00280884 0.00000000
0.89803415 0.32189984 0.00208413 0.00000000
0.62502681 1.50698487 0.00115934 0.00000000
1.66153990 1.88466070 -0.00200722 0.00000000
0.38853672 0.85965764 -0.00026017 0.00000000
2.25489668 0.16411947 0.00001941 0.00000000
4.05089079 1.97670273 0.00043627 0.00000000
2.63342764 2.13994151 0.00386685 0.00000000
4.28576981 0.57894311 0.00449623 0.00000000
2.49937108 0.76614824 -0.00119112 0.00000000
1.01661166 1.76431220 -0.00202940 0.00000000
3.26391179 0.75344665 -0.00436210 0.00000000
3.67437059 0.09145901 -0.00121471 0.00000000
3.76857947 2.04060459 -0.00009826 0.00000000
0.15937192 0.42925922 0.00402424 0.00000000
2.24154928 1.76593081 -0.00459709 0.00000000
1.33553637 0.23833110 -0.00350461 0.00000000
3.43406103 1.05405871 -0.00099665 0.00000000
0.87505667 0.28047773 -0.00579098 0.00000000
2.63510595 1.83190650 0.00203962 0.00000000
1.01804897 1.16193507 -0.00161550 0.00000000
4.22222413 0.41393839 0.00104112 0.00000000
3.67286682 1.95751647 0.00023976 0.00000000
1.64180183 2.13709823 -0.00228339 0.00000000
0.40820895 0.60012301 -0.00461455 0.00000000
1.30106510 0.20346620 -0.00223069 0.00000000
3.39274231 1.68950337 -0.00505192 0.00000000
1.73597575 0.96775613 0.00450801 0.00000000
2.58920182 0.19645877 -0.00220816 0.00000000
2.56474845 1.02570852 -0.00107094 0.00000000
0.85187110 0.01419939 0.00277405 0.00000000
4.06101502 1.18692224 0.00142874 0.00000000
2.85082825 1.45935605 -0.00240620 0.00000000
0.04449325 0.41324638 -0.00400639 0.00000000
4.11064024 1.43199465 0.00073865 0.00000000
1.82985813 0.35984048 -0.00027058 0.00000000
3.85247987 1.14617625 -0.00217888 0.00000000
3.12909844 1.20057674 -0.00229724 0.00000000
0.46720647 0.82400077 0.00015125 0.00000000
2.89041565 0.67124018 0.00028950 0.00000000
3.66586602 0.17601816 -0.00046864 0.00000000
4.11188271 1.69880075 -0.00297147 0.00000000
1.24661244 0.89986238 0.00073732 0.00000000
2.10966532 1.66532098 0.00397420 0.00000000
0.15754725 1.15409980 -0.00131543 0.00000000
2.34393821 1.44192291 0.00055280 0.00000000
0.49882235 0.79318850 -0.00492800 0.00000000
0.34463031 0.22087014 0.00175733 0.00000000
3.96382668 0.33356595 0.00325500 0.00000000
0.73504091 1.54760999 -0.00367171 0.00000000
2.67109933 0.36258279 -0.00235546 0.00000000
3.86380178 1.38064166 -0.00086363 0.00000000
3.01927785 0.39478176 -0.00399497 0.00000000
2.07587217 1.29787938 -0.00023468 0.00000000
0.93162103 0.27481599 0.00407500 0.00000000
0.00292745 1.26890174 -0.00024511 0.00000000
3.11658496 0.50876313 -0.00137784 0.00000000
3.39905752 1.01105848 -0.00113747 0.00000000
1.13622154 0.61629235 -0.00723693 0.00000000
1.00897422 0.51146382 -0.00009403 0.00000000
3.80774898 0.33017529 0.00005657 0.00000000
3.43183326 1.28394596 0.00191847 0.00000000
0.85162840 0.71608389 0.00243347 0.00000000
0.94512903 1.93645088 -0.00012803 0.00000000
2.84974355 1.58543220 -0.00205823 0.00000000
0.18213469 0.34253321 0.00019590 0.00000000
2.06256087 1.15758044 -0.00175894 0.00000000
2.50242663 1.47470059 0.00407937 0.00000000
3.32363639 1.93403828 0.00588251 0.00000000
0.26320352 1.46855066 -0.00211145 0.00000000
3.62813454 1.95363468 0.00485322 0.00000000
2.68820739 0.20139402 0.00100509 0.00000000
2.10559651 1.96913177 0.00261477 0.00000000
1.27978492 0.20996478 -0.00280532 0.00000000
2.82272226 2.01287225 -0.00065867 0.00000000
0.42307758 0.01073058 -0.00224057 0.00000000
1.54917417 0.18328161 -0.00015385 0.00000000
1.25724743 1.29443397 -0.00029731 0.00000000
0.15118939 0.13423035 -0.00072758 0.00000000
3.30897438 0.27029642 -0.00084034 0.00000000
1.60055949 0.35042027 0.00066209 0.00000000
0.56364853 0.49019179 0.00194571 0.00000000
1.15063258 0.12572238 0.00290107 0.00000000
1.20502308 1.55361578 -0.00019768 0.00000000
1.74576125 0.25323866 0.00033853 0.00000000
0.29369315 1.69256041 -0.00298788 0.00000000
2.67245068 1.66156597 -0.00121549 0.00000000
2.50250986 0.70219675 -0.00346303 0.00000000
1.64908993 1.45023179 0.00356834 0.00000000
0.42322283 0.92547249 0.00043614 0.00000000
2.17811955 0.89258260 0.00353774 0.00000000
2.46665958 2.16571645 -0.00210383 0.00000000
1.57856047 2.14902152 -0.00307036 0.00000000
1.13024373 1.36356785 -0.00281394 0.00000000
4.11456404 2.16926014 0.00074556 0.00000000
2.87869575 0.09670353 0.00264985 0.00000000
1.04102133 1.41011027 -0.00408311 0.00000000
4.43023193 1.33903571 -0.00074100 0.00000000
0.70324845 0.51217106 0.00199137 0.00000000
4.42185272 0.34712104 0.00091840 0.00000000
2.89968114 2.08648604 0.00206177 0.00000000
0.49702649 1.04106569 -0.00082910 0.00000000
2.45831447 0.32946986 0.00239137 0.00000000
0.10182597 1.79132469 0.00234300 0.00000000
1.13230435 0.56161838 0.00292795 0.00000000
3.53093115 0.83155064 -0.00306401 0.00000000
0.49910938 1.23429875 0.00363555 0.00000000
4.22231539 0.27225407 0.00125384 0.00000000
0.46280041 0.80462965 -0.00047251 0.00000000
2.40236267 1.23100521 0.00020690 0.00000000
0.16607981 2.09333659 -0.00091766 0.00000000
0.54964916 1.79760474 0.00241676 0.00000000
0.41261341 1.22557570 -0.00090826 0.00000000
2.76114509 1.95470261 0.00204160 0.00000000
1.27100358 0.70529767 0.00144766 0.00000000
2.85999639 0.80604001 0.00045320 0.00000000
0.17803191 2.11111206 0.00009755 0.00000000
1.05659463 1.71110608 0.00136039 0.00000000
1.22046354 1.11685671 0.00246159 0.00000000
2.14838020 0.76833675 -0.00016414 0.00000000
0.04005995 0.97059768 -0.00097093 0.00000000
0.62691882 0.47082090 -0.00225734 0.00000000
0.51772474 0.81079905 0.00007598 0.00000000
4.00627273 0.50249585 0.00639295 0.00000000
2.77075044 1.59754482 -0.00240617 0.00000000
3.52963197 1.47104978 0.00149425 0.00000000
2.15705244 0.64220060 -0.00068760 0.00000000
3.06529651 1.50357020 0.00203649 0.00000000
2.80001820 0.94052295 -0.00295352 0.00000000
2.89747534 1.55015862 -0.00294234 0.00000000
3.84731411 1.75923760 0.00034411 0.00000000
2.52382271 1.65113366 0.00106904 0.00000000
2.78300264 1.52611735 -0.00260368 0.00000000
3.20511259 1.70180356 -0.00030858 0.00000000
0.38119281 1.83027354 -0.00039878 0.00000000
3.15974400 0.46314245 0.00347465 0.00000000
4.29891539 0.17919676 0.00172354 0.00000000
3.80046724 0.59994373 0.00371092 0.00000000
3.02892190 0.72159117 -0.00450994 0.00000000
0.97300249 1.65076067 0.00386455 0.00000000
3.32457742 1.77135524 0.00581582 0.00000000
0.89987945 1.50199851 -0.00013623 0.00000000
0.02570087 0.49078494 -0.00168558 0.00000000
2.19159842 2.07387507 -0.00133700 0.00000000
2.56240539 1.67228923 -0.00318561 0.00000000
0.17838924 1.91410964 0.00189303 0.00000000
1.40876698 0.58252359 -0.00235934 0.00000000
0.36708928 0.73368530 0.00043737 0.00000000
0.41623459 0.41708883 0.00357715 0.00000000
0.66150943 2.16326365 -0.00054120 0.00000000
0.55864141 1.65341778 -0.00017021 0.00000000
0.37564473 1.77021418 -0.00166768 0.00000000
1.73685996 0.86340103 0.00420817 0.00000000
1.46864860 0.44048804 -0.00191216 0.00000000
4.01863603 1.43130746 0.00299315 0.00000000
4.31257264 1.35478599 0.00101433 0.00000000
2.98194283 0.74471029 0.00180540 0.00000000
3.85026732 0.16050613 0.00244895 0.00000000
2.55077337 2.15974117 -0.00453298 0.00000000
2.25338569 0.51786967 -0.00191080 0.00000000
0.31425276 0.90709474 -0.00301050 0.00000000
0.38650019 0.02222782 0.00029148 0.00000000
3.20919848 1.32188232 -0.00227192 0.00000000
0.99299853 0.67005773 0.00084976 0.00000000
0.76879811 1.99384193 -0.00361764 0.00000000
0.70306284 1.32519322 -0.00201945 0.00000000
4.13406373 1.22700310 0.00316195 0.00000000
2.89757384 1.10429897 0.00120515 0.00000000
2.15753758 0.76058667 -0.00101865 0.00000000
3.77627048 0.04892828 -0.00249081 0.00000000
3.62480355 2.08941607 -0.00154797 0.00000000
3.19383158 0.33699258 0.00197848 0.00000000
0.01201154 1.78192549 0.00455676 0.00000000
3.32371135 0.23428952 0.00081750 0.00000000
1.34652884 0.45415797 -0.00044753 0.00000000
0.64991282 1.23445654 0.00074180 0.00000000
3.30551935 0.56404814 -0.00776086 0.00000000
2.25864992 1.85152263 -0.00018246 0.00000000
1.00424344 0.35134499 0.00102268 0.00000000
0.29903934 1.38526461 0.00030241 0.00000000
1.88092287 0.02504953 -0.00117470 0.00000000
1.12366736 0.67854023 0.00072732 0.00000000
3.78109017 1.16712860 -0.00149340 0.00000000
4.24003562 1.44124700 0.00398772 0.00000000
1.44601394 1.11911760 0.00178108 0.00000000
1.95733848 0.16313267 0.00323219 0.00000000
4.32563939 0.84561298 0.00360466 0.00000000
1.13712946 0.05486885 0.00139961 0.00000000
0.06935391 1.12249035 -0.00040051 0.00000000
1.58340131 1.36235037 0.00104282 0.00000000
0.65081721 0.65239692 -0.00185240 0.00000000
3.43260450 0.08542101 0.00120625 0.00000000
0.99845955 0.33834338 0.00176985 0.00000000
4.34514485 0.97234046 -0.00283710 0.00000000
0.66960218 0.85485565 0.00579722 0.00000000
0.46736839 0.18457834 -0.00149676 0.00000000
2.73166341 0.58230021 -0.00181723 0.00000000
1.11841067 1.07193091 -0.00719553 0.00000000
4.29127094 0.42670054 0.00158782 0.00000000
2.93444543 1.55885424 0.00399620 0.00000000
1.08197636 0.60671910 -0.00129127 0.00000000
0.26197352 2.16840126 -0.00087123 0.00000000
0.03766387 1.45896279 -0.00017905 0.00000000
4.03489589 0.93644079 0.00022716 0.00000000
0.85282868 1.71091387 0.00156239 0.00000000
3.79444300 0.24273258 -0.00253227 0.00000000
2.27324279 0.20663125 0.00106016 0.00000000
4.26957718 0.09608516 -0.00070906 0.00000000
4.44165396 1.79745521 0.00321087 0.00000000
2.86665774 1.94021883 -0.00011086 0.00000000
2.18421200 0.55875991 0.00022392 0.00000000
3.95793488 0.14168972 -0.00211770 0.00000000
2.09526106 2.13384381 0.00225759 0.00000000
4.10559611 0.13946800 -0.00253990 0.00000000
4.41020049 1.01096597 0.00196637 0.00000000
0.85066183 0.16785031 -0.00187332 0.00000000
0.75229923 2.13762668 0.00090588 0.00000000
0.58414941 0.68093000 -0.00270652 0.00000000
4.16126794 0.05499247 -0.00356088 0.00000000
3.74584446 1.94008420 0.00201224 0.00000000
2.03322970 1.45811627 0.00174167 0.00000000
4.14384177 0.62896851 -0.00319484 0.00000000
4.46878500 2.12737792 0.00303689 0.00000000
2.68687489 0.48775473 0.00274275 0.00000000
3.16174026 1.55200279 0.00216311 0.00000000
1.12322667 1.77296167 0.00039473 0.00000000
4.18592483 0.74532290 -0.00151450 0.00000000
3.04228934 0.72794896 -0.00128387 0.00000000
1.32223999 1.32786968 -0.00125140 0.00000000
3.96893351 2.05390542 -0.00025936 0.00000000
4.40932199 1.41051318 0.00345984 0.00000000
1.01493132 0.21350881 -0.00120760 0.00000000
2.38605744 1.04945405 -0.00144816 0.00000000
1.25453776 2.09088128 -0.00442310 0.00000000
2.03879505 0.82825437 -0.00404882 0.00000000
1.35016026 1.78115976 -0.00252117 0.00000000
3.78568311 1.33828469 -0.00213980 0.00000000
1.99023160 0.66141514 -0.00143631 0.00000000
3.90726984 0.80477229 0.00547177 0.00000000
2.85627326 1.44580077 -0.00129443 0.00000000
2.09855662 0.13183405 -0.00481687 0.00000000
3.98271337 1.32587753 -0.00283436 0.00000000
4.03530024 0.91301569 0.00177580 0.00000000
2.44507325 0.45246463 -0.00286821 0.00000000
0.98995006 0.52746862 -0.00170092 0.00000000
0.82828777 1.19019281 0.00176886 0.00000000
1.61896509 1.05143493 0.00542093 0.00000000
2.36772279 1.54475149 -0.00302731 0.00000000
0.53358468 0.85104135 -0.00204196 0.00000000
2.00304745 1.77617764 0.00042522 0.00000000
0.52675041 1.38347147 -0.00054519 0.00000000
0.02330090 0.40324413 0.00264369 0.00000000
0.68117811 1.78845942 0.00266132 0.00000000
0.64388415 1.66131727 -0.00201919 0.00000000
0.55935048 0.74471984 0.00257816 0.00000000
3.23786281 1.01533617 -0.00249912 0.00000000
4.18474155 1.90707508 -0.00128720 0.00000000
0.07890646 2.13838740 -0.00281229 0.00000000
4.26005020 0.07320871 -0.00277881 0.00000000
2.38823335 2.16479193 -0.00048397 0.00000000
3.11966115 2.03463947 -0.00450947 0.00000000
2.06054766 1.04138830 -0.00083201 0.00000000
2.63938853 0.64297673 -0.00004687 0.00000000
3.26152404 1.60059437 0.00472114 0.00000000
4.27124675 0.38166741 -0.00101843 0.00000000
2.03994595 0.25302530 -0.00390569 0.00000000
3.05288701 1.13313187 -0.00228414 0.00000000
4.42457846 2.01392395 -0.00193411 0.00000000
3.23984193 0.17503527 0.00312646 0.00000000
2.07914519 2.15252300 0.00038366 0.00000000
0.93004778 0.04966116 -0.00117728 0.00000000
1.82288424 0.28105462 -0.00065405 0.00000000
0.38511464 1.68567850 -0.00531575 0.00000000
2.01546240 1.73042400 -0.00368482 0.00000000
1.46818136 0.09044220 -0.00234018 0.00000000
0.04672590 0.51486397 0.00163827 0.00000000
2.65539426 1.93979066 -0.00256312 0.00000000
3.28054669 1.39635536 -0.00061393 0.00000000
2.11782591 0.83190264 -0.00069272 0.00000000
2.10717339 1.73272712 0.00111220 0.00000000
1.96338984 1.18543689 0.00056995 0.00000000
0.59950740 0.37617521 -0.00437031 0.00000000
0.16752471 1.90487572 -0.00013052 0.00000000
2.61700259 1.21562132 -0.00222238 0.00000000
4.23964626 0.61434542 -0.00246171 0.00000000
0.81476896 1.30699533 0.00737200 0.00000000
0.61895741 0.01389414 0.00190751 0.00000000
1.36105280 1.90067645 0.00014577 0.00000000
1.95643909 0.71730253 -0.00081494 0.00000000
3.13873570 1.55809475 0.00252700 0.00000000
3.44243174 0.39896518 0.00001708 0.00000000
1.11783427 1.67831912 -0.00463767 0.00000000
3.67645916 1.05743109 -0.00209544 0.00000000
4.21135607 1.62144112 -0.00412634 0.00000000
0.78610060 0.16458186 -0.00107869 0.00000000
4.05747964 0.01593697 -0.00197638 0.00000000
1.91592202 0.43369116 0.00290320 0.00000000
3.16501816 1.14470465 -0.00167147 0.00000000
1.96298027 0.93939625 -0.00361195 0.00000000
3.17933960 1.55215453 0.00454802 0.00000000
4.35240483 0.77676730 0.00016445 0.00000000
3.11828950 1.20778467 -0.00006833 0.00000000
2.76979795 0.69428889 -0.00310123 0.00000000
1.20456557 0.66691204 -0.00039121 0.00000000
2.08923643 0.86289542 -0.00422384 0.00000000
4.36214171 0.08770813 0.00007068 0.00000000
4.22180534 0.75944556 -0.00109379 0.00000000
0.51186720 1.22070880 -0.00455692 0.00000000
2.48803333 1.52389051 0.00253631 0.00000000
3.17772210 1.49100622 -0.00321829 0.00000000
0.81274615 1.02664880 0.00109722 0.00000000
2.07479214 1.57537707 0.00004606 0.00000000
1.84008705 1.95271589 -0.00059018 0.00000000
3.08016974 0.72029308 0.00228266 0.00000000
3.52778737 1.47888023 0.00013218 0.00000000
2.85523004 2.02942848 0.00292692 0.00000000
4.22978672 1.14241388 -0.00051845 0.00000000
2.13401387 1.69748927 -0.00473295 0.00000000
2.98199178 0.28328105 -0.00011967 0.00000000
1.07637866 1.18209289 0.00241585 0.00000000
4.07686302 0.19082338 -0.00124911 0.00000000
3.98781919 0.87772396 0.00356674 0.00000000
0.16862868 0.84589572 0.00057637 0.00000000
3.00534794 0.41608145 -0.00219562 0.00000000
4.23324650 0.83565623 -0.00069391 0.00000000
4.12916853 0.09136619 -0.00138967 0.00000000
2.02961770 1.87757335 0.00005883 0.00000000
2.78411210 1.16886750 0.00352149 0.00000000
2.18821958 1.12948563 -0.00420537 0.00000000
0.98007200 0.96102712 0.00090034 0.00000000
1.62519891 1.28876109 -0.00110471 0.00000000
0.34354163 0.16924563 -0.00235112 0.00000000
3.45361259 1.23367274 0.00033529 0.00000000
3.71502271 1.30510765 -0.00269127 0.00000000
1.89237761 1.06122795 0.00092454 0.00000000
0.03016877 1.13946091 -0.00306482 0.00000000
2.25495630 0.15952848 -0.00182449 0.00000000
0.69430389 1.65918300 0.00302917 0.00000000
3.71684883 1.88088609 0.00373928 0.00000000
4.26830916 1.92360664 -0.00001864 0.00000000
3.25255554 0.26422409 0.00453698 0.00000000
3.53761798 0.43689698 -0.00340975 0.00000000
2.23097030 2.02475943 0.00165926 0.00000000
0.37698190 1.46499680 -0.00253925 0.00000000
4.12470939 0.35680505 0.00397501 0.00000000
3.33119586 2.02406320 -0.00117105 0.00000000
1.71777850 0.80080025 -0.00287791 0.00000000
0.42332706 1.86547042 -0.00195792 0.00000000
2.97552352 1.93962804 -0.00331554 0.00000000
3.19083590 1.06762592 -0.00587909 0.00000000
4.12511645 0.46963731 -0.00182158 0.00000000
4.00908806 1.86597264 -0.00498561 0.00000000
0.66957545 0.76343716 0.00185638 0.00000000
3.02586704 0.03051427 -0.00422033 0.00000000
0.98283204 0.32710176 -0.00027587 0.00000000
1.05132323 1.75748394 -0.00081866 0.00000000
4.24303223 1.32598323 -0.00241484 0.00000000
1.37527019 0.51054140 0.00357502 0.00000000
4.47247328 1.40751013 -0.00084771 0.00000000
3.98441475 0.73326795 -0.00204786 0.00000000
3.90512988 1.97587382 0.00025229 0.00000000
3.19039370 0.06970935 -0.00414774 0.00000000
2.63311265 1.28772184 -0.00005291 0.00000000
0.62051542 1.79965729 -0.00090449 0.00000000
2.03446558 0.56708563 0.00183828 0.00000000
1.61026722 1.40663035 0.00374916 0.00000000
0.44092762 1.09642239 -0.00323914 0.00000000
0.52760008 1.44522025 0.00192767 0.00000000
3.62143386 1.18864506 -0.00234236 0.00000000
2.51601021 0.90252540 0.00335447 0.00000000
0.16421521 0.06878636 -0.00081334 0.00000000
0.15406081 1.46738487 -0.00069929 0.00000000
0.53437864 2.01495023 0.00030932 0.00000000
1.97928319 1.49429679 0.00851417 0.00000000
1.20552112 0.52399367 0.00210302 0.00000000
2.14804867 1.54442053 0.00160510 0.00000000
1.66858764 1.02011936 0.00303738 0.00000000
0.46989617 0.20090417 -0.00129309 0.00000000
0.19709725 1.98445929 -0.00186763 0.00000000
1.19323982 0.97302450 0.00164990 0.00000000
0.59196618 0.55451191 -0.00064609 0.00000000
1.35753568 0.90315891 0.00070661 0.00000000
0.41356934 1.45831585 0.00296234 0.00000000
4.21278341 1.54216416 0.00349185 0.00000000
0.53325618 2.16657275 -0.00026634 0.00000000
3.68351016 1.81623611 0.00117776 0.00000000
1.71473929 0.53693535 0.00656026 0.00000000
0.44660695 1.63566948 -0.00003582 0.00000000
0.18063701 1.65236174 -0.00102200 0.00000000
3.93394766 2.08914467 -0.00541358 0.00000000
1.33084596 0.71965128 -0.00227095 0.00000000
1.40201482 1.32092889 0.00358507 0.00000000
3.73310511 1.15752792 0.00254564 0.00000000
1.27141077 1.84215443 0.00208069 0.00000000
4.27563858 1.59533028 -0.00292316 0.00000000
1.89691749 0.53116412 0.00224987 0.00000000
1.64806329 1.93085876 0.00255639 0.00000000
3.77357380 0.93631223 -0.00031023 0.00000000
2.84540527 0.40130590 -0.00156801 0.00000000
3.96608122 1.80823749 0.00010355 0.00000000
3.44055883 1.39882248 0.00035001 0.00000000
0.28092005 1.32077096 0.00092750 0.00000000
1.74871047 0.31924831 -0.00202892 0.00000000
4.13632741 0.80998725 0.00054483 0.00000000
3.74603702 1.34014816 0.00288184 0.00000000
4.37932751 1.83198776 0.00121252 0.00000000
3.72383343 1.76154924 0.00018020 0.00000000
0.38360404 0.30394957 -0.00148293 0.00000000
2.82275310 0.21819004 0.00405338 0.00000000
1.26207696 1.78104628 0.00135549 0.00000000
3.25831391 0.65441399 0.00254497 0.00000000
3.13207344 1.17718446 0.00165923 0.00000000
0.26033805 1.65862987 0.00149977 0.00000000
2.50780072 0.78996050 -0.00222889 0.00000000
3.37484754 1.74183171 0.00322646 0.00000000
1.46299648 1.46913951 -0.00205361 0.00000000
0.16965331 0.18441537 0.00400996 0.00000000
3.71878920 1.84269416 -0.00058603 0.00000000
0.07841026 0.52787166 0.00369470 0.00000000
1.91121062 1.71310669 0.00082875 0.00000000
2.39770986 0.73742334 0.00389466 0.00000000
3.64034674 2.00122724 -0.00029229 0.00000000
1.46391346 0.69632357 0.00226169 0.00000000
0.00952371 0.74511563 -0.00137643 0.00000000
1.54668501 2.02651042 0.00349099 0.00000000
1.46685876 1.60993858 -0.00333433 0.00000000
0.64091066 1.43145146 0.00201020 0.00000000
3.34047158 0.83008252 0.00095121 0.00000000
3.41837849 1.94151827 -0.00099221 0.00000000
3.39577434 1.26890411 0.00326840 0.00000000
1.93291509 1.00872649 0.00225351 0.00000000
3.98156566 0.70114624 -0.00330139 0.00000000
1.66115452 1.44395541 -0.00154052 0.00000000
3.55627183 0.10162539 0.00535402 0.00000000
3.17020969 1.31146826 0.00156735 0.00000000
1.87394562 1.47593388 0.00093865 0.00000000
3.29099365 1.13785149 0.00126738 0.00000000
0.45989764 1.08987155 0.00260916 0.00000000
3.98479197 0.46746609 0.00199525 0.00000000
2.24320881 0.17112280 -0.00180644 0.00000000
2.10569653 1.95976178 -0.00045458 0.00000000
4.09406845 0.99780854 -0.00024734 0.00000000
0.10103653 0.30577403 -0.00434447 0.00000000
4.19672217 0.14196077 -0.00084558 0.00000000
2.96754314 0.48873335 0.00215457 0.00000000
3.40150112 1.81253159 -0.00136694 0.00000000
0.06348587 2.06006166 -0.00114577 0.00000000
0.16349622 0.73142029 -0.00568375 0.00000000
