4.321955 0.000008 -0.000997 0.0
2.063178 1.584172 -0.001093 0.0
1.827362 1.522925 -0.003537 0.0
0.745745 1.012059 0.002423 0.0
3.646729 1.290252 -0.002138 0.0
2.011099 0.618153 0.005605 0.0
3.378036 1.586497 0.002858 0.0
3.571605 0.915640 -0.001071 0.0
2.656543 0.990565 0.003002 0.0
2.127956 1.629045 -0.006755 0.0
1.888851 1.335469 -0.001501 0.0
2.226959 0.535426 0.000772 0.0
2.699013 0.498865 0.001159 0.0
1.322827 1.184002 -0.004219 0.0
1.750845 0.427208 0.003109 0.0
4.717152 0.128561 0.001277 0.0
1.713651 0.739444 0.000581 0.0
2.079207 1.072525 0.000271 0.0
3.221545 0.162689 -0.004340 0.0
4.172007 0.682749 -0.001055 0.0
0.533659 0.259106 0.001111 0.0
3.788208 0.605926 -0.003546 0.0
2.547577 0.464178 0.001914 0.0
1.042078 1.404360 -0.000779 0.0
1.019573 0.354064 -0.000334 0.0
1.456550 0.480358 -0.008120 0.0
0.156550 1.661663 -0.001130 0.0
2.697987 1.475248 0.003107 0.0
2.240743 0.318779 -0.000530 0.0
2.768007 0.989078 -0.006023 0.0
2.328031 0.812886 -0.001290 0.0
3.948889 1.091040 0.000519 0.0
3.992103 1.617164 0.001501 0.0
1.203012 1.314409 0.000318 0.0
0.469697 0.542589 -0.000485 0.0
1.400585 0.045583 0.000089 0.0
2.167612 0.433781 -0.004458 0.0
2.389937 0.434296 0.001226 0.0
0.401570 0.310969 -0.002133 0.0
1.742914 0.726085 -0.005067 0.0
0.646045 1.433212 0.002065 0.0
0.285539 1.310792 0.000019 0.0
1.866356 0.032390 0.003281 0.0
3.461467 0.865377 0.002978 0.0
4.095780 1.012329 -0.001494 0.0
3.442166 1.565069 -0.000053 0.0
2.104727 0.287256 0.002116 0.0
4.416238 0.397483 -0.003047 0.0
1.351968 1.504014 -0.005694 0.0
3.842835 0.424915 0.002182 0.0
2.348619 0.372823 -0.004299 0.0
0.722445 1.437800 -0.001604 0.0
4.390487 0.991847 -0.004570 0.0
0.777337 0.076853 -0.000664 0.0
4.640977 1.013126 0.002760 0.0
4.751711 1.495443 -0.000060 0.0
1.746962 0.947978 0.002964 0.0
1.094691 0.949120 -0.003519 0.0
3.055157 0.848689 -0.000956 0.0
4.074103 1.565359 0.000780 0.0
1.757785 0.755900 -0.001113 0.0
2.297308 1.410175 -0.001138 0.0
1.896319 1.658617 -0.000711 0.0
3.172398 0.108249 -0.000865 0.0
3.171332 1.157814 -0.001063 0.0
1.903111 0.390692 0.004165 0.0
3.920316 0.651866 0.002284 0.0
2.994361 1.237865 0.002239 0.0
4.186070 1.423156 0.000868 0.0
0.882094 1.176595 -0.000774 0.0
4.638437 1.039364 0.001016 0.0
0.044849 0.669662 0.001153 0.0
2.715322 0.478480 0.000823 0.0
3.545831 0.766744 -0.003619 0.0
4.424001 0.239909 -0.006076 0.0
0.927357 0.209199 -0.002763 0.0
1.525602 0.952939 0.003376 0.0
0.221140 0.256985 -0.001326 0.0
3.747982 0.524266 -0.001388 0.0
0.551959 0.574127 0.003116 0.0
3.805379 1.388757 0.001796 0.0
4.432533 1.689215 0.000922 0.0
1.634391 0.216654 -0.002029 0.0
1.715107 0.879257 -0.001379 0.0
4.063935 0.629536 -0.000756 0.0
4.368949 1.529303 -0.002655 0.0
0.013647 0.961248 0.001629 0.0
4.221523 0.668893 0.001927 0.0
1.103791 1.453334 0.000291 0.0
3.550309 1.134476 0.000031 0.0
0.586768 0.435370 -0.001189 0.0
4.030714 1.279637 -0.001604 0.0
0.679571 0.937557 0.000667 0.0
0.207044 1.124887 -0.001564 0.0
2.321332 1.145502 -0.000948 0.0
4.581198 0.554557 0.000296 0.0
4.287971 0.697981 0.001412 0.0
4.573532 0.804252 0.003294 0.0
3.365936 0.628367 0.001528 0.0
0.561748 0.517454 0.003391 0.0
1.730345 0.572895 0.004347 0.0
1.329336 0.831856 -0.001041 0.0
3.772574 0.762058 0.001992 0.0
3.433487 1.445722 0.000209 0.0
0.558975 0.123896 -0.003034 0.0
0.685261 1.136927 -0.003070 0.0
0.124030 0.606345 0.000819 0.0
2.662016 0.625031 -0.001671 0.0
3.109173 0.051261 -0.003244 0.0
2.606692 1.275656 0.004275 0.0
3.043252 0.408708 0.000308 0.0
1.452903 0.999501 -0.001891 0.0
2.736626 0.482881 -0.004021 0.0
3.654935 0.282163 0.000565 0.0
3.890784 0.257185 0.000853 0.0
2.463966 1.645333 0.001266 0.0
1.410365 0.379251 0.001149 0.0
3.545886 0.732670 0.000433 0.0
4.678828 0.057672 0.000825 0.0
0.773894 1.696887 -0.000740 0.0
0.048141 0.474883 -0.002567 0.0
4.713453 1.315491 -0.004643 0.0
1.814250 0.159027 -0.000381 0.0
1.833994 1.638406 -0.003250 0.0
1.929584 1.471316 0.000633 0.0
3.682054 1.600332 -0.001575 0.0
1.705917 1.187223 0.001926 0.0
2.035454 1.302875 -0.003861 0.0
3.062270 1.461121 -0.000842 0.0
4.638197 1.207513 0.000391 0.0
4.170343 0.698121 0.004231 0.0
0.482969 1.452417 -0.002090 0.0
2.430130 0.457355 0.001369 0.0
3.184329 0.420938 -0.006132 0.0
3.747126 1.131362 0.002589 0.0
2.414303 1.023266 0.000207 0.0
1.366187 0.119200 -0.003003 0.0
4.763937 0.706455 0.002634 0.0
3.210609 0.329594 -0.000312 0.0
2.972784 0.327552 -0.002729 0.0
1.797394 0.577260 -0.001117 0.0
1.571011 1.526579 0.005237 0.0
4.478998 0.231772 -0.001525 0.0
1.431350 1.530563 -0.000715 0.0
3.480274 0.635798 0.002155 0.0
1.753929 1.199189 -0.002109 0.0
1.685139 1.143996 0.000592 0.0
2.882295 0.628327 0.003129 0.0
3.084763 1.356195 0.001210 0.0
0.304059 1.270466 -0.002906 0.0
1.959601 0.155222 -0.002122 0.0
3.610046 0.596035 0.000806 0.0
3.953463 0.913605 -0.001050 0.0
3.830529 0.067787 0.000926 0.0
2.146372 0.535820 -0.004755 0.0
0.975217 0.675879 -0.000725 0.0
0.275774 0.857816 -0.001614 0.0
1.135304 1.356061 -0.002268 0.0
4.688192 1.662786 -0.000391 0.0
2.232951 0.261317 0.002060 0.0
3.454309 1.643264 -0.004997 0.0
3.972732 0.086555 0.001875 0.0
1.311995 1.429753 0.005094 0.0
3.447021 0.760849 0.001135 0.0
0.242284 1.596391 -0.002486 0.0
2.859780 1.256260 0.000278 0.0
2.438880 1.039231 0.001230 0.0
1.051640 0.996855 -0.000578 0.0
4.600107 1.361513 0.001463 0.0
2.737449 1.118491 -0.005454 0.0
0.184152 0.327896 -0.000116 0.0
0.955989 0.742277 -0.003416 0.0
0.993931 1.340779 -0.002788 0.0
4.772400 1.571254 -0.002327 0.0
2.471902 0.214314 0.001822 0.0
3.306724 0.519143 0.004377 0.0
2.242921 0.252431 -0.003537 0.0
0.613090 0.944804 0.003673 0.0
1.487456 1.283656 0.002750 0.0
4.290809 0.616952 0.001751 0.0
3.250733 1.046264 0.000151 0.0
2.277661 0.327108 0.001934 0.0
4.673519 0.142921 -0.003994 0.0
3.160998 1.259523 -0.000562 0.0
1.560894 1.027473 -0.003071 0.0
2.833560 1.259768 0.004126 0.0
4.174637 0.515686 0.003328 0.0
1.387554 0.044406 0.002698 0.0
1.149644 1.626586 0.003829 0.0
1.012846 0.772275 -0.004265 0.0
0.186043 0.845242 0.001088 0.0
1.559506 0.271772 0.001181 0.0
0.877785 0.427454 -0.002562 0.0
1.505930 0.235110 0.000890 0.0
0.284774 0.727745 -0.001254 0.0
0.537215 1.229228 -0.000295 0.0
1.728415 0.728825 0.003787 0.0
2.019164 0.710636 -0.004244 0.0
0.877448 0.806211 0.007079 0.0
1.801169 0.581266 0.000385 0.0
3.907661 1.133856 -0.000165 0.0
3.383845 0.775544 -0.005198 0.0
4.337342 0.453543 0.006352 0.0
4.337977 1.083079 0.000414 0.0
0.462014 1.113352 0.003563 0.0
1.980198 0.181708 0.000773 0.0
3.441331 0.480533 0.000758 0.0
3.661131 1.424387 0.001786 0.0
0.379959 1.414845 -0.000840 0.0
4.207212 0.322570 0.001670 0.0
0.949408 0.307573 -0.003312 0.0
1.744906 1.216213 0.000389 0.0
4.543129 1.070231 0.000804 0.0
3.576472 0.704369 0.002300 0.0
3.555545 0.549853 -0.001036 0.0
1.682772 1.149709 -0.003607 0.0
0.526865 0.434695 -0.002259 0.0
3.505753 1.587775 0.001587 0.0
3.289103 1.242153 0.000938 0.0
4.035833 1.665132 0.000462 0.0
4.107312 0.020895 0.000214 0.0
2.627981 1.164088 -0.002406 0.0
4.087061 0.595439 -0.000990 0.0
3.462317 0.365236 0.000700 0.0
2.427289 0.653892 -0.000744 0.0
0.044780 1.227054 -0.004191 0.0
3.329821 1.302996 -0.002890 0.0
1.474878 1.323402 -0.000669 0.0
4.512726 0.466939 -0.005633 0.0
1.502879 0.159022 0.001074 0.0
0.816245 1.437926 0.006042 0.0
3.034475 1.084746 -0.002775 0.0
1.846227 1.242366 -0.002000 0.0
0.275908 0.189164 0.000915 0.0
3.253067 0.117170 -0.002429 0.0
3.309319 0.453081 0.001880 0.0
4.061480 0.108722 -0.000107 0.0
2.086461 1.552129 0.002283 0.0
3.115502 1.484424 -0.001609 0.0
4.302320 0.863356 -0.001440 0.0
3.235401 1.350611 -0.001414 0.0
1.749432 0.839779 0.003980 0.0
0.860911 0.558826 -0.001294 0.0
0.142203 0.357260 0.000320 0.0
3.665920 1.418964 -0.001733 0.0
3.860332 0.301069 -0.000327 0.0
1.454618 0.119546 -0.003047 0.0
0.329364 0.498094 0.000771 0.0
1.161519 0.911401 -0.001457 0.0
3.145843 0.034568 -0.005880 0.0
3.432507 0.126466 0.002333 0.0
0.312826 0.220187 -0.000727 0.0
1.945235 1.161104 -0.000023 0.0
0.382888 0.137744 -0.001853 0.0
0.901808 1.043641 -0.001775 0.0
4.607604 0.631095 0.001657 0.0
4.064565 0.025847 -0.003000 0.0
1.564990 1.253826 0.001724 0.0
3.536841 1.674835 0.001511 0.0
2.781686 1.036816 -0.000621 0.0
3.045294 0.724300 0.001432 0.0
0.027521 0.269634 0.003107 0.0
3.808476 0.776426 -0.005365 0.0
4.487945 0.818941 -0.000343 0.0
3.243662 1.074791 -0.000193 0.0
3.907013 0.451790 0.002810 0.0
2.479310 1.090102 -0.001184 0.0
4.511758 1.380909 0.001567 0.0
3.616447 0.821187 -0.002288 0.0
3.274419 1.429435 -0.000832 0.0
0.192620 1.365970 -0.000473 0.0
2.104132 0.727413 0.004372 0.0
1.819640 0.617788 -0.000639 0.0
3.132562 1.324954 -0.001748 0.0
0.213354 1.671976 0.001260 0.0
2.333931 1.418423 -0.000987 0.0
4.360456 0.844817 -0.000526 0.0
0.312668 1.176847 0.002494 0.0
2.708804 0.995842 0.003046 0.0
2.131945 0.549100 -0.001276 0.0
3.788792 1.280864 -0.001662 0.0
3.540269 1.491199 -0.003533 0.0
4.365667 0.998855 0.000605 0.0
0.199841 0.913288 0.001631 0.0
2.601445 0.713013 0.001987 0.0
2.456905 0.241953 -0.004122 0.0
2.940289 0.299516 0.002058 0.0
3.100216 0.195131 -0.002667 0.0
3.568911 1.059790 0.002557 0.0
0.774081 0.016302 0.002916 0.0
2.686176 0.626722 -0.001311 0.0
2.700863 0.794355 -0.002547 0.0
2.442281 1.592078 0.001225 0.0
3.173557 0.145101 -0.003228 0.0
0.563171 0.052394 -0.004134 0.0
2.288995 0.517745 -0.004251 0.0
4.836995 1.391772 0.000128 0.0
1.975491 0.741234 -0.000885 0.0
0.377794 0.839746 0.001128 0.0
3.391745 1.587888 0.004656 0.0
0.420755 0.747977 -0.002260 0.0
3.950817 0.723838 -0.002024 0.0
2.749816 1.456071 0.001604 0.0
1.937805 1.298218 0.000974 0.0
0.473414 1.550063 0.003215 0.0
2.550462 0.615132 0.000439 0.0
2.829396 1.578789 -0.001132 0.0
1.669863 1.296924 -0.002139 0.0
4.774869 0.842315 -0.002334 0.0
3.633831 0.199542 -0.000781 0.0
3.706039 1.643802 -0.000574 0.0
1.124501 0.043529 -0.001355 0.0
0.117363 0.073148 -0.005224 0.0
2.816876 1.689909 0.005037 0.0
4.186480 0.685112 -0.000626 0.0
3.577513 0.836074 0.000021 0.0
2.039599 1.664240 0.002016 0.0
1.075886 0.423623 0.005484 0.0
4.569592 1.635733 -0.000346 0.0
1.949013 0.421660 0.000288 0.0
2.843849 0.319709 0.003361 0.0
4.427046 0.799932 -0.001187 0.0
0.985701 0.012822 0.000732 0.0
3.038953 0.542590 0.002632 0.0
4.814966 1.272062 -0.006245 0.0
3.516220 1.054293 -0.001057 0.0
0.399858 1.528262 -0.000267 0.0
3.982316 0.036801 0.002291 0.0
4.102462 0.080715 -0.000187 0.0
3.119102 1.184574 -0.000075 0.0
3.490803 0.170193 0.000103 0.0
4.269633 0.893042 -0.001005 0.0
0.392679 0.311338 0.003588 0.0
4.466378 0.106207 -0.003616 0.0
3.007522 0.911917 0.000767 0.0
2.467525 0.296986 -0.001135 0.0
3.667887 0.101807 -0.000947 0.0
0.792802 0.338011 -0.001037 0.0
3.321121 0.004314 0.000871 0.0
3.935810 1.376841 -0.000723 0.0
1.445978 0.459929 -0.003259 0.0
2.591326 1.058572 0.001263 0.0
2.584857 1.578207 0.002213 0.0
0.665329 1.355616 0.003294 0.0
1.489888 1.594500 0.002142 0.0
0.809792 0.709639 0.001547 0.0
3.916639 0.969995 -0.002011 0.0
1.187078 0.381462 0.000584 0.0
0.222353 1.659897 -0.005311 0.0
3.545743 1.460328 0.002237 0.0
4.592628 1.401551 -0.002206 0.0
1.981930 1.542899 -0.001230 0.0
0.741355 1.449677 0.001672 0.0
3.283464 1.516701 -0.000564 0.0
3.309214 1.312375 0.004576 0.0
1.471046 0.305427 -0.001929 0.0
3.515800 0.083750 0.003590 0.0
2.336255 0.638213 0.000067 0.0
0.321468 1.085663 -0.001898 0.0
2.138493 1.516189 0.000494 0.0
4.078183 0.106380 -0.000732 0.0
2.654894 0.931409 0.002228 0.0
4.789298 0.321423 0.001631 0.0
3.353338 0.215416 -0.000812 0.0
0.825291 0.512789 -0.000780 0.0
3.894453 1.604800 -0.001371 0.0
4.284937 0.211631 0.001640 0.0
2.245057 1.673024 -0.002627 0.0
3.235306 1.268097 -0.001182 0.0
4.666682 0.026257 0.002688 0.0
2.200549 1.354521 0.000841 0.0
0.833883 0.412359 0.001119 0.0
0.898212 1.631856 0.000625 0.0
0.105498 0.091041 -0.003264 0.0
3.733420 0.356769 -0.001474 0.0
2.696933 0.403517 -0.005318 0.0
1.398313 0.505793 0.003250 0.0
3.897019 1.344188 -0.003771 0.0
0.752806 0.272437 -0.001432 0.0
1.641413 0.725643 -0.000850 0.0
3.118267 1.378743 -0.000764 0.0
4.628955 0.672464 0.000472 0.0
3.503923 0.463973 -0.006551 0.0
0.223216 0.883868 -0.003602 0.0
4.007122 1.411176 -0.002780 0.0
2.363997 0.859850 -0.000743 0.0
4.673571 1.477449 -0.001953 0.0
0.072616 0.249176 -0.002634 0.0
2.162288 1.022796 0.001968 0.0
0.382322 0.828552 -0.001474 0.0
4.497640 1.034039 -0.000602 0.0
2.818847 1.684016 -0.003322 0.0
2.956508 0.743897 0.003596 0.0
0.186529 0.463352 0.001202 0.0
4.537259 0.225914 0.002172 0.0
0.774729 0.575768 -0.002827 0.0
0.415782 0.249184 -0.001759 0.0
0.717429 0.091167 0.002912 0.0
1.940344 1.392390 0.001400 0.0
3.531351 1.702482 -0.002857 0.0
0.270729 0.795156 0.000875 0.0
0.358670 0.962676 0.002243 0.0
1.565365 1.557808 -0.000711 0.0
3.362902 1.132464 0.003106 0.0
0.030788 0.662893 -0.001778 0.0
0.684386 0.991573 -0.001713 0.0
0.009532 1.338817 -0.002379 0.0
4.733190 1.089134 0.002265 0.0
3.659742 1.261861 0.000887 0.0
0.100371 1.189695 -0.000714 0.0
3.124779 1.164535 0.003987 0.0
3.027268 0.079196 0.000865 0.0
2.976291 1.049675 0.001142 0.0
4.216628 0.858669 0.001098 0.0
3.181461 1.153113 0.003087 0.0
2.356668 1.240702 -0.006903 0.0
4.150838 0.850621 -0.000903 0.0
3.432015 0.801901 -0.002153 0.0
1.359163 1.479712 -0.002950 0.0
1.502370 0.666454 -0.001329 0.0
0.483269 0.535848 0.002971 0.0
0.574368 0.054173 0.002200 0.0
3.842426 1.658638 0.000973 0.0
1.372694 1.669924 -0.000385 0.0
1.319146 0.010599 0.000768 0.0
2.058430 0.454908 0.001450 0.0
2.298804 1.112970 0.000425 0.0
1.794391 1.207670 -0.002455 0.0
4.048104 1.097181 0.000599 0.0
0.957305 0.943139 -0.003235 0.0
2.034931 0.284134 0.001819 0.0
1.508160 1.300338 -0.001496 0.0
3.900738 0.183288 0.000485 0.0
0.590323 0.880716 0.000925 0.0
1.210029 0.929430 0.005846 0.0
2.336723 0.066213 0.002078 0.0
4.082973 0.193033 0.002480 0.0
1.464837 0.440935 -0.003130 0.0
1.241314 0.904448 -0.000164 0.0
1.284170 0.747510 -0.005545 0.0
1.491449 1.668044 -0.001866 0.0
1.891020 0.765344 0.002719 0.0
4.245227 1.024546 0.003330 0.0
2.809155 0.380964 -0.002081 0.0
4.587939 0.714533 -0.000903 0.0
2.436661 0.619449 0.001460 0.0
4.455137 0.785830 0.004510 0.0
3.202895 1.650986 -0.000430 0.0
4.110669 0.321157 0.001341 0.0
0.746555 1.203693 -0.003213 0.0
0.403032 0.112754 0.001420 0.0
2.746495 1.479124 -0.005119 0.0
1.289891 0.008276 0.000043 0.0
3.974615 0.878025 -0.001367 0.0
1.595745 0.665412 0.003946 0.0
0.505144 0.563096 0.001846 0.0
3.417318 0.352378 -0.000520 0.0
1.468254 1.493923 -0.003781 0.0
3.318657 1.352028 -0.001046 0.0
0.245546 1.453729 -0.003349 0.0
0.739344 1.191635 -0.000834 0.0
3.103141 0.426674 -0.002421 0.0
4.786202 0.741331 0.001171 0.0
2.180500 1.508632 -0.000971 0.0
1.902277 0.265081 0.000681 0.0
1.574105 1.593863 -0.004498 0.0
2.992343 0.056265 -0.001218 0.0
0.228746 0.127377 0.001331 0.0
2.417817 0.100556 -0.003471 0.0
3.573187 0.556207 0.001086 0.0
0.064717 1.127388 -0.002496 0.0
2.455380 1.588364 -0.005926 0.0
2.287503 1.367517 0.003236 0.0
3.615285 0.680929 0.001094 0.0
0.097117 0.593379 -0.002863 0.0
3.394778 1.686525 -0.002312 0.0
0.192074 0.242278 -0.002990 0.0
3.369200 1.255894 0.001471 0.0
3.287809 0.248848 -0.005982 0.0
1.330436 0.060944 0.004496 0.0
4.723215 1.648522 -0.004384 0.0
0.938278 0.968816 -0.000720 0.0
2.261057 1.685850 0.000781 0.0
0.471819 0.245626 0.000523 0.0
0.004778 0.744043 -0.002000 0.0
0.235712 0.308411 0.001048 0.0
2.388852 1.538828 0.002124 0.0
3.962595 0.443613 0.002006 0.0
1.847442 1.609355 -0.001787 0.0
0.627640 0.775693 -0.001390 0.0
2.823754 0.620996 -0.000600 0.0
2.311735 0.665126 0.003604 0.0
3.559543 0.739664 -0.001388 0.0
3.444363 1.319853 -0.000154 0.0
2.016757 1.328264 0.001060 0.0
1.929909 0.537972 0.001973 0.0
1.078334 1.386099 -0.000117 0.0
2.433231 0.444811 -0.000108 0.0
2.009616 0.562278 0.001975 0.0
0.311637 0.474674 -0.002283 0.0
1.020709 0.971846 -0.000031 0.0
0.761346 0.797361 -0.000997 0.0
2.288377 0.960405 0.000198 0.0
0.799319 0.770320 0.000847 0.0
1.050422 1.253652 0.002169 0.0
1.076209 1.335020 -0.001192 0.0
4.051704 0.328859 -0.000652 0.0
2.657670 0.821963 0.007556 0.0
2.339373 1.474926 0.001427 0.0
3.657900 1.342819 -0.002873 0.0
3.236908 1.257450 0.000932 0.0
3.084381 0.216902 -0.001184 0.0
2.004324 0.539013 -0.002680 0.0
4.043041 0.816383 0.001100 0.0
1.380998 0.159941 -0.005920 0.0
0.539614 0.985760 -0.001083 0.0
4.406212 0.998197 -0.002322 0.0
0.318523 1.552691 0.004662 0.0
1.702302 1.049011 0.001136 0.0
2.460679 0.319705 0.000688 0.0
4.475185 0.636668 0.000382 0.0
1.596405 1.620565 -0.000639 0.0
1.734791 0.612538 -0.001890 0.0
4.750037 0.795308 -0.001532 0.0
2.293621 1.016031 0.001713 0.0
2.875183 0.973544 0.003685 0.0
3.542771 0.212290 0.003660 0.0
4.579317 1.695329 -0.004106 0.0
4.076228 0.236874 -0.001416 0.0
0.580545 0.792219 -0.000129 0.0
4.116586 0.726207 -0.001650 0.0
4.528522 1.534947 -0.004039 0.0
1.166262 1.580774 -0.000905 0.0
2.764354 0.763932 -0.000343 0.0
1.047671 1.329014 -0.002240 0.0
2.332739 1.664184 0.003922 0.0
1.039638 0.533833 0.003396 0.0
1.313043 0.633218 0.000026 0.0
2.088965 0.453655 -0.001839 0.0
4.741375 1.225626 0.001471 0.0
1.471431 0.917473 -0.001221 0.0
1.070237 0.999693 -0.000603 0.0
4.397634 1.587037 -0.001328 0.0
2.521761 1.256237 0.004182 0.0
3.289707 1.029996 -0.001352 0.0
4.428501 1.119309 -0.000325 0.0
2.188152 0.643700 0.001203 0.0
1.461041 1.680537 0.002137 0.0
1.259465 1.145127 0.002011 0.0
1.185411 0.009248 0.000464 0.0
0.443789 0.873636 0.000336 0.0
2.689957 1.060223 0.001901 0.0
0.831180 0.870816 0.003399 0.0
0.064508 1.495623 -0.008212 0.0
0.898761 1.056265 0.002586 0.0
0.728722 0.027345 -0.001384 0.0
4.356151 0.433056 0.001936 0.0
0.033935 1.522157 -0.002391 0.0
1.141386 1.201008 -0.002021 0.0
0.097759 1.288122 -0.001181 0.0
4.574496 1.298969 -0.000744 0.0
4.221311 0.083349 0.000369 0.0
3.547295 0.030967 -0.002273 0.0
2.839833 0.793605 -0.001257 0.0
2.991119 0.504407 -0.002321 0.0
0.947878 1.011054 -0.002122 0.0
3.400903 1.205598 -0.000967 0.0
0.445699 0.496719 0.000140 0.0
3.700204 0.971541 0.000074 0.0
0.927020 0.342509 -0.003075 0.0
0.070560 1.022868 0.001953 0.0
2.434428 0.078804 0.003023 0.0
2.131840 0.869195 -0.001268 0.0
1.174415 0.531793 -0.001619 0.0
2.882533 1.562160 -0.001179 0.0
0.286397 0.075300 0.001049 0.0
2.836508 0.835705 -0.003879 0.0
3.803002 1.694143 -0.001289 0.0
3.355231 1.165635 0.004512 0.0
0.128704 1.635100 0.001200 0.0
4.349864 1.503132 0.001860 0.0
4.577615 0.339747 -0.005490 0.0
1.187777 1.277673 0.000691 0.0
3.207304 0.463450 -0.000394 0.0
4.539707 0.832108 0.003445 0.0
2.893506 0.445506 0.000699 0.0
4.075608 1.291183 -0.001309 0.0
4.606190 1.684644 0.002574 0.0
3.573782 0.575847 -0.003834 0.0
0.621699 0.193305 -0.000918 0.0
2.882551 1.038684 -0.000817 0.0
4.783806 0.506544 -0.001572 0.0
2.740038 0.491230 0.003890 0.0
4.823823 0.413802 -0.002107 0.0
0.880922 0.446006 -0.000706 0.0
4.238900 1.569504 0.003940 0.0
0.238984 0.395494 -0.000610 0.0
1.404412 0.043649 0.001281 0.0
2.922825 0.265857 -0.002459 0.0
3.827648 1.165745 -0.000293 0.0
2.412448 0.456105 -0.000010 0.0
2.847992 0.914667 0.001078 0.0
0.961060 0.443363 0.002117 0.0
1.477956 1.538389 -0.000538 0.0
3.064603 0.423625 -0.001071 0.0
1.535305 0.207292 0.001067 0.0
0.232386 1.508376 -0.002272 0.0
2.033013 1.148845 -0.000812 0.0
2.485984 1.602253 -0.002147 0.0
3.333972 1.025888 -0.000192 0.0
1.264729 1.162750 0.000459 0.0
1.829162 0.851960 0.002482 0.0
1.574700 1.038944 0.000822 0.0
0.427115 0.930623 -0.002796 0.0
2.165500 1.651852 -0.002133 0.0
3.322297 0.557465 -0.004820 0.0
1.271431 0.737044 0.000091 0.0
0.854936 0.424777 0.001699 0.0
1.002477 0.681165 0.000204 0.0
0.961459 0.214769 0.000185 0.0
0.391143 1.110028 -0.000801 0.0
4.247478 0.285362 0.001300 0.0
1.191454 1.238154 0.000890 0.0
3.413685 1.588818 0.002500 0.0
0.535204 1.574445 -0.003490 0.0
0.031875 0.156532 -0.000063 0.0
3.091026 0.415544 -0.001108 0.0
0.718478 0.265239 -0.000214 0.0
1.757584 1.603756 0.000666 0.0
2.459505 0.127934 0.003273 0.0
0.561583 1.403096 -0.000443 0.0
4.000200 0.347153 -0.000580 0.0
2.830224 0.583936 -0.002869 0.0
2.890862 0.089954 0.000516 0.0
3.344909 0.687206 -0.002309 0.0
2.665422 1.137403 -0.001725 0.0
1.814704 1.576302 -0.000793 0.0
2.945239 0.797331 0.001662 0.0
2.236444 0.307062 -0.002621 0.0
0.368744 0.271475 0.001831 0.0
2.000604 0.350942 0.001203 0.0
1.418173 1.061902 -0.000278 0.0
3.335452 0.304366 -0.003515 0.0
0.576156 1.043052 -0.001019 0.0
4.094772 0.742398 0.001769 0.0
1.987428 0.823705 -0.001718 0.0
3.564084 0.861906 0.002061 0.0
2.972460 0.778737 0.004163 0.0
2.949529 1.384292 -0.003548 0.0
0.340512 1.105756 0.001889 0.0
3.265010 0.569043 0.001960 0.0
4.772915 0.240783 0.003996 0.0
0.248639 0.161504 -0.004438 0.0
1.009675 0.580707 0.000259 0.0
2.098878 0.036190 0.000083 0.0
3.669632 0.661074 0.003758 0.0
2.341855 1.456416 -0.003350 0.0
2.445562 0.831732 -0.000522 0.0
0.970541 0.089420 0.000826 0.0
0.196909 1.440429 -0.001369 0.0
1.534185 1.478864 0.000009 0.0
1.923051 1.518902 -0.000979 0.0
0.551608 0.480080 -0.001213 0.0
2.226143 0.753628 0.001220 0.0
3.372787 0.470342 0.005836 0.0
4.593019 1.320432 -0.004977 0.0
2.748984 1.215657 0.001172 0.0
0.727954 1.551311 -0.001236 0.0
0.576085 0.144848 0.003062 0.0
4.259155 0.018109 0.001214 0.0
2.168470 0.947418 -0.000031 0.0
4.562839 0.306859 0.002991 0.0
1.786632 0.335239 0.000557 0.0
0.528822 1.242406 0.001231 0.0
2.891658 1.015645 0.005128 0.0
3.075367 1.203010 -0.003372 0.0
1.619375 0.679360 -0.001799 0.0
0.009573 0.837881 -0.001425 0.0
2.642884 0.367373 -0.003819 0.0
4.807704 0.380950 -0.003255 0.0
3.863852 1.299182 0.002385 0.0
3.357868 0.116100 -0.002060 0.0
0.225762 0.032230 -0.003533 0.0
2.096419 0.218158 -0.000037 0.0
1.495193 1.541078 -0.002912 0.0
1.985714 1.656545 0.000519 0.0
0.742501 1.100372 0.003787 0.0
3.790702 0.261732 -0.003564 0.0
1.347371 0.445913 -0.000449 0.0
2.390669 0.561677 -0.001459 0.0
1.558716 1.353497 0.002861 0.0
2.821884 0.896917 -0.005984 0.0
3.396471 0.904519 -0.001669 0.0
1.607972 1.123941 -0.000438 0.0
0.817558 1.212666 0.001543 0.0
4.695386 0.984105 0.001465 0.0
1.703962 1.383114 -0.000708 0.0
3.054610 1.620859 -0.000347 0.0
1.672090 1.434737 0.000604 0.0
4.302602 0.634341 -0.000731 0.0
2.448601 0.064990 0.000983 0.0
4.568528 1.529357 -0.002157 0.0
1.649314 1.076009 -0.000959 0.0
1.770816 1.466264 0.000048 0.0
4.552145 1.698994 -0.004512 0.0
0.374870 1.383719 -0.000948 0.0
4.767348 0.460793 -0.001275 0.0
2.222512 1.619874 -0.000007 0.0
3.086505 1.552320 -0.002053 0.0
0.894862 0.331606 -0.001385 0.0
3.978434 0.290921 -0.000299 0.0
1.967889 0.179122 0.001766 0.0
0.931536 1.250162 -0.000796 0.0
1.704137 1.204146 0.002061 0.0
1.967425 0.618768 0.003751 0.0
0.503317 1.285686 0.002522 0.0
4.174547 0.667089 -0.006733 0.0
2.230839 0.822108 -0.001405 0.0
2.657047 1.558693 -0.001385 0.0
1.162907 0.634692 0.002093 0.0
3.565716 0.075185 -0.001026 0.0
1.771125 0.252884 -0.003251 0.0
2.958514 1.284647 0.002475 0.0
2.505427 1.608382 -0.005270 0.0
3.581708 0.301347 -0.003205 0.0
0.576585 0.156028 -0.000437 0.0
3.557856 0.186065 0.001144 0.0
4.647503 0.193263 0.001608 0.0
1.798046 1.435111 0.005643 0.0
1.080250 0.468073 -0.000969 0.0
0.445704 1.481686 0.001015 0.0
4.108359 0.777318 -0.002813 0.0
4.632480 0.494610 -0.002448 0.0
1.201207 0.523705 0.001986 0.0
1.627322 0.339834 0.002406 0.0
1.097838 1.458946 0.001211 0.0
1.633097 0.932802 -0.003714 0.0
3.416005 0.503099 -0.001221 0.0
4.142276 0.913444 -0.001667 0.0
2.597350 1.095174 0.002220 0.0
2.024709 0.833292 0.000137 0.0
1.259265 1.541166 -0.004486 0.0
3.001607 1.660448 0.001515 0.0
4.103733 0.922777 -0.003644 0.0
0.290500 0.662222 0.000413 0.0
3.721008 0.174616 -0.001441 0.0
3.853838 1.584667 -0.002950 0.0
1.160142 1.362490 0.003600 0.0
2.189810 1.259311 -0.003295 0.0
1.710136 0.347700 0.005259 0.0
2.741486 0.932877 -0.003650 0.0
1.888296 1.112647 -0.001667 0.0
1.462777 1.378458 0.000051 0.0
2.152879 1.079795 -0.004114 0.0
3.947505 1.535063 -0.002749 0.0
4.608921 0.764228 -0.001182 0.0
2.742640 0.809745 -0.000796 0.0
0.560237 0.586065 -0.002094 0.0
3.799088 0.737178 0.002379 0.0
2.751088 0.307622 -0.000139 0.0
2.912206 0.632662 0.000505 0.0
0.391948 1.502450 -0.001125 0.0
4.594054 1.678670 -0.004069 0.0
4.260192 0.479435 0.002849 0.0
4.136736 0.628415 0.001667 0.0
2.841760 0.380141 -0.003757 0.0
2.759092 0.035807 0.003450 0.0
1.912510 0.569061 -0.001154 0.0
3.134880 0.886049 -0.001680 0.0
0.857506 1.181724 0.000644 0.0
1.656375 0.573463 0.001248 0.0
1.172881 0.147075 -0.000006 0.0
1.903168 1.302442 0.002410 0.0
2.694673 1.375668 0.003320 0.0
0.003393 0.234757 -0.003964 0.0
2.854246 0.859592 0.000343 0.0
2.546959 1.286355 -0.002158 0.0
3.611678 1.680991 0.000752 0.0
0.673955 0.133804 -0.001651 0.0
0.470345 0.227018 0.000616 0.0
1.677825 0.183727 -0.003774 0.0
1.922040 0.123284 -0.000376 0.0
1.678394 1.149229 -0.002834 0.0
2.451617 1.270553 0.001935 0.0
0.004283 1.356507 0.002880 0.0
2.351397 1.435970 -0.000699 0.0
2.090495 1.073415 -0.001078 0.0
1.557633 0.884443 0.006220 0.0
1.089754 0.443366 -0.000154 0.0
2.535680 1.122115 0.001259 0.0
3.701201 0.052336 0.000156 0.0
0.169934 0.132356 0.002054 0.0
2.396274 0.167169 -0.001534 0.0
0.756037 1.484492 -0.004081 0.0
2.502170 0.022994 -0.002945 0.0
3.794034 0.450542 -0.001840 0.0
4.660420 0.166608 -0.001721 0.0
3.718936 0.792364 0.001381 0.0
1.360114 1.202228 -0.002090 0.0
2.201406 0.658488 -0.003907 0.0
1.509207 1.216739 -0.003178 0.0
0.938842 1.345127 0.001130 0.0
0.952082 1.050982 0.004991 0.0
3.359899 0.446333 0.000114 0.0
1.983208 0.528058 0.003368 0.0
3.384410 0.042496 -0.004332 0.0
1.094969 1.626462 -0.000735 0.0
2.888923 0.427922 0.000421 0.0
3.316851 1.090240 0.003711 0.0
0.382229 1.552548 0.001331 0.0
1.646154 1.065386 -0.000096 0.0
2.692360 0.973311 0.002014 0.0
2.445477 1.262943 -0.000955 0.0
3.079832 0.205001 -0.001368 0.0
3.902307 1.327028 0.003977 0.0
3.104400 0.406300 -0.001081 0.0
3.749579 1.180913 -0.000813 0.0
3.725673 0.990882 0.000821 0.0
4.821671 1.285216 -0.001535 0.0
1.986363 0.088656 -0.001749 0.0
1.270780 0.329299 -0.002184 0.0
1.459365 1.493225 0.000215 0.0
4.003552 0.854368 -0.000152 0.0
1.095341 1.523825 -0.000450 0.0
3.520874 0.755627 0.001712 0.0
1.738906 0.362273 -0.002727 0.0
4.436458 0.035590 -0.000332 0.0
4.206791 0.694538 0.001565 0.0
2.688795 0.494123 -0.002207 0.0
1.526836 1.025479 0.000790 0.0
2.686641 0.585581 0.000340 0.0
3.449146 0.276945 0.000553 0.0
0.901247 0.517119 0.001477 0.0
1.116467 1.285919 0.005614 0.0
3.049197 0.546511 -0.000768 0.0
3.851562 0.236095 -0.003557 0.0
0.398874 1.675648 -0.004202 0.0
2.647523 0.463038 -0.003094 0.0
3.614161 0.546644 0.002600 0.0
2.361693 0.085116 -0.003285 0.0
3.642905 1.391362 0.001027 0.0
1.530597 0.826021 0.002810 0.0
4.716902 0.004151 -0.001989 0.0
3.496756 0.211912 -0.001766 0.0
3.988075 1.198463 -0.001625 0.0
2.100912 0.589599 -0.001174 0.0
1.164182 0.916832 0.002237 0.0
2.466834 0.949883 -0.002786 0.0
1.206627 0.725020 0.000330 0.0
4.442723 1.342951 -0.002933 0.0
0.352480 0.172775 0.000862 0.0
0.103648 1.669824 -0.001569 0.0
4.801210 0.951219 0.006721 0.0
3.876061 0.687586 0.004754 0.0
0.467951 1.434282 -0.000613 0.0
0.454794 0.851272 0.000580 0.0
3.216757 1.608615 -0.000623 0.0
0.630374 1.578009 -0.001189 0.0
0.632799 1.017202 0.003951 0.0
4.822868 0.752922 -0.002651 0.0
3.867818 0.738481 -0.003696 0.0
1.237462 0.107787 0.003037 0.0
2.636629 0.585937 0.001440 0.0
3.584224 1.383109 0.001789 0.0
3.211075 0.919861 -0.000053 0.0
0.216326 0.380486 -0.000199 0.0
0.471207 1.506776 0.001581 0.0
3.877495 1.110285 0.001801 0.0
1.768668 1.669821 -0.000451 0.0
1.471906 0.966895 0.001860 0.0
0.637088 1.258748 -0.001352 0.0
0.598418 0.821860 -0.000056 0.0
1.743663 0.430231 -0.003187 0.0
2.291057 0.367354 0.000260 0.0
2.957420 1.354135 -0.001754 0.0
1.393725 1.188531 -0.002883 0.0
1.387982 0.945438 -0.002485 0.0
0.791918 1.469665 0.001613 0.0
1.615950 1.200430 0.005570 0.0
3.038188 0.472128 -0.004293 0.0
1.836374 0.284549 -0.002347 0.0
3.464744 0.667889 0.002219 0.0
1.789267 0.212835 -0.000606 0.0
1.139089 1.639342 0.002252 0.0
3.476927 0.768117 -0.001346 0.0
4.268852 0.685531 0.001253 0.0
0.794023 1.607945 -0.001626 0.0
4.492921 0.517687 0.000534 0.0
0.644094 0.221164 0.003094 0.0
1.144200 1.544558 -0.005390 0.0
3.801844 1.447668 -0.003292 0.0
2.027206 0.401248 -0.002171 0.0
0.359954 0.281378 0.001117 0.0
1.429284 1.157418 -0.001211 0.0
1.888758 0.379065 0.002195 0.0
0.473790 0.709375 -0.006494 0.0
3.130446 0.583211 -0.000074 0.0
3.566540 0.172606 -0.000398 0.0
0.178669 0.427957 -0.000798 0.0
1.608869 1.371839 -0.004529 0.0
3.715924 1.285259 0.000734 0.0
3.167749 1.114990 -0.001118 0.0
3.342550 0.121848 -0.009223 0.0
4.445870 0.199632 0.003402 0.0
4.646982 0.850162 0.001047 0.0
0.975987 0.761663 0.000856 0.0
2.412049 0.059587 0.000435 0.0
0.757414 0.910004 0.001601 0.0
0.975787 1.013274 -0.004672 0.0
3.100496 -0.003326 0.001210 0.0
2.082579 1.344777 -0.003984 0.0
1.423075 1.183377 0.000544 0.0
0.347886 1.425778 0.004511 0.0
2.994559 1.370893 -0.000623 0.0
2.502604 0.631063 -0.000077 0.0
0.616478 0.530624 0.002757 0.0
4.692703 0.784012 0.004205 0.0
3.956894 1.453584 0.004166 0.0
1.609585 0.960735 -0.002793 0.0
2.570427 1.232601 0.002344 0.0
3.986484 1.232261 0.000656 0.0
1.749380 1.231625 -0.003148 0.0
2.539146 0.533923 -0.001324 0.0
3.462373 1.497766 -0.002452 0.0
3.232272 1.473493 -0.002387 0.0
2.950031 0.302010 0.000144 0.0
4.213495 0.121419 0.000200 0.0
2.320087 1.691104 0.002453 0.0
1.742992 0.508647 0.000738 0.0
3.577390 0.286699 -0.001800 0.0
0.717003 0.570919 -0.001158 0.0
0.460946 0.002385 -0.001701 0.0
4.183207 1.460061 0.003412 0.0
3.910644 0.916274 0.003389 0.0
0.101943 1.247500 0.002396 0.0
4.575021 0.350547 -0.000658 0.0
2.716097 0.474456 0.000926 0.0
1.260159 0.858000 -0.002663 0.0
2.564645 1.232698 -0.000466 0.0
4.664058 0.636923 0.000602 0.0
3.173228 1.623325 -0.001381 0.0
0.738376 1.213967 -0.000991 0.0
1.739688 1.090467 -0.003940 0.0
4.268956 1.265646 -0.002952 0.0
1.241378 0.424534 0.000251 0.0
0.896775 0.276561 0.000112 0.0
0.661216 1.354248 0.003864 0.0
3.722386 1.209619 -0.002844 0.0
0.700019 0.107757 -0.001924 0.0
0.438492 0.806421 -0.002094 0.0
2.120866 0.610026 0.003995 0.0
3.056547 1.398268 -0.001579 0.0
1.843498 0.361870 0.001693 0.0
1.432104 1.671525 0.001158 0.0
4.720768 0.442461 -0.001255 0.0
1.762948 0.195603 -0.000252 0.0
1.507399 0.948579 -0.000389 0.0
3.116297 0.154360 -0.001798 0.0
3.330375 0.852416 0.000197 0.0
2.014639 0.036840 0.002352 0.0
1.331381 0.375217 -0.000119 0.0
3.264369 0.856657 0.000983 0.0
1.786626 0.201785 0.004218 0.0
2.239105 0.073472 -0.002155 0.0
1.401145 1.477317 0.003552 0.0
1.311296 1.568682 0.001485 0.0
3.551817 0.196642 -0.001644 0.0
0.854264 0.941503 -0.000482 0.0
1.331056 0.824903 -0.001173 0.0
4.038765 1.316377 -0.000788 0.0
2.656286 0.797369 -0.000224 0.0
0.787957 1.305003 -0.002580 0.0
1.097824 0.370814 0.001988 0.0
3.024448 1.088750 -0.000947 0.0
4.211022 1.485936 0.001662 0.0
0.185196 1.381341 -0.000081 0.0
3.219637 1.551505 -0.002337 0.0
1.017432 1.011681 0.001840 0.0
3.494654 0.536340 -0.001032 0.0
4.807474 1.070481 -0.003531 0.0
3.457412 0.321893 0.002268 0.0
3.659306 1.356779 0.005105 0.0
3.211052 1.621951 -0.002630 0.0
1.523525 1.320964 0.001496 0.0
4.238460 0.374225 -0.001943 0.0
2.242810 0.886323 0.002181 0.0
3.012731 0.245975 0.002351 0.0
2.519003 0.232820 0.000045 0.0
1.159959 0.231452 0.001241 0.0
1.564132 1.019367 0.000345 0.0
0.414150 1.550508 -0.001272 0.0
3.008061 0.173316 -0.000013 0.0
2.856754 0.808348 0.003201 0.0
3.074720 1.311524 0.003131 0.0
3.716203 1.024740 -0.000895 0.0
2.688953 0.521797 0.002337 0.0
1.122282 1.473841 -0.002389 0.0
0.936086 0.702968 -0.001357 0.0
2.797239 0.136687 0.000456 0.0
2.654511 1.510750 -0.003131 0.0
3.222993 0.583800 0.000154 0.0
3.970934 0.273059 0.001304 0.0
1.503994 0.764683 0.000971 0.0
2.563494 1.689341 -0.001662 0.0
1.040020 1.328357 0.002739 0.0
2.998987 1.596765 0.001969 0.0
0.807209 0.790750 -0.001979 0.0
0.878102 1.108441 -0.002288 0.0
2.164179 0.416737 -0.001955 0.0
1.462152 0.593184 -0.001909 0.0
1.836744 0.650678 0.000471 0.0
2.437471 0.195492 -0.004413 0.0
0.679167 0.171672 0.000006 0.0
0.163064 0.205798 0.003412 0.0
2.982538 1.126314 -0.003148 0.0
4.352173 1.613363 0.000537 0.0
3.632344 0.183919 0.000419 0.0
1.026063 0.095811 -0.001277 0.0
4.381903 0.439267 -0.000692 0.0
0.391210 1.172814 0.005320 0.0
1.316015 1.055664 -0.000779 0.0
3.336611 0.810373 0.004863 0.0
0.476512 1.405295 -0.000278 0.0
2.287720 0.156504 0.006244 0.0
2.420409 0.901233 0.005243 0.0
4.302704 1.408279 -0.001851 0.0
0.218380 0.938576 0.004166 0.0
0.253985 0.345506 -0.005787 0.0
1.881024 1.539603 -0.000586 0.0
1.897929 0.624211 0.003790 0.0
4.782172 0.822766 0.000730 0.0
1.457363 0.941025 0.000294 0.0
0.634057 0.861724 -0.000513 0.0
0.633410 1.160716 -0.002697 0.0
0.359136 0.372109 0.005637 0.0
4.702518 1.389921 0.000946 0.0
3.036158 1.526038 -0.000124 0.0
0.661273 0.877553 -0.001376 0.0
0.073298 1.573685 -0.003392 0.0
1.324263 0.831571 -0.002712 0.0
1.499442 0.521102 -0.000003 0.0
1.109820 0.166451 0.002386 0.0
4.637730 1.245513 0.001352 0.0
2.713531 0.712823 0.001444 0.0
2.679943 0.955636 0.003242 0.0
1.967137 0.759591 -0.001158 0.0
1.039956 1.494949 -0.001804 0.0
1.365181 1.685792 -0.002437 0.0
2.219497 1.004763 -0.000829 0.0
0.850876 0.067013 0.001281 0.0
0.270963 0.032885 0.000159 0.0
0.439552 0.644990 -0.000392 0.0
3.951791 1.464892 -0.005444 0.0
3.791522 1.608016 0.000638 0.0
1.673986 0.610748 0.000778 0.0
3.555199 0.092488 0.000888 0.0
4.128001 0.878559 -0.001312 0.0
3.499438 1.062508 0.002520 0.0
1.204406 1.337106 0.000039 0.0
2.008806 0.343778 -0.002599 0.0
0.390944 0.276850 -0.001835 0.0
4.416420 1.003529 -0.001470 0.0
1.603263 0.763503 -0.001886 0.0
4.831144 0.992929 0.000032 0.0
2.271994 1.073953 -0.003155 0.0
3.401148 1.140511 -0.003214 0.0
2.467570 0.618088 0.000317 0.0
1.623264 0.011149 0.000878 0.0
4.776600 0.687023 0.003697 0.0
3.893514 0.117406 -0.002570 0.0
4.321140 1.305838 -0.001433 0.0
3.877908 0.232467 -0.002745 0.0
0.478743 0.761258 0.004097 0.0
2.658279 0.335358 -0.000958 0.0
1.791433 0.185754 -0.001840 0.0
1.556084 0.035280 -0.000808 0.0
3.130088 1.497955 -0.002274 0.0
0.325786 0.129155 -0.001693 0.0
2.089986 1.372987 0.001375 0.0
0.336079 0.168430 0.003265 0.0
3.975838 1.691575 0.001637 0.0
1.083635 0.913799 0.002456 0.0
2.526064 0.524437 -0.001606 0.0
2.160026 0.060545 -0.001613 0.0
2.740117 1.153562 -0.005785 0.0
2.252801 0.809059 0.001477 0.0
0.477560 1.631332 0.000913 0.0
2.961312 1.602089 0.000709 0.0
1.382405 0.487266 0.003185 0.0
0.685101 0.659865 -0.000799 0.0
2.450909 1.325327 -0.001126 0.0
4.632396 0.977632 -0.000140 0.0
0.911822 1.114106 -0.003133 0.0
0.420641 0.484448 -0.002530 0.0
1.902604 1.063572 0.003868 0.0
3.129507 1.358890 -0.003251 0.0
2.670226 0.849795 -0.000884 0.0
0.162456 0.964328 0.001548 0.0
3.489258 0.153065 0.000336 0.0
4.646647 0.226952 -0.000170 0.0
3.804749 0.694134 -0.005586 0.0
4.221272 0.396354 -0.003506 0.0
1.925804 0.190216 -0.002033 0.0
3.080972 0.738755 -0.001819 0.0
4.696760 0.546440 -0.003462 0.0
1.055709 0.012150 -0.002121 0.0
1.927876 1.497692 -0.004272 0.0
3.410209 1.052753 -0.002081 0.0
3.124445 0.761944 -0.003686 0.0
0.940974 1.599863 0.000375 0.0
3.131298 0.926315 0.000017 0.0
1.318080 0.616756 0.005070 0.0
3.275425 1.575972 -0.004903 0.0
0.526036 0.413018 -0.000027 0.0
3.968783 0.476546 0.000417 0.0
3.722702 1.496308 0.000010 0.0
2.132990 0.949716 -0.001262 0.0
0.103628 0.561052 -0.003288 0.0
1.611760 0.954138 0.000810 0.0
1.783649 0.849051 0.003374 0.0
0.277735 0.785917 -0.000819 0.0
2.205894 1.021925 0.002796 0.0
3.011412 0.489733 0.006304 0.0
2.744084 1.266033 0.000906 0.0
1.167007 0.784138 0.002129 0.0
3.393946 1.242729 0.003132 0.0
0.253505 1.054136 -0.003288 0.0
1.169233 0.546429 0.000044 0.0
0.435375 1.057229 0.000274 0.0
1.740740 0.753252 -0.001568 0.0
2.571238 0.168447 -0.003080 0.0
4.677817 1.563816 0.001664 0.0
3.569853 0.086578 -0.001055 0.0
3.218403 1.204526 -0.000591 0.0
2.668706 1.408038 0.002491 0.0
3.974255 0.105455 0.000750 0.0
4.347149 1.275659 -0.004099 0.0
3.201184 1.295266 0.000160 0.0
1.165803 0.353221 0.001357 0.0
3.496163 1.133668 -0.000399 0.0
0.038012 0.348983 0.007930 0.0
1.631631 0.046610 0.000291 0.0
2.142670 0.372324 0.001138 0.0
1.053221 1.384578 -0.002782 0.0
0.903676 1.555845 -0.000123 0.0
3.141329 1.425680 -0.002352 0.0
3.644597 0.616020 0.003738 0.0
2.864833 0.550627 -0.002510 0.0
1.467127 0.678313 0.003421 0.0
0.913620 0.932901 -0.003665 0.0
1.796446 0.120783 -0.000623 0.0
0.708826 0.499924 0.002299 0.0
0.377499 0.806692 0.000891 0.0
2.178885 1.434310 -0.000654 0.0
3.265281 1.549186 -0.004160 0.0
4.771955 0.517294 0.005036 0.0
4.730140 1.098295 0.003856 0.0
3.945071 1.581816 0.002956 0.0
0.393775 1.045596 0.001262 0.0
1.360945 1.318635 -0.001935 0.0
0.798012 0.569619 -0.004451 0.0
2.294659 1.697209 -0.001639 0.0
0.234269 0.475884 -0.001538 0.0
0.629705 1.304627 -0.002661 0.0
4.424910 1.006489 0.000440 0.0
0.523198 0.411029 0.000768 0.0
1.276802 0.794490 0.002048 0.0
1.011757 0.730686 -0.001906 0.0
0.011358 1.238907 -0.001388 0.0
0.717040 0.875329 -0.000320 0.0
1.815698 1.128195 0.001462 0.0
4.566249 1.309746 0.005988 0.0
0.364027 0.295957 -0.002368 0.0
2.045621 0.706789 0.000357 0.0
4.001323 0.850697 0.000237 0.0
1.893694 1.436056 -0.004832 0.0
0.127883 0.755493 -0.004141 0.0
3.794904 1.390727 0.000953 0.0
2.199214 0.453272 0.002508 0.0
1.265408 0.505742 0.001925 0.0
2.784197 1.417176 -0.002407 0.0
0.557698 1.627494 -0.002609 0.0
3.807764 0.042860 -0.003464 0.0
2.578185 1.611509 -0.000756 0.0
0.249179 1.425920 -0.001322 0.0
4.080023 0.492849 -0.002388 0.0
2.589812 0.402924 0.000189 0.0
3.544184 1.504473 -0.000314 0.0
0.631165 0.395814 0.000667 0.0
0.543300 1.365789 0.001425 0.0
1.217161 0.826504 -0.000990 0.0
2.381798 0.215963 0.002217 0.0
3.069698 1.275741 0.001285 0.0
1.928273 0.214275 0.002249 0.0
0.500592 1.532709 -0.001136 0.0
1.286254 0.191796 0.000198 0.0
2.502355 1.092127 0.002553 0.0
4.493786 0.266067 -0.001183 0.0
1.402600 1.361956 -0.001731 0.0
0.824010 0.109806 -0.003804 0.0
0.566316 0.340469 -0.000470 0.0
3.272044 0.108122 -0.003158 0.0
0.102348 0.618099 -0.000541 0.0
2.424047 0.648729 0.002191 0.0
1.001282 0.275085 0.000795 0.0
0.392689 1.339660 -0.001166 0.0
3.270575 0.040123 0.000871 0.0
2.047513 1.042236 -0.002858 0.0
4.672196 1.544290 -0.004107 0.0
0.276631 1.048449 0.000862 0.0
3.944858 0.423860 -0.002122 0.0
4.653763 0.057508 0.000411 0.0
0.293876 0.800002 -0.001219 0.0
0.460989 0.550098 0.001236 0.0
2.722439 0.309661 0.001300 0.0
2.022019 0.656980 -0.002176 0.0
4.703134 1.206852 0.001565 0.0
0.428601 0.387538 -0.004348 0.0
4.106710 1.612950 0.003050 0.0
1.990481 1.577368 0.001229 0.0
4.298172 1.176442 -0.001643 0.0
3.212242 1.507290 0.001589 0.0
4.692243 0.757687 0.003784 0.0
1.210481 1.389858 -0.000663 0.0
3.666228 1.603641 -0.000312 0.0
2.942966 0.896334 0.002630 0.0
2.803141 0.916598 0.002270 0.0
1.569108 0.827069 0.001340 0.0
2.762885 0.629884 0.001015 0.0
2.324713 1.046792 -0.000375 0.0
0.363984 0.616783 -0.001905 0.0
3.364381 0.443197 0.000549 0.0
1.155177 1.189026 -0.000961 0.0
0.936010 0.104431 0.000546 0.0
3.686381 0.904277 0.002950 0.0
1.872760 0.601845 0.000203 0.0
4.544640 1.169761 0.000565 0.0
3.366769 0.068585 0.000182 0.0
0.528588 0.448169 -0.001061 0.0
1.686158 1.160669 0.000708 0.0
0.297967 0.865932 -0.000961 0.0
1.905056 0.400192 0.002058 0.0
4.706731 0.746245 -0.001938 0.0
2.091290 1.253453 0.000781 0.0
2.271220 0.273717 0.005052 0.0
3.987964 0.518805 0.001878 0.0
3.283432 0.919208 0.003924 0.0
3.519217 1.360481 0.000410 0.0
0.983950 0.158273 0.003399 0.0
2.362113 0.718358 -0.000699 0.0
4.556493 0.318434 -0.000755 0.0
1.260662 1.293536 -0.001027 0.0
1.220021 0.049609 0.003668 0.0
2.734038 0.777440 0.003161 0.0
1.127230 1.656142 0.003156 0.0
2.563208 0.865222 -0.002689 0.0
0.694797 0.149504 0.001096 0.0
4.596912 0.561549 0.002596 0.0
4.218091 0.239560 -0.000099 0.0
2.629784 1.266947 0.000166 0.0
2.280109 1.276451 0.000376 0.0
2.303678 0.438642 -0.002615 0.0
1.794447 1.613423 -0.002296 0.0
3.154671 1.231219 0.002125 0.0
2.798169 0.929606 -0.000755 0.0
0.227503 0.426934 -0.000304 0.0
2.718196 0.543054 0.002570 0.0
3.745963 1.490353 0.000262 0.0
0.656351 1.179589 0.002978 0.0
1.075176 0.298081 0.000007 0.0
1.409081 0.807105 0.003081 0.0
3.695697 0.513004 -0.005510 0.0
2.382212 0.841206 -0.001376 0.0
0.476467 1.691324 0.003306 0.0
3.542882 0.160059 0.000634 0.0
3.785885 0.559732 -0.004116 0.0
1.062820 1.266103 0.001144 0.0
2.373808 0.032043 -0.002482 0.0
2.924629 1.401988 0.002707 0.0
0.078058 0.087519 -0.004018 0.0
1.545861 0.036157 -0.001213 0.0
4.735848 1.448123 0.001086 0.0
4.804986 0.474613 -0.000895 0.0
3.598408 0.622029 0.000310 0.0
1.087595 0.702803 -0.002960 0.0
3.592551 1.370053 -0.002689 0.0
4.743803 0.870512 0.004157 0.0
4.353809 0.414880 0.001752 0.0
1.031635 0.185267 -0.000087 0.0
1.336335 0.835903 0.002690 0.0
2.498620 0.634145 -0.000597 0.0
3.899130 0.183706 0.000795 0.0
0.784978 0.941061 -0.001854 0.0
1.639684 1.248132 -0.000631 0.0
3.417550 1.371654 -0.001850 0.0
4.521138 0.935587 0.000245 0.0
3.775424 1.430307 -0.000846 0.0
2.409568 0.769594 -0.000907 0.0
2.373555 0.532162 0.003009 0.0
2.030315 0.354693 -0.001345 0.0
4.404122 0.519732 -0.002672 0.0
0.892386 1.631398 -0.000559 0.0
2.465541 0.899731 -0.000935 0.0
3.486901 0.586606 -0.001108 0.0
2.270008 0.432645 0.001550 0.0
3.050331 1.564669 0.003412 0.0
3.323329 1.616989 0.001336 0.0
3.058239 1.645522 0.005368 0.0
1.949693 0.897016 -0.002472 0.0
0.701726 0.997125 -0.002982 0.0
3.290014 1.329038 0.001171 0.0
1.807812 0.837703 -0.001049 0.0
3.549723 0.298060 0.003153 0.0
4.218688 0.996574 0.003038 0.0
0.090493 0.458929 -0.000034 0.0
1.505526 0.209616 -0.000401 0.0
2.027793 0.362562 0.001626 0.0
3.157204 0.113852 0.002623 0.0
3.411952 1.576807 -0.001486 0.0
2.046800 1.345617 0.000730 0.0
1.187875 0.554115 -0.002073 0.0
3.783906 0.687249 0.000587 0.0
2.020353 0.617241 0.002319 0.0
1.991225 0.026174 -0.000367 0.0
1.419977 0.062491 0.000496 0.0
0.715874 0.493899 0.003695 0.0
3.795860 0.718258 0.002114 0.0
1.118735 0.173967 -0.001399 0.0
3.401012 0.416230 0.001207 0.0
0.408861 1.264225 -0.002394 0.0
0.064360 0.010021 0.000773 0.0
0.988809 0.116137 0.002595 0.0
1.585214 1.190521 0.000483 0.0
0.447035 0.412181 0.004921 0.0
2.246141 0.157412 0.000076 0.0
2.365290 1.071546 -0.001923 0.0
2.236297 1.639226 -0.001253 0.0
2.067762 0.617137 -0.000448 0.0
3.134301 1.041336 -0.006113 0.0
0.371653 0.098103 -0.000651 0.0
0.708890 0.280959 -0.002758 0.0
4.269149 0.182423 -0.000250 0.0
0.799391 1.062747 0.001055 0.0
4.157833 1.438720 0.000761 0.0
1.701931 0.582096 -0.002410 0.0
0.777155 0.880903 0.003561 0.0
2.577529 0.157785 -0.003365 0.0
4.397886 1.009287 0.000628 0.0
4.177496 1.225509 0.000551 0.0
2.190605 0.351731 -0.002028 0.0
1.116905 0.014604 -0.000372 0.0
2.570160 0.696471 -0.001179 0.0
3.869954 0.141843 -0.003833 0.0
1.945259 0.438611 -0.001109 0.0
4.037854 0.832411 0.000964 0.0
4.402252 1.038170 0.000197 0.0
3.028108 0.422442 0.002259 0.0
1.247150 1.052721 -0.004873 0.0
0.664690 1.222951 -0.003041 0.0
4.344818 0.868265 0.001459 0.0
0.847768 1.161891 0.001115 0.0
3.137705 0.440447 0.000233 0.0
1.305033 1.363769 -0.001873 0.0
3.675358 1.213569 0.000474 0.0
0.277786 1.639834 0.003748 0.0
1.440499 0.408154 0.001668 0.0
2.183970 1.601922 0.001391 0.0
4.318840 1.653813 -0.000137 0.0
1.530793 0.618805 -0.000627 0.0
3.983557 0.035423 -0.003954 0.0
3.955609 0.579910 0.002690 0.0
2.372788 0.142050 -0.000840 0.0
0.182284 0.938253 -0.000598 0.0
3.572901 0.630016 0.000252 0.0
3.199497 0.550019 -0.001563 0.0
0.521118 0.707996 -0.004994 0.0
0.000390 0.145053 -0.000830 0.0
3.006511 0.912454 0.001790 0.0
1.876059 0.823464 -0.003038 0.0
2.372042 1.223402 -0.000108 0.0
1.384814 0.480616 0.000385 0.0
0.141357 1.571523 -0.001817 0.0
2.184483 0.688353 -0.001541 0.0
0.741287 1.281876 0.000171 0.0
2.301552 1.664645 0.005985 0.0
0.924007 1.324543 0.001528 0.0
0.483762 1.265272 -0.000820 0.0
4.106179 1.484258 0.000654 0.0
3.668668 0.506618 0.001316 0.0
1.284525 0.652576 0.000904 0.0
2.281292 0.199129 0.000932 0.0
-0.000356 1.618351 0.000255 0.0
2.176681 1.397506 0.000036 0.0
3.721932 0.764704 0.006503 0.0
4.545141 1.562869 -0.000443 0.0
0.175191 0.924689 -0.001866 0.0
4.502712 1.372812 -0.002704 0.0
2.819193 1.345680 -0.002060 0.0
1.808439 0.598225 -0.002609 0.0
2.650982 0.685190 0.002954 0.0
0.951878 0.981758 0.000168 0.0
3.923003 1.530167 0.000069 0.0
1.038892 0.027774 -0.001186 0.0
0.353599 0.578458 -0.000135 0.0
4.502816 1.291318 -0.003313 0.0
3.099950 0.260958 0.003506 0.0
3.472039 1.683313 0.002734 0.0
0.777523 0.813356 -0.004454 0.0
0.444747 1.374973 -0.001216 0.0
4.668220 0.179665 -0.002931 0.0
1.561212 1.516421 -0.000970 0.0
1.765828 1.647691 0.000535 0.0
1.815071 1.436224 -0.000318 0.0
2.785853 0.025271 -0.002282 0.0
0.137269 0.200829 -0.005174 0.0
3.536551 1.669254 -0.001441 0.0
0.130483 1.437599 -0.000787 0.0
2.686680 1.682398 -0.004498 0.0
1.152995 0.248782 -0.000042 0.0
0.071979 0.823338 0.001272 0.0
0.118690 1.255611 0.001930 0.0
3.725289 0.762970 0.004001 0.0
3.307287 0.468776 -0.001944 0.0
3.834831 1.524878 0.003369 0.0
2.408241 0.808457 0.000833 0.0
2.386837 1.164226 0.000781 0.0
3.206698 0.757058 -0.000502 0.0
2.413305 0.595187 0.000883 0.0
4.504865 0.368968 -0.003532 0.0
1.418703 1.021174 0.003896 0.0
0.450236 0.829457 0.000787 0.0
0.911022 0.991167 0.001846 0.0
0.621066 0.090664 0.001245 0.0
0.150018 0.482108 0.000199 0.0
4.504049 0.900624 -0.003881 0.0
3.162458 1.285677 0.002124 0.0
1.355835 0.551769 0.000836 0.0
3.084099 0.949745 -0.000305 0.0
2.715387 0.572909 0.001097 0.0
0.141335 1.606564 0.003033 0.0
4.096406 0.251112 -0.006617 0.0
0.928880 1.148093 -0.002856 0.0
4.457593 0.932472 0.000828 0.0
2.861587 0.509509 -0.001872 0.0
2.497486 1.463522 -0.002606 0.0
2.422427 0.309602 -0.001951 0.0
3.170892 0.103460 0.000943 0.0
3.469292 1.638424 -0.002996 0.0
0.704410 0.808726 -0.005558 0.0
4.677113 1.666184 -0.005560 0.0
1.088470 0.611783 0.000158 0.0
1.540665 0.997993 0.000257 0.0
2.929667 0.195944 0.000052 0.0
2.198188 0.733090 0.001983 0.0
1.244602 1.536613 0.003421 0.0
0.234212 1.015780 0.001273 0.0
2.212579 0.522097 -0.003699 0.0
0.410238 1.269270 -0.001322 0.0
2.716493 0.632904 0.001002 0.0
4.529001 0.763360 0.000154 0.0
0.677298 1.064648 0.001055 0.0
1.470307 1.267682 -0.000073 0.0
3.559747 1.217012 0.007230 0.0
2.772241 1.007946 -0.001662 0.0
1.658350 0.878917 -0.001552 0.0
4.830254 0.215545 0.001621 0.0
1.531137 1.097507 -0.001875 0.0
0.482117 0.691422 -0.001627 0.0
4.333644 0.598940 0.001243 0.0
3.519919 1.511136 -0.001855 0.0
2.101504 0.424633 0.002930 0.0
4.138612 1.340932 -0.001679 0.0
1.424596 0.104512 -0.000044 0.0
4.372427 0.358412 -0.005894 0.0
0.932449 0.757871 0.003744 0.0
4.192628 1.182779 0.000327 0.0
3.603158 0.389004 0.000405 0.0
3.850834 1.160641 0.000087 0.0
2.604415 1.512908 0.002660 0.0
3.842137 0.661913 0.001039 0.0
3.679149 0.605308 0.002255 0.0
4.486856 0.973736 -0.004507 0.0
4.709365 0.775614 0.002474 0.0
2.744458 0.490119 0.004635 0.0
3.239530 1.076401 -0.000916 0.0
0.691069 1.474346 0.000665 0.0
2.325230 1.668757 -0.003077 0.0
1.443465 0.505268 -0.003932 0.0
2.686999 0.909380 -0.000346 0.0
1.232301 1.268064 0.000914 0.0
0.668657 0.683875 -0.000325 0.0
0.435277 0.552108 0.001057 0.0
0.013795 0.619069 -0.006106 0.0
3.573762 0.892706 0.000985 0.0
4.708907 0.715215 -0.001833 0.0
2.602809 0.817225 -0.003344 0.0
3.180273 0.599119 0.000487 0.0
0.326027 0.448849 -0.001399 0.0
3.429727 1.224866 0.001529 0.0
0.140542 0.187265 -0.005874 0.0
2.831208 0.365971 -0.000855 0.0
4.255096 0.377580 -0.002357 0.0
2.943466 0.541016 -0.001441 0.0
3.064477 0.472205 0.002588 0.0
3.320506 0.945608 0.000393 0.0
3.517120 0.590558 0.001366 0.0
3.118552 1.334011 -0.001760 0.0
0.144954 0.922160 0.000889 0.0
2.231796 1.173350 0.000527 0.0
3.503706 0.030905 -0.006490 0.0
3.425701 1.607628 -0.004614 0.0
2.825515 0.357052 -0.000188 0.0
3.377623 1.098716 -0.005443 0.0
4.594040 0.956615 0.000345 0.0
0.851889 1.400248 -0.002722 0.0
1.941893 0.935450 -0.000306 0.0
0.776052 1.043715 0.001350 0.0
2.688127 0.384585 -0.000824 0.0
4.256362 1.347960 0.002185 0.0
0.848310 1.453413 -0.001782 0.0
2.260700 1.503873 -0.000447 0.0
0.332530 0.706583 -0.003478 0.0
