4.14001220 0.57364412 0.00014856 0.00000000
3.75397279 0.50128958 -0.00302729 0.00000000
0.08163649 1.97169486 0.00248521 0.00000000
2.21211000 1.63413340 -0.00095810 0.00000000
3.14145973 0.88032205 0.00205470 0.00000000
3.86759532 0.69422209 -0.00025491 0.00000000
2.87255266 1.96093151 -0.00105139 0.00000000
0.81076522 1.89465706 -0.00211384 0.00000000
3.15587646 1.10953073 -0.00151153 0.00000000
4.05368626 0.31136749 -0.00159237 0.00000000
3.31463434 0.42102069 0.00316324 0.00000000
0.10833029 0.00899770 -0.00140608 0.00000000
1.28564694 1.81770385 0.00122880 0.00000000
0.73155181 1.08161447 0.00451156 0.00000000
0.65905022 0.50697884 -0.00350792 0.00000000
1.63316093 0.69217637 -0.00109461 0.00000000
1.62172727 1.65371903 0.00034952 0.00000000
3.03773861 1.59151015 0.00126793 0.00000000
3.82108858 0.13265843 -0.00171669 0.00000000
2.33423840 1.11447042 0.00113854 0.00000000
1.93752404 0.64625091 0.00240908 0.00000000
0.02941164 0.27537104 -0.00056466 0.00000000
3.91405396 1.63358235 0.00220712 0.00000000
0.91657628 0.50660207 0.00265374 0.00000000
3.91514438 1.85066203 -0.00153159 0.00000000
0.62285562 1.37031548 0.00104370 0.00000000
3.99004145 0.83388394 -0.00111217 0.00000000
0.69440033 1.89434210 -0.00428961 0.00000000
2.27909844 0.75058073 -0.00114091 0.00000000
2.80414588 0.92568883 -0.00026292 0.00000000
3.13018196 0.36873692 -0.00233638 0.00000000
1.32728726 1.88246331 -0.00087431 0.00000000
1.59328563 1.14383175 0.00085850 0.00000000
0.52996601 1.71363816 -0.00158859 0.00000000
0.06001663 0.97025560 0.00369735 0.00000000
0.32973268 1.84198562 -0.00292715 0.00000000
2.49302462 0.51687452 0.00242405 0.00000000
2.45314992 1.65644615 0.00285771 0.00000000
3.65445992 0.88698121 0.00118559 0.00000000
1.11784929 0.80842156 -0.00005535 0.00000000
0.68921856 0.50072718 -0.00246118 0.00000000
3.42984476 1.18990571 -0.00207999 0.00000000
2.11541914 0.74653541 0.00213318 0.00000000
2.39037575 0.22523340 -0.00159056 0.00000000
3.53754772 1.99529357 -0.00416700 0.00000000
0.30906653 1.97760935 0.00085723 0.00000000
0.29002872 0.49677948 0.00045053 0.00000000
3.93750091 0.35871695 -0.00458065 0.00000000
3.89734971 0.37406222 -0.00096755 0.00000000
3.29476565 1.38829860 -0.00004636 0.00000000
0.02281402 1.46225137 0.00021303 0.00000000
1.10766242 1.80808527 -0.00553573 0.00000000
1.62300142 1.02392064 0.00312143 0.00000000
3.55086447 1.58236269 -0.00153350 0.00000000
1.75409821 1.27680687 0.00150193 0.00000000
3.37320709 1.83393926 -0.00265204 0.00000000
0.90299847 0.18112257 0.00039796 0.00000000
1.95844221 1.17476654 0.00127693 0.00000000
1.52246871 0.03317716 -0.00120209 0.00000000
1.54775363 1.06880132 0.00303940 0.00000000
3.29266316 1.29956732 -0.00162232 0.00000000
0.15276133 1.50601679 0.00266713 0.00000000
1.58569396 0.48956007 -0.00140079 0.00000000
3.39376885 0.21710422 0.00003294 0.00000000
2.80325320 1.35672661 -0.00252226 0.00000000
2.88061680 1.08319808 0.00076142 0.00000000
2.43372418 1.53834430 -0.00313793 0.00000000
2.88501921 0.18286491 -0.00018913 0.00000000
3.22662618 0.56243427 -0.00412217 0.00000000
1.93510065 1.80309735 -0.00145215 0.00000000
3.94542160 1.40811803 -0.00086328 0.00000000
0.54352039 1.21726868 -0.00055170 0.00000000
0.59069861 0.52971617 0.00064774 0.00000000
0.55467490 1.23521375 -0.00224331 0.00000000
3.77580243 1.14577694 -0.00258140 0.00000000
0.59238737 0.59226441 0.00069091 0.00000000
3.04096915 0.05071474 0.00069388 0.00000000
3.51144077 1.88145651 0.00229911 0.00000000
3.03083526 0.45524624 0.00365429 0.00000000
1.85525296 0.35112297 -0.00007285 0.00000000
0.72399652 1.92476675 0.00087222 0.00000000
3.23753406 0.84392435 0.00276650 0.00000000
3.11044463 1.05466532 0.00123907 0.00000000
3.70514385 1.16299331 0.00449284 0.00000000
3.08776678 1.73335883 0.00050058 0.00000000
2.60352786 1.24828452 0.00163127 0.00000000
1.52805466 0.29627850 0.00133243 0.00000000
0.04489982 0.75685576 0.00479177 0.00000000
0.93266543 1.27963479 -0.00008560 0.00000000
2.94795379 1.39160831 0.00164714 0.00000000
2.69775030 0.02529684 -0.00115327 0.00000000
2.19076863 1.95212785 -0.00355472 0.00000000
0.03305787 1.57073543 -0.00246576 0.00000000
0.68579206 1.82502180 -0.00283982 0.00000000
2.37670174 0.22090832 0.00384786 0.00000000
1.11111064 1.13718070 -0.00203114 0.00000000
3.04256724 0.18366957 0.00340234 0.00000000
4.07941003 0.06215208 0.00126429 0.00000000
2.22513145 0.58908762 -0.00146577 0.00000000
2.76126474 0.06877593 -0.00118550 0.00000000
3.39831017 1.62536498 -0.00166454 0.00000000
3.40232060 0.34110482 -0.00398383 0.00000000
2.52046041 1.14734586 0.00260025 0.00000000
2.76485612 1.54240873 0.00062597 0.00000000
2.62948947 0.67588939 -0.00304029 0.00000000
1.45334086 1.35184023 0.00079966 0.00000000
2.78096872 0.23968754 0.00156042 0.00000000
0.66375098 0.84458330 0.00296441 0.00000000
3.28682217 1.81095977 0.00132669 0.00000000
1.90485885 0.56936341 -0.00062054 0.00000000
2.90224609 1.51614988 -0.00242627 0.00000000
4.07159480 0.59494140 -0.00232591 0.00000000
1.49691664 1.14360923 0.00217859 0.00000000
0.37741508 1.40094559 -0.00063579 0.00000000
2.37314439 1.42016429 0.00122685 0.00000000
3.59255611 1.18363557 -0.00227376 0.00000000
3.61383874 1.48089035 -0.00108518 0.00000000
0.31700768 1.81903611 0.00420179 0.00000000
2.96809860 0.45474071 0.00231873 0.00000000
1.57859823 0.28349860 0.00423506 0.00000000
1.13112711 1.60243326 -0.00181042 0.00000000
1.15831912 0.11157058 -0.00342322 0.00000000
0.75860258 1.77460223 -0.00094425 0.00000000
4.10437350 1.78042065 -0.00242674 0.00000000
2.15958489 0.26127378 -0.00153465 0.00000000
0.41347911 0.75488016 0.00106844 0.00000000
3.68824320 0.20959634 -0.00354478 0.00000000
2.85620963 1.20716844 -0.00259010 0.00000000
2.69569000 0.82612089 -0.00030558 0.00000000
1.91211034 1.31701955 -0.00000148 0.00000000
3.91682090 0.21257748 0.00063012 0.00000000
3.26145381 1.70990381 0.00037214 0.00000000
4.11947125 0.26386392 0.00167172 0.00000000
2.87290639 0.85478285 0.00161100 0.00000000
0.05195386 1.50919485 0.00136299 0.00000000
3.79856518 0.44470250 0.00304259 0.00000000
3.72719348 0.85215061 -0.00504541 0.00000000
3.46822298 0.50833871 0.00166463 0.00000000
2.53886383 1.14252076 -0.00040091 0.00000000
2.99305681 1.41179105 -0.00190731 0.00000000
1.67261570 0.28212885 -0.00053412 0.00000000
0.51858840 0.16210843 -0.00056364 0.00000000
2.91849706 1.14441008 -0.00063581 0.00000000
2.34193642 1.09836544 -0.00428363 0.00000000
3.20465295 1.52242181 -0.00051623 0.00000000
0.79206870 0.85577963 -0.00030613 0.00000000
2.21099031 1.91926509 -0.00315981 0.00000000
3.32630494 0.33266795 -0.00380495 0.00000000
0.15693224 1.01877107 -0.00078843 0.00000000
2.68982305 1.88925435 0.00086500 0.00000000
2.14303617 0.34242014 0.00633884 0.00000000
1.49486429 0.36286362 -0.00438987 0.00000000
3.81086472 0.26821668 0.00090980 0.00000000
4.08397269 1.10877978 0.00271836 0.00000000
3.42632138 0.42230398 -0.00092663 0.00000000
2.17889363 1.49036148 -0.00193383 0.00000000
3.90830520 1.27813226 -0.00061012 0.00000000
0.60745423 0.60883534 -0.00148838 0.00000000
0.24967568 0.86546344 -0.00132963 0.00000000
1.08113942 0.41400848 0.00055903 0.00000000
0.43690508 0.30963081 0.00095043 0.00000000
0.64709389 1.67401533 0.00096173 0.00000000
3.23721267 0.42910220 -0.00304219 0.00000000
4.04611520 0.55805498 -0.00063194 0.00000000
0.78120753 1.85081411 0.00318059 0.00000000
3.58915912 1.37390057 0.00243980 0.00000000
0.20950925 0.17179834 0.00419172 0.00000000
3.23364010 1.30031911 0.00164951 0.00000000
2.86057460 1.78329938 -0.00035395 0.00000000
2.35076009 0.85386339 -0.00443069 0.00000000
0.47357847 0.04569746 0.00002583 0.00000000
3.09682395 0.28229190 0.00042510 0.00000000
3.16328276 0.63746742 0.00075501 0.00000000
0.69335578 1.28732099 -0.00277864 0.00000000
3.62619364 0.88924190 -0.00391167 0.00000000
4.00127036 1.69656252 -0.00158863 0.00000000
2.90206766 0.30916912 -0.00026660 0.00000000
3.40280850 1.19458876 0.00148021 0.00000000
2.35311885 0.68823839 -0.00008160 0.00000000
2.19251331 1.56646274 -0.00275277 0.00000000
0.67100104 0.78702044 -0.00133734 0.00000000
3.55351356 1.40692403 -0.00113143 0.00000000
2.37063990 0.30535287 -0.00204641 0.00000000
2.41519311 0.84732757 0.00027416 0.00000000
3.48217873 0.88624821 0.00083758 0.00000000
1.80921137 0.94277956 0.00166438 0.00000000
2.77534990 1.51465043 -0.00517744 0.00000000
2.55482124 1.31164827 -0.00220136 0.00000000
3.68417637 1.42607425 -0.00012826 0.00000000
3.15705396 1.69571220 -0.00057454 0.00000000
1.90056228 1.51342460 -0.00131733 0.00000000
2.98960467 0.86898239 -0.00015200 0.00000000
3.67005458 1.83934369 -0.00371977 0.00000000
1.12770379 0.68379830 0.00472361 0.00000000
0.03495146 1.51591310 0.00486965 0.00000000
3.22505382 0.51976912 -0.00018696 0.00000000
3.12660379 0.50238365 0.00153520 0.00000000
1.86332677 0.90455802 0.00116345 0.00000000
2.58161431 0.28190253 -0.00006652 0.00000000
0.95718680 0.50465678 -0.00081288 0.00000000
2.47916795 1.82655694 -0.00092339 0.00000000
2.72156320 0.44992333 0.00211281 0.00000000
2.95230711 1.58655105 0.00217318 0.00000000
3.87202420 1.15036574 -0.00059214 0.00000000
1.34261214 0.69847406 0.00181544 0.00000000
2.46731406 0.00520325 -0.00050504 1.00000000
3.86230285 0.00431525 0.00137428 1.00000000
0.64417815 0.00127895 0.00130479 1.00000000
1.33535786 -0.00390175 -0.00171951 1.00000000
3.33061738 -0.00410733 0.00123980 1.00000000
2.83824266 0.00337245 0.00026548 1.00000000
1.33738500 0.00050919 -0.00035602 1.00000000
0.53119709 -0.00480413 0.00170698 1.00000000
2.09961160 -0.00686052 -0.00232364 1.00000000
3.20413794 0.00004737 -0.00036507 1.00000000
0.16230360 0.00245044 -0.00035592 1.00000000
2.19956265 -0.00234843 0.00042908 1.00000000
3.62322150 0.00081821 -0.00529097 1.00000000
3.14184730 0.00355337 -0.00258490 1.00000000
1.54777303 -0.00186204 0.00155089 1.00000000
3.03354268 -0.00523298 0.00184387 1.00000000
3.03523328 0.00208225 0.00144503 1.00000000
2.83487727 -0.00291650 0.00006546 1.00000000
1.39861626 0.00210119 -0.00252386 1.00000000
3.97510508 0.00079464 0.00267470 1.00000000
2.55759061 0.00006973 -0.00461370 1.00000000
2.47842094 0.00295084 -0.00082125 1.00000000
2.56192514 -0.00132548 -0.00070464 1.00000000
3.10619900 -0.00180749 0.00160426 1.00000000
0.82037668 0.00278297 -0.00040647 1.00000000
1.81998632 0.00023251 -0.00258824 1.00000000
3.41718624 -0.00270779 0.00016368 1.00000000
1.91104052 0.00206846 0.00247037 1.00000000
3.77599434 0.00614632 -0.00299829 1.00000000
2.85378107 -0.00240406 0.00220527 1.00000000
3.05440423 0.00013906 0.00227485 1.00000000
1.26980504 0.00070469 0.00121320 1.00000000
3.28086104 -0.00228758 -0.00130651 1.00000000
0.72134252 -0.00015488 0.00258576 1.00000000
3.72375562 -0.00214457 -0.00135394 1.00000000
0.25173746 0.00006705 0.00405785 1.00000000
2.04744692 -0.00570890 -0.00142304 1.00000000
0.24095591 0.00040209 -0.00498683 1.00000000
2.35458033 -0.00099024 -0.00227152 1.00000000
2.66939545 0.00400376 0.00052475 1.00000000
2.24818479 -0.00179370 0.00008008 1.00000000
3.07538826 -0.00143449 -0.00163034 1.00000000
3.95316774 -0.00252058 0.00375495 1.00000000
3.46189530 0.00219504 0.00017414 1.00000000
2.07971831 -0.00407644 0.00262886 1.00000000
3.28380463 0.00371940 0.00056336 1.00000000
0.30883699 -0.00212058 -0.00095721 1.00000000
0.69758503 0.00062586 -0.00038171 1.00000000
3.60640091 0.00005710 0.00436790 1.00000000
2.65158300 0.00068469 0.00156750 1.00000000
3.17073014 -0.00142703 0.00014904 1.00000000
3.46392422 0.00406389 0.00116829 1.00000000
2.09134085 0.00192821 -0.00460511 1.00000000
1.72807618 -0.00271988 -0.00486139 1.00000000
1.10382897 -0.00037343 -0.00090805 1.00000000
0.10775946 0.00266840 0.00177887 1.00000000
1.89167464 -0.00158477 0.00063197 1.00000000
2.92173979 -0.00329201 0.00182754 1.00000000
0.52755028 -0.00127755 0.00368214 1.00000000
4.10904113 -0.00345496 -0.00040120 1.00000000
1.43916207 0.00301833 -0.00441727 1.00000000
3.43167884 0.00075878 0.00012802 1.00000000
3.10984562 0.00225547 -0.00193981 1.00000000
1.71934082 0.00030943 -0.00211836 1.00000000
0.81558892 0.00373693 0.00156375 1.00000000
3.66813619 -0.00333621 0.00131231 1.00000000
0.44934045 -0.00156665 0.00027405 1.00000000
3.71309113 -0.00006508 -0.00486404 1.00000000
3.56279046 0.00137343 -0.00133827 1.00000000
2.71775497 -0.00319070 0.00146831 1.00000000
0.89384249 0.00113432 -0.00195619 1.00000000
1.96741899 -0.00134322 0.00075650 1.00000000
1.36560319 0.00183374 -0.00102096 1.00000000
3.67576312 -0.00213528 -0.00155932 1.00000000
1.00165299 -0.00286172 -0.00547383 1.00000000
1.97358352 0.00108279 0.00493174 1.00000000
1.83443461 0.00027317 -0.00161070 1.00000000
2.77638790 -0.00103117 -0.00025462 1.00000000
1.92356055 0.00302611 -0.00254497 1.00000000
3.77381128 0.00756740 -0.00255982 1.00000000
0.72405657 -0.00386931 0.00565065 1.00000000
1.38816420 -0.00562530 0.00220614 1.00000000
1.44182661 -0.00240770 -0.00201296 1.00000000
0.42411843 -0.00093516 -0.00027207 1.00000000
1.84635155 -0.00030746 0.00687698 1.00000000
3.68637757 0.00075214 -0.00071217 1.00000000
2.12504655 -0.00268363 -0.00036383 1.00000000
0.82318136 -0.00132624 -0.00006329 1.00000000
2.75509440 -0.00181971 0.00323475 1.00000000
2.20734369 0.00212917 0.00147537 1.00000000
1.72379076 -0.00103928 0.00667219 1.00000000
1.99631475 0.00186696 0.00210678 1.00000000
0.92214715 0.00207459 -0.00375894 1.00000000
0.91375336 0.00158872 -0.00182015 1.00000000
1.43027093 -0.00273678 0.00081677 1.00000000
3.71163836 0.00221211 0.00100774 1.00000000
4.13859025 -0.00102575 -0.00077837 1.00000000
0.71819591 -0.00157912 -0.00479005 1.00000000
0.31397624 -0.00586922 -0.00273449 1.00000000
2.01204222 -0.00199685 -0.00024026 1.00000000
2.98774015 0.00137981 -0.00124267 1.00000000
0.31709853 0.00087225 -0.00237895 1.00000000
2.69881855 0.00149916 0.00253425 1.00000000
0.15989850 0.00579999 -0.00409289 1.00000000
1.79812567 -0.00006100 0.00111400 1.00000000
4.03661128 -0.00069973 -0.00147033 1.00000000
1.23716819 -0.00200344 -0.00130258 1.00000000
2.75856479 -0.00079142 0.00168979 1.00000000
2.62340726 0.00227853 -0.00458079 1.00000000
2.36865546 0.00284602 -0.00074249 1.00000000
1.16852465 0.00329891 -0.00031966 1.00000000
4.05017347 -0.00242256 -0.00122897 1.00000000
1.93848911 -0.00200604 -0.00327477 1.00000000
0.79261758 0.00395970 0.00121028 1.00000000
1.68979303 0.00141315 0.00226066 1.00000000
2.88146982 0.00103641 -0.00165973 1.00000000
0.37323546 0.00180354 0.00117381 1.00000000
2.86772091 -0.00143322 -0.00375014 1.00000000
3.36199997 0.00005437 0.00328924 1.00000000
0.84483968 -0.00133377 -0.00017395 1.00000000
1.06874475 -0.00185347 0.00286090 1.00000000
1.62191514 0.00124746 -0.00356970 1.00000000
0.86898558 0.00298354 -0.00358097 1.00000000
2.48324910 -0.00058720 -0.00034279 1.00000000
1.68109703 0.00341818 0.00101383 1.00000000
2.19276108 -0.00435874 0.00231465 1.00000000
3.76535155 -0.00108874 0.00075494 1.00000000
3.59189680 -0.00070231 -0.00102388 1.00000000
2.76548712 0.00356215 -0.00265623 1.00000000
0.30891294 0.00167946 0.00070050 1.00000000
3.57718776 0.00062520 -0.00252678 1.00000000
3.71144990 -0.00195959 -0.00010606 1.00000000
2.37652233 0.00220912 0.00079797 1.00000000
1.31661237 0.00317219 0.00061640 1.00000000
3.67037923 -0.00018501 -0.00632122 1.00000000
0.48497448 -0.00037022 0.00071837 1.00000000
4.06057112 -0.00211257 0.00441033 1.00000000
2.85162383 0.00176532 0.00416436 1.00000000
1.35736205 -0.00380862 -0.00040372 1.00000000
1.66880644 -0.00312453 -0.00507534 1.00000000
1.88819579 0.00694652 0.00111726 1.00000000
2.63705273 0.00232848 0.00246125 1.00000000
3.61771107 -0.00264291 -0.00462530 1.00000000
3.41554675 0.00212288 0.00401787 1.00000000
2.05979987 0.00480214 -0.00189010 1.00000000
0.72771376 0.00033862 -0.00395731 1.00000000
0.48836145 0.00289494 -0.00016661 1.00000000
0.11393075 0.00379401 -0.00524435 1.00000000
0.64216392 0.00040442 0.00340922 1.00000000
3.18147181 -0.00019055 0.00145163 1.00000000
1.66663413 0.00148797 -0.00223541 1.00000000
3.85399236 -0.00037134 0.00359549 1.00000000
1.75202335 -0.00087927 0.00411430 1.00000000
2.54568911 -0.00107081 0.00168317 1.00000000
3.54396599 -0.00356163 0.00370672 1.00000000
1.06994581 0.00042486 -0.00148807 1.00000000
0.36090271 -0.00243730 -0.00088136 1.00000000
2.18654435 -0.00527568 -0.00193182 1.00000000
3.60140643 -0.00246444 -0.00258426 1.00000000
1.58765825 0.00168051 0.00371765 1.00000000
1.68495300 0.00024287 -0.00288978 1.00000000
3.17961618 -0.00457412 0.00054951 1.00000000
0.56078047 -0.00496489 -0.00186073 1.00000000
3.62264000 0.00150272 -0.00347858 1.00000000
3.09491779 0.00113018 0.00126077 1.00000000
4.00569531 0.00120515 0.00048472 1.00000000
3.63584433 -0.00327598 0.00366761 1.00000000
0.01536563 0.00796686 0.00122838 1.00000000
1.77177371 -0.00442825 0.00216289 1.00000000
2.62509699 0.00228389 -0.00369473 1.00000000
0.15615927 -0.00096995 0.00153108 1.00000000
4.05239686 0.00312600 0.00252647 1.00000000
1.25562449 0.00025649 -0.00224992 1.00000000
2.04414112 -0.00367390 0.00300962 1.00000000
1.47037639 -0.00080656 0.00213553 1.00000000
2.45039245 -0.00375748 -0.00144499 1.00000000
3.54346389 -0.00093513 0.00070541 1.00000000
3.09973673 0.00080946 0.00149471 1.00000000
2.51190139 -0.00257665 0.00105146 1.00000000
1.31933046 -0.00019624 -0.00302361 1.00000000
3.64906157 -0.00026010 -0.00074042 1.00000000
2.89595935 0.00175841 0.00065572 1.00000000
1.89619556 -0.00114221 -0.00279584 1.00000000
2.26266051 0.00264145 -0.00389813 1.00000000
0.56140680 0.00223198 -0.00474267 1.00000000
2.56468680 -0.00028910 -0.00294570 1.00000000
3.97988683 0.00275202 -0.00337838 1.00000000
2.12415092 0.00091661 0.00004465 1.00000000
2.77380523 -0.00287254 -0.00050747 1.00000000
3.34850256 0.00075544 -0.00048534 1.00000000
2.64809326 -0.00333905 0.00243039 1.00000000
1.39696967 -0.00252092 -0.00076936 1.00000000
2.36302083 0.00529128 0.00547058 1.00000000
1.13880593 -0.00171407 -0.00398940 1.00000000
3.50278886 -0.00149064 0.00266673 1.00000000
1.85642057 -0.00430039 -0.00016728 1.00000000
3.02214854 -0.00274328 0.00003209 1.00000000
2.12681648 0.00038379 0.00153642 1.00000000
0.07824676 -0.00065582 0.00120701 1.00000000
0.26937362 -0.00094325 -0.00048949 1.00000000
3.45855981 -0.00091434 0.00285557 1.00000000
1.31019991 0.00015016 0.00314780 1.00000000
1.22532698 -0.00079202 -0.00083557 1.00000000
1.80679992 -0.00112826 -0.00284241 1.00000000
0.32110833 -0.00014628 -0.00085963 1.00000000
0.11876190 0.00380239 0.00010700 1.00000000
0.07205624 0.00556153 0.00162979 1.00000000
1.71434256 0.00584302 0.00098834 1.00000000
0.87461652 -0.00083710 0.00098622 1.00000000
2.73630016 -0.00529252 0.00056589 1.00000000
1.43828045 -0.00380067 0.00069829 1.00000000
1.85663114 -0.00219300 0.00318032 1.00000000
3.01456660 0.00073271 0.00197917 1.00000000
0.11023017 -0.00192160 0.00697129 1.00000000
0.90581736 0.00122463 0.00294092 1.00000000
0.66869365 0.00050225 0.00145963 1.00000000
0.94402575 -0.00140824 0.00315314 1.00000000
0.17806917 0.00078286 -0.00176574 1.00000000
3.44574936 -0.00094510 -0.00120471 1.00000000
0.43152250 0.00011373 -0.00109416 1.00000000
0.05758909 0.00051848 0.00097532 1.00000000
3.29304752 -0.00183501 0.00124980 1.00000000
1.92221386 0.00038646 0.00116879 1.00000000
0.05724761 -0.00259301 -0.00299112 1.00000000
2.37795610 0.00332107 0.00051753 1.00000000
2.64664859 0.00213182 0.00361938 1.00000000
2.28027977 -0.00121958 0.00263802 1.00000000
3.61456847 0.00082323 -0.00016848 1.00000000
3.36535271 -0.00269320 0.00070471 1.00000000
1.38265781 -0.00003902 -0.00271687 1.00000000
0.47832740 0.00341998 0.00464060 1.00000000
2.81300845 -0.00230620 -0.00171957 1.00000000
2.54571404 -0.00193067 0.00724898 1.00000000
2.44426981 -0.00377215 -0.00036133 1.00000000
1.78324100 0.00441844 -0.00377290 1.00000000
0.04010137 0.00253616 -0.00014388 1.00000000
1.40121950 -0.00048867 0.00461862 1.00000000
3.83735178 0.00097884 -0.00234935 1.00000000
0.96271665 -0.00260676 0.00367129 1.00000000
1.29444638 0.00119498 -0.00384377 1.00000000
2.14611383 0.00202814 -0.00136819 1.00000000
2.58029981 0.00063580 0.00079321 1.00000000
1.50282517 0.00361506 0.00204650 1.00000000
2.22915043 0.00439622 0.00484908 1.00000000
3.36309401 0.00174806 0.00085997 1.00000000
3.80414376 -0.00036639 -0.00094594 1.00000000
0.47595690 0.00103797 0.00279477 1.00000000
2.65013552 0.00011150 0.00140716 1.00000000
0.66104563 -0.00402813 0.00013035 1.00000000
0.05693091 0.00108495 0.00190214 1.00000000
1.16043027 -0.00046143 0.00513307 1.00000000
0.56125030 0.00224962 0.00190771 1.00000000
1.15121885 0.00200988 0.00456479 1.00000000
3.93049559 0.00011177 0.00060047 1.00000000
3.60571443 0.00033209 0.00126935 1.00000000
3.52468725 0.00024218 0.00025154 1.00000000
3.07347977 -0.00251432 0.00468136 1.00000000
0.22842000 -0.00335008 -0.00277645 1.00000000
2.33469828 0.00351884 0.00009313 1.00000000
2.45980913 -0.00132805 -0.00321047 1.00000000
1.99064635 0.00243547 -0.00101269 1.00000000
2.14977060 0.00625821 0.00254736 1.00000000
2.39989489 -0.00234884 0.00124819 1.00000000
3.84175501 -0.00001305 -0.00117746 1.00000000
1.54662159 -0.00025633 -0.00115113 1.00000000
1.47146421 0.00103420 -0.00150591 1.00000000
0.89472010 -0.00027900 -0.00139957 1.00000000
1.32149254 -0.00020102 -0.00287796 1.00000000
2.39187564 -0.00056572 -0.00119821 1.00000000
2.91996467 0.00139202 -0.00235541 1.00000000
0.17016930 -0.00458071 0.00335877 1.00000000
0.80312575 -0.00165237 -0.00363251 1.00000000
3.63745006 -0.00008744 0.00238419 1.00000000
4.06927072 -0.00425075 -0.12340908 0.00000000
0.15791564 -0.00147351 -0.00516212 0.00000000
2.02109004 -0.00633893 -0.08749786 0.00000000
1.92648603 -0.00199998 -0.06535642 0.00000000
3.81074506 -0.00366291 -0.02764646 0.00000000
4.09137253 -0.00369827 -0.08912742 0.00000000
3.20604732 -0.00040181 -0.06206793 0.00000000
3.64432243 -0.00566606 -0.20266122 0.00000000
3.92303329 0.00028544 -0.01183273 0.00000000
1.64317032 0.00320550 -0.15508208 0.00000000
2.34298938 0.00344481 -0.02196909 0.00000000
0.32087418 -0.00356532 -0.19682721 0.00000000
0.13453717 -0.00687521 -0.12328619 0.00000000
3.88615576 -0.00031824 -0.09589608 0.00000000
2.35931301 -0.00181099 -0.09978903 0.00000000
3.89657764 -0.00066483 -0.20579544 0.00000000
1.04546222 0.00286243 -0.13710945 0.00000000
0.83246511 -0.00301515 -0.04881525 0.00000000
3.77631376 -0.00505572 -0.14226611 0.00000000
1.09804813 -0.00067277 -0.03293054 0.00000000
1.64187452 -0.00467876 -0.17333716 0.00000000
0.67762759 0.00138401 -0.13807265 0.00000000
1.37875018 -0.00452713 -0.05093351 0.00000000
3.27186173 -0.00232187 -0.04654222 0.00000000
1.55392649 -0.00012688 -0.09682738 0.00000000
0.43760286 -0.00018713 -0.04315823 0.00000000
3.39895021 -0.00111606 -0.14395212 0.00000000
3.30494055 -0.00491259 -0.03154326 0.00000000
3.63463249 -0.00573085 -0.20592521 0.00000000
0.93348672 -0.00439315 -0.10210914 0.00000000
2.52932876 -0.00376412 -0.05301224 0.00000000
2.29655071 -0.00361583 -0.03469935 0.00000000
1.09611230 0.00084460 -0.08164879 0.00000000
3.12239936 -0.00244927 -0.06525200 0.00000000
2.50788513 0.00181178 -0.00326673 0.00000000
2.12706283 -0.00232732 -0.15414836 0.00000000
3.33604419 0.00112386 -0.10612446 0.00000000
2.44153605 -0.00163708 -0.05914674 0.00000000
2.63864705 -0.00184447 -0.06772185 0.00000000
4.07816766 -0.00313673 -0.06918798 0.00000000
3.78397801 -0.00089993 -0.10715123 0.00000000
2.09701986 -0.00173269 -0.05038519 0.00000000
2.47187200 -0.00232952 -0.16286232 0.00000000
3.04597841 -0.00414907 -0.04247991 0.00000000
1.83875531 0.00274536 -0.02353656 0.00000000
2.68966528 -0.00531529 -0.02706551 0.00000000
1.21660406 0.00014851 -0.01660361 0.00000000
0.51122323 -0.00217306 -0.04562827 0.00000000
3.79532924 -0.00487111 -0.14460849 0.00000000
2.97408384 -0.00188143 -0.11459194 0.00000000
1.53090857 -0.00454623 -0.17215053 0.00000000
0.70020642 0.00328714 -0.02064078 0.00000000
2.09193340 -0.00324334 -0.05412092 0.00000000
2.02411240 0.00425306 -0.02843191 0.00000000
0.24443694 -0.00394255 -0.11252964 0.00000000
1.52088794 0.00053113 -0.20304477 0.00000000
3.20668861 -0.00178374 -0.07061206 0.00000000
1.39140550 -0.00161079 -0.04703870 0.00000000
3.46469550 -0.00006301 -0.05110017 0.00000000
3.54530531 -0.00161379 -0.01522629 0.00000000
2.39638373 0.00175552 -0.07517868 0.00000000
3.15478445 -0.00360183 -0.12063974 0.00000000
0.64761028 0.00271128 -0.01310657 0.00000000
1.95448150 -0.00207570 -0.14611184 0.00000000
3.02749106 -0.00467976 -0.03046192 0.00000000
0.40142641 -0.00649545 -0.21153314 0.00000000
3.35183323 -0.00254533 -0.20230921 0.00000000
1.53237265 -0.00432801 -0.08299088 0.00000000
1.55485149 0.00014317 -0.15516825 0.00000000
0.15137915 -0.00062467 -0.13321269 0.00000000
1.83025975 -0.00783210 -0.14371839 0.00000000
4.02296095 -0.00501828 -0.14785001 0.00000000
1.24649301 -0.00132868 -0.17696404 0.00000000
3.10711942 0.00013984 -0.08567254 0.00000000
0.20265105 -0.00246407 -0.17319119 0.00000000
1.44700387 -0.00638605 -0.20932534 0.00000000
3.13868104 -0.00731050 -0.19200983 0.00000000
1.10779267 -0.00078406 -0.06089294 0.00000000
1.48280647 -0.00237766 -0.05678649 0.00000000
1.21902149 -0.00175973 -0.00113672 0.00000000
1.58940094 0.00054279 -0.10181099 0.00000000
0.45424090 -0.00101622 -0.03746920 0.00000000
3.53975879 -0.00421652 -0.06616806 0.00000000
2.04614972 -0.00337104 -0.19733097 0.00000000
2.89193632 -0.00319818 -0.19442625 0.00000000
0.75592980 -0.00137202 -0.18500262 0.00000000
0.88717347 -0.00082875 -0.17351133 0.00000000
3.35027800 -0.00486410 -0.11838892 0.00000000
3.43535945 -0.00268863 -0.11560053 0.00000000
0.67525161 -0.00223914 -0.12704592 0.00000000
2.89241870 -0.00275773 -0.17643374 0.00000000
1.97289228 -0.00038889 -0.03172544 0.00000000
0.42402603 -0.00282977 -0.07423041 0.00000000
1.74110625 -0.00302975 -0.12420937 0.00000000
0.95539444 -0.00185746 -0.06198754 0.00000000
2.53281694 -0.00323182 -0.13544548 0.00000000
0.31667973 -0.00190119 -0.17687824 0.00000000
2.17473707 -0.00235621 -0.01582796 0.00000000
0.80442290 -0.00452415 -0.13165348 0.00000000
1.40994745 -0.00166602 -0.13391381 0.00000000
0.68113720 0.00227959 -0.03983869 0.00000000
1.76743010 -0.00423040 -0.18681501 0.00000000
2.65380927 0.00053156 -0.06176918 0.00000000
1.94548067 -0.00152839 -0.00385055 0.00000000
3.62190606 -0.00465331 -0.14597941 0.00000000
1.14859406 -0.00143566 -0.11569592 0.00000000
0.98739635 -0.00513235 -0.09162522 0.00000000
1.99775846 0.00056902 -0.04567054 0.00000000
0.38355185 -0.00289026 -0.19494651 0.00000000
2.64254716 -0.00264820 -0.15137312 0.00000000
1.50733751 -0.00575949 -0.17333290 0.00000000
1.45973680 0.00033034 -0.14599129 0.00000000
3.85938599 -0.00563400 -0.18892443 0.00000000
2.20164004 -0.00398276 -0.16905553 0.00000000
1.58681568 0.00103687 -0.03030543 0.00000000
0.99408419 -0.00255108 -0.13854273 0.00000000
0.99676561 -0.00436544 -0.08508976 0.00000000
3.60903893 0.00072383 -0.17128082 0.00000000
1.35536979 -0.00099491 -0.01748540 0.00000000
0.68214741 -0.00372554 -0.06598229 0.00000000
0.77089732 -0.00290822 -0.12764919 0.00000000
3.54497278 -0.00626459 -0.13406720 0.00000000
4.11328643 -0.00292655 -0.09142116 0.00000000
1.26919491 -0.00145076 -0.10500004 0.00000000
0.29963746 -0.00319163 -0.13759020 0.00000000
3.51789737 -0.00559968 -0.13271943 0.00000000
0.10587532 -0.00474363 -0.18198048 0.00000000
1.85396931 0.00110856 -0.04056021 0.00000000
2.57105689 -0.00377596 -0.13162649 0.00000000
0.90701803 -0.00197476 -0.13432100 0.00000000
0.14040248 -0.00470818 -0.12997929 0.00000000
3.28061211 -0.00117971 -0.10477251 0.00000000
4.11552307 0.00000197 -0.07052792 0.00000000
0.32834297 -0.00302995 -0.03997414 0.00000000
3.85616814 -0.00134699 -0.10918101 0.00000000
3.88099444 -0.00091255 -0.06389416 0.00000000
3.46585336 0.00008147 -0.04232478 0.00000000
4.14652045 -0.00024417 -0.04818366 0.00000000
3.61749836 -0.00031035 -0.17130050 0.00000000
1.43296786 -0.00421366 -0.10190709 0.00000000
0.82602686 -0.00957651 -0.18105593 0.00000000
1.77118118 -0.00842374 -0.20247573 0.00000000
2.30074275 -0.00265769 -0.12279340 0.00000000
3.10316424 -0.00209937 -0.00707434 0.00000000
3.92178490 -0.00365395 -0.14803459 0.00000000
1.36071220 -0.00015978 -0.01586932 0.00000000
0.01958664 -0.00121498 -0.03266757 0.00000000
2.43221689 0.00125792 -0.01324351 0.00000000
3.05332873 -0.00152355 -0.11311188 0.00000000
3.32001333 -0.00324307 -0.10173153 0.00000000
2.16675086 -0.00314608 -0.10289076 0.00000000
3.56418008 -0.00214339 -0.07823792 0.00000000
3.18321348 0.00233529 -0.00747427 0.00000000
3.62458295 -0.00144489 -0.05473921 0.00000000
2.41206631 -0.00686911 -0.02248418 0.00000000
0.54719276 -0.00038113 -0.19159980 0.00000000
2.09610481 -0.00127445 -0.16329517 0.00000000
0.21200233 -0.00155319 -0.01977781 0.00000000
1.59180866 -0.00361267 -0.13241805 0.00000000
1.55616325 -0.00584750 -0.13749813 0.00000000
3.66739791 -0.00473135 -0.08007276 0.00000000
1.98658020 0.00013861 -0.12184472 0.00000000
2.81148179 -0.00373286 -0.16226214 0.00000000
3.54596680 -0.00129985 -0.17825360 0.00000000
0.90850293 -0.00644068 -0.17567613 0.00000000
1.17585492 -0.00247476 -0.00166278 0.00000000
3.82327864 -0.00448611 -0.19224379 0.00000000
3.33679880 -0.00280664 -0.10739034 0.00000000
2.92784100 -0.00327409 -0.16234078 0.00000000
2.16520733 0.00074650 -0.06655419 0.00000000
1.93418058 -0.00297199 -0.19347105 0.00000000
2.12806076 -0.00034855 -0.09419094 0.00000000
0.41351791 -0.00516046 -0.14200794 0.00000000
1.94407206 -0.00535149 -0.17605450 0.00000000
0.37737027 -0.00233199 -0.09266313 0.00000000
1.87275754 0.00062579 -0.15717872 0.00000000
0.69259201 -0.00590648 -0.15809631 0.00000000
1.48840961 -0.00392589 -0.15349053 0.00000000
1.79712533 0.00511118 -0.00170758 0.00000000
1.06240297 0.00068106 -0.02528729 0.00000000
0.21351066 -0.00089931 -0.19517075 0.00000000
3.77495071 -0.00054192 -0.14319161 0.00000000
3.93812219 -0.00080963 -0.06107180 0.00000000
0.89203438 0.00124180 -0.01497199 0.00000000
3.49046368 -0.00329579 -0.18275622 0.00000000
3.12626171 -0.00151884 -0.17779329 0.00000000
3.71770173 -0.00081755 -0.20754489 0.00000000
2.69603921 0.00332013 -0.07399113 0.00000000
1.91705863 0.00244407 -0.02617109 0.00000000
2.72069882 0.00014106 -0.17687640 0.00000000
3.47556965 -0.00424891 -0.20544317 0.00000000
2.16338581 -0.00221212 -0.20698976 0.00000000
1.62832913 -0.00038120 -0.07444124 0.00000000
3.67332045 0.00134114 -0.06733923 0.00000000
1.21385765 -0.00011145 -0.08211021 0.00000000
3.76794723 0.00257429 -0.04869232 0.00000000
3.25558458 -0.00649135 -0.11773187 0.00000000
3.44115745 -0.00542740 -0.18591867 0.00000000
3.83931190 -0.00036692 -0.21164967 0.00000000
3.75573794 0.00068930 -0.07776903 0.00000000
3.93755352 -0.00488487 -0.05972091 0.00000000
0.82855593 0.00020016 -0.06100144 0.00000000
3.02953366 -0.00301626 -0.16537851 0.00000000
2.36923609 -0.00208714 -0.11203878 0.00000000
0.65978957 -0.00192083 -0.18418458 0.00000000
0.44535100 -0.00385463 -0.14872904 0.00000000
3.98159874 -0.00564103 -0.18152018 0.00000000
2.33381954 -0.00428924 -0.11886747 0.00000000
2.47625554 -0.00028518 -0.00202196 0.00000000
1.36216063 -0.00225890 -0.06439854 0.00000000
0.55832131 0.00161894 -0.16028286 0.00000000
3.48890305 -0.00559894 -0.05358576 0.00000000
0.44906429 -0.00110325 -0.01225890 0.00000000
2.52135696 0.00006689 -0.07265893 0.00000000
2.96066177 -0.00039619 -0.17315737 0.00000000
0.84098467 -0.00338712 -0.15583917 0.00000000
0.29397468 0.00018860 -0.14181387 0.00000000
0.72549782 -0.00178701 -0.00416979 0.00000000
3.51766636 -0.00007361 -0.19091525 0.00000000
0.84560848 -0.00118207 -0.11703071 0.00000000
1.60075240 -0.00114864 -0.02444523 0.00000000
2.50259456 -0.00662866 -0.17969734 0.00000000
3.02075429 -0.00021857 -0.05266506 0.00000000
2.26650832 -0.00565637 -0.15801372 0.00000000
3.45103056 0.00303174 -0.12223333 0.00000000
1.59452975 -0.00227340 -0.08380222 0.00000000
0.77090398 -0.00293911 -0.06008742 0.00000000
0.44197315 -0.00356838 -0.07186610 0.00000000
3.49468167 0.00296171 -0.08111148 0.00000000
1.21199004 -0.00029953 -0.03820975 0.00000000
2.45148803 0.00564563 -0.08202318 0.00000000
0.05565297 -0.00530991 -0.20982615 0.00000000
2.21440167 -0.00684370 -0.17798595 0.00000000
2.54432926 -0.00638930 -0.15284055 0.00000000
2.96548466 -0.00130583 -0.06269708 0.00000000
1.96069759 -0.00182965 -0.08935408 0.00000000
0.73250513 -0.00149794 -0.04061352 0.00000000
1.75006980 0.00073966 -0.14214212 0.00000000
2.03703195 -0.00469071 -0.18789328 0.00000000
2.19759332 -0.00326720 -0.19273893 0.00000000
2.74331341 -0.00608618 -0.17409453 0.00000000
2.97395311 0.00316179 -0.00269259 0.00000000
2.81575600 0.00107523 -0.06389500 0.00000000
1.09404361 -0.00080076 -0.07674363 0.00000000
3.31714486 0.00091036 -0.16772047 0.00000000
1.22362759 0.00376113 -0.20366173 0.00000000
0.95347352 -0.00643787 -0.18145522 0.00000000
2.97012352 -0.00088813 -0.11448230 0.00000000
3.60766909 -0.00101952 -0.02812194 0.00000000
0.48309044 -0.00019321 -0.17096975 0.00000000
2.96627181 -0.00253370 -0.11978139 0.00000000
2.39854052 -0.00185766 -0.18948140 0.00000000
2.09529124 -0.00450499 -0.10719424 0.00000000
0.37792068 -0.00828286 -0.18996158 0.00000000
0.90124817 -0.00379618 -0.12442733 0.00000000
0.22044550 -0.00135033 -0.20894856 0.00000000
2.95656331 -0.00425963 -0.05730903 0.00000000
0.88669267 -0.00028072 -0.11112136 0.00000000
2.05147145 -0.00378935 -0.03279082 0.00000000
0.19749756 0.00384268 -0.02975753 0.00000000
2.97528073 0.00184510 -0.02786562 0.00000000
1.85618613 -0.00412606 -0.18278610 0.00000000
3.04237254 -0.00456738 -0.13745624 0.00000000
3.93927790 -0.00168478 -0.11014636 0.00000000
0.06218615 -0.00098193 -0.04247007 0.00000000
0.83193630 -0.00955891 -0.18547807 0.00000000
4.09088460 0.00010319 -0.00384195 0.00000000
1.47444950 0.00013713 -0.00371902 0.00000000
3.74311950 -0.00462962 -0.12744958 0.00000000
3.65649320 -0.00305914 -0.20477776 0.00000000
0.19981555 -0.00023127 -0.08016482 0.00000000
0.29092729 -0.00609436 -0.03590947 0.00000000
0.25261532 -0.00573947 -0.19455820 0.00000000
3.85186046 -0.00290904 -0.21169542 0.00000000
3.93006803 -0.00798146 -0.12044262 0.00000000
3.01155024 0.00125880 -0.04755412 0.00000000
1.28123299 -0.00231971 -0.07370422 0.00000000
3.55671429 -0.00092777 -0.17495840 0.00000000
2.61474630 0.00124962 -0.09467357 0.00000000
1.59382269 -0.00049538 -0.12217294 0.00000000
0.89530576 -0.00301437 -0.20669785 0.00000000
0.10801164 -0.00321919 -0.05173457 0.00000000
3.62573233 0.00118025 -0.04998004 0.00000000
2.82086640 -0.00220948 -0.14305614 0.00000000
1.85134126 0.00111878 -0.09861396 0.00000000
4.06951198 -0.00242861 -0.19725509 0.00000000
1.67045901 0.00053154 -0.16112751 0.00000000
3.91038326 -0.00413753 -0.05508402 0.00000000
0.49590842 -0.00548729 -0.15434621 0.00000000
2.70433026 -0.00393624 -0.19465325 0.00000000
0.30365748 0.00018164 -0.06716804 0.00000000
0.05720720 0.00119889 -0.11830554 0.00000000
1.56786973 -0.00212012 -0.07424593 0.00000000
3.34658599 0.00221283 -0.08073872 0.00000000
1.76888041 -0.00473468 -0.20357557 0.00000000
3.51141782 -0.00030789 -0.04565285 0.00000000
0.91086169 -0.00335216 -0.10261942 0.00000000
2.63191040 -0.00289746 -0.11553122 0.00000000
3.06230038 -0.00402597 -0.03372844 0.00000000
2.11067692 -0.00241308 -0.15711540 0.00000000
2.12582034 0.00384539 -0.00946965 0.00000000
0.39628981 -0.00364972 -0.16693800 0.00000000
3.32606155 -0.00387430 -0.18759307 0.00000000
3.05354277 -0.00591429 -0.19312955 0.00000000
1.70152446 -0.00237255 -0.01581536 0.00000000
1.90413361 0.00163649 -0.07427417 0.00000000
2.32420161 -0.00012929 -0.06205221 0.00000000
1.32379550 -0.00147839 -0.18225504 0.00000000
3.78875160 -0.00745707 -0.18303802 0.00000000
3.62951450 -0.00145672 -0.04439747 0.00000000
3.57203397 -0.00022868 -0.03944124 0.00000000
3.93796686 -0.00178258 -0.16398997 0.00000000
0.44514714 0.00013296 -0.13930567 0.00000000
2.26074025 -0.00227810 -0.11417538 0.00000000
0.13964456 -0.00420719 -0.02739083 0.00000000
4.00019173 -0.00496026 -0.20271249 0.00000000
2.91780807 -0.00450577 -0.12602881 0.00000000
1.01599806 -0.00230530 -0.13260306 0.00000000
1.13127743 -0.00408707 -0.12346525 0.00000000
0.86648284 0.00154365 -0.06563094 0.00000000
2.99927508 -0.00352967 -0.13171628 0.00000000
2.70878644 -0.00401025 -0.20456655 0.00000000
4.14052970 0.00123338 -0.14253582 0.00000000
0.92618319 -0.00181089 -0.20399926 0.00000000
3.34456065 0.00196507 -0.01249606 0.00000000
1.85650626 -0.00337990 -0.14909839 0.00000000
4.09389240 -0.00058367 -0.10452273 0.00000000
2.77064258 -0.00139396 -0.06692059 0.00000000
2.47366723 -0.00444990 -0.21166539 0.00000000
3.00519566 -0.00540316 -0.18217016 0.00000000
4.04644619 -0.00480169 -0.15207436 0.00000000
1.94126560 -0.00168114 -0.01057917 0.00000000
0.13394451 -0.00385691 -0.12545940 0.00000000
3.54860014 0.00085545 -0.02652886 0.00000000
0.27497257 -0.00349747 -0.19877400 0.00000000
3.71540996 -0.00615233 -0.15645861 0.00000000
2.16271306 0.00073751 -0.04260312 0.00000000
3.60606170 -0.00465086 -0.19968342 0.00000000
2.40190544 -0.00495153 -0.14228497 0.00000000
1.29718614 0.00637324 -0.00713996 0.00000000
1.54571278 -0.00202147 -0.06635507 0.00000000
3.13213890 -0.00514317 -0.19706820 0.00000000
1.87507215 0.00218522 -0.02184439 0.00000000
3.76641081 -0.00112070 -0.17480921 0.00000000
0.99576658 -0.00603100 -0.09757550 0.00000000
1.39470196 -0.00324309 -0.15736295 0.00000000
1.57821461 -0.00065479 -0.04522371 0.00000000
0.30981761 -0.00374958 -0.11291797 0.00000000
0.58188693 -0.00342117 -0.17578681 0.00000000
2.79832236 -0.00367038 -0.12632700 0.00000000
3.34246432 -0.00141845 -0.05059431 0.00000000
1.50094800 -0.00202206 -0.14495066 0.00000000
0.07025816 -0.00055275 -0.20610522 0.00000000
2.80237395 0.00110677 -0.00016837 0.00000000
0.98716712 -0.00087844 -0.03308371 0.00000000
0.47397296 -0.00331574 -0.02991568 0.00000000
1.85853821 0.00001554 -0.02924515 0.00000000
2.99371092 0.00189743 -0.11664517 0.00000000
0.43149183 0.00207370 -0.01788485 0.00000000
1.27294929 -0.00110022 -0.00421421 0.00000000
2.98912389 0.00018949 -0.04522149 0.00000000
3.25749412 0.00446096 -0.03418923 0.00000000
2.05779597 -0.00031539 -0.13719710 0.00000000
3.77604651 -0.00255076 -0.06897709 0.00000000
0.60327921 -0.00070963 -0.00420411 0.00000000
1.67932434 0.00189604 -0.01104428 0.00000000
1.97950216 -0.00231278 -0.17576934 0.00000000
3.67486550 0.00459044 -0.00190844 0.00000000
1.38534310 -0.00138092 -0.03970398 0.00000000
0.91995980 0.00266965 -0.15314846 0.00000000
3.79698151 0.00312591 -0.01666607 0.00000000
0.60250316 -0.00377773 -0.08200311 0.00000000
3.16631577 -0.00486419 -0.06795042 0.00000000
1.24260562 -0.00562352 -0.12702828 0.00000000
0.25851860 0.00244472 -0.06259249 0.00000000
3.23127378 0.00068078 -0.02243902 0.00000000
2.81783706 -0.00166805 -0.09484331 0.00000000
3.58436181 -0.00214288 -0.03291962 0.00000000
0.58970260 -0.00720875 -0.13296433 0.00000000
1.21121727 0.00226252 -0.00443381 0.00000000
1.53617915 -0.00582252 -0.18751112 0.00000000
0.94126605 -0.00543514 -0.19641165 0.00000000
3.47711439 -0.00350193 -0.18301164 0.00000000
1.16991037 -0.00613420 -0.21365273 0.00000000
3.78050282 -0.00161064 -0.14461097 0.00000000
3.00795428 -0.00129826 -0.04651131 0.00000000
0.67171448 0.00155239 -0.03161849 0.00000000
3.85858145 -0.00121491 -0.08102363 0.00000000
2.92960822 -0.00336490 -0.16884825 0.00000000
3.56852634 -0.00371684 -0.15772112 0.00000000
0.98150128 0.00168181 -0.03078444 0.00000000
3.26517550 0.00477225 -0.04131823 0.00000000
1.53616733 -0.00602403 -0.17217842 0.00000000
0.18554086 -0.00462888 -0.08820745 0.00000000
1.05867720 -0.00651923 -0.16474397 0.00000000
1.71496794 -0.00267154 -0.11997691 0.00000000
3.08520901 -0.00323198 -0.13194014 0.00000000
3.65176091 -0.00663204 -0.12415131 0.00000000
0.88958826 -0.00455104 -0.14185557 0.00000000
3.55792553 -0.00000360 -0.09439387 0.00000000
2.39544295 0.00075390 -0.07653707 0.00000000
3.44272634 -0.00307631 -0.15497362 0.00000000
0.44593437 -0.00124815 -0.05516853 0.00000000
4.12104451 -0.00193385 -0.10716258 0.00000000
2.49754778 -0.00025986 -0.00200025 0.00000000
3.95123885 0.00182925 -0.02440507 0.00000000
0.97206902 -0.00495928 -0.08115623 0.00000000
0.30293482 -0.00058264 -0.05742029 0.00000000
3.91692822 -0.00409383 -0.08831548 0.00000000
1.50178297 -0.00302214 -0.04304121 0.00000000
1.25864409 -0.00603906 -0.15733991 0.00000000
1.84157840 -0.00533266 -0.06571801 0.00000000
3.63758676 -0.00286526 -0.08853336 0.00000000
0.69115232 0.00072281 -0.15302430 0.00000000
0.45135131 -0.00116862 -0.14700432 0.00000000
0.46101613 -0.00941263 -0.19822765 0.00000000
0.34923150 0.00174548 -0.05178962 0.00000000
0.74350504 -0.00398420 -0.03933714 0.00000000
0.80043907 -0.00342060 -0.10755599 0.00000000
3.35372498 -0.00198839 -0.06561741 0.00000000
3.61039896 -0.00589183 -0.09721524 0.00000000
1.88203452 0.00122303 -0.04272596 0.00000000
0.72169898 0.00236865 -0.01398768 0.00000000
0.50768784 -0.00015284 -0.16130681 0.00000000
0.31488460 -0.00175513 -0.04473622 0.00000000
3.13580602 -0.00160605 -0.11082675 0.00000000
2.82210164 0.00082272 -0.14840629 0.00000000
0.68219923 -0.00035008 -0.07501351 0.00000000
2.06658143 -0.00138117 -0.16777225 0.00000000
4.00259031 -0.00326325 -0.13612991 0.00000000
2.81769423 -0.00511548 -0.10788776 0.00000000
2.90283552 0.00050021 -0.11234103 0.00000000
2.20723608 -0.00443351 -0.11033391 0.00000000
3.33082974 -0.00540117 -0.19726246 0.00000000
0.57736067 0.00086874 -0.02475835 0.00000000
3.25667940 -0.00506095 -0.15456970 0.00000000
0.86027706 -0.00197194 -0.20622407 0.00000000
3.63312841 -0.00102208 -0.08195074 0.00000000
2.99362948 -0.00651398 -0.20674589 0.00000000
1.65909457 -0.00105229 -0.03219752 0.00000000
2.63739359 -0.00102249 -0.12479634 0.00000000
2.15477203 -0.00631338 -0.21251579 0.00000000
0.91614692 -0.00607216 -0.04916967 0.00000000
3.47193816 -0.00600825 -0.15064551 0.00000000
1.63812973 -0.00088788 -0.08233837 0.00000000
0.28106721 -0.00374410 -0.13046687 0.00000000
1.63385181 -0.00478870 -0.13368820 0.00000000
0.64478486 -0.00468649 -0.19516225 0.00000000
3.56514295 -0.00034535 -0.13372739 0.00000000
0.73220152 -0.00199561 -0.08418161 0.00000000
1.22934618 -0.00270219 -0.17803479 0.00000000
2.95266940 -0.00007265 -0.07310381 0.00000000
0.13384503 -0.00020698 -0.04123233 0.00000000
2.96182276 -0.00624004 -0.06671209 0.00000000
2.44848193 -0.00204494 -0.15521764 0.00000000
0.74019847 -0.00133014 -0.00102352 0.00000000
2.55531335 0.00371408 -0.00023241 0.00000000
1.64552005 -0.00472696 -0.12910652 0.00000000
3.44853815 -0.00096525 -0.13581893 0.00000000
0.18809582 -0.00279413 -0.06776429 0.00000000
1.59987565 0.00064132 -0.06771164 0.00000000
2.48929600 -0.00389874 -0.16436854 0.00000000
3.18727945 -0.00367434 -0.14448705 0.00000000
0.24069981 -0.00269429 -0.05674882 0.00000000
2.65671472 0.00091447 -0.05051011 0.00000000
3.95192425 -0.00261708 -0.11520412 0.00000000
0.23564438 -0.00706321 -0.19233537 0.00000000
2.29524906 0.00149969 -0.03382270 0.00000000
2.05053966 -0.00116896 -0.09170532 0.00000000
3.70828277 -0.00410682 -0.08418909 0.00000000
0.10780945 -0.00260353 -0.11060280 0.00000000
0.65994314 -0.00191352 -0.08449925 0.00000000
1.45668581 -0.00365903 -0.18039059 0.00000000
2.35849581 -0.00620030 -0.15390724 0.00000000
1.29691041 -0.00142231 -0.12990120 0.00000000
2.33318822 0.00149836 -0.01095893 0.00000000
1.43166117 -0.00700508 -0.18154813 0.00000000
2.53516110 -0.00236968 -0.05524018 0.00000000
1.83120386 -0.00582484 -0.16517542 0.00000000
2.45173974 -0.00014123 -0.05843264 0.00000000
1.83632243 -0.00330505 -0.10690745 0.00000000
2.07410970 -0.00121424 -0.02674546 0.00000000
0.95783504 0.00051966 -0.05832811 0.00000000
3.70371343 0.00049043 -0.00521247 0.00000000
2.61502678 -0.00559476 -0.20011132 0.00000000
3.37740124 -0.00472918 -0.10778521 0.00000000
0.38242868 -0.00173976 -0.07725966 0.00000000
2.48244119 -0.00198786 -0.15495832 0.00000000
2.27749111 -0.00264243 -0.10868156 0.00000000
1.23939484 0.00227264 -0.00334687 0.00000000
0.45376649 -0.00250890 -0.19722818 0.00000000
2.10742029 -0.00284918 -0.06497539 0.00000000
0.66769551 -0.00388780 -0.01921587 0.00000000
3.95471480 0.00093555 -0.21172030 0.00000000
0.57358147 -0.00384132 -0.13710040 0.00000000
3.98606936 -0.00037282 -0.05025097 0.00000000
0.38938809 -0.00340025 -0.18752608 0.00000000
3.52403313 -0.00046292 -0.10312602 0.00000000
3.10823397 -0.00195697 -0.06465595 0.00000000
3.66045332 -0.00998659 -0.08958564 0.00000000
0.96803352 -0.00183632 -0.11539923 0.00000000
2.97164966 -0.00338872 -0.16697319 0.00000000
0.16628743 0.00002152 -0.14655389 0.00000000
3.14754259 -0.00622722 -0.19685562 0.00000000
2.29948742 -0.00489093 -0.08053084 0.00000000
0.94405829 -0.00475294 -0.19421841 0.00000000
1.13340851 -0.00071340 -0.10533024 0.00000000
3.42928050 -0.00080882 -0.16990611 0.00000000
3.36995717 -0.00209138 -0.07699053 0.00000000
3.46224182 -0.00594730 -0.18737485 0.00000000
4.10893900 -0.00171861 -0.21316480 0.00000000
0.98717499 -0.00474093 -0.17431227 0.00000000
1.67193322 -0.00035562 -0.12241695 0.00000000
4.01819752 -0.00027639 -0.11533886 0.00000000
0.40703846 0.00201801 -0.04747585 0.00000000
3.06539638 -0.00443742 -0.07605497 0.00000000
1.95057187 -0.00740991 -0.16369026 0.00000000
0.02701450 -0.00108936 -0.00952886 0.00000000
3.99080447 -0.00572888 -0.16518787 0.00000000
1.92224143 -0.00358113 -0.05802816 0.00000000
3.64066099 -0.00686631 -0.06686923 0.00000000
0.38523555 -0.00737607 -0.12669527 0.00000000
3.33964378 -0.00223857 -0.07959271 0.00000000
3.54236427 -0.00361389 -0.09614490 0.00000000
2.66583091 -0.00601046 -0.19449436 0.00000000
0.00269410 0.00320281 -0.00679866 0.00000000
3.09841907 0.00336723 -0.06604788 0.00000000
1.42665313 -0.00162297 -0.17839319 0.00000000
0.45121491 -0.00530489 -0.11341107 0.00000000
3.71894379 -0.00192479 -0.08257311 0.00000000
2.04828422 -0.00047245 -0.11298421 0.00000000
1.18557793 -0.00909156 -0.18766219 0.00000000
3.73672519 -0.00877727 -0.15578781 0.00000000
1.19388341 -0.00481355 -0.14899357 0.00000000
3.37319589 0.00016497 -0.08087478 0.00000000
2.83998809 -0.00289115 -0.09415495 0.00000000
3.42394799 -0.00052462 -0.17780733 0.00000000
2.93571018 -0.00232324 -0.03664966 0.00000000
1.23134591 0.00267714 -0.09296015 0.00000000
2.61358675 0.00005304 -0.07012122 0.00000000
1.87028411 -0.00186558 -0.16705514 0.00000000
3.80572279 -0.00664068 -0.13870693 0.00000000
0.79870600 -0.00395053 -0.05282078 0.00000000
2.74336422 0.00337890 -0.01303215 0.00000000
2.14439099 -0.00033651 -0.02236965 0.00000000
0.17858549 -0.00111409 -0.17223996 0.00000000
0.47773806 -0.00451280 -0.10493321 0.00000000
1.74556811 -0.00168423 -0.03595747 0.00000000
0.02154382 -0.00220670 -0.09740759 0.00000000
2.27139039 -0.00386878 -0.06532751 0.00000000
3.77401440 0.00302930 -0.00595176 0.00000000
2.26192364 0.00075810 -0.00524736 0.00000000
0.69798669 -0.00708349 -0.13517365 0.00000000
1.18308743 -0.00876175 -0.20835423 0.00000000
1.81557650 -0.00018433 -0.10471177 0.00000000
3.03820937 -0.00230179 -0.05459322 0.00000000
2.07664808 -0.00503917 -0.08016617 0.00000000
4.08793091 -0.00007161 -0.04260830 0.00000000
0.28615655 -0.00635475 -0.15349048 0.00000000
0.24867331 0.00016062 -0.13812415 0.00000000
1.69122284 -0.00458867 -0.10784207 0.00000000
4.14463011 -0.00127904 -0.15483820 0.00000000
0.52782522 0.00213030 -0.01983634 0.00000000
3.56960206 -0.00390359 -0.16642802 0.00000000
0.75676300 -0.00113357 -0.00078303 0.00000000
3.79917806 -0.00473989 -0.06114146 0.00000000
2.14130734 -0.00424515 -0.11745356 0.00000000
0.63708688 -0.00625843 -0.21105527 0.00000000
1.10048253 0.00209956 -0.00200181 0.00000000
1.00199798 -0.00221837 -0.13251469 0.00000000
0.66052262 -0.00222199 -0.02719268 0.00000000
0.86153507 -0.00128508 -0.11966845 0.00000000
3.64226158 -0.00458963 -0.19543473 0.00000000
1.40888498 -0.00532040 -0.18686351 0.00000000
0.76548161 -0.00366392 -0.19523500 0.00000000
3.83102769 -0.00444716 -0.17891885 0.00000000
1.75389826 -0.00547683 -0.17385552 0.00000000
3.38992698 -0.00345846 -0.06053762 0.00000000
1.89842261 0.00196816 -0.04217222 0.00000000
1.25979622 -0.00342155 -0.13285420 0.00000000
