4.094432 0.422544 -0.000620 0.0
1.572451 0.428264 0.000942 0.0
0.349859 0.593814 0.003305 0.0
3.528161 0.463200 0.003305 0.0
1.765466 1.065909 0.001598 0.0
1.680498 1.357282 0.002515 0.0
1.669076 0.299903 0.000420 0.0
2.643161 0.153556 -0.000557 0.0
3.399228 1.337541 0.001065 0.0
1.487537 0.360261 -0.000683 0.0
3.567566 1.471431 -0.000714 0.0
3.320061 0.181187 0.001077 0.0
2.129744 0.412223 -0.001263 0.0
4.060860 1.714846 -0.002310 0.0
1.465777 0.212173 0.001004 0.0
3.148505 0.378722 0.000625 0.0
4.194577 1.373891 -0.002007 0.0
4.219290 0.566385 0.000290 0.0
3.883316 0.941970 -0.004171 0.0
4.208042 0.443049 -0.002701 0.0
4.242774 0.278853 -0.000639 0.0
3.324772 1.504769 -0.000461 0.0
3.437050 1.278286 -0.001503 0.0
0.557719 1.248286 -0.002195 0.0
0.527056 1.603341 -0.001465 0.0
3.718807 0.144611 -0.003212 0.0
0.934792 0.648210 -0.000014 0.0
0.330922 0.999052 0.002977 0.0
4.295607 1.059038 -0.002822 0.0
3.214383 1.314444 -0.003810 0.0
2.912621 1.400366 0.002663 0.0
1.230556 0.624017 0.002424 0.0
0.024510 0.360656 0.000736 0.0
4.006265 0.650100 0.002167 0.0
0.264780 0.680532 0.001151 0.0
3.812429 0.028369 -0.000762 0.0
0.367716 0.990072 -0.000309 0.0
0.610406 1.534405 0.005916 0.0
0.538032 0.725886 0.001043 0.0
2.873078 0.711332 0.003608 0.0
3.935436 0.781027 -0.001701 0.0
4.261662 0.292843 0.000317 0.0
2.835216 0.284777 -0.004499 0.0
1.198853 0.313681 -0.000374 0.0
0.573412 1.494257 -0.001976 0.0
0.667080 0.976768 0.000815 0.0
3.157794 0.394012 0.006056 0.0
1.272637 0.317101 -0.000787 0.0
3.697597 0.199665 -0.006102 0.0
0.215189 1.705752 -0.000979 0.0
2.819795 1.552491 0.002380 0.0
1.375402 0.674070 -0.001395 0.0
2.061531 0.411291 -0.005330 0.0
4.416507 0.528283 -0.001451 0.0
2.659916 0.573375 0.002360 0.0
3.628097 1.166580 -0.000484 0.0
2.313003 0.208023 0.001302 0.0
2.203675 0.465670 0.001415 0.0
4.314331 0.461313 -0.002970 0.0
1.785627 0.785363 -0.001897 0.0
3.074082 1.738587 -0.003331 0.0
2.128894 0.581705 0.000020 0.0
1.802404 0.043583 -0.001642 0.0
4.074433 0.526673 -0.003071 0.0
3.750276 1.246542 0.002286 0.0
0.522657 0.115322 0.001739 0.0
3.465842 1.040503 -0.001499 0.0
4.378521 0.188714 -0.001936 0.0
3.103006 0.134297 -0.000059 0.0
0.002289 0.484453 -0.002789 0.0
3.704113 0.389574 0.000032 0.0
1.514149 0.588555 -0.004363 0.0
2.719875 1.437788 0.001193 0.0
2.382005 0.784105 0.002365 0.0
0.368332 0.641176 -0.000083 0.0
1.675064 0.406155 -0.001586 0.0
3.571904 1.710827 0.001075 0.0
1.052952 1.209808 -0.001816 0.0
1.162582 0.800784 0.000746 0.0
1.248964 0.630010 0.003726 0.0
3.222696 1.348879 -0.001933 0.0
0.051108 0.832962 0.003231 0.0
2.841446 1.093950 -0.002514 0.0
0.484746 0.930858 -0.002499 0.0
3.812313 0.319398 0.006721 0.0
0.581766 1.723484 0.002377 0.0
1.086819 1.367913 0.000864 0.0
2.505651 1.264881 0.001504 0.0
2.515612 1.121266 -0.001887 0.0
1.084624 0.014819 0.003417 0.0
4.133888 1.573564 0.000288 0.0
2.334267 0.066027 -0.000677 0.0
3.109297 0.717856 -0.004095 0.0
2.522314 0.239860 0.004808 0.0
0.441664 0.857641 -0.000786 0.0
1.698593 1.532614 -0.000666 0.0
0.573187 0.687182 -0.002772 0.0
1.342707 1.638874 0.001293 0.0
1.670506 1.622719 0.002876 0.0
1.694819 0.946765 0.003531 0.0
3.798009 0.103873 0.000195 0.0
4.053214 1.254529 0.002926 0.0
4.401682 0.044868 -0.000676 0.0
0.290214 1.283802 -0.001150 0.0
4.086933 0.213408 -0.005947 0.0
0.382564 1.081739 0.000176 0.0
3.380547 1.726101 -0.000311 0.0
2.752212 1.676540 -0.002284 0.0
3.458128 0.218464 0.001966 0.0
1.250381 0.046635 -0.000088 0.0
0.442270 1.010727 0.003629 0.0
4.260355 1.057740 0.002788 0.0
3.951882 1.009770 0.000108 0.0
2.415941 1.145109 0.002691 0.0
1.367336 0.685557 -0.002873 0.0
2.647795 0.166629 -0.000801 0.0
2.036287 1.482090 0.000841 0.0
0.692350 1.498288 0.000173 0.0
1.841221 1.719413 -0.000946 0.0
3.383356 0.547857 -0.002366 0.0
3.701507 1.254747 0.002137 0.0
3.672111 0.148590 -0.002994 0.0
3.058081 1.466551 -0.002412 0.0
1.840504 0.919165 0.000470 0.0
2.172545 1.696052 -0.001597 0.0
1.899868 1.290730 -0.002693 0.0
2.918307 0.696994 -0.005277 0.0
0.388902 0.940117 0.000824 0.0
1.316867 0.227388 -0.001458 0.0
0.986442 1.266999 0.002831 0.0
2.703248 0.012569 0.006794 0.0
1.642141 1.387939 -0.007030 0.0
4.103767 0.008290 -0.004085 0.0
0.489895 0.549823 0.003483 0.0
0.945458 0.731609 -0.003032 0.0
2.119275 1.509224 0.004840 0.0
3.068915 1.521016 0.001170 0.0
4.364572 1.650049 0.000074 0.0
1.826114 1.285476 -0.002640 0.0
2.454495 0.126110 -0.002243 0.0
0.967386 0.319793 0.000057 0.0
0.932998 0.768232 0.001734 0.0
0.798928 0.987853 0.003869 0.0
0.147795 0.721481 0.000255 0.0
4.281787 1.547685 0.001813 0.0
0.942977 0.838752 0.004229 0.0
4.265948 0.126496 0.000351 0.0
4.221467 1.684686 -0.001504 0.0
1.563056 0.733562 0.001428 0.0
3.679639 0.650589 0.001198 0.0
1.950238 1.359000 -0.001687 0.0
0.832286 1.618834 -0.001240 0.0
1.017046 1.654901 -0.000626 0.0
2.609568 0.173658 -0.003289 0.0
0.309405 1.090783 0.001119 0.0
3.147971 0.509742 0.001890 0.0
2.111077 1.316215 0.000748 0.0
0.663065 1.645671 -0.000262 0.0
3.256839 0.915094 -0.000739 0.0
4.211015 0.262056 -0.002611 0.0
3.049168 1.369545 0.004119 0.0
3.920200 1.614788 -0.001519 0.0
1.687538 1.708469 0.001978 0.0
2.073373 1.334688 -0.003632 0.0
2.216692 0.898818 0.001906 0.0
4.332342 0.439596 -0.001458 0.0
1.586178 1.632528 0.002507 0.0
1.269938 0.494377 0.001931 0.0
0.535724 0.501825 -0.001425 0.0
1.277717 1.277178 -0.000807 0.0
2.048164 0.659602 0.000015 0.0
1.440844 0.254590 0.001865 0.0
1.028098 0.380723 -0.000928 0.0
0.714428 0.341302 -0.001812 0.0
1.361362 1.574791 -0.001096 0.0
1.773250 1.526787 0.001282 0.0
3.461662 0.060575 -0.001087 0.0
4.121588 0.501312 -0.003356 0.0
0.418030 1.441978 -0.005687 0.0
0.817972 1.514387 -0.002580 0.0
3.851751 1.315587 0.000132 0.0
1.431391 0.263111 -0.000247 0.0
3.947711 0.610166 0.001283 0.0
3.265554 1.248032 -0.000356 0.0
0.487905 1.070559 -0.002677 0.0
1.764610 1.643392 0.000444 0.0
3.932906 0.870347 -0.000319 0.0
2.536629 1.546571 -0.001011 0.0
1.581011 1.289847 -0.002787 0.0
4.336308 0.931647 0.000933 0.0
2.423052 0.863395 -0.000593 0.0
0.447201 0.742819 -0.005270 0.0
1.907767 1.629391 0.000942 0.0
4.209367 0.412984 0.004265 0.0
4.318688 0.241217 0.002128 0.0
3.455978 1.078726 0.002941 0.0
3.785480 0.707307 -0.002429 0.0
3.952454 1.589395 0.000708 0.0
1.476323 0.053588 -0.000358 0.0
3.827349 1.591887 0.001228 0.0
0.928677 1.079418 0.000281 0.0
1.454130 1.259289 0.001534 0.0
4.110925 0.871594 -0.003193 0.0
0.762132 0.778116 -0.001309 0.0
3.211893 1.163510 -0.000385 0.0
4.138140 0.007895 -0.005737 0.0
4.054522 0.191475 -0.006219 0.0
2.608938 0.886533 0.000817 0.0
1.446691 1.541402 0.000017 0.0
1.505099 1.157243 -0.002164 0.0
1.864175 1.072295 0.001031 0.0
3.832594 1.417526 -0.002211 0.0
3.549129 1.053354 -0.000086 0.0
0.590064 0.897068 0.002080 0.0
0.615627 0.275573 0.005317 0.0
0.296065 1.078427 -0.005908 0.0
0.115494 1.428817 0.000751 0.0
2.674223 0.151988 -0.000994 0.0
1.794813 0.215551 -0.001082 0.0
2.256977 1.144105 0.002621 0.0
4.172245 1.608489 -0.001511 0.0
0.415870 0.038028 0.002790 0.0
3.748978 1.317677 0.000121 0.0
1.407686 1.322627 0.002565 0.0
4.303458 0.052709 0.000289 0.0
1.776788 1.400771 0.002210 0.0
3.099791 0.194107 0.001851 0.0
2.066928 0.289376 0.001163 0.0
0.966575 0.619833 -0.000171 0.0
1.867572 1.395913 -0.000948 0.0
3.154246 0.411361 0.004106 0.0
3.606470 0.406204 0.002192 0.0
0.478243 1.092290 0.000024 0.0
2.682635 0.942814 -0.003561 0.0
3.918428 0.841346 0.004380 0.0
2.531797 1.585505 0.001018 0.0
2.217895 0.534162 -0.001731 0.0
0.029898 1.176730 0.000087 0.0
3.518486 0.429223 0.001787 0.0
0.673559 1.413621 -0.003164 0.0
2.571062 0.310887 -0.005008 0.0
2.945971 1.598201 -0.003070 0.0
2.925801 0.540474 -0.000752 0.0
1.078779 1.555149 -0.002449 0.0
1.348595 0.508252 -0.002470 0.0
3.934952 1.381828 -0.000646 0.0
2.012856 0.480511 -0.001117 0.0
2.278824 0.859836 -0.001278 0.0
2.165779 0.439340 -0.001572 0.0
3.198236 0.277961 -0.004118 0.0
4.297835 0.687762 -0.001168 0.0
3.004596 0.084749 0.001006 0.0
2.522570 0.939593 0.002279 0.0
3.949879 0.448855 -0.002613 0.0
0.077872 1.094130 0.002044 0.0
0.245966 0.179427 -0.002019 0.0
2.165987 1.168306 -0.002702 0.0
0.761430 0.383658 0.000281 0.0
2.765797 0.453636 0.002314 0.0
4.257141 0.662079 0.001621 0.0
4.395770 0.911025 0.000723 0.0
0.943470 1.563047 -0.002304 0.0
1.386624 -0.003063 -0.000342 0.0
3.792441 1.032697 0.002102 0.0
1.334515 1.146430 0.003805 0.0
2.206765 1.692004 -0.001080 0.0
0.227177 0.902734 0.004693 0.0
1.418035 0.451327 -0.000769 0.0
4.201873 0.209763 -0.001260 0.0
3.938044 0.503513 0.000210 0.0
0.025600 0.382395 -0.002827 0.0
3.558801 0.254281 0.000929 0.0
0.365750 0.565504 -0.003895 0.0
3.819366 0.620623 0.000295 0.0
3.849166 1.524068 -0.002847 0.0
2.056698 0.258574 -0.000932 0.0
1.247254 0.899710 -0.001723 0.0
1.129955 0.497610 -0.002799 0.0
3.733060 1.507549 -0.000174 0.0
3.116333 0.212064 -0.000487 0.0
1.914810 1.274797 -0.001091 0.0
0.718987 0.247367 -0.004289 0.0
1.113651 1.723372 -0.000464 0.0
0.929632 0.422726 -0.002649 0.0
1.812760 0.803919 -0.002719 0.0
1.964740 1.287905 -0.000621 0.0
2.357407 1.549105 0.001955 0.0
3.433159 1.570867 -0.001350 0.0
2.115206 1.035022 0.005723 0.0
3.822449 0.576582 -0.004024 0.0
4.300381 1.394252 0.002023 0.0
1.374957 1.472846 -0.002623 0.0
3.653550 0.013130 0.001385 0.0
4.254745 1.603519 -0.003317 0.0
0.579299 1.460775 0.002930 0.0
1.575722 0.949038 -0.002116 0.0
0.094150 1.702831 -0.001328 0.0
3.461157 0.107594 -0.000843 0.0
2.590785 1.167188 0.000136 0.0
2.310176 1.094121 0.000456 0.0
0.472331 0.396403 0.002928 0.0
2.816957 1.017298 0.002239 0.0
0.973177 0.572519 -0.009192 0.0
0.337537 1.154720 -0.002488 0.0
4.356888 0.572289 -0.006131 0.0
3.239618 0.067577 0.002261 0.0
3.322257 0.743039 -0.002038 0.0
3.333647 1.407967 -0.000522 0.0
2.517834 0.014184 -0.002839 0.0
1.761918 0.909085 -0.005502 0.0
0.591035 0.647207 0.000846 0.0
4.222096 1.018984 -0.000770 0.0
2.672997 0.899649 0.003521 0.0
1.440972 0.272402 0.001091 0.0
4.263488 0.782516 -0.003822 0.0
1.686079 0.467039 -0.000682 0.0
3.355712 1.246818 0.001901 0.0
4.398257 0.015017 0.000577 0.0
3.438571 1.447864 0.000291 0.0
0.315047 1.573614 -0.003556 0.0
4.272922 0.299507 -0.002166 0.0
1.211953 0.357957 -0.002044 0.0
0.704772 0.874139 0.002845 0.0
2.165540 0.634061 -0.001829 0.0
2.859497 1.024928 0.004596 0.0
1.870399 0.860350 -0.000124 0.0
0.529242 1.333344 -0.004128 0.0
0.564161 0.883583 -0.001845 0.0
0.301751 0.647735 -0.000815 0.0
0.526074 0.582521 0.001519 0.0
4.240327 1.318103 -0.002077 0.0
2.936386 1.326405 0.001123 0.0
0.042160 1.464422 -0.000130 0.0
2.011524 0.759366 0.005943 0.0
0.292279 1.505424 -0.000508 0.0
2.633501 1.517154 0.003159 0.0
2.994163 1.134626 0.002014 0.0
0.377732 0.125276 0.000849 0.0
0.045941 1.226562 0.003583 0.0
0.199360 0.532016 -0.000219 0.0
0.404351 0.712326 0.002817 0.0
2.056218 0.617739 0.003856 0.0
2.555741 1.028813 0.000488 0.0
0.474713 1.460426 -0.001122 0.0
3.004047 1.289046 0.005599 0.0
3.911475 0.165900 0.000710 0.0
4.167348 1.650622 -0.002672 0.0
4.277583 0.158330 0.002251 0.0
4.023367 1.476970 -0.000059 0.0
1.647502 1.143897 0.001487 0.0
4.396291 0.071517 0.003581 0.0
2.871730 0.149804 -0.001444 0.0
2.640957 0.904619 -0.003129 0.0
2.451415 0.970075 0.002893 0.0
1.001929 0.680573 0.003087 0.0
0.188815 0.478949 0.000496 0.0
4.376876 0.332455 -0.002463 0.0
0.758111 1.552755 0.001430 0.0
0.597003 0.598417 -0.003176 0.0
2.042830 0.786417 0.000129 0.0
1.974496 1.120949 0.006067 0.0
3.251249 0.195268 0.000150 0.0
2.114383 1.481589 -0.002676 0.0
2.225202 0.643207 -0.000028 0.0
3.280594 0.687288 0.000814 0.0
4.013133 0.384173 -0.001622 0.0
0.536521 0.473969 -0.003110 0.0
2.844907 1.418923 0.000186 0.0
3.492470 0.304495 -0.001830 0.0
2.814080 0.239202 -0.001005 0.0
4.177445 1.646996 0.001668 0.0
0.060420 0.868092 -0.002451 0.0
4.147028 0.246744 0.004154 0.0
3.773899 1.140426 -0.002715 0.0
0.083085 0.068580 0.000646 0.0
4.004641 0.959697 0.000311 0.0
2.399097 1.188342 -0.000545 0.0
1.158109 0.158167 -0.000820 0.0
2.036988 0.246045 0.001331 0.0
2.577063 0.871133 0.001574 0.0
2.434871 0.411628 -0.001969 0.0
4.239664 1.303818 -0.002418 0.0
4.373673 0.268169 -0.000734 0.0
0.181946 -0.003457 0.001533 0.0
0.684499 0.898221 0.000551 0.0
1.500875 0.538546 0.003397 0.0
0.361600 1.705138 0.004743 0.0
3.188160 0.535644 0.002143 0.0
0.604714 0.893667 0.003729 0.0
4.136348 1.377801 0.004944 0.0
1.303945 1.085215 0.000054 0.0
1.882725 1.543560 -0.001258 0.0
0.662231 0.451831 0.001193 0.0
4.195183 1.029010 -0.001065 0.0
0.233570 1.247316 -0.005665 0.0
1.775401 1.101672 0.002999 0.0
2.227707 1.005009 -0.003646 0.0
0.577297 0.896133 -0.005806 0.0
1.804164 1.193637 0.002957 0.0
1.160627 0.598301 -0.000518 0.0
3.017803 1.562153 -0.000220 0.0
1.893752 1.316791 0.000588 0.0
4.333087 1.183187 0.000830 0.0
0.413864 0.373329 -0.004508 0.0
1.563174 1.050886 0.001112 0.0
2.785372 0.412768 0.000096 0.0
2.270034 0.083321 0.003352 0.0
1.339600 1.645285 0.000494 0.0
2.970624 1.306921 -0.001532 0.0
0.425282 0.979063 -0.002617 0.0
2.023048 0.918763 0.000716 0.0
2.257675 1.584269 -0.000165 0.0
4.384103 1.475445 -0.000734 0.0
2.046052 0.022031 -0.005803 0.0
0.502164 0.218837 -0.001015 0.0
3.593542 1.609532 -0.000257 0.0
3.891899 1.509971 0.001712 0.0
3.055847 0.594752 0.004452 0.0
3.709739 0.992169 0.000188 0.0
0.914925 0.203533 -0.000706 0.0
1.167215 1.609445 0.000031 0.0
0.396274 0.003744 0.000321 0.0
1.881991 0.810630 0.003719 0.0
1.534334 1.186492 0.000602 0.0
3.558943 1.098417 -0.002285 0.0
2.354725 1.356036 0.001202 0.0
0.996679 0.857994 -0.003712 0.0
2.520797 1.195988 0.001641 0.0
2.280727 1.295322 -0.000539 0.0
1.715894 1.498677 0.001497 0.0
3.554601 1.270497 0.000852 0.0
1.404975 0.855096 0.003028 0.0
1.642066 0.770421 0.004087 0.0
1.827179 0.689452 -0.002277 0.0
3.439776 0.840108 -0.005456 0.0
1.419523 0.304456 -0.005446 0.0
0.209895 0.223969 0.001257 0.0
0.874726 0.338021 0.006594 0.0
1.246498 1.306313 -0.000480 0.0
3.699884 0.953719 -0.001536 0.0
0.475268 1.239349 -0.001486 0.0
4.275764 0.937177 0.000425 0.0
0.502569 0.507616 -0.000578 0.0
2.065570 0.858878 0.003412 0.0
0.372753 1.023038 -0.000055 0.0
4.357162 1.311327 0.003635 0.0
0.050844 1.408194 -0.003848 0.0
1.170343 0.497050 -0.001100 0.0
2.843516 0.963746 0.003033 0.0
3.166435 0.507428 0.003829 0.0
3.479952 0.888588 -0.001009 0.0
0.937086 0.051595 -0.002320 0.0
1.520313 0.465638 -0.000829 0.0
1.782345 0.987007 -0.000057 0.0
0.695526 1.406777 -0.005079 0.0
0.524341 1.296210 0.000813 0.0
3.486985 1.364468 -0.001421 0.0
2.492388 1.431849 -0.001159 0.0
0.756945 0.241511 -0.000484 0.0
1.389941 1.223245 0.001380 0.0
2.515265 1.591061 0.000770 0.0
2.962602 0.359062 -0.000423 0.0
2.471685 0.869122 0.001312 0.0
3.567134 1.058414 0.000782 0.0
2.505277 1.141045 -0.001196 0.0
2.886630 0.719662 0.002282 0.0
3.932056 0.973692 -0.000723 0.0
3.020872 0.114189 -0.000408 0.0
1.463751 0.669544 0.000369 0.0
2.792911 0.353517 0.001964 0.0
2.404471 0.226858 0.000845 0.0
0.688758 1.445551 -0.002193 0.0
4.084360 1.010780 0.001273 0.0
2.490737 0.698365 0.000544 0.0
2.411542 1.227051 0.005065 0.0
0.389248 0.571264 0.000557 0.0
3.301922 1.443978 0.001008 0.0
3.744239 1.211834 -0.002749 0.0
2.509603 1.548592 -0.000896 0.0
2.767584 1.423284 0.002715 0.0
4.395492 0.791951 -0.005360 0.0
0.490623 0.282311 0.001179 0.0
1.034223 0.629040 0.000581 0.0
1.499857 0.030177 0.000422 0.0
1.909210 1.166603 0.001196 0.0
0.057999 1.373133 0.001044 0.0
1.831294 0.743353 0.001873 0.0
1.971726 0.437675 0.000325 0.0
0.585043 1.018009 -0.002110 0.0
3.467608 0.396008 0.002652 0.0
1.556336 0.299620 0.000245 0.0
2.091245 1.323176 0.002475 0.0
2.898707 0.392204 0.001340 0.0
3.298906 1.323341 -0.000043 0.0
2.612862 0.670489 -0.002531 0.0
2.672766 0.081909 -0.003293 0.0
0.019217 1.441890 0.005718 0.0
2.639530 1.561092 -0.001521 0.0
3.227218 1.722050 0.000661 0.0
0.968678 0.289630 0.000204 0.0
3.305659 1.584313 -0.001295 0.0
2.056017 1.281223 0.002521 0.0
2.346350 1.422224 0.004154 0.0
2.899377 0.186692 0.001391 0.0
3.025064 0.543399 -0.000428 0.0
2.687212 1.210392 0.001716 0.0
3.406561 1.177513 0.001412 0.0
0.594571 1.586028 0.001375 0.0
2.143256 0.815812 0.001068 0.0
2.547308 1.482008 0.000666 0.0
2.671837 1.455926 -0.001800 0.0
2.707163 1.470601 -0.002948 0.0
1.379838 1.409720 -0.006538 0.0
0.339940 0.654672 -0.002354 0.0
3.544020 0.878649 -0.000966 0.0
3.662600 0.356130 0.002502 0.0
2.982544 1.466885 0.000674 0.0
2.622320 1.484686 -0.002085 0.0
1.452051 1.541523 0.003127 0.0
0.205808 0.340570 -0.001827 0.0
1.389379 0.016997 -0.000298 0.0
1.162527 0.958780 0.003134 0.0
3.098116 0.671314 -0.003697 0.0
1.023518 1.260902 -0.002253 0.0
3.911081 1.167684 -0.000261 0.0
0.096245 1.514387 -0.003676 0.0
4.063307 1.075354 -0.001850 0.0
0.859058 1.160549 -0.002321 0.0
0.082152 1.471826 -0.003121 0.0
4.416564 0.889749 -0.002679 0.0
3.971006 1.403411 0.000311 0.0
3.313770 1.729053 0.000513 0.0
0.244200 1.218044 -0.001895 0.0
2.948223 1.738369 -0.002028 0.0
0.247216 0.426905 0.001270 0.0
2.654234 0.940098 0.001299 0.0
3.236057 0.520641 -0.002888 0.0
2.788048 1.392534 -0.001248 0.0
2.070537 1.280418 -0.001721 0.0
1.400571 0.583462 -0.001417 0.0
1.132407 0.488494 -0.000952 0.0
3.837908 1.534313 0.002334 0.0
2.547015 0.108826 0.002309 0.0
2.657867 1.190743 -0.000665 0.0
4.069914 1.299952 -0.001108 0.0
0.902869 0.589328 0.001188 0.0
4.255918 0.127691 -0.000536 0.0
0.213192 1.512835 -0.004705 0.0
2.966981 0.620398 -0.000480 0.0
3.980819 0.694264 -0.006527 0.0
2.017478 0.470013 -0.002188 0.0
0.204923 1.123586 0.002698 0.0
1.879862 0.063593 0.000315 0.0
0.247895 1.134947 -0.000131 0.0
4.291112 1.328545 -0.000669 0.0
3.348166 0.830953 0.000453 0.0
4.416130 0.720886 -0.001646 0.0
1.338906 0.700466 0.001081 0.0
2.324396 0.574142 -0.001701 0.0
4.398955 0.977794 -0.000692 0.0
1.624416 0.937854 -0.004599 0.0
1.323007 0.020861 0.002418 0.0
2.227436 0.477802 0.000861 0.0
1.584812 0.661115 -0.003185 0.0
1.223517 1.040180 -0.002267 0.0
2.579872 0.248326 0.000516 0.0
3.461645 0.213131 -0.003109 0.0
1.117827 0.413266 0.000284 0.0
3.211961 0.009290 0.000590 0.0
1.506625 1.730813 0.000894 0.0
2.826406 0.076199 0.005373 0.0
0.530206 0.004212 0.000162 0.0
1.590748 1.515106 0.002570 0.0
1.832081 0.268563 -0.001935 0.0
2.651392 0.244553 0.002810 0.0
1.658099 1.071696 -0.002191 0.0
3.444062 1.334774 0.004050 0.0
2.516552 0.521743 0.007325 0.0
4.384469 1.023554 -0.002299 0.0
4.126593 1.069418 -0.003570 0.0
4.420096 0.621977 -0.001723 0.0
1.463493 0.480742 -0.001647 0.0
1.166875 0.782652 0.003594 0.0
2.656739 0.421204 -0.000195 0.0
3.885490 0.300817 0.001849 0.0
2.300911 0.883876 -0.001516 0.0
3.835265 1.739741 -0.000474 0.0
1.105046 0.542722 0.000782 0.0
2.990324 1.178274 0.000931 0.0
4.375563 1.314205 0.003818 0.0
0.499429 0.862702 0.002410 0.0
3.265509 0.629502 -0.003796 0.0
4.251226 1.615515 0.002820 0.0
3.718634 0.398263 -0.003856 0.0
4.145322 0.551612 0.000636 0.0
4.225861 1.542043 0.000551 0.0
2.158113 0.915440 -0.002136 0.0
0.561943 1.632736 -0.000611 0.0
0.264187 1.508949 -0.001564 0.0
1.471119 0.884775 0.000016 0.0
1.086257 0.586237 -0.001181 0.0
4.229482 0.911599 0.002893 0.0
3.359483 0.399697 0.003366 0.0
1.264311 0.176628 -0.002272 0.0
2.871967 1.618968 0.004488 0.0
0.581193 0.240477 -0.003596 0.0
2.466567 0.439424 -0.003455 0.0
1.937685 1.706658 0.001435 0.0
1.679429 0.771388 0.002357 0.0
2.373728 1.559845 0.002019 0.0
1.639449 1.582315 0.001646 0.0
2.274114 0.675897 -0.000518 0.0
3.838173 0.099803 -0.001624 0.0
0.591549 0.760303 -0.001320 0.0
2.761168 0.525148 -0.001483 0.0
1.444195 0.760833 -0.002406 0.0
3.882411 0.806846 0.000373 0.0
3.673879 0.204166 0.005429 0.0
1.859497 1.729172 0.000425 0.0
2.963991 0.085591 -0.002324 0.0
1.182027 0.555529 -0.001309 0.0
2.073759 0.174890 -0.000709 0.0
4.200311 1.698363 -0.000419 0.0
1.206645 1.582107 0.004905 0.0
2.462182 0.279632 -0.002569 0.0
3.727742 0.805992 0.002078 0.0
4.195288 1.148953 0.003471 0.0
0.622219 0.191388 -0.004728 0.0
1.133776 0.371742 0.001502 0.0
0.084207 0.411575 0.000051 0.0
3.832778 0.028504 0.000024 0.0
1.070882 0.721419 -0.002047 0.0
3.653777 1.344264 0.001942 0.0
4.016662 1.345093 -0.000576 0.0
0.734949 1.192106 0.001073 0.0
3.300077 0.765224 -0.002077 0.0
3.899766 1.286675 -0.001496 0.0
3.047570 0.825392 0.001737 0.0
2.018205 0.103912 0.001324 0.0
3.971347 0.697070 0.002901 0.0
3.163402 0.797310 -0.002564 0.0
2.635895 1.336859 -0.001338 0.0
0.641275 0.362829 0.000729 0.0
2.754660 1.449275 0.005834 0.0
3.792973 0.252414 -0.002349 0.0
3.383688 0.759242 0.002155 0.0
3.406096 1.510416 0.000668 0.0
1.099197 0.217638 0.001189 0.0
2.568517 1.135144 0.000725 0.0
1.795093 1.433147 -0.002089 0.0
0.440076 0.114015 0.002100 0.0
3.832815 0.271149 -0.001898 0.0
-0.000275 1.282636 0.003373 0.0
2.099458 0.320869 -0.000598 0.0
3.106575 0.018316 0.005717 0.0
2.224911 0.753282 0.003955 0.0
0.365444 1.306254 -0.000743 0.0
2.369820 0.183966 0.000409 0.0
0.504349 1.355605 -0.000947 0.0
2.953372 1.315371 -0.000011 0.0
1.326829 1.568324 -0.004421 0.0
1.355909 1.177850 -0.000929 0.0
4.148875 1.691301 0.001099 0.0
4.051122 0.694834 -0.000502 0.0
3.269866 1.174349 0.000778 0.0
3.556272 0.584739 -0.001137 0.0
0.719055 0.586040 0.001045 0.0
2.705263 1.096991 -0.001029 0.0
0.208227 0.756389 -0.000402 0.0
4.259071 1.542314 -0.000018 0.0
0.335241 1.037214 0.000937 0.0
0.345591 0.676000 0.000665 0.0
3.330173 1.595074 0.000483 0.0
0.559529 1.386511 0.001423 0.0
0.677263 1.670902 -0.000712 0.0
0.710271 0.147622 -0.001680 0.0
4.331243 0.521468 0.000666 0.0
1.492453 1.479782 0.001420 0.0
3.359397 0.200015 0.001579 0.0
1.543209 0.772342 0.001568 0.0
0.044322 1.330088 -0.003222 0.0
3.597230 1.183491 0.000094 0.0
4.412074 0.111068 0.000205 0.0
4.274690 1.174303 0.000310 0.0
2.139528 0.715977 -0.003242 0.0
0.860054 0.937003 0.000226 0.0
1.378040 0.780421 0.001745 0.0
3.454429 1.171546 -0.003094 0.0
1.708958 1.460303 -0.001773 0.0
2.521009 0.722839 -0.001230 0.0
3.754829 1.533495 -0.002339 0.0
3.919393 1.506363 0.002051 0.0
4.364054 1.550733 0.003874 0.0
4.011290 1.055886 0.001299 0.0
0.563073 1.529404 -0.000883 0.0
1.324781 0.947948 0.000430 0.0
0.038861 1.314752 -0.003753 0.0
0.967746 1.143366 -0.002765 0.0
2.570106 0.446645 -0.001385 0.0
4.190372 1.653071 -0.000141 0.0
3.833755 1.235290 0.002673 0.0
0.683717 1.609814 -0.005127 0.0
0.601039 1.074662 -0.000878 0.0
3.113016 0.547162 -0.000409 0.0
3.001714 1.733042 0.002463 0.0
2.426695 1.182592 0.004693 0.0
2.433893 0.048635 -0.000138 0.0
1.067644 0.759676 -0.000812 0.0
0.220682 1.130707 0.000454 0.0
2.861932 0.271647 0.001586 0.0
1.233201 0.939061 -0.001557 0.0
3.556343 1.443599 -0.001083 0.0
3.586165 1.683414 0.002845 0.0
0.566942 0.612419 -0.003151 0.0
0.757137 0.252729 0.001677 0.0
2.723370 1.163580 -0.004213 0.0
1.511597 1.119613 0.000850 0.0
1.194121 0.441008 -0.001912 0.0
2.443909 1.302694 -0.001774 0.0
2.406910 0.322857 0.001570 0.0
1.423413 0.186999 -0.001971 0.0
4.396792 1.245957 -0.003274 0.0
1.636777 1.587041 0.000841 0.0
3.294689 0.955522 -0.000458 0.0
1.796219 1.438212 -0.000075 0.0
2.700633 0.536719 -0.001383 0.0
4.291990 1.136229 0.000183 0.0
1.618296 0.433875 -0.002000 0.0
1.465167 0.340398 0.002491 0.0
2.176243 0.860738 0.004266 0.0
2.392860 0.531482 -0.000848 0.0
0.170684 1.406798 -0.004142 0.0
0.813639 0.141947 -0.000017 0.0
1.646064 1.154677 -0.001967 0.0
3.943024 0.874689 -0.003765 0.0
0.378484 1.640595 0.004654 0.0
1.990489 0.252456 0.000640 0.0
1.265950 0.822610 -0.001477 0.0
2.420087 1.107734 0.001665 0.0
0.745646 0.898796 0.002453 0.0
3.537315 1.559920 -0.000779 0.0
3.536004 0.988806 0.000198 0.0
2.153389 1.238259 -0.001213 0.0
0.701258 0.238319 -0.002637 0.0
4.254557 0.237959 0.002975 0.0
1.790816 0.793646 -0.000523 0.0
2.731911 0.145371 -0.000928 0.0
3.384106 1.618641 -0.001490 0.0
4.104001 0.577460 0.004951 0.0
2.731007 0.265255 0.000933 0.0
3.260290 0.458393 0.001851 0.0
3.110348 0.980362 0.000278 0.0
1.411890 0.864722 -0.002440 0.0
0.992117 0.451023 -0.001268 0.0
1.869429 0.824296 0.001812 0.0
0.981561 0.654539 0.002316 0.0
1.787240 0.150296 0.001244 0.0
1.121271 0.980113 0.003522 0.0
0.956980 0.231547 -0.000795 0.0
1.067224 1.560105 -0.002167 0.0
4.222842 0.502299 0.002887 0.0
2.931594 1.542485 0.004275 0.0
0.386925 1.590539 0.002091 0.0
0.854122 1.449173 -0.001758 0.0
2.399782 1.460854 0.001059 0.0
1.885810 1.456556 -0.002336 0.0
1.333350 1.036092 -0.001299 0.0
0.411733 1.518673 0.000440 0.0
2.889781 0.935937 -0.004603 0.0
4.210909 0.189381 0.000749 0.0
3.357861 0.499087 0.000082 0.0
3.914500 0.855622 -0.000263 0.0
2.063681 1.441326 0.000792 0.0
3.936728 0.023533 0.000935 0.0
0.271339 0.082213 -0.000508 0.0
2.725728 1.173825 -0.000249 0.0
0.927263 0.272847 -0.004215 0.0
1.156782 0.816015 0.001286 0.0
3.872082 0.066976 0.000871 0.0
0.115064 1.455626 -0.001442 0.0
1.181925 0.011455 0.001925 0.0
0.545030 0.870303 -0.003468 0.0
2.164215 0.404781 -0.002565 0.0
3.288496 1.611291 0.003378 0.0
1.439647 0.029694 -0.004160 0.0
1.472776 0.919335 0.002804 0.0
0.585151 0.413622 0.002110 0.0
3.863022 1.727746 -0.003036 0.0
3.016261 0.795365 0.001534 0.0
4.070634 1.536081 0.001489 0.0
2.775343 0.475428 -0.003592 0.0
3.947798 1.256694 -0.000036 0.0
2.142376 0.046205 0.001913 0.0
4.184876 1.008634 0.002937 0.0
1.667398 1.171685 0.000371 0.0
2.984857 1.691664 0.002145 0.0
3.348278 1.592225 0.000446 0.0
1.942628 0.178669 0.003036 0.0
4.308638 1.573313 0.005953 0.0
1.600065 1.581166 -0.000062 0.0
0.543910 1.728349 -0.001122 0.0
2.086065 1.599385 -0.001657 0.0
1.334352 0.162888 0.002379 0.0
0.968584 0.947866 -0.000673 0.0
0.256386 1.508872 -0.004770 0.0
2.122395 1.569700 0.000392 0.0
2.701501 0.410531 -0.001527 0.0
1.170753 0.498486 -0.001026 0.0
0.491825 0.393663 0.001960 0.0
1.424063 1.365255 0.000249 0.0
3.794077 0.750922 0.000075 0.0
2.284251 1.655614 0.003504 0.0
0.848687 0.729951 -0.001999 0.0
3.830287 0.779753 0.000286 0.0
3.117747 1.177171 -0.000749 0.0
0.890018 1.273752 -0.002131 0.0
0.218562 1.242123 -0.003393 0.0
1.211095 0.033400 0.001887 0.0
2.201717 1.402449 -0.001383 0.0
0.668502 0.729155 -0.000018 0.0
1.025519 0.353687 -0.002647 0.0
3.006524 0.264024 -0.000469 0.0
2.733039 0.128952 0.000571 0.0
0.783770 0.274596 -0.001786 0.0
3.175932 1.629845 0.000090 0.0
2.472550 1.086960 -0.002074 0.0
3.030121 1.317824 0.000556 0.0
2.909856 1.116194 0.001678 0.0
3.754466 0.147665 0.003082 0.0
4.131965 0.885130 0.000646 0.0
1.182421 0.459818 0.000694 0.0
2.362794 0.748080 0.000221 0.0
3.863769 0.285819 0.000578 0.0
1.303173 0.907006 0.002550 0.0
1.169917 1.146427 -0.002751 0.0
1.720713 1.243096 -0.002889 0.0
3.448783 0.867112 0.001624 0.0
0.014962 1.308986 -0.001099 0.0
3.196224 0.421407 0.002854 0.0
0.080028 0.154283 0.000783 0.0
2.056856 1.190832 0.001024 0.0
2.762867 0.908372 0.003832 0.0
2.519149 0.512767 -0.000571 0.0
1.582918 0.061151 0.000842 0.0
3.201699 0.460796 -0.002430 0.0
1.167532 0.372291 -0.001616 0.0
2.156960 1.426921 -0.001870 0.0
1.626004 0.185742 -0.003540 0.0
3.734563 0.784379 -0.000445 0.0
0.994964 0.391762 0.001357 0.0
1.151632 1.708204 -0.004130 0.0
3.208265 0.549998 -0.004634 0.0
2.239308 1.399896 -0.000631 0.0
3.318860 1.186179 -0.001589 0.0
2.824934 1.087745 0.000392 0.0
3.452972 1.254768 -0.000286 0.0
1.954863 0.333426 -0.001235 0.0
2.510487 0.811907 0.001230 0.0
3.044753 0.286287 -0.001438 0.0
1.067103 1.507176 -0.001390 0.0
3.591457 0.700870 -0.001303 0.0
3.555397 0.774389 0.000506 0.0
1.114452 0.569573 -0.002972 0.0
3.808779 1.514297 -0.000628 0.0
4.370489 0.486964 0.002473 0.0
2.407638 0.735610 -0.000904 0.0
3.404076 1.131266 0.004421 0.0
4.158613 0.300932 0.000771 0.0
2.510052 1.023665 -0.001445 0.0
4.212902 1.195212 0.005621 0.0
4.379839 0.334114 0.000598 0.0
1.196698 1.043010 -0.002904 0.0
4.202875 1.695736 0.004072 0.0
3.334062 0.516761 -0.003126 0.0
4.006026 1.597344 0.003408 0.0
2.297264 0.388798 0.002807 0.0
1.328586 1.569847 0.000360 0.0
1.877147 1.570255 0.000056 0.0
3.943722 1.587100 0.001407 0.0
1.037071 1.538489 0.001518 0.0
1.260816 1.399751 0.001033 0.0
0.413054 0.098025 0.004925 0.0
3.863845 0.648613 0.000711 0.0
3.034502 0.902260 0.000116 0.0
1.095765 0.369175 -0.005294 0.0
2.376059 0.027460 -0.002900 0.0
1.536318 1.531559 -0.001058 0.0
4.226548 0.814789 0.001834 0.0
1.839087 1.455863 0.004316 0.0
2.941382 1.702550 0.001108 0.0
1.912850 0.026152 0.001002 0.0
2.962110 0.224410 0.003692 0.0
2.602181 0.756073 0.000375 0.0
2.700930 1.581020 0.000354 0.0
1.780865 0.314154 0.001685 0.0
3.657743 0.049503 0.005520 0.0
1.675948 1.691215 0.002310 0.0
1.062756 1.596134 -0.001635 0.0
3.292438 0.243817 0.004639 0.0
1.315531 1.639048 0.005847 0.0
3.231417 1.420800 0.001134 0.0
1.542656 0.699525 0.002336 0.0
0.860243 0.951626 -0.001741 0.0
1.858272 0.771739 -0.001990 0.0
1.111345 1.420127 0.001686 0.0
2.784325 1.002210 0.001224 0.0
2.790142 1.591709 0.004989 0.0
0.866908 0.171504 0.001944 0.0
3.066046 1.086073 -0.000460 0.0
0.918845 0.984507 0.003266 0.0
0.672051 1.223675 -0.005433 0.0
2.653774 0.875174 -0.003839 0.0
3.066607 1.578427 0.002945 0.0
2.426776 1.407524 -0.000556 0.0
1.818433 0.569341 -0.000356 0.0
0.743785 0.503486 -0.002853 0.0
2.826342 0.352407 0.000193 0.0
0.344820 0.995926 0.001157 0.0
0.153007 0.040037 -0.002206 0.0
2.697217 1.726144 0.003570 0.0
2.659123 0.080336 -0.000672 0.0
3.159375 0.027512 -0.001768 0.0
2.811313 0.848984 -0.003421 0.0
2.354524 1.321956 0.000758 0.0
3.972957 0.734916 -0.001396 0.0
1.804215 0.666385 -0.002974 0.0
3.006568 1.579041 0.003671 0.0
4.279420 1.512627 -0.005265 0.0
3.363741 0.220238 -0.001029 0.0
4.012552 0.740793 -0.000509 0.0
0.054647 1.258163 0.004116 0.0
3.953116 0.120653 -0.003520 0.0
1.439346 0.627268 -0.000003 0.0
3.521987 0.951166 -0.001282 0.0
2.758484 0.707854 -0.002179 0.0
1.233475 1.468464 -0.001176 0.0
0.587898 0.031309 -0.002066 0.0
1.501025 0.292154 -0.000277 0.0
1.785678 0.723243 -0.001981 0.0
3.328750 0.716098 0.000217 0.0
0.072191 0.562060 0.005316 0.0
3.498573 0.106929 -0.000347 0.0
2.701724 1.609594 0.000703 0.0
2.779820 1.631996 -0.001868 0.0
3.188829 1.636633 0.002865 0.0
4.255874 1.255257 0.000346 0.0
1.067338 0.425726 0.000234 0.0
1.518439 1.286294 0.003196 0.0
3.842928 0.687913 -0.002691 0.0
0.580019 0.915765 0.000667 0.0
3.878562 0.357557 0.000946 0.0
2.445433 1.563807 0.004713 0.0
1.135341 1.634548 -0.006806 0.0
4.040647 0.858137 -0.000556 0.0
0.062604 0.299800 0.002362 0.0
3.723767 0.564065 0.001293 0.0
0.986872 0.755832 0.003230 0.0
1.112189 1.379507 -0.003283 0.0
1.016518 1.105899 0.003605 0.0
0.904998 1.351616 -0.001703 0.0
1.531734 0.495369 0.004357 0.0
2.142834 0.964873 0.002311 0.0
3.990810 0.927206 -0.003828 0.0
1.633003 0.713034 -0.002580 0.0
0.759030 0.705701 -0.000934 0.0
2.321746 1.114360 -0.002608 0.0
0.187827 0.070824 -0.001155 0.0
3.213229 1.326137 -0.000624 0.0
4.220504 0.467313 0.000107 0.0
0.140245 0.163079 0.003036 0.0
3.648754 1.476912 0.002626 0.0
2.456174 0.725616 0.001465 0.0
3.615885 0.238736 -0.001493 0.0
3.868277 1.387430 -0.002319 0.0
0.433222 0.494558 0.000547 0.0
0.101203 0.614294 0.001697 0.0
3.593053 1.548630 -0.000751 0.0
2.417743 1.383399 -0.001099 0.0
0.625533 0.696565 -0.001250 0.0
0.971331 0.956644 0.000198 0.0
0.265604 1.630271 -0.002680 0.0
3.363310 0.064286 -0.000903 0.0
1.338540 1.530499 0.000875 0.0
3.233278 1.070241 0.003787 0.0
3.268595 1.583009 0.002226 0.0
2.740964 0.765310 0.002475 0.0
1.056727 0.543931 0.002923 0.0
1.791345 0.113477 0.002033 0.0
1.248431 1.289941 0.001575 0.0
3.732529 0.660199 0.004781 0.0
1.702856 1.597999 -0.000820 0.0
0.915674 1.210956 0.003295 0.0
2.800214 1.437114 -0.004016 0.0
3.761460 0.777254 0.001876 0.0
2.940366 1.672840 0.003299 0.0
0.540068 1.515296 0.001835 0.0
3.158477 0.341860 0.000218 0.0
0.885055 1.105405 0.005984 0.0
1.087852 0.012153 0.000664 0.0
2.349012 1.659334 0.000098 0.0
0.439966 0.985133 -0.001939 0.0
1.881339 1.258814 -0.002804 0.0
3.453954 0.348115 -0.000659 0.0
0.175899 1.411586 0.002752 0.0
3.680564 1.744573 -0.005462 0.0
4.293735 0.903175 0.003092 0.0
1.936244 1.700740 0.002491 0.0
4.232945 1.471928 0.002888 0.0
0.728271 1.400151 0.003330 0.0
1.047151 1.424852 0.002686 0.0
0.489627 1.701634 -0.003902 0.0
3.438845 0.228714 0.002575 0.0
1.660494 0.020465 0.002973 0.0
1.116626 1.071946 -0.000234 0.0
1.871475 1.095617 0.000968 0.0
1.411334 0.388054 -0.005230 0.0
4.163078 0.447575 -0.002679 0.0
3.671782 0.840240 -0.001272 0.0
3.938349 0.476495 -0.002192 0.0
2.877695 1.583578 -0.003349 0.0
1.126266 1.179418 -0.002029 0.0
0.060600 0.123100 0.000403 0.0
0.200724 1.633521 0.003248 0.0
2.534434 1.394557 -0.001879 0.0
0.591175 0.734405 -0.002127 0.0
3.758212 1.523239 -0.001454 0.0
0.354052 0.037840 -0.003703 0.0
4.290480 1.579398 0.002891 0.0
1.377122 0.278065 -0.000046 0.0
2.674378 1.301555 0.002519 0.0
0.034566 0.080233 0.001008 0.0
3.032995 0.116965 -0.000383 0.0
1.057649 0.190393 0.002225 0.0
2.803573 1.615271 -0.000320 0.0
1.034837 0.983538 -0.000246 0.0
1.946926 0.435140 0.002235 0.0
1.139640 0.448908 -0.003094 0.0
4.005703 0.934362 -0.000295 0.0
4.120125 0.420251 -0.002158 0.0
2.354980 0.112007 0.004750 0.0
1.822371 0.471616 -0.001992 0.0
3.639842 1.434165 0.001834 0.0
1.939340 0.828834 -0.000437 0.0
4.054520 1.113649 0.000431 0.0
3.424414 1.513249 0.001571 0.0
2.685019 0.933924 -0.003862 0.0
3.821562 0.478777 -0.000660 0.0
1.158379 1.227661 -0.000296 0.0
0.646463 1.184001 -0.001023 0.0
1.005353 1.647161 0.002068 0.0
3.016298 1.140151 0.001991 0.0
2.953896 0.298466 -0.000002 0.0
4.362109 0.459153 -0.000157 0.0
2.899507 0.794459 -0.006356 0.0
3.971402 0.797622 -0.001550 0.0
0.844484 1.643641 0.000950 0.0
2.315719 0.567267 0.001555 0.0
4.045678 1.099431 0.002592 0.0
2.051107 1.186776 -0.003252 0.0
2.449627 1.549169 0.001725 0.0
4.115217 0.173627 -0.001561 0.0
2.365747 0.402959 -0.000458 0.0
3.118653 0.127421 0.002215 0.0
0.046365 0.757262 0.001219 0.0
1.335713 1.139452 0.001541 0.0
3.900406 0.467307 -0.002702 0.0
2.560686 0.949689 0.001874 0.0
0.579337 0.063269 -0.002185 0.0
4.302626 1.539602 -0.003043 0.0
0.122323 0.781576 0.001059 0.0
0.365672 1.389954 0.000210 0.0
1.154077 1.650257 -0.002838 0.0
1.496684 0.938000 0.002791 0.0
0.352869 0.417843 -0.003383 0.0
1.347016 1.606916 0.003499 0.0
0.468143 1.421371 0.004762 0.0
3.900401 1.585152 -0.000307 0.0
0.414627 1.407382 0.000418 0.0
0.290522 0.700536 -0.003076 0.0
0.902990 1.497815 0.001639 0.0
2.222747 0.565787 -0.000369 0.0
0.339981 1.630264 0.000049 0.0
4.362902 1.453696 0.000380 0.0
0.082968 0.985609 -0.001888 0.0
2.283578 0.625763 -0.000159 0.0
4.051822 1.529446 0.001038 0.0
2.249283 0.195234 0.001115 0.0
0.555416 0.253499 0.002214 0.0
1.484263 1.159661 0.001968 0.0
1.071966 1.104281 -0.001690 0.0
4.018821 1.036384 0.003107 0.0
0.297725 0.406195 -0.000182 0.0
3.365129 1.386919 -0.002494 0.0
1.352921 1.522264 -0.001214 0.0
0.652153 1.630915 -0.001510 0.0
2.568666 0.512273 -0.003565 0.0
2.672443 0.934992 0.000494 0.0
0.311076 0.195733 0.001135 0.0
0.566671 1.509116 0.000804 0.0
2.738611 1.691645 -0.001671 0.0
0.889457 0.962536 -0.001434 0.0
2.800626 1.311060 -0.002694 0.0
1.328769 1.645048 0.000229 0.0
0.565191 1.717093 -0.004081 0.0
3.209295 0.536094 0.001411 0.0
0.220346 1.000166 0.002888 0.0
3.310921 0.379764 -0.002894 0.0
3.547108 1.061288 -0.001934 0.0
1.689548 1.177110 0.001173 0.0
4.111666 1.318237 0.002131 0.0
2.328311 1.501194 -0.004637 0.0
0.569962 0.140711 -0.000118 0.0
1.640872 1.272366 0.003649 0.0
3.154311 1.420488 -0.002610 0.0
2.922611 0.677002 0.003255 0.0
3.093688 0.462477 0.002771 0.0
0.683623 1.557524 0.001314 0.0
3.315159 1.108646 -0.001011 0.0
4.218979 1.657252 -0.003204 0.0
3.877349 1.352128 -0.004451 0.0
1.860641 1.566365 0.003785 0.0
0.654617 1.315683 0.000182 0.0
0.045945 0.346459 -0.000496 0.0
1.168454 0.900208 -0.003941 0.0
0.351866 0.617733 0.000031 0.0
0.916853 1.077686 0.001402 0.0
3.806201 0.627301 0.000681 0.0
1.065080 0.227755 -0.000337 0.0
1.784080 1.348439 0.000467 0.0
2.453471 0.611551 0.004641 0.0
4.104083 0.454469 -0.000279 0.0
2.366843 0.764079 0.000923 0.0
2.238730 0.358196 -0.001678 0.0
3.800757 1.128759 0.001710 0.0
1.587137 0.116136 0.000659 0.0
1.282597 1.343846 0.002337 0.0
3.159993 0.939137 -0.001002 0.0
3.624760 0.034430 -0.001439 0.0
2.083152 1.661969 0.003168 0.0
3.895558 0.623608 0.003994 0.0
2.902173 1.008416 -0.000759 0.0
0.234231 1.434087 0.005440 0.0
0.888880 0.729010 0.001486 0.0
4.367525 1.229019 -0.001404 0.0
3.109673 1.367303 0.001068 0.0
1.876017 1.463318 -0.000911 0.0
0.132095 1.508109 -0.003536 0.0
3.279733 0.179372 0.001047 0.0
4.137331 0.263490 0.006411 0.0
1.419087 0.823510 -0.003688 0.0
3.874950 1.716923 0.001838 0.0
4.181114 1.648910 -0.001518 0.0
2.017868 1.022517 -0.003407 0.0
2.901580 0.215672 0.001382 0.0
0.474898 0.649054 0.001613 0.0
1.326929 0.720073 -0.001435 0.0
3.622235 0.769149 -0.006858 0.0
2.061503 0.217421 -0.001171 0.0
0.532486 0.886606 -0.002117 0.0
0.834534 0.472647 -0.003522 0.0
3.064342 0.506128 -0.000885 0.0
1.481804 1.053909 0.002273 0.0
3.939794 1.509703 0.000587 0.0
3.858140 0.421862 -0.000591 0.0
4.026840 0.260387 0.001564 0.0
0.317595 0.339998 -0.001084 0.0
1.701785 1.405742 -0.002768 0.0
3.070048 1.514724 -0.000205 0.0
2.894776 0.077192 -0.002747 0.0
3.612830 0.940864 -0.001593 0.0
4.266002 0.848235 -0.000122 0.0
3.563612 1.716335 0.000815 0.0
4.154789 0.006582 -0.004223 0.0
2.616754 1.028400 0.003905 0.0
3.302344 1.130631 -0.002368 0.0
1.925593 0.455068 0.002671 0.0
3.573466 1.350999 0.000585 0.0
2.408881 0.884693 -0.001537 0.0
4.232490 0.641286 0.000257 0.0
3.932160 1.447635 -0.001367 0.0
2.100021 0.259592 0.002139 0.0
2.346291 1.084718 0.000948 0.0
0.372141 1.232792 0.001492 0.0
4.332867 0.863018 0.001646 0.0
1.812657 0.839740 0.001190 0.0
1.409330 0.235639 -0.001896 0.0
4.263159 1.149175 -0.002385 0.0
4.235099 1.615202 0.000057 0.0
1.226438 0.444333 -0.001167 0.0
0.282449 0.642208 -0.004465 0.0
2.529228 1.667895 -0.003468 0.0
1.765996 1.281973 -0.000541 0.0
0.094731 0.930112 -0.000798 0.0
2.510918 1.575303 -0.002235 0.0
0.811112 0.804492 0.000284 0.0
2.183935 1.472291 -0.001227 0.0
2.197307 0.171369 -0.004825 0.0
0.612620 0.415453 0.001767 0.0
0.012350 0.435062 -0.002507 0.0
0.589113 1.319151 -0.000497 0.0
2.568027 1.400655 0.001856 0.0
1.995232 0.737314 0.003177 0.0
2.695701 0.727448 -0.003341 0.0
3.649192 0.041292 -0.001572 0.0
0.754894 0.267059 0.002614 0.0
3.490386 0.410214 0.000259 0.0
3.068087 0.135335 -0.002151 0.0
1.516717 1.545027 0.001437 0.0
3.385211 0.778169 0.001208 0.0
2.471304 0.439349 -0.001434 0.0
1.102091 1.552882 0.000252 0.0
0.008447 1.140549 -0.001293 0.0
3.885847 0.580236 0.001029 0.0
2.111345 0.208919 0.001386 0.0
1.072185 1.670619 0.000549 0.0
2.695461 0.064828 0.001756 0.0
0.407659 1.341890 0.002033 0.0
1.947440 1.274601 0.001691 0.0
0.973042 1.441050 -0.000509 0.0
1.449180 1.249921 0.000695 0.0
4.041096 0.326255 -0.000607 0.0
0.397487 1.405789 0.001570 0.0
0.910167 0.298312 -0.002610 0.0
1.164693 1.159727 -0.000714 0.0
1.113172 0.172070 -0.001340 0.0
4.372183 1.461242 0.000760 0.0
0.285807 0.862565 -0.001691 0.0
4.147108 0.048687 -0.001290 0.0
1.160683 1.323208 0.000254 0.0
1.093491 0.737115 -0.001769 0.0
3.245604 1.612379 -0.001135 0.0
3.833413 0.423761 -0.001016 0.0
1.439950 0.028086 0.000285 0.0
1.547632 0.988836 0.001198 0.0
0.745849 1.146204 0.000068 0.0
1.065428 1.662991 -0.002180 0.0
4.241462 1.257208 0.001517 0.0
2.687233 1.535416 -0.003272 0.0
0.635098 0.216698 -0.000451 0.0
0.826266 1.641801 0.002013 0.0
1.491944 0.304714 0.003438 0.0
4.330741 0.203537 0.002320 0.0
1.346049 0.091750 -0.000048 0.0
0.424449 0.951210 -0.001301 0.0
1.029115 0.856583 -0.001562 0.0
2.840739 0.637371 0.001668 0.0
0.587012 0.854374 0.002533 0.0
0.570697 0.729528 -0.001686 0.0
1.655021 0.679760 -0.000394 0.0
0.917685 0.317644 0.001840 0.0
0.787105 0.041550 -0.000360 0.0
1.134187 0.922263 0.000688 0.0
0.909558 0.165806 0.004008 0.0
2.808161 1.638002 -0.000422 0.0
3.054486 0.897689 0.001313 0.0
0.278481 1.337406 0.000968 0.0
1.114151 1.617419 -0.000580 0.0
0.179278 1.614116 -0.006190 0.0
4.280013 0.066615 0.003159 0.0
3.870329 0.444296 -0.000298 0.0
1.924010 0.272642 -0.000826 0.0
3.404086 0.862654 0.001362 0.0
3.881697 1.110175 -0.000433 0.0
1.379242 0.152522 0.000190 0.0
4.258016 0.489110 0.000887 0.0
1.479536 0.659614 0.001289 0.0
0.438014 0.036851 -0.002931 0.0
3.746518 0.412419 -0.002986 0.0
3.280417 1.298547 -0.002153 0.0
3.273005 0.649623 0.000490 0.0
1.629504 0.168456 -0.000198 0.0
1.520820 0.976599 -0.000292 0.0
2.061905 0.530168 -0.000719 0.0
1.128749 1.055347 0.002745 0.0
0.462979 0.673208 0.001087 0.0
1.082284 0.684461 -0.000086 0.0
0.534328 0.152512 -0.002580 0.0
3.813712 1.714544 0.000180 0.0
0.648522 0.448996 0.002878 0.0
3.394462 1.694149 -0.002222 0.0
3.048780 0.465407 0.001048 0.0
3.788904 0.288423 -0.000949 0.0
1.234702 0.668153 0.000636 0.0
0.580526 1.166936 0.003731 0.0
0.614202 0.246947 0.001608 0.0
0.036664 0.831795 0.005093 0.0
3.186866 1.364354 0.003800 0.0
0.777606 1.718707 -0.003337 0.0
3.390495 1.609450 -0.006261 0.0
2.945084 1.200602 -0.000252 0.0
1.316271 0.735507 0.004350 0.0
0.665898 0.132635 -0.003078 0.0
1.992538 0.663170 -0.002612 0.0
2.834210 0.102923 -0.000612 0.0
3.488376 1.115534 0.002223 0.0
3.554728 1.576242 -0.000296 0.0
0.824702 1.532638 0.002454 0.0
2.836349 1.666527 -0.005153 0.0
0.805118 0.655664 -0.000093 0.0
0.962729 0.142582 -0.002428 0.0
4.417768 1.375054 -0.004036 0.0
2.481267 1.123238 -0.003180 0.0
1.426919 1.039146 -0.000005 0.0
1.352406 0.896015 0.004791 0.0
1.074951 0.796327 -0.002566 0.0
2.182967 0.189078 -0.000818 0.0
2.617649 1.568963 -0.001102 0.0
2.749922 1.594356 -0.001720 0.0
0.371671 0.858183 0.001559 0.0
4.028827 0.731356 0.002906 0.0
0.760093 1.204037 -0.001973 0.0
2.035053 1.694206 0.002153 0.0
3.982064 0.415920 0.000928 0.0
1.905421 0.016798 0.002793 0.0
3.902331 1.483996 -0.003168 0.0
2.445506 1.156683 0.003856 0.0
2.829814 1.327491 0.003168 0.0
0.498789 1.517411 -0.000460 0.0
3.215223 1.658366 -0.000130 0.0
3.850595 0.196168 0.006006 0.0
3.258035 1.361871 0.000793 0.0
2.283818 0.520102 -0.004835 0.0
0.651384 0.731563 0.000080 0.0
1.546817 0.161013 -0.003059 0.0
2.716559 1.264324 -0.000274 0.0
3.298572 1.462218 0.000327 0.0
2.854153 0.083788 0.002568 0.0
2.681344 0.342155 -0.003096 0.0
0.716575 1.088036 0.006489 0.0
2.931353 0.693311 -0.001872 0.0
0.711511 1.579834 -0.001127 0.0
2.043174 0.009208 -0.001268 0.0
0.789171 0.224744 0.002581 0.0
3.447256 0.091396 -0.001741 0.0
2.901645 0.199699 -0.000821 0.0
0.705494 1.733282 -0.000915 0.0
2.236631 1.167197 0.002893 0.0
1.191120 1.688677 -0.002199 0.0
4.267577 0.556686 0.003673 0.0
1.260920 1.443654 0.000255 0.0
3.073986 0.102745 0.000205 0.0
3.047268 0.954971 0.000810 0.0
1.015600 1.384912 -0.001309 0.0
1.198983 0.290745 0.000007 0.0
1.339125 0.983325 0.002665 0.0
0.151781 1.015949 -0.001648 0.0
2.470725 0.721038 -0.001929 0.0
3.281249 1.707261 0.003686 0.0
1.544499 0.852993 0.002325 0.0
1.658095 1.013735 -0.000344 0.0
0.878276 1.058957 -0.002365 0.0
0.777636 1.694196 0.001117 0.0
0.774326 1.015576 -0.001489 0.0
0.690174 1.384066 -0.001911 0.0
2.540859 0.600162 -0.000733 0.0
0.118248 0.356316 -0.000341 0.0
1.448658 1.277082 0.002226 0.0
2.460143 1.068260 -0.004222 0.0
0.489929 1.721319 -0.000415 0.0
1.499301 0.904396 -0.001457 0.0
2.453905 0.682723 -0.002912 0.0
1.068666 1.719855 -0.001649 0.0
4.282705 0.749191 0.000107 0.0
3.396599 0.699926 0.000650 0.0
0.952983 0.436604 -0.000473 0.0
2.290829 0.072828 0.003806 0.0
2.218718 0.133420 0.001951 0.0
3.499275 1.531763 0.005235 0.0
2.693647 0.767119 0.002911 0.0
4.154948 1.012574 0.003708 0.0
3.441928 0.821335 -0.000639 0.0
0.593072 1.383624 -0.003053 0.0
0.701409 0.306683 0.001608 0.0
3.648183 1.639049 0.005864 0.0
1.024391 0.211462 -0.000819 0.0
2.380551 1.005477 0.003399 0.0
1.719306 1.068720 -0.001709 0.0
2.200688 0.175269 -0.001136 0.0
1.767951 0.623442 -0.000047 0.0
0.596762 0.253259 -0.002468 0.0
0.128034 0.133707 -0.001536 0.0
3.787116 0.078071 -0.001259 0.0
1.341905 1.115346 0.003239 0.0
3.697821 0.310938 0.000005 0.0
3.200883 0.219402 0.002426 0.0
0.900669 0.839778 -0.000044 0.0
4.180681 1.355442 0.001184 0.0
0.412181 0.635702 0.001496 0.0
3.506310 0.360806 -0.000834 0.0
0.195306 0.092865 0.001219 0.0
3.136348 0.655207 -0.001076 0.0
3.516532 1.151326 0.000904 0.0
3.343912 1.545948 0.002659 0.0
4.261593 1.608965 -0.003700 0.0
4.030827 0.331678 0.001406 0.0
2.008990 0.334206 0.002315 0.0
1.763054 0.132432 -0.000456 0.0
4.058295 1.349597 0.004026 0.0
1.547255 1.244969 0.000593 0.0
0.592950 0.481851 -0.000875 0.0
1.079926 1.498615 0.001112 0.0
2.413156 1.226771 -0.002078 0.0
0.949493 1.281662 -0.001281 0.0
2.183027 0.708251 0.001335 0.0
0.934248 1.425175 -0.000437 0.0
0.218838 1.658103 0.001004 0.0
4.032224 1.264165 -0.002205 0.0
2.564935 0.430589 0.002623 0.0
1.228818 0.337901 0.000233 0.0
2.051430 0.457619 -0.002652 0.0
1.678306 1.713042 0.001000 0.0
3.106146 1.585717 -0.002187 0.0
0.346469 0.934678 -0.004760 0.0
1.808451 1.497984 -0.001999 0.0
2.270894 0.375904 -0.003396 0.0
2.287208 0.104708 -0.000893 0.0
0.663214 0.351838 0.002398 0.0
1.911885 0.989974 0.003610 0.0
3.556340 1.554170 0.005224 0.0
0.937863 0.594985 0.000595 0.0
1.068211 1.680159 0.000864 0.0
2.833754 0.823726 -0.002826 0.0
1.476376 0.543310 -0.000379 0.0
3.608514 1.165660 -0.000729 0.0
0.668539 1.450006 0.002496 0.0
2.799609 0.284742 0.001152 0.0
0.368535 0.158462 0.003923 0.0
4.314289 1.197558 0.000935 0.0
3.854504 0.688199 -0.003191 0.0
0.323410 1.724565 0.001410 0.0
4.130539 1.410237 -0.001382 0.0
0.445728 1.026530 0.001042 0.0
0.738133 0.228443 0.004420 0.0
0.656056 0.079189 0.001399 0.0
0.282663 1.723812 0.002785 0.0
0.383371 1.263341 -0.000431 0.0
2.953292 0.420128 -0.000432 0.0
4.293945 0.390158 0.000933 0.0
0.986488 1.303152 -0.001454 0.0
2.600943 1.044082 -0.003058 0.0
1.747744 1.042250 -0.004030 0.0
2.547602 1.328548 0.001193 0.0
1.696111 1.680473 0.002196 0.0
0.611188 1.150208 0.001348 0.0
0.826878 1.217204 0.003971 0.0
4.303006 0.801798 -0.001157 0.0
2.535267 1.220075 -0.003606 0.0
1.814338 0.981266 0.002786 0.0
3.682638 1.062751 -0.000441 0.0
2.356993 1.646045 0.005028 0.0
2.933107 0.295483 -0.000917 0.0
4.152025 0.898431 0.006589 0.0
1.808083 0.574421 -0.003310 0.0
3.903939 0.424517 -0.002672 0.0
1.110897 1.487407 0.000550 0.0
4.380882 0.576387 -0.000300 0.0
2.728387 0.144706 0.004376 0.0
1.492752 0.131436 -0.006672 0.0
3.466313 1.637260 0.002376 0.0
3.441150 1.475043 -0.001224 0.0
1.904296 0.200782 0.002312 0.0
2.863095 1.567717 0.001660 0.0
3.634069 1.687369 -0.000136 0.0
4.093338 0.334836 0.001599 0.0
1.922727 1.274421 -0.001233 0.0
1.209379 0.523311 0.000229 0.0
3.390634 0.345351 -0.000600 0.0
4.346559 0.247199 -0.001403 0.0
2.463019 0.578034 0.001150 0.0
2.105236 0.712349 -0.004379 0.0
3.334934 1.102516 -0.004251 0.0
3.351888 1.061246 -0.002551 0.0
0.184164 0.074288 -0.000739 0.0
3.223352 0.919874 0.000754 0.0
0.364916 0.007134 -0.003562 0.0
1.729131 0.959517 -0.000379 0.0
0.030329 0.527984 0.002782 0.0
4.391467 1.261632 -0.003258 0.0
0.654850 1.299426 0.002872 0.0
2.420818 1.180620 -0.001655 0.0
2.685181 0.330704 0.003774 0.0
4.244231 1.016189 -0.003510 0.0
3.320857 0.593978 0.001818 0.0
2.941562 0.016468 -0.003024 0.0
2.199060 1.526454 0.002042 0.0
3.884474 1.736420 0.001070 0.0
3.961028 1.455068 0.003359 0.0
2.050202 1.247469 0.005371 0.0
2.540230 1.087682 0.002144 0.0
1.007080 1.564283 -0.001124 0.0
0.449055 0.329920 -0.001484 0.0
3.914720 1.624440 0.004495 0.0
2.887876 1.654970 0.000479 0.0
3.035027 0.223092 -0.002482 0.0
3.773738 1.075103 0.001055 0.0
3.497542 0.704908 0.007157 0.0
1.136877 1.179925 -0.000475 0.0
2.306642 1.538683 0.002004 0.0
3.159264 0.528686 -0.001258 0.0
1.246172 1.332317 0.002078 0.0
1.725140 0.282983 0.005904 0.0
2.829585 0.591234 -0.004072 0.0
2.581378 0.894172 0.000271 0.0
1.867568 1.107605 -0.000978 0.0
1.252468 1.078177 -0.002545 0.0
1.681361 0.196454 0.000189 0.0
1.844472 0.437201 0.000546 0.0
1.329330 1.425695 0.006126 0.0
0.102431 0.229703 -0.001320 0.0
0.447774 1.322043 0.004329 0.0
1.947524 0.236992 0.004851 0.0
2.311600 0.835438 -0.001735 0.0
3.212456 0.357426 -0.003759 0.0
0.067315 0.481236 -0.004002 0.0
4.123068 0.525643 -0.004446 0.0
2.008585 0.272623 0.000112 0.0
2.009570 1.173976 0.003111 0.0
2.467003 1.653502 0.004437 0.0
1.187918 1.251879 -0.002879 0.0
1.694533 1.203185 0.004641 0.0
1.794349 0.172543 -0.001677 0.0
1.346863 0.682322 -0.001372 0.0
2.599560 1.439945 0.001311 0.0
