0.47293962 1.52593804 -0.00328905 0.00000000
3.38601331 1.61039112 -0.00239993 0.00000000
0.39145635 0.18828608 -0.00511759 0.00000000
3.84145169 0.04577819 0.00044128 0.00000000
1.15156054 0.65150711 0.00333334 0.00000000
4.02466840 0.35051669 -0.00190416 0.00000000
4.10973071 0.37907489 0.00014058 0.00000000
1.93592153 0.91253804 -0.00139000 0.00000000
0.32093022 1.37241694 0.00210682 0.00000000
0.71003471 0.32596511 0.00511754 0.00000000
0.85395522 1.47652686 0.00258157 0.00000000
3.91315522 0.32177866 0.00468031 0.00000000
1.21564065 1.01026432 -0.00184553 0.00000000
3.82540284 1.45653241 0.00029846 0.00000000
2.97976061 1.47819022 -0.00112786 0.00000000
0.37687850 0.94993015 0.00059651 0.00000000
2.91111003 1.85799753 -0.00095308 0.00000000
1.08935888 0.84043975 0.00169742 0.00000000
3.44476930 1.08010958 -0.00081954 0.00000000
1.30722188 1.81040496 -0.00362446 0.00000000
0.50016353 1.62742886 -0.00159956 0.00000000
1.29285277 1.37470957 -0.00397246 0.00000000
2.58446672 1.32899951 0.00016723 0.00000000
1.06617870 0.31938948 -0.00189971 0.00000000
4.08427398 0.00529073 0.00116819 0.00000000
2.71805925 0.02449102 -0.00337824 0.00000000
4.07213039 1.09290880 -0.00399968 0.00000000
1.62204666 1.78094851 0.00225927 0.00000000
3.64290470 1.15515042 -0.00181283 0.00000000
0.44367396 1.31112618 0.00267049 0.00000000
0.03840973 1.83058078 -0.00054358 0.00000000
2.80613710 0.45695574 -0.00040744 0.00000000
3.80984230 0.58769269 0.00128218 0.00000000
2.94569311 1.71323241 0.00041517 0.00000000
3.73465832 0.58931769 0.00057143 0.00000000
2.39802599 1.53203533 0.00296337 0.00000000
2.80974209 0.25060472 0.00086672 0.00000000
1.66259317 1.50975434 0.00003242 0.00000000
1.51030350 1.30086534 -0.00118590 0.00000000
3.27389244 0.76332056 0.00336878 0.00000000
4.21598110 0.72881336 -0.00225182 0.00000000
4.21349066 0.69402443 -0.00359100 0.00000000
1.08676896 1.86231286 0.00286677 0.00000000
2.02479371 1.14078562 0.00230685 0.00000000
4.12689128 0.44449653 0.00203925 0.00000000
2.18749048 1.31002265 -0.00354398 0.00000000
2.91442115 0.78669995 0.00144394 0.00000000
3.03792630 0.68816085 0.00260147 0.00000000
0.97507660 0.23528838 -0.00094196 0.00000000
0.10729042 1.64260894 -0.00081952 0.00000000
1.58675755 0.38603777 0.00199229 0.00000000
0.13497302 0.12591080 -0.00969185 0.00000000
1.59757384 1.81132301 0.00051660 0.00000000
1.30094408 1.80819251 0.00002267 0.00000000
1.98535536 0.48593106 -0.00360426 0.00000000
0.46186744 0.74708774 0.00006276 0.00000000
2.96464591 1.82210625 0.00061868 0.00000000
1.20863391 1.78250677 0.00293732 0.00000000
4.17385532 0.70350999 0.00014152 0.00000000
2.65761610 1.01117574 -0.00109830 0.00000000
3.62646326 0.10061699 0.00155503 0.00000000
0.85074412 1.39810979 -0.00045164 0.00000000
0.92841544 0.53976973 0.00245274 0.00000000
3.55199541 0.75548073 -0.00136276 0.00000000
2.80280186 1.25954061 0.00206052 0.00000000
3.74152954 0.49026550 0.00286402 0.00000000
0.50372999 1.65576127 0.00066518 0.00000000
2.96385933 0.25993726 -0.00515050 0.00000000
0.27195169 1.25376547 -0.00555992 0.00000000
1.89449450 0.76586862 -0.00007145 0.00000000
0.09263439 0.83342618 -0.00135801 0.00000000
1.67743019 0.03769060 0.00605326 0.00000000
2.50941548 0.72189588 0.00452559 0.00000000
0.17945842 1.36693294 -0.00199659 0.00000000
3.95455089 1.59337532 -0.00257778 0.00000000
1.65408953 0.39431717 0.00174813 0.00000000
4.23391970 1.54438980 0.00049129 0.00000000
1.37561418 0.72690954 0.00092860 0.00000000
2.89680726 1.22672036 0.00395825 0.00000000
1.48711776 1.21296362 0.00150976 0.00000000
3.14630712 1.38479706 0.00023416 0.00000000
0.73879088 0.30864270 0.00361148 0.00000000
1.96207074 1.83298391 0.00253650 0.00000000
1.00259951 0.99289683 -0.00320700 0.00000000
0.24730570 1.08036561 -0.00127603 0.00000000
3.00029875 0.84057625 0.00214436 0.00000000
4.22604968 1.11809926 -0.00336816 0.00000000
1.39930479 0.43793099 0.00286383 0.00000000
1.68526957 1.42174729 -0.00340984 0.00000000
4.26497399 1.85193257 -0.00076334 0.00000000
0.30614616 0.92604394 0.00510399 0.00000000
1.79345915 0.21688117 -0.00085586 0.00000000
0.77506807 0.78603802 0.00265665 0.00000000
0.47074823 0.01091755 -0.00192089 0.00000000
2.61863654 1.20571380 0.00065082 0.00000000
3.93574001 1.77397985 -0.00061626 0.00000000
0.88756032 1.47684681 0.00340083 0.00000000
2.29238938 0.37106630 0.00171002 0.00000000
4.18839943 1.69459978 -0.00275086 0.00000000
2.32422121 0.95388141 -0.00190439 0.00000000
2.89245464 1.84705814 -0.00172674 0.00000000
0.94907324 0.23790087 0.00437519 0.00000000
3.25779908 1.41098718 0.00066468 0.00000000
3.65802642 1.60534715 -0.00063771 0.00000000
3.73152618 0.62197699 0.00075966 0.00000000
4.11566437 1.08457306 -0.00448972 0.00000000
3.22612288 1.77992686 -0.00095088 0.00000000
0.15337333 1.64104318 -0.00019690 0.00000000
3.74816889 1.55058701 0.00025692 0.00000000
2.21954180 0.67624068 0.00116288 0.00000000
2.60058712 0.58377398 0.00194408 0.00000000
1.46063213 0.59004470 0.00258135 0.00000000
0.14232304 0.07911508 0.00438273 0.00000000
3.33975886 0.88068077 -0.00306059 0.00000000
3.32844006 0.18108431 0.00154712 0.00000000
2.47522281 1.06948355 -0.00036665 0.00000000
2.19978348 0.94509693 0.00068191 0.00000000
1.73371636 0.09316461 -0.00368122 0.00000000
3.61141583 1.78353435 -0.00531861 0.00000000
3.38327238 0.48053955 -0.00161527 0.00000000
0.96203139 0.48244594 -0.00713672 0.00000000
0.71036924 0.57363628 0.00101343 0.00000000
3.06087517 1.03037125 -0.00149680 0.00000000
2.31929907 1.23245797 -0.00187654 0.00000000
2.00058020 1.11531348 0.00170446 0.00000000
1.80794376 1.07252078 0.00079687 0.00000000
1.07607303 1.29048354 0.00315747 0.00000000
1.59541566 0.17335450 -0.00225975 0.00000000
1.97846082 1.24557345 0.00279497 0.00000000
3.93608484 1.22094969 0.00065112 0.00000000
3.90350907 1.10150704 -0.00134758 0.00000000
0.73300368 1.46636852 -0.00013438 0.00000000
0.85229135 1.44484136 0.00281639 0.00000000
3.82907856 1.00960411 -0.00013830 0.00000000
0.71234953 1.57686680 0.00152652 0.00000000
2.87143367 1.37374988 0.00434044 0.00000000
3.54454025 1.62886939 0.00287712 0.00000000
0.62627937 1.87293905 0.00260011 0.00000000
1.10074161 1.48142173 -0.00254650 0.00000000
0.19553824 1.11503797 -0.00068938 0.00000000
3.42293601 0.84271558 -0.00098745 0.00000000
2.84196844 0.19461801 0.00039968 0.00000000
0.58169428 1.42022335 -0.00363318 0.00000000
3.04084273 0.31678292 0.00994989 0.00000000
2.92929744 1.48101721 0.00246081 0.00000000
0.92141569 0.65020944 -0.00287223 0.00000000
0.72873734 0.31928407 0.00288041 0.00000000
3.32199784 0.88280598 0.00428481 0.00000000
1.88010705 0.53846498 -0.00126996 0.00000000
3.18166697 1.86361633 -0.00361162 0.00000000
0.91750234 0.63566802 0.00186424 0.00000000
1.18475417 0.73597176 -0.00353656 0.00000000
0.38810486 1.16469738 0.00000867 0.00000000
3.63166831 0.36361566 0.00122031 0.00000000
1.16697074 0.47514775 0.00211409 0.00000000
0.15269417 0.15925033 0.00053332 0.00000000
1.26119919 0.65767230 -0.00025337 0.00000000
0.16875264 1.85124479 0.00572342 0.00000000
1.08610174 1.60954981 -0.00118255 0.00000000
3.38952652 0.36641946 0.00034163 0.00000000
2.81886470 0.73541618 -0.00392760 0.00000000
0.88217796 0.61765946 0.00390109 0.00000000
0.94201221 1.86754845 -0.00218520 0.00000000
2.15600125 0.52847886 -0.00272651 0.00000000
4.22618257 0.60975967 0.00065454 0.00000000
2.80112122 1.26919234 0.00260362 0.00000000
0.74561745 1.56458816 -0.00542318 0.00000000
1.46907361 1.06432050 -0.00115052 0.00000000
3.14586727 1.56426283 -0.00089117 0.00000000
0.16363578 0.44523375 -0.00181901 0.00000000
0.99588486 1.58805639 0.00284310 0.00000000
1.72710891 0.95820823 0.00227161 0.00000000
3.33113692 1.73835355 -0.00016702 0.00000000
1.82429015 1.83441654 -0.00207691 0.00000000
1.60482757 1.57122737 0.00110451 0.00000000
1.09532009 0.11793353 -0.00061867 0.00000000
0.34907095 0.11909608 -0.00075497 0.00000000
0.15587949 0.34664631 0.00479853 0.00000000
4.21943257 0.08592876 0.00389836 0.00000000
4.05047404 1.33123771 -0.00126619 0.00000000
3.90716173 0.79896246 -0.00016795 0.00000000
3.92205301 1.66865718 -0.00108593 0.00000000
3.25558492 1.64864729 0.00004061 0.00000000
3.93572624 0.67211661 -0.00102414 0.00000000
3.23059902 0.65991823 0.00318304 0.00000000
0.62956503 0.53327099 0.00198299 0.00000000
1.33089213 1.50122702 -0.00504049 0.00000000
3.87148131 0.27003351 0.00100125 0.00000000
3.26352824 1.36937107 0.00267311 0.00000000
1.94879051 0.26789366 0.00079468 0.00000000
1.90333232 0.32498536 0.00221462 0.00000000
0.75163713 0.96540690 -0.00386236 0.00000000
0.50078858 0.92308607 0.00228986 0.00000000
2.76267910 0.05932255 0.00221892 0.00000000
2.67076448 1.55701969 0.00162166 0.00000000
2.70715636 1.48412523 0.00231310 0.00000000
4.09392031 1.39549357 -0.00216036 0.00000000
2.15275817 1.60907381 0.00038914 0.00000000
3.14551167 0.42937204 -0.00387690 0.00000000
3.68842261 1.61054738 -0.00184237 0.00000000
2.45796000 1.00975044 -0.00163022 0.00000000
3.07625603 1.09928741 -0.00230861 0.00000000
0.53641636 0.87071771 -0.00353007 0.00000000
0.32986568 0.79854072 -0.00023016 0.00000000
3.42037936 0.16057119 0.00642464 0.00000000
0.60785785 0.35162062 -0.00129365 0.00000000
1.93025332 0.71147145 0.00137387 0.00000000
1.27025689 0.75688714 -0.00027930 0.00000000
4.02560882 0.00562181 -0.00385785 0.00000000
0.79927469 1.13784340 0.00146558 0.00000000
2.53572331 1.08952697 0.00064258 0.00000000
1.64873438 0.70150694 0.00018975 0.00000000
3.82847428 0.22554351 0.00020297 0.00000000
1.33008553 1.55571563 -0.00380729 0.00000000
0.13818053 1.45155169 0.00484983 0.00000000
4.16901051 0.01849722 -0.00411809 0.00000000
3.19020187 1.07151389 -0.00126550 0.00000000
2.81346030 0.42485820 0.00474055 0.00000000
0.17924555 0.00061358 0.00166976 0.00000000
2.46013782 1.21276766 -0.00116795 0.00000000
0.85202942 1.64905308 -0.00174027 0.00000000
1.77177196 1.52453517 0.00546775 0.00000000
2.79971201 1.09746903 0.00282022 0.00000000
0.96873336 1.33168234 0.00189260 0.00000000
2.22430563 0.38272051 -0.00518019 0.00000000
1.89057636 1.39926467 -0.00366639 0.00000000
2.06324495 0.21384818 0.00499096 0.00000000
2.49146995 0.43268995 -0.00366953 0.00000000
1.53113735 1.82316097 0.00270959 0.00000000
4.26263833 1.19406515 0.00037398 0.00000000
1.88223441 0.70068947 -0.00175562 0.00000000
1.34349046 1.63044678 0.00243368 0.00000000
1.27271452 1.76524084 -0.00301657 0.00000000
3.21548355 1.06679393 0.00065149 0.00000000
4.00592914 1.34311190 -0.00343945 0.00000000
2.30548583 1.69142971 0.00084490 0.00000000
3.00385441 1.35547203 -0.00066573 0.00000000
2.57674914 0.29644455 0.00089682 0.00000000
3.83127303 1.83116311 0.00042202 0.00000000
0.70337672 1.21809775 -0.00263798 0.00000000
3.35934802 1.23950963 -0.00063481 0.00000000
2.42956216 0.34987816 -0.00116951 0.00000000
3.62828768 0.98323710 0.00181525 0.00000000
4.10477705 1.37106486 -0.00050245 0.00000000
2.70291447 1.45704264 -0.00367007 0.00000000
1.01546031 0.60759744 0.00340746 0.00000000
0.59399334 1.47767108 -0.00169946 0.00000000
1.97461767 1.75523938 -0.00143019 0.00000000
3.89839283 0.31841547 -0.00327239 0.00000000
3.93062090 0.27267959 0.00123610 0.00000000
3.65602356 0.61606629 0.00504409 0.00000000
1.19146881 1.18901231 0.00136346 0.00000000
1.91481702 1.72066829 0.00117768 0.00000000
0.33502245 0.54868076 -0.00127919 0.00000000
1.67538251 0.30277274 0.00442620 0.00000000
0.62565045 0.90836652 0.00080265 0.00000000
4.23993787 0.74461669 -0.00436249 0.00000000
1.94464912 1.40152297 0.00155155 0.00000000
1.97057814 0.34906147 -0.00063531 0.00000000
0.58231035 1.33408772 0.00109208 0.00000000
0.22186257 0.32227338 0.00202619 0.00000000
4.01243492 0.41595997 0.00232418 0.00000000
0.12203140 0.12222763 -0.00071400 0.00000000
0.24639386 0.18047990 -0.00035855 0.00000000
0.01410351 0.27169927 0.00185762 0.00000000
3.53941878 1.07509032 0.00311363 0.00000000
1.76349333 0.83635408 -0.00060073 0.00000000
2.65601278 0.24057917 0.00113521 0.00000000
2.18029807 0.75158167 0.00506897 0.00000000
3.66941479 0.30381098 0.00541608 0.00000000
0.81068001 0.74450241 -0.00074672 0.00000000
0.63285328 0.18688186 -0.00624621 0.00000000
0.07511030 1.08195540 0.00431145 0.00000000
1.20877333 1.54975416 0.00228659 0.00000000
3.02833815 0.11789762 0.00245086 0.00000000
4.10218110 0.75647429 -0.00273184 0.00000000
3.12379235 0.26755940 -0.00203636 0.00000000
0.79915198 0.69032449 -0.00080282 0.00000000
0.15862912 0.91389685 0.00347565 0.00000000
2.25252412 1.54543391 -0.00061316 0.00000000
3.09242934 1.68617518 -0.00136392 0.00000000
3.44997537 0.84228935 0.00261127 0.00000000
0.04357893 0.43052343 0.00465524 0.00000000
0.03049259 1.08506919 -0.00200193 0.00000000
2.42416555 1.27385086 0.00193160 0.00000000
4.08138564 0.03448566 0.00185064 0.00000000
3.18828021 0.73903048 -0.00031050 0.00000000
3.47240648 1.85884614 0.00450885 0.00000000
0.69700753 1.20073202 -0.00301935 0.00000000
2.44392735 0.47832729 -0.00345605 0.00000000
2.17332037 0.81382495 -0.00240367 0.00000000
2.73884608 0.70053155 0.00091975 0.00000000
3.22214815 1.80556378 -0.00164544 0.00000000
3.98463729 1.04481170 -0.00089802 0.00000000
2.22236091 0.77832426 0.00333799 0.00000000
2.06766584 0.51806081 0.00017647 0.00000000
3.40667858 1.17440100 0.00121628 0.00000000
1.14565771 1.42240092 0.00111687 0.00000000
3.41071988 1.24284626 -0.00147686 0.00000000
2.25071523 1.26486724 -0.00024916 0.00000000
1.38446789 1.38953469 0.00101624 0.00000000
0.96811855 1.41202851 -0.00415229 0.00000000
3.97124315 0.51924222 0.00133925 0.00000000
0.39195199 0.58238081 -0.00464898 0.00000000
0.57578163 1.46628236 0.00551786 0.00000000
3.74034574 0.41103968 -0.00127419 0.00000000
0.17518872 0.78721257 0.00251823 0.00000000
0.86445306 0.59025299 0.00109521 0.00000000
3.68343064 1.37430372 -0.00111078 0.00000000
0.28383289 0.19509742 0.00195460 0.00000000
2.70936319 1.39188014 0.00129185 0.00000000
3.59729031 1.29383464 -0.00201213 0.00000000
1.58612131 0.81903365 -0.00214294 0.00000000
2.24582497 0.82946142 0.00105588 0.00000000
0.85774001 1.15907703 -0.00104109 0.00000000
0.43787544 1.05305375 0.00042550 0.00000000
0.45309160 0.92775223 -0.00108875 0.00000000
2.56913860 1.81650871 0.00018556 0.00000000
2.28881377 0.16180572 -0.00160597 0.00000000
0.49747139 0.89780782 -0.00537259 0.00000000
0.77264184 1.34692925 0.00571387 0.00000000
0.86287477 1.74965426 0.00062205 0.00000000
2.44392737 0.72587441 0.00009246 0.00000000
3.89064143 0.01553166 -0.00034947 0.00000000
0.72947637 1.70048512 -0.00355068 0.00000000
2.47798599 0.16565543 0.00115097 0.00000000
2.13413060 0.79773098 0.00272931 0.00000000
0.95307230 1.47680949 0.00014856 0.00000000
0.03411341 0.73046050 0.00293042 0.00000000
3.52918240 1.67250408 -0.00314551 0.00000000
1.01325897 1.87074564 -0.00115341 0.00000000
0.71995510 0.77934764 -0.00067219 0.00000000
0.31214490 0.12180943 0.00471060 0.00000000
1.19052335 1.83508746 0.00212200 0.00000000
4.06634728 0.30495072 -0.00409687 0.00000000
2.04854964 0.32231307 0.00191911 0.00000000
0.91052410 1.31305674 0.00280689 0.00000000
1.06157769 0.41627739 -0.00115868 0.00000000
0.85970109 1.14295816 -0.00096439 0.00000000
3.50532816 0.72625068 0.00029522 0.00000000
1.46627335 1.17602398 0.00000909 0.00000000
3.00513625 0.16162256 0.00304508 0.00000000
3.38730724 1.61947698 0.00012989 0.00000000
0.15436913 1.74622336 -0.00287346 0.00000000
2.22107298 0.36992182 0.00039420 0.00000000
2.02762520 1.27683158 -0.00176405 0.00000000
0.01761481 0.39552946 0.00203347 0.00000000
1.01886444 0.97673931 -0.00034804 0.00000000
0.87010299 1.56061159 0.00074185 0.00000000
0.89831648 0.30880112 0.00344747 0.00000000
1.27887711 1.13568112 -0.00066358 0.00000000
3.09060959 0.72727353 -0.00173656 0.00000000
3.62115929 1.13492600 -0.00364561 0.00000000
1.06354062 0.49936040 0.00008867 0.00000000
0.60416272 0.11431795 0.00315796 0.00000000
1.07001916 1.66845801 0.00129198 0.00000000
0.34147694 0.82823063 0.00100010 0.00000000
4.09220689 1.47032070 0.00179713 0.00000000
1.29102538 1.42384564 0.00141678 0.00000000
0.91952941 0.94289305 -0.00064775 0.00000000
2.89720545 0.55921058 0.00051170 0.00000000
0.53416508 0.48558595 0.00005121 0.00000000
3.05149050 0.65817960 -0.00560667 0.00000000
3.53233224 1.32371725 0.00097413 0.00000000
0.29699964 1.11879610 -0.00213453 0.00000000
3.30975959 0.59340319 -0.00045173 0.00000000
3.85271952 1.58862588 0.00178799 0.00000000
0.22357914 1.48723250 0.00257310 0.00000000
2.33187305 1.40807724 0.00162578 0.00000000
1.45025424 1.09381391 -0.00070166 0.00000000
0.46097182 1.62255042 -0.00219765 0.00000000
3.56479475 1.80389702 0.00024951 0.00000000
4.19135685 0.80886350 0.00076995 0.00000000
3.26378294 1.78215996 -0.00176934 0.00000000
2.97659661 1.58350353 0.00211262 0.00000000
1.29130403 0.35299122 -0.00412325 0.00000000
1.57108636 1.39258711 0.00552165 0.00000000
2.03224368 0.77439783 0.00656580 0.00000000
3.69982030 0.89485344 0.00726751 0.00000000
1.11271884 0.77557374 0.00679032 0.00000000
3.46689377 1.17517961 -0.00105018 0.00000000
0.23492382 1.64760080 0.00014151 0.00000000
1.24639060 0.40131792 0.00064953 0.00000000
1.69321711 0.08174606 -0.00189245 0.00000000
1.01971396 0.21822210 0.00352788 0.00000000
0.38989496 1.81632348 -0.00199707 0.00000000
2.54209827 1.10781053 -0.00165554 0.00000000
2.72048328 0.96400037 -0.00126450 0.00000000
0.92823212 1.28132266 0.00058230 0.00000000
4.13676112 0.77949715 0.00008509 0.00000000
0.56754225 0.08355479 -0.00062399 0.00000000
1.45230480 0.08305809 0.00362391 0.00000000
0.44825230 1.55078605 0.00212577 0.00000000
2.09907543 1.48542638 0.00051288 0.00000000
3.13480791 0.09462062 0.00319662 0.00000000
3.09596635 0.42029801 -0.00324000 0.00000000
2.21481214 0.88573910 0.00261307 0.00000000
3.00872154 0.91081482 0.00130104 0.00000000
1.86933182 1.80497583 0.00140723 0.00000000
1.58707545 0.69090152 0.00304592 0.00000000
3.21739182 0.81802570 -0.00170958 0.00000000
3.48841348 1.61354104 -0.00205904 0.00000000
4.27630679 0.24586304 0.00212378 0.00000000
2.15371514 0.49421454 -0.00025724 0.00000000
1.81774346 1.69679868 0.00068966 0.00000000
4.14848848 0.87541359 -0.00174751 0.00000000
2.88958754 1.75365877 0.00034922 0.00000000
3.87219096 0.62537911 -0.00091559 0.00000000
3.16685472 1.84055694 -0.00138524 0.00000000
2.68226139 1.63976213 0.00239373 0.00000000
2.97266330 0.42301411 -0.00330851 0.00000000
0.20924550 1.83580095 -0.00063420 0.00000000
0.68349922 0.19454939 0.00415196 0.00000000
3.59447182 0.14196213 0.00227339 0.00000000
0.71069790 0.71285662 -0.00486964 0.00000000
2.55164596 1.71078623 0.00163655 0.00000000
1.93393957 0.73736460 -0.00153718 0.00000000
1.53903956 1.60344387 -0.00293000 0.00000000
3.41791733 0.56324166 0.00109493 0.00000000
2.92708216 0.71842658 -0.00105305 0.00000000
3.34824109 0.48796705 0.00001152 0.00000000
3.26333565 0.04701161 0.00014882 0.00000000
1.56295012 1.28550076 0.00432674 0.00000000
1.47945280 1.08650509 -0.00171352 0.00000000
0.94775561 1.16806026 -0.00482731 0.00000000
1.40652052 1.63982551 -0.00250943 0.00000000
2.58675254 0.46047651 0.00163581 0.00000000
1.99470811 0.22802048 0.00105107 0.00000000
0.98857425 0.88905385 -0.00468978 0.00000000
1.50311674 0.73543932 0.00289958 0.00000000
1.05921900 1.59593236 -0.00023078 0.00000000
0.38472466 0.83815857 0.00034177 0.00000000
3.40891000 0.79754303 0.00252232 0.00000000
1.59472889 0.67080193 -0.00387392 0.00000000
3.45386537 1.42779438 0.00204891 0.00000000
4.29200726 0.12909883 0.00007991 0.00000000
0.78262333 0.55933863 0.00016962 0.00000000
3.28818838 0.92614320 -0.00068343 0.00000000
3.09808571 1.22406556 -0.00421096 0.00000000
0.24706023 1.63832740 -0.00080329 0.00000000
1.80467154 0.83970051 0.00065685 0.00000000
0.73706405 1.57327305 0.00180392 0.00000000
0.94640704 0.14127484 -0.00095695 0.00000000
3.06139409 0.62629698 -0.00193602 0.00000000
3.79561689 1.17989751 0.00021468 0.00000000
0.09456548 1.07545496 -0.00145831 0.00000000
1.82692788 0.86406853 -0.00408298 0.00000000
0.53603497 1.14632038 0.00192500 0.00000000
0.86889162 0.62852174 -0.00125410 0.00000000
3.54492613 1.64093597 0.00336870 0.00000000
0.20579376 0.65335773 0.00170913 0.00000000
2.33162543 0.60210746 -0.00275213 0.00000000
1.07766417 0.59898098 -0.00174855 0.00000000
0.75844329 1.22733518 -0.00227787 0.00000000
1.19064085 0.43829657 0.00154053 0.00000000
3.66905615 1.73568377 0.00465073 0.00000000
3.76583713 1.83315207 -0.00091221 0.00000000
2.76639455 1.07921945 0.00140322 0.00000000
3.09831725 1.68204933 0.00087490 0.00000000
0.56196393 0.92643222 -0.00378658 0.00000000
1.27583175 0.07388916 0.00234119 0.00000000
3.42038452 0.36728477 -0.00126952 0.00000000
3.78890020 0.73197755 -0.00381067 0.00000000
2.32088316 0.23002380 0.00054437 0.00000000
2.10888098 1.25296910 0.00272017 0.00000000
1.65054233 0.69350605 0.00192808 0.00000000
1.56779871 1.50524485 0.00113074 0.00000000
0.80974771 1.04942274 0.00359799 0.00000000
1.14704449 0.62217646 0.00296274 0.00000000
1.96874299 1.59366466 0.00145800 0.00000000
4.15500199 0.26654754 0.00046600 0.00000000
1.80878055 0.79924428 -0.00041670 0.00000000
3.03442170 0.64289816 0.00274470 0.00000000
0.59368647 0.47521680 -0.00311001 0.00000000
3.44879016 0.89037330 -0.00209795 0.00000000
2.56086252 0.33157665 -0.00271824 0.00000000
3.88375398 0.36715336 0.00090395 0.00000000
1.19170491 1.41233963 -0.00571853 0.00000000
3.90328783 1.24830956 0.00070287 0.00000000
2.54905256 1.85756896 -0.00357931 0.00000000
2.01247456 1.80788954 -0.00060738 0.00000000
3.46524083 0.79596595 0.00143635 0.00000000
2.32046804 1.55566208 0.00230012 0.00000000
0.53004764 0.06829613 0.00091617 0.00000000
2.50520953 0.21473996 0.00137698 0.00000000
3.56235732 0.22083569 -0.00036397 0.00000000
3.12673534 1.15665362 -0.00074663 0.00000000
3.39310464 0.81642891 0.00506610 0.00000000
0.47811366 1.36577176 0.00017785 0.00000000
0.49984621 1.12047018 -0.00160577 0.00000000
0.66230097 0.52999422 0.00189081 0.00000000
1.42660686 0.06334034 0.00694829 0.00000000
1.35463034 0.84584119 0.00005065 0.00000000
2.25923544 1.43956991 -0.00131961 0.00000000
3.55826376 1.04731293 0.00142967 0.00000000
1.97132940 1.30600369 -0.00242998 0.00000000
1.71473937 1.26793186 0.00125875 0.00000000
3.21707984 0.80589902 0.00105374 0.00000000
0.40665312 0.71280956 0.00201075 0.00000000
1.74632804 0.76822429 0.00665318 0.00000000
2.74012400 0.98518032 -0.00359376 0.00000000
1.37638398 0.49575827 -0.00272056 0.00000000
1.90035708 0.91441585 0.00059322 0.00000000
2.86187468 1.31658204 -0.00432019 0.00000000
1.19542907 0.77897790 -0.00087046 0.00000000
2.69306511 1.12345074 0.00144599 0.00000000
1.93294475 0.17114602 -0.00047063 0.00000000
2.61634976 0.14647842 -0.00408782 0.00000000
2.25409744 1.06030251 -0.00114546 0.00000000
0.00173151 0.13919460 -0.00325050 0.00000000
3.18475518 1.40988955 -0.00229238 0.00000000
0.26166064 0.54371904 -0.00024252 0.00000000
3.39836208 0.67636889 -0.00210031 0.00000000
2.75461494 0.54142739 -0.00037715 0.00000000
1.17078684 1.69118891 0.00173119 0.00000000
1.34207326 0.93410887 0.00093142 0.00000000
3.01097646 0.72525818 -0.00005035 0.00000000
2.46275081 0.83139890 0.00113187 0.00000000
3.57767060 0.49606284 -0.00029150 0.00000000
3.08545142 0.80180573 0.00073473 0.00000000
0.43399761 0.72464733 -0.00095905 0.00000000
1.89129945 1.58064954 0.00045056 0.00000000
0.57891277 1.29888384 0.00246148 0.00000000
3.12419364 1.06675395 -0.00416165 0.00000000
0.02815751 1.81545905 0.00006715 0.00000000
1.31155873 0.38233145 -0.00200368 0.00000000
2.41116810 0.16694789 0.00178763 0.00000000
1.72942237 0.06613540 0.00198192 0.00000000
1.31817026 1.12827750 0.00292870 0.00000000
0.34405588 1.50025486 -0.00271911 0.00000000
1.23227873 0.32679095 -0.00207964 0.00000000
1.38310415 0.49974877 0.00276703 0.00000000
2.58295163 0.00181895 -0.00081853 0.00000000
1.68937812 1.58269166 0.00535087 0.00000000
0.71636503 1.71578037 -0.00230371 0.00000000
3.39412899 1.05615451 0.00554724 0.00000000
2.59725637 1.70961584 0.00088970 0.00000000
0.40293797 0.45728447 0.00153330 0.00000000
0.33662558 1.85396747 0.00176083 0.00000000
3.81828545 1.38818249 -0.00474822 0.00000000
3.26961876 0.61735476 -0.00106666 0.00000000
2.80193810 1.35994643 0.00186900 0.00000000
0.56285456 1.04689100 0.00023915 0.00000000
1.06554026 0.72251050 -0.00221750 0.00000000
2.20462208 1.10547902 -0.00029840 0.00000000
2.27820075 1.70658539 0.00030391 0.00000000
2.81298056 0.13298108 -0.00530557 0.00000000
1.80069421 1.73623232 -0.00172214 0.00000000
1.20875440 1.52869188 -0.00032985 0.00000000
0.47835226 0.85111308 -0.00300110 0.00000000
3.89477943 0.88093399 0.00218854 0.00000000
0.39137804 1.15480605 -0.00144267 0.00000000
2.09557133 1.61958832 0.00331047 0.00000000
3.72964194 0.36235811 0.00296243 0.00000000
3.28748570 0.57965680 -0.00103251 0.00000000
3.10408007 1.27931199 -0.00101120 0.00000000
1.24364756 0.69188227 -0.00158834 0.00000000
1.72048622 1.49896895 -0.00108156 0.00000000
3.10815833 1.32661917 -0.00074775 0.00000000
0.67009379 0.63962341 0.00217552 0.00000000
2.87704994 1.15409477 -0.00112623 0.00000000
1.00952145 1.47790626 -0.00309008 0.00000000
3.44370572 1.84960003 0.00035606 0.00000000
2.56512085 0.86327009 0.00033642 0.00000000
3.40166968 1.70321936 -0.00427503 0.00000000
3.98153149 1.18294012 -0.00508610 0.00000000
2.83251333 1.64580994 0.00053585 0.00000000
3.37276651 1.83529156 0.00395316 0.00000000
3.89525483 0.59529059 -0.00295328 0.00000000
2.72190622 1.37820601 0.00326815 0.00000000
1.67067397 0.16266999 -0.00311664 0.00000000
1.84593805 0.48128844 0.00097432 0.00000000
1.87113813 0.02981557 -0.00018846 0.00000000
0.63320538 0.51729305 -0.00132776 0.00000000
2.40994664 0.70640482 -0.00221919 0.00000000
3.52887875 0.19738871 -0.00328221 0.00000000
1.15626275 0.78733646 0.00104027 0.00000000
2.80213650 0.83315758 0.00090230 0.00000000
0.40045699 0.93051445 0.00087416 0.00000000
1.63145565 0.65950915 0.00096378 0.00000000
0.54371207 0.98133416 0.00186624 0.00000000
0.94480927 0.10285037 0.00278796 0.00000000
0.12005014 1.41871512 -0.00200778 0.00000000
2.73754544 0.58845265 0.00503996 0.00000000
2.41171294 0.38680735 -0.00070571 0.00000000
0.47661967 1.77464255 -0.00055156 0.00000000
3.44138262 0.99306165 0.00029344 0.00000000
4.04561526 1.44357240 -0.00086416 0.00000000
3.18828633 1.48003586 0.00243907 0.00000000
1.82786822 1.53650578 -0.00000274 0.00000000
1.29044496 0.17837250 0.00457163 0.00000000
0.00762919 0.54342422 0.00341953 0.00000000
3.34844176 1.56335702 -0.00242979 0.00000000
2.59467678 0.06030453 -0.00223766 0.00000000
3.85015695 0.62954750 -0.00192860 0.00000000
0.21611802 1.00547422 0.00085877 0.00000000
1.01262515 1.80542236 0.00063034 0.00000000
4.22363757 0.52768565 -0.00499343 0.00000000
2.28706929 0.21380796 -0.00286316 0.00000000
4.21866049 0.84669493 0.00198717 0.00000000
2.38455058 0.88936656 0.00175903 0.00000000
1.58525537 1.20995459 0.00114892 0.00000000
0.15522489 0.64250261 0.00312119 0.00000000
3.49937838 1.68233590 -0.00240468 0.00000000
0.28690016 0.34279896 -0.00384780 0.00000000
3.73638293 0.78936641 -0.00114853 0.00000000
1.63873785 0.44014667 -0.00129862 0.00000000
0.99251743 1.46396929 -0.00333324 0.00000000
0.53323083 1.16655172 -0.00078083 0.00000000
2.74579514 1.50792213 -0.00184039 0.00000000
3.00965225 1.46040005 0.00230788 0.00000000
4.10567841 0.08189696 -0.00310223 0.00000000
0.13834460 0.98402300 0.00013911 0.00000000
2.07984205 0.96779586 0.00161162 0.00000000
0.51136145 0.00399910 0.00109460 0.00000000
3.29452681 0.16355537 -0.00157027 0.00000000
3.23060937 0.25491089 0.00261286 0.00000000
2.90970883 0.69572550 -0.00011087 0.00000000
3.64220764 1.30873627 0.00097901 0.00000000
1.46097943 1.19947394 -0.00004147 0.00000000
2.99920335 0.76584361 0.00275595 0.00000000
3.80275933 0.04884428 0.00082594 0.00000000
0.17891385 0.76641798 -0.00575645 0.00000000
2.59584121 1.67738015 -0.00050802 0.00000000
2.32112424 0.81522406 -0.00100463 0.00000000
2.90244385 0.88828182 0.00287718 0.00000000
2.69234093 0.28607837 -0.00189529 0.00000000
2.08907881 0.58396648 0.00323545 0.00000000
2.64909655 0.64003685 0.00157583 0.00000000
1.86553448 1.71815457 0.00164563 0.00000000
2.38263644 0.01936402 0.00096380 0.00000000
1.13419556 1.11080949 -0.00073941 0.00000000
4.28419484 0.63574554 -0.00059090 0.00000000
1.58882643 0.13903069 -0.00074882 0.00000000
0.04097292 1.21730378 -0.00095690 0.00000000
1.77444278 1.04214039 0.00326091 0.00000000
0.32680101 0.52809349 0.00343186 0.00000000
2.92421625 0.60933811 -0.00044890 0.00000000
4.05059645 1.51528396 -0.00179446 0.00000000
2.83704735 1.87182733 0.00309961 0.00000000
2.08963142 1.78362519 0.00134533 0.00000000
2.67834912 1.20861436 -0.00195616 0.00000000
1.33232031 1.81488353 0.00068745 0.00000000
1.60729594 0.89156824 0.00118488 0.00000000
2.69561021 0.86410415 -0.00204111 0.00000000
1.60947017 0.24491057 0.00269355 0.00000000
0.32352988 1.35156083 -0.00111681 0.00000000
2.37748790 1.71765317 0.00220530 0.00000000
0.11434038 1.69660093 0.00105161 0.00000000
1.06079559 1.79130321 0.00274458 0.00000000
0.70566606 1.78108013 0.00047873 0.00000000
4.04686104 1.84369370 -0.00114806 0.00000000
3.14327818 0.97948785 -0.00008694 0.00000000
2.96083902 1.85439789 -0.00273710 0.00000000
3.77530874 1.04279358 0.00178157 0.00000000
1.31929462 0.80786881 -0.00287504 0.00000000
3.06036305 0.49468737 -0.00052996 0.00000000
1.76243338 0.32975843 0.00420855 0.00000000
2.28438355 0.00314804 0.00145690 0.00000000
2.96512732 0.03993241 0.00173893 0.00000000
1.15427142 1.53160443 -0.00010833 0.00000000
1.64795523 1.48734865 -0.00060376 0.00000000
1.77342271 0.11235238 -0.00574044 0.00000000
1.91945711 1.19730321 0.00358155 0.00000000
2.86827755 0.30640546 -0.00653142 0.00000000
0.95124328 0.16094097 -0.00116058 0.00000000
2.53303074 1.60330856 -0.00238408 0.00000000
3.39209556 1.72717020 0.00072009 0.00000000
2.93633065 1.41902851 0.00364771 0.00000000
0.84808205 0.81176879 -0.00238322 0.00000000
0.70231150 0.27355724 0.00348605 0.00000000
3.32761234 0.38805979 -0.00077286 0.00000000
0.82637199 0.66251737 0.00283875 0.00000000
1.63695816 0.30579246 0.00150812 0.00000000
0.43303595 0.70632097 -0.00424269 0.00000000
4.10784212 1.28884683 -0.00357588 0.00000000
4.13521721 0.77389114 0.00274752 0.00000000
3.65927495 1.32780587 -0.00378515 0.00000000
1.26021594 1.64720920 -0.00116387 0.00000000
3.33904265 1.63032130 -0.00025937 0.00000000
1.65639891 0.46103357 0.00045557 0.00000000
3.08428764 1.41918517 0.00651094 0.00000000
2.92557336 0.46098956 0.00479760 0.00000000
2.05925903 1.79148784 0.00188429 0.00000000
2.27536333 1.49993476 0.00195347 0.00000000
1.96386610 1.41001507 0.00092391 0.00000000
0.56454187 0.92255901 -0.00259511 0.00000000
4.02624435 1.26590111 0.00028441 0.00000000
1.86000603 1.27089877 -0.00026196 0.00000000
0.30006097 0.18315230 -0.00226286 0.00000000
0.38796142 0.59001141 -0.00329459 0.00000000
1.63664677 1.69905427 0.00079162 0.00000000
1.48853225 0.50207787 0.00181178 0.00000000
1.53133513 1.02817230 0.00212531 0.00000000
4.12691475 0.04370712 0.00124911 0.00000000
1.14155137 0.38796885 -0.00135103 0.00000000
0.72417026 0.98508630 -0.00073358 0.00000000
3.99555937 1.51920646 -0.00007095 0.00000000
2.69802975 1.58176993 0.00353831 0.00000000
2.31030459 1.09161534 -0.00046585 0.00000000
2.51013073 1.24244426 0.00133080 0.00000000
1.70510830 1.27378478 0.00343509 0.00000000
3.32058140 0.52496695 0.00023207 0.00000000
0.72238539 1.02929927 0.00302853 0.00000000
0.19966141 0.10803160 0.00389376 0.00000000
0.28802957 0.32894275 -0.00070231 0.00000000
3.88559595 0.28520714 0.00005427 0.00000000
0.15242064 0.58953169 -0.00087500 0.00000000
1.51081697 0.01146567 0.00115557 0.00000000
1.74304074 1.06682149 -0.00256939 0.00000000
0.85479642 1.66147837 0.00113652 0.00000000
2.28175435 0.38018334 -0.00016607 0.00000000
2.89831833 0.51354911 -0.00054546 0.00000000
0.08464431 1.83902708 -0.00278175 0.00000000
0.67014616 1.39401702 -0.00226008 0.00000000
4.16123790 0.11132951 -0.00474393 0.00000000
0.83402170 0.67479281 0.00282599 0.00000000
2.83526583 1.29694923 0.00056820 0.00000000
0.95589089 0.93117182 -0.00428993 0.00000000
3.03624586 1.76609459 -0.00247735 0.00000000
3.08078139 1.25449126 -0.00147604 0.00000000
3.84681461 0.02327679 0.00205131 0.00000000
0.14609543 1.57125400 -0.00070133 0.00000000
2.69037133 1.62375502 -0.00507641 0.00000000
1.82190484 1.31917651 -0.00388298 0.00000000
3.32957287 0.28702766 -0.00166974 0.00000000
2.51885099 0.44487686 0.00162452 0.00000000
0.18267993 0.42581185 0.00130993 0.00000000
1.60931889 0.78333869 0.00156612 0.00000000
2.47874528 1.13395014 -0.00158658 0.00000000
1.57589094 1.10139117 -0.00254201 0.00000000
2.43529186 1.82185146 -0.00288008 0.00000000
0.81174916 1.86475134 -0.00032456 0.00000000
3.28992632 0.60294524 0.00351183 0.00000000
0.09268797 1.56662201 -0.00592560 0.00000000
3.72389650 0.70582527 -0.00114518 0.00000000
0.52128285 1.57746225 -0.00382467 0.00000000
4.16761081 1.12441160 0.00313759 0.00000000
2.19723815 0.48146795 0.00076289 0.00000000
0.74916478 0.98043043 0.00096846 0.00000000
2.19287350 0.22074032 -0.00410924 0.00000000
1.95455495 1.72026877 0.00116412 0.00000000
3.25049357 0.48521336 -0.00304645 0.00000000
1.01921589 1.58014492 0.00023302 0.00000000
2.43356240 0.14893418 0.00472598 0.00000000
3.43894497 0.28335792 -0.00534062 0.00000000
1.24783776 1.74456555 -0.00103835 0.00000000
3.17656141 0.49990790 0.00111646 0.00000000
1.95753259 0.73504885 0.00177954 0.00000000
1.85079072 0.33895431 0.00549373 0.00000000
2.06281404 1.60771522 0.00360174 0.00000000
1.50220041 1.50960023 0.00206145 0.00000000
4.24697852 0.65145784 -0.00024802 0.00000000
1.99289781 1.77656977 -0.00094305 0.00000000
3.77607870 0.32853944 -0.00055145 0.00000000
0.99024074 0.74397970 -0.00169363 0.00000000
0.13252724 1.01703254 0.00733105 0.00000000
2.84012889 1.19373497 -0.00582625 0.00000000
2.27635540 0.30094623 -0.00116238 0.00000000
2.51316239 1.09836916 -0.00034124 0.00000000
0.38567724 1.24555785 -0.00025197 0.00000000
3.60235047 0.64705789 0.00177127 0.00000000
3.49531158 0.06959437 -0.00732781 0.00000000
0.33762568 1.11619760 -0.00429411 0.00000000
1.95213807 1.32641226 -0.00008959 0.00000000
3.05819974 1.81116380 -0.00161021 0.00000000
3.97629967 0.98630079 0.00142548 0.00000000
3.73650516 0.07263150 -0.00198724 0.00000000
3.16311340 0.98197754 -0.00191727 0.00000000
3.85541348 0.22581448 -0.00247680 0.00000000
3.42819125 0.18314439 -0.00060991 0.00000000
2.64162369 1.26245131 0.00089540 0.00000000
2.63592366 1.32594988 0.00043189 0.00000000
0.13881469 1.05793862 0.00139283 0.00000000
1.76762521 0.64215920 0.00122072 0.00000000
1.72948239 0.31507966 0.00051610 0.00000000
0.94268334 0.17182760 0.00211356 0.00000000
3.34046765 0.16899067 0.00002593 0.00000000
1.68470187 0.76368962 0.00205749 0.00000000
1.85255068 0.68772121 -0.00108867 0.00000000
1.03555947 1.88523022 -0.00180564 0.00000000
3.16936730 1.44166877 0.00205247 0.00000000
1.54989570 0.14580300 0.00059892 0.00000000
0.28844396 1.52009960 0.00258890 0.00000000
3.21852518 1.56185373 -0.00054997 0.00000000
3.95972833 1.54268430 -0.00011234 0.00000000
1.95848605 0.83696646 -0.00277807 0.00000000
3.36314103 0.61133867 -0.00076295 0.00000000
3.24117027 1.05206802 -0.00131900 0.00000000
1.04510499 1.45090278 0.00289777 0.00000000
2.40599216 0.77161337 -0.00113413 0.00000000
3.58866542 0.92196227 -0.00348082 0.00000000
0.59988915 1.58703324 0.00359195 0.00000000
3.22894844 0.03585638 0.00091550 0.00000000
3.68118562 0.91700094 -0.00121036 0.00000000
0.17000571 1.59107980 -0.00143202 0.00000000
0.21778917 1.64385773 0.00325910 0.00000000
1.37033564 0.18531894 -0.00015602 0.00000000
2.40421339 0.56555776 0.00123488 0.00000000
0.47209157 1.45334745 0.00140777 0.00000000
1.91841557 1.79709761 -0.00182797 0.00000000
2.13778765 0.24945623 0.00150326 0.00000000
0.53135173 0.14385579 0.00124253 0.00000000
1.78845410 0.37845566 -0.00131122 0.00000000
0.00313769 1.44324250 -0.00380706 0.00000000
3.24071824 1.64387907 -0.00219330 0.00000000
0.17338732 0.62772950 -0.00002634 0.00000000
0.83986108 0.84899482 -0.00555539 0.00000000
3.20589610 1.76814971 -0.00325389 0.00000000
3.01014132 0.63889131 -0.00102970 0.00000000
2.02999346 0.21855870 -0.00058311 0.00000000
2.78663702 0.79484824 0.00013501 0.00000000
3.83084316 0.88507536 -0.00359126 0.00000000
0.55316711 1.42901115 -0.00544351 0.00000000
2.43509046 0.97880108 -0.00249008 0.00000000
1.92858867 1.79790563 -0.00276061 0.00000000
0.91586804 1.12425383 0.00054910 0.00000000
2.25338971 1.86353903 -0.00219336 0.00000000
2.42260617 1.29043026 -0.00012648 0.00000000
0.88433766 0.21065106 -0.00059804 0.00000000
3.31164376 1.26753699 -0.00118693 0.00000000
2.63749182 1.67153180 -0.00090608 0.00000000
1.13444179 1.51189895 -0.00329489 0.00000000
1.71970237 0.28060530 -0.00084759 0.00000000
0.48591208 0.52145399 0.00340953 0.00000000
0.30698449 1.54166248 0.00123672 0.00000000
0.13908985 0.23936450 0.00013175 0.00000000
0.50222731 0.14018267 0.00225299 0.00000000
2.29063400 1.12164892 0.00113524 0.00000000
2.13633763 0.24866188 -0.00338195 0.00000000
2.28069550 1.34926980 0.00623231 0.00000000
1.53252897 0.12132158 -0.00153735 0.00000000
2.90590895 1.34880444 -0.00009552 0.00000000
2.64156031 1.63907944 0.00022800 0.00000000
1.12418493 1.48218474 0.00080082 0.00000000
1.30509672 1.85005501 0.00305353 0.00000000
4.28702225 0.58053844 -0.00025358 0.00000000
2.73429319 0.80949880 -0.00076460 0.00000000
3.63182154 0.39735738 -0.00078294 0.00000000
3.02178928 1.12906623 -0.00107298 0.00000000
3.64423146 1.23427199 -0.00095767 0.00000000
3.67652450 0.89392471 -0.00091608 0.00000000
3.82741918 1.66043016 -0.00107184 0.00000000
0.76778205 0.95573827 -0.00214542 0.00000000
1.79986424 1.55332694 0.00213261 0.00000000
1.30129248 0.14964001 0.00110274 0.00000000
2.48934338 0.44555836 -0.00314452 0.00000000
1.60130015 0.46132866 0.00316696 0.00000000
1.37504434 0.09425275 0.00083921 0.00000000
4.00899537 0.52079585 -0.00335548 0.00000000
3.13553804 0.00269995 0.00458420 0.00000000
0.18842002 1.06868179 -0.00027527 0.00000000
4.28617726 1.64870215 -0.00067850 0.00000000
0.56333314 0.29958888 0.00125468 0.00000000
2.04742096 0.22692028 -0.00000914 0.00000000
0.67430920 1.59262600 0.00479131 0.00000000
3.80233178 1.58147430 -0.00556454 0.00000000
4.04587811 1.23398084 -0.00103417 0.00000000
2.06082025 1.05381100 -0.00535723 0.00000000
0.97259745 1.15116683 0.00325836 0.00000000
1.60332517 1.68618046 0.00586783 0.00000000
2.13978782 0.16873468 -0.00017440 0.00000000
1.07729278 1.21898120 0.00202690 0.00000000
0.95419703 0.24662435 -0.00169132 0.00000000
0.61483174 1.29163918 -0.00335858 0.00000000
2.70592255 1.29388420 0.00691523 0.00000000
2.83835435 1.58003689 -0.00310507 0.00000000
4.26302896 1.20049339 -0.00398138 0.00000000
2.62260450 1.14834273 0.00258799 0.00000000
1.59150540 1.63926538 0.00284013 0.00000000
3.50896164 1.09038690 -0.00318948 0.00000000
1.11308424 1.85570981 -0.00110778 0.00000000
0.55714735 1.03197194 -0.00310017 0.00000000
0.22463852 0.38371458 0.00077491 0.00000000
2.61942650 0.43005656 -0.00028354 0.00000000
3.79708259 0.87460086 0.00554044 0.00000000
0.54030112 1.54555755 0.00081013 0.00000000
0.52591250 1.73696835 0.00032817 0.00000000
1.37853909 1.79868278 -0.00129318 0.00000000
0.68217515 0.93369042 -0.00483556 0.00000000
2.51314826 1.44192154 -0.00013968 0.00000000
0.35861410 0.30919341 -0.00000902 0.00000000
1.10548656 0.70245618 0.00141042 0.00000000
3.94582788 1.33692666 -0.00544645 0.00000000
1.40621353 1.84976228 -0.00078363 0.00000000
2.42485574 1.67731749 -0.00029871 0.00000000
2.74753137 0.10941594 -0.00092567 0.00000000
0.67403275 0.76257934 0.00191538 0.00000000
2.44928302 0.33005428 -0.00201885 0.00000000
1.86429693 1.36267536 0.00098974 0.00000000
1.02744258 0.21957617 0.00673710 0.00000000
3.16575658 0.19093935 -0.00024746 0.00000000
4.00961858 1.71361956 -0.00079966 0.00000000
4.15923830 0.18324990 0.00206627 0.00000000
3.61850980 0.83750422 -0.00228330 0.00000000
2.38581422 1.60344663 0.00574883 0.00000000
3.85020806 0.25298186 0.00064294 0.00000000
1.33920393 0.67668701 0.00141020 0.00000000
2.91621390 0.87074703 0.00421204 0.00000000
2.75292937 0.16859689 -0.00118834 0.00000000
3.65377925 0.77653324 -0.00088930 0.00000000
3.14471147 1.88431590 -0.00327843 0.00000000
1.74067315 1.05766790 0.00098497 0.00000000
3.20097549 1.46000709 0.00406437 0.00000000
3.49189595 1.07049077 0.00060521 0.00000000
4.26106889 1.34609661 0.00439338 0.00000000
3.32628174 1.39723291 0.00166305 0.00000000
3.82622925 0.67541337 0.00324204 0.00000000
2.08198683 0.57068302 -0.00033099 0.00000000
3.00287071 1.20061827 -0.00382862 0.00000000
0.41224981 1.11595656 0.00325977 0.00000000
3.41364066 0.14056302 -0.00534645 0.00000000
1.34544991 0.05297628 0.00025973 0.00000000
1.85781973 1.22647880 0.00024872 0.00000000
1.40308237 0.24148893 0.00168257 0.00000000
4.27256360 0.70621700 0.00109820 0.00000000
3.03404320 0.51045825 0.00048779 0.00000000
1.13158818 0.28777840 0.00042690 0.00000000
3.65307915 1.64240847 0.00129423 0.00000000
3.81138731 0.55158873 0.00169193 0.00000000
0.74043866 1.01695964 0.00266250 0.00000000
0.66113759 0.82576870 0.00246609 0.00000000
0.84957019 1.84119260 0.00358061 0.00000000
3.27113341 0.89764136 -0.00540453 0.00000000
1.67045942 1.34961066 0.00452933 0.00000000
0.34628248 1.74900977 0.00428251 0.00000000
3.61305028 0.34309160 -0.00097355 0.00000000
1.56699394 1.37045092 -0.00050449 0.00000000
4.29004083 1.62898554 0.00213227 0.00000000
1.98631634 0.44340774 0.00098769 0.00000000
0.86924958 0.40275161 0.00249911 0.00000000
2.00085661 0.23479697 0.00043560 0.00000000
3.85300166 1.04271986 -0.00237236 0.00000000
3.67162793 0.19682721 0.00422631 0.00000000
1.42848796 1.04253777 -0.00154878 0.00000000
1.41143967 1.24349416 -0.00238823 0.00000000
3.22291857 1.42251628 -0.00109866 0.00000000
0.02561630 1.64635729 0.00323391 0.00000000
0.20133925 1.18702124 0.00032612 0.00000000
3.74672878 0.97074482 0.00388515 0.00000000
2.00611460 0.43777812 0.00428477 0.00000000
1.42872610 0.83278374 0.00071123 0.00000000
2.78469736 0.25483570 -0.00197680 0.00000000
3.05134336 0.09218718 -0.00024855 0.00000000
3.60425132 0.99515308 -0.00234406 0.00000000
1.55314934 0.48563455 0.00127952 0.00000000
0.25628913 1.77204915 -0.00199829 0.00000000
3.13752200 1.00732022 -0.00231299 0.00000000
0.36627044 0.05292414 -0.00178856 0.00000000
0.22119288 1.54791950 -0.00424431 0.00000000
2.16186536 0.00702880 0.00520914 0.00000000
3.44515901 0.70583962 0.00033825 0.00000000
0.00885258 1.17044468 -0.00454764 0.00000000
0.22066392 0.24407038 -0.00071025 0.00000000
4.15477819 1.44435998 -0.00043304 0.00000000
2.89924587 1.14350230 -0.00113986 0.00000000
0.36135893 1.37817927 -0.00213091 0.00000000
3.25659836 1.12436729 -0.00025496 0.00000000
1.12766840 1.48833102 0.00003311 0.00000000
0.80839022 0.98029688 -0.00283204 0.00000000
1.38979479 1.28702549 -0.00389386 0.00000000
1.82979279 1.67246290 -0.00364330 0.00000000
1.76430017 1.64464844 -0.00262709 0.00000000
2.78699526 0.89169808 0.00199916 0.00000000
2.81554276 0.88863597 -0.00072083 0.00000000
1.21618299 1.24249614 0.00128211 0.00000000
1.98746985 0.93610758 -0.00142731 0.00000000
0.40831847 1.55978747 0.00143782 0.00000000
2.59034421 1.82939581 0.00059822 0.00000000
1.80167539 1.58770801 0.00061094 0.00000000
0.94735237 1.68239325 -0.00257904 0.00000000
0.81997933 0.99272765 0.00129890 0.00000000
0.25128428 1.02178554 -0.00200729 0.00000000
3.77384448 0.66492211 -0.00009500 0.00000000
3.12093545 0.29289199 -0.00537069 0.00000000
1.78168360 1.45704961 0.00334037 0.00000000
0.45535497 1.00156665 0.00058558 0.00000000
0.64322083 1.51743881 -0.00097539 0.00000000
0.51017847 1.20035188 0.00288907 0.00000000
2.18260867 0.62284259 -0.00206649 0.00000000
2.26868545 0.52801277 0.00188049 0.00000000
0.00535137 0.45294307 -0.00105770 0.00000000
3.42146938 1.29944303 0.00044590 0.00000000
2.27254858 1.45121135 0.00093815 0.00000000
3.68033003 0.40352092 -0.00125815 0.00000000
2.43896375 1.87745744 0.00007767 0.00000000
1.25576317 1.63052311 -0.00061929 0.00000000
2.04443245 1.68006759 0.00454227 0.00000000
1.73413390 1.35245422 0.00005883 0.00000000
3.51811861 0.09010909 0.00377986 0.00000000
1.58680442 0.72209577 0.00074640 0.00000000
1.54729649 1.35937510 0.00143119 0.00000000
3.00996268 0.36456349 -0.00101637 0.00000000
4.16216525 1.87089008 0.00143552 0.00000000
0.14827215 0.76128253 -0.00091364 0.00000000
1.48808573 0.17188171 0.00434871 0.00000000
3.40670025 0.10369455 -0.00219508 0.00000000
1.28527238 0.27113927 0.00452467 0.00000000
1.95601148 1.57623681 -0.00245724 0.00000000
2.21646228 0.73500040 0.00000778 0.00000000
2.61266728 1.78538182 -0.00027413 0.00000000
2.62655339 1.64573791 -0.00313736 0.00000000
0.32223341 0.15217165 0.00177313 0.00000000
3.47806888 0.92503917 0.00515656 0.00000000
0.35142011 0.69750946 0.00406781 0.00000000
2.17291545 0.51800943 -0.00383925 0.00000000
2.82975714 0.31018651 -0.00323982 0.00000000
2.01553203 1.73994976 -0.00156849 0.00000000
1.73567022 1.01553287 0.00085233 0.00000000
0.03609891 0.45196153 -0.00406705 0.00000000
3.59406882 0.60431526 0.00428554 0.00000000
1.76653261 1.54303995 0.00264437 0.00000000
4.14689161 1.81648387 0.00047073 0.00000000
1.92821587 0.46143471 0.00160079 0.00000000
0.77565397 1.23363215 0.00074744 0.00000000
2.76010832 1.79363098 0.00088791 0.00000000
2.37862710 1.40442399 -0.00279564 0.00000000
3.37525233 1.86838276 0.00014017 0.00000000
0.71290862 1.10335698 0.00635464 0.00000000
3.85225629 1.06032968 -0.00025179 0.00000000
0.58742041 1.75510807 -0.00047305 0.00000000
1.52856303 1.68874796 -0.00378167 0.00000000
3.35057657 1.55040472 0.00193868 0.00000000
3.66779636 0.38129073 -0.00048497 0.00000000
2.35792351 1.16605564 0.00068798 0.00000000
4.02154533 0.08434626 0.00058881 0.00000000
3.04837339 1.01452673 -0.00080177 0.00000000
0.29577662 0.29240944 -0.00138657 0.00000000
3.26170490 1.40120372 0.00231575 0.00000000
3.27168532 0.26572267 -0.00090323 0.00000000
1.75131617 0.81054449 0.00022926 0.00000000
0.54752150 0.81058576 -0.00025558 0.00000000
2.57332202 0.16206604 0.00101734 0.00000000
2.42565131 1.28728490 0.00160736 0.00000000
0.93378441 0.45448817 -0.00136415 0.00000000
0.09718406 0.68575761 -0.00395137 0.00000000
1.06455474 1.72484839 0.00055470 0.00000000
1.82890355 0.98379883 -0.00267541 0.00000000
2.34448011 0.74224568 -0.00023994 0.00000000
0.30476548 1.15938560 -0.00479611 0.00000000
0.66224461 1.65202881 0.00112025 0.00000000
1.54103822 0.10787036 -0.00165949 0.00000000
3.78058170 1.00394035 0.00006654 0.00000000
2.51260896 1.54829821 0.00018941 0.00000000
0.48194774 0.17424599 0.00403584 0.00000000
3.06942451 0.90788692 -0.00092641 0.00000000
1.50847612 1.46271068 -0.00541648 0.00000000
4.08187386 1.75559525 -0.00212152 0.00000000
4.16405386 1.60848350 0.00026540 0.00000000
3.19410570 0.61848775 -0.00264372 0.00000000
2.62926580 1.75564550 -0.00161315 0.00000000
4.28295192 0.26136249 -0.00306687 0.00000000
3.24165704 1.36242731 0.00430278 0.00000000
1.95173649 0.94155774 -0.00148000 0.00000000
3.02622331 1.22741016 0.00102214 0.00000000
2.80536772 1.32876184 0.00043162 0.00000000
0.49827040 0.00772570 -0.00024764 0.00000000
1.61928083 1.02858421 -0.00213241 0.00000000
2.62831544 1.53173862 0.00303526 0.00000000
1.52683384 1.20164185 -0.00059009 0.00000000
2.75813085 1.13960703 0.00314132 0.00000000
3.46446969 0.58542893 -0.00495357 0.00000000
2.05306583 0.27904584 -0.00064009 0.00000000
1.10249388 0.43893711 0.00615122 0.00000000
2.81570444 0.09986777 -0.00053308 0.00000000
1.85580050 1.80261652 0.00097931 0.00000000
0.12005982 1.22539743 -0.00060534 0.00000000
2.18820798 0.26199697 -0.00237932 0.00000000
3.81859719 1.04207505 0.00101770 0.00000000
2.36953183 0.94991193 -0.00518986 0.00000000
4.17931772 0.09592616 0.00016763 0.00000000
0.12785408 1.70328114 0.00312488 0.00000000
2.99712364 1.09975166 0.00082843 0.00000000
0.95476054 1.03655472 0.00060422 0.00000000
0.52780986 1.16656032 -0.00278700 0.00000000
2.53234867 0.21562965 -0.00003021 0.00000000
2.85516477 1.32746199 -0.00288647 0.00000000
3.40887974 0.11803339 0.00373424 0.00000000
