1.117566 0.382761 0.001153 0.0
4.027596 1.586685 0.000027 0.0
1.621506 1.302590 0.000284 0.0
2.036662 1.443920 0.002271 0.0
3.468228 0.359339 0.001512 0.0
2.155959 0.640561 0.003091 0.0
0.457922 0.426576 0.001970 0.0
1.184995 1.221602 0.001250 0.0
0.199206 0.543352 0.000224 0.0
3.856046 1.479270 0.000018 0.0
2.879703 1.620854 -0.003914 0.0
3.549410 1.729192 -0.002704 0.0
1.560206 1.358894 0.002879 0.0
2.719810 1.738510 -0.002513 0.0
4.255930 1.199676 -0.001598 0.0
1.562034 0.501371 0.004174 0.0
2.016774 0.492476 -0.003434 0.0
0.541850 1.703216 -0.003627 0.0
0.464439 1.670813 0.003679 0.0
1.433942 0.103032 -0.001714 0.0
2.962571 0.593313 -0.003045 0.0
4.198108 0.774327 -0.002850 0.0
2.541116 0.785633 0.005543 0.0
1.618381 0.702972 -0.001012 0.0
2.779994 0.917106 -0.002010 0.0
2.511927 1.591382 0.002787 0.0
4.101232 0.496854 0.000938 0.0
2.143837 0.507938 -0.004469 0.0
0.431858 0.060241 -0.001961 0.0
2.549306 0.924395 0.000795 0.0
0.224508 0.493299 -0.004835 0.0
2.005687 0.934655 0.000833 0.0
3.444992 0.087978 0.001267 0.0
0.439688 0.263726 -0.001919 0.0
0.402683 1.781797 0.000442 0.0
1.937112 1.459142 -0.000663 0.0
3.526068 0.161942 0.000137 0.0
3.969726 0.966991 0.003934 0.0
0.243264 1.746077 0.000684 0.0
1.295279 0.599556 -0.002603 0.0
1.512697 0.053651 0.000457 0.0
0.529714 0.841842 -0.000010 0.0
0.871398 1.206021 -0.000951 0.0
3.725465 0.828840 -0.002107 0.0
1.538863 0.306080 -0.001020 0.0
1.172814 0.875369 0.002314 0.0
0.494647 1.078936 -0.001440 0.0
1.907640 1.484865 -0.001581 0.0
0.590829 0.461650 0.002963 0.0
3.071953 1.173542 -0.002741 0.0
4.210184 0.057802 -0.002867 0.0
4.037938 0.488081 0.001257 0.0
3.296917 1.420940 0.000923 0.0
1.625644 1.187555 -0.000247 0.0
3.133449 1.253899 0.003734 0.0
1.022132 1.183050 0.003303 0.0
0.998725 0.360301 0.002695 0.0
3.641714 0.416879 0.000967 0.0
1.816678 1.581525 -0.004542 0.0
0.369731 0.559249 -0.000652 0.0
1.029912 1.654244 0.000315 0.0
3.784900 0.672831 0.002405 0.0
3.356996 1.683296 0.001730 0.0
2.657690 0.496139 0.002855 0.0
3.412669 0.807885 0.003781 0.0
4.199280 0.991414 0.002757 0.0
1.459462 1.565093 -0.002568 0.0
0.121011 0.240159 0.000621 0.0
0.074938 0.646230 -0.003583 0.0
4.078240 0.262685 -0.002256 0.0
0.074153 0.552221 0.005137 0.0
3.254363 1.262707 0.002164 0.0
1.732919 0.321570 0.001877 0.0
3.517755 0.693869 0.002715 0.0
2.039436 0.416299 -0.002729 0.0
0.644705 0.801181 0.000253 0.0
3.706323 0.659053 0.000629 0.0
1.084860 0.908816 -0.000790 0.0
1.676841 0.235058 0.000359 0.0
1.415434 1.362176 -0.005251 0.0
1.432676 0.507893 -0.004089 0.0
0.517658 0.587175 -0.003862 0.0
4.134000 1.642379 0.003141 0.0
0.282064 1.346776 -0.002289 0.0
3.416400 0.713778 -0.002732 0.0
2.215158 0.976209 0.002897 0.0
2.120876 1.010842 0.000825 0.0
0.597112 0.244374 -0.005601 0.0
2.146403 1.370168 -0.000915 0.0
0.982711 0.436936 -0.002015 0.0
1.915594 1.597596 0.000459 0.0
1.722902 1.641285 -0.001687 0.0
3.564524 1.503597 -0.005100 0.0
2.438267 0.580984 0.003345 0.0
0.095522 0.445226 -0.003692 0.0
0.647327 0.967051 0.000145 0.0
3.942773 0.551568 -0.003724 0.0
2.530526 1.354720 0.000150 0.0
2.404952 1.326875 0.003409 0.0
3.738870 0.289740 0.000556 0.0
2.795306 0.870590 0.000302 0.0
3.318638 0.987759 -0.002544 0.0
4.255420 1.262599 0.001723 0.0
0.674508 1.721736 0.004538 0.0
3.469220 1.764149 0.001133 0.0
2.613958 1.403686 -0.001527 0.0
3.332579 0.301088 0.000697 0.0
2.350423 1.690797 0.002628 0.0
3.439484 1.220492 -0.001483 0.0
3.100306 0.275370 0.001273 0.0
3.144894 1.632223 -0.001121 0.0
4.020506 1.477267 0.000160 0.0
2.251126 0.422067 0.001351 0.0
4.275944 0.617664 -0.001660 0.0
3.715912 0.787186 -0.000069 0.0
0.889069 0.690416 0.000112 0.0
3.289810 0.491525 0.001331 0.0
1.587178 0.393579 0.000986 0.0
0.982416 0.563920 -0.002882 0.0
3.899349 0.588341 0.000384 0.0
3.337255 1.683848 0.001950 0.0
1.387506 0.053458 -0.000385 0.0
3.718420 0.688854 -0.002947 0.0
1.617393 1.218485 0.000978 0.0
0.719061 0.675029 0.002188 0.0
4.226149 0.021842 0.002846 0.0
1.033125 1.247908 -0.002256 0.0
0.806642 0.367360 -0.000941 0.0
2.509303 0.184870 -0.004537 0.0
4.307889 1.408896 0.001874 0.0
2.597175 1.350970 -0.001706 0.0
1.833459 0.667123 0.006178 0.0
4.324175 1.608217 0.000320 0.0
3.137859 0.705142 -0.001416 0.0
1.482265 0.563698 -0.000439 0.0
4.277973 1.449478 -0.005382 0.0
1.264760 0.700540 -0.001688 0.0
3.549513 1.521244 0.000923 0.0
3.205468 1.187338 -0.003997 0.0
2.483681 0.245285 0.002915 0.0
2.585283 0.558763 0.000406 0.0
0.724297 1.140173 0.002275 0.0
0.263908 1.437246 -0.003039 0.0
0.043741 0.883005 0.000725 0.0
1.508651 0.219488 -0.002781 0.0
1.183891 0.437475 0.003783 0.0
0.272988 1.326970 0.000052 0.0
1.380595 1.106134 0.002331 0.0
1.864159 1.072046 0.002314 0.0
0.042012 0.779961 0.000037 0.0
2.698376 1.509569 0.000735 0.0
2.880607 0.157880 -0.000825 0.0
1.268028 0.933633 0.006641 0.0
3.754133 1.195132 0.003965 0.0
2.823451 1.502983 0.002303 0.0
4.169806 0.352481 0.001724 0.0
2.087100 1.563595 0.001639 0.0
3.832426 1.722848 -0.000836 0.0
0.204673 0.196271 0.000892 0.0
1.469678 0.421040 -0.000349 0.0
2.263444 1.262678 0.004262 0.0
2.645583 0.947040 0.001688 0.0
1.042831 0.898000 0.000316 0.0
1.278803 0.582471 -0.003300 0.0
1.087423 0.862189 0.002126 0.0
0.758255 1.739179 0.001511 0.0
2.224307 0.919450 -0.001984 0.0
0.702125 1.242151 0.000251 0.0
0.941400 0.984633 0.000448 0.0
3.574338 1.719128 0.000567 0.0
2.533873 1.011050 0.001556 0.0
0.956098 1.464111 -0.005576 0.0
1.569707 0.122528 0.000713 0.0
0.176525 0.728155 0.001015 0.0
2.063745 0.100799 -0.001635 0.0
2.271902 0.359729 0.001639 0.0
4.125860 1.142385 -0.001310 0.0
3.601020 0.158770 -0.000119 0.0
1.347412 1.691282 -0.000069 0.0
3.043297 1.180224 -0.002191 0.0
1.586475 1.067318 0.003468 0.0
3.914782 0.214750 -0.005117 0.0
0.337504 1.688759 -0.000858 0.0
0.909203 0.391605 0.002518 0.0
3.079870 1.029487 0.001735 0.0
2.053636 1.561434 -0.000040 0.0
2.896190 0.749479 -0.003309 0.0
0.501475 -0.000054 0.002269 0.0
3.935466 1.227072 -0.001988 0.0
4.253645 0.486509 0.001318 0.0
1.777336 1.147956 0.001487 0.0
2.590453 0.084509 0.003874 0.0
0.309175 0.966821 -0.000511 0.0
0.428547 0.796509 0.001509 0.0
3.592810 1.203737 0.002794 0.0
3.724783 0.189129 -0.003126 0.0
3.906345 1.201429 0.002994 0.0
2.724348 0.349787 -0.000924 0.0
0.402982 1.635467 0.000352 0.0
2.323174 0.772857 -0.005814 0.0
2.899033 0.150254 0.000271 0.0
0.083944 0.064490 0.007945 0.0
0.005317 1.731505 -0.004341 0.0
2.549403 0.292570 -0.000117 0.0
1.534656 1.225344 0.003308 0.0
1.339762 0.870378 0.001299 0.0
2.023020 0.708827 -0.001307 0.0
0.904398 1.026863 -0.001484 0.0
0.752161 0.333278 0.004963 0.0
3.881163 1.237010 0.001372 0.0
3.876345 1.089713 -0.002774 0.0
1.709077 0.626314 -0.000446 0.0
0.539769 1.470540 0.000998 0.0
0.573460 0.524254 -0.000206 0.0
3.181104 1.041633 -0.000160 0.0
4.020926 0.656007 -0.003716 0.0
2.403941 1.512140 0.000904 0.0
1.147391 1.423163 -0.004095 0.0
1.838803 0.410752 -0.003289 0.0
2.659679 1.685377 0.000815 0.0
0.738061 1.742465 0.003707 0.0
2.783971 1.019899 -0.000177 0.0
1.148552 0.540846 -0.001083 0.0
4.013723 0.440907 -0.002480 0.0
3.640568 0.529481 -0.003360 0.0
0.263440 0.524902 0.002140 0.0
2.487843 1.204875 0.001844 0.0
0.676183 1.714373 -0.000742 0.0
3.863997 1.475078 -0.001343 0.0
3.591784 0.096797 0.000250 0.0
1.760225 0.567670 -0.002517 0.0
0.903902 1.369178 0.002909 0.0
1.769251 1.510008 -0.003492 0.0
3.544823 1.172206 -0.001020 0.0
2.067324 0.436738 0.003705 0.0
1.111863 0.787067 -0.004695 0.0
2.367642 0.914219 0.000585 0.0
1.654541 1.110233 0.000030 0.0
0.122881 1.288615 0.002247 0.0
4.242897 0.373681 -0.001002 0.0
2.509843 1.068049 -0.002942 0.0
4.073902 0.321809 -0.003396 0.0
3.855794 1.319458 -0.001649 0.0
2.909320 1.142750 0.001079 0.0
1.369273 0.939149 0.001045 0.0
0.893458 0.421119 -0.001580 0.0
2.847236 1.326175 0.003159 0.0
0.785521 0.265150 0.005630 0.0
0.474855 1.107504 -0.001713 0.0
0.863415 1.608642 0.002519 0.0
0.708813 1.219100 0.000234 0.0
1.395226 1.508199 -0.002596 0.0
0.992145 0.172106 -0.000815 0.0
0.409116 0.730726 0.002186 0.0
0.196068 1.489485 0.000014 0.0
2.698694 1.062668 -0.000851 0.0
4.030612 0.630081 0.002206 0.0
1.724497 0.310584 0.002220 0.0
3.061588 1.538219 0.002846 0.0
3.506982 0.048846 0.000292 0.0
3.399987 1.266277 0.001349 0.0
0.766987 0.200131 0.002331 0.0
3.939642 1.623521 0.002728 0.0
1.687304 0.155238 0.003233 0.0
3.228348 1.664327 0.001784 0.0
3.107664 0.102771 0.006484 0.0
0.380203 0.252891 0.000552 0.0
3.585867 0.103239 0.001768 0.0
3.175121 0.340481 -0.000337 0.0
3.865534 0.977465 0.001422 0.0
2.703878 0.937387 -0.000746 0.0
2.251272 1.131427 -0.001350 0.0
1.137455 0.512434 -0.003341 0.0
2.985008 0.435132 -0.001238 0.0
0.235224 1.032909 -0.004131 0.0
2.034759 0.503060 0.004666 0.0
0.056354 1.262965 -0.001676 0.0
3.704630 0.735864 0.002457 0.0
1.771836 0.295931 -0.002566 0.0
2.294213 0.622340 -0.000170 0.0
2.667012 1.162598 0.002133 0.0
3.912305 1.074216 -0.004637 0.0
0.808940 0.250436 0.000788 0.0
3.484359 1.543162 0.000018 0.0
0.126834 1.299776 0.001036 0.0
3.662228 0.530208 0.000400 0.0
2.081513 0.744901 -0.002191 0.0
0.913165 1.305361 0.003954 0.0
3.595747 0.939630 -0.001582 0.0
0.157724 1.023306 -0.000946 0.0
4.125374 1.027475 -0.000765 0.0
3.083929 0.051956 0.001445 0.0
0.072273 0.709402 0.004874 0.0
1.890240 1.750345 -0.004099 0.0
0.033425 0.813975 0.001725 0.0
2.778446 1.778312 0.004571 0.0
4.213926 0.537680 0.000633 0.0
3.246724 1.415388 -0.001714 0.0
1.776625 1.197711 -0.001712 0.0
1.924407 1.117968 -0.000025 0.0
3.124301 1.165492 0.005605 0.0
1.703262 0.041070 -0.002100 0.0
2.220173 1.767770 0.003673 0.0
1.170247 0.719618 0.000997 0.0
1.455749 0.602947 -0.000455 0.0
1.707285 1.614903 0.004624 0.0
2.515764 0.797994 0.001131 0.0
2.009728 1.118414 0.000493 0.0
2.508947 1.528758 -0.001263 0.0
1.953600 0.474094 -0.000597 0.0
3.770905 1.615114 -0.000141 0.0
1.220146 0.140880 -0.002546 0.0
0.929689 0.861053 -0.001899 0.0
2.938460 1.009731 -0.001179 0.0
2.994487 1.465642 -0.000216 0.0
0.959714 0.127417 -0.001572 0.0
0.502804 1.027669 -0.000268 0.0
3.554109 0.579735 0.000000 0.0
0.659859 0.824927 -0.001052 0.0
3.771280 1.643836 -0.000264 0.0
1.359770 1.576263 -0.003155 0.0
3.989210 0.168456 0.001774 0.0
1.722313 1.437905 -0.000489 0.0
3.727613 1.085968 -0.000341 0.0
2.311138 1.521511 0.002811 0.0
1.357268 0.651590 -0.001405 0.0
2.294446 1.306020 0.002060 0.0
2.691714 0.020761 0.000866 0.0
2.600478 1.209038 -0.001575 0.0
1.667238 0.993528 0.003293 0.0
3.822298 1.441070 0.001149 0.0
1.547714 0.346241 -0.000186 0.0
1.930706 1.354138 0.002467 0.0
4.263692 0.487168 -0.005174 0.0
1.060252 1.495056 0.004134 0.0
0.618689 1.584296 0.000092 0.0
0.196959 0.473309 -0.001592 0.0
0.247940 1.764238 -0.003254 0.0
2.012116 1.369472 -0.000573 0.0
0.057961 0.686899 0.006148 0.0
3.115984 0.038100 -0.000042 0.0
4.117177 0.113117 0.004010 0.0
0.790369 0.106521 0.001548 0.0
1.112366 1.466599 0.005636 0.0
2.939550 1.385508 0.002388 0.0
2.137497 1.258757 0.000273 0.0
1.219333 1.526774 -0.000987 0.0
1.889151 1.661400 -0.001919 0.0
2.526111 1.709210 0.000760 0.0
1.997664 1.170345 0.001732 0.0
2.954853 0.535278 -0.000587 0.0
4.037319 1.320192 -0.002806 0.0
3.543256 1.626337 -0.001735 0.0
1.194623 1.638725 0.000851 0.0
4.117209 1.261166 -0.004585 0.0
2.694095 0.983967 -0.002809 0.0
3.705440 1.089557 -0.000343 0.0
0.872434 0.877659 -0.001267 0.0
1.694436 0.979664 0.006407 0.0
0.938865 0.614266 -0.001475 0.0
1.832648 0.089788 0.004842 0.0
0.867127 1.680642 -0.001145 0.0
3.788705 0.812382 -0.002060 0.0
1.507268 0.170968 -0.004262 0.0
2.630415 0.531573 0.000026 0.0
4.155177 1.227979 0.000678 0.0
3.628567 0.748188 -0.001026 0.0
0.923301 1.235810 0.000316 0.0
2.291560 1.354515 -0.002395 0.0
0.976228 0.650647 -0.002884 0.0
3.530098 0.493213 0.001940 0.0
0.002028 1.627526 -0.002651 0.0
3.047220 0.361039 -0.001852 0.0
2.967160 0.954431 -0.004085 0.0
3.638720 0.468591 -0.000924 0.0
2.158922 1.062342 -0.000454 0.0
1.214109 1.572345 -0.003671 0.0
3.959905 0.687584 0.000842 0.0
1.050133 1.647873 0.001487 0.0
3.334167 0.704887 -0.002808 0.0
1.487915 0.086492 -0.001299 0.0
4.206231 1.151171 -0.003087 0.0
1.346116 1.536986 0.001602 0.0
0.819764 0.689144 -0.002687 0.0
4.268848 0.777344 -0.002316 0.0
3.491887 0.788002 -0.000701 0.0
0.547170 1.150308 -0.003055 0.0
0.679220 0.264887 0.001794 0.0
0.495473 1.118896 0.000045 0.0
4.306708 0.533901 -0.000142 0.0
2.150501 1.539757 0.001294 0.0
2.192758 0.141258 -0.000989 0.0
0.325884 1.632929 -0.001341 0.0
1.987711 0.193799 -0.001417 0.0
3.774591 1.210395 0.000771 0.0
3.870912 1.048557 -0.002694 0.0
0.713812 0.847176 0.000177 0.0
3.702816 0.716889 -0.000737 0.0
3.057972 0.529010 0.000025 0.0
1.642770 1.637013 0.003261 0.0
1.622539 1.347952 0.001598 0.0
4.001106 1.577544 0.001225 0.0
0.091686 0.782923 -0.002384 0.0
1.134666 0.893284 -0.003994 0.0
0.565928 1.020137 0.000052 0.0
0.196170 0.663548 -0.001442 0.0
3.656651 0.105434 0.000016 0.0
0.547655 0.130782 -0.003679 0.0
2.664298 0.674587 -0.003326 0.0
2.306983 1.527124 -0.001012 0.0
0.362517 0.132160 -0.002488 0.0
4.151399 1.652079 -0.002438 0.0
1.784758 1.244813 0.002999 0.0
2.794860 0.337059 0.003953 0.0
2.899329 0.684846 0.002842 0.0
1.100125 1.247535 -0.003047 0.0
1.067535 1.089618 0.001545 0.0
0.468355 0.974110 -0.000264 0.0
0.168351 1.193606 -0.003580 0.0
0.844561 0.144887 0.000241 0.0
0.377752 1.762817 0.001346 0.0
3.223684 1.626972 -0.000183 0.0
2.333300 0.919912 0.005243 0.0
2.506217 1.126630 -0.001276 0.0
0.515885 1.385639 0.004444 0.0
4.161447 1.204672 0.000747 0.0
3.942961 0.680102 -0.003531 0.0
4.099997 0.736626 -0.002799 0.0
3.584948 1.284584 0.000894 0.0
2.167634 1.709605 -0.005381 0.0
0.607963 0.441689 0.001688 0.0
2.789597 0.416315 0.000277 0.0
1.896072 0.245373 -0.002078 0.0
0.603855 1.642751 0.001422 0.0
1.587239 0.441473 -0.000175 0.0
2.066741 1.165269 0.003140 0.0
0.263382 1.421918 -0.003056 0.0
0.859044 1.554247 -0.003829 0.0
4.272802 0.706902 0.003082 0.0
0.484816 0.574760 -0.002553 0.0
1.599946 0.248654 0.002470 0.0
3.689858 0.416205 0.001890 0.0
1.449612 1.006090 -0.000911 0.0
2.282705 0.591035 0.002840 0.0
2.896385 1.532656 -0.000531 0.0
2.970825 1.281529 0.001564 0.0
1.136101 0.538918 0.000745 0.0
0.892605 0.536683 0.004033 0.0
3.619024 0.729378 0.001229 0.0
1.493243 0.683855 0.001910 0.0
2.198412 0.987896 0.000085 0.0
3.882642 1.593106 -0.000427 0.0
3.869109 0.518425 -0.000997 0.0
2.017568 0.419331 -0.000177 0.0
1.951180 0.824226 0.004556 0.0
0.599520 0.781774 0.002887 0.0
2.740211 1.215718 0.003504 0.0
4.033829 0.838686 -0.002928 0.0
1.324677 1.684631 -0.000163 0.0
0.213029 0.595866 -0.001884 0.0
4.130713 0.787483 0.001710 0.0
3.375092 1.056829 -0.001710 0.0
1.510985 1.651122 -0.000367 0.0
2.572949 0.535061 0.000417 0.0
2.493067 0.916480 0.001133 0.0
3.352013 1.661045 -0.000991 0.0
2.606291 0.464610 -0.000343 0.0
2.092128 0.548895 0.003593 0.0
3.949771 0.151351 -0.001997 0.0
4.128604 0.714623 0.000484 0.0
3.657977 1.596701 -0.003985 0.0
1.154259 0.243173 0.004890 0.0
1.604334 0.905553 -0.001742 0.0
1.147376 0.812729 0.003216 0.0
2.790011 0.975510 -0.003228 0.0
1.124979 0.438843 -0.003117 0.0
2.914585 0.508346 0.004338 0.0
1.506719 1.241539 0.001125 0.0
1.266764 1.051190 -0.002232 0.0
2.285918 0.866637 -0.002562 0.0
1.546386 0.641069 -0.002158 0.0
0.050300 0.904523 0.000155 0.0
0.724137 0.320115 -0.002033 0.0
1.439621 0.123605 -0.000559 0.0
3.214463 1.207861 0.001743 0.0
2.111532 1.652575 0.003928 0.0
4.075038 0.415837 -0.001589 0.0
1.101441 1.705787 -0.003529 0.0
2.508385 1.154640 -0.004020 0.0
3.336612 1.222428 0.003274 0.0
0.210182 1.659615 -0.000861 0.0
1.281785 0.454287 -0.004284 0.0
0.015653 1.760713 -0.000933 0.0
2.107070 1.752368 -0.005958 0.0
1.394776 0.127303 -0.000610 0.0
0.795314 0.788716 0.000270 0.0
1.262606 1.610252 -0.003213 0.0
3.904069 1.566225 0.001358 0.0
1.245991 0.967552 0.002492 0.0
2.100319 0.206052 0.001508 0.0
3.589323 0.612029 -0.000776 0.0
2.153862 0.818123 -0.000652 0.0
3.754762 0.727449 -0.002075 0.0
0.033124 0.051422 -0.003209 0.0
0.544830 1.351738 -0.000170 0.0
3.613143 1.497318 -0.002705 0.0
1.438745 0.974533 0.003409 0.0
0.934594 0.212700 0.005487 0.0
1.768285 0.205414 0.002382 0.0
3.942551 1.015701 0.000229 0.0
1.501398 1.452461 -0.002524 0.0
3.615522 1.440763 0.001669 0.0
3.814156 0.163333 -0.003129 0.0
2.066279 -0.003325 0.003153 0.0
2.372907 0.710614 -0.000940 0.0
0.005178 1.619677 -0.002332 0.0
2.476570 1.547350 -0.000023 0.0
2.735869 0.486525 0.001577 0.0
4.075211 1.424192 -0.001457 0.0
2.332920 1.082238 0.005656 0.0
0.308268 0.663654 0.000480 0.0
1.862568 1.647194 0.001685 0.0
3.248985 0.294471 0.004376 0.0
1.470272 0.638193 -0.001100 0.0
0.688026 0.920874 -0.000083 0.0
3.372592 0.312990 -0.000402 0.0
1.747419 0.234831 -0.002536 0.0
3.434882 0.345605 0.002365 0.0
1.373395 0.899490 -0.001903 0.0
3.908679 1.769550 0.000297 0.0
0.404598 1.532357 0.001104 0.0
0.318506 1.550844 -0.000335 0.0
1.681879 1.195989 0.000328 0.0
2.513165 0.373396 -0.001920 0.0
2.532993 0.477253 -0.000164 0.0
1.472357 0.291993 -0.005771 0.0
4.204072 0.874699 -0.004067 0.0
4.168701 1.731032 -0.000662 0.0
1.028768 1.085633 0.000360 0.0
1.514790 1.602773 0.002435 0.0
2.371511 0.740420 0.002389 0.0
1.351443 0.438954 0.001144 0.0
3.558906 1.094032 0.000195 0.0
1.138507 0.820212 0.003172 0.0
2.853914 0.882805 -0.004207 0.0
0.880835 0.242665 -0.002768 0.0
1.955691 1.270035 -0.003874 0.0
2.448017 1.166600 0.000035 0.0
1.487392 1.445574 0.001306 0.0
1.048374 1.494643 0.003800 0.0
1.244796 1.678548 0.000407 0.0
3.161067 1.687992 0.001482 0.0
0.664203 1.553606 -0.001973 0.0
0.632000 0.176500 0.005462 0.0
1.961853 0.923286 0.000765 0.0
2.552117 1.560264 0.001041 0.0
2.292964 0.085703 -0.007176 0.0
0.384615 0.302819 -0.002376 0.0
4.050261 0.622153 0.000730 0.0
0.897168 0.330943 -0.000252 0.0
1.295576 0.645159 -0.000069 0.0
1.256869 0.351198 0.001807 0.0
0.536487 0.873465 0.000808 0.0
1.201484 1.272644 -0.003531 0.0
3.644586 0.481647 0.000853 0.0
3.393877 0.453359 0.006013 0.0
2.229458 0.730669 -0.001262 0.0
0.743437 0.824679 -0.000130 0.0
0.680280 0.334035 -0.001407 0.0
1.935396 0.141810 -0.001837 0.0
1.784081 0.985368 0.000614 0.0
2.088495 0.972743 -0.002433 0.0
0.842983 0.973717 -0.003323 0.0
0.646961 1.549713 0.005681 0.0
1.797834 0.736367 -0.001078 0.0
1.074552 1.153258 -0.001222 0.0
2.467989 0.688140 0.000482 0.0
0.888302 0.285599 -0.003262 0.0
4.199470 1.314565 0.000440 0.0
3.438891 0.730096 -0.001950 0.0
3.060103 0.716378 -0.003868 0.0
1.478073 1.087526 0.000158 0.0
1.669500 0.602376 0.001145 0.0
1.316612 0.091284 -0.000720 0.0
0.282213 0.693913 -0.001914 0.0
1.517530 1.357232 -0.000193 0.0
4.062872 0.063398 -0.000629 0.0
2.181436 1.019442 0.000447 0.0
3.362823 0.404723 0.000745 0.0
4.228781 0.640863 -0.000986 0.0
2.120492 0.418781 -0.001273 0.0
2.976165 0.633885 0.001920 0.0
0.733408 1.014096 0.001996 0.0
0.169012 0.927826 0.000651 0.0
2.563849 1.662271 -0.000240 0.0
0.218608 1.774961 0.000006 0.0
2.524202 0.347053 0.000519 0.0
2.287769 1.247495 -0.001037 0.0
1.379054 0.439177 -0.000360 0.0
3.097888 1.017284 0.000510 0.0
4.189014 1.576854 -0.000727 0.0
3.350502 1.707887 0.004406 0.0
2.458703 1.774867 0.000681 0.0
2.798034 1.195423 -0.000277 0.0
1.502858 0.335049 -0.004539 0.0
1.842780 1.621177 0.004165 0.0
2.437046 0.869154 -0.000217 0.0
3.487513 0.985763 -0.002856 0.0
1.066136 0.118695 -0.001283 0.0
3.308546 0.457621 -0.001672 0.0
1.763040 0.418816 -0.007285 0.0
2.648262 0.573314 -0.002245 0.0
2.783429 1.347175 0.001398 0.0
1.256184 1.092999 0.000760 0.0
0.363455 0.878218 0.001773 0.0
2.736603 1.110670 0.001431 0.0
3.722151 0.477603 0.000767 0.0
3.294020 0.047456 -0.002664 0.0
0.985402 0.179014 -0.002163 0.0
1.617001 1.562322 0.003112 0.0
4.262975 0.098027 0.000998 0.0
2.420100 1.174750 0.001676 0.0
2.470373 1.739961 0.004781 0.0
2.784215 0.231327 0.000407 0.0
0.163702 0.697684 0.002584 0.0
1.201216 0.706310 -0.006209 0.0
3.973819 0.134261 0.001277 0.0
1.152134 0.292547 0.000054 0.0
3.659493 0.201714 -0.000655 0.0
3.233052 0.563131 -0.001074 0.0
1.834122 0.591433 0.000887 0.0
3.958098 1.332176 -0.002968 0.0
2.015112 0.819059 0.000170 0.0
3.231911 0.930453 -0.002908 0.0
1.462024 1.384127 0.000755 0.0
0.803664 0.447815 0.000030 0.0
1.041578 1.522441 0.004048 0.0
1.764393 0.065369 0.000728 0.0
0.669119 1.655672 0.002378 0.0
2.440861 0.764362 -0.003700 0.0
3.390859 0.236975 -0.002164 0.0
3.670228 1.151149 -0.000148 0.0
2.981120 0.191865 0.000201 0.0
2.878640 1.620336 0.001408 0.0
1.258205 1.237934 0.000328 0.0
0.834667 1.152297 -0.003738 0.0
1.187890 0.776278 0.000868 0.0
3.086621 1.750508 0.002592 0.0
4.238257 1.599209 -0.003004 0.0
2.524529 1.290550 -0.007703 0.0
2.120737 0.822099 -0.000923 0.0
1.619008 0.600005 0.001547 0.0
2.195489 1.477977 0.000515 0.0
1.579586 1.202496 0.001418 0.0
0.900184 1.248490 -0.001917 0.0
1.889478 0.838143 0.000257 0.0
0.326894 1.235949 0.002584 0.0
1.402788 0.605790 0.000580 0.0
0.231746 1.192698 0.001709 0.0
2.075848 0.701033 -0.002336 0.0
3.077855 0.678229 0.000472 0.0
0.928094 0.538781 -0.000295 0.0
4.316543 0.136658 -0.002118 0.0
0.871294 0.598243 0.002104 0.0
1.854970 1.232737 0.001488 0.0
1.493074 0.043793 0.001515 0.0
2.154323 1.284189 -0.001234 0.0
2.279348 0.228252 -0.000724 0.0
2.978435 1.386879 -0.003084 0.0
3.310658 0.113440 -0.000801 0.0
2.554595 0.723874 -0.001769 0.0
0.912310 0.717757 -0.003564 0.0
2.201012 1.744748 -0.000390 0.0
3.920985 0.254378 0.001800 0.0
0.334914 1.008738 -0.002084 0.0
1.072807 1.001651 -0.001606 0.0
1.509231 1.782887 -0.000906 0.0
3.102432 1.056256 0.001318 0.0
3.403101 0.336670 -0.000129 0.0
0.811605 0.259720 -0.002569 0.0
0.029106 1.364769 -0.001295 0.0
2.436873 0.184745 0.003139 0.0
2.409746 0.343333 -0.000184 0.0
2.713087 1.317438 -0.002180 0.0
0.099073 0.000752 -0.003336 0.0
2.301745 1.534733 0.000387 0.0
2.456428 0.034363 0.004450 0.0
1.446518 0.887121 0.000898 0.0
1.803607 1.504045 -0.000319 0.0
3.522980 1.430416 -0.001356 0.0
1.339119 1.196230 0.004217 0.0
4.263302 1.396044 -0.000524 0.0
1.840984 0.372725 -0.001058 0.0
2.954127 0.795488 -0.002223 0.0
2.870671 0.529452 -0.000819 0.0
0.060221 0.970974 -0.002025 0.0
0.669967 1.483997 0.005152 0.0
2.641775 1.741085 -0.000620 0.0
0.253932 1.290764 0.000668 0.0
2.932411 1.635071 0.004642 0.0
3.227608 0.629993 0.002111 0.0
2.486920 1.568712 -0.003310 0.0
1.788801 0.583035 0.003416 0.0
1.103993 0.534564 0.003981 0.0
2.080514 1.432777 -0.004168 0.0
2.280300 0.514627 -0.000386 0.0
3.077444 0.317023 0.000045 0.0
1.642113 0.934089 0.000780 0.0
0.832686 0.629231 0.000085 0.0
3.233970 0.298283 0.002187 0.0
2.176925 1.314333 -0.001089 0.0
2.800403 0.949517 -0.006241 0.0
1.261485 0.759368 0.000883 0.0
3.267657 0.335652 0.000511 0.0
0.932161 0.598213 -0.006261 0.0
3.017166 0.929081 0.001412 0.0
3.118907 0.710611 -0.001040 0.0
2.515839 0.384431 0.003105 0.0
3.703516 1.663554 0.000624 0.0
4.289646 1.177452 0.000888 0.0
2.477041 1.536567 0.005443 0.0
0.851165 0.643320 0.002698 0.0
2.996084 1.271435 -0.003983 0.0
2.918853 0.397137 0.005464 0.0
0.623933 1.009151 0.002322 0.0
2.293334 0.899804 0.001264 0.0
0.190417 1.623631 -0.003722 0.0
3.264278 1.585869 0.000691 0.0
3.354222 0.904771 -0.002203 0.0
0.687726 1.039921 -0.000573 0.0
0.827679 1.133904 -0.002064 0.0
2.597830 0.615751 -0.003946 0.0
3.538539 0.496947 0.000274 0.0
3.851444 1.765424 -0.001869 0.0
0.687654 0.039844 0.003294 0.0
2.807068 0.020890 0.003175 0.0
2.744356 0.451306 -0.001950 0.0
3.722068 1.738269 0.001407 0.0
2.633234 0.304852 -0.000329 0.0
1.891615 1.073972 0.002540 0.0
2.124535 0.278936 0.000232 0.0
3.271977 1.656545 -0.000319 0.0
3.126575 1.101359 0.002444 0.0
1.523997 1.100588 0.004374 0.0
3.951449 1.222896 0.000380 0.0
2.539890 0.504447 0.001558 0.0
2.011665 1.656984 0.001896 0.0
2.261060 0.672725 -0.001326 0.0
3.563514 1.578507 -0.005504 0.0
1.826398 -0.003947 -0.002551 0.0
3.762374 0.319390 0.004738 0.0
3.163596 1.683535 0.000976 0.0
0.637391 0.959531 0.003972 0.0
3.154487 0.137558 0.006281 0.0
1.342953 1.501116 -0.002660 0.0
0.935877 1.683390 0.000471 0.0
0.808284 1.347567 -0.000341 0.0
3.103527 0.473667 -0.006449 0.0
1.577478 0.487419 -0.001970 0.0
3.742188 0.310023 -0.002825 0.0
2.785984 0.554544 -0.001801 0.0
2.137040 1.659013 -0.002993 0.0
3.103967 1.147587 0.001366 0.0
2.891027 0.593260 0.000066 0.0
1.825039 1.464007 -0.001950 0.0
2.092316 0.746908 0.003156 0.0
0.331260 1.451709 -0.000404 0.0
2.084168 0.766831 -0.002081 0.0
4.088342 1.552659 0.002041 0.0
4.163506 0.687481 -0.000235 0.0
3.570419 0.599863 -0.003880 0.0
0.627811 0.801916 0.000847 0.0
1.053180 1.465256 0.003789 0.0
2.159764 0.952992 0.000244 0.0
0.680958 1.080023 0.005502 0.0
1.499621 1.105576 0.001264 0.0
3.109042 1.182857 0.000755 0.0
3.843789 0.206467 -0.002692 0.0
3.925018 1.197966 0.001329 0.0
3.058220 0.344799 -0.002742 0.0
0.215386 1.287610 0.002095 0.0
0.316590 0.440951 0.001872 0.0
1.900763 1.755874 0.003052 0.0
3.030392 0.153753 0.001835 0.0
3.379299 0.344532 -0.000222 0.0
0.539588 1.716141 -0.000391 0.0
0.631385 0.878191 0.002043 0.0
0.538746 0.916768 -0.001593 0.0
2.215014 1.700930 -0.001125 0.0
0.500734 0.035971 -0.002226 0.0
3.326217 1.045858 0.001651 0.0
0.352966 1.708347 0.000586 0.0
2.382677 1.471462 -0.002316 0.0
4.279189 1.119205 0.001033 0.0
1.298454 0.883827 -0.002636 0.0
0.935593 0.012913 0.002937 0.0
0.985049 0.546311 0.001280 0.0
4.275890 0.474132 0.000938 0.0
1.860001 0.661397 0.006002 0.0
3.923629 1.590384 0.002778 0.0
2.835700 1.135827 0.000779 0.0
1.897392 0.387919 0.002069 0.0
0.300398 0.634647 -0.006070 0.0
0.673589 1.417075 0.000244 0.0
4.208474 1.632015 0.001172 0.0
3.227874 1.256833 -0.000228 0.0
3.643903 1.627730 0.002186 0.0
0.092425 0.523964 0.000163 0.0
3.848002 1.139878 0.003042 0.0
4.078393 0.777253 -0.000343 0.0
1.277984 0.274988 -0.000942 0.0
2.198800 1.299109 0.004338 0.0
2.348667 0.847638 0.006143 0.0
0.955657 0.055959 0.001774 0.0
0.880063 1.573225 0.000922 0.0
3.504487 1.590919 -0.001710 0.0
2.091202 0.709081 -0.003827 0.0
1.674188 1.318100 0.003467 0.0
0.682326 1.146962 -0.001202 0.0
3.329603 0.584395 0.000589 0.0
3.629901 1.539117 0.002155 0.0
0.581356 1.023705 -0.001086 0.0
1.788218 1.618514 0.003480 0.0
2.605064 1.010299 -0.002377 0.0
1.936362 0.140262 0.002101 0.0
0.872194 0.902804 -0.001328 0.0
3.536435 0.867127 -0.000650 0.0
0.939167 1.396273 -0.000335 0.0
2.835269 0.763393 -0.005862 0.0
3.345461 0.380022 0.000285 0.0
1.348146 1.766307 -0.001198 0.0
4.061485 1.634198 0.001494 0.0
2.955970 1.319874 -0.002059 0.0
4.017644 1.613329 0.000606 0.0
2.279877 1.707813 0.000562 0.0
0.843999 1.022625 -0.000764 0.0
2.757512 1.758513 -0.002537 0.0
3.717075 1.370583 -0.000775 0.0
0.946011 1.052817 0.000140 0.0
0.556537 1.616906 0.001289 0.0
3.909203 0.753800 0.001050 0.0
1.328510 1.121046 -0.000728 0.0
0.215759 0.567111 -0.001207 0.0
0.649618 0.654876 0.000055 0.0
4.302941 0.301454 -0.002826 0.0
0.130786 0.263539 0.002270 0.0
4.262628 1.664769 0.000952 0.0
1.089400 0.640630 -0.000892 0.0
0.962633 0.378330 0.000448 0.0
2.507900 1.670675 0.003920 0.0
3.756064 1.748394 0.004055 0.0
3.888834 1.086660 -0.004030 0.0
4.018516 0.083714 0.006673 0.0
2.757941 1.274757 -0.000868 0.0
2.182547 1.547978 -0.001046 0.0
3.413971 1.682320 -0.001918 0.0
0.387392 0.461044 -0.003067 0.0
1.540121 0.253337 0.000235 0.0
1.509092 0.330268 -0.002540 0.0
2.663080 1.252999 0.007071 0.0
4.092301 0.816658 -0.000915 0.0
3.205705 1.111386 0.001190 0.0
4.026810 0.282452 0.003254 0.0
0.229188 1.498565 -0.002497 0.0
4.023860 1.763172 0.000804 0.0
0.465412 0.581359 0.003541 0.0
1.627311 1.371975 -0.006095 0.0
0.624212 0.040812 0.006146 0.0
0.060058 0.247999 -0.000992 0.0
1.959498 1.515602 -0.003582 0.0
1.743440 0.894976 0.000764 0.0
1.769783 1.320376 0.001156 0.0
0.977089 0.199541 0.000290 0.0
3.215603 0.575302 -0.002475 0.0
2.966173 0.635873 -0.000904 0.0
2.963898 1.626125 -0.005463 0.0
2.420287 0.972320 -0.001790 0.0
2.294801 1.698502 -0.001476 0.0
0.032684 1.693749 -0.004036 0.0
0.700185 1.715551 0.000909 0.0
0.914474 1.003601 0.000203 0.0
1.884954 1.065767 0.001437 0.0
0.956048 1.239245 0.003005 0.0
1.950247 1.008478 0.001534 0.0
2.080424 0.766701 0.001199 0.0
1.581128 1.640455 -0.002209 0.0
2.649683 0.219306 -0.001465 0.0
1.203491 1.261740 0.002142 0.0
1.831715 0.427924 -0.002734 0.0
3.694640 0.665808 -0.003809 0.0
0.291889 0.228385 -0.003502 0.0
2.435759 1.513614 -0.001132 0.0
3.347150 1.132979 0.002340 0.0
1.046915 0.624424 0.002646 0.0
0.095564 0.264202 0.000964 0.0
0.828213 1.786539 0.000186 0.0
0.720547 1.189607 0.001437 0.0
1.165072 0.709703 -0.001173 0.0
3.268701 1.055502 0.001806 0.0
3.659984 0.265156 0.001343 0.0
2.119669 0.567675 -0.002247 0.0
2.998001 0.995734 -0.001724 0.0
0.948126 1.514033 0.000396 0.0
2.550087 0.833010 -0.003352 0.0
1.089167 0.358971 -0.000066 0.0
2.684475 0.561120 0.002506 0.0
0.541849 0.781675 -0.002195 0.0
0.215740 0.390063 0.001212 0.0
1.207967 1.490716 0.002193 0.0
3.904474 1.723918 0.001557 0.0
0.531681 1.580588 0.001450 0.0
2.285752 1.463161 -0.001813 0.0
0.345031 1.205088 0.003044 0.0
2.265199 1.431362 0.000247 0.0
2.952242 0.338892 -0.000003 0.0
2.513226 0.750427 -0.001310 0.0
1.608875 0.377783 -0.001112 0.0
3.733430 1.135769 0.004741 0.0
1.312900 0.723738 -0.000998 0.0
1.232425 0.989347 0.001048 0.0
2.756819 1.739088 0.000350 0.0
0.184941 0.273152 -0.000689 0.0
1.502479 1.724192 0.004060 0.0
1.783602 0.262143 -0.001241 0.0
1.186818 1.070701 -0.000819 0.0
2.108626 0.568868 -0.002602 0.0
2.704489 0.401707 0.000570 0.0
1.671998 0.582317 -0.003208 0.0
2.376358 1.068747 0.002493 0.0
0.860680 0.179692 -0.002320 0.0
0.251437 0.587632 -0.001211 0.0
0.540665 1.259659 0.001374 0.0
3.401647 0.620014 -0.000642 0.0
4.290512 0.856595 -0.001089 0.0
1.396910 1.738261 0.004737 0.0
1.611740 0.613124 0.002523 0.0
2.179915 1.717838 0.001196 0.0
1.725184 1.400207 0.000785 0.0
0.911558 0.125375 0.001227 0.0
0.513659 1.711191 -0.002997 0.0
2.907972 1.286869 -0.002475 0.0
0.675280 0.463062 -0.001904 0.0
3.339934 1.640419 0.005002 0.0
1.119572 1.107227 0.002792 0.0
2.486754 0.284504 -0.001864 0.0
0.880964 0.898413 0.001840 0.0
1.307142 0.414453 0.005566 0.0
3.107272 1.320843 -0.001765 0.0
0.780171 1.696515 -0.000782 0.0
0.791441 0.971579 -0.000902 0.0
0.137178 0.596796 0.000427 0.0
3.553606 0.763549 0.001012 0.0
1.435503 0.554323 -0.002757 0.0
0.118328 1.550429 -0.001651 0.0
4.315923 1.436344 0.003036 0.0
3.773551 1.123335 -0.003259 0.0
0.453441 0.656488 0.000163 0.0
2.401609 1.487473 -0.001953 0.0
1.848700 1.524544 -0.000101 0.0
3.469508 0.120261 -0.000713 0.0
1.270695 0.586921 0.000449 0.0
1.494354 0.954437 -0.001182 0.0
0.841966 0.462288 -0.004245 0.0
1.509121 1.123567 -0.001520 0.0
4.298832 1.452538 0.006187 0.0
2.759323 1.013574 -0.004670 0.0
2.490916 0.510505 -0.001235 0.0
1.610979 1.511433 0.004064 0.0
0.831779 1.747916 -0.001193 0.0
0.867820 0.005713 -0.000768 0.0
1.681366 1.502259 -0.001530 0.0
2.314272 0.873889 -0.000654 0.0
1.467796 1.164485 -0.000050 0.0
3.810011 0.976052 0.003590 0.0
2.389071 0.944800 0.001368 0.0
3.808351 0.017520 -0.000886 0.0
3.195578 0.416411 0.001691 0.0
2.245744 1.748016 0.001135 0.0
3.418530 0.854881 0.003904 0.0
3.130317 1.526850 0.001584 0.0
4.008425 1.621783 -0.002927 0.0
0.043603 0.733097 0.004125 0.0
2.798397 0.407773 -0.003956 0.0
3.838360 0.197442 -0.002777 0.0
1.677469 0.091241 0.000472 0.0
2.788211 1.443380 -0.000145 0.0
0.288695 0.629620 -0.000593 0.0
2.017441 1.095047 -0.001743 0.0
1.226549 1.115750 0.003700 0.0
3.138635 0.861503 0.001252 0.0
2.869891 1.511011 -0.000230 0.0
3.665943 1.611972 -0.002185 0.0
2.761643 0.530176 0.000199 0.0
2.560782 0.639816 -0.001760 0.0
2.448746 1.557222 0.000482 0.0
0.307682 1.740503 -0.004572 0.0
3.146741 1.368361 -0.003602 0.0
0.801324 1.494496 0.000153 0.0
3.428738 0.219651 0.000414 0.0
0.196559 1.270017 -0.003857 0.0
2.184312 1.205068 -0.003534 0.0
1.934574 1.571982 0.005125 0.0
1.800594 1.471420 -0.002645 0.0
1.002561 0.258063 -0.002144 0.0
3.318394 0.763462 0.000147 0.0
0.340003 1.391353 0.004144 0.0
1.226141 0.447409 -0.001592 0.0
0.504898 1.027700 0.001449 0.0
1.938382 0.761012 0.001927 0.0
4.260043 0.971800 0.000563 0.0
2.639696 0.985897 -0.002232 0.0
4.319259 0.539800 -0.001727 0.0
1.427813 1.159328 -0.003837 0.0
3.733792 0.784522 -0.004286 0.0
0.370531 1.328889 0.002135 0.0
3.252718 0.332591 0.002988 0.0
0.550361 0.273851 0.000730 0.0
3.009143 0.082988 -0.002754 0.0
2.876329 0.923768 -0.001965 0.0
1.592176 0.115141 -0.001670 0.0
1.585924 0.393189 -0.000172 0.0
3.715753 1.448160 -0.002350 0.0
2.144560 0.496043 0.001715 0.0
3.700538 0.445434 0.002932 0.0
3.922109 1.116352 0.003530 0.0
2.447102 1.687219 0.005927 0.0
1.887647 0.571712 -0.001893 0.0
0.697408 0.853729 -0.000321 0.0
0.086321 1.098057 -0.003794 0.0
3.332314 1.345619 0.001271 0.0
3.144577 0.253632 0.003965 0.0
2.218972 0.427936 0.001863 0.0
2.175580 1.126305 0.002607 0.0
4.141080 1.304594 -0.000544 0.0
0.677396 0.698976 0.003413 0.0
0.774207 0.995672 -0.000529 0.0
3.301079 0.607722 -0.003803 0.0
1.468722 1.136060 0.002074 0.0
2.610189 0.173595 0.002838 0.0
0.020213 1.734314 -0.001560 0.0
3.240955 1.091122 0.001067 0.0
3.841407 0.795868 0.002412 0.0
1.963534 1.126146 0.001127 0.0
2.694853 0.846958 0.000642 0.0
0.384892 0.242317 0.000829 0.0
0.201098 0.914400 -0.000206 0.0
2.753581 0.576687 -0.000317 0.0
0.717431 0.361511 -0.002626 0.0
1.545601 0.025247 0.002464 0.0
3.927521 0.494418 0.002739 0.0
1.753793 1.402313 0.001281 0.0
3.780573 0.343216 0.000261 0.0
1.288163 1.726222 0.000486 0.0
1.532434 0.399598 0.003790 0.0
0.986168 0.285255 -0.001535 0.0
0.317978 0.106234 -0.001069 0.0
4.102928 1.100920 0.000320 0.0
1.238025 0.996355 0.000705 0.0
3.930628 0.225484 0.001593 0.0
2.040469 0.807609 0.000765 0.0
0.826375 0.625766 -0.003918 0.0
1.583896 0.823479 0.000184 0.0
1.124827 0.892278 -0.000837 0.0
1.141576 0.992220 -0.000662 0.0
3.569809 1.525884 0.005406 0.0
0.029430 0.594239 0.003330 0.0
1.782485 0.673660 -0.000329 0.0
2.002873 1.408116 0.002695 0.0
2.104114 1.481688 -0.000120 0.0
1.862861 0.692276 -0.003447 0.0
1.350009 1.458545 0.005036 0.0
2.306891 0.638837 -0.001773 0.0
0.485170 0.091272 -0.000542 0.0
0.172435 1.709330 -0.001887 0.0
3.106397 0.869151 -0.001750 0.0
1.808764 1.012441 -0.001733 0.0
2.963639 0.975895 0.001319 0.0
1.162243 1.634655 -0.002718 0.0
4.065905 1.542877 0.003325 0.0
2.616104 1.383380 0.000239 0.0
0.986255 0.971441 -0.003966 0.0
0.140722 1.770023 -0.000832 0.0
1.427486 1.649553 -0.003779 0.0
2.410690 0.597654 -0.000809 0.0
2.987752 0.308140 -0.000140 0.0
2.359163 0.623938 -0.002833 0.0
4.263919 0.212083 0.003262 0.0
1.108499 0.844900 -0.004188 0.0
1.010663 1.365754 -0.000398 0.0
1.783552 0.903248 0.002164 0.0
3.651153 1.015015 -0.003057 0.0
1.204670 0.865492 -0.000773 0.0
1.251332 0.309744 0.001537 0.0
0.736361 0.278983 0.002223 0.0
0.973503 0.102582 0.002700 0.0
0.887160 1.145486 0.001699 0.0
2.580389 0.920253 0.001249 0.0
2.806663 0.216391 0.002174 0.0
3.087274 1.760105 -0.000759 0.0
0.967139 0.181413 -0.002550 0.0
0.803473 1.579024 -0.006623 0.0
3.919256 1.180102 0.001264 0.0
3.820552 0.043923 -0.001274 0.0
2.791832 0.347521 0.001413 0.0
2.335874 0.230288 -0.002316 0.0
3.654374 1.120551 0.001045 0.0
0.907168 1.502730 -0.003266 0.0
3.780576 0.886490 -0.002183 0.0
2.215459 0.747623 -0.004962 0.0
3.909359 1.420019 -0.000810 0.0
3.894429 1.171967 -0.002620 0.0
3.177201 1.027911 0.003111 0.0
2.522948 1.156967 0.001320 0.0
1.072888 0.538080 0.001634 0.0
2.213537 1.369501 -0.000407 0.0
3.883698 0.617260 -0.002292 0.0
0.402950 0.081979 0.001831 0.0
4.081534 0.217307 0.003885 0.0
2.945039 1.102265 0.001143 0.0
1.200568 0.324624 -0.001375 0.0
2.902647 0.194600 0.000304 0.0
0.108591 1.389112 0.003229 0.0
2.978876 0.777626 0.001775 0.0
1.243641 0.355588 0.003371 0.0
2.530550 1.569979 0.001659 0.0
1.202230 0.008777 0.001286 0.0
3.557309 1.510614 0.001771 0.0
0.375097 0.083439 0.002684 0.0
3.805218 0.556968 0.001839 0.0
2.155297 1.565854 0.002529 0.0
0.029501 0.139804 -0.001854 0.0
3.383494 1.037166 0.002197 0.0
3.237186 0.906158 0.004483 0.0
2.168209 0.871234 0.000791 0.0
1.766233 0.073947 -0.001924 0.0
0.351922 1.474179 0.003293 0.0
1.691559 1.632065 0.002847 0.0
2.011064 0.271831 -0.001856 0.0
1.623178 0.916440 -0.004014 0.0
0.181693 1.691884 0.002114 0.0
0.680454 0.443551 0.001333 0.0
3.361433 0.793176 -0.002285 0.0
0.546044 0.569001 -0.001745 0.0
2.869810 1.491651 -0.002047 0.0
2.416784 1.030372 -0.000525 0.0
3.080036 0.630439 0.001825 0.0
3.463189 1.303893 -0.001423 0.0
0.007824 0.787761 -0.001632 0.0
3.836166 1.443006 0.002801 0.0
2.933652 1.129212 -0.000113 0.0
2.845480 1.562272 -0.001050 0.0
0.137730 0.755861 -0.001707 0.0
0.625802 0.338093 0.004756 0.0
2.986034 0.585655 0.005288 0.0
0.829472 0.532841 -0.001029 0.0
1.171922 0.864087 0.004263 0.0
3.835754 0.445768 0.002386 0.0
2.397258 0.436942 -0.004684 0.0
2.987706 1.241737 0.006269 0.0
2.662709 1.666427 0.001032 0.0
1.495231 1.158032 -0.000713 0.0
3.490453 0.725333 0.000391 0.0
2.243377 0.466317 0.001883 0.0
2.744878 0.265718 0.002949 0.0
1.906591 1.274248 0.001064 0.0
0.685245 1.283531 -0.004162 0.0
2.180757 1.229106 0.000508 0.0
4.090467 1.174790 -0.004928 0.0
0.564130 0.741133 -0.001552 0.0
0.411623 0.013056 -0.003972 0.0
3.160840 0.772173 0.000382 0.0
0.082488 1.334983 0.003450 0.0
3.909263 0.647692 -0.003812 0.0
0.225790 1.124877 0.001126 0.0
2.987530 0.277050 -0.000840 0.0
2.075759 0.119008 -0.001819 0.0
3.839036 0.272402 0.001739 0.0
1.410172 0.378153 0.001226 0.0
2.094532 0.037796 -0.003956 0.0
3.945741 1.732922 -0.004346 0.0
3.812900 0.494244 0.000297 0.0
1.057210 1.247415 -0.002517 0.0
3.544015 0.152744 0.001427 0.0
3.812739 1.396469 0.000199 0.0
0.093792 1.346470 0.002051 0.0
2.007813 0.494590 -0.000002 0.0
2.615359 1.232619 0.000993 0.0
0.854113 0.357134 -0.000098 0.0
3.240991 1.265225 0.003695 0.0
3.681289 0.811956 0.002605 0.0
1.616261 0.855558 -0.000497 0.0
0.675118 0.650960 -0.000521 0.0
3.081966 0.264350 -0.003807 0.0
1.533223 0.320187 0.002363 0.0
2.245080 0.024062 0.002540 0.0
0.796476 0.947200 0.001157 0.0
0.423875 0.672091 -0.001890 0.0
3.861199 1.614561 -0.000293 0.0
4.246316 1.487253 -0.000391 0.0
3.355886 0.527043 0.003146 0.0
3.090082 0.858823 -0.000725 0.0
3.551946 0.529549 0.003164 0.0
1.205877 1.604335 0.000676 0.0
2.952707 0.595097 0.002891 0.0
0.349124 1.629769 -0.001917 0.0
2.816466 0.940740 0.002139 0.0
2.066083 0.710427 0.000426 0.0
0.915303 1.257878 -0.000137 0.0
3.984170 1.002804 -0.001628 0.0
3.807001 1.329890 -0.003626 0.0
4.277055 0.981960 -0.001671 0.0
3.798068 0.706475 0.005013 0.0
2.541735 1.090674 0.001182 0.0
0.266727 0.657898 0.001453 0.0
3.028711 1.439687 0.000328 0.0
3.180799 1.603801 0.005950 0.0
2.303122 1.752991 -0.000234 0.0
4.130245 1.732169 -0.003684 0.0
4.114581 0.987868 0.001910 0.0
0.004060 0.624600 -0.000663 0.0
2.668972 1.242772 0.001696 0.0
1.151108 0.886626 0.000580 0.0
4.089722 1.265964 -0.000228 0.0
3.278854 1.167179 -0.000558 0.0
1.324490 0.772500 0.004274 0.0
3.796234 0.799116 0.003859 0.0
2.535756 1.372720 -0.005794 0.0
1.264766 1.429255 -0.002050 0.0
1.030513 0.679779 -0.002278 0.0
1.914772 0.678559 0.003588 0.0
2.299184 0.757443 0.000188 0.0
4.317442 1.218843 -0.003178 0.0
2.038552 0.524250 -0.000587 0.0
3.998060 0.633995 -0.002239 0.0
3.598782 0.119727 -0.001113 0.0
3.595428 0.406265 0.000996 0.0
3.245907 1.705115 -0.000960 0.0
2.284780 0.316525 0.000849 0.0
1.813173 1.386066 0.004865 0.0
2.825134 1.220296 -0.001492 0.0
1.954513 0.977434 0.004042 0.0
2.134024 1.229537 -0.000887 0.0
3.260899 1.134713 -0.004014 0.0
2.994648 1.620605 0.000407 0.0
2.566046 0.041778 -0.003130 0.0
0.703112 0.553337 0.001475 0.0
1.677412 0.728821 0.001464 0.0
0.532442 1.208781 -0.005637 0.0
2.833481 1.216432 -0.000056 0.0
2.536800 0.157971 -0.003134 0.0
3.514963 1.737583 -0.002146 0.0
2.792602 0.483600 -0.001241 0.0
1.216010 1.380770 -0.002369 0.0
2.254730 0.378312 0.001088 0.0
2.046755 1.203132 -0.002361 0.0
4.177268 0.849208 0.002036 0.0
2.412070 0.813030 -0.001360 0.0
3.221761 0.318786 -0.001413 0.0
1.593810 1.023095 -0.003868 0.0
3.312626 1.204856 -0.001655 0.0
0.734615 0.729780 -0.006721 0.0
1.674519 1.575931 -0.000847 0.0
1.853581 1.495410 0.003504 0.0
2.441484 0.199493 -0.001633 0.0
2.117334 0.094093 -0.002708 0.0
2.851040 0.925598 0.000231 0.0
3.163514 0.295683 0.000728 0.0
3.960531 0.729149 0.000076 0.0
4.153981 0.020691 0.001621 0.0
1.117025 1.351772 0.002178 0.0
2.434989 1.298421 -0.000765 0.0
2.697103 1.351322 -0.001520 0.0
2.213109 1.537316 0.001667 0.0
1.357671 0.763706 0.000579 0.0
0.100433 1.346432 0.002515 0.0
2.030651 1.439225 -0.000286 0.0
2.085217 0.085536 0.001198 0.0
1.773337 1.357251 0.000189 0.0
2.876037 0.742862 0.002177 0.0
1.414659 1.557351 0.002599 0.0
2.902877 0.955795 0.002556 0.0
1.943135 0.736735 0.000158 0.0
1.557456 0.743653 -0.002787 0.0
2.032004 1.353040 0.003216 0.0
1.930963 1.664436 -0.003689 0.0
2.492396 1.675224 -0.000807 0.0
2.773325 1.156920 0.000926 0.0
1.878215 1.709542 0.002003 0.0
2.226243 0.769569 0.000400 0.0
2.055336 0.051537 -0.001518 0.0
0.653151 0.909838 0.003829 0.0
2.519129 1.067753 -0.002129 0.0
2.780278 1.547373 -0.001919 0.0
1.067427 1.039303 0.001872 0.0
2.646179 1.674750 0.005845 0.0
1.631576 1.037921 0.003279 0.0
2.775394 1.040539 0.000468 0.0
1.766560 0.785051 0.002794 0.0
1.128269 0.266832 -0.003459 0.0
1.835587 0.385178 -0.001878 0.0
3.569142 1.746537 0.001692 0.0
1.086139 1.202756 -0.000978 0.0
0.726429 1.423802 0.002031 0.0
2.347391 1.663554 0.003137 0.0
2.534810 1.444852 -0.000822 0.0
1.274517 0.257137 0.004456 0.0
1.953821 1.456009 0.000127 0.0
0.499717 0.825452 -0.000456 0.0
4.198020 1.679312 -0.002857 0.0
0.943597 1.256276 0.003846 0.0
0.764047 1.423800 0.002339 0.0
3.480660 1.659572 0.000513 0.0
0.015688 0.901244 0.001727 0.0
1.334034 1.054424 -0.002040 0.0
1.384225 1.527608 -0.000553 0.0
0.624186 1.660459 -0.004322 0.0
3.339648 0.012240 -0.005379 0.0
0.929547 1.744119 -0.001730 0.0
2.878449 1.558605 -0.001153 0.0
2.317701 0.975275 -0.005189 0.0
3.556091 0.803458 0.003017 0.0
2.589568 0.390262 -0.000723 0.0
3.925648 0.732897 0.001154 0.0
2.221757 0.758806 -0.001633 0.0
2.657135 1.557978 -0.001608 0.0
2.832247 0.688365 0.005145 0.0
3.609143 0.748961 0.002502 0.0
3.511316 0.932728 -0.001740 0.0
0.725734 0.987232 -0.001907 0.0
1.953743 1.056234 -0.005476 0.0
4.258812 0.178681 -0.002410 0.0
2.353287 1.176448 0.003069 0.0
1.983356 0.247552 0.002635 0.0
3.020569 1.420909 0.002557 0.0
3.874279 0.160899 0.001742 0.0
2.642033 0.227182 -0.002969 0.0
3.915245 0.259414 -0.001370 0.0
3.786404 1.073228 0.004518 0.0
0.235303 0.731774 0.003179 0.0
2.141646 0.888385 -0.000541 0.0
0.158378 0.026626 0.002144 0.0
1.175203 1.192130 0.001891 0.0
0.113419 0.635329 0.001333 0.0
4.010311 0.294669 -0.001369 0.0
3.172613 0.423032 -0.002429 0.0
0.571896 1.449465 -0.002681 0.0
0.550801 0.023488 0.002368 0.0
2.212751 1.040409 0.002475 0.0
3.940472 0.794253 0.004625 0.0
4.302177 0.639894 0.001121 0.0
1.918920 0.298876 0.000397 0.0
0.947762 1.233450 0.002064 0.0
0.585591 1.503052 0.001538 0.0
1.485492 1.748353 0.000805 0.0
3.157598 0.284445 -0.004534 0.0
3.633100 1.155486 -0.000803 0.0
0.334650 1.074981 -0.001486 0.0
1.075648 0.869305 -0.003397 0.0
3.645772 0.420822 -0.003452 0.0
2.701279 1.613368 -0.002054 0.0
3.545105 0.753198 0.001172 0.0
3.365768 1.078611 0.001934 0.0
0.203599 1.681158 -0.001162 0.0
0.761520 1.773022 0.000338 0.0
0.257642 0.188183 0.001596 0.0
0.979949 0.397082 0.001139 0.0
4.234659 1.771839 0.001111 0.0
2.840481 0.328753 0.002980 0.0
0.303777 0.174640 -0.000038 0.0
0.146765 0.749249 -0.000433 0.0
0.321237 0.717001 -0.001624 0.0
3.001048 0.780631 0.004252 0.0
2.492415 0.123848 0.000466 0.0
1.365150 1.601735 -0.002159 0.0
3.015243 0.775989 -0.002054 0.0
1.652457 1.260327 -0.002048 0.0
0.895005 0.699137 0.002255 0.0
1.356065 0.041154 0.002021 0.0
3.837917 1.319468 -0.002738 0.0
3.027646 1.561058 0.001593 0.0
2.074193 1.558106 -0.003568 0.0
3.351883 0.102295 0.001365 0.0
2.452652 0.768593 -0.002990 0.0
3.145320 0.613234 0.000360 0.0
3.035819 0.028902 -0.005028 0.0
1.052436 0.342634 -0.002739 0.0
1.199873 1.232063 0.005091 0.0
0.183547 1.090968 0.004182 0.0
1.965947 0.096783 -0.000284 0.0
1.995470 0.491251 0.000724 0.0
0.640517 0.497669 -0.002980 0.0
0.250685 0.383867 -0.000447 0.0
0.772625 1.781401 -0.000534 0.0
3.610026 1.153655 0.003958 0.0
0.519015 0.755819 0.000570 0.0
0.580318 1.326376 -0.001418 0.0
3.639022 1.536697 0.002095 0.0
3.986552 0.065581 0.001193 0.0
4.179173 0.019971 0.002002 0.0
1.657077 0.974489 -0.004571 0.0
0.895383 0.968522 0.004277 0.0
1.791343 1.167848 0.000121 0.0
2.134980 1.387395 0.000689 0.0
2.287719 1.464908 -0.000531 0.0
0.218440 0.266091 -0.004525 0.0
3.656126 0.353196 0.001517 0.0
0.410821 1.372943 -0.001132 0.0
1.336972 0.656370 -0.002103 0.0
0.793334 1.688027 -0.001745 0.0
1.335168 1.067759 -0.000572 0.0
1.863786 0.742647 -0.004882 0.0
0.552677 0.937983 0.003279 0.0
1.526740 1.413964 -0.001048 0.0
2.742289 0.459098 0.000745 0.0
3.645023 1.103923 -0.002525 0.0
0.819441 0.571554 -0.000320 0.0
3.736251 0.798648 0.004636 0.0
3.448750 0.801874 -0.003108 0.0
2.857414 0.608447 -0.003411 0.0
1.502134 0.540369 -0.000961 0.0
4.198136 0.893997 0.002397 0.0
1.219907 0.353343 0.002846 0.0
0.394053 1.303021 -0.004894 0.0
0.962681 0.490679 -0.007294 0.0
1.272733 1.665398 -0.000458 0.0
0.345045 0.552343 -0.000826 0.0
3.202337 1.289916 0.001495 0.0
0.977632 0.672063 0.000899 0.0
1.350994 0.068596 0.000243 0.0
1.005367 1.169010 -0.003673 0.0
3.782010 1.390317 -0.002842 0.0
3.116614 0.008338 -0.001114 0.0
1.202027 0.531814 -0.000412 0.0
0.666132 1.225014 0.000177 0.0
4.091453 0.667460 -0.001447 0.0
1.656878 0.734194 -0.002388 0.0
0.350704 1.182875 -0.000326 0.0
2.322704 0.832647 0.001016 0.0
0.067787 1.103557 0.002893 0.0
0.129400 0.744409 0.002272 0.0
0.907037 0.941000 -0.001644 0.0
0.213356 1.376858 0.001074 0.0
1.374715 0.149866 -0.001370 0.0
2.225556 1.518806 -0.001621 0.0
0.667922 1.079687 -0.001702 0.0
4.238470 0.314759 0.006497 0.0
3.238161 0.324872 0.003649 0.0
3.415813 0.848782 0.002408 0.0
1.493696 1.145453 0.005722 0.0
3.348010 0.803270 -0.002288 0.0
3.259036 -0.000061 -0.002744 0.0
0.689221 0.878448 0.004662 0.0
3.164237 0.961072 -0.000653 0.0
1.547851 1.376518 -0.002336 0.0
0.820802 0.100274 0.000685 0.0
3.413340 0.526202 0.001291 0.0
0.148523 1.274955 -0.001118 0.0
2.053104 0.873027 0.000873 0.0
3.116451 0.136374 0.000912 0.0
3.607630 0.349706 -0.000903 0.0
2.883846 1.785832 -0.001109 0.0
1.026167 1.511296 -0.000974 0.0
1.970067 0.114139 -0.003085 0.0
1.668543 1.534394 0.002723 0.0
2.685671 1.031581 0.001653 0.0
2.594427 1.580149 -0.000099 0.0
0.428304 1.516378 -0.001006 0.0
3.237586 1.573509 -0.004636 0.0
0.688415 1.296179 -0.002908 0.0
1.550875 0.530233 -0.003024 0.0
2.764223 0.267499 -0.006101 0.0
1.992552 1.602472 -0.001645 0.0
2.262139 0.586692 0.003111 0.0
2.221453 1.429230 -0.001428 0.0
0.820924 0.979120 0.000570 0.0
1.543470 0.029335 -0.006922 0.0
2.787442 1.344632 -0.000858 0.0
2.883720 0.744504 0.001260 0.0
0.520335 0.338584 -0.002660 0.0
4.145513 0.986000 0.004359 0.0
0.657582 0.319894 0.002877 0.0
0.475874 1.213499 -0.004852 0.0
3.065471 0.467257 -0.003720 0.0
3.913959 0.874544 0.001665 0.0
2.845759 1.191491 0.000360 0.0
1.928341 0.868672 0.003125 0.0
1.229504 0.464094 -0.000676 0.0
0.093509 0.854567 0.001896 0.0
0.339224 1.297445 0.004611 0.0
3.912968 0.518432 0.001511 0.0
0.851138 0.660821 -0.001340 0.0
3.935012 0.650884 -0.000240 0.0
0.827017 0.718940 -0.005506 0.0
0.840056 0.423702 0.000767 0.0
2.491865 1.311537 -0.003299 0.0
3.080729 0.522144 -0.000490 0.0
3.734066 1.651242 -0.004068 0.0
2.977499 1.519027 -0.001783 0.0
2.613657 1.155371 0.002469 0.0
0.455163 0.654627 -0.001507 0.0
0.409824 1.673944 -0.001564 0.0
0.355704 0.286175 -0.002179 0.0
3.748385 1.297705 -0.004232 0.0
2.273116 1.461565 0.002300 0.0
2.120209 0.262190 0.002413 0.0
0.117520 1.579276 -0.003626 0.0
0.321841 1.572743 0.002776 0.0
1.728988 0.828408 0.001082 0.0
1.181950 1.013188 0.005864 0.0
0.462850 1.332290 -0.000770 0.0
4.111067 0.872219 0.000100 0.0
4.101530 1.409674 0.000650 0.0
2.790087 1.197134 0.000922 0.0
3.550693 1.718265 0.001814 0.0
2.839694 0.771678 0.000121 0.0
4.275903 1.293651 0.001233 0.0
1.261077 1.258519 -0.002099 0.0
2.451690 0.981073 -0.001939 0.0
0.689585 0.929059 -0.003221 0.0
4.273827 1.780785 0.000050 0.0
3.792454 1.519701 0.003288 0.0
3.990586 0.999128 0.000036 0.0
1.908989 1.541221 -0.003175 0.0
4.183632 0.583159 -0.001314 0.0
