1.81361276 0.94490830 0.00041640 0.00000000
1.58863036 0.67923349 0.00354922 0.00000000
1.00573257 1.53729590 -0.00106980 0.00000000
3.51245982 0.07078674 0.00159136 0.00000000
2.56763103 0.87160478 -0.00214110 0.00000000
1.79174190 0.10490494 0.00052971 0.00000000
2.15082219 1.52968403 0.00258612 0.00000000
1.38899738 1.34276941 -0.00180607 0.00000000
2.56123711 0.24065338 -0.00033201 0.00000000
1.45505345 1.39001810 0.00047172 0.00000000
2.19942139 0.96028920 0.00364897 0.00000000
1.76660885 0.26461012 -0.00491635 0.00000000
1.95330546 1.34308459 -0.00057658 0.00000000
1.23829801 0.20709852 -0.00262271 0.00000000
2.35645052 0.53910489 -0.00039889 0.00000000
1.64250391 1.01870738 0.00225825 0.00000000
1.89296160 1.31921676 0.00056401 0.00000000
3.80628736 0.12572627 0.00106104 0.00000000
3.00722743 0.20308714 0.00145460 0.00000000
2.80562492 1.49007742 -0.00418770 0.00000000
3.94107762 0.72088234 -0.00140926 0.00000000
3.79173024 0.59887694 0.00120539 0.00000000
0.88360547 0.86537802 -0.00008924 0.00000000
3.64354307 0.37764548 0.00298735 0.00000000
0.32570815 0.55784820 -0.00262011 0.00000000
1.12700992 0.33953063 0.00109318 0.00000000
3.51713057 0.97934922 -0.00046832 0.00000000
0.83806873 0.18375042 -0.00219410 0.00000000
1.21568359 0.69382165 0.00072666 0.00000000
3.56319726 0.61939347 -0.00258333 0.00000000
1.22380767 0.09205651 -0.00446979 0.00000000
3.13668273 1.25629469 0.00521806 0.00000000
0.53573325 0.80196632 -0.00009963 0.00000000
3.78860784 1.08952829 -0.00364192 0.00000000
0.40706207 1.31558575 -0.00077391 0.00000000
0.00325115 0.82959306 0.00266724 0.00000000
1.39252894 0.48631815 0.00546566 0.00000000
3.89647352 0.30118426 0.00189260 0.00000000
1.30374981 1.01301998 0.00151086 0.00000000
2.21589536 1.21071456 0.00242347 0.00000000
0.63049019 1.32410974 0.00299673 0.00000000
2.10162669 0.80765928 0.00078864 0.00000000
0.91849677 0.99996612 0.00169085 0.00000000
1.24334544 0.63672185 0.00345344 0.00000000
2.59775206 0.60146431 0.00263890 0.00000000
3.41842361 0.56297235 0.00193849 0.00000000
2.37936665 0.66213170 -0.00231869 0.00000000
3.03470202 0.65381093 -0.00168839 0.00000000
0.15825747 1.67189837 0.00059038 0.00000000
3.47420151 1.09564773 -0.00249215 0.00000000
1.90139782 0.09007222 -0.00192414 0.00000000
1.33493011 1.20781270 0.00406319 0.00000000
3.21568805 0.46607681 0.00135411 0.00000000
3.65371624 1.10701250 -0.00026186 0.00000000
0.36936701 0.82212777 0.00150945 0.00000000
3.17581864 1.15280489 0.00060605 0.00000000
3.19972600 0.30116130 0.00414984 0.00000000
3.94470316 1.16505190 -0.00424325 0.00000000
2.05092485 1.26431012 0.00243396 0.00000000
3.31397724 0.92090093 -0.00135207 0.00000000
3.88246496 1.40339452 0.00273304 0.00000000
0.25872481 1.37826368 0.00226711 0.00000000
3.84217490 1.35661110 -0.00251463 0.00000000
0.67829792 1.46251760 -0.00261942 0.00000000
2.37777890 0.68961559 0.00281332 0.00000000
1.67828462 0.80971322 -0.00135048 0.00000000
0.58835754 1.65659754 0.00451376 0.00000000
1.68340539 0.40262300 -0.00183686 0.00000000
3.96429978 0.36714185 -0.00397087 0.00000000
0.54386121 1.15605683 -0.00203903 0.00000000
3.66392523 0.25099907 -0.00064352 0.00000000
2.26885869 1.11932639 -0.00086991 0.00000000
0.79623638 1.53642376 0.00098162 0.00000000
0.51448504 1.60108984 -0.00085305 0.00000000
2.92953759 1.50226755 0.00105429 0.00000000
0.81697154 0.55361171 -0.00005157 0.00000000
3.25590530 1.37066235 -0.00020999 0.00000000
0.01803288 1.15514849 -0.00274670 0.00000000
3.61350106 0.02333023 0.00184466 0.00000000
2.45405433 0.98856165 -0.00083870 0.00000000
0.37628850 0.79182244 -0.00216945 0.00000000
4.01622372 0.70642071 0.00010464 0.00000000
3.80487440 0.94741238 0.00102372 0.00000000
0.16905607 0.97058719 -0.00243400 0.00000000
2.47345222 1.05682552 -0.00034406 0.00000000
0.70476192 0.89953568 -0.00107626 0.00000000
3.73677713 0.77247002 0.00082338 0.00000000
3.03645075 0.03054638 0.00045841 0.00000000
3.98986741 0.37659312 -0.00075568 0.00000000
2.76451001 0.45086079 -0.00019302 0.00000000
2.65682227 0.07949149 -0.00040939 0.00000000
2.74349931 0.18821894 0.00256719 0.00000000
1.03338478 0.67649864 -0.00062992 0.00000000
1.56845832 1.05794519 -0.00213007 0.00000000
0.75201539 0.95633324 0.00104470 0.00000000
0.38216610 0.16581277 -0.00028856 0.00000000
3.10705729 1.25297809 -0.00115063 0.00000000
0.13057657 1.57960115 0.00321396 0.00000000
3.29108460 1.18901117 -0.00054879 0.00000000
3.32005010 1.29377543 -0.00027590 0.00000000
1.42168870 0.36740466 -0.00119592 0.00000000
3.59805768 1.61627791 0.00108904 0.00000000
3.15606340 1.56084283 0.00358824 0.00000000
0.34349668 1.45443920 -0.00308223 0.00000000
2.36195410 0.40793876 -0.00132208 0.00000000
2.64719468 1.62810785 -0.00225577 0.00000000
1.34318067 0.80825194 -0.00063736 0.00000000
0.53060086 1.04674776 0.00344727 0.00000000
1.00267159 1.63857581 -0.00032973 0.00000000
1.85869551 0.72499446 -0.00098344 0.00000000
2.12201416 1.63516034 0.00271967 0.00000000
2.12910793 0.76306975 0.00015099 0.00000000
2.25983352 0.81719955 0.00306167 0.00000000
3.70613947 1.19307998 -0.00009492 0.00000000
1.97198132 0.82553323 -0.00231629 0.00000000
0.88603456 0.11633437 0.00342385 0.00000000
2.65208134 1.58082677 -0.00041789 0.00000000
2.26904802 1.66440218 0.00013130 0.00000000
1.89197509 1.65436843 0.00197721 0.00000000
3.02448708 0.66468634 -0.00200007 0.00000000
1.17990687 0.80565958 -0.00201468 0.00000000
2.70232237 1.55455453 0.00219874 0.00000000
0.31239184 1.66869932 0.00278785 0.00000000
0.14224303 0.64283606 0.00198357 0.00000000
0.85071700 0.97270063 -0.00079725 0.00000000
0.71767108 0.41848391 -0.00056928 0.00000000
3.06386907 0.69383104 -0.00091299 0.00000000
1.43096017 1.26361470 0.00112169 0.00000000
0.88488846 1.29708166 0.00107599 0.00000000
3.35347925 1.56200336 -0.00268235 0.00000000
2.99248260 1.39904977 0.00353478 0.00000000
2.34010749 1.43687039 0.00347630 0.00000000
0.13603695 0.14091957 0.00635375 0.00000000
3.14338307 1.15661409 -0.00049086 0.00000000
2.28651014 1.62146303 -0.00121840 0.00000000
1.99225627 1.05238682 0.00309978 0.00000000
3.71386119 1.66997877 0.00376713 0.00000000
3.33717353 0.28853901 0.00000657 0.00000000
1.35901009 1.62491990 0.00109927 0.00000000
1.41651294 1.27203816 -0.00063912 0.00000000
0.54901815 0.91196393 0.00166854 0.00000000
3.98327508 0.95729626 0.00038512 0.00000000
3.34925239 1.66599629 -0.00142835 0.00000000
1.68427505 0.85942500 0.00049164 0.00000000
1.62556620 1.04025279 -0.00191915 0.00000000
3.16528399 0.39232218 -0.00287489 0.00000000
2.57947817 1.01868099 0.00027482 0.00000000
1.77440441 1.18093270 0.00267396 0.00000000
0.81555996 0.84175483 -0.00487738 0.00000000
0.09756761 1.64557820 -0.00167359 0.00000000
1.14704905 0.15798799 0.00154120 0.00000000
3.70016646 0.19228580 -0.00149146 0.00000000
2.97819351 1.02829848 -0.00078661 0.00000000
3.04559822 0.51878780 0.00267720 0.00000000
1.32177785 0.54864199 -0.00192118 0.00000000
1.29638316 1.61642484 -0.00168040 0.00000000
1.15674383 0.72777832 0.00217987 0.00000000
2.24102188 0.72972681 0.00309226 0.00000000
1.30715497 1.31450257 0.00453343 0.00000000
1.48889463 1.65467814 0.00178528 0.00000000
3.71861723 1.03162098 0.00276053 0.00000000
3.67533355 0.44259083 0.00185523 0.00000000
0.88548759 0.84116239 0.00064697 0.00000000
2.29075203 1.62804176 -0.00004503 0.00000000
1.10408438 1.66209086 -0.00104019 0.00000000
2.43450873 1.48691277 0.00172104 0.00000000
0.48504595 0.96641268 0.00040948 0.00000000
1.58709738 1.62949784 0.00148433 0.00000000
0.80652630 0.48144058 0.00259808 0.00000000
3.45882980 1.32629291 -0.00050125 0.00000000
4.03169585 0.47218571 -0.00183110 0.00000000
0.67138127 1.38141108 0.00055549 0.00000000
1.37161248 1.20295836 -0.00341460 0.00000000
3.49283027 1.50669829 0.00033136 0.00000000
1.34682515 1.60969131 -0.00214421 0.00000000
1.80107858 1.36210764 -0.00613276 0.00000000
1.97251953 0.58322882 0.00003055 0.00000000
0.86637243 1.13075314 -0.00322135 0.00000000
3.27390756 0.51789510 -0.00204601 0.00000000
2.55473072 0.44398478 -0.00059636 0.00000000
3.44713868 1.20254721 0.00318677 0.00000000
2.50073963 1.33208990 0.00409818 0.00000000
3.51373163 0.90911570 -0.00271615 0.00000000
2.52962663 0.58717801 -0.00486557 0.00000000
0.69068725 0.71612709 0.00199549 0.00000000
2.30441872 1.19130807 0.00590852 0.00000000
0.19862793 1.17583231 0.00338254 0.00000000
2.21614048 1.04267843 0.00130645 0.00000000
2.07016964 1.67223933 -0.00201803 0.00000000
1.45232352 0.04476816 0.00212195 0.00000000
1.43237716 1.05718388 -0.00353340 0.00000000
3.14597419 0.66638972 0.00393157 0.00000000
1.27451941 0.53795629 -0.00283810 0.00000000
0.70070553 0.08957603 0.00107258 0.00000000
2.18662084 0.56990047 0.00382716 0.00000000
3.39628547 0.23596200 -0.00073068 0.00000000
3.89354827 0.93904193 0.00045976 0.00000000
0.76877561 0.28524445 -0.00278628 0.00000000
3.73163759 0.57205561 0.00268217 0.00000000
0.79100568 0.71560931 0.00100188 0.00000000
2.69338571 0.46024355 0.00072242 0.00000000
3.62363393 1.23334122 -0.00167483 0.00000000
1.32018400 0.99561079 -0.00492310 0.00000000
1.55822559 0.50586732 -0.00181550 0.00000000
3.02927217 1.47263419 0.00361055 0.00000000
0.02601953 1.23107971 -0.00355958 0.00000000
3.07993503 0.78068433 0.00368973 0.00000000
1.66073965 0.48840820 0.00004267 0.00000000
3.24310865 1.17472263 -0.00021067 0.00000000
1.52203874 0.99111456 -0.00422948 0.00000000
3.93191757 0.45046026 0.00312636 0.00000000
1.45363344 0.41325075 -0.00305124 0.00000000
0.55635409 0.85053446 -0.00405043 0.00000000
2.52672332 1.67173912 -0.00275661 0.00000000
1.10796481 1.63974289 0.00082834 0.00000000
0.32652775 0.69836599 0.00223030 0.00000000
0.38395865 0.70473498 0.00244709 0.00000000
3.46562248 0.59288528 -0.00098482 0.00000000
0.77528423 1.31994935 0.00305844 0.00000000
0.65300708 1.49205404 0.00210778 0.00000000
0.78341964 0.38861972 0.00047254 0.00000000
2.62926623 1.25152923 -0.00041387 0.00000000
2.06962017 1.50816386 -0.00169865 0.00000000
1.93266135 0.13330141 -0.00119332 0.00000000
3.74934971 1.50162513 -0.00139176 0.00000000
1.65251965 1.08692874 -0.00222659 0.00000000
1.13134831 1.19650306 0.00101020 0.00000000
0.21483580 1.68093041 -0.00059127 0.00000000
2.72737140 0.41886759 0.00316584 0.00000000
0.21371936 0.74314613 -0.00386698 0.00000000
0.86613925 0.17733689 0.00092098 0.00000000
2.79847037 1.62458265 0.00536990 0.00000000
0.46090451 0.83953277 -0.00437749 0.00000000
0.11437995 1.32454372 0.00057956 0.00000000
0.83481524 1.14791340 0.00334094 0.00000000
1.42947702 0.97010892 -0.00018590 0.00000000
2.05212132 0.62127331 0.00078503 0.00000000
3.29263769 1.18829670 -0.00215260 0.00000000
2.93205843 0.72686277 0.00093161 0.00000000
1.28450940 0.14727464 0.00067261 0.00000000
2.14545968 1.69268992 0.00075903 0.00000000
0.24497167 1.28310998 -0.00103430 0.00000000
2.55275136 0.19529815 -0.00569826 0.00000000
3.21181556 0.42214294 0.00102559 0.00000000
0.65901918 0.09151407 0.00294674 0.00000000
0.65873522 0.52303551 -0.00071726 0.00000000
3.60879020 1.57631830 -0.00129945 0.00000000
1.97441902 1.27510917 -0.00271387 0.00000000
0.42279786 1.06236605 0.00193046 0.00000000
3.89145672 1.25885271 0.00550835 0.00000000
2.48479101 0.80786424 0.00487630 0.00000000
2.79474819 1.70459377 -0.00040856 0.00000000
3.31501948 0.65912818 0.00027069 0.00000000
0.98869217 0.52592290 -0.00023761 0.00000000
0.75212733 0.57028569 0.00586121 0.00000000
3.13788317 0.50344990 -0.00113653 0.00000000
1.01060877 1.61906804 -0.00092904 0.00000000
2.35232603 1.21105970 0.00484558 0.00000000
3.86833213 1.28216471 0.00547084 0.00000000
3.38519832 0.06278636 -0.00083700 0.00000000
2.86166273 0.33531354 -0.00354126 0.00000000
3.92784860 1.50100876 0.00529894 0.00000000
0.74571758 0.48215265 0.00049480 0.00000000
3.06819084 0.71905934 0.00229377 0.00000000
0.13465660 0.22917582 0.00205559 0.00000000
2.36501359 0.77694468 -0.00033562 0.00000000
1.64450643 1.04300236 -0.00437198 0.00000000
2.00480117 1.55613627 0.00340383 0.00000000
2.83163220 1.03248975 -0.00327131 0.00000000
0.51643266 0.96075454 0.00201644 0.00000000
4.03597833 0.36240581 0.00278684 0.00000000
2.77472367 0.56079672 -0.00238361 0.00000000
1.54034287 0.81398396 -0.00053525 0.00000000
0.21555454 0.25232576 -0.00242671 0.00000000
1.45128681 0.66222355 0.00092794 0.00000000
1.71280516 1.38217746 -0.00229116 0.00000000
3.41071533 0.46869977 -0.00007738 0.00000000
2.88808887 0.53971582 0.00044624 0.00000000
0.75056273 0.91272797 0.00103384 0.00000000
0.97937744 1.67935126 0.00063561 0.00000000
1.40574961 0.82818510 0.00455767 0.00000000
0.30405503 1.28899067 0.00278345 0.00000000
3.63210416 1.34103636 -0.00011667 0.00000000
0.88303321 1.26552526 0.00430381 0.00000000
0.35410049 0.59356630 0.00062986 0.00000000
0.39701716 1.54132811 -0.00084457 0.00000000
1.17317923 0.29676428 0.00033424 0.00000000
1.60455021 1.27017588 0.00011200 0.00000000
2.68541634 0.34096756 0.00065667 0.00000000
3.99186488 0.90959123 0.00704050 0.00000000
3.87751853 0.14287727 0.00303109 0.00000000
0.44187440 0.74780317 0.00341415 0.00000000
2.39677211 0.03893609 -0.00275795 0.00000000
3.81839596 0.16097980 0.00050607 0.00000000
2.68741099 1.01826598 -0.00070957 0.00000000
0.90281082 0.52274926 0.00073971 0.00000000
1.46151696 0.58614018 -0.00111486 0.00000000
0.30549308 0.59892967 -0.00135683 0.00000000
3.45471623 1.19480464 0.00051246 0.00000000
3.48894272 0.65137554 0.00240121 0.00000000
0.38303210 0.67591397 0.00164934 0.00000000
3.96205236 1.52020164 0.00219677 0.00000000
3.63759903 0.45723046 0.00044220 0.00000000
1.07000700 0.89963982 0.00257383 0.00000000
4.03874811 0.49635301 0.00212955 0.00000000
1.08274802 0.24845581 0.00382195 0.00000000
2.41832243 0.69662694 0.00079477 0.00000000
2.14136692 0.34472581 0.00497093 0.00000000
0.55770121 0.90214495 0.00549106 0.00000000
0.74643785 1.40624985 0.00294695 0.00000000
2.86975044 0.36349725 -0.00458170 0.00000000
2.48236629 0.81043060 -0.00216383 0.00000000
0.13129815 0.63299869 0.00341917 0.00000000
2.07825485 0.60085106 -0.00221182 0.00000000
3.10029353 1.03401112 0.00307583 0.00000000
2.42082176 0.15856718 -0.00011670 0.00000000
0.63837193 1.53264946 -0.00043005 0.00000000
2.56614322 0.85774929 0.00004736 0.00000000
2.66172160 0.98530321 -0.00054447 0.00000000
1.95529088 0.03707655 -0.00073900 0.00000000
1.49022031 1.32737361 -0.00257308 0.00000000
0.09114709 1.49988449 -0.00155294 0.00000000
0.02295796 1.56111909 0.00036767 0.00000000
2.97980107 1.09868187 0.00459544 0.00000000
3.60321318 1.38225753 0.00019964 0.00000000
1.70438638 0.67615906 -0.00178936 0.00000000
0.11311756 0.44457883 0.00051929 0.00000000
1.77820819 1.29100471 0.00367082 0.00000000
1.99645698 1.36120840 -0.00462868 0.00000000
2.41796212 0.47155229 -0.00244964 0.00000000
3.94798626 0.93753523 0.00001347 0.00000000
3.67160495 1.66101797 -0.00078550 0.00000000
1.42270210 0.75147811 0.00002943 0.00000000
0.96754999 0.24582960 0.00201283 0.00000000
2.57032210 0.92799005 0.00388320 0.00000000
0.33355276 0.91883374 -0.00389007 0.00000000
2.91420384 0.69270433 -0.00072027 0.00000000
3.50712957 0.31735701 -0.00058314 0.00000000
1.13445217 1.02652898 0.00260914 0.00000000
1.06714750 1.40549055 -0.00525121 0.00000000
0.44053375 0.92098035 -0.00148536 0.00000000
2.58473626 0.28357832 0.00303433 0.00000000
0.40438324 1.43159355 0.00459210 0.00000000
1.66475308 0.66573911 -0.00188576 0.00000000
2.15463799 1.05338997 -0.00262968 0.00000000
3.25641954 0.12743797 -0.00654850 0.00000000
0.25044454 0.16154294 0.00100085 0.00000000
3.63447139 0.60944129 0.00325631 0.00000000
2.51400469 0.94436314 0.00180190 0.00000000
0.37025499 1.62834705 -0.00027941 0.00000000
0.15718053 1.31861462 0.00346669 0.00000000
4.03669090 0.66829756 -0.00361808 0.00000000
2.22338072 1.52183887 0.00540406 0.00000000
2.19863953 0.41610510 0.00189409 0.00000000
2.58247105 1.71032360 0.00303378 0.00000000
1.01668203 0.41296664 -0.00109625 0.00000000
1.10799281 1.48386478 0.00223017 0.00000000
3.27610053 0.16434935 0.00329519 0.00000000
0.66527808 0.35738291 -0.00265895 0.00000000
3.60906074 1.66356311 0.00289061 0.00000000
3.49856040 0.67298998 -0.00332222 0.00000000
3.15076761 0.97958978 -0.00157005 0.00000000
1.43708526 0.85468869 0.00024321 0.00000000
3.91273743 0.10403378 -0.00235617 0.00000000
3.44148291 1.42189557 -0.00343609 0.00000000
0.63864109 0.81385738 -0.00099202 0.00000000
1.45779297 1.33372630 0.00042628 0.00000000
1.37242973 0.89474167 -0.00123033 0.00000000
3.81015343 0.94976358 0.00108706 0.00000000
1.51028374 0.15414466 -0.00047016 0.00000000
2.65262118 0.65925678 -0.00352898 0.00000000
1.29311187 0.85715249 0.00009544 0.00000000
0.20886087 0.15270436 0.00267933 0.00000000
1.34011883 1.47750039 0.00087398 0.00000000
0.45251254 0.93019570 -0.00105739 0.00000000
3.16720597 0.03130182 0.00501968 0.00000000
3.43800244 1.03939932 -0.00504691 0.00000000
2.86958595 1.04045836 0.00030455 0.00000000
3.32156848 1.49329009 0.00129289 0.00000000
2.63342636 0.10935301 -0.00252265 0.00000000
3.69510007 1.53020137 -0.00536885 0.00000000
3.81780984 1.41726037 -0.00205466 0.00000000
1.00323734 1.65764626 -0.00299405 0.00000000
2.92082550 1.40147443 -0.00005174 0.00000000
0.35773917 1.61934965 0.00117861 0.00000000
0.28386791 1.43988626 -0.00010221 0.00000000
1.16336214 1.00556424 -0.00110950 0.00000000
1.16822251 1.28576850 -0.00270220 0.00000000
1.90209276 1.34924696 0.00133234 0.00000000
2.01544911 1.35532907 0.00068141 0.00000000
0.20531028 1.55780066 -0.00404046 0.00000000
1.02643548 0.30123752 0.00213402 0.00000000
0.45726733 1.55982130 -0.00486477 0.00000000
0.34162664 0.96350616 -0.00012067 0.00000000
0.17970562 0.04485484 -0.00030978 0.00000000
1.00741789 0.55027133 -0.00081250 0.00000000
3.77638605 0.94531014 0.00007918 0.00000000
1.67286537 0.81620020 0.00069989 0.00000000
3.32210279 0.62195954 -0.00090580 0.00000000
2.85063114 0.74591160 0.00111056 0.00000000
0.73551728 0.89899681 -0.00222128 0.00000000
1.29782721 0.26996617 -0.00076405 0.00000000
3.53215636 0.68326692 0.00232660 0.00000000
3.97920649 1.51004801 0.00078686 0.00000000
2.32165953 0.61831942 0.00114239 0.00000000
1.20038741 0.27799163 -0.00340223 0.00000000
1.73724252 0.51333668 -0.00088120 0.00000000
3.26113737 0.03905525 0.00113837 0.00000000
2.03539303 0.97258686 0.00013616 0.00000000
1.01947905 1.63157219 0.00270208 0.00000000
0.66568830 1.45710711 -0.00027992 0.00000000
0.93979396 1.10333962 0.00173103 0.00000000
2.42779513 0.60339753 -0.00180194 0.00000000
2.98021270 0.06177057 0.00426595 0.00000000
3.56274436 0.02177783 0.00070138 0.00000000
2.05537615 0.72000181 -0.00173096 0.00000000
0.35485273 0.84858973 -0.00142802 0.00000000
0.81555542 1.71867068 -0.00144087 0.00000000
3.43641385 0.01489371 0.00318794 0.00000000
3.70879383 0.85563884 -0.00212974 0.00000000
2.52047203 1.55605373 0.00134977 0.00000000
3.72638408 1.34140425 0.00472388 0.00000000
3.93265904 1.28701208 0.00062480 0.00000000
2.51757316 0.25534393 -0.00068239 0.00000000
4.01431012 1.35176716 0.00286011 0.00000000
1.56600918 1.55699951 0.00371155 0.00000000
3.13111301 1.52653462 -0.00124469 0.00000000
0.64767345 1.25028989 0.00129324 0.00000000
2.59841843 0.03180797 -0.00204051 0.00000000
0.46468827 0.47047326 -0.00102179 0.00000000
2.12238304 0.78291764 -0.00336486 0.00000000
2.72924370 0.06897438 -0.00452539 0.00000000
2.19720423 1.19987752 0.00109495 0.00000000
1.63620604 1.12736554 0.00194981 0.00000000
0.70237530 0.57323982 0.00231958 0.00000000
0.79004626 0.40954744 -0.00022609 0.00000000
4.01551375 1.45811578 0.00263135 0.00000000
1.40519718 0.16758559 -0.00024928 0.00000000
2.97230160 1.12260990 0.00499746 0.00000000
3.50971611 1.57972192 -0.00280554 0.00000000
1.41345784 1.52298644 -0.00422130 0.00000000
1.43637168 0.78641546 -0.00321570 0.00000000
3.29008136 0.36664683 -0.00037892 0.00000000
3.82874266 1.45132564 -0.00298295 0.00000000
1.01799130 0.67941168 0.00047083 0.00000000
2.95302202 1.10402539 -0.00517509 0.00000000
1.60746931 0.77257872 0.00270880 0.00000000
0.68718394 1.58174985 0.00144833 0.00000000
2.74642933 0.71277649 0.00029050 0.00000000
0.01311331 0.13879429 0.00299622 0.00000000
0.24290165 0.52380236 -0.00161564 0.00000000
1.32776550 1.00895111 -0.00095198 0.00000000
1.05811781 1.04600279 0.00024825 0.00000000
2.26600970 0.25846748 -0.00120818 0.00000000
1.11065058 1.36375930 -0.00116502 0.00000000
2.51795796 0.31188956 -0.00336195 0.00000000
0.74357068 0.38999891 0.00034901 0.00000000
0.79664803 0.43047665 -0.00018816 0.00000000
3.61182029 0.31009940 0.00016457 0.00000000
3.13129943 0.22939770 -0.00162816 0.00000000
2.40989528 0.02090628 0.00087271 0.00000000
2.22110829 1.57790283 -0.00060783 0.00000000
3.17433064 0.54601454 0.00238320 0.00000000
2.68835990 1.48191737 -0.00142685 0.00000000
0.03602676 0.02682113 0.00048015 0.00000000
1.16004513 0.73423943 -0.00075138 0.00000000
3.53152965 1.37646352 0.00004363 0.00000000
1.91198278 1.43585946 -0.00168374 0.00000000
1.56970516 1.46525929 0.00160917 0.00000000
2.20867214 0.96230996 -0.00217210 0.00000000
3.40601465 0.26228814 0.00104282 0.00000000
2.92410438 0.69181777 0.00464022 0.00000000
2.26777040 1.70062636 0.00022338 0.00000000
1.38149593 0.26102459 -0.00138823 0.00000000
2.32524024 0.04687546 -0.00030379 0.00000000
0.90398078 1.05597666 0.00090393 0.00000000
2.24768126 0.58064578 -0.00276476 0.00000000
0.96026342 1.27797845 -0.00256883 0.00000000
2.07745584 1.00265934 -0.00250211 0.00000000
3.91065542 0.60893362 -0.00208270 0.00000000
1.90935313 0.89897265 0.00011750 0.00000000
0.05706624 1.45876813 0.00204928 0.00000000
0.25987128 0.51651499 -0.00301584 0.00000000
3.14220195 0.38845336 -0.00152157 0.00000000
3.45314366 1.19098546 -0.00068461 0.00000000
1.94104336 0.68359133 -0.00210412 0.00000000
0.85717491 0.85579065 -0.00185433 0.00000000
1.54923288 1.55351251 -0.00323270 0.00000000
3.83935849 1.69835242 0.00341191 0.00000000
0.11814169 0.90038013 -0.00449947 0.00000000
3.25656518 1.34001729 -0.00034182 0.00000000
3.94822601 0.79267007 0.00085552 0.00000000
0.16076980 0.45858597 0.00211283 0.00000000
0.58702434 0.29615451 -0.00208547 0.00000000
1.09845987 1.36239120 -0.00083959 0.00000000
0.43668676 0.58757727 -0.00043481 0.00000000
0.00792829 1.62096302 0.00263304 0.00000000
3.44236348 1.23479353 0.00078556 0.00000000
3.90346063 0.67136161 0.00079159 0.00000000
2.93337688 0.76585089 -0.00220739 0.00000000
3.40073705 0.25694376 0.00651882 0.00000000
0.58029408 1.44467310 0.00031326 0.00000000
0.83148119 0.82388970 -0.00263908 0.00000000
1.02800635 0.36870674 0.00172471 0.00000000
2.99292086 0.01580420 0.00388052 0.00000000
3.94894234 1.59124499 -0.00320638 0.00000000
3.58264778 0.53955474 0.00353662 0.00000000
2.16837874 0.57564133 -0.00264746 0.00000000
1.75943558 0.52252669 0.00054772 0.00000000
1.98379583 1.32395937 -0.00024304 0.00000000
3.94691457 1.67804868 -0.00309479 0.00000000
0.63519871 0.95112775 0.00444738 0.00000000
3.42914026 0.08727561 -0.00035583 0.00000000
1.08358159 0.19865735 -0.00089056 0.00000000
1.89475877 0.83451205 0.00138465 0.00000000
3.54000810 1.08497359 -0.00366834 0.00000000
1.23382821 0.99378532 -0.00473016 0.00000000
0.59060166 0.72498866 0.00229633 0.00000000
0.53028425 1.61749716 -0.00102401 0.00000000
0.77221640 1.11178844 0.00124739 0.00000000
2.05214795 0.83752115 0.00133844 0.00000000
2.04351005 0.14131041 0.00313115 0.00000000
0.15619075 0.40879679 0.00300847 0.00000000
1.49051634 0.53604451 0.00553570 0.00000000
2.73844820 1.29384081 -0.00486491 0.00000000
0.02154631 0.51503690 -0.00307461 0.00000000
2.55362556 1.32055062 0.00031930 0.00000000
3.65416937 0.93595861 -0.00147896 0.00000000
0.29261169 1.53572363 0.00094392 0.00000000
2.38961241 1.52491838 -0.00214812 0.00000000
3.47582717 1.13664536 -0.00067253 0.00000000
1.06057263 0.71386807 0.00064997 0.00000000
0.74105483 0.39603932 -0.00154791 0.00000000
1.94890420 1.12543846 0.00132524 0.00000000
1.80369411 0.14323055 0.00438482 0.00000000
1.98855768 0.50633379 0.00011182 0.00000000
1.28580069 1.02357367 -0.00286372 0.00000000
1.33776487 0.41174513 -0.00169019 0.00000000
1.96731012 0.75501740 -0.00507340 0.00000000
3.21485901 1.14612523 -0.00085582 0.00000000
3.91031912 1.67147349 0.00244763 0.00000000
1.39781073 1.46596561 0.00025858 0.00000000
3.69278315 1.00346933 0.00101398 0.00000000
2.27701424 0.51936792 -0.00124169 0.00000000
2.83866042 1.50155080 0.00007758 0.00000000
1.15436879 1.59940668 0.00002297 0.00000000
1.16856234 0.72356234 -0.00436316 0.00000000
0.03507864 1.51977295 -0.00246115 0.00000000
0.14787401 0.51909438 0.00148659 0.00000000
1.35184771 1.39782007 -0.00017950 0.00000000
0.37031144 0.59594395 0.00270583 0.00000000
2.30425080 1.63094652 0.00160679 0.00000000
0.03311974 1.14006571 0.00159872 0.00000000
1.84605820 1.55188689 -0.00167272 0.00000000
2.41720440 0.09967358 0.00146524 0.00000000
1.57559198 0.63329528 -0.00200034 0.00000000
1.16000387 1.54096924 -0.00505756 0.00000000
0.55873038 0.66078966 -0.00161468 0.00000000
3.83120170 0.23035030 0.00041973 0.00000000
2.08658432 1.41650744 -0.00029254 0.00000000
0.16205130 0.50640031 0.00024428 0.00000000
2.65388889 0.35980903 0.00384507 0.00000000
3.64898054 0.55501209 0.00406919 0.00000000
3.87372136 0.84779864 -0.00239170 0.00000000
1.05871963 1.42083506 0.00503046 0.00000000
2.26479549 1.37909905 0.00016843 0.00000000
3.95268485 1.36814047 -0.00090248 0.00000000
0.60901815 1.24777020 -0.00318999 0.00000000
2.83567184 0.84730282 0.00459767 0.00000000
3.72487958 0.67509342 -0.00301709 0.00000000
1.25576282 0.95612672 0.00295396 0.00000000
1.98259313 0.48226631 -0.00231792 0.00000000
1.52211699 0.57731791 0.00222903 0.00000000
0.15542375 1.07088270 0.00065879 0.00000000
2.63409749 0.64132140 -0.00230456 0.00000000
1.10985520 0.63068879 -0.00421455 0.00000000
2.88321604 0.24687342 0.00011128 0.00000000
1.74706726 1.16762977 0.00422413 0.00000000
1.15212745 1.55609249 0.00091082 0.00000000
0.14415087 0.72781462 0.00097207 0.00000000
0.85111047 1.19900067 -0.00069807 0.00000000
2.82521632 0.45341599 -0.00128457 0.00000000
2.38890669 0.70420664 0.00034641 0.00000000
4.01037078 1.11513913 -0.00504886 0.00000000
2.13841553 1.27604167 0.00163825 0.00000000
2.82444807 1.59055416 0.00289673 0.00000000
1.33603165 1.06190014 0.00240616 0.00000000
1.77438401 0.32343168 -0.00010551 0.00000000
3.84765218 1.47403018 0.00007782 0.00000000
0.91930112 1.06453040 -0.00048793 0.00000000
3.43314188 0.64240065 -0.00129764 0.00000000
1.63838792 1.07544340 0.00248238 0.00000000
2.89804307 1.43891522 -0.00300218 0.00000000
1.73781216 0.69108531 -0.00022804 0.00000000
2.20968575 0.65547285 0.00168695 0.00000000
1.83199053 1.15556158 0.00446435 0.00000000
1.88065508 0.94721804 -0.00600935 0.00000000
3.42251190 1.57086279 -0.00067242 0.00000000
0.66859942 0.53667863 -0.00338641 0.00000000
1.00834987 0.01050452 0.00058115 0.00000000
2.40094984 0.09240096 0.00305942 0.00000000
1.59542204 1.12426998 0.00142711 0.00000000
2.62225258 0.34429763 -0.00093467 0.00000000
1.38918819 0.16592803 0.00042475 0.00000000
0.76203181 0.74447398 -0.00096633 0.00000000
2.78737764 0.66415900 0.00232773 0.00000000
3.15096323 1.57907045 0.00493174 0.00000000
1.37720155 1.63203339 0.00386849 0.00000000
0.51280681 1.57972925 -0.00204418 0.00000000
0.33351259 1.41950241 -0.00075698 0.00000000
0.17833767 0.83007326 -0.00175630 0.00000000
3.57838470 0.50239132 -0.00490249 0.00000000
0.89209085 1.50099572 -0.00211882 0.00000000
2.53004252 0.96023296 -0.00122595 0.00000000
1.71447577 1.70753342 -0.00333924 0.00000000
1.64331604 0.62620335 -0.00145353 0.00000000
2.67730312 1.23640447 0.00181746 0.00000000
2.33019185 0.45531659 0.00020170 0.00000000
3.67236445 0.32328161 -0.00259482 0.00000000
3.92460783 1.56327748 -0.00391665 0.00000000
2.80119874 0.56844646 0.00367042 0.00000000
1.46470658 1.22222560 -0.00248622 0.00000000
2.78069233 1.00109401 -0.00114246 0.00000000
1.83550502 0.02050094 0.00008812 0.00000000
3.58865251 0.10497738 0.00410908 0.00000000
2.81506207 1.29865736 0.00362398 0.00000000
2.51636944 1.07390462 -0.00210882 0.00000000
3.55410010 1.43853979 -0.00302390 0.00000000
0.04175036 1.31134072 -0.00131062 0.00000000
2.57483013 0.47382404 -0.00347156 0.00000000
2.39351085 0.38097633 0.00298744 0.00000000
3.47386339 1.31315952 0.00298464 0.00000000
0.09942976 1.02413132 -0.00359581 0.00000000
0.87154237 0.25250267 -0.00612969 0.00000000
2.85558715 0.96857638 -0.00140765 0.00000000
2.95895099 0.39882961 0.00292671 0.00000000
0.62776707 0.48692487 0.00093863 0.00000000
0.10629479 0.65892041 -0.00036084 0.00000000
1.19734911 1.44330384 -0.00244308 0.00000000
2.98105847 0.58054254 0.00154515 0.00000000
3.03821339 0.85176353 -0.00014985 0.00000000
1.53518245 0.91221418 -0.00359111 0.00000000
1.54014537 1.17052984 0.00046152 0.00000000
0.17875597 0.39609085 0.00017924 0.00000000
3.72494281 0.28242145 0.00302595 0.00000000
0.92746704 0.69462151 0.00072750 0.00000000
0.89787911 0.35897278 0.00273888 0.00000000
1.55003881 0.40370382 0.00316156 0.00000000
2.49915005 0.78361844 0.00336969 0.00000000
2.36661038 1.16358043 -0.00652301 0.00000000
3.84384789 0.17410743 -0.00082600 0.00000000
1.24349623 0.90637442 0.00109473 0.00000000
2.66785334 1.40547847 -0.00334255 0.00000000
3.62987819 1.55758846 -0.00046774 0.00000000
0.27628595 1.69029925 -0.00131083 0.00000000
1.62685091 1.71004196 0.00263523 0.00000000
1.06849416 1.15180226 0.00131810 0.00000000
3.88317129 1.38666402 -0.00188238 0.00000000
0.53416882 0.81065287 -0.00066140 0.00000000
0.98422572 1.63440041 0.00294825 0.00000000
0.97563576 0.78012819 -0.00195390 0.00000000
0.25739211 1.31355806 0.00227056 0.00000000
1.97217179 0.81387850 -0.00121565 0.00000000
3.73007882 0.69475728 0.00044024 0.00000000
3.74861488 1.71573154 0.00854563 0.00000000
3.57986670 1.08208790 -0.00279285 0.00000000
3.90447020 0.64828874 -0.00243060 0.00000000
0.32542597 1.08159145 0.00404731 0.00000000
0.90594270 0.33271560 0.00077846 0.00000000
3.80139796 0.19925584 0.00251984 0.00000000
1.16915701 0.44197451 -0.00096135 0.00000000
1.25233881 0.91204674 -0.00118076 0.00000000
3.80723738 0.60651771 -0.00280011 0.00000000
0.36347103 0.03626650 -0.00186093 0.00000000
3.76478603 0.41981227 0.00032509 0.00000000
4.01659848 0.34350257 0.00274174 0.00000000
3.19316129 1.50973980 0.00052381 0.00000000
4.04806194 0.79681267 -0.00127789 0.00000000
2.91232701 1.53480253 0.00008101 0.00000000
2.68000634 1.13964117 0.00172339 0.00000000
3.94940847 0.17389556 0.00193618 0.00000000
2.02376764 0.79900738 0.00265415 0.00000000
3.66468527 0.36764821 -0.00200878 0.00000000
0.38269108 1.52496309 -0.00437236 0.00000000
1.73579841 1.38814231 -0.00148060 0.00000000
1.21377064 1.35133473 -0.00148657 0.00000000
3.12210805 0.46539808 -0.00383647 0.00000000
0.57467137 0.28116981 -0.00049030 0.00000000
1.47010566 0.90669939 0.00066500 0.00000000
3.96504371 1.08830282 0.00143946 0.00000000
1.63875147 0.04538369 -0.00279047 0.00000000
0.62475744 0.93929033 0.00409432 0.00000000
2.05084326 0.60369505 0.00093142 0.00000000
2.64293386 0.71615425 0.00007944 0.00000000
3.89210118 0.96119722 0.00408135 0.00000000
3.00217809 0.09777373 0.00148626 0.00000000
1.15338886 1.58196725 -0.00109692 0.00000000
0.08469091 1.47376214 0.00026018 0.00000000
1.32529837 1.59569881 -0.00280050 0.00000000
0.28506285 1.31108040 0.00153868 0.00000000
0.45820556 1.41447533 -0.00085146 0.00000000
1.72369655 0.92805923 0.00202158 0.00000000
0.29510185 0.55733339 -0.00083380 0.00000000
3.30929483 0.65079566 0.00421991 0.00000000
1.63323001 0.57471267 0.00149972 0.00000000
0.30151824 0.71076297 -0.00213796 0.00000000
2.47559031 0.80373238 -0.00377198 0.00000000
0.91764632 0.47138369 0.00377802 0.00000000
0.12829776 1.39144356 -0.00311608 0.00000000
3.12028902 0.64234221 -0.00372477 0.00000000
2.29251838 0.66874473 -0.00289587 0.00000000
2.95551528 0.76269921 0.00177446 0.00000000
1.94037561 0.62816478 -0.00322832 0.00000000
2.68610749 0.67103611 0.00487443 0.00000000
1.65589202 1.60275784 0.00048869 0.00000000
2.26962490 1.12392060 0.00068906 0.00000000
0.29929235 0.28630096 -0.00122307 0.00000000
2.24622758 0.82292131 -0.00068760 0.00000000
0.88043246 0.66923355 0.00036039 0.00000000
1.50035112 1.22039449 0.00324049 0.00000000
2.05927299 0.45832025 0.00187933 0.00000000
3.54360024 1.45078554 0.00047430 0.00000000
3.04378460 1.00531656 0.00273006 0.00000000
3.26285435 0.61067464 -0.00011642 0.00000000
0.77452782 0.17915804 -0.00136533 0.00000000
3.06051906 1.15876274 0.00026195 0.00000000
0.31794297 1.25090015 -0.00100323 0.00000000
3.08202718 0.73240164 -0.00148826 0.00000000
0.19610029 0.12940440 -0.00090065 0.00000000
2.47328108 1.04934951 0.00575748 0.00000000
2.64115836 1.25660001 -0.00004285 0.00000000
2.96440697 1.47979543 0.00271691 0.00000000
1.03713203 1.38590518 -0.00219284 0.00000000
2.89543899 0.61028053 -0.00204932 0.00000000
1.34433804 1.25418917 -0.00210104 0.00000000
0.34759521 0.01828959 0.00054073 0.00000000
2.38918709 0.23484905 0.00032529 0.00000000
3.15295114 0.04424892 0.00039435 0.00000000
0.41049815 0.15400210 -0.00021897 0.00000000
2.71564617 1.60184415 -0.00108377 0.00000000
3.25357177 0.13394938 0.00098184 0.00000000
1.67653333 1.18143706 0.00265336 0.00000000
2.20863428 0.88976049 -0.00289423 0.00000000
3.02456608 1.39301233 -0.00145110 0.00000000
2.73754398 1.51414572 0.00097574 0.00000000
3.46985815 0.41657338 0.00351111 0.00000000
1.49569586 1.22861843 -0.00097607 0.00000000
3.07351955 0.94678926 -0.00283794 0.00000000
2.07102585 0.36346613 -0.00349332 0.00000000
1.45370064 1.36440993 0.00410630 0.00000000
1.51672779 1.36653556 -0.00193731 0.00000000
3.78275783 1.15550579 0.00313135 0.00000000
3.97385296 0.97621815 -0.00681082 0.00000000
1.47673576 0.47670148 0.00345704 0.00000000
3.49871994 1.42796563 0.00156766 0.00000000
1.55878153 1.00311056 -0.00058246 0.00000000
1.16321944 0.84254079 -0.00144418 0.00000000
3.63884792 1.35224107 -0.00425064 0.00000000
0.23543704 0.32877044 0.00384773 0.00000000
0.63494960 0.13303066 0.00252845 0.00000000
1.57584601 0.85821214 0.00288840 0.00000000
2.22941211 0.43841629 -0.00049877 0.00000000
3.45252398 0.90408367 0.00054216 0.00000000
1.31084316 0.41456358 0.00249504 0.00000000
2.89542515 1.31779651 -0.00226788 0.00000000
4.01552078 0.62186258 -0.00311448 0.00000000
2.13750479 0.56183631 0.00133675 0.00000000
2.41979033 0.12653521 0.00367576 0.00000000
2.13709894 0.42464207 0.00275519 0.00000000
1.14452802 1.15270978 0.00128175 0.00000000
0.69082902 0.38808736 -0.00048270 0.00000000
3.88849174 0.72966355 -0.00010250 0.00000000
2.83308991 0.92260617 0.00265618 0.00000000
2.55486238 1.30716333 -0.00092779 0.00000000
0.30104427 0.49674980 0.00033575 0.00000000
0.40462600 1.50046532 -0.00184161 0.00000000
2.54945634 1.22930926 0.00159336 0.00000000
3.34474921 0.45685023 -0.00102022 0.00000000
2.88366556 0.11025348 -0.00572395 0.00000000
2.18347179 1.17320356 0.00113990 0.00000000
3.57751436 1.28988190 0.00017725 0.00000000
1.42531327 0.63594655 0.00322432 0.00000000
1.31053024 0.41035852 -0.00077717 0.00000000
2.31590536 0.99552824 0.00276725 0.00000000
1.92398064 0.93516917 -0.00238836 0.00000000
3.23912543 1.63175482 0.00059814 0.00000000
0.62414964 0.88412990 -0.00360158 0.00000000
4.03425035 0.97197197 0.00193404 0.00000000
1.06127886 1.09442199 -0.00169049 0.00000000
1.81059825 0.84501291 0.00047761 0.00000000
0.67685561 1.53774325 0.00116460 0.00000000
3.67178141 1.71290497 -0.00005344 0.00000000
0.43551218 0.33592747 0.00165436 0.00000000
2.01841231 1.49681480 0.00016718 0.00000000
2.58355940 0.33206642 0.00441949 0.00000000
3.50121222 1.24344688 0.00231429 0.00000000
0.05338665 1.03207949 0.00128514 0.00000000
2.11632028 0.23744803 -0.00141361 0.00000000
0.82701521 1.01640713 -0.00029790 0.00000000
3.92636959 0.83153505 -0.00144849 0.00000000
0.38270416 1.45157867 -0.00299301 0.00000000
2.07864479 0.63308689 0.00231060 0.00000000
1.12687414 0.87651906 0.00019007 0.00000000
3.86697270 1.39291167 0.00189954 0.00000000
2.40784957 0.71691901 0.00274125 0.00000000
1.76750512 0.60527316 0.00204431 0.00000000
0.12547780 0.97709772 0.00204039 0.00000000
0.59935266 0.66651774 -0.00570878 0.00000000
2.72378583 0.32944736 0.00131833 0.00000000
2.93051190 0.35829352 -0.00288576 0.00000000
3.68566098 1.70147973 -0.00212489 0.00000000
2.96715575 0.44133477 0.00163808 0.00000000
0.28791586 1.34779120 -0.00121907 0.00000000
1.67156641 0.51668218 0.00518847 0.00000000
2.61947913 1.59389768 -0.00105597 0.00000000
0.80380405 1.15896547 0.00200199 0.00000000
2.30946505 1.46370360 -0.00162630 0.00000000
0.59646242 0.33670398 -0.00063922 0.00000000
3.41144257 1.09714657 0.00308655 0.00000000
0.48567040 0.26240475 0.00282286 0.00000000
3.69241263 1.31749278 -0.00092348 0.00000000
0.51389628 0.96931866 -0.00270165 0.00000000
3.27445526 1.37804732 -0.00111215 0.00000000
0.72040083 1.40893323 0.00058303 0.00000000
2.76234927 1.17976878 -0.00219776 0.00000000
3.00567299 0.34131381 0.00557721 0.00000000
3.27402309 1.38690278 -0.00073856 0.00000000
1.70847217 1.03066912 0.00462869 0.00000000
1.65840482 0.15567719 0.00113376 0.00000000
0.97923087 0.69521781 0.00035175 0.00000000
2.85041527 0.44442177 0.00134095 0.00000000
2.66568661 0.02507335 0.00102611 0.00000000
0.33391873 0.56978219 -0.00322670 0.00000000
2.45814580 0.26715351 0.00150113 0.00000000
4.03995591 1.65607287 0.00055331 0.00000000
3.27203745 0.43830370 -0.00199732 0.00000000
0.34195121 1.61021314 0.00013005 0.00000000
3.10213233 1.17162853 -0.00271761 0.00000000
1.43031545 0.19864285 0.00189890 0.00000000
0.46434620 0.88909611 0.00154126 0.00000000
3.99214164 0.20404100 -0.00350607 0.00000000
0.78017170 0.57662246 0.00430140 0.00000000
3.01062573 1.61120414 -0.00392653 0.00000000
3.37747734 0.96486441 0.00008868 0.00000000
0.77522872 1.64710183 0.00226779 0.00000000
2.43659806 0.54986083 -0.00219297 0.00000000
0.38395322 0.17500663 -0.00062499 0.00000000
0.64942930 1.39572984 0.00335127 0.00000000
2.33763148 1.10647737 0.00160276 0.00000000
1.80190348 0.99399007 0.00223630 0.00000000
3.34121939 0.87637730 0.00608720 0.00000000
2.10899505 1.51158145 -0.00263107 0.00000000
2.51634773 1.47064877 0.00140973 0.00000000
3.83440106 0.46169126 0.00303601 0.00000000
0.12320497 0.97074787 0.00364336 0.00000000
3.66183845 0.25400610 0.00342480 0.00000000
2.86238858 0.87964043 -0.00005389 0.00000000
1.97358686 0.23114651 -0.00293819 0.00000000
1.77426960 1.70371201 0.00026989 0.00000000
1.70954043 0.75980411 -0.00249840 0.00000000
3.11963298 1.65027724 0.00275655 0.00000000
0.95744400 0.82939832 -0.00096229 0.00000000
0.26428767 1.53975565 -0.00138875 0.00000000
1.44962837 1.14100490 0.00276333 0.00000000
3.82491273 0.46020070 0.00343074 0.00000000
1.43672625 0.68453711 -0.00005307 0.00000000
1.42702056 0.60497271 -0.00246736 0.00000000
0.25327162 0.43380814 -0.00043015 0.00000000
1.76463324 1.10045026 0.00081230 0.00000000
0.39230981 0.95150389 0.00441797 0.00000000
0.31137522 1.24357395 0.00239513 0.00000000
0.64588987 0.16895133 -0.00058448 0.00000000
2.33702906 0.77494418 0.00110752 0.00000000
3.76597369 0.52385374 -0.00021856 0.00000000
0.49332188 1.13502429 -0.00626736 0.00000000
0.05372840 0.45989553 0.00056660 0.00000000
0.01652918 0.67153585 0.00418068 0.00000000
3.98048258 0.28936026 -0.00162468 0.00000000
3.75879547 0.50431878 -0.00069908 0.00000000
3.39101513 0.83849557 -0.00406907 0.00000000
2.09838484 1.34507185 0.00251160 0.00000000
0.86682012 0.00694735 0.00169156 0.00000000
1.72673631 1.18040004 -0.00216489 0.00000000
3.47285433 0.46598460 0.00066563 0.00000000
1.64449710 1.45175300 -0.00207629 0.00000000
2.96558758 1.55910243 -0.00308632 0.00000000
1.54914928 0.12471321 0.00022415 0.00000000
3.04070458 0.90057401 0.00096235 0.00000000
1.96861717 0.48505486 -0.00191637 0.00000000
0.45411162 1.41867502 0.00111695 0.00000000
2.69832417 0.09051522 -0.00053822 0.00000000
0.79632633 0.67072443 0.00076787 0.00000000
1.38194966 0.09188767 -0.00580821 0.00000000
0.06967071 1.59616577 -0.00062259 0.00000000
2.80132789 0.75494751 -0.00285061 0.00000000
2.04352525 1.41784412 -0.00027378 0.00000000
3.65628117 0.27302942 0.00031347 0.00000000
1.14974279 1.48115456 -0.00084353 0.00000000
3.68899405 0.92064522 -0.00477024 0.00000000
2.63562171 0.82479559 -0.00050246 0.00000000
2.75625393 1.58288977 0.00381237 0.00000000
3.86918207 0.98842946 0.00212015 0.00000000
1.91994687 0.52674330 0.00025180 0.00000000
2.09666976 1.07212331 -0.00302380 0.00000000
3.29058707 0.66945675 0.00137165 0.00000000
2.18442470 1.13758308 -0.00021287 0.00000000
2.25527892 0.33822761 0.00139090 0.00000000
1.80158438 0.55647498 -0.00162515 0.00000000
1.00468124 0.49827350 0.00399231 0.00000000
1.08381148 1.40506338 -0.00083354 0.00000000
0.16744578 0.89942493 -0.00222758 0.00000000
0.26954674 1.11508649 0.00179942 0.00000000
2.95798935 1.20740813 0.00470170 0.00000000
0.01809932 1.12593817 -0.00170801 0.00000000
1.94124123 1.40638780 -0.00051309 0.00000000
0.95959875 0.23009485 -0.00253249 0.00000000
3.96646195 0.26148592 -0.00127515 0.00000000
2.30678453 0.43044228 -0.00054280 0.00000000
1.84268040 0.70472974 -0.00382753 0.00000000
2.48133556 1.14747056 -0.00083304 0.00000000
1.04495145 1.32670037 -0.00326721 0.00000000
3.78481052 0.05803250 0.00192208 0.00000000
0.70671254 0.64420851 -0.00101668 0.00000000
2.28465562 0.90801812 -0.00235422 0.00000000
1.59785782 1.09398300 0.00443335 0.00000000
3.52983753 0.54747492 0.00007367 0.00000000
2.05817331 0.74085821 0.00222551 0.00000000
0.00779045 0.14073752 -0.00341477 0.00000000
2.75829592 1.41856553 -0.00057371 0.00000000
3.78183911 1.09962362 0.00175984 0.00000000
3.90752666 0.26370592 -0.00074108 0.00000000
3.69485934 0.80156184 -0.00356213 0.00000000
1.06574521 0.08720781 -0.00103523 0.00000000
1.31917832 0.15537784 0.00017424 0.00000000
2.04458792 1.69641439 -0.00300033 0.00000000
0.77620442 0.61219313 0.00067258 0.00000000
2.47655144 0.21980545 0.00174652 0.00000000
3.76403859 1.50206254 0.00218818 0.00000000
2.99110967 1.16913281 0.00020951 0.00000000
0.81984224 1.06308910 -0.00058610 0.00000000
3.71243010 1.04023327 -0.00171214 0.00000000
3.93089798 0.60267134 0.00021511 0.00000000
3.73242935 0.11351974 0.00047600 0.00000000
1.09860730 1.42781568 0.00214136 0.00000000
2.52805930 0.98874765 -0.00116568 0.00000000
3.23458432 0.66600775 0.00453164 0.00000000
1.31073255 0.23098959 -0.00211980 0.00000000
2.86378441 0.26164102 -0.00197319 0.00000000
2.53139922 1.55169870 0.00269098 0.00000000
2.40119503 0.49381073 -0.00382293 0.00000000
1.78692879 0.32977041 0.00142825 0.00000000
1.27825951 0.94134913 -0.00180766 0.00000000
2.11839881 1.09675880 -0.00167519 0.00000000
3.28251939 1.36025956 0.00246274 0.00000000
0.14506019 0.54678352 -0.00098001 0.00000000
1.52975785 1.46182442 -0.00141276 0.00000000
2.83336421 0.85417791 0.00177058 0.00000000
2.80482607 1.67918849 0.00532902 0.00000000
3.13953104 1.21108697 0.00128980 0.00000000
3.85412506 1.47305106 -0.00386346 0.00000000
0.17770339 1.16702218 -0.00043874 0.00000000
1.71108036 0.53703595 -0.00006769 0.00000000
1.74768921 1.11387442 -0.00267540 0.00000000
2.65588821 1.06523167 -0.00147488 0.00000000
0.37002235 0.42338187 -0.00201265 0.00000000
2.69006700 0.04985938 0.00036567 0.00000000
3.01544298 0.86251659 -0.00488115 0.00000000
1.44499487 0.26256082 -0.00334568 0.00000000
3.05662138 1.03929990 0.00066816 0.00000000
2.95321030 0.75215567 0.00161438 0.00000000
2.21222903 1.50397276 0.00420253 0.00000000
0.00978633 0.12831242 -0.00035943 0.00000000
0.07652521 0.68043476 0.00090071 0.00000000
2.39533865 0.59885416 0.00000356 0.00000000
0.17097659 1.61131306 0.00392947 0.00000000
2.99754343 0.17044284 -0.00215640 0.00000000
3.77774884 0.30525863 0.00427751 0.00000000
1.27255851 0.76758060 -0.00067571 0.00000000
1.26102655 1.25276734 -0.00255679 0.00000000
0.80506245 0.47218969 -0.00223746 0.00000000
2.67456011 1.21715686 -0.00202361 0.00000000
0.27842373 1.30729961 0.00127398 0.00000000
2.87016585 1.55081576 -0.00211004 0.00000000
3.58268967 0.34265010 -0.00100136 0.00000000
3.62672707 0.91634237 0.00286808 0.00000000
0.96687971 0.69715434 -0.00375783 0.00000000
1.17038428 1.38050428 0.00125476 0.00000000
0.87131324 0.36785925 0.00167326 0.00000000
1.29170703 0.64505470 0.00385762 0.00000000
0.08934054 1.18095624 0.00166342 0.00000000
3.75180741 0.01739303 -0.00012494 0.00000000
1.75367439 1.34584109 0.00209066 0.00000000
2.46012515 1.43502868 0.00399568 0.00000000
0.37111164 0.84030949 -0.00115002 0.00000000
2.55321925 0.04482217 -0.00222399 0.00000000
2.72708701 1.02951839 0.00071275 0.00000000
2.72977421 0.41145503 -0.00200107 0.00000000
0.14872451 0.19984653 0.00332684 0.00000000
3.33802633 0.35699761 -0.00004477 0.00000000
1.06424365 1.38199107 0.00562075 0.00000000
1.01370238 1.57590212 0.00695045 0.00000000
2.01371271 0.29285370 0.00060031 0.00000000
2.48670369 1.32132338 -0.00137632 0.00000000
2.85742670 0.71489125 0.00605481 0.00000000
1.40905871 0.15097138 0.00570925 0.00000000
2.62140220 0.67206682 -0.00023179 0.00000000
2.41150268 0.74322736 0.00012697 0.00000000
0.96055081 1.22505787 -0.00198778 0.00000000
2.19872100 0.63855155 0.00136805 0.00000000
1.97681659 0.99286500 -0.00386769 0.00000000
1.27052203 0.08303690 -0.00165606 0.00000000
2.50930827 0.57350611 -0.00242984 0.00000000
3.34764216 0.46876683 -0.00096322 0.00000000
2.81907796 0.48198063 0.00062080 0.00000000
1.13433894 1.59913916 -0.00061138 0.00000000
2.08658799 0.10604386 -0.00352611 0.00000000
3.42598749 1.38111514 -0.00286877 0.00000000
1.97109677 0.02994872 -0.00278528 0.00000000
0.28100368 0.40032021 -0.00416414 0.00000000
3.12733300 0.69635560 0.00183814 0.00000000
0.22015413 0.06466121 0.00397338 0.00000000
3.25080393 0.83259586 -0.00251502 0.00000000
2.49538588 0.16234429 0.00089691 0.00000000
3.58459752 1.08455800 0.00014528 0.00000000
1.71682206 0.68156318 -0.00205459 0.00000000
1.24520901 0.22781531 -0.00275250 0.00000000
0.45890957 1.38425685 0.00002977 0.00000000
3.74860425 1.54404557 0.00076983 0.00000000
3.99686774 0.82342414 -0.00312578 0.00000000
1.93414575 1.63550261 0.00111729 0.00000000
2.81993346 0.34626262 0.00146679 0.00000000
3.60401170 0.47284108 -0.00322111 0.00000000
2.21529703 0.92400316 0.00169627 0.00000000
3.16180254 1.16142934 -0.00111974 0.00000000
0.74527285 0.14189248 -0.00406588 0.00000000
1.89314629 0.10243516 -0.00049163 0.00000000
0.45795890 0.99690375 0.00092341 0.00000000
3.61604260 0.96613196 0.00246930 0.00000000
0.79493667 1.53175603 -0.00122632 0.00000000
0.89831197 1.66526186 0.00126725 0.00000000
0.59705863 1.65842596 0.00055348 0.00000000
1.23584816 0.39241746 0.00111349 0.00000000
2.37403035 0.88860896 -0.00309245 0.00000000
1.24165748 0.97362064 0.00117472 0.00000000
0.85453364 1.11054127 -0.00448738 0.00000000
3.07348178 1.67048589 -0.00105959 0.00000000
2.66817368 0.88960014 0.00240500 0.00000000
3.45346964 1.59762048 0.00188374 0.00000000
1.05161791 0.39761544 -0.00524847 0.00000000
3.66973476 0.22915606 0.00013500 0.00000000
0.20343613 0.44549424 0.00011123 0.00000000
2.80198184 1.51114863 0.00203510 0.00000000
3.58071966 1.04110229 0.00002190 0.00000000
2.71355112 0.48345391 0.00227971 0.00000000
0.33140794 1.45622888 -0.00055496 0.00000000
3.84195955 1.67767673 0.00058265 0.00000000
0.11241539 0.22737786 0.00450161 0.00000000
2.14310959 0.75791832 -0.00286607 0.00000000
3.28368539 0.40573352 0.00430170 0.00000000
0.73577586 0.04820497 -0.00125744 0.00000000
1.02241995 0.44102134 -0.00112664 0.00000000
3.80641777 1.51344568 0.00638293 0.00000000
1.42304135 0.21406520 -0.00042276 0.00000000
3.66458487 1.39478292 -0.00070720 0.00000000
2.06551082 0.65239551 -0.00238686 0.00000000
0.42297962 0.42746317 0.00061796 0.00000000
0.96655689 1.47391857 0.00063146 0.00000000
1.19582145 1.19993652 -0.00317834 0.00000000
0.38796415 0.71049249 -0.00462488 0.00000000
1.86706084 1.71225034 -0.00114905 0.00000000
0.63496476 0.71337236 -0.00177820 0.00000000
1.56196467 0.18842903 -0.00394955 0.00000000
0.44150634 0.77070538 -0.00258417 0.00000000
0.84227218 0.01722966 0.00193581 0.00000000
1.24925640 0.28042387 -0.00182626 0.00000000
1.54185752 0.47280160 -0.00192703 0.00000000
0.10091043 0.81239646 0.00360574 0.00000000
2.94825725 1.23405577 -0.00088282 0.00000000
