3.82352494 1.94859765 -0.00022805 0.00000000
4.08100834 1.87140872 -0.00044918 0.00000000
0.44592699 1.42263862 0.00150045 0.00000000
0.85168079 0.82899265 -0.00248297 0.00000000
1.97592198 1.13032698 0.00151767 0.00000000
1.72183639 2.11804334 -0.00170483 0.00000000
0.84011666 0.03055710 0.00056547 0.00000000
3.81553351 1.63569891 -0.00372389 0.00000000
2.81566148 0.18757466 -0.00271291 0.00000000
0.40455412 1.28350523 -0.00037721 0.00000000
1.90462180 0.18453858 -0.00499886 0.00000000
0.73258471 1.96771220 0.00136842 0.00000000
4.00319604 1.08510870 0.00103117 0.00000000
2.34702855 2.10726422 0.00201760 0.00000000
2.57098295 1.09902548 -0.00139140 0.00000000
0.47976574 1.14187815 -0.00319318 0.00000000
3.48106188 0.98534872 -0.00251828 0.00000000
2.02113227 1.88361792 0.00765918 0.00000000
2.46586278 0.03240977 -0.00034883 0.00000000
0.42499595 0.55858387 0.00100894 0.00000000
3.85392642 1.67932384 -0.00266688 0.00000000
1.07121777 0.50888011 -0.00337775 0.00000000
2.29412902 2.08009855 0.00134679 0.00000000
1.96337342 1.67140849 -0.00061731 0.00000000
0.46154394 0.08374231 -0.00085690 0.00000000
0.31616836 0.34154451 -0.00240126 0.00000000
1.70116276 1.20067095 -0.00248194 0.00000000
1.62135553 0.21660048 -0.00023398 0.00000000
3.73080521 1.74030788 0.00318104 0.00000000
2.17688999 1.12141661 -0.00301485 0.00000000
1.18068124 1.73982324 0.00053465 0.00000000
3.35594835 1.61989686 -0.00052837 0.00000000
1.30912971 0.33908563 0.00499699 0.00000000
2.48475805 0.63327726 0.00087276 0.00000000
2.47917174 0.98226872 -0.00002989 0.00000000
0.11969054 1.21975835 0.00061386 0.00000000
0.42588513 0.80091140 0.00101916 0.00000000
2.56449976 0.09240711 -0.00074789 0.00000000
0.96995125 1.92119210 -0.00151066 0.00000000
3.27714447 0.37635618 -0.00079138 0.00000000
0.23297398 2.06725785 0.00208953 0.00000000
2.52516098 0.63499995 -0.00242941 0.00000000
3.50492772 2.20644895 -0.00110328 0.00000000
0.69805236 0.83170315 -0.00146112 0.00000000
3.79557867 0.98072588 0.00540185 0.00000000
2.50532321 1.46802728 -0.00253916 0.00000000
0.22669882 0.56807037 -0.00470146 0.00000000
3.42415637 0.73857442 0.00293916 0.00000000
0.48262254 0.85341991 0.00148129 0.00000000
4.14121573 2.07129098 0.00178206 0.00000000
3.22289508 0.77586074 -0.00094643 0.00000000
2.16175367 0.39996052 -0.00187647 0.00000000
0.41938909 1.33908628 0.00278653 0.00000000
3.63591638 1.12536117 -0.00078497 0.00000000
0.31185296 1.40700922 0.00085769 0.00000000
1.23713032 2.16660656 -0.00242510 0.00000000
2.32410997 0.74314540 -0.00117196 0.00000000
2.73829673 1.62715271 0.00220329 0.00000000
3.42005487 1.84093407 -0.00167173 0.00000000
2.28787628 1.83958192 -0.00351892 0.00000000
0.51062077 1.85866722 0.00179644 0.00000000
0.10992778 1.13965641 -0.00234772 0.00000000
1.92095172 1.31626050 0.00285464 0.00000000
3.24398863 2.21763111 -0.00007977 0.00000000
1.54891959 1.43134594 0.00108681 0.00000000
2.00809570 1.90063900 0.00079375 0.00000000
2.45301243 1.96066086 -0.00347081 0.00000000
1.38036965 1.98195973 -0.00131456 0.00000000
1.89508055 0.23217669 -0.00392139 0.00000000
3.57829592 0.78687110 -0.00332086 0.00000000
2.57676282 2.07675652 -0.00015340 0.00000000
0.40270011 1.39384293 -0.00381453 0.00000000
2.38033380 0.79342380 -0.00509439 0.00000000
3.06044048 1.77965241 0.00778431 0.00000000
0.81729339 0.09751318 -0.00060604 0.00000000
0.05933108 0.63384844 0.00157993 0.00000000
1.61551516 1.86597816 0.00290499 0.00000000
0.03284332 1.32586037 -0.00151358 0.00000000
0.85201674 1.39571028 -0.00085321 0.00000000
0.23223529 1.90113720 0.00174840 0.00000000
1.98381583 0.59600834 -0.00112091 0.00000000
2.99716599 0.10759160 -0.00058925 0.00000000
3.91952158 0.38845203 -0.00183445 0.00000000
1.26732851 0.28294464 -0.00435974 0.00000000
1.83904762 1.48932339 -0.00204458 0.00000000
0.55624888 0.20958917 0.00514956 0.00000000
1.24694635 0.92408770 0.00177626 0.00000000
0.53578085 2.07234544 -0.00033251 0.00000000
0.34608793 1.99572639 -0.00031391 0.00000000
3.01939375 1.68728702 0.00119449 0.00000000
4.06261311 1.45367050 0.00409915 0.00000000
0.05768838 0.29679403 -0.00215582 0.00000000
4.15939656 0.04655809 0.00060659 0.00000000
3.46915507 0.37657866 0.00053943 0.00000000
0.26136823 0.47729787 -0.00255725 0.00000000
0.06694292 1.32602618 -0.00479283 0.00000000
2.11589786 1.27537312 0.00019617 0.00000000
3.54536675 2.20294530 0.00273330 0.00000000
2.73217212 1.96066279 0.00107518 0.00000000
2.97110128 0.64899549 0.00014464 0.00000000
4.09097421 1.71667314 0.00272823 0.00000000
1.26228313 0.96227918 0.00104860 0.00000000
0.38533066 1.32334921 0.00085204 0.00000000
3.86692938 1.57516197 -0.00417467 0.00000000
0.35001582 0.51568393 -0.00249346 0.00000000
0.29279402 0.13865248 -0.00242356 0.00000000
1.27498185 0.88410097 0.00211799 0.00000000
3.24525483 1.48641080 0.00395466 0.00000000
1.35587682 0.78091347 0.00033168 0.00000000
0.69456181 1.06559249 -0.00194091 0.00000000
0.98174054 1.66668083 -0.00371487 0.00000000
2.03473920 0.06716054 0.00294590 0.00000000
1.81616291 1.62518873 0.00039018 0.00000000
0.67969113 1.53631073 0.00037022 0.00000000
3.04518289 1.52984636 -0.00088412 0.00000000
3.32458385 0.23497605 0.00013346 0.00000000
2.57531617 1.24443942 0.00329675 0.00000000
1.64441425 1.94833484 0.00141590 0.00000000
2.73584579 1.16847288 -0.00013511 0.00000000
0.90526512 0.27243669 -0.00405545 0.00000000
2.07197785 1.61214917 -0.00082724 0.00000000
4.19919870 0.05331675 0.00125175 0.00000000
1.33668959 1.19628456 0.00622627 0.00000000
0.98380841 1.27710899 -0.00109482 0.00000000
2.75143009 1.67763198 -0.00095826 0.00000000
0.38393380 1.00765894 -0.00138499 0.00000000
1.66205453 0.36005658 -0.00242038 0.00000000
4.09367336 1.69012141 0.00236775 0.00000000
2.43803269 2.01764310 0.00084042 0.00000000
2.76644640 1.60002254 -0.00014682 0.00000000
0.97867544 0.14875137 0.00215808 0.00000000
3.68905355 2.13286297 0.00133526 0.00000000
3.45720655 0.93909167 -0.00175121 0.00000000
1.08977669 1.01536408 -0.00027936 0.00000000
4.07126647 1.69011707 0.00314011 0.00000000
2.10724720 0.16021379 0.00257350 0.00000000
0.14894936 0.80283035 -0.00709982 0.00000000
3.66617883 0.28363517 -0.00119954 0.00000000
1.61223824 2.10162286 -0.00303780 0.00000000
2.86999783 1.71421846 -0.00493230 0.00000000
0.20598282 1.15815372 0.00174821 0.00000000
3.02799104 0.72634772 0.00325929 0.00000000
4.23298813 1.80968357 -0.00179538 0.00000000
3.61257705 0.20435099 0.00164646 0.00000000
2.34840504 1.25660443 0.00246810 0.00000000
3.04461139 0.36492211 0.00401115 0.00000000
2.45821142 0.12194796 0.00646706 0.00000000
1.17940425 1.84756462 0.00305528 0.00000000
1.65599106 1.25978335 0.00014246 0.00000000
1.47128303 0.99712153 0.00210653 0.00000000
1.36429770 0.49627560 -0.00231668 0.00000000
3.82162656 0.50641436 -0.00197541 0.00000000
1.53094490 0.30243176 0.00539742 0.00000000
1.20211719 0.40107290 0.00134473 0.00000000
2.16924975 1.75865661 -0.00100200 0.00000000
1.55030670 2.11962859 0.00639243 0.00000000
0.95361647 1.76861977 0.00351061 0.00000000
2.58154252 1.04881904 -0.00261161 0.00000000
1.56172930 1.16527375 -0.00114124 0.00000000
1.71332631 0.15586289 -0.00414481 0.00000000
3.32872666 1.02745104 -0.00383214 0.00000000
1.44684674 0.78086735 -0.00037488 0.00000000
3.09426900 0.87429466 0.00090575 0.00000000
3.58636596 1.81268052 -0.00256151 0.00000000
3.54579367 0.19926006 0.00256056 0.00000000
3.74038242 0.65063698 -0.00174955 0.00000000
1.93153398 0.24160906 -0.00176933 0.00000000
2.87404955 0.90483601 -0.00164744 0.00000000
2.04961034 0.71972525 0.00338968 0.00000000
1.83167174 0.29267465 -0.00149594 0.00000000
0.23260704 2.01770181 -0.00073922 0.00000000
3.00605810 1.09151346 -0.00374949 0.00000000
3.87516433 1.20578080 0.00164548 0.00000000
3.30600549 1.49787488 -0.00407710 0.00000000
1.15709789 0.96381718 0.00230821 0.00000000
2.64222295 1.66374042 0.00079541 0.00000000
2.72213882 0.76312422 -0.00128354 0.00000000
2.01445206 1.13012019 -0.00104570 0.00000000
0.08053767 1.31183505 -0.00145241 0.00000000
1.83986654 1.86965189 0.00146782 0.00000000
3.53361476 0.19541183 0.00444914 0.00000000
0.30306688 0.53021499 0.00103535 0.00000000
2.02099261 1.60868775 0.00089666 0.00000000
2.56778404 1.63281999 0.00017059 0.00000000
1.78862388 0.01143574 -0.00148407 0.00000000
2.59355216 0.64978473 -0.00188008 0.00000000
1.00127291 2.20421026 0.00063059 0.00000000
0.43398242 1.66540850 0.00312940 0.00000000
4.23837426 0.64039323 -0.00014711 0.00000000
0.03968650 0.80634601 -0.00167487 0.00000000
4.15880762 1.11170997 0.00255790 0.00000000
2.32358994 0.84414046 0.00427142 0.00000000
2.94708704 0.83806002 -0.00116190 0.00000000
1.12525869 2.02875871 0.00017431 0.00000000
0.83160326 0.41579118 -0.00053684 0.00000000
2.13959657 0.41897710 0.00215775 0.00000000
3.35483146 2.01356090 0.00271609 0.00000000
3.93133258 1.14751046 0.00054184 0.00000000
0.19071895 0.91141849 0.00117892 0.00000000
2.87248254 1.21722476 -0.00305782 0.00000000
1.34181412 0.43813522 0.00164657 0.00000000
2.16426115 0.62335117 -0.00168783 0.00000000
3.24877888 0.66267162 0.00076610 0.00000000
1.46025986 1.99970692 -0.00038548 0.00000000
0.10645695 1.33850119 -0.00016565 0.00000000
2.51217287 1.46171921 0.00135128 0.00000000
0.34971035 0.85531278 -0.00347243 0.00000000
3.17726687 1.47882957 -0.00160809 0.00000000
2.21530986 0.77132752 0.00025315 0.00000000
3.26237268 1.83030286 0.00187389 0.00000000
4.12345331 1.86192472 -0.00253597 0.00000000
0.09698265 0.47491866 -0.00198774 0.00000000
2.93010044 0.28269284 -0.00034946 0.00000000
2.71140714 1.19007715 0.00133202 0.00000000
2.69205558 1.34177595 0.00385980 0.00000000
2.02623598 0.11084178 0.00302044 0.00000000
0.58295014 0.87324008 -0.00469409 0.00000000
3.85886528 0.42324923 -0.00213308 0.00000000
0.89900946 1.64133144 0.00179064 0.00000000
2.72967364 0.25721718 0.00256527 0.00000000
2.97921945 0.63474566 0.00080088 0.00000000
3.31394828 0.54084402 0.00184496 0.00000000
0.93474869 0.57865897 -0.00088482 0.00000000
0.54188560 0.79810844 -0.00263062 0.00000000
3.58493606 1.21637350 -0.00085204 0.00000000
0.26929109 1.67645819 0.00171248 0.00000000
1.54630952 0.72202917 0.00213195 0.00000000
0.68263606 0.57954313 0.00008582 0.00000000
0.78585633 1.75622811 -0.00001813 0.00000000
3.86208197 0.17694374 -0.00038071 0.00000000
1.27583962 1.99858428 -0.00171440 0.00000000
2.26311761 0.49863449 0.00094564 0.00000000
2.17852414 0.53143277 -0.00042823 0.00000000
1.24769625 1.07940619 0.00074162 0.00000000
2.54790677 0.33798111 0.00056010 0.00000000
2.37593832 1.33465256 0.00164334 0.00000000
2.15262582 1.31381128 -0.00235411 0.00000000
3.12625882 0.14583317 0.00268058 0.00000000
3.07646897 0.44870366 -0.00094772 0.00000000
0.83521908 0.64662444 -0.00260357 0.00000000
0.16796116 0.36679434 -0.00010757 0.00000000
3.71689178 0.12593348 -0.00089041 0.00000000
0.32313931 0.17963105 -0.00166156 0.00000000
2.90814737 1.20198250 0.00383578 0.00000000
1.58189950 1.66985457 -0.00322748 0.00000000
0.80532107 2.02456282 -0.00375460 0.00000000
0.70022046 0.27274418 0.00111516 0.00000000
2.58601282 0.05742526 -0.00268383 0.00000000
3.53558009 0.35508069 0.00253606 0.00000000
3.97755888 0.42050744 0.00187944 0.00000000
4.25183377 0.25730958 -0.00025658 0.00000000
3.27618546 1.37656501 -0.00241820 0.00000000
0.74079774 1.56553447 0.00338610 0.00000000
0.06988747 1.95778377 0.00023205 0.00000000
2.71892615 0.76349187 0.00054439 0.00000000
2.49781512 0.50781297 -0.00141953 0.00000000
1.78062878 1.82596697 -0.00053414 0.00000000
3.88020902 2.16561391 0.00003915 0.00000000
3.10002597 2.18697573 -0.00353887 0.00000000
0.32463109 1.07513269 -0.00039031 0.00000000
0.44388507 2.19765671 0.00312695 0.00000000
1.34227932 1.05891270 -0.00294341 0.00000000
0.13266045 1.29693293 -0.00177686 0.00000000
0.79032243 0.40743211 -0.00330430 0.00000000
0.43177758 2.10861895 0.00373808 0.00000000
2.52484106 1.31262123 0.00222460 0.00000000
1.53591261 0.10174515 0.00148147 0.00000000
4.05579296 1.79506165 -0.00130534 0.00000000
2.29041366 1.94976815 0.00079877 0.00000000
1.20826322 1.76625174 0.00315121 0.00000000
0.30147583 0.62301540 -0.00527292 0.00000000
4.18172885 0.50543825 0.00219566 0.00000000
1.94455529 1.00240591 -0.00294216 0.00000000
1.91498852 0.78254375 -0.00066733 0.00000000
3.75628935 1.96008333 -0.00133249 0.00000000
2.59567877 0.10298385 0.00116568 0.00000000
1.02193902 1.94217326 -0.00281944 0.00000000
2.54985251 1.17586518 -0.00027387 0.00000000
0.47884071 0.06067940 -0.00307371 0.00000000
0.64557470 1.74356219 -0.01049146 0.00000000
2.85774064 1.46425017 0.00126135 0.00000000
0.88279294 0.12982103 0.00005048 0.00000000
0.92910470 1.43069650 0.00530513 0.00000000
3.02006655 1.44906739 0.00145444 0.00000000
2.25961968 1.51097874 0.00124299 0.00000000
4.02133826 2.12857587 0.00317574 0.00000000
1.96738918 1.30900583 0.00024269 0.00000000
2.74105198 1.91467712 -0.00029608 0.00000000
1.37710487 0.38323284 -0.00091860 0.00000000
1.20690206 0.64624776 0.00440995 0.00000000
4.14975216 0.69334994 0.00244403 0.00000000
0.47298398 1.91386703 0.00466919 0.00000000
0.59725001 0.38960183 0.00139504 0.00000000
2.83209423 1.40312768 0.00226964 0.00000000
2.48126225 0.83828272 -0.00455958 0.00000000
3.01110427 0.59355974 0.00722919 0.00000000
2.93625832 1.49151665 0.00022150 0.00000000
1.46183065 1.59834316 0.00169037 0.00000000
1.81521932 1.56661037 -0.00114678 0.00000000
0.79375383 0.70014375 0.00273360 0.00000000
0.06624617 1.64770860 -0.00042780 0.00000000
2.42736599 1.70476559 0.00334514 0.00000000
2.88244554 1.22982433 -0.00098745 0.00000000
3.99612089 0.69934612 0.00178891 0.00000000
2.57895611 0.66829131 0.00211887 0.00000000
0.73459221 0.30282884 -0.00054851 0.00000000
2.94260943 0.77710285 -0.00226063 0.00000000
3.45978763 1.30730839 0.00136756 0.00000000
2.16284678 0.34870325 0.00155755 0.00000000
3.48660455 2.08452542 -0.00273979 0.00000000
1.96704214 0.76331961 -0.00170163 0.00000000
3.50784845 0.72855067 0.00001028 0.00000000
3.02659469 0.82985737 0.00013786 0.00000000
3.47862392 0.88575716 -0.00082205 0.00000000
2.64074834 1.86184775 -0.00428858 0.00000000
1.20358038 0.97479276 -0.00548172 0.00000000
1.35284290 0.21538019 0.00031291 0.00000000
3.14564144 0.50136843 0.00222188 0.00000000
1.49721281 1.51610065 -0.00088030 0.00000000
0.01734972 1.12390298 -0.00523768 0.00000000
2.54210516 1.20141161 -0.00174424 0.00000000
2.05670901 1.95952514 -0.00326146 0.00000000
3.34324866 1.20671083 0.00051294 0.00000000
0.07550941 0.64177910 -0.00025578 0.00000000
0.60308085 1.18632490 0.00130820 0.00000000
3.12199921 1.54140006 -0.00242366 0.00000000
2.82741120 0.30232049 -0.00204120 0.00000000
1.41671635 1.74409567 -0.00142316 0.00000000
2.14421518 1.04677711 -0.00242818 0.00000000
3.74506273 2.11978308 0.00052246 0.00000000
1.90293296 1.22316873 -0.00090585 0.00000000
2.25438564 1.88188353 -0.00371718 0.00000000
1.32813694 1.78674931 0.00020768 0.00000000
0.04746417 1.73108117 -0.00001266 0.00000000
4.07969672 1.06416702 -0.00361795 0.00000000
1.74965227 2.11132340 0.00055107 0.00000000
2.56159064 0.66255630 -0.00083365 0.00000000
3.64478802 1.71681814 0.00140056 0.00000000
0.69857617 2.09557784 0.00253607 0.00000000
2.26066892 1.81475117 0.00565408 0.00000000
3.85575733 2.19882502 0.00062065 0.00000000
2.32669195 2.08762264 -0.00187780 0.00000000
3.17306837 2.18924739 0.00333453 0.00000000
3.76110524 1.30123211 0.00084043 0.00000000
1.23741231 0.67016294 0.00279088 0.00000000
0.62038547 0.50275588 -0.00103740 0.00000000
2.24642016 1.32243642 -0.00108065 0.00000000
0.91030657 0.73172533 0.00133437 0.00000000
3.66549599 1.98371928 -0.00053366 0.00000000
2.83468413 1.72303908 -0.00287679 0.00000000
1.79186135 1.46685274 -0.00136502 0.00000000
1.55242678 1.89362640 0.00391523 0.00000000
2.74199167 0.32338989 0.00054839 0.00000000
1.15342113 0.65824754 0.00437801 0.00000000
2.79303234 1.91871764 -0.00171758 0.00000000
0.33067467 1.36318502 0.00588513 0.00000000
2.28010095 1.87743168 0.00520512 0.00000000
0.74971286 1.43325753 -0.00046829 0.00000000
1.67163606 1.09905943 -0.00352077 0.00000000
2.58673115 0.07086253 0.00482266 0.00000000
3.66388025 2.21079352 0.00106575 0.00000000
2.44623837 1.30376180 -0.00083174 0.00000000
2.33001312 0.96985055 -0.00105667 0.00000000
2.94648348 0.47058902 0.00246560 0.00000000
2.14557785 1.15023427 0.00242837 0.00000000
1.43110037 2.02876430 -0.00600154 0.00000000
4.13595363 1.75918892 -0.00621378 0.00000000
2.00273218 0.76607916 -0.00384523 0.00000000
1.44976030 2.13736015 0.00094862 0.00000000
4.04663594 0.62681740 -0.00168766 0.00000000
1.85381444 2.17360764 -0.00213679 0.00000000
3.34826870 0.52641603 -0.00278626 0.00000000
1.24787671 1.05231913 0.00231541 0.00000000
3.24264410 1.20163705 -0.00013223 0.00000000
2.88954011 0.87874710 0.00084677 0.00000000
2.73366214 0.55578816 -0.00036597 0.00000000
0.40886417 1.39460830 -0.00049740 0.00000000
3.85192328 0.15402796 -0.00094770 0.00000000
4.07729409 1.79549920 -0.00291859 0.00000000
0.94479370 0.18063491 0.00353776 0.00000000
1.50757375 1.95236221 -0.00378738 0.00000000
0.17153467 0.26161665 -0.00041812 0.00000000
0.42180774 0.28613284 -0.00642877 0.00000000
3.00619844 1.49794799 -0.00510884 0.00000000
1.24468523 0.58791953 -0.00012241 0.00000000
2.09431849 0.18024497 0.00093865 0.00000000
1.52436198 0.44609457 0.00290830 0.00000000
3.44862586 1.82514475 0.00076797 0.00000000
1.30819766 1.46992608 0.00203168 0.00000000
2.53920279 0.05015368 -0.00253792 0.00000000
3.57103907 1.95367172 -0.00078851 0.00000000
1.37438340 1.64984926 0.00047302 0.00000000
1.24344888 2.00894436 0.00495649 0.00000000
1.92567160 1.34384389 -0.00140319 0.00000000
0.88236761 0.17851225 0.00069276 0.00000000
2.55184279 0.81011576 0.00250153 0.00000000
1.51921579 1.88239839 0.00146026 0.00000000
2.99977059 0.32454532 -0.00276837 0.00000000
0.66548606 1.93995963 0.00229327 0.00000000
2.91159346 0.89240931 -0.00267176 0.00000000
4.16159140 1.66182627 0.00416507 0.00000000
1.98538422 0.09621459 -0.00112888 0.00000000
1.37464308 0.63546196 -0.00275905 0.00000000
3.13132313 2.18221797 0.00434072 0.00000000
3.38869539 2.21846206 0.00032184 0.00000000
0.03618195 0.26743258 0.00181750 0.00000000
3.80107801 1.44340851 -0.00147625 0.00000000
4.24414935 1.93495312 0.00221831 0.00000000
2.34396749 1.37403860 -0.00152259 0.00000000
3.39201992 0.01292220 -0.00232143 0.00000000
0.68861083 1.20878355 0.00036945 0.00000000
3.56486794 0.20045404 0.00049245 0.00000000
2.82738615 1.90620461 -0.00202604 0.00000000
1.65460533 2.21959191 -0.00009431 0.00000000
3.72591961 1.70556161 0.00499768 0.00000000
1.27961252 0.53786860 -0.00223362 0.00000000
0.12376382 2.22037847 0.00007851 0.00000000
2.34799722 1.72717119 0.00137946 0.00000000
1.07014312 0.16781954 0.00024775 0.00000000
2.55737485 0.09531989 -0.00468148 0.00000000
3.74044009 1.91609368 0.00077691 0.00000000
1.15107631 2.01594502 0.00020071 0.00000000
0.76411842 0.41141899 -0.00280430 0.00000000
3.56622757 0.89539213 -0.00037635 0.00000000
2.79271489 1.35653511 -0.00436167 0.00000000
1.66878662 1.49723741 -0.00308916 0.00000000
2.67734162 1.92091172 -0.00521502 0.00000000
3.88460149 1.00873180 -0.00123672 0.00000000
1.52863602 0.67119532 0.00176233 0.00000000
2.95635707 1.19646324 0.00009794 0.00000000
0.80431917 0.41044855 -0.00421787 0.00000000
1.58834995 1.67418465 -0.00629898 0.00000000
3.73525806 0.38339859 0.00118926 0.00000000
1.94437023 0.51190536 0.00153649 0.00000000
0.69382599 1.55970239 -0.00035541 0.00000000
1.69031016 0.35551820 -0.00208804 0.00000000
2.67907425 1.72349775 -0.00206408 0.00000000
1.12899231 0.99172624 0.00576656 0.00000000
2.21954945 0.36327037 0.00014551 0.00000000
1.22980517 1.40753301 0.00355462 0.00000000
4.24469991 0.82918907 0.00177437 0.00000000
3.91609010 1.72720433 0.00106108 0.00000000
0.12220972 0.58859544 0.00205852 0.00000000
3.68773503 1.79690797 0.00317620 0.00000000
0.91080631 2.13808186 0.00031385 0.00000000
4.04710101 0.48481717 -0.00104324 0.00000000
3.77058110 0.29951434 0.00498277 0.00000000
3.39411301 0.40187855 -0.00157235 0.00000000
1.57709953 0.84072996 0.00045520 0.00000000
1.38893009 1.79710986 0.00155116 0.00000000
0.42408598 2.08121250 0.00461788 0.00000000
2.47986909 2.15218252 0.00154681 0.00000000
4.24328849 1.71378867 0.00379179 0.00000000
0.13048559 0.67778661 0.00104305 0.00000000
2.72208266 1.36393774 0.00065986 0.00000000
3.85664755 2.09997354 -0.00098313 0.00000000
0.24369907 1.88896670 0.00087777 0.00000000
3.94131943 0.97074897 -0.00016447 0.00000000
2.72817385 1.57051538 -0.00085745 0.00000000
0.28815154 2.13848181 0.00324029 0.00000000
1.46368626 0.73126759 0.00057405 0.00000000
4.02687851 0.59918855 -0.00318858 0.00000000
1.10491189 0.18256559 -0.00095649 0.00000000
2.63539409 1.92300124 -0.00299881 0.00000000
2.73334146 1.23121544 -0.00175989 0.00000000
1.97043667 0.55162854 0.00142712 0.00000000
3.21200352 2.21312103 -0.00164967 0.00000000
2.06737935 1.84844246 -0.00450217 0.00000000
4.16745542 0.46786286 0.00241447 0.00000000
3.50384918 0.87608716 0.00152945 0.00000000
1.39152026 0.25508984 -0.00130371 0.00000000
2.43950279 2.18824570 0.00416656 0.00000000
0.16915906 0.09397455 -0.00116441 0.00000000
3.18363205 1.52504652 -0.00142501 0.00000000
3.03534705 0.28256167 -0.00272607 0.00000000
2.72474853 1.18767674 0.00066232 0.00000000
1.78543986 1.30807828 0.00032651 0.00000000
4.09367276 1.96344975 0.00191687 0.00000000
3.44603525 0.38958818 -0.00560812 0.00000000
0.16018797 2.18441354 -0.00319123 0.00000000
3.76411001 1.21090773 -0.00084197 0.00000000
3.69897960 0.62604975 -0.00208104 0.00000000
3.50918945 0.44947223 0.00194038 0.00000000
1.36433443 2.11337116 0.00141513 0.00000000
0.62092957 0.03580261 -0.00189007 0.00000000
2.39760154 0.10201968 -0.00121779 0.00000000
1.27216627 2.01180259 0.00466418 0.00000000
1.89432522 0.13487442 0.00105193 0.00000000
1.42912907 0.01790963 0.00105762 0.00000000
4.17959064 2.12188723 -0.00221656 0.00000000
3.60923065 0.28913166 0.00350784 0.00000000
4.23473792 0.22315507 -0.00008149 0.00000000
2.79083075 1.85507841 -0.00109898 0.00000000
3.23337148 1.75359732 0.00558696 0.00000000
1.01401737 0.44398227 0.00171471 0.00000000
2.36989776 0.56774769 0.00181520 0.00000000
1.28039327 0.52218655 -0.00136052 0.00000000
0.75876784 1.64630853 -0.00063467 0.00000000
1.41880743 0.68838630 -0.00800016 0.00000000
2.37626372 1.21165677 -0.00057477 0.00000000
2.67326548 1.99485239 -0.00011307 0.00000000
1.42463932 0.81248375 -0.00388513 0.00000000
2.20315230 0.86904230 -0.00316084 0.00000000
3.75954250 0.27534335 -0.00103778 0.00000000
2.84442947 1.51041238 -0.00085066 0.00000000
4.07588554 1.02786006 0.00102219 0.00000000
2.96566676 1.48343523 -0.00244794 0.00000000
3.13086123 0.15987470 -0.00444704 0.00000000
3.56375396 1.64503935 0.00363983 0.00000000
0.65196407 0.90055859 0.00219375 0.00000000
1.79271053 1.51500754 -0.00723972 0.00000000
0.99288683 0.74423189 -0.00190780 0.00000000
0.01775620 1.85730595 -0.00058924 0.00000000
2.31861666 1.99167006 0.00250140 0.00000000
3.84783385 1.87048948 -0.00260352 0.00000000
2.79564378 0.84535895 0.00038808 0.00000000
4.07717090 0.21567264 0.00405740 0.00000000
2.72197690 1.75208473 0.00808770 0.00000000
0.93884052 0.00232307 0.00054796 0.00000000
0.19492370 1.48800683 -0.00176934 0.00000000
0.21232277 1.84301773 0.00195761 0.00000000
4.20648666 1.53992561 -0.00087523 0.00000000
1.21552612 1.40405037 -0.00113092 0.00000000
3.38199178 0.63189518 0.00144355 0.00000000
3.53599511 0.96807494 0.00020519 0.00000000
2.65737429 0.88164768 -0.00199762 0.00000000
3.25178280 0.55453443 -0.00849866 0.00000000
3.98734553 0.73626359 0.00102081 0.00000000
3.98781827 1.98897211 -0.00241209 0.00000000
3.51132165 1.63418532 0.00111706 0.00000000
0.29432484 1.85416184 -0.00269325 0.00000000
2.01175275 1.52570246 0.00063803 0.00000000
2.98216667 1.81126433 -0.00033515 0.00000000
3.83961743 1.08499859 0.00127047 0.00000000
2.03279416 0.60361480 0.00304347 0.00000000
1.42018602 1.83215143 -0.00267506 0.00000000
1.02882099 1.42507934 0.00491966 0.00000000
2.88018595 1.27022870 0.00007169 0.00000000
1.94553207 0.53301644 0.00142971 0.00000000
2.08127033 0.62890897 0.00098311 0.00000000
2.34632787 1.61862430 0.00045658 0.00000000
4.16844225 0.18915991 -0.00034550 0.00000000
1.06508574 1.57877841 0.00114988 0.00000000
0.66112186 0.00730054 0.00005419 0.00000000
0.95940648 1.52148377 -0.00583777 0.00000000
2.81731986 0.03607840 0.00014856 0.00000000
1.93443056 1.36836663 -0.00185194 0.00000000
4.05506644 2.15498922 -0.00259352 0.00000000
2.60959310 1.54761032 0.00159738 0.00000000
0.58735650 2.12755431 0.00631886 0.00000000
4.04750641 0.10698785 0.00266918 0.00000000
3.55185671 2.12218641 0.00407269 0.00000000
2.61972341 2.03174933 -0.00115664 0.00000000
1.50277442 0.94636367 0.00054166 0.00000000
3.49882282 1.40200539 0.00221376 0.00000000
1.65292491 0.30699153 -0.00250571 0.00000000
3.08895123 2.20933198 -0.00000036 0.00000000
3.54267823 1.91597541 -0.00418444 0.00000000
2.92236496 1.88119462 -0.00014226 0.00000000
3.65637504 1.51261158 -0.00094979 0.00000000
3.31734460 0.68937405 0.00142303 0.00000000
4.17641859 0.12982502 0.00305240 0.00000000
1.67508723 0.38105895 -0.00160928 0.00000000
2.50420500 1.40065724 -0.00225181 0.00000000
0.29680159 1.50227831 0.00463807 0.00000000
0.98822738 2.06404241 -0.00169835 0.00000000
2.16661390 1.22667188 -0.00254846 0.00000000
4.24186562 0.83064099 0.00012032 0.00000000
0.37582933 1.17467579 -0.00186515 0.00000000
1.73419177 1.66164967 0.00558060 0.00000000
2.47308281 2.14825899 -0.00093735 0.00000000
1.11918896 0.34991257 0.00168781 0.00000000
0.68669114 0.03182393 -0.00059262 0.00000000
4.03980653 1.64070329 0.00187579 0.00000000
2.77852003 1.04135458 -0.00006212 0.00000000
1.41278457 1.24597723 -0.00053863 0.00000000
2.20468260 0.64285119 0.00132778 0.00000000
0.64596866 2.21770015 -0.00144377 0.00000000
0.96851677 0.22927364 -0.00151487 0.00000000
3.14490237 0.37485327 -0.00472321 0.00000000
3.05943024 0.76968679 -0.00198102 0.00000000
2.72853066 1.00713019 -0.00001554 0.00000000
4.11528758 2.21069905 -0.00396858 0.00000000
2.83349004 2.20979686 0.00104320 0.00000000
0.57838044 1.64719325 0.00474962 0.00000000
1.85916329 1.99786143 -0.00331957 0.00000000
0.78051646 0.85460645 0.00058219 0.00000000
2.51473034 2.13780249 0.00504323 0.00000000
1.66283914 2.00292369 -0.00246265 0.00000000
3.34145945 1.71319906 0.00071323 0.00000000
1.11263585 0.85591107 -0.00363513 0.00000000
0.06626249 1.38110707 0.00558124 0.00000000
2.55691225 0.51975914 -0.00295894 0.00000000
1.34552506 0.56108699 -0.00155872 0.00000000
3.63740607 1.42049340 0.00030189 0.00000000
1.13718824 0.50730414 0.00133316 0.00000000
0.56605243 0.49784374 -0.00138360 0.00000000
2.26038932 0.53709768 -0.00056520 0.00000000
0.60222433 1.31170926 0.00260086 0.00000000
1.87478946 0.02802365 0.00061494 0.00000000
2.34596386 1.37699234 0.00290379 0.00000000
3.07889427 0.26729977 0.00233051 0.00000000
0.76443712 1.67090223 0.00041860 0.00000000
1.97843757 1.46351385 -0.00043164 0.00000000
0.33474783 1.34366254 0.00111214 0.00000000
2.10451222 0.60180737 0.00153310 0.00000000
1.08092213 0.05701672 0.00078989 0.00000000
2.92468523 2.21696754 -0.00112645 0.00000000
1.85675307 0.61347717 0.00246194 0.00000000
2.86885964 1.54534613 -0.00227670 0.00000000
1.65449673 1.35254209 -0.00046075 0.00000000
1.88811760 0.86933424 -0.00210714 0.00000000
0.47170038 0.80453166 -0.00256771 0.00000000
3.50279218 0.76827199 0.00247016 0.00000000
3.87512151 0.25523495 -0.00080968 0.00000000
1.30861438 0.93716909 0.00134673 0.00000000
1.98598825 0.08151601 -0.00361205 0.00000000
2.77750549 2.05985599 -0.00145692 0.00000000
3.32498473 1.53139029 0.00146086 0.00000000
3.22521848 0.16306795 -0.00255339 0.00000000
3.65310709 0.51362464 0.00091123 0.00000000
3.93372065 1.68588773 -0.00181438 0.00000000
1.59388807 0.45371168 0.00258759 0.00000000
3.32017540 2.00622399 0.00037666 0.00000000
3.65722151 1.16418809 0.00149217 0.00000000
0.30925849 0.72630466 -0.00076038 0.00000000
1.53823870 1.26383164 -0.00124382 0.00000000
0.21289958 1.98067445 0.00108159 0.00000000
0.84406370 1.60806193 0.00050139 0.00000000
1.81636057 2.03659946 -0.00201667 0.00000000
1.15073268 1.59129158 0.00267130 0.00000000
2.98485605 1.92056391 0.00108598 0.00000000
1.18058991 1.19320457 0.00288627 0.00000000
2.36688054 1.85772653 -0.00330019 0.00000000
2.39850445 0.02291028 0.00129220 0.00000000
4.04876687 1.92762961 -0.00171952 0.00000000
1.06763072 2.18462380 -0.00056889 0.00000000
2.31006151 1.14781615 -0.00293653 0.00000000
3.79002669 0.60714159 -0.00548713 0.00000000
3.26685044 0.01910149 -0.00307785 0.00000000
0.72615234 1.34514897 -0.00644224 0.00000000
3.26105731 0.70913358 0.00184920 0.00000000
4.07869939 1.80154194 -0.00576286 0.00000000
3.31654641 1.49907232 -0.00050957 0.00000000
1.79205792 1.60864580 0.00170166 0.00000000
0.12041969 0.87746748 -0.00009509 0.00000000
3.28149954 0.96652140 -0.00051085 0.00000000
0.82636099 2.17157752 0.00507095 0.00000000
2.28401696 1.43410968 -0.00075974 0.00000000
2.38375485 0.98263084 0.00059851 0.00000000
0.28117685 1.63470174 -0.00100538 0.00000000
0.18706003 0.64047881 0.00448457 0.00000000
2.10992644 1.14577388 -0.00336838 0.00000000
3.89346550 0.81853391 -0.00006236 0.00000000
1.75092358 1.08361922 -0.00424330 0.00000000
0.52152768 0.82894589 -0.00025494 0.00000000
3.67349657 1.52043240 -0.00122440 0.00000000
3.30105202 0.35435487 -0.00293947 0.00000000
0.96810745 1.88231019 -0.00032897 0.00000000
2.17867075 1.22069074 0.00237742 0.00000000
3.54467539 1.06585025 -0.00187037 0.00000000
3.90147261 0.91916951 -0.00179820 0.00000000
2.98737832 0.69788598 -0.00131200 0.00000000
3.81374015 0.07186003 -0.00058234 0.00000000
0.71196419 0.19539102 -0.00052092 0.00000000
0.67584165 1.14310476 0.00141043 0.00000000
1.23314525 1.55987077 -0.00012329 0.00000000
1.55614322 1.65225021 -0.00106473 0.00000000
4.21305304 1.89561045 0.00090358 0.00000000
2.64017817 0.63997720 0.00360688 0.00000000
3.94768786 0.06204112 -0.00453795 0.00000000
1.21096907 1.12716067 0.00219279 0.00000000
2.09981556 0.52585923 0.00602093 0.00000000
2.63335835 0.00068119 0.00565084 0.00000000
2.63048164 1.60592574 0.00112737 0.00000000
1.90483395 0.34898146 -0.00202768 0.00000000
3.96777359 1.40795360 0.00071133 0.00000000
3.44131410 0.97832811 -0.00388226 0.00000000
2.90846847 1.00436850 0.00126355 0.00000000
1.27634846 0.46536643 -0.00601931 0.00000000
3.99649660 1.03945174 -0.00497856 0.00000000
3.44310868 1.72808266 -0.00081701 0.00000000
3.68481244 0.09804111 0.00088950 0.00000000
2.15880397 1.66840917 0.00005484 0.00000000
1.95893489 0.37648830 -0.00023809 0.00000000
2.99799134 0.98713810 -0.00278186 0.00000000
3.25494843 1.40095650 0.00127245 0.00000000
0.41135360 1.75920990 0.00190567 0.00000000
0.66708740 0.72881792 -0.00408170 0.00000000
2.94770136 1.09321083 -0.00090295 0.00000000
2.67157868 1.23505489 0.00234994 0.00000000
3.43444102 2.13883685 -0.00122044 0.00000000
0.75499080 0.64525579 -0.00092459 0.00000000
2.45179447 0.75077206 -0.00199343 0.00000000
2.76595729 0.62103308 -0.00108418 0.00000000
0.09023523 2.18396197 -0.00098680 0.00000000
3.61802788 0.39539786 -0.00138491 0.00000000
0.05942587 1.45373797 0.00048546 0.00000000
3.92562487 0.12422554 -0.00351508 0.00000000
0.29438748 0.20296307 -0.00292139 0.00000000
0.68505242 0.87281334 0.00263895 0.00000000
1.12946775 2.00174445 -0.00239985 0.00000000
3.11142451 0.96623246 -0.00093356 0.00000000
1.35460918 0.63646967 0.00114936 0.00000000
1.02879180 0.41594000 -0.00049387 0.00000000
3.44774676 1.90285827 -0.00171034 0.00000000
0.66282055 0.13159536 0.00373323 0.00000000
2.86883589 1.40337393 -0.00326677 0.00000000
0.78370266 0.71247065 -0.00290421 0.00000000
2.65169723 2.00571594 0.00513175 0.00000000
4.01602993 0.70478558 0.00075656 0.00000000
3.56725747 1.68549964 0.00222940 0.00000000
1.78045446 2.06497020 -0.00046526 0.00000000
3.11036956 0.26813375 -0.00080007 0.00000000
3.21803969 0.39978824 -0.00015591 0.00000000
2.46003563 1.20661654 0.00499700 0.00000000
3.00625806 0.44416958 -0.00072938 0.00000000
1.93902472 1.40446547 0.00119688 0.00000000
1.43684964 1.86644914 0.00017941 0.00000000
1.86232063 1.04274338 0.00050967 0.00000000
4.02808106 0.07136562 0.00010705 0.00000000
0.15178089 1.05041141 -0.00083436 0.00000000
0.73217067 2.05594639 -0.00498929 0.00000000
2.43974680 1.44000626 0.00256062 0.00000000
0.80989800 2.18105269 -0.00152022 0.00000000
1.71416324 0.07683585 -0.00088929 0.00000000
1.95304402 1.26270113 -0.00061133 0.00000000
3.04106011 1.65599175 -0.00269479 0.00000000
3.49254882 0.63081583 -0.00293153 0.00000000
2.66990911 1.79238428 -0.00045117 0.00000000
0.01797484 1.37526201 -0.00094808 0.00000000
1.07845861 0.34817189 -0.00470142 0.00000000
3.52702927 0.67476205 -0.00175894 0.00000000
2.42535541 0.77998985 -0.00062954 0.00000000
1.33059629 1.16902431 -0.00276879 0.00000000
1.15392675 1.50980759 -0.00178086 0.00000000
2.07811262 0.26027974 -0.00031790 0.00000000
1.43660202 0.69057720 -0.00309578 0.00000000
4.25686320 0.37427803 0.00206784 0.00000000
1.22853528 0.62717260 0.00122325 0.00000000
3.63996059 1.51566658 -0.00105281 0.00000000
3.50943261 1.43288428 -0.00020115 0.00000000
1.54655492 0.09867992 0.00206257 0.00000000
0.77461088 0.36634267 0.00124944 0.00000000
1.37793190 0.82304841 -0.00034008 0.00000000
1.57369536 0.13234139 0.00167717 0.00000000
1.88409194 2.09143902 -0.00335311 0.00000000
0.95996968 0.89996742 -0.00557296 0.00000000
3.19001050 0.82802627 0.00195634 0.00000000
0.10362771 2.06861138 -0.00394529 0.00000000
2.25129147 1.25503048 -0.00174008 0.00000000
1.19565794 2.08111407 -0.00196784 0.00000000
1.52791468 0.68282259 0.00249654 0.00000000
0.65594513 2.02958193 0.00050378 0.00000000
0.82611350 1.42756608 -0.00373942 0.00000000
1.77873274 1.06229063 -0.00213319 0.00000000
1.24883636 2.16474718 0.00022386 0.00000000
3.95870054 0.37100903 -0.00273913 0.00000000
3.39137298 1.04413195 0.00234570 0.00000000
4.24074843 0.58785506 -0.00371502 0.00000000
3.60151234 1.10283931 0.00330591 0.00000000
3.43510962 1.46991469 0.00079100 0.00000000
3.58881711 1.08073160 0.00096010 0.00000000
0.20637541 0.39772898 0.00008522 0.00000000
0.34406896 2.18544768 0.00041354 0.00000000
2.88414512 2.07501683 -0.00009142 0.00000000
2.92024937 1.35258657 0.00115546 0.00000000
3.43678084 0.23219807 -0.00505904 0.00000000
0.75951160 1.81818547 -0.00354819 0.00000000
3.59151262 1.31600150 0.00223960 0.00000000
3.49523625 1.42719170 0.00009904 0.00000000
4.08411514 2.01859807 0.00197436 0.00000000
0.34278386 1.04540495 0.00178280 0.00000000
2.92669502 0.47900760 -0.00085361 0.00000000
0.15793041 0.39857659 -0.00021625 0.00000000
0.33416646 2.01678316 -0.00539958 0.00000000
3.65756019 1.56651667 0.00091764 0.00000000
1.25707713 1.80042730 0.00260448 0.00000000
3.71524173 1.63315003 -0.00142255 0.00000000
0.36702564 1.75356138 0.00580937 0.00000000
4.22790207 0.34838631 -0.00029675 0.00000000
1.34576763 0.92762226 0.00162308 0.00000000
0.49722310 0.96735224 0.00039981 0.00000000
0.23265389 0.29639146 0.00029259 0.00000000
0.35555089 0.70343901 0.00179715 0.00000000
0.38840393 0.22323456 0.00212235 0.00000000
0.12184080 0.95714832 -0.00011876 0.00000000
2.71105466 0.89211155 -0.00097801 0.00000000
2.95396181 0.18636029 0.00096139 0.00000000
1.97877950 1.60423394 0.00049847 0.00000000
3.13463783 1.81416645 0.00106334 0.00000000
0.67036825 0.36904936 0.00050991 0.00000000
1.53298638 0.73076732 0.00052414 0.00000000
2.49167420 1.06204591 0.00100167 0.00000000
3.63485096 1.91127202 -0.00220112 0.00000000
1.88465381 0.87490475 0.00189309 0.00000000
3.37864244 1.19068555 0.00207884 0.00000000
1.16985473 0.32809707 0.00160907 0.00000000
0.21306834 2.10787175 -0.00066946 0.00000000
4.08867148 0.64312447 0.00120914 0.00000000
0.81762441 1.69449683 -0.00203495 0.00000000
3.89402593 0.47585425 0.00184303 0.00000000
3.30439619 2.06489525 0.00075896 0.00000000
2.66147348 0.45997143 -0.00265651 0.00000000
3.19819139 1.09500851 0.00085172 0.00000000
0.62317808 2.10484979 0.00453670 0.00000000
0.58475233 0.76868009 0.00576950 0.00000000
3.98513094 1.03930252 0.00054792 0.00000000
0.91517696 0.36150697 0.00184086 0.00000000
0.83548849 1.99878413 0.00218136 0.00000000
1.02158359 1.22427755 0.00170713 0.00000000
1.23460496 0.74181610 0.00163218 0.00000000
2.93832325 1.39375231 -0.00354839 0.00000000
2.11774311 1.61934941 0.00217486 0.00000000
0.14591900 1.55369441 0.00286685 0.00000000
1.29457567 1.33390329 0.00049392 0.00000000
0.17605373 0.87784896 0.00147351 0.00000000
3.04378207 1.21132583 -0.00005923 0.00000000
1.03963816 1.62742648 0.00018151 0.00000000
4.20215037 1.98607416 -0.00177668 0.00000000
2.20175003 1.21540850 0.00659986 0.00000000
1.09435341 1.77026473 -0.00156810 0.00000000
2.29480325 0.60956805 -0.00374850 0.00000000
2.55557812 0.29597110 -0.00274059 0.00000000
1.58880741 0.62231451 -0.00290832 0.00000000
0.44470112 0.90672488 0.00269275 0.00000000
1.72074519 0.30968904 0.00360137 0.00000000
3.64346471 1.72842925 0.00230365 0.00000000
1.89265310 1.40632229 0.00410625 0.00000000
2.25446833 0.92856963 0.00306585 0.00000000
1.90841091 1.64563436 0.00272153 0.00000000
0.66860256 1.50309608 -0.00135489 0.00000000
3.22937676 1.97498587 -0.00170381 0.00000000
1.14061047 1.15168436 -0.00161080 0.00000000
4.11709637 0.90045359 0.00069156 0.00000000
1.36355361 0.77739381 0.00251677 0.00000000
1.31016909 0.17183163 0.00189731 0.00000000
2.76966880 0.49092472 -0.00235024 0.00000000
1.75275078 0.07443063 -0.00092409 0.00000000
3.19907878 1.07046084 0.00111592 0.00000000
2.43937686 0.06657922 0.00019653 0.00000000
4.05462813 0.20203480 0.00095009 0.00000000
2.53089527 1.85801933 -0.00383488 0.00000000
0.86858144 1.28271140 -0.00478569 0.00000000
2.49244942 1.66168029 -0.00435277 0.00000000
3.17282799 1.46157949 0.00057301 0.00000000
3.69429987 0.02545397 -0.00256245 0.00000000
2.89977138 1.72541215 -0.00138403 0.00000000
3.23120410 1.74745057 0.00059220 0.00000000
4.11448634 2.18074533 -0.00462138 0.00000000
2.48437669 0.76363750 -0.00044758 0.00000000
0.65777055 1.16652692 -0.00094603 0.00000000
2.64113157 1.52478519 -0.00263005 0.00000000
3.71801342 0.73327985 0.00049231 0.00000000
4.12206809 1.61881628 -0.00014252 0.00000000
0.27350913 1.05150830 0.00156308 0.00000000
4.19790740 0.05611853 0.00264056 0.00000000
3.39640424 1.11940914 -0.00208526 0.00000000
3.24708065 1.00280205 0.00224422 0.00000000
0.22013897 2.10521403 0.00176903 0.00000000
0.94963268 1.70223032 -0.00091718 0.00000000
0.36362330 1.53599894 -0.00335480 0.00000000
0.25966446 1.90994572 0.00165175 0.00000000
3.08995886 1.44038975 -0.00456062 0.00000000
2.06693758 0.34085774 0.00310976 0.00000000
2.83062142 1.27282020 -0.00018217 0.00000000
2.05175055 1.41338082 0.00014343 0.00000000
2.14084975 0.95292543 -0.00166773 0.00000000
0.94371760 0.28497568 0.00383374 0.00000000
2.73360043 1.07473160 0.00186226 0.00000000
1.80743806 0.42060133 -0.00096980 0.00000000
2.35464839 2.07543300 -0.00362286 0.00000000
3.83992195 0.83798048 -0.00228379 0.00000000
2.60138810 0.96424245 0.00255550 0.00000000
0.22309666 1.85677315 -0.00224240 0.00000000
3.22991825 1.86710457 -0.00436272 0.00000000
1.25503600 1.69142682 0.00138836 0.00000000
4.08635117 0.93732579 -0.00007592 0.00000000
3.55823767 1.84227575 0.00343774 0.00000000
3.80644930 1.67619367 0.00197659 0.00000000
2.20752299 1.74041786 0.00423103 0.00000000
2.48787445 0.20107710 0.00030131 0.00000000
1.05835028 1.94693123 -0.00099989 0.00000000
1.32891235 0.80475279 -0.00133765 0.00000000
0.41407398 2.20622026 0.00160233 0.00000000
2.88694542 1.02676233 0.00052439 0.00000000
2.80463948 0.33516885 -0.00026323 0.00000000
2.46895340 0.47935934 -0.00080220 0.00000000
3.59009704 0.14987904 0.00164802 0.00000000
2.17528671 0.67664763 -0.00255749 0.00000000
3.67243431 1.19870711 0.00417455 0.00000000
2.69921057 1.30202704 -0.00055905 0.00000000
3.26097915 1.51642162 -0.00237388 0.00000000
3.13823447 1.86194622 -0.00144651 0.00000000
1.66776398 0.47335812 0.00175444 0.00000000
0.58663580 1.79515114 0.00106371 0.00000000
1.60582367 0.74082796 0.00486790 0.00000000
0.86421957 1.07474368 0.00155423 0.00000000
0.03410431 0.04350470 -0.00005065 0.00000000
1.73951812 0.85916544 -0.00723845 0.00000000
2.74066550 1.03396572 0.00225761 0.00000000
3.99904953 1.99349898 0.00049712 0.00000000
3.05697129 0.52587183 -0.00113809 0.00000000
2.39701049 1.94016492 -0.00357083 0.00000000
1.21043158 0.48999440 0.00132928 0.00000000
0.57805830 0.22272851 0.00064733 0.00000000
1.65352072 1.27647275 -0.00165470 0.00000000
2.95115680 0.54969102 0.00324278 0.00000000
2.76244771 1.31919152 -0.00139393 0.00000000
4.23147964 1.15445185 0.00205087 0.00000000
0.12122918 1.60749582 -0.00173647 0.00000000
1.49289020 1.23659574 0.00256102 0.00000000
2.56358599 1.84581408 -0.00235299 0.00000000
2.60139224 1.79592181 -0.00236144 0.00000000
1.95544351 1.76659787 -0.00131588 0.00000000
1.10605283 1.09459010 0.00248379 0.00000000
0.84793219 2.21584083 0.00014918 0.00000000
3.42269734 0.94957830 -0.00037294 0.00000000
2.32983276 0.56265008 0.00053169 0.00000000
0.32248124 1.28388679 0.00022788 0.00000000
4.23295940 0.81629826 0.00265295 0.00000000
0.61325819 1.04089116 -0.00031385 0.00000000
2.77934738 1.30141094 0.00069998 0.00000000
0.99628540 1.01870167 -0.00524500 0.00000000
2.29249593 1.04486025 -0.00094951 0.00000000
1.68100563 1.87263094 0.00420223 0.00000000
2.54870497 1.20626795 0.00218313 0.00000000
3.86849483 2.19331954 0.00382367 0.00000000
1.22686698 0.31983348 -0.00069714 0.00000000
0.94427227 0.17147878 0.00312134 0.00000000
3.45619205 1.85138863 -0.00228546 0.00000000
2.19363110 0.87529992 0.00289826 0.00000000
0.68271109 1.08075407 0.00321160 0.00000000
1.98555756 1.98579843 -0.00035298 0.00000000
2.75314033 2.08401250 0.00478561 0.00000000
2.13485830 1.05733299 0.00183829 0.00000000
2.84723281 0.47097264 -0.00112433 0.00000000
1.36787153 0.54780246 0.00044246 0.00000000
3.78607275 0.33311085 -0.00237226 0.00000000
1.79271088 1.15840202 -0.00376952 0.00000000
1.40932600 0.17881701 0.00388411 0.00000000
2.20201813 1.51367472 -0.00410230 0.00000000
2.83425450 1.83850707 -0.00068557 0.00000000
1.01002784 0.98291049 0.00374608 0.00000000
1.41336933 1.73434621 0.00042407 0.00000000
0.38363399 2.12575933 0.00241166 0.00000000
1.81994513 1.02951871 -0.00238843 0.00000000
3.22946521 1.89017680 0.00276020 0.00000000
3.46991750 0.93224825 -0.00003970 0.00000000
2.19397631 0.52765995 0.00197604 0.00000000
0.06584570 0.46846420 -0.00002679 0.00000000
1.81588700 0.13817937 -0.00355762 0.00000000
1.77447903 1.35733474 -0.00210882 0.00000000
1.65707397 0.61931634 0.00409488 0.00000000
1.21818604 0.02348305 -0.00070285 0.00000000
3.95276398 0.78386301 0.00537217 0.00000000
4.04841955 2.00241716 -0.00044600 0.00000000
3.62897707 1.39358655 -0.00396889 0.00000000
2.32888452 0.71722805 0.00030915 0.00000000
3.74661388 0.40575157 -0.00381888 0.00000000
1.90904556 1.55521120 0.00332056 0.00000000
3.27513235 0.80221181 0.00381382 0.00000000
0.28772938 1.44426680 0.00026640 0.00000000
4.25130779 2.06015449 0.00495179 0.00000000
3.08063849 1.35159875 -0.00464047 0.00000000
0.26292302 0.08380826 0.00443570 0.00000000
0.87721126 0.90501219 -0.00274193 0.00000000
3.08024445 1.52036978 -0.00080245 0.00000000
3.29000072 0.27859345 -0.00134219 0.00000000
3.42675814 2.16060420 0.00133003 0.00000000
0.74095760 1.05733179 0.00084664 0.00000000
0.46045931 2.05254154 -0.00266987 0.00000000
1.20841644 1.24254570 -0.00147731 0.00000000
2.98000206 1.35489385 -0.00131401 0.00000000
0.66204397 1.98396305 0.00143009 0.00000000
4.14675431 0.30220870 -0.00118182 0.00000000
3.77659062 1.17960045 -0.00100205 0.00000000
0.86537518 1.67217095 0.00198148 0.00000000
2.55429053 1.25394001 0.00103851 0.00000000
0.76312734 1.88052812 0.00091425 0.00000000
2.58832649 1.83839097 -0.00202421 0.00000000
0.03973837 2.13771654 0.00126833 0.00000000
3.01790738 1.60893331 -0.00080596 0.00000000
1.61195108 1.46791979 -0.00203717 0.00000000
0.79147425 1.81424421 0.00040878 0.00000000
1.12923927 0.58054320 -0.00152064 0.00000000
2.40833637 1.20751074 0.00296934 0.00000000
1.43097474 1.18998750 -0.00224795 0.00000000
0.98045368 2.11281092 0.00070353 0.00000000
1.88026698 1.83174812 0.00243802 0.00000000
1.83374465 1.84882206 -0.00306863 0.00000000
3.44095500 1.02012406 0.00161381 0.00000000
2.29203637 1.13549851 -0.00090951 0.00000000
2.08258355 1.38427993 -0.00124144 0.00000000
0.20356307 0.19740001 0.00144105 0.00000000
0.32147096 1.06358201 -0.00215405 0.00000000
1.54431863 0.93744112 -0.00258208 0.00000000
2.70056579 1.14635729 0.00240813 0.00000000
3.63432941 2.00608012 -0.00106808 0.00000000
2.95224136 1.52732585 -0.00083934 0.00000000
4.22058855 1.80840018 -0.00112603 0.00000000
1.98315392 2.06820266 0.00160222 0.00000000
3.68208381 1.20281058 0.00021485 0.00000000
3.87849225 2.19553034 0.00082276 0.00000000
0.27930354 1.99861783 -0.00239551 0.00000000
3.81841870 1.33813239 -0.00704457 0.00000000
2.18934858 1.12243945 -0.00269085 0.00000000
4.08554602 0.68544598 0.00221947 0.00000000
0.52334523 1.41671482 0.00259029 0.00000000
4.19508743 1.31035440 -0.00005454 0.00000000
0.75517712 1.84567812 0.00066363 0.00000000
0.68710053 1.30254977 -0.00594559 0.00000000
3.93314365 2.20475066 0.00041908 0.00000000
1.24976517 0.23984384 0.00151910 0.00000000
0.87663597 0.06580848 -0.00167310 0.00000000
3.07189058 1.45593276 -0.00306194 0.00000000
0.09307191 0.92538190 -0.00038831 0.00000000
3.33091106 0.33124653 0.00209417 0.00000000
3.50069295 1.61875660 -0.00208311 0.00000000
0.74971443 0.33539801 0.00019887 0.00000000
2.00044039 2.05145326 -0.00092268 0.00000000
3.54107580 0.64361252 0.00073258 0.00000000
1.77909068 1.07252372 0.00251534 0.00000000
3.74061088 2.04063547 0.00387359 0.00000000
0.56709972 0.15087165 -0.00214963 0.00000000
3.61862587 1.38803673 -0.00089735 0.00000000
0.73049247 0.98508972 -0.00145072 0.00000000
2.33214032 0.54730955 0.00349355 0.00000000
1.06420142 0.66061388 0.00115793 0.00000000
0.39747037 0.86370554 -0.00106458 0.00000000
1.59063021 1.81004375 -0.00007028 0.00000000
2.56877677 1.52093248 -0.00041396 0.00000000
1.49022198 1.00975050 0.00164470 0.00000000
3.66581702 1.50452036 -0.00505058 0.00000000
0.87612368 1.21143231 -0.00247940 0.00000000
3.84797777 1.96580298 -0.00293825 0.00000000
0.45904403 0.45206040 -0.00108042 0.00000000
2.00694428 1.40178898 0.00072414 0.00000000
0.70108805 1.05795378 0.00473686 0.00000000
3.45386238 0.21183687 -0.00279735 0.00000000
0.79128927 0.58495441 -0.00224117 0.00000000
3.04776400 1.91530345 0.00314313 0.00000000
2.31211490 0.74679387 0.00096202 0.00000000
1.79263844 0.32843901 0.00239799 0.00000000
3.40060953 1.57178671 -0.00252782 0.00000000
2.47855503 1.95617014 -0.00210810 0.00000000
3.03316184 0.35200806 0.00196551 0.00000000
0.09050694 1.39508693 -0.00088431 0.00000000
3.60738339 0.82892171 -0.00051701 0.00000000
3.10613619 1.62049832 -0.00129438 0.00000000
3.74031110 1.12438202 0.00372790 0.00000000
4.17524363 0.87530417 -0.00311982 0.00000000
0.69824481 1.45403245 -0.00352738 0.00000000
0.52090948 0.62536687 -0.00163393 0.00000000
2.75072888 0.67480480 0.00109602 0.00000000
0.12613149 0.32655844 -0.00295214 0.00000000
3.76851244 2.13243214 0.00225985 0.00000000
3.89742148 1.25476847 -0.00050738 0.00000000
1.16890964 1.19228084 0.00091922 0.00000000
1.59700738 2.07006773 -0.00101791 0.00000000
2.97859698 0.18336725 0.00213606 0.00000000
2.77125010 1.77262380 0.00258386 0.00000000
1.07006382 1.82900807 0.00090966 0.00000000
2.72568252 0.45345387 -0.00154037 0.00000000
3.88725329 1.46427010 0.00344456 0.00000000
1.21517615 1.04619187 0.00262921 0.00000000
2.19415683 1.31630721 0.00023459 0.00000000
1.61787635 0.70470688 0.00164396 0.00000000
0.73973228 1.99596278 0.00176578 0.00000000
0.47860320 1.46814701 -0.00480509 0.00000000
0.88128951 1.34918793 -0.00198588 0.00000000
0.31250462 2.04552984 -0.00141680 0.00000000
3.14506269 0.33134906 -0.00371663 0.00000000
1.11175721 1.36486210 -0.00011683 0.00000000
1.89953142 1.59943794 0.00150177 0.00000000
0.25169811 1.88321712 -0.00042329 0.00000000
1.41194276 0.76950563 0.00497834 0.00000000
0.24435069 1.16855142 0.00142519 0.00000000
