3.428444 1.389611 0.000931 0.0
1.969065 1.263708 -0.001442 0.0
4.184578 2.077371 -0.001040 0.0
0.821983 1.112611 0.001017 0.0
1.592846 1.764431 0.000831 0.0
3.116577 1.678980 0.002877 0.0
2.274941 1.972487 -0.002415 0.0
1.499699 1.128502 -0.001797 0.0
2.673618 2.298735 -0.003126 0.0
0.951241 2.430289 0.003522 0.0
3.764836 0.590214 -0.001151 0.0
1.123180 1.663896 0.002316 0.0
0.031307 1.295996 -0.001861 0.0
1.965220 1.704264 -0.003624 0.0
0.196397 2.132634 0.004000 0.0
1.344814 0.175125 -0.000725 0.0
3.866119 0.656562 0.007320 0.0
3.184928 2.348442 -0.002583 0.0
0.623955 1.637631 -0.000220 0.0
0.898934 1.714284 -0.001010 0.0
0.066173 1.133416 0.000314 0.0
0.747615 1.635078 -0.000571 0.0
1.519162 2.416251 -0.000669 0.0
4.229127 2.167076 -0.000238 0.0
1.101072 1.322509 -0.001460 0.0
1.338255 2.337071 -0.001075 0.0
0.516220 1.816979 0.007325 0.0
1.821074 2.411821 0.000066 0.0
2.426991 0.612321 -0.001020 0.0
3.701760 0.501020 0.003810 0.0
3.861742 0.966273 -0.000879 0.0
0.443245 1.932458 -0.001266 0.0
0.296442 2.074972 0.002144 0.0
3.130311 0.370800 -0.006177 0.0
3.715259 1.845510 -0.001150 0.0
0.714692 1.987664 -0.004316 0.0
2.411774 0.145854 0.000163 0.0
3.856556 1.497837 -0.000470 0.0
2.542285 1.644603 -0.002537 0.0
3.219999 0.816509 0.001970 0.0
4.447552 0.158473 0.004786 0.0
0.353848 2.159259 0.000872 0.0
4.175339 1.555689 -0.001104 0.0
0.850843 0.017975 -0.000483 0.0
3.095977 1.272479 0.002074 0.0
4.447911 0.720241 0.000779 0.0
4.332537 0.924203 0.000833 0.0
3.835575 1.488555 0.000091 0.0
1.753174 0.800700 -0.001644 0.0
4.108341 0.202475 0.004566 0.0
3.269243 0.750096 0.002776 0.0
0.098911 1.623634 -0.004651 0.0
0.305182 1.659953 -0.001074 0.0
1.057035 1.361464 0.000360 0.0
0.577018 2.175371 -0.001767 0.0
0.187856 1.070568 -0.000793 0.0
0.601706 1.734102 0.003629 0.0
3.478808 2.192869 -0.001569 0.0
4.012622 1.182660 0.004797 0.0
2.679705 0.763883 0.003720 0.0
0.963057 1.449525 0.002384 0.0
1.570708 1.001892 0.001742 0.0
4.287963 1.361325 0.002604 0.0
1.137090 0.871980 0.003027 0.0
1.816185 2.124978 0.000954 0.0
0.865019 1.494305 0.000519 0.0
0.182336 1.852384 -0.001936 0.0
2.413544 0.594602 -0.002235 0.0
3.460959 0.348956 0.000255 0.0
2.249948 0.881197 -0.004306 0.0
0.430554 1.658118 -0.002352 0.0
1.069224 2.365809 0.003223 0.0
0.588432 0.971716 -0.002107 0.0
0.377002 1.142092 -0.003487 0.0
0.779068 0.843279 -0.000464 0.0
1.199521 0.812688 0.002053 0.0
0.606023 0.827293 0.004522 0.0
0.841396 1.081041 0.000783 0.0
4.323862 1.206761 0.001220 0.0
3.961517 0.680656 0.000146 0.0
0.719992 2.167058 -0.000589 0.0
1.243843 1.702902 0.001510 0.0
3.472923 1.050084 0.000209 0.0
1.058362 2.076304 -0.003139 0.0
3.005832 1.021793 0.001910 0.0
0.737260 1.478939 -0.001557 0.0
1.347068 2.304186 -0.000840 0.0
0.695533 0.042400 -0.001860 0.0
1.083466 1.176864 -0.001351 0.0
2.524540 1.914450 0.003283 0.0
4.086284 1.182651 0.002083 0.0
2.553704 2.292679 0.001028 0.0
1.848256 1.381721 -0.001569 0.0
1.003924 0.006425 -0.000289 0.0
0.045198 1.132603 0.001093 0.0
0.299681 0.711171 0.000241 0.0
0.692538 2.423603 0.002038 0.0
3.252239 0.959657 0.001988 0.0
2.107499 1.135888 -0.002819 0.0
0.183466 0.440687 -0.002321 0.0
4.490383 0.336032 0.000149 0.0
3.078359 0.367064 0.002840 0.0
2.651604 1.355664 0.001771 0.0
1.096435 1.519876 -0.002582 0.0
2.185261 1.902833 0.002344 0.0
4.542725 1.753956 -0.000521 0.0
4.511995 0.452126 0.000430 0.0
2.102988 1.276741 0.002053 0.0
1.431012 2.191074 0.002104 0.0
2.908436 0.068750 -0.002328 0.0
1.592092 0.344156 0.001559 0.0
1.630452 1.906679 0.001071 0.0
3.265386 0.239432 0.002245 0.0
3.066459 0.968121 0.001558 0.0
4.277740 2.282103 0.001671 0.0
1.534703 0.374790 0.003557 0.0
2.153059 1.717731 -0.000633 0.0
2.644912 1.893581 -0.000677 0.0
0.981847 1.799683 -0.000593 0.0
2.850810 1.261673 0.000017 0.0
4.287646 1.082779 -0.000753 0.0
4.424337 0.572851 -0.004777 0.0
2.948955 2.254325 0.001718 0.0
2.222423 0.967123 -0.002718 0.0
2.715127 1.783679 -0.002120 0.0
0.542505 1.804636 0.003732 0.0
2.748676 2.379552 0.002129 0.0
2.367390 0.428319 -0.002150 0.0
4.561666 2.229049 0.004268 0.0
0.531831 1.748022 -0.003359 0.0
3.167110 1.184941 0.000885 0.0
4.387261 0.202544 0.003001 0.0
0.317027 2.261899 0.001256 0.0
1.747484 2.020070 -0.001013 0.0
1.697174 0.245781 0.005251 0.0
2.392257 1.246461 -0.001026 0.0
4.431231 0.998945 0.004298 0.0
4.194278 0.717287 -0.002725 0.0
4.248963 1.670462 -0.003948 0.0
2.551827 0.602014 -0.000401 0.0
0.479343 2.140936 0.001954 0.0
0.907088 0.445694 0.002587 0.0
3.232396 2.297048 0.000299 0.0
1.807792 0.347351 0.000229 0.0
0.079507 0.332308 -0.003425 0.0
0.375253 2.248712 0.002718 0.0
2.587636 0.549654 -0.000184 0.0
3.239579 1.837525 -0.001313 0.0
4.587153 0.181608 0.001320 0.0
0.636013 0.568861 0.006623 0.0
2.014376 0.882184 -0.002233 0.0
1.110318 1.297378 -0.001672 0.0
2.477769 2.292100 -0.001153 0.0
0.264195 2.381903 -0.003583 0.0
0.798833 0.396271 -0.000468 0.0
3.384820 0.491710 -0.002151 0.0
3.622204 1.949114 -0.000954 0.0
4.355441 0.971617 -0.005676 0.0
2.006987 2.302276 -0.002449 0.0
0.326717 2.041851 0.001923 0.0
3.233225 0.599050 -0.004066 0.0
3.685944 0.543969 0.007305 0.0
0.646867 1.333922 0.003619 0.0
4.316936 2.023485 -0.000412 0.0
4.566259 2.133471 0.003000 0.0
0.155374 0.090840 -0.001300 0.0
3.105739 1.225358 0.001666 0.0
2.573573 1.028065 0.000923 0.0
0.106836 0.802298 -0.002243 0.0
4.599777 0.873206 0.002397 0.0
2.753312 1.537417 -0.000367 0.0
0.649401 0.504150 0.000814 0.0
1.924096 0.471314 0.004078 0.0
1.319732 1.912815 -0.001872 0.0
1.603582 2.271283 -0.001180 0.0
0.051353 2.047965 0.001995 0.0
2.781642 1.509839 0.004580 0.0
4.040683 0.119051 0.001743 0.0
0.592961 1.159950 -0.000571 0.0
2.470620 1.125246 0.004930 0.0
0.230138 1.695617 -0.000689 0.0
1.135264 1.269380 -0.001968 0.0
4.561171 1.528855 -0.001449 0.0
1.295662 0.230010 -0.000144 0.0
3.512649 0.923859 -0.002967 0.0
0.842996 1.369234 -0.000306 0.0
0.729408 0.543622 -0.000063 0.0
2.089203 0.838296 -0.001639 0.0
2.285523 1.812811 -0.003678 0.0
4.646992 1.087303 -0.003054 0.0
1.066644 0.825688 -0.005656 0.0
4.179105 0.388978 -0.001587 0.0
3.802518 2.327484 -0.002802 0.0
2.036719 0.926643 0.001752 0.0
1.772547 1.376217 -0.001805 0.0
1.602309 1.650095 0.001155 0.0
0.354636 1.119842 0.000658 0.0
4.058303 2.092027 -0.002232 0.0
4.101664 1.760560 0.001012 0.0
0.285912 0.538378 0.001726 0.0
2.718886 0.921805 0.002235 0.0
3.968375 0.334367 -0.001800 0.0
0.006041 0.593901 0.000401 0.0
3.015853 0.027039 0.000649 0.0
1.517035 1.591053 0.000990 0.0
3.644570 1.867044 -0.004954 0.0
2.084012 1.765638 0.003552 0.0
1.086216 1.735558 -0.001334 0.0
1.422209 1.974934 -0.003305 0.0
2.007972 0.215572 0.001896 0.0
2.699703 1.844687 0.000878 0.0
3.025174 0.543007 0.002458 0.0
4.106374 1.934160 0.000673 0.0
4.350991 0.392150 0.000012 0.0
4.409718 1.361275 0.003379 0.0
0.529093 0.034474 0.002784 0.0
0.224229 0.617861 0.001864 0.0
1.303907 2.441416 -0.001201 0.0
3.543915 1.445566 0.000396 0.0
1.029933 1.580171 -0.000225 0.0
0.455106 1.368153 -0.000448 0.0
0.516623 1.534670 0.001599 0.0
1.928585 2.304085 -0.002888 0.0
3.848619 1.950327 -0.003148 0.0
1.004197 2.274277 -0.000661 0.0
1.597727 1.216689 0.000282 0.0
2.316097 2.152280 -0.000256 0.0
3.419243 1.394755 -0.001110 0.0
1.360826 0.476466 -0.002724 0.0
1.011277 0.887227 0.005001 0.0
4.497380 0.158532 0.005856 0.0
3.102045 0.943566 -0.003146 0.0
0.369035 0.429724 -0.000974 0.0
0.348801 0.404580 0.003852 0.0
4.109751 0.978503 -0.003059 0.0
2.135470 1.008220 -0.001031 0.0
4.448898 0.453832 0.001563 0.0
3.803790 0.060567 -0.000026 0.0
4.505938 2.102011 0.000283 0.0
1.487436 0.853422 0.001918 0.0
1.916811 1.312830 0.001358 0.0
3.879719 0.430503 -0.000471 0.0
2.412780 1.574321 0.001076 0.0
0.918332 2.128489 -0.001619 0.0
1.398892 0.200358 0.001552 0.0
2.176373 1.625033 0.005341 0.0
0.695705 0.862547 0.000787 0.0
2.929380 0.281629 0.002777 0.0
2.514580 1.217875 0.001119 0.0
1.005337 1.727288 0.000097 0.0
2.974937 1.292317 0.003203 0.0
0.642394 1.954517 -0.004646 0.0
4.114250 0.036157 -0.004055 0.0
2.523955 0.500534 -0.000299 0.0
3.450542 0.264384 0.001829 0.0
1.438729 1.658668 0.002026 0.0
3.675150 1.298126 -0.007200 0.0
1.026207 1.337902 -0.002973 0.0
2.987404 1.460519 0.000396 0.0
3.434664 0.157091 -0.002013 0.0
1.727263 1.890004 0.003086 0.0
4.710515 0.396434 -0.001291 0.0
1.066578 1.107822 -0.002190 0.0
2.767294 1.128355 -0.001713 0.0
0.579405 0.649039 -0.000778 0.0
2.561100 2.291614 0.000911 0.0
3.521305 1.651262 -0.003926 0.0
4.361696 2.227466 0.000092 0.0
1.437302 1.120336 0.000990 0.0
3.346557 2.059789 0.001027 0.0
2.921735 1.458689 -0.001888 0.0
1.008581 1.134191 0.002282 0.0
3.228247 2.250206 0.000102 0.0
3.876730 1.256148 -0.000375 0.0
2.549446 1.261228 0.003806 0.0
4.697928 0.162458 0.005196 0.0
0.042094 0.444779 0.001435 0.0
4.467878 0.362693 -0.000235 0.0
4.207695 0.704116 0.000216 0.0
2.204107 0.138912 -0.002073 0.0
1.386093 1.028639 0.002508 0.0
2.043151 0.364195 0.001243 0.0
4.692194 0.583831 0.001362 0.0
2.188139 0.656816 -0.003091 0.0
2.170057 1.615508 0.003811 0.0
2.244471 1.651356 -0.002337 0.0
3.633734 1.813948 0.001699 0.0
0.300371 0.220484 -0.002990 0.0
2.099635 0.085702 0.004384 0.0
4.432174 2.161819 0.001269 0.0
3.197568 1.036676 0.002256 0.0
0.351273 0.251327 0.005584 0.0
0.528096 2.047356 0.001312 0.0
2.407139 2.163861 0.000666 0.0
3.381882 2.076782 0.001092 0.0
0.941301 0.098711 -0.002975 0.0
1.523974 2.176076 -0.000873 0.0
1.317670 1.306642 -0.002118 0.0
2.495688 1.255592 0.000860 0.0
4.529649 0.959257 -0.000326 0.0
0.864011 0.247485 -0.004763 0.0
4.147471 0.685072 -0.004289 0.0
4.170053 1.918763 -0.000286 0.0
3.154729 1.883265 0.003116 0.0
1.971522 1.853164 -0.000556 0.0
2.099614 2.167160 -0.000887 0.0
3.838468 1.078738 0.001468 0.0
2.538399 1.189726 0.003118 0.0
3.806399 0.714376 -0.005099 0.0
2.228532 0.452677 -0.002597 0.0
3.421315 0.228391 0.001407 0.0
2.930945 1.979172 0.002563 0.0
3.876329 0.263296 -0.000340 0.0
1.167483 0.617420 -0.004977 0.0
3.565470 1.788169 0.000575 0.0
2.875975 0.768361 0.001913 0.0
4.283302 1.059573 -0.001326 0.0
0.804459 0.073757 -0.004346 0.0
2.395934 0.629078 0.002725 0.0
0.047082 2.274903 0.000139 0.0
0.741454 1.740522 0.000223 0.0
1.079736 0.015019 -0.000813 0.0
1.068860 1.343597 -0.002175 0.0
3.727541 0.917835 -0.003370 0.0
2.966817 2.160870 0.002543 0.0
4.296789 0.377505 0.001690 0.0
1.462904 1.807957 0.004497 0.0
3.740839 1.707224 0.002035 0.0
0.713400 0.059960 0.002786 0.0
0.390154 1.096387 -0.002783 0.0
2.962668 0.364689 -0.004322 0.0
1.939844 0.596892 0.003933 0.0
3.685986 2.182676 -0.002503 0.0
0.848286 0.715885 -0.001074 0.0
0.780611 0.048467 -0.003381 0.0
0.463146 1.606992 -0.002162 0.0
2.752929 0.424184 0.001997 0.0
4.703430 0.935924 -0.000691 0.0
3.535212 0.859820 -0.005958 0.0
2.340670 0.399199 0.005059 0.0
4.274846 0.549994 0.001272 0.0
0.577380 1.847108 -0.002744 0.0
3.721123 1.638126 -0.000268 0.0
4.056920 1.230837 0.003874 0.0
0.656280 1.050048 0.002783 0.0
1.873587 0.247353 -0.000762 0.0
2.369775 0.100474 0.001557 0.0
3.926973 1.615392 0.000878 0.0
2.754005 0.118592 0.000144 0.0
4.617183 0.337988 -0.000293 0.0
1.081616 2.090850 0.003641 0.0
2.080315 0.353616 -0.000671 0.0
2.945616 1.763262 0.002343 0.0
2.109793 0.755361 0.000104 0.0
2.251190 2.274273 0.002383 0.0
4.653189 0.837016 0.003031 0.0
3.911021 0.064156 0.001286 0.0
2.245530 2.318058 -0.000622 0.0
4.392920 0.180994 0.000539 0.0
3.753119 0.730452 -0.000884 0.0
1.130941 1.106847 0.000223 0.0
0.727880 1.394350 -0.002386 0.0
0.294090 2.071138 -0.001700 0.0
3.714918 1.102152 0.001096 0.0
0.138306 0.818695 0.001358 0.0
2.080297 1.150913 0.000776 0.0
0.442159 1.809118 -0.001031 0.0
4.465207 2.118133 0.000013 0.0
0.018117 2.245567 -0.002970 0.0
0.636955 1.935062 -0.006405 0.0
3.904383 2.128904 0.000633 0.0
4.195355 1.421129 -0.000750 0.0
0.962829 1.220730 -0.001147 0.0
3.680544 1.715734 0.000190 0.0
2.415312 0.619154 -0.000739 0.0
3.918247 0.422250 -0.001047 0.0
2.430134 0.685389 -0.000990 0.0
1.715288 1.694975 0.003919 0.0
2.457003 1.071929 -0.004359 0.0
4.363477 1.250280 0.002113 0.0
4.718395 1.315618 -0.003440 0.0
4.263676 1.934088 -0.002102 0.0
4.011374 1.254673 0.000578 0.0
0.757676 1.427863 -0.001951 0.0
1.100136 1.327768 0.001260 0.0
0.943271 1.662353 -0.005095 0.0
4.322436 0.314664 0.005435 0.0
3.420336 2.415677 0.003340 0.0
1.917058 0.662840 -0.000363 0.0
0.496511 0.175047 -0.001785 0.0
2.929613 1.835662 -0.005000 0.0
3.647762 1.432252 -0.000493 0.0
0.440513 0.896584 -0.002192 0.0
1.783796 2.030586 0.001198 0.0
2.457555 0.151005 -0.004591 0.0
0.886075 0.611116 -0.000562 0.0
3.889423 0.093548 -0.001002 0.0
3.083264 0.204933 0.002339 0.0
4.181238 1.470411 0.003929 0.0
3.552098 0.754343 0.001946 0.0
1.925047 0.399453 0.001556 0.0
3.404270 0.792463 0.000670 0.0
3.526240 1.484320 0.001200 0.0
1.657333 0.962004 -0.002001 0.0
0.373681 0.518543 -0.002455 0.0
0.660640 2.122897 -0.003253 0.0
3.879907 1.464464 -0.001268 0.0
0.208728 1.365624 0.001001 0.0
2.862834 1.108673 0.001328 0.0
0.513366 0.104462 0.003103 0.0
1.006114 0.798693 0.000030 0.0
0.940287 1.737243 0.000532 0.0
0.369464 0.744078 0.001969 0.0
3.183221 1.197043 0.000885 0.0
1.231004 1.990583 -0.002780 0.0
0.205842 2.280129 -0.001688 0.0
0.490562 2.360577 -0.001194 0.0
4.168513 0.782156 -0.002256 0.0
2.072936 1.693567 0.000961 0.0
2.968978 1.511523 0.003538 0.0
0.871439 1.558266 0.001231 0.0
3.925654 0.916418 -0.003636 0.0
0.724699 1.626663 0.000760 0.0
3.747419 1.106013 0.000358 0.0
3.010368 2.303409 0.000660 0.0
0.470866 1.758918 -0.002346 0.0
1.071252 1.603204 0.003271 0.0
2.835994 1.022437 0.001766 0.0
3.969639 0.320253 0.001876 0.0
1.500675 0.780013 0.005619 0.0
1.147729 0.529274 -0.000235 0.0
1.859814 0.170391 0.000962 0.0
0.442583 2.254757 -0.001901 0.0
2.536679 0.621166 -0.001755 0.0
4.586253 0.107857 -0.004069 0.0
4.337699 0.901459 0.001288 0.0
2.544623 1.684370 0.001591 0.0
0.846818 0.461739 0.000779 0.0
0.457329 1.201232 -0.000424 0.0
4.102483 1.745125 -0.000811 0.0
3.500339 0.634923 0.000502 0.0
4.494520 2.337873 0.000701 0.0
1.934420 2.385986 0.003585 0.0
1.554297 1.989877 -0.000984 0.0
1.413533 0.467119 -0.000515 0.0
3.591276 1.234526 0.006507 0.0
0.810493 0.437467 -0.002477 0.0
3.166979 1.713548 0.002422 0.0
1.371975 0.893321 -0.000148 0.0
3.005940 0.438598 -0.002504 0.0
2.588182 1.731378 0.001244 0.0
3.088976 0.413067 -0.001594 0.0
0.842064 0.345718 -0.000920 0.0
1.448969 1.677692 -0.000698 0.0
2.590167 0.820501 0.003457 0.0
4.019804 0.832873 0.000709 0.0
2.384853 0.670145 -0.000465 0.0
2.117024 1.753996 -0.001911 0.0
1.008723 1.323266 0.002876 0.0
0.836791 0.347522 0.001562 0.0
1.954806 0.406793 -0.004213 0.0
4.181370 1.653590 0.001692 0.0
1.129482 2.044012 -0.000915 0.0
4.305545 2.124015 0.003866 0.0
3.138807 1.185430 -0.003356 0.0
4.543574 1.031883 -0.003708 0.0
3.772975 0.927118 -0.001596 0.0
1.180833 1.133602 -0.000496 0.0
0.938783 0.469658 0.001701 0.0
2.459275 1.493846 -0.001886 0.0
3.105279 0.097545 0.001159 0.0
1.717525 1.811933 -0.003240 0.0
2.202834 1.893469 0.002109 0.0
1.937822 1.606527 0.002056 0.0
4.083811 0.800237 -0.004858 0.0
3.550578 0.964501 -0.000832 0.0
2.936884 0.394979 -0.000539 0.0
3.932651 0.644847 0.002865 0.0
1.189128 0.345405 0.003264 0.0
2.987011 1.783463 0.001383 0.0
1.082634 1.248280 0.001155 0.0
0.027236 0.136201 0.001034 0.0
4.568424 0.791236 -0.004581 0.0
3.011582 0.940050 -0.000447 0.0
1.591805 0.521001 0.000859 0.0
2.920976 1.957131 -0.001260 0.0
0.022038 2.159445 0.001322 0.0
4.545453 1.902413 -0.002196 0.0
3.628577 2.214745 -0.003920 0.0
2.547476 2.351721 0.001799 0.0
1.214233 1.768045 -0.001702 0.0
2.969384 2.434276 -0.000865 0.0
2.370231 0.214481 -0.004475 0.0
3.245908 1.460196 0.001076 0.0
4.126980 0.700467 0.001169 0.0
0.758326 0.286952 -0.001391 0.0
0.745165 0.677526 0.002302 0.0
4.464898 1.253499 0.000330 0.0
3.530651 1.262521 0.001858 0.0
4.704506 0.871906 0.001152 0.0
1.725796 1.222890 -0.002532 0.0
2.025642 1.952324 0.001463 0.0
4.000691 0.359261 0.004535 0.0
4.590157 2.031023 0.001971 0.0
2.711005 1.376068 0.001445 0.0
3.779868 2.097061 0.000228 0.0
4.410946 1.262708 -0.000578 0.0
4.012671 1.926789 0.001817 0.0
3.978509 0.587601 0.005544 0.0
3.549488 0.688678 0.000628 0.0
4.269079 0.825734 0.000915 0.0
0.083287 0.279400 -0.000454 0.0
4.342116 1.982433 0.001252 0.0
0.885109 0.071234 0.000664 0.0
0.029167 0.589273 0.003860 0.0
1.994323 0.213595 -0.002566 0.0
4.264914 0.135611 -0.000897 0.0
2.920158 2.326306 0.001477 0.0
1.767030 1.362427 -0.000373 0.0
0.152360 0.896088 -0.002290 0.0
4.445566 1.402418 0.000395 0.0
0.322449 1.186238 0.003015 0.0
3.145009 0.481708 -0.001083 0.0
4.455790 0.292569 -0.003600 0.0
2.809671 1.569549 0.003160 0.0
1.156772 2.064808 0.003511 0.0
2.373539 2.185124 -0.003074 0.0
1.046026 0.236382 0.003930 0.0
2.784330 2.202919 0.000201 0.0
0.316934 2.188238 0.000836 0.0
2.667695 1.481838 -0.002064 0.0
2.277521 1.909522 -0.001946 0.0
0.678134 1.729645 -0.001095 0.0
3.877891 0.144323 -0.001239 0.0
0.941350 0.329860 -0.000070 0.0
0.517673 1.349430 -0.002611 0.0
0.745069 2.092055 -0.002874 0.0
1.483760 2.020276 0.003236 0.0
4.331520 0.646090 -0.002008 0.0
0.146477 1.628563 0.003016 0.0
1.966662 1.506632 -0.003462 0.0
1.397758 1.856410 -0.000553 0.0
1.024145 1.321304 -0.003032 0.0
0.275734 2.355864 -0.000069 0.0
3.982421 2.179827 -0.002156 0.0
1.287518 2.226651 0.000527 0.0
1.250392 0.181723 -0.004430 0.0
1.746625 0.773143 0.001415 0.0
1.232549 1.934089 0.000311 0.0
1.744190 0.435824 0.000046 0.0
1.801862 2.050144 0.000514 0.0
3.049733 0.812368 -0.001203 0.0
2.761510 1.596556 -0.002231 0.0
2.471156 2.065213 0.002480 0.0
4.112234 0.506763 -0.001143 0.0
1.981727 1.220498 -0.004882 0.0
3.680858 0.285891 0.002842 0.0
3.807075 2.193576 -0.003385 0.0
3.137509 1.195939 -0.002361 0.0
4.554763 0.096320 -0.000040 0.0
1.023579 0.512965 -0.005931 0.0
2.753104 2.134778 -0.000109 0.0
1.141479 2.273770 -0.002414 0.0
3.217159 1.478797 -0.002418 0.0
3.833341 1.922164 -0.002105 0.0
1.021591 1.627615 0.001739 0.0
4.307635 0.173945 -0.003544 0.0
0.588743 0.899632 -0.000753 0.0
0.559749 0.247369 0.002959 0.0
4.325055 1.704854 -0.000894 0.0
3.497256 1.516837 -0.003430 0.0
3.905108 2.010025 -0.003109 0.0
0.993602 1.434308 -0.000109 0.0
2.818996 0.425270 -0.000157 0.0
0.482933 1.285431 0.002219 0.0
4.326922 0.397455 0.002619 0.0
1.356252 0.220308 0.001192 0.0
0.451610 0.800510 0.001655 0.0
4.058552 2.136097 -0.003296 0.0
1.260756 1.238313 -0.000899 0.0
0.164575 0.268823 0.000273 0.0
1.547986 0.355163 0.002801 0.0
1.028724 0.780612 0.003125 0.0
1.899626 0.712583 -0.001683 0.0
2.563848 1.180027 0.001209 0.0
0.632281 0.396859 -0.000908 0.0
0.486527 0.723960 -0.001465 0.0
0.296236 1.886708 0.001083 0.0
2.157838 1.229001 -0.002090 0.0
3.110599 1.502370 -0.004888 0.0
0.761295 2.183018 0.007464 0.0
3.780264 1.196272 -0.001849 0.0
4.557561 1.099724 0.007235 0.0
0.413116 0.885607 -0.000452 0.0
0.442104 0.001820 -0.001981 0.0
1.879565 0.140904 0.001039 0.0
4.481562 1.383702 0.002210 0.0
2.698701 1.665419 0.000386 0.0
4.109418 1.968665 0.000083 0.0
0.967065 0.224327 -0.004498 0.0
3.509820 1.348046 -0.000759 0.0
3.650770 0.358588 0.002360 0.0
0.175263 1.934420 0.004441 0.0
1.666910 2.341045 0.000749 0.0
0.322512 1.016726 0.003341 0.0
2.230590 1.754608 0.003819 0.0
3.730561 2.134932 0.006232 0.0
2.609132 0.644835 0.001105 0.0
1.568905 0.861252 0.000983 0.0
2.793577 1.431870 -0.001474 0.0
1.313408 1.859870 -0.001232 0.0
1.054257 0.107168 0.001731 0.0
2.884741 1.053834 0.002670 0.0
1.235793 0.081083 -0.002560 0.0
3.474292 0.303412 -0.001120 0.0
2.273352 0.656549 0.001275 0.0
4.130848 1.935287 -0.003466 0.0
1.520469 0.258729 0.001557 0.0
0.517951 0.169405 -0.001929 0.0
2.239729 0.278707 -0.004461 0.0
1.704483 0.222945 0.002999 0.0
2.663774 1.177907 -0.000002 0.0
3.777932 0.631178 0.006073 0.0
1.935774 2.422639 -0.000303 0.0
1.020158 0.638543 0.001976 0.0
0.444073 2.205271 0.000524 0.0
2.557675 0.089634 0.000678 0.0
0.279949 0.780711 -0.001888 0.0
0.636864 2.137739 -0.003370 0.0
0.644863 1.438776 -0.002257 0.0
3.620386 1.532171 0.001265 0.0
4.313859 1.357594 0.002129 0.0
1.489057 1.094696 0.004048 0.0
1.747800 1.247610 -0.000049 0.0
3.337351 0.291206 0.001977 0.0
3.521847 2.249713 0.007499 0.0
3.224994 2.147981 -0.003955 0.0
2.284961 2.163524 -0.001649 0.0
3.031852 0.088981 0.002845 0.0
1.184795 1.869423 0.001692 0.0
4.666963 0.393524 0.002845 0.0
1.458854 1.173891 0.002813 0.0
0.282759 2.150733 -0.006631 0.0
4.528495 2.293481 0.001667 0.0
3.460856 0.318508 0.001437 0.0
3.092044 0.853998 0.001181 0.0
0.462176 0.694441 -0.000801 0.0
1.006483 1.298261 -0.001356 0.0
2.458539 0.272851 -0.001413 0.0
1.323226 2.032165 -0.002185 0.0
2.817809 0.758468 0.002880 0.0
4.723323 1.634656 0.000738 0.0
2.380920 0.474785 -0.000308 0.0
3.247012 1.388728 0.001192 0.0
1.666022 1.110377 0.000530 0.0
1.139157 1.362694 0.007531 0.0
2.715439 2.121080 0.001350 0.0
1.488490 1.712044 -0.001207 0.0
2.213975 1.295858 0.000322 0.0
2.958347 1.356167 0.000735 0.0
0.347137 1.947997 0.000431 0.0
4.574609 1.613436 0.001492 0.0
1.921461 1.327158 0.000044 0.0
2.330920 0.421995 0.000874 0.0
2.746091 0.171604 -0.001299 0.0
3.733541 0.981343 -0.002134 0.0
2.056380 0.434408 0.000680 0.0
2.520728 1.909489 0.002772 0.0
4.063434 1.377226 -0.000950 0.0
4.071251 0.157711 -0.001501 0.0
1.325910 1.840129 -0.001938 0.0
1.500937 1.502256 -0.001274 0.0
1.516083 0.089091 -0.002427 0.0
2.033189 2.116648 0.003498 0.0
3.152605 0.453008 0.000945 0.0
2.102358 0.023331 -0.001852 0.0
1.468844 2.176480 -0.001568 0.0
2.998127 2.281166 0.000109 0.0
1.387091 2.298070 -0.000309 0.0
4.479977 0.924574 -0.002216 0.0
1.628503 0.638085 -0.001768 0.0
3.443914 1.895942 -0.007906 0.0
1.313294 2.071303 0.002360 0.0
3.118680 1.412197 -0.001603 0.0
1.044508 1.662971 -0.000312 0.0
3.288322 1.642420 -0.000706 0.0
2.181065 0.604499 0.000172 0.0
1.580576 0.852495 -0.000309 0.0
3.965176 2.071538 0.002510 0.0
3.481355 1.717669 -0.000378 0.0
4.461158 2.004523 -0.003246 0.0
3.492199 0.474467 -0.000156 0.0
3.032125 0.072963 0.001768 0.0
1.102068 0.790542 -0.003010 0.0
0.066656 2.369996 -0.000758 0.0
2.986506 0.557448 0.002137 0.0
1.656592 0.627178 0.003026 0.0
0.007528 0.225563 -0.001004 0.0
2.418847 0.909434 0.000194 0.0
2.325626 0.218739 0.004013 0.0
3.250203 1.760637 0.002680 0.0
3.089504 2.271223 0.003432 0.0
4.463943 0.483458 -0.000990 0.0
1.470504 2.390003 0.000972 0.0
1.416027 0.074855 -0.003328 0.0
4.250790 1.209552 0.001903 0.0
0.946843 2.224791 -0.002394 0.0
2.985994 0.011721 0.000677 0.0
4.590899 2.326440 0.001273 0.0
2.504773 2.091633 0.004098 0.0
3.319963 1.298922 0.001383 0.0
0.271505 1.560153 0.005288 0.0
0.812380 1.748175 -0.002408 0.0
2.191375 2.247008 0.000241 0.0
2.492104 1.028428 0.000703 0.0
4.613239 1.189791 0.001585 0.0
1.513232 2.298515 -0.002305 0.0
2.782903 0.923076 0.004727 0.0
0.521960 1.884021 -0.001565 0.0
2.221797 1.297031 0.000960 0.0
0.925859 0.704192 -0.001515 0.0
2.923012 0.221625 -0.002180 0.0
1.894656 1.098405 0.000950 0.0
2.932429 0.014663 0.003472 0.0
1.865040 0.671398 -0.002355 0.0
1.269481 1.139056 0.000323 0.0
1.459234 0.722358 -0.003689 0.0
2.556049 2.083296 -0.004386 0.0
1.590673 1.012181 -0.001030 0.0
3.742916 2.154781 0.004410 0.0
0.328952 0.715401 0.000625 0.0
1.656226 0.879202 -0.002390 0.0
2.338992 0.488167 -0.004604 0.0
4.044834 2.422385 0.002067 0.0
1.395783 1.198266 -0.001794 0.0
2.065244 0.255398 0.000439 0.0
4.359461 0.822435 -0.004144 0.0
1.921236 0.051345 -0.004602 0.0
4.244725 1.428790 -0.000643 0.0
3.137531 0.182898 -0.000956 0.0
4.187986 1.515455 0.002768 0.0
1.709452 0.758386 0.001517 0.0
4.456946 0.021958 0.000130 0.0
3.351841 1.922236 -0.000391 0.0
1.124606 0.052390 -0.001810 0.0
0.067208 0.140965 0.002302 0.0
0.398078 1.512238 -0.000348 0.0
1.423438 1.083087 -0.002758 0.0
3.627934 0.331185 -0.002738 0.0
2.910553 1.198372 -0.003096 0.0
2.046784 0.081904 -0.001115 0.0
0.017717 0.270143 0.000861 0.0
0.807195 1.652919 0.001129 0.0
3.127703 2.019626 -0.000609 0.0
0.867141 0.728817 0.000035 0.0
2.801392 2.017758 -0.002514 0.0
3.009368 0.545186 0.002958 0.0
3.143789 1.057227 0.002276 0.0
1.282536 1.158439 0.000676 0.0
0.380497 2.400203 -0.000150 0.0
4.205168 0.067736 0.002048 0.0
2.670512 2.005911 -0.000405 0.0
1.380712 0.321667 0.000117 0.0
3.447211 0.963308 -0.001717 0.0
1.298676 0.261020 0.001324 0.0
4.235098 2.207241 -0.002052 0.0
1.925773 2.056538 0.000712 0.0
4.208884 0.019721 -0.003524 0.0
0.828245 0.045369 0.002043 0.0
0.569751 0.910315 -0.000629 0.0
0.741687 0.763372 0.000412 0.0
3.888281 2.369480 0.003142 0.0
3.625703 2.144007 -0.000814 0.0
0.245698 1.301816 -0.001529 0.0
0.427913 0.783698 -0.002762 0.0
1.250154 1.940498 0.002500 0.0
4.644125 2.297929 -0.002028 0.0
1.124364 1.159066 0.002629 0.0
0.073771 2.285353 -0.000113 0.0
3.469187 0.908107 -0.001071 0.0
2.359484 2.049517 0.000754 0.0
4.265087 2.297125 0.004767 0.0
1.994652 0.699926 -0.000954 0.0
3.971092 0.410037 -0.001123 0.0
0.734725 2.227581 0.002860 0.0
2.359003 1.111505 -0.001642 0.0
0.696458 0.772036 -0.000745 0.0
1.640316 0.992190 0.000589 0.0
4.442175 1.938316 -0.002111 0.0
0.968340 2.340615 0.002110 0.0
3.275628 1.170018 -0.002061 0.0
3.831305 1.823744 0.001172 0.0
1.978778 0.522519 -0.001365 0.0
0.833918 1.887286 0.000854 0.0
2.845480 0.358203 -0.004972 0.0
4.292022 1.262366 0.001599 0.0
4.248789 0.095891 -0.005096 0.0
2.940344 0.250708 0.000784 0.0
0.518053 0.580265 -0.001946 0.0
3.680532 1.233764 -0.003477 0.0
1.101544 0.101996 0.002697 0.0
1.038813 0.894845 0.005104 0.0
0.857689 1.608230 -0.001501 0.0
3.416878 0.694133 -0.000765 0.0
4.606097 0.741802 -0.005763 0.0
0.323058 1.412830 0.002938 0.0
2.445885 0.078588 0.000607 0.0
4.290733 2.370098 -0.000165 0.0
2.104005 0.537374 -0.004340 0.0
2.860256 0.932960 0.004077 0.0
2.519646 2.409011 -0.000295 0.0
4.668846 2.007707 0.002145 0.0
3.429532 0.072009 0.003120 0.0
0.770505 2.309732 0.000251 0.0
3.474739 1.896104 -0.002103 0.0
3.866968 0.936034 0.002683 0.0
4.224480 2.401515 0.003828 0.0
0.944902 1.570215 -0.002786 0.0
4.334243 1.300630 -0.000103 0.0
3.346663 1.986810 -0.001020 0.0
2.477642 1.032174 0.000216 0.0
2.292608 1.100466 -0.003111 0.0
2.642716 1.519420 -0.000166 0.0
4.390137 1.834700 0.001717 0.0
2.548233 0.163359 -0.001946 0.0
2.095413 2.419621 0.000897 0.0
1.588931 0.085196 0.001713 0.0
4.605041 1.471241 -0.002777 0.0
2.736421 0.304256 -0.001624 0.0
1.450291 1.720786 0.002477 0.0
0.232577 1.833128 0.002676 0.0
1.589542 0.878667 -0.002699 0.0
4.337637 0.875344 -0.000613 0.0
0.777904 1.825621 0.000037 0.0
0.792249 2.258874 0.004448 0.0
2.542325 0.495975 -0.002108 0.0
3.674392 0.702234 0.001039 0.0
4.562004 2.345543 -0.001156 0.0
4.006078 0.475362 -0.001453 0.0
0.477191 0.213323 0.004063 0.0
4.411190 0.593725 0.002185 0.0
3.862420 1.310654 -0.000430 0.0
4.599781 0.688702 -0.000825 0.0
4.623042 0.414851 -0.000725 0.0
1.434017 2.015625 -0.003598 0.0
1.759220 1.922621 0.002092 0.0
0.469356 2.413946 -0.001702 0.0
3.016696 0.676320 -0.001243 0.0
4.187869 0.975272 -0.004407 0.0
4.184649 2.169475 0.002567 0.0
0.459210 1.590702 -0.001181 0.0
0.858395 1.557146 0.000394 0.0
0.394334 0.903546 -0.002294 0.0
1.386843 0.118240 -0.004887 0.0
2.736226 0.782833 0.000798 0.0
1.141864 1.426409 -0.001572 0.0
1.812396 0.334456 0.000644 0.0
1.216435 0.389482 -0.001939 0.0
4.254321 1.647718 0.003103 0.0
0.280377 2.397294 0.002975 0.0
0.220738 0.331899 0.002741 0.0
4.053804 0.042640 -0.001195 0.0
2.570167 2.229557 0.001902 0.0
2.651730 1.909547 -0.004523 0.0
4.438214 1.380507 -0.002324 0.0
4.647277 1.477625 0.004235 0.0
2.798147 0.488891 0.000706 0.0
2.429065 1.462661 -0.000753 0.0
4.363342 0.568411 0.003476 0.0
3.856343 0.246518 -0.001001 0.0
2.598708 1.109119 0.000511 0.0
1.345485 2.115065 0.000169 0.0
4.017729 2.420799 -0.002615 0.0
1.637219 2.369781 -0.003653 0.0
2.869138 0.435346 -0.001936 0.0
1.956730 0.057502 -0.000684 0.0
4.182917 2.085159 -0.000189 0.0
2.299621 0.895399 -0.001984 0.0
1.420377 1.006410 0.001406 0.0
4.320271 0.648944 0.004948 0.0
2.268639 0.639632 -0.001831 0.0
0.269911 0.390751 0.004210 0.0
3.725779 0.971021 0.002975 0.0
4.075773 0.872063 -0.003093 0.0
4.674515 1.822242 0.000544 0.0
4.200479 1.194277 0.000461 0.0
2.610167 0.000205 -0.000739 0.0
3.078135 2.191337 -0.006330 0.0
2.076648 2.408548 -0.003179 0.0
3.708954 0.552535 0.003181 0.0
0.527949 2.252267 -0.002199 0.0
2.712361 0.264944 0.002811 0.0
1.856587 0.101515 -0.003452 0.0
2.236091 2.222176 0.000899 0.0
4.594587 2.427015 -0.005005 0.0
1.244253 1.225041 -0.002480 0.0
0.044332 0.818748 -0.002196 0.0
3.298437 0.352853 -0.000683 0.0
4.112443 0.648840 0.002371 0.0
0.545403 0.467599 -0.003469 0.0
3.030226 2.382768 0.001894 0.0
1.002732 1.725191 0.001895 0.0
1.150494 1.925508 -0.002354 0.0
3.513264 1.328096 -0.001235 0.0
3.211425 1.123324 -0.000443 0.0
1.243914 1.941550 -0.000878 0.0
0.434592 1.471400 -0.004107 0.0
4.096650 1.210254 0.001284 0.0
2.850452 0.460900 0.001197 0.0
3.468861 0.976384 -0.002164 0.0
2.571508 1.258321 -0.001208 0.0
1.785817 2.008141 -0.007140 0.0
1.328598 0.184103 -0.000729 0.0
4.700781 1.809862 -0.002098 0.0
2.173652 2.303039 -0.001797 0.0
1.801596 0.070389 0.002788 0.0
4.566276 0.084938 0.000950 0.0
0.625984 0.224588 0.000082 0.0
0.008830 0.871483 -0.002635 0.0
0.748770 1.676021 -0.003684 0.0
2.572658 0.079852 -0.001972 0.0
0.813778 1.726057 -0.003400 0.0
4.178916 0.655485 -0.003789 0.0
3.264423 1.178513 -0.000965 0.0
2.318948 1.302344 -0.001179 0.0
1.001306 1.853899 0.002651 0.0
3.337695 1.908369 0.006062 0.0
2.856427 0.446925 -0.000769 0.0
0.898884 1.418612 -0.001668 0.0
4.435920 1.833347 -0.001265 0.0
1.581561 0.092823 -0.001653 0.0
2.647178 2.208198 0.003710 0.0
3.547283 1.209693 0.002824 0.0
1.483439 0.404910 -0.002175 0.0
2.346000 0.799377 0.003164 0.0
1.276225 0.781923 0.002118 0.0
2.390402 2.171067 -0.000859 0.0
1.135040 1.912695 0.000350 0.0
2.377527 1.693940 -0.000676 0.0
3.598834 0.815415 -0.001681 0.0
0.311330 1.562531 0.003616 0.0
3.684982 0.109816 -0.003233 0.0
0.632635 1.825773 0.001738 0.0
1.804784 1.111512 -0.000689 0.0
1.254809 1.385206 -0.005516 0.0
4.146636 0.393979 0.000519 0.0
0.119125 0.102717 -0.000225 0.0
0.943123 2.374358 0.001665 0.0
0.636263 1.092532 -0.003304 0.0
2.884617 0.511737 0.003324 0.0
2.189558 0.256375 -0.001429 0.0
2.665542 1.060946 -0.000233 0.0
4.025210 2.256664 0.000698 0.0
1.398924 1.230050 -0.002906 0.0
1.469479 0.226048 -0.001149 0.0
2.091136 0.703774 0.001463 0.0
1.942943 0.230417 0.004221 0.0
3.231410 0.177037 -0.001862 0.0
2.476503 1.472519 -0.000765 0.0
4.123155 2.139180 -0.002956 0.0
1.763144 1.341582 0.000959 0.0
2.710531 0.327412 -0.002938 0.0
4.206724 0.170479 -0.002040 0.0
3.951833 0.055635 -0.004713 0.0
4.465424 1.023494 -0.002281 0.0
1.271412 2.405437 -0.002878 0.0
0.125635 1.750938 -0.000877 0.0
3.907747 1.365459 0.003304 0.0
1.232577 0.367459 0.003388 0.0
4.338858 0.001287 0.002731 0.0
0.298093 0.279952 0.001351 0.0
1.465485 1.428013 -0.000046 0.0
1.911179 1.526565 -0.000562 0.0
0.456890 0.507035 -0.000216 0.0
3.999773 0.272859 0.001458 0.0
0.345459 2.142773 0.002149 0.0
3.384685 2.226977 -0.001645 0.0
3.274488 0.026452 -0.000853 0.0
3.760229 0.685737 -0.004019 0.0
1.356968 0.515169 0.001552 0.0
2.922487 1.323989 -0.000280 0.0
2.218721 1.203001 0.003974 0.0
4.018447 1.884596 -0.003670 0.0
0.485877 2.395782 0.001390 0.0
0.900286 1.150370 0.000094 0.0
0.614277 0.291117 -0.001664 0.0
3.320716 0.830888 0.001436 0.0
0.652576 0.467235 -0.002148 0.0
1.761088 0.017339 -0.001184 0.0
2.304567 1.382726 -0.002970 0.0
4.389339 0.653771 -0.003864 0.0
3.102806 1.802392 -0.001385 0.0
0.639994 2.169109 -0.000968 0.0
1.225544 1.253785 -0.001157 0.0
4.268808 1.189405 0.004077 0.0
0.131608 1.232475 -0.002865 0.0
2.347232 1.093634 0.004445 0.0
0.631190 1.773753 0.003428 0.0
0.297295 1.574821 -0.005458 0.0
0.745113 1.495754 -0.000635 0.0
2.602327 1.623363 0.001870 0.0
3.820511 1.329091 0.000220 0.0
4.382868 1.686024 -0.003941 0.0
1.801851 1.720886 0.002196 0.0
2.608300 2.270768 0.007724 0.0
4.511604 0.857027 0.001228 0.0
0.194832 2.350855 0.000559 0.0
3.713132 0.156478 0.001583 0.0
2.592190 1.608664 0.003118 0.0
4.061687 2.120361 0.002952 0.0
1.538009 0.669592 0.000449 0.0
3.721135 1.865251 -0.001588 0.0
2.423559 1.735943 0.004225 0.0
3.209028 0.382289 -0.003089 0.0
2.914079 0.814993 -0.001295 0.0
3.797270 2.225120 0.003362 0.0
0.103807 1.675957 0.001754 0.0
1.841303 1.237270 -0.000349 0.0
2.675230 0.441428 -0.000552 0.0
4.181226 1.363913 -0.000543 0.0
3.450131 1.021326 -0.002420 0.0
4.092694 2.078110 -0.001882 0.0
1.567936 1.289942 0.001398 0.0
0.061033 1.207316 -0.004289 0.0
2.352262 1.759867 -0.002185 0.0
2.244520 0.985010 0.001342 0.0
2.295444 1.225340 0.000768 0.0
1.301179 1.153966 0.003298 0.0
4.467616 0.208029 0.004300 0.0
1.344294 2.179766 -0.003330 0.0
2.950265 1.060814 0.000836 0.0
1.453469 0.182109 0.000860 0.0
0.889565 2.105666 0.003776 0.0
0.070275 1.271510 -0.000052 0.0
0.998470 0.873628 0.000322 0.0
3.726817 1.784418 -0.001705 0.0
3.126073 0.854169 -0.001930 0.0
3.051330 2.238955 -0.004353 0.0
2.255977 1.622725 0.001845 0.0
1.945635 0.197084 0.001528 0.0
4.591547 0.531647 -0.001881 0.0
3.389376 2.148777 -0.000121 0.0
4.258420 0.560758 -0.000395 0.0
3.893505 0.914882 -0.000448 0.0
3.461368 0.968140 -0.000476 0.0
4.416078 2.240791 0.002706 0.0
0.053052 1.060416 -0.005870 0.0
3.203762 0.357557 -0.000064 0.0
2.106775 1.864611 -0.002404 0.0
1.092462 1.741996 0.002618 0.0
0.304847 0.026395 0.002983 0.0
3.815718 0.007800 -0.002640 0.0
2.551479 1.689417 0.001311 0.0
3.811008 0.395497 0.003857 0.0
0.697944 0.683946 -0.002052 0.0
0.725542 1.466125 -0.000633 0.0
2.299144 1.850768 0.002017 0.0
0.699730 1.241634 0.005344 0.0
4.665509 1.823466 -0.003176 0.0
2.412998 1.605803 -0.003458 0.0
1.046160 2.423630 0.000080 0.0
2.527851 0.982866 -0.001227 0.0
2.421660 1.290856 0.004194 0.0
3.896504 0.846988 -0.002789 0.0
0.238704 1.183415 0.000470 0.0
3.610859 2.124099 -0.001715 0.0
1.475979 2.240124 -0.005230 0.0
3.038263 1.890323 -0.003261 0.0
4.121857 1.960857 -0.001344 0.0
2.953202 0.845029 -0.001696 0.0
3.776655 0.069127 -0.000414 0.0
2.509935 1.264382 -0.000120 0.0
2.982332 0.325781 -0.000233 0.0
0.415529 2.103629 -0.002737 0.0
4.178530 2.045831 -0.003181 0.0
0.663597 1.206245 0.000492 0.0
3.836029 0.234912 0.002060 0.0
4.369717 1.083205 0.001611 0.0
2.563999 1.959838 -0.004798 0.0
3.381256 2.291023 -0.003175 0.0
3.031932 1.310225 0.003335 0.0
4.284369 0.384044 0.004216 0.0
2.883914 0.694778 -0.002698 0.0
2.764920 2.052006 -0.002682 0.0
1.999851 0.084051 -0.000103 0.0
2.273555 0.206198 0.002479 0.0
0.406223 1.350268 0.001747 0.0
0.642519 0.011155 -0.000594 0.0
0.680300 2.126243 0.000747 0.0
1.007275 2.227699 0.000988 0.0
1.750141 1.964797 0.002093 0.0
3.358388 1.090587 -0.000403 0.0
1.924446 0.450911 0.000861 0.0
4.250092 1.815574 -0.004453 0.0
3.114564 0.091095 -0.003262 0.0
4.239553 0.793329 -0.000413 0.0
3.135175 0.600804 0.001947 0.0
0.175149 0.547595 0.001869 0.0
4.239691 0.064281 0.001612 0.0
3.607628 0.155659 -0.004559 0.0
0.395424 1.763003 -0.003823 0.0
4.157389 1.220767 0.003595 0.0
2.950556 1.449781 -0.000481 0.0
4.704018 0.058898 -0.005342 0.0
3.129605 0.158001 -0.002215 0.0
3.127118 1.439587 0.001419 0.0
4.293092 2.063540 0.002694 0.0
0.426963 1.561037 0.001548 0.0
0.163994 2.206424 -0.003023 0.0
2.136916 0.815052 -0.000759 0.0
0.696909 1.135617 0.002235 0.0
0.759234 1.313050 0.000972 0.0
0.164597 2.086531 0.000882 0.0
3.684432 1.407868 0.003324 0.0
0.986374 1.198791 -0.000611 0.0
3.833579 1.225035 -0.000206 0.0
2.006848 0.669246 0.001875 0.0
2.953471 1.342290 0.002907 0.0
2.907625 1.750576 0.005215 0.0
2.132525 2.028152 -0.000902 0.0
4.635162 1.112102 0.000177 0.0
3.592727 1.297908 -0.002129 0.0
1.678077 1.324522 0.004815 0.0
2.209243 1.252138 -0.000221 0.0
2.930787 1.978277 0.000299 0.0
1.931740 2.349377 -0.000777 0.0
2.376987 0.000358 -0.004910 0.0
2.807204 0.278319 -0.000021 0.0
3.249833 1.311765 0.003119 0.0
1.825867 1.798816 -0.002439 0.0
1.558254 1.240368 -0.003270 0.0
3.925839 1.755463 -0.002829 0.0
4.332648 2.296668 -0.003702 0.0
4.227413 0.420049 -0.000421 0.0
1.536194 1.674121 -0.006964 0.0
2.435451 0.909307 0.003462 0.0
3.369892 0.351497 -0.001500 0.0
1.608348 0.199585 0.000734 0.0
0.966875 1.439119 -0.003840 0.0
3.975472 1.600293 0.000568 0.0
1.143068 1.438875 0.001146 0.0
2.038910 0.627651 0.003826 0.0
4.245994 1.915514 -0.007864 0.0
0.608616 0.874890 -0.003719 0.0
1.429784 2.352890 -0.002419 0.0
4.317596 0.065786 0.001068 0.0
0.493492 0.785114 0.000227 0.0
3.279757 0.080330 0.001957 0.0
0.958437 1.079084 0.001379 0.0
0.394634 0.560073 0.001522 0.0
0.326344 1.925723 -0.001574 0.0
1.524359 0.475492 0.003936 0.0
2.655474 2.040734 -0.001084 0.0
1.421108 2.309332 0.000143 0.0
1.619661 0.121871 -0.001060 0.0
1.537583 2.345301 0.001177 0.0
4.259587 2.317227 -0.001607 0.0
2.866480 0.264305 0.002235 0.0
0.083926 0.347763 -0.002420 0.0
3.719003 1.533024 -0.003193 0.0
4.015349 2.337841 0.001801 0.0
0.967858 0.868329 0.000362 0.0
0.835000 1.298000 0.000468 0.0
2.393396 0.504878 0.002231 0.0
0.751183 0.404005 -0.003396 0.0
3.252156 0.029822 0.000806 0.0
0.377400 0.600709 0.000951 0.0
0.530775 1.520909 -0.000320 0.0
2.633193 1.755756 -0.002162 0.0
2.515312 0.081209 -0.001584 0.0
2.154186 2.076253 0.000198 0.0
0.815853 1.171834 -0.001198 0.0
1.351104 0.832775 -0.001004 0.0
4.368326 0.410186 -0.001242 0.0
0.083596 1.232713 0.002220 0.0
1.525636 1.564905 -0.003415 0.0
0.017737 1.401573 -0.000189 0.0
4.647130 1.015524 0.000425 0.0
0.516490 1.549538 0.003290 0.0
2.791052 0.036226 0.004968 0.0
2.839319 1.411946 -0.001088 0.0
2.265644 2.398675 0.001522 0.0
4.578692 0.132684 0.002505 0.0
0.222416 0.920963 0.000267 0.0
3.588907 1.480085 0.001296 0.0
4.111709 0.838846 -0.005153 0.0
1.602426 0.370387 0.001938 0.0
0.940155 2.104292 0.003426 0.0
3.940559 0.562478 0.002037 0.0
3.679539 0.702760 -0.004166 0.0
1.399802 0.272098 0.001844 0.0
1.733315 1.601859 0.000578 0.0
2.966613 0.658957 -0.000107 0.0
1.720467 1.719690 0.002145 0.0
2.738066 0.127589 -0.002088 0.0
4.483005 1.868806 -0.005758 0.0
2.618623 0.023774 0.000325 0.0
4.075185 1.956341 -0.003911 0.0
3.977621 1.867296 -0.003576 0.0
2.991537 2.261251 0.001377 0.0
3.362976 1.027492 0.002744 0.0
0.824553 1.275365 0.001405 0.0
0.304650 1.089441 -0.002430 0.0
4.350478 1.875561 -0.001810 0.0
1.201194 1.274104 0.002733 0.0
0.028872 2.436411 0.001472 0.0
3.664701 0.826355 -0.001579 0.0
4.135230 1.621642 -0.000704 0.0
0.013005 1.731680 -0.001570 0.0
2.389840 1.494090 -0.001414 0.0
0.240831 1.772272 0.002352 0.0
2.719677 0.583876 0.000334 0.0
4.257306 2.193353 0.002310 0.0
0.922482 2.114979 0.000100 0.0
3.904303 0.439188 0.000042 0.0
1.207212 0.372927 0.006400 0.0
1.968263 2.174971 0.001061 0.0
3.570209 2.269151 0.001007 0.0
1.918667 0.014273 -0.003982 0.0
1.186384 1.066377 -0.003008 0.0
3.048792 1.075174 0.002560 0.0
1.182023 0.065944 -0.004220 0.0
4.158987 0.550228 -0.001655 0.0
1.204570 0.360119 -0.002224 0.0
0.116558 0.105514 -0.000414 0.0
1.758933 0.339533 0.001199 0.0
3.361977 1.058257 -0.005052 0.0
3.636018 1.580354 0.001611 0.0
2.462153 0.339047 -0.001354 0.0
1.733724 1.298816 0.000805 0.0
1.061323 2.180715 -0.005892 0.0
3.969303 2.226579 0.000137 0.0
2.781772 0.249891 0.001170 0.0
3.242457 2.122577 -0.001811 0.0
0.126600 0.383140 0.000189 0.0
3.429936 1.429293 0.001913 0.0
4.226223 2.261368 0.001480 0.0
3.227269 1.410556 -0.000958 0.0
3.618509 0.166641 0.003257 0.0
2.370429 1.439355 0.000662 0.0
3.396289 0.406191 -0.001093 0.0
1.866956 0.338527 0.000824 0.0
1.946986 1.947405 0.000396 0.0
1.754480 0.022917 -0.000729 0.0
2.639690 0.345298 -0.000975 0.0
0.284726 2.189940 -0.000814 0.0
2.732578 2.173529 0.003107 0.0
3.564478 2.406911 -0.004876 0.0
0.347199 1.182062 -0.003181 0.0
4.483989 1.020238 0.000145 0.0
3.204761 1.983040 0.000880 0.0
0.478939 1.311142 -0.002651 0.0
4.160435 2.114381 0.002583 0.0
1.757705 0.128263 -0.003421 0.0
0.330456 1.290414 -0.001354 0.0
2.972552 2.292401 -0.001047 0.0
1.383227 1.343001 -0.005629 0.0
1.768062 0.967495 -0.004870 0.0
2.982404 1.517297 0.003348 0.0
1.413921 2.158848 -0.000876 0.0
1.405314 0.804939 -0.006472 0.0
2.820951 1.230216 -0.000500 0.0
0.464417 1.840615 0.001015 0.0
1.107300 2.027799 -0.005780 0.0
4.640753 0.549996 0.002935 0.0
0.612124 0.978101 -0.001276 0.0
3.100170 0.844366 0.002576 0.0
1.317958 2.155151 0.003247 0.0
1.776286 2.237016 0.000563 0.0
4.267514 1.903833 -0.001233 0.0
3.302563 1.205774 -0.001031 0.0
4.310894 2.189384 -0.002149 0.0
0.025817 0.527816 0.000293 0.0
3.353420 2.203470 0.000446 0.0
0.617076 0.333389 -0.002825 0.0
4.340006 1.757041 0.004165 0.0
4.584976 0.466321 0.001582 0.0
3.187907 1.644293 -0.001987 0.0
4.014949 2.406917 -0.001717 0.0
0.748014 2.302319 0.001341 0.0
1.275207 1.237389 0.004531 0.0
1.640427 0.895157 0.001525 0.0
2.308290 1.211231 -0.000457 0.0
1.538248 2.076616 -0.001278 0.0
3.900341 0.535831 -0.004734 0.0
2.361163 0.102809 0.001466 0.0
2.692887 0.368268 -0.000266 0.0
1.050972 1.598676 -0.002336 0.0
0.919430 1.052264 0.000504 0.0
1.802054 0.493134 -0.001476 0.0
0.190489 0.616199 -0.001917 0.0
3.124145 1.898187 0.001391 0.0
3.569663 2.395285 0.001474 0.0
0.662557 1.401322 -0.002615 0.0
2.361687 2.160058 0.000617 0.0
3.146843 0.996843 0.000736 0.0
4.061290 1.859155 0.002068 0.0
4.178661 1.157538 0.001669 0.0
2.119604 1.053070 -0.000806 0.0
0.901118 0.625858 -0.004079 0.0
1.341449 0.457169 -0.001622 0.0
0.502980 1.255113 -0.004322 0.0
3.265813 0.894538 0.002754 0.0
0.443389 1.465041 0.000944 0.0
4.031683 2.029648 -0.000602 0.0
4.330386 0.488477 -0.005413 0.0
2.522475 1.397814 0.003368 0.0
3.909175 1.552368 0.001410 0.0
1.059482 1.245473 0.000981 0.0
0.836720 2.187664 0.000661 0.0
0.090546 1.670531 0.001960 0.0
2.599927 1.685836 0.001610 0.0
1.638886 0.420770 -0.004574 0.0
0.235139 1.582504 -0.000557 0.0
3.342329 2.340231 -0.001207 0.0
1.440642 1.547713 0.000826 0.0
3.834142 0.659795 0.000740 0.0
4.520403 1.410351 0.005208 0.0
1.331241 0.130879 -0.000712 0.0
1.870894 1.286136 0.000579 0.0
2.100809 0.950339 0.001164 0.0
3.075626 0.464982 -0.004433 0.0
1.972322 0.103770 0.006848 0.0
1.205880 1.714792 0.002408 0.0
1.260794 2.212043 0.001400 0.0
3.949173 2.198893 0.001180 0.0
1.156931 1.212450 0.002000 0.0
1.318154 0.165180 -0.000426 0.0
0.269233 0.586711 -0.000332 0.0
3.056160 1.680211 0.000132 0.0
1.035017 0.024973 -0.003225 0.0
0.224279 1.073627 -0.001856 0.0
4.579367 2.142651 -0.002483 0.0
3.373494 0.315555 -0.001332 0.0
1.805916 0.075293 0.002214 0.0
2.393955 2.285609 0.000015 0.0
3.418638 0.872559 0.003039 0.0
4.240552 0.724410 -0.000258 0.0
4.079485 0.174099 -0.000425 0.0
2.059135 1.076726 -0.002705 0.0
1.984227 0.852655 0.002188 0.0
1.062223 1.726973 -0.000610 0.0
2.920214 0.763068 -0.002673 0.0
4.084988 2.006354 -0.003480 0.0
0.264525 2.401534 -0.001058 0.0
0.584384 0.546904 0.001405 0.0
1.431722 0.773008 0.000594 0.0
0.689359 0.836650 0.004226 0.0
2.220506 1.562011 0.000912 0.0
1.938748 1.112501 0.001265 0.0
0.021636 1.988444 0.002096 0.0
3.315556 0.000170 -0.001883 0.0
2.638347 2.432277 0.004399 0.0
2.738213 0.060033 0.001931 0.0
3.034495 0.127153 -0.003228 0.0
3.430766 0.175562 0.002294 0.0
0.437954 1.804764 -0.001813 0.0
2.673599 2.162670 0.004886 0.0
4.532785 1.759273 -0.006023 0.0
2.977406 0.869324 -0.001731 0.0
1.671807 0.717578 -0.002178 0.0
4.232824 0.255788 -0.000129 0.0
0.736304 2.292931 0.002816 0.0
2.715684 1.320373 -0.004355 0.0
0.055249 0.215375 0.001636 0.0
2.868013 0.605449 0.004448 0.0
0.087410 2.048143 -0.000601 0.0
0.527387 0.728572 -0.000053 0.0
3.713164 0.626358 0.000360 0.0
1.415932 1.066484 0.001159 0.0
0.188063 0.602584 0.001739 0.0
1.508567 0.686151 0.004047 0.0
2.141651 2.387924 -0.001233 0.0
4.268874 0.214703 0.005066 0.0
0.664512 2.039490 -0.002052 0.0
0.661847 1.559588 0.003020 0.0
1.337718 0.152808 0.000530 0.0
3.558111 2.366459 0.001011 0.0
0.981606 1.624366 0.001820 0.0
3.851501 0.729457 -0.000540 0.0
3.354480 2.043650 -0.003038 0.0
3.628523 0.126603 -0.000200 0.0
2.320496 0.144559 0.003208 0.0
2.295503 0.040320 -0.000939 0.0
3.580423 0.155372 0.000762 0.0
3.043919 0.400871 0.002798 0.0
4.312816 2.336320 0.001387 0.0
1.186371 0.962537 -0.000503 0.0
1.200189 0.571701 0.002735 0.0
3.192442 2.265817 -0.001910 0.0
2.261108 1.137217 -0.000491 0.0
0.684248 2.349805 -0.001726 0.0
2.067494 1.689423 -0.001663 0.0
1.561028 1.352419 -0.001317 0.0
0.026485 0.365397 -0.000140 0.0
3.442943 2.245969 0.001389 0.0
4.256504 1.447970 0.000565 0.0
4.238379 0.355675 -0.001319 0.0
1.652593 0.131022 0.002388 0.0
4.546482 0.936919 0.000922 0.0
4.174239 1.430162 0.000906 0.0
1.019268 1.507152 -0.000564 0.0
0.020060 2.290815 0.001385 0.0
2.382796 1.638088 -0.002362 0.0
3.463442 2.213313 0.002630 0.0
0.533311 1.979624 0.000877 0.0
1.514614 1.743266 0.004888 0.0
1.603115 0.678366 0.000211 0.0
4.666983 1.999001 -0.000073 0.0
3.290982 0.381469 0.000981 0.0
3.628422 0.393879 0.005382 0.0
2.862669 1.596596 -0.006190 0.0
2.132870 2.290779 -0.002142 0.0
3.956748 1.486558 -0.000346 0.0
0.337521 1.353296 0.007437 0.0
0.553593 0.382799 0.001676 0.0
1.840172 1.152712 -0.000049 0.0
2.733360 2.350879 -0.003455 0.0
0.551335 1.991053 0.004401 0.0
1.434561 2.301763 0.000691 0.0
2.418295 1.702065 -0.001346 0.0
2.317965 0.367453 0.000254 0.0
2.527720 1.623900 -0.001852 0.0
3.184365 1.832986 0.000670 0.0
2.994500 0.669473 -0.002296 0.0
3.986266 1.839186 0.004001 0.0
3.987402 1.728497 0.002203 0.0
0.593405 1.166262 0.001910 0.0
3.780810 2.429521 0.001842 0.0
3.513932 0.448008 0.001054 0.0
4.036480 2.237486 -0.000212 0.0
3.627404 1.922230 0.001637 0.0
2.058864 2.424131 0.000520 0.0
3.707338 1.987857 -0.001452 0.0
2.985152 1.633708 0.003918 0.0
3.427075 1.679837 0.001111 0.0
0.998013 0.956619 0.000325 0.0
1.940456 0.325185 -0.001058 0.0
0.355199 1.493006 0.003588 0.0
4.344169 2.211861 -0.000790 0.0
1.391614 0.617118 0.001742 0.0
0.566970 0.455917 0.000702 0.0
1.842335 0.250136 0.002476 0.0
2.458166 1.432199 -0.000914 0.0
1.824299 1.237044 -0.002700 0.0
1.853436 1.373246 -0.001774 0.0
0.809310 0.553684 0.002909 0.0
1.097955 0.369668 -0.000922 0.0
0.313646 1.607099 -0.003689 0.0
0.145084 1.315442 -0.001597 0.0
3.312767 1.388817 -0.000379 0.0
3.749840 0.830360 0.003882 0.0
4.487110 2.062162 0.000963 0.0
2.330903 0.619671 0.003002 0.0
0.122405 0.466015 -0.000876 0.0
3.701119 1.810695 -0.000182 0.0
2.850817 0.355509 0.001196 0.0
1.028653 2.362710 0.002584 0.0
4.685653 1.869069 0.000889 0.0
3.173452 2.073415 0.003471 0.0
2.428845 2.356434 -0.000449 0.0
3.655921 1.314735 0.003311 0.0
3.527934 1.540720 -0.003631 0.0
4.254699 2.274551 0.004393 0.0
0.195619 1.374588 0.002763 0.0
0.941722 1.754843 0.001354 0.0
2.926601 2.378444 0.002828 0.0
2.363141 1.486741 0.002147 0.0
1.849500 1.486223 0.002044 0.0
3.182118 0.174849 -0.003839 0.0
4.214843 0.980484 0.001493 0.0
4.452629 1.992789 -0.003413 0.0
3.181093 0.597573 0.000625 0.0
2.941573 1.713761 -0.000133 0.0
0.477810 2.147746 -0.003351 0.0
0.214087 2.186213 0.001784 0.0
4.322379 1.942088 -0.001616 0.0
1.003086 0.804246 -0.000095 0.0
2.996180 1.782576 0.003148 0.0
1.599373 0.206783 0.000083 0.0
2.483805 0.054010 0.003096 0.0
1.439769 1.963942 0.001243 0.0
1.478297 0.277932 0.000246 0.0
3.720773 1.542069 0.002563 0.0
0.576567 0.313552 0.001082 0.0
0.273121 0.308929 -0.000258 0.0
3.815681 0.512772 0.004335 0.0
3.680343 1.761064 -0.000769 0.0
1.868518 2.355246 0.001911 0.0
1.292285 2.057606 -0.000802 0.0
2.155640 0.643641 0.000068 0.0
1.028687 0.393203 -0.001489 0.0
0.257393 0.524800 -0.001739 0.0
1.390131 0.505346 0.005095 0.0
4.335804 1.858000 -0.003739 0.0
3.103935 1.524238 -0.000812 0.0
2.227843 1.056805 0.003713 0.0
0.152210 2.090523 -0.002927 0.0
4.427547 2.055042 0.002332 0.0
3.953256 0.206536 0.000420 0.0
0.475370 0.425601 -0.001442 0.0
0.086650 0.669211 -0.001283 0.0
3.000614 1.245405 0.000646 0.0
0.887405 0.554244 0.001227 0.0
2.336156 0.011628 0.001130 0.0
1.650245 1.865133 0.006714 0.0
1.353649 2.287495 -0.004742 0.0
2.368076 0.064114 0.001254 0.0
0.786474 0.822251 -0.001804 0.0
2.533828 0.966896 0.001650 0.0
4.240321 0.853266 -0.005119 0.0
3.658041 1.493321 0.003297 0.0
2.078485 1.411798 0.000704 0.0
4.202204 0.664913 0.003088 0.0
3.265647 2.141912 0.002317 0.0
2.803249 0.776838 0.002236 0.0
0.781960 2.278617 0.005487 0.0
3.677942 0.908871 -0.001404 0.0
3.003118 1.964856 0.003892 0.0
0.380786 2.217272 -0.000341 0.0
0.317501 1.542964 0.000240 0.0
2.349882 0.477442 0.000223 0.0
1.360811 0.190595 0.003421 0.0
3.631646 0.861167 -0.000200 0.0
