0.131511 1.008843 0.000237 0.0
2.152511 0.321657 -0.000667 0.0
1.517391 0.029217 -0.000972 0.0
2.880674 1.776798 0.003144 0.0
2.607154 0.140185 -0.002348 0.0
2.253579 0.779646 -0.005633 0.0
0.299994 1.210860 -0.000130 0.0
4.236299 1.242570 0.003578 0.0
3.943784 0.125156 -0.002863 0.0
3.800570 0.848356 0.000632 0.0
4.190565 0.781168 0.000548 0.0
1.390242 0.044291 -0.002542 0.0
1.135362 0.624210 0.001663 0.0
0.368125 0.989451 0.003149 0.0
1.650633 1.314421 0.002460 0.0
1.197746 0.576469 0.001812 0.0
3.152519 1.165930 -0.003359 0.0
3.303959 1.115553 0.000271 0.0
2.420223 1.033598 0.002167 0.0
4.214095 1.729223 -0.000296 0.0
4.242258 1.546412 -0.002421 0.0
3.573821 1.633505 0.002867 0.0
3.167053 0.141346 -0.002379 0.0
3.872150 1.545795 -0.000724 0.0
3.540951 0.027899 0.001026 0.0
1.381271 1.532517 -0.003845 0.0
3.758576 0.112336 0.001510 0.0
1.999043 1.521787 0.003976 0.0
2.977290 0.149933 -0.001308 0.0
2.323326 0.913239 0.000447 0.0
0.065542 0.353462 0.000530 0.0
0.995585 0.350250 -0.004237 0.0
1.474263 1.115003 -0.002816 0.0
2.436120 0.051561 -0.003631 0.0
0.491291 1.188210 -0.001441 0.0
3.492648 0.897026 0.000347 0.0
3.029388 1.443344 0.001541 0.0
3.845075 0.911849 -0.004552 0.0
3.419649 1.127397 0.000849 0.0
2.780188 1.581772 0.000319 0.0
1.744653 0.186261 -0.001823 0.0
3.377013 0.672961 -0.002374 0.0
1.289838 0.603802 0.003426 0.0
4.147033 0.363621 -0.004605 0.0
4.177622 0.710600 0.002435 0.0
0.171241 1.378453 0.000006 0.0
4.166393 1.468981 -0.000689 0.0
2.858487 1.115544 0.001893 0.0
1.685568 0.585773 0.002949 0.0
3.844522 1.191272 0.003835 0.0
3.820740 1.239944 0.004393 0.0
1.774037 0.911435 0.002673 0.0
1.148284 0.474127 0.002157 0.0
0.627865 0.427517 0.001813 0.0
2.787192 1.069104 -0.001008 0.0
2.079280 1.598453 0.001480 0.0
3.370727 1.637724 0.001212 0.0
3.877424 1.679544 0.002211 0.0
1.655649 0.945430 0.001492 0.0
3.818407 0.979182 0.001014 0.0
3.615046 1.419704 -0.000487 0.0
2.659938 0.419815 0.001233 0.0
2.180160 1.009855 -0.000396 0.0
3.404240 1.519179 -0.000718 0.0
0.786288 1.756482 0.004247 0.0
1.250370 1.782877 0.000820 0.0
2.628433 1.201885 0.002051 0.0
2.586039 1.333049 -0.000613 0.0
3.543491 1.576359 -0.001219 0.0
2.526817 0.204976 0.002831 0.0
1.871815 0.680479 0.001047 0.0
2.977099 0.374094 -0.000858 0.0
1.705977 0.913869 -0.000188 0.0
0.869976 1.582434 0.001382 0.0
2.566711 1.197601 0.000267 0.0
3.116645 0.202396 -0.001435 0.0
0.999409 0.302012 0.002204 0.0
1.177801 1.808495 -0.000854 0.0
3.962221 0.487824 0.000610 0.0
0.760102 0.619510 0.004789 0.0
2.943591 1.052841 -0.002409 0.0
0.225043 0.882441 -0.000393 0.0
3.792051 1.559465 0.003670 0.0
2.766293 0.306568 0.000308 0.0
1.052565 1.710375 0.001634 0.0
3.053204 0.046606 0.001614 0.0
0.503301 1.450685 0.000081 0.0
0.272464 1.674955 -0.006305 0.0
3.622039 1.355520 0.002737 0.0
2.955891 1.791620 -0.001468 0.0
4.040393 1.308913 0.002337 0.0
3.513831 0.527061 0.001054 0.0
0.372829 0.007170 -0.001800 0.0
1.823151 1.643021 0.004842 0.0
2.799252 1.592108 -0.000230 0.0
0.444179 1.802359 -0.002272 0.0
3.676971 0.560328 -0.000196 0.0
0.815276 1.171243 -0.001321 0.0
3.373505 1.412233 -0.000446 0.0
3.043063 0.958336 -0.001335 0.0
3.611882 1.592455 -0.002938 0.0
3.711622 1.028520 0.000305 0.0
3.779359 1.506129 -0.001088 0.0
3.493383 0.482529 -0.001150 0.0
0.575906 0.254934 -0.000039 0.0
0.031655 0.555783 0.000785 0.0
1.470422 1.174443 -0.000292 0.0
2.386447 0.656838 -0.002499 0.0
3.259215 0.183042 -0.004062 0.0
0.453912 0.043260 -0.001341 0.0
3.676210 0.112561 0.003681 0.0
2.651813 1.403980 0.001187 0.0
2.217836 1.418445 0.000725 0.0
4.189172 0.241439 0.001106 0.0
1.818514 0.300811 0.001212 0.0
1.809178 0.756040 0.000355 0.0
4.012777 0.548041 -0.000656 0.0
3.868732 0.768538 -0.000991 0.0
2.808941 1.440267 0.001108 0.0
1.582446 1.191610 -0.006713 0.0
3.180387 1.321818 -0.002392 0.0
1.804533 0.314181 -0.000657 0.0
1.547992 0.644913 0.001872 0.0
0.073770 0.786955 -0.001778 0.0
2.060161 0.148752 -0.000667 0.0
2.481921 0.442180 0.002828 0.0
3.836262 0.997111 0.002514 0.0
2.851006 1.288942 -0.001472 0.0
4.213534 1.201163 0.003290 0.0
0.535900 1.104513 -0.004534 0.0
0.381749 1.739382 0.002714 0.0
1.291688 1.724470 0.003866 0.0
2.507676 0.999582 -0.002377 0.0
0.894058 1.347010 0.000801 0.0
3.290463 0.176839 -0.003714 0.0
2.852051 1.686775 0.000730 0.0
3.579098 1.240013 -0.002061 0.0
3.563892 1.515198 0.000315 0.0
3.131701 0.581878 -0.001102 0.0
1.210994 1.221799 -0.001194 0.0
3.476023 0.085097 -0.000596 0.0
3.269105 0.103993 -0.000682 0.0
1.161907 1.449644 0.000314 0.0
3.511853 1.710760 -0.001263 0.0
4.201789 0.455627 -0.003373 0.0
0.071116 1.464861 -0.000477 0.0
3.570608 1.475805 -0.003549 0.0
0.524068 0.499287 0.003300 0.0
1.502379 1.100317 -0.002278 0.0
3.492118 0.546354 -0.002952 0.0
3.846047 1.768477 0.001119 0.0
0.919082 1.684571 0.001185 0.0
0.067801 0.808685 0.001002 0.0
1.694408 0.616235 0.001774 0.0
0.875292 1.657628 0.006034 0.0
0.952033 1.755131 0.002905 0.0
4.140411 0.243902 0.004287 0.0
3.836163 1.014946 -0.001900 0.0
1.614949 1.463719 -0.004478 0.0
4.088785 0.299291 -0.002801 0.0
3.783387 0.237864 -0.003627 0.0
0.013393 0.845664 0.003211 0.0
1.365432 0.024448 -0.000835 0.0
2.130846 1.309602 -0.001580 0.0
2.409802 1.150750 -0.001186 0.0
0.711092 0.875742 -0.000153 0.0
0.479520 1.071300 -0.001545 0.0
3.326239 1.606724 0.004410 0.0
1.710514 0.643412 -0.001734 0.0
1.012895 1.412019 -0.005247 0.0
2.235575 0.170880 0.000605 0.0
1.520226 1.554845 0.000127 0.0
3.976647 0.209554 -0.002643 0.0
3.954071 1.718805 -0.002267 0.0
1.124199 0.072814 0.000276 0.0
4.024678 1.296005 -0.004335 0.0
2.337177 0.918038 0.003351 0.0
3.076676 1.509783 0.003625 0.0
1.159280 1.722860 0.000716 0.0
3.928494 1.205312 -0.001430 0.0
0.582773 0.257574 -0.001089 0.0
3.656632 1.019112 0.000110 0.0
1.021366 0.450103 -0.000177 0.0
0.948548 1.355538 0.000297 0.0
1.660948 1.064575 -0.001317 0.0
3.601392 1.775795 0.000644 0.0
0.434517 0.423926 -0.001318 0.0
1.979228 0.007909 0.001072 0.0
0.906552 0.210457 0.000164 0.0
1.743653 1.678826 0.000356 0.0
0.160556 0.008532 0.003374 0.0
4.073504 0.648856 -0.000279 0.0
0.185857 1.126424 -0.002386 0.0
1.607730 0.755263 -0.003102 0.0
3.790651 0.759625 -0.000078 0.0
2.915788 0.874648 -0.002200 0.0
2.877787 0.832639 0.001033 0.0
0.581971 1.615073 -0.005044 0.0
4.063509 0.320101 -0.004987 0.0
2.125417 0.953191 -0.000563 0.0
0.921217 0.015271 0.001230 0.0
3.271161 0.943078 0.004088 0.0
3.238535 0.588347 0.001190 0.0
3.486054 1.408472 -0.001329 0.0
4.139695 1.452659 -0.001355 0.0
0.857239 1.473368 0.000467 0.0
3.252729 0.070842 0.001155 0.0
1.850151 0.411927 -0.001661 0.0
2.439886 1.493687 -0.002325 0.0
4.139439 1.037197 -0.000663 0.0
2.368766 1.298706 0.000788 0.0
2.971598 0.755060 -0.004230 0.0
1.651282 0.930754 -0.001322 0.0
3.540261 1.106387 0.001289 0.0
0.294156 0.379247 0.001777 0.0
3.060199 1.210285 0.001260 0.0
3.788495 0.101103 0.000338 0.0
0.283988 0.847137 -0.004390 0.0
2.801869 0.747764 -0.003936 0.0
2.036909 1.563801 -0.002029 0.0
3.942864 0.756197 -0.003175 0.0
1.111015 0.289680 -0.004601 0.0
1.808758 0.700160 -0.002384 0.0
0.315459 1.799417 -0.003584 0.0
3.349676 0.059158 -0.000119 0.0
1.031792 0.927843 0.003385 0.0
3.234212 0.445665 0.000699 0.0
3.255418 1.104723 -0.001131 0.0
3.288433 0.833021 -0.000358 0.0
0.584564 1.064684 0.002382 0.0
2.070043 0.011559 0.000473 0.0
3.022000 1.816574 -0.000675 0.0
1.038828 1.698970 -0.003053 0.0
2.966155 0.865656 -0.001223 0.0
3.354071 1.243583 0.002689 0.0
3.977966 0.746343 -0.004343 0.0
2.314621 1.468543 0.001383 0.0
3.940574 1.647446 -0.004120 0.0
4.042280 0.634266 0.002071 0.0
3.861913 0.099076 0.001711 0.0
1.001155 0.643732 0.002865 0.0
1.282861 1.501114 0.002452 0.0
3.880128 1.077606 0.001949 0.0
3.916918 1.349498 -0.000356 0.0
3.794501 0.354403 -0.000318 0.0
0.572526 0.006122 -0.000483 0.0
3.953267 1.312798 -0.004389 0.0
2.296697 0.708063 0.004782 0.0
1.610645 0.478973 -0.001091 0.0
2.613350 0.775666 -0.000070 0.0
2.747048 0.853598 -0.001270 0.0
0.321394 1.770632 -0.002394 0.0
2.265232 0.348061 0.000658 0.0
0.443393 0.294651 -0.000516 0.0
3.181052 1.528823 -0.000655 0.0
1.098923 0.557610 -0.000104 0.0
3.272430 0.531433 0.000971 0.0
0.621790 0.964924 0.003795 0.0
3.681528 0.437099 -0.003194 0.0
2.960814 1.455419 0.004082 0.0
0.277329 0.947360 -0.002785 0.0
3.571339 0.672144 0.001657 0.0
2.437338 0.085075 -0.002879 0.0
2.902331 0.630016 0.004677 0.0
0.169490 0.793501 0.001515 0.0
0.411697 0.135417 0.000800 0.0
1.018912 0.355093 -0.001930 0.0
1.007401 1.588204 -0.000148 0.0
2.905078 0.477563 -0.001354 0.0
2.183254 1.589346 0.000854 0.0
0.109263 1.543004 0.001513 0.0
1.165825 1.292454 0.001561 0.0
3.755530 0.026720 -0.003672 0.0
3.340970 0.345128 -0.002898 0.0
3.385770 0.768656 0.002739 0.0
1.090580 1.417160 -0.001901 0.0
2.968006 0.614848 0.000653 0.0
0.464779 0.305312 0.000402 0.0
1.420722 0.125203 0.000007 0.0
1.198289 0.563852 -0.000474 0.0
3.607574 1.012374 -0.000964 0.0
2.299308 0.132778 0.000840 0.0
2.563731 0.235122 -0.004194 0.0
0.953542 1.709779 0.000984 0.0
1.454794 0.134705 -0.001432 0.0
4.074284 0.238648 -0.003364 0.0
3.171976 0.504523 -0.003545 0.0
0.958226 0.204832 -0.003915 0.0
1.288731 1.771120 0.003233 0.0
2.243691 1.516128 0.000987 0.0
1.581208 1.542298 -0.000828 0.0
3.113546 1.611954 -0.004498 0.0
4.133089 1.069100 -0.005663 0.0
0.215672 1.177379 0.001195 0.0
0.730979 1.744631 -0.000007 0.0
1.687872 0.681570 -0.001803 0.0
3.767333 1.134800 0.002437 0.0
3.494074 1.675282 -0.002603 0.0
1.595418 1.091363 -0.002144 0.0
4.109886 0.563298 0.002924 0.0
2.605413 1.525461 0.000013 0.0
3.291574 0.185260 -0.003053 0.0
0.993890 0.757536 -0.001751 0.0
4.111806 0.298629 0.000648 0.0
0.759549 1.127071 0.000990 0.0
2.675401 1.676052 -0.000568 0.0
4.196134 0.495641 0.000214 0.0
4.173215 0.625496 0.001043 0.0
1.706549 1.665284 0.001872 0.0
2.960901 0.788400 0.001394 0.0
2.425972 0.835254 0.003248 0.0
2.284355 1.100572 0.004272 0.0
2.020333 0.635997 -0.002608 0.0
3.030703 1.234279 -0.002074 0.0
1.403235 0.583444 -0.000832 0.0
3.797216 1.786349 0.000695 0.0
0.421964 1.147941 0.001196 0.0
3.373907 0.452348 0.006231 0.0
0.882183 0.771771 0.001324 0.0
2.520327 1.147680 -0.000541 0.0
3.940882 1.594437 0.000405 0.0
1.179563 1.387358 -0.005301 0.0
1.852416 1.641833 0.000960 0.0
3.841869 0.367539 -0.000935 0.0
0.344166 0.896749 0.001933 0.0
0.373748 1.446077 0.002082 0.0
1.395096 0.945043 -0.002056 0.0
2.978830 0.533778 -0.000524 0.0
0.358233 0.911554 0.000092 0.0
3.841094 1.108174 -0.000724 0.0
2.943549 1.357453 0.000814 0.0
0.444482 1.529865 0.004685 0.0
2.649343 1.776005 0.001933 0.0
2.533351 0.091513 0.002678 0.0
2.532113 0.389684 0.002286 0.0
2.757538 0.957154 0.002114 0.0
3.027337 1.682324 -0.005112 0.0
1.101911 0.282083 -0.004706 0.0
1.300307 0.427407 -0.000725 0.0
2.036782 0.769783 0.000059 0.0
0.282573 0.972219 0.003299 0.0
0.901823 0.731068 -0.002706 0.0
2.499150 0.722925 -0.001530 0.0
2.491881 0.185815 0.001152 0.0
1.335345 1.162264 -0.002359 0.0
0.644722 0.735009 0.001600 0.0
2.529042 0.065777 -0.002576 0.0
2.438485 0.821507 0.002540 0.0
1.554763 1.218708 0.000010 0.0
4.011790 1.734326 0.000992 0.0
1.803975 1.762552 0.002032 0.0
0.465350 1.305299 -0.000941 0.0
2.196261 1.325070 0.000955 0.0
4.132733 0.405550 0.004093 0.0
1.853453 0.555503 0.002134 0.0
2.267424 1.032543 -0.003434 0.0
2.743629 1.161875 0.006145 0.0
3.095805 1.822649 0.001239 0.0
1.773098 1.262533 0.002494 0.0
1.958490 0.557070 -0.002510 0.0
3.402801 1.814982 -0.000311 0.0
0.803754 0.287751 -0.003524 0.0
1.382444 1.007255 -0.005818 0.0
0.410929 1.280587 0.003723 0.0
0.337537 1.240354 -0.000222 0.0
0.290147 1.354871 -0.000090 0.0
2.286435 1.670938 0.000499 0.0
1.817599 0.758392 -0.000859 0.0
3.920724 1.235131 -0.000469 0.0
3.233606 0.118322 -0.001030 0.0
3.639230 0.414881 0.000849 0.0
3.098216 0.125728 -0.000699 0.0
3.809148 0.717663 -0.000998 0.0
1.188280 1.365563 0.000001 0.0
0.811374 1.559457 0.001401 0.0
3.701644 0.811287 0.000129 0.0
0.157745 0.223768 0.000260 0.0
0.148387 0.088737 -0.002172 0.0
3.663947 1.161203 -0.000056 0.0
1.980333 1.320442 -0.001296 0.0
3.011166 1.254328 0.001664 0.0
1.397438 0.022436 -0.002372 0.0
3.810574 0.464503 -0.001750 0.0
4.002030 0.338434 -0.003709 0.0
4.094038 1.723927 -0.001496 0.0
1.209728 1.069057 0.000574 0.0
4.186212 0.175988 -0.000714 0.0
2.757749 0.391839 -0.001548 0.0
1.725195 1.671319 0.004161 0.0
0.429700 0.570961 -0.001974 0.0
0.779353 0.748330 -0.000732 0.0
3.791798 1.671671 0.000074 0.0
3.611904 0.477475 -0.005341 0.0
2.186084 1.124566 -0.000738 0.0
1.497776 1.717509 0.005706 0.0
2.479094 0.905904 0.005012 0.0
1.312252 0.331459 -0.000923 0.0
2.773000 0.442994 0.004246 0.0
2.679525 1.467468 -0.001809 0.0
3.690482 0.430195 0.004070 0.0
4.054057 0.604542 -0.000934 0.0
3.849267 1.081142 0.001520 0.0
1.541609 0.813154 0.002833 0.0
2.539590 0.803547 0.002867 0.0
1.903044 0.380899 -0.000114 0.0
3.976248 1.644700 0.002112 0.0
3.945024 1.470902 -0.001200 0.0
3.116276 0.065050 0.000484 0.0
4.170791 1.729044 0.000974 0.0
1.561483 0.033283 0.003029 0.0
0.941172 0.168827 0.004188 0.0
2.857339 0.529509 -0.000606 0.0
0.147465 1.325688 -0.000187 0.0
3.498134 1.283546 -0.000325 0.0
2.575677 0.819927 0.001012 0.0
1.183171 0.764671 -0.000802 0.0
0.962825 0.908114 -0.000189 0.0
2.134407 0.085372 -0.004062 0.0
3.587923 1.200199 0.000665 0.0
3.932519 0.784243 0.002736 0.0
1.214009 1.738830 -0.001410 0.0
3.382857 0.799468 -0.002793 0.0
2.100834 0.791821 0.000724 0.0
1.424923 0.414474 0.000457 0.0
1.920947 0.909179 -0.001087 0.0
2.903392 0.290011 0.000557 0.0
3.379801 1.291047 0.001775 0.0
2.441210 0.717564 -0.000278 0.0
0.751820 1.401752 0.001900 0.0
0.719579 0.288647 -0.003623 0.0
4.213521 1.172590 -0.000299 0.0
2.413568 0.865516 0.002413 0.0
1.505869 0.757618 -0.001989 0.0
2.769416 0.553330 -0.001137 0.0
0.336711 1.080070 0.000999 0.0
3.970414 0.297986 0.000200 0.0
2.846557 0.537484 -0.000373 0.0
1.970373 0.936152 -0.000379 0.0
0.662110 0.284093 0.001647 0.0
2.179791 1.132556 0.001425 0.0
3.504334 1.566818 0.000268 0.0
4.019133 1.316450 0.000054 0.0
0.445373 0.806988 -0.000760 0.0
2.476969 1.381017 -0.001464 0.0
0.552893 1.007194 0.003860 0.0
2.408631 1.076682 -0.002125 0.0
4.043062 0.097285 0.003232 0.0
0.670918 0.816291 -0.000229 0.0
1.481550 1.817487 0.001094 0.0
2.595173 1.645568 -0.001372 0.0
0.830944 0.355192 -0.003858 0.0
0.449528 0.815236 -0.001042 0.0
1.088904 1.740370 -0.000668 0.0
2.091811 1.222948 0.003245 0.0
2.134078 1.079853 -0.002553 0.0
3.418432 0.492180 0.004063 0.0
1.457762 1.832294 0.000751 0.0
2.505687 0.320932 -0.002103 0.0
2.234015 0.740904 0.000371 0.0
0.591248 1.397823 -0.002761 0.0
2.669520 0.002677 0.000249 0.0
3.235314 0.413724 0.002110 0.0
1.083511 1.452758 0.004459 0.0
4.158724 0.920524 -0.003945 0.0
1.719748 0.661907 -0.001379 0.0
1.764639 0.512680 -0.004609 0.0
2.253948 0.367342 -0.004814 0.0
3.518427 0.160089 -0.001890 0.0
1.020881 0.660827 0.000809 0.0
0.464845 1.786421 0.003216 0.0
0.606498 1.566433 -0.000715 0.0
4.164100 0.825137 -0.000567 0.0
0.354081 1.109953 -0.001176 0.0
3.228959 0.911315 0.002758 0.0
3.448909 1.580907 0.002431 0.0
0.344446 1.222417 -0.000240 0.0
0.244921 0.389887 -0.001877 0.0
0.661081 0.867759 -0.000925 0.0
1.106985 0.045617 -0.000165 0.0
2.747202 1.126797 0.001448 0.0
2.792048 0.237989 -0.001423 0.0
2.609647 0.999690 0.004497 0.0
1.070968 0.477258 0.002066 0.0
2.453284 0.355859 0.003292 0.0
4.218904 1.632661 0.001451 0.0
2.303034 1.310919 0.000518 0.0
1.087424 1.188411 -0.005778 0.0
0.783482 1.265091 -0.004413 0.0
2.323677 1.690947 -0.000849 0.0
2.773220 1.211132 0.000864 0.0
1.152799 0.468440 -0.002439 0.0
0.931282 1.516510 0.000303 0.0
1.539704 0.022848 -0.000048 0.0
3.408776 0.475511 0.001833 0.0
0.250297 1.005585 0.000976 0.0
3.509809 1.140095 -0.000271 0.0
3.559518 0.321452 0.000999 0.0
0.186776 0.915252 -0.004594 0.0
0.014434 1.774652 0.004617 0.0
3.617948 0.331938 -0.000550 0.0
1.311259 0.635284 -0.001364 0.0
0.508357 0.123269 0.000397 0.0
0.400584 0.690646 -0.004094 0.0
3.308704 0.595996 -0.000918 0.0
4.226487 1.375560 0.007049 0.0
2.242059 1.182850 0.001015 0.0
3.965563 0.252617 0.000976 0.0
0.209960 1.335937 0.000563 0.0
0.375274 1.647809 0.000150 0.0
1.902872 1.460655 -0.003436 0.0
1.956700 0.709084 0.001132 0.0
0.186567 0.337513 0.002851 0.0
1.833739 1.516669 0.004281 0.0
3.566089 0.000869 -0.001424 0.0
0.543885 1.713175 -0.002002 0.0
0.675767 0.325581 -0.005816 0.0
1.495736 1.463926 -0.000130 0.0
1.519007 0.719896 0.000386 0.0
2.689528 1.666514 -0.001294 0.0
2.004837 1.205145 -0.000741 0.0
3.468205 1.188701 -0.004752 0.0
3.792733 1.225128 0.001162 0.0
2.369339 0.440084 -0.006485 0.0
2.613389 1.200441 0.001784 0.0
4.124061 1.629928 -0.000893 0.0
2.155491 1.004487 -0.000183 0.0
3.635841 1.537577 -0.004761 0.0
2.429750 1.075203 0.002971 0.0
2.212028 1.636332 0.003529 0.0
1.195848 1.655257 0.000872 0.0
2.229233 1.629290 -0.001390 0.0
0.267095 1.062727 0.002636 0.0
0.229034 0.199347 0.001095 0.0
3.435640 1.080649 0.000415 0.0
1.370003 0.872743 -0.000589 0.0
3.343265 1.345822 -0.000352 0.0
0.022258 1.497916 -0.001895 0.0
2.458001 1.126331 0.002975 0.0
3.710377 1.061526 -0.000560 0.0
4.222650 0.430875 -0.003184 0.0
0.880934 0.502505 0.001120 0.0
2.375454 0.948754 0.000909 0.0
0.131999 0.967440 0.000805 0.0
4.005231 0.045177 -0.000420 0.0
0.150734 0.729890 -0.000042 0.0
4.154870 0.949439 0.002884 0.0
3.228140 0.636698 -0.000975 0.0
2.979866 0.900068 0.001640 0.0
0.528929 1.647025 -0.001334 0.0
1.417619 0.008980 -0.001768 0.0
3.606279 1.026140 0.000296 0.0
2.364804 0.476112 0.000813 0.0
1.005777 0.521548 -0.000130 0.0
1.556348 0.212404 0.001785 0.0
1.086490 0.295143 0.000657 0.0
1.249588 0.743066 0.003848 0.0
0.932039 1.123936 0.000585 0.0
2.589280 0.733128 0.001324 0.0
2.290373 1.013673 0.000939 0.0
3.356245 1.451749 -0.001932 0.0
2.525848 0.038898 -0.004439 0.0
0.265782 1.293716 0.002971 0.0
1.835225 1.107118 0.005681 0.0
1.374164 0.685285 -0.001713 0.0
3.357409 1.667418 -0.004519 0.0
3.087616 0.512199 -0.001241 0.0
1.392843 0.961070 0.005035 0.0
0.028827 1.711591 0.002084 0.0
2.422562 0.111534 -0.001342 0.0
3.719837 0.211875 -0.001047 0.0
1.955944 1.129808 0.001977 0.0
1.331681 1.299382 -0.004138 0.0
4.048065 0.278039 -0.002790 0.0
2.175033 0.591893 -0.000664 0.0
1.075178 1.348726 -0.001848 0.0
3.743031 1.410647 0.000345 0.0
0.883515 1.571448 0.001852 0.0
0.012666 0.222981 -0.004369 0.0
2.599575 0.839961 -0.003849 0.0
0.326420 1.416256 0.003581 0.0
0.146147 0.049974 0.002132 0.0
2.979306 0.503521 0.002323 0.0
1.422148 1.216629 0.001704 0.0
3.629350 0.016695 -0.003513 0.0
3.321662 1.292794 0.001274 0.0
2.921800 1.729078 0.000307 0.0
4.201487 1.540984 0.001976 0.0
1.678477 1.776129 -0.000741 0.0
2.887884 1.343766 -0.000658 0.0
1.453963 1.746159 -0.003081 0.0
0.417052 1.103575 0.000695 0.0
3.066866 0.681592 -0.004796 0.0
1.002548 1.501343 0.002479 0.0
2.520650 0.395864 -0.002885 0.0
0.004883 1.329292 0.000697 0.0
3.399843 0.360835 -0.001937 0.0
0.298149 0.290295 0.000055 0.0
0.408792 0.385990 0.000657 0.0
1.292582 1.238763 0.002663 0.0
3.909177 0.737262 -0.000225 0.0
2.132602 0.879187 0.001752 0.0
0.413554 0.884656 0.001723 0.0
3.164298 1.598084 0.002433 0.0
2.566679 0.855306 0.001033 0.0
1.853651 0.891207 0.004500 0.0
2.128832 1.753599 -0.003985 0.0
1.982862 0.149377 0.001068 0.0
1.195755 0.929608 0.004384 0.0
4.075488 1.295733 -0.002417 0.0
3.341933 0.406329 0.002478 0.0
0.793075 0.751107 -0.003249 0.0
0.392052 1.750496 -0.001046 0.0
3.701271 0.888599 0.002489 0.0
1.922992 0.422613 -0.002333 0.0
1.046078 1.514836 0.002049 0.0
0.338667 0.343096 -0.002836 0.0
2.975248 0.636088 0.000255 0.0
3.727056 1.165322 0.002472 0.0
1.859166 0.891919 0.003312 0.0
2.424885 0.752121 0.000377 0.0
3.524045 0.842077 0.001635 0.0
2.451097 1.573146 0.003139 0.0
1.323698 1.268701 0.000679 0.0
3.640757 0.761450 -0.001010 0.0
2.157893 1.030268 0.001065 0.0
3.472657 1.085960 0.000912 0.0
2.986692 0.631491 -0.002416 0.0
3.834894 1.433391 0.000488 0.0
2.215157 1.238334 0.005912 0.0
0.587045 1.080932 0.003486 0.0
4.126645 1.306782 -0.001107 0.0
2.908255 0.373572 -0.000784 0.0
2.776414 0.401031 -0.002001 0.0
2.981637 1.393567 -0.000294 0.0
3.544016 0.138004 0.000462 0.0
3.834866 1.641893 0.000692 0.0
3.683381 1.216445 0.000759 0.0
0.346765 1.054293 0.001558 0.0
0.581245 0.252058 0.002274 0.0
0.561544 1.297116 0.002494 0.0
2.577175 1.522896 -0.002721 0.0
2.241563 1.821914 -0.002633 0.0
1.061783 1.160847 -0.002030 0.0
1.450386 0.828943 -0.006666 0.0
3.277466 0.521546 -0.000186 0.0
1.301756 0.752901 -0.002435 0.0
3.716845 0.700383 -0.000479 0.0
3.481124 0.089143 0.001460 0.0
2.224032 1.595881 -0.001034 0.0
0.575590 1.384570 0.004013 0.0
0.038215 0.581259 0.000419 0.0
0.747453 1.187491 0.002103 0.0
3.330626 1.022274 0.002391 0.0
3.619673 0.770893 0.001091 0.0
3.682872 1.399802 0.002492 0.0
2.409942 1.179369 0.003167 0.0
2.798455 1.180438 -0.001285 0.0
0.163192 1.081464 -0.001224 0.0
2.922226 0.894650 -0.003054 0.0
0.372176 1.427347 -0.000868 0.0
4.080823 1.261587 -0.000340 0.0
2.548920 0.139015 -0.003342 0.0
1.731713 0.337089 0.001501 0.0
1.927664 0.190287 0.000048 0.0
3.503468 0.688784 -0.001361 0.0
3.388648 1.304153 0.000382 0.0
1.331067 0.469981 -0.001632 0.0
3.227320 0.834838 0.001915 0.0
2.773230 0.779012 0.000167 0.0
1.436897 1.594201 -0.000345 0.0
3.052931 0.642784 -0.002459 0.0
1.970687 1.491059 0.002943 0.0
1.952419 1.695520 0.000580 0.0
0.155523 0.744997 -0.003261 0.0
3.900467 0.805137 -0.001962 0.0
2.413359 0.621792 0.003756 0.0
4.108615 0.340754 -0.006833 0.0
1.201084 0.936893 0.000000 0.0
0.476547 1.590636 0.003923 0.0
3.264927 0.715795 -0.002396 0.0
2.042113 1.201532 0.002292 0.0
1.506699 0.091647 -0.001042 0.0
1.336028 1.766400 0.002324 0.0
1.399966 0.945095 -0.000092 0.0
1.583647 0.344253 0.007373 0.0
2.818878 0.970558 -0.002192 0.0
3.606722 0.506957 -0.002245 0.0
0.108809 0.394244 0.001552 0.0
3.529939 0.229838 -0.000534 0.0
2.371813 0.555441 0.002045 0.0
3.511026 1.834400 -0.004952 0.0
2.248900 1.021002 -0.003340 0.0
1.548918 1.534860 -0.003488 0.0
2.116932 0.130479 0.000098 0.0
0.007720 1.479986 -0.002844 0.0
0.179057 0.546047 0.003679 0.0
2.420187 0.803172 0.000248 0.0
3.919823 0.937910 0.001381 0.0
2.266218 1.359822 -0.001597 0.0
0.246990 0.702629 -0.000412 0.0
1.099406 1.708624 0.000349 0.0
3.731774 1.186713 -0.000153 0.0
2.946627 1.423262 -0.001290 0.0
2.498120 0.416091 0.003949 0.0
3.914356 1.411479 0.001017 0.0
1.904610 0.986225 0.001368 0.0
0.225673 1.590044 -0.000645 0.0
3.476943 1.306851 -0.001061 0.0
0.240986 0.929100 -0.000074 0.0
4.137576 0.310117 0.003085 0.0
0.352755 0.683001 -0.001610 0.0
0.672509 1.557000 0.003787 0.0
3.908967 0.665479 0.000337 0.0
0.106121 0.832817 0.000969 0.0
3.305013 1.341567 0.003857 0.0
0.697376 0.455245 -0.000181 0.0
2.360488 0.535596 0.002027 0.0
2.953451 0.258031 0.002376 0.0
3.859636 1.470154 0.006002 0.0
0.973179 1.017071 0.002251 0.0
3.901833 1.252052 0.003940 0.0
4.141911 0.691838 -0.000664 0.0
2.021316 1.483784 -0.003862 0.0
1.344344 0.871310 0.003311 0.0
1.880455 1.133574 -0.004047 0.0
0.071292 1.428973 0.000099 0.0
2.399614 1.557251 0.002690 0.0
2.235007 1.706236 -0.005555 0.0
2.144633 0.268712 -0.002902 0.0
1.313301 1.340178 0.002399 0.0
3.879258 1.824218 -0.004729 0.0
2.494817 1.416245 -0.000468 0.0
1.863088 0.090915 0.003107 0.0
1.916164 0.123171 0.002069 0.0
2.973587 1.438653 -0.004231 0.0
3.789265 1.200523 0.001051 0.0
0.281556 0.507579 0.000078 0.0
2.986206 0.858069 0.006260 0.0
3.043611 0.382906 -0.001637 0.0
3.363469 1.562684 -0.005054 0.0
1.254013 1.558470 0.001779 0.0
2.727203 1.537273 0.003125 0.0
3.228987 0.428137 0.000457 0.0
3.975407 1.440760 -0.002672 0.0
3.455805 1.708298 0.001710 0.0
2.274392 0.435436 0.005508 0.0
0.768167 0.114305 0.001797 0.0
3.809667 0.989869 0.004267 0.0
3.903800 1.226580 0.002295 0.0
4.109439 0.071258 -0.004150 0.0
0.748650 0.899242 0.002778 0.0
3.365458 1.517647 0.001914 0.0
3.011682 1.696319 -0.002875 0.0
2.152494 0.725912 0.002524 0.0
3.703285 0.797837 0.001254 0.0
1.740602 0.261353 -0.002490 0.0
2.411017 0.841172 -0.002402 0.0
3.768413 0.029237 -0.001123 0.0
3.397549 0.856476 -0.000986 0.0
2.209107 0.957191 -0.000853 0.0
2.690113 1.584659 0.000199 0.0
0.797063 1.083431 0.001526 0.0
3.947540 1.182606 0.001452 0.0
2.810626 0.260089 0.003276 0.0
0.897690 0.887691 0.000341 0.0
3.887557 0.915152 0.002866 0.0
0.119950 1.765603 0.001434 0.0
1.570288 0.003480 -0.002994 0.0
1.452684 0.551441 -0.002706 0.0
2.427703 1.576853 -0.002597 0.0
0.331644 1.429763 0.001405 0.0
2.753101 0.084458 -0.002302 0.0
2.856545 1.455002 0.001183 0.0
0.866799 1.207140 -0.000437 0.0
1.702248 0.051749 0.002122 0.0
3.353016 0.505892 0.002063 0.0
1.149545 1.821746 -0.003441 0.0
1.316064 1.666966 -0.000590 0.0
2.681038 1.359945 0.000517 0.0
0.343398 0.612529 -0.003612 0.0
2.555986 0.016601 -0.001459 0.0
0.464783 0.816913 -0.002719 0.0
1.410737 1.713622 0.000114 0.0
1.714374 0.231992 -0.000059 0.0
1.682487 1.802005 -0.000307 0.0
2.640368 0.222185 -0.003081 0.0
4.019251 1.147423 0.001971 0.0
1.252195 0.185655 -0.005184 0.0
3.697141 0.512478 -0.001517 0.0
2.902338 1.665326 0.000416 0.0
1.552150 1.278669 0.000743 0.0
3.963690 0.054431 -0.001846 0.0
3.342272 0.417446 -0.000227 0.0
0.618037 0.067910 -0.000799 0.0
1.244061 0.370396 0.002387 0.0
3.455310 1.794439 -0.005376 0.0
1.341580 0.244849 -0.002012 0.0
2.712167 1.711846 -0.000849 0.0
3.254692 0.383564 -0.002689 0.0
1.693497 0.129727 0.003252 0.0
2.107607 1.734078 -0.001455 0.0
0.037536 0.099062 -0.000056 0.0
1.864333 1.395924 0.002250 0.0
3.613351 1.543282 0.005711 0.0
2.238073 1.675147 -0.003942 0.0
1.833030 0.395507 0.000371 0.0
3.689222 1.592560 0.000163 0.0
4.047390 0.419095 0.001919 0.0
1.453642 0.767784 -0.001465 0.0
3.486908 1.018359 -0.001804 0.0
0.766413 0.825719 0.000397 0.0
4.126864 0.473124 0.002249 0.0
0.482551 0.130537 -0.000508 0.0
3.722204 0.948422 -0.004272 0.0
3.460944 0.629533 -0.000056 0.0
3.049719 1.763197 -0.003808 0.0
3.860785 0.645136 0.002551 0.0
3.254040 0.949731 -0.003448 0.0
1.859472 0.461395 -0.002839 0.0
1.912728 1.137855 -0.000453 0.0
2.658090 1.508321 -0.000590 0.0
1.387437 0.096080 -0.001588 0.0
0.839733 0.804397 -0.001878 0.0
3.585751 1.512282 -0.000433 0.0
3.162550 0.871273 -0.000018 0.0
0.791830 1.456728 0.002445 0.0
0.035631 1.156299 -0.001938 0.0
2.116624 1.202908 -0.004553 0.0
3.201727 0.787943 -0.001928 0.0
2.615906 0.625263 0.000324 0.0
0.599426 0.605130 -0.006357 0.0
1.527082 0.964467 -0.000094 0.0
0.185807 1.422576 -0.002534 0.0
0.360710 1.295361 0.000331 0.0
0.764355 1.801123 -0.001326 0.0
1.237702 0.774123 0.001504 0.0
2.886335 1.533212 -0.004468 0.0
3.804128 1.106290 0.001084 0.0
2.938083 1.508410 0.001703 0.0
2.637060 0.155046 0.001191 0.0
4.015852 0.866942 0.002428 0.0
3.876933 1.208910 -0.001782 0.0
1.541639 0.335876 -0.000586 0.0
0.801275 0.619308 0.001872 0.0
2.500450 0.715355 -0.003507 0.0
2.260929 0.640247 0.002454 0.0
1.943163 0.055240 0.002742 0.0
1.770420 1.355243 0.001834 0.0
0.974489 0.690419 0.003619 0.0
2.692005 0.846452 0.001023 0.0
4.132504 0.367503 0.001363 0.0
3.865493 0.704309 0.002670 0.0
2.925397 0.095050 -0.000380 0.0
0.875911 0.212310 0.002056 0.0
1.063976 1.407896 0.001360 0.0
3.897052 0.325524 -0.001708 0.0
0.346889 0.941465 -0.001563 0.0
0.558025 1.529702 -0.000833 0.0
1.053319 1.601784 -0.000194 0.0
3.862700 0.686799 0.001003 0.0
1.363592 0.076401 0.004704 0.0
2.098716 1.811535 -0.001296 0.0
2.697766 0.171735 0.000898 0.0
3.141515 1.001343 0.002071 0.0
1.164598 1.582082 -0.003071 0.0
3.732939 0.958481 0.000629 0.0
2.663444 1.683107 -0.001781 0.0
4.125154 1.549290 0.003582 0.0
0.046659 0.889368 0.001527 0.0
1.054636 0.068730 0.000349 0.0
2.502230 1.013812 -0.002604 0.0
3.999610 0.522620 0.000726 0.0
0.497644 0.580105 0.003305 0.0
0.763997 0.698976 0.002197 0.0
0.725480 0.313595 -0.002247 0.0
0.434981 0.224121 0.000697 0.0
0.929457 0.883194 -0.000545 0.0
0.228658 0.501976 -0.003689 0.0
1.566259 0.167070 -0.003666 0.0
2.702130 0.265058 -0.003839 0.0
1.028771 0.368452 0.001531 0.0
3.589587 1.734706 0.000064 0.0
3.038265 1.615410 -0.004271 0.0
2.852950 1.380414 0.000725 0.0
2.752008 0.230055 0.000143 0.0
1.056256 1.080591 0.002153 0.0
3.704009 1.376316 -0.002853 0.0
3.995213 1.557340 0.002003 0.0
3.341721 0.231534 0.001337 0.0
0.145089 1.741525 0.000145 0.0
0.626254 1.194065 -0.003336 0.0
2.011665 0.573659 0.000465 0.0
1.825822 0.907276 0.001793 0.0
2.791286 1.209803 -0.000180 0.0
3.023392 0.859318 -0.001310 0.0
1.481515 1.262885 0.001653 0.0
3.074439 1.595570 -0.000576 0.0
2.473118 0.678952 0.005138 0.0
3.541539 0.424726 0.001552 0.0
0.014398 1.391228 0.002938 0.0
0.541169 0.873258 0.005032 0.0
0.883555 0.344880 0.002248 0.0
3.726696 1.802697 -0.002465 0.0
3.591651 1.385082 0.002949 0.0
0.838188 1.811552 -0.001084 0.0
1.945170 1.724754 -0.000245 0.0
0.262097 1.479495 -0.004210 0.0
1.335105 0.402611 0.001609 0.0
0.240791 0.204627 0.003528 0.0
2.888248 0.479909 0.001750 0.0
2.120889 0.363997 0.001317 0.0
1.818393 0.493017 -0.000486 0.0
1.216439 0.081873 0.000261 0.0
4.170041 0.873527 -0.003497 0.0
1.890028 0.480035 -0.001776 0.0
4.206852 0.100408 -0.004118 0.0
1.449544 0.471894 0.002081 0.0
2.339751 1.416335 0.002287 0.0
2.521170 1.308321 0.005134 0.0
1.566591 1.742555 0.000046 0.0
2.781598 1.404887 -0.001396 0.0
2.788760 0.864870 -0.000492 0.0
3.473632 1.551859 -0.001588 0.0
3.744793 0.670927 -0.000893 0.0
0.289548 1.060731 -0.001642 0.0
3.329472 0.994993 0.000386 0.0
2.923261 0.832607 -0.000994 0.0
0.347881 1.793605 0.001303 0.0
0.817259 1.563511 -0.000736 0.0
0.641856 1.085399 -0.000872 0.0
0.848864 1.140132 0.004533 0.0
2.111639 1.670173 0.001506 0.0
2.746633 1.824222 0.002132 0.0
0.384247 0.366456 -0.002631 0.0
1.644092 0.024367 0.000449 0.0
2.617253 0.991383 -0.000097 0.0
2.444465 0.309514 -0.005041 0.0
1.954802 1.351208 -0.004121 0.0
1.993871 1.619074 -0.004537 0.0
1.430318 0.438894 0.000638 0.0
1.661339 0.586015 0.001658 0.0
0.897004 1.350430 0.003729 0.0
3.120709 1.195600 0.001651 0.0
2.539715 0.685359 0.000392 0.0
1.285724 0.797227 -0.001431 0.0
2.755390 0.442682 0.000771 0.0
1.080446 0.008066 -0.001771 0.0
3.322009 1.508274 -0.001420 0.0
2.757066 1.695626 -0.003288 0.0
4.125057 0.032435 -0.000425 0.0
0.848811 1.518301 0.000298 0.0
0.612430 1.772484 0.001382 0.0
1.196615 0.269208 0.002875 0.0
3.876802 0.115235 0.002268 0.0
0.061378 1.447402 0.000186 0.0
3.420866 1.726447 -0.001430 0.0
2.644982 1.699647 -0.004526 0.0
3.522642 0.935119 0.001558 0.0
3.925388 1.344320 0.000545 0.0
2.883632 0.741954 -0.001424 0.0
0.219674 0.707524 0.001447 0.0
3.743061 1.186862 0.000322 0.0
0.288242 0.063052 -0.002976 0.0
2.057978 0.198888 0.003244 0.0
2.203994 1.720788 -0.000481 0.0
3.161142 1.754988 -0.001309 0.0
0.552017 1.060459 -0.003246 0.0
3.531487 1.427693 -0.001230 0.0
1.906053 1.821430 -0.001522 0.0
0.352616 0.296863 -0.001962 0.0
0.599786 1.640658 -0.003005 0.0
0.499149 1.415138 0.001009 0.0
3.264972 1.120756 0.000248 0.0
2.572452 1.611905 -0.001570 0.0
4.097078 1.618240 0.003544 0.0
1.767417 1.063468 0.000310 0.0
2.857129 0.263034 -0.004257 0.0
1.915154 0.910511 -0.000243 0.0
2.810840 0.796886 0.001633 0.0
1.801384 0.087847 0.000058 0.0
1.415704 0.045218 -0.000181 0.0
1.119358 1.677997 0.000604 0.0
3.526231 0.365406 -0.003234 0.0
2.027245 0.886739 -0.006310 0.0
1.089923 0.724184 -0.004707 0.0
1.651937 1.512483 0.002388 0.0
2.812388 1.042325 0.001002 0.0
1.866691 0.366116 0.002961 0.0
3.967205 0.622624 -0.002930 0.0
1.551831 1.024462 -0.000800 0.0
1.373781 0.855368 0.001157 0.0
2.846902 1.501119 -0.000601 0.0
1.913177 0.845866 -0.001474 0.0
2.004348 0.068296 0.006130 0.0
1.178686 1.001295 0.002798 0.0
1.443458 0.613909 0.000668 0.0
0.260186 0.116296 -0.001218 0.0
3.244082 0.433401 -0.002026 0.0
3.327024 1.340371 -0.002336 0.0
3.501840 0.940005 -0.001361 0.0
3.823013 1.239428 -0.001863 0.0
2.460841 0.549106 0.002080 0.0
1.143523 0.101228 0.000282 0.0
3.548598 1.721091 -0.003230 0.0
3.297682 0.511677 -0.000165 0.0
0.191182 0.533464 0.000428 0.0
1.870372 0.174296 0.003514 0.0
3.675504 1.274601 0.003087 0.0
1.637376 1.452839 0.001539 0.0
3.280536 1.196349 0.002267 0.0
2.337517 1.236002 -0.000873 0.0
1.519333 1.445500 -0.000068 0.0
0.077998 0.247156 0.001804 0.0
1.259307 0.527699 0.000055 0.0
3.268192 0.360402 -0.002058 0.0
1.306715 0.010059 0.001221 0.0
3.011857 0.578248 0.000212 0.0
0.448555 1.010207 -0.003388 0.0
1.679398 0.701204 0.000661 0.0
1.080470 0.297786 -0.001886 0.0
1.885206 0.292879 0.001294 0.0
3.509371 1.574314 0.002274 0.0
1.933404 0.012002 0.000010 0.0
3.008013 0.063931 -0.002161 0.0
3.946191 1.681031 0.004292 0.0
0.248167 0.463345 -0.002934 0.0
0.419523 0.289000 -0.000218 0.0
2.783640 1.690935 0.001206 0.0
3.513825 1.541193 -0.003428 0.0
2.715244 0.786590 -0.003253 0.0
0.852051 1.325331 0.004443 0.0
1.965643 1.346120 0.003389 0.0
1.956371 0.594795 -0.001732 0.0
2.916818 1.753252 -0.001306 0.0
2.513648 1.744547 -0.004449 0.0
0.701962 1.677318 -0.000506 0.0
0.870540 1.142283 0.001000 0.0
0.433342 0.000433 -0.002723 0.0
2.401518 1.771960 0.000045 0.0
2.255311 0.327127 -0.002897 0.0
2.923903 0.922545 -0.004793 0.0
2.284217 1.751827 -0.002390 0.0
3.151925 0.154658 0.002131 0.0
2.926020 1.712925 0.001079 0.0
0.747699 1.057600 -0.002621 0.0
4.146087 1.020943 0.006157 0.0
3.627068 0.752674 -0.001916 0.0
4.207839 1.081453 0.001159 0.0
0.494737 1.808147 0.000215 0.0
3.501495 1.232003 0.001135 0.0
0.747974 1.767860 0.002339 0.0
3.740936 0.820540 0.001904 0.0
1.437727 1.092836 -0.000527 0.0
2.436176 0.308048 -0.000293 0.0
1.263930 1.661898 0.001684 0.0
3.961436 1.047190 0.001188 0.0
4.107364 1.393858 0.003321 0.0
3.861703 1.785677 0.001327 0.0
3.657196 0.287791 0.001406 0.0
3.611334 1.096369 -0.002236 0.0
2.854354 1.748058 -0.002278 0.0
1.479344 0.065342 -0.000585 0.0
3.824596 1.822325 0.000165 0.0
0.057299 0.870998 0.000485 0.0
1.929492 0.641667 0.000344 0.0
1.333306 0.774929 -0.000706 0.0
1.743225 1.465947 -0.000473 0.0
2.902040 1.625465 0.005372 0.0
0.789840 0.355836 0.000342 0.0
1.987299 0.102593 0.000821 0.0
0.338607 1.000573 -0.001399 0.0
1.243468 0.935711 0.001045 0.0
4.221454 0.680250 -0.002927 0.0
0.052817 0.604719 0.001113 0.0
0.887413 1.139332 -0.000836 0.0
1.364610 1.365541 -0.001005 0.0
0.031886 1.204074 0.002569 0.0
1.307107 0.625170 0.000150 0.0
2.002664 1.746536 -0.002859 0.0
4.158219 0.475136 -0.001140 0.0
3.917708 1.538129 -0.002254 0.0
4.105944 0.737487 0.000169 0.0
0.180674 0.520358 0.003518 0.0
2.542409 0.144831 -0.001331 0.0
1.991073 0.787820 0.001705 0.0
4.002644 1.341251 -0.002826 0.0
1.880026 0.990568 -0.001009 0.0
0.123300 1.602956 -0.000484 0.0
3.041711 1.389524 -0.001416 0.0
0.664945 1.466915 0.002957 0.0
0.462259 0.774621 0.000618 0.0
3.505632 1.074434 0.000418 0.0
1.891866 1.587979 0.000921 0.0
0.275734 0.603056 -0.002199 0.0
0.952625 0.943498 -0.003779 0.0
2.499494 0.904993 -0.001824 0.0
1.395904 0.423098 0.001759 0.0
2.517343 0.307272 -0.001947 0.0
1.188908 0.905485 -0.003890 0.0
0.068634 1.644210 -0.001580 0.0
3.169136 1.372529 -0.001665 0.0
1.467211 0.919365 -0.000651 0.0
0.923550 0.903261 0.002703 0.0
0.924548 1.137626 0.000021 0.0
3.261021 0.581575 0.003111 0.0
3.899641 0.174699 0.002078 0.0
1.377903 1.363408 0.000675 0.0
2.420732 1.060597 0.004384 0.0
2.449033 0.838327 0.000562 0.0
0.608772 0.207731 -0.001822 0.0
2.393275 0.475280 0.000255 0.0
2.526842 1.120248 -0.001503 0.0
2.736623 1.786087 -0.000995 0.0
2.950529 1.231607 -0.001773 0.0
1.622536 0.807034 0.001765 0.0
2.712049 0.552593 0.004291 0.0
2.768686 1.532677 0.005715 0.0
3.543423 1.088068 -0.000810 0.0
4.081658 1.786138 0.000060 0.0
3.557122 0.942197 -0.001857 0.0
2.965520 0.425471 -0.003785 0.0
2.995045 1.675400 0.001627 0.0
3.466195 1.752826 0.001795 0.0
2.713642 0.768788 -0.000854 0.0
2.224842 1.496346 0.001173 0.0
3.459849 0.410103 -0.001521 0.0
0.876289 0.246463 0.002335 0.0
1.920021 1.160994 -0.004024 0.0
3.965362 0.049679 0.000919 0.0
2.591168 0.677514 0.003424 0.0
3.845042 1.363756 -0.002139 0.0
3.861938 0.191119 0.000811 0.0
1.773387 0.940013 -0.002037 0.0
3.140211 0.127040 0.000249 0.0
3.859093 0.051892 0.001184 0.0
2.202247 0.928867 -0.005565 0.0
1.346938 0.977661 -0.001257 0.0
1.407760 0.589966 -0.000109 0.0
2.324681 1.222690 0.006128 0.0
0.232951 0.612582 0.004239 0.0
1.146877 1.739602 0.002638 0.0
2.137254 1.475216 0.000522 0.0
1.564587 1.422528 0.005921 0.0
2.341352 0.999394 0.002146 0.0
3.836534 1.162668 -0.000247 0.0
1.495293 1.403508 -0.002232 0.0
3.213709 0.565418 -0.000952 0.0
3.319576 1.124186 -0.002786 0.0
0.783495 0.296732 0.000633 0.0
0.320462 1.726945 -0.003976 0.0
0.138361 0.310866 -0.000939 0.0
2.940711 1.389173 0.000238 0.0
0.867547 0.301298 -0.004931 0.0
1.421986 1.782881 0.002155 0.0
3.906490 0.554535 -0.001179 0.0
1.977173 1.080901 0.000641 0.0
3.040837 0.744928 0.000999 0.0
1.187783 0.751688 -0.002967 0.0
1.550256 0.669038 -0.000381 0.0
1.352085 0.535876 -0.002173 0.0
0.199106 0.405986 0.000005 0.0
1.521151 0.797225 0.002259 0.0
0.098352 0.935760 0.001891 0.0
2.982945 0.560569 -0.002522 0.0
4.053830 0.482807 -0.000992 0.0
2.043663 1.808215 -0.004048 0.0
4.092756 0.515948 -0.004602 0.0
1.048761 0.509696 -0.004905 0.0
3.303771 0.072280 -0.000257 0.0
2.137393 0.990453 0.002685 0.0
1.816340 0.809741 -0.000724 0.0
3.083727 0.013159 -0.005507 0.0
1.716217 1.128579 0.002933 0.0
3.096140 1.238005 0.000062 0.0
0.872331 1.607176 -0.001649 0.0
2.580234 1.533486 0.001066 0.0
4.125800 0.197800 0.000575 0.0
3.638355 1.729806 0.000274 0.0
2.320418 1.247824 0.002080 0.0
1.685488 1.299232 0.002463 0.0
0.487170 1.829965 -0.005284 0.0
1.620471 0.887899 0.001268 0.0
2.864318 1.018979 -0.000021 0.0
2.354050 1.198693 -0.000474 0.0
1.533668 0.576615 0.007449 0.0
1.801080 1.745923 -0.001929 0.0
1.893924 0.574225 0.004905 0.0
2.803479 1.700525 0.000503 0.0
0.922723 1.238279 0.001635 0.0
4.138878 0.343922 -0.001210 0.0
1.967041 0.121900 -0.003016 0.0
2.167133 0.714701 0.000435 0.0
0.254848 0.643588 0.004611 0.0
2.042296 0.572820 0.001349 0.0
1.107095 0.334024 -0.000175 0.0
1.033265 0.544161 0.003236 0.0
2.446918 0.696715 -0.000911 0.0
2.236072 0.086119 -0.001141 0.0
2.211621 1.594786 -0.001001 0.0
3.481695 1.159386 -0.000407 0.0
1.383334 0.749369 0.001053 0.0
3.739574 1.674412 0.001047 0.0
4.220509 0.994682 0.002520 0.0
2.149548 0.958108 0.002303 0.0
0.512921 1.009635 0.000240 0.0
0.216815 0.867304 -0.001575 0.0
0.148321 1.031495 -0.000300 0.0
1.745897 1.603481 -0.002553 0.0
1.168881 0.973521 0.000342 0.0
2.712758 0.009538 -0.004261 0.0
0.093780 1.693924 -0.001069 0.0
3.482855 0.954245 0.000813 0.0
3.650986 0.167789 0.003205 0.0
0.839724 1.378009 0.001006 0.0
2.295656 0.463634 0.002019 0.0
2.441774 0.570056 0.001028 0.0
0.436551 0.445912 0.006072 0.0
0.744178 1.670624 0.000496 0.0
4.126801 0.939470 -0.002043 0.0
0.559326 0.616824 -0.005515 0.0
1.708635 1.426203 -0.001108 0.0
1.145597 1.479112 0.000954 0.0
4.075238 0.229069 -0.003896 0.0
3.571702 1.304278 0.002795 0.0
2.771336 0.347716 0.000516 0.0
0.595505 0.141988 -0.000220 0.0
0.537017 1.712731 -0.004903 0.0
3.217287 0.432508 0.002353 0.0
2.408590 0.721647 -0.001970 0.0
3.265670 1.454428 0.000908 0.0
3.936491 1.116513 -0.002487 0.0
3.428587 1.020735 -0.000685 0.0
0.594434 1.430102 0.001116 0.0
3.025392 1.423099 -0.003047 0.0
2.257943 0.064013 -0.004121 0.0
0.115263 0.549879 -0.003699 0.0
4.079227 0.823831 0.000096 0.0
2.413580 0.063041 0.000176 0.0
0.761226 0.728977 -0.002314 0.0
1.163283 1.171449 -0.000557 0.0
2.561972 1.087906 0.000744 0.0
3.523982 1.038054 -0.003095 0.0
0.901791 0.162868 0.000807 0.0
0.343820 0.918748 0.000138 0.0
1.338423 0.899593 0.003205 0.0
4.078672 0.128668 0.002927 0.0
0.782038 1.156819 -0.003471 0.0
4.029766 0.285647 -0.003565 0.0
0.183374 1.107333 -0.002552 0.0
0.694016 0.895341 -0.000392 0.0
1.839423 1.392335 0.000834 0.0
3.353728 0.435943 -0.001675 0.0
4.186243 1.205140 0.004003 0.0
1.107616 1.753998 -0.002618 0.0
1.937831 0.803062 0.002706 0.0
1.691660 1.126128 -0.001034 0.0
4.206690 1.351299 -0.001663 0.0
2.537280 0.578441 -0.002309 0.0
0.474639 0.209257 0.001107 0.0
0.056650 0.729924 -0.001157 0.0
1.632396 1.290986 -0.001865 0.0
0.059184 0.153319 0.000794 0.0
1.261599 1.588582 -0.005886 0.0
1.237055 0.733670 -0.001847 0.0
2.493163 0.587326 0.003282 0.0
2.652035 0.213094 -0.002138 0.0
3.258716 1.506308 0.000165 0.0
3.915806 0.879703 0.001372 0.0
2.236034 0.535054 0.001739 0.0
1.613782 1.777579 -0.003878 0.0
0.538559 0.256732 0.000685 0.0
3.389050 1.564471 0.000496 0.0
2.455890 0.150944 -0.001912 0.0
4.160664 1.057884 -0.003748 0.0
2.005117 0.005694 0.001441 0.0
3.882950 0.881133 -0.002125 0.0
2.083293 1.643909 0.002175 0.0
1.249589 0.089982 0.001840 0.0
1.385900 0.053250 0.001416 0.0
0.999863 1.760098 -0.005443 0.0
0.834429 1.448226 0.006019 0.0
1.029635 0.763680 0.005348 0.0
1.087450 1.689741 0.001397 0.0
3.792762 1.377504 -0.000246 0.0
3.164621 0.776756 0.001156 0.0
3.354240 1.598379 -0.003015 0.0
3.739125 1.713717 0.005526 0.0
3.878679 0.335705 -0.003344 0.0
3.977382 0.407580 -0.003709 0.0
3.819618 0.072021 0.000382 0.0
0.267039 0.533045 0.005200 0.0
3.260456 0.251518 0.000248 0.0
0.919308 0.963863 0.001929 0.0
3.743927 0.959072 -0.003597 0.0
3.946726 1.708756 0.004054 0.0
2.319450 1.184219 0.001526 0.0
3.167386 0.211590 0.001953 0.0
1.280489 0.073584 0.002962 0.0
3.356788 0.696539 0.001238 0.0
2.652242 0.242402 0.002733 0.0
0.059763 0.845577 -0.000022 0.0
1.889569 0.907736 0.002859 0.0
0.039521 1.501852 -0.000209 0.0
2.508756 1.380692 0.004199 0.0
3.674827 1.174352 0.002525 0.0
2.875751 0.675680 0.000539 0.0
2.729910 1.136047 -0.001500 0.0
2.708594 1.601077 -0.003806 0.0
1.094926 0.635665 -0.002170 0.0
3.686222 0.969056 -0.001932 0.0
3.283013 1.055874 -0.003680 0.0
1.705640 0.448814 -0.004698 0.0
1.434237 0.410616 -0.001073 0.0
3.770234 0.715700 -0.001584 0.0
1.539464 1.108913 -0.002616 0.0
0.484591 1.113699 -0.002168 0.0
2.014822 0.794204 0.000750 0.0
0.467102 1.601572 0.003747 0.0
3.740491 0.928855 0.002929 0.0
0.684358 0.816643 0.001188 0.0
0.133068 1.278712 -0.002471 0.0
2.126478 0.164667 0.001702 0.0
1.944797 0.729935 0.001066 0.0
2.367483 1.262172 0.003214 0.0
0.867161 1.717079 0.000714 0.0
0.821769 1.756743 0.002167 0.0
4.178652 0.568681 0.001902 0.0
2.406940 1.421295 0.000797 0.0
0.099205 0.098302 0.000127 0.0
3.801348 0.028524 0.000599 0.0
4.207430 1.619031 -0.003369 0.0
2.128560 0.255007 0.000698 0.0
1.772339 1.725867 0.002176 0.0
1.665137 1.644025 -0.002215 0.0
2.013816 0.916695 -0.000251 0.0
1.350339 0.645127 -0.002787 0.0
3.212962 0.828117 -0.001848 0.0
0.190835 1.487039 -0.002232 0.0
3.117444 1.424896 0.003472 0.0
0.684547 1.006928 0.003486 0.0
3.423425 0.441349 -0.001443 0.0
2.509896 1.789291 0.004693 0.0
2.038798 1.238018 0.000626 0.0
3.150424 0.298986 -0.001535 0.0
1.764989 0.600978 -0.001472 0.0
0.061584 1.671602 0.000176 0.0
3.834380 0.664548 0.000639 0.0
2.207146 0.628013 0.002554 0.0
3.391521 1.250047 0.003701 0.0
1.459851 0.833248 0.000264 0.0
1.893331 1.361997 0.000085 0.0
1.431863 0.096798 -0.003015 0.0
2.789269 1.667905 -0.001451 0.0
2.979025 1.373823 0.000783 0.0
0.291447 0.210477 -0.002420 0.0
0.402873 1.477823 -0.000964 0.0
0.519808 0.861475 -0.000326 0.0
2.416585 0.555934 0.001530 0.0
2.825102 0.338707 0.001512 0.0
2.584065 1.450168 0.003865 0.0
1.638256 0.601702 -0.001530 0.0
2.751397 1.062659 0.002828 0.0
3.616905 1.349464 -0.002343 0.0
1.375464 1.477530 -0.000726 0.0
3.783385 0.460565 0.001229 0.0
2.027109 0.607158 0.000505 0.0
2.943922 1.098739 -0.001829 0.0
1.879694 1.030383 -0.000195 0.0
2.208268 0.960525 -0.000795 0.0
4.146595 0.437930 -0.001898 0.0
1.059346 0.354393 0.003199 0.0
1.950027 1.013999 -0.003655 0.0
0.886096 0.219071 -0.003234 0.0
1.444284 1.401668 -0.001255 0.0
3.827608 0.531587 0.002827 0.0
3.860449 0.581550 0.000518 0.0
3.395853 1.416879 0.002852 0.0
0.679947 1.421096 -0.000679 0.0
0.155129 1.703940 0.001407 0.0
2.737065 0.357121 0.001333 0.0
0.592893 1.278340 0.000424 0.0
2.754068 0.182598 -0.002472 0.0
1.526130 1.151650 0.000314 0.0
1.190117 0.480130 -0.000428 0.0
1.563189 1.502811 -0.002021 0.0
4.213931 0.560751 -0.003916 0.0
0.998652 1.711951 -0.000584 0.0
3.060363 0.530107 -0.001432 0.0
2.439872 1.696632 -0.000016 0.0
3.884198 1.169372 0.000798 0.0
2.251253 1.306356 0.002100 0.0
3.250080 1.674309 -0.004727 0.0
0.670993 1.147133 -0.002530 0.0
1.574525 1.170967 -0.001480 0.0
3.107353 1.396740 -0.002010 0.0
1.388962 1.320991 -0.001019 0.0
2.293846 0.854483 0.001469 0.0
0.103695 0.900575 0.001542 0.0
0.366837 0.762532 -0.002369 0.0
1.889306 0.052783 0.000031 0.0
1.280017 1.080152 0.001975 0.0
1.210950 1.634120 0.004759 0.0
1.761858 0.520721 0.001812 0.0
1.501478 1.082911 0.001362 0.0
1.123917 1.123639 0.001003 0.0
0.637045 0.429570 -0.000037 0.0
3.894827 0.514011 -0.004326 0.0
3.671000 1.297996 -0.000191 0.0
2.661110 1.728689 0.001712 0.0
0.696914 0.477231 0.000564 0.0
0.474222 1.720273 -0.000156 0.0
1.849002 0.356322 -0.001552 0.0
4.181724 0.241451 0.003951 0.0
1.958491 1.114094 -0.000389 0.0
0.950007 0.451587 0.002448 0.0
0.856197 1.279682 0.002502 0.0
3.420624 1.533640 -0.000903 0.0
1.000767 1.048781 0.003784 0.0
0.590910 0.803520 -0.002058 0.0
3.008833 0.996174 -0.000773 0.0
2.017345 0.113143 0.000053 0.0
3.421998 0.104542 -0.003227 0.0
0.875030 0.053654 0.001194 0.0
2.144951 1.459197 -0.003298 0.0
2.659042 0.062951 0.004845 0.0
3.300569 1.533965 0.001112 0.0
3.495114 0.312133 0.001326 0.0
0.384752 1.426128 0.005486 0.0
2.943668 0.049849 0.002926 0.0
0.498151 0.479484 -0.001228 0.0
2.917546 0.826589 0.001100 0.0
4.138058 0.710007 0.000069 0.0
0.353176 1.480753 -0.000991 0.0
2.146636 0.548579 -0.004817 0.0
3.532395 0.769774 0.001805 0.0
0.646010 0.149229 -0.000011 0.0
3.620553 1.268629 0.004232 0.0
3.631102 1.292904 -0.002713 0.0
1.158599 0.047353 -0.001344 0.0
1.170610 0.948554 0.000217 0.0
3.073825 0.226688 0.001702 0.0
2.532052 0.615390 -0.002750 0.0
0.278705 0.904670 0.004156 0.0
1.032578 0.575858 0.005853 0.0
2.129460 0.944134 0.002693 0.0
3.641465 1.505125 0.001715 0.0
0.223672 1.611809 -0.000436 0.0
2.630385 1.634194 0.000755 0.0
2.819133 0.910081 -0.006499 0.0
3.319637 1.379768 -0.000410 0.0
2.732315 0.704246 0.000867 0.0
1.122880 0.275507 0.002244 0.0
3.893531 0.399722 0.000052 0.0
2.607987 1.603390 0.002150 0.0
0.397274 1.493430 0.005096 0.0
1.855998 0.899089 0.002725 0.0
1.314789 0.994625 -0.002111 0.0
1.853628 0.416559 0.000616 0.0
3.728872 0.096728 -0.001388 0.0
2.073936 0.618115 -0.000331 0.0
3.081684 0.330630 -0.000380 0.0
0.096259 0.052598 -0.001541 0.0
3.971227 1.254342 -0.005676 0.0
2.978575 0.678106 -0.002709 0.0
0.623419 0.467086 0.001822 0.0
0.788378 0.917461 0.003182 0.0
1.169991 0.589517 0.000985 0.0
1.391098 0.710894 0.004796 0.0
4.134600 0.167150 0.000035 0.0
3.596877 0.530575 0.004589 0.0
1.099613 0.538824 -0.003930 0.0
1.338903 0.053735 0.001386 0.0
2.306382 1.464531 -0.001905 0.0
1.052375 1.623084 -0.000228 0.0
2.827285 1.544539 -0.001911 0.0
0.715223 0.059649 -0.005023 0.0
3.808427 1.516354 -0.001054 0.0
3.462313 1.296031 -0.000021 0.0
0.562953 0.501943 -0.001409 0.0
1.841493 0.272920 -0.004503 0.0
2.969130 0.760398 0.005153 0.0
2.644661 0.547761 0.000346 0.0
3.555849 1.495999 0.004430 0.0
1.383074 0.692823 -0.001985 0.0
3.729601 0.619172 -0.003392 0.0
2.461805 1.568515 0.001634 0.0
0.892328 1.256205 0.001330 0.0
0.636393 0.428718 -0.000556 0.0
1.793503 0.771977 -0.003357 0.0
3.940039 0.691183 -0.000441 0.0
2.639265 0.189370 -0.003660 0.0
0.772528 1.464734 -0.001389 0.0
0.191752 1.452028 -0.001036 0.0
4.015344 0.703204 0.003119 0.0
2.000272 0.660603 0.004297 0.0
0.329954 0.851391 -0.000390 0.0
3.216940 0.252523 0.002832 0.0
1.825357 1.151420 0.000679 0.0
1.971215 0.140615 -0.001891 0.0
2.173084 1.201348 -0.000104 0.0
0.141445 0.986433 0.000292 0.0
4.097055 1.811783 0.002680 0.0
3.676632 1.287831 -0.001203 0.0
3.795852 1.086454 -0.004669 0.0
2.249908 0.254640 -0.003231 0.0
0.484420 1.270083 0.006315 0.0
2.792057 1.420585 0.000126 0.0
2.843210 0.875654 -0.001039 0.0
2.060300 1.793662 -0.002902 0.0
1.910541 0.686563 0.002375 0.0
1.102697 0.409886 0.000475 0.0
3.774332 0.576413 -0.001075 0.0
3.161804 1.361276 0.000938 0.0
0.192474 0.247217 0.001935 0.0
2.908465 1.687876 -0.000478 0.0
1.472177 0.440051 0.000006 0.0
3.293680 1.329003 0.002242 0.0
2.049726 0.324866 0.001213 0.0
2.969688 1.225059 -0.000116 0.0
2.501060 0.819901 0.002542 0.0
1.236262 0.267599 0.001145 0.0
0.867851 0.967227 -0.003457 0.0
1.854637 0.587912 0.001895 0.0
3.616541 0.672512 0.000366 0.0
