0.940188 1.193270 0.000454 0.0
0.226918 1.694063 0.000282 0.0
0.351839 0.065239 0.000175 0.0
1.262415 1.107817 0.000684 0.0
1.711221 1.524288 0.002289 0.0
1.823839 1.728881 0.002604 0.0
2.166756 1.517160 -0.001135 0.0
3.970377 1.529997 -0.003251 0.0
1.965798 1.220099 -0.001926 0.0
1.718270 1.541315 -0.001630 0.0
2.470936 1.319822 0.004306 0.0
3.037923 0.259386 0.000346 0.0
3.163894 0.059272 0.001718 0.0
2.377549 0.378848 0.000363 0.0
1.636737 1.145115 0.002528 0.0
3.487907 1.328431 0.003314 0.0
3.200175 1.290231 -0.001879 0.0
3.171981 1.722452 -0.001846 0.0
1.304045 0.889042 0.003462 0.0
0.177699 1.615404 0.000163 0.0
0.852393 1.003488 -0.008199 0.0
2.356981 1.037330 -0.003823 0.0
0.834730 0.399847 -0.001227 0.0
3.454815 0.860670 -0.001325 0.0
1.104552 0.689619 -0.008078 0.0
0.299977 0.597856 -0.000068 0.0
1.476172 1.277817 -0.000340 0.0
2.949821 1.289311 -0.001340 0.0
4.440840 1.268926 0.001859 0.0
2.837778 0.437094 0.002210 0.0
1.572208 0.619513 0.001519 0.0
0.344889 0.393622 -0.005955 0.0
2.351226 0.309935 -0.000183 0.0
4.233740 0.744999 -0.001380 0.0
2.830979 1.655858 -0.000731 0.0
1.894209 1.509189 0.000712 0.0
0.865432 0.091797 0.000840 0.0
2.529401 0.417807 -0.000932 0.0
2.525370 1.329770 0.002014 0.0
4.290238 0.628306 -0.001316 0.0
1.374069 1.143899 0.002241 0.0
3.338596 0.057858 -0.000402 0.0
3.306306 0.734383 0.001945 0.0
3.342244 0.328122 -0.000996 0.0
2.052266 1.231871 -0.002334 0.0
0.910140 1.204121 -0.003992 0.0
1.019671 0.803709 0.000250 0.0
0.343347 0.941544 0.002644 0.0
4.217834 0.010412 -0.000426 0.0
3.655511 0.379885 -0.003064 0.0
2.997559 0.221067 0.002041 0.0
4.253831 1.342165 0.004358 0.0
1.024667 0.665666 -0.004369 0.0
4.022022 0.285638 0.001310 0.0
0.291157 1.677752 0.001064 0.0
3.111370 0.754715 0.002335 0.0
3.567345 1.432765 -0.000757 0.0
2.255211 1.102734 0.001339 0.0
2.577428 1.435219 -0.002202 0.0
3.242996 0.584592 -0.005713 0.0
1.505769 1.499047 -0.000447 0.0
0.526183 0.479194 0.000630 0.0
1.569149 0.149436 0.003557 0.0
0.657165 0.249923 0.003209 0.0
0.874669 1.171702 0.002478 0.0
3.464403 1.516582 -0.002779 0.0
2.615463 1.625595 0.000721 0.0
2.291493 1.639689 0.005157 0.0
2.038234 0.400353 -0.002243 0.0
0.269932 0.683753 0.000536 0.0
2.964927 0.055627 0.002433 0.0
2.954229 0.923577 -0.003926 0.0
0.298574 0.727281 0.001473 0.0
4.198517 0.802499 -0.003960 0.0
4.322866 0.733171 0.000435 0.0
2.333598 0.361158 0.000879 0.0
0.825591 0.177848 0.003133 0.0
0.514996 0.227751 0.002858 0.0
0.860966 1.559016 0.000480 0.0
1.533128 1.211350 -0.003285 0.0
2.005702 0.686969 -0.001008 0.0
2.697667 0.785695 -0.003017 0.0
0.242085 0.127982 -0.000277 0.0
3.877915 0.180862 -0.005328 0.0
4.065052 0.338965 0.001859 0.0
2.920875 0.087441 0.000904 0.0
2.706445 1.431980 -0.001826 0.0
4.451507 0.965486 0.000021 0.0
4.059922 1.471120 0.002754 0.0
0.798125 1.606356 0.007132 0.0
3.116818 0.737934 -0.000029 0.0
3.779553 0.697372 0.001335 0.0
0.114828 1.236023 -0.002800 0.0
2.937221 0.322556 0.001216 0.0
0.044831 1.193733 0.002107 0.0
3.409739 1.310677 -0.001422 0.0
1.718716 0.696626 -0.004307 0.0
4.212538 0.806274 -0.003831 0.0
2.299866 0.319278 -0.003523 0.0
3.071584 0.517907 0.000078 0.0
2.702930 1.447495 -0.000931 0.0
2.510026 0.153515 -0.001294 0.0
1.475624 1.631179 0.002478 0.0
3.122069 0.980398 -0.000099 0.0
0.184215 0.480771 0.003088 0.0
4.237610 1.453193 -0.003603 0.0
1.721245 0.039581 0.003350 0.0
1.950232 0.186169 -0.001201 0.0
3.349975 1.310226 0.001203 0.0
2.105189 0.398698 0.002370 0.0
3.041269 0.236138 -0.001768 0.0
3.034525 1.286724 -0.000978 0.0
1.339917 0.288112 0.000709 0.0
2.835136 1.490254 -0.003165 0.0
0.129847 0.848400 -0.000554 0.0
2.192113 1.663806 0.003351 0.0
2.106036 1.662249 -0.001992 0.0
3.245961 1.092765 0.002050 0.0
0.154814 0.186130 0.002007 0.0
3.754345 0.384580 0.000668 0.0
1.632934 0.752412 -0.001908 0.0
3.738148 0.322455 0.001020 0.0
0.053446 0.361323 0.002494 0.0
1.319771 0.460523 0.000065 0.0
3.479194 0.089911 0.000838 0.0
3.237745 0.883945 0.002765 0.0
2.729367 1.021223 0.002846 0.0
0.820931 0.171640 -0.000135 0.0
3.979280 0.035252 0.001321 0.0
1.001232 1.280922 0.005486 0.0
3.292526 0.988056 0.000413 0.0
3.167552 0.163525 0.000286 0.0
4.032857 1.544797 -0.001097 0.0
2.957796 0.673569 0.001164 0.0
3.599167 0.614393 0.000809 0.0
0.193895 1.297357 0.004701 0.0
4.294785 1.037002 0.003614 0.0
4.067995 0.987603 0.000410 0.0
4.250814 1.088264 0.002135 0.0
1.115182 0.004096 0.003630 0.0
1.678883 1.213995 0.003622 0.0
3.080652 0.519372 0.001986 0.0
0.756441 1.300530 -0.001701 0.0
0.871291 1.728344 -0.001511 0.0
0.141949 1.373558 -0.001036 0.0
0.537124 1.710248 0.000465 0.0
1.475464 1.243187 0.000340 0.0
3.634813 1.562123 0.000602 0.0
4.056126 1.133458 -0.000467 0.0
0.668971 1.101999 -0.000830 0.0
1.599000 0.519432 0.000030 0.0
4.316385 0.686247 0.002710 0.0
0.999072 0.423260 0.001877 0.0
2.391220 0.347908 0.001732 0.0
2.468971 1.564626 -0.002639 0.0
1.725793 0.229061 -0.002474 0.0
1.888895 1.280161 -0.003923 0.0
0.914432 0.586094 0.003014 0.0
2.657277 1.700718 -0.003538 0.0
2.973745 0.916000 0.003274 0.0
0.244890 0.595314 0.003729 0.0
3.947661 0.355077 0.002300 0.0
2.842977 0.472976 -0.001407 0.0
1.570518 0.515953 -0.000029 0.0
3.227938 0.416011 -0.002493 0.0
3.373873 1.102993 -0.005893 0.0
0.486555 1.543069 -0.000728 0.0
3.081396 1.567961 -0.001237 0.0
4.392728 1.408695 -0.000810 0.0
1.179063 1.350627 -0.002688 0.0
3.286974 0.623388 0.003794 0.0
3.831784 1.473477 0.000757 0.0
2.536063 0.925034 -0.002240 0.0
2.360638 1.600202 0.000227 0.0
1.251561 0.371233 -0.002487 0.0
1.381027 0.867901 0.002167 0.0
1.723284 0.469356 -0.002673 0.0
3.804143 1.521160 -0.004842 0.0
3.901029 0.526956 -0.001696 0.0
0.721345 1.542534 -0.001913 0.0
3.578344 1.134838 0.000936 0.0
3.102718 0.246608 -0.001852 0.0
3.124170 0.984963 0.000721 0.0
1.527482 0.977614 -0.003956 0.0
0.744718 1.038142 0.000710 0.0
0.179224 1.133898 -0.002653 0.0
4.438863 0.864788 -0.001703 0.0
2.995575 0.221185 -0.004446 0.0
2.904807 1.329914 0.002109 0.0
3.111784 0.516825 -0.002431 0.0
4.043194 0.120473 -0.001833 0.0
0.306373 0.347248 0.002227 0.0
1.273340 1.642385 0.002821 0.0
2.402253 1.269348 0.001414 0.0
3.651062 0.878392 -0.000564 0.0
2.663716 0.338120 -0.000297 0.0
1.842082 1.354973 0.005710 0.0
0.797367 0.712488 -0.000289 0.0
3.424079 0.956726 0.003941 0.0
0.710288 1.348558 0.006265 0.0
3.213829 1.694851 -0.000044 0.0
0.592833 0.006746 -0.000272 0.0
3.832036 1.045395 0.001133 0.0
0.223970 0.162001 0.004379 0.0
4.156775 0.956467 -0.000173 0.0
2.017521 1.659934 -0.001888 0.0
1.005975 0.157531 0.000652 0.0
2.589294 0.434416 -0.003108 0.0
3.031552 0.177992 0.000355 0.0
2.900837 0.074979 -0.001514 0.0
4.124478 0.698000 0.000888 0.0
2.851165 1.264339 0.001715 0.0
1.487508 0.762737 -0.000790 0.0
1.696281 0.396451 0.000516 0.0
2.465152 1.725245 0.001270 0.0
0.853012 0.787858 -0.007782 0.0
1.586862 1.197108 0.000866 0.0
0.793952 0.944498 -0.005037 0.0
3.915259 1.368433 -0.001048 0.0
0.436121 1.087596 -0.000884 0.0
1.853653 0.133240 -0.005145 0.0
2.970172 1.153925 0.003027 0.0
1.582209 0.074877 -0.000239 0.0
0.464070 0.777923 -0.000114 0.0
3.529930 1.680169 0.003641 0.0
0.724678 0.583086 -0.000179 0.0
2.599017 0.858222 0.000056 0.0
0.782062 0.814038 0.001603 0.0
2.585652 1.067780 -0.000542 0.0
1.106638 0.842225 0.001863 0.0
4.332954 1.373792 0.001558 0.0
1.978429 0.583639 -0.009595 0.0
4.102926 0.712757 -0.001583 0.0
0.695123 0.984577 0.006619 0.0
1.343658 0.916190 -0.002653 0.0
1.831807 1.541292 -0.001739 0.0
4.194500 1.218194 0.000263 0.0
0.801411 1.168410 -0.004322 0.0
0.323429 0.421170 -0.003584 0.0
1.905073 1.677512 -0.001844 0.0
4.546503 1.460250 -0.003389 0.0
3.929642 0.366723 0.002754 0.0
3.369836 0.675770 0.003820 0.0
2.856786 0.612414 -0.000820 0.0
4.120493 0.963378 0.001674 0.0
4.476682 1.459613 0.002684 0.0
3.149389 0.387510 -0.003608 0.0
0.094776 0.159466 -0.001646 0.0
3.594782 0.913129 0.004869 0.0
4.039957 1.097744 0.001230 0.0
4.269525 1.379734 0.001168 0.0
2.576725 1.012819 0.000961 0.0
0.000772 0.018756 -0.002633 0.0
0.860944 0.694182 -0.001135 0.0
3.694544 1.597028 -0.000140 0.0
2.901147 1.249237 0.000572 0.0
2.372075 0.414959 0.002084 0.0
4.434406 0.921793 -0.000297 0.0
2.332521 1.479228 0.001523 0.0
3.981303 0.022147 0.003203 0.0
0.025547 0.695325 -0.002107 0.0
2.420229 0.012711 -0.003584 0.0
2.650614 1.684106 -0.004399 0.0
0.367089 1.461883 -0.002341 0.0
0.908107 0.783632 0.004341 0.0
0.707359 0.649036 0.000976 0.0
3.420904 0.705545 -0.000100 0.0
3.473560 1.363393 -0.000338 0.0
1.260471 1.555641 0.000486 0.0
3.215469 1.547812 -0.000326 0.0
0.312094 0.409678 -0.004110 0.0
0.619402 0.649344 -0.004131 0.0
4.169902 1.687626 -0.001696 0.0
0.023224 0.156083 0.003862 0.0
1.842351 1.409638 -0.001681 0.0
3.925342 0.363139 -0.001836 0.0
1.630604 0.822586 0.001132 0.0
4.341813 0.418886 0.001021 0.0
1.550202 0.913189 0.001592 0.0
1.338808 0.768567 -0.004456 0.0
2.884713 0.234108 0.000733 0.0
1.468910 0.711081 -0.002612 0.0
1.996726 0.430412 -0.002221 0.0
3.603676 1.546269 0.000408 0.0
1.440951 0.971204 -0.000204 0.0
2.310107 0.805200 0.003893 0.0
1.694429 1.326892 0.002264 0.0
2.155369 1.142473 0.000253 0.0
4.534219 0.618886 -0.000691 0.0
0.207615 1.136761 -0.001869 0.0
2.661555 1.028331 0.004919 0.0
0.553857 1.146814 -0.002555 0.0
2.239721 1.509293 0.000099 0.0
3.707924 1.375873 -0.004961 0.0
0.499471 0.660740 0.001085 0.0
4.487611 0.653658 -0.000487 0.0
2.531692 0.485205 0.002204 0.0
2.062776 1.716377 -0.004757 0.0
0.832059 0.522583 -0.000319 0.0
0.813036 0.375153 -0.002816 0.0
2.447460 1.082893 -0.002542 0.0
0.299817 0.786173 0.000821 0.0
1.819083 1.223978 0.001295 0.0
4.018612 1.595126 0.003638 0.0
3.255769 1.696423 -0.002940 0.0
1.088901 1.058707 -0.001945 0.0
1.012704 1.333998 0.001436 0.0
1.961905 1.236441 0.001170 0.0
4.321422 0.275120 -0.002320 0.0
2.022112 0.587497 0.001025 0.0
0.285022 1.102818 0.000771 0.0
0.724063 0.924676 0.001709 0.0
1.332716 0.163072 -0.001516 0.0
2.018051 1.498026 0.001862 0.0
3.881109 1.048910 0.002485 0.0
4.142370 0.491194 -0.004055 0.0
1.289690 0.749338 0.000496 0.0
1.228398 0.556936 -0.003517 0.0
4.133977 1.405999 -0.008006 0.0
1.887367 1.320316 -0.001724 0.0
4.407120 0.352641 0.000422 0.0
2.513665 1.033531 0.000627 0.0
0.406017 0.661251 -0.001898 0.0
2.123940 0.879838 0.000995 0.0
0.644396 0.603024 0.000551 0.0
3.396184 0.878585 0.000595 0.0
1.385266 0.408953 -0.002176 0.0
1.456181 1.519317 0.002333 0.0
2.737379 0.360201 -0.002476 0.0
4.412919 1.515764 0.003096 0.0
4.037845 0.731027 -0.002468 0.0
0.975979 1.129132 0.003041 0.0
0.012117 1.038304 -0.001007 0.0
3.186811 1.524207 0.002099 0.0
1.736279 1.620412 -0.000852 0.0
1.609719 0.761945 0.001691 0.0
1.557370 0.864338 0.001028 0.0
3.664385 1.275391 0.000384 0.0
0.005422 0.127696 -0.000531 0.0
3.414869 1.304178 0.000550 0.0
3.030830 0.754726 0.006620 0.0
2.586872 0.945372 -0.000684 0.0
0.417151 0.914998 -0.004294 0.0
2.834674 0.066522 -0.004930 0.0
1.051513 0.305690 -0.000333 0.0
0.480465 0.013123 -0.000536 0.0
4.413504 1.392758 -0.002616 0.0
2.354059 0.159655 -0.000202 0.0
1.028075 1.215930 0.002348 0.0
2.704800 0.109898 0.005966 0.0
3.083106 0.146669 -0.001229 0.0
1.125597 0.457457 0.003801 0.0
4.463535 0.768095 0.003179 0.0
3.613252 0.091288 -0.001319 0.0
0.570963 0.525988 0.002907 0.0
2.697630 1.576812 0.000246 0.0
1.183664 0.925660 0.004458 0.0
3.954482 1.306249 -0.001254 0.0
4.250497 0.777438 0.001944 0.0
2.541071 1.024562 -0.002066 0.0
0.163837 1.338726 -0.000117 0.0
3.538221 0.049574 -0.001093 0.0
1.947953 0.350761 -0.000861 0.0
2.370051 1.066913 0.002410 0.0
1.934759 0.408032 -0.002503 0.0
4.119727 1.079394 -0.002075 0.0
1.720911 0.391003 -0.001683 0.0
4.046232 1.387916 -0.000649 0.0
3.119577 1.141336 -0.000474 0.0
2.708198 0.401112 -0.001348 0.0
3.929017 0.263875 0.002591 0.0
2.644710 1.065450 -0.001854 0.0
2.624363 0.850166 -0.000110 0.0
1.537235 1.127342 -0.002171 0.0
0.294584 0.618720 -0.003062 0.0
2.702310 0.225942 -0.000782 0.0
3.088667 0.397088 0.003631 0.0
4.390687 1.091671 -0.000517 0.0
2.396700 0.668172 -0.000503 0.0
1.924932 1.720482 -0.001331 0.0
3.538986 1.497882 0.003425 0.0
4.459186 0.253855 -0.002019 0.0
3.229987 0.683832 0.001698 0.0
1.360664 0.519612 0.001089 0.0
0.583886 0.511716 0.001847 0.0
3.543171 1.481166 0.001043 0.0
2.323038 0.614696 -0.000157 0.0
3.374999 1.085912 0.000032 0.0
0.483337 0.823396 -0.001446 0.0
1.458328 1.629298 0.000613 0.0
0.782010 1.664362 0.001871 0.0
2.029705 0.470751 0.003131 0.0
2.380034 1.717502 0.002699 0.0
2.025972 0.322143 -0.001648 0.0
0.576726 1.572496 -0.003649 0.0
4.340392 1.261464 0.000455 0.0
3.119585 0.242260 0.000205 0.0
2.123089 1.720824 0.000237 0.0
3.468516 0.675129 -0.002843 0.0
0.761606 0.303416 -0.000905 0.0
0.666852 1.315971 0.002150 0.0
3.143498 1.689829 -0.000492 0.0
1.767237 0.192524 0.000016 0.0
0.928665 0.808883 0.004060 0.0
1.841480 0.767125 0.004353 0.0
0.951532 0.065757 0.002516 0.0
3.664978 1.713303 -0.000995 0.0
4.248889 0.364515 0.000077 0.0
1.991086 1.228839 0.000606 0.0
4.413670 0.675432 0.001192 0.0
2.280547 1.434664 -0.002596 0.0
0.517398 0.945519 -0.002067 0.0
0.988114 0.358387 -0.002076 0.0
3.658039 0.278675 0.000187 0.0
1.190599 1.596488 0.002759 0.0
0.031700 0.055574 0.001309 0.0
0.850224 1.303592 -0.001674 0.0
2.156104 0.030990 0.003010 0.0
2.024804 1.076985 0.000920 0.0
4.241028 1.709718 0.000305 0.0
0.871733 1.556876 -0.002614 0.0
2.711466 0.857982 -0.002150 0.0
4.263416 1.284952 -0.002260 0.0
4.233311 0.833538 0.001183 0.0
1.990405 1.321809 -0.002792 0.0
4.276798 1.685711 0.001718 0.0
3.855849 1.584545 0.001555 0.0
3.574310 1.646566 0.001727 0.0
4.126830 1.252846 0.001812 0.0
4.528077 1.202505 -0.002766 0.0
1.511844 1.481008 0.002218 0.0
3.133793 0.667260 -0.005217 0.0
1.038585 0.022850 -0.000294 0.0
0.310588 0.087341 0.002522 0.0
1.714666 1.104703 -0.000801 0.0
3.878466 1.232379 -0.000888 0.0
2.458687 0.886279 0.001268 0.0
1.684802 1.722610 0.000044 0.0
2.307721 0.799357 0.001764 0.0
2.113548 1.583158 -0.004956 0.0
3.113682 1.645646 -0.001518 0.0
2.519052 0.870284 -0.002688 0.0
4.473767 0.531012 0.000164 0.0
0.208313 1.588808 -0.001542 0.0
1.403348 0.197086 -0.003984 0.0
1.270724 0.754209 0.003472 0.0
3.322903 1.523004 0.000749 0.0
2.814291 1.363160 0.001718 0.0
2.944279 1.710240 -0.003424 0.0
1.515327 1.396251 0.000917 0.0
2.716312 0.848855 0.001095 0.0
2.260574 1.120411 -0.005114 0.0
3.583345 0.121062 -0.003554 0.0
3.796620 1.582844 -0.000940 0.0
3.478215 0.710427 -0.003174 0.0
1.049896 0.386225 -0.004770 0.0
2.065911 1.734562 0.000263 0.0
1.527968 0.595156 -0.001608 0.0
0.560708 0.768672 0.000107 0.0
1.428920 0.736055 0.001876 0.0
2.123751 0.382640 -0.004376 0.0
2.836462 0.485637 0.000779 0.0
4.000573 1.669753 0.002571 0.0
4.019017 0.163369 0.001733 0.0
2.175030 1.715986 0.001117 0.0
2.804733 0.735778 -0.002069 0.0
0.787047 0.038297 -0.000442 0.0
0.280332 0.366728 0.002612 0.0
0.487993 0.302921 -0.000387 0.0
3.613208 0.855389 0.000408 0.0
2.530563 1.418315 -0.001210 0.0
2.964863 0.306425 -0.002815 0.0
1.906587 1.281409 0.001328 0.0
0.686504 1.108786 -0.000573 0.0
3.820161 0.025169 0.001435 0.0
3.090874 0.889264 -0.003397 0.0
3.271708 1.708094 0.002569 0.0
3.295824 1.553006 0.000356 0.0
3.136529 0.749717 -0.001793 0.0
2.596201 0.387512 0.001262 0.0
0.937759 0.034153 0.000120 0.0
2.705588 0.970145 -0.004821 0.0
1.762869 0.336322 0.005990 0.0
1.995892 1.500446 -0.001754 0.0
2.647503 1.127622 0.000199 0.0
2.576040 1.423857 -0.002201 0.0
0.016799 0.502792 0.000485 0.0
1.706952 1.392007 -0.003449 0.0
3.970235 0.513286 0.005973 0.0
0.748967 0.597380 0.002757 0.0
1.651629 0.273745 -0.001053 0.0
0.166478 0.159699 -0.005696 0.0
0.836008 0.383781 -0.000898 0.0
1.471798 0.415467 0.000867 0.0
3.312139 0.585778 0.001867 0.0
3.506134 0.152323 -0.005145 0.0
2.069053 0.454777 -0.004820 0.0
3.797121 0.285621 0.001371 0.0
3.713047 0.601763 -0.000130 0.0
3.213927 1.460241 -0.002158 0.0
0.303707 0.248713 -0.002787 0.0
0.163348 1.661737 0.000814 0.0
1.679665 0.204625 -0.001654 0.0
0.785716 0.723140 0.005330 0.0
1.853348 1.379974 0.002508 0.0
4.040556 1.316509 -0.002022 0.0
1.105316 0.915272 -0.001912 0.0
4.266408 1.606614 -0.005793 0.0
2.248517 0.876515 0.003611 0.0
1.528115 1.236000 0.000583 0.0
3.027650 1.018200 -0.002091 0.0
3.548616 0.114628 0.000617 0.0
1.117378 1.529854 0.005119 0.0
2.589816 0.995355 -0.000171 0.0
2.038521 0.138922 0.002734 0.0
2.286536 1.382301 0.005295 0.0
2.656414 0.061878 0.001612 0.0
1.380369 0.591185 0.001888 0.0
3.768622 0.896450 0.002776 0.0
1.858230 0.179202 -0.001767 0.0
0.175935 1.474331 -0.001607 0.0
1.001389 0.974473 -0.001359 0.0
4.241378 1.125964 -0.000848 0.0
3.593930 1.187506 0.000801 0.0
2.621535 1.235159 -0.000175 0.0
4.126366 1.695179 -0.003637 0.0
4.342739 0.489150 0.000970 0.0
2.085775 1.248678 -0.002093 0.0
2.412845 0.404121 0.001233 0.0
3.240748 0.858840 0.001805 0.0
0.324853 0.359724 -0.000035 0.0
1.970751 0.270105 0.003695 0.0
2.253505 0.179072 -0.000364 0.0
3.574065 0.236193 -0.000607 0.0
2.938202 0.022246 -0.000806 0.0
3.992024 1.292723 0.001467 0.0
4.062720 0.573932 -0.000214 0.0
2.610595 1.170402 0.001626 0.0
1.709017 1.644788 -0.002334 0.0
1.573893 0.799451 0.002975 0.0
1.178912 0.723257 0.002068 0.0
2.113449 1.565297 0.001202 0.0
3.178495 0.505774 -0.001662 0.0
1.763720 1.067730 -0.002075 0.0
3.230107 1.435290 -0.001163 0.0
3.888967 1.681904 0.006417 0.0
4.377656 1.515154 0.003007 0.0
3.437657 0.274494 -0.000081 0.0
3.005748 1.005995 0.001611 0.0
3.106941 1.334574 -0.003625 0.0
0.003323 1.038526 -0.001257 0.0
3.931842 1.113185 -0.004484 0.0
2.414044 1.467094 -0.004562 0.0
3.406366 0.638419 0.003333 0.0
0.932855 1.461565 -0.001895 0.0
1.613910 1.626633 0.000050 0.0
1.907973 0.587798 0.001462 0.0
2.683449 1.379662 -0.000004 0.0
1.589738 0.055829 -0.000590 0.0
2.726175 0.694399 0.002465 0.0
2.355523 0.583616 0.000048 0.0
0.392858 0.725583 0.001621 0.0
3.382717 0.197376 0.000680 0.0
2.460795 1.065404 -0.003401 0.0
3.856783 1.415761 -0.000437 0.0
1.216158 1.663065 -0.000395 0.0
0.489680 0.419119 -0.001490 0.0
3.775815 1.546980 0.000988 0.0
4.133366 0.085698 -0.000214 0.0
4.226417 1.071911 0.003238 0.0
3.512289 0.235127 0.003094 0.0
1.835823 1.697593 -0.003068 0.0
2.576675 0.139054 -0.000477 0.0
1.147313 0.765882 0.002075 0.0
3.301935 0.573177 -0.001741 0.0
1.054812 1.445529 0.000748 0.0
0.564676 0.871416 0.004118 0.0
2.891941 0.314889 0.000116 0.0
3.319998 1.484078 -0.000689 0.0
3.405798 0.347385 0.002178 0.0
1.712309 1.456122 -0.001640 0.0
0.196800 0.435452 0.002700 0.0
0.725034 0.556207 0.001012 0.0
1.610626 1.423524 -0.001389 0.0
2.153475 0.571522 0.000296 0.0
0.214900 1.492046 0.001239 0.0
2.208749 1.608151 -0.004336 0.0
0.295283 1.307326 0.000279 0.0
3.218174 0.697436 0.005437 0.0
0.685874 0.628649 0.000281 0.0
1.788273 1.254704 0.000345 0.0
2.191998 1.132442 0.000918 0.0
0.830203 0.720177 0.002291 0.0
1.986408 0.622240 -0.006462 0.0
0.531701 0.991957 0.001891 0.0
0.523071 1.423330 -0.002294 0.0
1.418933 0.334397 0.004498 0.0
0.267327 1.749135 0.000194 0.0
3.293040 0.777729 -0.002064 0.0
3.683084 0.870627 0.000241 0.0
3.280654 0.191600 0.003443 0.0
2.084334 1.600860 -0.002232 0.0
3.088880 0.555865 -0.000647 0.0
0.207984 0.770024 -0.000162 0.0
4.304023 1.217943 0.003086 0.0
0.325269 0.213966 0.002583 0.0
3.404466 1.291037 -0.002665 0.0
0.871546 0.657953 0.001535 0.0
0.185688 1.656905 -0.000532 0.0
3.421616 0.278205 0.001355 0.0
0.788958 0.137048 -0.000571 0.0
2.666830 1.207577 0.000408 0.0
3.417906 1.123533 0.002653 0.0
0.959219 0.832886 0.001155 0.0
0.444383 0.796798 -0.001417 0.0
4.339130 0.390876 -0.002248 0.0
0.634872 1.395697 -0.002780 0.0
2.571447 1.152480 -0.002996 0.0
3.326339 0.302295 -0.000249 0.0
3.019072 0.268910 0.003232 0.0
3.695210 1.340696 0.003102 0.0
4.158582 0.756667 -0.001339 0.0
4.215190 1.111324 0.002355 0.0
1.031118 0.360232 0.000217 0.0
3.656873 1.269039 0.000165 0.0
3.901906 0.512953 -0.001322 0.0
1.559891 1.094124 -0.004120 0.0
0.260880 0.285934 -0.000470 0.0
3.038540 1.740959 0.005156 0.0
1.072409 0.707427 -0.001048 0.0
0.790951 1.413736 0.002980 0.0
3.989482 1.394841 0.000605 0.0
0.064626 1.288913 -0.001579 0.0
4.126047 1.284053 -0.001961 0.0
3.952386 0.121179 0.003896 0.0
3.533823 0.791742 -0.001489 0.0
0.790226 0.205052 0.001103 0.0
0.530456 1.330109 -0.000374 0.0
1.459374 0.657888 0.000942 0.0
1.719727 1.107377 0.003584 0.0
3.449774 0.483246 -0.000276 0.0
3.996139 1.152986 0.001059 0.0
2.281804 1.716126 0.003214 0.0
1.845713 1.083448 0.002446 0.0
0.464337 0.405790 -0.000771 0.0
3.643533 1.535143 -0.000698 0.0
0.198306 0.208019 0.003484 0.0
3.667638 0.588191 0.000209 0.0
4.471775 1.579221 0.000255 0.0
2.576217 0.370321 0.001174 0.0
0.773278 0.219428 0.003975 0.0
4.545255 0.646255 0.001829 0.0
2.574735 0.489460 -0.006660 0.0
1.781772 0.813648 -0.004796 0.0
0.933641 0.246422 0.002472 0.0
2.876430 1.444090 0.000639 0.0
0.106695 0.206260 0.002050 0.0
2.240627 0.126703 0.002959 0.0
2.170497 1.300815 0.006900 0.0
1.456844 0.311429 -0.003486 0.0
2.495615 1.036750 -0.003402 0.0
1.134146 1.299063 0.001140 0.0
3.210623 1.660926 0.003462 0.0
2.569653 0.647142 0.001869 0.0
3.366615 0.623791 0.000301 0.0
3.922274 0.959800 0.001889 0.0
3.773463 1.538140 -0.002862 0.0
0.601086 0.971476 0.000399 0.0
3.953479 1.594924 0.000683 0.0
1.980845 1.585582 -0.001071 0.0
3.794356 0.279104 -0.000047 0.0
1.995458 0.315763 -0.003897 0.0
4.338148 0.587766 0.001291 0.0
2.436130 1.168146 0.003980 0.0
3.036989 1.378516 0.003811 0.0
1.568739 1.259541 -0.001243 0.0
3.959579 0.105386 0.002583 0.0
4.333701 0.220883 0.000380 0.0
3.654942 1.623210 0.000899 0.0
0.322143 0.765275 0.000424 0.0
2.693780 1.071453 -0.000188 0.0
1.621880 0.439415 0.002702 0.0
2.418092 1.135349 -0.000329 0.0
0.696156 1.111487 -0.003144 0.0
1.588156 1.458608 0.002043 0.0
3.835643 0.469657 0.002157 0.0
4.237369 1.691688 0.002131 0.0
2.029905 0.862301 0.005675 0.0
1.944402 1.661394 0.000002 0.0
2.975140 0.827198 -0.000850 0.0
0.030810 0.721176 0.000841 0.0
3.873394 1.279223 0.001169 0.0
4.278065 0.315920 -0.001275 0.0
3.741707 0.661927 0.003875 0.0
2.807715 0.534465 0.002345 0.0
1.027605 0.119004 0.000379 0.0
2.232864 1.080179 -0.001971 0.0
2.149379 1.265838 -0.000549 0.0
2.505142 0.980267 -0.001372 0.0
4.333222 0.387286 -0.000855 0.0
0.992300 1.740047 -0.001075 0.0
2.075359 1.642656 0.002764 0.0
0.907906 1.269560 -0.002499 0.0
1.756126 1.507673 0.000126 0.0
3.784491 0.675622 0.002057 0.0
0.816245 1.269834 0.001628 0.0
2.249339 0.666295 0.003041 0.0
0.454018 1.457046 -0.000542 0.0
3.942743 1.303584 0.002788 0.0
1.489022 0.476651 0.003957 0.0
2.299979 0.112251 0.000880 0.0
3.578317 0.685650 -0.000188 0.0
2.568470 0.048119 -0.001219 0.0
3.796466 0.476509 0.000792 0.0
0.156138 0.370734 -0.002621 0.0
0.467329 0.491168 -0.004346 0.0
1.046857 0.688955 -0.001010 0.0
1.866145 0.320491 -0.000504 0.0
1.050811 1.095584 -0.004075 0.0
0.232675 0.203742 -0.002267 0.0
3.889842 1.514907 0.000610 0.0
1.787247 1.478987 0.004651 0.0
1.961696 1.250870 0.002056 0.0
0.809179 1.248857 -0.002539 0.0
3.973875 0.739976 -0.002289 0.0
1.939479 0.451817 0.002743 0.0
4.316078 1.424765 0.003347 0.0
2.264754 1.193124 -0.001560 0.0
3.073102 1.149159 -0.004756 0.0
0.034173 0.538806 0.002255 0.0
1.283905 1.713344 -0.003200 0.0
4.121194 0.026842 -0.001897 0.0
3.035557 1.302781 -0.002206 0.0
4.214943 1.439908 0.000122 0.0
2.172444 1.350843 -0.003484 0.0
2.471497 1.307145 0.004427 0.0
0.044689 1.598781 -0.000857 0.0
2.456601 0.347507 -0.000172 0.0
1.001245 0.853868 -0.000262 0.0
2.954036 0.748346 -0.001354 0.0
0.157292 0.256457 -0.003346 0.0
1.161610 1.564834 0.000251 0.0
4.004815 0.982709 -0.000640 0.0
2.122652 1.674088 -0.001899 0.0
3.382318 1.466696 -0.004840 0.0
3.896287 0.319167 -0.005062 0.0
2.484529 1.000696 0.004260 0.0
2.532489 0.179496 -0.001728 0.0
1.621477 1.621807 0.000825 0.0
2.454056 0.164501 -0.001701 0.0
1.174319 0.836076 0.001381 0.0
0.850151 0.501293 0.000818 0.0
0.415145 0.009930 0.002400 0.0
1.445337 1.012984 -0.004111 0.0
3.675395 0.371532 -0.001565 0.0
1.255984 1.750905 0.005350 0.0
0.361780 1.533843 -0.003525 0.0
0.568013 0.401438 -0.000694 0.0
3.127784 0.074105 -0.001306 0.0
0.862011 0.126663 -0.000153 0.0
3.888845 1.556332 -0.001354 0.0
3.275535 1.561513 0.000560 0.0
4.275142 0.381099 0.000211 0.0
3.286456 1.570998 -0.002120 0.0
3.569215 0.077589 0.002341 0.0
2.361364 1.519392 -0.002632 0.0
1.209416 1.096264 -0.005763 0.0
0.277254 0.072568 0.000002 0.0
1.638056 0.581964 0.000836 0.0
3.968866 1.106078 0.000678 0.0
3.497531 1.252522 -0.001618 0.0
2.524809 1.659060 -0.000446 0.0
1.505789 1.577674 -0.001812 0.0
3.474271 0.567825 -0.000657 0.0
2.224576 0.636965 0.001265 0.0
1.283119 1.445007 -0.000330 0.0
2.172246 0.489209 0.002061 0.0
3.566334 1.575684 -0.002414 0.0
4.165736 0.096919 0.001119 0.0
2.043913 0.531570 0.001632 0.0
1.484439 0.490331 0.003176 0.0
1.730641 0.589929 -0.004659 0.0
0.446612 0.004323 0.000997 0.0
0.281482 1.286345 -0.001205 0.0
1.808965 1.383611 -0.000561 0.0
1.593396 1.185486 -0.003081 0.0
0.190725 0.335330 0.004353 0.0
2.712161 0.252382 0.002671 0.0
2.715752 1.464139 0.002556 0.0
2.791985 1.527230 -0.001951 0.0
2.870886 0.617749 0.001452 0.0
0.948424 1.746626 0.000292 0.0
0.977837 0.179185 -0.006902 0.0
2.542015 1.742540 0.003495 0.0
4.340225 1.457072 0.000962 0.0
2.032374 1.066301 -0.000750 0.0
2.076862 1.343603 0.000736 0.0
2.472490 1.654101 -0.002468 0.0
0.238769 1.615604 0.002979 0.0
0.532556 0.677552 0.001086 0.0
1.517056 1.182850 -0.000236 0.0
2.545224 0.327919 -0.002262 0.0
4.246238 0.496963 -0.002592 0.0
3.553946 1.702745 0.001411 0.0
1.037335 1.603566 0.001802 0.0
0.001747 1.732336 -0.000490 0.0
2.892783 0.422149 0.001379 0.0
2.134109 0.520150 -0.005283 0.0
1.326744 0.882420 0.003404 0.0
3.567222 1.100038 0.001219 0.0
1.038770 0.447433 0.001178 0.0
2.345006 0.035423 -0.000844 0.0
0.851902 0.154737 -0.003037 0.0
2.218727 1.301542 0.000959 0.0
1.895034 0.582143 -0.000749 0.0
1.824462 0.878433 0.001508 0.0
3.558690 0.632737 -0.000234 0.0
4.102795 1.337485 0.000645 0.0
2.285554 0.326033 -0.001785 0.0
2.650312 0.879684 -0.001983 0.0
3.386895 0.245255 -0.000883 0.0
1.704944 1.006650 0.000073 0.0
3.264304 1.598389 -0.003731 0.0
0.111518 1.699510 0.006264 0.0
2.201828 0.233804 -0.000066 0.0
4.095550 0.540512 0.001115 0.0
0.647912 0.007545 0.004945 0.0
0.511049 0.797218 0.005009 0.0
4.088371 1.498501 -0.002752 0.0
2.276408 1.534640 0.001071 0.0
3.526771 0.692235 -0.001102 0.0
1.982898 0.920158 -0.001581 0.0
1.917936 1.359729 -0.000795 0.0
1.556300 0.292603 0.000804 0.0
3.995689 0.804160 0.002021 0.0
0.471403 0.344782 -0.002827 0.0
3.337609 1.632489 -0.003433 0.0
3.681825 0.678549 0.001333 0.0
3.471582 0.686360 0.002785 0.0
3.477998 1.479265 -0.000277 0.0
3.310387 1.506077 -0.000030 0.0
1.370576 0.557606 0.000057 0.0
2.093452 0.262732 -0.000454 0.0
2.352448 0.282965 0.001575 0.0
0.635186 0.704716 -0.002496 0.0
0.814242 0.557820 -0.000037 0.0
2.929214 0.309403 -0.002525 0.0
4.126001 0.625831 0.002723 0.0
2.725343 1.051130 -0.000996 0.0
1.159681 0.325821 0.001306 0.0
1.041879 0.954654 0.002347 0.0
3.034519 1.325333 0.001028 0.0
0.380226 1.543455 -0.001182 0.0
1.231434 0.246901 -0.002576 0.0
2.518853 0.780583 -0.000448 0.0
2.905512 1.374531 0.000125 0.0
1.273101 1.300039 -0.001135 0.0
3.252692 0.822027 -0.001498 0.0
0.271395 1.069387 0.001661 0.0
3.802178 1.429149 0.002436 0.0
3.838744 0.220870 -0.000300 0.0
4.209472 1.642565 -0.003751 0.0
4.465388 1.624442 -0.001902 0.0
2.765091 0.211306 -0.001544 0.0
4.453836 1.230762 -0.001063 0.0
2.726596 0.951336 -0.004495 0.0
3.934596 0.177935 -0.000599 0.0
1.701200 0.842569 -0.000618 0.0
1.043256 0.647547 0.001711 0.0
0.144853 1.139932 -0.002941 0.0
3.077764 1.739567 -0.001216 0.0
3.614938 1.733081 0.000360 0.0
3.042092 0.148590 0.000735 0.0
3.387202 0.926922 -0.002133 0.0
4.407613 1.266060 0.004151 0.0
0.617564 0.064817 0.001537 0.0
1.670606 0.350461 0.002321 0.0
2.880921 0.368472 -0.001955 0.0
2.337523 0.050178 -0.002753 0.0
3.704588 0.127095 0.004229 0.0
1.145543 1.181324 -0.000029 0.0
4.378276 1.071863 0.001879 0.0
3.841142 0.569691 -0.002139 0.0
1.108624 0.680737 -0.004219 0.0
0.784102 1.451254 -0.002493 0.0
0.648807 1.288126 0.002002 0.0
1.237783 1.061208 -0.000357 0.0
3.776415 1.008054 0.001237 0.0
0.730974 1.283849 0.002290 0.0
1.805082 1.542015 0.000403 0.0
0.777602 1.527050 0.003759 0.0
1.195355 0.298218 -0.002342 0.0
0.286100 0.319033 0.000586 0.0
3.117605 1.751046 -0.005092 0.0
2.552146 0.988640 0.001976 0.0
1.250291 0.555464 0.002305 0.0
3.343825 1.287197 -0.002755 0.0
2.691993 1.714280 0.002889 0.0
2.015267 0.130962 -0.001315 0.0
0.346436 1.577810 0.001640 0.0
4.121302 0.515243 0.002886 0.0
3.828052 0.918636 -0.000069 0.0
4.105158 1.101630 0.000771 0.0
0.570402 0.285250 -0.001891 0.0
1.673509 0.392664 -0.000706 0.0
3.751296 1.728314 0.000558 0.0
0.786314 0.479586 0.001483 0.0
4.505491 0.653461 -0.001557 0.0
3.661148 0.604313 0.003286 0.0
2.035451 0.086303 -0.003988 0.0
0.107946 0.095399 0.001288 0.0
0.326326 1.523282 -0.000448 0.0
4.275893 1.047938 -0.000570 0.0
4.205758 0.671129 -0.000723 0.0
2.207581 0.239305 -0.006025 0.0
4.052792 0.010058 -0.003002 0.0
3.964458 1.311611 0.004418 0.0
3.062173 0.844382 -0.001759 0.0
4.100350 1.555433 0.005888 0.0
3.940502 1.663666 -0.001768 0.0
1.333502 0.126994 -0.000363 0.0
0.418735 0.822024 -0.001048 0.0
4.502371 1.516866 0.000455 0.0
1.180339 0.624999 -0.002795 0.0
0.434456 0.954312 -0.000183 0.0
2.704032 1.534245 0.001452 0.0
1.491602 1.212229 -0.000225 0.0
2.549571 1.704425 -0.006897 0.0
1.696863 0.771210 0.000510 0.0
2.144480 1.467014 -0.001992 0.0
3.491252 0.506471 0.000512 0.0
0.713023 0.150910 0.002305 0.0
3.938845 0.932324 0.003477 0.0
0.986659 1.473847 -0.002787 0.0
2.332155 0.937380 -0.007307 0.0
1.883248 1.707289 -0.000076 0.0
3.088234 0.589886 0.000912 0.0
1.120443 1.324779 0.001148 0.0
4.012284 1.567280 -0.001204 0.0
4.557959 0.980162 0.002359 0.0
0.756253 0.971790 0.002766 0.0
1.130762 1.635286 0.002797 0.0
2.605452 0.643954 -0.000965 0.0
4.557147 0.776420 -0.004689 0.0
2.225542 0.699055 -0.003635 0.0
2.874940 1.549874 0.000130 0.0
3.994887 1.075137 0.000533 0.0
3.739973 1.720426 -0.000631 0.0
1.209630 1.114183 0.001131 0.0
2.117974 0.212419 -0.002054 0.0
2.596047 0.674980 0.002917 0.0
0.441336 0.168664 -0.004083 0.0
4.139617 0.346427 0.002924 0.0
3.590915 0.003256 0.000532 0.0
2.724531 1.550610 -0.004052 0.0
3.454642 0.567677 0.002526 0.0
3.988401 0.651180 -0.001715 0.0
0.321098 0.434038 -0.003283 0.0
2.326920 0.738948 -0.000752 0.0
1.403104 0.106435 -0.000317 0.0
1.852487 1.704622 -0.002013 0.0
2.779473 0.300152 0.000601 0.0
0.584925 0.161856 0.000510 0.0
3.837533 0.547976 -0.000571 0.0
2.084409 1.675559 0.001343 0.0
3.665058 0.281900 0.001044 0.0
0.759302 0.139546 0.000810 0.0
1.414187 0.806333 0.001080 0.0
2.107667 0.048103 -0.004842 0.0
2.483438 1.079194 0.000582 0.0
3.017222 1.678515 -0.000898 0.0
1.205235 1.452352 0.002274 0.0
1.539466 0.139776 -0.000763 0.0
1.129842 0.447862 0.002878 0.0
1.477821 0.527033 -0.003662 0.0
2.325151 1.289925 0.003420 0.0
4.256650 0.378367 0.001600 0.0
2.607626 1.439297 0.000613 0.0
0.574266 0.634380 0.001937 0.0
0.266537 0.361672 0.000362 0.0
3.311566 1.675399 -0.000040 0.0
0.961780 1.344454 -0.004944 0.0
3.334429 0.041534 0.001409 0.0
1.616510 0.011390 -0.001273 0.0
2.258671 1.650867 -0.002193 0.0
0.484086 0.773039 -0.001761 0.0
1.279015 1.234749 0.000989 0.0
0.981064 0.707872 0.001053 0.0
1.049907 0.204971 -0.000942 0.0
2.046843 0.792996 0.004034 0.0
2.063709 1.291419 -0.000447 0.0
4.410561 1.558228 -0.001585 0.0
1.389353 1.746774 -0.001680 0.0
0.513694 1.375330 -0.001808 0.0
2.622813 1.347415 -0.000962 0.0
0.274973 0.782329 -0.001121 0.0
4.208874 0.495041 0.001457 0.0
1.055188 0.766637 -0.002967 0.0
1.980274 0.781368 0.002904 0.0
0.515145 0.560524 -0.000696 0.0
0.113022 0.071009 -0.003791 0.0
4.190812 0.422780 0.002085 0.0
3.021354 0.588312 0.002378 0.0
1.020919 1.079303 -0.002324 0.0
4.243818 1.439919 -0.006346 0.0
2.307300 1.298536 -0.000431 0.0
1.014441 1.307667 0.002242 0.0
3.304192 1.060574 -0.000117 0.0
4.432623 0.339848 0.003093 0.0
0.490940 1.472741 0.001409 0.0
2.530510 0.277503 0.001714 0.0
3.393958 0.976842 -0.002984 0.0
3.284041 1.560566 -0.001873 0.0
2.956246 0.913759 0.000234 0.0
4.539929 0.093199 0.000216 0.0
0.019320 0.826527 0.001293 0.0
1.926702 0.412477 -0.001656 0.0
2.364561 0.635348 -0.002959 0.0
0.723479 1.325558 0.000486 0.0
1.003766 0.966379 -0.002605 0.0
0.042757 0.949726 -0.000760 0.0
1.266521 1.613115 0.001576 0.0
2.986051 1.699312 -0.000559 0.0
0.173882 0.235640 -0.001685 0.0
1.087456 1.208509 -0.001267 0.0
1.067329 1.456010 0.001691 0.0
3.274722 0.709072 0.001623 0.0
3.364220 1.243950 0.002122 0.0
2.905588 0.620996 -0.000164 0.0
2.431251 0.737759 0.003103 0.0
3.241339 0.409754 0.000835 0.0
0.916151 1.532682 0.000367 0.0
4.358215 1.652461 0.000137 0.0
2.734215 0.188086 0.000428 0.0
2.918676 1.449843 -0.004975 0.0
0.044916 0.448742 0.002709 0.0
2.355058 0.913878 -0.002579 0.0
3.676469 1.353601 0.004130 0.0
3.881433 0.944757 0.000101 0.0
1.865589 0.271096 -0.000643 0.0
3.378530 0.586047 -0.001283 0.0
2.884086 0.640351 -0.001102 0.0
0.554077 1.206124 -0.005234 0.0
4.543105 0.452080 0.001068 0.0
2.101172 1.631777 -0.002484 0.0
4.055280 1.132295 -0.002393 0.0
3.298796 0.817159 -0.002090 0.0
3.448033 0.875644 0.002301 0.0
2.155139 1.741575 -0.001308 0.0
1.304103 1.247276 -0.001793 0.0
1.627805 1.259596 -0.003908 0.0
1.465919 1.680550 -0.000539 0.0
1.820356 1.252769 -0.000670 0.0
2.223219 1.160692 -0.000189 0.0
3.935529 0.113699 0.000033 0.0
0.744990 0.336899 -0.001936 0.0
4.010827 0.791836 -0.001387 0.0
2.082387 0.153606 0.001776 0.0
0.121444 0.809039 -0.001329 0.0
0.027396 0.288166 -0.002809 0.0
3.856338 1.712251 -0.001997 0.0
4.440151 1.531843 0.004418 0.0
1.619476 0.514677 0.000571 0.0
1.790883 0.406193 0.001845 0.0
2.252387 1.519235 0.000439 0.0
3.942520 1.202885 0.003175 0.0
0.820957 1.144124 0.003059 0.0
1.870026 1.641788 -0.001775 0.0
2.891871 0.757964 0.001709 0.0
3.283029 0.512390 0.001285 0.0
0.970719 0.414036 0.005754 0.0
1.532089 1.743077 0.000393 0.0
3.363991 1.501994 -0.001498 0.0
3.898948 0.321622 -0.000136 0.0
2.134072 1.325911 0.001699 0.0
3.715286 0.178834 0.003296 0.0
1.910159 0.067009 0.001463 0.0
2.902476 0.922950 0.000285 0.0
3.653138 1.129277 0.003767 0.0
0.016619 0.775723 -0.001863 0.0
2.454016 1.536429 0.003259 0.0
0.074123 1.669195 -0.002080 0.0
1.757957 1.607584 0.003787 0.0
3.479186 0.424803 -0.003389 0.0
0.527710 1.675532 0.000041 0.0
1.807975 0.541375 0.003132 0.0
1.663623 1.138022 0.002014 0.0
1.357210 1.290179 -0.000263 0.0
2.889760 0.712571 -0.001345 0.0
0.737709 0.926930 0.001275 0.0
1.177813 0.509907 0.002928 0.0
1.418412 1.659985 0.001177 0.0
0.654243 1.692246 0.002109 0.0
3.148106 1.176458 -0.002671 0.0
1.248254 0.049638 0.003208 0.0
1.519522 1.291398 0.001198 0.0
1.829062 1.684890 0.000036 0.0
1.411064 0.273235 0.001533 0.0
0.868351 1.655163 -0.001403 0.0
3.443736 0.915305 0.001556 0.0
2.212946 0.023939 -0.004333 0.0
1.040694 0.613051 0.000850 0.0
0.379614 0.180635 0.003606 0.0
2.495912 0.843817 -0.000896 0.0
3.647947 1.598975 0.000034 0.0
0.765831 1.257430 -0.001208 0.0
3.221392 1.440602 0.002549 0.0
4.141309 1.629855 -0.000007 0.0
2.133350 1.643497 -0.004697 0.0
4.406893 0.073854 -0.001111 0.0
2.150796 1.442857 -0.003031 0.0
2.017662 0.046570 -0.000378 0.0
0.216969 0.622452 0.000990 0.0
0.096081 0.360586 0.002540 0.0
1.398401 0.865017 -0.002020 0.0
1.504406 0.817862 0.001624 0.0
0.676958 0.587169 -0.001516 0.0
3.718633 1.184414 0.003388 0.0
4.012403 0.254633 0.003036 0.0
4.081574 0.085816 -0.001117 0.0
0.053232 1.728318 -0.001515 0.0
2.510263 0.932720 -0.002631 0.0
0.720159 0.899466 -0.000488 0.0
2.256281 1.189745 -0.003554 0.0
2.206934 0.310719 0.003777 0.0
0.072552 0.997975 0.001262 0.0
0.475440 0.234539 0.001985 0.0
1.053240 1.375897 -0.000861 0.0
2.868307 0.234384 0.001744 0.0
3.007555 1.514432 -0.000222 0.0
1.146833 1.202823 0.004338 0.0
3.083645 1.384572 -0.002551 0.0
3.945959 1.155571 0.002601 0.0
3.392365 0.667402 -0.004032 0.0
3.718889 0.048573 -0.002211 0.0
2.327059 0.870463 0.001093 0.0
2.913582 0.181319 0.000414 0.0
3.497188 0.388114 0.001893 0.0
3.901994 1.460032 -0.003585 0.0
3.901633 0.684299 0.003186 0.0
3.618678 0.170755 0.001018 0.0
2.833863 0.256844 0.000404 0.0
4.503971 0.407505 0.001566 0.0
1.683023 1.592093 -0.001446 0.0
0.487986 0.624602 -0.001574 0.0
0.746318 1.218798 -0.002043 0.0
0.622051 1.063476 -0.001583 0.0
0.152906 0.541869 0.003572 0.0
0.142674 0.357323 -0.002641 0.0
2.759332 0.524786 0.005574 0.0
1.185801 1.104256 0.000083 0.0
3.368924 0.851562 -0.002094 0.0
2.529194 1.556827 0.001017 0.0
4.108447 0.132476 -0.001024 0.0
2.080171 0.588658 -0.000960 0.0
2.046076 0.643501 0.000038 0.0
3.919896 0.033417 0.002168 0.0
1.376555 1.423558 -0.000566 0.0
3.997596 1.237596 -0.000475 0.0
1.197035 0.470916 -0.000581 0.0
2.401601 1.743577 0.000922 0.0
1.870398 0.083003 0.000853 0.0
0.448477 0.049725 0.005250 0.0
2.953738 1.103463 -0.004393 0.0
2.456695 0.327370 0.005462 0.0
2.615108 1.147407 -0.001131 0.0
4.132717 1.739389 -0.000490 0.0
2.700570 1.471870 -0.001049 0.0
2.168264 1.042974 0.002302 0.0
3.316951 1.181880 0.000979 0.0
4.453951 0.734429 0.001511 0.0
2.099112 1.000743 -0.001110 0.0
2.892735 1.345995 0.000844 0.0
4.390764 0.424377 0.001268 0.0
1.118798 1.048530 0.004358 0.0
2.741316 0.576373 0.005135 0.0
4.516753 1.349265 0.004994 0.0
3.022394 0.092498 0.002051 0.0
2.433158 0.121220 0.002983 0.0
4.145147 0.220270 -0.000202 0.0
0.374391 1.236469 0.001608 0.0
1.455877 1.242621 0.001511 0.0
3.685840 0.276696 0.002650 0.0
1.337148 0.317522 0.001644 0.0
3.801752 1.323093 -0.000518 0.0
3.958107 1.653509 0.000892 0.0
2.500251 1.436899 0.002518 0.0
1.391955 1.448937 0.000537 0.0
1.953060 0.209507 -0.003800 0.0
3.114263 0.616659 0.001066 0.0
0.659680 1.272228 0.001344 0.0
2.459188 1.119965 0.002503 0.0
1.382557 0.313762 -0.002048 0.0
2.872672 1.095404 -0.000201 0.0
0.917738 1.672217 -0.004906 0.0
0.450421 0.017365 0.000682 0.0
1.136431 0.996271 0.003100 0.0
4.561592 0.245471 -0.002068 0.0
4.488070 1.436094 0.001876 0.0
0.157803 0.093490 -0.000377 0.0
0.601385 0.748574 -0.002143 0.0
1.792284 0.935526 -0.001360 0.0
2.373786 1.471797 -0.000293 0.0
1.473968 0.332929 0.000715 0.0
1.524796 1.142861 -0.001754 0.0
3.744672 0.392768 0.000922 0.0
0.976183 1.364326 -0.002617 0.0
3.541340 0.125280 -0.001633 0.0
1.009536 0.531670 0.004970 0.0
0.635116 0.114523 0.001024 0.0
0.030838 0.873760 0.004440 0.0
2.746776 1.269077 -0.003461 0.0
0.071906 1.143094 0.002723 0.0
3.602639 0.511937 0.002106 0.0
0.544950 0.831395 0.002607 0.0
3.326019 1.343587 -0.002526 0.0
3.752895 0.689185 -0.002318 0.0
2.756224 0.822924 0.000871 0.0
1.141350 1.179884 0.000831 0.0
2.702102 1.360505 0.002636 0.0
4.357637 0.317970 -0.001931 0.0
4.467874 1.252047 -0.004374 0.0
4.480572 1.687000 0.000826 0.0
0.265722 0.435135 0.002917 0.0
0.055598 0.085255 -0.003071 0.0
4.407714 0.647400 0.003025 0.0
4.372043 0.621583 -0.008584 0.0
0.803976 0.613852 -0.002343 0.0
0.862868 0.851788 -0.000551 0.0
4.468705 0.421427 -0.000003 0.0
0.363046 0.558025 -0.001424 0.0
3.972848 0.679407 0.001976 0.0
3.588109 0.238875 -0.004704 0.0
0.048574 0.323963 0.008470 0.0
2.020401 1.088745 -0.002935 0.0
3.097312 0.667894 0.000551 0.0
3.678627 1.084091 -0.001859 0.0
2.143015 1.052664 -0.002461 0.0
4.284201 1.167239 -0.002723 0.0
1.856564 0.123460 0.003033 0.0
3.353822 1.492493 -0.005522 0.0
4.327111 0.063543 0.002816 0.0
0.174089 0.425108 0.000298 0.0
1.742901 0.626759 -0.002852 0.0
3.288750 0.474446 0.002891 0.0
2.982430 0.983874 -0.002881 0.0
2.915918 0.181024 0.002666 0.0
0.818182 1.085538 0.000858 0.0
4.081157 1.213884 -0.000858 0.0
3.217532 0.289905 0.000079 0.0
2.904381 1.443814 -0.004414 0.0
2.559878 0.552997 0.000555 0.0
3.378399 1.433804 0.001277 0.0
0.820700 0.381270 0.002654 0.0
3.563913 1.736666 0.002655 0.0
2.957250 0.396542 -0.000453 0.0
3.417513 0.986541 0.002202 0.0
3.972090 0.201370 -0.002343 0.0
3.509126 1.109705 0.004870 0.0
1.190390 0.534606 -0.000078 0.0
3.950543 1.261313 -0.001659 0.0
0.538096 0.289384 0.000059 0.0
1.131698 0.806920 0.000961 0.0
0.111385 0.550311 0.004144 0.0
3.470219 0.928780 0.003935 0.0
3.156529 0.800657 -0.002193 0.0
3.290633 1.578265 0.003826 0.0
2.641517 1.307014 -0.000084 0.0
0.724381 0.770044 0.000894 0.0
3.365716 0.027281 0.007292 0.0
3.236534 0.229870 0.002283 0.0
3.155103 0.618202 -0.001532 0.0
3.716140 1.420547 -0.000281 0.0
2.254457 0.525612 -0.001126 0.0
0.317285 0.433743 -0.000583 0.0
0.270332 0.422236 -0.001491 0.0
2.362568 0.359345 -0.002934 0.0
2.348014 1.611520 -0.001657 0.0
0.772975 0.281409 -0.000532 0.0
0.793783 0.291140 0.000032 0.0
3.625034 0.665932 -0.002216 0.0
3.708397 1.721012 0.004133 0.0
4.118114 0.711824 0.002042 0.0
0.699869 0.109493 0.000988 0.0
0.768898 0.378572 0.000476 0.0
4.492663 1.497711 -0.003441 0.0
1.641316 0.472584 0.001317 0.0
2.222420 0.599184 0.002289 0.0
4.381600 1.131122 -0.001854 0.0
1.919526 0.854805 0.001574 0.0
2.917597 0.600912 -0.000676 0.0
4.367338 1.380099 -0.001804 0.0
3.204713 0.904280 -0.001725 0.0
4.014889 1.444701 -0.002667 0.0
3.745558 0.510661 -0.003605 0.0
3.204243 1.126945 -0.000796 0.0
0.510333 0.695001 -0.002062 0.0
1.814184 0.426839 -0.005730 0.0
2.184700 1.354345 0.002760 0.0
2.784628 1.091371 0.003203 0.0
0.438586 1.680760 -0.001934 0.0
1.746904 0.622273 0.000281 0.0
4.206725 1.242599 -0.000673 0.0
0.820087 1.371927 -0.002182 0.0
0.739889 0.544083 0.002036 0.0
2.547346 0.885892 0.003190 0.0
1.933048 1.731045 0.004190 0.0
3.657763 1.587971 0.004044 0.0
2.836912 0.567067 0.000253 0.0
1.048926 0.140797 -0.000420 0.0
2.584637 0.524623 -0.005517 0.0
4.024414 1.335397 -0.004591 0.0
0.653722 0.899867 -0.003382 0.0
3.720039 1.182008 -0.006240 0.0
1.495870 1.420471 -0.002622 0.0
0.650848 1.671829 0.001048 0.0
0.552791 0.094455 -0.001245 0.0
3.770024 1.371800 -0.001356 0.0
3.913502 0.464336 0.001036 0.0
1.881817 0.838569 0.000386 0.0
1.008595 0.912647 0.001988 0.0
4.556208 1.344406 0.000340 0.0
4.347690 0.707085 -0.000745 0.0
2.169321 0.696723 0.000199 0.0
3.782214 1.042542 -0.001434 0.0
0.868705 1.122541 -0.004355 0.0
0.527892 0.784411 0.002157 0.0
3.346645 0.623043 -0.003761 0.0
2.076636 0.668625 0.001355 0.0
3.627195 0.298071 0.002241 0.0
1.506704 0.359311 0.000369 0.0
4.016941 0.096410 -0.004443 0.0
1.129683 1.673377 -0.000772 0.0
1.619774 0.718818 0.002001 0.0
1.013674 0.297420 0.001900 0.0
3.432107 0.760227 0.001021 0.0
1.271178 0.814951 0.003771 0.0
2.910157 1.720366 -0.000354 0.0
4.469002 1.430210 -0.000789 0.0
1.356870 1.668196 0.001615 0.0
2.968831 1.384730 -0.001547 0.0
3.841387 1.067817 0.001195 0.0
3.380951 0.181528 -0.002814 0.0
2.556536 0.721995 -0.001266 0.0
1.760093 1.612958 0.002220 0.0
1.287113 0.525139 -0.002392 0.0
2.551239 1.743164 -0.004784 0.0
1.283532 1.548772 -0.002816 0.0
3.790270 0.590673 0.002344 0.0
1.579259 1.099829 0.005047 0.0
4.281203 1.085262 -0.000122 0.0
3.118834 1.301296 -0.001375 0.0
0.236907 0.543100 -0.004347 0.0
0.686759 1.627985 -0.005525 0.0
2.290618 0.220849 -0.002675 0.0
1.939095 1.513106 -0.000444 0.0
2.977947 1.625689 -0.000547 0.0
4.479845 1.553154 -0.000192 0.0
3.732828 1.504442 -0.004388 0.0
1.982464 1.513238 0.002021 0.0
1.638993 0.717153 0.002397 0.0
0.075641 1.094250 -0.001117 0.0
3.003248 0.880878 0.001912 0.0
1.048649 0.847443 -0.004959 0.0
1.886778 0.449940 0.001744 0.0
0.047214 0.880827 0.001701 0.0
3.529365 0.409468 0.000744 0.0
3.569300 0.055605 0.004442 0.0
3.073283 0.245971 0.000505 0.0
1.235770 0.296961 0.003015 0.0
0.877804 1.204591 0.000116 0.0
0.931048 0.158431 -0.000960 0.0
3.437692 0.052891 0.000338 0.0
3.007652 0.962967 -0.000365 0.0
4.231560 1.103635 -0.000228 0.0
1.429347 0.355258 0.000079 0.0
3.122143 0.746983 -0.002328 0.0
0.438482 0.827925 -0.002936 0.0
1.655095 0.599606 -0.000644 0.0
3.788341 1.725146 -0.006469 0.0
0.856602 0.278846 -0.005194 0.0
1.101276 1.553648 0.001214 0.0
3.236160 1.357726 -0.003315 0.0
0.997494 1.343728 0.000649 0.0
0.807393 1.463221 -0.000661 0.0
0.863322 0.629286 0.001902 0.0
1.982796 0.754025 -0.005515 0.0
4.479724 0.206797 0.001823 0.0
0.645299 0.905077 -0.004924 0.0
2.797030 0.068341 -0.001170 0.0
2.271287 0.942925 0.001488 0.0
4.388313 1.660354 -0.003311 0.0
1.779992 0.606082 -0.001476 0.0
3.107458 0.629498 0.003175 0.0
1.133699 1.727031 0.004874 0.0
0.691767 1.589392 0.001240 0.0
2.543113 0.083112 -0.000482 0.0
2.202674 0.083440 -0.002794 0.0
4.153638 0.501677 0.002789 0.0
1.860716 1.608621 -0.001956 0.0
1.896692 0.900082 -0.002031 0.0
0.356774 0.011743 -0.005361 0.0
3.336786 1.154610 -0.001264 0.0
3.576301 0.971055 -0.006755 0.0
1.692554 1.348072 0.001679 0.0
3.995029 1.396877 0.003289 0.0
3.539449 1.571473 0.004963 0.0
3.060521 1.373314 0.002163 0.0
2.185132 0.750966 0.004566 0.0
0.285225 0.817284 0.001619 0.0
1.612020 0.713727 0.000092 0.0
0.165299 0.064550 -0.000728 0.0
0.324145 0.289383 -0.000787 0.0
2.197724 1.512053 0.006453 0.0
4.383898 1.510694 -0.000487 0.0
1.162699 1.192313 -0.001439 0.0
2.538597 1.598792 -0.003364 0.0
3.880879 1.374285 -0.004590 0.0
2.088861 1.075363 0.005188 0.0
2.463373 1.016784 -0.002445 0.0
2.588903 0.225115 -0.000429 0.0
4.320218 0.634454 -0.001269 0.0
3.872759 0.414597 0.001050 0.0
2.240859 0.323351 -0.000426 0.0
2.295605 1.661254 0.001471 0.0
0.007345 1.222163 0.003151 0.0
3.284354 1.087053 0.003102 0.0
0.083045 0.073373 0.000132 0.0
2.753433 0.236302 0.001607 0.0
4.282493 0.019862 0.002893 0.0
0.369650 0.585060 0.001494 0.0
1.225262 0.753934 -0.002394 0.0
1.186497 0.399740 0.001159 0.0
4.420531 0.752877 -0.001955 0.0
2.486854 0.718551 -0.003688 0.0
3.792349 1.133726 -0.000966 0.0
2.923422 1.645851 0.000271 0.0
2.334038 0.491773 -0.001133 0.0
4.446107 1.301254 0.000451 0.0
1.031967 0.514524 -0.003246 0.0
2.607508 0.137465 0.000283 0.0
2.852705 1.308922 0.003019 0.0
0.585608 0.040049 -0.003947 0.0
2.855138 0.579751 0.000594 0.0
0.028873 1.211507 0.002364 0.0
0.855520 0.230424 0.002296 0.0
2.722815 1.503153 -0.004690 0.0
1.329239 1.559960 0.000375 0.0
1.670071 0.669012 -0.000076 0.0
3.598561 1.230216 0.003373 0.0
0.376476 1.701936 -0.002921 0.0
1.461474 0.554193 0.001717 0.0
3.734862 1.428315 -0.003154 0.0
4.330162 1.473671 0.003632 0.0
4.443961 1.624457 -0.003622 0.0
0.184463 1.142369 -0.000739 0.0
1.345071 0.206187 0.002657 0.0
4.333816 0.233721 0.003588 0.0
0.860622 1.435871 0.003992 0.0
2.704917 0.584571 0.001270 0.0
0.698876 1.295718 -0.001092 0.0
2.415428 0.023667 0.001405 0.0
1.299544 1.619021 0.003488 0.0
0.669448 0.050260 -0.000683 0.0
0.751043 1.190269 -0.002290 0.0
0.550361 0.646644 -0.001456 0.0
3.839575 0.506149 0.001514 0.0
2.853435 0.269576 0.000830 0.0
2.229056 1.024107 -0.003035 0.0
0.826710 1.129238 0.000926 0.0
3.575059 0.789177 0.003517 0.0
2.445488 1.475070 -0.003844 0.0
0.409243 0.798729 0.004329 0.0
0.575380 0.784251 0.000197 0.0
2.326393 0.432479 0.003472 0.0
4.242764 0.309999 0.001956 0.0
0.953757 1.009424 0.001964 0.0
4.496813 0.022017 -0.000744 0.0
0.077653 0.622710 -0.004001 0.0
2.289930 0.576186 0.005013 0.0
2.780436 1.431335 0.002284 0.0
0.789178 1.489655 -0.001943 0.0
1.340408 0.029670 -0.000379 0.0
1.805777 0.446559 -0.003442 0.0
0.399900 0.810448 0.002509 0.0
1.633198 0.403416 0.003946 0.0
1.326132 0.203690 -0.001088 0.0
4.503639 1.127007 -0.001670 0.0
2.937682 0.424940 -0.004330 0.0
3.067498 0.090154 0.000234 0.0
1.354507 1.499452 0.001237 0.0
3.160049 1.491116 0.000087 0.0
3.892035 0.613537 -0.000890 0.0
1.616749 1.468382 0.002467 0.0
0.724712 1.377032 0.001894 0.0
2.151908 0.659875 -0.001247 0.0
2.028904 0.694530 0.000815 0.0
2.908742 1.171159 -0.002331 0.0
1.765588 0.607366 -0.001634 0.0
1.023196 0.495632 0.001810 0.0
4.242153 1.545655 -0.001453 0.0
1.799252 0.285437 -0.002507 0.0
1.870310 1.311948 -0.001740 0.0
4.371971 1.584656 0.001674 0.0
2.204940 1.729667 0.000323 0.0
4.286403 1.752158 0.001576 0.0
1.681695 0.155565 0.001960 0.0
3.591291 1.005902 -0.001252 0.0
3.777973 1.407751 -0.000951 0.0
3.959334 0.542599 -0.001606 0.0
0.954087 0.274369 0.000186 0.0
0.206584 1.163135 -0.000506 0.0
3.542595 0.177142 0.001284 0.0
4.357736 1.015117 0.001785 0.0
0.493525 0.443731 -0.001517 0.0
2.415311 1.508026 0.002024 0.0
1.956910 0.647741 -0.002602 0.0
2.831249 0.913086 -0.000780 0.0
2.388199 0.793570 0.003561 0.0
0.147654 0.436974 -0.004896 0.0
4.329028 0.887420 0.000384 0.0
0.833693 0.314392 -0.003561 0.0
1.992182 0.611407 -0.000200 0.0
3.475624 0.997876 0.005455 0.0
