3.33005886 1.29494048 -0.00108127 0.00000000
1.98150456 2.20492094 -0.00074890 0.00000000
3.08264986 0.12824039 0.00510555 0.00000000
2.73282813 2.03338750 0.00094174 0.00000000
2.42548465 0.28086482 -0.00533834 0.00000000
1.91573312 1.84045009 0.00263369 0.00000000
1.86894547 1.28302146 -0.00255590 0.00000000
2.90697011 2.00831739 0.00012403 0.00000000
3.18891055 0.26872030 0.00295502 0.00000000
3.76613108 0.01127135 0.00106341 0.00000000
3.85929516 0.80827894 -0.00548407 0.00000000
1.97964737 1.85087289 -0.00024902 0.00000000
0.65848462 0.66279421 -0.00157808 0.00000000
1.14321816 0.38014739 0.00092239 0.00000000
3.88329657 1.60071785 -0.00048040 0.00000000
2.38520786 0.63803565 0.00259000 0.00000000
3.14192070 2.29942924 -0.00234823 0.00000000
2.57888902 0.05251150 0.00085330 0.00000000
2.35520411 2.26260690 0.00289018 0.00000000
1.06153392 1.23250051 -0.00054799 0.00000000
3.44906428 0.00735772 -0.00283677 0.00000000
2.59254682 1.42211968 -0.00119503 0.00000000
2.90792789 1.65718722 -0.00051700 0.00000000
3.04621779 0.92282390 0.00058266 0.00000000
0.83796167 1.81085738 -0.00028203 0.00000000
3.72176067 2.24090958 0.00064039 0.00000000
0.97993362 1.57436195 0.00453678 0.00000000
1.89252481 0.97276734 0.00089586 0.00000000
2.02312163 0.80232266 -0.00265965 0.00000000
1.42932660 1.50825958 -0.00277802 0.00000000
3.52666986 1.71502294 0.00127286 0.00000000
2.09155506 1.76097630 0.00149792 0.00000000
0.00440907 1.72954067 -0.00044658 0.00000000
0.80403325 1.45961681 0.00260264 0.00000000
3.60657156 0.73511889 0.00225811 0.00000000
4.01488855 0.39293761 0.00317653 0.00000000
3.98211360 2.14820126 0.00225092 0.00000000
1.69785347 2.27359343 -0.00331946 0.00000000
2.05609577 1.71997583 -0.00121194 0.00000000
3.15100435 2.29325938 -0.00103642 0.00000000
1.38093779 1.20701452 -0.00022356 0.00000000
2.61278748 0.33720280 0.00113509 0.00000000
3.48350571 0.29251549 0.00063853 0.00000000
2.29471997 2.10552519 0.00205947 0.00000000
1.69600573 1.25409454 0.00566226 0.00000000
0.65192311 1.42260927 0.00323673 0.00000000
0.34900672 1.96752517 0.00386816 0.00000000
2.66424053 1.14305459 0.00201036 0.00000000
0.46872030 1.15846154 -0.00069962 0.00000000
3.03416480 0.19073321 0.00063633 0.00000000
1.16355104 2.01926120 0.00056690 0.00000000
0.10476875 0.84324368 -0.00043902 0.00000000
1.61369013 0.07997848 -0.00110195 0.00000000
1.59756255 0.74597000 -0.00180290 0.00000000
2.69355376 0.15609956 0.00024249 0.00000000
0.11522622 1.93922252 0.00218877 0.00000000
2.25058687 0.29954803 -0.00310032 0.00000000
1.30812838 0.88882730 -0.00023419 0.00000000
3.73962295 1.46803528 -0.00014781 0.00000000
2.14443796 2.23694594 0.00135842 0.00000000
0.28627694 0.89573728 -0.00238083 0.00000000
2.52360881 0.06722440 -0.00076849 0.00000000
0.61291575 0.81347828 0.00100863 0.00000000
0.43991890 1.32846809 0.00411897 0.00000000
3.60340980 1.15990343 0.00215871 0.00000000
0.72589810 0.66618704 -0.00101349 0.00000000
1.59752476 1.33939074 -0.00297959 0.00000000
1.46993289 0.76815921 -0.00093140 0.00000000
0.42758012 1.65583017 0.00030933 0.00000000
2.56549107 2.00865968 0.00218631 0.00000000
0.17815962 0.81478930 -0.00208614 0.00000000
3.82836948 0.01572010 -0.00092799 0.00000000
2.41009069 0.37506267 0.00436233 0.00000000
2.41631541 0.69355591 -0.00147408 0.00000000
3.22974664 0.56028952 -0.00175547 0.00000000
3.76176978 0.12063575 -0.00256859 0.00000000
0.76174612 0.61740148 0.00322648 0.00000000
1.97848916 2.03291065 0.00054494 0.00000000
2.66457961 0.97621220 0.00164598 0.00000000
2.34770114 2.20048445 0.00068427 0.00000000
1.23175128 0.50538950 0.00209486 0.00000000
3.49299268 0.17502109 0.00178310 0.00000000
2.33080681 0.13023024 0.00269411 0.00000000
2.57044529 0.52749591 -0.00258698 0.00000000
3.89813356 1.75616711 -0.00517655 0.00000000
2.37588283 0.05690299 0.00259607 0.00000000
2.63511151 2.07757907 -0.00236997 0.00000000
3.37847076 1.36518336 0.00485963 0.00000000
2.27930539 0.68185359 -0.00053875 0.00000000
0.03572988 0.76568199 -0.00273006 0.00000000
2.44982261 1.11161354 -0.00156035 0.00000000
3.37477981 0.82093600 0.00399736 0.00000000
2.87223354 0.10439851 -0.00091867 0.00000000
2.06427043 1.24711879 -0.00168921 0.00000000
1.94730330 2.06466750 -0.00080682 0.00000000
2.70489107 0.57958821 -0.00046867 0.00000000
0.71476300 1.32865069 -0.00125528 0.00000000
3.03273924 1.84676055 0.00312172 0.00000000
3.80443226 1.15496376 -0.00158643 0.00000000
0.87232361 0.08879394 -0.00602451 0.00000000
3.26689409 1.97464663 0.00045320 0.00000000
1.31045926 0.60284788 0.00169932 0.00000000
1.75757090 0.73667324 0.00077828 0.00000000
0.96062765 1.55841595 0.00204216 0.00000000
3.56297113 0.27630235 -0.00201668 0.00000000
2.31120578 1.25627069 0.00356025 0.00000000
3.30430095 1.32452688 0.00461633 0.00000000
3.45987744 1.12337736 -0.00078060 0.00000000
0.48194662 1.17967434 -0.00117155 0.00000000
2.43545945 0.20906943 0.00048212 0.00000000
3.30997137 0.80966907 -0.00293612 0.00000000
0.00021504 1.13525408 -0.00089445 0.00000000
0.86859238 0.62101129 0.00111175 0.00000000
0.54789760 0.75010301 0.00099263 0.00000000
0.25500387 1.17083025 0.00240752 0.00000000
0.54394999 1.85358624 -0.00141062 0.00000000
2.55300247 0.05731923 0.00165090 0.00000000
3.05569820 0.51486152 0.00022947 0.00000000
0.68711964 1.89970261 0.00258239 0.00000000
1.40439354 2.29462977 -0.00214638 0.00000000
2.06106892 1.22827718 0.00061428 0.00000000
1.49557391 1.80489793 0.00098823 0.00000000
0.23188559 0.82956489 0.00317948 0.00000000
0.57803558 0.69410959 0.00441126 0.00000000
2.01350097 1.17770785 0.00378074 0.00000000
3.65346911 1.67662877 0.00143954 0.00000000
1.87233108 1.80752120 -0.00096022 0.00000000
0.22496070 0.22677581 -0.00595574 0.00000000
1.39016893 1.85062916 -0.00576794 0.00000000
2.28780324 0.67645285 -0.00308149 0.00000000
0.16276764 1.85915718 0.00664243 0.00000000
1.83786427 2.27618310 -0.00013878 0.00000000
0.44413121 1.58036004 -0.00437699 0.00000000
0.83444354 2.07435881 -0.00643749 0.00000000
0.27161095 0.05684541 0.00119272 0.00000000
1.36121157 2.22606302 -0.00029937 0.00000000
1.03001039 1.95094311 -0.00393952 0.00000000
1.89169997 2.15528276 0.00027382 0.00000000
4.02693488 2.04624442 -0.00070585 0.00000000
3.93510113 2.08494233 0.00364551 0.00000000
0.63354417 0.78515581 0.00747139 0.00000000
3.31290871 0.26405957 -0.00137132 0.00000000
3.31734061 0.47247780 -0.00396078 0.00000000
3.80031277 1.65965414 0.00187720 0.00000000
2.48585908 1.58886911 0.00328025 0.00000000
1.82171893 1.21890078 -0.00127280 0.00000000
1.06341665 0.71839363 0.00468754 0.00000000
2.30406152 0.80250604 -0.00050773 0.00000000
2.73990281 1.60741431 -0.00076734 0.00000000
0.23410302 0.77395026 -0.00191471 0.00000000
1.20627279 1.84211741 -0.00072972 0.00000000
0.95376627 1.04636238 0.00249487 0.00000000
1.58521716 0.30323810 0.00235837 0.00000000
2.11121837 0.11962550 -0.00285380 0.00000000
3.09893549 1.56594925 0.00276756 0.00000000
1.91013986 0.58346721 0.00169806 0.00000000
3.33527589 2.01198419 0.00062806 0.00000000
3.77618373 1.32088894 -0.00569242 0.00000000
1.64225210 1.24799095 0.00110342 0.00000000
2.84290451 0.29566777 -0.00028324 0.00000000
1.74782489 2.29252153 -0.00132891 0.00000000
2.69478310 1.70140283 -0.00376726 0.00000000
1.68544187 0.23490378 -0.00292430 0.00000000
2.01063774 1.24814144 -0.00241770 0.00000000
0.58940955 2.00562967 -0.00267820 0.00000000
3.04501838 0.64076791 0.00172948 0.00000000
3.06379397 0.58367682 -0.00060620 0.00000000
1.73761798 2.03252979 0.00031727 0.00000000
3.65432990 1.97839005 0.00199892 0.00000000
3.25693928 0.80980530 -0.00129951 0.00000000
0.85854111 0.98178645 -0.00092146 0.00000000
3.24561604 1.38000800 0.00055436 0.00000000
3.70002440 1.74839020 -0.00200555 0.00000000
1.24541965 0.56032981 -0.00066738 0.00000000
0.58808487 0.19572543 -0.00253807 0.00000000
0.06174999 1.87240373 0.00123316 0.00000000
1.30402922 0.90265625 -0.00378400 0.00000000
2.77249129 1.83952282 -0.00078912 0.00000000
2.16255791 0.01861663 0.00055126 0.00000000
0.19925751 0.03610588 0.00147892 0.00000000
0.10846036 0.54565105 -0.00349223 0.00000000
2.04076678 0.12405636 -0.00402762 0.00000000
1.91021584 1.70932745 -0.00107958 0.00000000
1.52292082 0.96251610 0.00416266 0.00000000
1.71432736 0.14264285 -0.00094751 0.00000000
2.26045013 0.96497221 -0.00370226 0.00000000
3.42645979 0.31717989 -0.00244384 0.00000000
0.52086624 0.37608372 0.00138466 0.00000000
1.54390768 1.62572063 -0.00020623 0.00000000
1.45180197 0.28828878 -0.00280215 0.00000000
1.08306802 1.09596353 -0.00131448 0.00000000
1.20799836 0.08996204 -0.00502191 0.00000000
1.68626200 0.66806171 -0.00494352 0.00000000
2.32173864 0.62487665 0.00291061 0.00000000
1.91412791 0.22759487 -0.00288913 0.00000000
2.35471551 0.49825576 -0.00120870 0.00000000
2.11706068 0.40839144 0.00466960 0.00000000
2.08375805 0.52320325 0.00057487 0.00000000
1.22847773 2.12081311 0.00471309 0.00000000
1.79178159 1.77626097 -0.00337200 0.00000000
0.29407540 1.72169309 0.00853385 0.00000000
2.79012134 1.42803038 0.00219301 0.00000000
3.64698931 1.57429744 -0.00091306 0.00000000
3.67240684 0.61577364 -0.00370104 0.00000000
0.49929658 1.65227594 -0.00019963 0.00000000
2.66442664 1.03818896 0.00016159 0.00000000
0.58116918 0.05150860 0.00200264 0.00000000
2.01764016 0.54811475 0.00189460 0.00000000
3.84762653 1.58055225 -0.00144924 0.00000000
0.48266818 0.48118917 -0.00115193 0.00000000
0.20515847 1.40930952 0.00006044 0.00000000
1.36528606 0.31102152 0.00371125 0.00000000
3.41448849 0.75562600 0.00433894 0.00000000
3.77469109 0.73037998 -0.00683104 0.00000000
1.53134995 0.09404514 -0.00118621 0.00000000
3.02053220 0.18350022 0.00035617 0.00000000
0.04757299 2.34766249 -0.00399459 0.00000000
1.50429722 0.59885627 -0.00060384 0.00000000
1.60253726 0.99991851 -0.00661900 0.00000000
0.60365661 1.92968313 0.00209142 0.00000000
0.72551096 1.42851177 0.00165088 0.00000000
1.25159649 1.57818009 0.00087559 0.00000000
0.55092905 1.30989907 -0.00044297 0.00000000
1.37099820 2.22653134 -0.00287620 0.00000000
1.19030758 1.14623544 0.00259642 0.00000000
1.52015892 0.05439131 -0.00130385 0.00000000
3.31726630 1.16833683 0.00058117 0.00000000
0.35303669 1.29952097 0.00054425 0.00000000
3.78092704 0.54267945 0.00244501 0.00000000
1.34455281 1.28134207 0.00505345 0.00000000
2.81859080 1.57943366 -0.00305432 0.00000000
0.01411228 1.40576914 0.00235929 0.00000000
2.42832337 2.13392240 0.00046989 0.00000000
3.34191473 0.01241064 0.00229788 0.00000000
2.11348320 1.44281802 0.00433964 0.00000000
3.48905166 0.69930360 -0.00049448 0.00000000
3.38754729 0.01638264 -0.00190467 0.00000000
3.71220097 1.82425755 -0.00068148 0.00000000
2.82903215 1.67488668 0.00041788 0.00000000
0.25392088 1.17259354 -0.00276626 0.00000000
1.96204832 0.54755193 -0.00083306 0.00000000
2.24126444 0.79907485 0.00527623 0.00000000
2.17153516 2.29131649 -0.00059479 0.00000000
0.85639900 1.67391520 -0.00043416 0.00000000
1.20173268 0.86071957 -0.00041795 0.00000000
3.85884017 0.57635272 -0.00359730 0.00000000
1.24555752 2.29500968 0.00171021 0.00000000
2.21108261 1.58965005 -0.00048750 0.00000000
1.17263031 1.97124476 -0.00413543 0.00000000
1.26313358 1.16497386 0.00080638 0.00000000
3.94460568 2.20871371 0.00265854 0.00000000
3.88509551 2.11566571 -0.00029256 0.00000000
3.86713055 0.17437995 -0.00396792 0.00000000
3.25694392 1.50065652 0.00197444 0.00000000
2.81939894 1.70964663 0.00095333 0.00000000
2.97835658 1.67357711 -0.00328343 0.00000000
2.35814517 1.77576499 0.00020721 0.00000000
3.58863485 2.22745590 -0.00535846 0.00000000
2.52439343 1.64097806 0.00344763 0.00000000
1.08691654 0.68729041 -0.00744206 0.00000000
2.47392563 1.28112117 0.00073694 0.00000000
1.90414704 0.44592283 0.00147081 0.00000000
3.55746841 1.82459662 -0.00258807 0.00000000
0.90780228 1.00185551 0.00192263 0.00000000
0.25163662 1.24198884 0.00059162 0.00000000
1.45536775 2.04297675 0.00033484 0.00000000
1.60581542 0.65409980 -0.00626366 0.00000000
3.64969380 1.01614602 -0.00127553 0.00000000
0.91217741 0.20817197 -0.00132305 0.00000000
2.71757964 1.30528208 0.00310436 0.00000000
2.52556201 0.07505651 0.00002948 0.00000000
0.44547833 1.05622197 0.00584898 0.00000000
0.82864144 0.94140597 0.00061205 0.00000000
2.89261475 1.01390107 -0.00116240 0.00000000
0.12816993 0.22747107 -0.00585679 0.00000000
0.99241884 1.45276997 -0.00172279 0.00000000
2.80629426 1.15666108 -0.00395551 0.00000000
1.55568400 1.55256123 0.00413461 0.00000000
4.01822536 1.97302291 -0.00227680 0.00000000
2.12373745 0.95398441 -0.00247390 0.00000000
2.70931293 1.97630460 0.00639978 0.00000000
2.31820360 1.28739038 -0.00048384 0.00000000
1.63876815 1.37620566 -0.00099315 0.00000000
3.08086589 1.02069191 0.00045908 0.00000000
0.05666409 0.07753273 0.00054619 0.00000000
2.69684406 1.26089719 0.00150259 0.00000000
1.91953975 1.36150103 -0.00086390 0.00000000
2.20018711 0.06348742 -0.00292181 0.00000000
2.85301433 2.17767663 0.00174342 0.00000000
2.35222118 2.20744721 -0.00342583 0.00000000
0.50451141 0.79190263 0.00086075 0.00000000
2.27720740 1.53468479 -0.00428453 0.00000000
2.35456186 0.56145223 0.00221837 0.00000000
2.10086845 1.21264130 -0.00084455 0.00000000
3.52778598 2.30844363 -0.00101581 0.00000000
3.79641152 2.34099460 0.00298598 0.00000000
0.00176901 2.21929836 0.00294286 0.00000000
3.14587011 0.17599294 -0.00056599 0.00000000
0.77131224 0.01859596 -0.00485538 0.00000000
2.31048779 0.47675811 -0.00231178 0.00000000
4.00492160 0.33309020 -0.00162638 0.00000000
2.34062974 0.82262379 0.00086733 0.00000000
2.55810237 0.88810659 0.00037714 0.00000000
1.16152354 0.91375899 0.00184976 0.00000000
0.23641267 2.17820654 -0.00022709 0.00000000
2.10838352 0.25754479 -0.00035446 0.00000000
0.07580575 0.78927510 0.00145920 0.00000000
2.69402696 0.56756294 0.00061950 0.00000000
2.51220106 1.13995533 0.00174687 0.00000000
1.36695423 1.10722652 0.00005730 0.00000000
2.12605377 0.18793872 -0.00078577 0.00000000
2.49444211 2.17958737 0.00212348 0.00000000
0.92184638 0.51945242 -0.00249787 0.00000000
2.30983316 0.02669940 -0.00274759 0.00000000
0.02924964 1.48893314 -0.00085232 0.00000000
3.69140739 1.83995150 0.00092576 0.00000000
0.16183367 1.26638772 -0.00042817 0.00000000
0.76776747 0.74435967 -0.00290311 0.00000000
1.35523355 0.04417467 0.00050991 0.00000000
1.63133013 1.40944668 -0.00095211 0.00000000
1.84489708 1.43580790 -0.00542377 0.00000000
0.45761812 2.04902733 -0.00168464 0.00000000
0.90502132 0.24623553 -0.00174271 0.00000000
2.82873843 2.33522792 0.00325682 0.00000000
1.99864074 2.32644439 0.00007757 0.00000000
2.15415322 1.23244991 0.00080140 0.00000000
0.25690742 1.23301859 0.00376922 0.00000000
3.90610134 1.92830984 0.00102363 0.00000000
1.66094572 1.68275208 -0.00100349 0.00000000
0.92348638 2.10798471 0.00103067 0.00000000
2.98476952 2.35424120 0.00594438 0.00000000
2.22956053 1.91613338 0.00127588 0.00000000
3.02130122 0.84891787 0.00511921 0.00000000
3.15617520 0.02085465 -0.00092030 0.00000000
0.95928308 1.36374641 -0.00152004 0.00000000
0.30330042 1.18881006 0.00075383 0.00000000
1.04403454 1.11912008 0.00535733 0.00000000
0.16529233 1.80090866 0.00192028 0.00000000
3.80363823 1.92515653 -0.00168164 0.00000000
0.07456812 0.18901194 0.00026135 0.00000000
0.23826190 1.73299053 -0.00082762 0.00000000
0.64678133 1.93205339 0.00128180 0.00000000
1.08275435 0.75900414 -0.00247293 0.00000000
0.67333653 0.74999514 -0.00076656 0.00000000
2.13914474 1.26984098 0.00244515 0.00000000
2.16265292 1.18364508 -0.00103351 0.00000000
2.65238025 1.12941195 -0.00220932 0.00000000
1.58918768 0.71006172 0.00353258 0.00000000
3.27030157 0.55576480 -0.00235610 0.00000000
2.50076065 1.80499700 0.00092654 0.00000000
3.31096713 1.36607851 -0.00553878 0.00000000
1.74353873 0.99820536 -0.00334339 0.00000000
1.64631162 0.63044058 0.00166440 0.00000000
2.79938489 1.07523601 -0.00244049 0.00000000
2.03887756 1.29557982 -0.00091008 0.00000000
2.34294931 0.74543885 -0.00281830 0.00000000
0.60353542 2.29446038 0.00180542 0.00000000
1.69502618 0.96087356 -0.00041932 0.00000000
1.09672387 0.88477304 0.00040611 0.00000000
3.47994185 0.01488629 -0.00162147 0.00000000
2.27672927 1.29229177 -0.00168123 0.00000000
1.04538352 0.31157886 -0.00112702 0.00000000
3.30407652 2.11920363 -0.00345597 0.00000000
2.13835580 0.23273513 0.00254451 0.00000000
2.70703903 0.62316795 0.00123165 0.00000000
1.98980005 0.45455929 0.00078103 0.00000000
3.96785871 0.77491595 -0.00282975 0.00000000
2.11706837 1.82931698 0.00426098 0.00000000
1.71701969 1.32889503 -0.00196095 0.00000000
0.98036705 2.19971247 -0.00011317 0.00000000
2.40561500 1.95534502 0.00142736 0.00000000
2.66995299 1.52263061 -0.00105408 0.00000000
0.43120607 2.16230028 0.00479300 0.00000000
1.81345700 0.50418387 -0.00108152 0.00000000
3.67210470 0.14107499 -0.00402214 0.00000000
3.92635928 0.79693732 0.00263813 0.00000000
1.40697621 1.38378970 -0.00228875 0.00000000
2.66944252 1.85234760 -0.00010418 0.00000000
0.29164721 0.05824546 -0.00077781 0.00000000
0.05779747 0.66836615 0.00055420 0.00000000
1.63867613 1.74156618 -0.00367210 0.00000000
3.52303300 0.77738364 -0.00243146 0.00000000
1.22129396 1.39208482 0.00503212 0.00000000
1.17232151 1.37962672 -0.00002993 0.00000000
2.67730032 0.59849276 -0.00032212 0.00000000
0.33033505 0.08258230 0.00276978 0.00000000
0.40232679 1.60779403 -0.00305936 0.00000000
3.50638755 1.58290050 -0.00147162 0.00000000
0.14440942 1.34078135 -0.00140236 0.00000000
0.43904209 0.07776377 0.00181860 0.00000000
0.27139833 1.16644887 -0.00345166 0.00000000
3.26932757 0.58290710 -0.00016639 0.00000000
1.92401101 2.07743086 -0.00237305 0.00000000
2.16285565 0.68027564 -0.00093749 0.00000000
1.59653617 0.47548062 0.00132966 0.00000000
3.93733744 0.63560660 0.00105525 0.00000000
0.81869983 0.02851751 0.00049437 0.00000000
3.88142780 0.69907749 -0.00065391 0.00000000
1.80681979 2.07597918 0.00239300 0.00000000
1.91025218 1.25046897 0.00110039 0.00000000
1.49691116 0.37288563 0.00195955 0.00000000
3.54644781 1.55796002 0.00265718 0.00000000
3.30784179 1.18016673 0.00043119 0.00000000
2.67836760 1.41761129 -0.00039113 0.00000000
2.64595692 1.86335993 -0.00634272 0.00000000
3.56360616 0.14633384 0.00178875 0.00000000
0.05037582 1.95890958 0.00110839 0.00000000
2.32377308 1.31174788 -0.00125931 0.00000000
3.88755229 0.30303502 0.00189186 0.00000000
3.99541029 0.55523684 -0.00017055 0.00000000
1.79362320 0.39976670 -0.00038734 0.00000000
3.14945020 1.44463503 0.00136664 0.00000000
3.14438571 1.11394087 -0.00154195 0.00000000
3.63646704 0.58817389 0.00266075 0.00000000
0.58531848 0.54414985 0.00394724 0.00000000
3.85616540 2.18194022 -0.00133615 0.00000000
1.81101703 1.94476563 0.00002187 0.00000000
3.53480858 1.51253835 -0.00379364 0.00000000
0.47824422 1.58667554 0.00051537 0.00000000
3.37552751 1.95212721 0.00010457 0.00000000
1.14005944 0.89052491 -0.00299167 0.00000000
0.63914042 1.01109088 -0.00186580 0.00000000
2.57417671 0.60989638 -0.00420861 0.00000000
1.16823170 1.24440318 0.00188000 0.00000000
1.47482921 0.81574377 0.00054840 0.00000000
1.77090128 1.92303336 -0.00013861 0.00000000
1.56262378 1.61304341 -0.00023777 0.00000000
3.72160939 1.96698545 0.00220647 0.00000000
0.87771527 0.08702436 -0.00325086 0.00000000
1.04660871 2.33378199 0.00490946 0.00000000
3.51514518 0.36574167 0.00286093 0.00000000
0.14478861 2.24194220 -0.00385927 0.00000000
0.81036684 0.44043312 0.00132060 0.00000000
0.33059472 1.05096199 -0.00352891 0.00000000
1.19699687 0.16371933 -0.00326273 0.00000000
0.20770738 1.46839365 -0.00203101 0.00000000
0.80989514 0.26616296 -0.00336405 0.00000000
4.03314228 0.51580076 0.00039451 0.00000000
1.33971249 1.58619104 -0.00331390 0.00000000
3.22939962 2.24774369 -0.00071244 0.00000000
3.70316107 1.46768940 0.00153929 0.00000000
1.98734537 0.73248198 0.00145388 0.00000000
3.13149619 1.61823091 -0.00427299 0.00000000
3.96867121 1.89174061 0.00069647 0.00000000
0.61246684 0.82734099 0.00009985 0.00000000
4.00821618 2.03095262 -0.00318801 0.00000000
3.61034868 2.03843507 0.00094258 0.00000000
3.05246678 1.94306804 0.00035741 0.00000000
1.97537402 0.02569013 0.00299457 0.00000000
2.75594834 1.85601580 -0.00181658 0.00000000
0.55292847 0.75519358 0.00146840 0.00000000
1.35192250 2.26635103 -0.00007915 0.00000000
2.82527553 1.73039368 -0.00047059 0.00000000
1.61597071 0.24574634 -0.00065367 0.00000000
3.04274557 1.49651544 -0.00149687 0.00000000
2.94571736 1.13857205 0.00279217 0.00000000
3.12581898 0.52622899 0.00154164 0.00000000
0.25502767 1.33856220 0.00169968 0.00000000
3.58361471 0.46441772 0.00523827 0.00000000
2.88378414 0.28943270 0.00236633 0.00000000
4.01806427 1.64304178 0.00061660 0.00000000
2.32204450 0.77469050 0.00258564 0.00000000
4.00422525 1.81547560 0.00137466 0.00000000
0.64781753 1.93081359 0.00121400 0.00000000
1.87496094 1.79310753 0.00049277 0.00000000
3.52728018 1.19984169 -0.00139084 0.00000000
0.93276552 0.97617540 -0.00309035 0.00000000
2.64272530 1.21437894 0.00025305 0.00000000
2.50598091 0.72022331 -0.00261357 0.00000000
1.37253644 0.32748989 -0.00007529 0.00000000
3.50683045 0.49574965 -0.00041990 0.00000000
3.62015806 2.16171070 0.00039528 0.00000000
2.14102508 1.20769351 -0.00089548 0.00000000
1.94889152 1.42272679 0.00114532 0.00000000
1.70047716 2.21732932 0.00180815 0.00000000
0.14204979 1.66073201 -0.00086874 0.00000000
1.21559110 0.23975390 -0.00236472 0.00000000
4.04372468 0.31816147 -0.00330309 0.00000000
1.39427672 0.58007274 -0.00137830 0.00000000
3.49986257 0.40901523 -0.00235933 0.00000000
0.94780236 1.92866028 -0.00509594 0.00000000
2.93000687 0.82159225 0.00212577 0.00000000
3.08510672 1.71563011 -0.00205532 0.00000000
3.40752067 1.42497357 0.00272216 0.00000000
2.69807135 1.08774501 -0.00126294 0.00000000
3.42554383 1.44920981 0.00267941 0.00000000
3.52624758 0.10109397 -0.00275706 0.00000000
1.22991303 1.98316982 -0.00106023 0.00000000
0.95434069 1.70995704 0.00293717 0.00000000
3.42402335 1.09129330 0.00123028 0.00000000
3.22949001 0.60580195 -0.00062343 0.00000000
1.89030546 1.22850626 0.00149818 0.00000000
0.95084468 1.64923709 -0.00012956 0.00000000
2.99112108 1.83883720 -0.00012131 0.00000000
1.26046780 2.34475112 0.00667467 0.00000000
3.38825322 0.77788398 0.00251466 0.00000000
0.65139123 0.71308008 0.00021760 0.00000000
2.36224769 0.93864829 -0.00198901 0.00000000
3.96821063 1.99962219 0.00069313 0.00000000
1.85516155 1.86582675 -0.00061551 0.00000000
0.88087886 0.02853371 -0.00056918 0.00000000
2.64769458 1.48704807 -0.00276478 0.00000000
0.11312701 1.69195376 0.00139065 0.00000000
3.91401683 0.65493025 0.00778236 0.00000000
0.01210093 1.22951387 0.00329634 0.00000000
3.91822484 1.69246350 0.00214966 0.00000000
2.89507160 2.09728638 0.00252433 0.00000000
2.87188738 0.24317276 -0.00108474 0.00000000
1.93236422 0.38863165 0.00090722 0.00000000
2.00423132 0.02555878 0.00129409 0.00000000
1.10501870 1.46682456 -0.00153937 0.00000000
3.18087032 1.65150036 0.00345055 0.00000000
2.71519785 0.13254583 -0.00375406 0.00000000
1.44661481 0.53338206 -0.00024191 0.00000000
2.42600947 1.93466139 -0.00079673 0.00000000
0.79014468 1.64334395 0.00099077 0.00000000
1.59542200 0.94511728 -0.00280014 0.00000000
2.42436529 0.63096708 -0.00105115 0.00000000
0.11961520 2.25362365 0.00081024 0.00000000
1.41844564 1.04816160 -0.00433480 0.00000000
0.52666885 0.03592713 0.00400247 0.00000000
0.43143829 0.53183661 0.00148791 0.00000000
3.17562242 2.34606976 0.00126109 0.00000000
3.85178416 1.76164212 0.00117187 0.00000000
3.61544631 0.49761118 -0.00045530 0.00000000
1.30575354 1.85683416 -0.00256075 0.00000000
3.88926021 0.39744053 0.00376684 0.00000000
0.46424350 1.55614479 0.00137175 0.00000000
0.93826654 0.29189814 0.00127724 0.00000000
3.88429830 1.46173356 0.00049521 0.00000000
0.09979762 2.21427573 -0.00082458 0.00000000
2.53297585 0.25059650 -0.00059395 0.00000000
3.10576958 2.28747646 0.00073972 0.00000000
2.66181900 2.03337368 -0.00042178 0.00000000
0.14568113 0.31477729 -0.00191766 0.00000000
0.77703586 1.94873301 0.00027702 0.00000000
1.74251347 1.86732073 0.00071439 0.00000000
3.77449660 0.03729909 0.00142928 0.00000000
0.55805399 1.34001989 -0.00309265 0.00000000
2.93529432 0.33413262 -0.00053204 0.00000000
1.81649907 2.18398681 0.00267082 0.00000000
0.82144242 0.20872942 0.00058074 0.00000000
1.56269996 1.93856200 0.00308477 0.00000000
1.53524427 1.53280020 -0.00148203 0.00000000
3.40508702 2.05307336 -0.00444783 0.00000000
3.50946480 1.13709697 -0.00033744 0.00000000
1.04916885 1.46961416 0.00234097 0.00000000
0.21931360 0.78320985 -0.00348002 0.00000000
4.00627322 1.35282337 0.00424038 0.00000000
2.62816784 1.24742029 0.00111296 0.00000000
1.51637905 1.78736906 0.00145197 0.00000000
3.25573429 1.42186397 0.00237145 0.00000000
2.92413926 0.90538100 -0.00302552 0.00000000
2.24623318 0.11326945 0.00170033 0.00000000
1.73648939 0.67164666 0.00297237 0.00000000
1.92341745 1.31571401 -0.00133751 0.00000000
2.05767440 0.58712734 -0.00540496 0.00000000
0.63500365 0.75313903 0.00139720 0.00000000
2.00314554 1.46469834 -0.00274425 0.00000000
3.06957831 1.25766488 0.00147861 0.00000000
3.32279517 0.67711165 -0.00153530 0.00000000
1.07569001 0.39625404 0.00278223 0.00000000
3.98066649 0.15081698 -0.00159846 0.00000000
3.42260081 1.29509775 -0.00249897 0.00000000
0.64884130 0.64924550 -0.00188021 0.00000000
1.36345347 0.10632355 -0.00240783 0.00000000
2.24722846 0.74305408 0.00013102 0.00000000
3.99597892 1.66336432 0.00265188 0.00000000
0.94878450 2.04888613 0.00140770 0.00000000
1.28241799 0.84024970 -0.00171850 0.00000000
3.65809291 2.21384574 0.00096066 0.00000000
2.41832856 0.80906008 0.00411799 0.00000000
2.72169841 0.83688072 0.00124748 0.00000000
2.79648733 0.32161558 -0.00128324 0.00000000
3.66492866 1.34972516 -0.00253651 0.00000000
3.92253737 2.29360813 0.00223817 0.00000000
2.15211164 2.16930328 0.00195642 0.00000000
3.89006110 0.57516086 0.00142993 0.00000000
1.22182981 2.26987692 0.00373212 0.00000000
3.95450593 0.13692558 -0.00241522 0.00000000
0.41633248 1.70916693 -0.00241644 0.00000000
2.50578894 0.59445243 0.00011521 0.00000000
0.84596964 0.62434917 -0.00160263 0.00000000
3.63125517 1.17024835 -0.00142328 0.00000000
3.90922693 1.34780656 -0.00251252 0.00000000
3.00126538 0.32279574 -0.00127091 0.00000000
3.94550165 0.57859697 0.00584239 0.00000000
0.90242119 0.24181215 0.00221476 0.00000000
1.41340821 0.26008507 -0.00077363 0.00000000
3.15541736 0.00860330 -0.00374707 0.00000000
2.59073663 1.02735541 0.00336358 0.00000000
2.93240141 0.90453842 0.00227484 0.00000000
2.33877717 0.62332801 -0.00529024 0.00000000
4.03329282 2.34040251 -0.00265031 0.00000000
3.10785526 0.82108550 -0.00035049 0.00000000
0.41565448 0.91810604 -0.00308084 0.00000000
1.39464577 0.65165077 0.00455063 0.00000000
0.75066187 1.41657713 -0.00101847 0.00000000
1.59321048 1.29018891 0.00158312 0.00000000
1.95406225 1.75795672 0.00380977 0.00000000
1.40235607 0.97910970 0.00408123 0.00000000
3.93984609 2.08276647 0.00022789 0.00000000
2.41331085 2.18637384 -0.00071847 0.00000000
3.18701745 0.83484707 -0.00243474 0.00000000
0.59360319 2.00256960 -0.00186534 0.00000000
1.65552047 0.88231887 -0.00045507 0.00000000
2.15459234 1.77896588 -0.00067389 0.00000000
0.74308847 0.14431065 -0.00305375 0.00000000
0.35705023 2.10725607 0.00432500 0.00000000
0.13594770 0.35689465 -0.00515708 0.00000000
2.49796475 1.40903155 -0.00156082 0.00000000
0.34475908 1.91111388 0.00064741 0.00000000
1.56982233 0.84053691 0.00354261 0.00000000
1.54888510 2.14806330 0.00117728 0.00000000
3.21454868 0.62183397 -0.00317481 0.00000000
0.10905358 0.26041408 0.00323262 0.00000000
3.09762654 0.24252228 0.00018318 0.00000000
2.24287632 0.59754420 0.00130167 0.00000000
2.63319557 1.51938698 -0.00057935 0.00000000
1.92273377 2.31952720 0.00305881 0.00000000
0.13459989 0.69814771 -0.00542693 0.00000000
2.36468304 1.84574234 -0.00079249 0.00000000
3.88999506 1.29350840 -0.00433672 0.00000000
2.85584850 0.01126477 0.00029364 0.00000000
0.17063968 1.46781892 0.00011701 0.00000000
0.65849037 0.07759571 -0.00096485 0.00000000
2.77988618 1.13410192 -0.00055538 0.00000000
2.60557045 1.65344405 0.00139144 0.00000000
2.98818953 1.56253317 0.00490732 0.00000000
2.13429016 0.92659211 -0.00202778 0.00000000
2.27274757 1.97998499 0.00464681 0.00000000
2.16438632 0.47524796 -0.00059957 0.00000000
4.02888869 2.12235040 -0.00472970 0.00000000
2.10221963 0.09409989 -0.00424459 0.00000000
2.30445742 0.82170639 -0.00164913 0.00000000
2.01382298 1.45993569 0.00078757 0.00000000
2.60962416 1.07546831 0.00091484 0.00000000
3.10956829 1.74551118 -0.00392134 0.00000000
0.37600044 0.59075233 -0.00004845 0.00000000
3.51514450 1.28782573 -0.00308698 0.00000000
2.98924114 1.77887018 -0.00286438 0.00000000
3.65914573 0.64933364 0.00076038 0.00000000
0.47729035 1.01395385 -0.00338944 0.00000000
3.36241960 0.44313395 -0.00092725 0.00000000
3.27302161 1.39931528 -0.00369235 0.00000000
2.71834414 0.48577309 -0.00218495 0.00000000
2.31730944 0.17106799 -0.00443707 0.00000000
0.74090100 1.36392056 -0.00004369 0.00000000
3.14372663 1.17830944 0.00442136 0.00000000
2.17668561 1.42674307 0.00071564 0.00000000
0.52323205 1.73412412 -0.00360259 0.00000000
1.82570557 0.38273794 0.00100263 0.00000000
0.97020097 1.45910746 0.00052835 0.00000000
1.75495926 0.82667244 0.00020203 0.00000000
3.47006569 1.63626290 -0.00096097 0.00000000
0.50263134 0.46096716 0.00042051 0.00000000
0.05274475 1.51422297 0.00018964 0.00000000
0.82491403 1.74127806 -0.00501250 0.00000000
2.04796069 0.52521724 -0.00008676 0.00000000
1.20800487 2.14489943 0.00294994 0.00000000
0.13732123 0.85102877 -0.00190748 0.00000000
2.08437328 1.96172882 0.00073301 0.00000000
0.93960655 1.93211983 0.00037252 0.00000000
0.67205676 0.81720822 0.00050770 0.00000000
4.04313298 1.13709162 0.00007856 0.00000000
2.39044033 1.73076489 -0.00355081 0.00000000
3.32328942 2.18405910 -0.00144167 0.00000000
0.18324771 0.64772034 -0.00151404 0.00000000
3.71678472 0.31415311 0.00330614 0.00000000
1.14127161 0.65896377 -0.00006129 0.00000000
3.50238149 1.94790149 0.00408580 0.00000000
0.96751365 1.61853642 -0.00145101 0.00000000
1.92601568 1.83280202 0.00159880 0.00000000
0.30717337 0.82834972 0.00546613 0.00000000
1.11999012 0.32785546 0.00227323 0.00000000
2.86939242 1.92867252 0.00298121 0.00000000
0.39677422 0.97339483 -0.00033824 0.00000000
3.57303843 0.82040720 -0.00195707 0.00000000
0.34507478 1.52902132 -0.00340786 0.00000000
1.03308240 1.54063851 0.00338649 0.00000000
1.45995508 2.12519577 0.00079668 0.00000000
0.30062381 0.93976893 0.00050850 0.00000000
2.30043580 0.52028811 -0.00597664 0.00000000
0.29950673 1.87158799 0.00135602 0.00000000
0.40966947 1.70538775 0.00037266 0.00000000
0.09966106 1.09829788 0.00017256 0.00000000
3.87864815 1.72010852 -0.00018110 0.00000000
3.77406023 0.54206016 -0.00481124 0.00000000
1.43932989 0.54667930 -0.00636234 0.00000000
2.92071894 0.34138168 0.00018646 0.00000000
3.63838463 1.89184940 -0.00420912 0.00000000
1.30092831 1.19562127 -0.00341724 0.00000000
0.50544189 0.51717603 -0.00021479 0.00000000
2.47161844 1.56182997 0.00202963 0.00000000
2.53552827 0.61152203 0.00292603 0.00000000
0.53016361 1.58574965 0.00099910 0.00000000
3.27805775 1.18798822 -0.00373481 0.00000000
0.03241161 2.36079958 0.00131901 0.00000000
3.15798391 0.70059521 0.00234162 0.00000000
1.10512162 1.73934534 0.00272279 0.00000000
0.11727312 1.25984497 0.00103658 0.00000000
1.11469501 0.61960087 0.00185752 0.00000000
1.75808711 0.69073675 -0.00180480 0.00000000
3.42919576 1.33741747 0.00141154 0.00000000
0.87206973 0.28284146 -0.00379597 0.00000000
3.16310123 0.60838606 -0.00041123 0.00000000
3.18631831 1.37709297 0.00261549 0.00000000
3.13375432 1.50712685 0.00206533 0.00000000
3.46785904 0.80370253 0.00246428 0.00000000
2.49947163 1.70859734 0.00289584 0.00000000
1.62535502 1.92138793 -0.00298121 0.00000000
2.73821377 1.05793001 -0.00090906 0.00000000
3.41294826 0.16701125 0.00077917 0.00000000
0.03011802 1.84333432 -0.00037526 0.00000000
0.49953923 0.02529184 -0.00358971 0.00000000
0.89779646 1.95006867 -0.00054614 0.00000000
2.49877069 0.16934929 0.00047532 0.00000000
1.68783651 1.63624044 0.00308424 0.00000000
2.66826568 1.71331296 -0.00128315 0.00000000
3.27188564 2.27995412 0.00089147 0.00000000
3.47252951 0.79898218 -0.00053546 0.00000000
1.07444228 0.66917490 -0.00322704 0.00000000
0.12082855 0.68968958 -0.00093812 0.00000000
1.16943967 0.17757965 0.00072584 0.00000000
1.01367695 0.81865555 -0.00126109 0.00000000
1.64728986 1.83040250 -0.00084071 0.00000000
4.00925218 0.30511631 -0.00374336 0.00000000
0.41783770 0.82957142 -0.00091084 0.00000000
3.30665448 1.36719073 0.00192218 0.00000000
0.67002104 1.13143278 0.00452654 0.00000000
1.84460254 1.50891879 -0.00044235 0.00000000
1.10817210 1.43407440 -0.00230199 0.00000000
1.11670504 2.15264966 0.00363668 0.00000000
1.15019009 1.62632694 -0.00097933 0.00000000
3.67099655 1.34247709 0.00079232 0.00000000
0.22038875 2.31423314 0.00022262 0.00000000
3.45927497 0.10392500 0.00276690 0.00000000
2.57735641 1.96390170 0.00028465 0.00000000
3.46548722 1.64387157 -0.00392277 0.00000000
0.12938821 0.41212624 0.00088923 0.00000000
1.86117812 1.87323451 0.00520201 0.00000000
1.76603492 2.36071675 0.00199210 0.00000000
0.96689958 1.21052335 -0.00271489 0.00000000
0.46725197 0.22640853 -0.00728727 0.00000000
3.42585701 1.40302479 0.00058705 0.00000000
0.30355414 1.26389024 -0.00083858 0.00000000
1.85635682 1.43350133 0.00463965 0.00000000
2.85611985 0.14131075 -0.00258853 0.00000000
0.78390454 1.43573724 0.00202616 0.00000000
1.69063958 1.54699293 0.00064942 0.00000000
1.96554183 1.13427021 0.00222284 0.00000000
3.48810001 1.40960807 -0.00443963 0.00000000
1.15502370 1.26863875 -0.00146358 0.00000000
1.72627995 1.47581410 -0.00053990 0.00000000
0.96183924 1.71457944 -0.00030107 0.00000000
1.10293906 0.60381965 -0.00120256 0.00000000
3.51025555 0.12806088 0.00509707 0.00000000
3.30380718 1.05293098 0.00089490 0.00000000
3.20465421 2.15939014 0.00627461 0.00000000
3.70423123 2.09458036 0.00233408 0.00000000
2.33393054 1.81287939 0.00167398 0.00000000
1.26703307 2.10307552 0.00052667 0.00000000
1.16276734 0.60680777 -0.00202633 0.00000000
2.75970540 2.14797019 -0.00464043 0.00000000
0.08848151 1.18544730 0.00201483 0.00000000
1.45551080 0.97816131 -0.00027629 0.00000000
3.25415790 0.82869355 -0.00573143 0.00000000
3.09620567 1.65931299 -0.00308723 0.00000000
1.31518989 1.98924168 -0.00159663 0.00000000
0.33696022 1.59493317 0.00406087 0.00000000
1.45175543 0.58155096 0.00180119 0.00000000
3.44438646 0.46118670 0.00303236 0.00000000
0.61050718 2.29913259 -0.00172178 0.00000000
3.10186921 0.51284200 -0.00170520 0.00000000
1.63499914 0.81023393 -0.00078881 0.00000000
3.59493855 0.04043834 0.00175497 0.00000000
1.98628340 2.09317888 0.00075991 0.00000000
0.49167404 0.38940049 -0.00055058 0.00000000
1.68158035 1.01229492 -0.00192106 0.00000000
3.81301678 1.67017468 -0.00016783 0.00000000
3.63730885 1.46403303 0.00040856 0.00000000
0.20986027 1.27556153 -0.00092358 0.00000000
2.25200575 0.21261948 -0.00369954 0.00000000
0.20180692 0.90861406 0.00450807 0.00000000
1.03325157 1.88369730 0.00413148 0.00000000
1.91482125 0.32045487 0.00155091 0.00000000
0.82705474 0.05451472 0.00223655 0.00000000
1.30774730 1.12330783 -0.00109190 0.00000000
1.28730220 0.03056849 0.00064393 0.00000000
0.45694180 1.15936119 0.00098844 0.00000000
1.20600527 0.25356357 0.00339747 0.00000000
0.65580426 1.30084402 -0.00074136 0.00000000
1.07013783 0.70362187 0.00299232 0.00000000
1.18047813 1.32543858 -0.00308163 0.00000000
1.37455284 1.42103495 0.00219296 0.00000000
3.75523858 0.80733387 0.00018252 0.00000000
3.07851852 1.96177706 -0.00094980 0.00000000
1.07709045 0.56063427 -0.00176081 0.00000000
2.54615291 1.29956404 0.00519272 0.00000000
0.15027581 0.38208690 -0.00552358 0.00000000
1.18048654 1.58921421 -0.00123977 0.00000000
0.08271370 1.05383316 -0.00143564 0.00000000
2.21339617 2.13226843 -0.00022871 0.00000000
0.31602762 1.13695249 0.00023037 0.00000000
0.75243074 0.38774678 -0.00013320 0.00000000
0.10998680 1.39486068 -0.00180450 0.00000000
0.46229252 0.49783582 0.00146375 0.00000000
1.48299147 0.04571228 0.00384923 0.00000000
0.79956969 1.31229366 0.00000978 0.00000000
0.59106420 1.05129180 -0.00051918 0.00000000
1.52513646 2.25230084 0.00037779 0.00000000
1.05137979 0.63924197 0.00305274 0.00000000
3.15402977 1.01643164 0.00031543 0.00000000
1.63011159 0.73730329 -0.00025938 0.00000000
1.35833854 0.18565956 0.00381314 0.00000000
1.14772187 0.51160180 0.00310577 0.00000000
3.44138339 1.00046666 -0.00406718 0.00000000
0.24826420 0.73519112 0.00157107 0.00000000
3.15043397 0.11191053 0.00072580 0.00000000
1.37673439 0.59970674 0.00223172 0.00000000
3.12627970 1.73000070 -0.00202002 0.00000000
2.06380873 2.12171723 0.00121014 0.00000000
3.63203081 0.40825764 -0.00258535 0.00000000
3.34206702 2.24531879 -0.00389879 0.00000000
3.17760048 1.66188835 -0.00148419 0.00000000
3.91422134 2.03570861 -0.00476288 0.00000000
3.15215530 0.95596671 0.00088492 0.00000000
3.53815549 1.41080459 0.00030309 0.00000000
0.63393524 2.08884320 0.00087975 0.00000000
3.83608379 1.74989437 0.00396284 0.00000000
0.76970849 1.44552786 0.00227051 0.00000000
0.20803927 0.41327297 0.00034465 0.00000000
3.44315636 0.60304047 -0.00144879 0.00000000
3.89845170 0.66261818 0.00063734 0.00000000
2.28859655 0.74702410 0.00132251 0.00000000
3.21470070 0.36215933 0.00589542 0.00000000
1.96249376 1.61973783 -0.00181538 0.00000000
3.87097595 2.09696550 -0.00122866 0.00000000
1.57237157 0.27387406 0.00002987 0.00000000
0.44943079 1.97855699 -0.00051791 0.00000000
3.05083489 0.29046518 0.00032832 0.00000000
1.21617507 1.47353306 0.00095691 0.00000000
4.02990068 1.68998596 -0.00111942 0.00000000
1.42467074 0.13493973 -0.00000304 0.00000000
0.55818794 1.39859640 0.00288126 0.00000000
0.92815689 1.58033175 0.00013756 0.00000000
4.00993825 0.01132484 -0.00055451 0.00000000
2.13547763 1.59165487 0.00166915 0.00000000
2.13147922 0.08602281 -0.00152688 0.00000000
0.53997395 0.77032941 -0.00020183 0.00000000
1.70111118 1.84975041 0.00002139 0.00000000
0.85923330 1.03857735 0.00098060 0.00000000
3.33198275 1.16809527 0.00184838 0.00000000
3.99897564 0.38029145 0.00255852 0.00000000
4.01866574 0.95797951 -0.00032700 0.00000000
2.73320300 0.42420887 0.00168303 0.00000000
3.65340228 0.19220029 -0.00506098 0.00000000
0.23860023 1.33974218 -0.00418589 0.00000000
4.03732329 0.77564515 0.00269697 0.00000000
2.74333848 1.47154196 -0.00240509 0.00000000
3.89302823 1.63445023 0.00119966 0.00000000
0.87767380 1.90827226 -0.00177633 0.00000000
2.54170367 2.21242881 0.00044003 0.00000000
2.45884632 0.82716116 -0.00016130 0.00000000
2.91015255 2.01936380 -0.00035518 0.00000000
2.87868493 1.54476042 -0.00066839 0.00000000
1.96798951 1.92788728 0.00024269 0.00000000
3.57177629 1.19094337 -0.00036202 0.00000000
0.86481905 1.96386586 -0.00112891 0.00000000
3.42028957 0.96140204 -0.00163528 0.00000000
3.33296702 1.70640782 0.00071393 0.00000000
2.13854109 1.05603360 0.00043707 0.00000000
3.85665033 1.68422259 -0.00029644 0.00000000
3.39671801 0.55590027 0.00474221 0.00000000
1.03980952 0.61848780 0.00002437 0.00000000
2.84981782 0.45659626 0.00233281 0.00000000
2.82959289 1.42843583 -0.00078558 0.00000000
3.98152813 0.77794032 -0.00148517 0.00000000
2.02123857 0.28486567 -0.00153982 0.00000000
0.24222750 1.59078269 -0.00503764 0.00000000
4.03228986 0.39863444 0.00123559 0.00000000
2.86197245 1.06934086 -0.00032523 0.00000000
2.16293725 2.05956020 0.00195929 0.00000000
3.66109725 0.29757658 -0.00188774 0.00000000
0.38999659 0.54240121 -0.00109111 0.00000000
3.04339245 1.95938921 -0.00102629 0.00000000
3.14496871 2.10791231 -0.00274094 0.00000000
3.80492127 2.12158529 0.00207166 0.00000000
3.93643502 0.82667164 -0.00309541 0.00000000
0.09725896 2.09254498 0.00043138 0.00000000
0.26228901 1.22031415 0.00253206 0.00000000
2.49417026 2.34090972 0.00075477 0.00000000
2.61228908 1.89373940 -0.00218354 0.00000000
0.40501936 2.26135838 0.00049253 0.00000000
0.19965052 2.00201583 -0.00105621 0.00000000
2.22669404 0.10255597 0.00031337 0.00000000
3.25473560 1.50274212 0.00201722 0.00000000
0.43082265 0.55184524 -0.00074091 0.00000000
3.50804893 0.76844989 0.00061296 0.00000000
2.77147536 1.38024061 0.00036065 0.00000000
3.96226630 0.44005670 0.00171912 0.00000000
1.90502905 1.50604596 0.00122087 0.00000000
3.82262186 0.52913330 -0.00250758 0.00000000
2.64796896 2.16325500 0.00063031 0.00000000
3.57512950 0.43692518 -0.00197208 0.00000000
0.79060269 1.18833529 -0.00006129 0.00000000
1.36138668 0.37155579 0.00292090 0.00000000
3.40191679 0.27386269 0.00043976 0.00000000
3.07420783 1.78633801 -0.00155950 0.00000000
0.26591074 1.82756402 -0.00367631 0.00000000
1.28386720 1.29188798 0.00087808 0.00000000
2.67180000 0.08528166 -0.00352844 0.00000000
0.75680760 1.32806623 -0.00208639 0.00000000
1.50597302 0.99074241 -0.00089867 0.00000000
0.34844338 1.82471799 0.00180108 0.00000000
0.17983128 0.85129681 0.00044744 0.00000000
0.23311268 0.04393572 0.00039896 0.00000000
1.87341530 0.95880164 0.00533549 0.00000000
1.79028479 0.63804464 -0.00338290 0.00000000
0.12851745 2.35883701 0.00087918 0.00000000
4.02860397 2.05941943 0.00023676 0.00000000
3.94354435 0.54973190 -0.00130617 0.00000000
1.60247202 2.18001850 -0.00035519 0.00000000
0.36408538 1.47981282 -0.00133652 0.00000000
0.76633610 1.42495827 -0.00172228 0.00000000
0.36033792 0.54057634 -0.00195326 0.00000000
1.20306585 1.88935840 -0.00366403 0.00000000
3.10021679 0.70948026 0.00096722 0.00000000
0.49326126 0.52083512 0.00032933 0.00000000
1.93562870 1.42529120 -0.00004311 0.00000000
1.98851748 0.62081332 0.00432105 0.00000000
3.97597572 0.39750745 0.00005575 0.00000000
3.31788180 1.57075058 -0.00040100 0.00000000
2.55587455 1.47590785 -0.00317142 0.00000000
3.49317256 1.28119475 0.00161446 0.00000000
0.56838572 0.13699294 0.00088193 0.00000000
2.78071299 2.09956348 0.00080052 0.00000000
0.13687063 0.94080180 0.00172127 0.00000000
2.95118405 1.85911188 -0.00107827 0.00000000
3.63246249 1.93949733 -0.00334203 0.00000000
3.46818794 2.33960571 0.00247405 0.00000000
3.93560402 0.36995668 -0.00261509 0.00000000
0.95375316 2.27922212 -0.00384000 0.00000000
3.90662881 1.35003671 -0.00221406 0.00000000
1.84126827 1.98762498 0.00263488 0.00000000
4.00052337 1.04509211 0.00109216 0.00000000
0.58603373 1.84763377 0.00144427 0.00000000
2.70865991 1.42969195 0.00443130 0.00000000
0.82357444 0.47429373 -0.00218046 0.00000000
2.09150561 2.26457798 -0.00221891 0.00000000
4.01259087 1.92786723 0.00413658 0.00000000
0.07318028 0.79670083 -0.00064536 0.00000000
1.97614756 0.85988646 0.00166911 0.00000000
0.72261641 1.84123883 -0.00322946 0.00000000
2.07812613 0.49852100 -0.00183181 0.00000000
3.44911456 0.11877027 -0.00020000 0.00000000
1.22605446 2.18478396 0.00139157 0.00000000
3.27308626 0.21535483 -0.00055302 0.00000000
0.65621426 1.68646086 -0.00297514 0.00000000
0.47508788 1.42062553 0.00307951 0.00000000
1.21710378 0.64359878 -0.00279851 0.00000000
0.58959677 1.87722244 -0.00076981 0.00000000
1.37804466 1.77384161 0.00264301 0.00000000
3.40500954 2.31907828 -0.00078371 0.00000000
2.46186234 0.16354843 -0.00067767 0.00000000
3.23944030 0.99050960 0.00071817 0.00000000
3.86369190 0.12005880 0.00039806 0.00000000
0.43002593 2.32365346 -0.00489738 0.00000000
0.57233673 0.47682803 0.00115314 0.00000000
2.85789310 1.59970943 -0.00109957 0.00000000
0.33642148 2.15450091 -0.00114496 0.00000000
3.46744021 2.10100804 -0.00123297 0.00000000
2.95868421 0.95856476 -0.00277080 0.00000000
0.23931290 0.55546406 -0.00163002 0.00000000
3.32955706 1.14114593 0.00067230 0.00000000
0.67343603 0.46587471 -0.00596751 0.00000000
2.18979639 2.29349881 -0.00347541 0.00000000
1.38674214 0.66113767 -0.00175086 0.00000000
0.56757425 1.76460482 -0.00318595 0.00000000
0.27823979 0.72279439 0.00078713 0.00000000
0.92844494 0.22751689 0.00287580 0.00000000
1.90900111 0.65022816 0.00289341 0.00000000
2.45901719 2.27685860 -0.00032545 0.00000000
0.91684854 0.84863559 -0.00224281 0.00000000
3.61448715 0.66789853 -0.00105864 0.00000000
2.48095626 1.70589276 -0.00377408 0.00000000
3.94180501 0.80188494 0.00018486 0.00000000
1.99948780 0.73216154 0.00162427 0.00000000
1.08595156 1.56889050 -0.00085072 0.00000000
3.50918465 2.02387645 0.00322575 0.00000000
2.13423389 0.53877938 0.00178049 0.00000000
3.24525021 1.25607253 0.00028260 0.00000000
0.09293679 0.98213587 0.00310570 0.00000000
3.87419415 0.26936214 -0.00430651 0.00000000
2.90092864 0.58471496 -0.00077603 0.00000000
3.89629740 0.18424570 0.00055328 0.00000000
2.46543195 0.93656031 -0.00261523 0.00000000
3.38033392 0.12370779 -0.00120400 0.00000000
1.24807442 0.63120887 0.00371913 0.00000000
2.10040853 0.39744520 -0.00476705 0.00000000
1.26779993 1.27448526 -0.00108394 0.00000000
3.29494417 1.44934724 -0.00186176 0.00000000
1.08604714 0.14768854 -0.00335232 0.00000000
3.46673582 2.09727911 0.00105841 0.00000000
0.46395792 0.03870952 -0.00177596 0.00000000
1.69342539 1.27773534 -0.00054150 0.00000000
0.21033369 0.24314510 -0.00092993 0.00000000
0.75724059 1.30817135 -0.00124987 0.00000000
0.82204531 0.96142715 0.00040180 0.00000000
1.28388536 1.60135214 0.00112813 0.00000000
0.51773407 0.51148450 -0.00034165 0.00000000
0.50541324 1.32952642 0.00110073 0.00000000
1.42084432 0.93594188 0.00432125 0.00000000
3.62408980 1.15427080 -0.00192650 0.00000000
2.37807163 1.15608278 -0.00493516 0.00000000
3.23551623 0.36103327 -0.00089222 0.00000000
2.36945547 0.14828087 -0.00460090 0.00000000
2.99749984 1.20401236 -0.00030710 0.00000000
0.00950345 1.23490059 0.00221440 0.00000000
0.83005053 2.36294583 0.00417636 0.00000000
2.16672481 0.67631186 0.00618685 0.00000000
1.10633473 1.01146151 0.00117979 0.00000000
3.51595864 1.64472794 0.00572664 0.00000000
0.52649065 1.99683987 0.00278313 0.00000000
0.34496188 0.43777846 -0.00130325 0.00000000
1.85769264 0.22891443 -0.00003654 0.00000000
0.24181177 0.14164884 -0.00025033 0.00000000
2.38331226 0.45532027 -0.00224671 0.00000000
0.59576116 0.48776545 -0.00112083 0.00000000
3.48902522 1.52337138 0.00096646 0.00000000
0.05894041 1.87975190 0.00001609 0.00000000
2.67749518 0.42977501 0.00301897 0.00000000
1.98370645 0.69823668 -0.00026259 0.00000000
3.01700264 0.84089553 -0.00010587 0.00000000
2.06153599 2.12318821 -0.00265282 0.00000000
4.00133476 0.86426727 -0.00242293 0.00000000
2.98000990 2.17762273 -0.00015903 0.00000000
1.97424762 0.49003735 0.00055410 0.00000000
1.21582157 0.46314771 0.00142221 0.00000000
1.75566310 1.85603220 -0.00376093 0.00000000
1.28651075 2.15677060 -0.00154396 0.00000000
1.57838657 1.17936390 -0.00198733 0.00000000
2.18836042 0.72481309 -0.00346450 0.00000000
0.42919184 1.58310348 0.00295001 0.00000000
1.08963916 1.50418919 0.00113219 0.00000000
0.92559357 1.01302113 -0.00481543 0.00000000
2.77824922 1.43234305 -0.00375040 0.00000000
3.39179594 1.81597232 -0.00038613 0.00000000
1.89677448 0.17052879 -0.00104633 0.00000000
1.14959156 1.67666530 -0.00021576 0.00000000
0.19719921 1.61442262 -0.00105573 0.00000000
0.77436143 1.41773915 0.00198024 0.00000000
0.39176600 0.62535173 -0.00208050 0.00000000
1.62497062 1.02043531 -0.00418966 0.00000000
3.53379529 0.86853956 0.00138456 0.00000000
2.50371626 1.50384598 0.00031199 0.00000000
1.05512362 0.63277147 -0.00423437 0.00000000
2.77711748 1.83539549 0.00022723 0.00000000
2.54679968 1.48921754 -0.00026924 0.00000000
3.86668342 1.78905857 0.00113003 0.00000000
0.18713678 0.67181651 -0.00257371 0.00000000
3.62230623 0.57264004 0.00132764 0.00000000
1.76474902 2.09560400 0.00213195 0.00000000
1.29030977 0.83787702 0.00000063 0.00000000
0.69591321 0.90744268 0.00158539 0.00000000
0.49466156 1.02350165 -0.00071786 0.00000000
3.93760154 0.20647327 -0.00262779 0.00000000
0.20191028 0.66296445 -0.00581909 0.00000000
0.21775530 1.90533953 -0.00180316 0.00000000
3.10560916 1.86133184 0.00026670 0.00000000
1.26935587 1.98827240 0.00327050 0.00000000
0.96428814 0.68680464 -0.00062531 0.00000000
2.05173287 0.35720349 -0.00167625 0.00000000
1.88550984 0.19587868 -0.00227411 0.00000000
0.38191562 0.00090310 -0.00341685 0.00000000
0.96113838 1.05137538 -0.00045368 0.00000000
0.84947828 0.32090694 -0.00424989 0.00000000
3.64517151 1.84290004 0.00239999 0.00000000
