2.88293977 1.31582095 0.00096962 0.00000000
3.33848570 0.57839396 -0.00017352 0.00000000
1.41771578 1.39586978 0.00163539 0.00000000
2.79609728 1.63422892 -0.00273416 0.00000000
2.84038031 1.34888496 -0.00111885 0.00000000
3.18776441 1.00499591 0.00198293 0.00000000
1.11178634 0.77892373 -0.00130240 0.00000000
0.20551870 0.90350477 0.00082513 0.00000000
1.09367192 0.01219987 -0.00295434 0.00000000
4.15495514 0.09450883 -0.00201485 0.00000000
3.85960885 1.50975821 0.00070787 0.00000000
3.62558728 1.54244428 0.00125075 0.00000000
1.66468200 1.79134524 0.00286743 0.00000000
4.36483588 0.01603767 -0.00183778 0.00000000
1.21963828 1.20737601 0.00207299 0.00000000
0.23766583 0.43761737 0.00026081 0.00000000
3.57690401 0.72986917 -0.00179333 0.00000000
2.59803557 1.61109654 0.00288205 0.00000000
1.73117091 0.16721945 0.00324363 0.00000000
4.28251644 0.87384877 0.00027644 0.00000000
1.25675785 1.72860944 -0.00074622 0.00000000
2.20598489 0.60301639 0.00071302 0.00000000
2.29303530 0.96216998 -0.00069146 0.00000000
2.45101626 0.05970901 -0.00151496 0.00000000
1.83217743 0.22348738 0.00122762 0.00000000
1.43508397 1.64836249 0.00291468 0.00000000
2.10402915 1.76862427 0.00002986 0.00000000
2.25076169 0.62303265 0.00522191 0.00000000
0.03228055 0.99940967 0.00017258 0.00000000
4.27583836 0.42778706 -0.00515165 0.00000000
1.72580530 0.03388465 0.00158981 0.00000000
2.05056103 1.49185506 -0.00004139 0.00000000
2.85915777 0.07586720 -0.00487960 0.00000000
4.20505883 0.62929234 0.00098438 0.00000000
0.44972743 1.79873265 -0.00341932 0.00000000
3.45694782 0.99283627 -0.00470962 0.00000000
3.75813396 0.77019339 -0.00158267 0.00000000
2.83707552 1.68552211 0.00145343 0.00000000
1.47198557 0.60039507 0.00033389 0.00000000
2.04540991 0.03572513 -0.00137988 0.00000000
2.18443737 1.38411949 -0.00649564 0.00000000
3.89217313 1.29604965 -0.00004051 0.00000000
1.10520847 1.49046603 -0.00238353 0.00000000
0.42186547 0.21183412 0.00036412 0.00000000
2.06393474 0.10419154 0.00223707 0.00000000
2.81530017 1.30982714 0.00110174 0.00000000
3.88396083 1.89913449 -0.00132864 0.00000000
0.22023155 0.00774981 -0.00341005 0.00000000
1.45354731 0.59078048 0.00192834 0.00000000
1.26220380 0.38859007 0.00666419 0.00000000
0.11706039 0.47111847 0.00036496 0.00000000
4.13330051 0.30899118 0.00161225 0.00000000
3.71971881 0.96504189 -0.00327655 0.00000000
1.27083239 1.39909602 -0.00406288 0.00000000
2.98277472 1.67282878 0.00131006 0.00000000
0.36877899 1.22216041 -0.00114694 0.00000000
0.57443987 1.65192477 -0.00257966 0.00000000
2.51039253 1.23323521 -0.00085767 0.00000000
2.98060447 1.70388259 0.00074843 0.00000000
3.97389754 0.44052879 -0.00107871 0.00000000
4.30560455 1.55967616 0.00441390 0.00000000
1.86690637 0.95712380 0.00212835 0.00000000
1.39750945 1.17334244 0.00279085 0.00000000
2.43668542 0.71473976 0.00147150 0.00000000
3.07641695 1.80543733 0.00744234 0.00000000
2.93094599 1.21878086 -0.00326335 0.00000000
0.18127707 1.65735628 0.00033676 0.00000000
3.39927047 0.57158285 0.00154841 0.00000000
1.04690835 1.11978644 0.00100536 0.00000000
0.27933565 0.73344358 0.00020965 0.00000000
2.27818517 0.21978591 0.00332264 0.00000000
2.92800860 1.12833771 0.00024873 0.00000000
1.57850307 0.25894482 -0.00236895 0.00000000
0.03838821 0.18504635 -0.00257101 0.00000000
3.82375006 0.33651217 -0.00159801 0.00000000
2.99281979 0.37874174 -0.00274390 0.00000000
2.40458991 1.46246774 -0.00265544 0.00000000
3.91568240 1.64107063 -0.00043651 0.00000000
1.60206851 0.26350875 0.00181447 0.00000000
3.27256881 0.67674464 -0.00113990 0.00000000
2.19920801 1.78638811 0.00022683 0.00000000
1.56703913 0.22044403 -0.00203782 0.00000000
3.85488512 0.15286929 -0.00222713 0.00000000
1.65839858 0.83191526 -0.00252340 0.00000000
2.29429220 0.53584924 -0.00263243 0.00000000
1.38587829 1.84764874 0.00161872 0.00000000
3.55086949 1.25133305 -0.00059426 0.00000000
1.80963438 0.82317005 -0.00231240 0.00000000
3.67104809 1.17110336 0.00076863 0.00000000
2.54908830 0.00950437 -0.00382717 0.00000000
0.49156481 0.83910335 -0.00009190 0.00000000
4.03247050 0.52201553 -0.00456931 0.00000000
2.06229190 1.05871281 0.00127368 0.00000000
1.79590443 1.25375709 -0.00203110 0.00000000
0.69639222 1.25733983 0.00163143 0.00000000
2.48628471 0.72880639 0.00110798 0.00000000
2.52651418 0.66641129 0.00111646 0.00000000
1.01019202 0.39506437 0.00070960 0.00000000
2.10051050 1.74596361 -0.00252087 0.00000000
2.84089152 0.10810020 -0.00375536 0.00000000
3.09588555 0.63977824 -0.00225930 0.00000000
0.20185491 0.17087589 0.00045130 0.00000000
0.62125732 1.73243050 0.00007890 0.00000000
2.68024508 0.78431193 0.00115089 0.00000000
1.68315187 1.27360710 0.00007931 0.00000000
3.97907671 0.66381485 -0.00391276 0.00000000
0.56773353 0.85058929 0.00171331 0.00000000
1.16325965 0.99715318 -0.00283555 0.00000000
2.04037113 0.26632716 0.00059304 0.00000000
3.10372916 0.66306719 0.00167842 0.00000000
3.12510476 1.58212989 -0.00121094 0.00000000
2.28086563 1.51550979 0.00002283 0.00000000
3.15209073 0.55579073 -0.00316604 0.00000000
1.77043132 0.60071797 -0.00107292 0.00000000
3.77555417 1.55302132 0.00158260 0.00000000
0.95508171 1.24446545 0.00053710 0.00000000
2.31502699 1.52907414 -0.00188704 0.00000000
0.43359001 1.87510402 -0.00210818 0.00000000
1.14148833 0.99376609 0.00102929 0.00000000
2.49311595 1.61911553 -0.00083010 0.00000000
0.89311668 0.29718162 0.00175118 0.00000000
0.63583382 1.13144171 0.00123588 0.00000000
3.95728932 1.51271103 0.00047960 0.00000000
3.59547604 0.53917388 -0.00326053 0.00000000
3.66031605 0.62385675 -0.00093214 0.00000000
3.83887655 1.48343779 -0.00275948 0.00000000
0.81236065 0.95857945 -0.00124516 0.00000000
0.41668260 1.34329416 0.00046670 0.00000000
2.91750195 1.90104113 0.00114480 0.00000000
2.00445329 1.45712543 -0.00198490 0.00000000
0.80071854 0.24956768 -0.00039829 0.00000000
1.38928679 1.08130902 -0.00144813 0.00000000
3.24358188 0.92929269 0.00120689 0.00000000
3.30050662 0.23754498 -0.00100997 0.00000000
1.20969057 0.79302696 -0.00357489 0.00000000
3.21191911 0.63851120 0.00030962 0.00000000
4.01817733 1.13574038 -0.00025268 0.00000000
3.76411384 0.56666198 0.00116230 0.00000000
1.90981694 0.80789554 0.00352797 0.00000000
1.42537309 0.14419141 0.00125343 0.00000000
1.90449175 0.96569883 -0.00058134 0.00000000
0.62224473 1.22435426 -0.00283169 0.00000000
1.44651448 1.64907665 -0.00053852 0.00000000
0.28378769 1.84495832 0.00237503 0.00000000
2.08214999 1.86862806 -0.00232828 0.00000000
2.71601253 1.81772320 -0.00182263 0.00000000
1.85501976 0.31616456 0.00103429 0.00000000
0.51884914 1.50527789 0.00058387 0.00000000
2.67280768 0.04305843 0.00201446 0.00000000
1.34295541 1.64296994 0.00406417 0.00000000
3.39055469 0.46081064 0.00255155 0.00000000
0.21361079 0.80180711 0.00187550 0.00000000
1.78756442 0.51051811 0.00117885 0.00000000
3.24318553 0.44800354 -0.00201717 0.00000000
0.79708450 1.09153145 0.00228499 0.00000000
1.34975240 0.50182821 0.00014339 0.00000000
0.44255359 1.64426330 0.00355842 0.00000000
2.19068404 0.27423313 0.00069838 0.00000000
2.37960480 0.58044645 -0.00163364 0.00000000
1.92029538 0.47977739 -0.00136531 0.00000000
1.60374646 0.99935561 -0.00198736 0.00000000
3.33146032 0.79341014 -0.00347756 0.00000000
0.45979924 0.62173037 -0.00576705 0.00000000
0.71017541 0.04279399 -0.00149246 0.00000000
2.02390239 0.01863543 -0.00254311 0.00000000
0.98395131 0.95325936 0.00203203 0.00000000
1.90456074 0.32766824 -0.00446630 0.00000000
3.10525320 0.53467453 -0.00413023 0.00000000
0.13800889 1.03167780 0.00266216 0.00000000
2.21411852 0.59271276 -0.00117618 0.00000000
3.86436290 1.76426687 -0.00117217 0.00000000
4.31889999 1.13228943 -0.00098357 0.00000000
0.08820818 0.51450130 0.00038042 0.00000000
0.99457550 1.80763840 0.00038347 0.00000000
1.74383630 1.37495327 -0.00151756 0.00000000
2.23007523 0.61858832 -0.00336654 0.00000000
1.55688211 1.68689004 0.00090245 0.00000000
0.90372766 1.36304324 0.00364280 0.00000000
0.91631198 1.55142866 -0.00339188 0.00000000
1.40004331 0.87378055 -0.00132973 0.00000000
2.18975790 1.09826073 0.00172871 0.00000000
0.72701210 1.50551119 -0.00254190 0.00000000
1.78467053 1.87300153 0.00296477 0.00000000
1.47022553 1.51382205 0.00121588 0.00000000
2.08444122 0.85172054 0.00262351 0.00000000
2.11756586 1.45253355 0.00004212 0.00000000
3.65954143 1.89872302 0.00131045 0.00000000
3.35194352 1.40950118 0.00405254 0.00000000
2.39075243 1.22851425 0.00005579 0.00000000
1.39622787 0.63423009 -0.00167553 0.00000000
2.10320233 0.69879866 -0.00394234 0.00000000
1.72124444 0.35967034 -0.00011868 0.00000000
4.19768797 1.52820823 0.00072661 0.00000000
1.36883811 1.01552239 -0.00022258 0.00000000
2.40220439 0.67324786 -0.00086933 0.00000000
0.62172393 0.71605880 0.00336652 0.00000000
2.04783117 1.81018665 -0.00258518 0.00000000
2.45912393 1.12699757 -0.00523706 0.00000000
1.40860205 0.22335172 0.00552190 0.00000000
1.59621893 1.06021377 -0.00261593 0.00000000
1.45314196 1.45930901 -0.00163374 0.00000000
0.03731606 0.56354403 -0.00153538 0.00000000
3.83530604 1.69138825 0.00010020 0.00000000
2.23815614 1.44334984 0.00010754 0.00000000
1.02903852 1.67496981 -0.00207126 0.00000000
3.26615096 0.68578001 -0.00065855 0.00000000
4.30867331 0.17784712 0.00098017 0.00000000
0.63196941 0.13681657 0.00237048 0.00000000
1.02528694 0.76266939 -0.00173948 0.00000000
3.82258701 0.20812814 0.00412093 0.00000000
0.92231879 0.87090458 -0.00216432 0.00000000
2.66221541 1.51477777 0.00162608 0.00000000
2.89671487 0.87063573 -0.00162856 0.00000000
1.97844255 0.29873758 -0.00075871 0.00000000
4.07238092 1.47139664 -0.00182424 0.00000000
1.42988852 0.19194699 -0.00115248 0.00000000
3.40234495 0.39035578 0.00207476 0.00000000
1.85943161 1.27749905 0.00176448 0.00000000
2.12018656 1.78701742 -0.00070195 0.00000000
0.95176094 0.38234780 0.00027723 0.00000000
0.56510072 0.37159647 0.00062664 0.00000000
0.98582551 0.94347905 0.00060267 0.00000000
3.18366434 0.21418641 -0.00200611 0.00000000
2.26446817 0.48047680 -0.00173073 0.00000000
1.28698786 0.32713820 -0.00089317 0.00000000
0.88945786 1.58763227 -0.00379989 0.00000000
3.26751999 0.27280414 -0.00150700 0.00000000
0.90306626 0.57301857 0.00146882 0.00000000
3.65848367 1.47150693 -0.00314544 0.00000000
3.74428104 1.45208719 -0.00234576 0.00000000
4.18784961 0.72721205 -0.00220471 0.00000000
3.35791875 0.44021916 0.00092827 0.00000000
1.51488924 0.09810015 -0.00423066 0.00000000
3.32238993 0.73673631 0.00181881 0.00000000
2.96666102 0.52253417 0.00027182 0.00000000
0.52474351 1.51418206 0.00066903 0.00000000
3.31575565 1.89231725 0.00418472 0.00000000
0.51764714 0.45879276 0.00224079 0.00000000
3.32421195 1.60240893 -0.00133071 0.00000000
0.84366206 0.91121399 -0.00059341 0.00000000
2.06679079 0.14020549 -0.00018603 0.00000000
0.74406862 1.39331104 -0.00383748 0.00000000
1.42821008 0.71907609 0.00139824 0.00000000
4.17255210 0.16097106 -0.00191751 0.00000000
3.36796110 1.13201179 -0.00231023 0.00000000
2.12127593 1.50914575 0.00155315 0.00000000
2.01720851 1.77674234 0.00151225 0.00000000
2.04897264 1.43171222 -0.00103890 0.00000000
3.05390497 1.39072460 -0.00250572 0.00000000
1.47171824 0.43007366 0.00007046 0.00000000
3.43974602 0.57669949 0.00065054 0.00000000
1.86930069 1.61638941 -0.00182825 0.00000000
4.11674513 1.82328313 0.00045488 0.00000000
1.17949570 0.45302144 0.00164591 0.00000000
3.59038781 1.26871988 -0.00045394 0.00000000
3.17190290 0.46506786 0.00130140 0.00000000
3.79637129 1.57937031 0.00081964 0.00000000
1.29473768 0.36668969 0.00138668 0.00000000
3.86997963 1.90352788 -0.00155887 0.00000000
3.09981382 1.77663722 0.00024710 0.00000000
0.52101121 1.89846668 -0.00014395 0.00000000
1.05369689 1.20539934 0.00084085 0.00000000
0.92078345 0.49579077 -0.00122872 0.00000000
0.16557635 0.28368364 -0.00339171 0.00000000
2.40303858 1.89766431 -0.00291266 0.00000000
0.33121508 0.24392623 0.00243121 0.00000000
3.65518685 0.48281908 -0.00329915 0.00000000
2.08500582 0.42330753 -0.00171040 0.00000000
1.49392232 1.12296064 0.00015427 0.00000000
1.69277243 1.31419784 0.00019830 0.00000000
2.22505687 0.61332207 0.00294587 0.00000000
1.06278352 1.84867386 -0.00073575 0.00000000
4.08053733 0.86358725 -0.00136919 0.00000000
3.08061294 0.21698018 0.00085791 0.00000000
2.63331793 1.07056500 0.00163417 0.00000000
2.58929711 0.45777152 0.00238140 0.00000000
1.05845473 0.39787570 0.00255253 0.00000000
1.48365647 0.21386325 0.00024597 0.00000000
2.02555577 1.57695480 -0.00296573 0.00000000
2.75808936 0.08546794 0.00238374 0.00000000
2.51364053 1.53508052 -0.00227562 0.00000000
1.69932318 1.88936313 0.00005401 0.00000000
1.18425369 1.88917980 0.00109024 0.00000000
2.97989733 0.89947802 -0.00025033 0.00000000
3.50714832 1.11152612 -0.00091644 0.00000000
3.02431542 0.53789912 0.00132639 0.00000000
4.37030634 0.12224652 -0.00036043 0.00000000
0.12918531 0.32192391 0.00185057 0.00000000
3.08483136 1.13653234 -0.00075645 0.00000000
2.75817241 0.17799507 0.00247776 0.00000000
1.33126308 0.21854768 0.00116510 0.00000000
4.21975164 1.12933255 -0.00569753 0.00000000
2.89423640 1.27481724 0.00219329 0.00000000
0.80555913 0.49719017 0.00077134 0.00000000
2.74043196 0.95821798 0.00116212 0.00000000
1.89674785 0.94579670 -0.00095662 0.00000000
2.65654520 1.37267823 0.00026486 0.00000000
2.66053666 1.26432772 0.00373961 0.00000000
3.69838643 0.79348958 0.00034776 0.00000000
2.16809319 0.36193635 -0.00252467 0.00000000
1.18613520 1.22527545 0.00017135 0.00000000
2.12696233 0.50101002 0.00003412 0.00000000
1.85145713 1.12502241 -0.00089304 0.00000000
2.50948605 0.63429819 0.00316685 0.00000000
3.24454693 1.76183357 -0.00067977 0.00000000
0.17805386 1.75825476 0.00080946 0.00000000
1.63653112 0.44185789 0.00065373 0.00000000
3.82136611 1.79920473 -0.00034551 0.00000000
1.06972512 1.77090027 -0.00413177 0.00000000
2.99590117 0.37072716 0.00472709 0.00000000
1.58361075 0.50946464 0.00022175 0.00000000
2.86463814 1.59011609 0.00344372 0.00000000
4.16429538 0.35689531 0.00213199 0.00000000
4.12964527 0.99216074 -0.00035485 0.00000000
3.67601723 1.87610698 0.00181926 0.00000000
1.88109940 0.50427443 0.00333915 0.00000000
3.55048640 1.12982903 0.00533917 0.00000000
4.23037538 1.22745093 -0.00061008 0.00000000
4.10627201 1.69741099 -0.00503882 0.00000000
1.53275874 1.66998165 0.00001468 0.00000000
0.01021211 0.79495787 -0.00050806 0.00000000
0.72131599 0.12693451 -0.00296507 0.00000000
3.25033127 1.18192164 -0.00072555 0.00000000
3.17740643 0.07852383 0.00190147 0.00000000
3.10596941 0.67533220 0.00050740 0.00000000
3.41209144 0.05712796 0.00397025 0.00000000
1.80842621 1.88691394 -0.00116272 0.00000000
3.49884605 1.41557415 -0.00043134 0.00000000
2.20508403 0.77586586 -0.00044357 0.00000000
3.08223084 0.16131649 0.00176629 0.00000000
1.53985237 0.62043160 0.00212765 0.00000000
0.01439845 0.67416450 -0.00138965 0.00000000
1.97457505 0.44282366 -0.00125035 0.00000000
1.52910790 1.11746681 0.00115472 0.00000000
3.37807912 0.96010722 0.00016012 0.00000000
3.06732909 0.21036628 0.00218232 0.00000000
2.50050715 1.23798359 -0.00283961 0.00000000
2.57848507 1.24510159 -0.00175067 0.00000000
4.31082747 1.52813304 -0.00364201 0.00000000
3.67598708 0.72494944 -0.00162438 0.00000000
0.59881405 0.11446670 -0.00215464 0.00000000
4.21972426 0.67141107 -0.00022641 0.00000000
2.41049318 0.46722682 0.00181736 0.00000000
2.37879826 0.82379354 0.00011217 0.00000000
4.21538847 0.50906223 -0.00003776 0.00000000
3.72682737 1.31690129 0.00120111 0.00000000
2.52077583 0.13662113 0.00107204 0.00000000
3.63161141 1.50791731 0.00113806 0.00000000
1.38562657 0.12918697 -0.00251483 0.00000000
2.79516225 1.74266590 0.00105054 0.00000000
4.21119313 1.62962402 0.00076692 0.00000000
0.04613412 1.57740246 -0.00089198 0.00000000
1.45308409 0.87155157 -0.00188849 0.00000000
2.45911419 1.53172123 0.00064308 0.00000000
3.57809835 0.72782519 -0.00514706 0.00000000
2.29701954 0.47355272 -0.00054380 0.00000000
0.48452404 1.05919620 0.00298960 0.00000000
1.31957477 0.70294780 -0.00191277 0.00000000
4.15947717 1.72557704 0.00010706 0.00000000
2.46723304 1.73592907 -0.00562954 0.00000000
3.95445801 0.62289720 0.00291057 0.00000000
1.61927641 1.84632858 -0.00479738 0.00000000
2.01229938 0.26118275 0.00202677 0.00000000
0.43985132 0.80391824 0.00061090 0.00000000
3.91842224 0.83787529 -0.00172781 0.00000000
1.27302093 1.81587449 0.00283364 0.00000000
2.19357377 0.73944913 -0.00294300 0.00000000
2.12045294 1.87795227 0.00225680 0.00000000
3.52690645 0.71119433 0.00374039 0.00000000
2.79425353 1.09762791 -0.00120679 0.00000000
1.41912469 1.78512608 -0.00127107 0.00000000
0.76472215 0.43122919 -0.00288926 0.00000000
1.73776176 1.03637314 -0.00722859 0.00000000
3.42062526 1.04159567 0.00383700 0.00000000
0.28811780 1.29048142 -0.00466930 0.00000000
2.29986640 0.01760431 -0.00195734 0.00000000
3.50456997 0.90292452 -0.00274765 0.00000000
2.30004254 0.05198974 -0.00188476 0.00000000
3.85574162 0.68749384 0.00165916 0.00000000
2.07087568 1.66835813 0.00125968 0.00000000
3.09739334 0.73559076 -0.00102020 0.00000000
2.33404033 1.41005830 0.00508957 0.00000000
3.22160453 0.54034398 -0.00025736 0.00000000
2.92071248 0.39370766 0.00047118 0.00000000
0.21001169 1.81370393 -0.00376077 0.00000000
0.20833441 0.07909375 -0.00023656 0.00000000
4.08444460 1.73788518 -0.00053404 0.00000000
4.00460876 0.45586474 0.00151405 0.00000000
2.90221437 0.04883071 -0.00245587 0.00000000
4.28969105 0.08010102 0.00162836 0.00000000
1.83276786 0.05370969 -0.00025449 0.00000000
3.11977868 0.74761733 0.00064720 0.00000000
2.32388414 1.65213718 0.00293083 0.00000000
0.54446418 0.24589908 0.00175911 0.00000000
2.37564470 1.00946697 -0.00175145 0.00000000
0.83392860 0.40582837 -0.00055405 0.00000000
1.02996525 0.71517564 -0.00024622 0.00000000
0.61463344 0.52958074 -0.00113345 0.00000000
3.81323175 0.29783278 0.00007384 0.00000000
0.77588212 0.04004637 0.00096985 0.00000000
2.81305937 1.35107495 -0.00387567 0.00000000
0.13101419 0.00762308 -0.00446985 0.00000000
1.98134257 0.47448595 0.00357145 0.00000000
2.07533866 1.51064633 -0.00108454 0.00000000
2.69782912 1.12941857 -0.00018999 0.00000000
0.67874572 1.36350872 -0.00068712 0.00000000
4.21186085 1.35709993 -0.00087462 0.00000000
4.27771650 0.39691116 -0.00249177 0.00000000
1.43045902 0.37244609 -0.00038285 0.00000000
3.84268970 0.10068809 -0.00032595 0.00000000
1.50365549 1.83811638 -0.00193999 0.00000000
2.93380461 1.06581906 0.00009238 0.00000000
4.19292233 1.50344733 0.00210716 0.00000000
0.78341850 1.61936824 0.00235278 0.00000000
2.48135858 0.20974075 -0.00126063 0.00000000
2.19390567 0.76154102 0.00221729 0.00000000
2.91595479 1.48196913 0.00333625 0.00000000
3.90784149 1.49674154 -0.00279344 0.00000000
0.01245061 1.33990862 -0.00208964 0.00000000
1.70292359 1.30005546 0.00769229 0.00000000
2.32186598 1.26510503 -0.00245269 0.00000000
2.15131393 1.29932607 0.00576622 0.00000000
1.60492257 1.66869563 -0.00062945 0.00000000
1.22707845 1.22877415 -0.00008673 0.00000000
1.78442250 0.90738870 -0.00065709 0.00000000
1.33652810 0.01956159 0.00137722 0.00000000
4.23112678 1.53610575 0.00131499 0.00000000
2.84736031 0.63852329 -0.00140712 0.00000000
3.59958302 1.56573831 -0.00401033 0.00000000
4.33824300 1.55540398 0.00334740 0.00000000
2.21663964 0.58333327 0.00108173 0.00000000
1.82360658 0.26351683 0.00212229 0.00000000
3.00355947 1.27603004 0.00124202 0.00000000
4.18449587 1.32868715 0.00125431 0.00000000
2.41869670 0.97160802 0.00357963 0.00000000
1.68357512 0.06318385 0.00159621 0.00000000
0.00483465 0.40641249 -0.00180702 0.00000000
0.86977779 0.71145379 -0.00070022 0.00000000
2.40246285 1.57575825 -0.00503393 0.00000000
0.47022077 0.06923159 0.00137806 0.00000000
2.77745832 1.28714190 -0.00023739 0.00000000
0.66687038 1.67918267 -0.00454590 0.00000000
1.39823189 0.73832902 -0.00087038 0.00000000
1.65208717 0.57553048 0.00164823 0.00000000
4.17994358 0.76374117 -0.00042340 0.00000000
4.15253660 0.31426596 -0.00085958 0.00000000
0.81197952 0.77273169 0.00177734 0.00000000
1.92123479 1.26775419 0.00226975 0.00000000
4.14548082 0.91958920 0.00752655 0.00000000
0.03571874 1.04234192 -0.00037037 0.00000000
2.54233868 -0.00478464 -0.00181006 1.00000000
2.80731048 0.00116397 -0.00107908 1.00000000
0.80947787 0.00362417 0.00026632 1.00000000
1.22710207 -0.00077358 0.00055171 1.00000000
4.04352166 -0.00346780 -0.00134455 1.00000000
3.69321598 -0.00232395 -0.00327998 1.00000000
3.55014809 0.00087173 0.00190720 1.00000000
3.05085589 0.00212071 0.00441481 1.00000000
2.67626006 0.00182629 0.00144445 1.00000000
1.67101821 -0.00255315 0.00271224 1.00000000
2.00763691 -0.00010185 -0.00274251 1.00000000
0.77909804 -0.00209014 -0.00322742 1.00000000
0.52767634 0.00107302 -0.00054894 1.00000000
0.51770257 0.00280192 0.00631524 1.00000000
0.58730299 0.00333410 0.00282473 1.00000000
1.34536417 -0.00087128 0.00161148 1.00000000
0.62639274 0.00055503 0.00097472 1.00000000
2.47640922 -0.00099414 0.00280715 1.00000000
1.48997108 0.00284172 0.00258813 1.00000000
1.49958517 -0.00173326 -0.00169975 1.00000000
4.16574423 0.00156592 0.00175745 1.00000000
0.73979635 -0.00474326 0.00074875 1.00000000
1.39267661 0.00082263 0.00094693 1.00000000
0.08643417 0.00195203 0.00363293 1.00000000
0.82953781 -0.00010860 0.00141545 1.00000000
3.66912759 0.00180059 0.00159746 1.00000000
0.63440828 -0.00134119 -0.00027310 1.00000000
2.30227365 0.00495469 0.00010989 1.00000000
0.24757256 0.00287691 -0.00128639 1.00000000
1.14352284 -0.00110647 0.00046097 1.00000000
2.13185563 0.00041010 -0.00240941 1.00000000
3.82450298 -0.00559767 -0.00198167 1.00000000
3.24905268 -0.00301547 0.00116407 1.00000000
0.20269728 0.00232860 0.00499596 1.00000000
1.87054125 -0.00191363 0.00339425 1.00000000
2.68349138 0.00219947 0.00187281 1.00000000
1.22364738 -0.00081912 -0.00134055 1.00000000
2.60308442 0.00402849 0.00194558 1.00000000
3.17775671 -0.00058996 -0.00353008 1.00000000
0.74901383 -0.00021535 0.00181421 1.00000000
2.89246872 0.00392063 -0.00395550 1.00000000
3.39301831 -0.00090126 -0.00190201 1.00000000
2.59581381 -0.00100661 -0.00058398 1.00000000
3.28734147 -0.00380515 -0.00536919 1.00000000
0.88794741 -0.00114298 -0.00373154 1.00000000
0.72914941 0.00200682 -0.00081982 1.00000000
2.35350311 -0.00476988 0.00013353 1.00000000
0.41163465 0.00158866 -0.00031881 1.00000000
2.38550334 -0.00291189 0.00228417 1.00000000
2.20604825 0.00017190 -0.00327653 1.00000000
1.71389600 0.00165898 -0.00148223 1.00000000
2.37586978 -0.00060936 0.00640485 1.00000000
0.50821875 0.00132257 -0.00210667 1.00000000
3.16780942 -0.00008298 0.00284798 1.00000000
3.05901574 0.00302289 0.00143064 1.00000000
2.43574555 -0.00113617 0.00290073 1.00000000
1.43107839 0.00124595 0.00045962 1.00000000
3.00549328 -0.00137174 -0.00069945 1.00000000
3.42471422 0.00189815 0.00298048 1.00000000
0.66262577 0.00120179 -0.00142436 1.00000000
2.12971517 0.00369444 -0.00511838 1.00000000
3.89065434 0.00177428 0.00178970 1.00000000
1.53796868 -0.00009612 -0.00195604 1.00000000
3.48037369 0.00082507 -0.00143278 1.00000000
2.82167159 0.00140349 0.00205989 1.00000000
1.78949933 -0.00288175 0.00321333 1.00000000
1.92765615 0.00233915 0.00137140 1.00000000
0.71848775 0.00257507 -0.00087889 1.00000000
3.29736211 0.00035246 -0.00237718 1.00000000
3.45388693 0.00123678 -0.00489589 1.00000000
0.54736823 -0.00138366 -0.00115540 1.00000000
1.76515568 0.00017085 -0.00007384 1.00000000
2.06205770 -0.00378533 0.00293493 1.00000000
0.54154016 -0.00108897 -0.00497212 1.00000000
3.08798041 0.00131554 -0.00013474 1.00000000
0.37149106 -0.00051945 0.00414039 1.00000000
1.69751358 0.00061744 -0.00432350 1.00000000
1.50161421 -0.00283496 -0.00081850 1.00000000
2.41158429 0.00390733 0.00084200 1.00000000
3.49735018 0.00071644 0.00110531 1.00000000
2.50013724 0.00795941 0.00443665 1.00000000
0.01568914 -0.00192315 0.00009053 1.00000000
0.98615235 -0.00292240 -0.00063030 1.00000000
0.52015931 0.00151375 -0.00162606 1.00000000
0.93397004 0.00034620 -0.00156379 1.00000000
2.84727189 0.00067459 -0.00059036 1.00000000
0.17442060 0.00018307 -0.00273852 1.00000000
3.43701961 0.00030781 -0.00131975 1.00000000
3.37183395 -0.00116183 -0.00326457 1.00000000
0.17437108 0.00316450 -0.00375351 1.00000000
0.08596995 -0.00108429 0.00293605 1.00000000
2.63943537 -0.00047647 0.00276875 1.00000000
3.72101569 0.00079237 -0.00164725 1.00000000
0.01474135 0.00111209 0.00229210 1.00000000
1.81936365 0.00314007 0.00124599 1.00000000
2.57048233 -0.00311759 0.00092443 1.00000000
4.08478019 -0.00147277 0.00016060 1.00000000
3.92725990 0.00393248 0.00069237 1.00000000
1.21594300 -0.00144910 -0.00509255 1.00000000
3.18441074 0.00332371 -0.00060800 1.00000000
3.54705265 -0.00507130 -0.00121254 1.00000000
0.61400384 0.00037443 -0.00317228 1.00000000
0.19523623 0.00094407 0.00300060 1.00000000
0.40118751 -0.00168861 -0.00151800 1.00000000
3.43262985 -0.00286766 -0.00218654 1.00000000
0.60602772 -0.00295386 -0.00028367 1.00000000
2.53694071 -0.00167994 -0.00045701 1.00000000
1.92630680 0.00426888 0.00221372 1.00000000
2.83916077 -0.00185009 -0.00062012 1.00000000
3.65821259 -0.00079783 0.00025421 1.00000000
1.79345316 -0.00120850 0.00381574 1.00000000
0.12444000 -0.00260567 -0.00028789 1.00000000
2.76858337 0.00341431 -0.00245655 1.00000000
3.80545799 -0.00130147 -0.00281445 1.00000000
3.53943885 0.00455330 0.00108486 1.00000000
1.41436006 -0.00107394 0.00095405 1.00000000
2.45677121 0.00095099 0.00068409 1.00000000
1.82359144 0.00053441 -0.00062607 1.00000000
0.89582851 0.00116481 -0.00172064 1.00000000
2.11417686 -0.00140029 -0.00100557 1.00000000
0.37834650 -0.00123821 0.00125102 1.00000000
0.11960075 -0.00275965 -0.00230246 1.00000000
0.17279783 0.00301557 0.00213891 1.00000000
3.70245989 0.00336556 0.00057220 1.00000000
0.55345438 -0.00354751 0.00344099 1.00000000
1.14951401 -0.00065997 0.00036417 1.00000000
0.08488763 -0.00232375 -0.00494324 1.00000000
3.26632894 0.00147936 -0.00225407 1.00000000
2.32848757 -0.00788476 -0.00167762 1.00000000
1.32105218 -0.00171177 -0.00246460 1.00000000
0.94148877 -0.00010991 0.00342632 1.00000000
1.60933138 -0.00256556 0.00396666 1.00000000
3.39230277 -0.00130651 0.00017945 1.00000000
0.05784445 0.00303940 0.00163931 1.00000000
3.46866016 -0.00340872 0.00039972 1.00000000
2.67491698 0.00023516 -0.00236687 1.00000000
0.51538508 -0.00132898 -0.10100844 0.00000000
0.79431422 0.00191578 -0.02304109 0.00000000
1.33643500 0.00104782 -0.06537363 0.00000000
3.74706646 0.00687253 -0.17851260 0.00000000
0.36585729 -0.00014520 -0.14456026 0.00000000
2.85255509 0.00031480 -0.07771179 0.00000000
0.42096712 0.00299102 -0.10930451 0.00000000
1.38647541 -0.00296199 -0.05256240 0.00000000
1.01962676 -0.00113202 -0.08630593 0.00000000
0.50300221 0.00135909 -0.15864258 0.00000000
2.33035094 0.00780927 -0.19686640 0.00000000
0.12225118 0.00479593 -0.12341779 0.00000000
1.46194121 -0.00086455 -0.06442694 0.00000000
3.84401677 0.00077584 -0.12811449 0.00000000
1.07766826 0.00030386 -0.13218244 0.00000000
3.45964197 0.00118945 -0.07630914 0.00000000
0.31018621 0.00118309 -0.17520212 0.00000000
0.72928166 0.00521121 -0.07626116 0.00000000
0.92919057 0.00147068 -0.12771186 0.00000000
2.02352070 0.00325080 -0.01294573 0.00000000
3.11457145 0.00485056 -0.15760073 0.00000000
4.26288942 0.00482293 -0.13773310 0.00000000
0.24989447 0.00009446 -0.11591810 0.00000000
0.09930192 -0.00056096 -0.01318792 0.00000000
3.69530464 -0.00092501 -0.15332749 0.00000000
0.28861874 -0.00063529 -0.12415183 0.00000000
0.85794948 0.00288089 -0.17358803 0.00000000
2.79673262 0.00181961 -0.03826938 0.00000000
0.62036287 0.00634681 -0.06423094 0.00000000
2.87689682 -0.00020001 -0.19726257 0.00000000
0.84991090 0.00130703 -0.18363787 0.00000000
3.59755751 -0.00013302 -0.02813247 0.00000000
1.37991280 -0.00010812 -0.15962301 0.00000000
1.87026891 0.00260177 -0.01140537 0.00000000
4.36985559 -0.00333098 -0.00449983 0.00000000
1.34278864 0.00319055 -0.14931383 0.00000000
0.50564216 0.00240919 -0.18854465 0.00000000
1.18304710 0.00243946 -0.07131262 0.00000000
0.24681896 0.00089137 -0.18581328 0.00000000
0.87382520 -0.00023946 -0.16992370 0.00000000
3.47351301 -0.00205766 -0.05363975 0.00000000
1.19352839 0.00448704 -0.18200284 0.00000000
2.92736271 0.00119732 -0.03266804 0.00000000
0.66138107 0.00061277 -0.10894390 0.00000000
2.54742659 0.00252991 -0.12991438 0.00000000
1.28089187 -0.00195172 -0.04488503 0.00000000
2.56972054 0.00244463 -0.02123733 0.00000000
0.23068739 0.00021372 -0.06723456 0.00000000
4.01100767 0.00236349 -0.01995548 0.00000000
2.53956904 0.00115758 -0.06386202 0.00000000
3.12469052 0.00516601 -0.10494181 0.00000000
3.97871466 0.00670826 -0.19709741 0.00000000
2.34405916 0.00157689 -0.03140154 0.00000000
3.40654993 0.00206572 -0.02946585 0.00000000
2.97398465 0.00281483 -0.06065956 0.00000000
3.60108829 0.00339686 -0.10768020 0.00000000
3.00276100 0.00522764 -0.17580846 0.00000000
2.91990928 0.00460309 -0.12140528 0.00000000
2.88682822 0.00168542 -0.08634486 0.00000000
1.52765594 0.00600826 -0.18223835 0.00000000
2.56118061 0.00381941 -0.20229042 0.00000000
3.60610526 -0.00210454 -0.05677553 0.00000000
4.26275845 -0.00159697 -0.05209146 0.00000000
0.27769694 -0.00284432 -0.02169262 0.00000000
3.68849974 0.00194986 -0.14329992 0.00000000
1.16615227 -0.00023487 -0.15097718 0.00000000
1.85811461 0.00154615 -0.02610337 0.00000000
3.85574368 -0.00145771 -0.03992336 0.00000000
1.62819334 0.00252878 -0.15601701 0.00000000
0.31491781 0.00009481 -0.04418251 0.00000000
1.11240301 -0.00013173 -0.04889804 0.00000000
0.61240691 0.00806806 -0.16746556 0.00000000
3.43344202 0.00025314 -0.00611431 0.00000000
1.05303810 0.00113663 -0.10663821 0.00000000
2.50879067 0.00121881 -0.01969863 0.00000000
2.81370488 0.00084184 -0.03159974 0.00000000
3.65578143 0.00159896 -0.11876825 0.00000000
1.83386465 0.00087375 -0.01532090 0.00000000
2.42437784 0.00501683 -0.18522137 0.00000000
2.04770489 0.00261263 -0.06890010 0.00000000
4.28043388 0.00171579 -0.00802462 0.00000000
1.14953013 -0.00366762 -0.01210043 0.00000000
1.56600902 0.00510706 -0.17179157 0.00000000
1.09055653 0.00003872 -0.13023128 0.00000000
4.33449038 0.00014100 -0.04410535 0.00000000
2.14088637 -0.00374008 -0.10925321 0.00000000
0.81294849 0.00262397 -0.00399890 0.00000000
3.39681803 0.00074748 -0.20378066 0.00000000
0.28733619 0.00448652 -0.12534903 0.00000000
1.02465493 0.00413573 -0.13715910 0.00000000
3.93766782 -0.00137527 -0.17360357 0.00000000
3.88149345 -0.00066319 -0.15140715 0.00000000
3.00874760 0.00110517 -0.12612276 0.00000000
0.66041666 0.00416778 -0.19350575 0.00000000
3.45878238 0.00192345 -0.17678882 0.00000000
4.33271375 -0.00038006 -0.16726911 0.00000000
1.94694906 -0.00119553 -0.00760205 0.00000000
0.00853358 0.00178043 -0.19108153 0.00000000
3.26495328 0.00113889 -0.13931824 0.00000000
1.42207013 0.00236616 -0.10104468 0.00000000
0.53886152 -0.00029266 -0.04216550 0.00000000
2.46430459 -0.00326635 -0.18078556 0.00000000
2.17640860 -0.00052693 -0.11535396 0.00000000
0.94511306 0.00227551 -0.17858316 0.00000000
1.50924715 0.00250574 -0.03956798 0.00000000
3.49832859 0.00159421 -0.14502561 0.00000000
2.77320305 0.00511046 -0.08074883 0.00000000
3.90905642 0.00417455 -0.17066179 0.00000000
3.93120498 0.00069833 -0.07729066 0.00000000
2.95485704 -0.00106316 -0.02930890 0.00000000
3.60668781 0.00346982 -0.04284592 0.00000000
2.21706537 0.00165236 -0.00870043 0.00000000
1.28266303 0.00448535 -0.13998776 0.00000000
4.17009874 -0.00166979 -0.15507535 0.00000000
1.95198533 -0.00013078 -0.08029804 0.00000000
0.45909092 -0.00205245 -0.04781757 0.00000000
3.46132218 0.00350125 -0.11004840 0.00000000
0.68344015 0.00282225 -0.16636215 0.00000000
2.21936918 -0.00227019 -0.07058798 0.00000000
3.32413842 0.00420536 -0.07934645 0.00000000
1.95133448 -0.00123153 -0.11404217 0.00000000
0.27885450 0.00035114 -0.13453359 0.00000000
0.87679863 0.00149612 -0.04779447 0.00000000
3.58126060 0.00008933 -0.01237869 0.00000000
1.19809689 -0.00001666 -0.06349884 0.00000000
2.78822045 0.00145695 -0.19894818 0.00000000
1.05735009 0.00144010 -0.14008906 0.00000000
2.51788764 -0.00025465 -0.11221552 0.00000000
1.08469554 0.00046258 -0.01897536 0.00000000
3.73402533 0.00237353 -0.08793221 0.00000000
4.14838512 0.00132021 -0.00595457 0.00000000
0.79259813 0.00130828 -0.14662600 0.00000000
3.35162893 0.00077172 -0.09987699 0.00000000
2.45032500 -0.00053341 -0.03612996 0.00000000
0.68327714 0.00279549 -0.06096333 0.00000000
0.20541131 0.00134943 -0.08669041 0.00000000
3.38874505 -0.00001788 -0.11740559 0.00000000
1.59954123 -0.00479872 -0.07224652 0.00000000
1.46185245 -0.00013225 -0.10779585 0.00000000
3.00726659 0.00102918 -0.18390881 0.00000000
2.68793584 -0.00077251 -0.02652890 0.00000000
0.70160642 0.00099089 -0.09222324 0.00000000
0.34437813 0.00067063 -0.04257041 0.00000000
3.87370514 0.00540099 -0.18124634 0.00000000
1.48071294 0.00527353 -0.01470381 0.00000000
2.72656886 0.00019602 -0.10784065 0.00000000
0.94563654 0.00149107 -0.14031525 0.00000000
1.37535651 0.00108883 -0.00159971 0.00000000
1.49808370 0.00050459 -0.00844274 0.00000000
1.57660791 0.00075170 -0.03267618 0.00000000
1.09413610 -0.00155210 -0.11706777 0.00000000
1.36518779 -0.00084684 -0.00870441 0.00000000
1.90141019 0.00208794 -0.03530235 0.00000000
0.40888240 0.00343699 -0.12107409 0.00000000
0.92819650 -0.00328341 -0.05842845 0.00000000
0.18344152 -0.00208937 -0.15785315 0.00000000
4.13905920 -0.00121415 -0.12896176 0.00000000
0.44834215 -0.00168236 -0.00236318 0.00000000
3.91700652 0.00495678 -0.17449183 0.00000000
4.13202277 0.00046928 -0.11373695 0.00000000
3.09517146 0.00074854 -0.04462631 0.00000000
0.78338541 0.00233403 -0.20469066 0.00000000
0.07410118 -0.00008978 -0.02874856 0.00000000
2.41286703 0.00302321 -0.19323414 0.00000000
2.60546668 0.00468712 -0.18826821 0.00000000
3.12658674 0.00372351 -0.17834890 0.00000000
4.07412194 0.00490406 -0.18980703 0.00000000
1.63893739 0.00162704 -0.12023443 0.00000000
3.18808758 0.00224520 -0.01516734 0.00000000
3.74502691 0.00330522 -0.12109985 0.00000000
2.37374199 0.00530658 -0.14603130 0.00000000
2.25196116 0.00181310 -0.06799793 0.00000000
2.37763747 0.00173215 -0.19771538 0.00000000
3.48988656 0.00325252 -0.17647065 0.00000000
3.15218299 -0.00002791 -0.09303252 0.00000000
2.12180214 0.00001947 -0.19701326 0.00000000
3.16748514 -0.00009644 -0.02269108 0.00000000
1.12116197 -0.00442803 -0.07924724 0.00000000
3.78334842 0.00260414 -0.15954430 0.00000000
1.38179707 -0.00269586 -0.07806743 0.00000000
1.21242473 -0.00003339 -0.19613887 0.00000000
2.45543570 0.00068297 -0.08333459 0.00000000
3.69045417 0.00026326 -0.04487875 0.00000000
1.16086231 -0.00010118 -0.04824659 0.00000000
0.19914526 0.00336761 -0.09769514 0.00000000
4.35659965 -0.00036012 -0.07321772 0.00000000
2.60468534 -0.00191435 -0.00842995 0.00000000
3.36394663 0.00834748 -0.18948024 0.00000000
0.57529594 0.00221399 -0.12488859 0.00000000
4.24064865 0.00288147 -0.18358007 0.00000000
2.55350873 -0.00228247 -0.02503982 0.00000000
4.21789780 0.00400547 -0.01115597 0.00000000
1.79430551 -0.00129361 -0.17448654 0.00000000
3.06982263 0.00065512 -0.17192268 0.00000000
0.69933904 0.00654083 -0.02640040 0.00000000
2.47358507 0.00315786 -0.19461703 0.00000000
0.19413309 0.00383941 -0.11273209 0.00000000
2.31701716 -0.00287703 -0.00865310 0.00000000
3.15713843 0.00187651 -0.00095930 0.00000000
0.62179622 0.00441535 -0.19261941 0.00000000
0.74521763 0.00746478 -0.03987764 0.00000000
3.03635287 0.00195496 -0.05678647 0.00000000
0.78700828 0.00640123 -0.17252483 0.00000000
0.67437932 0.00102969 -0.04193135 0.00000000
2.78093146 0.00073842 -0.01046072 0.00000000
4.05669039 -0.00216507 -0.03911950 0.00000000
1.65288559 0.00102956 -0.18360435 0.00000000
3.46755920 0.00419265 -0.09911177 0.00000000
2.71224921 0.00283493 -0.12301605 0.00000000
3.20130075 -0.00113082 -0.05814439 0.00000000
3.78547959 0.00553960 -0.04030165 0.00000000
1.26959756 0.00433202 -0.19600973 0.00000000
1.11911413 -0.00167615 -0.17365051 0.00000000
3.98415675 0.00591703 -0.17613707 0.00000000
3.86416360 0.00207213 -0.00835904 0.00000000
0.46875682 -0.00093346 -0.05598951 0.00000000
2.91622603 0.00270464 -0.10680437 0.00000000
4.24091301 0.00302386 -0.00415747 0.00000000
3.39912348 0.00444159 -0.14741304 0.00000000
2.63806602 0.00603217 -0.19016552 0.00000000
1.90670573 -0.00050103 -0.16491843 0.00000000
3.10768942 0.00271731 -0.18653634 0.00000000
1.36223266 0.00236891 -0.12495045 0.00000000
3.99367133 -0.00334029 -0.01715433 0.00000000
4.35073071 0.00401899 -0.18378749 0.00000000
0.84089189 0.00401719 -0.13440892 0.00000000
1.27847800 -0.00402562 -0.13297390 0.00000000
2.56590881 0.00232958 -0.08092161 0.00000000
4.15508467 0.00419123 -0.14977033 0.00000000
1.50023983 0.00155596 -0.11898860 0.00000000
3.19250445 0.00502527 -0.10645907 0.00000000
0.79500017 0.00010088 -0.11937855 0.00000000
1.03423606 0.00568729 -0.16306662 0.00000000
4.04211375 0.00171460 -0.03313083 0.00000000
3.01083447 -0.00086753 -0.01482908 0.00000000
1.09070198 0.00094586 -0.07528942 0.00000000
3.21754322 0.00320868 -0.10424209 0.00000000
2.35623898 0.00299010 -0.17510499 0.00000000
0.19534091 0.00168971 -0.07473513 0.00000000
2.06829555 0.00373846 -0.08161405 0.00000000
2.76341857 0.00424631 -0.19290125 0.00000000
3.25648377 -0.00002588 -0.19870679 0.00000000
2.82107623 0.00333082 -0.14436725 0.00000000
3.48303256 0.00029544 -0.06704480 0.00000000
2.02017321 -0.00199798 -0.12965488 0.00000000
3.62905087 0.00212987 -0.08703591 0.00000000
3.67959819 -0.00100685 -0.01895849 0.00000000
3.96306822 0.00215549 -0.10492753 0.00000000
3.72018778 -0.00291351 -0.07835888 0.00000000
0.55832642 0.00104872 -0.18161447 0.00000000
1.54937358 0.00095241 -0.04607339 0.00000000
0.04385089 0.00063730 -0.04309462 0.00000000
1.12172006 0.00422173 -0.17685166 0.00000000
0.05618792 0.00295053 -0.13316050 0.00000000
2.17686772 0.00597412 -0.19379607 0.00000000
3.36626365 0.00557405 -0.15144928 0.00000000
3.76364669 0.00055471 -0.13232848 0.00000000
1.12740436 0.00127580 -0.02740046 0.00000000
2.99797429 0.00252607 -0.01747791 0.00000000
0.33166504 -0.00213183 -0.17344319 0.00000000
2.05182965 0.00103923 -0.04598075 0.00000000
2.72632864 0.00077239 -0.09187481 0.00000000
2.59674316 -0.00001296 -0.18831671 0.00000000
4.13511716 0.00226560 -0.19577232 0.00000000
1.28370393 -0.00269021 -0.06859800 0.00000000
1.72046729 0.00138602 -0.13668422 0.00000000
3.54610892 -0.00010671 -0.16842459 0.00000000
1.95348685 -0.00020607 -0.14170846 0.00000000
2.08711073 0.00161625 -0.16985545 0.00000000
1.52591243 0.00325107 -0.04397950 0.00000000
3.78876177 0.00165278 -0.05535683 0.00000000
3.02824425 0.00144276 -0.01390792 0.00000000
3.60105538 0.00564410 -0.08987555 0.00000000
2.00378687 0.00856111 -0.17268009 0.00000000
3.67921037 0.00074211 -0.00986453 0.00000000
4.08841890 -0.00101017 -0.17615840 0.00000000
2.37352532 -0.00190366 -0.15361187 0.00000000
2.59595432 0.00018415 -0.09944256 0.00000000
3.87099858 0.00035217 -0.11994033 0.00000000
3.12981894 0.00020732 -0.19393812 0.00000000
0.75847789 0.00226805 -0.20003974 0.00000000
0.02849486 0.00269014 -0.06293940 0.00000000
3.38932330 0.00541976 -0.05964048 0.00000000
0.06753892 0.00278111 -0.06266263 0.00000000
0.08995443 0.00354215 -0.13294872 0.00000000
4.05470855 0.00278306 -0.07894150 0.00000000
1.01638405 -0.00199403 -0.02385889 0.00000000
0.63562772 -0.00146203 -0.06945061 0.00000000
4.15255305 0.00174718 -0.15509946 0.00000000
0.84679446 0.00288787 -0.03840176 0.00000000
2.52984902 -0.00094134 -0.05739480 0.00000000
3.71372083 -0.00161002 -0.16869026 0.00000000
2.98471014 0.00289366 -0.05824038 0.00000000
0.60482909 0.00570241 -0.05671302 0.00000000
4.09664285 -0.00076097 -0.17625911 0.00000000
2.48133051 0.00387865 -0.11592447 0.00000000
3.82060994 0.00164830 -0.03918183 0.00000000
0.62716971 0.00336092 -0.05069687 0.00000000
0.55488704 0.00034966 -0.18918146 0.00000000
1.64301160 0.00448972 -0.09375211 0.00000000
0.63713957 0.00053100 -0.03854030 0.00000000
4.07818402 -0.00074222 -0.19925765 0.00000000
1.18176130 0.00127211 -0.13703280 0.00000000
1.31189759 0.00142307 -0.00019235 0.00000000
4.07871937 -0.00318168 -0.17314402 0.00000000
2.62167408 0.00360136 -0.12139643 0.00000000
3.03846798 0.00413636 -0.05576285 0.00000000
3.30554252 0.00355520 -0.06165361 0.00000000
1.22239298 0.00340468 -0.03877188 0.00000000
3.34468569 -0.00559516 -0.14258444 0.00000000
1.65702443 0.00121710 -0.20455225 0.00000000
4.23715189 -0.00016979 -0.14990232 0.00000000
0.76912358 0.00547975 -0.15734765 0.00000000
0.21331238 0.00078184 -0.05190072 0.00000000
1.14672647 0.00519844 -0.08161428 0.00000000
3.51692972 -0.00075483 -0.10402243 0.00000000
2.62931628 -0.00127409 -0.03515046 0.00000000
0.40252458 0.00692007 -0.13127365 0.00000000
3.39334451 -0.00155042 -0.01945936 0.00000000
4.13640166 0.00244650 -0.09527225 0.00000000
1.64281795 0.00445291 -0.15013621 0.00000000
2.29264183 -0.00041133 -0.09733733 0.00000000
4.34680089 0.00358230 -0.10914030 0.00000000
3.21700221 0.00532433 -0.16845870 0.00000000
4.36114483 -0.00104628 -0.05721148 0.00000000
3.80298984 0.00181705 -0.20026391 0.00000000
4.04558942 0.00371384 -0.15076837 0.00000000
1.70817370 0.00521884 -0.16087166 0.00000000
0.85900204 0.00101743 -0.14491336 0.00000000
0.61091829 0.00030883 -0.18075298 0.00000000
1.53699163 0.00429301 -0.19393124 0.00000000
4.27722419 0.00603265 -0.19201107 0.00000000
2.84403862 0.00400235 -0.16315004 0.00000000
3.04933512 0.00086036 -0.15923505 0.00000000
2.15005707 -0.00128053 -0.13190184 0.00000000
3.89747137 0.00235825 -0.11563693 0.00000000
1.95397270 0.00007733 -0.06924942 0.00000000
0.08378196 0.00052599 -0.03862364 0.00000000
2.82687662 0.00314944 -0.16761300 0.00000000
2.71686655 -0.00119445 -0.12752086 0.00000000
1.75466370 0.00131471 -0.16062784 0.00000000
1.59348658 -0.00222862 -0.00706295 0.00000000
3.41054407 -0.00193658 -0.04247871 0.00000000
3.63504571 0.00517475 -0.06929662 0.00000000
0.51099094 0.00073001 -0.20410081 0.00000000
3.03805703 0.00482788 -0.08388134 0.00000000
2.02415925 0.00474477 -0.12168690 0.00000000
1.59123610 0.00031168 -0.06339671 0.00000000
3.48529918 -0.00075221 -0.15580143 0.00000000
3.20937354 0.00126901 -0.00839745 0.00000000
3.08206499 -0.00756519 -0.05284367 0.00000000
0.40842315 0.00157857 -0.07876282 0.00000000
2.40101539 0.00180550 -0.10215836 0.00000000
0.44885762 0.00002744 -0.02470642 0.00000000
0.72710974 0.00144096 -0.15212671 0.00000000
2.31209938 0.00263286 -0.02439895 0.00000000
2.24926838 0.00388962 -0.20310296 0.00000000
2.31209055 0.00635419 -0.11633078 0.00000000
2.66842294 0.00449381 -0.03960128 0.00000000
3.26277857 0.00263157 -0.03751029 0.00000000
0.62005146 0.00219716 -0.13046659 0.00000000
2.60825366 0.00045114 -0.01481848 0.00000000
2.14415905 0.00495795 -0.11863955 0.00000000
3.00626297 0.00561515 -0.18857066 0.00000000
1.45880114 -0.00352270 -0.11579893 0.00000000
1.42975886 0.00378884 -0.20482516 0.00000000
4.21348412 0.00180524 -0.08693376 0.00000000
0.53272354 0.00495655 -0.01922492 0.00000000
3.14509529 0.00227011 -0.19111686 0.00000000
1.52348514 -0.00165801 -0.06356551 0.00000000
1.09518723 0.00155133 -0.05209339 0.00000000
0.65193641 0.00451319 -0.16634202 0.00000000
2.82765737 0.00021227 -0.18704488 0.00000000
0.18408721 0.00004535 -0.04523401 0.00000000
2.36596376 -0.00378148 -0.00332250 0.00000000
2.96936722 0.00380877 -0.12670804 0.00000000
1.24621373 0.00245673 -0.09380182 0.00000000
2.45912236 0.00113597 -0.06057652 0.00000000
0.26828262 0.00429142 -0.10058185 0.00000000
0.67506921 0.00455099 -0.19515982 0.00000000
3.82191690 0.00235081 -0.18234659 0.00000000
0.42348831 0.00239358 -0.01853254 0.00000000
3.16716756 0.00204402 -0.09613692 0.00000000
1.20587936 0.00293873 -0.14128400 0.00000000
1.91725332 0.00702619 -0.15748050 0.00000000
0.02826807 -0.00070352 -0.06966986 0.00000000
1.75317558 0.00144227 -0.03225189 0.00000000
2.92399674 0.00517708 -0.18779374 0.00000000
0.03688009 -0.00118174 -0.09123114 0.00000000
1.89950051 -0.00161773 -0.08997049 0.00000000
1.13109850 0.00077809 -0.06838979 0.00000000
0.60424028 0.00194469 -0.03861472 0.00000000
4.30974486 0.00350949 -0.10032677 0.00000000
3.63745375 0.00369551 -0.19841565 0.00000000
1.67824399 -0.00041033 -0.02203645 0.00000000
2.98274126 0.00703066 -0.20360310 0.00000000
3.78865843 0.00073973 -0.09828449 0.00000000
0.39635608 -0.00020947 -0.13977846 0.00000000
0.73854921 0.00092227 -0.03035595 0.00000000
0.87984327 0.00053842 -0.01925732 0.00000000
3.67062820 -0.00214324 -0.06675393 0.00000000
4.16327843 0.00086793 -0.07015563 0.00000000
2.78272248 0.00250620 -0.03752518 0.00000000
2.00923911 -0.00140415 -0.18428973 0.00000000
4.34678135 -0.00081203 -0.19864194 0.00000000
3.36885811 0.00136501 -0.04471091 0.00000000
1.72802088 0.00248739 -0.00031897 0.00000000
2.35401140 -0.00225612 -0.15747226 0.00000000
0.45889369 0.00256114 -0.01538406 0.00000000
2.52028250 -0.00072351 -0.08383490 0.00000000
1.65330099 -0.00229069 -0.00719034 0.00000000
2.37174696 -0.00068748 -0.02541059 0.00000000
2.17023662 0.00311072 -0.18106825 0.00000000
2.93569298 0.00115844 -0.10119377 0.00000000
4.25834809 0.00549779 -0.15608383 0.00000000
3.30600021 -0.00083577 -0.17429612 0.00000000
3.79299837 0.00033155 -0.05260834 0.00000000
3.07481545 0.00023585 -0.05983405 0.00000000
0.23378424 0.00381210 -0.07936904 0.00000000
2.51129762 -0.00268974 -0.13691938 0.00000000
2.91190825 -0.00322194 -0.07096965 0.00000000
2.17988328 0.00349202 -0.12400532 0.00000000
2.93898906 -0.00021541 -0.08180566 0.00000000
2.16609563 0.00332059 -0.17185930 0.00000000
1.19174070 0.00178301 -0.08048221 0.00000000
0.85946469 -0.00171193 -0.17991591 0.00000000
3.55180202 0.00069793 -0.04189806 0.00000000
2.17297865 0.00057971 -0.12061449 0.00000000
0.22242927 0.00188732 -0.07064121 0.00000000
2.39636334 0.00270619 -0.09656196 0.00000000
3.71518672 0.00562058 -0.06695992 0.00000000
1.75874289 -0.00350253 -0.04346566 0.00000000
3.53295955 -0.00065969 -0.06303136 0.00000000
1.98088871 0.00274132 -0.06999596 0.00000000
3.55710792 0.00356930 -0.09189675 0.00000000
1.48622502 0.00089340 -0.05032753 0.00000000
0.96555196 0.00111235 -0.17182779 0.00000000
3.19331683 0.00063920 -0.06620836 0.00000000
0.92228552 0.00429969 -0.15728873 0.00000000
1.25882188 0.00173461 -0.17290273 0.00000000
0.34182722 0.00202592 -0.05785030 0.00000000
0.21980480 0.00175713 -0.11165616 0.00000000
3.02179082 0.00203561 -0.00686054 0.00000000
4.22042555 -0.00044378 -0.08209038 0.00000000
2.16301846 0.00335787 -0.06403752 0.00000000
1.25828831 0.00059435 -0.03733866 0.00000000
1.72089159 0.00561537 -0.12072809 0.00000000
2.62927205 0.00076132 -0.11714836 0.00000000
1.17360970 0.00442304 -0.20395597 0.00000000
3.06888572 -0.00178812 -0.02597139 0.00000000
1.57326497 0.00103559 -0.03946426 0.00000000
0.16312528 0.00496518 -0.19527153 0.00000000
0.17664680 -0.00116450 -0.11649829 0.00000000
3.91232141 -0.00190380 -0.02443755 0.00000000
2.63981406 0.00520129 -0.18618085 0.00000000
1.30047491 -0.00003721 -0.00420279 0.00000000
2.78408679 -0.00055450 -0.05231124 0.00000000
0.50790349 0.00169739 -0.12849744 0.00000000
1.69563199 -0.00059516 -0.10810708 0.00000000
1.71962525 0.00522371 -0.06273287 0.00000000
0.67490873 -0.00107269 -0.11128132 0.00000000
2.69817038 0.00095098 -0.12901027 0.00000000
0.82893679 0.00007861 -0.00429300 0.00000000
3.30635489 0.00052361 -0.16755080 0.00000000
2.15147998 -0.00003769 -0.04358612 0.00000000
0.91613305 0.00166463 -0.11050319 0.00000000
0.88848403 -0.00062078 -0.08279630 0.00000000
0.50575087 0.00245497 -0.13151667 0.00000000
4.11920677 -0.00127549 -0.00971750 0.00000000
1.58847386 0.00080440 -0.04971260 0.00000000
1.68752796 0.00138556 -0.15591865 0.00000000
0.26666170 0.00775283 -0.08687192 0.00000000
2.66517214 0.00261360 -0.17858691 0.00000000
2.98043847 -0.00059961 -0.00739497 0.00000000
0.03419070 0.00497142 -0.19232608 0.00000000
2.40553579 0.00622580 -0.03926354 0.00000000
1.68719486 0.00433406 -0.16759674 0.00000000
3.99840752 0.00136791 -0.04761396 0.00000000
3.84330117 -0.00138821 -0.19408450 0.00000000
1.92958333 0.00172455 -0.08089971 0.00000000
4.10681482 0.00022974 -0.08445046 0.00000000
0.41807295 -0.00158599 -0.03692708 0.00000000
