1.09394042 1.42646937 -0.00179292 0.00000000
2.45588968 1.42116812 0.00483012 0.00000000
1.72352845 0.00449242 -0.00282537 0.00000000
3.84820788 1.01320657 -0.00110952 0.00000000
0.33868185 0.41830362 0.00371113 0.00000000
2.67901897 0.87488343 0.00461249 0.00000000
1.01501917 0.16375537 0.00400508 0.00000000
2.33355522 1.48443746 0.00117101 0.00000000
1.39528406 0.74127253 -0.00296261 0.00000000
4.57456124 1.06659618 -0.00043834 0.00000000
0.99388872 0.12007541 -0.00067862 0.00000000
2.38607121 1.75102824 -0.00766733 0.00000000
2.00834641 0.28804948 -0.00202838 0.00000000
4.29535590 0.21578661 -0.00043837 0.00000000
3.29639108 0.51754743 0.00005229 0.00000000
4.80637025 1.28435607 0.00120823 0.00000000
4.51643738 1.01040545 -0.00233189 0.00000000
2.47439484 1.30388376 0.00271146 0.00000000
1.65010955 1.84362759 0.00459366 0.00000000
0.85011774 0.35253882 -0.00229859 0.00000000
1.07549436 0.92797421 0.00286276 0.00000000
3.36576225 0.89181348 0.00260385 0.00000000
0.46728104 1.64777317 0.00037378 0.00000000
2.94284410 1.09553697 -0.00001482 0.00000000
0.55154375 0.87653134 -0.00006781 0.00000000
1.56458218 0.07119420 0.00185925 0.00000000
2.25065323 1.53958661 -0.00093458 0.00000000
0.21067115 0.47186971 0.00182719 0.00000000
2.57932964 0.36554417 0.00145468 0.00000000
0.09898999 0.77038446 0.00108851 0.00000000
1.57896341 0.75573960 0.00102385 0.00000000
1.26183848 0.68098634 0.00401153 0.00000000
1.11875829 1.17864214 -0.00709727 0.00000000
0.54240534 0.94261321 0.00033111 0.00000000
2.06677467 1.36996036 -0.00571719 0.00000000
0.93949339 0.07795942 -0.00142100 0.00000000
0.05024431 1.69847795 0.00026587 0.00000000
4.46827999 0.91331238 -0.00132050 0.00000000
3.19752364 0.30359899 0.00314794 0.00000000
4.67893113 1.81067254 -0.00032699 0.00000000
3.98455557 0.79686349 0.00530049 0.00000000
1.67476586 1.32463992 0.00037481 0.00000000
3.69560338 0.11744379 0.00224542 0.00000000
1.30666319 1.50814917 -0.00431567 0.00000000
4.35678406 1.80725928 0.00057377 0.00000000
1.28838515 1.42717271 -0.00338263 0.00000000
1.49188066 1.69423176 0.00078873 0.00000000
2.58328340 0.38690441 0.00143242 0.00000000
3.55287236 0.71009748 0.00517552 0.00000000
3.55478265 0.28123096 -0.00026956 0.00000000
3.61985103 0.29088340 0.00239036 0.00000000
3.24595615 1.02170009 0.00203619 0.00000000
4.05167965 1.73000780 0.00003289 0.00000000
2.80795617 0.77323758 -0.00208128 0.00000000
1.19675069 1.51766202 -0.00183033 0.00000000
3.53498230 1.54500240 0.00106648 0.00000000
1.34984751 0.13764948 0.00091574 0.00000000
3.61276061 0.47774151 0.00388906 0.00000000
4.23060070 1.45795428 0.00019371 0.00000000
4.49280969 1.76054497 -0.00092395 0.00000000
3.70863462 1.75696373 -0.00095383 0.00000000
3.75916404 1.64180307 -0.00220216 0.00000000
0.88223749 0.70556157 0.00248164 0.00000000
3.19389294 0.65997215 -0.00215427 0.00000000
2.66862079 1.16667673 -0.00112644 0.00000000
3.15523882 1.86117490 0.00188357 0.00000000
4.81441088 1.55673621 -0.00124606 0.00000000
3.20814371 0.12420869 -0.00066075 0.00000000
0.29559246 1.20195467 0.00068494 0.00000000
0.64743597 0.51992146 0.00015982 0.00000000
0.20686637 0.89872736 0.00145712 0.00000000
4.46381080 0.97011283 0.00434713 0.00000000
2.58164079 0.94266619 -0.00021026 0.00000000
0.75514613 0.35407401 -0.00161450 0.00000000
4.54788563 0.10535455 -0.00152990 0.00000000
2.34241470 0.54816884 -0.00365609 0.00000000
2.64460508 0.16013845 -0.00007033 0.00000000
1.65945954 0.48385504 0.00010373 0.00000000
1.55684165 1.57946472 0.00065013 0.00000000
4.38062658 0.30184751 0.00102080 0.00000000
1.31057724 1.75620864 0.00007938 0.00000000
3.87286144 1.37531498 -0.00431233 0.00000000
2.08103978 0.11443141 -0.00058672 0.00000000
3.63163233 0.60016587 -0.00233805 0.00000000
0.23561834 0.25254903 0.00355910 0.00000000
3.58324284 0.56169949 0.00447572 0.00000000
2.54939992 1.27161605 -0.00142782 0.00000000
0.39912300 1.48029167 -0.00039498 0.00000000
0.51848872 1.52810148 0.00161282 0.00000000
0.71805831 1.15137233 -0.00090335 0.00000000
0.14198422 1.17816188 -0.00064888 0.00000000
2.85978055 1.70423760 0.00314919 0.00000000
1.64935634 1.45231905 0.00127184 0.00000000
0.62227959 0.63125486 0.00445546 0.00000000
4.45853840 0.42930730 0.00005754 0.00000000
4.48886204 1.70880386 -0.00113125 0.00000000
4.58240167 1.07649821 -0.00143770 0.00000000
0.60841069 1.54421254 0.00094357 0.00000000
1.11114190 0.93729106 -0.00415659 0.00000000
2.38940400 1.31610232 0.00033081 0.00000000
0.38122951 1.38306304 0.00050688 0.00000000
2.44754312 1.25501510 0.00426497 0.00000000
3.48735018 1.64174071 0.00176504 0.00000000
1.95061591 1.68467689 -0.00046505 0.00000000
1.27387585 1.60303073 -0.00018250 0.00000000
1.66989569 1.55627216 -0.00044657 0.00000000
0.58573652 1.85825144 -0.00273638 0.00000000
3.21379339 0.72640893 0.00210297 0.00000000
0.20476742 1.64500800 -0.00381708 0.00000000
4.23951973 1.59873062 -0.00094599 0.00000000
2.82968606 0.02088114 -0.00483007 0.00000000
2.40998487 1.59652763 0.00014819 0.00000000
0.07664487 0.04619613 0.00261748 0.00000000
3.80596107 0.29113647 0.00036500 0.00000000
0.87115197 1.83990088 0.00162394 0.00000000
0.05877023 1.47696671 -0.00402575 0.00000000
1.34052360 1.81934855 0.00330391 0.00000000
1.79836554 1.20855678 -0.00059288 0.00000000
3.35041287 0.83125614 -0.00379204 0.00000000
1.62592270 1.46898367 -0.00050233 0.00000000
3.46281652 1.15889844 -0.00040399 0.00000000
1.35210754 0.51339257 0.00388125 0.00000000
3.50306307 0.68800475 -0.00013345 0.00000000
0.34914327 0.79258755 0.00355148 0.00000000
3.45486531 1.53859237 0.00386334 0.00000000
2.04167116 1.22200209 0.00335173 0.00000000
2.69700834 1.19770646 0.00291135 0.00000000
0.45989840 1.70875990 0.00024882 0.00000000
2.63318229 1.86685823 -0.00074341 0.00000000
3.46611724 1.22088464 0.00726489 0.00000000
4.23253391 0.32459207 0.00077475 0.00000000
4.25790966 0.24238388 -0.00223471 0.00000000
1.65055255 1.06137299 -0.00057993 0.00000000
3.27824310 1.71679036 0.00107759 0.00000000
1.72911796 0.15450516 0.00110820 0.00000000
3.35003624 1.31850667 -0.00222285 0.00000000
4.75234024 0.72704675 -0.00181739 0.00000000
3.94333168 1.56056161 -0.00138186 0.00000000
0.14789945 0.90577341 -0.00125541 0.00000000
0.98082447 1.60937103 -0.00038618 0.00000000
4.67704259 0.53507749 -0.00036586 0.00000000
4.14021466 1.56951386 0.00211355 0.00000000
0.91405950 1.85059810 0.00209823 0.00000000
2.56548840 0.09048036 0.00261538 0.00000000
0.75289177 1.31590211 0.00039961 0.00000000
2.94109933 1.58088807 -0.00011614 0.00000000
0.83900820 1.60460742 -0.00024035 0.00000000
2.40359370 1.15561546 -0.00089046 0.00000000
3.88022332 0.89976241 0.00696867 0.00000000
1.92719669 0.90258804 0.00115316 0.00000000
1.12018021 1.90599950 -0.00731397 0.00000000
3.58813928 0.44584143 0.00043274 0.00000000
2.31172584 1.49832533 0.00390139 0.00000000
1.40293543 0.95275667 -0.00143111 0.00000000
0.84837425 0.22574160 0.00190495 0.00000000
1.04266687 0.46897678 0.00118031 0.00000000
1.80733006 1.05636607 0.00321952 0.00000000
3.63706263 0.14029117 -0.00308686 0.00000000
4.34478578 0.93381110 -0.00135995 0.00000000
2.78204436 0.47785692 -0.00053233 0.00000000
3.86668375 1.68823423 -0.00117922 0.00000000
3.66305801 0.09170068 0.00059107 0.00000000
3.42984263 0.68189898 -0.00152278 0.00000000
0.13630339 1.11438868 -0.00353504 0.00000000
2.16370142 1.31884200 0.00036967 0.00000000
0.06644824 1.87781867 -0.00099650 0.00000000
3.76201124 1.60980951 -0.00105022 0.00000000
2.26420189 0.01023415 -0.00400975 0.00000000
2.81128676 0.06276883 0.00274188 0.00000000
2.08698226 0.93454472 0.00115211 0.00000000
1.32263841 0.41223229 -0.00279994 0.00000000
4.61325658 1.43647061 -0.00193718 0.00000000
4.38307320 1.37504594 0.00170864 0.00000000
1.90417337 1.56259339 0.00255750 0.00000000
3.32992870 0.45574235 0.00283854 0.00000000
1.85653072 1.83964404 -0.00145075 0.00000000
1.02597519 0.82297977 -0.00180841 0.00000000
0.76110547 0.31222555 -0.00036847 0.00000000
4.34389798 1.51235505 0.00371679 0.00000000
1.31612798 1.87588408 -0.00142532 0.00000000
3.31886181 0.51677993 0.00132700 0.00000000
2.33182522 1.86033662 -0.00142150 0.00000000
0.61213397 1.91104077 0.00094081 0.00000000
4.67615792 0.79941489 -0.00492499 0.00000000
0.52867804 1.05638613 0.00467287 0.00000000
0.51151263 0.04052562 0.00224795 0.00000000
3.01328265 1.50465598 0.00226084 0.00000000
3.55127650 1.30902864 -0.00037038 0.00000000
3.61033223 1.15042209 -0.00115200 0.00000000
1.70387110 1.91038290 -0.00148995 0.00000000
1.61983784 1.37199789 -0.00389406 0.00000000
1.77967319 0.64327467 0.00172608 0.00000000
3.79718527 1.31144219 0.00144084 0.00000000
4.80103497 1.49193267 0.00058349 0.00000000
3.50500525 1.24809968 -0.00024754 0.00000000
2.22089793 1.10149328 -0.00313873 0.00000000
3.01426961 1.72030299 0.00000821 0.00000000
3.52368830 1.42254683 -0.00162829 0.00000000
3.42339752 0.65423217 -0.00062691 0.00000000
2.50894032 0.56898419 0.00561751 0.00000000
1.30292097 0.23953401 0.00372313 0.00000000
1.79061522 0.12225686 0.00167812 0.00000000
2.99289212 1.41169171 -0.00187149 0.00000000
0.14827115 0.31378303 0.00055872 0.00000000
1.45082681 0.64906464 -0.00172267 0.00000000
3.10826140 0.99925138 0.00223730 0.00000000
0.38230279 0.61952017 0.00068374 0.00000000
2.53836047 1.09187416 0.00217419 0.00000000
4.74553267 1.23377092 0.00009073 0.00000000
3.16927788 1.23964420 -0.00150515 0.00000000
0.08507965 1.66586243 -0.00022824 0.00000000
0.33722347 0.33430059 -0.00188284 0.00000000
3.96880064 0.99174219 -0.00014658 0.00000000
4.40543526 1.28580782 0.00056194 0.00000000
0.06191698 0.29563368 0.00449017 0.00000000
3.86135597 0.06499646 0.00185951 0.00000000
4.75254779 0.21862484 -0.00186005 0.00000000
3.64662208 1.27604389 -0.00093845 0.00000000
4.00543366 0.99084677 -0.00158813 0.00000000
1.08569049 1.55554990 0.00099413 0.00000000
4.03094671 0.74617881 -0.00230579 0.00000000
2.75426635 0.17529699 -0.00169991 0.00000000
0.01789589 0.46850732 -0.00399295 0.00000000
2.47766312 0.51791845 -0.00521089 0.00000000
4.77777078 1.83731340 -0.00143157 0.00000000
0.42194188 0.23432469 0.00120675 0.00000000
2.57023563 0.65509241 -0.00219150 0.00000000
1.54872291 1.05833479 -0.00059943 0.00000000
2.83171062 0.65199956 0.00108676 0.00000000
4.78733251 0.29621382 0.00247529 0.00000000
0.34236575 0.14819340 -0.00109521 0.00000000
1.19009439 1.10392674 0.00204736 0.00000000
4.39469043 0.39630383 0.00009601 0.00000000
0.98836393 1.58474638 -0.00029009 0.00000000
0.19254402 0.14981828 -0.00127683 0.00000000
4.36160599 1.85611739 -0.00368717 0.00000000
0.56099993 1.60823726 -0.00360173 0.00000000
0.39436733 1.74170076 -0.00376166 0.00000000
4.15940797 0.34867117 0.00296284 0.00000000
4.52503934 0.24121660 -0.00102718 0.00000000
3.60029118 0.69496347 -0.00297592 0.00000000
2.71789631 0.33354664 0.00218803 0.00000000
0.40544698 0.47791055 -0.00194364 0.00000000
1.62011770 1.32069627 -0.00046346 0.00000000
0.97219373 1.13015578 -0.00049046 0.00000000
2.07604465 0.08018353 -0.00195417 0.00000000
2.08755931 1.65278090 -0.00036724 0.00000000
2.49107290 1.21716017 -0.00196815 0.00000000
1.09499146 0.60422044 -0.00249661 0.00000000
4.40300175 1.53680815 -0.00250470 0.00000000
1.26938685 0.52640459 -0.00151757 0.00000000
3.45509563 1.57715514 0.00141310 0.00000000
3.20140113 1.49328965 -0.00131810 0.00000000
1.63958398 0.03475699 -0.00330819 0.00000000
3.13522400 1.23834092 0.00310957 0.00000000
2.27876701 0.29107956 0.00231367 0.00000000
4.26650276 0.44661959 -0.00058045 0.00000000
0.90015506 0.48716934 -0.00291988 0.00000000
4.68170055 1.58430785 -0.00465083 0.00000000
2.06714446 1.52476689 -0.00139305 0.00000000
0.61665426 1.31302206 0.00126219 0.00000000
3.94007948 0.69157574 0.00050631 0.00000000
4.21014582 1.59927264 -0.00114925 0.00000000
1.48095751 1.07148395 -0.00246717 0.00000000
0.18217126 0.07728331 -0.00472667 0.00000000
2.26803527 0.65544621 -0.00298937 0.00000000
1.70953093 0.94616482 0.00019483 0.00000000
3.13454814 1.00649690 -0.00413852 0.00000000
2.48544446 1.30486559 0.00049640 0.00000000
0.71229621 0.46739758 -0.00103343 0.00000000
1.51034201 0.96967881 -0.00002318 0.00000000
4.10956968 0.42514929 0.00109773 0.00000000
4.34150849 1.68562177 0.00427266 0.00000000
1.91049496 0.03696431 0.00286524 0.00000000
2.35269937 1.70701207 -0.00017130 0.00000000
1.58575876 0.48627760 0.00059520 0.00000000
4.33701419 1.80139527 0.00349907 0.00000000
2.79490556 1.56283155 0.00127634 0.00000000
3.30367750 0.58090913 0.00032928 0.00000000
2.37329641 0.30865978 -0.00031448 0.00000000
0.97236628 1.03457281 -0.00394474 0.00000000
3.43197340 1.27208824 0.00112287 0.00000000
3.52853777 1.08348639 0.00414290 0.00000000
1.12712398 0.91355779 0.00284363 0.00000000
4.67077217 0.44290594 -0.00179748 0.00000000
3.63468030 1.55072490 0.00027308 0.00000000
3.31965284 1.06362868 -0.00004946 0.00000000
4.53105739 0.39426084 0.00024002 0.00000000
2.44629019 0.39986193 0.00656883 0.00000000
0.51596119 1.08239129 0.00304131 0.00000000
4.64226911 1.55209933 -0.00009331 0.00000000
2.72752485 0.41178184 0.00098637 0.00000000
4.23723562 1.71339133 -0.00392595 0.00000000
3.50644361 0.47279896 -0.00218511 0.00000000
0.95770976 1.27089002 -0.00072166 0.00000000
4.35534825 0.56308437 0.00044868 0.00000000
3.52237786 1.61033824 -0.00162177 0.00000000
0.00943756 1.81012212 0.00173916 0.00000000
3.75013840 0.43890796 0.00270088 0.00000000
0.39708230 0.65209380 0.00134373 0.00000000
0.94294350 1.72780018 0.00041875 0.00000000
0.17892205 1.04753417 -0.00351497 0.00000000
1.85304169 1.91772868 -0.00353644 0.00000000
1.79453511 0.23446002 -0.00103776 0.00000000
3.82847506 1.10072471 -0.00279160 0.00000000
1.46699169 1.18268552 0.00125823 0.00000000
3.90962692 1.81285599 -0.00008692 0.00000000
1.23136521 1.23890646 -0.00026102 0.00000000
2.60994575 1.75533603 -0.00037385 0.00000000
3.75466798 0.09396237 0.00056370 0.00000000
2.99847663 0.21714812 -0.00306158 0.00000000
3.13921898 0.18768771 -0.00352695 0.00000000
2.76610517 0.51663272 0.00186142 0.00000000
3.00895413 0.39432211 0.00289058 0.00000000
3.55445442 1.88606803 0.00154639 0.00000000
4.59569511 0.40521497 -0.00042674 0.00000000
3.78091296 1.08272086 -0.00263895 0.00000000
0.86008895 1.28363588 -0.00385149 0.00000000
1.42382494 0.95304413 -0.00166473 0.00000000
0.53370521 0.82630172 0.00087168 0.00000000
4.20156153 0.61936084 -0.00221893 0.00000000
0.47684262 0.64654566 0.00185778 0.00000000
3.32565186 0.50288291 0.00294888 0.00000000
3.01131625 0.47417626 -0.00260876 0.00000000
2.50481102 1.38733891 0.00284121 0.00000000
4.12550346 0.53417241 0.00133419 0.00000000
0.76075701 1.41935823 0.00114446 0.00000000
4.38518109 0.44918893 -0.00062116 0.00000000
3.73752089 1.45503182 0.00293856 0.00000000
3.68635107 0.06437764 0.00162338 0.00000000
2.43707226 0.82097637 0.00219717 0.00000000
2.84285313 0.63839534 -0.00044590 0.00000000
1.01873073 0.93019743 0.00216130 0.00000000
4.39981032 0.45315454 0.00189754 0.00000000
0.29507903 1.07691055 0.00235860 0.00000000
0.32819442 1.33135792 0.00075393 0.00000000
1.18693831 1.47910633 -0.00226357 0.00000000
2.73584182 1.65390720 -0.00039669 0.00000000
1.97111256 0.82011117 -0.00197753 0.00000000
2.48511627 1.71304793 -0.00042158 0.00000000
1.08183845 1.45024987 -0.00335497 0.00000000
0.94981965 1.05507175 -0.00240107 0.00000000
0.30827784 0.62487072 0.00251505 0.00000000
1.11456120 1.28140156 -0.00027974 0.00000000
3.60301572 0.77228175 -0.00162413 0.00000000
1.91106636 0.71949508 0.00173649 0.00000000
4.44216787 1.00555657 0.00078056 0.00000000
0.87550850 1.48383691 0.00111818 0.00000000
1.58141670 0.50230191 -0.00239024 0.00000000
3.88586109 1.86773509 -0.00064552 0.00000000
1.18030409 1.13564872 0.00312015 0.00000000
0.54394665 1.29076041 0.00099968 0.00000000
4.37448259 0.35317842 0.00167870 0.00000000
1.80356066 0.74762873 -0.00321215 0.00000000
3.97948576 1.63032783 0.00024497 0.00000000
3.08815451 0.60870625 0.00331985 0.00000000
4.23228960 1.53331209 0.00580429 0.00000000
3.23619065 0.47877830 0.00188923 0.00000000
2.59226594 0.41194288 -0.00169259 0.00000000
1.53989596 0.11469727 -0.00015683 0.00000000
1.94326319 0.19404115 -0.00162190 0.00000000
3.59970501 0.30559876 -0.00076473 0.00000000
0.62255523 0.23921075 -0.00088255 0.00000000
1.93226909 0.61803869 -0.00048118 0.00000000
3.96439872 1.45630649 0.00279924 0.00000000
3.05186623 1.80655637 -0.00169526 0.00000000
3.62178438 1.70531739 0.00009563 0.00000000
2.84627904 1.35455701 -0.00113306 0.00000000
3.14094020 0.41508313 0.00105125 0.00000000
0.52511440 1.63826609 0.00474695 0.00000000
2.94760449 0.21853840 -0.00082424 0.00000000
2.00991218 0.64668518 -0.00468403 0.00000000
2.95460335 0.72271641 -0.00007713 0.00000000
1.10136756 0.32601606 -0.00013792 0.00000000
3.54322603 1.66471777 0.00229343 0.00000000
0.28055797 0.40823063 0.00076663 0.00000000
0.55110891 0.52469378 -0.00288098 0.00000000
4.69910822 0.81857508 -0.00349107 0.00000000
1.46911511 0.52255307 0.00162281 0.00000000
3.19352128 1.46839722 -0.00357385 0.00000000
1.35728767 0.16349137 -0.00079760 0.00000000
3.09797199 0.43744240 -0.00068079 0.00000000
1.15929162 0.81407558 0.00024972 0.00000000
3.01257706 1.84762761 -0.00051205 0.00000000
2.78134601 1.43665714 0.00266973 0.00000000
1.62147996 0.91056673 0.00335782 0.00000000
0.19103018 0.17896962 -0.00409069 0.00000000
2.44650920 1.11297555 0.00029967 0.00000000
1.57561348 0.95814587 -0.00063118 0.00000000
3.98203554 0.33571334 -0.00122621 0.00000000
2.68526819 0.99154172 0.00061928 0.00000000
2.52887065 0.92641342 0.00002980 0.00000000
2.08326145 1.37846310 0.00011241 0.00000000
0.79886746 1.22226251 0.00093994 0.00000000
3.78548821 0.82361919 0.00321975 0.00000000
3.33113182 0.11696288 -0.00158611 0.00000000
0.71670411 0.60020744 0.00666608 0.00000000
4.58966755 1.00536926 0.00047540 0.00000000
1.67470237 0.80807960 0.00259855 0.00000000
0.19524486 0.51045601 0.00044375 0.00000000
1.96656162 1.21487584 -0.00387732 0.00000000
0.01290763 1.37660627 -0.00020308 0.00000000
1.07091241 1.62709802 0.00163827 0.00000000
0.99246892 0.28473354 -0.00275608 0.00000000
3.62151640 0.19277671 -0.00219037 0.00000000
2.90299347 1.63014038 0.00348625 0.00000000
4.71325808 0.71361064 -0.00299648 0.00000000
3.14445270 0.32254180 0.00327274 0.00000000
4.68778309 1.62727394 -0.00398976 0.00000000
2.87148540 1.20997981 0.00480042 0.00000000
3.32627112 1.48030137 0.00057165 0.00000000
2.65427492 1.83056505 -0.00035126 0.00000000
1.40192726 1.06684675 0.00163323 0.00000000
2.62845821 1.32486029 -0.00295749 0.00000000
0.43454164 1.03161821 0.00079582 0.00000000
1.34077733 0.95330375 -0.00226555 0.00000000
0.35174621 1.47724049 -0.00562187 0.00000000
0.48795084 0.91428855 -0.00278211 0.00000000
4.64032703 0.73948700 0.00178494 0.00000000
1.38932835 0.64230685 -0.00079478 0.00000000
3.94918168 0.42505252 -0.00770061 0.00000000
1.09658881 1.39572862 0.00329742 0.00000000
4.11588828 1.49206458 0.00182503 0.00000000
1.18222435 1.23661268 -0.00932427 0.00000000
1.92123984 1.92217627 -0.00052654 0.00000000
3.82073372 1.40691388 -0.00081108 0.00000000
0.02998355 1.47504593 -0.00213706 0.00000000
2.07804537 0.36127016 -0.00007133 0.00000000
3.84409351 0.41332154 0.00303884 0.00000000
2.91835234 0.77141243 -0.00267234 0.00000000
1.80410780 0.59345719 0.00218795 0.00000000
2.64812210 0.45679327 0.00451102 0.00000000
0.63412043 0.79682984 0.00298169 0.00000000
2.03456432 0.45462151 -0.00071892 0.00000000
2.52718752 1.80514147 0.00355217 0.00000000
4.80319044 1.55931354 -0.00035672 0.00000000
1.14304605 1.18594996 0.00205627 0.00000000
3.68086781 1.79246206 -0.00002398 0.00000000
3.09839665 0.22347052 -0.00093080 0.00000000
4.79257440 1.10237622 -0.00088366 0.00000000
3.45746565 0.86415442 -0.00357516 0.00000000
1.97995026 0.72327880 0.00232657 0.00000000
2.46784828 0.18216266 0.00082248 0.00000000
3.81204444 1.74623289 0.00346034 0.00000000
0.75066243 0.56395621 -0.00064785 0.00000000
1.63303262 1.32461492 -0.00418585 0.00000000
1.95885291 0.76677330 -0.00047448 0.00000000
2.94297608 0.82923298 0.00137379 0.00000000
4.72009433 1.16150286 -0.00040370 0.00000000
3.77015867 0.90668840 0.00065023 0.00000000
2.09171406 1.09820680 -0.00345592 0.00000000
1.95045753 1.04009981 0.00397067 0.00000000
2.37622251 0.04913521 0.00476022 0.00000000
0.31283629 1.62300803 0.00458349 0.00000000
4.63035461 0.47173902 -0.00093166 0.00000000
4.14636514 0.02613810 0.00135991 0.00000000
4.42899839 0.32626794 -0.00127444 0.00000000
0.81366880 1.18737401 -0.00021003 0.00000000
1.99615150 0.05336399 -0.00402151 0.00000000
3.31354401 1.34190136 0.00253314 0.00000000
1.17720723 0.37327040 0.00235816 0.00000000
1.33211217 1.70904616 -0.00363161 0.00000000
3.26465408 0.03946750 0.00124404 0.00000000
2.90198575 0.92715107 0.00326003 0.00000000
2.00840095 1.04258001 0.00169044 0.00000000
1.09445233 0.13846770 -0.00202439 0.00000000
1.82913349 1.52501923 -0.00268657 0.00000000
1.70099702 0.42684128 -0.00099668 0.00000000
3.00588782 0.01982394 0.00079025 0.00000000
0.57969489 1.16772895 0.00110284 0.00000000
3.32410404 0.98332245 0.00222066 0.00000000
0.57518206 1.46394900 0.00274816 0.00000000
2.43677986 0.20277329 -0.00259176 0.00000000
3.85156074 1.53676862 0.00290409 0.00000000
0.86907394 0.52265292 -0.00455283 0.00000000
2.56343962 1.74040380 0.00063701 0.00000000
3.57399815 1.78840850 -0.00346529 0.00000000
3.60641193 0.95705672 0.00069897 0.00000000
1.83182044 0.54817195 -0.00046036 0.00000000
2.83159781 1.33431491 -0.00082026 0.00000000
2.04019840 1.04611030 -0.00032038 0.00000000
1.98122277 1.57200034 -0.00266588 0.00000000
0.14728676 0.44298326 -0.00172104 0.00000000
1.32071549 0.27685653 -0.00459324 0.00000000
1.89462477 1.50366131 0.00349177 0.00000000
3.94552612 1.30378469 0.00113548 0.00000000
0.81795528 1.90587764 -0.00217433 0.00000000
1.91059024 0.96812019 -0.00069495 0.00000000
4.03905563 0.43092720 0.00215831 0.00000000
2.05148979 0.42069200 -0.00069932 0.00000000
2.48299888 1.46104198 0.00032597 0.00000000
1.37545784 0.18986249 -0.00585669 0.00000000
4.33071873 0.30128605 0.00324897 0.00000000
2.93496687 1.45283501 -0.00162759 0.00000000
2.72274998 0.73097559 -0.00350466 0.00000000
1.20922886 0.12137051 0.00294260 0.00000000
2.67666724 1.84413977 -0.00126034 0.00000000
2.18249671 1.16978966 -0.00062315 0.00000000
3.51996762 0.78399397 -0.00124021 0.00000000
0.89744895 1.37233942 0.00133523 0.00000000
2.89791007 1.44894869 0.00009471 0.00000000
4.73113038 1.41884028 -0.00315710 0.00000000
3.79626376 0.87687147 0.00333910 0.00000000
2.35327399 1.52072278 0.00289362 0.00000000
3.36955097 0.60960402 0.00234209 0.00000000
0.60180038 0.40532368 -0.00328663 0.00000000
4.70918345 1.28688605 0.00245582 0.00000000
3.25694889 0.94971937 0.00148582 0.00000000
3.71102033 0.61657380 0.00269504 0.00000000
0.99926210 1.58853551 -0.00195897 0.00000000
3.06498486 1.15526926 0.00256436 0.00000000
3.40666318 0.28957933 0.00317803 0.00000000
4.00989465 0.41906631 -0.00221828 0.00000000
3.71630200 1.70431919 -0.00641241 0.00000000
1.74939454 0.42572060 0.00040323 0.00000000
2.40175345 0.45151894 -0.00494783 0.00000000
3.01069133 1.24443765 0.00022969 0.00000000
0.98072222 1.82578810 0.00313209 0.00000000
3.18203830 1.71907101 -0.00191227 0.00000000
3.78866176 0.78189477 -0.00252853 0.00000000
2.55724452 0.69889013 -0.00330009 0.00000000
3.04962605 0.60581109 0.00080301 0.00000000
0.23318643 1.08085851 -0.00193801 0.00000000
0.65716638 1.76931345 -0.00052493 0.00000000
1.03317610 0.55060396 0.00260699 0.00000000
2.66712623 1.26551691 0.00075037 0.00000000
2.89038830 0.85195170 0.00561436 0.00000000
3.84174049 0.85000070 0.00045378 0.00000000
0.18043811 0.41121637 -0.00152430 0.00000000
1.65609958 0.45645457 0.00050878 0.00000000
1.11575726 1.73217238 0.00234906 0.00000000
0.89656736 1.60339783 0.00448871 0.00000000
4.00586115 1.34598767 0.00163208 0.00000000
3.25618335 0.66258825 -0.00161346 0.00000000
2.56894592 0.95763088 0.00548754 0.00000000
1.00931004 1.05276230 -0.00356692 0.00000000
4.32216778 1.59464485 0.00279899 0.00000000
4.47932368 0.34810235 -0.00599140 0.00000000
2.34631087 0.23973130 0.00145275 0.00000000
2.69341908 1.12161169 0.00256909 0.00000000
3.36671346 0.85369062 -0.00191452 0.00000000
1.18550373 1.48860189 -0.00089811 0.00000000
0.13821574 0.63915821 0.00005120 0.00000000
3.39045750 1.03905196 -0.00189611 0.00000000
0.96354867 0.84639807 -0.00587549 0.00000000
0.39943032 1.44843315 0.00340099 0.00000000
1.99138861 0.43181950 -0.00297418 0.00000000
3.16894738 0.42517950 -0.00162339 0.00000000
3.59777050 0.87654923 -0.00243613 0.00000000
4.77888726 0.70599606 0.00193232 0.00000000
1.49773489 0.26945919 0.00107919 0.00000000
0.77929847 1.67818302 -0.00172672 0.00000000
0.65988972 0.19427822 -0.00021198 0.00000000
2.31779078 0.70590438 0.00100313 0.00000000
0.30086858 0.95099364 0.00257249 0.00000000
2.26640568 1.63824133 0.00218931 0.00000000
4.65164202 1.02946057 0.00096818 0.00000000
1.37685405 1.82723018 0.00154097 0.00000000
3.82104967 1.66595348 -0.00292113 0.00000000
3.24733090 1.57651073 -0.00098874 0.00000000
0.20300106 1.48236613 -0.00110351 0.00000000
3.24727883 1.73677538 -0.00140351 0.00000000
2.17276504 1.01192858 0.00582797 0.00000000
4.21168759 1.27061605 -0.00219916 0.00000000
0.96769125 1.20625171 -0.00125959 0.00000000
2.13653365 1.48356223 -0.00195902 0.00000000
2.08577064 1.88370721 -0.00134644 0.00000000
3.08768064 0.79180564 0.00173502 0.00000000
3.49291306 0.04911396 -0.00348487 0.00000000
1.31289146 0.86066765 0.00001888 0.00000000
2.16431809 0.76730596 -0.00228359 0.00000000
3.79149316 1.01207194 -0.00185089 0.00000000
0.26539599 1.73659299 -0.00252799 0.00000000
2.12223177 0.74100799 -0.00390142 0.00000000
0.47988626 1.25297071 -0.00213441 0.00000000
4.81219642 0.97654332 0.00120505 0.00000000
4.66595989 1.30057849 -0.00112979 0.00000000
1.74147529 0.11478665 0.00096702 0.00000000
4.07050447 0.92955876 -0.00354774 0.00000000
2.75478608 0.67324509 -0.00175249 0.00000000
2.66995906 1.55252747 -0.00624140 0.00000000
3.37139069 0.58539746 -0.00163238 0.00000000
2.13028828 0.41278925 0.00202576 0.00000000
4.39755405 0.45492745 -0.00281693 0.00000000
1.35322755 1.08076034 0.00075485 0.00000000
0.83532520 1.67387513 0.00121703 0.00000000
1.10682975 0.59928701 -0.00124696 0.00000000
1.87295733 1.42073742 -0.00340318 0.00000000
1.96329451 0.67539773 -0.00084447 0.00000000
3.80606398 1.78610681 0.00453677 0.00000000
2.86321053 1.47232456 0.00034489 0.00000000
0.63034213 1.66990742 0.00237184 0.00000000
2.67528911 0.30213600 -0.00110956 0.00000000
2.39804293 1.04186608 0.00340027 0.00000000
3.08186849 0.23594833 0.00294457 0.00000000
0.10782948 1.45163925 0.00445753 0.00000000
1.72225159 0.21268776 -0.00027136 0.00000000
2.10953715 0.26557264 0.00615814 0.00000000
2.10856827 0.79697161 -0.00370000 0.00000000
1.30561667 1.11631785 -0.00148828 0.00000000
0.66051891 0.40607478 0.00201706 0.00000000
4.53610591 0.67257510 0.00084818 0.00000000
3.62141382 1.09668092 0.00054802 0.00000000
3.00460875 1.82359689 0.00106457 0.00000000
0.90521988 0.27717670 0.00133232 0.00000000
0.90868183 0.46371580 -0.00236062 0.00000000
4.03929725 0.83497322 0.00223480 0.00000000
1.18355812 1.85779481 -0.00601892 0.00000000
2.96085374 1.27638059 -0.00026450 0.00000000
4.44479437 1.53130390 0.00311963 0.00000000
2.68821502 0.75246771 -0.00084789 0.00000000
3.33428820 1.08344443 -0.00212403 0.00000000
4.64962022 1.42161997 -0.00083252 0.00000000
1.68319062 0.17581954 -0.00143635 0.00000000
4.23106033 0.38346193 -0.00118709 0.00000000
3.85672618 0.12310569 -0.00433630 0.00000000
2.88470686 0.09970528 -0.00217931 0.00000000
2.55724887 1.92767147 -0.00190839 0.00000000
0.08792802 1.35106521 -0.00111607 0.00000000
3.87794486 0.45121111 -0.00037260 0.00000000
1.45479350 0.52979687 -0.00061561 0.00000000
2.79463160 1.38765613 -0.00014035 0.00000000
4.46282843 0.65386997 -0.00676035 0.00000000
3.38552992 1.48779402 0.00285774 0.00000000
3.62972837 1.75184251 0.00101522 0.00000000
1.91823941 0.35177912 0.00123838 0.00000000
4.60953270 1.53543633 0.00414000 0.00000000
3.25531818 0.52163331 0.00399534 0.00000000
3.67442737 0.00594637 -0.00201814 0.00000000
3.35899062 1.24842076 -0.00040532 0.00000000
1.53169596 1.41793899 0.00319486 0.00000000
1.16279116 0.60686584 -0.00163832 0.00000000
2.41104385 0.44443224 0.00233887 0.00000000
3.32982447 1.77199991 0.00201812 0.00000000
2.57033339 1.12057932 -0.00346665 0.00000000
3.83055938 1.79951465 0.00337202 0.00000000
1.38860202 0.00159051 0.00301481 0.00000000
2.82004412 1.53425154 -0.00184108 0.00000000
2.82334423 0.66127273 -0.00125179 0.00000000
2.82592695 0.61029856 0.00035749 0.00000000
0.55214653 0.63862597 -0.00302191 0.00000000
0.03926457 0.99405474 -0.00242780 0.00000000
0.83755942 1.88010014 -0.00104472 0.00000000
3.31444086 0.46147707 0.00150296 0.00000000
3.88030889 0.43244017 0.00225126 0.00000000
0.24984918 0.51985429 0.00185599 0.00000000
3.28037602 0.93241472 -0.00186983 0.00000000
0.06677211 0.09502274 0.00194009 0.00000000
3.16897609 1.56896889 0.00315161 0.00000000
0.57233714 1.37329461 0.00126434 0.00000000
3.85934376 0.47699777 -0.00299648 0.00000000
0.57708769 0.63865588 -0.00047319 0.00000000
3.57337994 0.74224791 0.00541731 0.00000000
1.71063250 0.01849977 0.00367871 0.00000000
1.47690858 1.05835347 -0.00042160 0.00000000
0.61878951 1.34363826 -0.00012067 0.00000000
0.35569453 1.09144856 -0.00239352 0.00000000
3.36191997 0.15058697 0.00026328 0.00000000
1.65084766 1.66033508 -0.00020251 0.00000000
4.24262884 1.20000341 0.00393858 0.00000000
0.27233589 0.00785394 0.00068847 0.00000000
0.76447650 1.24754537 0.00405288 0.00000000
2.02506836 1.62887359 -0.00182336 0.00000000
4.76925815 0.59624529 0.00203033 0.00000000
3.92291715 1.91866092 -0.00342778 0.00000000
0.32572560 0.46840089 -0.00075326 0.00000000
3.73979647 0.87039902 0.00081826 0.00000000
3.32443834 0.53649419 0.00322193 0.00000000
0.41262946 0.97361869 -0.00393938 0.00000000
1.21391902 0.13677875 -0.00093667 0.00000000
3.94948814 0.41843853 0.00210432 0.00000000
1.55188465 1.32627323 -0.00011569 0.00000000
1.50754515 0.46222567 -0.00002091 0.00000000
2.39408373 1.26022654 -0.00165410 0.00000000
0.77269681 0.67270013 0.00364327 0.00000000
2.59867832 1.14392541 0.00552796 0.00000000
3.68905585 1.80421491 -0.00457783 0.00000000
0.85970856 1.33646619 -0.00110829 0.00000000
0.59752492 1.07806837 0.00396495 0.00000000
2.13961118 1.82747316 0.00168256 0.00000000
1.57882692 0.75844191 -0.00068390 0.00000000
4.54004651 0.85042560 0.00382730 0.00000000
0.62245532 1.83889913 0.00096309 0.00000000
4.08175208 0.08919230 0.00075834 0.00000000
3.34497167 0.33691849 0.00020826 0.00000000
3.13895602 0.70871680 -0.00088442 0.00000000
4.35422137 1.38120118 -0.00079856 0.00000000
4.02706084 1.37234016 0.00168663 0.00000000
4.34811071 0.22204833 -0.00068192 0.00000000
0.68491522 0.10494869 0.00254480 0.00000000
0.05625157 1.78095913 -0.00158296 0.00000000
3.86842945 1.86480962 -0.00001606 0.00000000
4.47544109 1.11259016 -0.00001791 0.00000000
1.93268396 0.64861133 -0.00062387 0.00000000
0.40267448 0.31186881 0.00181644 0.00000000
4.11286633 0.17992422 -0.00011513 0.00000000
2.40784808 0.22036349 -0.00197783 0.00000000
4.33152366 0.36396757 -0.00058368 0.00000000
3.90268759 0.12033345 0.00079095 0.00000000
2.82044352 1.35958328 -0.00224928 0.00000000
1.09597730 0.35018377 -0.00236054 0.00000000
3.72934681 1.30348818 0.00140969 0.00000000
3.50701078 0.73828802 -0.00145828 0.00000000
1.36791991 0.46290187 0.00131394 0.00000000
1.88818376 0.88448384 0.00423518 0.00000000
1.97307725 1.21986955 0.00060008 0.00000000
3.82953827 1.33240012 -0.00298338 0.00000000
0.86642746 0.80752355 -0.00154396 0.00000000
3.31469177 0.78253678 -0.00185295 0.00000000
2.64720029 0.06948667 -0.00082198 0.00000000
3.48836021 0.20180394 0.00030513 0.00000000
2.46656696 0.16276760 0.00102096 0.00000000
1.30493622 1.86385258 -0.00446916 0.00000000
0.54696484 1.00164024 -0.00084566 0.00000000
1.69091413 1.33345895 -0.00411847 0.00000000
1.55237071 0.05520992 0.00349204 0.00000000
3.41102485 1.84252290 -0.00105430 0.00000000
1.01139831 0.40012988 -0.00021940 0.00000000
0.87771497 1.42852957 -0.00607859 0.00000000
0.17705667 1.68784362 -0.00333035 0.00000000
4.21908752 1.66622785 0.00419934 0.00000000
3.37136459 0.00218208 0.00106451 0.00000000
3.55452393 0.76939254 0.00165856 0.00000000
3.17087686 0.06876839 -0.00223708 0.00000000
2.33129739 0.39416440 -0.00495841 0.00000000
3.72947136 0.35080414 0.00154671 0.00000000
2.02617988 1.76086300 0.00258528 0.00000000
0.09772456 0.53142338 -0.00000197 0.00000000
0.45508581 1.87977774 0.00123554 0.00000000
1.36062826 0.38141759 0.00110927 0.00000000
1.40060277 0.45718883 0.00188332 0.00000000
1.40284560 0.08592604 0.00218184 0.00000000
4.57210671 0.37449710 0.00325688 0.00000000
0.40174553 0.66094564 -0.00278182 0.00000000
3.17668772 1.41317432 -0.00194858 0.00000000
4.81110340 1.22805543 -0.00241202 0.00000000
1.55613879 0.95830241 -0.00579649 0.00000000
3.21090452 1.31877399 -0.00160171 0.00000000
0.95049934 0.56875485 -0.00236651 0.00000000
1.07986887 0.54200906 0.00254608 0.00000000
3.50167776 1.29482606 0.00221570 0.00000000
3.07363894 0.20187017 0.00383459 0.00000000
1.09424358 1.40326375 -0.00166736 0.00000000
3.97494579 0.64988476 0.00149680 0.00000000
2.21474104 1.01805324 0.00090086 0.00000000
4.59785433 1.61186708 0.00132908 0.00000000
1.09542751 0.63141822 -0.00091155 0.00000000
1.87911653 0.65619393 0.00235526 0.00000000
4.39594819 0.64580573 -0.00065982 0.00000000
0.87564578 0.69170557 0.00244274 0.00000000
3.52708489 0.25563711 -0.00035206 0.00000000
3.89946195 1.51340191 0.00136018 0.00000000
1.09611721 1.06460584 -0.00029561 0.00000000
4.04256875 1.43548974 -0.00298359 0.00000000
2.09264674 0.22678875 -0.00089432 0.00000000
2.88350996 0.84452788 -0.00242025 0.00000000
2.92289470 0.18022619 -0.00211069 0.00000000
3.98658000 1.04381114 -0.00001911 0.00000000
0.74157844 1.17530786 -0.00121078 0.00000000
2.36619140 0.07447006 0.00175967 0.00000000
2.22453375 1.08784981 0.00108045 0.00000000
3.76823815 0.54365588 -0.00030994 0.00000000
1.08536195 1.05551768 0.00081784 0.00000000
4.74374292 1.59177308 0.00390039 0.00000000
0.94940126 0.87993717 0.00057442 0.00000000
3.25126244 0.71221492 -0.00481770 0.00000000
4.02111588 0.88395761 0.00044608 0.00000000
2.34375394 1.27758311 0.00107637 0.00000000
2.89611270 1.65234763 0.00117444 0.00000000
2.59175116 1.86887855 -0.00041086 0.00000000
2.53745114 1.17777892 0.00131728 0.00000000
0.12674438 1.01365730 -0.00049890 0.00000000
4.37673378 0.95832079 -0.00240074 0.00000000
3.65423144 1.91104068 0.00227768 0.00000000
3.58161643 1.70296470 0.00197156 0.00000000
3.30997807 1.29371585 -0.00195615 0.00000000
0.04776038 1.51678336 0.00184935 0.00000000
0.81424578 0.81616658 -0.00179981 0.00000000
0.26933268 0.30843765 -0.00319397 0.00000000
2.00597236 0.58742854 -0.00404202 0.00000000
4.29860680 1.50291144 0.00171072 0.00000000
2.40978412 0.62231986 -0.00156795 0.00000000
3.80997206 0.28937960 0.00023101 0.00000000
2.02146021 1.82806221 0.00080953 0.00000000
2.58276661 1.38726594 0.00258707 0.00000000
4.40354027 0.61473334 0.00171902 0.00000000
3.92345736 0.92734623 0.00330916 0.00000000
4.37652228 0.56148480 -0.00318087 0.00000000
4.56063958 0.57267850 -0.00018805 0.00000000
3.60427919 1.36267227 0.00211325 0.00000000
1.34024209 0.90438381 -0.00052440 0.00000000
4.51287525 0.47210427 -0.00253642 0.00000000
3.70906088 0.88937526 -0.00073235 0.00000000
4.50790326 1.72361616 -0.00170756 0.00000000
3.26384427 1.65467850 -0.00085010 0.00000000
4.40732802 0.52482699 -0.00122176 0.00000000
3.75593636 0.74173458 -0.00308963 0.00000000
0.83345813 1.76038986 0.00001227 0.00000000
3.95273975 1.41221325 -0.00081145 0.00000000
2.08171075 1.62385958 0.00194971 0.00000000
1.35455238 1.45560325 0.00184161 0.00000000
1.74450451 0.22714614 -0.00269559 0.00000000
4.67801977 0.19534776 -0.00178355 0.00000000
1.89897229 0.88833243 -0.00268124 0.00000000
0.48426152 1.11282676 0.00006097 0.00000000
4.21107794 1.43484047 -0.00115216 0.00000000
4.79610351 1.12650050 0.00263622 0.00000000
3.83897394 1.36162101 0.00353909 0.00000000
0.98873708 0.52385617 0.00242266 0.00000000
1.25175990 1.11793250 0.00017114 0.00000000
1.14404977 0.30648729 0.00177739 0.00000000
2.32899092 1.01237776 -0.00004525 0.00000000
0.37106886 1.39731430 0.00226534 0.00000000
3.90348143 0.48396994 -0.00380370 0.00000000
0.83949249 1.43207226 0.00364129 0.00000000
0.41035829 1.92365107 -0.00149149 0.00000000
3.23777911 1.13141997 -0.00234368 0.00000000
3.39257307 1.48199807 -0.00103956 0.00000000
2.29727610 1.61141186 -0.00229227 0.00000000
2.24866480 0.51228490 0.00075413 0.00000000
2.41069555 1.04704293 -0.00206975 0.00000000
3.64056762 1.64654331 0.00127355 0.00000000
3.04508106 1.79400104 -0.00094438 0.00000000
2.74389109 0.48917202 -0.00573965 0.00000000
1.45675850 0.36239556 -0.00249041 0.00000000
0.55664932 0.23592839 -0.00022853 0.00000000
1.91332678 1.10396601 0.00082418 0.00000000
4.23101779 0.69738268 -0.00000423 0.00000000
2.77354425 0.91954830 -0.00159513 0.00000000
1.47495296 1.33344443 0.00289022 0.00000000
2.92641939 0.69156952 0.00058750 0.00000000
4.68969075 0.32041172 -0.00471223 0.00000000
4.71383328 1.30606045 0.00697253 0.00000000
4.40276560 1.92461014 -0.00140065 0.00000000
3.20606382 1.08012129 0.00155512 0.00000000
1.61892456 1.81374484 0.00353556 0.00000000
0.83055014 1.65419995 0.00012979 0.00000000
3.38081713 0.18217544 0.00242565 0.00000000
2.72058242 0.54441216 -0.00086197 0.00000000
1.41976603 0.54335688 -0.00086759 0.00000000
4.28575514 0.44813600 0.00486232 0.00000000
3.15801682 1.50569501 0.00188317 0.00000000
4.37251579 1.41583176 0.00191262 0.00000000
4.52425666 0.17500399 0.00113192 0.00000000
2.93245717 0.65517987 -0.00113992 0.00000000
4.35932266 1.02777994 0.00018422 0.00000000
3.86396984 0.20419926 -0.00161626 0.00000000
3.49353792 1.23126318 -0.00432938 0.00000000
4.34067731 0.52562817 -0.00090794 0.00000000
4.71932828 1.66364800 -0.00558935 0.00000000
0.00065344 0.75830519 -0.00274618 0.00000000
0.00277392 0.04917023 0.00326340 0.00000000
4.27133035 0.97556704 0.00169485 0.00000000
4.65605693 1.10599017 -0.00055681 0.00000000
1.96316489 0.45062960 -0.00027919 0.00000000
0.77667935 1.90743797 -0.00014830 0.00000000
4.69479460 0.61783557 0.00385607 0.00000000
1.86062278 0.95640966 0.00230518 0.00000000
2.31351359 1.72202773 0.00015621 0.00000000
4.79745149 0.83358370 -0.00153652 0.00000000
0.38786701 0.76448569 0.00731205 0.00000000
2.46111741 0.73482713 0.00187934 0.00000000
3.53279855 1.50126095 0.00292703 0.00000000
1.93852704 0.73216281 -0.00282168 0.00000000
1.06883769 0.64694416 -0.00249845 0.00000000
2.38260638 0.19971625 -0.00061213 0.00000000
0.06221417 1.50926662 0.00296165 0.00000000
2.59014168 0.04331266 0.00029996 0.00000000
2.70165638 1.51167408 -0.00317436 0.00000000
4.07507656 0.89224671 -0.00444243 0.00000000
1.91010722 1.10967382 -0.00212887 0.00000000
2.78841494 0.23054281 -0.00103644 0.00000000
4.55465578 0.92861833 0.00538921 0.00000000
3.06990570 1.29296544 -0.00196986 0.00000000
1.55392690 0.82520447 -0.00456651 0.00000000
1.91983396 0.74130688 -0.00040718 0.00000000
4.01160246 0.38557053 -0.00158181 0.00000000
2.02792882 0.98525037 0.00123752 0.00000000
2.40090313 0.25755839 0.00263693 0.00000000
3.29890505 1.24902655 0.00163174 0.00000000
3.13849022 1.75002538 -0.00080380 0.00000000
0.15002218 1.82032352 0.00039611 0.00000000
3.46140223 0.48512656 -0.00116535 0.00000000
1.62203301 0.34503464 0.00132373 0.00000000
3.19597550 0.77456451 -0.00174247 0.00000000
3.84849354 0.35589576 0.00063844 0.00000000
1.41369787 0.56759167 0.00212196 0.00000000
2.43917491 1.52551362 -0.00351577 0.00000000
1.82371844 0.32452341 0.00007635 0.00000000
1.61431724 1.63185704 -0.00114386 0.00000000
3.88324238 0.46238572 0.00018590 0.00000000
3.54968087 0.22540534 -0.00110469 0.00000000
1.96729823 0.38463090 0.00561837 0.00000000
0.91035699 1.61128117 0.00192796 0.00000000
2.95082987 1.32038813 -0.00301593 0.00000000
3.44804726 0.44366167 -0.00043183 0.00000000
3.47192429 1.39091856 -0.00065621 0.00000000
3.05012803 0.89013768 -0.00062650 0.00000000
4.08824387 0.11260634 -0.00483494 0.00000000
1.32293864 1.81032211 0.00394228 0.00000000
2.59147347 0.62576207 -0.00014720 0.00000000
1.54044173 1.42540887 -0.00378420 0.00000000
0.63011582 1.60588065 -0.00213993 0.00000000
3.92503442 1.26115277 0.00032172 0.00000000
1.87690715 0.70416406 0.00125023 0.00000000
3.38983835 0.38769766 -0.00412202 0.00000000
0.01922920 1.83726467 -0.00291472 0.00000000
0.48963328 0.24316246 -0.00001868 0.00000000
1.48125061 0.64787720 -0.00239019 0.00000000
0.17168548 0.13578387 -0.00171007 0.00000000
3.12616224 0.13820181 -0.00008564 0.00000000
3.49658649 0.89899384 0.00404403 0.00000000
0.53935206 1.61239277 -0.00200310 0.00000000
1.04826541 1.53051864 -0.00026015 0.00000000
1.75633509 1.32441380 0.00061994 0.00000000
2.28075865 1.03974717 0.00327627 0.00000000
0.61074303 1.41914685 0.00229485 0.00000000
3.15684182 1.35027805 -0.00188322 0.00000000
3.94650330 0.87246793 -0.00234132 0.00000000
2.94800188 0.70597302 0.00283539 0.00000000
0.16553648 0.01195207 -0.00317001 0.00000000
3.49954706 1.36432374 0.00201638 0.00000000
0.53770475 0.06997159 -0.00053198 0.00000000
1.91827120 0.86404324 -0.00225951 0.00000000
4.67916926 1.34314014 0.00246150 0.00000000
2.33062286 1.02635541 0.00262629 0.00000000
1.43607534 0.40498375 0.00028557 0.00000000
4.03242521 1.61149100 0.00096609 0.00000000
3.45188965 1.67507566 0.00338348 0.00000000
4.01663769 1.36250356 -0.00059163 0.00000000
1.13035776 1.18634410 -0.00156565 0.00000000
1.24566022 1.43238708 0.00369120 0.00000000
3.96638562 0.12200600 0.00039915 0.00000000
1.61555598 1.27739007 0.00302103 0.00000000
1.49114339 1.74065540 0.00298909 0.00000000
0.23683625 1.21312845 -0.00038799 0.00000000
1.54192971 0.33285957 0.00181360 0.00000000
1.29845673 0.83456159 0.00037671 0.00000000
2.54602289 1.29349768 0.00199015 0.00000000
4.75903138 1.82607517 0.00522856 0.00000000
2.78622517 0.67945715 -0.00330648 0.00000000
4.52636252 1.33918062 -0.00237511 0.00000000
1.89820866 1.46758080 -0.00096558 0.00000000
1.32434940 0.61292253 -0.00259541 0.00000000
0.92230487 1.09015821 0.00349390 0.00000000
3.17498513 0.60447836 -0.00241427 0.00000000
2.86934244 0.28873814 -0.00135754 0.00000000
3.56815793 0.14238175 -0.00189188 0.00000000
1.91468365 1.28441835 -0.00103156 0.00000000
4.21522641 0.89985389 0.00142539 0.00000000
0.94426906 1.58185255 -0.00340774 0.00000000
4.20428919 1.45910685 -0.00079256 0.00000000
2.86011312 1.92927615 0.00162168 0.00000000
2.28162165 1.80212832 0.00373458 0.00000000
0.62765658 1.73637054 0.00442158 0.00000000
3.62027122 1.14787832 0.00489438 0.00000000
1.78881183 0.28316127 0.00450953 0.00000000
4.49279623 1.04543963 -0.00495698 0.00000000
1.18360893 1.48255352 0.00372111 0.00000000
4.49364154 0.28967276 -0.00628197 0.00000000
4.22873801 1.33759848 -0.00187249 0.00000000
3.57819425 1.09572993 -0.00488946 0.00000000
4.65862322 1.29134251 0.00153197 0.00000000
4.00360985 0.95890611 0.00189175 0.00000000
4.32880554 0.75353573 0.00101343 0.00000000
4.73925960 1.04490425 -0.00274241 0.00000000
1.26151875 0.72123515 0.00026274 0.00000000
1.44658630 0.87735508 -0.00000285 0.00000000
1.43154502 0.68645001 0.00237643 0.00000000
2.04843468 1.05492896 -0.00181749 0.00000000
2.70970553 1.44394474 0.00069495 0.00000000
0.65315336 1.48531591 -0.00272066 0.00000000
1.06179506 0.84524528 -0.00250692 0.00000000
2.49266007 1.45529569 0.00301650 0.00000000
3.94099686 1.80997302 0.00064128 0.00000000
0.47762581 1.33054234 0.00192509 0.00000000
0.23077551 0.75551957 0.00065421 0.00000000
4.81632392 0.68103500 -0.00000095 0.00000000
4.57395845 0.80930854 0.00172407 0.00000000
0.41448697 1.04203758 -0.00641285 0.00000000
1.35626317 1.08183540 0.00348301 0.00000000
3.44435719 1.53990814 0.00030668 0.00000000
1.02384752 0.82456605 0.00204803 0.00000000
2.23831144 0.06396208 0.00328180 0.00000000
2.14760967 1.91063615 0.00536469 0.00000000
3.81754442 1.83630572 -0.00035130 0.00000000
4.57260457 1.52987121 -0.00248021 0.00000000
1.78566626 0.02932982 0.00020052 0.00000000
1.04508300 0.73281974 0.00234869 0.00000000
0.81179991 1.05917460 -0.00324839 0.00000000
1.20665427 0.33092583 0.00237101 0.00000000
1.80318308 0.05575363 0.00146407 0.00000000
0.10259142 0.42498389 -0.00715306 0.00000000
0.41321941 1.73808676 0.00080956 0.00000000
3.02561883 0.80276396 0.00149403 0.00000000
2.70733241 1.33114032 0.00132139 0.00000000
3.77384638 1.43155468 0.00065621 0.00000000
1.99373310 0.99265479 -0.00548020 0.00000000
0.69997044 0.04170139 0.00115562 0.00000000
1.44381709 1.56025166 -0.00170213 0.00000000
3.13800784 0.78110207 0.00215459 0.00000000
2.24950771 0.38375929 -0.00380408 0.00000000
0.62405105 0.86343886 -0.00197071 0.00000000
1.63960267 0.09887108 -0.00001118 0.00000000
0.46526131 0.98784903 0.00099422 0.00000000
0.62319219 0.12288395 0.00237712 0.00000000
2.97174344 1.06865603 0.00248980 0.00000000
1.85705158 1.90263341 0.00019217 0.00000000
3.81746984 1.12119499 -0.00350675 0.00000000
2.02654824 0.66400448 -0.00104008 0.00000000
1.39519595 1.20077824 -0.00437722 0.00000000
3.28142280 0.67735315 -0.00602701 0.00000000
4.66601280 1.11817352 0.00778837 0.00000000
0.21543660 1.54481695 0.00495942 0.00000000
3.07422931 0.84782573 -0.00281453 0.00000000
1.40947436 1.04817193 -0.00213867 0.00000000
0.69441501 1.15609632 0.00050336 0.00000000
0.10517278 0.66270701 0.00084683 0.00000000
1.21272868 1.66108733 -0.00051780 0.00000000
0.08234795 1.90928351 -0.00379027 0.00000000
2.49476697 1.79444570 -0.00218852 0.00000000
4.22025487 0.78510132 0.00038921 0.00000000
3.91655782 0.14306628 -0.00213721 0.00000000
1.30879778 0.58993273 0.00211197 0.00000000
4.39224350 0.54989881 0.00098022 0.00000000
3.22627553 0.21854689 -0.00071800 0.00000000
2.84889443 1.22682618 -0.00060578 0.00000000
3.93171067 0.93787771 -0.00061922 0.00000000
1.50608737 1.03518907 -0.00192183 0.00000000
1.80795182 0.34811367 0.00027302 0.00000000
3.87724594 1.85104106 -0.00057725 0.00000000
3.77077648 1.33132729 -0.00114241 0.00000000
4.18694270 1.00920536 -0.00012749 0.00000000
1.55013241 0.16595923 -0.00498507 0.00000000
1.44184493 1.58456190 -0.00022206 0.00000000
3.46386204 0.54666385 0.00043357 0.00000000
3.22600014 1.24658741 -0.00121818 0.00000000
0.99445645 1.66049435 0.00044843 0.00000000
4.00074456 0.44677205 0.00101058 0.00000000
3.45714399 1.79138713 0.01201267 0.00000000
0.42117352 0.19871395 -0.00191544 0.00000000
1.97689534 0.00441848 0.00505809 0.00000000
3.33785917 0.05363783 0.00349735 0.00000000
4.25251954 1.21025748 -0.00164747 0.00000000
1.35487938 1.66959819 -0.00337681 0.00000000
0.06439022 0.88373162 -0.00229136 0.00000000
2.40709588 0.95241021 -0.00123377 0.00000000
4.17899869 1.01032919 -0.00330904 0.00000000
0.20300320 0.62879207 -0.00090472 0.00000000
2.52284746 1.10281601 -0.00153362 0.00000000
3.70259602 1.56104819 0.00090958 0.00000000
1.85714217 0.25385461 0.00227591 0.00000000
3.54601501 0.94963607 0.00079736 0.00000000
0.99082594 1.52662976 -0.00420097 0.00000000
2.50406775 0.95606765 -0.00296802 0.00000000
0.06951492 0.17497269 0.00188771 0.00000000
1.33413573 1.22985683 -0.00652546 0.00000000
0.35740301 1.40985541 0.00023296 0.00000000
1.65042540 0.24852843 -0.00404364 0.00000000
0.39301378 1.07106553 -0.00160407 0.00000000
0.58042519 1.63468191 0.00302245 0.00000000
2.23463613 1.25520448 -0.00321604 0.00000000
3.33702634 1.86472557 0.00480594 0.00000000
0.49320101 0.63811402 -0.00339402 0.00000000
1.83647496 1.42205707 0.00323572 0.00000000
3.38588720 0.69320084 -0.00332651 0.00000000
3.06763159 1.71846843 -0.00184904 0.00000000
4.69488862 0.21460433 0.00175665 0.00000000
3.29054838 1.55081879 0.00085473 0.00000000
4.41405863 0.75966304 0.00248399 0.00000000
4.12347744 0.95829830 -0.00021698 0.00000000
2.59226346 0.44367559 0.00113573 0.00000000
0.70669440 0.30854460 0.00149549 0.00000000
4.77335715 0.10428583 -0.00509586 0.00000000
0.87632157 0.29203294 -0.00317009 0.00000000
1.73855444 0.02227062 0.00096372 0.00000000
0.62294497 1.11366049 -0.00294968 0.00000000
0.74514502 1.36578039 -0.00041383 0.00000000
