2.18084376 0.55428756 -0.00246229 0.00000000
0.23438062 0.24170046 0.00135644 0.00000000
1.44463045 1.88298760 0.00093855 0.00000000
4.84941801 0.40477773 0.00124814 0.00000000
1.79085091 1.05386055 0.00084063 0.00000000
4.43533940 0.39005871 -0.00039186 0.00000000
4.06974863 0.16406279 0.00494420 0.00000000
0.36540067 0.87547110 0.00214628 0.00000000
0.32194788 1.51875036 -0.00199059 0.00000000
4.53767902 1.40418073 -0.00396472 0.00000000
4.08500009 0.74907754 0.00205295 0.00000000
2.05801807 1.51025179 -0.00327159 0.00000000
0.38206535 0.90295947 0.00463936 0.00000000
0.11027271 1.47327196 0.00552801 0.00000000
2.82790137 0.82500570 0.00337660 0.00000000
2.87166457 1.26777541 -0.00086078 0.00000000
4.19324812 1.18500297 -0.00215839 0.00000000
2.50383839 0.68038310 0.00061094 0.00000000
1.89805343 0.41970397 0.00424116 0.00000000
0.63584231 0.48284274 -0.00179876 0.00000000
2.00047313 1.35413930 -0.00065430 0.00000000
2.13675968 0.31981788 0.00350477 0.00000000
1.61862348 1.32366946 -0.00068352 0.00000000
2.73805152 1.05578381 0.00053709 0.00000000
2.17157659 1.26829393 -0.00262487 0.00000000
3.02597597 1.13594869 -0.00274683 0.00000000
2.06762651 1.89800502 -0.00222195 0.00000000
2.01676769 0.15906296 0.00382533 0.00000000
0.17208555 0.39121590 -0.00604913 0.00000000
3.89999874 1.72625876 0.00149246 0.00000000
0.94349439 0.77147013 0.00264322 0.00000000
2.18893213 0.93242825 0.00110910 0.00000000
4.24530612 1.78152671 0.00045183 0.00000000
3.09512483 0.95903739 -0.00116920 0.00000000
4.51173196 0.83139193 -0.00295645 0.00000000
1.50732417 1.08781402 -0.00104998 0.00000000
0.47697309 1.70076045 -0.00035712 0.00000000
0.75725274 0.63652421 -0.00193526 0.00000000
2.40351009 1.86523543 0.00139432 0.00000000
1.17507684 0.24292512 0.00087337 0.00000000
4.56381062 0.15952477 0.00141201 0.00000000
3.80356145 0.45421079 0.00119568 0.00000000
4.78301171 0.34565299 0.00079213 0.00000000
0.47679065 1.47263505 0.00341209 0.00000000
3.70980119 1.29629395 -0.00117883 0.00000000
0.14489798 0.24622860 -0.00169420 0.00000000
3.84084680 0.75908035 0.00045592 0.00000000
4.28024015 0.34337799 0.00060564 0.00000000
0.58572275 1.97303905 0.00285850 0.00000000
2.13561107 0.64938392 0.00118448 0.00000000
4.14040274 0.33952636 0.00148251 0.00000000
1.17654446 0.47993270 0.00641929 0.00000000
2.89044247 0.36209057 -0.00031499 0.00000000
4.21767899 0.33410609 0.00408014 0.00000000
2.49771007 0.76675092 -0.00296895 0.00000000
2.60734170 0.79773797 0.00403954 0.00000000
0.05637345 0.35971988 -0.00087461 0.00000000
2.92071369 0.28631221 -0.00074721 0.00000000
2.36231841 1.19592701 -0.00097268 0.00000000
4.33979644 0.84115887 0.00117721 0.00000000
3.95968792 0.02263756 0.00095201 0.00000000
2.14070051 1.29816998 -0.00243104 0.00000000
3.26022853 1.10474117 -0.00020649 0.00000000
3.79876388 1.25446461 0.00094626 0.00000000
2.96041617 0.46347866 -0.00328694 0.00000000
4.66542070 1.30753097 -0.00123646 0.00000000
4.87677250 0.75360883 -0.00002201 0.00000000
4.90126598 1.85155757 -0.00286539 0.00000000
3.79887090 0.86252137 0.00005424 0.00000000
3.76260646 1.69656692 0.00012064 0.00000000
0.21614521 1.64426677 0.00499305 0.00000000
2.21710055 1.61864004 -0.00104734 0.00000000
1.14417531 0.19322884 -0.00311114 0.00000000
2.26916644 0.88104392 0.00200392 0.00000000
0.95830819 1.43359664 0.00257375 0.00000000
3.28767934 1.86942043 0.00130882 0.00000000
0.88120806 1.95612170 -0.00080176 0.00000000
0.02554413 0.84807464 -0.00310506 0.00000000
0.14255042 1.66196985 0.00026266 0.00000000
3.25049699 0.53820559 -0.00177536 0.00000000
1.33132577 0.44482057 0.00247145 0.00000000
4.51368174 0.94901874 -0.00348794 0.00000000
0.25704722 1.45659693 -0.00177994 0.00000000
3.22030649 1.78142116 -0.00129789 0.00000000
4.16967403 0.34172682 -0.00119883 0.00000000
2.79157183 0.52444858 -0.00143093 0.00000000
3.24416222 0.48172471 -0.00078477 0.00000000
3.76932806 0.56860778 0.00088841 0.00000000
3.63034862 0.83562362 -0.00244393 0.00000000
0.42361707 1.56111573 -0.00551990 0.00000000
2.80593676 1.25445204 0.00121458 0.00000000
4.04768052 0.33751538 0.00192290 0.00000000
1.03197877 0.97541925 0.00151114 0.00000000
2.51794903 1.67251956 0.00065993 0.00000000
3.12273928 1.24138337 0.00052746 0.00000000
0.03808850 1.24575897 -0.00064767 0.00000000
2.46812920 0.47629489 0.00136577 0.00000000
4.24421028 1.73960330 -0.00533867 0.00000000
0.66807526 1.44230377 0.00392666 0.00000000
3.47926880 0.58507269 -0.00254498 0.00000000
1.75771660 0.84015299 -0.00183637 0.00000000
1.67513006 1.96186583 -0.00596021 0.00000000
2.64586981 0.44564059 -0.00606780 0.00000000
0.24805766 1.28677940 -0.00303443 0.00000000
3.19739360 0.45733194 0.00031763 0.00000000
3.85801667 1.43601910 -0.00099194 0.00000000
1.13251466 0.92220719 -0.00452988 0.00000000
2.17545269 0.42116601 -0.00163394 0.00000000
3.24916242 1.91949799 0.00041617 0.00000000
0.02730477 1.22929008 -0.00289280 0.00000000
0.86339442 0.26334958 0.00077018 0.00000000
2.41250977 1.88198732 0.00155576 0.00000000
2.71214312 0.84046993 -0.00518136 0.00000000
4.78246017 1.58465359 0.00235237 0.00000000
0.83136092 1.11987396 -0.00259148 0.00000000
3.02891405 0.43100645 -0.00276153 0.00000000
1.02363658 0.31050938 -0.00259339 0.00000000
0.11868292 1.85185753 0.00102653 0.00000000
2.49174011 0.90847010 0.00240931 0.00000000
3.04950413 0.88376439 0.00238409 0.00000000
2.69900790 0.48836657 -0.00119553 0.00000000
3.04910891 1.70468377 -0.00665509 0.00000000
4.85367300 1.61764527 0.00281546 0.00000000
1.07553956 1.61355831 -0.00335873 0.00000000
2.37156518 0.12627376 -0.00323294 0.00000000
4.29488263 1.65162758 -0.00345239 0.00000000
1.81179549 0.72779583 0.00000621 0.00000000
0.06083016 1.52780626 0.00243444 0.00000000
4.41868247 1.62662238 0.00127493 0.00000000
1.22884783 1.89856684 -0.00108602 0.00000000
1.76563826 1.05526198 -0.00018860 0.00000000
4.56133776 1.96682952 0.00185305 0.00000000
2.32758818 1.44533713 0.00455356 0.00000000
0.56409852 0.52675251 -0.00115613 0.00000000
4.42959577 1.90288826 -0.00136853 0.00000000
3.55464412 0.75606439 0.00243273 0.00000000
3.12410780 1.89902321 0.00431789 0.00000000
3.23293197 0.63273280 0.00056939 0.00000000
3.85594612 0.04260445 -0.00568469 0.00000000
1.97836581 1.25885619 0.00186416 0.00000000
4.67111981 0.25132585 0.00286785 0.00000000
0.27663597 0.38479413 -0.00250232 0.00000000
2.67937628 0.46205076 -0.00183473 0.00000000
3.38302948 0.37445047 0.00047535 0.00000000
1.45010534 0.02707740 0.00090991 0.00000000
0.95346698 1.04329126 0.00044323 0.00000000
2.43041241 0.06773694 0.00463505 0.00000000
4.33559059 0.60211761 0.00007410 0.00000000
0.37231465 1.26589859 -0.00329666 0.00000000
2.33783262 0.64694397 -0.00034120 0.00000000
4.46154716 0.34868005 -0.00079802 0.00000000
2.00397225 0.05780604 -0.00096739 0.00000000
4.37966235 0.18785986 -0.00590358 0.00000000
3.34551860 0.98951385 0.00154324 0.00000000
4.15827169 1.59616906 -0.00147539 0.00000000
3.63024436 0.19415664 0.00137566 0.00000000
0.04967652 1.94681606 0.00071378 0.00000000
1.26168645 1.35045038 -0.00280729 0.00000000
1.14180816 1.81721676 0.00010468 0.00000000
1.23118095 0.20079340 -0.00503228 0.00000000
3.67461461 0.98877570 0.00307298 0.00000000
4.32674240 0.30168030 -0.00574231 0.00000000
2.45287817 1.35269388 0.00632887 0.00000000
3.66764442 1.56357359 -0.00295722 0.00000000
3.36147542 1.66519885 0.00090289 0.00000000
3.30307872 0.48977364 0.00042917 0.00000000
0.40052391 0.32932352 -0.00269614 0.00000000
2.37668965 0.81774144 -0.00017350 0.00000000
0.49089714 0.12186673 0.00003098 0.00000000
4.02303365 0.25931897 -0.00059688 0.00000000
3.49148870 0.56815312 0.00551860 0.00000000
0.42694347 0.47994245 0.00372874 0.00000000
4.07638280 0.33938715 -0.00046941 0.00000000
2.94506064 0.65162066 -0.00300245 0.00000000
2.26787122 0.14158348 0.00021594 0.00000000
2.66129156 1.97201079 -0.00238697 0.00000000
4.42182469 0.15654253 0.00008094 0.00000000
1.25548784 0.41652489 0.00251394 0.00000000
3.33670368 1.37353378 0.00141401 0.00000000
1.63765239 0.13252817 0.00270279 0.00000000
4.87690778 0.23125414 0.00183272 0.00000000
4.09002607 1.63687533 -0.00182266 0.00000000
2.33714821 0.42932525 0.00088385 0.00000000
0.44123077 1.55298492 -0.00228270 0.00000000
0.77528398 1.31120162 -0.00526661 0.00000000
3.21049047 0.46020664 -0.00049029 0.00000000
2.74808213 1.80608379 -0.00375665 0.00000000
0.54658075 0.95567570 0.00259149 0.00000000
2.83442937 0.13866141 0.00569690 0.00000000
1.59447314 0.95095373 -0.00199064 0.00000000
3.72503622 0.84159302 0.00321772 0.00000000
4.06363744 0.60206270 0.00284334 0.00000000
3.19126274 0.65618153 -0.00237973 0.00000000
2.79247183 1.27329988 -0.00324254 0.00000000
2.09752975 1.30804708 -0.00117840 0.00000000
1.90563893 1.16408442 -0.00457407 0.00000000
2.20796391 1.00206151 0.00303806 0.00000000
1.65295343 0.41834633 -0.00135216 0.00000000
3.62234088 1.83252514 -0.00083927 0.00000000
0.70921737 0.02892060 -0.00082497 0.00000000
3.85293695 0.73473502 0.00602834 0.00000000
0.96713602 0.88374375 -0.00102042 0.00000000
3.82926731 1.75129385 -0.00553388 0.00000000
3.77026331 1.55943474 -0.00356022 0.00000000
1.98936897 1.37380335 0.00166880 0.00000000
0.51741528 1.02406757 -0.00202967 0.00000000
4.43069085 1.31824515 -0.00018550 0.00000000
2.03280039 1.07273705 0.00055709 0.00000000
0.61881863 1.21511431 0.00214986 0.00000000
2.48381806 1.83408047 -0.00296142 0.00000000
0.53614313 1.00541905 -0.00020816 0.00000000
1.76791643 0.33397329 -0.00121048 0.00000000
2.88902641 1.38226146 -0.00565531 0.00000000
1.19019691 1.89774302 0.00255301 0.00000000
0.07951808 1.01628887 0.00090733 0.00000000
2.19764630 0.32057185 0.00278643 0.00000000
1.43579227 1.44499664 -0.00094443 0.00000000
0.86740245 1.81395915 -0.00133977 0.00000000
4.31168529 1.94985747 -0.00429588 0.00000000
4.57284264 1.75066656 0.00093805 0.00000000
4.08414255 1.85347020 -0.00002420 0.00000000
1.47378073 1.15883916 -0.00165379 0.00000000
4.14661961 1.50951803 -0.00192713 0.00000000
1.54926251 0.05877548 0.00043424 0.00000000
0.07389724 0.08001561 0.00098610 0.00000000
3.23560204 0.74120581 0.00125051 0.00000000
4.05846037 1.41852493 -0.00422182 0.00000000
3.39348692 0.45699962 -0.00156506 0.00000000
2.36104519 1.12674831 0.00032435 0.00000000
4.35591411 1.80506738 -0.00003940 0.00000000
2.43132713 0.43564794 -0.00294788 0.00000000
1.87500985 1.05778551 0.00140493 0.00000000
3.23854470 1.40351227 0.00859726 0.00000000
0.84692768 0.61340774 -0.00289680 0.00000000
4.61376216 0.50549808 -0.00056545 0.00000000
1.97299426 1.74956316 0.00022759 0.00000000
2.99579422 0.04494087 -0.00235986 0.00000000
0.80807095 1.28302173 -0.00184005 0.00000000
2.44102140 0.53272264 0.00281690 0.00000000
4.74835282 0.38946534 0.00321238 0.00000000
2.53433267 0.33799614 0.00106925 0.00000000
3.08153086 0.33817147 -0.00243251 0.00000000
3.41138485 1.08580785 -0.00129758 0.00000000
1.65780496 0.96001939 0.00242219 0.00000000
1.93480388 1.00253808 0.00152361 0.00000000
1.83971574 0.17120886 -0.00084240 0.00000000
2.76534316 1.95449179 0.00055979 0.00000000
1.35531299 0.46604300 -0.00479876 0.00000000
3.03263619 0.77989697 -0.00192305 0.00000000
2.63757227 1.17626449 -0.00203201 0.00000000
0.60178346 1.18205505 0.00465073 0.00000000
3.72630069 0.08359506 0.00192878 0.00000000
4.70858241 0.96343737 0.00469004 0.00000000
0.73877861 0.11307738 0.00110932 0.00000000
2.35028466 0.46224269 -0.00387586 0.00000000
3.66766260 1.52764023 -0.00343317 0.00000000
0.26576205 1.60503484 0.00103843 0.00000000
1.01764511 1.42080473 -0.00103974 0.00000000
1.43905515 1.82749252 -0.00310070 0.00000000
0.60917182 1.06435360 0.00484660 0.00000000
0.87855789 1.72469093 -0.00047772 0.00000000
0.51178891 1.27299183 -0.00144418 0.00000000
2.42629991 0.29706910 0.00386211 0.00000000
4.82383747 1.25016521 -0.00196623 0.00000000
4.20957734 0.20995280 -0.00010839 0.00000000
3.61865633 0.99279754 0.00365305 0.00000000
3.24146380 0.48194847 0.00273100 0.00000000
3.19771854 1.81144576 -0.00149090 0.00000000
0.94472423 0.13891871 0.00222082 0.00000000
2.05899231 1.08094100 0.00221224 0.00000000
2.15457323 1.38919795 0.00180974 0.00000000
1.55595416 1.39224989 0.00136657 0.00000000
1.13222084 1.54291483 0.00027176 0.00000000
2.11504874 1.71271127 0.00105358 0.00000000
2.57558211 1.30984968 -0.00080071 0.00000000
1.61584628 1.86772857 0.00416260 0.00000000
0.64177568 0.23013489 -0.00208903 0.00000000
4.47237687 0.96397604 -0.00145777 0.00000000
2.64326825 0.01246448 -0.00456030 0.00000000
1.60200784 0.49716150 -0.00242438 0.00000000
0.01612746 1.04617664 0.00505828 0.00000000
1.23399650 0.31867999 0.00500886 0.00000000
0.85966262 1.03944869 -0.00117433 0.00000000
4.75974638 0.53089294 -0.00013698 0.00000000
3.65840620 0.13072877 -0.00387195 0.00000000
3.47418658 0.69786751 -0.00268748 0.00000000
1.08648107 1.29358009 -0.00247355 0.00000000
3.09296370 0.87490474 0.00159366 0.00000000
2.31431033 1.26146309 0.00239010 0.00000000
0.49680290 1.57273395 0.00117262 0.00000000
3.69745775 0.05906038 -0.00345349 0.00000000
0.54771633 0.17177086 -0.00389433 0.00000000
2.09507474 1.01675589 0.00033539 0.00000000
4.40786985 1.54189977 -0.00122334 0.00000000
3.28939950 1.56862396 -0.00047196 0.00000000
3.25995556 1.96441387 0.00011034 0.00000000
0.11008759 0.57830248 -0.00087424 0.00000000
1.48606387 1.71684930 -0.00164918 0.00000000
0.14872522 1.11514586 0.00580494 0.00000000
3.07818686 0.13831367 -0.00050352 0.00000000
0.50176854 0.03089526 -0.00130874 0.00000000
3.01941574 1.04008181 -0.00100142 0.00000000
3.57405625 0.92727273 -0.00115706 0.00000000
4.16683019 0.91572577 0.00440070 0.00000000
2.73724616 0.80779555 -0.00423328 0.00000000
2.56399656 0.05534550 -0.00040296 0.00000000
4.80311031 1.91752313 0.00315634 0.00000000
0.16463604 1.48213531 0.00159433 0.00000000
0.79187613 1.58686362 0.00043395 0.00000000
2.97981284 1.06971709 -0.00177678 0.00000000
3.86985421 0.20776150 -0.00160674 0.00000000
0.17474504 0.24019425 -0.00437190 0.00000000
4.14423998 0.85907780 0.00125761 0.00000000
4.16934419 1.42516681 0.00071264 0.00000000
2.53134306 0.99662374 -0.00321822 0.00000000
0.64332182 0.01058300 0.00009727 0.00000000
2.80945215 1.36582725 0.00010572 0.00000000
0.75286805 1.67693673 0.00174552 0.00000000
0.25648257 1.16015126 0.00281051 0.00000000
3.43789114 1.73361295 -0.00149469 0.00000000
0.93468603 1.84917885 -0.00153842 0.00000000
4.48713625 0.59899051 0.00057372 0.00000000
2.63443643 1.49933402 0.00387721 0.00000000
0.50356721 0.14517893 0.00409490 0.00000000
2.19879868 0.54367150 -0.00160312 0.00000000
1.90808992 1.68753502 -0.00330085 0.00000000
3.20784030 0.74998888 -0.00081323 0.00000000
0.63109427 0.17515281 0.00214272 0.00000000
0.85864168 1.72617295 -0.00196265 0.00000000
4.09923190 0.64514269 0.00286758 0.00000000
2.89981481 1.77696496 0.00272790 0.00000000
2.89841569 1.48416882 0.00117119 0.00000000
3.02635692 0.75053494 0.00033392 0.00000000
0.65776483 0.76196870 -0.00395425 0.00000000
3.67308556 1.09912860 0.00420541 0.00000000
4.74162612 0.99819393 0.00001365 0.00000000
3.64208582 1.59571600 -0.00197476 0.00000000
3.25420678 1.69460013 -0.00235095 0.00000000
3.49001974 0.51704581 0.00242035 0.00000000
4.88407959 1.63775692 -0.00351948 0.00000000
4.70854412 0.20026007 0.00028524 0.00000000
4.60897484 1.56395632 -0.00034985 0.00000000
0.15461907 1.69612346 -0.00107210 0.00000000
2.17060278 1.84768692 0.00363459 0.00000000
2.05392034 0.76487319 -0.00453726 0.00000000
4.10825251 1.39807782 0.00219398 0.00000000
2.09233765 1.42377596 -0.00051155 0.00000000
3.86600607 1.92268912 0.00242437 0.00000000
0.47209255 1.30904603 -0.00209148 0.00000000
0.65045412 1.73519367 0.00015435 0.00000000
0.55475791 0.64729375 -0.00207609 0.00000000
1.44410352 1.81706411 -0.00119795 0.00000000
0.57403344 1.68677303 -0.00562467 0.00000000
0.90985030 0.10647778 -0.00450002 0.00000000
3.07827885 1.14175077 0.00261449 0.00000000
1.37685031 1.70465735 -0.00411990 0.00000000
4.33388420 1.33202740 0.00098878 0.00000000
4.93459634 1.02909066 0.00306624 0.00000000
2.38392229 1.92993230 0.00182719 0.00000000
4.76541355 1.02943002 -0.00421022 0.00000000
1.43914423 1.52951789 -0.00129897 0.00000000
3.51120458 0.35450260 -0.00033822 0.00000000
0.42428474 0.57051221 -0.00363085 0.00000000
3.86181752 0.45176308 0.00150489 0.00000000
3.31416588 0.58844622 0.00210306 0.00000000
2.40953195 0.01863109 -0.00042948 0.00000000
2.16128914 1.39793780 0.00371260 0.00000000
0.07671959 1.61315614 0.00127194 0.00000000
1.44441503 0.44779365 -0.00162952 0.00000000
4.49508594 1.82753648 0.00145250 0.00000000
4.17938944 0.77296965 -0.00201665 0.00000000
3.29759969 0.28329604 -0.00156846 0.00000000
0.04642159 0.49939720 0.00024342 0.00000000
4.18071969 0.97584201 -0.00015123 0.00000000
0.82469498 0.59626763 -0.00095872 0.00000000
2.43048677 0.07135726 0.00211841 0.00000000
2.31224151 1.73508877 0.00037801 0.00000000
4.66845876 1.37021994 0.00136641 0.00000000
4.92171342 1.13390956 0.00703219 0.00000000
3.57468057 0.16407383 -0.00049919 0.00000000
0.54906102 0.12072900 0.00097693 0.00000000
2.95375114 0.55334527 0.00208556 0.00000000
1.21144781 1.44143874 0.00145917 0.00000000
4.24854950 1.49701253 -0.00457619 0.00000000
3.46364189 0.56513015 -0.00035872 0.00000000
1.19443525 0.34648339 0.00017832 0.00000000
3.59236179 0.61675592 -0.00130290 0.00000000
3.14147589 1.00367065 0.00271524 0.00000000
1.83542614 0.54536003 -0.00050401 0.00000000
4.78377233 0.78258934 -0.00330328 0.00000000
2.44507301 0.30389808 -0.00428922 0.00000000
1.93846408 0.21347521 0.00345316 0.00000000
3.09002513 1.87143303 -0.00675964 0.00000000
0.14681302 0.93247455 -0.00253786 0.00000000
4.59727433 1.02408827 0.00443661 0.00000000
2.07864940 0.25338377 -0.00026228 0.00000000
3.46709756 1.20949406 -0.00058164 0.00000000
4.80359852 0.59662806 -0.00001474 0.00000000
4.53086675 1.47396063 0.00004578 0.00000000
3.95520088 1.64116023 -0.00398927 0.00000000
2.23720934 1.13852562 0.00089041 0.00000000
1.72408543 1.29330099 -0.00280822 0.00000000
3.32069063 0.17430640 -0.00323168 0.00000000
1.36890007 0.79589997 -0.00036549 0.00000000
1.26015792 1.72416919 -0.00168067 0.00000000
0.60333321 0.61548531 -0.00293250 0.00000000
2.24076453 0.00121330 -0.00038753 0.00000000
1.28477738 1.06326769 -0.00278362 0.00000000
0.76040698 1.62271439 -0.00023993 0.00000000
4.12920387 1.07670518 -0.00056685 0.00000000
0.45279313 0.65140249 0.00177105 0.00000000
3.55937283 0.50632701 0.00280113 0.00000000
1.43241662 0.44593879 0.00186585 0.00000000
1.19701452 0.67015307 -0.00045957 0.00000000
1.08159493 0.15321526 0.00216165 0.00000000
0.58508133 1.92432857 0.00416337 0.00000000
2.14486600 0.68516865 -0.00155920 0.00000000
2.54913989 0.12563452 -0.00204254 0.00000000
4.41928130 1.20745129 -0.00200277 0.00000000
1.91790286 1.89574687 -0.00186111 0.00000000
1.77070912 1.40696309 0.00112971 0.00000000
4.78151895 1.78409967 0.00236456 0.00000000
2.02373310 0.91485054 -0.00284491 0.00000000
4.30309930 0.69769244 -0.00230266 0.00000000
3.58461948 0.44535681 -0.00043540 0.00000000
2.92291317 1.73363272 0.00183484 0.00000000
4.75928805 0.09773368 0.00425932 0.00000000
4.86294367 0.51045038 -0.00561770 0.00000000
2.80141071 1.43238066 0.00286360 0.00000000
2.11322930 1.02471298 -0.00202903 0.00000000
4.93866018 0.91376213 -0.00081054 0.00000000
3.41017077 1.45543920 0.00032113 0.00000000
1.17413353 0.12614359 0.00030880 0.00000000
1.28981324 0.18632720 -0.00233625 0.00000000
0.67995795 0.76648145 -0.00173120 0.00000000
4.33567601 1.34594647 -0.00082248 0.00000000
0.06004787 1.62511172 -0.00717270 0.00000000
0.53850833 0.85746786 -0.00304489 0.00000000
4.62407876 0.71269804 -0.00057133 0.00000000
2.92495579 1.09760975 0.00032950 0.00000000
3.36947016 1.81491775 -0.00381496 0.00000000
1.98277309 1.77511417 -0.00224475 0.00000000
3.59325282 1.74913411 0.00125684 0.00000000
0.29910207 1.46423997 -0.00039368 0.00000000
3.60862744 0.66751846 -0.00090867 0.00000000
1.78882056 1.38323438 0.00522885 0.00000000
3.80167978 1.79585524 0.00188606 0.00000000
0.79165952 1.22851196 -0.00122529 0.00000000
1.40941577 0.27412886 0.00097760 0.00000000
4.81558887 0.03268469 0.00033142 0.00000000
2.42718496 0.95196078 0.00025524 0.00000000
4.91011869 0.03108249 0.00281992 0.00000000
1.08157928 1.45300909 0.00040582 0.00000000
1.77065914 1.28881268 0.00037765 0.00000000
2.55777195 0.82457060 0.00334238 0.00000000
3.51693276 0.53000414 0.00074918 0.00000000
3.35421675 1.92174494 -0.00169703 0.00000000
2.04780378 1.81399112 -0.00075157 0.00000000
3.22921688 1.26403017 0.00297558 0.00000000
3.53244827 1.21540652 0.00062882 0.00000000
1.95956261 0.72282777 0.00408818 0.00000000
4.05015409 1.52191495 -0.00291046 0.00000000
2.54536919 1.72810670 0.00113413 0.00000000
1.81825793 0.30371606 -0.00112714 0.00000000
2.88677401 1.42373693 0.00307816 0.00000000
1.06647872 1.81858578 0.00201936 0.00000000
3.19082155 1.41219477 -0.00116898 0.00000000
1.16976848 1.64437289 0.00228938 0.00000000
3.83739843 1.45997630 0.00060082 0.00000000
0.56610513 1.65609182 -0.00079432 0.00000000
3.98952789 1.59476563 0.00581828 0.00000000
3.49623734 0.60725609 -0.00369765 0.00000000
0.71335579 0.05819996 0.00079149 0.00000000
2.45243299 1.44794245 0.00066012 0.00000000
1.23713008 1.77706994 -0.00033788 0.00000000
4.76867598 0.89075575 -0.00259874 0.00000000
4.53006481 1.64554787 0.00264813 0.00000000
0.18606585 1.33774198 0.00022008 0.00000000
2.74330159 0.19667824 0.00128044 0.00000000
3.28926032 0.06583596 0.00189043 0.00000000
1.19035814 0.40905068 -0.00170978 0.00000000
3.37109069 0.50582799 -0.00114435 0.00000000
0.92875671 1.36797233 0.00073556 0.00000000
0.07180752 0.74635516 -0.00170311 0.00000000
2.68000991 1.35292658 -0.00118126 0.00000000
3.75416271 1.66946211 -0.00070131 0.00000000
4.51795916 0.99292855 -0.00046492 0.00000000
3.77022521 0.59645202 0.00098446 0.00000000
4.10221883 0.02799626 0.00068769 0.00000000
1.78178215 0.45780246 0.00250499 0.00000000
0.75265293 1.87023512 -0.00351338 0.00000000
4.14742610 1.70105128 -0.00027381 0.00000000
0.54382666 0.20835588 0.00050068 0.00000000
1.06483369 1.75898410 -0.00325609 0.00000000
1.39176069 1.53859535 0.00312002 0.00000000
1.41222542 1.86809308 -0.00030073 0.00000000
1.55728848 1.87425322 0.00064164 0.00000000
3.13515563 1.54406213 0.00252757 0.00000000
4.64161630 1.08161894 -0.00204956 0.00000000
0.77662963 0.26418809 -0.00059489 0.00000000
3.64185201 1.50677791 -0.00175965 0.00000000
1.68428631 1.64538610 -0.00512443 0.00000000
4.14322247 0.19909843 0.00265962 0.00000000
4.88445859 0.56674939 -0.00140344 0.00000000
0.08110299 0.72334178 0.00026078 0.00000000
3.53369401 1.54387066 0.00042360 0.00000000
2.91419254 1.83305126 -0.00024921 0.00000000
0.45212338 0.36313261 0.00065562 0.00000000
3.10766170 0.80743868 -0.00238685 0.00000000
3.94994123 1.72270479 0.00192835 0.00000000
2.57723399 1.06149206 0.00038286 0.00000000
0.15669957 1.31052047 -0.00147913 0.00000000
3.17945675 1.77645060 0.00206535 0.00000000
2.10596852 0.66990684 0.00357512 0.00000000
2.24567644 0.23300901 0.00184869 0.00000000
4.57607970 1.56840135 -0.00316451 0.00000000
3.31084300 0.10577165 -0.00187467 0.00000000
4.92429935 0.14538574 0.00059171 0.00000000
2.41686199 1.72192809 -0.00471938 0.00000000
4.19186361 1.15058702 0.00096290 0.00000000
2.38637573 1.75739155 0.00148019 0.00000000
0.18700055 0.23946001 0.00012501 0.00000000
2.00068704 1.88796898 -0.00021892 0.00000000
0.23497564 1.39529075 -0.00004220 0.00000000
1.28625938 1.25365085 0.00150508 0.00000000
1.92969119 1.04851298 0.00036988 0.00000000
2.35366077 0.97013564 -0.00053710 0.00000000
2.00568437 0.57933368 -0.00159006 0.00000000
3.53346725 0.75698618 0.00053837 0.00000000
0.57940693 1.68872472 -0.00163308 0.00000000
0.08778493 0.68488702 -0.00425856 0.00000000
3.41687577 1.13234048 0.00383378 0.00000000
3.00229191 1.74389676 0.00085116 0.00000000
3.02862564 0.49892477 -0.00466699 0.00000000
1.74719543 0.30432910 0.00428875 0.00000000
2.28201582 0.79869702 0.00118316 0.00000000
1.59200543 0.83321282 0.00168339 0.00000000
1.02545785 0.67770258 0.00298437 0.00000000
3.40540664 0.67749817 0.00341348 0.00000000
3.98073996 1.47595778 0.00437018 0.00000000
4.55945820 1.18412855 0.00004429 0.00000000
2.02672858 1.12873495 -0.00494805 0.00000000
0.54268082 1.91625613 0.00289347 0.00000000
1.40481213 0.90968672 -0.00215391 0.00000000
3.84015536 0.99620803 0.00118228 0.00000000
0.50120886 0.28061971 0.00306889 0.00000000
4.22768725 1.01349097 -0.00338122 0.00000000
2.49483148 1.54001734 0.00004224 0.00000000
4.55056028 0.64434998 -0.00066846 0.00000000
1.95286444 1.51269815 -0.00206825 0.00000000
3.08265658 1.91090527 0.00787183 0.00000000
1.76661449 0.91595573 0.00041694 0.00000000
1.88485683 1.38208555 0.00028095 0.00000000
1.36683699 1.57352613 0.00222472 0.00000000
2.43621124 1.19248097 0.00167970 0.00000000
0.62718147 0.42087627 -0.00014729 0.00000000
2.48552575 0.79177814 0.00304357 0.00000000
1.45120847 1.65636188 -0.00318334 0.00000000
2.00948780 1.41252912 -0.00016569 0.00000000
0.97456403 0.70497061 -0.00000393 0.00000000
2.00100981 1.39112977 0.00411113 0.00000000
3.92592364 0.11418485 0.00057910 0.00000000
4.08098381 0.81701159 -0.00196634 0.00000000
1.37338518 1.61951627 -0.00002306 0.00000000
0.10002849 1.22306658 0.00338704 0.00000000
1.38251723 1.64265042 -0.00128764 0.00000000
2.44354310 0.38514255 0.00225782 0.00000000
4.11088636 1.25843557 -0.00117552 0.00000000
0.80483701 1.86211865 -0.00060159 0.00000000
3.67138496 1.86952976 -0.00189654 0.00000000
3.43483777 0.65582807 -0.00107454 0.00000000
2.16124856 0.65065985 0.00359225 0.00000000
0.84972912 1.26434011 0.00198369 0.00000000
4.78002843 1.57316995 0.00190265 0.00000000
2.85827009 0.43735153 -0.00007552 0.00000000
3.33453538 1.45318579 -0.00127007 0.00000000
2.90374338 1.45420125 -0.00072955 0.00000000
4.62614381 0.16998837 -0.00047768 0.00000000
0.56140448 0.80201314 0.00190024 0.00000000
0.56522138 1.28576657 -0.00146919 0.00000000
4.77858515 1.97393687 0.00082895 0.00000000
4.41128553 0.50211170 0.00088296 0.00000000
0.57446036 0.03113565 -0.00045358 0.00000000
4.81430416 0.40248064 0.00094439 0.00000000
0.38706076 1.37686896 -0.00052475 0.00000000
4.72561004 1.39791602 0.00244965 0.00000000
4.72892501 0.75401122 -0.00060321 0.00000000
0.01328203 0.80299352 0.00094587 0.00000000
3.10523240 1.43452801 -0.00336478 0.00000000
3.28217493 0.32178566 0.00030648 0.00000000
3.12999603 0.23344129 0.00415504 0.00000000
2.11498732 1.34065139 -0.00191885 0.00000000
2.14582395 0.24579869 0.00355218 0.00000000
3.23560610 0.13457604 0.00250764 0.00000000
3.42508657 0.36366896 -0.00019810 0.00000000
3.33578954 1.21450937 0.00112888 0.00000000
4.20571144 1.85419720 -0.00450326 0.00000000
0.59206768 0.46227579 -0.00358453 0.00000000
1.96791504 1.94937453 0.00351393 0.00000000
4.72005705 0.40965049 -0.00223633 0.00000000
0.30493317 1.61966935 0.00343095 0.00000000
4.93846199 0.61775287 -0.00311453 0.00000000
2.12407296 0.94498257 0.00349762 0.00000000
2.95776546 0.16174415 -0.00049884 0.00000000
2.11186614 0.46891194 -0.00544220 0.00000000
0.71809136 0.45007699 0.00337940 0.00000000
2.31451297 0.85138261 0.00003398 0.00000000
2.50388630 0.45377572 0.00260559 0.00000000
0.54461825 0.12987578 0.00099022 0.00000000
3.31475688 0.09521022 -0.00348285 0.00000000
2.48232349 1.82062367 -0.00142525 0.00000000
3.82261007 1.17192498 -0.00333469 0.00000000
0.13964862 1.08933965 -0.00061692 0.00000000
1.47850065 0.08706370 -0.00036174 0.00000000
1.82948031 0.45594480 -0.00252233 0.00000000
4.31751796 1.15701009 0.00168501 0.00000000
1.21216776 1.97582907 -0.00255692 0.00000000
2.51259002 0.16208738 0.00033009 0.00000000
0.70129686 1.70129590 -0.00263357 0.00000000
3.28735550 0.81513747 -0.00169776 0.00000000
1.69473934 1.95402237 -0.00437335 0.00000000
0.84469233 0.44182634 0.00216930 0.00000000
1.98121081 1.74106548 0.00083039 0.00000000
0.68851009 0.44668893 -0.00068826 0.00000000
2.14633461 1.66858465 -0.00254367 0.00000000
0.59072592 0.27334231 0.00147639 0.00000000
2.76354706 0.12775187 -0.00038076 0.00000000
4.77707901 1.58594687 -0.00065170 0.00000000
0.33672005 0.63755471 -0.00393127 0.00000000
0.42742529 1.67502830 0.00034282 0.00000000
3.61773526 1.19247929 -0.00272592 0.00000000
1.92865746 0.13616387 -0.00203062 0.00000000
1.68147347 0.75014392 -0.00115912 0.00000000
3.71895365 1.89354480 0.00100815 0.00000000
3.31753454 0.96669379 -0.00025279 0.00000000
1.70202180 1.31302260 -0.00794901 0.00000000
4.51161462 0.44472732 0.00108909 0.00000000
0.55969367 0.13266790 0.00053180 0.00000000
4.84721356 1.24531819 0.00355024 0.00000000
0.57580743 0.33757443 -0.00042896 0.00000000
0.31098079 1.64190004 0.00098813 0.00000000
0.11923265 1.56082819 -0.00291767 0.00000000
2.60361272 0.44737169 -0.00218271 0.00000000
2.47212791 1.56849693 0.00093785 0.00000000
1.31905659 1.68887116 0.00055621 0.00000000
3.43269283 1.07820140 -0.00338917 0.00000000
4.21733406 1.10927404 0.00009185 0.00000000
4.88075435 1.77393007 0.00017712 0.00000000
1.91613299 1.11337447 0.00094887 0.00000000
2.01747160 1.97237409 0.00249529 0.00000000
3.60455079 1.02403168 0.00283231 0.00000000
4.10198256 0.44285310 0.00361844 0.00000000
4.58167749 0.86194539 0.00052828 0.00000000
3.01954878 0.27392327 0.00690757 0.00000000
4.34642790 1.95469246 0.00070657 0.00000000
4.59521005 1.67670421 0.00182391 0.00000000
2.77922107 0.54456434 0.00035772 0.00000000
4.15435742 0.56666506 -0.00185830 0.00000000
1.81978245 0.92512091 -0.00191440 0.00000000
4.11921470 0.15606931 -0.00383785 0.00000000
3.25733436 0.78720562 0.00353494 0.00000000
3.76477391 0.67596036 -0.00010622 0.00000000
4.08328290 0.05583866 0.00082545 0.00000000
0.62253659 1.40764934 0.00300950 0.00000000
4.16640256 1.44560641 -0.00055798 0.00000000
3.48741578 0.93931013 -0.00521103 0.00000000
2.95525837 0.94425926 0.00247789 0.00000000
2.86730311 1.96020789 -0.00339042 0.00000000
3.65762048 0.44083499 -0.00508791 0.00000000
0.65680387 1.56278806 -0.00055773 0.00000000
1.36433643 0.72646345 0.00048030 0.00000000
3.04155911 0.89307272 0.00445304 0.00000000
1.81677627 1.26514744 0.00335368 0.00000000
4.05876373 0.36102157 -0.00117990 0.00000000
2.52084548 1.81031984 -0.00537659 0.00000000
1.72213237 0.57300271 -0.00096607 0.00000000
4.64520165 0.19899302 0.00062333 0.00000000
0.36589522 0.75197432 0.00022993 0.00000000
4.37903825 0.49759327 -0.00306091 0.00000000
0.36129569 0.42225896 -0.00544698 0.00000000
0.60620826 1.22628686 0.00111398 0.00000000
3.51956491 1.49108470 0.00760244 0.00000000
2.68051295 0.76855601 -0.00016243 0.00000000
3.02079183 1.56869119 0.00159757 0.00000000
2.77777705 0.66072693 0.00655370 0.00000000
2.23486094 1.68597048 0.00003721 0.00000000
4.79981036 0.94219615 0.00363969 0.00000000
0.91939936 1.73621129 -0.00347584 0.00000000
0.34377385 1.71717296 -0.00343699 0.00000000
2.13008440 0.38962251 -0.00016687 0.00000000
0.60543855 1.16850804 0.00096774 0.00000000
2.34404635 1.49350212 -0.00144716 0.00000000
0.28689936 1.78925090 0.00010147 0.00000000
1.58268005 1.66177645 0.00219022 0.00000000
3.61490951 1.84765606 0.00093846 0.00000000
3.94590728 1.41796943 -0.00044518 0.00000000
2.77671659 0.70857568 0.00112450 0.00000000
3.36881234 1.00828220 -0.00413096 0.00000000
4.62755221 0.56364214 0.00538811 0.00000000
2.73214122 1.82940173 -0.00201721 0.00000000
3.68196688 0.21892992 0.00043362 0.00000000
1.65146376 1.95955568 -0.00048019 0.00000000
1.70849115 1.29495274 -0.00065004 0.00000000
2.93323764 0.21771090 0.00274867 0.00000000
4.34197404 1.96777412 0.00344573 0.00000000
0.09245338 0.39106809 -0.00028226 0.00000000
4.79932374 1.76744609 0.00135893 0.00000000
3.79202515 1.47280605 0.00024442 0.00000000
1.89084314 0.64784521 -0.00289270 0.00000000
0.97071234 1.92955979 -0.00101286 0.00000000
2.73557871 0.00250371 0.00367237 0.00000000
4.56675043 0.03413688 0.00109434 0.00000000
1.94611937 1.62983104 0.00603492 0.00000000
2.79736228 0.27140667 -0.00147740 0.00000000
1.45851070 1.07233235 0.00145540 0.00000000
4.14527219 1.75410971 0.00031649 0.00000000
0.86757347 1.39623890 -0.00592587 0.00000000
4.70671447 1.79836406 -0.00385976 0.00000000
4.69995429 0.24724087 -0.00371035 0.00000000
0.20079748 0.10653515 0.00100092 0.00000000
4.57524159 1.12122313 -0.00037537 0.00000000
1.92990119 0.20447709 -0.00045955 0.00000000
1.08072712 1.14128004 -0.00325012 0.00000000
2.13038644 1.54594413 0.00171666 0.00000000
0.55686307 0.21487753 0.00045789 0.00000000
2.23211523 0.53222374 -0.00005707 0.00000000
2.17762894 0.39724102 0.00353242 0.00000000
2.61766969 1.95927661 0.00009684 0.00000000
0.55218520 1.74424468 0.00014656 0.00000000
0.11773114 1.77855266 0.00220680 0.00000000
2.84111833 1.68468685 0.00498217 0.00000000
3.10453080 0.98876822 -0.00170658 0.00000000
1.02104755 0.91057776 -0.00499750 0.00000000
2.92016936 0.41303179 -0.00170702 0.00000000
4.31503634 1.32284380 -0.00116225 0.00000000
1.90718226 1.86155193 0.00099366 0.00000000
4.29855755 1.09317756 -0.00333398 0.00000000
0.66390866 0.73353726 0.00161148 0.00000000
4.23637324 1.90315603 0.00040094 0.00000000
0.32441726 0.22764895 0.00010181 0.00000000
3.81407325 1.28688682 0.00176931 0.00000000
0.71672534 0.56044876 -0.00201929 0.00000000
3.07453349 1.30472240 0.00385028 0.00000000
1.27158267 0.83721273 -0.00438707 0.00000000
3.76250750 0.97717728 -0.00125578 0.00000000
2.23803616 0.76468209 -0.00261526 0.00000000
3.11342120 0.09728989 0.00353370 0.00000000
0.11778008 1.64523414 0.00065371 0.00000000
0.09903378 0.11879981 0.00324836 0.00000000
1.10044755 1.11650899 0.00014001 0.00000000
1.64673675 0.08681430 0.00081746 0.00000000
4.09884482 0.65027052 -0.00276530 0.00000000
4.79459942 0.50023317 0.00092520 0.00000000
1.04241571 0.00454138 0.00010703 0.00000000
0.65603055 1.69769515 0.00702639 0.00000000
4.73638288 0.91199543 -0.00284393 0.00000000
1.48367120 1.89399264 -0.00196450 0.00000000
4.72812421 0.90529661 -0.00011394 0.00000000
2.66673801 1.20211855 -0.00025524 0.00000000
3.53950259 0.60287978 -0.00165669 0.00000000
4.57360546 0.55776127 0.00210224 0.00000000
3.77605206 0.21987712 -0.00756031 0.00000000
0.00948244 0.11439697 -0.00456889 0.00000000
2.32327239 0.52756092 0.00299136 0.00000000
1.16664700 0.05716945 -0.00018595 0.00000000
4.54492294 1.68789068 0.00086069 0.00000000
4.71201646 0.71168272 0.00205331 0.00000000
3.25276395 0.69988893 0.00318477 0.00000000
4.23460823 0.60963239 0.00049041 0.00000000
1.54413304 1.39136045 0.00016394 0.00000000
4.75523723 1.55389970 0.00180293 0.00000000
1.92554269 1.33263203 0.00237781 0.00000000
0.67705489 1.45472871 -0.00032771 0.00000000
3.06720517 0.94660353 0.00377981 0.00000000
1.47997900 0.91130412 0.00163910 0.00000000
0.10293832 0.77838149 -0.00085928 0.00000000
1.55561548 0.46082346 0.00045472 0.00000000
3.11715865 0.17091175 0.00086716 0.00000000
4.11826954 0.47425640 -0.00253052 0.00000000
2.16978653 0.34379240 -0.00144436 0.00000000
2.44886856 0.85383951 0.00060696 0.00000000
1.11111191 0.17512958 0.00116131 0.00000000
2.39800878 0.24357597 0.00077745 0.00000000
4.52599678 1.48823759 -0.00125163 0.00000000
2.48791892 0.02309816 -0.00126931 0.00000000
4.75932735 0.43348961 0.00375987 0.00000000
2.91319937 1.43029429 0.00085115 0.00000000
4.24839449 1.88017475 0.00014730 0.00000000
2.74461670 1.00943011 0.00051619 0.00000000
2.27702160 0.41017186 0.00168566 0.00000000
3.90797263 1.51201925 0.00014263 0.00000000
2.29141062 1.33070166 0.00149369 0.00000000
4.87823492 1.58013139 0.00061370 0.00000000
2.81740319 1.53249974 0.00154355 0.00000000
4.62107821 1.19757696 -0.00069153 0.00000000
4.76113602 0.21204793 -0.00257741 0.00000000
0.60368465 0.26952821 -0.00251586 0.00000000
1.24409192 0.98299568 -0.00338456 0.00000000
2.98246618 1.39508032 0.00142860 0.00000000
4.41333518 1.08133174 0.00031515 0.00000000
2.99755533 1.28299130 0.00402254 0.00000000
2.79668492 1.74134229 0.00209715 0.00000000
4.24165692 0.91240685 0.00260744 0.00000000
3.62710418 1.21086791 0.00333915 0.00000000
3.96071664 0.33395628 0.00514847 0.00000000
2.82313020 0.84689372 0.00249449 0.00000000
2.26123491 1.01983742 0.00261972 0.00000000
0.30688459 0.92796453 -0.00399201 0.00000000
1.22610864 0.87284280 -0.00200666 0.00000000
4.22534892 0.15035928 -0.00102240 0.00000000
3.48600659 0.36193082 0.00247143 0.00000000
4.72476432 0.40899833 -0.00311822 0.00000000
1.89311414 0.62090310 0.00160177 0.00000000
0.15451089 0.35246186 0.00148446 0.00000000
4.31713343 0.22825388 -0.00139411 0.00000000
2.55400215 0.10243317 -0.00122532 0.00000000
2.90171546 0.46630457 0.00613448 0.00000000
0.15280133 0.22227158 -0.00359624 0.00000000
4.74993347 1.58717817 0.00018261 0.00000000
1.28904667 0.48447807 0.00412309 0.00000000
3.23102925 1.21281044 0.00211079 0.00000000
2.74448561 1.17908794 -0.00123456 0.00000000
1.22908816 0.02598664 0.00087259 0.00000000
2.82401191 1.18014630 0.00207630 0.00000000
1.95084923 0.71330227 -0.00248784 0.00000000
0.69743780 0.83896473 -0.00567696 0.00000000
0.77818432 0.56195758 0.00046164 0.00000000
3.93053046 1.30627210 -0.00316359 0.00000000
0.71418337 0.97219961 0.00097054 0.00000000
3.95336394 0.88495182 0.00184400 0.00000000
4.02510949 0.31574024 -0.00141358 0.00000000
1.76105611 1.63845621 -0.00310771 0.00000000
0.95410219 1.14340945 0.00166224 0.00000000
4.57253539 0.19796655 -0.00192555 0.00000000
0.32893072 1.74243158 -0.00072433 0.00000000
1.24542872 1.08500255 0.00076592 0.00000000
4.55992192 0.29697596 -0.00159331 0.00000000
1.65490403 0.27727133 0.00347697 0.00000000
2.91969324 1.86281024 -0.00271757 0.00000000
3.57163004 0.76338679 -0.00041201 0.00000000
1.62842310 1.54507316 0.00436818 0.00000000
1.18545101 0.32322792 -0.00166002 0.00000000
3.70308982 0.48995962 0.00411542 0.00000000
4.53826391 0.52771013 -0.00260598 0.00000000
2.55086885 1.93292292 0.00474302 0.00000000
1.42592381 0.11970030 0.00235949 0.00000000
3.07271906 1.86742964 0.00418550 0.00000000
1.53469875 1.25166651 0.00201520 0.00000000
2.97548076 0.86067840 0.00219848 0.00000000
3.27332329 0.39367889 0.00166970 0.00000000
3.20684337 0.94733923 -0.00216956 0.00000000
4.73097067 0.81056297 -0.00114850 0.00000000
2.14489512 0.50610950 0.00498404 0.00000000
3.01329966 1.21820085 -0.00017914 0.00000000
4.64542729 0.48566384 0.00084013 0.00000000
2.93891439 1.70381969 0.00131304 0.00000000
1.15804193 1.85500045 -0.00054195 0.00000000
2.60545991 1.95327041 0.00007522 0.00000000
3.38295812 1.89821324 0.00114482 0.00000000
2.55481062 1.78349665 0.00024698 0.00000000
1.00323022 1.40707843 0.00121781 0.00000000
3.34521785 1.01626559 0.00196254 0.00000000
0.38815920 0.49625996 -0.00159902 0.00000000
3.62142121 0.01384847 0.00322848 0.00000000
1.30923098 1.76517755 0.00060388 0.00000000
2.18898152 0.84780199 0.00003074 0.00000000
2.44197512 0.88851346 0.00263094 0.00000000
3.57395632 1.92580791 0.00211995 0.00000000
1.60489793 0.33856176 -0.00061342 0.00000000
0.85648465 1.15616158 -0.00103374 0.00000000
4.08856402 0.27391762 -0.00392298 0.00000000
0.14195960 1.91125259 -0.00323253 0.00000000
0.09031209 0.51425405 -0.00383797 0.00000000
0.86321309 1.69687790 0.00417081 0.00000000
4.43335551 0.92186509 0.00128946 0.00000000
3.15700572 1.96787372 -0.00369157 0.00000000
4.29377023 0.56983658 -0.00018567 0.00000000
4.54434288 1.82068248 0.00034267 0.00000000
4.36585465 0.22156914 0.00206942 0.00000000
4.15283005 1.35029603 0.00144605 0.00000000
3.40143796 0.18883096 -0.00048873 0.00000000
2.02023134 0.51024201 0.00067642 0.00000000
0.33758989 0.52095506 0.00260152 0.00000000
3.49114192 0.59917947 -0.00474755 0.00000000
0.54058600 0.34770635 -0.00291019 0.00000000
3.83573021 1.03763331 0.00466656 0.00000000
1.67817933 1.74304002 0.00203331 0.00000000
4.25644059 0.92080573 0.00163943 0.00000000
4.68489810 1.74234178 -0.00339132 0.00000000
0.68617031 0.94235973 0.00249292 0.00000000
2.83264979 0.20481533 0.00443363 0.00000000
2.83623352 0.19652249 -0.00202041 0.00000000
3.73789375 1.10181178 0.00076669 0.00000000
2.64724684 1.45150023 0.00267926 0.00000000
1.69201730 1.17360052 -0.00046441 0.00000000
4.30280242 0.87241373 0.00226806 0.00000000
2.14685359 1.87421648 -0.00426525 0.00000000
1.82644536 1.10961594 0.00238908 0.00000000
3.53194031 0.09953467 -0.00445777 0.00000000
4.66278537 1.18155748 -0.00070138 0.00000000
4.43159996 0.95679249 -0.00270467 0.00000000
2.93940291 1.11321255 -0.00128145 0.00000000
2.20373602 0.59904858 0.00094863 0.00000000
1.02364382 1.07770160 -0.00116040 0.00000000
4.93891567 1.25889193 0.00296717 0.00000000
1.67653169 0.22731794 -0.00021433 0.00000000
4.40633107 1.06654015 -0.00032369 0.00000000
3.68179319 0.79142453 -0.00057428 0.00000000
0.61537808 0.09064954 -0.00180570 0.00000000
4.53051747 0.71915065 0.00091206 0.00000000
2.53114899 1.68326485 0.00332451 0.00000000
4.29294100 0.02767967 -0.00205277 0.00000000
0.34878980 0.48896365 -0.00027979 0.00000000
3.60459969 0.40039147 0.00334203 0.00000000
3.64987719 1.07904550 0.00349992 0.00000000
2.52020295 0.11154863 0.00019261 0.00000000
3.40363789 1.25129583 0.00115077 0.00000000
0.43690673 1.47552189 0.00315137 0.00000000
1.65561535 0.53393188 0.00390153 0.00000000
3.98391631 0.78303273 -0.00147795 0.00000000
4.20797328 0.52850631 -0.00517403 0.00000000
0.13582025 0.89599932 0.00125460 0.00000000
1.73488057 1.68035512 0.00054383 0.00000000
3.67856102 1.21418263 -0.00056748 0.00000000
1.51672694 0.47963006 0.00066327 0.00000000
1.83133751 0.28959563 -0.00165539 0.00000000
1.11073409 1.22381221 0.00412917 0.00000000
2.64297771 1.00776152 0.00394358 0.00000000
0.32287945 0.53685991 -0.00261381 0.00000000
3.43974954 1.27324594 0.00055835 0.00000000
1.73155233 1.14013223 -0.00060742 0.00000000
2.27310081 0.92925115 0.00106529 0.00000000
1.85230055 0.70069562 -0.00087566 0.00000000
0.67720638 0.28527896 0.00316185 0.00000000
1.77221955 1.18649845 0.00015084 0.00000000
1.30231690 1.38411384 0.00019954 0.00000000
3.09362850 0.23144611 0.00239862 0.00000000
1.51539142 1.39655982 0.00241631 0.00000000
0.41924005 0.21236807 0.00085077 0.00000000
4.25452475 1.90172368 0.00055196 0.00000000
4.73673317 0.37769057 -0.00369937 0.00000000
1.69132670 0.07278212 0.00215476 0.00000000
0.47406433 0.10830438 0.00154684 0.00000000
1.14115843 0.79072751 0.00091060 0.00000000
0.15644571 0.29081989 0.00011110 0.00000000
4.70954897 1.02874013 0.00206544 0.00000000
0.44748822 0.41460233 0.00234263 0.00000000
2.93381618 0.70206133 0.00017263 0.00000000
1.29868715 0.37219687 0.00061676 0.00000000
4.74182389 1.79119775 -0.00143311 0.00000000
4.38933483 0.34968656 -0.00058490 0.00000000
0.73491106 0.17279565 0.00472216 0.00000000
1.28477721 1.49358911 -0.00235761 0.00000000
2.73992056 0.58386025 0.00040550 0.00000000
4.08105054 0.79249031 -0.00004130 0.00000000
0.83135334 1.24030370 0.00058324 0.00000000
3.95644552 1.82702864 -0.00088523 0.00000000
2.17672520 0.26896774 0.00199414 0.00000000
2.03148064 1.51043340 0.00126561 0.00000000
2.93750401 0.77686667 -0.00042840 0.00000000
1.88108397 1.08739584 0.00216282 0.00000000
3.10662236 0.78873453 0.00141473 0.00000000
3.49321362 1.09692780 -0.00140564 0.00000000
2.79327069 1.12097870 -0.00163768 0.00000000
3.53993858 1.22941489 -0.00100581 0.00000000
2.40593672 1.93973234 -0.00166865 0.00000000
3.97170927 1.91663615 0.00120688 0.00000000
2.25522426 0.47473328 0.00076527 0.00000000
2.66687631 1.15691796 0.00566816 0.00000000
2.01702274 1.37860004 -0.00247313 0.00000000
3.32024282 0.36954785 0.00203965 0.00000000
2.18288729 0.99635962 0.00093795 0.00000000
2.33221455 0.37652641 0.00131881 0.00000000
2.54209246 0.00596812 -0.00116199 0.00000000
1.03938331 0.27181356 0.00183540 0.00000000
1.90873680 1.10367680 -0.00017010 0.00000000
4.11301072 0.17366004 -0.00558886 0.00000000
0.79627471 1.97999217 0.00300703 0.00000000
2.33218446 0.02609784 0.00082139 0.00000000
2.06844595 1.94816926 -0.00098882 0.00000000
3.87396334 0.84712420 -0.00079909 0.00000000
1.29656107 0.89973135 -0.00188967 0.00000000
2.84377410 1.04913517 0.00049560 0.00000000
2.51436286 0.46762342 0.00156967 0.00000000
4.34582443 0.47101185 0.00120739 0.00000000
1.08475241 1.00827821 -0.00002656 0.00000000
3.20697471 0.24399541 -0.00195190 0.00000000
4.67162997 1.44320928 0.00028773 0.00000000
4.21202647 0.65246093 0.00046996 0.00000000
3.86476977 1.27929141 -0.00024016 0.00000000
3.01525236 1.49137281 0.00192678 0.00000000
0.12320677 0.28496160 0.00028600 0.00000000
1.07467852 1.73515177 -0.00456497 0.00000000
3.20482342 1.76541348 0.00149596 0.00000000
2.27409180 0.47099310 0.00354034 0.00000000
2.54301389 0.32734731 0.00400036 0.00000000
0.55214135 1.51354177 0.00277492 0.00000000
0.37645068 1.87242609 0.00225233 0.00000000
0.58622941 0.27419332 -0.00162606 0.00000000
0.90424266 0.79533763 0.00178606 0.00000000
4.87499641 0.35535731 0.00332759 0.00000000
3.44026656 1.93081526 0.00183738 0.00000000
0.91589151 0.00626443 0.00201390 0.00000000
4.57671137 1.59293307 -0.00303731 0.00000000
1.04308543 1.25257402 0.00218802 0.00000000
0.60476402 1.25586463 -0.00029660 0.00000000
2.52914057 1.43540580 -0.00102851 0.00000000
0.17798493 0.64731296 0.00083543 0.00000000
2.86429237 1.10732199 -0.00001935 0.00000000
1.62816162 0.71216594 -0.00295537 0.00000000
3.52764672 1.26657018 0.00008891 0.00000000
4.49047067 1.06261111 -0.00392185 0.00000000
2.59917297 1.90311907 -0.00203304 0.00000000
4.55495310 0.40739518 -0.00089259 0.00000000
4.77196936 1.02180960 -0.00381080 0.00000000
2.43728902 0.05598433 0.00089746 0.00000000
1.63528238 0.47977735 -0.00122421 0.00000000
3.59041762 1.20799273 0.00159391 0.00000000
3.34285667 0.76784549 0.00233862 0.00000000
0.32503083 1.63764300 -0.00249001 0.00000000
2.58429986 1.72735136 -0.00144141 0.00000000
4.87387693 0.07683143 -0.00155708 0.00000000
2.88920609 0.50563157 0.00079515 0.00000000
1.65683521 0.14497684 -0.00439083 0.00000000
2.61086877 0.86176513 -0.00206793 0.00000000
1.13665272 0.95144325 0.00022675 0.00000000
3.35137656 0.32251311 0.00556592 0.00000000
4.39028344 0.56361590 0.00076619 0.00000000
4.64945875 1.67918355 -0.00026168 0.00000000
1.86156199 1.46396821 0.00160131 0.00000000
4.58804883 0.82415610 0.00104241 0.00000000
2.85652007 0.84811797 -0.00089878 0.00000000
2.73588292 0.68604756 -0.00167093 0.00000000
4.38079833 0.17385099 0.00160912 0.00000000
3.53832209 0.69642823 -0.00192556 0.00000000
1.85392600 0.15204207 -0.00259312 0.00000000
1.77155429 0.40121917 -0.00029815 0.00000000
0.85529780 1.87032547 0.00160234 0.00000000
4.82702986 1.03153710 -0.00118177 0.00000000
3.84472703 1.56196256 -0.00014220 0.00000000
4.54850510 0.33604898 0.00158027 0.00000000
4.13674748 0.27158437 0.00211599 0.00000000
3.90802907 1.70661019 -0.00144208 0.00000000
1.16866555 0.12078132 0.00202022 0.00000000
3.43061791 1.28169868 -0.00192467 0.00000000
4.42164086 0.69166562 0.00205056 0.00000000
2.09586637 0.64267109 -0.00344209 0.00000000
1.40029435 0.41684999 0.00248455 0.00000000
3.57276913 0.55568049 0.00067544 0.00000000
2.98390088 1.01765739 -0.00304773 0.00000000
1.15859571 0.89253047 0.00417888 0.00000000
0.28818705 0.82872090 0.00162357 0.00000000
4.28549571 1.11674575 -0.00235670 0.00000000
4.49819705 0.76383827 -0.00154051 0.00000000
2.41950089 0.91481105 -0.00060441 0.00000000
3.64686914 0.17621492 0.00011760 0.00000000
1.96962468 1.85001601 -0.00119126 0.00000000
0.57184853 0.47006933 -0.00408338 0.00000000
4.55724707 1.92161111 0.00373288 0.00000000
4.08934608 0.22079661 -0.00290615 0.00000000
3.82367499 1.67300007 0.00176099 0.00000000
2.76394222 1.10671351 -0.00266595 0.00000000
2.57814309 0.81543764 0.00430432 0.00000000
2.68189948 0.35139105 -0.00079207 0.00000000
4.73334285 0.70657496 0.00267526 0.00000000
0.68368113 0.18832001 0.00058827 0.00000000
1.59542429 0.14021475 0.00230501 0.00000000
3.74453745 1.96791567 -0.00275484 0.00000000
1.60188449 0.06374012 -0.00084363 0.00000000
2.71690942 1.77680272 -0.00135453 0.00000000
2.24175983 0.75673911 0.00002709 0.00000000
4.23520723 0.69091854 -0.00058690 0.00000000
4.05731285 0.04467946 -0.00279273 0.00000000
4.63519845 1.43045566 -0.00137931 0.00000000
3.49804246 1.13677355 0.00206337 0.00000000
2.09920242 1.87576574 0.00052962 0.00000000
2.20835448 1.60791670 -0.00238927 0.00000000
3.58184198 1.03026775 0.00054233 0.00000000
3.16756941 1.91512661 -0.00105208 0.00000000
