3.25076152 0.49897863 -0.00193627 0.00000000
4.01229882 1.09267442 -0.00001683 0.00000000
1.28165948 1.37256954 0.00575166 0.00000000
4.13380908 0.61361016 -0.00399210 0.00000000
0.11890008 1.26047157 -0.00027281 0.00000000
3.20847963 0.56518373 -0.00348822 0.00000000
3.37580878 0.73248169 0.00070924 0.00000000
2.44307052 0.91582773 0.00126183 0.00000000
1.66921680 0.83273957 0.00124876 0.00000000
2.52104840 0.67794214 0.00075361 0.00000000
4.40396598 1.56402646 -0.00318681 0.00000000
3.86431897 0.23200926 -0.00046997 0.00000000
3.63003453 0.97658358 0.00047213 0.00000000
3.74209381 0.01933363 -0.00089490 0.00000000
1.82199768 1.64217304 0.00277495 0.00000000
2.31968239 1.67547228 0.00137857 0.00000000
1.85024660 0.43464536 0.00377130 0.00000000
1.77100580 1.05017685 -0.00452662 0.00000000
1.37839184 0.23709731 -0.00191513 0.00000000
4.80092623 0.76924204 -0.00283864 0.00000000
4.08641516 1.16339074 0.00405582 0.00000000
2.63781297 0.37988167 -0.00216902 0.00000000
3.33688431 0.72831823 -0.00352034 0.00000000
3.62290000 0.91920292 0.00159118 0.00000000
4.58064096 1.66075306 -0.00155053 0.00000000
2.24553413 0.85924927 -0.00166069 0.00000000
4.67216519 0.91334109 0.00094602 0.00000000
2.97423497 0.02780251 0.00501357 0.00000000
0.41228966 1.16570546 -0.00027375 0.00000000
4.02937893 0.42109107 0.00201544 0.00000000
3.27064664 1.28148671 -0.00042751 0.00000000
1.60460875 0.01172705 -0.00098002 0.00000000
3.34437764 0.56447913 -0.00184204 0.00000000
3.20726308 0.60974784 0.00319426 0.00000000
3.19151415 0.31410573 -0.00024865 0.00000000
1.63789615 0.42013394 -0.00471377 0.00000000
0.64139791 0.13451413 -0.00519527 0.00000000
0.44215992 0.75136182 0.00199907 0.00000000
4.25480448 0.27442546 0.00146809 0.00000000
0.31245866 0.29636346 0.00051398 0.00000000
0.23200225 0.96423193 0.00130319 0.00000000
2.25868710 0.01410656 0.00299577 0.00000000
4.24392651 1.62997522 -0.00245827 0.00000000
3.54940649 0.09968570 0.00018415 0.00000000
2.37955559 0.09771258 0.00516268 0.00000000
2.25594723 0.96053105 -0.00137813 0.00000000
1.09075218 1.43868336 -0.00078625 0.00000000
2.26312293 1.42857523 -0.00173341 0.00000000
0.41214031 0.12585813 -0.00756662 0.00000000
4.51865796 1.71105952 0.00171710 0.00000000
1.26136476 0.32690564 -0.00222813 0.00000000
3.46314744 1.13055773 0.00079037 0.00000000
0.04427857 0.61673361 -0.00100672 0.00000000
1.46812045 1.42356133 -0.00213478 0.00000000
1.71747972 1.53988470 -0.00255830 0.00000000
4.20077775 1.17107879 0.00329380 0.00000000
0.80262004 0.28579877 -0.00358126 0.00000000
2.59149278 0.97665166 -0.00354172 0.00000000
1.41271712 1.14850984 -0.00146499 0.00000000
4.71672269 1.63706206 0.00627014 0.00000000
3.62833388 0.75278076 -0.00218019 0.00000000
0.96107857 1.72328670 -0.00034442 0.00000000
4.23449509 1.29350487 -0.00118979 0.00000000
3.43060810 1.13827096 0.00070914 0.00000000
0.54405750 1.73231524 -0.00436709 0.00000000
2.34708282 0.72479182 0.00188115 0.00000000
0.17321376 0.70077384 -0.00434118 0.00000000
1.68517417 0.62319509 -0.00280965 0.00000000
4.65307824 0.50146928 0.00127571 0.00000000
0.05812318 1.16435042 -0.00258060 0.00000000
2.01804155 0.59664867 0.00308153 0.00000000
4.52831871 1.65453793 -0.00385215 0.00000000
4.29578789 0.50406131 0.00009661 0.00000000
0.59389535 0.21996515 -0.00362399 0.00000000
0.50434403 0.12461692 -0.00660805 0.00000000
4.67602499 0.25998229 -0.00252952 0.00000000
0.49230059 0.60280053 0.00345074 0.00000000
3.17703513 0.52766268 0.00238212 0.00000000
3.33797321 0.12648032 -0.00200236 0.00000000
1.35966970 0.49852546 0.00262722 0.00000000
0.46515439 0.96839647 0.00069011 0.00000000
2.13579600 0.06274694 0.00130858 0.00000000
2.05143983 0.07347319 -0.00184845 0.00000000
1.13521697 0.12461370 -0.00193555 0.00000000
0.16555911 0.61388796 0.00017082 0.00000000
4.22382700 0.08099162 0.00291421 0.00000000
3.97620928 0.01941212 -0.00041790 0.00000000
2.55288419 1.14391643 0.00067946 0.00000000
0.38649121 1.25112285 0.00217876 0.00000000
3.10981450 1.00287340 -0.00420229 0.00000000
1.05277409 1.21670624 -0.00264302 0.00000000
4.46024357 1.37033512 -0.00314596 0.00000000
0.00725043 1.56655458 -0.00285522 0.00000000
2.47981596 0.69723740 0.00337115 0.00000000
0.62689017 0.41923858 -0.00133451 0.00000000
2.24707428 1.70339072 -0.00012492 0.00000000
3.57489647 0.52178603 0.00167513 0.00000000
4.44523430 1.01566606 0.00153090 0.00000000
3.37585252 1.24879498 0.00386921 0.00000000
1.44837071 0.63632262 -0.00165331 0.00000000
4.25025338 1.23721155 0.00234453 0.00000000
4.77530025 1.61721907 0.00037169 0.00000000
3.66630126 0.61270623 -0.00515369 0.00000000
2.46099320 0.86862772 -0.00363140 0.00000000
0.99616742 1.61684660 0.00190568 0.00000000
3.09060446 1.24814636 -0.00260902 0.00000000
0.35776354 0.43342773 -0.00009806 0.00000000
0.45232587 1.13600147 -0.00291839 0.00000000
3.30127682 1.12242010 0.00159097 0.00000000
0.42477419 1.70055044 0.00341453 0.00000000
3.13900299 1.13622769 -0.00027701 0.00000000
2.91660161 1.02341170 -0.00162914 0.00000000
3.30475704 0.52612749 -0.00188687 0.00000000
1.22578745 0.96470080 0.00258321 0.00000000
3.87732194 0.10319410 -0.00153267 0.00000000
2.39126282 1.08835554 -0.00140272 0.00000000
0.60031336 1.51305593 -0.00283379 0.00000000
2.36558315 1.73051542 0.00016181 0.00000000
2.71710796 1.54865001 0.00318172 0.00000000
3.59121209 1.41135153 0.00134517 0.00000000
4.49117569 0.91307645 -0.00011888 0.00000000
0.59162909 0.66363668 -0.00006273 0.00000000
4.62529130 0.53066711 -0.00043810 0.00000000
0.96134785 1.12327239 0.00206356 0.00000000
1.12451110 1.39984620 -0.00281194 0.00000000
3.44405592 0.07058222 -0.00220561 0.00000000
0.20302279 1.58354537 -0.00450477 0.00000000
1.96445557 0.79959257 0.00233713 0.00000000
0.51151248 1.07103865 -0.00041235 0.00000000
0.81404406 0.05695493 0.00218143 0.00000000
0.08213007 1.11471224 -0.00176970 0.00000000
1.97895653 1.19118198 0.00246060 0.00000000
4.46047605 1.03273286 -0.00020377 0.00000000
1.19225751 0.29618624 -0.00137016 0.00000000
0.39486278 0.29705888 0.00139196 0.00000000
3.74279071 0.58488927 -0.00193710 0.00000000
1.42720855 0.47839656 -0.00077975 0.00000000
0.34842484 0.41191115 -0.00080722 0.00000000
0.12693762 0.05300899 -0.00000034 0.00000000
3.77127939 0.06082796 -0.00164673 0.00000000
0.84513164 0.92259830 -0.00135328 0.00000000
3.86391481 1.66799737 -0.00504441 0.00000000
0.42355424 0.68233889 -0.00169084 0.00000000
3.43529264 0.50449439 -0.00208897 0.00000000
3.92306682 0.36890364 0.00144583 0.00000000
3.15164859 1.68162185 0.00208175 0.00000000
3.74666225 0.79847488 -0.00463321 0.00000000
2.96766980 0.59178374 -0.00164134 0.00000000
1.24865668 1.26742515 0.00031828 0.00000000
0.57957808 1.18390429 -0.00426902 0.00000000
4.79240701 1.71401218 0.00040182 0.00000000
0.94974919 0.38622783 -0.00108844 0.00000000
2.33240689 0.12354525 -0.00092044 0.00000000
3.70878974 1.45451747 0.00155079 0.00000000
0.06314468 1.55273003 0.00304993 0.00000000
2.73742158 0.12485603 0.00394716 0.00000000
1.70621089 0.11864228 0.00209786 0.00000000
2.92609207 0.38473513 0.00005817 0.00000000
2.80418467 0.53875891 0.00034995 0.00000000
0.94131797 1.09909335 -0.00275155 0.00000000
0.52497528 0.69450722 -0.00317327 0.00000000
2.31414616 1.64776745 -0.00636567 0.00000000
0.15769234 1.38727940 -0.00040761 0.00000000
0.27108241 0.07749538 -0.00210909 0.00000000
1.99532015 0.25919721 0.00042308 0.00000000
0.76498856 0.45754252 -0.00066689 0.00000000
2.45167834 0.77274372 0.00228996 0.00000000
4.25835068 1.57112037 -0.00213866 0.00000000
1.35421563 1.49129567 0.00142131 0.00000000
4.69751946 1.49989683 0.00061226 0.00000000
4.34981667 1.56386776 0.00245406 0.00000000
3.17075025 0.81035577 -0.00080207 0.00000000
4.68631327 0.84515985 0.00066727 0.00000000
3.95364479 1.67343671 0.00431047 0.00000000
0.23411340 0.25788247 -0.00148002 0.00000000
4.03993089 0.13060289 -0.00168298 0.00000000
0.16108498 1.23565886 0.00230761 0.00000000
1.88050941 0.72981613 -0.00117798 0.00000000
2.88001381 0.93930876 -0.00089278 0.00000000
0.94947390 1.27541847 0.00078942 0.00000000
1.10664391 0.25357985 -0.00144788 0.00000000
4.04562262 0.40918380 -0.00052891 0.00000000
1.98217021 1.38478597 0.00286644 0.00000000
3.89261301 1.67817317 -0.00100104 0.00000000
4.61979049 0.96704899 0.00299423 0.00000000
3.69334087 0.34134600 0.00635261 0.00000000
0.31092309 1.09130978 0.00154301 0.00000000
4.77864823 0.28768553 0.00025843 0.00000000
4.13826578 1.39190722 -0.00013569 0.00000000
1.31482319 1.23302630 -0.00252755 0.00000000
3.60984668 1.16699052 0.00180805 0.00000000
2.24838974 0.27248327 -0.00065718 0.00000000
1.05669670 1.63037790 0.00097588 0.00000000
0.28516768 1.03077767 -0.00393754 0.00000000
3.03337862 0.96372897 -0.00086989 0.00000000
2.46119667 1.20157008 -0.00243925 0.00000000
3.50506204 0.16473669 0.00296497 0.00000000
2.42381249 0.86576629 0.00073009 0.00000000
1.61007275 0.65504910 0.00162134 0.00000000
4.24764919 0.55763763 -0.00319721 0.00000000
0.24022478 1.62491707 -0.00451969 0.00000000
4.52638612 0.50182964 0.00154270 0.00000000
1.32601953 0.80351571 -0.00385170 0.00000000
0.97548638 1.22352549 -0.00440635 0.00000000
3.64017750 0.14174145 -0.00096737 0.00000000
4.52902357 0.83561970 -0.00068082 0.00000000
2.50422257 0.48468973 0.00069105 0.00000000
2.06338030 -0.00325388 0.00473525 1.00000000
0.55254781 0.00316439 -0.00091205 1.00000000
3.25361711 0.00411950 -0.00190331 1.00000000
3.37234415 -0.00333847 -0.00223443 1.00000000
1.10493206 -0.00175958 -0.00204691 1.00000000
2.49709920 -0.00103690 0.00160037 1.00000000
2.39371964 0.00176993 0.00274295 1.00000000
1.15304783 0.00062064 0.00303703 1.00000000
4.65356363 0.00112538 -0.00247602 1.00000000
1.57731427 -0.00234925 0.00109700 1.00000000
0.38368710 0.00251290 0.00106291 1.00000000
4.70717781 0.00336422 0.00330745 1.00000000
0.66439128 -0.00089402 0.00011602 1.00000000
0.84522132 -0.00036981 0.00039016 1.00000000
4.03514628 -0.00089422 0.00200200 1.00000000
1.92487237 0.00151679 0.00080552 1.00000000
3.17882361 0.00174416 -0.00419492 1.00000000
2.46003051 0.00046171 -0.00010305 1.00000000
4.34289222 0.00429429 0.00389706 1.00000000
1.01182067 0.00512617 -0.00051379 1.00000000
0.38823372 0.00136929 0.00256405 1.00000000
2.31116912 -0.00156454 0.00443990 1.00000000
2.79849335 -0.00299347 0.00058717 1.00000000
2.05535583 -0.00603902 0.00190553 1.00000000
3.24439326 0.00111002 -0.00498587 1.00000000
0.79377118 -0.00464534 0.00089442 1.00000000
4.50044144 -0.00050617 0.00535981 1.00000000
1.70232323 -0.00877662 0.00302473 1.00000000
1.07033441 -0.00077784 -0.00100442 1.00000000
1.21363556 -0.00343673 -0.00031222 1.00000000
0.78661934 0.00001135 0.00138576 1.00000000
0.65610587 0.00065223 0.00188708 1.00000000
2.03905990 -0.00045188 0.00358799 1.00000000
1.27960403 0.00233594 -0.00357848 1.00000000
3.70945801 -0.00364554 0.00135141 1.00000000
2.21316857 -0.00413275 -0.00130562 1.00000000
2.77681093 0.00349770 -0.00069454 1.00000000
0.46803148 -0.00164508 0.00004276 1.00000000
1.19037482 -0.00259655 -0.00283205 1.00000000
2.99131615 -0.00414802 0.00305027 1.00000000
0.21501791 -0.00011533 -0.00004740 1.00000000
3.02831514 0.00043068 0.00298552 1.00000000
3.04366336 0.00018323 0.00026540 1.00000000
3.98285156 -0.00002705 0.00094893 1.00000000
3.87951579 -0.00252075 0.00223899 1.00000000
3.52156650 -0.00338312 -0.00095637 1.00000000
4.25232559 -0.00196286 -0.00315166 1.00000000
2.75016936 0.00055199 0.00055709 1.00000000
2.37561946 -0.00606118 0.00099745 1.00000000
2.78833078 -0.00065384 0.00388187 1.00000000
1.39637879 0.00198810 0.00159806 1.00000000
0.44159536 -0.00238336 -0.00072746 1.00000000
0.92539066 -0.00216200 0.00232607 1.00000000
1.40639140 0.00147528 0.00446827 1.00000000
1.72930072 -0.00325868 -0.00102858 1.00000000
4.09714026 -0.00005878 0.00002075 1.00000000
3.71422627 -0.00042938 0.00022543 1.00000000
4.58026971 -0.00045991 0.00416068 1.00000000
3.71419650 0.00169345 -0.00102236 1.00000000
4.63033162 -0.00007881 0.00134877 1.00000000
4.33244330 -0.00108626 0.00357126 1.00000000
0.89548490 0.00093706 -0.00064489 1.00000000
4.58080060 0.00055816 0.00450765 1.00000000
3.21148018 -0.00024213 -0.00335764 1.00000000
2.36502352 -0.00182529 0.00341250 1.00000000
0.13119611 0.00150979 -0.00290585 1.00000000
0.02418720 -0.00079887 -0.00269088 1.00000000
3.43171334 0.00126604 0.00332235 1.00000000
3.29555346 -0.00099440 -0.00408497 1.00000000
3.75191826 -0.00054662 0.00369608 1.00000000
0.24882099 -0.00087277 -0.00403717 1.00000000
2.33539805 0.00193822 -0.00268356 1.00000000
0.18099502 0.00564495 -0.00200642 1.00000000
2.07183832 -0.00402810 -0.00089162 1.00000000
4.15623114 -0.00229607 -0.00212754 1.00000000
3.06627164 0.00332463 0.00220512 1.00000000
3.55711925 -0.00391383 0.00082257 1.00000000
1.80380155 -0.00042543 -0.00008588 1.00000000
1.80594485 0.00148933 -0.00099623 1.00000000
0.27447362 -0.00479413 -0.00214355 1.00000000
4.52513168 0.00205204 -0.00088838 1.00000000
3.79098517 -0.00279320 0.00119998 1.00000000
2.96342492 0.00013236 0.00024342 1.00000000
3.69713578 0.00341202 0.00079369 1.00000000
3.07693800 0.00270636 0.00280231 1.00000000
3.08926994 -0.00254492 -0.00161942 1.00000000
0.20449478 0.00082617 0.00508310 1.00000000
0.16907724 -0.00302393 -0.00032311 1.00000000
3.38193529 0.00665251 0.00316168 1.00000000
1.00508808 -0.00245888 -0.00040546 1.00000000
2.67753998 0.00279640 0.00317751 1.00000000
3.13222504 0.00579094 0.00033683 1.00000000
3.31791653 -0.00290627 -0.00079435 1.00000000
3.41222258 0.00025134 -0.00119747 1.00000000
3.15975702 -0.00238555 -0.00281428 1.00000000
1.11416742 -0.00064290 0.00056425 1.00000000
1.12289951 -0.00345903 -0.00135711 1.00000000
1.29943353 0.00123402 -0.00220358 1.00000000
0.76241501 0.00114250 -0.00192360 1.00000000
2.11184107 0.00129870 0.00144593 1.00000000
3.97111139 0.00271145 0.00104868 1.00000000
2.64691918 0.00249187 0.00234557 1.00000000
4.73648338 -0.00497186 -0.00230343 1.00000000
0.12829385 -0.00035618 -0.00094034 1.00000000
0.73921848 0.00422870 -0.00270450 1.00000000
3.62163448 0.00295047 -0.00294634 1.00000000
1.70637809 -0.00214418 0.00061464 1.00000000
1.75533186 0.00149687 0.00149414 1.00000000
4.62825876 0.00184358 -0.00465930 1.00000000
4.32342975 -0.00134184 0.00560322 1.00000000
2.94020116 0.00287414 -0.00059736 1.00000000
4.40358220 0.00508966 0.00175646 1.00000000
4.21038934 -0.00297533 -0.00116642 1.00000000
1.89202093 -0.00129002 0.00166684 1.00000000
0.36840238 0.00212254 0.00387345 1.00000000
1.10683286 -0.00237885 -0.00047596 1.00000000
2.86715014 0.00094036 -0.00086426 1.00000000
3.57886663 0.00385933 -0.00167903 1.00000000
3.96381421 -0.00041765 -0.00066124 1.00000000
3.81173249 0.00077406 -0.00357952 1.00000000
3.98262114 -0.00371496 -0.00066066 1.00000000
4.27510020 -0.00019803 0.00405398 1.00000000
3.16257544 -0.00127784 -0.00335333 1.00000000
4.65147411 0.00120208 0.00044690 1.00000000
3.95661535 -0.00327785 -0.00063235 1.00000000
3.72605182 0.00483697 0.00009031 1.00000000
3.10199101 0.00133433 0.00238178 1.00000000
1.19229059 -0.00270783 -0.00089348 1.00000000
2.59982936 0.00749272 -0.00132248 1.00000000
4.61812347 0.00142154 -0.00204837 1.00000000
0.99814582 0.00401489 -0.00236416 1.00000000
3.12932966 -0.00186534 -0.00430790 1.00000000
2.79025093 0.00107548 0.00200028 1.00000000
0.91815274 -0.00063139 0.00206684 1.00000000
0.02770452 0.00099036 0.00141892 1.00000000
1.90193377 0.00244993 0.00216909 1.00000000
1.11427378 -0.00078615 -0.00176805 1.00000000
2.78577998 -0.00348163 0.00030653 1.00000000
1.05210806 0.00109082 -0.00144382 1.00000000
0.94448678 -0.00148926 -0.00265577 1.00000000
1.92524090 0.00051960 0.00160087 1.00000000
2.38439939 -0.00027088 -0.00216971 1.00000000
4.46220407 0.01101468 0.00013483 1.00000000
0.70999932 0.00118677 -0.00007714 1.00000000
1.41115688 -0.00225681 0.00164590 1.00000000
1.81988109 0.00391842 -0.00069872 1.00000000
2.87390410 -0.00456947 -0.00160552 1.00000000
1.92664094 0.00274070 0.00341463 1.00000000
3.85038009 0.00170624 0.00115584 1.00000000
4.56579735 -0.00183148 0.00052251 1.00000000
3.64480154 -0.00179765 0.00215424 1.00000000
1.28621419 0.00040804 0.00118496 1.00000000
2.89456827 0.00652416 0.00077623 1.00000000
0.86955810 -0.00066384 -0.00409389 1.00000000
3.38577493 0.00858231 -0.00055741 1.00000000
2.03656511 -0.00149089 0.00815010 1.00000000
1.55324749 0.00236237 -0.00007759 1.00000000
3.47696205 0.00047646 0.00000332 1.00000000
4.17056722 -0.00051163 0.00019621 1.00000000
0.00960106 -0.00262069 -0.00336667 1.00000000
0.04123822 -0.00386125 0.00058942 1.00000000
1.19125491 -0.00332443 -0.00224421 1.00000000
1.66827464 -0.00071168 -0.00066761 1.00000000
3.88029525 -0.00241589 0.00027667 1.00000000
0.75041838 -0.00186700 0.00126822 1.00000000
1.31067995 -0.00190091 -0.15853061 0.00000000
3.53675372 -0.00203394 -0.05910957 0.00000000
1.75560158 -0.00157101 -0.04160175 0.00000000
2.59106890 0.00003738 -0.17517172 0.00000000
2.99404490 -0.00008329 -0.22397073 0.00000000
0.89826869 0.00146929 -0.15040098 0.00000000
2.86093828 0.00109021 -0.17559824 0.00000000
3.76702221 -0.00170365 -0.12975212 0.00000000
2.47276078 0.00124087 -0.13045156 0.00000000
1.31492609 0.00092381 -0.06947923 0.00000000
3.39693739 -0.00045160 -0.00165066 0.00000000
1.51320936 0.00274148 -0.18836103 0.00000000
2.46443520 -0.00092625 -0.17559509 0.00000000
1.37474639 -0.00475328 -0.08792511 0.00000000
4.34672416 0.00533848 -0.08427810 0.00000000
2.91722036 -0.00171387 -0.19011358 0.00000000
2.23272218 -0.00546121 -0.06772212 0.00000000
1.78410436 -0.00006096 -0.08271242 0.00000000
0.34542339 -0.00329238 -0.06008223 0.00000000
3.73791578 -0.00348317 -0.10041425 0.00000000
4.00142150 -0.00050760 -0.18948328 0.00000000
4.67927926 0.00094750 -0.05759453 0.00000000
2.08528714 0.00529020 -0.14048542 0.00000000
3.08899248 -0.00454177 -0.03809643 0.00000000
0.22562118 -0.00122370 -0.07233835 0.00000000
0.27821878 0.00169588 -0.01229505 0.00000000
3.88887738 0.00043436 -0.02169735 0.00000000
0.04620081 0.00211272 -0.05002069 0.00000000
2.88120371 0.00269854 -0.14779884 0.00000000
1.43596919 0.00075265 -0.03218958 0.00000000
1.64965774 0.00405579 -0.19879946 0.00000000
1.10233360 0.00339382 -0.01444336 0.00000000
0.75979460 -0.00042354 -0.19529826 0.00000000
2.18504070 0.00276606 -0.04778234 0.00000000
1.25958002 0.00301267 -0.18671180 0.00000000
0.39603143 0.00099265 -0.21119795 0.00000000
1.93844200 -0.00254595 -0.09869528 0.00000000
1.29227261 -0.00116389 -0.05732049 0.00000000
3.24546951 -0.00073203 -0.01212992 0.00000000
3.17259971 -0.00013051 -0.08447155 0.00000000
2.49233196 0.00445150 -0.01571528 0.00000000
0.71771528 -0.00098169 -0.08945432 0.00000000
3.84746938 -0.00279348 -0.01351200 0.00000000
4.27670995 -0.00206932 -0.20729387 0.00000000
2.23519034 -0.00018245 -0.16584230 0.00000000
2.67251770 0.00345958 -0.14489260 0.00000000
3.96170875 0.00319506 -0.19002214 0.00000000
2.96291636 0.00282209 -0.14970725 0.00000000
4.42813456 0.00096862 -0.04249820 0.00000000
1.62991077 -0.00021619 -0.09646822 0.00000000
1.64483655 0.00009360 -0.13365092 0.00000000
3.94228876 -0.00368694 -0.07222698 0.00000000
2.24867602 -0.00039298 -0.11728586 0.00000000
0.46316814 0.00322660 -0.18046438 0.00000000
2.49065478 0.00018635 -0.06269307 0.00000000
1.13159421 0.00362244 -0.10508887 0.00000000
4.74181003 -0.00089537 -0.12837277 0.00000000
4.17594154 0.00216340 -0.14508872 0.00000000
3.65532181 0.00150233 -0.00569384 0.00000000
2.81918523 -0.00032607 -0.14206578 0.00000000
3.18194169 0.00336720 -0.20669009 0.00000000
0.65456647 0.00085400 -0.03028741 0.00000000
3.06374445 0.00532669 -0.11294607 0.00000000
1.40068549 0.00441957 -0.19933528 0.00000000
1.28191488 -0.00102161 -0.03831765 0.00000000
0.38136688 0.00125612 -0.18459002 0.00000000
0.13267341 0.00160764 -0.18785726 0.00000000
0.78789593 -0.00077431 -0.21383096 0.00000000
3.35281273 -0.00061855 -0.07963666 0.00000000
4.41399850 0.00274183 -0.05717147 0.00000000
1.37837518 -0.00029957 -0.12883488 0.00000000
0.00550272 -0.00077258 -0.09033534 0.00000000
0.24004772 -0.00679460 -0.13872005 0.00000000
2.49727574 0.00410952 -0.11052884 0.00000000
3.19485382 -0.00251143 -0.15636305 0.00000000
2.60670812 0.00369148 -0.08387738 0.00000000
1.42859634 0.00216121 -0.19547668 0.00000000
3.81997537 0.00015942 -0.21110733 0.00000000
4.09956597 -0.00016727 -0.17624662 0.00000000
0.60448189 0.00041852 -0.09482615 0.00000000
3.37099774 -0.00261782 -0.06921663 0.00000000
0.41724873 -0.00287227 -0.15633062 0.00000000
1.43272869 -0.00064422 -0.10020381 0.00000000
3.00986107 -0.00145973 -0.08168792 0.00000000
3.08124035 -0.00108210 -0.18951503 0.00000000
2.92521601 -0.00155879 -0.02021618 0.00000000
2.42717437 -0.00007976 -0.00321317 0.00000000
0.43398636 0.00506073 -0.21316574 0.00000000
0.59923206 -0.00320057 -0.04179113 0.00000000
3.08424349 0.00057383 -0.06757401 0.00000000
0.48548268 0.00002082 -0.18162889 0.00000000
4.11233701 0.00267947 -0.04544238 0.00000000
3.01869033 0.00143948 -0.03250539 0.00000000
1.13892967 -0.00296974 -0.21452701 0.00000000
4.63362823 -0.00616667 -0.07205372 0.00000000
4.67777107 0.00151420 -0.07613647 0.00000000
1.39074902 -0.00089360 -0.06616738 0.00000000
0.64205031 -0.00267128 -0.13481888 0.00000000
4.21980360 0.00018660 -0.14260463 0.00000000
3.04794147 0.00428801 -0.05922388 0.00000000
0.08248444 -0.00015702 -0.06318278 0.00000000
2.73877152 0.00194161 -0.22292069 0.00000000
1.25187820 -0.00728441 -0.16004860 0.00000000
1.15601256 -0.00087630 -0.08095397 0.00000000
2.66813297 -0.00342703 -0.13326582 0.00000000
4.62865108 -0.00124411 -0.02401878 0.00000000
4.07924735 -0.00389754 -0.20830805 0.00000000
1.50385136 0.00216937 -0.20057542 0.00000000
0.42597409 0.00270343 -0.21636552 0.00000000
4.68496404 0.00360709 -0.01693059 0.00000000
1.82105258 -0.00468039 -0.19862216 0.00000000
1.50292633 -0.00476943 -0.04891078 0.00000000
2.48732500 0.00122955 -0.21372731 0.00000000
4.49847754 0.00047724 -0.00276908 0.00000000
4.21488163 0.00208986 -0.15701357 0.00000000
1.65492462 0.00169519 -0.07583772 0.00000000
1.41898784 -0.00275054 -0.18912047 0.00000000
2.06920018 0.00231311 -0.17413142 0.00000000
4.56170292 0.00019019 -0.18305076 0.00000000
1.41281261 -0.00020690 -0.03132007 0.00000000
3.64625227 -0.00000936 -0.17086770 0.00000000
3.95006859 0.00019546 -0.17943852 0.00000000
3.20717999 -0.00144285 -0.06764744 0.00000000
4.51131044 0.00340797 -0.15882110 0.00000000
1.08432405 0.00203048 -0.12436783 0.00000000
1.77337010 -0.00064826 -0.04520667 0.00000000
2.87962893 0.00588137 -0.11766806 0.00000000
3.10951432 0.00048342 -0.03600320 0.00000000
1.63417319 -0.00087528 -0.15663752 0.00000000
2.24971718 -0.00443293 -0.02632406 0.00000000
2.96002965 -0.00294480 -0.06169391 0.00000000
0.68675531 -0.00065349 -0.21911850 0.00000000
1.97250372 0.00300127 -0.12912293 0.00000000
2.99334963 0.00062488 -0.00260636 0.00000000
3.53464199 0.00269375 -0.01847912 0.00000000
2.31759345 0.00004926 -0.14384564 0.00000000
1.35430866 -0.00042255 -0.12635399 0.00000000
4.35340609 0.00068806 -0.06620290 0.00000000
0.38939194 0.00480619 -0.19984502 0.00000000
2.38464157 -0.00333070 -0.15390860 0.00000000
3.32282582 0.00265177 -0.05804748 0.00000000
4.29374981 0.00484182 -0.04710281 0.00000000
0.52576480 -0.00412664 -0.21098848 0.00000000
0.13773903 0.00168926 -0.08891138 0.00000000
1.81745578 -0.00229246 -0.15117113 0.00000000
0.37279317 0.00403585 -0.12940445 0.00000000
0.70337215 0.00151823 -0.19393252 0.00000000
2.65822508 0.00082057 -0.09170596 0.00000000
3.64948743 -0.00306961 -0.17734183 0.00000000
0.66492598 -0.00009949 -0.07609365 0.00000000
2.40750802 0.00328699 -0.10844254 0.00000000
4.38842564 -0.00312943 -0.05997167 0.00000000
3.94046720 -0.00220881 -0.01381108 0.00000000
0.69504779 -0.00012707 -0.04240169 0.00000000
1.25000850 -0.00191135 -0.06070645 0.00000000
0.73801731 0.00111926 -0.21041328 0.00000000
0.58195015 -0.00530277 -0.21748986 0.00000000
3.27738452 -0.00146492 -0.15951569 0.00000000
0.49923117 0.00160814 -0.10721090 0.00000000
2.35498514 0.00088752 -0.18944845 0.00000000
3.77575934 0.00227241 -0.01682705 0.00000000
2.17046263 0.00308910 -0.06302774 0.00000000
3.13436204 0.00233565 -0.16874399 0.00000000
2.28311602 0.00419479 -0.02532890 0.00000000
0.10445945 -0.00199905 -0.05583816 0.00000000
3.51279468 0.00018295 -0.03335438 0.00000000
2.60111898 -0.00152617 -0.17939170 0.00000000
3.05052315 -0.00207968 -0.02233586 0.00000000
4.38052101 -0.00338209 -0.15173494 0.00000000
4.35145317 -0.00104342 -0.08130759 0.00000000
3.71690159 -0.00201408 -0.17189629 0.00000000
1.42895546 -0.00014354 -0.04690814 0.00000000
1.30173849 -0.00100472 -0.12115047 0.00000000
0.91601743 0.00012387 -0.14737902 0.00000000
1.09153363 -0.00155503 -0.06653383 0.00000000
4.31256317 -0.00021726 -0.19034243 0.00000000
2.30805198 0.00258094 -0.10642694 0.00000000
0.63130708 0.00046217 -0.19161385 0.00000000
4.70557549 -0.00437509 -0.06485440 0.00000000
3.11990058 -0.00185388 -0.17161301 0.00000000
3.23819273 0.00053255 -0.09795598 0.00000000
1.53517179 0.00353397 -0.08062437 0.00000000
3.38144244 0.00094141 -0.07884531 0.00000000
2.34111502 0.00124719 -0.08431626 0.00000000
4.34132065 -0.00053481 -0.21079493 0.00000000
2.02065150 0.00195861 -0.04413766 0.00000000
1.20824019 0.00272315 -0.02891933 0.00000000
0.99253936 -0.00364698 -0.20618256 0.00000000
3.06990341 -0.00436092 -0.01614135 0.00000000
4.37254899 -0.00132073 -0.04873819 0.00000000
1.36087937 -0.00054325 -0.03923406 0.00000000
1.83684497 -0.00008567 -0.20838080 0.00000000
3.96494153 -0.00205093 -0.07941145 0.00000000
2.03722968 -0.00437497 -0.19366277 0.00000000
3.50273502 0.00127353 -0.03428358 0.00000000
1.31409221 -0.00258505 -0.04530473 0.00000000
1.57981842 -0.00071670 -0.16584865 0.00000000
2.00921669 0.00128601 -0.02524868 0.00000000
2.04201528 -0.00342210 -0.19631511 0.00000000
3.33808185 0.00056529 -0.12481169 0.00000000
4.79899317 0.00081356 -0.06927728 0.00000000
2.06188675 -0.00171161 -0.13964327 0.00000000
2.53327944 0.00157242 -0.02914207 0.00000000
1.60954368 0.00238484 -0.10834015 0.00000000
2.23376556 -0.00274622 -0.17983074 0.00000000
1.73666053 0.00644388 -0.19720036 0.00000000
4.79537097 -0.00118090 -0.17532572 0.00000000
1.95941862 0.00113738 -0.18393539 0.00000000
2.38929562 -0.00349336 -0.18049744 0.00000000
2.50023508 0.00141399 -0.16333661 0.00000000
3.53033478 0.00275872 -0.13861385 0.00000000
2.42193835 -0.00054204 -0.13267322 0.00000000
1.60003994 0.00244340 -0.11347551 0.00000000
2.88657407 -0.00163509 -0.10750870 0.00000000
0.87630408 -0.00029249 -0.18050836 0.00000000
1.24370605 0.00092428 -0.17778374 0.00000000
3.06163057 0.00123340 -0.09975038 0.00000000
4.37307470 0.00024009 -0.19070980 0.00000000
0.47388327 -0.00069156 -0.12665525 0.00000000
2.03484736 0.00098115 -0.16499721 0.00000000
4.05009325 0.00352468 -0.18937728 0.00000000
1.54419023 -0.00567117 -0.06997237 0.00000000
1.66183944 0.00283895 -0.17312086 0.00000000
3.34362558 -0.00443697 -0.13860849 0.00000000
1.52508562 0.00085989 -0.04036443 0.00000000
3.94089058 -0.00237932 -0.02517414 0.00000000
1.80509178 0.00146199 -0.03784169 0.00000000
3.92718790 -0.00030397 -0.07447606 0.00000000
1.44658843 -0.00065494 -0.03253840 0.00000000
1.81622070 -0.00104409 -0.00390495 0.00000000
0.35348553 0.00007161 -0.14731529 0.00000000
3.74815361 0.00286517 -0.09715535 0.00000000
0.60981664 -0.00515144 -0.19267944 0.00000000
0.03010223 -0.00015709 -0.09522239 0.00000000
3.38940055 -0.00354483 -0.03410688 0.00000000
3.61141953 -0.00186989 -0.05652856 0.00000000
0.52237166 0.00164229 -0.11240195 0.00000000
4.29889978 -0.00492911 -0.01243127 0.00000000
1.80821220 -0.00242778 -0.18695977 0.00000000
0.72536674 0.00035836 -0.17606085 0.00000000
3.36329050 -0.00405918 -0.13466425 0.00000000
1.53257079 0.00053913 -0.01139738 0.00000000
4.75404862 -0.00064855 -0.11283585 0.00000000
4.16767674 0.00216759 -0.19172991 0.00000000
0.79839729 -0.00022042 -0.04413190 0.00000000
0.44954845 0.00063848 -0.07033781 0.00000000
1.29001538 0.00233878 -0.19527536 0.00000000
3.45524592 -0.00085473 -0.01041436 0.00000000
4.46236502 -0.00306593 -0.00859292 0.00000000
0.50922233 -0.00045826 -0.07292816 0.00000000
1.13357681 0.00170508 -0.04241775 0.00000000
0.90144386 0.00063160 -0.08024472 0.00000000
1.90733485 -0.00178611 -0.18303318 0.00000000
4.01578091 -0.00293044 -0.05106503 0.00000000
3.69988259 -0.00251618 -0.13680796 0.00000000
4.72274853 0.00018092 -0.15182694 0.00000000
0.74811585 0.00128123 -0.17744864 0.00000000
4.79474090 -0.00375310 -0.01528830 0.00000000
3.07576526 0.00223439 -0.06477709 0.00000000
2.73282518 0.00126949 -0.03406337 0.00000000
0.59779152 -0.00216551 -0.08312869 0.00000000
2.69404062 0.00450273 -0.13587483 0.00000000
4.15028401 0.00456698 -0.15026866 0.00000000
3.88546023 0.00118075 -0.13264762 0.00000000
1.16457357 -0.00129263 -0.05423047 0.00000000
3.52795640 -0.00219746 -0.10991319 0.00000000
1.90043527 0.00113825 -0.11984682 0.00000000
1.31868500 -0.00251200 -0.21276167 0.00000000
4.70803635 0.00294083 -0.19108244 0.00000000
3.47687451 -0.00021434 -0.10439128 0.00000000
4.77844590 0.00052326 -0.17788540 0.00000000
1.30200713 -0.00368359 -0.07877630 0.00000000
1.66537706 0.00198891 -0.11811728 0.00000000
3.15208950 -0.00142802 -0.05714411 0.00000000
3.82025337 0.00138977 -0.01920938 0.00000000
3.71550232 -0.00251170 -0.09537611 0.00000000
0.13848807 0.00101236 -0.10253154 0.00000000
3.04511215 -0.00054371 -0.02876449 0.00000000
1.60767133 0.00501073 -0.07368599 0.00000000
2.11230686 0.00290996 -0.10359572 0.00000000
2.87949731 0.00212504 -0.10817842 0.00000000
4.77487973 0.00145583 -0.05197786 0.00000000
0.24308418 -0.00230881 -0.20152156 0.00000000
3.73109004 0.00057148 -0.12026018 0.00000000
0.61608164 -0.00082398 -0.07508533 0.00000000
0.76887488 -0.00105585 -0.16572691 0.00000000
0.76043969 0.00052421 -0.19317834 0.00000000
2.96919143 -0.00324439 -0.07996365 0.00000000
4.80135450 0.00267643 -0.18058786 0.00000000
4.78675374 0.00077080 -0.18400702 0.00000000
2.28093710 0.00199244 -0.14041539 0.00000000
0.77868160 0.00251256 -0.16181561 0.00000000
0.65445521 -0.00161198 -0.03970820 0.00000000
2.62314055 -0.00215634 -0.17454946 0.00000000
2.51258065 -0.00068173 -0.19518904 0.00000000
3.58520779 -0.00467258 -0.18873017 0.00000000
4.61082885 -0.00323906 -0.16702456 0.00000000
2.31944553 0.00118936 -0.12250630 0.00000000
1.20076573 0.00299196 -0.15971746 0.00000000
2.22012551 0.00094391 -0.14702269 0.00000000
3.62252315 0.00076105 -0.15184375 0.00000000
3.02402062 -0.00084476 -0.19082156 0.00000000
0.80591732 -0.00000228 -0.11437847 0.00000000
2.88805288 0.00014208 -0.10467837 0.00000000
3.06359153 0.00265626 -0.05334598 0.00000000
3.10478336 0.00061521 -0.15653709 0.00000000
1.52569218 -0.00034042 -0.04212605 0.00000000
1.17185187 0.00112413 -0.17010420 0.00000000
1.93477542 -0.00180803 -0.02309342 0.00000000
0.95334973 0.00243555 -0.19448456 0.00000000
3.44570300 0.00162411 -0.09148212 0.00000000
1.34567275 -0.00106036 -0.15286553 0.00000000
1.64694140 -0.00095558 -0.11164783 0.00000000
0.11151434 0.00110199 -0.06580283 0.00000000
1.73270446 0.00090848 -0.12844519 0.00000000
0.95802374 0.00197700 -0.08996097 0.00000000
1.02845124 0.00024030 -0.05459631 0.00000000
3.39165154 -0.00094029 -0.15442883 0.00000000
3.68224019 -0.00060991 -0.07531426 0.00000000
2.04950393 -0.00287582 -0.04452202 0.00000000
3.29618620 0.00160949 -0.04020423 0.00000000
4.23725225 -0.00309173 -0.17034429 0.00000000
1.96853590 0.00081529 -0.00940112 0.00000000
3.81605378 -0.00008207 -0.02544026 0.00000000
0.61756690 0.00133121 -0.06759445 0.00000000
2.57804267 0.00334963 -0.15989899 0.00000000
4.25844741 -0.00019086 -0.04935811 0.00000000
3.62378234 0.00081754 -0.06212239 0.00000000
4.33579005 0.00327007 -0.05956445 0.00000000
2.08875042 0.00158740 -0.22368210 0.00000000
4.54069872 -0.00131238 -0.07621346 0.00000000
3.74268551 0.00102265 -0.19641230 0.00000000
1.78115924 -0.00342088 -0.04809841 0.00000000
2.88688040 0.00197174 -0.12509968 0.00000000
1.27032134 -0.00213556 -0.16401471 0.00000000
2.76986345 -0.00286321 -0.21850378 0.00000000
4.34485705 -0.00096820 -0.14759165 0.00000000
0.97055068 -0.00100098 -0.02713940 0.00000000
2.00257025 0.00228327 -0.11829549 0.00000000
2.80652987 0.00205691 -0.03047206 0.00000000
2.36237601 -0.00096203 -0.11004900 0.00000000
1.47013606 0.00223221 -0.17148042 0.00000000
2.31067273 -0.00219745 -0.10482129 0.00000000
0.20042543 0.00344112 -0.02376783 0.00000000
2.50910987 0.00068738 -0.16793875 0.00000000
1.49575219 -0.00009448 -0.19200414 0.00000000
0.31325441 -0.00124850 -0.10058227 0.00000000
4.56512822 0.00430650 -0.14530675 0.00000000
2.44303192 0.00019254 -0.22388327 0.00000000
0.99943663 0.00050033 -0.04122557 0.00000000
0.69173707 -0.00449318 -0.02391474 0.00000000
0.71159191 0.00049708 -0.19422140 0.00000000
0.82342536 -0.00050210 -0.20961259 0.00000000
0.45199992 -0.00187735 -0.00429862 0.00000000
1.77824798 0.00558389 -0.14585611 0.00000000
3.07481876 -0.00090345 -0.04485337 0.00000000
2.72565291 -0.00057048 -0.04422345 0.00000000
2.31276090 0.00237239 -0.22394341 0.00000000
0.89796979 0.00320908 -0.02182574 0.00000000
4.35049824 0.00044234 -0.00234596 0.00000000
2.94860432 -0.00236394 -0.11061113 0.00000000
0.47510600 0.00061793 -0.06439796 0.00000000
1.72325823 0.00378939 -0.15213065 0.00000000
3.90610964 -0.00275163 -0.13681928 0.00000000
0.18347313 -0.00036790 -0.12479398 0.00000000
4.71425437 0.00272582 -0.09883094 0.00000000
3.77120161 0.00080714 -0.06178929 0.00000000
0.45877608 -0.00066483 -0.12588197 0.00000000
0.22851322 -0.00029513 -0.01045154 0.00000000
2.04267774 -0.00560385 -0.21212640 0.00000000
0.90311036 0.00052276 -0.13888203 0.00000000
1.89948926 0.00195704 -0.17861428 0.00000000
0.43419857 0.00010652 -0.09837843 0.00000000
1.43773339 -0.00032080 -0.19171457 0.00000000
3.77374410 -0.00070405 -0.07720131 0.00000000
1.17724021 -0.00632475 -0.00742831 0.00000000
4.39098054 0.00151311 -0.02731405 0.00000000
0.20669785 0.00166292 -0.20424739 0.00000000
4.78311685 0.00284008 -0.19506635 0.00000000
1.20433302 0.00079740 -0.21943343 0.00000000
2.80631545 0.00137033 -0.03511357 0.00000000
0.00852499 -0.00002409 -0.06834277 0.00000000
1.56050246 0.00069853 -0.20183915 0.00000000
1.82680057 0.00177350 -0.15073271 0.00000000
4.12187658 0.00211924 -0.11918130 0.00000000
1.85705275 0.00094409 -0.18231335 0.00000000
0.60284451 0.00043856 -0.21547248 0.00000000
0.90925003 0.00160670 -0.19916291 0.00000000
1.54437495 -0.00149847 -0.11182081 0.00000000
1.96655753 -0.00035713 -0.12270269 0.00000000
2.15170372 0.00119049 -0.09786077 0.00000000
3.62981336 0.00102088 -0.00777671 0.00000000
2.14402656 -0.00133284 -0.17564872 0.00000000
0.40371145 0.00162898 -0.12038947 0.00000000
3.56387200 -0.00039584 -0.09619358 0.00000000
2.95111904 -0.00090114 -0.09044345 0.00000000
0.74421429 0.00106819 -0.12086614 0.00000000
2.18092829 0.00084206 -0.05928302 0.00000000
2.34923711 -0.00271877 -0.05069851 0.00000000
3.37999939 0.00055411 -0.10813329 0.00000000
1.28821692 -0.00296497 -0.06390121 0.00000000
3.24543642 0.00139159 -0.13282441 0.00000000
1.34299818 0.00570642 -0.07939540 0.00000000
4.36255319 0.00349015 -0.08820927 0.00000000
4.55350532 0.00311330 -0.16378460 0.00000000
1.95464498 0.00077301 -0.08593966 0.00000000
3.15293582 0.00807762 -0.14782105 0.00000000
4.74551229 -0.00175204 -0.10156554 0.00000000
3.91013140 -0.00277560 -0.13139962 0.00000000
3.40674654 0.00205840 -0.06496234 0.00000000
4.03762541 0.00003496 -0.12529120 0.00000000
1.10089149 0.00155519 -0.06681628 0.00000000
1.50481596 -0.00405917 -0.02347583 0.00000000
3.70496682 -0.00122344 -0.03649158 0.00000000
1.06028347 -0.00319014 -0.16821165 0.00000000
1.67492327 -0.00186581 -0.01711564 0.00000000
4.00111637 -0.00108931 -0.00529137 0.00000000
2.33607077 0.00168211 -0.20097718 0.00000000
3.21690007 0.00009759 -0.21191081 0.00000000
1.11652399 0.00071880 -0.19335619 0.00000000
1.38023815 0.00085699 -0.09177979 0.00000000
4.76451263 -0.00018856 -0.08088470 0.00000000
0.32971878 -0.00426651 -0.14853176 0.00000000
1.35138172 -0.00214360 -0.11683843 0.00000000
0.30183348 0.00165393 -0.03305591 0.00000000
4.18064229 -0.00045866 -0.01232061 0.00000000
2.09146490 -0.00232831 -0.03673795 0.00000000
4.64933246 0.00372908 -0.05650890 0.00000000
4.04426939 -0.00307511 -0.20030347 0.00000000
3.18167626 -0.00308868 -0.14760242 0.00000000
2.29805864 0.00264304 -0.17886870 0.00000000
4.13225949 0.00160154 -0.07784805 0.00000000
2.59651545 0.00296015 -0.08428033 0.00000000
4.51810984 -0.00085466 -0.17770021 0.00000000
3.52791176 0.00252683 -0.15592823 0.00000000
3.60070551 -0.00379995 -0.10847075 0.00000000
2.16680593 0.00027306 -0.00759185 0.00000000
1.16613927 0.00310224 -0.07496589 0.00000000
0.41377586 0.00193570 -0.05346654 0.00000000
0.32707337 -0.00184336 -0.19268468 0.00000000
0.94847214 0.00414573 -0.15075037 0.00000000
2.90160616 -0.00131846 -0.08037574 0.00000000
1.38259146 -0.00163673 -0.21656420 0.00000000
3.08464962 0.00096730 -0.10438337 0.00000000
0.71552508 0.00223125 -0.10139097 0.00000000
3.65400355 -0.00208517 -0.04603615 0.00000000
3.78735708 -0.00020044 -0.20640785 0.00000000
2.28710317 0.00157341 -0.16033745 0.00000000
3.62128458 0.00616368 -0.09217095 0.00000000
3.00469702 0.00011491 -0.01426498 0.00000000
1.87151484 -0.00396230 -0.13742314 0.00000000
4.03410722 0.00152747 -0.07563342 0.00000000
0.43351322 -0.00000917 -0.20663422 0.00000000
1.19989974 -0.00509584 -0.13388653 0.00000000
3.58574059 0.00225819 -0.03623054 0.00000000
0.12245172 -0.00114987 -0.18879324 0.00000000
0.49644488 0.00193859 -0.15240907 0.00000000
2.61611114 0.00334735 -0.10256589 0.00000000
0.67659027 0.00316801 -0.16933852 0.00000000
2.02501425 0.00354086 -0.01540673 0.00000000
2.72374947 -0.00324513 -0.21487980 0.00000000
1.17479957 0.00306765 -0.22112477 0.00000000
3.87819294 -0.00234494 -0.12914102 0.00000000
4.20716955 0.00415988 -0.09897234 0.00000000
4.50975179 -0.00139734 -0.03861921 0.00000000
1.14325267 -0.00116045 -0.13940191 0.00000000
1.81697223 0.00000005 -0.15131773 0.00000000
4.53358086 -0.00713208 -0.18986760 0.00000000
0.87351651 0.00079524 -0.18573223 0.00000000
3.99937104 -0.00145582 -0.19913435 0.00000000
1.80396415 0.00020964 -0.06018952 0.00000000
4.68241720 0.00401688 -0.11399393 0.00000000
0.86720732 0.00211233 -0.19853991 0.00000000
0.76755645 0.00283987 -0.02800733 0.00000000
0.95762147 0.00390625 -0.03183742 0.00000000
2.36669757 -0.00013409 -0.08667195 0.00000000
2.57915532 -0.00083957 -0.04558797 0.00000000
3.47821303 -0.00076704 -0.19020946 0.00000000
2.58679565 -0.00452725 -0.04779220 0.00000000
0.12379077 -0.00103965 -0.01239627 0.00000000
1.82248430 -0.00049848 -0.02940200 0.00000000
3.78902013 0.00269091 -0.20426019 0.00000000
1.79516364 -0.00034829 -0.09803744 0.00000000
2.49943003 0.00172628 -0.21346256 0.00000000
0.85818600 -0.00434680 -0.11186829 0.00000000
2.14323450 -0.00083315 -0.19421420 0.00000000
2.11405171 0.00084574 -0.20272421 0.00000000
0.35329148 -0.00217713 -0.11753185 0.00000000
1.33811849 0.00148048 -0.17926275 0.00000000
0.01835046 0.00317965 -0.08494050 0.00000000
2.20972559 -0.00034569 -0.01194845 0.00000000
4.16994667 0.00046374 -0.13952141 0.00000000
2.18979362 -0.00102107 -0.15076120 0.00000000
3.05978779 -0.00014847 -0.00833249 0.00000000
2.03599435 0.00285281 -0.06899186 0.00000000
1.98195154 -0.00163990 -0.09784795 0.00000000
3.49386827 0.00085362 -0.13065389 0.00000000
4.50072155 -0.00100279 -0.21671752 0.00000000
3.52462645 0.00091178 -0.20457489 0.00000000
4.09087273 0.00506572 -0.10883708 0.00000000
3.98750923 0.00012876 -0.22161422 0.00000000
0.32497715 0.00002804 -0.15693372 0.00000000
0.14868057 -0.00091696 -0.21406293 0.00000000
0.40645060 -0.00000809 -0.10032807 0.00000000
4.31067098 0.00181172 -0.09941938 0.00000000
0.65684683 0.00157226 -0.01106400 0.00000000
2.05872437 -0.00201020 -0.04156523 0.00000000
2.23979405 0.00287352 -0.19337382 0.00000000
0.67938390 -0.00281049 -0.19254152 0.00000000
2.34806603 0.00128646 -0.20490006 0.00000000
1.98616663 -0.00200825 -0.08361113 0.00000000
0.74036129 -0.00244025 -0.13296907 0.00000000
2.44659968 0.00305750 -0.11289118 0.00000000
1.95176779 0.00112685 -0.08650841 0.00000000
4.05237853 0.00194339 -0.06735308 0.00000000
1.09676255 0.00019066 -0.16508764 0.00000000
1.27120126 -0.00012793 -0.00451817 0.00000000
2.87422419 0.00084221 -0.16191363 0.00000000
3.07739074 0.00354648 -0.04818773 0.00000000
1.03309104 0.00033683 -0.01474744 0.00000000
3.00983420 0.00307236 -0.02986404 0.00000000
0.56902612 0.00269859 -0.06694931 0.00000000
0.76067246 -0.00280101 -0.11820541 0.00000000
2.02128401 0.00359001 -0.03471048 0.00000000
0.63054879 -0.00143220 -0.18205995 0.00000000
0.48654087 -0.00532031 -0.17341589 0.00000000
0.19987037 -0.00081427 -0.01216659 0.00000000
3.96893185 0.00051052 -0.06768820 0.00000000
4.77127036 0.00151938 -0.12325771 0.00000000
2.50430282 -0.00225314 -0.22082480 0.00000000
2.83049806 0.00364964 -0.11712726 0.00000000
3.67668728 -0.00165921 -0.16479564 0.00000000
4.01653005 -0.00383527 -0.03421350 0.00000000
1.20194741 0.00562580 -0.16408629 0.00000000
0.63390234 -0.00290122 -0.02613737 0.00000000
0.73292586 -0.00151168 -0.10947359 0.00000000
2.34603326 -0.00265858 -0.01928373 0.00000000
2.64459351 0.00137239 -0.06119343 0.00000000
0.04975194 0.00234377 -0.10873823 0.00000000
0.34866414 -0.00165595 -0.13370611 0.00000000
4.71861598 -0.00235212 -0.11911750 0.00000000
4.47666825 0.00273443 -0.11369068 0.00000000
0.38813458 0.00181005 -0.12634493 0.00000000
2.24846822 0.00403526 -0.03278942 0.00000000
2.09266007 -0.00111829 -0.22267773 0.00000000
1.06699871 0.00105530 -0.15013152 0.00000000
2.41229699 0.00227609 -0.10968358 0.00000000
0.52250465 -0.00552080 -0.04488385 0.00000000
2.29294166 -0.00125385 -0.16956364 0.00000000
4.17181128 0.00082993 -0.07222273 0.00000000
2.71446698 0.00074234 -0.21737412 0.00000000
4.08853210 -0.00375798 -0.09304035 0.00000000
2.39957154 -0.00060772 -0.10500126 0.00000000
2.20858327 0.00180005 -0.07945221 0.00000000
1.08370110 0.00005610 -0.01106127 0.00000000
3.54389622 -0.00135444 -0.10884979 0.00000000
3.21830402 -0.00087036 -0.17954266 0.00000000
3.47692966 -0.00063828 -0.21311218 0.00000000
3.50455161 -0.00230526 -0.02591766 0.00000000
3.33401857 0.00217307 -0.02948498 0.00000000
4.15521597 -0.00061979 -0.19601197 0.00000000
4.18942455 -0.00129556 -0.17167135 0.00000000
0.65434617 -0.00019772 -0.08934652 0.00000000
3.03112909 0.00230137 -0.09816596 0.00000000
4.41900888 0.00161872 -0.02351718 0.00000000
0.41731100 -0.00021303 -0.18731264 0.00000000
3.74485308 0.00241078 -0.08630228 0.00000000
3.26828904 0.00084498 -0.03161536 0.00000000
4.35728766 -0.00609131 -0.10980926 0.00000000
1.32597223 -0.00445504 -0.11915866 0.00000000
4.13342416 -0.00185500 -0.03297279 0.00000000
3.30599678 -0.00346200 -0.16766742 0.00000000
2.36558666 0.00437781 -0.01535429 0.00000000
2.21289567 0.00060203 -0.15480393 0.00000000
0.06102180 -0.00098505 -0.21252513 0.00000000
0.50550424 -0.00340962 -0.20785329 0.00000000
3.18795069 -0.00363282 -0.18526346 0.00000000
0.32472995 0.00403182 -0.19548119 0.00000000
0.01267261 -0.00407428 -0.18016287 0.00000000
3.12872689 -0.00120283 -0.01177006 0.00000000
1.59152435 0.00128241 -0.02815964 0.00000000
0.98132348 -0.00021830 -0.19261987 0.00000000
1.77009050 0.00257535 -0.02041434 0.00000000
1.97867619 -0.00034506 -0.21928536 0.00000000
4.57822449 0.00503860 -0.04715166 0.00000000
1.85735030 -0.00132788 -0.08989292 0.00000000
1.07463019 0.00395165 -0.09492724 0.00000000
2.37020224 -0.00032603 -0.08596186 0.00000000
2.29657779 0.00096771 -0.05822947 0.00000000
2.66033866 -0.00304951 -0.13965601 0.00000000
2.74486996 0.00077258 -0.14946443 0.00000000
0.63711329 0.00306427 -0.08721758 0.00000000
4.51282362 -0.00234600 -0.19644609 0.00000000
1.51533995 0.00251482 -0.02106974 0.00000000
2.44878691 -0.00072682 -0.06998974 0.00000000
4.17344812 -0.00184396 -0.15606523 0.00000000
2.42928547 0.00422806 -0.02592881 0.00000000
0.60490042 0.00329922 -0.16139349 0.00000000
0.82744019 -0.00134281 -0.04094803 0.00000000
4.03698737 -0.00106841 -0.04406458 0.00000000
4.60262329 0.00095140 -0.04951313 0.00000000
4.23612662 -0.00201989 -0.10860225 0.00000000
3.35000542 0.00060582 -0.17156664 0.00000000
0.26912114 -0.00179119 -0.02923314 0.00000000
0.88810297 0.00162232 -0.11676428 0.00000000
0.29850372 -0.00391375 -0.02992283 0.00000000
2.83666119 -0.00185510 -0.13163188 0.00000000
4.15588766 0.00062014 -0.10960163 0.00000000
2.48654621 0.00031176 -0.19198398 0.00000000
3.78740851 -0.00028825 -0.20732111 0.00000000
3.31911343 -0.00357618 -0.22245105 0.00000000
3.44074260 -0.00198286 -0.20255856 0.00000000
0.21585858 -0.00121671 -0.05489465 0.00000000
3.04613830 0.00068854 -0.04480556 0.00000000
0.07720962 -0.00689804 -0.00317329 0.00000000
0.13100570 -0.00078673 -0.15153243 0.00000000
3.71576034 0.00152616 -0.11573420 0.00000000
3.51411921 -0.00389868 -0.19996502 0.00000000
1.41203051 0.00306224 -0.22022363 0.00000000
0.58162310 0.00008567 -0.07971550 0.00000000
1.14123091 -0.00110979 -0.21896255 0.00000000
2.42215941 0.00131220 -0.14689839 0.00000000
2.85825006 0.00248892 -0.00563648 0.00000000
1.04908671 0.00043866 -0.12371248 0.00000000
3.66777388 -0.00037534 -0.12826284 0.00000000
4.36515314 0.00117972 -0.06301377 0.00000000
1.29342484 -0.00131391 -0.10053271 0.00000000
1.92110613 -0.00210933 -0.05313005 0.00000000
0.41970013 -0.00503738 -0.11139659 0.00000000
2.10331320 -0.00004975 -0.13735548 0.00000000
0.28930128 0.00025637 -0.02100094 0.00000000
2.95331544 0.00126247 -0.05206760 0.00000000
2.36444414 -0.00102790 -0.20589758 0.00000000
4.08636958 -0.00228311 -0.17698808 0.00000000
4.64184014 -0.00038518 -0.02018507 0.00000000
1.06850003 0.00236131 -0.15213225 0.00000000
1.49020726 -0.00140439 -0.11128956 0.00000000
1.07057859 -0.00114518 -0.11557233 0.00000000
1.34247145 0.00236658 -0.12842637 0.00000000
2.20610693 0.00620883 -0.15258470 0.00000000
3.23305006 -0.00088888 -0.11117036 0.00000000
0.09833157 -0.00352064 -0.11982856 0.00000000
1.21571205 -0.00079409 -0.19642484 0.00000000
2.11503608 -0.00118938 -0.06449021 0.00000000
1.76877432 0.00398281 -0.09254684 0.00000000
3.74159617 -0.00548337 -0.21215384 0.00000000
1.38340590 -0.00187088 -0.02171959 0.00000000
4.16901246 0.00259348 -0.17219174 0.00000000
4.42780146 0.00375950 -0.04113316 0.00000000
4.12738966 -0.00178192 -0.15236729 0.00000000
1.15091501 0.00015915 -0.08698604 0.00000000
1.52362137 -0.00037893 -0.02562808 0.00000000
3.46980279 -0.00264896 -0.20562971 0.00000000
1.66620619 0.00193970 -0.05081592 0.00000000
1.58457106 0.00106837 -0.16556217 0.00000000
3.65972705 0.00026239 -0.16348151 0.00000000
4.49481805 -0.00041942 -0.05142452 0.00000000
0.36814629 -0.00395809 -0.15926775 0.00000000
3.75933719 -0.00363604 -0.03789303 0.00000000
1.17836476 0.00496896 -0.20237369 0.00000000
0.33531686 -0.00105068 -0.08847100 0.00000000
3.60907128 0.00067738 -0.17691785 0.00000000
0.26482618 0.00033695 -0.18692880 0.00000000
2.48668691 -0.00240973 -0.15727134 0.00000000
2.44938238 0.00160434 -0.12045735 0.00000000
1.52816866 0.00043141 -0.18069210 0.00000000
0.77897392 -0.00123534 -0.10871813 0.00000000
2.64479060 -0.00323607 -0.09653782 0.00000000
2.55941668 0.00005968 -0.16880347 0.00000000
3.33762672 -0.00078096 -0.21805813 0.00000000
0.37806442 -0.00003342 -0.11073447 0.00000000
4.30126552 0.00301062 -0.19842617 0.00000000
2.43614235 0.00069967 -0.11627385 0.00000000
4.49684450 -0.00165597 -0.09454731 0.00000000
0.86186413 -0.00115615 -0.09557991 0.00000000
3.89296051 -0.00992354 -0.14787562 0.00000000
0.07852875 0.00067650 -0.20472280 0.00000000
0.58153659 -0.00612601 -0.19162571 0.00000000
3.51022396 0.00623944 -0.03913150 0.00000000
1.01543324 -0.00044673 -0.13387524 0.00000000
1.78943272 0.00226283 -0.05081522 0.00000000
4.08176001 0.00120763 -0.19540282 0.00000000
0.71568860 0.00045718 -0.09052548 0.00000000
2.35032145 -0.00053525 -0.19764498 0.00000000
3.01189393 -0.00276550 -0.16073701 0.00000000
4.10866838 -0.00518142 -0.08786109 0.00000000
1.69651485 -0.00222204 -0.11449388 0.00000000
1.07946838 0.00248270 -0.04190290 0.00000000
2.04414421 -0.00225785 -0.09342667 0.00000000
