2.616457 1.195638 0.006178 0.0
3.845129 0.888655 -0.001743 0.0
1.816259 0.125895 -0.004664 0.0
1.024965 0.725756 0.000871 0.0
3.140104 0.073004 0.000757 0.0
2.873397 1.214605 0.000525 0.0
0.135191 0.772653 -0.000660 0.0
2.671767 1.462906 0.004019 0.0
1.282992 0.270442 -0.003990 0.0
2.277822 0.979137 0.001589 0.0
4.361605 1.230994 -0.000352 0.0
0.876630 1.234057 -0.000533 0.0
0.782192 1.526333 -0.000879 0.0
2.036471 1.230973 0.002579 0.0
0.451122 1.273752 0.000645 0.0
2.691981 0.766884 0.003003 0.0
3.925673 0.406010 0.001012 0.0
1.716489 0.034526 0.001383 0.0
3.709291 1.468714 0.000003 0.0
0.824976 0.943693 0.001338 0.0
4.259488 1.466095 -0.000510 0.0
0.757667 0.527955 -0.001942 0.0
0.484697 1.462603 -0.000530 0.0
4.035376 1.248395 0.001968 0.0
0.320346 1.067459 -0.000667 0.0
4.295526 1.098125 -0.002114 0.0
2.241049 0.008661 0.003744 0.0
0.581502 0.223247 -0.002562 0.0
3.326923 1.454385 0.000111 0.0
1.909837 0.520621 0.002789 0.0
3.099683 1.522620 0.003416 0.0
1.807537 0.431931 0.001901 0.0
3.114540 0.039469 -0.001961 0.0
2.024449 1.077786 -0.002542 0.0
2.941819 1.137352 0.003119 0.0
0.919469 0.811774 -0.000813 0.0
0.716010 0.124391 -0.000752 0.0
3.182283 0.714899 0.001009 0.0
1.950244 0.089438 -0.000367 0.0
1.572989 0.232716 -0.000739 0.0
4.060596 0.630245 0.003210 0.0
1.169632 1.173685 -0.002769 0.0
0.145527 0.875936 0.000190 0.0
1.642461 0.212130 -0.004607 0.0
0.424301 0.131039 -0.001554 0.0
2.506521 0.161773 0.000389 0.0
1.314834 0.427952 -0.005953 0.0
3.425716 0.006382 0.002115 0.0
1.988003 1.254910 -0.001637 0.0
0.993719 1.465871 -0.001366 0.0
1.982309 0.973245 0.000181 0.0
1.705202 0.694151 0.002143 0.0
4.182223 0.450264 0.000384 0.0
2.572852 1.207120 -0.002352 0.0
3.688104 0.032842 -0.001823 0.0
3.818834 1.191711 0.002944 0.0
2.091675 1.265629 -0.004041 0.0
3.175402 1.489619 -0.002632 0.0
1.861893 1.205180 0.001409 0.0
1.862066 0.371747 0.000744 0.0
3.038359 0.595409 0.000155 0.0
2.246108 0.696591 0.004907 0.0
3.649749 0.662505 0.000432 0.0
3.866824 0.360925 0.000205 0.0
1.326212 0.709940 -0.000144 0.0
2.961575 0.293866 0.001061 0.0
2.427701 1.098463 0.003435 0.0
1.355554 0.376497 -0.001707 0.0
0.900161 0.089953 0.000669 0.0
3.153403 1.430999 -0.000609 0.0
0.870355 1.520992 0.002850 0.0
1.068238 0.739832 0.000965 0.0
1.423644 1.476395 -0.001372 0.0
3.774413 1.306491 0.003114 0.0
1.708937 0.964649 -0.005338 0.0
3.812865 1.467310 -0.006976 0.0
3.288118 0.067739 -0.001564 0.0
3.435239 1.130359 -0.000357 0.0
0.105850 0.485544 -0.002639 0.0
2.222054 0.814892 -0.000439 0.0
0.442338 1.031044 -0.000882 0.0
1.352658 0.099309 -0.003848 0.0
2.402251 0.622755 0.000739 0.0
1.904858 1.023157 -0.005413 0.0
3.267636 0.687738 -0.000493 0.0
1.792630 0.350906 -0.000807 0.0
0.841498 0.158743 -0.001840 0.0
3.827127 1.204971 0.001493 0.0
4.150247 0.115564 -0.000067 0.0
1.203705 1.268067 0.000053 0.0
0.960414 1.337761 0.000140 0.0
1.800428 1.513434 -0.005506 0.0
1.045547 0.674387 0.001197 0.0
2.766871 1.134622 -0.002064 0.0
4.260616 1.011605 -0.001033 0.0
1.103291 1.036418 -0.006423 0.0
3.561777 0.086726 -0.001030 0.0
3.746257 1.325805 0.001191 0.0
3.182241 0.398110 -0.002053 0.0
0.732191 0.938105 -0.004234 0.0
1.641687 0.229932 0.002608 0.0
0.960428 1.174868 -0.000225 0.0
3.071834 1.189861 0.001036 0.0
2.812440 0.637181 0.000329 0.0
2.161178 0.698713 0.001023 0.0
0.262345 1.213612 0.000323 0.0
1.504438 0.522450 -0.001531 0.0
4.489040 0.142659 -0.005507 0.0
1.085684 1.197994 0.004003 0.0
3.104354 0.494914 0.000077 0.0
1.427109 1.488892 0.003206 0.0
4.198078 0.993653 -0.001621 0.0
3.272633 0.504021 0.001499 0.0
2.645380 0.668551 -0.001342 0.0
3.552909 1.084343 -0.003033 0.0
0.772915 1.092486 -0.000805 0.0
2.736288 1.386692 -0.002315 0.0
3.387442 0.636366 0.004150 0.0
1.258867 0.120360 0.000341 0.0
2.156250 0.957412 0.002302 0.0
3.175073 0.238578 -0.000330 0.0
4.089928 0.516001 -0.007917 0.0
2.988086 0.999809 0.003336 0.0
0.111349 1.196249 -0.000383 0.0
0.100902 1.435061 0.001438 0.0
2.776932 0.987466 -0.002700 0.0
3.693099 0.458210 -0.003261 0.0
1.016831 0.501099 -0.001341 0.0
3.854764 0.483389 0.001615 0.0
4.494905 0.157050 -0.004444 0.0
2.560324 0.447911 0.004775 0.0
0.622048 1.461838 0.002338 0.0
2.886506 1.443011 0.001255 0.0
1.143421 1.485910 -0.001791 0.0
2.509880 0.432089 -0.000343 0.0
1.447066 0.383832 -0.000087 0.0
3.936227 0.012501 -0.000686 0.0
1.941135 0.124608 0.000559 0.0
4.475465 0.481979 0.001023 0.0
1.004070 0.069616 0.001359 0.0
3.905646 0.664480 -0.000930 0.0
0.248373 0.150154 0.000641 0.0
0.092792 0.089683 0.001641 0.0
3.654672 0.145741 -0.004446 0.0
3.119113 1.204998 -0.000709 0.0
2.802727 0.797200 -0.006854 0.0
2.791545 1.058087 0.001504 0.0
3.196949 0.179071 -0.001586 0.0
2.976761 0.231152 0.000519 0.0
2.234038 0.522681 -0.000343 0.0
1.980254 1.114138 0.003780 0.0
0.018592 0.389531 0.001220 0.0
0.772053 0.111254 0.003524 0.0
2.815059 1.197667 -0.000184 0.0
4.056235 1.261984 -0.000611 0.0
2.101175 0.089983 0.000195 0.0
2.855767 1.099499 -0.000517 0.0
1.801362 0.358289 -0.001487 0.0
4.516525 0.699989 0.002997 0.0
1.808881 1.475819 -0.000839 0.0
0.058140 0.735618 0.000713 0.0
1.846945 1.470342 -0.001325 0.0
1.048743 1.063315 -0.000073 0.0
1.649780 0.444605 -0.001894 0.0
1.559410 1.439821 -0.000262 0.0
4.339311 1.352250 -0.002456 0.0
0.394587 0.549686 -0.000336 0.0
3.921959 0.905160 -0.005326 0.0
0.389423 0.823417 0.002482 0.0
0.472905 0.484843 0.003416 0.0
3.115802 0.732475 -0.004313 0.0
2.722040 0.573196 0.003068 0.0
4.425919 0.949496 -0.002281 0.0
0.488377 1.428336 0.000505 0.0
3.829705 0.446392 -0.002716 0.0
2.663060 0.631061 -0.001769 0.0
3.088545 0.100716 0.000447 0.0
2.918251 1.376356 0.004608 0.0
0.099725 1.154232 0.000743 0.0
0.579775 1.199594 0.003754 0.0
1.768517 1.152926 0.004148 0.0
4.025655 0.292648 0.000051 0.0
1.107074 1.474735 0.000425 0.0
2.856350 0.606949 0.002746 0.0
0.601731 0.926845 -0.000752 0.0
4.108056 0.766682 -0.003616 0.0
1.144966 0.070773 0.003207 0.0
3.285884 1.232425 -0.002778 0.0
3.047553 0.012858 0.002411 0.0
3.241304 0.551465 -0.000255 0.0
2.107270 0.929416 -0.000831 0.0
4.277871 0.814330 -0.005332 0.0
2.499266 0.031067 -0.000425 0.0
0.252423 1.455435 -0.003041 0.0
1.184946 0.954472 -0.001276 0.0
3.444279 1.127354 -0.000797 0.0
4.401882 0.895005 0.001192 0.0
3.978433 0.196506 0.000375 0.0
3.349027 0.228458 0.002660 0.0
2.591416 1.075366 0.001307 0.0
0.571429 0.939826 -0.002325 0.0
1.181761 0.729545 -0.000583 0.0
1.026292 0.237219 -0.000617 0.0
1.837596 1.182719 -0.002103 0.0
3.216065 1.294353 -0.000468 0.0
1.964148 0.276443 -0.001218 0.0
2.358506 0.341939 0.000481 0.0
2.417197 0.419817 -0.000894 0.0
2.778414 0.902077 -0.001403 0.0
2.320764 1.352774 0.003419 0.0
1.258271 0.471021 -0.000818 0.0
0.390313 0.014518 -0.000835 0.0
4.092599 1.417949 -0.003131 0.0
3.270361 0.118016 0.000561 0.0
2.463794 0.608569 0.000245 0.0
3.832484 0.012350 0.001867 0.0
3.439950 1.045157 0.001313 0.0
3.831866 0.650192 -0.003034 0.0
0.780209 1.210706 -0.003096 0.0
1.446159 0.264798 -0.000473 0.0
4.387818 0.942611 -0.005481 0.0
4.338175 0.244041 -0.002894 0.0
0.505796 1.265252 -0.003057 0.0
0.148134 0.442379 0.000599 0.0
0.621101 0.033180 0.001449 0.0
2.034014 0.422226 0.000781 0.0
0.641407 1.146241 0.002345 0.0
4.206776 0.199455 -0.001462 0.0
1.106540 1.195025 0.002307 0.0
2.141065 0.929052 0.002539 0.0
3.149961 0.355083 -0.000506 0.0
2.253735 0.863258 -0.002050 0.0
0.744089 0.302613 0.001126 0.0
3.768085 0.022940 -0.000929 0.0
2.595048 1.128868 0.000756 0.0
0.863796 1.214072 -0.009781 0.0
1.918005 0.454102 -0.002867 0.0
2.674021 0.502220 -0.002393 0.0
3.494442 0.983754 0.000789 0.0
4.155967 0.199992 -0.002447 0.0
3.922470 0.533900 -0.000471 0.0
3.508501 1.306617 0.003047 0.0
1.048427 0.808735 0.000482 0.0
0.574334 1.236723 0.001023 0.0
2.343804 0.573423 -0.001265 0.0
0.800625 1.460781 0.003868 0.0
4.186316 1.255041 -0.002599 0.0
4.272351 1.134703 0.003821 0.0
1.713081 1.005332 -0.000521 0.0
3.537017 1.330786 -0.001249 0.0
2.904318 0.964489 0.001347 0.0
4.311676 1.353195 -0.001023 0.0
1.890206 0.710170 0.004998 0.0
4.361922 1.041511 0.005717 0.0
1.002497 1.274456 0.001163 0.0
3.997205 1.479995 -0.001044 0.0
3.893377 0.617699 0.003431 0.0
2.012012 0.113392 -0.002563 0.0
2.037502 1.337179 -0.006239 0.0
3.055991 0.310134 -0.000447 0.0
1.757989 1.457718 -0.004686 0.0
0.176268 1.337221 0.002767 0.0
3.986627 0.170453 0.002561 0.0
2.598667 0.754909 0.001336 0.0
2.616011 0.853816 -0.003517 0.0
0.332111 0.294883 0.008968 0.0
3.098984 0.972322 0.002071 0.0
0.207317 0.328361 0.001491 0.0
0.909322 0.620616 -0.010072 0.0
2.767582 0.524516 0.000008 0.0
3.080852 0.301085 -0.003405 0.0
0.678888 0.691810 -0.002074 0.0
1.397760 0.163630 -0.003619 0.0
0.389111 1.368316 0.003112 0.0
4.381423 0.473265 -0.003887 0.0
1.781986 1.351554 -0.004027 0.0
0.683459 0.634339 -0.004672 0.0
1.805976 0.439895 -0.004766 0.0
0.046428 1.353177 -0.004120 0.0
2.842806 0.029928 -0.004857 0.0
1.484803 0.269836 -0.000620 0.0
0.554258 0.321749 0.000067 0.0
0.971257 1.512203 0.000541 0.0
0.320355 1.129268 0.002713 0.0
1.322519 1.297622 0.003013 0.0
3.292253 1.294841 0.001355 0.0
2.700084 1.101787 -0.000748 0.0
1.434532 1.049253 0.001745 0.0
1.736037 0.115551 0.001748 0.0
1.668643 0.265886 -0.003434 0.0
3.528798 1.183536 0.001077 0.0
0.877080 1.408161 0.000218 0.0
0.654750 0.581797 0.001578 0.0
1.828769 1.265479 -0.001182 0.0
2.128360 0.576319 0.000516 0.0
0.080997 1.350086 -0.001298 0.0
1.309729 0.430521 -0.001627 0.0
2.024943 0.869844 0.002043 0.0
0.500459 0.923700 0.002826 0.0
2.523605 0.438104 -0.002157 0.0
1.996796 0.640182 -0.006274 0.0
2.204492 0.304750 -0.000961 0.0
2.817576 0.538055 0.002094 0.0
4.182884 1.304246 0.000061 0.0
1.451748 0.688525 -0.001529 0.0
1.446097 0.475780 -0.001175 0.0
0.277928 0.081641 0.003467 0.0
3.365806 0.105788 0.001606 0.0
4.382470 1.168539 0.001841 0.0
1.604121 0.872125 0.003433 0.0
2.497837 1.097622 -0.001788 0.0
4.400124 1.385957 -0.000848 0.0
1.260322 0.365538 0.002863 0.0
0.841020 0.924353 0.001159 0.0
1.589446 0.485145 -0.000168 0.0
0.096234 0.314947 -0.000704 0.0
1.243094 1.273943 0.002241 0.0
2.422299 1.162896 0.003226 0.0
2.827999 1.151724 0.000201 0.0
4.123154 1.239959 0.001971 0.0
1.275351 0.439811 -0.000644 0.0
0.865520 1.344577 -0.001294 0.0
4.515281 0.503414 0.001345 0.0
1.985633 0.217784 0.001359 0.0
0.885485 0.801028 -0.002442 0.0
3.298728 0.998426 -0.000948 0.0
1.768080 1.512610 0.001787 0.0
2.002212 1.056119 -0.001251 0.0
0.335655 1.433885 -0.003395 0.0
3.078457 0.936776 0.001965 0.0
1.092332 0.789458 0.000626 0.0
4.483102 1.413514 -0.000811 0.0
3.653856 1.002311 0.000439 0.0
3.557954 1.307999 -0.000977 0.0
2.954536 0.661605 -0.000541 0.0
0.148853 0.287200 -0.006321 0.0
1.375257 0.429701 -0.003270 0.0
3.228215 0.998533 -0.004887 0.0
1.760851 0.562549 0.002844 0.0
3.232910 0.914889 -0.001696 0.0
2.550175 1.490951 -0.001198 0.0
2.014653 0.208161 -0.002811 0.0
0.977273 0.182501 -0.004458 0.0
2.565476 0.795610 -0.000611 0.0
0.029949 0.033516 0.000345 0.0
3.071434 0.461857 0.000706 0.0
3.448124 0.339072 -0.002767 0.0
1.173253 0.900265 0.000067 0.0
2.537235 0.258519 -0.000695 0.0
2.867829 0.169553 -0.000685 0.0
1.499020 1.168523 0.002842 0.0
2.759916 0.302924 -0.004231 0.0
0.888395 0.243063 -0.001499 0.0
3.221440 0.317039 -0.003859 0.0
0.380811 0.116071 0.001203 0.0
1.194969 0.701096 -0.000150 0.0
4.420622 1.129262 0.006161 0.0
1.109829 1.386234 -0.000557 0.0
4.022773 0.493623 -0.001262 0.0
0.711846 0.767631 -0.000587 0.0
3.552708 1.116178 0.001110 0.0
2.110477 0.855333 -0.000285 0.0
2.293015 1.096469 0.000353 0.0
2.425690 1.470278 0.000022 0.0
1.757936 0.610943 -0.000022 0.0
0.716842 1.019273 -0.000182 0.0
0.256335 0.424575 -0.000900 0.0
2.269018 0.874514 -0.005445 0.0
2.222734 0.346920 -0.002048 0.0
4.472553 0.075295 0.004206 0.0
0.293370 1.444374 0.000224 0.0
0.099370 0.242656 -0.001803 0.0
3.471698 0.696994 -0.000065 0.0
3.127360 0.739234 -0.001270 0.0
3.629378 1.450451 0.000997 0.0
4.496675 0.553340 0.001997 0.0
2.018944 0.775106 -0.000205 0.0
4.414841 1.276284 -0.002368 0.0
1.203059 1.142892 0.002515 0.0
0.809664 1.391259 0.004546 0.0
1.641719 1.023807 0.001149 0.0
4.383696 0.877786 -0.001067 0.0
1.005078 0.235759 -0.002354 0.0
0.728592 0.408875 0.001491 0.0
0.074579 1.338461 0.001509 0.0
1.765076 0.540189 -0.000359 0.0
2.339637 0.244610 -0.003537 0.0
3.762014 0.866352 -0.001861 0.0
3.208664 0.246537 0.001671 0.0
2.836932 1.220302 0.003024 0.0
4.287393 1.502168 -0.001027 0.0
1.383055 0.333101 -0.002117 0.0
1.762225 1.448439 0.000719 0.0
3.090118 1.407432 0.000120 0.0
2.719741 0.828627 -0.002726 0.0
3.067235 0.313144 -0.002223 0.0
2.698348 0.165422 0.000578 0.0
2.369531 0.801612 0.002309 0.0
2.574990 1.213486 0.000914 0.0
1.264940 1.360155 0.002351 0.0
2.324136 1.266837 0.000418 0.0
3.295741 0.275280 0.000013 0.0
3.154332 0.979085 -0.000570 0.0
2.128067 0.830305 -0.005018 0.0
2.623370 1.295369 -0.001122 0.0
1.901643 0.240530 0.001853 0.0
3.816208 0.028160 0.003212 0.0
4.472575 1.037526 0.003737 0.0
3.810089 0.672975 -0.000187 0.0
4.320077 0.128672 -0.000475 0.0
1.174515 1.365031 0.000205 0.0
1.168922 0.512922 0.001730 0.0
1.763482 0.680111 0.001480 0.0
3.118685 0.467411 0.003577 0.0
4.268325 0.302307 0.001023 0.0
0.154308 1.512368 -0.001115 0.0
3.799734 0.329264 -0.003884 0.0
0.456224 0.472290 -0.001708 0.0
0.610403 1.070577 -0.000082 0.0
0.363823 1.521059 -0.005021 0.0
2.000434 0.902167 0.001706 0.0
1.247121 0.279280 -0.000096 0.0
2.598808 1.203923 -0.000300 0.0
3.048133 0.520597 -0.003618 0.0
3.568892 1.444688 -0.000695 0.0
0.800346 0.892685 0.002142 0.0
1.734543 1.050108 0.000048 0.0
2.342427 0.097936 0.004118 0.0
3.016987 1.415815 -0.004229 0.0
1.275202 0.535246 0.003637 0.0
0.864415 1.270124 0.002662 0.0
2.214806 0.842794 0.000502 0.0
1.917426 0.138332 -0.000144 0.0
2.998730 0.113013 -0.000018 0.0
1.823883 0.473440 -0.004806 0.0
2.078775 1.042459 0.002983 0.0
0.924932 0.229934 0.000213 0.0
3.191257 1.463567 0.002112 0.0
0.854237 1.495752 -0.002321 0.0
2.026378 0.617132 0.000872 0.0
3.854334 1.236057 -0.000699 0.0
2.274239 1.523304 0.001373 0.0
2.107927 1.024917 0.001983 0.0
2.157624 0.989359 -0.006871 0.0
4.361964 0.091923 -0.000420 0.0
2.282041 1.167352 0.002190 0.0
2.261822 0.370485 -0.000657 0.0
1.879091 1.365649 0.000856 0.0
1.880620 0.137850 0.002905 0.0
3.796718 1.333301 0.000921 0.0
3.435393 0.894037 -0.001628 0.0
1.314255 1.137931 0.003470 0.0
2.019791 0.845395 0.000110 0.0
1.215791 1.091226 -0.000333 0.0
1.528920 1.503263 0.003807 0.0
2.135531 1.340171 -0.002475 0.0
3.405177 1.163879 0.002378 0.0
4.084103 0.974507 -0.007158 0.0
3.375915 0.828248 0.001780 0.0
0.157424 0.609060 0.002068 0.0
0.212637 0.205875 0.004816 0.0
4.238097 0.735365 -0.000054 0.0
3.772156 0.148028 -0.000903 0.0
1.250403 0.673073 -0.003230 0.0
1.054582 1.447321 0.003197 0.0
4.220791 0.723361 -0.000958 0.0
3.013184 0.210768 0.000081 0.0
0.172771 0.483991 -0.000875 0.0
1.099801 1.340463 0.000214 0.0
4.288819 0.666326 -0.001706 0.0
3.990335 0.735839 -0.003301 0.0
0.391815 0.272394 0.001936 0.0
3.760383 0.621034 -0.001410 0.0
1.321926 1.129755 0.000818 0.0
0.879118 1.136978 -0.000908 0.0
1.188205 0.239809 -0.000767 0.0
3.193326 0.002455 0.001706 0.0
2.913391 1.132686 -0.001588 0.0
4.256129 0.365097 0.000495 0.0
2.576049 0.572870 0.001245 0.0
0.691050 0.257713 -0.001985 0.0
0.641560 0.217380 0.002000 0.0
1.325566 0.830572 0.003423 0.0
3.216533 0.605035 -0.002462 0.0
3.123705 0.027832 -0.000881 0.0
4.519940 0.580666 0.001299 0.0
3.223742 1.311505 -0.001144 0.0
2.892796 1.122966 0.000979 0.0
1.050412 0.459859 0.005590 0.0
3.642619 0.894172 0.000331 0.0
1.143941 1.095557 0.002814 0.0
1.195190 0.772418 0.007932 0.0
0.381027 1.071640 0.000732 0.0
0.942193 0.247103 0.001989 0.0
2.437653 0.090628 -0.000571 0.0
3.595260 0.578800 -0.001961 0.0
2.070606 0.189830 0.003509 0.0
2.842641 1.219307 0.000600 0.0
1.487559 1.011065 -0.001136 0.0
1.802680 0.416519 0.004391 0.0
3.202517 1.073739 -0.002849 0.0
3.072953 0.795776 0.002031 0.0
3.095120 0.295148 -0.000900 0.0
0.334648 1.283853 0.000604 0.0
4.314115 1.101670 0.000506 0.0
3.274285 0.088419 -0.000848 0.0
1.293610 0.117560 0.002537 0.0
1.322143 0.101394 -0.003038 0.0
0.531667 0.698379 0.003158 0.0
0.777594 0.392943 0.001302 0.0
0.216260 1.420589 0.003485 0.0
1.769926 0.183753 -0.000008 0.0
0.381909 1.056164 -0.001919 0.0
3.636745 0.680646 -0.000008 0.0
2.826785 0.098672 0.000180 0.0
2.262296 0.869143 0.001362 0.0
2.404912 0.349654 0.002017 0.0
2.536495 1.097197 0.003117 0.0
2.128742 0.732793 0.000361 0.0
1.840110 1.505874 0.002148 0.0
0.469179 1.174524 -0.000447 0.0
4.142791 0.276490 0.004483 0.0
2.432348 0.676341 -0.004072 0.0
2.198443 0.093977 0.000840 0.0
4.108083 0.294768 0.000959 0.0
4.144310 0.627746 -0.000173 0.0
0.014201 1.091439 -0.001561 0.0
0.999965 0.284920 0.005567 0.0
2.513361 1.112631 0.002401 0.0
3.259328 0.548981 -0.002277 0.0
4.503871 0.968094 -0.001601 0.0
3.096105 0.863776 0.001101 0.0
2.086571 0.782468 -0.000511 0.0
2.944714 0.141799 -0.004257 0.0
2.055534 0.274827 0.000665 0.0
1.248039 0.604878 -0.001189 0.0
4.208040 1.135270 -0.001830 0.0
2.430273 1.218128 -0.001733 0.0
4.438235 1.238619 -0.000142 0.0
0.899567 1.352236 -0.000061 0.0
1.407239 0.498719 0.003305 0.0
0.345321 0.712731 -0.001202 0.0
1.458997 1.236895 -0.001883 0.0
1.673805 0.469849 0.001061 0.0
0.660956 0.528577 0.000037 0.0
0.556532 0.095761 0.002674 0.0
0.813544 1.088446 -0.001010 0.0
3.433048 0.439404 -0.000476 0.0
2.550312 1.279948 -0.000476 0.0
1.090215 0.779760 -0.001967 0.0
1.114673 0.779440 -0.002069 0.0
3.603333 1.008551 -0.000106 0.0
3.386134 0.498091 -0.001537 0.0
3.361718 1.441800 0.006866 0.0
2.349612 0.007685 0.001064 0.0
1.033908 0.008696 0.002500 0.0
1.222398 0.410281 -0.001082 0.0
1.126686 1.047725 0.000621 0.0
2.337488 0.558568 0.000883 0.0
1.086189 0.176252 0.001166 0.0
1.818505 1.528477 -0.000659 0.0
2.258490 0.297837 0.004305 0.0
1.951604 0.867410 -0.000357 0.0
0.385033 1.529181 0.000229 0.0
4.105942 0.373881 0.000980 0.0
3.151926 1.436058 -0.000755 0.0
0.724558 0.321254 0.002506 0.0
4.403765 0.064340 -0.001468 0.0
2.489262 1.086866 -0.005498 0.0
1.468539 0.344861 -0.000597 0.0
0.877212 0.861894 0.005901 0.0
2.701410 1.125945 0.002804 0.0
0.119297 0.020567 0.003863 0.0
1.806795 0.286913 -0.001094 0.0
3.221491 0.729197 -0.006045 0.0
3.415903 0.433600 -0.001355 0.0
3.213677 0.619063 -0.001203 0.0
2.030354 0.621613 0.000929 0.0
2.498304 1.091231 0.004903 0.0
2.622017 0.040089 0.000136 0.0
0.250389 1.191896 -0.001942 0.0
4.367940 0.409374 0.002408 0.0
4.504772 0.022798 -0.002281 0.0
0.714660 1.200998 -0.000691 0.0
3.727182 0.602648 0.000583 0.0
1.089550 1.179256 -0.001393 0.0
1.119623 1.041054 -0.000138 0.0
0.543840 0.983113 -0.004368 0.0
0.367387 1.358422 -0.004482 0.0
2.892515 1.304471 -0.002737 0.0
3.843423 0.087252 -0.003884 0.0
3.313399 0.725546 0.001992 0.0
3.214287 0.285855 -0.000317 0.0
0.640183 0.994256 0.001151 0.0
1.434207 0.311596 0.000812 0.0
0.856065 0.116468 0.006246 0.0
1.855326 0.068083 0.003060 0.0
0.909990 1.447770 -0.002695 0.0
2.794738 0.633317 0.001649 0.0
0.299546 1.092974 0.001734 0.0
0.637048 0.948312 -0.000700 0.0
3.223888 1.121982 -0.004972 0.0
3.689733 1.050256 -0.000145 0.0
0.644537 1.326123 0.000107 0.0
2.230914 0.362173 -0.001814 0.0
0.332690 1.307053 0.001154 0.0
1.763643 0.931570 -0.005457 0.0
0.671764 0.696359 0.000375 0.0
4.493764 0.780672 -0.001474 0.0
3.453155 1.457059 -0.003838 0.0
0.134149 1.036662 -0.003920 0.0
0.496764 1.362292 -0.001077 0.0
3.576894 0.857196 0.005566 0.0
1.711507 1.010141 0.003771 0.0
3.229181 0.587381 0.003229 0.0
3.656559 0.207839 0.001679 0.0
4.221698 0.914307 0.002011 0.0
1.820296 1.412034 0.001163 0.0
3.871230 0.108488 0.000691 0.0
1.696622 0.578037 -0.002293 0.0
4.477921 1.219130 -0.002899 0.0
0.355263 0.700132 -0.003405 0.0
2.561818 0.062550 -0.000318 0.0
2.307582 0.944134 -0.002305 0.0
0.764106 1.032663 0.004092 0.0
0.970950 1.495083 -0.001184 0.0
2.742068 1.297795 0.001127 0.0
3.164684 0.509791 -0.000163 0.0
0.855834 0.779777 0.001675 0.0
0.727720 0.235927 0.000437 0.0
2.267136 1.332666 -0.000244 0.0
1.245023 1.054625 0.000715 0.0
3.788451 0.942965 0.000255 0.0
3.885331 1.088238 0.003243 0.0
3.342287 1.062417 0.000379 0.0
0.889725 0.892115 0.000271 0.0
4.354905 0.509124 -0.001305 0.0
3.749640 1.219384 0.004088 0.0
3.360317 0.774423 0.004778 0.0
3.570565 0.297130 -0.000586 0.0
3.477467 1.252218 -0.002463 0.0
3.100032 0.735952 0.003279 0.0
4.251189 0.767718 0.001288 0.0
2.676156 0.078088 0.002125 0.0
1.227261 1.258825 0.000837 0.0
1.947607 0.867870 -0.002174 0.0
2.995910 1.291617 0.001809 0.0
1.975947 1.304278 -0.002915 0.0
3.732811 1.444995 -0.001464 0.0
0.530742 1.042347 -0.003110 0.0
0.541765 1.116351 0.001467 0.0
2.159800 0.130840 0.000621 0.0
1.307435 0.965407 -0.003318 0.0
4.276097 0.877437 -0.001404 0.0
2.913367 0.217987 0.003012 0.0
4.346226 0.523000 -0.001253 0.0
4.219600 1.054097 -0.001939 0.0
4.270628 1.020399 0.000072 0.0
3.859218 0.238482 -0.005141 0.0
4.367729 1.489928 0.000986 0.0
4.493135 1.167512 0.000329 0.0
0.421003 1.291402 0.000780 0.0
2.782812 0.581060 -0.004928 0.0
2.524140 1.523365 -0.001416 0.0
0.812361 0.034775 0.001959 0.0
0.210890 1.077893 0.002057 0.0
3.937080 0.426893 0.000179 0.0
2.917540 0.803850 -0.001238 0.0
4.468296 0.892579 0.001688 0.0
2.093140 0.998504 0.002563 0.0
0.606429 1.191093 -0.001681 0.0
1.198562 0.798607 0.004958 0.0
1.213898 0.413982 -0.000290 0.0
3.232557 1.339344 0.004201 0.0
3.436993 0.954090 -0.001899 0.0
2.383811 0.264716 0.001764 0.0
3.535262 0.449075 0.000544 0.0
1.308506 0.476290 -0.002288 0.0
0.054162 0.309086 -0.003419 0.0
0.437154 1.063713 -0.001446 0.0
4.160511 1.131996 0.002336 0.0
0.891149 0.706208 -0.000462 0.0
3.410749 0.607294 0.005105 0.0
3.655570 0.459103 -0.005467 0.0
3.242679 1.046834 0.000215 0.0
0.640642 1.131840 -0.002195 0.0
2.516142 0.720328 -0.003011 0.0
1.678373 0.411431 0.001391 0.0
0.839772 0.689130 -0.001241 0.0
3.309615 0.721246 0.001001 0.0
1.378208 1.359315 0.006767 0.0
0.907634 0.578604 0.003709 0.0
0.648670 1.373747 0.000539 0.0
1.294776 0.687114 0.001164 0.0
3.969099 0.678699 -0.001543 0.0
0.489967 0.075097 0.000378 0.0
4.241400 1.443748 0.000809 0.0
2.607144 0.960298 -0.002555 0.0
1.679052 0.796634 0.006034 0.0
0.918062 0.539051 0.000143 0.0
0.410876 0.012971 0.000914 0.0
1.862612 0.945955 -0.001039 0.0
1.652864 1.347120 0.000607 0.0
2.817254 0.367176 -0.002605 0.0
2.049788 0.179143 0.000223 0.0
2.987458 0.354043 0.002353 0.0
3.210173 0.426891 -0.004353 0.0
3.362719 0.159963 0.000633 0.0
0.793945 0.278466 -0.004478 0.0
2.648782 0.743807 -0.000964 0.0
2.095661 1.267670 -0.002688 0.0
3.708017 0.219791 0.002888 0.0
3.668847 0.858829 -0.002108 0.0
0.613915 1.439566 -0.003015 0.0
2.401453 0.152612 -0.000953 0.0
1.704244 1.025599 0.001420 0.0
2.613446 0.027722 0.001459 0.0
0.578282 0.226384 -0.000561 0.0
0.574803 1.012897 -0.002449 0.0
4.030386 0.176236 0.006109 0.0
0.654419 1.196745 -0.000541 0.0
3.274596 1.306973 -0.000025 0.0
3.834858 1.060235 -0.002330 0.0
2.014292 0.302384 -0.000693 0.0
1.874291 0.821235 0.000595 0.0
1.658569 1.316812 0.001311 0.0
3.325917 0.107013 -0.002679 0.0
2.208488 0.040386 0.001368 0.0
0.417397 1.466241 0.001233 0.0
4.074923 0.307217 -0.000046 0.0
3.392460 0.591982 -0.000766 0.0
3.541914 0.287961 0.000807 0.0
3.171056 0.396509 -0.001525 0.0
2.887190 1.403244 -0.002829 0.0
2.854637 0.214580 -0.001388 0.0
1.078950 0.109724 0.000287 0.0
3.378431 1.371893 0.000552 0.0
0.136069 1.382264 -0.000759 0.0
1.602859 0.881496 0.000624 0.0
1.389217 0.207848 -0.000401 0.0
2.010462 1.116319 -0.001356 0.0
0.913735 1.078554 0.000968 0.0
0.066101 1.192795 0.001765 0.0
0.521444 1.307856 -0.003095 0.0
1.722120 0.514928 -0.003483 0.0
0.939661 1.149653 -0.003768 0.0
1.007843 0.722659 -0.002129 0.0
0.702986 0.979094 0.002298 0.0
3.342512 0.048984 -0.000635 0.0
1.488713 0.716462 -0.002410 0.0
1.117687 1.249863 0.000234 0.0
0.313554 0.034592 -0.000051 0.0
3.697697 0.714140 0.007089 0.0
2.338702 0.185381 0.002539 0.0
2.763133 1.096938 -0.002658 0.0
1.799999 0.025121 -0.003948 0.0
2.694081 1.391281 0.000070 0.0
2.850774 0.987343 0.003044 0.0
0.609050 0.300156 -0.001476 0.0
3.906591 0.365100 -0.004863 0.0
3.918457 0.902997 -0.001392 0.0
1.835464 0.625135 -0.002176 0.0
2.877058 1.354935 -0.002575 0.0
3.525661 0.972255 -0.000674 0.0
1.729893 1.366632 -0.000852 0.0
0.409689 0.618486 0.000441 0.0
0.633389 0.538676 0.000208 0.0
3.090180 1.211144 -0.002037 0.0
4.107797 0.442172 0.005308 0.0
2.198666 0.303013 0.002374 0.0
2.392388 1.054642 -0.000734 0.0
0.217873 0.705662 0.001997 0.0
3.769293 1.299550 -0.000791 0.0
0.248592 1.218540 0.001383 0.0
1.305011 0.334345 0.001254 0.0
2.923052 1.438036 0.000866 0.0
4.148112 0.498258 0.001660 0.0
3.104077 1.415571 0.002736 0.0
4.336311 0.423150 -0.002487 0.0
0.460704 0.604980 -0.001269 0.0
0.797720 1.109457 0.001716 0.0
2.241036 0.440544 -0.001415 0.0
3.859720 0.733082 0.002456 0.0
3.924105 0.819200 0.003918 0.0
2.512251 0.202459 -0.000549 0.0
1.967773 0.995800 -0.002420 0.0
4.341581 1.232960 0.003617 0.0
0.654883 1.325231 0.001629 0.0
1.883431 0.846055 0.001342 0.0
4.150735 0.128042 -0.002697 0.0
2.560731 1.418481 0.001028 0.0
0.676140 0.511399 0.001922 0.0
4.387990 0.989335 0.001719 0.0
4.070778 1.278569 0.001309 0.0
3.326334 1.482452 0.001127 0.0
4.453755 1.141677 -0.000594 0.0
3.725551 0.302384 -0.000680 0.0
2.485620 1.185305 0.002810 0.0
4.243082 1.438013 -0.000336 0.0
3.743250 0.071794 -0.004286 0.0
1.141717 0.336479 0.007477 0.0
1.321992 0.858431 -0.003760 0.0
2.585024 1.224508 0.002093 0.0
3.164816 0.061402 0.001174 0.0
2.640908 1.116951 -0.003202 0.0
0.193474 0.304005 -0.003759 0.0
2.016731 0.766999 -0.001617 0.0
3.568411 1.312309 -0.004198 0.0
2.254423 0.031099 0.001940 0.0
0.489877 0.365395 -0.002893 0.0
3.932474 1.292126 0.000924 0.0
1.407336 1.097332 0.002808 0.0
2.203689 1.423092 0.001032 0.0
1.151287 1.261785 -0.002867 0.0
2.046362 1.454332 0.004738 0.0
4.062912 0.567355 0.000696 0.0
3.169560 0.377166 0.000095 0.0
1.281577 0.948791 0.001247 0.0
1.700156 0.130144 -0.000380 0.0
4.321892 0.876585 0.001251 0.0
1.330369 0.707635 0.002710 0.0
2.942738 0.667161 0.002168 0.0
2.636168 0.444703 -0.000408 0.0
0.693742 0.846573 0.002454 0.0
2.703548 0.065776 -0.000499 0.0
4.113701 0.762789 0.002769 0.0
2.880737 0.193827 0.002337 0.0
1.816288 1.099037 -0.005346 0.0
2.476349 0.464506 -0.000714 0.0
1.759304 0.101447 0.000845 0.0
0.909449 1.273412 0.001759 0.0
4.090755 0.211682 0.001525 0.0
4.478025 0.617688 -0.007463 0.0
4.449080 0.409338 0.000608 0.0
0.920797 1.054841 0.001452 0.0
2.184924 1.203995 -0.000404 0.0
2.515470 0.469754 0.000042 0.0
1.335284 1.186151 0.000335 0.0
0.162707 1.073681 0.000088 0.0
4.002363 0.655079 -0.002900 0.0
0.809462 0.351216 0.001464 0.0
3.268890 1.156012 -0.005187 0.0
0.403326 0.162656 -0.003156 0.0
3.081363 1.058185 0.003163 0.0
2.327540 0.777362 0.002438 0.0
1.332783 0.283944 -0.001457 0.0
3.202765 1.431936 0.001568 0.0
0.609469 0.924119 0.001539 0.0
3.041306 1.275454 0.001078 0.0
4.197491 1.054086 0.000636 0.0
4.370884 0.073965 -0.000212 0.0
0.533528 0.068302 0.002039 0.0
0.921895 0.199404 0.000860 0.0
1.625404 1.247303 -0.000920 0.0
3.613468 0.011571 -0.001623 0.0
3.601508 0.675550 -0.002215 0.0
2.479644 1.049449 0.000875 0.0
0.767017 1.435165 -0.000463 0.0
2.238228 0.402057 0.000771 0.0
2.424414 1.078346 0.000672 0.0
2.917457 1.255219 -0.001756 0.0
1.421523 0.353741 -0.001315 0.0
1.567832 1.266142 -0.002148 0.0
0.628382 1.101841 0.004022 0.0
2.352543 0.155594 -0.006933 0.0
2.834538 0.183427 -0.001505 0.0
3.542620 0.624977 -0.002999 0.0
4.084444 0.160835 -0.003376 0.0
0.577264 1.356710 -0.004206 0.0
2.584588 0.965620 0.001095 0.0
2.420252 0.540044 -0.001966 0.0
0.747624 0.406946 -0.001489 0.0
1.034101 0.772899 0.001823 0.0
0.919016 1.422338 0.003587 0.0
1.937543 0.226893 0.002324 0.0
3.662399 1.323037 0.004608 0.0
3.508142 0.348724 -0.000318 0.0
0.154080 0.029818 -0.005727 0.0
1.747030 0.776552 -0.003917 0.0
1.129495 1.094621 -0.002098 0.0
2.472228 0.994780 -0.002126 0.0
1.973450 0.164964 0.000835 0.0
0.551659 0.601560 0.000003 0.0
4.190835 1.127754 -0.000582 0.0
0.055251 0.748120 0.005766 0.0
1.239637 1.022421 -0.002639 0.0
0.608360 0.773750 0.001595 0.0
4.038800 1.147070 0.002371 0.0
1.677788 0.207756 0.001554 0.0
0.759568 1.381096 -0.001383 0.0
0.737806 1.215859 -0.000503 0.0
1.383952 0.853424 -0.000080 0.0
3.686978 1.248111 0.000124 0.0
3.080868 1.471683 0.003755 0.0
0.032298 0.194383 0.004445 0.0
0.022281 0.447631 0.003629 0.0
0.131606 1.314138 0.000387 0.0
0.182771 0.830602 -0.002487 0.0
1.433341 0.192988 -0.000667 0.0
4.156532 1.255804 0.001822 0.0
3.406241 0.575208 -0.001069 0.0
2.999298 1.011542 0.003093 0.0
0.531800 0.145248 -0.000804 0.0
1.637243 1.397974 0.006012 0.0
2.626944 1.457322 -0.000769 0.0
0.259461 0.031755 -0.000077 0.0
3.982059 0.516094 -0.003530 0.0
0.876567 0.220193 0.002059 0.0
2.455335 0.745415 0.003307 0.0
4.220942 0.750323 0.000348 0.0
3.591596 0.787946 -0.004541 0.0
3.228619 0.871933 0.002235 0.0
1.300197 0.855292 -0.001808 0.0
3.375884 0.117438 0.000123 0.0
1.384036 0.204440 -0.001592 0.0
4.038117 0.121289 0.000335 0.0
1.037719 1.452215 -0.001243 0.0
1.487794 0.397055 0.000008 0.0
2.116282 1.200334 0.002546 0.0
3.303055 0.529561 0.000904 0.0
2.255627 0.297723 0.000599 0.0
0.681789 0.929989 0.002383 0.0
0.345194 0.411989 -0.000459 0.0
2.571797 0.038591 0.000387 0.0
2.214246 0.493006 -0.001483 0.0
1.669587 0.206442 0.004497 0.0
3.233490 0.127679 -0.001543 0.0
3.192115 0.057880 -0.002556 0.0
3.814831 0.639200 -0.003725 0.0
3.152864 1.379333 -0.001170 0.0
1.179563 0.915008 -0.003579 0.0
1.856555 1.453692 -0.001366 0.0
1.729602 0.033597 0.002626 0.0
2.982281 0.175011 0.001927 0.0
1.911822 0.598535 -0.003271 0.0
2.763601 1.174194 0.003344 0.0
4.359460 0.620001 -0.003117 0.0
3.774677 0.608445 0.001169 0.0
3.817017 1.451969 0.002317 0.0
0.748751 1.343143 0.002953 0.0
3.400313 0.337895 0.000358 0.0
1.030809 0.415367 0.001528 0.0
4.128277 0.502170 -0.000639 0.0
1.242399 1.358761 -0.002790 0.0
0.379164 1.011823 0.001794 0.0
0.553139 0.199720 0.000204 0.0
1.028712 1.382148 0.001416 0.0
1.088220 1.182690 -0.003827 0.0
0.352857 1.421052 0.002751 0.0
2.890350 0.662640 -0.001312 0.0
1.593025 1.350665 -0.001683 0.0
2.949169 0.791266 -0.002224 0.0
1.976487 1.122010 -0.001709 0.0
2.182055 0.550870 0.004152 0.0
1.944950 0.186684 0.000308 0.0
2.209735 0.796849 -0.001655 0.0
1.921560 0.643196 0.001101 0.0
3.598505 0.983606 -0.005636 0.0
1.573062 0.244761 -0.001434 0.0
3.328629 1.491473 0.002354 0.0
2.333762 0.594389 -0.003263 0.0
0.346716 0.423439 -0.000322 0.0
0.060745 1.214928 0.001917 0.0
1.520069 0.440139 0.001216 0.0
4.320428 0.351527 0.002202 0.0
4.447675 0.561210 -0.001905 0.0
2.632726 0.667111 -0.001740 0.0
4.346277 0.269836 -0.001011 0.0
3.496838 0.891251 -0.001692 0.0
0.160793 0.660299 0.004477 0.0
3.199173 1.211580 0.000597 0.0
0.024827 0.096709 0.000994 0.0
4.403416 0.827956 -0.003101 0.0
3.845346 0.952432 -0.001393 0.0
1.434642 1.092773 -0.000396 0.0
2.349133 0.546306 0.002039 0.0
3.404855 0.593938 0.003418 0.0
1.856294 0.103430 0.002148 0.0
0.283981 1.029126 0.004186 0.0
0.934977 0.368362 0.000559 0.0
2.178791 0.352665 -0.001276 0.0
0.167317 0.396773 0.000719 0.0
1.919438 1.200487 -0.001100 0.0
3.970388 0.140757 0.003772 0.0
2.708816 0.644644 -0.003489 0.0
4.095723 1.162648 0.004847 0.0
4.112537 0.544177 0.000593 0.0
2.227823 0.699092 -0.000561 0.0
1.161405 0.143292 0.001446 0.0
2.300170 0.086546 -0.003047 0.0
2.008938 0.303153 0.002530 0.0
2.092669 0.184042 -0.000794 0.0
4.394659 0.119025 -0.001437 0.0
3.160654 1.415173 -0.001720 0.0
1.247771 0.818565 -0.002368 0.0
0.070598 0.502121 -0.001522 0.0
1.469158 1.106045 0.001313 0.0
0.231952 1.454577 0.001946 0.0
3.298443 0.226795 0.005501 0.0
4.475387 0.496129 -0.002888 0.0
4.424244 0.944934 -0.003223 0.0
3.424475 1.492333 0.000200 0.0
1.296237 1.224827 -0.003133 0.0
1.992452 0.929140 -0.005091 0.0
2.446915 0.419997 0.003705 0.0
0.965257 1.059126 0.004038 0.0
2.634052 0.624770 0.001778 0.0
1.075739 0.329366 0.000011 0.0
0.538972 1.407042 0.004529 0.0
3.358524 0.957715 0.001783 0.0
1.043131 0.315405 0.000243 0.0
1.091910 1.265841 -0.005995 0.0
2.268291 1.232955 -0.001976 0.0
3.831041 0.034177 -0.000233 0.0
3.458797 1.226656 -0.000185 0.0
0.386214 1.516082 -0.001656 0.0
2.657008 1.415459 -0.000064 0.0
2.233340 0.866833 0.002596 0.0
1.431861 1.090019 0.001684 0.0
2.604629 1.288851 0.000401 0.0
3.489152 0.449949 -0.004688 0.0
3.248201 0.550104 0.000123 0.0
3.275581 1.122422 0.001474 0.0
1.412681 0.952501 0.000789 0.0
2.614896 1.208702 0.001907 0.0
1.630951 0.201542 -0.004661 0.0
0.321986 1.087063 0.000277 0.0
0.453756 0.945275 -0.004321 0.0
3.736963 0.108307 0.004208 0.0
2.422034 0.921749 -0.003311 0.0
2.543977 0.346539 0.003811 0.0
3.201211 0.832673 0.000935 0.0
3.182021 0.848157 0.001389 0.0
1.824805 0.837390 -0.004940 0.0
0.592989 0.664728 -0.000803 0.0
2.468662 0.369339 -0.001325 0.0
2.399215 0.688024 0.000270 0.0
0.188816 1.465465 -0.001446 0.0
1.002241 0.457812 -0.000372 0.0
1.938771 0.114565 0.001930 0.0
2.205966 0.935213 -0.002375 0.0
1.052096 0.888994 -0.005544 0.0
4.098587 0.967618 0.000158 0.0
1.825547 0.418623 0.001867 0.0
1.915545 0.591163 0.000111 0.0
4.096459 0.238770 -0.001788 0.0
3.730010 0.087240 0.000333 0.0
1.977894 0.853794 0.000899 0.0
3.842929 0.196119 0.000230 0.0
1.890111 0.416707 -0.003043 0.0
4.208997 0.529516 -0.000610 0.0
0.425411 0.405106 0.000744 0.0
2.528167 0.925299 -0.002124 0.0
4.197276 0.589934 -0.002585 0.0
0.542449 0.358850 -0.000533 0.0
2.397883 0.919574 0.001578 0.0
0.623370 0.489372 0.002770 0.0
3.976421 0.946360 -0.000987 0.0
0.314092 1.338301 0.000089 0.0
4.110418 0.333975 -0.000272 0.0
2.878103 0.355204 0.003839 0.0
1.491642 0.761755 0.003017 0.0
4.446232 1.256330 -0.000369 0.0
0.561840 0.051148 0.001640 0.0
4.473830 0.344842 -0.000425 0.0
2.548150 0.511901 -0.001455 0.0
2.101812 0.445182 0.002110 0.0
3.913098 0.281112 -0.003228 0.0
2.721779 0.329215 0.002164 0.0
2.765759 1.431422 -0.001799 0.0
0.563905 0.836973 0.002573 0.0
1.632039 0.969588 -0.002630 0.0
2.629093 1.338449 -0.007240 0.0
0.763297 0.512585 0.001208 0.0
2.471776 1.172832 -0.002098 0.0
3.964737 1.055726 0.001101 0.0
3.271013 1.472056 -0.001941 0.0
4.138765 1.296618 -0.003587 0.0
3.236009 0.317317 -0.000686 0.0
4.483426 0.225206 -0.003912 0.0
2.797591 0.341101 0.001917 0.0
0.216019 0.409552 0.002298 0.0
4.257487 0.851287 -0.001174 0.0
1.681859 0.250977 0.005634 0.0
1.555016 0.238381 0.000413 0.0
2.899421 0.765429 0.001182 0.0
3.297949 1.505545 -0.002391 0.0
2.940540 0.900112 -0.000134 0.0
1.838573 0.550108 -0.004567 0.0
2.610930 0.211886 0.002987 0.0
2.198558 0.486356 -0.001054 0.0
2.168791 0.670504 -0.001325 0.0
3.359197 1.377643 -0.001949 0.0
3.166104 0.184994 -0.000280 0.0
4.031892 1.135043 -0.001548 0.0
3.025446 0.244554 -0.001022 0.0
0.723777 0.412483 -0.003586 0.0
3.090483 1.516956 0.001982 0.0
0.479335 0.442284 0.000154 0.0
3.944341 0.198669 -0.001332 0.0
3.229284 0.844358 0.003795 0.0
0.887265 0.279266 -0.002114 0.0
2.446303 0.557047 -0.001573 0.0
1.139310 0.482224 0.000975 0.0
1.747327 0.577753 0.003378 0.0
1.742132 1.438532 -0.002941 0.0
0.937765 0.710958 -0.000998 0.0
2.840629 0.094646 -0.000184 0.0
3.945771 0.768960 -0.006571 0.0
2.255683 0.551186 -0.001407 0.0
3.616648 0.771445 -0.001367 0.0
2.969276 1.196683 0.000495 0.0
4.468550 0.474368 0.003728 0.0
0.324208 1.001279 -0.001464 0.0
1.506581 0.293072 -0.002248 0.0
2.907427 0.363207 0.000121 0.0
1.056613 0.795689 0.004652 0.0
3.679825 0.021303 0.001390 0.0
3.418120 1.163117 -0.000883 0.0
0.774595 1.303421 0.000037 0.0
2.490137 0.080071 -0.000536 0.0
0.888623 0.643459 -0.001017 0.0
0.002921 0.423707 -0.000463 0.0
2.479658 0.729121 -0.000899 0.0
0.183890 0.478689 -0.001611 0.0
4.000928 1.290931 -0.003420 0.0
2.034610 1.018970 0.001680 0.0
3.863567 0.579169 -0.001333 0.0
2.220525 0.197949 -0.000801 0.0
3.783239 0.633548 -0.002310 0.0
3.983247 1.029865 0.000998 0.0
1.858104 1.272693 0.000849 0.0
2.816340 1.021840 -0.000632 0.0
2.270366 0.377780 0.003152 0.0
2.151491 0.692287 -0.000541 0.0
2.366304 0.616068 -0.000464 0.0
1.836725 0.280437 0.001771 0.0
2.888941 0.578511 -0.000398 0.0
0.006640 0.551533 0.001132 0.0
0.011708 0.341260 0.002919 0.0
2.560696 0.137956 -0.000934 0.0
1.338178 1.090087 0.000640 0.0
3.473843 1.226061 0.004648 0.0
3.823021 1.437440 0.002984 0.0
0.416988 0.376402 0.001703 0.0
2.235444 0.847838 0.000079 0.0
3.936324 0.490725 0.001761 0.0
1.044187 0.806691 -0.000367 0.0
1.232996 1.514363 0.001320 0.0
4.012510 0.756260 0.002195 0.0
3.913641 0.949774 -0.005071 0.0
0.530041 0.354863 0.003553 0.0
1.526883 0.030934 -0.004356 0.0
3.305519 0.103707 0.000709 0.0
0.383110 1.459793 0.001731 0.0
4.262267 0.350428 0.000441 0.0
1.732919 1.283669 -0.001549 0.0
3.716097 1.471448 -0.003764 0.0
2.621994 0.637495 -0.003348 0.0
3.118084 0.295092 0.000303 0.0
2.563867 1.365938 0.004133 0.0
1.070128 0.911679 0.000909 0.0
0.066037 0.724384 0.001290 0.0
2.418741 0.379643 -0.002189 0.0
3.802088 1.035474 0.001903 0.0
3.983091 0.304048 -0.004280 0.0
0.178692 1.342581 -0.001283 0.0
1.289562 1.092673 -0.000036 0.0
0.072666 0.328670 0.002411 0.0
1.707741 0.035111 -0.000767 0.0
2.484284 0.043063 -0.003305 0.0
0.523991 0.767833 -0.000585 0.0
0.053486 1.233460 -0.002229 0.0
3.503020 1.001226 -0.001514 0.0
0.766169 0.132461 -0.000722 0.0
2.905532 1.224430 0.001701 0.0
2.877232 0.097477 0.000076 0.0
0.882774 1.198931 0.002149 0.0
4.428107 1.085495 -0.003887 0.0
0.324333 0.185742 -0.000001 0.0
2.782794 0.528842 -0.004446 0.0
1.534646 1.018103 0.001194 0.0
3.537175 0.557424 -0.000930 0.0
0.616987 1.411183 0.001844 0.0
0.535308 0.437215 0.000817 0.0
3.697266 0.418732 0.002969 0.0
0.039784 0.902518 -0.000349 0.0
1.975627 0.688302 -0.003892 0.0
2.312213 0.614072 0.002009 0.0
2.755718 0.685453 -0.002146 0.0
0.106651 0.516094 0.004803 0.0
3.944988 -0.002195 -0.001303 0.0
2.532766 0.878630 -0.001706 0.0
2.373634 1.471048 -0.004426 0.0
1.320458 1.032436 0.004687 0.0
0.741253 0.633625 -0.003533 0.0
2.718108 0.884041 -0.002012 0.0
0.650210 0.097174 0.000369 0.0
4.307848 0.901100 -0.001898 0.0
2.937491 1.267841 -0.000019 0.0
1.852056 0.858287 -0.000179 0.0
0.091201 1.291307 0.001184 0.0
3.988221 0.759955 -0.001257 0.0
2.091919 0.668197 0.001180 0.0
0.823731 0.378933 -0.003584 0.0
2.459121 0.533637 0.004059 0.0
0.278583 1.425734 -0.002194 0.0
4.017821 1.529681 0.002682 0.0
0.524664 0.001441 -0.000725 0.0
1.131675 0.744751 0.001690 0.0
2.790993 0.083600 0.000780 0.0
2.902720 1.456508 -0.004192 0.0
0.602301 0.599279 0.003096 0.0
4.462562 0.036322 0.004767 0.0
0.752158 1.056593 0.000349 0.0
3.594887 1.195678 -0.000178 0.0
3.780350 1.181578 0.001807 0.0
4.345294 0.703007 0.004297 0.0
3.117929 1.235172 0.004727 0.0
1.938520 0.237727 -0.004659 0.0
1.157790 0.884208 -0.003259 0.0
0.643576 0.909244 -0.003778 0.0
0.327646 0.656846 -0.005240 0.0
1.340611 1.486465 0.004614 0.0
4.452807 0.288721 0.000250 0.0
0.037559 0.594715 -0.000234 0.0
0.289864 0.752203 -0.005306 0.0
1.932794 1.141988 -0.000594 0.0
1.846429 1.357367 -0.001233 0.0
4.031761 0.641259 0.002209 0.0
2.788838 0.845915 -0.001882 0.0
4.013385 1.369055 0.002673 0.0
2.328595 0.062168 -0.002557 0.0
3.481914 0.653920 -0.000356 0.0
3.412957 1.530037 -0.000563 0.0
0.381731 0.717041 0.003787 0.0
0.585259 0.997713 -0.000597 0.0
1.136771 0.865074 -0.003442 0.0
2.637837 0.961177 0.001348 0.0
2.741760 1.492734 -0.002488 0.0
4.460789 1.495283 0.003541 0.0
3.962265 0.014072 0.001227 0.0
4.108378 0.200288 -0.000807 0.0
0.646156 0.147730 0.004326 0.0
4.310788 0.983675 0.002559 0.0
1.050058 1.179488 -0.001329 0.0
4.076174 0.806658 -0.000743 0.0
2.650944 0.178797 0.002440 0.0
3.183765 0.912513 0.000921 0.0
2.412451 0.789340 0.000222 0.0
1.760017 1.492211 -0.003112 0.0
0.499435 1.462718 0.000802 0.0
0.338923 0.275291 0.001636 0.0
0.211089 0.987540 0.003791 0.0
4.459523 1.301229 0.002975 0.0
0.892155 0.941609 -0.001657 0.0
3.526488 0.320364 -0.001982 0.0
2.143006 0.548555 0.000579 0.0
3.787964 0.590395 0.002903 0.0
3.368421 0.103778 0.000414 0.0
4.334173 1.371048 0.000562 0.0
1.242773 0.898180 -0.000052 0.0
3.172709 0.232783 -0.000903 0.0
0.099617 1.056279 -0.000710 0.0
2.885458 0.953514 -0.003913 0.0
2.568842 0.820082 0.001590 0.0
0.695780 0.630734 0.001067 0.0
1.488295 0.506652 -0.000366 0.0
3.623375 1.268993 0.002261 0.0
1.067351 0.023599 -0.002347 0.0
2.289237 0.993919 -0.000265 0.0
0.569987 1.029577 0.000952 0.0
2.081124 0.181369 0.001304 0.0
1.327162 1.260787 0.001471 0.0
0.705164 1.205870 -0.000851 0.0
1.508480 0.134734 0.001111 0.0
0.502493 0.761953 0.000955 0.0
1.300467 0.416770 0.000309 0.0
0.998369 0.870045 0.003176 0.0
0.091641 0.763850 0.000384 0.0
3.561462 0.488095 0.001941 0.0
2.268084 1.137592 -0.003344 0.0
1.095304 0.840709 0.001134 0.0
0.914105 0.723990 -0.001910 0.0
0.465888 1.325029 0.000279 0.0
2.791680 0.389474 0.001479 0.0
1.418431 0.069589 0.003719 0.0
4.521709 0.773244 0.003000 0.0
0.384062 0.692421 -0.000221 0.0
2.382155 0.301012 -0.003690 0.0
2.242851 1.442654 -0.002341 0.0
0.748470 0.415939 0.003299 0.0
2.980751 0.114241 -0.001812 0.0
3.219427 1.513258 -0.000524 0.0
0.374775 0.353162 0.001486 0.0
4.004694 1.270184 -0.004036 0.0
1.387719 1.408979 -0.000237 0.0
1.022381 1.521724 -0.001979 0.0
4.465611 1.138573 0.003249 0.0
1.035506 1.448803 0.000856 0.0
1.129097 0.757328 -0.002322 0.0
1.159196 0.352520 -0.004028 0.0
2.500223 0.632323 0.000835 0.0
1.140836 0.854237 -0.004907 0.0
2.253670 0.137346 0.001243 0.0
3.067921 0.256650 -0.002210 0.0
2.019592 0.398042 -0.002463 0.0
0.446206 0.103854 -0.002568 0.0
4.223526 0.110586 -0.001891 0.0
2.684770 0.199382 0.005630 0.0
0.806738 1.493153 0.002884 0.0
4.487193 0.161327 0.000268 0.0
3.322911 1.269809 -0.000473 0.0
1.278078 0.012712 -0.000035 0.0
2.518640 1.270673 -0.000909 0.0
4.400632 1.025177 0.002064 0.0
4.195289 0.489470 0.000838 0.0
4.148814 1.118036 0.001056 0.0
3.676309 0.398267 0.000717 0.0
1.527336 0.691991 -0.000377 0.0
2.483752 0.865363 -0.001633 0.0
4.349299 0.086049 -0.003249 0.0
4.478376 1.061351 0.003290 0.0
4.207969 0.684225 0.002138 0.0
1.837200 0.826003 0.003198 0.0
2.554710 0.272743 0.000828 0.0
4.506141 1.108196 -0.002741 0.0
2.539828 0.992947 -0.001077 0.0
0.430424 1.229652 -0.003760 0.0
3.635279 1.508907 0.000955 0.0
3.350404 0.904530 -0.001162 0.0
1.180918 1.479543 0.004678 0.0
4.327732 0.546078 -0.001697 0.0
2.626000 0.862096 0.002414 0.0
3.256967 1.041293 0.003847 0.0
3.457584 0.191884 -0.003662 0.0
4.435072 0.000568 -0.000229 0.0
2.919979 0.579811 -0.001647 0.0
0.204523 0.096786 0.002295 0.0
3.249845 0.881974 0.001231 0.0
1.802528 0.958279 -0.001066 0.0
4.204657 0.674776 0.000260 0.0
2.680708 0.507218 -0.000673 0.0
1.214554 1.099981 0.001137 0.0
2.338200 0.045116 0.001105 0.0
2.194742 0.328335 -0.001016 0.0
2.051852 0.532211 -0.000457 0.0
0.125367 1.371877 -0.000479 0.0
3.568162 0.864707 0.002824 0.0
1.649191 0.666736 0.007795 0.0
1.542243 1.357722 0.000930 0.0
3.978143 0.125523 0.000142 0.0
4.363498 0.912536 -0.003716 0.0
1.737094 0.571432 -0.000924 0.0
1.960159 0.584441 -0.000610 0.0
3.400836 0.970544 -0.000082 0.0
3.468224 0.077441 0.001178 0.0
4.471521 0.777939 0.003371 0.0
3.006056 1.093240 0.002117 0.0
2.877168 0.049126 0.005406 0.0
3.188479 0.195347 -0.002272 0.0
4.216180 0.458820 -0.000905 0.0
3.164006 0.002133 -0.005173 0.0
4.519170 1.221701 -0.001911 0.0
3.904099 0.841179 0.002069 0.0
3.913264 0.310921 -0.000247 0.0
4.143219 0.699265 0.000799 0.0
3.136705 1.146921 -0.002061 0.0
1.340815 1.512889 0.000458 0.0
2.789600 1.511357 -0.002088 0.0
1.936199 0.322770 0.001096 0.0
0.866830 1.273642 -0.000141 0.0
1.803278 0.580527 0.002568 0.0
3.996799 1.075101 0.000778 0.0
2.881662 0.716471 -0.001916 0.0
1.340331 0.364515 -0.001479 0.0
2.528389 0.837571 0.003921 0.0
2.863560 0.333415 0.002182 0.0
3.220815 0.741868 0.001105 0.0
3.783292 0.225946 -0.000491 0.0
0.823170 1.206581 0.000010 0.0
0.462921 0.716106 -0.001232 0.0
2.153792 1.523259 0.002145 0.0
4.273635 0.231101 0.001031 0.0
0.862892 1.403182 0.000921 0.0
1.405888 0.416591 0.000899 0.0
3.704268 0.338697 -0.002353 0.0
2.843895 1.482018 0.001294 0.0
1.266573 1.035873 0.000421 0.0
3.311661 0.123741 0.002071 0.0
3.343082 0.130199 -0.004509 0.0
4.337839 1.422804 0.000407 0.0
3.555959 1.433702 0.000535 0.0
3.694900 1.090496 -0.001114 0.0
2.099871 1.317576 -0.001777 0.0
2.378157 1.185420 -0.000400 0.0
2.061640 0.459306 0.000659 0.0
4.012208 0.366094 0.000102 0.0
0.839577 1.527446 -0.002257 0.0
2.398058 0.285884 -0.003606 0.0
1.690572 0.362779 -0.001643 0.0
4.118369 0.934609 -0.004356 0.0
4.474687 0.498195 0.000258 0.0
1.482581 1.008907 0.002295 0.0
2.958546 0.895402 0.002343 0.0
3.553751 0.216355 -0.002690 0.0
0.417481 0.277379 0.006037 0.0
1.790892 1.163290 -0.000386 0.0
0.231812 1.357068 -0.002019 0.0
2.548493 0.888216 0.001964 0.0
0.254308 0.956163 -0.002840 0.0
3.526289 0.448754 0.002600 0.0
0.990774 0.015915 0.000687 0.0
0.218414 0.490305 -0.003039 0.0
2.375537 0.227427 0.002722 0.0
3.612611 0.837870 0.003346 0.0
0.320380 1.200130 -0.004134 0.0
2.943812 0.871649 -0.000157 0.0
0.572827 0.903972 0.003518 0.0
3.346512 1.055089 -0.007423 0.0
2.500848 1.409834 -0.000331 0.0
1.934672 1.033516 -0.000873 0.0
2.917291 0.062447 -0.001064 0.0
0.420493 0.155901 -0.000211 0.0
1.427164 1.200957 0.001167 0.0
0.812587 0.696769 0.003614 0.0
0.226102 0.543546 0.001293 0.0
1.904844 1.325405 -0.002938 0.0
1.535781 1.044975 -0.001090 0.0
2.541863 0.264248 0.000666 0.0
1.431382 1.191939 0.003399 0.0
2.154192 0.367038 0.000064 0.0
1.273776 0.767959 0.001486 0.0
3.496227 1.469723 0.001153 0.0
1.129482 1.031838 0.001386 0.0
2.280093 1.268840 -0.000113 0.0
1.093281 1.333960 0.000690 0.0
1.470272 0.490793 -0.001270 0.0
1.788356 1.196749 0.000496 0.0
0.537295 1.393199 -0.002775 0.0
0.320620 0.476571 0.003887 0.0
2.262345 0.015243 0.005390 0.0
0.218738 0.426880 0.005014 0.0
2.848312 0.995445 -0.001969 0.0
3.801398 0.679321 0.001401 0.0
0.650366 1.290378 0.003730 0.0
3.306135 1.464369 0.001787 0.0
0.697054 0.253062 0.002575 0.0
0.446441 1.157901 0.001061 0.0
3.391470 0.603945 -0.000501 0.0
4.094619 1.018804 -0.004932 0.0
4.274356 1.124927 -0.003046 0.0
1.541296 0.876348 0.001109 0.0
0.878620 1.497593 -0.003772 0.0
4.138782 1.129015 -0.000551 0.0
0.988887 1.290728 0.001532 0.0
3.667744 0.120568 -0.001767 0.0
3.894019 1.254201 -0.002072 0.0
1.182226 0.578772 -0.003403 0.0
2.070172 0.908730 0.001759 0.0
2.673876 0.781789 0.002348 0.0
1.829692 0.950520 0.001559 0.0
3.211025 1.480499 0.001428 0.0
3.198271 0.929417 -0.000395 0.0
3.294901 1.210777 0.000564 0.0
0.349777 1.169132 0.000764 0.0
3.469852 0.801407 0.000407 0.0
0.793178 0.394969 0.003336 0.0
3.748718 0.214279 0.000652 0.0
0.044267 0.873638 -0.001594 0.0
3.298454 0.289547 0.001901 0.0
1.399365 0.078180 0.001638 0.0
1.735022 1.396844 0.000932 0.0
2.594305 0.888158 0.006214 0.0
2.891822 1.492856 0.001235 0.0
4.081468 1.492795 0.000195 0.0
2.551006 0.532374 0.000731 0.0
2.807528 0.592558 0.005988 0.0
4.278562 0.461788 0.003030 0.0
2.775379 1.265794 0.000488 0.0
2.975109 1.247899 -0.000743 0.0
2.131475 0.712631 0.000226 0.0
2.050841 0.969393 -0.003102 0.0
1.938082 1.324414 0.002383 0.0
3.311907 0.170501 0.002464 0.0
0.246442 0.383304 0.000172 0.0
0.989594 0.301622 0.001030 0.0
2.667174 0.253103 -0.001228 0.0
3.534710 0.243931 -0.001741 0.0
1.309115 0.182869 0.003131 0.0
1.811149 1.334047 -0.003952 0.0
2.386387 1.402262 -0.000539 0.0
1.134740 0.718451 0.001026 0.0
4.211719 0.654710 0.000287 0.0
2.028683 1.473788 0.001833 0.0
1.640298 0.709711 -0.000853 0.0
2.433196 0.267219 0.000547 0.0
4.324334 1.105957 0.002219 0.0
1.609846 1.162626 0.001114 0.0
1.457327 1.387918 0.001014 0.0
3.915842 1.528547 0.002028 0.0
3.698143 0.861148 0.000979 0.0
0.714172 0.062611 0.001755 0.0
3.040266 0.644538 0.003135 0.0
3.316657 0.622800 0.001573 0.0
1.783387 1.417827 -0.002863 0.0
0.661086 0.275717 0.000517 0.0
3.447966 1.027323 0.003401 0.0
2.241798 1.294526 0.005028 0.0
3.201361 0.915841 -0.002663 0.0
0.929879 0.766750 -0.001722 0.0
1.289918 0.091949 0.001782 0.0
0.932976 0.961254 0.000397 0.0
4.511302 0.032806 -0.000611 0.0
4.523245 0.615019 0.002946 0.0
1.104538 0.497207 0.002956 0.0
3.584835 1.395151 0.003296 0.0
0.766144 0.873026 -0.003910 0.0
0.862729 0.483661 -0.003011 0.0
4.398569 0.441996 0.001921 0.0
2.042979 1.488961 0.004275 0.0
0.475217 0.247229 -0.000921 0.0
0.541568 1.396222 0.004368 0.0
3.562141 1.275998 -0.002084 0.0
