0.855109 0.006388 -0.002448 1.0
3.633899 0.001312 0.002197 1.0
2.467847 0.000893 0.000120 1.0
0.065846 -0.001456 0.000150 1.0
0.099749 -0.000871 -0.000756 1.0
2.847028 0.002416 -0.004174 1.0
3.544143 0.006696 0.004045 1.0
2.388246 0.004200 -0.004361 1.0
2.809388 0.001522 0.000724 1.0
2.642847 -0.000109 -0.000333 1.0
0.027302 -0.001963 0.002258 1.0
0.941523 -0.003207 0.002443 1.0
2.054278 -0.000325 -0.000349 1.0
2.477696 0.003232 0.002229 1.0
0.951736 -0.003852 0.000275 1.0
2.916685 -0.004740 0.002808 1.0
3.754578 -0.001134 -0.000665 1.0
1.929890 -0.003350 -0.002123 1.0
4.679288 0.002464 -0.001760 1.0
1.719679 0.000841 0.001593 1.0
1.959263 -0.000404 0.001627 1.0
4.427927 -0.002234 -0.001827 1.0
2.350191 0.001099 0.003780 1.0
0.832121 0.002004 0.002314 1.0
2.058011 0.005510 -0.001076 1.0
2.027883 -0.003600 -0.000900 1.0
0.775954 0.000560 -0.000883 1.0
1.953214 0.000547 -0.002581 1.0
3.924408 0.002551 -0.002465 1.0
2.109411 0.000368 -0.001562 1.0
3.922453 0.003711 0.002462 1.0
4.351302 0.001685 -0.001001 1.0
1.509415 -0.002191 -0.000494 1.0
4.083251 -0.001348 -0.002332 1.0
1.206384 -0.001848 -0.003224 1.0
3.311912 0.003581 0.000451 1.0
4.358921 -0.001395 -0.000290 1.0
3.866559 -0.000442 -0.002021 1.0
1.588531 -0.002176 0.003105 1.0
2.168853 -0.002202 0.001938 1.0
0.221713 0.001884 -0.000133 1.0
3.922416 0.000374 -0.002614 1.0
2.591936 0.001133 -0.001091 1.0
4.696241 -0.002338 -0.000260 1.0
3.175249 -0.001883 0.000244 1.0
2.664249 -0.003475 -0.003883 1.0
4.038957 0.001832 -0.002351 1.0
3.339249 -0.001191 0.000940 1.0
4.242310 0.000845 -0.003488 1.0
4.789116 0.000574 -0.002647 1.0
1.783587 -0.000141 0.000500 1.0
4.426921 0.004330 -0.000182 1.0
3.518140 0.003499 -0.000411 1.0
1.928588 -0.001317 0.002726 1.0
3.389791 -0.001659 0.000477 1.0
4.818583 -0.001449 -0.002298 1.0
0.575312 0.000472 -0.001550 1.0
3.590070 0.002818 0.002751 1.0
0.200946 -0.002891 -0.002138 1.0
1.650828 -0.000350 -0.003233 1.0
3.549275 -0.000469 0.001368 1.0
3.087135 0.002632 0.003312 1.0
3.205654 0.000505 -0.003513 1.0
4.681085 -0.001286 0.001591 1.0
2.806957 0.001401 -0.000560 1.0
0.470525 0.001696 -0.000059 1.0
4.841193 0.002939 0.000471 1.0
2.793017 -0.001265 -0.001880 1.0
4.780388 -0.000123 -0.006403 1.0
0.681803 0.003397 0.005503 1.0
0.822560 0.001133 -0.001762 1.0
3.476538 -0.000002 -0.000508 1.0
0.765208 0.001091 -0.002184 1.0
1.069636 -0.001381 0.000819 1.0
4.013431 0.001046 -0.000977 1.0
3.007560 -0.004137 -0.000518 1.0
2.758258 -0.001347 0.000670 1.0
2.229185 0.001132 -0.000448 1.0
4.052601 -0.002414 -0.003871 1.0
1.638737 0.002063 -0.000186 1.0
2.923415 0.001987 0.005852 1.0
0.895793 1.580344 0.003606 0.0
0.377131 1.668499 0.002144 0.0
4.561987 2.185019 -0.003796 0.0
2.427796 1.891671 0.003589 0.0
1.695491 1.021299 -0.001435 0.0
2.756544 0.821227 0.001440 0.0
3.992647 2.161075 -0.003669 0.0
1.996614 0.835146 0.000711 0.0
3.484904 0.894248 -0.003289 0.0
0.170567 1.516623 -0.000908 0.0
0.278105 1.889614 0.000032 0.0
4.827151 0.021578 0.002731 0.0
3.145300 1.898809 -0.001594 0.0
1.191329 1.217437 -0.000523 0.0
4.739789 0.572504 0.001805 0.0
2.217236 0.795041 -0.002767 0.0
1.154009 0.325546 -0.000152 0.0
3.830951 1.143162 -0.003814 0.0
4.324443 0.868164 -0.001066 0.0
2.409505 2.171527 -0.002845 0.0
1.028232 1.116457 -0.000724 0.0
4.691409 0.010464 0.002527 0.0
2.313916 1.662294 -0.004300 0.0
2.258843 0.400125 -0.002047 0.0
1.417325 1.279218 0.005959 0.0
4.526868 1.213481 0.002852 0.0
1.022383 0.072886 -0.000326 0.0
4.502820 0.458300 -0.001330 0.0
4.226491 1.384631 0.003389 0.0
3.796002 0.008972 0.001175 0.0
0.088330 1.296602 0.001621 0.0
0.922559 1.636587 0.003154 0.0
0.755331 1.113653 -0.001404 0.0
3.233778 1.703645 -0.003311 0.0
3.757852 1.897949 -0.000899 0.0
2.205547 0.525373 0.006597 0.0
4.092305 0.217357 -0.001807 0.0
3.524846 1.885450 0.000950 0.0
1.086679 0.355926 -0.000976 0.0
0.144044 1.452138 -0.001442 0.0
0.173605 0.449092 0.000784 0.0
0.285084 2.231388 -0.002449 0.0
3.452132 0.479264 0.000921 0.0
0.959390 1.668301 0.003319 0.0
0.970296 1.414062 0.004338 0.0
3.691130 1.205109 0.001580 0.0
2.598107 1.580554 0.002800 0.0
4.410346 1.644606 -0.000182 0.0
3.599043 0.920845 -0.006910 0.0
3.439046 0.133882 0.001227 0.0
2.271197 1.775365 -0.001490 0.0
3.096345 0.143141 0.000525 0.0
4.098494 1.521570 0.002904 0.0
1.838997 0.373348 0.000173 0.0
2.115577 1.021667 0.002643 0.0
2.998074 1.500851 -0.000763 0.0
1.793997 0.003118 -0.001925 0.0
1.776056 1.202190 0.000908 0.0
0.744905 0.022877 0.002504 0.0
0.197094 1.343445 -0.001852 0.0
3.150702 0.629732 0.000441 0.0
2.214263 0.510894 -0.000422 0.0
1.101071 1.446925 -0.003232 0.0
0.723016 0.955570 -0.000538 0.0
1.789840 1.402978 -0.001737 0.0
1.424824 1.866946 0.002288 0.0
1.128697 1.499997 0.001721 0.0
4.154540 0.234702 -0.002211 0.0
1.699555 1.514475 -0.001895 0.0
1.439898 1.670074 0.006205 0.0
0.059969 0.069552 -0.002293 0.0
1.919956 1.123026 -0.001750 0.0
4.663944 1.423306 -0.002393 0.0
4.144463 1.267700 0.001030 0.0
3.113468 2.187588 0.004454 0.0
4.301561 1.644072 0.002666 0.0
4.437685 0.680416 -0.002352 0.0
4.665427 0.602387 -0.002592 0.0
2.723347 0.994739 -0.000634 0.0
2.794063 1.350116 0.005359 0.0
4.100487 1.884726 0.003911 0.0
2.525197 1.612170 -0.002389 0.0
4.033051 0.571571 -0.001782 0.0
0.099392 2.266893 -0.002130 0.0
1.463957 1.669785 -0.004125 0.0
1.986273 0.604026 -0.002637 0.0
3.838660 1.666455 0.000425 0.0
2.778793 1.216817 0.001572 0.0
4.429770 1.574065 -0.000890 0.0
2.410834 0.158686 0.003125 0.0
0.564104 1.107434 -0.003307 0.0
4.450603 1.183562 -0.002899 0.0
1.271546 1.765700 -0.001128 0.0
3.275085 0.711937 -0.000617 0.0
0.554839 0.370230 0.002022 0.0
2.225276 0.399624 -0.002123 0.0
0.417920 1.844989 0.002923 0.0
2.173248 0.144865 0.000292 0.0
3.509987 1.615018 0.000360 0.0
0.717779 1.199268 0.001414 0.0
2.118362 0.740115 0.003150 0.0
1.109102 2.288000 0.000724 0.0
0.141605 0.520263 0.001859 0.0
2.499793 2.168396 -0.000504 0.0
1.542335 1.156633 0.001596 0.0
4.458950 0.741189 0.001317 0.0
1.802965 0.390829 0.001040 0.0
0.614280 0.341646 -0.000831 0.0
4.123869 0.892713 0.001813 0.0
0.787926 0.990647 0.003337 0.0
1.440360 1.111966 0.002041 0.0
0.972644 1.398737 0.001587 0.0
4.048725 1.649585 0.000806 0.0
2.031968 0.306567 0.001114 0.0
0.604031 1.659348 0.002066 0.0
2.013142 0.519225 -0.000336 0.0
2.791399 1.908117 -0.003480 0.0
1.878103 0.269353 -0.004246 0.0
0.401769 0.317206 -0.000277 0.0
1.608495 2.127494 -0.001717 0.0
3.067493 0.721201 -0.001727 0.0
2.955659 1.318138 0.002211 0.0
4.507399 0.953137 -0.000501 0.0
2.097893 2.307785 0.003494 0.0
1.762712 2.164714 0.004760 0.0
3.880756 0.896127 -0.000180 0.0
2.423982 1.426711 0.000371 0.0
1.541228 0.476851 0.000614 0.0
0.720398 0.845817 0.002459 0.0
2.158966 0.234912 0.002523 0.0
0.515984 0.818461 -0.002552 0.0
3.019602 1.455375 0.003319 0.0
2.501045 0.539437 0.001577 0.0
0.949439 1.020756 -0.002040 0.0
1.527270 1.066361 0.003285 0.0
1.853149 1.552833 0.001936 0.0
2.793263 1.389293 -0.001897 0.0
0.665772 0.861992 0.002228 0.0
0.750920 0.496574 0.001860 0.0
2.088149 1.096328 -0.002702 0.0
2.697886 0.787357 -0.002263 0.0
2.149738 1.468220 -0.001818 0.0
1.020197 0.196588 -0.004150 0.0
3.136279 1.604878 0.001374 0.0
0.224163 1.703744 -0.000474 0.0
0.473842 0.963979 0.001603 0.0
2.028524 1.146481 0.000173 0.0
1.365670 2.314944 -0.000950 0.0
1.994788 0.935935 0.000992 0.0
3.877126 0.967429 -0.000442 0.0
4.178521 1.819572 -0.003076 0.0
2.327157 0.881197 -0.001611 0.0
3.201525 1.925130 0.005105 0.0
3.854982 1.299279 -0.005679 0.0
2.365189 0.601710 -0.002940 0.0
1.965627 0.485883 -0.002415 0.0
3.030485 2.138451 0.006668 0.0
1.603136 2.319300 -0.000144 0.0
3.773936 1.048359 -0.000786 0.0
3.154380 0.773688 -0.002668 0.0
3.857669 1.181445 -0.001202 0.0
3.269464 0.370947 0.002656 0.0
3.552682 0.008579 0.003843 0.0
1.399331 1.693414 0.000257 0.0
0.394654 2.186972 -0.001737 0.0
1.823096 1.114297 0.004259 0.0
1.863544 0.045565 -0.000212 0.0
0.805340 1.215781 -0.001745 0.0
3.385490 1.348713 -0.001731 0.0
2.687363 2.008331 0.003194 0.0
2.011973 0.782885 0.001252 0.0
2.053797 0.864006 0.000836 0.0
2.583381 0.676058 -0.000123 0.0
2.791158 2.037120 -0.003207 0.0
1.929599 1.967554 0.003455 0.0
0.483005 1.227349 0.001983 0.0
3.516849 2.271888 0.001072 0.0
1.338943 0.592038 -0.000926 0.0
3.197765 2.211684 0.000355 0.0
2.484190 0.296654 0.001091 0.0
0.570394 1.165076 -0.001371 0.0
0.926676 0.675838 0.001422 0.0
4.830685 1.504768 0.004220 0.0
1.990867 2.198577 -0.004699 0.0
0.085319 0.143815 0.000636 0.0
2.528339 0.773185 -0.001599 0.0
3.053771 1.718428 0.001089 0.0
2.704856 1.779253 0.001304 0.0
1.288200 0.139228 0.004231 0.0
2.220344 1.988512 0.001018 0.0
4.728985 2.045057 0.001781 0.0
1.158000 2.063906 0.001896 0.0
2.155234 0.830304 -0.001008 0.0
1.594015 0.379170 0.004355 0.0
4.129905 0.695330 -0.002765 0.0
0.587299 1.638502 0.001760 0.0
0.779750 1.412456 -0.001515 0.0
0.658942 0.695912 0.000109 0.0
3.413998 1.647603 0.001884 0.0
1.453486 0.923545 0.001970 0.0
0.546241 0.659924 -0.000155 0.0
3.969488 0.407677 0.001249 0.0
1.269602 1.678992 -0.000380 0.0
1.144511 0.620736 -0.004022 0.0
1.786834 1.140977 -0.004116 0.0
3.251271 1.035914 0.001129 0.0
4.045800 0.361304 0.000997 0.0
4.103566 1.903562 -0.002409 0.0
2.002147 0.659571 0.001728 0.0
4.270977 0.077821 -0.002900 0.0
1.981487 0.130788 0.001118 0.0
2.988253 0.900503 0.000748 0.0
0.864631 0.096586 -0.001300 0.0
3.628836 0.464920 0.002303 0.0
3.372564 2.025830 0.000901 0.0
2.606361 0.933246 -0.001744 0.0
1.767630 0.343599 0.005122 0.0
1.499492 1.746203 -0.001729 0.0
3.833514 0.862739 0.001817 0.0
0.142903 0.270681 -0.002943 0.0
3.035275 0.132785 -0.001433 0.0
4.402093 0.247986 -0.000964 0.0
0.824176 1.143896 0.001135 0.0
0.958618 0.935284 -0.000070 0.0
1.982862 0.281360 0.001295 0.0
4.519970 1.028145 -0.002809 0.0
1.368183 0.639076 -0.003419 0.0
1.021053 1.866480 0.001201 0.0
2.567999 1.993217 0.008345 0.0
1.674391 1.648533 -0.001512 0.0
3.036406 1.271575 0.000629 0.0
0.088351 2.176891 -0.001071 0.0
1.350070 0.545586 0.000577 0.0
4.549171 0.213632 -0.004914 0.0
2.302888 0.349714 0.003217 0.0
0.642388 0.291778 -0.003462 0.0
0.999344 0.166831 0.000886 0.0
3.581471 1.859892 0.001551 0.0
0.899483 1.655072 0.000206 0.0
3.414274 0.591260 -0.000240 0.0
3.089580 0.145246 0.003196 0.0
0.788673 1.496499 -0.001087 0.0
4.460465 0.384489 0.000258 0.0
1.884175 2.255124 -0.002700 0.0
2.858291 0.827178 -0.001877 0.0
4.337788 1.400736 -0.001670 0.0
3.634363 1.905041 0.000318 0.0
4.137932 1.653113 0.001140 0.0
3.596707 2.050366 0.000008 0.0
0.206224 1.728543 -0.000965 0.0
2.804396 0.206010 0.003761 0.0
1.570468 1.577077 -0.005670 0.0
0.426491 0.842987 0.002344 0.0
0.146513 1.968624 -0.002771 0.0
2.138811 0.708591 0.003964 0.0
4.196001 1.754325 -0.000478 0.0
2.796291 0.937646 -0.003387 0.0
4.691105 1.172556 -0.000878 0.0
2.970185 0.894699 0.002285 0.0
2.120022 1.622908 -0.003549 0.0
1.265214 0.104174 -0.002119 0.0
0.226374 1.679572 0.004220 0.0
1.038674 0.809144 0.000268 0.0
3.750476 2.095530 0.001666 0.0
3.392937 1.145681 0.002004 0.0
4.805715 0.826706 0.003875 0.0
1.712487 0.510866 -0.001477 0.0
2.971293 0.407047 -0.000692 0.0
2.766504 0.263080 0.006136 0.0
0.977830 0.023419 0.000890 0.0
0.845221 2.220350 -0.005633 0.0
1.922996 0.109413 -0.004374 0.0
2.487963 2.043188 0.000191 0.0
3.935897 1.723037 0.004834 0.0
2.071330 1.956467 -0.000604 0.0
1.035384 0.966607 -0.002227 0.0
3.002747 0.403060 0.001628 0.0
1.441460 0.312259 0.001796 0.0
0.174223 0.612689 -0.001979 0.0
3.914963 1.342887 -0.002706 0.0
2.989845 0.609266 0.003384 0.0
2.021745 1.412641 -0.002408 0.0
2.293881 0.411721 0.000280 0.0
4.598240 1.197365 -0.002544 0.0
4.645400 0.598927 0.000132 0.0
0.431178 1.605732 -0.002295 0.0
3.267538 1.295774 0.001225 0.0
3.550044 1.985170 -0.002103 0.0
4.842168 1.475974 -0.001906 0.0
2.099892 2.237457 0.001008 0.0
3.590007 0.179451 -0.004318 0.0
4.651167 0.158143 -0.004121 0.0
0.666113 1.278140 0.000946 0.0
3.515759 0.943489 -0.003091 0.0
4.733991 1.397575 0.001481 0.0
1.829434 0.708803 0.002712 0.0
1.668754 2.024674 -0.001414 0.0
0.857200 2.120556 -0.000447 0.0
0.102688 0.734049 -0.000299 0.0
1.882881 2.125608 0.000639 0.0
0.307581 1.753486 0.001422 0.0
3.472657 1.095163 -0.004743 0.0
3.765449 0.398571 -0.002992 0.0
0.171717 1.334378 -0.000033 0.0
4.619363 0.850022 -0.000722 0.0
3.458723 2.182511 0.000756 0.0
4.135260 0.513990 -0.000692 0.0
3.808278 0.121352 0.002238 0.0
0.754943 0.103635 0.000527 0.0
0.921483 1.411773 -0.003019 0.0
4.131847 2.073511 -0.003912 0.0
0.211891 0.318094 -0.002222 0.0
1.592980 2.243573 0.001967 0.0
2.626582 2.139930 0.001128 0.0
0.018929 0.343966 -0.003291 0.0
2.072036 1.249629 -0.000884 0.0
3.653069 2.002157 -0.004720 0.0
4.687372 2.142606 -0.000113 0.0
4.738513 1.877963 -0.000590 0.0
3.963772 2.101817 -0.000065 0.0
4.234932 2.307263 -0.002663 0.0
1.199634 1.061828 -0.000090 0.0
3.222428 1.768690 0.003739 0.0
0.215373 2.100448 -0.002814 0.0
2.511902 1.734905 0.000877 0.0
3.087779 1.438091 -0.001304 0.0
0.640415 0.601368 0.006663 0.0
0.121964 0.819066 0.001898 0.0
1.685054 2.257879 0.000261 0.0
3.637595 2.168707 -0.000588 0.0
2.288122 1.146774 -0.002801 0.0
0.760385 2.080736 -0.002441 0.0
0.559621 0.760978 0.001358 0.0
3.694481 1.182041 0.002526 0.0
3.017632 0.987143 -0.000457 0.0
0.594702 0.365265 0.003133 0.0
3.642461 0.529566 -0.007393 0.0
3.467051 0.659650 -0.000151 0.0
2.591206 2.049465 -0.000749 0.0
3.045606 1.017381 0.000836 0.0
1.089443 1.169431 -0.001976 0.0
1.727598 0.459299 0.001397 0.0
1.729007 0.726725 0.000006 0.0
2.050802 0.210933 0.001809 0.0
2.180894 0.415957 0.000428 0.0
2.303648 0.732005 0.003543 0.0
4.180868 1.866426 -0.000319 0.0
0.615421 0.598411 0.001036 0.0
0.040762 2.267064 0.001098 0.0
2.556323 1.852228 0.000168 0.0
1.372506 2.013111 -0.002484 0.0
0.963584 0.136992 0.002153 0.0
4.242454 0.869154 0.001012 0.0
2.864067 1.817235 0.001633 0.0
2.322465 0.737678 -0.000616 0.0
1.146708 1.990904 -0.002017 0.0
3.277687 1.146805 -0.003853 0.0
2.218418 0.953978 -0.003187 0.0
2.584768 0.188499 -0.003071 0.0
4.586541 1.633571 0.004050 0.0
4.228271 0.285190 -0.001526 0.0
0.136601 1.315212 -0.000334 0.0
3.051705 2.026468 -0.000052 0.0
4.047446 1.311114 -0.001175 0.0
2.277603 0.526669 -0.002069 0.0
1.092471 2.312353 -0.003514 0.0
2.272001 1.692087 -0.002128 0.0
1.895776 0.774150 -0.000906 0.0
3.023868 0.171053 0.002600 0.0
4.484437 0.267782 0.000661 0.0
2.467613 2.066448 0.003519 0.0
2.080566 2.207702 0.002701 0.0
0.078097 1.290142 0.000441 0.0
2.893591 1.213047 0.000153 0.0
4.555402 0.979822 0.000715 0.0
0.933219 0.495800 0.003216 0.0
0.139285 0.171012 -0.000354 0.0
2.601614 0.466674 -0.001462 0.0
2.668980 1.063350 0.001960 0.0
2.015200 0.540307 0.003164 0.0
1.374857 1.503315 -0.000849 0.0
4.540507 2.035191 -0.000654 0.0
0.448525 0.832217 -0.001125 0.0
0.289347 0.480340 0.003326 0.0
4.552843 1.755516 -0.003012 0.0
4.850483 1.793161 0.002717 0.0
2.366428 2.036231 0.000750 0.0
4.646355 0.367487 -0.003109 0.0
2.318690 2.281929 -0.000410 0.0
2.972589 0.636308 -0.000898 0.0
0.370239 0.791413 -0.001333 0.0
1.457725 0.543696 -0.000241 0.0
4.279515 0.563245 0.002111 0.0
4.573346 2.221838 -0.001829 0.0
0.382729 1.464060 0.004199 0.0
1.586698 0.671001 0.001589 0.0
3.604161 1.205476 -0.002483 0.0
4.628597 0.511722 0.001148 0.0
1.035135 2.237988 -0.002480 0.0
2.573851 1.682724 0.002775 0.0
1.859960 0.550408 -0.003357 0.0
3.494990 0.783853 0.000765 0.0
0.111190 1.465441 0.001513 0.0
2.208525 0.653844 -0.000435 0.0
0.074761 1.554654 -0.002524 0.0
1.980492 2.133198 0.004127 0.0
2.635944 0.406683 -0.003084 0.0
1.605656 0.379750 0.001917 0.0
2.857402 1.397534 -0.003613 0.0
2.335502 1.518333 -0.000833 0.0
3.833398 2.225723 0.002486 0.0
3.311706 1.779807 -0.001761 0.0
1.925752 2.020808 -0.000795 0.0
2.818209 2.231341 0.002234 0.0
2.277157 2.029670 0.000507 0.0
0.011471 0.446495 -0.001911 0.0
0.281030 0.328537 -0.002369 0.0
2.469542 0.139025 0.001730 0.0
0.188185 0.069047 -0.001429 0.0
0.062904 1.174662 -0.000434 0.0
4.547003 1.785436 -0.000927 0.0
3.398595 1.442958 0.000809 0.0
0.950045 0.940235 0.000056 0.0
0.758896 2.183665 0.003131 0.0
0.533349 1.832153 0.002569 0.0
4.737528 0.631358 0.001203 0.0
1.539879 1.876717 -0.000375 0.0
1.551286 1.943779 0.000150 0.0
4.790720 1.028438 -0.001120 0.0
2.273214 2.049911 0.000354 0.0
0.658218 0.734529 -0.001566 0.0
3.105738 0.952978 0.001941 0.0
4.821991 0.079056 -0.001312 0.0
4.222457 1.928119 0.002218 0.0
1.319693 0.649805 -0.001143 0.0
0.598985 1.229873 -0.000141 0.0
3.427541 2.160285 0.002291 0.0
0.215501 1.502741 -0.002146 0.0
4.661376 1.180509 -0.000575 0.0
4.150558 2.301054 -0.002686 0.0
3.526459 1.155551 -0.001288 0.0
2.489375 1.957049 -0.002250 0.0
0.071426 1.980861 -0.000757 0.0
4.504045 1.860627 -0.005447 0.0
2.931899 2.198785 -0.001811 0.0
0.224719 0.333060 -0.003414 0.0
3.302105 0.305934 -0.003117 0.0
2.968127 0.990539 -0.001781 0.0
0.074053 0.692937 0.000789 0.0
3.772268 1.586007 0.000098 0.0
4.344490 0.338170 0.000833 0.0
1.258945 0.474350 -0.000913 0.0
2.377079 1.652116 0.001019 0.0
2.114876 0.316733 0.004833 0.0
4.718817 2.074021 0.002358 0.0
0.100743 1.962611 -0.000299 0.0
3.049925 0.803930 -0.000070 0.0
1.112055 0.005738 0.000362 0.0
2.817706 1.683848 0.003983 0.0
4.354551 1.073480 -0.003438 0.0
1.571892 0.664756 0.001315 0.0
2.533516 0.099107 0.004356 0.0
3.647380 0.473093 0.000553 0.0
1.365770 1.544650 -0.001021 0.0
4.358299 0.094191 -0.002115 0.0
1.523523 0.378780 0.000234 0.0
0.367747 0.788858 0.005643 0.0
0.268608 0.031723 0.002432 0.0
2.226999 1.681752 -0.001113 0.0
3.475886 1.368910 0.003076 0.0
4.674666 0.482728 0.000479 0.0
2.212812 0.128393 -0.002573 0.0
0.829426 0.500871 -0.000738 0.0
3.731685 1.282558 -0.001383 0.0
0.713048 2.048836 -0.004865 0.0
3.189394 1.249944 0.000008 0.0
3.851357 1.038569 0.004313 0.0
4.618910 2.025910 0.000443 0.0
3.856196 1.366073 0.000768 0.0
0.173261 0.148033 0.004375 0.0
3.772276 2.200064 0.001392 0.0
4.142443 1.185604 0.000653 0.0
3.527646 2.239019 0.000907 0.0
3.754534 1.062795 -0.002613 0.0
2.746703 0.375712 -0.002352 0.0
3.096136 2.296837 -0.002428 0.0
3.140706 0.092709 0.003485 0.0
2.432683 1.519274 -0.000605 0.0
4.677685 2.239881 0.001527 0.0
2.818153 2.111056 0.001067 0.0
2.708866 0.798059 0.001852 0.0
2.862242 1.037878 0.000250 0.0
3.862001 0.842010 0.000006 0.0
1.669614 1.781867 0.001039 0.0
4.099153 1.818656 -0.000887 0.0
4.560616 0.529428 0.001036 0.0
2.038252 0.558995 -0.003631 0.0
0.675407 0.133664 0.002272 0.0
2.712785 1.757055 -0.002381 0.0
4.696339 0.618937 -0.001405 0.0
3.623323 2.146115 -0.002647 0.0
2.487520 1.555404 0.001875 0.0
3.475135 0.306263 0.001315 0.0
2.813734 0.101130 0.001546 0.0
0.690226 2.084905 0.001494 0.0
1.452762 1.616725 0.000268 0.0
0.444365 2.123084 0.002310 0.0
4.030559 1.233135 0.003724 0.0
3.882600 0.432907 0.000680 0.0
3.886264 0.197758 0.000395 0.0
0.305605 1.811983 0.000360 0.0
4.325981 0.213999 0.001611 0.0
0.811076 0.356440 0.002236 0.0
4.018435 1.257864 0.002414 0.0
2.276216 0.759784 0.001159 0.0
0.648891 0.823188 -0.001786 0.0
3.803808 0.420191 0.000631 0.0
0.597096 1.278452 0.000033 0.0
0.077326 0.628992 0.001944 0.0
2.342529 2.077847 -0.002236 0.0
0.931016 1.824289 0.001987 0.0
2.215186 1.040520 0.002537 0.0
0.849258 0.230702 -0.003232 0.0
1.466316 1.581121 -0.000003 0.0
2.159286 0.990745 0.001880 0.0
4.465271 0.019796 -0.001091 0.0
0.180018 1.210224 -0.000407 0.0
3.497013 0.893101 -0.003608 0.0
0.270348 0.951949 0.001031 0.0
4.531626 1.344618 -0.000811 0.0
1.772664 1.230717 0.001934 0.0
2.258778 0.343800 0.000472 0.0
1.776191 1.175662 -0.000193 0.0
4.718428 0.420508 0.004452 0.0
1.826998 1.846705 0.003293 0.0
4.815291 1.005841 -0.004737 0.0
3.791514 0.789508 0.001747 0.0
4.048650 1.640286 0.000699 0.0
4.639913 1.113044 -0.001010 0.0
0.227734 0.594025 0.001131 0.0
4.103065 1.577294 0.006620 0.0
0.806459 1.499818 -0.002186 0.0
4.794209 1.299358 0.003906 0.0
2.238938 0.061193 -0.003067 0.0
3.179251 2.206832 0.000125 0.0
0.564103 1.754636 -0.000748 0.0
2.013886 0.649983 0.000744 0.0
1.520021 1.214483 0.000556 0.0
1.386166 1.221907 -0.000687 0.0
2.562927 0.744316 0.001017 0.0
0.150958 2.134279 -0.003013 0.0
3.630263 1.883803 -0.001142 0.0
0.669506 1.032172 0.001234 0.0
3.093446 0.461413 0.000567 0.0
3.237890 0.623631 0.007006 0.0
4.078978 1.388804 -0.002337 0.0
3.608751 1.938051 0.000301 0.0
0.564513 0.780297 -0.001755 0.0
1.181032 2.012205 -0.000768 0.0
4.221336 0.021201 -0.001224 0.0
2.798968 1.939970 -0.005465 0.0
1.062953 1.693185 0.003766 0.0
2.902469 1.443523 -0.003592 0.0
3.253885 2.023980 0.000945 0.0
1.434311 0.812163 -0.003086 0.0
2.393594 0.940176 -0.000858 0.0
1.846733 1.083280 0.002984 0.0
3.245666 0.250552 0.001175 0.0
0.032517 0.475739 -0.000361 0.0
0.478654 2.006739 0.004054 0.0
1.266865 2.086371 0.004026 0.0
1.929982 0.857058 -0.001433 0.0
1.383811 2.118643 0.000904 0.0
3.448313 2.041438 -0.001399 0.0
3.365065 0.101252 -0.000900 0.0
0.343723 0.182453 0.004869 0.0
3.874081 1.072749 -0.002451 0.0
3.993299 1.262240 -0.001514 0.0
0.074758 0.870419 -0.002638 0.0
0.157541 0.831630 -0.001770 0.0
3.336398 0.737539 0.000984 0.0
0.904485 0.036376 -0.001529 0.0
4.189494 1.375653 -0.000322 0.0
1.492227 0.426017 -0.001024 0.0
1.222511 2.261783 0.001069 0.0
4.598875 2.226868 -0.000786 0.0
1.224636 1.954680 -0.003313 0.0
2.628034 0.811821 0.000871 0.0
1.868114 1.571891 -0.000545 0.0
2.044889 0.370404 0.000677 0.0
0.737731 0.844953 0.004622 0.0
0.742468 2.161629 -0.000723 0.0
3.358385 0.964813 -0.003351 0.0
4.689524 2.095558 0.003877 0.0
1.409461 2.025296 0.002006 0.0
3.589818 1.504881 -0.000731 0.0
1.446428 2.196541 0.001277 0.0
3.147731 1.435493 -0.003563 0.0
3.087202 0.002375 0.002835 0.0
1.033840 1.193314 -0.003995 0.0
0.205495 2.071348 -0.004418 0.0
4.009922 1.546834 -0.001497 0.0
2.560982 1.411873 -0.000727 0.0
1.164506 0.274838 -0.001201 0.0
4.596793 1.945162 -0.002890 0.0
3.072876 1.265661 0.002750 0.0
4.838182 1.038903 0.002116 0.0
1.137346 1.400307 0.006329 0.0
1.638768 1.943716 0.003645 0.0
0.310666 0.967744 -0.002394 0.0
1.605157 0.994382 0.002040 0.0
0.965261 1.782921 -0.007245 0.0
1.191140 0.822700 -0.000193 0.0
3.712207 0.200974 -0.001767 0.0
3.051784 2.263101 -0.003438 0.0
3.463136 0.831004 -0.001754 0.0
0.954309 1.994622 0.002953 0.0
1.945435 0.239888 -0.001439 0.0
1.556945 0.771387 0.002343 0.0
2.028074 0.243492 0.000136 0.0
1.847813 0.119324 -0.003361 0.0
2.619914 0.244084 -0.006353 0.0
2.129048 0.600579 -0.002791 0.0
0.881871 1.858156 -0.002238 0.0
0.247660 0.616422 -0.001198 0.0
0.853334 1.511538 -0.000294 0.0
2.135765 1.883117 -0.002754 0.0
0.086657 1.119355 -0.000887 0.0
3.567733 1.113206 -0.000583 0.0
2.365818 1.621231 -0.001254 0.0
4.492696 0.613349 -0.004393 0.0
4.852167 2.319298 0.000700 0.0
0.955409 0.795683 0.000727 0.0
3.914431 0.778228 -0.000738 0.0
0.508346 1.212813 -0.000541 0.0
3.680843 2.164174 -0.001849 0.0
3.533298 1.724208 0.002497 0.0
1.555017 1.594206 -0.003960 0.0
2.341183 2.022105 -0.000801 0.0
2.365549 1.704868 0.001020 0.0
0.994186 1.932188 0.000996 0.0
4.652259 0.479301 -0.001938 0.0
1.018556 1.638234 0.000550 0.0
2.764297 0.592042 0.002935 0.0
0.430272 1.388695 0.002366 0.0
3.527410 0.713729 -0.001872 0.0
1.074926 2.312747 -0.003607 0.0
3.292228 0.955063 0.002568 0.0
2.953624 1.108286 -0.000375 0.0
4.023993 0.730096 -0.000773 0.0
3.507308 1.629809 0.002468 0.0
1.592333 0.063130 -0.001426 0.0
2.846652 0.995530 0.000378 0.0
0.581219 2.199651 -0.003442 0.0
3.851104 1.853355 0.000379 0.0
1.078226 1.414215 -0.002220 0.0
1.730555 1.068596 -0.000087 0.0
3.448610 1.401679 0.000110 0.0
4.310899 0.918848 -0.001114 0.0
2.988261 2.219955 0.000301 0.0
2.226562 1.307494 -0.000855 0.0
4.786812 1.691743 -0.001472 0.0
3.099314 0.048473 -0.001571 0.0
2.722664 1.587789 -0.003625 0.0
1.762602 1.557008 0.000333 0.0
1.048161 1.411780 0.000965 0.0
2.959713 0.936235 0.001026 0.0
1.019298 0.669462 -0.002502 0.0
0.830371 1.666367 -0.004409 0.0
4.452732 2.250365 0.004006 0.0
1.184097 0.648446 0.002241 0.0
1.964856 0.271669 0.000420 0.0
3.692165 1.680743 -0.003168 0.0
3.234776 2.302026 -0.001278 0.0
4.275107 0.289954 -0.003067 0.0
3.809189 0.471499 0.000177 0.0
3.724914 1.281777 -0.002154 0.0
1.921479 1.679809 0.001895 0.0
1.949720 0.773626 -0.002459 0.0
1.981769 1.884875 -0.001565 0.0
1.296427 0.926698 0.002614 0.0
3.586754 1.242708 -0.001525 0.0
1.084209 1.491251 0.000902 0.0
2.360227 0.932142 -0.000483 0.0
1.742459 2.128388 -0.000206 0.0
3.825483 1.154953 -0.001593 0.0
0.642214 0.652268 -0.000722 0.0
1.655591 1.447470 -0.002050 0.0
1.711108 0.267534 0.003455 0.0
3.006401 2.005530 -0.000655 0.0
2.400424 0.847380 -0.000165 0.0
4.317674 0.047011 -0.000794 0.0
2.127882 1.718694 -0.000190 0.0
2.758468 2.076618 -0.001127 0.0
3.049610 1.768610 0.003174 0.0
0.800405 0.556544 0.003008 0.0
4.042068 0.789944 -0.003347 0.0
1.596471 1.918068 -0.000460 0.0
2.839671 0.218335 0.004138 0.0
4.677310 0.399488 -0.002241 0.0
2.895336 1.020473 0.000198 0.0
4.494484 1.621447 -0.000502 0.0
4.165053 0.778901 0.000099 0.0
1.569765 0.377822 -0.001596 0.0
1.070276 0.026949 0.000182 0.0
3.232973 1.057461 0.001676 0.0
1.839192 0.190849 0.001526 0.0
4.251205 0.675818 0.002237 0.0
2.026512 1.322152 0.001536 0.0
2.774845 1.067829 0.000559 0.0
0.879193 0.250395 0.002391 0.0
3.313335 1.108617 0.001988 0.0
0.850355 0.723764 0.003176 0.0
2.560367 0.533998 -0.001199 0.0
3.959116 1.690842 0.000559 0.0
4.819970 1.147303 -0.002860 0.0
0.836577 0.311412 0.000945 0.0
1.370484 0.728483 0.001771 0.0
2.733019 0.988861 0.000723 0.0
2.854806 1.459552 0.000647 0.0
2.645473 0.976161 0.001133 0.0
4.176063 1.556435 0.002594 0.0
3.970967 1.513284 -0.001495 0.0
1.788360 1.969438 -0.001597 0.0
3.909537 1.716088 0.000099 0.0
0.677187 0.065780 0.001462 0.0
1.864926 1.995998 0.001357 0.0
1.969843 1.752842 0.002721 0.0
2.442687 0.071718 -0.005834 0.0
2.371844 1.972578 0.003741 0.0
2.706799 0.944073 -0.006396 0.0
4.335200 0.656481 -0.002569 0.0
4.270256 1.148718 -0.000280 0.0
2.625538 0.088974 0.003767 0.0
3.574368 0.079117 -0.002066 0.0
0.903157 1.649223 -0.000765 0.0
1.764429 0.019656 -0.002334 0.0
0.174464 0.474989 0.001513 0.0
3.948597 2.284616 -0.002674 0.0
0.178536 0.314975 -0.000105 0.0
4.796370 2.037119 -0.000130 0.0
1.893087 0.347678 -0.002188 0.0
0.053886 2.131991 0.000436 0.0
4.159364 1.169330 0.001143 0.0
4.476535 1.951554 -0.000385 0.0
2.439034 1.974525 0.003924 0.0
0.330282 0.586854 -0.001421 0.0
0.571568 1.562429 0.003144 0.0
1.633397 1.850507 0.001704 0.0
2.163825 0.304408 0.004723 0.0
3.640931 0.071591 -0.001890 0.0
4.012156 0.870157 0.000047 0.0
4.304499 0.305821 0.002556 0.0
2.873550 0.579765 0.002651 0.0
0.151918 0.809788 -0.001240 0.0
0.132185 2.029591 -0.002470 0.0
4.480896 1.911898 -0.003572 0.0
4.156545 1.792418 -0.002436 0.0
2.861512 2.131664 0.002829 0.0
1.939684 2.170375 0.001199 0.0
2.339487 2.118366 -0.003123 0.0
0.471832 0.470645 0.003404 0.0
1.661175 0.719464 0.001014 0.0
0.595728 1.944504 0.000980 0.0
2.463964 2.147229 0.000599 0.0
0.708857 0.968469 -0.002896 0.0
3.112911 1.827566 -0.000457 0.0
4.479831 0.873937 -0.001043 0.0
4.272330 1.760468 0.003683 0.0
0.236557 1.404689 0.000638 0.0
2.581539 0.149810 -0.001547 0.0
1.078249 0.532996 -0.002887 0.0
4.393081 0.959611 -0.004001 0.0
3.495316 0.045427 -0.000609 0.0
0.532299 1.551904 0.005468 0.0
3.852119 0.164493 0.000493 0.0
0.487017 1.802880 0.000309 0.0
2.654447 2.197102 -0.000108 0.0
1.120384 1.119154 -0.002483 0.0
2.350762 1.381789 0.004026 0.0
1.960307 0.995295 0.001675 0.0
3.418784 0.517643 0.002697 0.0
3.910742 1.074542 0.001049 0.0
2.547471 2.023334 -0.003870 0.0
3.433183 1.937668 0.003313 0.0
3.054258 1.765782 0.003236 0.0
2.471875 0.190106 0.001216 0.0
3.030132 2.252476 -0.001626 0.0
2.166969 1.558404 -0.002108 0.0
2.788496 0.563820 -0.001527 0.0
0.646368 1.816264 -0.000408 0.0
4.361462 1.239465 0.001083 0.0
3.848186 0.907501 -0.003055 0.0
2.789166 1.308567 0.003228 0.0
1.295673 1.986642 -0.001099 0.0
0.108844 0.881487 0.002237 0.0
2.773973 2.151975 0.000647 0.0
0.607458 1.909707 0.001365 0.0
1.449185 1.739318 0.004849 0.0
2.131788 1.552620 -0.000656 0.0
1.935342 2.237645 0.000487 0.0
4.275584 1.684731 -0.002319 0.0
2.203650 1.627981 -0.002172 0.0
1.685424 1.988468 0.001824 0.0
3.748847 0.100468 0.000519 0.0
1.438010 1.569384 -0.000234 0.0
4.324394 1.208482 0.003714 0.0
1.415547 2.043233 -0.000759 0.0
4.493234 0.117540 -0.000296 0.0
2.905820 0.351569 0.001840 0.0
1.213895 0.946071 -0.002854 0.0
2.998833 1.730443 -0.001658 0.0
0.500813 0.076862 -0.001852 0.0
0.135050 1.077153 -0.002553 0.0
2.141074 0.517722 0.002886 0.0
3.618692 1.133022 0.000386 0.0
2.724115 0.746382 -0.001631 0.0
2.877912 0.157650 0.000146 0.0
4.583455 0.339066 0.002303 0.0
0.688328 1.422224 -0.002638 0.0
1.337278 1.510501 -0.001773 0.0
4.145899 0.417125 0.000826 0.0
2.878473 0.308552 -0.002163 0.0
4.843508 0.271199 0.001079 0.0
0.739068 0.431300 0.001204 0.0
3.215532 1.500391 -0.001465 0.0
0.642395 1.268704 0.000673 0.0
1.446595 1.891226 0.003205 0.0
0.049013 0.505422 0.000722 0.0
2.446483 1.502643 0.002985 0.0
4.805821 0.687657 0.001087 0.0
4.372027 2.106887 0.001598 0.0
0.910154 0.206846 -0.000803 0.0
3.834084 1.229214 0.001144 0.0
2.827463 0.893066 0.002686 0.0
3.228688 2.306775 0.001383 0.0
2.606139 0.424142 0.000975 0.0
1.596055 1.622587 0.002855 0.0
4.478053 2.296121 -0.006375 0.0
3.100779 2.314463 0.001810 0.0
2.637485 2.109782 -0.001179 0.0
0.390739 0.508382 -0.003664 0.0
1.928875 0.830977 -0.000762 0.0
3.671734 1.319940 0.002945 0.0
2.372389 0.742775 0.004612 0.0
1.826253 2.003368 0.000385 0.0
2.359353 1.775004 -0.003501 0.0
1.161455 1.548857 -0.000027 0.0
3.281199 0.822837 0.001752 0.0
4.282874 0.978163 -0.001007 0.0
3.062914 0.546393 -0.001479 0.0
3.302428 1.118809 0.001512 0.0
3.461311 0.420952 0.000676 0.0
4.574943 1.860202 0.002566 0.0
2.014863 1.758085 -0.000560 0.0
1.819116 0.923331 -0.003485 0.0
2.171854 1.591514 0.003004 0.0
0.100686 0.455580 -0.001910 0.0
1.877438 1.639766 -0.001070 0.0
4.763991 0.436947 -0.000496 0.0
4.244104 0.775148 0.001721 0.0
1.409675 0.123058 -0.003536 0.0
0.144077 0.018969 -0.001438 0.0
1.967086 0.195827 0.000456 0.0
3.838912 1.032200 0.001731 0.0
0.687641 0.780392 0.002292 0.0
4.126448 0.405939 -0.001074 0.0
4.430829 0.160745 -0.002847 0.0
4.122733 0.100060 0.002635 0.0
2.147004 0.734030 0.001158 0.0
3.752087 1.235377 0.000041 0.0
0.474515 0.321052 0.002494 0.0
1.090540 0.662620 -0.003548 0.0
3.075174 1.526820 0.003082 0.0
4.559724 1.451464 -0.003394 0.0
2.378048 1.738518 0.000430 0.0
3.249801 1.482900 -0.001701 0.0
2.149147 0.814583 -0.001433 0.0
4.061931 0.281016 0.001846 0.0
0.971002 1.921476 0.000567 0.0
1.080905 0.029837 0.001837 0.0
2.566383 0.774259 0.001026 0.0
3.680326 1.539262 -0.003309 0.0
0.230609 0.559768 -0.002261 0.0
4.756047 1.608934 -0.003969 0.0
2.007546 1.622405 0.005812 0.0
0.855870 2.239420 -0.002286 0.0
4.425797 0.014699 -0.001838 0.0
4.737846 1.247196 -0.001036 0.0
3.642356 0.508919 0.001728 0.0
0.781847 1.187944 -0.000982 0.0
4.262319 0.617751 -0.000868 0.0
3.963186 1.136599 -0.002230 0.0
2.789524 0.627344 -0.001736 0.0
1.697428 1.620407 -0.004124 0.0
2.413457 0.703873 -0.002801 0.0
3.841794 1.439709 -0.002564 0.0
0.300910 1.595229 0.000446 0.0
1.094539 1.354867 -0.004396 0.0
4.805149 1.659372 -0.004569 0.0
2.192481 0.999333 0.003523 0.0
4.845104 1.840333 0.001396 0.0
1.481225 2.012428 -0.001284 0.0
4.016638 0.927283 0.007896 0.0
0.181342 0.546652 0.000802 0.0
0.324472 1.256008 0.003371 0.0
1.605773 1.017539 0.002156 0.0
1.549553 0.568910 0.000201 0.0
3.260716 1.456316 -0.002915 0.0
2.455692 1.826795 -0.003616 0.0
3.510183 2.137534 0.007300 0.0
4.043834 0.590391 -0.001168 0.0
0.896318 1.920352 -0.000952 0.0
3.064059 0.870069 0.001916 0.0
2.620676 2.012105 0.005767 0.0
0.427852 1.765217 0.001743 0.0
0.782405 0.898349 0.000797 0.0
2.647407 1.767001 0.003256 0.0
0.567412 0.525711 -0.002296 0.0
0.020896 0.543056 0.002070 0.0
1.352838 1.373353 0.004308 0.0
2.839317 1.343232 -0.000377 0.0
2.328590 1.684802 0.001801 0.0
0.173943 0.008509 -0.003861 0.0
2.380473 2.288722 -0.002858 0.0
4.183966 1.901107 -0.002519 0.0
4.007466 1.306323 -0.001896 0.0
3.559923 0.622385 -0.003542 0.0
0.333396 1.430572 0.003503 0.0
4.059659 0.233100 0.000958 0.0
2.338621 0.935741 -0.001555 0.0
1.359058 1.611270 0.001569 0.0
4.517613 1.690209 0.004777 0.0
3.534210 2.198214 -0.002599 0.0
0.716533 0.293486 -0.000448 0.0
0.269054 1.588353 0.002176 0.0
4.295286 1.739377 -0.000457 0.0
0.504405 1.795817 -0.001387 0.0
4.087982 1.594351 -0.001330 0.0
1.042323 1.476173 0.002730 0.0
4.032646 0.045790 -0.004184 0.0
3.785430 1.204900 0.005231 0.0
2.767931 1.636399 -0.004267 0.0
2.062321 1.083836 -0.002026 0.0
1.155111 2.140272 -0.001996 0.0
0.339615 0.851786 0.002569 0.0
0.269816 0.909713 -0.000931 0.0
3.176764 0.985970 -0.002181 0.0
0.864803 0.245302 -0.000581 0.0
1.391673 2.202672 -0.000374 0.0
3.996999 1.250910 0.003270 0.0
3.772943 1.549422 -0.000298 0.0
3.803478 1.264588 0.003776 0.0
1.435226 0.528181 0.001704 0.0
4.047173 2.156952 0.003368 0.0
2.033293 1.184245 0.001514 0.0
3.841693 1.046218 -0.004031 0.0
4.769762 0.561398 -0.000475 0.0
4.679346 1.810885 0.003670 0.0
2.868437 1.430006 -0.004131 0.0
0.248962 0.345423 -0.002436 0.0
2.874646 1.919723 -0.001390 0.0
1.749180 0.176388 0.002347 0.0
2.688876 0.689197 -0.005047 0.0
4.397580 1.949641 0.003095 0.0
3.740469 1.497213 -0.003961 0.0
0.876622 1.400785 -0.000963 0.0
1.931353 1.948285 0.000545 0.0
2.475097 1.907253 -0.000730 0.0
3.181588 1.773249 -0.000167 0.0
2.724902 0.696176 0.000957 0.0
0.546944 2.229891 0.004736 0.0
2.959568 1.356231 -0.000302 0.0
3.661878 2.246098 -0.003919 0.0
4.225720 1.485234 -0.004453 0.0
2.225851 1.989187 -0.001011 0.0
4.325375 0.181697 0.001774 0.0
4.351851 1.270970 0.001208 0.0
4.038722 0.786523 0.001605 0.0
0.494880 1.875446 0.002970 0.0
2.008180 0.497741 0.003795 0.0
1.559690 0.577712 -0.000389 0.0
3.649285 0.738382 0.003440 0.0
4.692414 0.711202 -0.002129 0.0
3.776537 2.166962 0.002717 0.0
2.761075 1.681588 0.005123 0.0
3.369889 0.019349 0.001030 0.0
3.683291 0.808372 0.003326 0.0
3.555486 0.612285 0.000869 0.0
2.209832 1.114258 -0.000654 0.0
0.744808 1.569877 0.002297 0.0
4.091438 1.483620 0.000057 0.0
2.060098 0.881045 0.004442 0.0
1.293112 0.733093 -0.001980 0.0
1.614834 0.402510 0.001869 0.0
0.451412 1.452817 -0.001812 0.0
1.856051 1.555781 -0.001430 0.0
1.929504 1.944694 -0.001468 0.0
1.456001 1.302317 -0.000210 0.0
2.104031 0.382360 -0.004865 0.0
2.921221 1.283532 0.003095 0.0
1.414213 0.272336 0.001333 0.0
2.634472 1.697593 0.004455 0.0
4.722423 0.810792 0.000392 0.0
3.604657 1.251777 -0.001828 0.0
0.627493 0.398984 0.001606 0.0
4.654844 1.189087 0.004135 0.0
0.307242 1.678511 0.001187 0.0
1.932223 0.705563 0.005128 0.0
4.774913 0.817902 -0.003703 0.0
1.028529 1.043222 0.003338 0.0
1.177014 0.920303 0.002049 0.0
1.918939 1.568455 -0.001572 0.0
4.371055 1.568921 -0.001282 0.0
3.868725 0.850959 0.000065 0.0
1.814392 0.609889 -0.000907 0.0
4.146382 1.559242 0.001514 0.0
1.631748 1.426865 0.003013 0.0
0.977462 0.061238 0.000719 0.0
0.535620 0.637160 0.001393 0.0
0.051104 1.456766 0.000274 0.0
3.608213 0.628755 -0.000387 0.0
2.527907 0.768993 0.001322 0.0
0.919267 0.492140 -0.001492 0.0
2.876002 0.287528 0.004648 0.0
1.090026 2.013648 -0.001781 0.0
3.313385 2.215595 0.001771 0.0
1.023120 0.576820 0.002172 0.0
2.970411 2.219877 -0.001692 0.0
0.655897 0.121499 -0.002192 0.0
2.653894 2.190125 0.001886 0.0
3.548845 2.236415 -0.000395 0.0
1.069627 0.444145 -0.001410 0.0
0.314787 1.535873 0.001615 0.0
3.707682 1.332784 -0.001046 0.0
2.813393 1.826268 -0.001096 0.0
0.508009 1.864524 0.003436 0.0
3.758269 0.292542 -0.002025 0.0
2.201667 0.233367 0.000726 0.0
2.212849 1.340041 -0.005072 0.0
1.889512 2.014448 -0.000253 0.0
2.043646 1.778467 -0.000038 0.0
1.382379 2.067071 0.002496 0.0
2.388304 2.017491 -0.001532 0.0
1.361860 1.471913 0.000015 0.0
4.260378 2.128180 -0.002122 0.0
3.145514 1.287321 -0.002621 0.0
1.288880 0.243653 -0.003484 0.0
2.863569 1.435763 -0.005074 0.0
2.841464 1.481483 0.000082 0.0
3.364046 0.482484 0.002156 0.0
2.870706 1.269791 -0.000439 0.0
3.447397 1.950288 0.001594 0.0
4.800428 0.512640 0.001822 0.0
2.313126 1.034642 0.003180 0.0
1.026108 1.004622 0.003905 0.0
2.140285 1.503802 -0.001428 0.0
0.119997 1.334857 -0.004635 0.0
0.941142 2.247456 0.001818 0.0
3.326242 1.224303 0.000298 0.0
1.140151 2.107229 0.002207 0.0
3.047499 1.682550 -0.001774 0.0
3.819792 2.082409 -0.003955 0.0
4.665119 0.238986 0.002080 0.0
4.642488 1.260398 0.000072 0.0
4.651882 1.687328 0.001349 0.0
3.986626 1.508172 0.001160 0.0
3.691593 0.116309 -0.001621 0.0
4.094212 1.831788 -0.000959 0.0
2.495920 0.207413 0.000706 0.0
2.874573 1.783376 -0.000663 0.0
0.900594 1.847429 0.002549 0.0
0.636959 1.569250 0.000982 0.0
1.031232 1.645260 -0.001885 0.0
2.706684 0.332097 0.001480 0.0
1.725354 0.417569 0.000951 0.0
2.142270 1.013041 -0.006963 0.0
1.775245 0.546640 -0.004603 0.0
0.715028 1.019634 -0.000355 0.0
2.639929 0.376259 -0.000390 0.0
2.134709 1.233786 0.003354 0.0
3.539969 1.436194 0.000007 0.0
4.565222 2.023872 0.003350 0.0
3.552102 1.156552 -0.001266 0.0
1.128285 2.288218 0.001112 0.0
3.372661 1.563309 0.001762 0.0
0.517561 0.852935 0.002956 0.0
4.817227 0.184544 0.001771 0.0
1.692884 0.312248 -0.002497 0.0
1.583532 0.126043 -0.002207 0.0
3.376016 0.314128 -0.002396 0.0
0.828589 0.862339 -0.001249 0.0
1.179892 1.985819 0.003855 0.0
1.100002 1.419019 -0.000556 0.0
0.306861 0.316176 0.004832 0.0
1.700883 0.036282 0.000630 0.0
4.453317 1.379284 0.000281 0.0
2.482868 0.840177 -0.001066 0.0
1.534837 0.418578 0.001638 0.0
0.172349 0.525068 0.001408 0.0
2.778483 0.194889 -0.004243 0.0
2.717693 1.020062 0.001385 0.0
1.999796 1.941480 0.003440 0.0
3.095416 1.188320 0.003774 0.0
1.497570 1.974824 -0.001182 0.0
2.189223 1.198655 -0.003452 0.0
2.801564 1.921450 0.000475 0.0
4.714047 1.720025 -0.001576 0.0
2.677683 0.720843 0.002268 0.0
0.983864 2.179809 -0.003299 0.0
4.293369 1.796151 -0.000793 0.0
3.284866 1.929681 -0.001243 0.0
0.327275 1.941041 0.000841 0.0
4.566540 0.429321 0.001180 0.0
4.296119 1.143750 -0.000852 0.0
2.442188 0.347800 -0.003486 0.0
1.451753 0.819303 0.001749 0.0
2.884667 2.259772 0.002815 0.0
2.540737 1.517463 -0.002650 0.0
0.831036 1.884769 -0.003097 0.0
4.260485 0.494144 -0.005728 0.0
1.209155 0.867590 0.003421 0.0
3.223486 0.300314 -0.000139 0.0
3.357482 0.453666 -0.002499 0.0
4.509346 0.237900 0.000836 0.0
0.242643 2.039842 -0.001278 0.0
1.754061 1.442258 -0.001716 0.0
1.084591 1.779306 -0.001043 0.0
0.458442 2.168569 0.002341 0.0
4.761962 0.754170 -0.001859 0.0
1.729953 0.986658 -0.003116 0.0
1.480195 0.870102 0.000775 0.0
2.607604 0.383685 0.000238 0.0
4.363239 2.111194 -0.002423 0.0
2.633991 0.016310 -0.000495 0.0
3.171168 0.098766 0.000624 0.0
4.481061 2.213119 -0.003241 0.0
3.323361 0.974955 0.000565 0.0
0.044494 0.651206 -0.000749 0.0
3.156584 0.530778 -0.000953 0.0
2.945633 0.637907 -0.000684 0.0
4.659202 1.138001 -0.003305 0.0
1.617900 1.430785 -0.003778 0.0
2.056594 1.350634 0.000302 0.0
0.659902 1.994150 0.000506 0.0
4.272795 2.258349 -0.000482 0.0
1.908729 0.511310 0.002343 0.0
4.686717 0.100511 0.003019 0.0
2.871040 1.075376 0.002531 0.0
3.446186 1.891518 -0.005129 0.0
0.233712 1.179148 -0.002552 0.0
0.636325 0.915637 -0.000881 0.0
1.336711 1.928711 -0.001356 0.0
3.020423 0.127037 0.002685 0.0
1.805095 0.889081 -0.000366 0.0
1.839821 2.313376 0.000828 0.0
4.588981 1.659705 0.001381 0.0
1.569118 0.871936 -0.000114 0.0
1.191830 2.034420 0.000138 0.0
2.127773 1.016761 0.002815 0.0
2.211577 2.111889 0.001787 0.0
3.768238 0.965586 0.000171 0.0
1.465776 0.102161 -0.001895 0.0
4.489192 0.304926 -0.001499 0.0
2.189680 0.133030 0.003957 0.0
0.520891 0.562248 -0.002905 0.0
3.466896 0.215809 -0.001234 0.0
3.772643 0.701034 0.002527 0.0
3.379047 0.025988 -0.000781 0.0
1.506051 2.085587 -0.000703 0.0
0.415195 0.557696 -0.001787 0.0
1.625053 0.590199 -0.001344 0.0
0.301309 1.378958 -0.003162 0.0
2.417748 1.622202 0.000028 0.0
2.202069 1.208027 0.000758 0.0
4.500264 0.810547 0.001501 0.0
0.121784 1.023690 -0.002135 0.0
0.314488 1.626314 -0.000204 0.0
4.160904 0.023041 -0.000503 0.0
2.262055 0.955129 -0.000316 0.0
2.139791 0.514149 -0.001785 0.0
3.788626 0.633941 0.000413 0.0
4.544258 1.026153 -0.001129 0.0
4.202087 2.224964 -0.001310 0.0
2.502922 0.321417 -0.000129 0.0
3.015764 2.243461 -0.001303 0.0
1.887830 1.193832 -0.001795 0.0
1.318493 1.206921 -0.000784 0.0
3.659955 1.653962 -0.000161 0.0
3.289718 2.113147 0.000092 0.0
0.590527 1.210287 -0.000899 0.0
4.239901 0.599945 0.002519 0.0
4.643752 2.233862 0.002586 0.0
2.191045 2.240985 0.001659 0.0
4.699515 1.275542 0.000811 0.0
0.073935 0.979738 -0.001344 0.0
2.331023 2.184277 -0.000729 0.0
1.365186 1.207125 0.001195 0.0
2.108903 1.169763 -0.002897 0.0
3.871609 0.367194 0.001182 0.0
0.189086 1.325500 -0.002765 0.0
1.017014 0.322671 -0.002045 0.0
2.633025 0.019050 0.002431 0.0
4.708879 0.925187 -0.003988 0.0
1.317812 0.265454 -0.004723 0.0
2.597566 2.234264 -0.004463 0.0
0.461557 1.147776 0.003830 0.0
0.699220 2.242284 -0.000025 0.0
4.272272 0.933987 0.000851 0.0
0.726274 0.851788 0.000127 0.0
4.677047 0.258254 0.000633 0.0
3.113064 0.933204 0.002508 0.0
2.832928 1.332594 0.001042 0.0
4.245395 2.209075 0.001265 0.0
0.317174 1.677529 -0.000697 0.0
3.171801 0.462236 0.001809 0.0
2.433374 0.365509 -0.001110 0.0
2.207816 0.733344 0.001215 0.0
0.842153 0.774323 -0.001141 0.0
2.128914 0.080189 0.000004 0.0
0.851756 0.524252 0.002647 0.0
2.340386 1.455111 -0.002731 0.0
3.371104 0.406810 0.002817 0.0
3.974768 2.264877 0.001576 0.0
1.119690 0.526113 -0.001006 0.0
4.582422 2.294366 0.000548 0.0
1.777825 1.260573 -0.001583 0.0
3.947929 0.572104 0.000821 0.0
2.758774 1.042874 0.000750 0.0
3.534372 0.468498 0.000218 0.0
0.541181 2.291013 -0.000288 0.0
2.262709 2.248496 -0.003829 0.0
2.228799 0.937969 0.000799 0.0
0.416363 0.592295 -0.000446 0.0
2.380500 1.309246 -0.002283 0.0
0.251286 1.281111 0.000543 0.0
4.500977 1.389449 -0.004648 0.0
1.769837 1.171052 -0.000474 0.0
0.471138 1.881828 -0.000455 0.0
4.383333 0.645562 0.005111 0.0
1.213330 1.982118 -0.001370 0.0
3.653330 1.778093 -0.004821 0.0
1.040961 2.059671 0.001876 0.0
2.600330 1.826961 -0.000296 0.0
1.070586 2.189234 -0.000052 0.0
2.652337 2.151870 -0.001178 0.0
0.959010 0.227511 -0.001579 0.0
3.632239 1.264823 0.002174 0.0
1.197295 1.933363 0.001486 0.0
3.127367 1.547783 -0.003924 0.0
2.728555 1.559050 0.002470 0.0
0.464487 0.394803 -0.001985 0.0
2.820696 1.514931 0.003267 0.0
3.036540 1.651778 0.004953 0.0
4.428686 0.654663 0.002924 0.0
3.693806 1.876078 0.003808 0.0
3.130608 1.289457 -0.002369 0.0
1.761026 2.228584 -0.002931 0.0
2.210692 1.702814 -0.000394 0.0
1.621290 1.399108 0.000671 0.0
3.734637 0.730349 -0.001227 0.0
2.341376 1.745094 -0.000958 0.0
3.521750 1.800161 -0.001031 0.0
3.625072 1.488095 -0.002165 0.0
3.910139 1.959550 0.003354 0.0
1.853933 0.796451 -0.000461 0.0
0.958083 0.529665 -0.001602 0.0
3.969683 0.377149 -0.002737 0.0
2.111534 1.900438 0.002596 0.0
2.675884 2.086808 0.004928 0.0
2.040244 2.318195 0.001113 0.0
1.546377 1.820000 0.000582 0.0
1.193027 0.623324 0.000819 0.0
1.812087 0.757801 0.001373 0.0
3.277383 0.201544 -0.000481 0.0
2.529225 0.633882 0.000269 0.0
1.388333 0.589832 0.000473 0.0
3.779307 1.172692 0.002066 0.0
1.608358 1.617270 0.000315 0.0
0.843505 0.951941 0.001815 0.0
3.937038 0.163177 0.000866 0.0
3.911328 0.053512 0.001511 0.0
2.135883 0.260870 -0.002303 0.0
4.402906 2.102968 0.000858 0.0
4.488839 0.108822 -0.001119 0.0
0.533780 0.899397 -0.001928 0.0
2.717067 0.390406 0.000557 0.0
3.540914 0.001738 0.003618 0.0
2.752060 1.355233 -0.001056 0.0
2.457496 1.238663 0.003509 0.0
1.252848 1.951961 -0.001932 0.0
3.432918 0.956643 0.004342 0.0
4.180445 1.666689 0.003923 0.0
0.047327 1.669209 0.004789 0.0
1.837910 2.243612 -0.000741 0.0
2.947151 1.928832 0.000411 0.0
1.051655 0.887534 -0.000416 0.0
0.815260 1.098229 0.000581 0.0
2.568607 0.219960 0.001766 0.0
0.269089 1.325390 -0.000577 0.0
2.392789 0.465885 -0.000199 0.0
4.676765 0.377889 -0.002502 0.0
3.994757 0.093483 0.000849 0.0
0.194553 0.295504 -0.002425 0.0
0.152853 0.984866 0.001765 0.0
0.396141 0.664836 0.000071 0.0
2.660164 0.672071 -0.004513 0.0
0.819797 0.792437 -0.000820 0.0
4.080515 2.022228 -0.002126 0.0
2.142818 1.242529 -0.003094 0.0
1.787278 0.914861 -0.001247 0.0
3.849610 2.266809 -0.003692 0.0
4.191459 1.197066 -0.002700 0.0
3.944515 2.282211 -0.000205 0.0
0.359566 1.808315 -0.001268 0.0
1.833760 2.279559 -0.007485 0.0
3.984042 1.519068 0.001636 0.0
2.286450 1.321399 -0.001828 0.0
3.669701 1.922916 -0.000217 0.0
4.485365 0.740784 -0.005912 0.0
1.277456 0.266992 0.002851 0.0
2.492946 0.225814 -0.002461 0.0
0.204859 1.573861 -0.000531 0.0
1.708284 1.360039 0.000817 0.0
1.132905 0.701802 0.000307 0.0
2.250492 0.165181 -0.000648 0.0
4.403279 1.100047 0.000131 0.0
2.010219 0.867396 0.001026 0.0
4.685925 0.380100 -0.000192 0.0
1.726880 0.958611 -0.003685 0.0
0.257553 1.933313 0.000887 0.0
2.829205 0.399557 -0.000235 0.0
0.658234 0.317272 0.000308 0.0
0.675563 1.208482 -0.001490 0.0
0.197507 0.253727 0.002415 0.0
1.048315 1.333485 0.004992 0.0
1.379245 0.068856 -0.001000 0.0
2.879691 1.928973 0.001378 0.0
1.233408 0.572437 -0.000905 0.0
0.685931 0.830219 -0.001747 0.0
1.348564 0.109730 0.000573 0.0
4.408128 1.399527 -0.001727 0.0
0.578667 1.046331 -0.001231 0.0
2.587836 0.383845 0.000830 0.0
2.729737 0.287434 -0.002517 0.0
0.592148 0.790255 0.003017 0.0
0.050184 0.123916 -0.007094 0.0
3.242328 0.090401 0.002962 0.0
2.377950 1.032126 0.005789 0.0
1.489567 0.239712 0.006188 0.0
2.774476 0.288978 0.001036 0.0
2.988709 1.642983 -0.001855 0.0
1.976893 1.926607 0.005733 0.0
3.709747 1.895954 0.001057 0.0
3.617913 1.911982 -0.000126 0.0
0.305838 1.162468 0.005380 0.0
0.244053 2.307052 0.001329 0.0
1.232505 0.664694 0.001788 0.0
3.548260 0.810793 -0.001715 0.0
0.995261 0.164634 -0.003293 0.0
1.560149 0.471889 -0.003459 0.0
4.846135 1.994712 0.002268 0.0
0.724772 0.349644 -0.000424 0.0
2.351435 1.111700 -0.000499 0.0
1.233017 1.232644 -0.003146 0.0
1.983791 1.063199 -0.001127 0.0
0.440608 1.081869 -0.001845 0.0
2.592992 0.538163 0.001341 0.0
0.768182 1.035223 -0.000335 0.0
2.445936 2.249723 -0.000269 0.0
3.436478 1.744799 -0.002612 0.0
3.299512 1.727963 0.000257 0.0
0.619823 0.469617 -0.003332 0.0
1.438848 2.021993 -0.000762 0.0
4.613728 1.990749 0.003570 0.0
3.599580 1.695154 0.001831 0.0
3.511737 0.352800 -0.002451 0.0
2.486905 2.033209 -0.002490 0.0
0.512143 0.749121 -0.003042 0.0
2.000349 0.944799 0.002631 0.0
1.582002 2.272702 0.004256 0.0
3.763324 0.922372 0.000161 0.0
2.835444 0.483071 0.000920 0.0
3.949176 1.816852 -0.001368 0.0
0.415339 0.031232 -0.000012 0.0
0.652520 0.569853 -0.000490 0.0
0.010091 0.305032 -0.001682 0.0
3.913149 1.210815 -0.000572 0.0
0.750648 1.300196 -0.000985 0.0
0.118049 1.037348 0.001769 0.0
0.134842 0.315964 -0.000193 0.0
1.085203 0.187861 0.000704 0.0
2.674890 0.279109 0.002447 0.0
3.187853 1.660655 0.001195 0.0
2.901787 1.948845 -0.003459 0.0
4.588772 1.899288 0.002742 0.0
3.147156 1.598366 0.002271 0.0
1.889824 1.320951 0.000903 0.0
0.524186 1.383744 0.000398 0.0
4.283265 2.076367 0.000434 0.0
1.014274 1.245243 -0.002549 0.0
2.725462 0.948731 -0.003252 0.0
1.840972 0.730301 -0.002766 0.0
0.980227 1.234438 -0.000603 0.0
2.671280 0.447177 -0.002899 0.0
0.700741 1.112850 0.000662 0.0
1.264410 1.943816 0.000723 0.0
1.072259 0.067557 0.001006 0.0
1.586130 0.895484 -0.002834 0.0
2.874094 1.215909 0.003824 0.0
0.585457 1.400430 -0.002100 0.0
2.406913 0.875576 -0.001691 0.0
1.196382 0.290636 -0.002193 0.0
2.278799 2.236763 0.001323 0.0
1.912838 0.124945 -0.001994 0.0
3.376017 0.469778 0.000011 0.0
1.649714 1.024036 0.000604 0.0
0.158812 0.974687 0.001008 0.0
4.371422 1.966432 -0.000451 0.0
0.429193 1.284299 -0.000896 0.0
1.809755 0.108748 -0.000627 0.0
4.464503 2.245783 -0.000810 0.0
4.096911 0.131669 -0.000378 0.0
1.521758 0.679360 0.000174 0.0
4.312823 1.617326 0.000293 0.0
0.503216 0.773539 0.003746 0.0
2.721328 1.820468 0.001194 0.0
4.227563 0.693959 -0.005134 0.0
3.256102 0.120227 -0.000770 0.0
0.849461 0.139671 0.000115 0.0
2.671977 0.505663 -0.001141 0.0
1.242588 0.740916 0.001253 0.0
0.942113 0.670168 -0.002046 0.0
3.922492 2.149714 -0.001721 0.0
3.761527 2.101278 -0.000449 0.0
1.426009 0.208084 0.004091 0.0
2.083874 1.364800 0.003469 0.0
1.320226 1.147266 0.001913 0.0
1.223671 1.955558 0.002805 0.0
2.315925 2.083752 -0.003024 0.0
1.895074 0.169277 0.000443 0.0
