4.536167 0.456571 -0.004028 0.0
0.537032 0.899266 0.000452 0.0
3.491856 0.450241 -0.002103 0.0
0.383249 0.370320 0.003899 0.0
4.049226 1.655392 0.002001 0.0
0.254036 1.774219 -0.002282 0.0
0.206224 0.914464 0.000338 0.0
1.368802 2.185959 -0.000831 0.0
2.436702 0.454980 0.003518 0.0
3.672495 1.877179 0.002536 0.0
2.664684 1.660573 0.001420 0.0
0.425998 0.349948 -0.005051 0.0
1.475258 0.788201 -0.001483 0.0
4.025348 0.952971 -0.001082 0.0
4.580954 1.113897 -0.002580 0.0
4.185426 1.829363 -0.000043 0.0
4.533083 1.753124 0.001686 0.0
4.086358 1.935049 0.003350 0.0
3.150117 1.582730 0.004033 0.0
1.675531 2.396084 -0.000883 0.0
2.366411 0.714501 0.001573 0.0
2.289670 1.253253 -0.000654 0.0
3.892910 0.528269 0.001003 0.0
4.075651 2.146779 -0.003875 0.0
2.591282 2.391529 -0.002917 0.0
2.740419 0.980472 0.003149 0.0
2.505477 0.682286 -0.002637 0.0
0.781361 0.179612 0.000386 0.0
2.470923 2.387634 -0.002189 0.0
4.019370 2.337583 0.000731 0.0
1.601024 1.093079 -0.000091 0.0
2.026224 1.727710 -0.002619 0.0
3.683376 2.318032 0.005376 0.0
0.828748 0.330521 -0.000207 0.0
0.279300 1.763264 -0.001262 0.0
2.298178 0.702369 -0.002687 0.0
0.926134 2.121761 -0.000401 0.0
2.603292 0.881048 -0.000139 0.0
0.021603 0.401955 0.000755 0.0
0.877505 1.057446 -0.004492 0.0
0.896665 1.488980 0.000736 0.0
1.824427 1.217076 0.002994 0.0
1.048351 0.121551 -0.005734 0.0
4.238884 0.619847 -0.002637 0.0
2.137852 2.158642 0.000914 0.0
3.483488 0.250498 0.004043 0.0
1.050013 0.489863 -0.000366 0.0
0.940535 1.136252 -0.001439 0.0
0.954301 0.770836 -0.003872 0.0
1.805141 1.548186 0.000772 0.0
2.811927 2.213456 0.001206 0.0
0.539803 2.263698 -0.001553 0.0
2.981351 0.539560 -0.002027 0.0
0.766994 0.503936 0.000159 0.0
3.254810 2.378606 0.005805 0.0
4.145807 0.338956 0.000404 0.0
3.736515 1.664069 -0.001271 0.0
3.449872 0.216655 0.002423 0.0
0.569729 0.653818 0.000299 0.0
3.145266 0.807096 0.000030 0.0
0.599163 0.164182 -0.000170 0.0
2.993758 1.122334 0.001056 0.0
2.094071 2.279164 -0.002643 0.0
0.345008 0.555735 -0.000168 0.0
3.205866 1.525991 -0.004673 0.0
3.312133 1.969997 -0.002657 0.0
3.799847 0.720662 0.004915 0.0
0.754511 1.535756 -0.002333 0.0
4.248197 1.996235 0.001026 0.0
0.866150 1.785386 0.001783 0.0
2.772446 1.320605 0.000565 0.0
2.037067 2.254880 -0.002024 0.0
4.590894 0.958365 -0.001628 0.0
0.110478 1.324480 0.001757 0.0
0.344023 0.514613 -0.000295 0.0
3.252844 1.766853 0.001464 0.0
0.843922 1.638186 0.003293 0.0
0.275889 0.565938 0.000722 0.0
0.062720 1.712784 0.003914 0.0
0.618867 1.995905 0.000258 0.0
0.358997 0.212746 0.000091 0.0
3.595662 1.250668 -0.001262 0.0
4.296289 2.240584 0.000413 0.0
2.372238 1.094924 -0.001492 0.0
1.265035 1.454588 -0.004235 0.0
3.826446 2.433267 0.002411 0.0
3.726086 1.735605 0.002440 0.0
2.402959 1.272362 -0.000939 0.0
2.254067 0.372855 0.002078 0.0
3.376334 0.752752 0.001158 0.0
3.179468 0.780923 0.006796 0.0
1.579045 0.648389 -0.001515 0.0
4.036972 2.043456 0.000042 0.0
0.317164 0.623640 -0.000216 0.0
1.267076 1.281062 0.001009 0.0
3.451400 0.235711 0.000641 0.0
3.253477 2.312575 0.000266 0.0
4.547249 2.054133 -0.001911 0.0
0.232248 1.477558 0.000196 0.0
2.428560 0.784710 0.004075 0.0
3.922222 1.795385 -0.005875 0.0
3.973100 1.101081 -0.001380 0.0
0.134139 2.282253 -0.001727 0.0
0.103212 0.942534 0.002692 0.0
1.899304 1.956613 0.001346 0.0
3.966771 1.939464 0.001196 0.0
1.254197 0.699542 0.000461 0.0
1.905379 1.548974 -0.002157 0.0
0.082103 1.866025 0.002165 0.0
3.648638 1.643228 -0.000869 0.0
4.107010 2.101384 0.001204 0.0
3.433680 1.226070 0.000885 0.0
2.834050 0.645628 0.000554 0.0
0.250480 1.382477 -0.000225 0.0
0.948215 1.923292 -0.003722 0.0
3.333970 1.328205 0.002923 0.0
2.495352 2.178981 -0.004936 0.0
2.808820 0.403146 -0.000142 0.0
4.401002 0.675206 -0.000137 0.0
1.574794 1.708599 -0.000676 0.0
3.689993 0.937928 -0.003934 0.0
3.658910 1.436626 0.003671 0.0
0.302781 1.719499 0.001589 0.0
1.946023 1.700641 -0.002468 0.0
2.475340 1.056103 -0.000639 0.0
1.501586 0.551104 -0.003531 0.0
0.372753 1.409801 0.002282 0.0
3.214465 1.284403 -0.000323 0.0
4.349461 1.935142 0.001880 0.0
2.023145 2.294016 0.001252 0.0
2.432396 2.088190 0.001311 0.0
4.418755 1.672873 0.005376 0.0
4.376530 0.523532 0.000638 0.0
3.504794 0.405885 -0.000649 0.0
3.170019 1.743558 0.000377 0.0
0.484901 0.766852 0.003647 0.0
3.855852 1.893898 -0.002029 0.0
2.825921 0.046604 0.005323 0.0
4.035023 1.667712 -0.000233 0.0
2.235444 2.345759 0.001169 0.0
3.643347 1.994436 0.003150 0.0
4.559648 0.335116 -0.001116 0.0
3.455759 2.183299 0.000299 0.0
0.639806 1.141740 -0.000482 0.0
3.875481 1.584025 -0.000239 0.0
3.021653 0.200997 0.003074 0.0
1.146645 2.395302 -0.000483 0.0
0.153434 1.590480 0.005351 0.0
4.639299 2.161408 0.001054 0.0
0.797979 1.193301 -0.000835 0.0
3.997750 2.158882 0.000647 0.0
4.430371 1.631110 0.001585 0.0
2.196728 2.360134 0.002618 0.0
4.616205 0.373576 0.001513 0.0
0.544223 1.395981 -0.000269 0.0
1.846279 0.439134 0.002756 0.0
2.330039 1.654740 0.002301 0.0
2.938618 0.555486 -0.003457 0.0
0.730815 1.508762 0.000175 0.0
3.639104 2.117016 -0.001728 0.0
4.208375 1.050782 -0.005877 0.0
3.035047 1.755586 -0.003081 0.0
2.073800 2.195893 -0.002354 0.0
1.660488 1.174382 -0.001243 0.0
4.398534 0.339842 0.001271 0.0
3.250475 2.049846 0.001928 0.0
3.905792 0.075726 0.000641 0.0
4.291719 0.338755 0.000036 0.0
2.004151 2.242147 -0.003932 0.0
1.137391 1.228976 0.002917 0.0
2.747038 0.093230 0.001679 0.0
3.355460 1.658185 0.003352 0.0
1.546623 1.731608 0.000737 0.0
3.973422 2.295446 0.001619 0.0
4.154689 2.336962 0.002902 0.0
3.164424 2.003815 -0.000419 0.0
4.469604 1.025585 0.002960 0.0
0.945942 2.127397 0.001884 0.0
3.677755 0.383180 -0.005036 0.0
0.464306 1.749879 0.000202 0.0
0.410623 2.087714 0.006397 0.0
4.070153 0.929539 -0.001843 0.0
0.062022 1.767357 -0.000245 0.0
3.601823 0.321412 -0.000867 0.0
0.192303 0.025535 -0.003811 0.0
2.036350 0.950571 -0.003232 0.0
0.408086 0.911727 -0.001946 0.0
0.319490 0.622018 -0.000075 0.0
4.386199 1.437843 -0.001837 0.0
3.285536 2.048672 0.003070 0.0
4.008863 1.407689 -0.001162 0.0
2.954071 2.275887 0.003226 0.0
1.598763 0.273008 -0.003727 0.0
1.712531 1.342196 -0.000222 0.0
1.011313 0.518740 0.003044 0.0
0.291360 0.141711 -0.000176 0.0
3.206495 1.805374 0.002818 0.0
4.104858 2.355871 0.002886 0.0
1.987043 0.862517 -0.002232 0.0
1.434276 1.665843 0.001126 0.0
4.484687 0.129424 -0.001537 0.0
0.730312 0.560058 -0.002028 0.0
1.579915 1.730282 -0.001695 0.0
2.109621 1.669624 -0.004767 0.0
0.086682 1.552189 -0.003524 0.0
4.075788 2.264333 0.000533 0.0
4.196989 1.035383 -0.001658 0.0
0.593012 1.603886 0.000747 0.0
1.730458 2.259967 0.000445 0.0
2.706548 0.876372 0.000699 0.0
2.378413 0.872278 -0.000710 0.0
0.301634 1.831930 0.002087 0.0
4.045195 0.828800 0.001927 0.0
2.077367 1.144903 0.000784 0.0
4.590458 2.004940 -0.002759 0.0
1.354608 2.144383 -0.002808 0.0
0.386862 2.086390 -0.003767 0.0
1.081110 2.402292 0.000615 0.0
4.308868 2.235709 0.002937 0.0
2.868618 1.371969 -0.001027 0.0
2.821563 1.043704 -0.001858 0.0
1.989917 0.990063 0.001720 0.0
0.859210 0.421319 -0.001145 0.0
3.068978 1.186088 0.002222 0.0
0.837758 1.978502 0.001652 0.0
3.709149 1.893145 0.002245 0.0
2.519358 1.414331 -0.000098 0.0
3.383566 0.808120 0.000838 0.0
4.256128 2.101012 -0.001340 0.0
0.835556 1.294690 0.002402 0.0
1.870039 2.163841 0.000757 0.0
0.845880 0.336547 0.003695 0.0
1.701018 1.397935 0.000133 0.0
3.210618 1.501874 0.001171 0.0
1.324228 0.419783 -0.001584 0.0
3.974299 1.309966 0.000156 0.0
3.970128 2.172778 0.001173 0.0
3.818227 1.192704 0.000564 0.0
2.594125 0.219032 0.003786 0.0
4.140922 1.951401 -0.000912 0.0
3.119300 0.592222 -0.000009 0.0
1.174552 0.148052 -0.001268 0.0
2.780227 1.655749 0.003931 0.0
3.786216 0.288162 -0.003462 0.0
1.360730 0.417314 0.000781 0.0
2.267702 1.169070 0.006075 0.0
4.470804 0.640002 0.005297 0.0
3.981285 0.759026 -0.001507 0.0
1.527641 1.891983 -0.001340 0.0
3.266489 0.501070 0.001402 0.0
3.292097 1.723902 -0.001410 0.0
3.003964 0.984532 0.001021 0.0
2.194116 2.276850 0.003242 0.0
3.435929 2.110160 -0.000118 0.0
0.935881 1.990268 -0.004607 0.0
0.516103 0.533895 0.004524 0.0
3.233975 2.078106 0.001879 0.0
2.803540 0.109788 0.003122 0.0
3.989075 0.267316 0.000923 0.0
2.942544 2.117686 -0.005218 0.0
1.126809 1.414327 0.004767 0.0
2.126196 1.189853 0.003314 0.0
3.956430 2.178626 -0.001298 0.0
0.472939 2.049173 -0.000747 0.0
0.591871 1.962498 0.002334 0.0
2.364376 1.035894 0.000118 0.0
2.318802 1.977502 -0.005374 0.0
2.672735 0.921887 0.002410 0.0
1.887886 0.330122 -0.000123 0.0
4.261436 2.402077 0.001482 0.0
4.495376 0.430139 0.000776 0.0
1.581074 1.618132 -0.003530 0.0
3.150731 0.477375 0.000622 0.0
4.391188 2.056413 -0.000216 0.0
0.129550 0.578658 -0.004327 0.0
0.554653 0.167033 -0.000163 0.0
2.229775 1.175391 0.000735 0.0
2.805587 0.355512 -0.002249 0.0
0.024780 1.218825 0.004043 0.0
1.155783 0.940372 -0.000673 0.0
2.664613 0.660486 -0.003105 0.0
4.237716 1.989653 0.000045 0.0
3.487806 1.185819 0.000542 0.0
1.350949 1.492105 0.000535 0.0
0.521933 2.306115 -0.000936 0.0
1.731193 1.716250 -0.002199 0.0
4.097376 0.217418 0.003703 0.0
2.939455 1.155438 -0.001323 0.0
2.497265 0.587062 -0.001374 0.0
0.435292 2.117252 0.002539 0.0
2.757814 1.020931 -0.001581 0.0
3.740474 1.570621 0.002034 0.0
0.616503 0.945314 0.001487 0.0
0.038196 2.097891 0.001021 0.0
0.030195 1.861491 -0.001461 0.0
1.832497 2.244872 -0.003170 0.0
2.925704 1.960810 0.005303 0.0
0.070425 2.341975 0.003640 0.0
3.226702 1.919054 -0.002721 0.0
2.270145 1.001707 -0.001251 0.0
4.367647 2.135143 0.002449 0.0
4.571088 1.332704 -0.001019 0.0
1.172305 1.132336 0.000836 0.0
0.343557 1.507955 -0.002786 0.0
0.601615 1.315198 -0.004738 0.0
3.213186 0.006610 0.000549 0.0
3.326859 2.438206 0.002758 0.0
0.604435 0.090538 -0.004837 0.0
4.502161 1.829747 -0.001090 0.0
4.536406 1.044989 0.001523 0.0
2.497812 1.666945 0.004957 0.0
1.167336 2.239709 -0.002604 0.0
3.795370 0.809255 -0.002662 0.0
3.171784 1.952668 -0.001022 0.0
1.751291 0.147937 0.000097 0.0
1.419897 2.014206 -0.000059 0.0
1.348388 0.196106 0.000418 0.0
4.227863 1.528098 0.000101 0.0
0.801569 1.257809 0.000880 0.0
1.587304 0.758010 -0.001004 0.0
3.496078 0.733867 -0.000747 0.0
4.634628 1.390717 -0.001047 0.0
2.363977 1.498178 -0.000674 0.0
1.433085 1.622573 -0.000658 0.0
3.994228 0.301382 0.002670 0.0
1.971868 1.913994 0.001735 0.0
2.620095 0.345233 0.004267 0.0
4.562895 0.492530 0.001831 0.0
3.151163 0.165396 0.004259 0.0
3.395499 2.059258 -0.000860 0.0
0.409918 0.627561 -0.000265 0.0
2.804065 2.087855 -0.001971 0.0
3.346782 0.347696 -0.000139 0.0
0.485387 0.223683 -0.002367 0.0
1.065103 1.189533 0.000837 0.0
3.524347 2.318831 -0.000038 0.0
1.796973 0.113512 0.000090 0.0
0.524000 1.293634 -0.000204 0.0
1.320217 0.388806 0.000419 0.0
2.798734 0.037948 0.004190 0.0
0.255279 2.357886 0.000186 0.0
1.777919 0.764626 0.001050 0.0
2.507464 0.386506 0.003352 0.0
3.225103 2.281949 0.000959 0.0
2.515884 1.542776 0.000266 0.0
0.217704 0.533356 0.000495 0.0
4.187150 1.364259 0.000848 0.0
4.466092 0.805454 -0.004863 0.0
3.475450 0.350966 -0.003325 0.0
3.063902 0.942572 0.000645 0.0
1.115399 1.048579 0.003639 0.0
4.495862 2.136271 -0.000940 0.0
2.240515 2.051815 -0.000900 0.0
4.194748 2.034148 0.002035 0.0
2.784430 0.519032 -0.004185 0.0
2.244378 1.553716 0.001005 0.0
1.940872 0.557658 0.002448 0.0
1.261369 1.951102 0.001784 0.0
1.588089 0.823268 -0.002439 0.0
3.063509 0.229941 0.000640 0.0
2.906912 0.453232 0.000044 0.0
3.693199 2.107287 0.004476 0.0
0.757909 1.605010 -0.000864 0.0
0.675940 1.910994 0.004674 0.0
1.271775 1.512527 0.000481 0.0
0.382031 1.549544 0.003062 0.0
2.654819 1.030395 0.003875 0.0
2.293966 2.405659 -0.000680 0.0
2.418290 2.116284 0.001984 0.0
2.101542 1.304205 -0.000718 0.0
1.508520 1.010309 -0.000171 0.0
0.098309 1.745156 -0.002604 0.0
3.199779 0.973770 -0.002710 0.0
2.690864 1.574439 -0.002038 0.0
3.885552 2.094519 -0.005893 0.0
3.118756 1.510590 0.002509 0.0
1.211332 1.612257 -0.002343 0.0
2.469981 0.885680 -0.001614 0.0
3.715262 2.079805 0.000555 0.0
2.559638 2.361257 -0.003402 0.0
0.039506 1.033664 -0.004134 0.0
2.872931 0.513728 -0.003146 0.0
3.089055 2.243865 0.000585 0.0
0.385184 1.551250 0.001986 0.0
3.408287 1.586007 0.000948 0.0
0.854598 0.223120 -0.002226 0.0
4.479472 1.635206 0.001651 0.0
3.014287 1.937573 -0.003568 0.0
1.068807 1.293019 -0.003290 0.0
3.193188 1.055746 -0.000958 0.0
4.177732 2.439783 -0.001041 0.0
2.217090 2.290819 -0.000028 0.0
3.730400 1.225936 -0.002153 0.0
2.329097 0.871258 0.003962 0.0
0.246696 0.378260 -0.003629 0.0
2.727789 0.489718 -0.000363 0.0
4.544820 1.195268 -0.004467 0.0
4.342171 1.989752 0.002942 0.0
4.636906 2.177104 -0.003769 0.0
1.311583 0.605955 0.000014 0.0
2.538876 0.696944 0.001274 0.0
3.932730 1.546839 -0.000208 0.0
2.943006 0.682265 0.003326 0.0
0.078047 1.411424 0.004350 0.0
4.092058 1.818386 -0.000501 0.0
2.293189 1.197752 -0.000790 0.0
4.091985 0.691242 0.000820 0.0
0.717974 1.876565 0.000589 0.0
0.435770 1.938049 -0.004061 0.0
1.010435 1.440795 -0.000409 0.0
3.651935 0.880618 0.002254 0.0
3.871760 1.764700 0.002600 0.0
1.038839 0.913428 -0.001431 0.0
1.046152 2.415799 -0.000286 0.0
2.838500 1.976279 0.004414 0.0
4.017130 1.133746 -0.001304 0.0
1.144345 0.592009 0.002231 0.0
0.326404 1.440386 0.000105 0.0
0.914745 1.337638 -0.000051 0.0
0.706668 2.192213 0.001581 0.0
3.728777 0.658591 0.002916 0.0
4.637013 1.851166 -0.003670 0.0
0.261141 1.413450 0.000529 0.0
0.096948 1.262990 0.000937 0.0
2.702020 0.487838 -0.002311 0.0
3.533243 0.278701 0.002193 0.0
0.678588 1.012858 -0.000277 0.0
2.015517 1.741253 -0.002977 0.0
0.998541 1.139326 0.001302 0.0
2.698052 0.272434 0.001290 0.0
0.349681 0.285917 0.002336 0.0
1.007588 0.353872 -0.001151 0.0
0.294347 0.319814 -0.003318 0.0
0.007129 1.249077 0.002814 0.0
1.568411 0.297943 0.003961 0.0
3.664178 0.253731 0.000716 0.0
2.108184 1.810625 0.000044 0.0
4.055484 0.541297 -0.000825 0.0
2.208460 0.314049 -0.001713 0.0
4.245913 1.964400 0.003408 0.0
0.567111 0.661562 -0.004928 0.0
3.126775 1.408484 -0.002718 0.0
0.880257 2.269616 0.002353 0.0
2.576083 2.151456 0.004384 0.0
2.951281 1.715154 -0.002584 0.0
4.392529 0.942077 0.003264 0.0
1.131373 0.434169 -0.001794 0.0
3.760403 2.214506 -0.001216 0.0
2.799902 1.484407 0.001581 0.0
4.097298 1.212689 -0.001701 0.0
2.609278 0.905442 0.000641 0.0
3.777202 0.100886 0.000010 0.0
4.009618 1.989703 0.002702 0.0
0.629006 2.089428 0.003194 0.0
0.105983 0.117677 0.004683 0.0
0.863977 2.151766 0.002307 0.0
3.017318 0.911132 -0.001084 0.0
3.870084 0.280450 0.000995 0.0
0.171524 1.820502 0.004491 0.0
4.064405 0.015616 0.000312 0.0
3.563260 1.401670 0.001640 0.0
0.161851 1.630706 -0.006605 0.0
1.741432 1.171439 -0.001253 0.0
0.698100 0.867544 -0.000430 0.0
1.361657 2.098139 -0.001250 0.0
1.700272 0.912244 0.001522 0.0
0.455156 1.406769 -0.003843 0.0
0.228322 0.845673 0.001380 0.0
3.946208 0.114905 -0.002129 0.0
3.618973 1.795169 0.002311 0.0
4.325451 1.480511 0.002361 0.0
4.451362 1.096838 0.003362 0.0
4.091721 0.072338 -0.004743 0.0
0.714134 1.288512 0.000685 0.0
1.987670 0.286208 0.001008 0.0
4.623029 0.477207 -0.000202 0.0
1.998307 0.310700 -0.004559 0.0
0.269347 0.632170 -0.001033 0.0
3.102624 2.134468 0.000015 0.0
1.948679 1.867044 -0.001413 0.0
4.661033 0.199050 0.000131 0.0
0.586994 1.975116 0.001379 0.0
0.252232 2.212300 0.000855 0.0
0.587673 1.351531 0.003625 0.0
3.516096 0.460996 0.000831 0.0
2.417035 1.041216 -0.001782 0.0
1.899042 0.281275 -0.002039 0.0
3.795670 0.404051 0.000871 0.0
2.929139 1.679574 0.006553 0.0
1.386801 1.199359 0.003307 0.0
1.700815 1.459587 0.000283 0.0
3.422443 0.219285 -0.001068 0.0
0.718705 1.541663 0.001223 0.0
4.145951 0.508849 -0.003041 0.0
0.104013 0.258439 -0.002710 0.0
3.795413 0.525369 0.003171 0.0
1.361860 0.794328 0.001241 0.0
1.977220 1.755564 -0.002635 0.0
3.701909 1.619522 0.000366 0.0
3.701649 0.337922 0.001773 0.0
2.091619 0.337133 -0.002963 0.0
4.376029 1.892118 0.004919 0.0
1.794738 1.681809 0.002233 0.0
3.668158 0.041210 -0.001196 0.0
1.244612 1.391525 0.004113 0.0
3.259413 1.350455 -0.005256 0.0
2.567584 0.639753 0.000465 0.0
1.020692 1.880736 -0.004251 0.0
3.988301 2.061889 -0.002029 0.0
0.763074 0.282272 0.000480 0.0
4.162843 0.848159 0.002222 0.0
2.465264 0.427303 -0.002829 0.0
4.047470 1.584600 -0.002724 0.0
0.969069 2.331800 0.004956 0.0
2.977031 1.583855 -0.003476 0.0
3.199822 0.745247 -0.004548 0.0
1.972719 1.694298 0.004445 0.0
2.098001 0.026664 -0.000972 0.0
0.265232 0.776270 -0.001230 0.0
4.218678 0.275807 0.002895 0.0
1.411339 0.829070 -0.000083 0.0
4.573762 0.387046 -0.005327 0.0
2.191142 2.326764 -0.005011 0.0
1.732931 -0.002022 -0.000313 0.0
1.961829 0.384348 -0.007881 0.0
3.151238 1.013394 0.001369 0.0
2.999989 1.663859 0.003687 0.0
3.135128 2.420085 0.003669 0.0
2.590549 0.755309 -0.003121 0.0
1.114231 0.653693 -0.001750 0.0
2.351882 1.040639 0.003707 0.0
3.639527 1.659730 0.000627 0.0
1.692536 1.892660 0.001724 0.0
3.703526 0.870356 0.000310 0.0
3.932833 1.791750 0.000078 0.0
2.902474 0.645610 -0.001411 0.0
2.382825 1.489075 -0.002957 0.0
0.187963 1.508068 -0.003092 0.0
4.102303 0.968766 -0.000631 0.0
1.544021 1.879379 -0.000045 0.0
1.613689 1.388376 0.001571 0.0
3.295639 0.314242 0.005640 0.0
2.378100 2.347779 -0.000198 0.0
3.917315 0.617678 0.001560 0.0
0.639599 1.776700 0.003408 0.0
2.188950 1.915763 0.001703 0.0
2.353433 1.195359 -0.007669 0.0
4.256845 0.481660 0.003012 0.0
3.079516 0.390507 0.001075 0.0
1.528043 1.093928 0.001166 0.0
3.791387 2.324485 0.001284 0.0
1.689353 1.416398 0.001466 0.0
1.494254 0.756637 -0.000589 0.0
2.063514 0.585985 -0.004640 0.0
3.135388 1.209825 0.001832 0.0
0.790987 0.654824 -0.001681 0.0
4.485681 0.324686 0.000697 0.0
1.836266 1.582361 0.003496 0.0
1.205162 1.296283 -0.002524 0.0
3.864990 1.967319 -0.003623 0.0
3.026739 1.214163 0.003683 0.0
3.537176 0.351351 -0.001778 0.0
2.801905 1.372305 0.002787 0.0
1.841956 1.547566 -0.002164 0.0
0.456749 0.465975 0.004319 0.0
4.165978 0.296572 0.003888 0.0
1.806760 0.379258 -0.004365 0.0
4.323605 0.399594 -0.001520 0.0
2.869954 0.875877 -0.002838 0.0
2.156335 0.300860 -0.002025 0.0
1.551251 1.100085 0.000274 0.0
1.591358 1.451585 0.000394 0.0
3.193947 0.113046 -0.001458 0.0
3.270133 1.442139 -0.001454 0.0
3.489728 0.035808 0.001564 0.0
2.938719 1.453824 -0.000374 0.0
0.169738 2.005233 0.002062 0.0
4.668594 0.968883 0.004257 0.0
0.241453 1.775011 -0.003756 0.0
4.089734 1.373281 0.001673 0.0
3.592474 0.138575 -0.001960 0.0
2.276358 0.734118 0.000883 0.0
2.955652 0.227781 -0.002485 0.0
0.388661 1.847485 0.001750 0.0
3.751477 1.005888 -0.001525 0.0
3.119903 1.432720 0.001641 0.0
2.750136 1.898829 -0.000503 0.0
2.416155 1.871466 0.000880 0.0
1.234341 0.451619 -0.001341 0.0
1.275293 0.545177 -0.000640 0.0
3.927028 1.326419 -0.002847 0.0
2.825796 1.613729 0.002608 0.0
4.361055 0.006446 -0.002723 0.0
4.638114 1.632002 0.001992 0.0
1.072591 2.148849 0.002111 0.0
4.074411 1.546127 -0.002699 0.0
3.009820 0.360280 0.002950 0.0
1.124375 1.056601 -0.001402 0.0
3.880823 1.206511 0.003440 0.0
1.755408 0.446735 -0.000805 0.0
3.137647 1.085170 0.001522 0.0
3.018581 1.680248 -0.003202 0.0
2.723490 1.506599 0.001777 0.0
1.021042 2.311719 -0.000521 0.0
0.286501 0.438827 0.001703 0.0
0.708500 0.748073 0.000272 0.0
1.876591 1.615823 -0.001663 0.0
2.125139 0.531582 0.000095 0.0
1.478187 1.643584 0.001667 0.0
0.291067 0.826371 -0.000205 0.0
0.238774 1.782358 -0.000309 0.0
0.194715 0.731259 0.001265 0.0
1.008330 1.735632 -0.002718 0.0
2.445365 0.081657 -0.000472 0.0
3.820494 0.782588 -0.005708 0.0
0.707018 1.733279 -0.000354 0.0
3.829285 0.185786 -0.002496 0.0
3.431405 0.389936 -0.002080 0.0
2.984126 0.042996 0.001430 0.0
1.255525 1.331461 0.000964 0.0
3.573784 1.092593 0.000682 0.0
1.734854 1.485711 -0.003105 0.0
1.685100 1.568501 0.002816 0.0
3.673042 1.696383 -0.003104 0.0
3.523750 1.674834 -0.003498 0.0
1.106462 1.582762 0.000745 0.0
4.637567 0.236603 0.000449 0.0
1.314942 0.339484 -0.002343 0.0
0.542320 2.382400 0.003545 0.0
4.189789 1.312917 0.001697 0.0
2.610154 1.557130 -0.003386 0.0
4.102410 0.409169 -0.001644 0.0
1.598199 2.429128 -0.002010 0.0
3.100431 0.038526 -0.002636 0.0
0.152847 0.219643 0.001607 0.0
4.230681 0.763873 -0.003853 0.0
2.170907 0.363626 -0.002774 0.0
2.532363 1.445258 -0.000079 0.0
3.472381 1.947977 -0.001278 0.0
2.744367 0.396049 -0.001404 0.0
2.768059 1.008352 0.000701 0.0
2.782005 2.341277 -0.001461 0.0
3.317541 1.039435 0.003874 0.0
0.421006 0.808450 -0.000773 0.0
0.351781 1.008008 0.001406 0.0
4.267738 0.204776 -0.003215 0.0
0.873567 0.544829 0.001431 0.0
4.099241 0.199501 -0.002078 0.0
0.455849 1.514630 -0.002702 0.0
2.205497 0.215127 0.000865 0.0
1.316983 1.225500 -0.000153 0.0
2.798900 0.667486 -0.002863 0.0
2.866209 0.060477 -0.002401 0.0
0.271032 1.535205 -0.004035 0.0
2.669709 0.394589 0.002600 0.0
1.442675 1.838840 0.001051 0.0
0.775453 0.384799 -0.002318 0.0
4.210925 0.349816 0.000264 0.0
1.241525 2.161655 0.001733 0.0
2.404121 1.256424 0.000183 0.0
0.592835 0.130141 0.003497 0.0
2.106719 1.756002 -0.001410 0.0
3.369496 1.421740 -0.001362 0.0
2.807318 0.904397 0.000424 0.0
2.270029 0.491490 -0.002208 0.0
4.293848 0.296110 -0.000358 0.0
2.188643 2.418410 0.004055 0.0
0.140476 0.313408 0.000990 0.0
2.878215 0.848051 0.003110 0.0
1.100918 0.960568 -0.002527 0.0
1.327969 2.210201 0.000547 0.0
3.732441 0.978772 0.003335 0.0
3.204840 1.814615 -0.000427 0.0
3.434116 2.329562 0.003086 0.0
2.649695 2.399987 -0.002508 0.0
0.166957 2.354239 0.001578 0.0
4.484482 1.645424 0.000518 0.0
0.165161 1.901693 -0.002361 0.0
1.885486 2.436691 -0.004348 0.0
3.559323 1.120741 -0.004331 0.0
2.720196 1.430615 -0.001057 0.0
1.830665 1.780291 0.003898 0.0
1.979079 1.880656 -0.002234 0.0
0.875808 2.239406 0.001190 0.0
3.082932 1.638945 0.002006 0.0
1.722282 1.501362 0.006355 0.0
2.857833 2.405635 -0.001390 0.0
0.775608 1.875678 0.002321 0.0
0.904175 0.733887 -0.000074 0.0
1.373157 0.442067 -0.004541 0.0
3.775490 0.837712 -0.001367 0.0
3.157138 2.029651 0.000306 0.0
2.023221 0.174639 -0.000240 0.0
3.672814 1.943844 0.002910 0.0
4.618281 0.180181 -0.000267 0.0
3.634978 2.210531 0.000310 0.0
3.249554 2.396176 -0.000032 0.0
1.915838 1.788591 0.007173 0.0
2.718301 0.099578 -0.005295 0.0
2.632597 0.403635 -0.001691 0.0
3.368273 1.957432 -0.001181 0.0
1.862485 1.023489 -0.000493 0.0
3.957353 0.385421 -0.001075 0.0
2.458802 0.327953 0.001975 0.0
1.977913 0.033127 -0.002001 0.0
3.073252 0.594684 -0.000593 0.0
0.218666 2.256341 -0.000644 0.0
1.982868 0.102145 -0.000999 0.0
1.890827 1.670344 -0.003402 0.0
1.381197 2.288232 -0.002399 0.0
1.121770 2.372437 0.000314 0.0
3.139049 1.723987 0.000308 0.0
3.822299 0.889189 0.004678 0.0
1.126879 2.112554 0.002172 0.0
0.030137 0.040359 0.001850 0.0
4.462713 1.572893 -0.001309 0.0
0.826918 0.704980 0.000596 0.0
0.630966 1.100104 -0.005118 0.0
1.446175 2.123000 -0.001979 0.0
4.549895 0.839932 -0.002817 0.0
3.325152 1.871897 -0.000239 0.0
0.442385 1.207359 0.000951 0.0
2.957733 0.352607 0.002267 0.0
4.283576 1.311696 0.002786 0.0
0.187591 0.382249 0.001852 0.0
4.160522 0.068243 -0.001037 0.0
1.479690 0.046869 0.004435 0.0
2.018071 0.857924 -0.004562 0.0
3.315279 1.948532 0.001215 0.0
0.697158 2.027764 0.003476 0.0
2.019483 1.979999 -0.000317 0.0
4.575343 1.092473 0.000159 0.0
3.420211 0.468270 -0.004006 0.0
4.396497 2.310045 0.003401 0.0
1.511910 1.189926 -0.005421 0.0
4.434068 0.278329 0.001397 0.0
3.100084 1.428064 -0.000006 0.0
4.287006 0.871263 0.002613 0.0
3.776909 2.155048 0.000713 0.0
3.633128 1.264485 -0.003583 0.0
2.906796 0.280779 0.000893 0.0
4.448876 0.596185 -0.004748 0.0
4.120276 2.413433 0.000396 0.0
4.054087 2.023665 -0.000450 0.0
1.533560 1.529344 -0.003407 0.0
1.172941 2.369816 -0.004501 0.0
1.626505 1.075824 0.000257 0.0
1.607661 0.701385 0.000598 0.0
0.554405 1.607660 -0.002617 0.0
1.515354 1.232607 0.003004 0.0
0.317638 1.543071 -0.000859 0.0
0.275527 1.001832 0.000487 0.0
1.999783 0.600035 0.003101 0.0
0.385314 0.930065 -0.000815 0.0
1.415018 1.254651 0.002541 0.0
2.646133 0.518735 -0.000863 0.0
2.144051 1.695770 -0.000014 0.0
0.398260 1.982771 -0.005073 0.0
1.924653 0.315133 0.002835 0.0
1.066098 1.595216 -0.002422 0.0
0.900276 1.449143 -0.001393 0.0
3.929889 1.950212 0.001903 0.0
1.501324 1.913485 0.000387 0.0
0.891445 0.323714 -0.004640 0.0
3.476120 1.536595 0.000148 0.0
1.016467 2.157110 -0.005076 0.0
3.562896 2.152043 -0.002936 0.0
3.817338 0.384813 -0.000465 0.0
2.214248 2.427895 0.006186 0.0
3.103862 1.028520 0.000903 0.0
3.538347 1.272656 0.000265 0.0
0.100136 0.486763 0.002211 0.0
2.293554 1.169693 0.001114 0.0
3.507379 0.684144 0.000533 0.0
1.128044 0.653530 0.000156 0.0
3.872683 0.004385 0.003941 0.0
3.618898 1.293986 0.000434 0.0
1.453719 2.158294 -0.003912 0.0
0.019677 1.236963 -0.001293 0.0
3.232457 1.511705 -0.001360 0.0
2.093038 0.303276 -0.002077 0.0
0.369797 1.547376 0.005135 0.0
3.892163 1.403847 -0.000925 0.0
0.771448 1.327083 0.000988 0.0
2.342986 0.186207 0.001958 0.0
1.383901 2.034259 -0.001049 0.0
1.188921 2.330710 -0.000848 0.0
2.602208 1.891725 -0.003361 0.0
0.181499 0.973797 0.000681 0.0
1.525245 0.961395 -0.001038 0.0
0.570776 0.205990 -0.000706 0.0
3.177292 1.735253 -0.001254 0.0
1.692415 1.607847 -0.000082 0.0
1.977540 0.234015 -0.002476 0.0
2.565231 2.381108 -0.001245 0.0
0.535244 2.048058 -0.000731 0.0
3.062320 2.021433 0.002188 0.0
3.668778 1.913683 -0.001526 0.0
3.187131 1.526968 0.000983 0.0
2.486922 0.446552 0.001157 0.0
3.891327 1.583345 -0.005323 0.0
1.834965 1.531456 -0.000621 0.0
1.021429 0.701692 0.003529 0.0
3.727765 1.115815 -0.000942 0.0
4.399774 1.901064 0.002074 0.0
3.743292 1.989184 -0.001081 0.0
2.831682 0.208679 -0.001404 0.0
2.680833 0.959857 0.000251 0.0
1.708522 0.255678 -0.002875 0.0
3.380270 1.207246 0.002886 0.0
4.088184 2.193723 -0.000647 0.0
1.465024 1.109076 0.006668 0.0
0.752237 1.898900 0.000814 0.0
4.128670 2.009006 -0.001735 0.0
4.627978 2.318481 -0.001819 0.0
0.383251 0.551853 0.000893 0.0
1.656627 1.336680 0.001905 0.0
4.259140 1.039115 -0.001965 0.0
0.179248 1.268415 0.001353 0.0
4.460972 2.033504 0.002409 0.0
1.421034 1.437662 0.001887 0.0
0.246506 1.791947 -0.000012 0.0
1.255150 1.122544 0.002716 0.0
1.798085 2.303569 0.000455 0.0
0.243081 2.059022 -0.002636 0.0
1.475954 0.474841 0.000434 0.0
4.429376 1.330045 -0.000527 0.0
1.711074 1.268395 -0.002642 0.0
2.398905 0.929370 0.000104 0.0
2.412760 2.331024 0.002842 0.0
2.022400 1.273132 -0.003600 0.0
4.030711 1.729594 0.000131 0.0
3.864748 1.400770 0.004220 0.0
0.053540 2.369819 0.002986 0.0
3.770457 0.794343 0.000645 0.0
1.577552 2.185418 -0.003547 0.0
0.494581 0.404500 -0.000080 0.0
0.931574 2.443435 -0.004682 0.0
2.966805 0.557834 0.001243 0.0
3.847576 2.368674 0.004736 0.0
2.993807 1.170661 0.001469 0.0
4.656504 1.279178 -0.001627 0.0
4.200836 1.603922 0.003042 0.0
1.117502 1.596748 -0.000630 0.0
0.241927 2.189020 -0.002359 0.0
3.581880 0.384954 0.001760 0.0
4.026267 0.077421 -0.002223 0.0
2.836428 0.693691 0.001857 0.0
0.013865 0.414974 -0.003159 0.0
1.391030 0.814980 -0.003850 0.0
3.807542 2.355337 -0.001501 0.0
0.666648 2.196061 -0.000022 0.0
3.884060 1.663822 0.001473 0.0
1.959478 2.043369 0.004889 0.0
3.117561 0.546040 0.003061 0.0
0.146678 0.351620 -0.002067 0.0
3.425523 2.162870 -0.002232 0.0
1.054783 0.488086 0.000283 0.0
1.373099 2.259780 0.002345 0.0
4.192556 0.209835 -0.002283 0.0
2.936747 2.023062 0.003313 0.0
2.307406 1.512800 0.000119 0.0
2.842154 0.302709 -0.000932 0.0
3.363920 0.165329 0.005998 0.0
1.543631 2.299965 -0.000125 0.0
0.591423 0.868004 -0.001407 0.0
2.344161 2.084238 -0.001132 0.0
1.826695 1.679194 0.001547 0.0
1.946884 2.325247 -0.003319 0.0
4.098555 0.983913 -0.002075 0.0
2.410511 0.918006 0.000550 0.0
4.403595 1.405304 0.003517 0.0
0.558524 1.548471 -0.004211 0.0
4.498618 0.065565 0.000746 0.0
3.765633 1.628099 0.004371 0.0
0.418046 1.274406 -0.001940 0.0
2.054651 1.642918 0.005689 0.0
1.994874 1.408873 0.001252 0.0
3.639036 2.139649 0.001212 0.0
1.008425 1.029613 0.001242 0.0
0.525134 2.100737 0.000510 0.0
4.345621 0.247308 0.003371 0.0
1.652298 2.319165 -0.000585 0.0
2.487621 0.578331 -0.000732 0.0
3.980198 0.241192 0.002907 0.0
3.188396 1.486830 -0.001094 0.0
1.913868 0.244866 0.001673 0.0
0.707731 0.514257 0.003384 0.0
0.071841 0.791933 0.002480 0.0
2.597172 1.084804 0.001490 0.0
0.094649 0.694576 -0.001057 0.0
1.985226 0.811198 0.000864 0.0
2.468905 1.391681 0.001554 0.0
3.491009 2.146636 0.001629 0.0
4.122838 0.801235 -0.003965 0.0
3.415640 0.698574 0.005651 0.0
3.199690 0.874952 0.001125 0.0
1.470263 0.602313 -0.001266 0.0
0.756303 2.375422 0.000371 0.0
4.226037 1.468501 0.004070 0.0
1.152486 2.237453 0.001698 0.0
2.283471 0.043654 -0.000062 0.0
1.071199 0.076579 -0.000648 0.0
2.785007 0.009234 0.002377 0.0
3.794388 2.365082 -0.000466 0.0
3.866803 2.007365 0.003978 0.0
1.846980 0.565767 0.003964 0.0
2.543348 1.870370 0.002754 0.0
2.841270 2.199214 -0.002720 0.0
0.428833 0.115398 -0.002943 0.0
0.118997 1.329343 -0.001526 0.0
3.773778 0.757655 0.001583 0.0
1.205007 0.129380 0.001472 0.0
1.729529 1.753193 0.002157 0.0
0.954177 1.167886 -0.001115 0.0
3.137169 1.749097 -0.000112 0.0
1.024518 1.184493 0.001449 0.0
4.369817 2.323748 0.000230 0.0
4.020436 0.866607 -0.001101 0.0
0.960632 0.320376 -0.000547 0.0
0.675252 0.932202 0.001521 0.0
3.216249 1.497180 -0.000111 0.0
2.096669 1.536491 -0.002256 0.0
4.524131 0.046259 -0.001338 0.0
4.650382 1.015866 -0.003050 0.0
2.672055 0.030074 -0.004122 0.0
4.192811 1.715910 -0.001003 0.0
0.448657 2.412008 0.000331 0.0
0.502521 1.397273 -0.003668 0.0
2.493392 2.161573 0.001140 0.0
0.635147 1.221733 -0.002719 0.0
4.093795 2.229431 0.001172 0.0
2.895523 0.722675 0.002417 0.0
2.979424 1.525074 -0.006789 0.0
1.755840 1.395424 0.003201 0.0
4.121871 2.198587 -0.000187 0.0
0.718929 2.406505 -0.002826 0.0
0.326321 0.533262 -0.000267 0.0
1.407871 0.386352 -0.000606 0.0
0.107350 0.589393 -0.000155 0.0
3.009933 2.191036 -0.003274 0.0
2.836122 2.358321 0.002820 0.0
0.752856 2.247988 -0.001244 0.0
1.270772 1.820649 -0.002426 0.0
3.782675 0.547102 -0.001793 0.0
0.970100 0.137708 0.001990 0.0
0.514259 0.617544 0.001951 0.0
2.305849 1.658347 -0.005590 0.0
0.905322 1.002793 -0.005151 0.0
0.992472 2.403947 0.001794 0.0
4.430236 0.612105 -0.001202 0.0
4.625802 2.009529 0.001220 0.0
2.125766 0.005222 -0.001847 0.0
2.376307 0.677360 0.000568 0.0
0.446100 1.759173 -0.001041 0.0
3.029030 0.149446 0.002260 0.0
3.698413 2.257758 -0.000306 0.0
1.605876 2.257132 0.000813 0.0
2.402481 0.655139 0.001293 0.0
3.285382 0.400813 -0.003717 0.0
3.222833 -0.000858 -0.002527 0.0
2.498617 0.962227 -0.001631 0.0
4.472477 1.739424 -0.000706 0.0
3.934623 0.608416 -0.003644 0.0
3.118931 0.465410 -0.002878 0.0
4.376532 0.093489 0.000377 0.0
1.673218 0.582006 0.002067 0.0
4.188409 1.282810 -0.001800 0.0
2.117157 0.576888 -0.002255 0.0
3.010929 1.851495 -0.002165 0.0
2.608476 2.416602 0.001292 0.0
2.043450 2.279912 0.002209 0.0
3.447819 0.182796 0.000094 0.0
1.390521 1.561029 -0.002703 0.0
3.434091 1.145663 0.001819 0.0
0.141000 2.228886 -0.001565 0.0
0.878091 2.210108 -0.001095 0.0
3.889211 0.770385 0.002959 0.0
2.044616 2.072522 0.001984 0.0
4.200562 0.309681 -0.000437 0.0
1.594986 0.112407 -0.005441 0.0
3.488756 1.934679 0.000302 0.0
4.417460 0.071652 -0.004042 0.0
3.709024 1.916557 -0.000841 0.0
2.492249 2.176202 -0.001224 0.0
1.350337 2.056304 0.001811 0.0
0.260333 2.342691 -0.002126 0.0
1.920606 1.658619 0.001735 0.0
0.267582 2.113413 -0.000687 0.0
2.926435 1.769430 0.000102 0.0
0.421169 1.419301 0.000632 0.0
2.616480 1.674095 -0.002352 0.0
4.097208 0.982946 0.002178 0.0
1.916347 0.561734 0.002262 0.0
2.189928 2.148098 0.001153 0.0
4.471566 0.765413 0.000766 0.0
0.165868 0.351230 0.001899 0.0
2.289632 2.231088 0.002081 0.0
0.287443 1.391548 -0.000834 0.0
2.924541 0.271856 -0.001016 0.0
2.834868 0.829656 -0.001073 0.0
3.740449 1.688271 0.004198 0.0
4.516823 0.808602 0.000902 0.0
0.278493 0.825524 0.003943 0.0
3.755866 0.427965 0.000846 0.0
0.076612 1.231916 -0.001085 0.0
0.556123 1.991986 -0.000725 0.0
1.716845 2.062180 0.002294 0.0
1.748120 1.486568 0.000949 0.0
2.998286 1.789464 -0.002733 0.0
1.203409 0.970635 0.000488 0.0
3.735138 1.858526 -0.000605 0.0
3.361637 0.318360 -0.000898 0.0
3.199589 2.009996 0.002689 0.0
3.496521 1.741269 0.001078 0.0
4.610657 0.060014 -0.002109 0.0
0.179673 1.273786 0.001043 0.0
0.259127 1.615662 0.002835 0.0
3.555044 2.334258 0.002731 0.0
4.103815 1.649858 0.001587 0.0
4.562612 1.316082 -0.002194 0.0
3.516918 0.244993 0.001320 0.0
3.362446 2.407010 -0.000067 0.0
1.939724 2.090423 0.001835 0.0
2.818613 0.457091 -0.005182 0.0
2.827950 1.988520 0.000080 0.0
2.914032 0.815244 0.000536 0.0
2.071198 2.341164 0.002385 0.0
3.149157 2.010787 0.000482 0.0
3.390205 1.065588 -0.001947 0.0
0.395290 2.136633 -0.003814 0.0
2.477326 2.257936 0.002018 0.0
2.006596 0.848476 -0.002897 0.0
0.194732 2.322230 -0.000174 0.0
4.171031 2.068647 -0.003242 0.0
3.585018 0.958576 -0.000437 0.0
1.869885 0.203465 0.003539 0.0
2.285654 1.592579 -0.002217 0.0
0.849061 0.652359 -0.000001 0.0
3.395665 2.297016 0.000600 0.0
4.575463 1.616112 -0.000718 0.0
2.299085 2.118021 0.001229 0.0
1.149165 1.819269 -0.000531 0.0
2.759843 2.303138 0.002325 0.0
3.996049 0.555185 0.001042 0.0
3.213670 1.481398 0.003074 0.0
0.362378 0.807910 0.000160 0.0
0.420882 0.843792 -0.000874 0.0
2.251911 1.732025 -0.000748 0.0
1.195105 0.009034 0.001512 0.0
4.097740 1.570059 0.001532 0.0
1.675897 1.548852 -0.002496 0.0
3.791434 0.885098 0.002681 0.0
2.277342 0.288438 -0.002264 0.0
2.861181 1.862612 -0.001879 0.0
3.472145 0.417879 0.002479 0.0
0.552565 1.483956 0.000439 0.0
2.230161 2.273830 0.002182 0.0
1.824476 0.001498 -0.003196 0.0
3.680481 2.046182 0.000759 0.0
2.285260 1.039147 -0.001757 0.0
4.260726 0.035372 0.001665 0.0
3.457609 0.733135 0.004557 0.0
1.168984 2.415733 -0.003456 0.0
0.946444 0.206425 -0.001802 0.0
2.737966 2.154338 -0.001075 0.0
3.226401 0.959294 0.002654 0.0
3.636404 1.880708 -0.003489 0.0
1.734970 1.888991 0.004497 0.0
0.365958 0.097250 -0.000051 0.0
0.537364 2.058014 -0.004074 0.0
2.560984 0.034704 -0.001126 0.0
1.418045 1.253619 0.005461 0.0
4.332396 0.754548 0.000411 0.0
2.911421 2.280531 0.003690 0.0
2.624830 2.039427 0.004240 0.0
3.255502 1.758923 -0.004166 0.0
4.149387 0.190762 0.001170 0.0
1.502612 0.988400 0.001836 0.0
0.211933 0.559903 -0.001000 0.0
4.582161 0.101428 0.000633 0.0
4.438087 2.041615 -0.000378 0.0
0.382016 0.411344 0.001108 0.0
3.858935 0.729370 -0.002829 0.0
4.492042 0.606548 -0.001300 0.0
3.331032 1.285636 -0.002099 0.0
3.035477 0.756491 -0.001716 0.0
0.611562 1.346250 -0.000522 0.0
1.232099 2.073648 -0.000011 0.0
3.344014 0.903635 -0.000607 0.0
0.958380 1.424570 0.003627 0.0
3.771501 0.709915 0.000695 0.0
1.930991 0.973553 0.001073 0.0
4.380901 0.464679 -0.001119 0.0
0.536314 1.323984 -0.001325 0.0
1.513728 0.609904 0.001039 0.0
2.398675 0.103827 0.001497 0.0
1.416884 1.301049 -0.005717 0.0
2.990845 0.298409 -0.000152 0.0
3.756746 2.098282 -0.004355 0.0
3.402288 2.110891 0.002141 0.0
2.505363 1.126401 -0.002673 0.0
2.844761 1.061609 0.000551 0.0
0.063674 0.967329 0.000454 0.0
2.248003 0.673074 -0.001508 0.0
0.055670 0.866205 0.001861 0.0
3.426894 1.283386 0.006323 0.0
0.218810 0.435728 0.002607 0.0
1.730949 2.236587 0.001809 0.0
4.307079 0.556306 0.001909 0.0
3.842197 2.225946 -0.000712 0.0
2.506395 1.012225 -0.001029 0.0
1.813280 0.224474 0.002174 0.0
0.483857 0.197145 -0.002079 0.0
3.412649 1.749217 0.002410 0.0
0.975295 0.373749 -0.000540 0.0
1.623140 2.341184 0.000908 0.0
2.203319 0.767705 -0.002297 0.0
3.633577 1.652760 -0.000383 0.0
4.253150 2.175374 -0.001353 0.0
0.246694 1.296536 -0.000654 0.0
1.354955 1.130370 0.003985 0.0
0.083775 0.022398 -0.001610 0.0
2.358093 0.275744 -0.001554 0.0
3.927455 0.490634 -0.001629 0.0
4.569964 1.699872 0.000970 0.0
4.658811 2.275479 -0.002982 0.0
1.768284 0.489243 -0.002970 0.0
0.777327 0.723989 0.003535 0.0
0.771604 1.208459 -0.001346 0.0
0.441309 2.175169 0.002095 0.0
3.570786 1.528978 0.000364 0.0
1.014859 1.724737 -0.000259 0.0
2.221283 0.239335 -0.001883 0.0
1.957670 0.916449 0.001865 0.0
0.724864 0.067431 -0.000158 0.0
2.578761 1.474159 -0.004371 0.0
0.507398 0.949270 0.003713 0.0
1.723892 0.251936 -0.001075 0.0
1.108558 2.276897 0.000461 0.0
0.214674 0.071407 -0.002779 0.0
4.217301 0.164187 0.002066 0.0
4.401330 2.213326 0.002015 0.0
3.273230 1.480936 -0.002772 0.0
3.883526 0.875477 -0.001420 0.0
3.603121 1.771783 -0.001593 0.0
3.825428 1.850508 0.000044 0.0
3.376493 2.217037 -0.001374 0.0
4.027789 0.790440 -0.005116 0.0
2.230279 1.650477 -0.000301 0.0
0.687863 0.732994 0.001055 0.0
2.580210 1.433441 -0.000875 0.0
2.548858 1.162531 -0.002142 0.0
4.211848 0.564291 0.002438 0.0
2.494384 0.311098 0.000978 0.0
2.593188 1.264322 0.000310 0.0
4.359323 0.880062 -0.001072 0.0
3.781890 2.245218 -0.000623 0.0
4.206904 1.337811 -0.001366 0.0
0.734605 1.540560 0.003373 0.0
0.119126 0.135077 0.003530 0.0
3.545433 0.662975 -0.003686 0.0
4.017045 1.179041 -0.003289 0.0
1.277697 1.326500 -0.001797 0.0
3.540548 0.856350 0.002905 0.0
1.503099 1.526368 0.004852 0.0
2.607797 1.713035 -0.002222 0.0
1.955991 0.120078 0.000052 0.0
0.737010 1.693683 -0.001850 0.0
3.035056 1.288798 -0.004308 0.0
0.683247 2.027050 0.002413 0.0
0.515444 0.626848 -0.000262 0.0
0.086943 1.372797 0.000790 0.0
1.571844 1.667830 0.001470 0.0
0.466429 0.989861 -0.000599 0.0
3.505614 1.751251 -0.000284 0.0
2.040832 0.449946 0.001561 0.0
1.060565 0.704028 0.004186 0.0
2.957867 1.674355 -0.002870 0.0
0.881412 1.557106 -0.001139 0.0
1.875103 0.007943 -0.001735 0.0
0.434335 1.483978 -0.000452 0.0
1.401007 1.209516 0.000504 0.0
2.142493 1.974250 -0.001129 0.0
2.180937 2.365312 0.005162 0.0
3.112263 1.762907 0.004530 0.0
4.184914 1.991911 -0.000859 0.0
3.312159 2.395262 -0.000614 0.0
4.033760 0.546487 0.001452 0.0
2.979562 0.934615 -0.000305 0.0
0.193818 2.392114 -0.001807 0.0
1.731814 0.117806 0.000987 0.0
3.769428 0.540419 0.000061 0.0
3.166918 1.439548 -0.001880 0.0
4.496134 1.312773 0.004343 0.0
1.470468 2.193876 0.002920 0.0
1.099621 1.056174 0.000495 0.0
0.313693 0.898508 -0.000123 0.0
1.307271 2.348786 0.000135 0.0
1.641621 2.100910 0.001372 0.0
4.070094 1.014856 -0.003623 0.0
1.204298 0.134640 0.002946 0.0
2.375544 0.524347 -0.000781 0.0
0.602787 1.085537 -0.002456 0.0
1.900689 1.870753 0.002139 0.0
4.228255 0.485566 -0.000914 0.0
0.143075 0.914836 -0.001634 0.0
4.403773 1.658356 -0.000817 0.0
2.260351 0.495597 -0.002654 0.0
3.187801 0.641942 -0.002472 0.0
4.085666 0.616960 0.001246 0.0
2.037212 0.795912 0.003291 0.0
4.661624 2.053982 0.001912 0.0
0.604659 0.547642 -0.000089 0.0
2.289352 1.680391 -0.001791 0.0
2.275327 0.447606 0.003916 0.0
0.229141 0.604478 -0.001560 0.0
2.834657 1.274202 -0.000390 0.0
3.814989 0.160924 0.000666 0.0
4.326638 1.214447 -0.000227 0.0
3.171220 0.703581 0.003569 0.0
0.395564 0.039404 -0.000255 0.0
1.271417 1.718101 0.001587 0.0
4.575954 1.790608 0.002012 0.0
4.144807 2.295080 0.000344 0.0
3.460136 0.681446 0.000810 0.0
0.477377 1.473203 0.001105 0.0
1.214619 1.973831 -0.001616 0.0
0.784515 1.519152 0.001938 0.0
1.651317 1.929608 -0.003419 0.0
4.622001 1.476723 0.003194 0.0
3.852899 2.291959 -0.004789 0.0
0.948795 2.158727 0.001327 0.0
0.962112 0.064060 -0.001943 0.0
2.051079 0.064312 0.001312 0.0
4.191426 0.008308 0.001856 0.0
3.042780 0.533536 0.003078 0.0
2.005193 0.811163 0.004448 0.0
1.855747 1.413531 -0.002051 0.0
0.433742 0.739523 0.001313 0.0
0.249089 1.062580 0.001394 0.0
1.787275 1.550731 0.001526 0.0
1.288105 1.565287 0.001357 0.0
0.592439 1.861077 -0.000621 0.0
2.435532 1.260536 -0.002110 0.0
0.875497 2.019189 -0.003886 0.0
4.539937 1.909751 0.001164 0.0
0.439301 2.171881 -0.003026 0.0
4.235413 1.039286 0.000287 0.0
4.116522 1.595083 0.004166 0.0
1.024703 1.818090 0.000490 0.0
3.660124 2.313940 0.000662 0.0
3.504751 1.176540 0.001083 0.0
2.976028 1.445788 0.002446 0.0
0.472636 1.872028 -0.004062 0.0
3.446427 0.263894 -0.002504 0.0
2.129776 1.034044 0.003133 0.0
3.212063 1.122510 0.001355 0.0
2.005718 1.044977 -0.000759 0.0
2.336759 0.416672 -0.000205 0.0
3.134538 0.080007 -0.000296 0.0
2.215701 1.824840 -0.000642 0.0
1.366538 2.323770 -0.002825 0.0
2.040756 0.028853 0.000578 0.0
0.958384 0.797477 -0.001609 0.0
4.203024 1.110077 0.002878 0.0
3.651331 1.937044 -0.000226 0.0
1.755784 1.192169 -0.002406 0.0
3.031591 2.222811 0.003711 0.0
3.374382 1.343940 -0.000099 0.0
1.547166 0.973050 0.001267 0.0
3.987136 0.534496 0.002235 0.0
2.926117 1.623867 -0.003075 0.0
0.019837 1.384106 -0.002958 0.0
4.252435 1.158571 0.002676 0.0
3.492746 1.207551 -0.003230 0.0
2.079538 0.576196 0.002143 0.0
3.260840 2.011149 0.000808 0.0
2.611090 1.273772 0.003173 0.0
4.295616 0.263507 0.001186 0.0
2.606859 2.442122 -0.007207 0.0
3.993795 0.822319 0.002650 0.0
2.919585 0.049362 0.000429 0.0
0.251885 0.476794 0.000673 0.0
3.962847 2.419359 0.002422 0.0
2.253717 1.652414 -0.006703 0.0
1.448998 2.072282 -0.000544 0.0
3.446599 0.874746 -0.000565 0.0
3.281610 1.728688 -0.004365 0.0
4.038184 0.725356 0.002495 0.0
1.447544 2.083451 0.000150 0.0
1.972957 2.038434 -0.000821 0.0
2.940700 0.870049 0.001780 0.0
0.594897 0.744185 -0.000630 0.0
1.318448 1.169821 -0.002028 0.0
4.133370 0.923422 0.004512 0.0
1.164132 0.892261 -0.000671 0.0
3.411861 0.990917 -0.001053 0.0
0.142533 2.286535 -0.004335 0.0
2.715314 1.662063 0.002922 0.0
3.120982 0.221504 -0.000614 0.0
1.427134 1.511808 -0.000409 0.0
1.886795 2.053760 0.004688 0.0
0.023544 0.006636 -0.000069 0.0
2.983555 2.103624 -0.004200 0.0
3.755121 0.541456 -0.001513 0.0
2.219447 1.781197 -0.001824 0.0
0.265949 2.199481 -0.003126 0.0
2.868872 2.271940 0.000017 0.0
4.548539 1.918993 -0.002435 0.0
0.109605 0.848285 0.000529 0.0
4.268336 0.060245 -0.000687 0.0
3.160508 0.298525 -0.000658 0.0
4.229175 2.300908 0.001582 0.0
0.355884 0.452601 -0.005736 0.0
2.272774 0.033819 0.000846 0.0
2.650196 0.873069 0.002529 0.0
2.712593 1.490126 0.001418 0.0
0.041600 0.903071 0.005227 0.0
2.263780 0.357252 0.003329 0.0
1.468448 1.375925 0.002545 0.0
2.641756 2.339972 0.000440 0.0
4.391823 2.137140 -0.005215 0.0
3.220016 1.716920 -0.002884 0.0
2.961232 1.122072 -0.002216 0.0
4.502176 2.308838 -0.002778 0.0
3.651743 1.171739 -0.000670 0.0
1.767814 1.302040 0.000640 0.0
3.053270 2.262780 -0.000660 0.0
0.231171 0.334664 -0.002186 0.0
0.682437 0.272999 0.004954 0.0
4.200860 1.027242 0.002029 0.0
3.127909 1.463137 0.003235 0.0
3.286191 1.719252 -0.001589 0.0
3.228438 1.481893 -0.001244 0.0
3.122428 0.065939 -0.000926 0.0
2.729698 2.203110 0.003116 0.0
2.518898 2.236087 0.000474 0.0
2.802504 0.990304 0.002753 0.0
0.007070 1.635455 -0.002453 0.0
0.477332 0.221112 0.000214 0.0
3.146999 0.334729 0.005990 0.0
4.414407 0.149656 0.003741 0.0
0.148416 0.967269 -0.004194 0.0
4.336049 0.705363 0.000422 0.0
0.469817 1.452857 -0.000862 0.0
2.165790 0.524168 0.001872 0.0
4.606216 1.216287 0.003127 0.0
0.629873 2.103984 0.003397 0.0
1.395601 1.054411 0.003635 0.0
2.499889 0.513641 -0.001945 0.0
0.529567 1.847226 -0.000102 0.0
0.327685 2.045210 -0.002469 0.0
3.075223 0.053438 0.000749 0.0
0.501275 0.793042 0.000357 0.0
1.330498 2.226216 0.000478 0.0
0.034715 2.279667 0.000685 0.0
4.389830 2.179273 -0.006437 0.0
0.556237 0.065744 0.003665 0.0
4.641779 1.248852 -0.000319 0.0
1.193433 0.501529 0.000621 0.0
2.897097 0.293880 -0.003975 0.0
2.118793 0.867807 -0.005703 0.0
1.867337 0.089298 -0.003592 0.0
3.609836 0.236779 -0.001636 0.0
0.739260 0.787958 -0.004553 0.0
4.584829 0.942933 -0.001996 0.0
3.196063 1.506264 -0.004156 0.0
0.997296 0.363336 -0.004741 0.0
1.426668 1.830659 -0.001665 0.0
2.237939 1.897111 0.001159 0.0
1.292882 0.280761 -0.002264 0.0
1.135232 2.151369 -0.001848 0.0
1.493715 0.695449 -0.000875 0.0
0.994144 2.016064 0.003718 0.0
4.194388 1.803423 -0.000557 0.0
1.176553 2.160172 0.000838 0.0
3.141370 2.389826 0.003269 0.0
3.274637 2.298691 0.001117 0.0
3.193103 0.057440 0.001791 0.0
1.455537 1.136080 -0.004292 0.0
1.932054 1.497223 -0.000240 0.0
3.738081 0.866606 0.002283 0.0
1.115562 2.348454 0.000514 0.0
3.728620 0.269781 -0.000311 0.0
4.335839 1.008493 0.000608 0.0
4.287263 0.721487 0.002035 0.0
2.533741 1.524405 -0.002473 0.0
3.112866 0.323090 0.005189 0.0
1.924172 0.874101 0.004590 0.0
0.575737 0.310259 -0.000197 0.0
0.015538 1.688429 -0.001719 0.0
1.185018 0.800083 -0.000534 0.0
2.594102 0.584157 0.002266 0.0
2.313383 1.713157 0.001030 0.0
0.646912 0.398202 0.000880 0.0
0.330227 1.437369 0.000729 0.0
3.778872 0.803086 -0.000110 0.0
4.249717 1.587948 0.004038 0.0
1.281240 1.657983 0.001905 0.0
0.343819 1.219518 -0.001521 0.0
3.559647 2.148575 -0.001300 0.0
3.893903 1.300897 -0.002682 0.0
2.052153 1.328077 0.001590 0.0
1.752641 0.600374 -0.004930 0.0
0.677903 1.836053 -0.000317 0.0
0.794664 2.284261 -0.003095 0.0
0.522862 1.753445 0.000229 0.0
0.752461 0.077283 0.000978 0.0
0.650062 2.070266 -0.000129 0.0
1.842298 0.116760 -0.002142 0.0
0.910439 0.968138 -0.001685 0.0
0.781325 0.185931 -0.001455 0.0
1.725093 0.881062 0.000766 0.0
4.412379 0.769987 0.002214 0.0
4.443996 1.285639 0.002116 0.0
1.633566 1.440930 -0.000547 0.0
3.736456 0.270235 0.000117 0.0
3.757347 0.271817 -0.000996 0.0
3.145932 1.076769 0.001851 0.0
1.892330 0.930678 -0.000448 0.0
0.949676 0.835520 0.001063 0.0
1.801884 1.187295 0.004926 0.0
1.986099 0.493366 -0.003549 0.0
2.035436 1.201700 0.003069 0.0
4.551966 0.237481 0.001780 0.0
0.182374 1.256653 0.003144 0.0
0.450861 2.047865 0.003524 0.0
1.617146 0.270043 0.001950 0.0
0.102943 1.846053 0.002122 0.0
0.626321 1.911822 -0.003232 0.0
0.018839 0.423903 -0.001394 0.0
3.167958 1.119161 -0.000811 0.0
2.714205 1.669075 -0.002719 0.0
0.992876 1.595977 -0.000464 0.0
4.491949 2.246466 -0.003627 0.0
3.736844 1.601320 -0.000943 0.0
4.149079 0.536685 0.002933 0.0
3.507632 0.427010 0.001093 0.0
2.933386 1.051956 -0.001114 0.0
4.304246 1.464155 0.003115 0.0
0.253159 0.372752 0.004173 0.0
3.521961 1.975788 0.000528 0.0
1.125590 1.568446 -0.002306 0.0
1.508169 1.238160 -0.005443 0.0
3.997210 0.560163 0.001095 0.0
3.602878 2.443889 -0.001307 0.0
2.253208 1.669549 0.001629 0.0
3.411063 1.735968 -0.000533 0.0
2.758760 1.061193 0.000481 0.0
4.134568 0.216327 -0.001533 0.0
4.557196 0.399245 -0.000075 0.0
3.312748 0.576383 -0.003514 0.0
1.581042 0.753696 0.002702 0.0
1.646841 2.277628 0.000483 0.0
0.189267 1.616246 -0.000703 0.0
4.012363 1.543211 -0.000552 0.0
2.278312 2.093757 0.001585 0.0
2.385322 0.986110 0.001020 0.0
1.891109 1.125355 -0.004278 0.0
0.152184 1.577899 0.003886 0.0
0.897138 1.159819 0.002580 0.0
2.990857 1.439969 -0.001634 0.0
1.147874 0.478334 0.002875 0.0
2.645992 1.130100 -0.004254 0.0
0.962296 1.866809 0.001835 0.0
3.687709 1.750358 -0.003477 0.0
0.270277 0.428994 0.003350 0.0
0.144134 0.674990 0.003241 0.0
4.454428 0.421786 -0.003377 0.0
3.938924 0.150526 0.002276 0.0
4.662134 2.253613 -0.004235 0.0
4.329821 1.820468 -0.001641 0.0
3.263375 0.593204 -0.000281 0.0
0.178113 0.172009 0.002226 0.0
0.121189 1.514112 -0.000273 0.0
3.310571 0.877915 -0.000227 0.0
2.262691 1.098092 -0.003235 0.0
2.132450 2.163086 0.001444 0.0
3.301957 0.715911 0.001660 0.0
1.545593 1.507901 -0.000464 0.0
0.772383 1.148832 -0.000052 0.0
0.934093 0.830101 0.000201 0.0
4.408683 0.828659 -0.004137 0.0
3.214685 0.687406 -0.003801 0.0
1.858968 1.260312 -0.001084 0.0
3.955637 1.587446 0.002289 0.0
0.624653 1.092852 0.000964 0.0
4.474458 1.783419 -0.000546 0.0
3.391813 1.121008 0.000080 0.0
1.799893 2.002108 0.001628 0.0
2.560130 2.063619 -0.002421 0.0
3.985174 1.124141 0.000625 0.0
3.091961 1.772257 -0.000671 0.0
0.717284 2.406689 -0.000839 0.0
1.807596 1.910426 0.000302 0.0
1.485485 2.437853 -0.000137 0.0
2.903454 1.749625 -0.000569 0.0
1.352559 0.787290 0.002018 0.0
2.948435 1.797446 -0.002178 0.0
3.596995 1.764124 0.001681 0.0
3.747101 0.286586 0.000379 0.0
0.680772 0.086018 0.001011 0.0
3.868280 1.427784 0.005219 0.0
4.658676 0.576838 0.001176 0.0
4.080318 0.478005 -0.003163 0.0
0.587648 1.387113 0.002026 0.0
4.333926 1.289129 -0.003010 0.0
0.489928 1.584276 -0.003061 0.0
0.377990 0.336479 -0.000332 0.0
1.021242 1.297267 -0.001112 0.0
1.117526 1.842013 -0.001225 0.0
3.605896 2.206989 -0.003814 0.0
2.257393 2.324398 -0.004778 0.0
3.361241 2.423474 0.000313 0.0
3.006729 0.153440 -0.001043 0.0
0.286490 0.810502 -0.001344 0.0
3.473584 0.600594 0.001600 0.0
1.966879 0.925161 0.002064 0.0
0.852472 2.349215 0.004196 0.0
1.740298 0.400118 -0.001149 0.0
3.502400 1.868567 0.002394 0.0
3.640359 1.086116 0.001232 0.0
