1.92586778 1.79466182 0.00001169 0.00000000
0.70607834 0.10782810 0.00036850 0.00000000
3.96052355 1.54795657 -0.00202738 0.00000000
4.60934604 1.44322764 -0.00074088 0.00000000
3.95898394 1.11078487 -0.00145024 0.00000000
2.59097064 1.80157013 -0.00345463 0.00000000
0.38295352 0.90865038 -0.00194351 0.00000000
4.89428357 0.34262005 -0.00227322 0.00000000
4.39089922 0.09786951 -0.00336782 0.00000000
1.27848936 1.20807036 0.00541798 0.00000000
3.93831477 1.28097778 0.00551781 0.00000000
2.57211125 1.67135590 0.00339177 0.00000000
0.83933301 1.10420567 0.00379478 0.00000000
1.11668377 0.74978338 -0.00037694 0.00000000
2.98899341 0.61293418 0.00240142 0.00000000
1.92978169 1.59398217 0.00236151 0.00000000
0.12013445 0.32461153 -0.00454488 0.00000000
2.58529633 0.40401127 0.00438616 0.00000000
0.36839109 1.73376019 -0.00361585 0.00000000
2.27352067 0.13113242 0.00389325 0.00000000
2.76046377 1.61624876 -0.00029872 0.00000000
4.21249296 1.03501252 -0.00235586 0.00000000
3.99108956 1.01265930 0.00231832 0.00000000
3.14516119 0.14080314 0.00003673 0.00000000
3.85608428 0.61322471 0.00028304 0.00000000
0.72575898 0.28078470 0.00165867 0.00000000
3.30814697 1.21135260 0.00049342 0.00000000
4.71341764 0.88352416 -0.00552988 0.00000000
4.11217133 1.58891096 0.00675086 0.00000000
2.03698884 0.74565946 0.00125562 0.00000000
4.46244549 1.04743388 -0.00232133 0.00000000
4.83281192 0.14134718 0.00060863 0.00000000
3.96071041 0.75275267 -0.00188833 0.00000000
2.94997591 0.27293386 0.00262841 0.00000000
0.44655675 1.25077904 -0.00289426 0.00000000
0.10774201 0.91091680 -0.00012349 0.00000000
3.84969810 1.75896120 -0.00313055 0.00000000
4.11131865 0.29084097 -0.00059625 0.00000000
2.82235259 1.05414127 -0.00092232 0.00000000
1.53020254 0.65585963 -0.00149816 0.00000000
2.59961892 0.77651878 0.00087375 0.00000000
4.20061944 1.06100074 -0.00248379 0.00000000
0.87117163 1.14808695 0.00045329 0.00000000
4.20239409 1.16001941 0.00247805 0.00000000
1.54821071 0.46876560 -0.00038412 0.00000000
1.62231635 1.70775298 -0.00065341 0.00000000
3.41335346 0.69116717 -0.00015352 0.00000000
1.10799069 0.78407590 0.00307230 0.00000000
4.35743377 1.07546488 0.00195526 0.00000000
0.38977664 0.21699566 0.00090850 0.00000000
1.52724133 1.78783080 0.00051722 0.00000000
2.20602191 0.63388615 -0.00035188 0.00000000
2.15894446 1.55741930 0.00185629 0.00000000
3.80450017 1.53109581 -0.00094257 0.00000000
4.87559357 1.32675305 0.00028492 0.00000000
2.30603497 1.82487781 -0.00165849 0.00000000
0.07147393 1.43141100 -0.00054324 0.00000000
3.56877993 1.63177187 0.00042186 0.00000000
2.14774318 1.08060468 0.00278039 0.00000000
2.78419189 0.19316724 0.00152541 0.00000000
1.47662387 1.65681542 -0.00202026 0.00000000
1.33028831 0.10141966 -0.00403118 0.00000000
1.08119853 1.81982498 -0.00548192 0.00000000
1.46251517 0.99504594 -0.00224113 0.00000000
3.38239809 1.69894433 0.00060077 0.00000000
4.87997281 0.32206434 0.00029280 0.00000000
4.23758338 1.26458642 0.00367466 0.00000000
0.34845735 0.24378284 -0.00299634 0.00000000
2.53982318 0.11341381 -0.00040855 0.00000000
0.35688491 0.44541339 0.00191338 0.00000000
1.45463127 0.75691849 0.00000341 0.00000000
0.84847489 0.31831527 -0.00422358 0.00000000
3.38948441 1.39683579 -0.00033771 0.00000000
1.71725793 0.40875895 -0.00025948 0.00000000
1.31540042 0.27020042 -0.00265510 0.00000000
2.21775708 1.71514735 0.00192648 0.00000000
0.71201230 0.82989134 0.00276113 0.00000000
0.63872724 1.15285690 -0.00084767 0.00000000
0.61574557 1.16469161 0.00215293 0.00000000
2.58093932 0.98994608 -0.00185309 0.00000000
1.97323296 0.23241658 -0.00097112 0.00000000
1.71622138 0.03372110 -0.00131549 0.00000000
2.41715270 0.91920271 -0.00057200 0.00000000
2.73875993 1.01245265 0.00158008 0.00000000
0.12464745 1.58411691 0.00505513 0.00000000
2.84747345 0.84326044 -0.00059081 0.00000000
4.72847793 1.33519739 -0.00223027 0.00000000
1.88191487 0.12865184 0.00176892 0.00000000
1.67914684 0.42353406 -0.00095756 0.00000000
4.67944238 1.24396968 0.00018132 0.00000000
1.48344937 1.32426266 -0.00416933 0.00000000
0.11048796 1.52574332 -0.00145666 0.00000000
1.40259209 1.66156235 0.00472409 0.00000000
3.99858105 0.78730429 0.00080103 0.00000000
4.29938130 0.17698569 0.00186920 0.00000000
3.42949663 1.64406792 -0.00123458 0.00000000
3.94597530 1.35087569 0.00079490 0.00000000
0.16385990 1.22675672 -0.00202457 0.00000000
1.39243716 1.22522680 -0.00257982 0.00000000
2.20609577 1.57829662 -0.00081102 0.00000000
2.59730419 0.12570046 0.00148853 0.00000000
4.03810812 1.08210950 0.00312190 0.00000000
4.28048697 0.56635667 0.00156888 0.00000000
2.38688450 0.94951433 -0.00095008 0.00000000
1.35472037 0.81405661 -0.00018524 0.00000000
3.45050694 0.47736189 0.00037595 0.00000000
3.80817857 1.38062981 -0.00453131 0.00000000
0.41297967 1.80577493 0.00110244 0.00000000
0.32606239 1.44425476 0.00159171 0.00000000
3.02467464 1.08518526 -0.00181312 0.00000000
2.94295774 0.33672046 0.00028166 0.00000000
2.75554666 1.53964224 0.00110431 0.00000000
1.98328803 1.28443670 0.00001322 0.00000000
0.59962822 0.59470272 0.00224329 0.00000000
4.62313088 0.38186318 0.00084648 0.00000000
2.51300446 1.74712392 -0.00034060 0.00000000
4.12220292 0.01687342 0.00000670 0.00000000
1.52943832 0.82903583 -0.00035439 0.00000000
0.21298671 1.17652489 0.00163519 0.00000000
3.21324227 0.17303021 -0.00102921 0.00000000
1.37571417 1.55443806 0.00029074 0.00000000
0.46716387 1.49023901 -0.00522949 0.00000000
4.79688651 1.76281397 0.00116116 0.00000000
3.25825047 0.76140071 -0.00063676 0.00000000
0.28094738 0.56819941 -0.00300351 0.00000000
4.25002973 1.31344739 -0.00465888 0.00000000
3.62578593 0.96533852 -0.00217632 0.00000000
2.60980286 1.59316543 0.00040133 0.00000000
1.87503516 0.27834191 -0.00618357 0.00000000
1.03169708 1.43588164 -0.00102906 0.00000000
4.26439778 0.01163198 -0.00493975 0.00000000
1.00941197 0.20006742 -0.00083155 0.00000000
2.05207083 0.67428242 -0.00334225 0.00000000
2.06065093 1.30050458 0.00169522 0.00000000
3.06954903 1.81616730 -0.00102591 0.00000000
1.39928112 1.38504602 -0.00355960 0.00000000
2.93030477 0.08243575 0.00534871 0.00000000
4.34499138 0.14835142 0.00101003 0.00000000
2.17435368 0.88608789 0.00550657 0.00000000
2.03081325 1.10563528 0.00331495 0.00000000
2.68070803 0.58069961 0.00287477 0.00000000
4.71069778 1.58404526 -0.00283578 0.00000000
4.41612538 0.80924739 -0.00092385 0.00000000
4.08107637 1.72602837 0.00053802 0.00000000
4.64721044 0.10533951 0.00417247 0.00000000
3.22456825 0.36863320 -0.00261606 0.00000000
4.18199382 0.94429448 -0.00232846 0.00000000
1.22243331 0.99863077 0.00227958 0.00000000
1.09377740 0.21855663 0.00120913 0.00000000
0.86205796 1.04648827 0.00219725 0.00000000
3.25151783 0.39266680 -0.00026890 0.00000000
2.31078767 0.33705753 0.00151765 0.00000000
1.16747765 0.84473054 -0.00139345 0.00000000
0.93800903 0.35238270 -0.00139748 0.00000000
4.09952291 0.84758366 -0.00058958 0.00000000
0.37048901 0.62495770 -0.00265201 0.00000000
4.74531865 1.13574536 0.00204293 0.00000000
2.46421470 0.72180495 -0.00297239 0.00000000
0.06807641 1.18503790 -0.00047364 0.00000000
2.55692563 0.98144244 -0.00581439 0.00000000
3.23347107 1.68259520 -0.00082159 0.00000000
0.47315718 1.50764660 0.00028907 0.00000000
3.61077642 0.90696085 0.00388280 0.00000000
1.73819720 0.85198595 -0.00365564 0.00000000
1.05505536 1.54218031 0.00203370 0.00000000
0.32340581 1.15800073 0.00093382 0.00000000
2.91758907 1.74583010 -0.00243081 0.00000000
3.85136250 1.18082814 -0.00022487 0.00000000
4.52040254 0.06630691 0.00134028 0.00000000
0.17723037 0.81299318 0.00163550 0.00000000
4.19415387 1.02276304 0.00115796 0.00000000
1.07479885 1.58702011 -0.00231734 0.00000000
1.06636575 0.23295383 -0.00394123 0.00000000
2.28405158 0.89841408 -0.00227330 0.00000000
3.15291119 0.94616183 0.00174492 0.00000000
3.64623129 1.59241024 0.00164234 0.00000000
3.25775309 1.75223949 0.00096160 0.00000000
2.73526358 1.32173701 -0.00136824 0.00000000
3.74737887 0.32784247 -0.00077376 0.00000000
3.16975792 0.74623278 -0.00068961 0.00000000
1.21188528 0.36326964 0.00119169 0.00000000
4.84286451 1.12189450 0.00228660 0.00000000
0.86827319 1.61734029 0.00013481 0.00000000
0.96520991 0.40770818 -0.00088765 0.00000000
4.70740366 0.02989130 0.00030561 0.00000000
0.50418383 0.97249762 -0.00098655 0.00000000
0.95189608 1.81665516 -0.00155913 0.00000000
2.70947905 1.06924769 -0.00400447 0.00000000
1.04208088 1.43051107 0.00084387 0.00000000
4.19881862 0.58205035 -0.00104481 0.00000000
1.97763471 1.77436567 0.00111374 0.00000000
3.69878724 0.55884846 -0.00007646 0.00000000
4.61641496 0.54969804 0.00455928 0.00000000
3.61240542 1.38436285 0.00606246 0.00000000
3.47481030 1.13543438 -0.00096807 0.00000000
0.07495732 1.01576290 0.00055450 0.00000000
4.82433793 1.16982986 0.00054177 0.00000000
2.69610307 1.60517256 -0.00038727 0.00000000
1.21799894 0.84431342 -0.00025664 0.00000000
1.88252420 0.88744577 -0.00058930 0.00000000
2.04462820 1.09483658 0.00129682 0.00000000
2.92712782 0.21828518 0.00021500 0.00000000
1.16008591 1.67480019 -0.00168799 0.00000000
4.57169717 0.55225635 -0.00203179 0.00000000
4.00078602 0.07019816 0.00143434 0.00000000
2.61526397 0.81859814 0.00476587 0.00000000
3.96936092 0.52739483 -0.00018230 0.00000000
4.47761025 0.86028833 0.00112675 0.00000000
1.71444468 0.04865312 -0.00177304 0.00000000
2.85560304 1.13358549 -0.00191432 0.00000000
0.92667958 1.61158454 0.00259698 0.00000000
4.75606383 0.44610124 0.00206031 0.00000000
1.79887920 0.72237837 -0.00360978 0.00000000
3.44351524 1.11524304 0.00154427 0.00000000
3.94243403 1.31797020 -0.00228249 0.00000000
4.59519377 0.69985855 -0.00242083 0.00000000
2.12698231 1.65059798 -0.00179300 0.00000000
3.08190308 1.64054845 -0.00343307 0.00000000
3.64959069 1.79932279 -0.00053974 0.00000000
3.97229370 0.83891958 -0.00290419 0.00000000
3.15944659 0.91060350 -0.00210460 0.00000000
1.56162541 1.09081052 0.00041557 0.00000000
3.92217352 0.19473293 -0.00453055 0.00000000
3.34787123 0.08491827 -0.00363122 0.00000000
1.27142463 1.12862254 -0.00077181 0.00000000
4.81598187 1.46863546 -0.00082408 0.00000000
0.80039793 1.32046470 -0.00269458 0.00000000
2.27509549 0.00163098 0.00390418 0.00000000
2.81740307 0.74451559 -0.00079774 0.00000000
2.30869395 0.55505615 0.00072194 0.00000000
2.56536577 1.24786704 0.00499367 0.00000000
2.18045340 1.28127869 0.00196229 0.00000000
4.81451413 0.99067900 -0.00263773 0.00000000
3.62350005 1.63013196 -0.00427705 0.00000000
2.53737675 0.26632815 -0.00022169 0.00000000
3.97714747 1.59732481 0.00290786 0.00000000
4.11216878 1.67792408 0.00014198 0.00000000
1.71165749 1.11751526 -0.00144878 0.00000000
2.29254173 1.55985054 0.00173074 0.00000000
1.51165870 0.19081719 -0.00110665 0.00000000
3.72704566 1.63769150 -0.00194704 0.00000000
3.46456948 0.47473462 0.00752962 0.00000000
0.43824721 0.11211485 -0.00021590 0.00000000
1.12446573 0.73621055 -0.00184336 0.00000000
4.47861878 0.60225598 0.00422674 0.00000000
0.37595172 1.55779845 0.00070275 0.00000000
3.49517463 1.20649296 0.00055642 0.00000000
2.37556110 0.21967415 0.00013520 0.00000000
0.36420905 0.15237319 0.00367806 0.00000000
0.21795342 1.39065032 0.00144889 0.00000000
1.77710164 1.10845769 0.00305331 0.00000000
4.84338577 1.24320086 0.00238061 0.00000000
3.49278233 0.03548718 -0.00186135 0.00000000
3.73286583 1.20821430 0.00212784 0.00000000
4.25279044 1.47882936 -0.00146424 0.00000000
2.07161944 0.91451564 -0.00091979 0.00000000
4.63219490 0.44018316 0.00260627 0.00000000
0.30910193 0.12829046 -0.00166278 0.00000000
3.75777270 1.13176831 0.00088947 0.00000000
0.65001870 0.01856552 -0.00090463 0.00000000
0.69314312 1.18696498 0.00170561 0.00000000
2.06655832 0.15645546 -0.00009161 0.00000000
2.08322544 0.02855977 0.00263438 0.00000000
3.11106367 1.82297032 -0.00127907 0.00000000
0.33072657 0.76049248 0.00072739 0.00000000
4.61091547 0.54268587 0.00117836 0.00000000
1.13092296 0.18309254 0.00088802 0.00000000
0.63445721 1.57318001 -0.00356279 0.00000000
4.65089308 0.97288191 0.00118367 0.00000000
4.79425412 1.10423759 -0.00120568 0.00000000
0.67013479 0.23036276 -0.00185480 0.00000000
0.81652655 1.57885957 -0.00010935 0.00000000
4.81040824 0.49576796 -0.00083356 0.00000000
2.50360719 0.15754723 0.00484715 0.00000000
3.80117348 0.26186559 -0.00543308 0.00000000
2.53128026 1.07683338 0.00120153 0.00000000
4.22051395 1.30602030 0.00319819 0.00000000
1.32234840 0.32378821 0.00100647 0.00000000
2.79675885 0.80100717 -0.00009660 0.00000000
3.13347211 0.41758272 0.00111983 0.00000000
2.44630789 0.06296729 0.00480474 0.00000000
3.69113780 0.96368291 0.00187123 0.00000000
1.92527218 0.81092411 -0.00287191 0.00000000
1.35045139 0.50826383 0.00410731 0.00000000
2.77699789 0.40514690 0.00153652 0.00000000
0.75184117 0.56897011 0.00556518 0.00000000
4.61892019 1.21318243 -0.00446074 0.00000000
4.64066812 1.69343174 0.00091696 0.00000000
3.69900848 0.75240770 0.00253557 0.00000000
0.26498950 1.13597885 0.00107893 0.00000000
3.51679750 1.15956790 0.00235618 0.00000000
0.84384792 1.22224231 0.00200155 0.00000000
3.39974914 0.74914232 0.00116868 0.00000000
2.81496015 0.49174757 -0.00108323 0.00000000
0.74623705 0.33032985 0.00168456 0.00000000
3.01764804 1.27228008 0.00483496 0.00000000
1.62685950 1.72093374 0.00408444 0.00000000
1.60060367 0.38492565 -0.00286978 0.00000000
1.08837914 1.15628800 0.00223474 0.00000000
4.82076936 1.81630069 0.00098824 0.00000000
4.82386358 1.68428412 -0.00343160 0.00000000
1.47834402 1.36056343 0.00195623 0.00000000
1.02180760 0.35315585 -0.00196479 0.00000000
0.71057585 0.16854517 0.00204762 0.00000000
0.61678177 0.87606241 -0.00182033 0.00000000
0.40315990 1.52947327 0.00202187 0.00000000
0.79747343 0.83148677 0.00013529 0.00000000
0.18835616 1.73388489 -0.00247251 0.00000000
0.81937799 1.62386819 -0.00152543 0.00000000
4.75706388 1.09568005 0.00494824 0.00000000
3.52301364 0.62602149 0.00092137 0.00000000
0.06803595 1.44539524 -0.00219755 0.00000000
1.21562799 0.46008935 0.00063700 0.00000000
4.45895919 0.97959269 -0.00211925 0.00000000
3.52919297 1.67995469 0.00068049 0.00000000
1.68759065 1.04502199 -0.00100378 0.00000000
4.90060600 1.62336408 0.00529228 0.00000000
4.85597494 0.82372338 -0.00206267 0.00000000
3.60752357 1.03949825 -0.00229381 0.00000000
2.07028249 1.62653192 -0.00252047 0.00000000
0.93934412 0.32687982 -0.00199341 0.00000000
3.36535257 1.72950458 0.00074560 0.00000000
0.51935742 1.46690914 0.00167716 0.00000000
0.00163941 0.43604512 -0.00132276 0.00000000
0.09333163 1.14351017 -0.00139888 0.00000000
1.28718606 1.47785451 0.00706570 0.00000000
2.05977053 0.49556881 -0.00166895 0.00000000
4.64104452 0.44781991 0.00257732 0.00000000
3.59562698 1.01197092 0.00085062 0.00000000
0.48826192 1.15255628 -0.00075325 0.00000000
2.31363284 1.73263653 0.00123467 0.00000000
1.38465167 1.77364106 -0.00220165 0.00000000
1.03855290 0.22080407 -0.00021518 0.00000000
0.81140192 0.33702766 -0.00054960 0.00000000
4.71437675 0.26894870 0.00378983 0.00000000
1.79822376 0.65936467 0.00074011 0.00000000
3.11798232 1.19034325 -0.00234967 0.00000000
3.56153313 0.73866697 -0.00304199 0.00000000
0.66693137 0.18897458 -0.00374929 0.00000000
0.58465858 1.19859068 0.00331770 0.00000000
1.99105397 0.81547407 0.00209906 0.00000000
0.91325157 0.45702885 0.00072336 0.00000000
2.71262329 0.19941642 -0.00130386 0.00000000
4.67837832 1.82287997 0.00231545 0.00000000
3.19432975 1.15963756 -0.00391560 0.00000000
0.99164702 0.51405820 0.00015380 0.00000000
4.53732291 1.50349674 0.00177276 0.00000000
1.76174070 1.47160134 0.00302897 0.00000000
2.80902728 1.22985140 0.00213230 0.00000000
2.12108244 0.54578549 0.00093029 0.00000000
3.24457230 0.52516759 0.00105675 0.00000000
1.20144163 1.35150370 -0.00094144 0.00000000
1.94356672 0.70812292 -0.00018037 0.00000000
4.59321225 0.50351167 -0.00287703 0.00000000
3.23838393 1.38558752 0.00226241 0.00000000
0.25476338 0.97351215 -0.00010068 0.00000000
1.22729575 1.29215018 0.00029795 0.00000000
0.03472612 0.85859077 0.00069604 0.00000000
3.76566457 1.43355503 -0.00021189 0.00000000
4.23676759 1.29290209 0.00473688 0.00000000
1.98952281 1.43127221 0.00159913 0.00000000
4.26180227 1.10861237 -0.00045049 0.00000000
2.61293945 0.32905917 -0.00191830 0.00000000
4.59732978 1.43447200 0.00153214 0.00000000
1.54645902 0.36008455 -0.00375903 0.00000000
2.52639927 1.17025256 -0.00611795 0.00000000
0.73050860 0.36000492 0.00200186 0.00000000
1.29815566 0.75314338 -0.00047564 0.00000000
0.76735620 0.48417551 -0.00091932 0.00000000
4.40786844 1.69360562 -0.00081675 0.00000000
4.64692653 0.90997188 -0.00131317 0.00000000
0.41210628 1.52673165 0.00210644 0.00000000
0.12132922 1.80406812 0.00544176 0.00000000
1.25765346 0.70713368 0.00114574 0.00000000
4.57562152 0.91379272 0.00279015 0.00000000
0.30787607 1.20095514 -0.00304336 0.00000000
1.77869250 1.31344194 -0.00221574 0.00000000
1.56789940 0.80459820 0.00208339 0.00000000
1.98571658 0.68728702 -0.00106806 0.00000000
1.25584013 0.46190422 -0.00027851 0.00000000
0.99574948 0.51466034 0.00109310 0.00000000
3.22888184 1.69516438 0.00195489 0.00000000
0.77525825 1.61407858 0.00032059 0.00000000
3.42598094 0.73279589 -0.00567355 0.00000000
3.49514394 1.66060999 -0.00081072 0.00000000
0.70545298 0.60510161 0.00031603 0.00000000
4.13804822 0.19008821 -0.00290006 0.00000000
2.06395366 1.58174161 0.00339605 0.00000000
0.64052369 0.83701011 -0.00235981 0.00000000
4.48150079 1.04553621 -0.00087171 0.00000000
2.28577514 0.72021548 -0.00373626 0.00000000
1.17607166 0.88097537 0.00058217 0.00000000
2.81838197 0.04537240 -0.00129047 0.00000000
4.54209227 0.06610003 0.00088316 0.00000000
4.53609474 1.15864613 0.00101337 0.00000000
0.84354004 1.10363090 -0.00009204 0.00000000
2.85576215 1.13719525 -0.00196840 0.00000000
1.14044489 1.61446140 0.00247181 0.00000000
0.88331375 1.08767842 -0.00094755 0.00000000
3.35489577 0.10505213 0.00386043 0.00000000
4.60171180 0.97456594 0.00221802 0.00000000
0.38731287 1.12521129 0.00093504 0.00000000
2.03274652 1.58898458 -0.00210571 0.00000000
1.38747708 1.58874417 0.00020613 0.00000000
3.93495341 1.38846579 -0.00024434 0.00000000
4.21779051 1.12527157 -0.00161233 0.00000000
2.35714504 1.03330120 0.00033206 0.00000000
3.29169104 1.25476451 0.00130217 0.00000000
2.65261738 1.09398891 -0.00007089 0.00000000
0.05352956 0.37154675 0.00034762 0.00000000
1.18113911 0.63919824 0.00007284 0.00000000
1.32011920 1.43792759 -0.00177267 0.00000000
2.02700233 1.35541934 -0.00046753 0.00000000
0.16963692 1.54743455 0.00010434 0.00000000
1.00651401 0.63759984 0.00139232 0.00000000
1.07234097 0.73574027 -0.00074058 0.00000000
0.66929500 1.72364118 -0.00328175 0.00000000
1.53166800 0.35006996 0.00264706 0.00000000
1.31466081 1.38078067 -0.00051961 0.00000000
0.95268588 1.17829388 0.00068259 0.00000000
4.35759860 0.42583387 -0.00081370 0.00000000
3.77714657 0.38489377 -0.00098056 0.00000000
0.85958356 1.14352081 0.00403838 0.00000000
3.46440153 1.05031073 -0.00545690 0.00000000
3.64451243 1.57122031 -0.00021124 0.00000000
4.15630238 0.83902403 -0.00578553 0.00000000
3.51119516 0.00282314 -0.00287803 0.00000000
3.48486836 1.42141696 -0.00002509 0.00000000
3.74797223 0.11042892 0.00001831 0.00000000
4.11556358 1.09993911 -0.00181694 0.00000000
2.00934921 0.47172884 0.00070021 0.00000000
0.58096625 0.20072192 0.00257847 0.00000000
3.47317759 0.43189778 0.00224014 0.00000000
1.15014350 1.08729467 0.00103605 0.00000000
2.37563141 0.71156387 0.00453892 0.00000000
0.21452896 0.84367892 0.00091334 0.00000000
3.77706338 0.29627559 0.00326300 0.00000000
3.68867605 0.76391984 0.00229575 0.00000000
2.89215370 1.56005460 -0.00072060 0.00000000
1.23485347 0.79002245 -0.00023217 0.00000000
0.38976885 1.27770437 0.00497565 0.00000000
2.23317193 1.63653944 0.00063241 0.00000000
4.37490875 0.40539941 0.00162927 0.00000000
1.92983065 0.75128850 -0.00097557 0.00000000
0.24312400 0.89706919 0.00143832 0.00000000
3.87041029 0.75856057 0.00025742 0.00000000
1.88712899 0.87508499 -0.00174330 0.00000000
4.45913073 1.28305701 -0.00474738 0.00000000
3.19109345 1.25231387 -0.00093310 0.00000000
0.02055012 0.87340020 0.00117197 0.00000000
3.85965519 1.69999038 -0.00274096 0.00000000
3.40839497 1.26032115 -0.00273956 0.00000000
2.60687741 0.80084598 -0.00267428 0.00000000
3.98111373 0.07935555 0.00517963 0.00000000
1.07610683 1.08158848 0.00150954 0.00000000
3.43445571 1.34957077 0.00137445 0.00000000
0.64236835 1.14033825 0.00393131 0.00000000
0.32135229 0.62794009 0.00139599 0.00000000
1.91027152 0.21442292 0.00021751 0.00000000
1.22246384 0.96036333 0.00244306 0.00000000
3.58281578 0.73602946 -0.00151380 0.00000000
4.07524053 1.45776007 -0.00009377 0.00000000
4.76651711 0.48338182 0.00334961 0.00000000
1.87980890 0.18329073 0.00259196 0.00000000
3.80893259 1.41403674 -0.00171451 0.00000000
3.56684796 0.80609923 0.00619392 0.00000000
1.22062750 0.32451754 0.00540497 0.00000000
0.37585781 0.85761306 -0.00418965 0.00000000
3.44146691 0.87270434 -0.00072323 0.00000000
4.69685800 1.77510028 -0.00096964 0.00000000
3.40877217 0.10747001 0.00171174 0.00000000
4.45213818 0.71062237 0.00165620 0.00000000
2.72829914 1.26315439 -0.00287518 0.00000000
4.20541173 0.65328125 -0.00081972 0.00000000
1.19618415 0.34854553 -0.00174023 0.00000000
3.30994536 0.60037686 0.00247300 0.00000000
3.41269208 1.30747993 0.00272759 0.00000000
4.60312848 0.27428541 0.00150036 0.00000000
1.00924672 1.47018933 0.00030233 0.00000000
2.39553991 1.41898128 0.00019484 0.00000000
3.23098935 1.66718153 -0.00211443 0.00000000
2.25031435 0.56373569 0.00283752 0.00000000
1.29281599 1.41863107 0.00240994 0.00000000
3.91027941 0.17141858 -0.00045018 0.00000000
1.69437797 1.09197710 -0.00239048 0.00000000
3.00792000 0.30043443 -0.00201759 0.00000000
4.53665084 1.47319993 -0.00231280 0.00000000
2.51738413 0.30354613 0.00157211 0.00000000
1.09275223 0.76895532 -0.00021953 0.00000000
3.91579073 1.18503717 -0.00255923 0.00000000
1.09791341 0.31219566 -0.00025746 0.00000000
4.87710617 0.69563630 -0.00337575 0.00000000
0.70724945 0.92248572 0.00161874 0.00000000
4.66053091 0.46155821 -0.00040389 0.00000000
0.11546926 0.65089653 0.00128765 0.00000000
1.68210969 0.52051182 0.00072683 0.00000000
1.97843990 1.30332430 0.00006941 0.00000000
4.44312212 1.14687565 0.00043663 0.00000000
1.10848897 0.50846368 -0.00449795 0.00000000
4.32044755 0.04647189 -0.00133749 0.00000000
4.09710702 1.78703539 -0.00191931 0.00000000
3.93603862 1.44458763 0.00072208 0.00000000
0.11170898 0.67945078 -0.00573245 0.00000000
4.54064397 0.70472157 -0.00225164 0.00000000
1.62445771 1.19493601 0.00215613 0.00000000
0.39138331 1.46694916 0.00263648 0.00000000
2.53304393 0.43756626 -0.00092135 0.00000000
4.89485415 1.44319020 0.00195731 0.00000000
4.13727947 0.63827299 -0.00467175 0.00000000
0.27888209 0.42188075 -0.00250458 0.00000000
4.58170536 0.79525142 -0.00226119 0.00000000
2.23660322 1.28400742 -0.00141597 0.00000000
2.10230128 1.12719700 0.00042725 0.00000000
1.53933056 0.38674252 0.00046951 0.00000000
4.33481356 1.25440416 0.00009793 0.00000000
4.15462847 1.64101851 0.00077590 0.00000000
4.05083640 0.70571623 -0.00074647 0.00000000
2.15761572 0.40055795 -0.00348973 0.00000000
3.03726373 1.31017895 0.00003973 0.00000000
4.71046307 1.11177903 -0.00391476 0.00000000
2.80505654 0.39418273 0.00486481 0.00000000
2.44835990 1.38000922 0.00311540 0.00000000
0.08984996 1.07030210 -0.00114167 0.00000000
3.14709480 1.30038803 -0.00055983 0.00000000
4.80535156 1.48348445 0.00117673 0.00000000
4.56328442 0.80936890 0.00160143 0.00000000
0.58603220 0.59834046 0.00057315 0.00000000
2.52681434 0.03268193 0.00151192 0.00000000
2.20836130 1.76500762 0.00103127 0.00000000
0.32541064 1.16096933 -0.00119132 0.00000000
0.01813048 1.41422512 0.00089373 0.00000000
2.08195590 1.41742793 0.00196822 0.00000000
0.31673703 1.75427081 -0.00195829 0.00000000
4.28116264 0.04962555 -0.00245024 0.00000000
2.18371170 1.61291829 0.00275900 0.00000000
1.28243849 1.00014970 0.00080989 0.00000000
4.82366662 1.28311520 -0.00237954 0.00000000
2.48469793 0.68124871 0.00361507 0.00000000
3.15157739 1.00233782 -0.00087958 0.00000000
0.17127863 1.20916609 -0.00095869 0.00000000
2.82729487 1.51368535 0.00443010 0.00000000
2.86138040 0.87999400 0.00035332 0.00000000
0.07145269 0.39280102 -0.00051920 0.00000000
2.18985431 0.73974755 0.00013319 0.00000000
2.76509463 1.18548933 0.00231904 0.00000000
0.08972894 1.21903288 -0.00091907 0.00000000
1.01796291 0.31320404 0.00265239 0.00000000
0.53708690 0.17137068 0.00110179 0.00000000
3.37858998 0.99454463 -0.00053334 0.00000000
4.18023675 0.31390012 -0.00231891 0.00000000
3.41936052 0.30066152 -0.00415869 0.00000000
3.68747270 0.41508435 0.00446200 0.00000000
3.01953617 0.04355562 -0.00023856 0.00000000
1.03811350 1.57970914 -0.00181091 0.00000000
0.65919634 0.94256245 -0.00045485 0.00000000
3.89082321 0.48152028 0.00388078 0.00000000
1.65797970 1.52949136 0.00164827 0.00000000
1.96702453 0.43329781 0.00580936 0.00000000
1.02979665 1.16471478 0.00027929 0.00000000
1.49503210 1.34263450 0.00250906 0.00000000
4.28084473 1.74269557 -0.00115719 0.00000000
3.77926303 0.78004975 0.00077351 0.00000000
3.44129357 1.14035305 -0.00253705 0.00000000
1.07695709 1.44014007 0.00037869 0.00000000
4.09833054 0.99710551 -0.00226503 0.00000000
0.02460955 1.31532778 -0.00554342 0.00000000
4.55978556 1.50632542 -0.00228918 0.00000000
2.66410751 1.03952486 0.00133413 0.00000000
2.18032881 0.87098870 0.00510339 0.00000000
2.91782177 0.27516276 -0.00357404 0.00000000
2.04224489 0.00080513 0.00103069 0.00000000
2.91646693 0.56204338 -0.00206312 0.00000000
2.94516731 0.81130673 -0.00099482 0.00000000
4.55002630 1.60817681 0.00160724 0.00000000
4.19354196 0.79655261 0.00269974 0.00000000
0.57076847 1.32845697 -0.00188831 0.00000000
3.53385419 0.09500192 -0.00002215 0.00000000
2.43151776 1.56583886 -0.00196525 0.00000000
1.33338758 1.47680941 0.00045476 0.00000000
2.06890280 1.25768957 0.00284840 0.00000000
1.56223207 1.13249081 -0.00069467 0.00000000
3.87776265 1.38563384 -0.00006590 0.00000000
0.59841565 0.05319678 -0.00044076 0.00000000
2.25393747 0.07239432 0.00292067 0.00000000
2.62201412 0.45133348 0.00112726 0.00000000
1.86288677 0.28330625 0.00223086 0.00000000
2.37868846 1.36043545 0.00048751 0.00000000
3.89561825 1.49038875 0.00175116 0.00000000
1.48184192 0.27170383 0.00646814 0.00000000
3.39628321 1.47615261 0.00078202 0.00000000
4.50458059 1.75336691 -0.00086974 0.00000000
0.21887724 0.88790868 -0.00014718 0.00000000
2.64720774 1.15290504 0.00110529 0.00000000
2.03302185 0.39684207 0.00018447 0.00000000
0.86696174 1.18405578 -0.00199182 0.00000000
0.53760094 0.41835198 -0.00129146 0.00000000
1.53877152 1.12111655 0.00132246 0.00000000
3.21025343 0.93876459 0.00218455 0.00000000
1.04698554 0.02161021 0.00074432 0.00000000
2.91499734 0.65269935 -0.00181754 0.00000000
2.26097297 1.47847159 -0.00061135 0.00000000
2.82966382 1.82602048 0.00029589 0.00000000
0.51704848 1.67853114 -0.00008270 0.00000000
4.32675604 1.73637372 -0.00131310 0.00000000
3.35298833 1.32171252 0.00354086 0.00000000
0.51079904 1.63886442 -0.00011577 0.00000000
4.69052614 0.65167111 0.00001408 0.00000000
0.68312145 0.47595260 0.00210251 0.00000000
4.68802401 0.94921657 -0.00280850 0.00000000
4.08873000 0.43913039 0.00098421 0.00000000
1.48184928 1.40993950 -0.00217356 0.00000000
2.46409445 1.68706074 0.00163215 0.00000000
4.09842209 0.75601991 0.00142904 0.00000000
3.96080264 0.70570993 -0.00169403 0.00000000
4.77167215 1.76033454 0.00000501 0.00000000
1.12272629 0.70788135 0.00107277 0.00000000
0.77798697 0.50044773 -0.00165672 0.00000000
2.48034341 1.56034401 0.00190820 0.00000000
0.50174794 0.99572720 -0.00341560 0.00000000
2.24666052 0.23246069 -0.00030468 0.00000000
4.13321252 1.11307299 -0.00091820 0.00000000
3.28036902 1.50192641 0.00057886 0.00000000
1.24016547 0.71877068 -0.00055949 0.00000000
1.22282451 0.99672546 0.00463281 0.00000000
2.57707041 0.22643093 -0.00123846 0.00000000
3.41977604 0.26260346 0.00005852 0.00000000
1.41220495 1.25057709 0.00028432 0.00000000
4.09199913 0.58718655 0.00420142 0.00000000
0.61138265 0.48177548 -0.00176163 0.00000000
2.51030808 1.60005292 -0.00341333 0.00000000
3.83830869 0.39003420 -0.00408131 0.00000000
4.76459655 1.72770861 0.00006092 0.00000000
1.12812481 0.25109009 -0.00146381 0.00000000
1.18864618 1.52433614 0.00069012 0.00000000
3.67906543 0.04491220 0.00058002 0.00000000
4.23169383 0.97239941 -0.00101944 0.00000000
1.17401776 1.22582290 -0.00287186 0.00000000
1.46331500 0.48924723 0.00257033 0.00000000
1.17342045 1.64924062 0.00187185 0.00000000
3.94546567 0.82628280 -0.00173847 0.00000000
4.71267068 1.17947365 0.00059093 0.00000000
3.87356328 1.53418045 0.00242271 0.00000000
4.16115695 0.28545584 0.00103721 0.00000000
1.81351061 1.29160045 -0.00612034 0.00000000
4.11164735 0.48598339 -0.00186041 0.00000000
4.15585757 0.12277731 0.00517385 0.00000000
2.05368447 0.40968025 0.00087294 0.00000000
1.29438042 1.78580993 -0.00072288 0.00000000
3.21498261 0.12157575 -0.00182918 0.00000000
0.21856258 0.30221791 0.00167297 0.00000000
1.14216404 0.28811105 -0.00141608 0.00000000
3.14157894 0.51688625 0.00260647 0.00000000
3.09100937 0.49614273 -0.00452215 0.00000000
1.71227224 1.68585237 -0.00168844 0.00000000
1.34725115 1.36362512 0.00199993 0.00000000
4.78640772 1.21457108 0.00021221 0.00000000
3.61833608 1.01191606 -0.00572147 0.00000000
3.50717147 0.84357064 0.00172634 0.00000000
2.58687475 0.92809240 0.00135223 0.00000000
3.13752405 0.41081987 -0.00305901 0.00000000
2.97449924 0.16083005 0.00056186 0.00000000
1.71458983 0.81255237 0.00766415 0.00000000
4.78407572 0.74282067 -0.00114543 0.00000000
3.38864868 1.76649178 -0.00326113 0.00000000
4.72776990 1.03336446 0.00014704 0.00000000
0.49312249 1.04454320 -0.00210424 0.00000000
4.15567262 1.45732795 -0.00330797 0.00000000
1.52630715 0.36169431 -0.00443651 0.00000000
3.84369461 0.27120509 -0.00169777 0.00000000
3.02683797 1.44219794 -0.00068649 0.00000000
1.04443903 1.29620877 0.00059263 0.00000000
1.17911262 0.48827642 0.00065602 0.00000000
1.25894815 0.48087972 0.00370786 0.00000000
1.85920894 0.66295378 -0.00226238 0.00000000
0.65238570 1.50912965 0.00360257 0.00000000
2.63313810 1.14228840 -0.00266663 0.00000000
3.70811467 1.52708426 -0.00880177 0.00000000
3.79988161 0.90014000 -0.00093590 0.00000000
2.85140042 1.29735347 -0.00364164 0.00000000
0.80613557 0.40291644 0.00406755 0.00000000
4.39108334 0.20377194 0.00106989 0.00000000
1.48671847 1.25840814 0.00198097 0.00000000
4.11924914 0.19853991 0.00255811 0.00000000
1.65324806 0.22966086 0.00409921 0.00000000
3.91628988 1.64029905 -0.00017309 0.00000000
1.09881294 0.10902253 -0.00138548 0.00000000
3.44817992 1.03826011 0.00024059 0.00000000
2.18622498 1.72102678 -0.00305421 0.00000000
2.00599078 0.87352994 -0.00006577 0.00000000
0.95076081 0.33481638 0.00010684 0.00000000
1.80760293 1.01756178 -0.00058823 0.00000000
3.87949025 0.78436206 -0.00336812 0.00000000
1.46438326 0.69682793 0.00274406 0.00000000
2.64282190 0.44487272 -0.00099753 0.00000000
3.32018394 0.90067446 0.00680690 0.00000000
4.45231969 0.41368493 -0.00076286 0.00000000
4.82405167 1.74758748 -0.00022935 0.00000000
3.99066952 0.14768488 -0.00048134 0.00000000
0.68524517 0.24277370 0.00138103 0.00000000
0.30377301 1.40399928 0.00050271 0.00000000
1.60695255 1.31207903 -0.00293110 0.00000000
2.76501132 0.89630188 -0.00099134 0.00000000
1.89092053 1.57997102 0.00318668 0.00000000
1.78660016 0.20583768 -0.00082578 0.00000000
1.69720485 1.38993126 0.00479557 0.00000000
3.16964108 0.13565084 -0.00687233 0.00000000
0.27613309 1.50507281 0.00204447 0.00000000
0.05903564 0.19560038 0.00065207 0.00000000
4.64678026 0.19604214 -0.00155410 0.00000000
1.98341691 0.24494354 0.00226235 0.00000000
4.31561947 1.53385516 0.00175592 0.00000000
0.24878318 1.53157573 -0.00120653 0.00000000
1.41030956 0.26461781 -0.00117713 0.00000000
2.77399580 0.03639919 -0.00169825 0.00000000
1.69186934 1.24820627 -0.00103894 0.00000000
0.47034885 1.43367707 -0.00191919 0.00000000
0.50811874 1.34873384 -0.00021645 0.00000000
0.02147904 1.14308493 -0.00008930 0.00000000
4.33343222 0.25329398 0.00258067 0.00000000
2.38151710 0.40045363 0.00097951 0.00000000
0.36638505 0.80339322 0.00685468 0.00000000
1.62936930 1.26750522 0.00004158 0.00000000
0.32297462 0.18555646 -0.00184339 0.00000000
0.07291021 0.37864918 -0.00249852 0.00000000
0.13391397 0.99075690 0.00506047 0.00000000
4.61204394 1.12218552 0.00260783 0.00000000
3.10557330 0.63598370 0.00045049 0.00000000
0.49237292 1.54213145 -0.00327034 0.00000000
2.16660228 1.38353693 -0.00206293 0.00000000
4.77557484 1.59686567 -0.00061455 0.00000000
2.12453944 1.12584319 -0.00144851 0.00000000
2.95196002 0.18924052 -0.00091986 0.00000000
3.53346235 0.03789856 0.00432115 0.00000000
3.96570606 1.61247258 0.00004524 0.00000000
0.90592613 1.17944126 -0.00316117 0.00000000
1.31765138 0.75571844 0.00230353 0.00000000
2.81292430 1.54093999 0.00063071 0.00000000
1.19874116 0.16786986 -0.00071292 0.00000000
2.59922869 0.81764031 0.00159907 0.00000000
3.44139176 0.37933787 0.00046950 0.00000000
2.58075859 1.72135306 0.00227336 0.00000000
1.37740801 0.33779648 -0.00569386 0.00000000
2.57255367 0.74830186 -0.00093866 0.00000000
4.31947152 0.12931269 0.00429768 0.00000000
2.32740754 0.35704727 0.00057992 0.00000000
3.80793894 0.93973405 0.00184283 0.00000000
4.45919058 1.44753071 -0.00031698 0.00000000
1.17315001 0.03414192 -0.00299954 0.00000000
1.03805579 1.48167998 0.00055220 0.00000000
3.66096419 1.75909133 0.00063515 0.00000000
4.63881632 0.73218917 -0.00225027 0.00000000
3.54260199 1.14930613 0.00308085 0.00000000
3.02742205 0.43549133 0.00230452 0.00000000
4.35336734 0.49044978 -0.00082833 0.00000000
2.37874617 0.27329763 -0.00236651 0.00000000
1.54178409 0.02873530 -0.00271704 0.00000000
2.17290282 0.94793081 -0.00008257 0.00000000
1.39840286 1.59758895 -0.00130481 0.00000000
1.30739324 0.56710820 -0.00026197 0.00000000
1.08915162 0.04689923 0.00326220 0.00000000
1.43455228 0.86535995 -0.00010891 0.00000000
1.60769242 0.51829095 0.00026292 0.00000000
1.66705250 1.61988884 0.00525471 0.00000000
2.00510484 1.20393791 -0.00097892 0.00000000
0.63080021 1.01815539 -0.00279007 0.00000000
2.15965447 0.60383105 0.00116395 0.00000000
1.77796638 0.63047784 -0.00473828 0.00000000
0.98968148 1.41752409 -0.00056726 0.00000000
1.57675678 1.57832713 -0.00037376 0.00000000
2.62556811 1.78735507 -0.00169780 0.00000000
2.31458760 0.70399443 0.00154679 0.00000000
4.73647092 1.58087932 -0.00376917 0.00000000
2.85126054 0.69321085 0.00517894 0.00000000
2.96443811 0.98485273 0.00026088 0.00000000
3.55558561 1.45717633 0.00246288 0.00000000
4.71120726 1.33562224 0.00278698 0.00000000
0.38987317 1.70397903 0.00120773 0.00000000
3.75842915 0.50423512 0.00286676 0.00000000
0.99838585 0.98254286 0.00013178 0.00000000
3.19240991 0.92539938 0.00351829 0.00000000
2.38064815 1.78753038 -0.00046461 0.00000000
3.99177794 1.23108740 -0.00327039 0.00000000
3.40052394 0.16261653 -0.00151973 0.00000000
4.07538529 1.64800501 -0.00195656 0.00000000
4.60235453 0.90033802 -0.00022340 0.00000000
3.02751018 0.93797673 -0.00574186 0.00000000
0.61461904 1.00169295 0.00026312 0.00000000
4.43418125 0.71162333 0.00008404 0.00000000
2.52914227 1.69508032 0.00120417 0.00000000
1.08403234 0.17098557 0.00182931 0.00000000
0.32678580 0.87126060 -0.00177630 0.00000000
4.56291521 1.76334393 0.00200589 0.00000000
1.59031959 0.21861646 0.00470192 0.00000000
0.45729901 0.60482192 -0.00076925 0.00000000
1.41344255 0.26364139 -0.00464350 0.00000000
2.90538429 0.13725570 -0.00524995 0.00000000
4.14841367 1.39612518 -0.00359241 0.00000000
0.24775794 0.32748507 -0.00126013 0.00000000
2.14912890 0.20878228 0.00120703 0.00000000
2.98200683 0.60782220 0.00289746 0.00000000
1.11171291 1.39311720 -0.00225083 0.00000000
4.50434125 1.62742827 0.00214049 0.00000000
1.82840168 0.63363641 -0.00060998 0.00000000
1.87245018 1.04138557 0.00038323 0.00000000
1.76160429 1.42162538 0.00350730 0.00000000
3.96986583 0.31220639 0.00069816 0.00000000
3.02907118 1.57302152 -0.00343248 0.00000000
2.00199150 0.13466644 0.00085506 0.00000000
0.55567046 1.46041775 0.00460519 0.00000000
3.76798789 0.68894085 0.00000105 0.00000000
3.25651753 1.15171770 0.00061063 0.00000000
0.72872307 1.72337717 -0.00310033 0.00000000
1.26329680 1.38259314 0.00613367 0.00000000
0.58368155 0.48187002 0.00353939 0.00000000
2.78052013 1.81851013 -0.00183290 0.00000000
2.69205304 1.23481808 -0.00104116 0.00000000
3.53721847 1.71880044 0.00011940 0.00000000
1.65028036 0.67244858 -0.00276891 0.00000000
3.00861744 0.09362462 -0.00465954 0.00000000
3.06878973 0.28727269 -0.00160722 0.00000000
3.45952861 0.89561058 -0.00027516 0.00000000
2.51246247 1.69168264 -0.00150749 0.00000000
1.05995914 1.04035990 0.00273017 0.00000000
3.43720039 0.27999728 -0.00011528 0.00000000
0.65785208 1.22809641 -0.00023014 0.00000000
4.73141519 1.35307840 -0.00133822 0.00000000
1.24336048 0.18319089 0.00315061 0.00000000
1.84859899 0.94274848 -0.00280744 0.00000000
1.87238242 0.15870917 0.00060451 0.00000000
1.04970917 1.52488045 -0.00255267 0.00000000
0.08381519 1.74303150 0.00191643 0.00000000
0.23767364 0.69124235 -0.00343138 0.00000000
3.21719703 1.02806081 -0.00259123 0.00000000
0.47843817 0.60956867 0.00008424 0.00000000
4.79432896 1.26188823 -0.00249456 0.00000000
4.14338421 0.18051990 -0.00006956 0.00000000
4.34198717 1.27308608 0.00065806 0.00000000
2.04443767 1.44902071 -0.00049178 0.00000000
2.48718393 0.66112425 -0.00022172 0.00000000
3.38121109 1.45182748 0.00024837 0.00000000
2.19375200 0.75926866 0.00472346 0.00000000
4.40255791 0.63374091 0.00255579 0.00000000
4.42994041 0.21042979 0.00170561 0.00000000
4.51712559 0.75358731 -0.00010774 0.00000000
0.48950691 0.22609645 -0.00237708 0.00000000
1.13624962 0.79170452 0.00687415 0.00000000
1.65386771 0.77559096 0.00398482 0.00000000
2.52626903 1.36348697 0.00075919 0.00000000
4.04831471 0.79633409 -0.00055455 0.00000000
3.83745560 0.91269218 -0.00154449 0.00000000
1.31457830 0.24110459 0.00316110 0.00000000
1.18935537 0.78153387 0.00218755 0.00000000
3.87510526 0.80149603 0.00259278 0.00000000
2.52244815 1.11284187 -0.00093831 0.00000000
2.19883082 1.75029206 -0.00690360 0.00000000
3.91968120 0.73745747 -0.00255743 0.00000000
0.63686257 1.44249588 -0.00138894 0.00000000
2.18236121 0.08082697 -0.00210772 0.00000000
2.84047076 0.80560348 -0.00401590 0.00000000
3.23107730 0.23478807 0.00143695 0.00000000
3.47380564 0.17805237 -0.00297964 0.00000000
0.53643711 0.32679463 0.00031242 0.00000000
2.45560423 0.84939698 0.00218549 0.00000000
0.43726401 0.14811475 -0.00143556 0.00000000
4.45782719 1.65650385 0.00048117 0.00000000
3.33191572 1.19891676 -0.00392782 0.00000000
3.61838045 0.29732656 -0.00120476 0.00000000
4.00008575 0.18539825 -0.00062705 0.00000000
3.79555561 1.74580046 -0.00067044 0.00000000
4.20771012 0.70399373 -0.00103532 0.00000000
0.14900560 1.67771747 0.00196020 0.00000000
4.40180215 0.64987126 0.00349441 0.00000000
3.75023211 0.55920618 0.00054167 0.00000000
0.14932316 0.57893153 -0.00269134 0.00000000
0.31872546 0.64977998 0.00022978 0.00000000
3.91885095 0.76393949 -0.00291894 0.00000000
3.74683964 0.25199467 -0.00075417 0.00000000
1.62665039 1.38291100 0.00074420 0.00000000
2.19838260 1.27436166 -0.00152012 0.00000000
4.53974239 0.39094108 0.00212022 0.00000000
4.59285845 0.69974839 0.00604097 0.00000000
2.72783163 1.75021822 -0.00083033 0.00000000
2.42387286 1.39555919 -0.00249085 0.00000000
1.95422082 1.03327558 -0.00070305 0.00000000
2.37766677 0.47646207 0.00073901 0.00000000
3.13179071 1.34611041 -0.00046076 0.00000000
2.32536299 1.20104622 -0.00159245 0.00000000
1.96277605 1.37472401 0.00350876 0.00000000
0.24167662 1.56011546 0.00007838 0.00000000
2.23351293 0.50878197 -0.00228245 0.00000000
3.83153453 1.41327146 -0.00467677 0.00000000
1.90007623 1.13350794 -0.00030496 0.00000000
4.74065507 0.54544450 -0.00328724 0.00000000
3.19736468 1.76007758 -0.00211037 0.00000000
4.24067229 1.15693477 -0.00017008 0.00000000
0.30701665 1.28466202 0.00018272 0.00000000
2.51636719 0.98224106 -0.00094022 0.00000000
2.01049898 0.14305369 0.00251879 0.00000000
3.98300936 1.70743326 -0.00104235 0.00000000
4.03418190 1.15769009 0.00242403 0.00000000
0.29422742 0.36785305 0.00185023 0.00000000
3.55972600 0.17845039 0.00230904 0.00000000
4.44096796 1.62999559 -0.00121820 0.00000000
1.47659989 0.49233967 -0.00024284 0.00000000
1.64962630 0.76250405 0.00153858 0.00000000
4.22297741 0.44569735 -0.00310149 0.00000000
2.09757248 0.61036570 -0.00251523 0.00000000
3.60189648 0.55733966 -0.00090422 0.00000000
4.41984475 1.80229468 -0.00581550 0.00000000
4.23912651 0.62053868 0.00038348 0.00000000
1.30253790 0.94967799 0.00215386 0.00000000
1.87988590 0.83100748 -0.00245151 0.00000000
4.21079824 1.00798112 0.00002136 0.00000000
4.63972865 0.65276437 0.00282191 0.00000000
3.86245855 0.68293332 -0.00015838 0.00000000
0.05255392 0.28786501 0.00052532 0.00000000
3.80302427 0.80091653 -0.00326194 0.00000000
1.02886779 1.68835906 0.00278005 0.00000000
2.48775964 1.06740824 -0.00189125 0.00000000
2.51524427 1.51470661 -0.00041844 0.00000000
0.95374788 0.40492505 0.00313658 0.00000000
1.35949326 0.42463300 -0.00424973 0.00000000
2.13987277 0.05677428 -0.00216359 0.00000000
4.17642468 1.05729190 0.00008064 0.00000000
2.32086227 1.71709582 -0.00208228 0.00000000
4.20092626 0.48540157 -0.00106420 0.00000000
2.92196830 0.35065054 -0.00216636 0.00000000
2.11031819 1.75937672 0.00070459 0.00000000
2.27133363 1.70968904 -0.00169323 0.00000000
0.35487730 1.76582343 0.00015462 0.00000000
4.04406499 0.16840965 -0.00574363 0.00000000
4.00344060 0.46756013 0.00003758 0.00000000
2.99036871 0.19393145 0.00232654 0.00000000
3.95274565 0.52245190 0.00351307 0.00000000
4.17181784 0.49362521 0.00138180 0.00000000
4.48948797 1.57749250 -0.00269538 0.00000000
0.84091819 0.48206571 0.00376297 0.00000000
0.40910097 1.34993839 -0.00034778 0.00000000
1.15344159 0.67425368 0.00411933 0.00000000
3.23511137 1.43967660 0.00189341 0.00000000
4.61847766 1.39944593 0.00053089 0.00000000
0.12665023 1.40600725 -0.00004404 0.00000000
1.62833837 0.79431241 0.00019313 0.00000000
1.71923240 1.47574455 0.00134495 0.00000000
3.09613129 1.62004028 -0.00010792 0.00000000
4.13462477 1.39668706 -0.00151543 0.00000000
0.48312526 0.06501150 -0.00280075 0.00000000
0.71685032 1.17814835 -0.00500695 0.00000000
0.92996968 1.07597524 0.00180435 0.00000000
1.46782016 1.66900281 -0.00130130 0.00000000
3.15028899 0.61772948 -0.00207465 0.00000000
1.16527718 0.67180011 -0.00021329 0.00000000
2.06881303 1.13867196 -0.00215253 0.00000000
1.49633838 1.80343579 0.00074556 0.00000000
0.58583579 0.95474182 -0.00138692 0.00000000
3.82971933 1.01667143 -0.00040701 0.00000000
0.55030272 1.39126528 0.00318961 0.00000000
3.82217234 1.71412449 0.00172557 0.00000000
0.34516634 0.36739951 -0.00116927 0.00000000
3.48295745 1.63572046 0.00272337 0.00000000
2.17700810 0.83223490 0.00102955 0.00000000
1.82698238 0.11213834 -0.00079347 0.00000000
2.18142001 1.67452300 -0.00402052 0.00000000
1.06881558 0.57652355 0.00237906 0.00000000
3.41851620 1.70481806 0.00164987 0.00000000
2.13803666 0.69258591 0.00094409 0.00000000
1.70337367 0.51709240 -0.00282729 0.00000000
4.52560604 0.31723184 -0.00233648 0.00000000
1.94869461 1.69537548 -0.00244054 0.00000000
0.75127266 1.60188092 0.00574923 0.00000000
2.71836197 0.97193220 -0.00297463 0.00000000
3.07043084 0.21618632 -0.00558279 0.00000000
3.73232854 1.54113472 0.00533716 0.00000000
1.76147256 1.20434481 -0.00038771 0.00000000
1.26326892 1.39800147 0.00410805 0.00000000
2.79295646 0.91589727 0.00312914 0.00000000
1.75837249 1.69784157 0.00417779 0.00000000
0.81045781 1.45094904 -0.00375104 0.00000000
2.89170746 1.54919075 -0.00010834 0.00000000
0.00863531 0.91858253 -0.00120300 0.00000000
2.83598206 0.50957317 0.00093099 0.00000000
3.81851726 1.79697632 -0.00339273 0.00000000
2.66612324 1.54706163 0.00213300 0.00000000
4.86168328 0.72733416 0.00132561 0.00000000
4.58228850 1.25245031 -0.00051461 0.00000000
2.27952280 0.02372855 -0.00012356 0.00000000
2.29332954 1.55710927 -0.00316519 0.00000000
1.92232006 0.43930107 0.00019762 0.00000000
1.57665654 0.23088783 0.00315072 0.00000000
0.06841099 0.36141204 0.00059467 0.00000000
0.83597930 1.74258018 -0.00488163 0.00000000
1.84317790 1.12337915 0.00028748 0.00000000
4.21599822 0.84894434 0.00243477 0.00000000
0.54918713 1.27043209 0.00255305 0.00000000
4.21366891 1.09525849 -0.00082646 0.00000000
3.49641011 0.22305831 -0.00420543 0.00000000
1.74388360 0.61933392 0.00180029 0.00000000
3.19138343 1.66196087 0.00011437 0.00000000
0.16023269 0.68897234 0.00209377 0.00000000
2.82496148 1.03868533 -0.00105873 0.00000000
4.46679296 1.55022863 0.00318762 0.00000000
1.28989181 1.19068190 -0.00534238 0.00000000
2.60899116 0.70595061 0.00330216 0.00000000
2.13261492 1.75974798 -0.00115130 0.00000000
1.99647763 0.56123592 -0.00112805 0.00000000
1.45289237 0.90802566 0.00315479 0.00000000
4.23116609 1.66545436 0.00574225 0.00000000
3.15368087 0.31718004 0.00316014 0.00000000
1.87683341 1.67361000 -0.00027486 0.00000000
1.38338581 0.25796214 -0.00301975 0.00000000
0.53136103 0.05468341 0.00158266 0.00000000
4.89995105 1.30888334 -0.00267650 0.00000000
4.74952307 0.58524502 0.00205916 0.00000000
0.80891051 1.24086807 -0.00085132 0.00000000
3.51537770 0.02132925 0.00033719 0.00000000
0.21927609 0.93619343 0.00284538 0.00000000
3.48303770 0.03854385 -0.00180623 0.00000000
4.69766833 1.08728088 -0.00281666 0.00000000
0.38782705 1.79740331 0.00413755 0.00000000
2.13985333 0.33201385 -0.00094496 0.00000000
0.07289256 1.30842505 -0.00377039 0.00000000
1.96136165 0.44729333 -0.00548325 0.00000000
2.08426101 0.35025016 -0.00176504 0.00000000
4.47523841 0.41530565 0.00076371 0.00000000
1.26349687 0.85871857 -0.00165879 0.00000000
0.67293350 1.06543515 0.00186467 0.00000000
4.10620974 1.27523994 0.00171720 0.00000000
2.27425044 1.44197246 0.00168326 0.00000000
1.02447432 1.38447787 -0.00404183 0.00000000
1.83292657 0.12465547 0.00073779 0.00000000
0.25779149 0.75525147 -0.00268326 0.00000000
3.80841021 0.33993541 -0.00296871 0.00000000
1.98350037 0.76732081 0.00268861 0.00000000
0.59208089 0.86147159 0.00035217 0.00000000
2.92955907 0.95151280 -0.00222771 0.00000000
3.53088231 0.78085281 -0.00189905 0.00000000
0.20918832 1.37811445 -0.00252165 0.00000000
3.27895721 1.28746519 -0.00132387 0.00000000
2.14359215 1.55884291 -0.00116849 0.00000000
1.33481750 0.34050083 -0.00003620 0.00000000
2.51960167 0.29041442 0.00105533 0.00000000
4.50809057 1.40803827 -0.00403231 0.00000000
4.78822624 1.27040615 0.00439823 0.00000000
1.76622980 0.20096323 -0.00258735 0.00000000
3.32531104 1.36097190 -0.00111756 0.00000000
2.52479780 1.06430720 -0.00703418 0.00000000
0.42962930 0.98032752 0.00253121 0.00000000
0.46368238 1.00717516 0.00188260 0.00000000
3.05672437 0.78267555 -0.00089706 0.00000000
2.66965957 0.74085582 -0.00291060 0.00000000
0.30873980 0.82750143 0.00067287 0.00000000
0.30045702 0.94254378 0.00066384 0.00000000
1.13591011 1.26049621 -0.00304988 0.00000000
2.41680723 0.24556998 0.00011842 0.00000000
2.96909152 1.02540756 -0.00040378 0.00000000
1.24389948 1.42446162 -0.00030698 0.00000000
3.63293417 0.78740097 0.00046845 0.00000000
4.27219827 1.08995034 -0.00198730 0.00000000
1.25148459 0.22511755 -0.00149428 0.00000000
2.46547254 1.47262535 -0.00382881 0.00000000
2.64323691 1.25211264 0.00169138 0.00000000
1.49511048 0.49978616 0.00456853 0.00000000
4.58895709 0.72828423 0.00153815 0.00000000
2.49372593 1.49047109 -0.00221227 0.00000000
4.46455742 1.78892336 0.00270004 0.00000000
1.47940962 1.81882006 0.00218212 0.00000000
1.42340180 0.47691615 0.00609591 0.00000000
1.32025104 0.51940279 0.00201195 0.00000000
1.33299887 1.39526484 -0.00260340 0.00000000
3.41108674 0.62396680 -0.00128382 0.00000000
0.32137006 0.75910551 0.00007723 0.00000000
3.73560486 1.80303842 0.00482657 0.00000000
4.28859500 0.17827882 0.00565546 0.00000000
1.29495566 1.33955108 -0.00228558 0.00000000
2.01863797 1.30098940 -0.00117126 0.00000000
1.73884368 0.46124670 0.00077415 0.00000000
2.58851042 0.03919513 -0.00550020 0.00000000
2.95854807 0.32181486 0.00258862 0.00000000
