3.90066244 0.11427518 -0.00360246 0.00000000
1.51237820 0.01162919 -0.00347865 0.00000000
4.30371855 0.15302496 -0.00085070 0.00000000
0.44174710 1.18139067 -0.00323778 0.00000000
2.50710542 1.31700658 -0.00415801 0.00000000
0.38879567 0.23615682 0.00145004 0.00000000
2.33111545 0.68093609 -0.00066864 0.00000000
2.93889165 0.43489695 0.00139403 0.00000000
1.97450505 0.46766191 0.00032054 0.00000000
0.33234235 0.52424534 0.00009297 0.00000000
1.14810866 0.56027852 -0.00122194 0.00000000
4.28953107 0.81370119 0.00029194 0.00000000
1.44393935 1.32691637 -0.00236195 0.00000000
3.66923058 0.15699684 0.00386936 0.00000000
2.60791871 0.59560928 0.00070056 0.00000000
4.24369805 0.60536666 0.00123903 0.00000000
1.13222134 0.22835720 0.00237396 0.00000000
2.87385706 0.21045751 0.00004295 0.00000000
0.64337850 0.60624501 0.00077289 0.00000000
1.96626927 1.35586724 -0.00186695 0.00000000
3.91209694 1.17384588 -0.00016302 0.00000000
0.96522993 1.70887976 0.00096902 0.00000000
0.27142195 1.17950274 -0.00214701 0.00000000
4.31228235 0.96910354 -0.00183608 0.00000000
0.59496300 0.52632537 -0.00307046 0.00000000
4.11822210 1.69128324 -0.00210718 0.00000000
4.30007479 1.09737997 -0.00094978 0.00000000
1.07528955 0.18710218 0.00030512 0.00000000
3.21078069 0.89114484 0.00133259 0.00000000
3.98915545 0.51703092 0.00030237 0.00000000
1.56139847 1.67646662 0.00304718 0.00000000
3.30533053 1.71132981 -0.00158876 0.00000000
1.07718540 0.65350431 0.00065970 0.00000000
4.01937569 0.63669787 -0.00287944 0.00000000
3.03363467 0.62483753 -0.00214350 0.00000000
1.07398849 0.14947768 0.00187207 0.00000000
1.74510092 0.90995452 -0.00061365 0.00000000
2.17237401 0.95133909 -0.00047873 0.00000000
0.80740679 0.21347086 0.00420354 0.00000000
1.34225608 0.99191559 0.00059365 0.00000000
3.65321111 0.52483497 0.00288287 0.00000000
0.82701191 0.55514080 0.00232198 0.00000000
1.93017216 1.60130262 -0.00238696 0.00000000
3.34712787 0.05189840 -0.00018089 0.00000000
3.19627240 1.73984629 0.00228956 0.00000000
1.09023680 0.13028952 0.00217559 0.00000000
2.16101733 1.76621962 0.00016602 0.00000000
2.89562796 0.78072180 -0.00158323 0.00000000
2.58772543 0.68474228 -0.00402941 0.00000000
0.37156784 0.40286615 -0.00258047 0.00000000
1.28185702 0.87028315 0.00101377 0.00000000
0.02635876 0.64928434 -0.00353469 0.00000000
0.73462134 0.67350438 -0.00100216 0.00000000
3.84592823 0.42333875 -0.00192950 0.00000000
0.17679629 1.14734699 0.00255355 0.00000000
2.59708544 1.45541085 0.00399514 0.00000000
4.15450360 0.26783222 0.00056457 0.00000000
3.90186268 0.31932990 0.00156951 0.00000000
1.22439606 0.70302974 -0.00027059 0.00000000
0.85556934 1.36500423 -0.00098230 0.00000000
0.25551475 1.20012433 -0.00151004 0.00000000
0.08814219 0.69172700 0.00030267 0.00000000
3.87457593 0.04254814 0.00090795 0.00000000
0.80410233 0.25489732 0.00451060 0.00000000
2.30768893 1.57818311 0.00337366 0.00000000
1.16488611 1.37212564 0.00189262 0.00000000
2.55973914 0.40975097 -0.00231891 0.00000000
3.37453626 0.61580291 0.00627365 0.00000000
0.94010194 0.96733554 0.00022013 0.00000000
0.62497950 1.32952852 -0.00212698 0.00000000
0.95742881 0.95967342 0.00022864 0.00000000
0.17482465 0.95430317 -0.00186721 0.00000000
0.61045334 0.07254059 -0.00237555 0.00000000
0.11796939 0.10407688 0.00297624 0.00000000
0.00947518 1.35613437 0.00025082 0.00000000
1.41202440 0.17169743 0.00097052 0.00000000
1.39820641 0.09579473 0.00387923 0.00000000
4.31376103 0.68179679 0.00527804 0.00000000
3.83847554 0.81935481 -0.00047807 0.00000000
1.98615976 1.25034916 -0.00236458 0.00000000
0.75090729 0.86851789 0.00092644 0.00000000
2.23957265 1.68558017 -0.00118753 0.00000000
1.52804788 1.51577178 -0.00053002 0.00000000
0.55262874 0.85886389 0.00247884 0.00000000
2.83507378 1.54122993 -0.00264197 0.00000000
0.04446841 1.01494086 -0.00565441 0.00000000
3.17611989 1.19921179 -0.00261201 0.00000000
2.19442846 1.23314912 0.00584398 0.00000000
1.51115179 0.34927108 -0.00031211 0.00000000
1.74695222 0.84302606 0.00027657 0.00000000
2.89790748 0.08388120 -0.00076049 0.00000000
2.28397759 0.10902655 -0.00114625 0.00000000
0.64186061 1.49585016 -0.00324742 0.00000000
4.23904920 0.71677277 -0.00143020 0.00000000
3.53119884 0.91302124 0.00275871 0.00000000
2.58894085 1.16518410 -0.00262149 0.00000000
1.35539049 1.54418486 -0.00079187 0.00000000
4.04857297 0.78959013 0.00064405 0.00000000
1.12780191 1.53158924 0.00158493 0.00000000
2.58366546 0.57938358 -0.00346555 0.00000000
2.43620935 0.52375260 0.00419860 0.00000000
2.27190025 0.04257423 -0.00154251 0.00000000
2.05629696 0.32720927 0.00094482 0.00000000
1.78107119 0.27845081 -0.00241436 0.00000000
2.08144867 0.66253446 0.00066812 0.00000000
1.97836910 1.26897477 -0.00256691 0.00000000
3.20441342 0.16007494 -0.00337721 0.00000000
0.41069587 0.56080883 0.00023431 0.00000000
3.46532861 0.53160385 -0.00125827 0.00000000
1.59862424 0.44087945 -0.00238260 0.00000000
0.80833658 0.95977015 0.00556492 0.00000000
3.52603780 1.44889204 0.00122488 0.00000000
2.43737425 1.19631955 -0.00083146 0.00000000
2.52127858 0.01755476 0.00031177 0.00000000
2.60210910 0.37420513 0.00224584 0.00000000
2.02684109 1.00878741 0.00004843 0.00000000
3.91135659 0.52539750 -0.00257575 0.00000000
0.00630819 1.40782209 -0.00120871 0.00000000
2.94711283 0.22877192 -0.00134534 0.00000000
3.49272347 1.33368566 -0.00488593 0.00000000
2.93888335 0.70156179 -0.00037178 0.00000000
1.16251974 0.39009953 0.00098897 0.00000000
1.37160938 1.02957534 0.00004239 0.00000000
2.82929790 0.23885602 0.00229044 0.00000000
2.88185702 1.08857606 0.00068120 0.00000000
3.39170897 0.70465154 0.00279020 0.00000000
3.75839878 0.23469569 -0.00181099 0.00000000
0.03934850 1.28439715 0.00530739 0.00000000
3.55667375 1.15533705 0.00036937 0.00000000
1.56916091 1.10241559 0.00292827 0.00000000
2.57244570 1.20529488 0.00172030 0.00000000
2.45917461 1.62785333 -0.00092515 0.00000000
1.34167922 1.60591872 -0.00215718 0.00000000
2.69282145 0.13231021 -0.00277470 0.00000000
0.01053874 1.29226900 -0.00100988 0.00000000
0.56426949 0.08609098 0.00167949 0.00000000
0.53981438 1.39715541 -0.00046831 0.00000000
4.18904764 0.95766991 0.00290095 0.00000000
1.63773601 1.07174538 -0.00205679 0.00000000
4.21505971 0.69816897 0.00118921 0.00000000
2.30892835 0.25783830 0.00248726 0.00000000
0.58472334 1.32757072 0.00325354 0.00000000
4.23860931 0.99689119 -0.00119701 0.00000000
0.08143191 0.39063776 0.00068464 0.00000000
3.79186989 1.63339631 0.00377520 0.00000000
3.39176889 1.35206921 0.00028694 0.00000000
3.01799748 0.78484582 -0.00101712 0.00000000
3.22173382 0.95949606 0.00306668 0.00000000
0.15458421 1.76339126 0.00014957 0.00000000
1.71789921 1.74618495 0.00023699 0.00000000
0.64140261 1.19140423 0.00141065 0.00000000
2.93031832 1.23090762 0.00362750 0.00000000
3.26190155 1.64327825 -0.00271884 0.00000000
0.40157344 0.29857508 0.00013756 0.00000000
2.62426871 1.09947781 0.00253347 0.00000000
3.19171652 1.32405871 -0.00045999 0.00000000
2.00394322 1.06061734 -0.00462723 0.00000000
3.31380165 0.17298447 -0.00320584 0.00000000
2.67728065 0.38908842 0.00069859 0.00000000
1.33835093 1.67785446 -0.00532728 0.00000000
1.15014253 0.29558019 0.00047846 0.00000000
0.52545301 0.18351094 0.00142962 0.00000000
1.07658398 1.67648187 -0.00158682 0.00000000
1.29626438 1.60568111 -0.00116955 0.00000000
1.79977088 1.32305430 0.00254769 0.00000000
2.36861606 0.08781201 -0.00027596 0.00000000
2.89767159 1.34070213 0.00331336 0.00000000
0.66155950 1.54486894 -0.00098364 0.00000000
0.22318916 1.24405844 0.00057743 0.00000000
3.32627618 0.98142517 -0.01001800 0.00000000
2.06287534 0.68968803 0.00100674 0.00000000
4.10339078 0.96614723 -0.00155530 0.00000000
0.88654666 1.44258791 0.00131654 0.00000000
3.39009727 1.13483947 -0.00081479 0.00000000
2.23910699 1.36904752 -0.00188041 0.00000000
2.01913918 0.23571350 0.00090692 0.00000000
3.21820488 1.46842400 -0.00084227 0.00000000
1.90716871 0.23938629 0.00292450 0.00000000
4.06188496 1.65750332 -0.00194059 0.00000000
2.89209604 0.10634982 -0.00287102 0.00000000
0.92350956 1.31251733 -0.00250394 0.00000000
3.81373521 0.65219154 0.00178753 0.00000000
1.76603865 0.95795354 0.00237517 0.00000000
1.89872995 1.28091164 -0.00109759 0.00000000
1.87802788 0.45131023 -0.00005112 0.00000000
1.31488259 0.93183262 -0.00098603 0.00000000
0.93263342 0.93081919 0.00164443 0.00000000
1.02375901 1.64434914 -0.00034526 0.00000000
0.37587823 0.56672641 -0.00150742 0.00000000
4.14594623 1.21469516 -0.00333724 0.00000000
0.37591899 0.09595862 -0.00364190 0.00000000
0.11687617 1.27339143 0.00169529 0.00000000
0.78639408 1.69444492 0.00062849 0.00000000
2.25487798 1.11163722 -0.00191513 0.00000000
0.81622876 0.71015481 -0.00060961 0.00000000
1.42517998 0.29256630 0.00362841 0.00000000
2.38594913 1.19349055 0.00263038 0.00000000
3.80992941 1.59505460 -0.00028143 0.00000000
3.81574866 0.72699153 -0.00020291 0.00000000
3.01898480 0.78327392 -0.00144578 0.00000000
0.87745835 0.15843474 -0.00262174 0.00000000
3.27849360 0.56803710 -0.00133346 0.00000000
2.43971227 0.47144037 -0.00561625 0.00000000
3.58435682 1.50549698 -0.00102559 0.00000000
2.23283836 1.38484613 0.00032516 0.00000000
0.51145625 0.29803934 -0.00023948 0.00000000
2.43721321 0.98126800 -0.00076062 0.00000000
2.53846390 0.70616687 -0.00184923 0.00000000
3.74960090 0.29374077 -0.00472336 0.00000000
0.51764522 0.15680383 -0.00052976 0.00000000
2.48792870 1.50290929 0.00066542 0.00000000
3.72956580 1.40652828 0.00043853 0.00000000
2.30432802 1.16114320 0.00843733 0.00000000
4.06753632 0.05180185 -0.00315251 0.00000000
0.65419883 0.52117893 0.00000697 0.00000000
1.20492017 0.75887435 0.00171282 0.00000000
3.44277772 0.55565506 0.00105454 0.00000000
1.18753115 1.06740551 -0.00175006 0.00000000
2.35886122 0.00280463 0.00103816 0.00000000
0.28906601 1.20813277 -0.00214368 0.00000000
2.55418957 1.35090363 0.00441363 0.00000000
4.10841886 1.35623192 -0.00193524 0.00000000
0.49539320 0.92838462 0.00071537 0.00000000
3.04515525 1.17355149 -0.00197053 0.00000000
3.49649356 0.79990232 0.00502279 0.00000000
1.51227620 0.36066237 0.00694862 0.00000000
2.35857804 0.79165150 0.00258321 0.00000000
2.61341428 0.71338785 -0.00032829 0.00000000
3.35295868 1.30818996 0.00145548 0.00000000
0.03717332 0.75158894 -0.00052929 0.00000000
1.98728810 0.00577592 -0.00263409 0.00000000
0.78667523 0.09327156 0.00127458 0.00000000
1.69850535 0.40901978 0.00280750 0.00000000
3.76182668 1.42597083 -0.00161480 0.00000000
1.00361308 0.06230580 0.00038350 0.00000000
4.10823398 0.21946383 -0.00385471 0.00000000
1.51767503 1.61880822 0.00014739 0.00000000
1.43775089 1.37680997 0.00218168 0.00000000
3.37861994 1.52482745 -0.00031223 0.00000000
0.66578499 0.83156480 -0.00061777 0.00000000
3.38371081 0.59701859 -0.00219355 0.00000000
2.35437627 1.10253940 -0.00401050 0.00000000
0.74161185 0.11008556 0.00316609 0.00000000
2.11385528 0.30424884 0.00278415 0.00000000
0.11046944 1.69397077 0.00032899 0.00000000
3.75506437 0.31508881 0.00166679 0.00000000
1.71283260 1.04787333 -0.00050080 0.00000000
3.37687097 0.34600133 -0.00061993 0.00000000
0.27415468 1.02274052 -0.00150762 0.00000000
2.08232763 1.39536707 -0.00286396 0.00000000
3.30559030 0.43523541 -0.00084817 0.00000000
3.19130863 0.90790422 0.00234040 0.00000000
1.45812010 0.86204053 -0.00261394 0.00000000
2.79896718 1.31936577 -0.00235411 0.00000000
1.56669470 0.91072721 -0.00188801 0.00000000
3.56971710 0.18068775 0.00138520 0.00000000
0.03343369 0.03413374 -0.00068401 0.00000000
2.04011779 1.32988023 -0.00393459 0.00000000
0.44241009 1.63545363 0.00033882 0.00000000
1.38299389 0.20267803 0.00091202 0.00000000
0.75358654 0.15413806 -0.00019537 0.00000000
3.60640581 1.19094631 0.00083786 0.00000000
2.53494168 0.05189478 0.00111818 0.00000000
3.63913775 0.06431038 -0.00316949 0.00000000
3.35735225 0.27310909 -0.00287440 0.00000000
2.93769473 1.75200149 0.00040201 0.00000000
3.14557001 0.59941030 -0.00343744 0.00000000
2.68344852 1.62508832 -0.00012149 0.00000000
2.54773931 1.24813625 0.00111572 0.00000000
3.66916625 0.39654112 0.00229224 0.00000000
2.47132306 1.65688359 0.00086226 0.00000000
3.03866525 0.23827877 0.00117479 0.00000000
2.05069060 0.25317360 0.00102455 0.00000000
4.00502811 0.63234317 -0.00363266 0.00000000
2.26724137 0.92303079 0.00104061 0.00000000
2.94683173 0.92023746 0.00006063 0.00000000
3.31121680 0.21896329 -0.00365205 0.00000000
1.78600943 0.23771785 -0.00225585 0.00000000
1.84911431 0.71212271 -0.00057682 0.00000000
2.91000451 0.14481420 0.00112059 0.00000000
3.96721679 1.76022751 -0.00116007 0.00000000
3.48767707 0.94104712 -0.00345632 0.00000000
0.95041033 0.41503751 -0.00075470 0.00000000
3.54088839 1.14994162 0.00248560 0.00000000
2.29994584 0.82974648 0.00174442 0.00000000
3.12582953 0.71714744 0.00111677 0.00000000
3.22041301 0.96575845 -0.00265076 0.00000000
0.66797656 0.81299918 0.00306099 0.00000000
1.43106390 0.83533789 0.00028777 0.00000000
3.56160401 1.66365406 0.00144327 0.00000000
4.28360986 1.17654963 0.00242083 0.00000000
2.13182661 1.24061973 0.00258583 0.00000000
0.14888737 1.39403210 0.00333037 0.00000000
1.20036288 0.25849648 0.00163825 0.00000000
3.06407548 0.63808176 0.00445398 0.00000000
2.35340639 1.54705834 0.00173365 0.00000000
1.08608469 0.62326834 0.00014790 0.00000000
2.09422750 0.22867699 -0.00007891 0.00000000
4.06722252 1.31122279 0.00120875 0.00000000
1.13704019 0.69920593 -0.00064268 0.00000000
2.19482270 0.07525706 0.00314045 0.00000000
0.99642034 0.10052704 -0.00167778 0.00000000
3.69286113 0.69540834 -0.00076692 0.00000000
2.90426546 0.44149766 0.00164230 0.00000000
0.00510012 0.53871280 0.00240878 0.00000000
4.06357143 0.14779551 0.00088653 0.00000000
1.28914314 0.80070372 -0.00154527 0.00000000
3.82587204 1.18343269 0.00387715 0.00000000
0.77852039 1.10273900 0.00097543 0.00000000
1.99635602 0.33626129 -0.00132719 0.00000000
4.17841909 1.58639353 0.00209461 0.00000000
2.18457757 1.75708667 -0.00272375 0.00000000
0.32555076 1.09404455 0.00114930 0.00000000
1.03529722 1.16365413 -0.00680567 0.00000000
1.34359300 0.80894171 -0.00035609 0.00000000
2.62547475 0.46375791 0.00404268 0.00000000
4.21470152 1.32997753 -0.00092363 0.00000000
1.81120354 0.57255777 0.00173881 0.00000000
3.02926744 0.22656513 -0.00409983 0.00000000
0.38266514 0.27768105 -0.00015696 0.00000000
3.26165289 1.56404363 0.00103563 0.00000000
2.38225603 0.22264970 -0.00223505 0.00000000
3.23365607 0.95989063 0.00024882 0.00000000
3.60378393 0.25450235 -0.00278785 0.00000000
2.41067643 1.55462070 0.00030251 0.00000000
1.33484165 0.69061335 -0.00006186 0.00000000
3.11424370 0.66196536 0.00001186 0.00000000
1.56915517 0.33390938 -0.00110925 0.00000000
3.77720964 0.81575699 0.00027971 0.00000000
1.57207653 0.98409808 -0.00058233 0.00000000
3.36868817 1.60714199 0.00327811 0.00000000
2.98758339 1.12638416 0.00064876 0.00000000
0.37500833 0.95617617 0.00159381 0.00000000
3.28718874 0.24087327 0.00334200 0.00000000
3.48614905 0.16285181 -0.00288988 0.00000000
0.35848105 0.37341638 -0.00285097 0.00000000
1.52515609 1.10414105 0.00255299 0.00000000
0.29642685 0.61980388 -0.00350996 0.00000000
2.12092246 1.20975073 -0.00331315 0.00000000
2.38835669 0.98360140 -0.00578554 0.00000000
2.52261082 0.31864281 0.00235515 0.00000000
3.72668008 0.73688923 -0.00473206 0.00000000
2.16676333 1.68708808 0.00072471 0.00000000
1.38367209 0.72538853 0.00164151 0.00000000
1.95854722 1.77259951 0.00120550 0.00000000
3.51486598 1.15852438 -0.00022314 0.00000000
3.61285301 0.13786584 0.00168390 0.00000000
2.00514802 1.75928009 -0.00147930 0.00000000
3.02080299 1.10197583 0.00159037 0.00000000
4.00942219 1.05799026 -0.00265849 0.00000000
1.03727944 0.46964662 0.00110514 0.00000000
4.20304951 0.42116734 0.00003457 0.00000000
4.09678575 0.32925397 0.00206199 0.00000000
4.12561837 1.38946728 -0.00062860 0.00000000
2.90536583 0.38235518 0.00124028 0.00000000
1.41976028 0.35214301 -0.00464689 0.00000000
0.09683062 0.77332506 0.00240362 0.00000000
4.18334712 0.06689014 0.00120250 0.00000000
0.56565358 1.52928245 -0.00203756 0.00000000
0.87650623 0.93853401 -0.00110607 0.00000000
4.03872618 0.55739535 -0.00309571 0.00000000
1.97983305 0.90022071 0.00051691 0.00000000
0.91985129 1.16524433 -0.00138724 0.00000000
3.11374526 0.81585805 0.00055887 0.00000000
1.39978795 0.03507367 -0.00228221 0.00000000
3.56355240 0.17620892 0.00100643 0.00000000
0.59384620 0.10258851 0.00193860 0.00000000
2.44226223 1.40638780 -0.00161412 0.00000000
3.86905358 0.96880978 -0.00245089 0.00000000
0.83032735 0.46448210 -0.00145998 0.00000000
3.40132042 0.23300567 -0.00066185 0.00000000
3.26065358 0.40051841 0.00047259 0.00000000
3.55888238 0.32157802 -0.00175713 0.00000000
2.89355600 0.69134100 0.00519405 0.00000000
1.79734612 0.70415271 0.00156839 0.00000000
3.02346485 1.18388673 -0.00348891 0.00000000
3.10435908 0.38888669 0.00185608 0.00000000
2.82506824 1.25342893 -0.00023027 0.00000000
0.62302456 0.21606874 0.00283218 0.00000000
1.58218827 0.07158945 -0.00195081 0.00000000
3.53114890 0.16076977 -0.00198450 0.00000000
2.47465695 0.12365310 0.00107507 0.00000000
1.08679737 0.13694434 0.00465644 0.00000000
2.23894174 1.03343760 0.00279545 0.00000000
1.40421069 1.67790585 -0.00334705 0.00000000
2.63076099 1.12727403 0.00124976 0.00000000
1.28234054 0.99558287 0.00148410 0.00000000
1.92851702 0.24501995 -0.00175453 0.00000000
3.60146351 0.75996015 -0.00188724 0.00000000
1.47274735 1.15603118 0.00257465 0.00000000
3.67707555 0.90366476 0.00008949 0.00000000
2.88150700 0.87950634 -0.00044471 0.00000000
2.96830334 0.58264736 0.00160734 0.00000000
1.82576974 1.35417249 -0.00167693 0.00000000
1.78068503 0.32682083 0.00138886 0.00000000
0.33590215 0.12174722 -0.00201074 0.00000000
1.16709417 1.11486747 0.00328773 0.00000000
0.15922696 0.59746843 -0.00362058 0.00000000
1.72151259 1.61339246 0.00153785 0.00000000
3.55145742 1.46231931 -0.00047412 0.00000000
2.62998769 0.04422751 0.00094318 0.00000000
2.79188719 1.49613510 -0.00113959 0.00000000
2.67680691 0.53541549 -0.00212145 0.00000000
1.50822436 0.78082016 0.00356026 0.00000000
3.72495406 0.91830765 -0.00120723 0.00000000
4.14601133 1.42591119 0.00335471 0.00000000
1.91689832 0.78182589 0.00243112 0.00000000
1.67683637 0.68970688 -0.00387181 0.00000000
0.79461853 0.10339793 -0.00011932 0.00000000
3.06097300 0.42891966 -0.00014347 0.00000000
3.11206905 0.08902761 -0.00248624 0.00000000
3.58004215 0.72883416 0.00138617 0.00000000
2.26031497 1.58912154 0.00312754 0.00000000
1.14035014 0.31798441 0.00172285 0.00000000
2.88929802 0.28188167 -0.00423488 0.00000000
2.74228621 1.74106077 0.00176351 0.00000000
0.77125444 0.76865699 0.00045261 0.00000000
2.80285136 1.22346177 0.00072641 0.00000000
2.08298914 0.32564804 0.00409022 0.00000000
2.84222978 0.94685083 0.00099085 0.00000000
3.34837863 1.27024463 0.00048915 0.00000000
4.09643974 1.43628827 0.00318926 0.00000000
3.09572191 0.75608021 0.00288695 0.00000000
2.57678232 0.25317814 -0.00181240 0.00000000
0.11586932 1.20273263 0.00096113 0.00000000
4.21198729 0.24420647 -0.00029327 0.00000000
4.10651203 1.18777394 0.00194650 0.00000000
2.88846592 0.80561930 -0.00213176 0.00000000
3.24070324 1.38128568 -0.00105204 0.00000000
1.83605387 0.04569731 0.00120729 0.00000000
1.03908846 1.35485513 -0.00289949 0.00000000
3.62244911 0.48379854 -0.00046778 0.00000000
0.16163645 1.70570553 -0.00181117 0.00000000
0.40988329 0.30243663 0.00332636 0.00000000
0.11504501 0.11738581 0.00031607 0.00000000
2.71063481 0.74178941 0.00011430 0.00000000
1.95011382 0.06565253 -0.00027496 0.00000000
1.68101141 1.33134972 0.00283438 0.00000000
2.03499663 1.73867432 0.00359184 0.00000000
0.96433719 1.57165824 0.00380052 0.00000000
1.14333336 1.60377604 -0.00171287 0.00000000
0.32581842 0.55653346 0.00095929 0.00000000
2.78885855 1.00767400 0.00179321 0.00000000
2.00926957 0.21103113 0.00044457 0.00000000
0.78558381 0.32359512 0.00139688 0.00000000
1.70671626 1.12642404 0.00172529 0.00000000
0.96675540 1.18310524 0.00011961 0.00000000
3.23580901 0.58823826 0.00099233 0.00000000
3.40086641 0.28268672 0.00191765 0.00000000
2.19302184 1.67108806 -0.00362539 0.00000000
0.76928226 0.44312406 0.00157631 0.00000000
2.64665926 1.13674688 -0.00006119 0.00000000
0.11141340 0.58508842 -0.00235246 0.00000000
3.96131981 1.14423827 -0.00197314 0.00000000
2.46385230 1.55137850 0.00078782 0.00000000
0.60311559 1.59011024 -0.00111749 0.00000000
4.09514391 0.18500067 0.00368823 0.00000000
2.47798303 0.61889255 0.00082457 0.00000000
1.95510104 0.92759184 -0.00120030 0.00000000
3.85743021 0.00501922 0.00318728 0.00000000
3.33399147 1.45055953 0.00003400 0.00000000
2.25137804 1.15737738 0.00055038 0.00000000
0.95152022 1.34663752 0.00003457 0.00000000
1.03744260 0.08497859 -0.00355100 0.00000000
3.19543424 0.10000461 -0.00429676 0.00000000
3.50978326 1.24641028 0.00390440 0.00000000
4.12484336 1.64801910 -0.00089640 0.00000000
0.11844405 0.91846751 -0.00046349 0.00000000
3.33018866 1.06378060 -0.00112032 0.00000000
0.57234398 0.83679263 0.00157828 0.00000000
1.32317351 0.31769066 -0.00091211 0.00000000
1.61237473 0.14811130 0.00164773 0.00000000
3.62922980 0.83375628 0.00527817 0.00000000
3.85016509 0.75856709 -0.00259669 0.00000000
1.55921899 0.30450076 -0.00143857 0.00000000
2.86161551 0.40401559 0.00284610 0.00000000
3.72995022 1.28567974 0.00002747 0.00000000
4.07311455 0.75297995 -0.00298974 0.00000000
1.25249504 1.23335213 0.00154970 0.00000000
3.32860493 0.77002361 0.00152374 0.00000000
3.01653134 1.35906490 0.00036541 0.00000000
0.35385856 0.81585805 0.00024950 0.00000000
0.08737019 0.56659965 0.00488633 0.00000000
3.14464928 1.45442338 0.00106214 0.00000000
2.11569676 1.15429390 0.00139103 0.00000000
2.83271483 1.47319542 0.00256383 0.00000000
0.41798617 0.20957963 -0.00328859 0.00000000
0.07284099 0.55917560 0.00247193 0.00000000
3.09578094 0.62309347 0.00023343 0.00000000
3.51465705 0.07175028 -0.00189958 0.00000000
0.36792487 0.02922496 -0.00096615 0.00000000
0.97877226 1.67317509 0.00212041 0.00000000
0.38829431 0.50980893 -0.00095085 0.00000000
2.01882770 0.62606579 -0.00246466 0.00000000
1.32730053 0.19976071 0.00194385 0.00000000
2.94423729 1.43671467 0.00526593 0.00000000
2.62137735 0.00833239 -0.00255092 0.00000000
0.48593268 0.49122136 -0.00054314 0.00000000
2.41240712 0.25123747 -0.00037677 0.00000000
1.44491298 0.80355315 -0.00083488 0.00000000
2.18661758 1.12203171 -0.00284030 0.00000000
2.93047420 1.01660839 -0.00122153 0.00000000
0.74612666 1.76362034 0.00191956 0.00000000
1.95415922 0.44275178 0.00046363 0.00000000
1.76396533 1.31039977 0.00060471 0.00000000
1.55126835 0.56657782 0.00466911 0.00000000
2.15181163 1.22809957 0.00111353 0.00000000
1.37737266 0.05302583 0.00280833 0.00000000
3.36399643 1.62296245 -0.00032016 0.00000000
0.40111475 1.09522411 -0.00296503 0.00000000
1.38009979 0.02604449 -0.00071851 0.00000000
0.37468548 0.16246758 -0.00110510 0.00000000
3.90506454 0.68652788 0.00098742 0.00000000
2.10101832 0.51257154 -0.00702731 0.00000000
0.19185967 0.60722481 0.00015938 0.00000000
1.12717652 0.33552707 -0.00682931 0.00000000
3.14006678 0.16307607 0.00046358 0.00000000
4.12245325 0.55272940 0.00005936 0.00000000
2.99058827 0.97495396 0.00021379 0.00000000
3.92349527 0.42383590 0.00022873 0.00000000
2.02175805 0.53056126 -0.00028889 0.00000000
3.26501196 1.37729210 -0.00153227 0.00000000
1.60629769 1.68096760 -0.00025293 0.00000000
1.29630788 0.98770913 -0.00352281 0.00000000
3.20146022 1.21912903 0.00104816 0.00000000
0.71877451 0.31165613 0.00300688 0.00000000
3.37437781 0.36672805 -0.00239098 0.00000000
2.72485303 0.66801748 0.00105642 0.00000000
0.37740256 0.04974516 0.00243310 0.00000000
2.98520773 1.02615550 0.00252766 0.00000000
4.27952091 0.92858899 0.00106927 0.00000000
3.20130739 1.49328817 -0.00016709 0.00000000
2.53971627 1.76610833 0.00282111 0.00000000
0.16769819 0.99271369 -0.00132301 0.00000000
4.01459685 1.46779616 -0.00083195 0.00000000
2.75451419 0.79440831 0.00314242 0.00000000
0.17827724 1.38817294 -0.00006552 0.00000000
1.04111032 0.45145157 -0.00337087 0.00000000
0.39849572 0.95616518 -0.00188563 0.00000000
0.37187012 0.91558560 0.00351604 0.00000000
0.80431997 0.47122328 -0.00080420 0.00000000
0.84706515 1.29530912 -0.00276010 0.00000000
1.23253421 1.13083002 -0.00069836 0.00000000
0.36755127 0.31611772 -0.00228934 0.00000000
2.48709353 0.40226229 -0.00488808 0.00000000
2.84178236 1.06975739 0.00120942 0.00000000
3.41831562 1.51291096 -0.00196208 0.00000000
2.43887388 0.60476672 -0.00095115 0.00000000
0.59259870 0.02388834 0.00363788 0.00000000
0.71049643 0.32495860 0.00313683 0.00000000
0.96052438 1.74067246 0.00452920 0.00000000
1.36652148 0.99800604 -0.00072845 0.00000000
1.53879751 1.13911823 -0.00037321 0.00000000
0.83483781 0.34849405 0.00021384 0.00000000
4.29464885 1.10243916 -0.00204096 0.00000000
3.00403307 1.60442139 -0.00080558 0.00000000
1.41556153 1.63343827 0.00196451 0.00000000
0.00158938 0.24392550 -0.00412267 0.00000000
0.23560641 0.89265115 -0.00041795 0.00000000
0.25224935 0.64619998 -0.00084721 0.00000000
0.44655708 0.01289418 0.00008786 0.00000000
3.16063284 1.40259830 -0.00328441 0.00000000
1.91400031 0.13721641 -0.00233467 0.00000000
1.86985310 1.34405904 -0.00222099 0.00000000
2.80265073 0.44661432 0.00347813 0.00000000
3.28671123 1.37747286 -0.00079859 0.00000000
1.44399802 0.95637327 -0.00017046 0.00000000
3.68380700 1.35039916 0.00451392 0.00000000
1.62240495 1.64299846 -0.00224456 0.00000000
1.63988629 0.50747527 -0.00077247 0.00000000
0.32917692 1.52604503 0.00259296 0.00000000
4.25264965 1.13479417 -0.00106755 0.00000000
1.46503740 1.11088554 -0.00203599 0.00000000
1.77479922 0.35013997 0.00319597 0.00000000
2.32723960 1.10935067 0.00022375 0.00000000
2.10726864 1.34936479 0.00046535 0.00000000
3.30952948 1.08214618 -0.00129716 0.00000000
1.83030278 0.59263297 -0.00330839 0.00000000
2.46362733 1.14847879 -0.00067775 0.00000000
3.78495660 0.25948784 -0.00057039 0.00000000
1.63464329 0.98890084 -0.00468357 0.00000000
4.17119490 0.49427528 0.00008995 0.00000000
3.96982534 1.59460679 -0.00128280 0.00000000
3.06501073 0.98801231 -0.00338079 0.00000000
2.30670592 1.22119344 -0.00305753 0.00000000
3.87834055 1.25400360 0.00160881 0.00000000
4.19169551 0.56453205 0.00126893 0.00000000
3.69708138 0.56263663 -0.00060139 0.00000000
2.57257351 0.07587806 -0.00196496 0.00000000
2.42646982 1.53031536 0.00375814 0.00000000
2.44102078 0.40693917 -0.00065390 0.00000000
2.03495980 0.29343034 -0.00022819 0.00000000
3.72849488 0.79467596 -0.00323299 0.00000000
4.04860033 0.02630833 0.00322914 0.00000000
2.66788837 1.33505983 -0.00127445 0.00000000
1.59333842 0.94913208 -0.00433221 0.00000000
3.98370269 1.06266760 -0.00108173 0.00000000
2.16505981 1.59687838 0.00123157 0.00000000
3.98669892 0.25425654 -0.00070822 0.00000000
3.45602253 1.23481970 0.00617364 0.00000000
1.93801212 0.13782118 0.00115730 0.00000000
1.69215149 0.45365391 -0.00255324 0.00000000
3.51668428 0.16543046 0.00090272 0.00000000
1.51947765 1.32673913 -0.00102166 0.00000000
0.87942944 0.20765364 0.00291459 0.00000000
2.95987749 0.44931257 -0.00290017 0.00000000
4.07655035 0.19347998 0.00021908 0.00000000
2.47120171 0.06980316 0.00428068 0.00000000
2.96640356 1.49135206 -0.00254989 0.00000000
2.59868431 0.84542420 0.00328643 0.00000000
2.93486333 1.07186556 -0.00204932 0.00000000
2.11949769 0.59196877 0.00002403 0.00000000
2.95040087 1.25029695 0.00284929 0.00000000
1.71242232 1.76626581 -0.00122380 0.00000000
0.67419093 1.06565613 -0.00187755 0.00000000
1.92607798 1.37763613 0.00137463 0.00000000
0.11159508 0.34244021 -0.00279083 0.00000000
2.83027512 0.75638967 0.00118359 0.00000000
0.33619230 0.61030280 -0.00159950 0.00000000
4.32340542 1.39313953 0.00130492 0.00000000
4.18193080 1.22839410 -0.00125954 0.00000000
1.49056245 1.56295282 -0.00438175 0.00000000
0.78941140 0.20163314 0.00129826 0.00000000
0.06371348 1.64527477 -0.00191836 0.00000000
3.34930232 0.63721533 -0.00008614 0.00000000
0.79335433 1.26471934 0.00299014 0.00000000
0.48158243 0.32470841 -0.00111574 0.00000000
2.47432224 1.29509786 -0.00033673 0.00000000
0.61967143 0.44921935 0.00116575 0.00000000
4.04291701 1.60352656 -0.00365877 0.00000000
1.47654059 1.33988056 0.00258928 0.00000000
3.67670763 0.24322656 0.00029086 0.00000000
1.18384885 0.76295769 -0.00000303 0.00000000
2.93442153 0.96475921 -0.00401203 0.00000000
1.60410445 0.19073862 -0.00025917 0.00000000
2.05032053 0.89033116 -0.00366377 0.00000000
4.27738584 0.43482083 0.00213262 0.00000000
0.36368957 1.53282079 0.00108688 0.00000000
1.39376051 0.35861641 0.00064709 0.00000000
0.22845748 0.45544198 0.00114206 0.00000000
0.36513997 1.44945964 -0.00306279 0.00000000
1.96741781 1.19912520 0.00263254 0.00000000
2.45134171 0.15821034 0.00391128 0.00000000
1.79178316 0.75003338 0.00232465 0.00000000
4.09992805 0.07750005 0.00146978 0.00000000
4.15346199 0.04206642 -0.00145013 0.00000000
2.21726990 1.00017260 -0.00371847 0.00000000
2.03031720 1.48683483 -0.00105026 0.00000000
3.24421163 1.18781388 0.00061926 0.00000000
2.07166235 1.00974002 -0.00118067 0.00000000
3.68940479 1.09456250 0.00047420 0.00000000
1.92244423 1.75445623 -0.00156094 0.00000000
0.57681108 0.59286675 -0.00003170 0.00000000
1.51209668 0.36250988 -0.00134191 0.00000000
1.33640402 0.56452510 -0.00398222 0.00000000
0.92444411 0.37467892 0.00221971 0.00000000
3.46153175 0.75861254 -0.00263977 0.00000000
0.35206273 1.36513607 0.00057571 0.00000000
0.83346768 1.27694889 -0.00086973 0.00000000
2.41443187 1.02269069 0.00120386 0.00000000
1.25539925 1.11437870 0.00311602 0.00000000
2.72085665 0.70461469 -0.00283976 0.00000000
0.93444610 0.60147521 -0.00073725 0.00000000
1.62633083 1.65458429 0.00143754 0.00000000
2.55135106 0.79440534 -0.00056091 0.00000000
1.66661135 1.21951301 0.00153200 0.00000000
3.29185340 1.54337739 -0.00256724 0.00000000
0.41777154 0.55787934 -0.00346924 0.00000000
4.11128749 0.89899851 0.00345293 0.00000000
0.51759310 0.30542246 0.00190690 0.00000000
2.57064655 0.31839929 -0.00253711 0.00000000
0.33390343 0.45369803 -0.00013947 0.00000000
3.60238822 1.70211026 -0.00007460 0.00000000
0.01443832 0.87498943 -0.00204376 0.00000000
1.82164870 0.96672733 -0.00100700 0.00000000
3.91314693 0.09240497 -0.00396217 0.00000000
2.66493290 1.36492967 -0.00537375 0.00000000
3.75985464 0.13585661 0.00074198 0.00000000
3.62960716 1.25659908 -0.00017513 0.00000000
2.45616875 1.57204921 -0.00046163 0.00000000
1.22398821 1.53979945 -0.00258675 0.00000000
3.51378657 0.94389335 -0.00071222 0.00000000
3.65714261 1.52027178 0.00122269 0.00000000
2.29508387 0.64687153 0.00185773 0.00000000
2.10055227 0.50394087 0.00021287 0.00000000
0.92091321 0.02093477 0.00046227 0.00000000
3.08058489 0.04599840 0.00318018 0.00000000
4.11490277 0.15102346 0.00099553 0.00000000
1.67649556 1.03681552 0.00666882 0.00000000
3.89606161 0.09585665 0.00112356 0.00000000
2.00978756 0.96360964 0.00236051 0.00000000
0.14933224 0.22901603 -0.00229061 0.00000000
1.57852634 0.69829480 -0.00264433 0.00000000
0.70628672 0.30979379 -0.00053504 0.00000000
3.10100708 0.64645622 -0.00539285 0.00000000
0.61220431 0.83670890 -0.00176116 0.00000000
0.12166911 1.48111517 0.00231727 0.00000000
0.93976106 0.78483870 0.00086841 0.00000000
3.47511929 0.36771152 -0.00402676 0.00000000
2.21842788 1.09027165 -0.00221956 0.00000000
1.94389537 0.53098792 0.00589491 0.00000000
3.91718552 1.71669818 0.00014688 0.00000000
3.80276111 0.21796957 -0.00019164 0.00000000
3.38043625 0.68717010 0.00188078 0.00000000
3.39337585 1.69441235 0.00008353 0.00000000
0.80622104 0.51676130 -0.00106605 0.00000000
4.26471299 1.03091826 0.00014608 0.00000000
1.63882652 1.43850041 -0.00004534 0.00000000
2.69105218 0.27103006 0.00415668 0.00000000
2.83157056 1.67598250 0.00091002 0.00000000
2.22644697 0.37298657 0.00078864 0.00000000
2.01722448 0.74997355 0.00091055 0.00000000
2.07618460 0.81736869 -0.00345685 0.00000000
1.04308867 1.71372850 0.00296066 0.00000000
2.09487901 0.07252581 0.00048537 0.00000000
2.72890675 1.72436304 -0.00024944 0.00000000
1.43291495 1.15618952 0.00198072 0.00000000
0.38171500 0.78571555 -0.00290996 0.00000000
2.80001450 1.35354411 -0.00231978 0.00000000
3.77695333 0.94621412 -0.00098670 0.00000000
1.53525890 1.27353278 -0.00127292 0.00000000
2.36382263 0.16111417 -0.00088674 0.00000000
2.04168356 1.56826304 -0.00220893 0.00000000
0.14155360 1.77561458 -0.00357942 0.00000000
0.86285661 0.82620566 0.00160499 0.00000000
3.91621864 1.76817102 0.00137337 0.00000000
3.08266928 1.75964649 -0.00003203 0.00000000
3.56416202 0.00714040 -0.00445782 0.00000000
1.33687398 0.14518651 -0.00256497 0.00000000
1.93854104 0.96895478 -0.00097189 0.00000000
0.73749938 1.43110002 0.00056220 0.00000000
1.30694515 0.82756327 -0.00320635 0.00000000
3.86449323 0.86055226 -0.00442808 0.00000000
4.02446216 0.52135312 -0.00131592 0.00000000
3.68917750 0.91140415 0.00317565 0.00000000
2.70499810 1.42442042 0.00187433 0.00000000
2.89607955 0.65899024 -0.00086349 0.00000000
2.92114152 1.26645749 0.00150284 0.00000000
1.19011119 0.80126510 0.00274493 0.00000000
2.65941507 0.95836021 -0.00190435 0.00000000
0.69141339 1.20414287 0.00349885 0.00000000
2.76384247 0.91043531 0.00090256 0.00000000
0.69737459 0.82997209 0.00122257 0.00000000
2.56643399 1.45361505 0.00133499 0.00000000
2.09120142 1.45962652 -0.00209849 0.00000000
1.02083129 0.32433916 -0.00039861 0.00000000
1.23349442 1.57325221 -0.00153017 0.00000000
2.81023255 0.04222572 -0.00245281 0.00000000
2.01913626 0.64153625 -0.00233390 0.00000000
2.78102605 0.07398440 -0.00086238 0.00000000
4.04071311 0.70201798 -0.00001757 0.00000000
1.32515685 1.01554787 0.00063310 0.00000000
2.66226781 1.71429235 0.00035787 0.00000000
4.16080518 1.07470082 0.00100421 0.00000000
0.51887956 0.59886722 -0.00276524 0.00000000
1.61506025 1.63332505 0.00257842 0.00000000
0.26897743 1.63496899 0.00222529 0.00000000
2.89420138 1.75617992 -0.00244414 0.00000000
2.77421166 0.72758340 -0.00012074 0.00000000
1.02807366 0.61901623 0.00200960 0.00000000
2.00156682 1.43111760 -0.00171881 0.00000000
1.61759272 1.11572394 -0.00380948 0.00000000
1.22642402 0.99832742 0.00477039 0.00000000
3.23990740 0.35182826 -0.00206847 0.00000000
4.03027222 1.75894372 -0.00356257 0.00000000
2.95105898 1.21199596 0.00023734 0.00000000
1.31812134 1.67547831 0.00229432 0.00000000
3.75569397 1.23889890 0.00093149 0.00000000
3.17282919 0.82952759 0.00005721 0.00000000
0.57015530 0.01438757 -0.00016724 0.00000000
1.76312504 0.23309068 -0.00099954 0.00000000
4.21198698 0.20134012 -0.00195341 0.00000000
0.21097792 0.24861624 -0.00524578 0.00000000
0.02831069 0.29800942 -0.00296256 0.00000000
0.72995321 0.51799497 -0.00517854 0.00000000
4.10335858 0.98199025 0.00017197 0.00000000
3.49927830 1.73025889 0.00111226 0.00000000
2.38202936 0.48580294 0.00051438 0.00000000
3.14730119 0.83348382 -0.00420373 0.00000000
0.61090402 1.49297074 -0.00096457 0.00000000
0.29712468 0.52602131 -0.00318346 0.00000000
0.94889682 1.09960669 -0.00327850 0.00000000
0.76810558 0.32574904 -0.00146632 0.00000000
0.97409768 0.68332995 -0.00005291 0.00000000
0.61452161 1.70412365 0.00496606 0.00000000
2.17226989 1.18516903 -0.00176567 0.00000000
0.14465239 1.31303481 -0.00161080 0.00000000
1.32757002 0.64365429 0.00023016 0.00000000
0.16488145 1.26090632 0.00210488 0.00000000
2.02916822 0.98721747 -0.00093779 0.00000000
1.63535668 0.94795957 -0.00235245 0.00000000
0.53256582 1.39239741 -0.00147940 0.00000000
1.70973583 1.73556074 -0.00158154 0.00000000
3.61021370 1.32480094 0.00112025 0.00000000
3.15116415 0.89978799 -0.00416188 0.00000000
1.10404153 0.09355311 0.00246312 0.00000000
1.88205398 0.83307163 -0.00109336 0.00000000
3.57739284 0.15627396 0.00174049 0.00000000
2.30006298 1.10454584 0.00115180 0.00000000
0.71458130 0.14442913 0.00278801 0.00000000
2.14978952 1.08679043 -0.00099233 0.00000000
3.56854166 1.65593847 -0.00062043 0.00000000
1.44912739 0.35520239 0.00432184 0.00000000
1.72171442 0.89226969 -0.00090856 0.00000000
0.46700809 0.40429747 -0.00321019 0.00000000
0.59732473 0.16662435 0.00225419 0.00000000
0.82585306 1.13724638 -0.00066817 0.00000000
1.80164347 1.05593499 -0.00234659 0.00000000
0.35797613 1.48502715 -0.00028906 0.00000000
2.75181646 0.41914299 -0.00253561 0.00000000
3.66723466 0.99390062 0.00005012 0.00000000
3.61847966 0.87724906 -0.00033501 0.00000000
2.69974434 0.38090041 -0.00217721 0.00000000
2.71803180 1.18022323 -0.00234129 0.00000000
2.14669343 1.22253624 -0.00419567 0.00000000
0.47971699 0.33615417 -0.00042786 0.00000000
3.56268401 0.84284038 0.00448293 0.00000000
3.48740978 0.73501632 0.00304373 0.00000000
0.11322407 0.17058466 -0.00136496 0.00000000
0.80464320 1.39410224 -0.00054944 0.00000000
0.73080202 0.86689474 0.00345786 0.00000000
1.75647048 1.51559917 -0.00042465 0.00000000
3.31170393 0.48399814 -0.00083862 0.00000000
3.53515883 0.63338720 -0.00351575 0.00000000
1.58339726 1.58372114 -0.00035649 0.00000000
2.00215133 1.13269943 -0.00046099 0.00000000
3.79148026 0.71606408 0.00339668 0.00000000
4.04682804 0.95738985 0.00011653 0.00000000
2.66599772 1.32377507 -0.00004928 0.00000000
2.42945497 0.09634801 -0.00007711 0.00000000
3.87259197 0.09626463 0.00325433 0.00000000
1.23084809 0.66536084 -0.00025838 0.00000000
1.65617475 1.77543407 0.00363765 0.00000000
2.71702244 1.24364338 -0.00064817 0.00000000
1.50883504 0.08966736 -0.00053956 0.00000000
4.09259569 1.00228248 -0.00098698 0.00000000
2.64397747 0.35909054 -0.00349471 0.00000000
1.75636778 1.05706838 0.00183448 0.00000000
1.44647532 0.18682100 0.00218322 0.00000000
0.21001559 1.00961892 0.00391844 0.00000000
1.65739321 0.80531648 0.00148299 0.00000000
4.24900188 0.23474013 -0.00112977 0.00000000
2.95090750 0.28600406 0.00479940 0.00000000
2.26886667 0.56463621 0.00114296 0.00000000
3.66590885 0.26401946 0.00313520 0.00000000
3.07000275 1.18743638 -0.00292474 0.00000000
0.09567840 0.27640869 -0.00056768 0.00000000
3.54146063 1.38437568 -0.00098548 0.00000000
0.26560514 1.41897949 0.00095770 0.00000000
0.13525164 0.03845031 -0.00193653 0.00000000
3.56439365 1.00415863 0.00111250 0.00000000
3.70561761 0.49911934 0.00000020 0.00000000
3.54146786 0.40049485 0.00406509 0.00000000
2.94818927 0.56816736 -0.00175159 0.00000000
0.61098058 0.08209504 0.00037054 0.00000000
1.68744542 0.14953614 0.00486929 0.00000000
1.42754553 1.49508501 0.00141092 0.00000000
1.53120765 1.31970849 -0.00146980 0.00000000
0.79547306 0.55823720 -0.00311559 0.00000000
1.38688397 0.02713663 0.00039984 0.00000000
0.76548589 1.13941559 0.00149157 0.00000000
2.58145152 1.52876721 -0.00034795 0.00000000
2.57419619 0.10688497 0.00420961 0.00000000
1.80083657 1.19868471 0.00153594 0.00000000
3.84619345 1.53973395 -0.00403947 0.00000000
4.20011105 0.63993747 0.00351471 0.00000000
1.12937448 1.13349003 -0.00169963 0.00000000
2.65004983 0.22187450 -0.00586461 0.00000000
0.09975354 1.60046415 -0.00142675 0.00000000
1.43371459 0.39180707 0.00285694 0.00000000
2.42627632 0.25622666 -0.00132324 0.00000000
0.57097318 1.43280161 -0.00195550 0.00000000
0.16592315 0.66747848 0.00224075 0.00000000
2.20378941 0.66986674 0.00154664 0.00000000
0.97816497 0.38961992 -0.00268869 0.00000000
1.82109429 0.88632725 0.00603771 0.00000000
4.22756601 1.66070463 -0.00104320 0.00000000
0.79927415 0.04486222 -0.00074882 0.00000000
1.36292105 1.55726680 -0.00047738 0.00000000
0.83081947 0.72130186 -0.00217670 0.00000000
1.45730244 1.17998726 0.00334574 0.00000000
1.29343958 1.29937283 -0.00373702 0.00000000
3.99002819 0.18157727 -0.00043441 0.00000000
3.98711285 0.70005894 0.00087524 0.00000000
1.11080166 1.08806989 -0.00063432 0.00000000
1.37767142 1.53153408 -0.00399704 0.00000000
0.40459497 0.48410864 -0.00112262 0.00000000
3.98545657 0.58041692 -0.00026399 0.00000000
1.63898053 1.68982519 -0.00172686 0.00000000
2.96679549 0.40951933 -0.00011672 0.00000000
1.05047140 0.43079320 -0.00052604 0.00000000
3.98785110 1.34954714 -0.00110281 0.00000000
3.24729998 0.07691612 0.00290770 0.00000000
0.10751019 0.70608546 0.00020602 0.00000000
2.91846207 1.16183553 -0.00281820 0.00000000
1.46682483 1.43701686 -0.00405188 0.00000000
2.75762006 1.61337027 0.00317464 0.00000000
1.95761379 1.46122933 -0.00349770 0.00000000
1.58346352 1.02124848 0.00080813 0.00000000
3.62779648 0.52431710 0.00238202 0.00000000
1.68129273 0.11019310 -0.00204811 0.00000000
1.38613918 1.01123563 0.00431383 0.00000000
1.01810553 0.97295496 -0.00136242 0.00000000
0.64127340 0.88513073 -0.00262447 0.00000000
3.64002148 0.95989167 -0.00069972 0.00000000
3.45177674 0.84517119 0.00162133 0.00000000
1.39459139 1.50588359 0.00262541 0.00000000
0.93135688 0.08080114 -0.00212723 0.00000000
1.26673516 1.07389031 0.00064763 0.00000000
1.37974485 0.84717535 0.00207982 0.00000000
2.16353839 0.30722116 -0.00292880 0.00000000
1.32264227 0.63365878 0.00192281 0.00000000
3.72098425 1.44607266 -0.00121172 0.00000000
2.43131833 1.39872135 -0.00156439 0.00000000
4.02380315 0.28642429 -0.00000065 0.00000000
3.80341652 0.23588854 0.00002623 0.00000000
3.61279194 0.89917939 -0.00107404 0.00000000
3.07670276 1.66473058 0.00558327 0.00000000
1.94570831 1.77098705 0.00453602 0.00000000
2.92520199 0.96318422 -0.00176236 0.00000000
1.94285701 0.04023957 -0.00252432 0.00000000
3.44971345 1.71838737 -0.00334558 0.00000000
4.29047383 0.04893189 -0.00061841 0.00000000
2.84231965 1.34983820 0.00044689 0.00000000
2.83777869 0.52708442 0.00129116 0.00000000
3.38351728 1.77508258 0.00099459 0.00000000
1.67851227 0.90642488 -0.00150578 0.00000000
4.18531548 0.64722046 0.00394739 0.00000000
0.49713807 0.39310081 0.00085386 0.00000000
1.20214261 0.01510833 -0.00029291 0.00000000
2.87360316 0.32185335 0.00331610 0.00000000
2.62519705 1.17257322 0.00052813 0.00000000
0.99974448 1.73563186 0.00335150 0.00000000
1.70024594 0.59943053 0.00068863 0.00000000
1.85765935 0.97200490 0.00277413 0.00000000
3.35838842 1.33269467 -0.00034335 0.00000000
2.48338646 0.57618231 0.00009156 0.00000000
3.56494236 1.49768335 0.00166668 0.00000000
3.20651221 0.34938141 0.00040698 0.00000000
1.78561468 0.90055754 0.00423135 0.00000000
0.60337742 0.22254191 -0.00157386 0.00000000
0.09274314 0.77879261 0.00142564 0.00000000
0.93305663 0.90419301 0.00348110 0.00000000
2.11338051 0.57875331 -0.00022440 0.00000000
0.44432463 0.64441471 0.00284085 0.00000000
3.34715186 0.85909173 0.00033062 0.00000000
2.87269444 1.04282579 0.00402749 0.00000000
0.01536438 0.93164496 -0.00390057 0.00000000
0.75273156 0.26035702 -0.00067152 0.00000000
1.12163617 1.43142321 0.00184768 0.00000000
1.69678296 0.59452500 0.00181177 0.00000000
2.84620869 1.66519856 0.00259676 0.00000000
1.24614479 0.90437761 -0.00114687 0.00000000
0.13828703 0.27916172 0.00215034 0.00000000
3.72257585 0.61357863 -0.00202735 0.00000000
0.34877696 1.16954495 0.00607627 0.00000000
3.59208338 0.49949140 0.00252469 0.00000000
1.30805355 1.28277821 0.00016452 0.00000000
3.17424148 1.52167011 -0.00376642 0.00000000
1.96969265 0.40861171 0.00044173 0.00000000
2.69701466 1.59408661 0.00171996 0.00000000
2.28976597 0.49692576 0.00362481 0.00000000
3.90526194 0.28533528 -0.00025952 0.00000000
4.16302622 1.74980245 -0.00035269 0.00000000
1.51494968 1.07069777 0.00260110 0.00000000
2.20050706 1.39528255 0.00022615 0.00000000
2.41204521 1.63136350 -0.00626631 0.00000000
3.71773736 1.61342538 -0.00624211 0.00000000
1.24239073 0.36608318 -0.00267677 0.00000000
3.46752218 0.93933145 0.00327247 0.00000000
3.39838007 0.17385080 -0.00158202 0.00000000
4.29607920 1.65944202 0.00332267 0.00000000
3.33472464 1.50001361 -0.00101520 0.00000000
1.45174010 0.81833009 0.00182931 0.00000000
3.92151634 0.37498925 -0.00377432 0.00000000
3.62347727 0.12773832 -0.00010329 0.00000000
1.13903547 1.40516825 -0.00129554 0.00000000
3.48958209 1.70115032 -0.00016760 0.00000000
1.11760727 0.59781935 0.00121738 0.00000000
0.57550087 1.62319364 0.00297036 0.00000000
1.37927127 0.96814880 0.00079364 0.00000000
2.51454634 1.49269220 0.00151159 0.00000000
1.80905391 0.23665182 0.00058129 0.00000000
2.66624401 0.33479848 0.00527696 0.00000000
4.18009238 1.60392250 -0.00370923 0.00000000
0.82092226 0.01814957 0.00048253 0.00000000
0.97232414 0.51596435 -0.00144351 0.00000000
1.66302509 0.79870246 -0.00238732 0.00000000
2.83181497 0.20682067 0.00164286 0.00000000
1.53761379 1.46502203 -0.00078452 0.00000000
2.14264021 1.19882115 -0.00324532 0.00000000
2.38357361 1.24596782 -0.00408279 0.00000000
0.78821323 1.04335506 0.00192365 0.00000000
0.69431822 1.17970831 0.00047282 0.00000000
3.96299323 1.03263751 -0.00175130 0.00000000
2.09214970 1.70141887 -0.00113041 0.00000000
2.52597973 0.80003090 -0.00004170 0.00000000
3.70352450 1.64213372 -0.00075786 0.00000000
3.26232030 0.77843525 -0.00388502 0.00000000
3.84784483 0.51798486 0.00111285 0.00000000
0.98132449 0.49028582 0.00215061 0.00000000
1.67983108 0.34743637 -0.00292085 0.00000000
3.21383812 0.50724559 -0.00232352 0.00000000
1.54137207 1.57268704 -0.00115222 0.00000000
3.89458489 0.62220465 0.00024018 0.00000000
3.58143503 0.47733997 0.00243365 0.00000000
2.95694215 0.71579241 -0.00135301 0.00000000
3.71790418 1.63984216 -0.00007011 0.00000000
4.00892651 0.25700997 -0.00132417 0.00000000
1.90912612 1.42218325 -0.00019260 0.00000000
0.91969907 0.55522626 0.00092835 0.00000000
1.55740677 1.51257610 -0.00032300 0.00000000
2.70939623 0.22904390 0.00051916 0.00000000
3.00617774 0.69578215 -0.00283148 0.00000000
2.70303143 0.53393521 0.00189587 0.00000000
0.63601600 0.83343262 0.00561833 0.00000000
2.09763549 1.01197122 0.00105032 0.00000000
3.17510062 0.64658139 -0.00362223 0.00000000
2.92615831 0.44455977 0.00215687 0.00000000
3.22006945 0.08754080 0.00220272 0.00000000
0.11891160 1.18857241 -0.00383044 0.00000000
1.91420695 1.70565688 0.00351777 0.00000000
0.23172695 0.26930358 -0.00226073 0.00000000
4.27133695 1.64085604 0.00155020 0.00000000
3.04776587 0.41624820 -0.00099386 0.00000000
2.59779794 0.39196377 0.00441559 0.00000000
1.06072262 0.00689218 0.00127838 0.00000000
1.89575879 1.65347590 -0.00078768 0.00000000
2.44203168 1.43776598 -0.00112362 0.00000000
3.93404156 0.14743089 0.00017812 0.00000000
2.87893908 1.50147964 0.00063140 0.00000000
2.94173222 1.31793168 0.00173841 0.00000000
3.40475175 0.04019945 -0.00183329 0.00000000
4.02200375 1.62208675 0.00311502 0.00000000
1.27506500 1.33496567 0.00175854 0.00000000
0.99931505 1.11794105 -0.00418871 0.00000000
3.51890021 0.76000989 0.00335850 0.00000000
2.47864816 0.87718567 0.00012090 0.00000000
2.82486921 1.76212864 0.00011486 0.00000000
4.06403247 0.71096992 0.00099147 0.00000000
3.88381470 1.52439167 0.00027184 0.00000000
0.46895648 0.37503436 -0.00067726 0.00000000
0.99001729 1.15700876 0.00112196 0.00000000
1.61573635 1.68855227 -0.00103896 0.00000000
0.70128615 0.43847819 0.00393546 0.00000000
2.57569487 0.01187445 0.00022383 0.00000000
2.88704180 1.58840226 -0.00244407 0.00000000
2.15016579 1.44091655 0.00140354 0.00000000
2.64921560 0.88435551 0.00259846 0.00000000
1.81481598 0.37398667 -0.00010732 0.00000000
1.89196596 0.63961205 0.00314909 0.00000000
4.11307579 1.10513538 -0.00028692 0.00000000
3.25899832 0.44407120 0.00025669 0.00000000
3.56194549 0.58516718 -0.00536563 0.00000000
3.17571875 0.58351776 0.00330169 0.00000000
2.45535745 0.32310900 0.00266039 0.00000000
1.46415645 1.57776072 -0.00169368 0.00000000
2.53835982 1.63781182 -0.00014412 0.00000000
2.73487726 1.05724802 0.00282577 0.00000000
0.90216047 0.52853880 0.00193628 0.00000000
2.39798276 1.10411036 0.00018293 0.00000000
3.44479720 0.33777108 -0.00339864 0.00000000
1.52543610 1.29985271 0.00061608 0.00000000
2.98951034 1.69063116 0.00020555 0.00000000
3.95689923 0.17733681 -0.00092102 0.00000000
1.61702007 1.66653543 -0.00084582 0.00000000
1.60850147 0.24352208 -0.00204014 0.00000000
2.72624470 0.66692386 -0.00117190 0.00000000
2.05908281 1.51744121 -0.00156113 0.00000000
3.47867551 1.24855529 0.00282025 0.00000000
2.77479863 1.31633865 -0.00024262 0.00000000
3.95922727 0.34230853 0.00029247 0.00000000
0.33610507 0.14731044 0.00231251 0.00000000
2.29653773 1.04138944 0.00198819 0.00000000
0.32491586 0.98396419 -0.00294470 0.00000000
2.91574376 0.93420108 -0.00030342 0.00000000
1.19736162 1.34723248 0.00216192 0.00000000
0.98276224 1.21276243 -0.00165972 0.00000000
