0.245168 0.854215 0.001147 0.0
1.464445 1.712033 -0.002089 0.0
1.706506 0.311127 0.003181 0.0
4.602206 1.620856 -0.004222 0.0
2.952607 1.518644 -0.000677 0.0
4.648979 1.507209 0.000226 0.0
1.027567 1.685465 -0.002389 0.0
1.882827 0.486726 -0.000757 0.0
4.121100 1.530994 0.001769 0.0
2.888260 0.489112 0.000209 0.0
3.708087 1.000216 -0.002211 0.0
4.679012 0.664227 -0.001962 0.0
3.993800 0.265235 -0.001907 0.0
0.446932 1.164275 -0.002733 0.0
4.427690 1.499040 -0.001385 0.0
4.662784 0.045218 -0.002616 0.0
0.019883 0.967708 -0.000612 0.0
0.339185 0.801488 -0.003889 0.0
4.437042 0.727897 -0.002169 0.0
0.877338 0.243568 -0.000101 0.0
3.909541 0.254389 -0.000384 0.0
2.641550 0.577686 -0.003192 0.0
3.081573 0.189570 -0.001768 0.0
2.680683 1.302213 0.000764 0.0
2.898244 0.056292 0.004165 0.0
1.485169 1.675766 -0.000320 0.0
1.009455 0.929985 -0.003409 0.0
1.683470 0.322268 -0.005124 0.0
0.585680 1.490118 0.003762 0.0
0.391449 0.294161 -0.002610 0.0
0.637840 1.587255 -0.001735 0.0
2.497928 1.480543 -0.000453 0.0
0.521125 0.725010 0.002122 0.0
0.293668 0.316117 -0.003403 0.0
4.341072 0.248557 -0.001637 0.0
4.143347 1.642553 0.003866 0.0
0.234163 0.978273 0.001648 0.0
3.466197 0.708366 0.000567 0.0
0.275664 0.520473 0.002292 0.0
3.894213 0.491510 -0.001438 0.0
1.626121 1.573953 0.002693 0.0
0.983037 1.421488 0.000036 0.0
1.885238 0.533522 0.000534 0.0
1.658462 1.379318 0.003382 0.0
2.755334 0.030582 0.005380 0.0
2.376515 1.598020 0.003377 0.0
1.267002 1.324468 -0.001321 0.0
3.695925 0.205640 -0.003486 0.0
2.269152 1.644086 -0.003174 0.0
2.663481 0.586670 0.001621 0.0
1.745610 1.042177 0.000863 0.0
4.563836 1.622213 -0.000709 0.0
3.770286 1.718265 0.000113 0.0
1.314548 0.436296 -0.002630 0.0
0.819947 1.040037 -0.000943 0.0
4.441664 0.726953 0.001108 0.0
2.371331 0.500319 0.001476 0.0
4.923279 0.583259 0.000018 0.0
0.126540 0.951087 0.002416 0.0
4.481139 1.625750 -0.000229 0.0
1.296778 0.343671 0.002651 0.0
1.226591 1.659667 0.005353 0.0
3.800159 0.603994 0.001379 0.0
2.794430 1.455425 0.001751 0.0
0.784497 0.433390 0.001355 0.0
2.859258 0.081549 -0.001088 0.0
1.312330 0.687838 0.000809 0.0
1.953246 1.307216 0.003469 0.0
0.336414 1.341008 -0.000503 0.0
2.626234 0.273596 -0.001530 0.0
0.993057 0.723334 0.000181 0.0
4.060239 0.760842 0.003160 0.0
2.359967 1.454532 0.002005 0.0
0.826367 1.676457 -0.000007 0.0
2.473947 0.210585 -0.006027 0.0
2.320484 0.978107 -0.004327 0.0
2.146830 1.105460 -0.000884 0.0
1.921997 0.188729 -0.002007 0.0
3.627653 1.721384 0.000329 0.0
3.600399 0.428395 -0.002836 0.0
4.045964 0.480579 0.000315 0.0
0.011594 1.593209 0.003924 0.0
2.585952 1.187643 0.002928 0.0
2.657712 0.931820 0.000628 0.0
2.437577 0.421989 -0.001616 0.0
3.978445 1.316768 -0.001322 0.0
2.333111 1.247375 0.001360 0.0
0.723587 1.403570 -0.000358 0.0
4.108000 0.942037 -0.000339 0.0
0.901560 0.664786 -0.002320 0.0
4.104486 0.541372 -0.001680 0.0
4.753400 1.418319 0.001745 0.0
2.416831 1.071544 -0.000545 0.0
4.657808 0.179089 -0.000884 0.0
4.312992 0.512085 0.000663 0.0
2.983961 1.635857 -0.002361 0.0
1.738236 0.323709 -0.000844 0.0
4.705048 0.541581 0.000082 0.0
0.468681 1.072282 0.003035 0.0
3.283907 1.061556 0.000894 0.0
1.724386 1.029623 -0.001526 0.0
4.487351 0.820576 0.003579 0.0
4.193250 1.540255 0.002376 0.0
2.863837 1.287828 0.004568 0.0
0.380278 0.612736 -0.004492 0.0
4.344035 1.221631 0.000084 0.0
0.710688 1.499298 0.001128 0.0
0.834849 1.336431 0.002296 0.0
3.942211 0.604376 -0.000092 0.0
1.178087 1.016438 0.004389 0.0
2.075043 1.049963 0.000201 0.0
1.692713 0.193138 -0.001612 0.0
4.027344 0.325025 0.001466 0.0
1.516702 0.759295 -0.000602 0.0
4.876476 1.184206 -0.000839 0.0
1.498430 1.416925 -0.001568 0.0
3.401682 1.132094 0.005272 0.0
1.485093 1.526831 -0.000237 0.0
0.659728 1.678834 -0.006916 0.0
4.707487 1.481162 -0.001405 0.0
0.234292 1.350849 -0.001663 0.0
0.964300 0.641886 0.000833 0.0
0.477364 1.011641 0.000417 0.0
1.009012 0.277864 0.002401 0.0
3.796377 1.456797 -0.000467 0.0
1.379131 0.505088 0.001457 0.0
1.760147 0.033011 0.002560 0.0
1.225943 0.206354 0.005829 0.0
1.566005 1.296361 -0.000707 0.0
3.868373 1.091352 0.002653 0.0
0.825632 0.788229 0.002010 0.0
4.926316 0.210177 -0.001634 0.0
0.862341 1.107941 -0.001356 0.0
4.143740 0.059728 0.001897 0.0
4.130753 0.788796 0.000923 0.0
3.013702 1.439585 -0.000352 0.0
0.305689 1.742973 -0.000712 0.0
4.017691 1.096675 0.003364 0.0
1.268929 0.762352 -0.001941 0.0
2.879975 0.954334 -0.000279 0.0
0.399014 0.106069 -0.004649 0.0
0.908508 1.578822 -0.000591 0.0
0.477241 0.885154 -0.001602 0.0
3.446246 0.596950 0.004259 0.0
4.931127 0.633968 0.003650 0.0
1.853240 0.768532 -0.005628 0.0
3.137498 0.098095 0.000002 0.0
1.505224 0.088048 -0.005767 0.0
4.018121 0.773232 -0.000601 0.0
0.941088 1.686939 -0.002425 0.0
4.661181 0.063892 0.007114 0.0
4.672328 1.567005 0.002751 0.0
1.879926 1.458688 0.003667 0.0
4.135425 1.502932 0.000107 0.0
0.310195 0.389597 -0.002221 0.0
3.331462 0.008815 -0.000410 0.0
0.662895 0.620205 -0.000698 0.0
4.221214 0.367203 0.002616 0.0
2.015083 1.218638 -0.001789 0.0
4.613816 0.185764 0.000507 0.0
1.702267 0.945919 -0.001521 0.0
2.473038 1.061278 0.002634 0.0
4.565604 1.646946 -0.000680 0.0
2.649598 1.662759 -0.001062 0.0
2.357181 0.706879 -0.000281 0.0
3.202252 0.245717 0.001360 0.0
1.242321 1.654923 -0.002699 0.0
0.647719 1.184789 -0.000837 0.0
2.786640 0.713920 0.002523 0.0
2.194363 0.894926 -0.006573 0.0
0.469098 0.997379 -0.004660 0.0
0.577583 0.170508 -0.001618 0.0
2.486646 0.767659 0.000239 0.0
0.318046 1.213046 -0.003941 0.0
1.182990 1.197163 -0.001075 0.0
3.438419 1.675177 0.002269 0.0
3.406848 0.890855 0.001906 0.0
3.432052 1.073682 0.000933 0.0
2.376166 0.725605 -0.000892 0.0
2.838318 0.092160 -0.003916 0.0
3.942214 1.252469 0.001164 0.0
1.998307 0.567167 0.003208 0.0
3.113790 1.159256 0.002898 0.0
2.675961 1.747323 0.001953 0.0
1.004003 0.005686 -0.002002 0.0
1.770799 0.022982 0.001595 0.0
4.781308 0.454130 -0.003201 0.0
3.562760 1.207774 -0.004931 0.0
2.638089 0.215311 0.000201 0.0
3.929061 1.469021 -0.001233 0.0
4.121234 0.018788 0.003166 0.0
1.794363 1.009452 -0.001936 0.0
3.612147 0.276006 -0.001565 0.0
1.041927 1.454539 0.003096 0.0
0.312566 0.064239 0.000442 0.0
1.529491 1.544129 -0.002063 0.0
2.879230 1.615141 0.001154 0.0
4.467925 1.586639 0.004586 0.0
2.552799 0.699446 -0.005672 0.0
4.658282 0.139453 -0.000716 0.0
2.701882 0.307333 -0.001755 0.0
3.738671 1.271684 -0.005997 0.0
3.286038 0.032788 0.003307 0.0
4.102007 0.307926 -0.003111 0.0
4.418677 0.721068 0.004198 0.0
1.182457 0.538409 -0.001893 0.0
3.756203 0.498145 0.001466 0.0
2.727498 1.326319 -0.000684 0.0
3.032572 0.315477 0.003969 0.0
3.249683 0.792692 -0.000239 0.0
3.834429 0.161962 0.002271 0.0
2.911122 0.331983 0.001105 0.0
4.605144 0.452653 -0.000888 0.0
0.405784 0.489476 -0.003628 0.0
2.652491 1.081260 0.000372 0.0
3.072806 1.108077 -0.002465 0.0
0.351077 0.637215 -0.002765 0.0
4.304938 0.793963 0.000022 0.0
1.802367 1.599264 -0.000233 0.0
3.412364 1.642691 -0.005284 0.0
3.396016 0.245374 -0.001547 0.0
3.359214 1.068469 -0.000201 0.0
4.400760 1.305672 -0.001223 0.0
4.441203 1.663923 0.001086 0.0
2.289265 0.266406 -0.004682 0.0
4.318595 0.464018 0.005176 0.0
2.886223 0.115056 0.001226 0.0
2.545514 0.807787 0.004424 0.0
3.161405 1.400599 -0.000042 0.0
2.157994 1.581712 0.002425 0.0
3.107808 0.727969 -0.003187 0.0
2.346320 1.720973 -0.000916 0.0
2.772608 0.008823 0.001203 0.0
1.537935 0.051319 0.000531 0.0
3.313726 1.691965 0.002432 0.0
2.544773 1.003566 0.001783 0.0
4.390977 0.772227 0.003828 0.0
1.018430 0.926785 -0.002627 0.0
2.294575 1.362579 0.000026 0.0
0.408827 0.735548 -0.001240 0.0
1.073763 1.347616 -0.005266 0.0
1.318938 0.389320 0.000129 0.0
4.631649 1.335157 0.002731 0.0
0.339024 1.132033 -0.001226 0.0
0.370288 0.394283 0.002208 0.0
2.954250 0.316182 -0.004893 0.0
4.545941 0.654546 0.002986 0.0
0.181040 0.649685 -0.000766 0.0
2.485389 0.181694 -0.000652 0.0
4.687149 1.576171 -0.001545 0.0
4.372610 1.051832 0.002765 0.0
3.503881 0.095033 0.001320 0.0
3.795415 0.563844 0.002696 0.0
3.285629 1.711474 -0.002601 0.0
1.992681 1.017033 -0.001686 0.0
3.831067 0.560666 -0.000882 0.0
1.942559 1.456972 -0.003383 0.0
4.345916 0.710764 0.001254 0.0
2.923174 0.526340 -0.001170 0.0
1.870856 1.258279 0.004117 0.0
3.262616 1.368733 0.000461 0.0
2.512758 0.423989 0.001202 0.0
0.439533 1.374238 0.003605 0.0
4.768041 0.883781 -0.004300 0.0
0.325781 1.037320 -0.001460 0.0
2.970659 0.081351 0.001411 0.0
1.293715 0.721899 0.000858 0.0
1.750407 1.602035 0.002271 0.0
2.748939 1.406288 0.002406 0.0
2.053360 0.714045 -0.001919 0.0
1.975650 0.530145 0.006932 0.0
4.315392 0.652284 0.003695 0.0
2.212393 0.622016 0.004294 0.0
4.157873 0.422954 -0.000226 0.0
4.742255 1.084528 0.001676 0.0
0.412847 1.453976 0.001565 0.0
1.350455 1.396768 -0.003212 0.0
1.682101 1.291832 -0.001302 0.0
1.885830 1.036237 -0.001136 0.0
4.198762 1.735081 -0.000742 0.0
0.077824 0.046193 -0.000280 0.0
4.671290 1.532756 0.002684 0.0
1.447784 1.344359 0.000059 0.0
4.708146 1.265830 0.001155 0.0
4.178063 1.421265 -0.001406 0.0
0.989986 0.950393 -0.001125 0.0
1.348433 1.296376 0.000180 0.0
0.166653 0.714657 0.001254 0.0
3.655243 1.608262 0.000250 0.0
2.768112 1.374802 0.000609 0.0
0.202139 1.156301 -0.001944 0.0
1.866740 0.124371 -0.000749 0.0
4.552768 1.280636 0.002127 0.0
0.893988 0.353735 -0.003071 0.0
4.624770 0.636193 -0.000183 0.0
4.772645 0.499794 0.001990 0.0
4.180947 1.330941 -0.004385 0.0
4.411874 0.357156 -0.002912 0.0
1.910486 1.416582 -0.000802 0.0
3.003655 1.112278 -0.002946 0.0
1.944208 1.230047 0.001598 0.0
4.780236 0.226300 -0.001451 0.0
4.072436 1.623842 0.000325 0.0
2.618433 0.884765 0.000598 0.0
3.905469 1.697377 -0.001315 0.0
2.268874 1.670179 0.002041 0.0
3.073159 0.289872 -0.002384 0.0
0.612639 0.582111 -0.002158 0.0
4.681359 0.408631 0.001229 0.0
0.031817 0.940922 -0.004935 0.0
1.726734 0.753501 -0.005767 0.0
3.851511 0.701272 -0.003359 0.0
3.838895 0.937716 0.001451 0.0
4.287395 0.413000 -0.003030 0.0
1.673297 0.267506 -0.001226 0.0
1.783744 0.060965 0.001475 0.0
2.507171 0.276849 0.005245 0.0
0.406693 0.327353 0.004787 0.0
0.051502 0.624093 0.002054 0.0
0.984194 0.313369 -0.000911 0.0
0.023808 1.638033 0.003898 0.0
4.426555 0.671466 0.000681 0.0
3.435806 0.650815 -0.000526 0.0
3.896325 1.299558 -0.001585 0.0
4.652973 1.713684 0.005856 0.0
2.631122 0.754755 -0.002367 0.0
1.392533 0.460346 -0.003081 0.0
2.899943 0.577287 -0.004442 0.0
3.151735 1.215069 0.001432 0.0
2.519857 1.491328 -0.000225 0.0
1.211821 0.925387 -0.003601 0.0
2.499168 1.036838 0.003928 0.0
4.030339 1.681484 0.002109 0.0
3.361447 1.314279 0.000644 0.0
3.471264 1.576675 0.001775 0.0
1.580947 0.273210 0.001277 0.0
1.755069 0.279882 0.001282 0.0
3.847589 0.011169 -0.002654 0.0
0.780997 1.374242 -0.000003 0.0
1.507580 0.870258 -0.001306 0.0
3.060657 0.861495 0.001757 0.0
4.496738 1.217318 -0.002002 0.0
2.253213 0.090730 0.000216 0.0
4.410468 0.703784 -0.001435 0.0
3.946275 0.869274 -0.000583 0.0
4.703947 0.988008 -0.001321 0.0
2.557770 0.735548 0.005878 0.0
0.278362 1.730356 0.002666 0.0
2.826707 1.522417 0.003429 0.0
2.188683 0.754159 -0.003240 0.0
0.155859 0.625242 -0.002394 0.0
4.668793 1.429135 -0.002046 0.0
1.964356 1.708246 -0.002421 0.0
2.206408 0.726509 0.005534 0.0
2.893797 0.363793 -0.001580 0.0
0.007923 0.354446 -0.001113 0.0
3.907390 0.187924 -0.004330 0.0
2.650273 1.262253 0.001361 0.0
3.150876 0.100246 0.001932 0.0
4.507398 1.309831 -0.002295 0.0
0.988646 0.645768 -0.003515 0.0
4.786792 0.914735 0.000995 0.0
4.626481 1.013269 -0.000054 0.0
3.601351 0.147289 -0.000388 0.0
0.255433 0.698586 -0.000689 0.0
4.784148 1.515272 -0.003822 0.0
4.773543 1.344416 0.000382 0.0
1.879201 1.559936 -0.000017 0.0
0.860927 1.166675 0.003772 0.0
2.741468 1.198429 -0.003610 0.0
4.641633 0.147191 -0.001629 0.0
4.003080 0.185078 0.002447 0.0
3.989295 0.972765 0.000480 0.0
3.931863 0.301162 -0.001802 0.0
0.123325 1.638557 0.003437 0.0
2.890209 1.116272 0.000188 0.0
3.428693 1.699450 0.004241 0.0
4.811915 0.970139 -0.003527 0.0
4.486961 0.885365 -0.000862 0.0
2.882307 1.603690 0.000556 0.0
1.101894 0.052996 0.000979 0.0
4.870151 1.028267 0.003241 0.0
4.862136 0.958990 0.000257 0.0
4.238351 1.561812 -0.002103 0.0
4.566969 0.826327 0.003246 0.0
2.697517 1.104824 -0.000635 0.0
1.909465 0.999680 0.002007 0.0
0.787483 0.006771 -0.000616 0.0
0.510020 1.562185 0.001257 0.0
2.722303 1.289256 -0.001126 0.0
4.217982 1.387016 0.004833 0.0
3.825053 1.384904 0.001219 0.0
4.391370 0.659901 0.000324 0.0
0.780925 0.122918 0.005003 0.0
1.681054 1.035957 0.000254 0.0
4.437449 1.729022 -0.002386 0.0
2.029700 1.370033 0.001312 0.0
1.848304 1.665087 0.001928 0.0
1.062465 1.313106 -0.000846 0.0
4.415814 1.419698 -0.007020 0.0
1.679378 0.843264 -0.001527 0.0
2.063790 0.608473 0.003560 0.0
2.420444 0.062091 -0.003589 0.0
1.528927 1.312255 -0.000350 0.0
0.678322 1.328629 0.002086 0.0
2.429942 0.567747 0.001065 0.0
1.563107 0.365461 -0.001165 0.0
3.893976 1.362775 0.003455 0.0
2.242224 0.387828 0.003089 0.0
3.873640 1.013588 -0.005329 0.0
4.841700 1.230346 0.000794 0.0
0.556248 0.501082 -0.002592 0.0
2.795013 1.236032 -0.000974 0.0
1.065854 1.456628 0.001423 0.0
2.596487 0.011771 0.000538 0.0
3.337860 0.819057 -0.001083 0.0
0.950555 1.331281 -0.002587 0.0
1.602244 0.902451 0.000331 0.0
0.276315 0.239826 -0.001375 0.0
1.873450 0.927459 0.001107 0.0
1.414896 0.633055 0.000697 0.0
2.893818 1.425418 -0.002058 0.0
0.407312 1.723591 -0.005536 0.0
0.387268 0.378679 0.000498 0.0
2.133986 0.839605 -0.005250 0.0
3.412531 0.925506 -0.001287 0.0
3.729136 1.467392 -0.002018 0.0
4.584752 1.342560 -0.002467 0.0
4.426409 0.405268 -0.002183 0.0
0.203014 0.046716 -0.002724 0.0
0.125043 1.437654 0.000695 0.0
3.463094 1.329013 -0.005308 0.0
1.186909 0.141480 -0.001045 0.0
1.049210 0.493115 -0.000338 0.0
1.833069 0.658992 -0.001486 0.0
4.306906 1.003894 0.002853 0.0
4.429750 0.597085 0.001180 0.0
4.651743 1.418553 0.005564 0.0
3.105775 1.564289 -0.001162 0.0
2.687552 1.654682 -0.002712 0.0
1.146882 1.531229 -0.001138 0.0
2.290479 -0.002434 0.001282 0.0
4.928236 0.330561 0.001365 0.0
3.778909 0.182675 0.000490 0.0
4.815547 0.361486 -0.000214 0.0
3.197915 0.668443 0.002994 0.0
2.706361 0.516757 0.001368 0.0
1.671221 1.586859 -0.005470 0.0
4.945611 0.448784 0.001587 0.0
0.489790 1.368716 -0.002321 0.0
0.019452 1.066948 0.003169 0.0
4.742665 0.329213 0.002017 0.0
1.487487 1.384829 0.002251 0.0
0.463012 0.541176 -0.002192 0.0
1.924374 1.563071 -0.000840 0.0
0.665277 0.872962 0.003059 0.0
4.529079 1.076196 -0.004056 0.0
4.186556 1.227959 0.002512 0.0
2.932840 1.626807 -0.004200 0.0
0.972703 0.893216 0.001947 0.0
3.212962 1.146224 -0.003715 0.0
3.068525 1.357318 -0.001246 0.0
0.997881 0.487281 -0.000292 0.0
4.116540 1.447621 -0.000667 0.0
1.267388 0.839973 0.001100 0.0
3.177700 0.725472 0.003064 0.0
1.755047 0.477610 0.002545 0.0
2.419140 1.717876 -0.001628 0.0
1.280493 0.791540 -0.002117 0.0
2.095006 0.351597 0.002488 0.0
4.114112 1.379829 -0.000684 0.0
4.337474 1.578950 0.002725 0.0
0.392732 0.711550 -0.003092 0.0
0.718843 0.361738 -0.001213 0.0
0.237665 0.465113 -0.000333 0.0
0.715481 0.276925 -0.002265 0.0
2.929821 1.359494 0.002385 0.0
0.661826 1.304485 0.003491 0.0
2.298474 1.547159 -0.002184 0.0
2.234277 0.937560 0.004242 0.0
2.870330 0.464760 -0.001952 0.0
0.672817 0.567521 0.001443 0.0
3.278955 0.604687 -0.003526 0.0
1.384429 0.686088 0.001444 0.0
4.929710 1.719561 -0.001245 0.0
2.272735 0.185070 0.001972 0.0
3.109209 0.834596 0.002114 0.0
3.563902 0.044882 0.001850 0.0
3.902165 1.111936 0.002305 0.0
2.534801 0.283187 0.000246 0.0
4.511398 0.198658 -0.002427 0.0
2.603366 0.119171 0.001072 0.0
1.992263 0.475619 -0.000852 0.0
4.121565 1.066046 0.001963 0.0
1.560451 1.055438 0.001752 0.0
2.776370 1.153239 0.004118 0.0
3.235787 0.557909 0.000976 0.0
2.423962 0.316343 0.002534 0.0
4.045046 1.015496 0.001028 0.0
4.877474 0.468283 0.005386 0.0
3.205413 0.107674 0.001635 0.0
0.918597 0.320974 -0.002577 0.0
3.892537 1.616382 -0.001636 0.0
4.275559 1.600763 -0.001527 0.0
4.661862 0.485656 -0.001298 0.0
2.127020 0.588258 -0.002420 0.0
3.236491 0.034704 0.002213 0.0
1.690925 0.168078 0.002946 0.0
2.888459 0.086706 -0.000883 0.0
0.129261 0.636417 -0.002266 0.0
1.974812 0.985697 0.004136 0.0
4.486280 1.515110 0.001201 0.0
3.761350 0.427235 0.002041 0.0
3.446683 1.321075 -0.004832 0.0
3.323165 0.140781 -0.003961 0.0
3.512395 1.442485 0.001192 0.0
1.352524 0.178573 -0.003094 0.0
2.092238 1.752458 -0.007724 0.0
0.514428 0.507014 -0.001704 0.0
1.892404 1.233132 0.000833 0.0
0.273245 1.371120 -0.000428 0.0
0.113204 0.240275 0.000297 0.0
2.430177 1.746345 -0.000712 0.0
4.384607 0.616622 -0.003900 0.0
2.201221 0.459076 -0.001035 0.0
2.555939 1.140829 -0.001628 0.0
4.876254 1.207815 -0.000337 0.0
2.743571 0.564468 0.000483 0.0
2.775164 1.083578 -0.000314 0.0
3.387282 1.132915 0.004688 0.0
4.463546 1.499400 -0.001859 0.0
3.667278 0.940183 0.002252 0.0
1.218674 0.095771 -0.005448 0.0
2.426277 0.627970 0.000153 0.0
0.822210 0.530240 -0.002137 0.0
2.966238 0.663364 0.000136 0.0
1.812578 0.808531 0.002793 0.0
2.985206 1.553237 -0.002966 0.0
1.345585 1.644583 0.000116 0.0
2.398902 0.770422 -0.000162 0.0
3.922553 0.447140 -0.000186 0.0
4.912043 1.739372 -0.005027 0.0
3.554828 1.453729 -0.000204 0.0
3.072059 0.062200 0.001037 0.0
4.674948 1.582438 0.003082 0.0
0.162096 0.823351 0.000742 0.0
0.774160 1.179170 0.001539 0.0
3.330939 1.241460 0.000179 0.0
0.287569 0.661626 0.004735 0.0
2.691533 0.744425 0.001005 0.0
2.048750 0.537183 0.000842 0.0
1.767609 0.762217 0.002894 0.0
1.551258 1.112728 -0.002496 0.0
2.370942 0.984904 0.000614 0.0
2.674378 0.531584 -0.002350 0.0
3.216457 0.965246 -0.001285 0.0
2.416592 0.716912 -0.002934 0.0
3.848210 0.361133 -0.003364 0.0
3.841602 0.835041 0.000039 0.0
3.495539 1.694927 0.001600 0.0
1.236825 0.852022 0.003612 0.0
3.097745 0.064856 -0.002057 0.0
1.556131 0.909443 -0.002168 0.0
4.046664 0.389381 -0.000332 0.0
2.794454 1.080458 -0.000886 0.0
3.878799 1.046181 0.001423 0.0
3.097045 0.786808 -0.003271 0.0
1.235484 0.501543 0.000275 0.0
1.128920 0.646753 -0.000934 0.0
3.642380 1.367062 0.001470 0.0
2.567120 0.481305 0.000036 0.0
4.162037 1.339471 0.002995 0.0
3.076710 1.589112 -0.001577 0.0
4.261417 1.033741 0.000997 0.0
3.602988 0.383423 0.000684 0.0
3.626886 1.741533 0.002814 0.0
3.331987 0.807159 0.004435 0.0
2.571647 0.718063 0.006817 0.0
3.585730 1.490604 0.000386 0.0
3.235703 0.884988 0.001198 0.0
3.381362 0.513800 -0.000193 0.0
3.175732 1.157185 0.000083 0.0
0.183369 1.202719 0.002181 0.0
4.271518 0.446637 -0.001473 0.0
1.823471 1.616045 0.002678 0.0
1.582216 0.030292 0.000772 0.0
0.389294 0.501944 -0.002170 0.0
1.674893 0.594120 -0.000400 0.0
4.216780 0.634307 -0.000236 0.0
0.992971 1.196085 -0.000562 0.0
2.412942 1.071281 -0.000872 0.0
1.186329 1.122393 -0.001012 0.0
1.792757 1.206773 0.002863 0.0
0.408171 0.406866 -0.000274 0.0
1.110484 0.087097 -0.001913 0.0
2.178943 0.582888 -0.002115 0.0
2.009491 0.097901 0.006160 0.0
4.114090 1.439801 0.000424 0.0
3.774681 0.939081 0.000701 0.0
3.761695 1.387309 0.000290 0.0
1.644610 1.714522 0.000913 0.0
1.738355 0.223847 0.000572 0.0
3.151279 0.320973 0.001201 0.0
1.552234 1.380018 0.001498 0.0
1.662912 0.886830 -0.002434 0.0
3.736143 0.118575 0.003546 0.0
3.643224 0.774922 -0.000629 0.0
1.337194 0.134117 0.000889 0.0
3.738076 0.599429 0.001709 0.0
0.116247 0.611530 -0.001829 0.0
4.235871 1.278122 0.000440 0.0
0.786184 1.661521 0.002606 0.0
2.193810 0.699967 0.002393 0.0
3.347406 0.873855 -0.001218 0.0
0.440641 0.178640 0.000717 0.0
0.411351 0.648934 0.001375 0.0
3.168030 0.679731 -0.001833 0.0
1.864372 0.857397 -0.000502 0.0
2.950005 0.257440 0.001159 0.0
3.682538 1.582352 0.001650 0.0
1.310353 1.171793 -0.000284 0.0
3.023394 0.487183 0.002752 0.0
1.382421 1.605733 0.005381 0.0
3.886194 0.003797 -0.000576 0.0
1.572416 0.794240 -0.000839 0.0
1.495442 1.412774 -0.001078 0.0
4.652019 0.887789 0.003868 0.0
0.436085 0.758953 -0.001054 0.0
3.933119 1.641026 0.000749 0.0
3.734550 1.371132 0.001209 0.0
2.847469 1.511201 0.002768 0.0
3.683792 0.385582 -0.001530 0.0
2.992556 1.090271 -0.000200 0.0
2.462337 0.790991 0.001850 0.0
1.722656 1.592957 -0.006205 0.0
0.001000 1.217537 0.002319 0.0
4.425449 0.382608 -0.002063 0.0
1.410638 1.038305 -0.000140 0.0
4.929636 1.592899 0.000251 0.0
2.528461 0.908456 0.001544 0.0
4.249433 1.192668 -0.003859 0.0
0.080195 0.125594 0.005794 0.0
1.922409 0.752303 -0.003613 0.0
0.236007 1.143251 -0.001448 0.0
4.856163 0.300765 -0.002451 0.0
1.554938 0.748857 0.005383 0.0
2.367809 0.228147 0.002121 0.0
4.368652 1.544436 0.001241 0.0
1.937547 0.149588 -0.004003 0.0
0.034752 1.738254 -0.001965 0.0
4.528537 1.550672 -0.003517 0.0
1.529423 0.773094 0.003644 0.0
1.514541 0.642550 -0.002506 0.0
0.034412 0.732648 0.000017 0.0
3.720564 0.844920 -0.000333 0.0
1.195056 0.441233 0.000034 0.0
2.284407 0.437995 -0.000060 0.0
4.870132 1.493240 0.000374 0.0
3.552442 0.780966 -0.001969 0.0
3.532666 0.321252 0.001362 0.0
2.406147 0.236295 -0.000998 0.0
4.604568 0.959416 -0.002660 0.0
2.222381 1.553831 0.000575 0.0
0.828862 0.122176 -0.005396 0.0
4.279011 1.043806 0.005689 0.0
0.656239 1.004897 -0.000215 0.0
0.092327 1.595932 0.000512 0.0
4.684749 0.152114 0.002193 0.0
4.000293 1.703448 -0.003287 0.0
1.779150 1.202277 -0.004569 0.0
1.369031 1.596963 -0.002043 0.0
2.480852 0.332045 0.005965 0.0
1.191409 0.513518 0.002742 0.0
1.312285 0.924466 -0.002810 0.0
3.364563 1.461198 0.000256 0.0
4.874981 0.673276 -0.002650 0.0
0.337044 0.502118 0.000983 0.0
4.162273 0.766727 0.001375 0.0
1.537982 0.864680 0.002166 0.0
3.332315 1.438373 -0.003410 0.0
3.786854 0.079321 -0.001766 0.0
0.538826 0.955335 -0.001602 0.0
1.392274 0.285958 0.005696 0.0
2.506422 0.352307 0.000273 0.0
4.595272 1.087094 -0.002330 0.0
3.476460 1.422170 0.002667 0.0
4.847161 0.196877 -0.005359 0.0
0.538280 0.106243 -0.000763 0.0
3.635779 1.283212 -0.003731 0.0
1.125695 1.524860 -0.001929 0.0
4.507426 0.076562 -0.002982 0.0
1.016846 1.484005 -0.002003 0.0
0.539529 0.915886 -0.003051 0.0
2.723297 1.385842 -0.001201 0.0
2.768916 0.267591 0.001476 0.0
2.995085 0.088617 -0.002998 0.0
0.865064 0.957397 -0.001371 0.0
2.846041 0.901616 -0.002345 0.0
1.792883 0.499064 -0.001430 0.0
0.123904 0.910470 0.001127 0.0
1.293276 1.697916 0.001692 0.0
1.512926 0.281001 -0.000725 0.0
1.475639 1.114354 0.000493 0.0
2.722710 0.679337 0.003061 0.0
3.702464 0.422101 0.005859 0.0
0.223164 1.577273 0.003737 0.0
3.072611 1.511183 -0.000516 0.0
3.845038 1.249463 -0.001438 0.0
1.149009 1.546376 -0.000169 0.0
2.409590 0.319637 0.000074 0.0
0.438830 0.938756 -0.001932 0.0
4.103205 0.118206 -0.001792 0.0
2.653119 1.485001 -0.002137 0.0
0.520699 1.549098 0.000616 0.0
4.281373 1.217306 -0.003043 0.0
0.793921 1.426152 -0.001855 0.0
4.717178 0.839034 0.001911 0.0
4.785585 1.676617 -0.005852 0.0
2.439736 1.016255 -0.000208 0.0
1.095870 0.255394 0.000408 0.0
2.506555 1.405748 -0.002324 0.0
0.428665 0.462537 -0.000538 0.0
2.364619 1.297089 0.000312 0.0
2.206048 1.540880 0.004772 0.0
0.399025 0.763845 -0.000927 0.0
2.513666 1.445053 -0.005725 0.0
1.085448 0.813694 0.000645 0.0
1.176075 0.643893 0.000446 0.0
0.434612 1.714854 -0.001195 0.0
4.264929 0.417373 -0.000964 0.0
2.610901 0.176946 0.002162 0.0
1.838647 0.606253 0.003440 0.0
1.977301 0.045664 -0.003082 0.0
4.096443 1.312549 0.000100 0.0
4.795314 0.380870 -0.000137 0.0
2.531371 0.984517 -0.000149 0.0
2.660783 1.054965 0.000838 0.0
0.820079 0.925635 -0.003156 0.0
2.305254 0.031540 -0.002193 0.0
0.999883 1.612517 -0.000145 0.0
2.670615 1.316226 -0.003634 0.0
3.171950 1.448568 0.000079 0.0
2.960948 1.361511 0.000792 0.0
4.878241 0.377999 0.000447 0.0
0.658709 1.083443 -0.006016 0.0
0.004139 1.584128 -0.002974 0.0
0.961521 0.080659 -0.001015 0.0
3.714512 0.232014 0.001361 0.0
3.182365 0.217587 -0.004138 0.0
3.183972 1.119708 0.000260 0.0
1.084975 1.243466 0.002843 0.0
4.808749 1.073191 -0.003375 0.0
1.383326 0.667538 0.003489 0.0
4.940642 0.210684 0.002077 0.0
0.187435 0.065226 0.005085 0.0
2.568851 1.429504 -0.001711 0.0
1.131934 0.062778 0.000634 0.0
0.410695 1.487622 -0.002505 0.0
0.829154 0.042696 0.001160 0.0
2.908513 0.387012 -0.000152 0.0
0.052796 0.609494 -0.003956 0.0
0.985839 0.950050 0.001203 0.0
0.883218 1.194123 -0.001559 0.0
0.408159 0.072221 -0.000713 0.0
1.381499 1.052810 -0.003140 0.0
1.986995 0.360316 -0.001640 0.0
3.928968 1.558416 0.004406 0.0
0.703972 0.329789 0.001420 0.0
3.994320 0.505405 0.000590 0.0
4.920202 0.002977 -0.002161 0.0
0.418051 0.396073 -0.001674 0.0
0.353565 1.011669 0.002649 0.0
3.108740 0.823438 0.003617 0.0
3.430220 1.005677 -0.002518 0.0
2.122822 0.032024 0.002718 0.0
2.880611 0.209718 -0.004454 0.0
0.251930 0.259053 0.004305 0.0
3.937931 1.086625 -0.002069 0.0
0.533162 0.363035 0.001835 0.0
4.263874 0.796484 0.002233 0.0
0.894024 0.866692 -0.002986 0.0
0.219739 1.585110 -0.002694 0.0
0.846771 1.193872 0.001719 0.0
1.728684 0.785550 0.000614 0.0
4.256180 1.062618 -0.004709 0.0
1.719178 1.663574 0.002809 0.0
1.967319 0.534787 -0.000622 0.0
1.423211 1.426818 -0.000703 0.0
1.507166 0.651660 -0.000563 0.0
2.060067 0.795404 0.002797 0.0
0.429814 0.175495 -0.000848 0.0
2.322979 1.146887 0.002021 0.0
4.407273 0.091388 -0.000597 0.0
3.664418 1.291480 0.000958 0.0
1.645646 0.827898 0.000552 0.0
1.676533 1.215415 -0.000032 0.0
1.006379 0.769154 0.002895 0.0
2.536161 0.510982 0.000904 0.0
3.239517 0.192354 -0.001517 0.0
0.394432 0.980217 -0.002192 0.0
0.958595 1.028948 -0.003356 0.0
2.723876 0.788256 0.002012 0.0
3.463294 0.256593 0.001479 0.0
4.488772 0.487088 -0.005060 0.0
1.156538 0.937146 -0.006693 0.0
4.868641 1.107213 -0.004812 0.0
4.389953 0.647952 0.000712 0.0
3.988827 0.527572 -0.000659 0.0
0.435549 0.078278 -0.000070 0.0
1.822327 1.347628 0.000136 0.0
3.640391 0.346775 -0.002950 0.0
4.102274 1.075332 0.000211 0.0
3.414464 0.576108 -0.000204 0.0
3.360008 1.642118 -0.001252 0.0
2.661290 1.642587 -0.000180 0.0
2.069979 0.913253 -0.001278 0.0
2.654280 0.347733 0.001581 0.0
0.352177 1.489807 -0.001773 0.0
2.496222 1.194162 0.004544 0.0
1.586011 0.976313 -0.004084 0.0
2.104161 0.981514 -0.002003 0.0
0.136216 0.310358 0.001714 0.0
2.700679 0.385188 0.000408 0.0
4.843207 1.175180 0.001626 0.0
1.925162 1.631856 0.003671 0.0
4.032683 0.544010 -0.001875 0.0
0.693663 1.714066 0.000207 0.0
3.848426 0.022859 0.001206 0.0
0.173580 1.310813 0.001513 0.0
0.553249 0.619952 -0.001524 0.0
2.978251 0.090054 0.002427 0.0
3.979106 1.631855 -0.002665 0.0
0.821766 0.437056 0.000404 0.0
4.338364 0.251533 -0.001544 0.0
4.391815 1.202937 0.002021 0.0
2.394518 1.529708 -0.002497 0.0
3.850620 0.703019 -0.000138 0.0
1.416261 0.173715 -0.000199 0.0
4.274259 1.741216 -0.001889 0.0
2.819690 1.588451 -0.002388 0.0
4.805924 0.256938 -0.003200 0.0
0.660667 0.636576 -0.002499 0.0
3.154936 0.347965 -0.002862 0.0
2.436037 1.544201 0.001696 0.0
1.602494 0.896480 -0.000921 0.0
1.500741 0.115440 -0.000307 0.0
2.694482 0.365551 -0.000010 0.0
3.978045 1.596417 0.000152 0.0
2.406164 0.148611 0.002901 0.0
4.040991 0.552779 0.004137 0.0
4.461886 1.425643 -0.000334 0.0
4.319875 0.650267 -0.000801 0.0
2.723274 1.416141 0.001187 0.0
1.116258 0.164488 -0.002722 0.0
2.287150 0.572426 -0.000278 0.0
0.944212 0.934937 -0.000233 0.0
0.212018 0.073665 -0.003513 0.0
2.171709 0.212851 -0.000099 0.0
1.770327 1.336174 -0.000139 0.0
3.399129 1.311774 -0.001543 0.0
1.708302 0.447963 -0.000123 0.0
4.244421 0.794000 -0.002193 0.0
1.429120 1.066290 -0.005559 0.0
4.692313 1.229334 0.000688 0.0
2.723223 1.456278 0.001080 0.0
0.334170 1.031687 0.000181 0.0
2.979321 0.296245 0.001775 0.0
1.079426 1.661566 0.000436 0.0
4.892748 0.506414 0.000600 0.0
0.306109 1.310060 0.002313 0.0
0.336272 1.290252 -0.001889 0.0
1.363873 0.451844 -0.003380 0.0
0.536792 1.659219 0.000133 0.0
0.899393 0.913146 -0.002857 0.0
0.582815 0.203676 -0.000937 0.0
1.039322 0.469470 -0.005894 0.0
0.402201 0.545268 0.000575 0.0
1.685125 0.047918 -0.002251 0.0
1.208139 0.469053 0.000238 0.0
3.003280 0.596948 -0.000014 0.0
4.674058 0.688614 -0.002394 0.0
0.769665 0.582551 0.000225 0.0
4.769155 1.711913 0.004666 0.0
0.293041 1.053006 0.001073 0.0
1.709265 1.532021 0.001427 0.0
4.620298 0.006781 0.002844 0.0
3.425957 0.093112 -0.001691 0.0
4.209375 1.618042 -0.003740 0.0
1.425137 1.450906 -0.004358 0.0
1.342473 1.611692 0.000850 0.0
3.434737 0.269998 -0.004053 0.0
3.411199 0.884859 -0.002062 0.0
2.891072 0.729180 0.000938 0.0
4.227728 0.590631 0.003164 0.0
3.056025 1.174721 0.000381 0.0
3.188585 1.207107 -0.004333 0.0
3.674178 0.427849 0.002394 0.0
3.055508 0.297743 0.002296 0.0
2.823788 0.013115 0.003970 0.0
1.724560 0.447227 0.002572 0.0
3.061460 0.339434 0.001577 0.0
0.878620 1.393121 0.001002 0.0
0.397019 1.046400 -0.003274 0.0
3.502176 1.113528 -0.000688 0.0
0.442950 0.100865 0.003358 0.0
1.803831 0.248377 -0.002242 0.0
3.788141 1.443950 0.000164 0.0
3.308948 1.540427 -0.000638 0.0
0.770880 1.440375 -0.001885 0.0
0.658695 0.430645 -0.000100 0.0
1.780183 0.517779 0.004160 0.0
1.227352 0.233886 0.000869 0.0
1.419324 0.882840 0.001342 0.0
1.980985 0.129765 0.002553 0.0
1.976578 0.290982 -0.000850 0.0
0.134944 0.300504 0.003492 0.0
0.167881 0.334029 -0.001401 0.0
3.628441 0.405737 0.001789 0.0
3.812664 1.231692 0.001364 0.0
1.472624 1.718633 -0.001065 0.0
0.694808 0.384612 0.004665 0.0
4.676277 1.364123 -0.001426 0.0
4.232943 0.869568 0.000065 0.0
4.935134 1.416829 -0.001115 0.0
4.722625 0.960437 -0.002210 0.0
2.439624 1.329769 -0.002193 0.0
4.208169 1.429470 0.005439 0.0
3.520103 1.224514 0.001556 0.0
0.586317 0.951674 -0.000907 0.0
2.267222 0.906893 0.000003 0.0
1.511352 0.582644 0.002461 0.0
3.070342 0.710691 -0.000275 0.0
2.910052 0.103823 0.003534 0.0
3.145519 0.233135 -0.000406 0.0
0.766504 0.952485 -0.004457 0.0
0.953668 1.321454 0.004633 0.0
3.222690 0.583436 0.003179 0.0
0.856316 1.301244 -0.000207 0.0
4.338171 1.185917 -0.001098 0.0
1.527790 1.356569 -0.002107 0.0
3.068736 1.288959 0.003391 0.0
0.430011 0.011642 0.002070 0.0
0.341955 1.284459 0.001154 0.0
1.636009 0.715283 0.003264 0.0
1.734565 1.614819 -0.000787 0.0
3.791508 0.083428 0.000860 0.0
4.433103 0.451551 0.000977 0.0
3.023639 0.321955 0.000212 0.0
0.750454 1.237316 -0.001738 0.0
0.425823 1.743762 0.003748 0.0
1.019410 0.903244 0.000876 0.0
2.264470 1.277023 0.001418 0.0
0.316701 1.347805 -0.003894 0.0
0.854028 0.283883 -0.005893 0.0
2.513040 1.260949 0.004189 0.0
4.641712 1.636667 0.000661 0.0
3.065472 0.776736 -0.000177 0.0
3.556844 0.469101 0.004322 0.0
3.629529 0.542102 0.002245 0.0
0.451659 1.650931 -0.005059 0.0
4.818599 0.270942 -0.000057 0.0
2.256281 1.278261 -0.001308 0.0
2.437530 1.659663 0.000913 0.0
1.671847 0.091055 -0.000532 0.0
4.130470 1.534120 0.003682 0.0
4.256273 1.720952 -0.002226 0.0
0.565739 0.205254 -0.005815 0.0
4.189891 0.665170 0.003374 0.0
2.581388 1.044152 -0.001896 0.0
0.960476 0.552643 -0.002541 0.0
3.093738 0.241042 0.002415 0.0
1.015416 0.810163 0.004507 0.0
2.132567 1.205551 0.002062 0.0
1.370111 0.996883 -0.003018 0.0
0.162303 0.741427 0.003884 0.0
3.831493 0.814374 0.003652 0.0
0.849827 1.688022 0.002016 0.0
1.616178 1.134769 -0.003157 0.0
2.014529 0.072469 -0.000248 0.0
1.893930 0.652499 -0.002270 0.0
4.824113 0.149204 0.000272 0.0
3.513459 0.896031 -0.003178 0.0
3.425083 1.105143 0.000069 0.0
3.428696 0.448671 -0.000345 0.0
1.298260 0.179000 0.000228 0.0
1.104525 0.315287 -0.001324 0.0
3.245100 0.510750 0.001225 0.0
0.201376 0.341017 0.004471 0.0
4.287844 0.171060 -0.003211 0.0
4.578303 0.358192 -0.001115 0.0
0.836237 0.744896 0.002462 0.0
2.345742 0.215906 0.001807 0.0
3.030553 1.106917 0.002635 0.0
0.065947 1.371182 -0.003019 0.0
3.364802 1.470030 -0.000232 0.0
3.428544 1.022953 0.003275 0.0
1.410033 1.424491 0.003204 0.0
4.206262 0.598745 -0.005749 0.0
3.901294 0.348612 -0.001914 0.0
4.571038 1.535072 0.004125 0.0
0.604733 0.236237 0.005336 0.0
4.094812 0.188086 0.001801 0.0
4.161474 0.569513 0.000684 0.0
1.291267 0.444240 -0.001535 0.0
0.035503 0.847319 -0.001060 0.0
1.265317 0.716088 0.001113 0.0
1.091315 0.898502 -0.002761 0.0
0.942764 0.664903 -0.003173 0.0
2.700203 0.858825 0.002846 0.0
4.254929 0.825610 -0.000732 0.0
4.196534 1.280555 0.004428 0.0
3.758567 1.047538 -0.001739 0.0
0.747770 1.708919 0.000638 0.0
4.710114 0.611667 -0.000120 0.0
3.789887 0.406070 -0.000255 0.0
1.146770 0.975720 -0.003195 0.0
2.342843 0.057138 0.001599 0.0
2.599184 0.855862 -0.001481 0.0
4.047550 1.111734 -0.000386 0.0
2.823553 0.541580 0.001669 0.0
4.934174 0.394183 0.004774 0.0
3.837183 1.588498 -0.000242 0.0
4.719444 1.261559 0.001683 0.0
4.634377 0.109315 0.003331 0.0
3.870016 0.583465 -0.000483 0.0
4.748355 0.420067 -0.002438 0.0
1.979068 1.585505 -0.001175 0.0
1.751530 0.422099 0.000271 0.0
0.284871 1.735341 -0.001151 0.0
1.193120 0.793182 0.001960 0.0
0.741366 1.722427 -0.001671 0.0
2.009552 0.259072 -0.000298 0.0
2.475718 0.072263 -0.002607 0.0
0.196127 1.496661 -0.000783 0.0
4.238071 1.134643 -0.000412 0.0
3.614028 1.583701 0.004052 0.0
3.045843 1.091557 -0.003394 0.0
0.011376 0.889381 -0.002467 0.0
2.069788 1.482648 -0.000108 0.0
3.884345 1.610563 -0.003042 0.0
3.169372 0.443007 -0.002214 0.0
2.436407 1.610532 -0.000268 0.0
2.172612 1.396242 -0.003757 0.0
2.732583 0.943979 0.003717 0.0
4.190694 1.129671 -0.000525 0.0
3.733566 1.589849 0.000293 0.0
1.988324 0.758465 -0.001554 0.0
3.411315 0.282550 -0.001770 0.0
4.725837 1.049570 0.002896 0.0
3.503005 0.418692 0.003729 0.0
3.697591 0.810406 -0.001878 0.0
1.397143 0.181270 -0.001127 0.0
3.277471 1.025563 0.000458 0.0
2.622018 1.525600 0.000613 0.0
0.289869 1.553645 -0.000820 0.0
1.573659 1.658664 -0.001085 0.0
4.706192 1.043848 0.000158 0.0
3.325531 0.755431 -0.000859 0.0
1.443058 0.253517 -0.001492 0.0
0.295218 1.653644 0.001017 0.0
2.503959 0.288780 0.000600 0.0
1.288439 0.457173 -0.005172 0.0
4.682617 1.303183 0.002596 0.0
3.412697 0.993318 -0.003248 0.0
2.032800 0.957115 -0.001279 0.0
1.138510 0.563588 -0.000624 0.0
1.721321 0.647671 0.001464 0.0
3.520489 1.001927 -0.000065 0.0
0.171083 0.359443 0.000931 0.0
2.379308 1.368734 -0.001920 0.0
4.093730 0.604478 -0.002565 0.0
3.815383 0.026141 -0.001437 0.0
3.194404 1.557068 -0.003120 0.0
4.452188 0.635200 0.001576 0.0
0.042754 1.364287 0.000526 0.0
1.909603 0.982524 -0.000471 0.0
3.082131 0.772132 0.000536 0.0
1.942757 0.859088 -0.002830 0.0
0.812199 0.138412 -0.001813 0.0
2.996565 1.665980 -0.005111 0.0
1.148137 1.515097 -0.000072 0.0
4.482793 1.429296 -0.000204 0.0
0.645073 0.581357 -0.000247 0.0
2.849853 1.282336 -0.001085 0.0
4.076685 0.355884 0.000751 0.0
3.109639 0.560838 -0.002665 0.0
3.843914 0.284745 -0.000528 0.0
4.256994 0.627320 0.003428 0.0
3.114304 0.891156 -0.001985 0.0
3.538520 1.724830 -0.001908 0.0
2.460323 1.137875 0.002513 0.0
2.545102 1.487284 0.008416 0.0
1.596625 1.583495 0.000572 0.0
0.623265 1.493787 -0.001683 0.0
4.882479 1.081119 -0.000253 0.0
4.436604 0.611173 0.006803 0.0
3.988020 0.871596 -0.001289 0.0
4.618529 1.422320 0.000424 0.0
0.642902 0.206942 0.001544 0.0
2.021048 0.081920 -0.001043 0.0
0.750249 1.498588 -0.000820 0.0
2.932195 1.345978 -0.002566 0.0
2.540145 0.697735 0.000564 0.0
3.647679 0.667613 0.000856 0.0
4.425960 0.779714 -0.000304 0.0
3.030483 0.711709 0.002835 0.0
2.977044 1.291735 0.002753 0.0
4.216205 1.287761 -0.003042 0.0
4.353904 0.384188 -0.001736 0.0
3.633631 0.612921 -0.000523 0.0
3.552462 1.234096 -0.000219 0.0
3.742108 0.372727 0.002864 0.0
4.683790 0.200982 0.001741 0.0
1.893388 1.299508 -0.003060 0.0
4.744592 1.488096 -0.001557 0.0
3.509034 0.670821 0.002002 0.0
2.246816 0.684998 0.002210 0.0
4.933730 0.576373 -0.001552 0.0
1.638841 0.140581 -0.002200 0.0
4.807949 0.195982 -0.000883 0.0
0.451214 0.867969 0.004309 0.0
3.212988 1.716835 0.000281 0.0
0.888607 1.059710 -0.002245 0.0
2.912476 0.720641 0.003603 0.0
0.899172 0.528136 -0.004185 0.0
1.482439 1.082009 0.001333 0.0
0.890677 0.118548 0.000038 0.0
0.228390 1.044007 0.001086 0.0
3.082046 0.114768 -0.000693 0.0
3.209878 0.080681 0.002116 0.0
2.213782 0.439789 -0.000866 0.0
4.867059 1.400178 0.003178 0.0
3.207411 1.311535 -0.001983 0.0
2.910428 1.341672 0.001868 0.0
2.919831 0.710398 -0.001384 0.0
1.259678 1.346819 0.001591 0.0
2.727264 0.582078 0.002630 0.0
1.778000 1.550157 0.002051 0.0
1.771476 1.244587 -0.001850 0.0
3.988783 1.602820 -0.001042 0.0
3.951494 0.385032 -0.000902 0.0
1.008718 1.587116 0.001112 0.0
3.920147 1.645126 -0.001339 0.0
2.637033 0.502484 -0.000910 0.0
2.661038 0.532565 0.000574 0.0
4.763257 1.737797 -0.001663 0.0
0.414855 0.907775 -0.000530 0.0
4.711206 0.962734 0.000346 0.0
3.010231 1.057450 0.001144 0.0
0.002831 0.137463 0.002805 0.0
3.712319 0.128693 -0.001750 0.0
3.594725 0.314283 -0.000275 0.0
3.351818 1.750074 0.000077 0.0
0.827093 0.042262 -0.000876 0.0
2.915148 1.295158 0.000744 0.0
1.401408 0.133181 -0.002090 0.0
2.586683 1.004434 0.001572 0.0
1.783527 1.626339 -0.000746 0.0
3.744464 1.389097 -0.001121 0.0
1.426966 0.278105 -0.000855 0.0
1.138145 1.648272 -0.000333 0.0
1.833961 0.178491 -0.002391 0.0
2.189753 0.299530 -0.004446 0.0
4.349912 1.561239 -0.000386 0.0
2.456009 0.491560 0.003511 0.0
2.638366 0.222044 -0.001623 0.0
4.710733 0.547395 -0.000666 0.0
2.390736 1.216386 -0.000810 0.0
1.056744 0.245523 -0.002922 0.0
3.613390 1.016180 0.000593 0.0
0.463247 1.288047 0.000841 0.0
1.516836 0.289252 0.001661 0.0
1.235454 1.364473 0.001330 0.0
3.038218 1.493759 0.001049 0.0
4.470861 1.197196 0.001777 0.0
4.880951 1.304517 -0.004077 0.0
3.332407 1.644372 0.000684 0.0
2.275821 1.323280 -0.002995 0.0
0.242307 1.155510 -0.001570 0.0
0.178375 0.004021 -0.003590 0.0
1.467827 0.585072 0.000505 0.0
0.239007 0.364389 0.001404 0.0
2.144543 0.815348 0.000594 0.0
2.271629 1.382738 -0.002579 0.0
2.734993 0.937122 0.000708 0.0
4.527854 1.163029 0.000795 0.0
3.395772 0.187789 -0.000724 0.0
0.322619 1.730039 0.002886 0.0
3.707496 0.555163 0.000814 0.0
0.417217 0.389798 0.002249 0.0
2.198416 1.284280 -0.003436 0.0
0.614922 1.696548 0.004051 0.0
2.201399 0.062493 -0.000683 0.0
2.737631 1.047775 0.001349 0.0
4.443805 1.280536 0.000735 0.0
3.087679 0.537548 0.001731 0.0
0.174906 0.258739 -0.001548 0.0
4.676404 0.074655 0.003549 0.0
2.873573 1.008831 -0.000323 0.0
1.965210 0.665478 0.000754 0.0
1.809364 1.692209 0.000404 0.0
4.275720 1.616532 0.002015 0.0
2.668036 0.650323 0.001870 0.0
0.406475 0.787289 -0.002398 0.0
4.772323 0.125461 -0.001842 0.0
1.339145 1.454822 -0.004039 0.0
4.436539 1.472597 -0.000783 0.0
0.510709 0.498273 -0.004570 0.0
0.388261 1.693648 0.003413 0.0
4.652585 1.496141 0.001906 0.0
4.628619 0.238123 -0.000690 0.0
3.752610 1.074928 -0.001646 0.0
3.455895 0.525692 -0.003140 0.0
0.327252 0.940313 -0.003663 0.0
3.597154 0.481708 -0.000078 0.0
0.859496 1.252007 -0.000830 0.0
0.527822 0.023269 -0.002518 0.0
1.981986 1.478284 -0.002050 0.0
3.566226 1.742675 0.003404 0.0
1.712893 0.313092 -0.000525 0.0
1.741711 0.743250 0.004687 0.0
3.969909 1.120854 0.001228 0.0
2.219819 0.745637 0.000897 0.0
4.729748 1.681879 -0.004586 0.0
0.470997 1.215701 -0.001567 0.0
4.022869 0.736745 0.000339 0.0
1.241199 0.274587 0.005044 0.0
3.950342 1.245153 -0.000906 0.0
0.624246 1.530592 0.001890 0.0
0.298230 0.532447 0.002093 0.0
2.948020 0.123949 -0.002417 0.0
1.986958 1.109351 -0.000090 0.0
2.333289 0.582670 0.002755 0.0
1.537397 0.779641 0.000978 0.0
0.290781 0.286365 0.001053 0.0
3.182629 1.441449 0.001603 0.0
2.005180 0.042680 0.000168 0.0
3.780473 0.316785 0.001201 0.0
2.767459 0.639601 -0.002033 0.0
1.666569 1.502150 -0.005334 0.0
1.566573 1.668621 0.002317 0.0
1.759943 0.141503 0.001932 0.0
4.936490 0.578121 0.000614 0.0
4.863649 0.129364 -0.000063 0.0
4.578788 1.081805 -0.001634 0.0
1.449793 1.705192 -0.000843 0.0
0.050490 0.706664 0.005144 0.0
1.271223 1.142924 -0.000403 0.0
0.953830 1.404715 -0.004205 0.0
2.832984 1.066265 0.001583 0.0
3.713464 0.150830 -0.003081 0.0
0.445193 1.058441 -0.003135 0.0
3.756345 1.397201 -0.002113 0.0
2.843452 0.289795 -0.001804 0.0
0.120847 0.416290 0.000508 0.0
3.848555 1.072082 0.003079 0.0
3.678944 0.148022 -0.004637 0.0
0.377204 0.012009 -0.003424 0.0
0.973427 1.695571 -0.002232 0.0
1.552509 1.564728 -0.005506 0.0
1.326947 1.744730 -0.000313 0.0
2.439997 1.459342 -0.000443 0.0
0.386509 0.185429 -0.001192 0.0
3.933175 1.359835 0.000908 0.0
1.368084 1.587228 0.003391 0.0
3.206606 1.422497 -0.000657 0.0
0.497760 1.419377 -0.000776 0.0
4.733258 1.662513 0.001963 0.0
1.802197 0.956769 -0.002251 0.0
3.029144 0.032960 0.000274 0.0
3.143009 1.371954 0.000283 0.0
3.359693 0.038087 0.002412 0.0
0.903423 1.511453 -0.004652 0.0
3.519146 0.242024 -0.000311 0.0
2.894868 1.310111 -0.001071 0.0
4.247553 0.259268 0.007660 0.0
2.805249 0.755157 -0.000738 0.0
2.988259 1.568633 0.002344 0.0
2.304688 1.739635 0.001690 0.0
0.452054 0.406663 -0.000895 0.0
4.915707 0.665092 -0.003194 0.0
3.503766 0.786442 -0.003361 0.0
2.492124 0.338440 0.004659 0.0
0.155017 1.534232 0.000695 0.0
3.928564 0.308683 0.001068 0.0
2.626912 0.821356 0.002439 0.0
4.859405 0.149282 0.000784 0.0
1.774381 0.968189 -0.002614 0.0
3.585595 0.416558 0.002172 0.0
2.005539 0.822131 0.002575 0.0
3.150809 0.826578 -0.006048 0.0
1.117346 1.535933 -0.001390 0.0
4.118368 0.605366 -0.001706 0.0
4.651177 0.048460 -0.001022 0.0
3.018135 1.068930 -0.000475 0.0
1.856167 0.013303 0.002495 0.0
4.177189 0.896809 0.000839 0.0
1.690644 1.662578 0.002098 0.0
1.778071 0.530554 0.003109 0.0
4.904020 0.012932 0.003181 0.0
3.171675 0.905274 0.000133 0.0
1.532864 0.824061 0.001773 0.0
3.397793 0.930500 -0.000559 0.0
0.598680 1.144581 0.000552 0.0
4.461894 0.672617 -0.001564 0.0
4.872020 1.506141 -0.004560 0.0
1.244858 1.530999 0.005424 0.0
4.155082 1.446307 0.005595 0.0
0.880067 1.202972 0.001912 0.0
4.712427 1.428419 0.000771 0.0
1.825759 1.566122 -0.005670 0.0
4.081885 1.203731 -0.000838 0.0
0.197098 1.535875 0.000611 0.0
4.117083 0.084327 -0.001314 0.0
1.156442 0.956659 0.002553 0.0
2.933428 0.555480 0.000456 0.0
2.441432 0.461152 -0.004214 0.0
0.853409 1.151831 -0.001780 0.0
0.736651 0.956453 -0.004287 0.0
4.806336 0.323077 0.000625 0.0
4.163051 1.036752 0.000462 0.0
4.443800 1.505622 0.002122 0.0
4.294509 0.277844 0.001166 0.0
3.040387 0.248810 -0.001404 0.0
3.865192 0.421706 -0.001144 0.0
3.219868 0.458399 -0.000172 0.0
3.241861 1.600901 0.002106 0.0
4.560584 1.086312 0.000010 0.0
3.138065 0.327959 -0.004246 0.0
2.306628 0.340655 -0.001971 0.0
1.320181 1.006988 -0.000327 0.0
1.970937 1.493005 -0.001814 0.0
1.980332 0.117957 -0.000670 0.0
1.380466 0.958793 0.001018 0.0
2.422516 1.326469 -0.003898 0.0
1.835648 0.210049 0.002602 0.0
3.421761 0.692323 0.001659 0.0
2.305086 0.938322 0.004091 0.0
2.922677 1.621497 0.001948 0.0
3.747474 1.197057 -0.001176 0.0
4.692469 0.498190 0.000730 0.0
3.148403 0.008563 0.000667 0.0
2.300730 1.736678 0.001797 0.0
4.802821 0.737923 0.001417 0.0
3.533958 1.430014 -0.000614 0.0
2.810918 0.548304 0.000801 0.0
3.430881 0.381585 -0.001175 0.0
2.572730 0.474800 -0.003112 0.0
0.851701 0.134194 -0.000908 0.0
3.481056 1.126732 -0.001580 0.0
4.563312 0.013874 0.001968 0.0
4.811024 1.713887 -0.002161 0.0
4.806649 1.543969 -0.002301 0.0
0.572118 1.660337 -0.000260 0.0
2.518659 0.291692 0.001268 0.0
1.282688 1.282966 -0.004854 0.0
1.870716 1.196081 0.003252 0.0
4.146595 0.411140 -0.000365 0.0
0.913414 0.320757 -0.002133 0.0
1.232429 0.213859 -0.002710 0.0
0.301603 0.450933 0.005525 0.0
0.852856 0.475755 0.001636 0.0
4.456028 1.532704 0.001574 0.0
3.472041 0.351234 0.001454 0.0
2.473497 1.411602 -0.001801 0.0
1.974200 1.197516 0.000310 0.0
2.653367 1.506819 0.000360 0.0
3.848844 1.419758 0.002083 0.0
0.092195 0.057910 -0.000249 0.0
2.094903 0.269119 0.001573 0.0
3.200785 1.256259 -0.001673 0.0
3.268312 0.488467 -0.000947 0.0
1.264905 0.527838 0.001568 0.0
1.482180 1.254357 0.000766 0.0
1.489432 0.514349 -0.002158 0.0
4.564304 0.890596 -0.000382 0.0
3.656387 1.709601 -0.002833 0.0
4.201423 0.401830 0.000843 0.0
1.770915 0.250747 -0.002476 0.0
4.716942 1.508343 0.001555 0.0
0.180065 0.109893 -0.000062 0.0
1.365230 1.626761 -0.001085 0.0
2.692690 0.506489 -0.003395 0.0
2.732554 0.112757 0.001531 0.0
2.158741 0.667286 -0.001305 0.0
4.386991 1.153820 0.000516 0.0
2.205608 0.954067 0.001126 0.0
3.234328 0.669404 -0.001170 0.0
1.025026 0.138448 0.002255 0.0
1.696727 0.481734 -0.001622 0.0
4.334971 0.819708 0.000961 0.0
4.495105 1.584662 0.003008 0.0
3.778265 0.347840 0.002809 0.0
1.224227 0.382085 0.001672 0.0
1.522449 1.010721 0.003465 0.0
4.917250 0.914995 0.001236 0.0
0.269523 0.747187 0.000925 0.0
1.891787 1.090523 0.002354 0.0
3.209284 0.985863 0.002438 0.0
1.684259 1.312459 0.002878 0.0
0.812289 1.173711 0.002871 0.0
2.909518 1.553878 0.001895 0.0
4.597023 0.456899 0.000192 0.0
2.461198 0.956589 0.005435 0.0
1.026070 0.446338 -0.004350 0.0
0.318981 0.911461 -0.001933 0.0
2.070425 1.276503 0.003072 0.0
3.362755 0.471722 -0.000683 0.0
4.833192 0.432261 -0.000149 0.0
0.390013 1.223134 0.003114 0.0
4.042397 0.430491 0.001773 0.0
0.313884 1.736459 -0.000688 0.0
2.778830 1.277238 0.000038 0.0
4.759056 0.754725 -0.000877 0.0
1.431177 0.175468 -0.000155 0.0
3.806483 0.781462 -0.000787 0.0
0.127420 0.586473 -0.004645 0.0
4.723561 0.488663 0.000292 0.0
4.328594 1.488548 -0.002925 0.0
4.193531 0.587698 -0.002000 0.0
4.102464 1.006059 -0.003800 0.0
2.919307 0.694771 0.002800 0.0
0.060329 0.593491 0.000789 0.0
4.208027 1.248195 -0.002828 0.0
3.237933 1.212297 0.001662 0.0
2.280112 0.378501 0.003531 0.0
1.258448 0.118731 0.001935 0.0
1.851858 1.582321 -0.000909 0.0
0.348699 0.842762 -0.003791 0.0
0.736047 1.472488 0.001527 0.0
1.112988 0.720241 -0.002277 0.0
2.848073 0.658219 0.000137 0.0
2.781429 1.703213 0.000501 0.0
0.659166 0.647868 -0.000366 0.0
2.999538 0.598618 -0.000467 0.0
1.738996 0.725561 -0.005097 0.0
4.764313 0.388868 0.000529 0.0
0.711266 1.158775 0.003534 0.0
0.241323 0.303276 0.000261 0.0
1.728944 1.205199 -0.003987 0.0
1.487731 1.729280 -0.001857 0.0
2.521547 0.665195 0.003881 0.0
2.133227 0.486243 -0.000553 0.0
0.201411 1.394127 0.000903 0.0
2.163115 0.529478 0.002287 0.0
0.491961 0.256202 -0.003081 0.0
0.922553 0.895763 0.002375 0.0
2.321523 0.171825 0.001995 0.0
3.506875 0.880612 0.004034 0.0
3.772169 0.963458 -0.002531 0.0
1.158235 0.625513 0.001286 0.0
4.734850 1.076846 -0.002054 0.0
4.264691 0.582073 -0.002082 0.0
4.439163 1.699110 -0.000783 0.0
4.339636 0.763631 0.000795 0.0
1.163445 1.674694 0.001288 0.0
3.035978 0.677999 -0.001894 0.0
0.392014 1.555769 0.002462 0.0
1.183881 0.786898 0.001773 0.0
2.809192 0.357810 -0.001907 0.0
2.008224 0.349582 0.005769 0.0
2.090740 1.153357 -0.000795 0.0
1.653432 1.442365 -0.000738 0.0
0.707834 1.604313 -0.004156 0.0
2.309983 0.566044 0.001585 0.0
4.658805 0.436991 0.001855 0.0
0.738475 1.747133 -0.000129 0.0
4.393004 1.470867 0.003675 0.0
3.759785 0.678786 -0.002818 0.0
1.742994 0.023344 -0.006451 0.0
3.954394 0.974747 -0.000090 0.0
1.830993 0.708883 -0.002230 0.0
3.315418 0.199243 -0.002309 0.0
4.651240 1.736186 -0.002922 0.0
2.977214 1.087707 -0.003022 0.0
4.769136 1.476595 0.003788 0.0
3.381501 1.276217 -0.005103 0.0
3.647077 1.135454 -0.003107 0.0
4.734377 0.675675 -0.005069 0.0
0.160641 1.570418 0.002358 0.0
4.264652 0.664408 -0.005835 0.0
2.531515 1.392229 0.001834 0.0
2.974924 1.144350 -0.001572 0.0
4.809064 0.532589 -0.000100 0.0
4.571049 1.584223 0.000576 0.0
2.125984 1.141817 0.002948 0.0
0.743291 1.010678 0.003577 0.0
1.643025 0.400606 -0.000556 0.0
0.949577 1.048188 0.000718 0.0
3.080795 1.295777 -0.001886 0.0
3.029201 1.739118 0.003349 0.0
0.130000 0.156173 0.002308 0.0
3.873784 0.706669 -0.001383 0.0
0.829295 1.330684 -0.000309 0.0
3.468415 0.978552 -0.000252 0.0
2.305153 0.463925 -0.001241 0.0
4.156491 1.726702 -0.003425 0.0
4.303004 0.807651 -0.001696 0.0
3.414544 0.716799 -0.000270 0.0
1.120015 1.283429 0.000911 0.0
4.603438 0.816422 -0.001469 0.0
2.771742 1.560570 0.002256 0.0
2.522109 0.535900 -0.002181 0.0
2.836166 0.229919 -0.001997 0.0
4.001822 0.313966 0.001530 0.0
2.135390 -0.000021 0.000889 0.0
4.128859 1.497952 -0.003675 0.0
0.058496 0.441875 -0.003429 0.0
3.551845 0.657871 0.002718 0.0
3.532196 1.686910 0.003121 0.0
2.012948 1.513377 -0.003878 0.0
1.232018 0.766195 -0.001714 0.0
0.995489 1.681470 -0.001349 0.0
1.306608 1.027091 -0.002263 0.0
2.183398 0.326532 -0.002255 0.0
4.637407 1.087011 0.002375 0.0
4.550066 1.071650 -0.002021 0.0
4.317736 0.630664 0.000838 0.0
2.580933 0.130855 -0.002268 0.0
2.008963 1.395273 0.005911 0.0
0.424821 0.848624 -0.001852 0.0
3.606274 0.456165 0.003327 0.0
