1.78685605 1.21036027 -0.00165476 0.00000000
4.02013468 2.14434307 0.00175020 0.00000000
2.15838554 0.66285901 -0.00582193 0.00000000
2.70048705 0.80599679 -0.00037457 0.00000000
0.18079469 0.50537058 0.00200482 0.00000000
3.97887906 1.86977014 -0.00370038 0.00000000
1.79947581 0.67802011 -0.00076113 0.00000000
0.42873623 1.66648269 -0.00118092 0.00000000
4.70765499 0.78470728 -0.00208376 0.00000000
2.73092586 1.67554653 0.00093055 0.00000000
4.73551737 1.45539253 -0.00241088 0.00000000
3.22377508 0.73377115 -0.00260858 0.00000000
2.93254810 1.95483350 0.00075878 0.00000000
1.90485289 1.23265102 0.00005192 0.00000000
2.92748429 0.44945323 -0.00311693 0.00000000
0.11369497 0.91473451 -0.00349194 0.00000000
0.55421601 1.16943644 -0.00183919 0.00000000
3.11496055 0.62874590 -0.00173719 0.00000000
3.89687083 2.08790153 -0.00300418 0.00000000
4.60349870 1.88162755 0.00384832 0.00000000
3.88626019 2.06010704 -0.00204358 0.00000000
4.52114835 1.47628058 0.00205251 0.00000000
4.16241352 1.02089237 0.00231377 0.00000000
1.77262268 1.03660502 0.00150675 0.00000000
4.54767020 0.08194564 -0.00252245 0.00000000
4.10547138 1.14475448 0.00156370 0.00000000
0.79027621 1.97328486 0.00251845 0.00000000
0.46084157 0.51421058 0.00087380 0.00000000
3.50628577 1.29890403 0.00022908 0.00000000
3.16439465 0.12336984 -0.00088347 0.00000000
2.85803421 1.77841198 0.00573953 0.00000000
1.37888821 0.59625581 -0.00453453 0.00000000
3.20255636 0.41647282 -0.00020721 0.00000000
0.09328943 0.77337632 -0.00196102 0.00000000
0.77623587 1.38466002 0.00071124 0.00000000
0.29063822 0.33243299 0.00133924 0.00000000
0.45952933 1.01218279 -0.00027390 0.00000000
0.95685639 1.65334882 -0.00289661 0.00000000
4.62390342 0.24952219 -0.00058234 0.00000000
4.50199277 0.07330552 -0.00001190 0.00000000
4.42868075 1.94193667 -0.00013601 0.00000000
0.48567806 0.28734014 -0.00453403 0.00000000
0.86608913 1.22628242 0.00126555 0.00000000
1.87116156 2.19901809 0.00141586 0.00000000
2.37298221 2.16842905 -0.00147945 0.00000000
0.89958908 2.17054963 -0.00045601 0.00000000
4.70982601 0.65861221 -0.00137283 0.00000000
2.28812525 1.23497473 -0.00279444 0.00000000
3.55493530 2.05271414 -0.00249290 0.00000000
4.08521647 1.20200101 -0.00205458 0.00000000
0.42136088 1.73709938 -0.00379242 0.00000000
2.66332912 0.95934846 -0.00032247 0.00000000
2.76155656 0.18785579 -0.00433725 0.00000000
4.19435532 0.76190053 0.00134972 0.00000000
3.14461342 1.07049031 -0.00664809 0.00000000
2.01074685 1.72953810 -0.00034182 0.00000000
1.76160464 0.78727310 0.00337005 0.00000000
0.23166513 2.14142547 0.00153503 0.00000000
3.54813965 1.32052817 -0.00154086 0.00000000
2.00935768 1.25437671 -0.00364041 0.00000000
1.20636382 0.99669488 0.00067037 0.00000000
3.74248614 2.00767667 -0.00085269 0.00000000
0.69701359 2.04497806 0.00265895 0.00000000
0.87310423 1.69582373 -0.00230190 0.00000000
0.65747532 0.14383635 0.00039010 0.00000000
1.01180713 1.20302167 0.00087032 0.00000000
4.55358836 1.47470626 -0.00710011 0.00000000
2.66347384 1.93581227 -0.00239236 0.00000000
2.38850650 0.16664834 0.00028747 0.00000000
1.65538135 2.01988138 0.00212556 0.00000000
4.21796898 1.41468234 0.00147064 0.00000000
4.38371399 1.15778444 -0.00141529 0.00000000
1.55811625 1.61292921 0.00291102 0.00000000
2.29977271 0.04867639 -0.00177406 0.00000000
4.07722824 0.61074676 0.00318289 0.00000000
0.03748181 0.35793851 -0.00164871 0.00000000
0.46707751 0.65128736 0.00381195 0.00000000
1.85610537 0.01535977 0.00165474 0.00000000
3.37923053 0.26801801 0.00219327 0.00000000
0.03528470 2.12107835 0.00072008 0.00000000
1.29266320 0.94578116 -0.00170417 0.00000000
1.38591178 0.51594064 0.00131213 0.00000000
2.92252082 0.69355110 0.00034940 0.00000000
0.34497666 1.17093271 0.00134471 0.00000000
1.82937520 2.14057583 0.00032223 0.00000000
0.84424592 1.66525721 -0.00253299 0.00000000
0.26601987 1.74416302 -0.00552198 0.00000000
3.44446842 1.91727852 0.00061896 0.00000000
3.32659457 0.65291538 -0.00107510 0.00000000
4.03097667 0.71143942 0.00007674 0.00000000
0.51304387 0.73311599 -0.00043518 0.00000000
0.54341440 2.08113736 0.00056483 0.00000000
4.25259277 0.85443179 0.00263221 0.00000000
3.21140468 0.01635403 -0.00234648 0.00000000
1.25900805 0.77182564 0.00144409 0.00000000
3.02190707 0.54451477 -0.00363390 0.00000000
4.32937725 0.44329256 0.00524467 0.00000000
3.70590264 0.03689670 -0.00073916 0.00000000
0.25786692 1.71528500 0.00097330 0.00000000
0.43770371 1.08804438 -0.00452861 0.00000000
1.53481496 1.78228496 0.00096785 0.00000000
2.01306250 1.00889377 0.00009319 0.00000000
2.78869307 1.41977669 0.00599368 0.00000000
0.86770926 0.51685417 -0.00237659 0.00000000
1.21091308 1.96720780 -0.00305607 0.00000000
1.86164752 0.40620279 0.00594171 0.00000000
2.05876210 0.63458566 -0.00066552 0.00000000
0.54798825 1.65181456 0.00628522 0.00000000
0.46204445 1.32719431 0.00248530 0.00000000
3.45852143 0.92736027 0.00154402 0.00000000
0.17279949 1.00647424 0.00406207 0.00000000
2.35594646 0.63503990 -0.00037348 0.00000000
3.94464087 1.00534824 0.00282005 0.00000000
2.13779269 1.26473548 -0.00378706 0.00000000
0.44394972 0.09389001 -0.00260084 0.00000000
4.69879469 0.73703652 -0.00276787 0.00000000
3.78099174 1.16151256 -0.00257021 0.00000000
2.18855744 1.71208303 -0.00455936 0.00000000
2.25785569 1.79419263 -0.00214992 0.00000000
1.10328750 0.06478707 0.00342635 0.00000000
4.52071306 2.03408530 0.00258174 0.00000000
1.63586498 1.46072637 -0.00236582 0.00000000
4.24560292 0.69330195 -0.00385193 0.00000000
1.95686717 0.51358787 0.00300484 0.00000000
4.70004325 1.13726956 0.00241719 0.00000000
1.31392121 0.98621965 0.00190171 0.00000000
4.19841555 1.41438033 -0.00141959 0.00000000
3.45897066 1.14693273 -0.00096607 0.00000000
3.72681881 0.09062394 -0.00037683 0.00000000
1.66347658 0.15335905 0.00363445 0.00000000
1.65886991 1.15316343 0.00245980 0.00000000
1.82392621 1.08994469 0.00049696 0.00000000
2.65005262 0.51969849 -0.00124755 0.00000000
1.11847606 1.07595256 0.00072902 0.00000000
4.10641651 2.07005820 -0.00101781 0.00000000
2.66258450 0.16665324 0.00206336 0.00000000
4.59233156 2.05214831 -0.00073776 0.00000000
3.08648973 1.80080401 0.00109284 0.00000000
1.20948192 0.14813599 -0.00147291 0.00000000
1.39627237 0.42159314 0.00067066 0.00000000
2.46012695 1.72273719 0.00004328 0.00000000
3.56548523 0.25648055 0.00253090 0.00000000
2.07452466 1.28812119 -0.00004163 0.00000000
3.64481916 0.69562472 -0.00289096 0.00000000
0.59562295 0.49338257 0.00356499 0.00000000
0.77253645 0.49578277 0.00089710 0.00000000
4.33829598 1.65980411 0.00202118 0.00000000
0.13430294 1.93533256 0.00163766 0.00000000
0.32443420 1.26314699 -0.00025598 0.00000000
4.60127677 1.81664591 -0.00220271 0.00000000
2.66195065 1.53482767 -0.00009334 0.00000000
3.92689355 1.92106246 0.00175647 0.00000000
0.77888579 0.18770364 0.00100429 0.00000000
2.97432278 0.25488627 0.00126313 0.00000000
3.04605840 0.66139621 0.00408550 0.00000000
2.89858009 0.41311593 0.00219729 0.00000000
2.85241981 1.16577577 0.00125540 0.00000000
4.22430284 1.53308156 0.00122923 0.00000000
2.84625781 1.05325318 -0.00066500 0.00000000
2.18056481 1.92681155 -0.00008383 0.00000000
4.56157299 0.56320578 -0.00356023 0.00000000
4.52454164 1.62008657 -0.00045508 0.00000000
3.96669065 1.40138504 -0.00174880 0.00000000
3.82316530 1.49071538 0.00006594 0.00000000
1.81515058 1.51934414 -0.00292517 0.00000000
2.31201286 0.10325858 -0.00212640 0.00000000
1.59994495 1.71803283 -0.00354231 0.00000000
3.99126822 0.12521306 0.00265247 0.00000000
0.54883997 1.63897047 -0.00101504 0.00000000
1.97569648 0.18243987 0.00078788 0.00000000
3.32979843 1.14270638 0.00374916 0.00000000
1.73656788 1.44959911 -0.00289106 0.00000000
2.65211898 0.48602720 0.00109893 0.00000000
0.73359280 1.29257926 -0.00029698 0.00000000
0.40559456 0.97491155 0.00132982 0.00000000
4.47902383 2.00489991 -0.00544105 0.00000000
0.49598239 2.16698273 0.00076332 0.00000000
1.86665100 1.37048706 -0.00139818 0.00000000
4.14595628 0.67298004 0.00295532 0.00000000
0.61942632 0.40277997 0.00354298 0.00000000
2.10394006 1.23954469 -0.00230035 0.00000000
4.02277096 1.59578771 -0.00102116 0.00000000
3.88121635 1.06670723 0.00225278 0.00000000
2.42009047 0.67107133 0.00031311 0.00000000
1.63812804 1.38692327 0.00178620 0.00000000
3.05818689 1.41235721 -0.00004905 0.00000000
4.56953288 1.37611207 -0.00153626 0.00000000
2.62379631 2.08739641 -0.00121853 0.00000000
2.68180309 0.21097202 -0.00234107 0.00000000
2.69963243 0.17914113 -0.00095823 0.00000000
3.98128885 2.05662007 0.00003351 0.00000000
3.04409134 2.16143941 0.00010885 0.00000000
0.95714270 0.81664617 0.00217995 0.00000000
2.86829115 0.94986080 -0.00195986 0.00000000
3.22726424 0.94515879 0.00144268 0.00000000
2.56217716 1.03629620 -0.00546554 0.00000000
0.38097543 0.35640631 0.00061327 0.00000000
4.38153289 1.44386587 -0.00198633 0.00000000
0.35773634 0.03084010 0.00016738 0.00000000
2.01706327 0.69449196 -0.00245199 0.00000000
4.74538194 0.14099501 0.00176422 0.00000000
2.26697614 1.10226623 0.00035636 0.00000000
0.42388114 0.40828983 -0.00310771 0.00000000
4.50597623 2.16550453 0.00068439 0.00000000
4.76297875 0.35711679 0.00347865 0.00000000
2.21017516 0.28141049 0.00018902 0.00000000
2.70708790 0.63483108 0.00007577 0.00000000
3.90356869 1.83954599 -0.00133748 0.00000000
3.16475070 0.64364461 -0.00562309 0.00000000
4.59678779 1.05093378 0.00241793 0.00000000
1.34252906 0.26801388 -0.00157067 0.00000000
2.55191459 1.70216639 0.00493647 0.00000000
3.59813616 1.34223786 0.00335642 0.00000000
3.32427327 0.22576718 -0.00084339 0.00000000
2.15889008 0.72841684 -0.00333068 0.00000000
0.73340101 0.39866351 -0.00208218 0.00000000
0.48016473 0.95527338 -0.00329358 0.00000000
2.06195925 0.64975716 -0.00145978 0.00000000
3.78712647 1.15066160 -0.00356698 0.00000000
0.00539551 0.93671812 0.00365839 0.00000000
2.05583704 1.18694191 0.00059214 0.00000000
2.22460815 0.97432338 0.00017357 0.00000000
1.10476900 0.26820964 -0.00196334 0.00000000
0.02686702 0.63793103 0.00240353 0.00000000
4.75571772 0.97005926 0.00299494 0.00000000
1.37243885 1.45509668 -0.00340094 0.00000000
0.30170344 1.94234722 -0.00154934 0.00000000
0.98352462 0.57345377 0.00138487 0.00000000
2.83176241 0.09753459 -0.00078282 0.00000000
1.12486930 0.21205859 0.00528691 0.00000000
2.95960852 0.55898414 0.00191418 0.00000000
0.31245715 2.15447969 0.00144069 0.00000000
1.10915106 1.63470498 0.00006114 0.00000000
2.65319683 1.71982165 -0.00294673 0.00000000
2.46660573 1.16599932 0.00041554 0.00000000
2.11767647 0.70852650 -0.00115620 0.00000000
3.51604112 2.19677893 0.00070961 0.00000000
3.28996578 1.97885819 -0.00361628 0.00000000
2.65224086 1.25510723 -0.00523959 0.00000000
1.44848209 1.01674024 0.00043376 0.00000000
0.14536587 0.58990203 0.00091169 0.00000000
4.67020386 1.33521958 0.00001464 0.00000000
3.76394112 0.51681382 0.00146870 0.00000000
3.72403988 1.83435597 -0.00052519 0.00000000
0.21842801 1.15514982 -0.00136605 0.00000000
2.87851140 0.49964832 -0.00022265 0.00000000
2.65164198 0.37765218 0.00038735 0.00000000
1.67034711 0.25795769 0.00168065 0.00000000
3.08390583 1.63888299 0.00195438 0.00000000
0.03407801 0.30198454 0.00222587 0.00000000
4.66632876 0.12458034 -0.00511415 0.00000000
1.99190403 0.53689972 -0.00067433 0.00000000
3.11145968 2.20074900 0.00095809 0.00000000
3.89054560 0.12535416 -0.00141957 0.00000000
4.64709607 1.88537276 -0.00097545 0.00000000
0.04602010 2.18523371 0.00259053 0.00000000
3.67591811 1.71860815 0.00202479 0.00000000
4.01567486 2.03061962 -0.00161123 0.00000000
4.69728308 2.10545343 -0.00246243 0.00000000
3.99903206 1.28492612 0.00151765 0.00000000
1.51745352 1.87395874 -0.00334413 0.00000000
3.42062579 1.90486367 -0.00159997 0.00000000
4.31997097 1.59706478 -0.00276723 0.00000000
2.78537155 2.08922634 -0.00276419 0.00000000
2.34522558 0.31860528 -0.00177230 0.00000000
4.62739100 2.08130317 0.00166889 0.00000000
4.35272196 0.78497521 0.00204110 0.00000000
4.74364430 1.42479611 -0.00040562 0.00000000
2.89702801 0.42623346 -0.00117112 0.00000000
2.06497757 1.96342123 0.00080683 0.00000000
1.47880925 0.88345417 -0.00101661 0.00000000
1.64514954 0.48919291 0.00152899 0.00000000
4.75313097 0.45360124 0.00617879 0.00000000
1.79889048 0.97266994 0.00020896 0.00000000
4.07369144 1.24840108 -0.00372962 0.00000000
0.26639322 1.96262356 0.00104382 0.00000000
0.12103794 0.34374766 0.00230398 0.00000000
4.04727832 1.20579039 -0.00130819 0.00000000
1.54826695 0.69556289 -0.00361983 0.00000000
2.20458084 0.56769676 0.00242113 0.00000000
2.21361538 1.51427054 0.00057562 0.00000000
3.82930073 0.28710845 0.00095386 0.00000000
2.83606604 2.02407536 -0.00070959 0.00000000
0.93866771 1.86543329 0.00047626 0.00000000
4.52337456 1.59207323 -0.00205179 0.00000000
4.04327921 0.42293879 -0.00081777 0.00000000
3.40375365 1.69250633 0.00282187 0.00000000
3.50513313 0.00483394 -0.00436531 0.00000000
3.37557292 2.18577099 0.00019887 0.00000000
3.01429013 0.21377340 -0.00011428 0.00000000
0.62669282 0.17087084 0.00359675 0.00000000
3.84647908 0.87028577 -0.00012139 0.00000000
0.18443270 1.60294332 -0.00310744 0.00000000
0.94213435 1.46085122 0.00277280 0.00000000
1.32691861 2.10319879 -0.00099164 0.00000000
3.27099933 0.26458714 0.00132321 0.00000000
0.94845242 1.93360766 0.00034441 0.00000000
3.12499902 0.74974663 0.00277333 0.00000000
0.16055484 0.60647792 -0.00195885 0.00000000
3.45757096 2.14887790 -0.00036027 0.00000000
4.34287290 1.82455186 0.00173919 0.00000000
0.80362791 0.26918119 0.00192901 0.00000000
2.65555815 0.71678690 -0.00217440 0.00000000
0.98290916 0.58047487 -0.00224667 0.00000000
2.07036444 0.89709832 -0.00047089 0.00000000
3.60436332 2.05667094 0.00161145 0.00000000
0.43739803 1.44949636 -0.00175482 0.00000000
2.95198764 2.17260909 0.00150967 0.00000000
2.22201620 1.15467293 -0.00514536 0.00000000
4.39559729 1.43825297 0.00088085 0.00000000
1.55147549 1.85002096 0.00246391 0.00000000
1.17313217 1.54626720 -0.00076307 0.00000000
2.76243492 1.18277437 0.00057984 0.00000000
0.82552093 0.61039016 0.00030101 0.00000000
3.29904714 1.24138483 -0.00105911 0.00000000
2.90319465 1.54566535 0.00100680 0.00000000
3.80790879 0.77720092 -0.00580248 0.00000000
0.12583737 2.12332221 0.00253242 0.00000000
0.37505911 1.39737269 -0.00494917 0.00000000
0.48595838 0.97157183 -0.00045481 0.00000000
1.02859127 1.67496351 -0.00199538 0.00000000
4.49249330 1.10549703 -0.00051529 0.00000000
4.52375690 0.20858906 -0.00118961 0.00000000
4.59742661 1.73176378 -0.00089107 0.00000000
1.13798214 1.11837506 -0.00297257 0.00000000
0.01410449 1.93557672 -0.00120191 0.00000000
2.32308762 0.37911773 -0.00242744 0.00000000
1.01973991 0.06514862 0.00015146 0.00000000
4.36770225 0.08333550 -0.00010218 0.00000000
4.50134137 0.01736239 0.00408896 0.00000000
1.71744561 1.55119594 -0.00167114 0.00000000
1.12156041 2.05841425 -0.00039366 0.00000000
4.09583231 0.37240204 0.00053106 0.00000000
1.94104348 0.48876956 -0.00108088 0.00000000
2.72861721 1.04004720 -0.00065592 0.00000000
0.36267615 1.99962419 -0.00364367 0.00000000
1.73146516 1.42443882 0.00300477 0.00000000
4.67198125 0.40568532 0.00103014 0.00000000
2.43649002 0.55145091 -0.00157989 0.00000000
2.62601878 2.02804351 0.00363966 0.00000000
3.21321634 2.06191903 -0.00462417 0.00000000
2.95329289 2.16808444 0.00000546 0.00000000
4.38914455 0.59916931 0.00141652 0.00000000
4.54037346 1.33227928 -0.00135837 0.00000000
2.67059820 2.17038907 0.00128956 0.00000000
0.56701974 2.11192291 0.00046868 0.00000000
1.11344856 1.28379086 0.00439409 0.00000000
3.55238863 0.57061545 -0.00141747 0.00000000
2.54008448 1.33579802 0.00186774 0.00000000
0.14025660 1.41300703 0.00199965 0.00000000
1.00171648 1.24048514 0.00143296 0.00000000
3.57179320 0.36008413 0.00169136 0.00000000
2.88652989 2.03235043 0.00412219 0.00000000
3.30675079 1.16435997 0.00087304 0.00000000
1.51963888 1.03582330 0.00080042 0.00000000
3.65765375 2.18497243 0.00071264 0.00000000
3.24167420 2.12946706 -0.00035504 0.00000000
3.60427182 0.01901452 -0.00268019 0.00000000
3.99504465 0.51071448 0.00184467 0.00000000
3.69493510 0.63673711 0.00158263 0.00000000
2.47599181 1.77172549 0.00057331 0.00000000
3.09558294 1.49768093 0.00040368 0.00000000
1.79578692 0.58632283 0.00092486 0.00000000
3.57668393 1.16608135 -0.00121509 0.00000000
3.67726615 0.46731337 0.00170249 0.00000000
0.70887442 1.61705737 0.00250018 0.00000000
3.84751066 1.52524421 0.00008812 0.00000000
3.59725107 1.13640970 -0.00050573 0.00000000
4.49570111 1.12495369 -0.00453235 0.00000000
0.09952838 1.06154212 -0.00294731 0.00000000
4.23991643 1.91139665 0.00332180 0.00000000
2.02362727 1.40028268 -0.00205861 0.00000000
4.00143422 1.79447226 0.00135914 0.00000000
4.59373859 0.97957541 -0.00425690 0.00000000
0.76035928 0.84549751 -0.00112531 0.00000000
3.27523156 0.92072977 0.00339880 0.00000000
4.01699094 1.14292975 0.00219957 0.00000000
1.66020062 0.23722146 -0.00260877 0.00000000
3.70097589 2.12447804 -0.00187799 0.00000000
3.88248767 0.57391771 0.00066697 0.00000000
3.63251833 1.47026781 0.00076094 0.00000000
1.78471271 2.12053079 0.00180715 0.00000000
0.13820399 2.03826632 0.00102157 0.00000000
4.59440731 1.42097226 -0.00483817 0.00000000
4.08023740 0.31300574 -0.00054282 0.00000000
3.20034250 0.56873584 0.00110048 0.00000000
0.06243792 1.07631050 0.00029503 0.00000000
1.59768677 0.50946470 0.00201182 0.00000000
4.06730125 1.79141587 0.00131495 0.00000000
1.75431770 0.35578814 0.00135459 0.00000000
1.66094826 0.92874135 0.00091771 0.00000000
3.14088104 0.37022096 -0.00331747 0.00000000
4.07593391 1.77108602 0.00594741 0.00000000
0.57909715 0.37039447 -0.00177405 0.00000000
2.93188017 2.02552344 0.00282592 0.00000000
2.40921345 0.45269362 0.00391986 0.00000000
4.19303725 2.05950354 0.00275060 0.00000000
4.62990080 1.01978165 -0.00335752 0.00000000
3.57739251 0.71243250 -0.00166463 0.00000000
3.07994069 1.97246256 0.00085953 0.00000000
0.61263252 0.32048954 0.00282647 0.00000000
4.60801405 1.61921781 0.00104778 0.00000000
0.73536939 1.25229782 0.00114073 0.00000000
4.27367776 1.70120422 0.00028583 0.00000000
4.33218626 0.26169432 0.00011572 0.00000000
2.32061899 0.68392553 -0.00151146 0.00000000
0.84033390 0.46411409 -0.00947383 0.00000000
3.93405418 2.12738621 0.00440390 0.00000000
4.04005791 1.09735079 0.00005364 0.00000000
2.99775518 1.35445448 0.00398826 0.00000000
2.97004775 0.86117436 0.00271049 0.00000000
4.11398240 2.04430115 0.00114497 0.00000000
1.52631673 0.82286055 0.00038220 0.00000000
0.20571513 1.15071002 -0.00252577 0.00000000
4.21225379 0.06032357 -0.00209498 0.00000000
0.04998708 2.04106516 -0.00139102 0.00000000
2.02027258 0.73798562 0.00360803 0.00000000
1.02623120 1.02912755 -0.00180567 0.00000000
4.35364461 0.79856698 -0.00029642 0.00000000
2.12683521 1.95463336 0.00027382 0.00000000
4.34160722 1.13595073 -0.00200037 0.00000000
0.78139542 0.17959474 0.00383829 0.00000000
1.23102672 1.89777640 0.00011630 0.00000000
2.99696442 1.78739374 0.00569332 0.00000000
3.97662558 2.17433809 -0.00467654 0.00000000
4.24804758 0.78316447 -0.00004490 0.00000000
0.22307686 0.64546384 0.00005701 0.00000000
3.01881508 0.33992447 -0.00003578 0.00000000
2.30140074 1.31224603 0.00409009 0.00000000
2.72346299 0.57590454 0.00251699 0.00000000
0.78833824 1.50299006 0.00069686 0.00000000
4.34363561 2.12804098 -0.00206052 0.00000000
3.14232152 1.53652279 0.00062564 0.00000000
1.15074659 0.63195973 0.00099263 0.00000000
1.62319948 0.82473072 -0.00472164 0.00000000
4.54578881 0.91517724 -0.00052717 0.00000000
0.65661685 1.71980561 0.00211788 0.00000000
4.48080833 1.48044176 0.00119306 0.00000000
0.62047064 0.25223324 0.00031433 0.00000000
3.02746137 1.13211956 -0.00174198 0.00000000
1.17376580 0.30452957 0.00555550 0.00000000
0.75619876 1.37787938 -0.00323068 0.00000000
1.15064855 2.03840395 -0.00044593 0.00000000
0.31261571 1.90539511 -0.00318197 0.00000000
0.36389090 1.24968511 0.00409846 0.00000000
2.79445489 0.21066874 0.00551266 0.00000000
1.93391695 2.16000560 0.00362302 0.00000000
2.07275184 0.02890060 -0.00291227 0.00000000
4.04083697 1.31552353 0.00191806 0.00000000
2.55400986 0.05208573 -0.00040153 0.00000000
0.10739828 2.15566528 -0.00153993 0.00000000
4.35380479 1.62300655 -0.00674597 0.00000000
4.57914192 0.96819359 0.00248872 0.00000000
2.43899190 0.13273355 -0.00276274 0.00000000
2.35691222 0.47062875 -0.00085495 0.00000000
0.34142043 0.62354921 -0.00189431 0.00000000
3.91098044 0.36043962 0.00694998 0.00000000
1.36832320 1.05982576 0.00195782 0.00000000
2.72139235 2.10965021 0.00054109 0.00000000
1.55002429 2.09113221 0.00020957 0.00000000
0.79978815 1.02940884 -0.00183759 0.00000000
1.81322723 0.45100751 0.00183965 0.00000000
3.23261389 1.36448607 0.00317002 0.00000000
1.56748590 1.59387524 0.00364449 0.00000000
0.73928634 1.09770723 -0.00580326 0.00000000
1.35466188 1.17374302 0.00014756 0.00000000
4.75393594 1.12895518 -0.00332323 0.00000000
0.15295517 1.76752173 0.00138134 0.00000000
2.03466451 1.69857744 -0.00085997 0.00000000
0.87900079 0.64957040 -0.00035128 0.00000000
3.73908849 0.60790308 -0.00209905 0.00000000
4.28622230 0.45978745 0.00017199 0.00000000
2.39953200 0.36145392 -0.00446918 0.00000000
1.08106288 1.63423493 0.00026047 0.00000000
2.70882998 1.69204306 0.00165555 0.00000000
3.74710593 1.13762043 -0.00084180 0.00000000
0.80893662 0.31008831 -0.00021431 0.00000000
1.84443663 1.59505058 -0.00011834 0.00000000
1.88500306 0.53663760 0.00062005 0.00000000
3.21798058 0.61473011 -0.00254627 0.00000000
2.65595003 0.15807575 0.00099700 0.00000000
0.45645315 2.07565405 -0.00272613 0.00000000
0.18689753 1.99997260 -0.00175688 0.00000000
3.84740449 1.18938113 0.00316541 0.00000000
4.63267142 2.11854779 0.00292656 0.00000000
0.72837440 0.32955770 0.00098626 0.00000000
3.85786532 1.65088820 0.00125058 0.00000000
2.48019911 1.83622459 0.00103537 0.00000000
1.54976706 0.26171963 -0.00461384 0.00000000
4.57534199 0.63606947 0.00205861 0.00000000
4.32017751 1.21009684 0.00279395 0.00000000
0.86789340 1.21452037 -0.00084405 0.00000000
2.89712754 1.43379861 0.00017298 0.00000000
0.36984309 0.11477522 -0.00087074 0.00000000
4.43218420 1.60832936 0.00062890 0.00000000
1.51230780 0.00308866 -0.00122714 0.00000000
0.08157304 0.69288914 -0.00234754 0.00000000
1.18340147 0.46909946 0.00231309 0.00000000
3.29370982 0.47333773 0.00372542 0.00000000
3.53156994 0.49137241 0.00009794 0.00000000
3.75797064 0.36805529 0.00204035 0.00000000
3.85746487 0.48963663 0.00196638 0.00000000
2.67851413 0.42655978 -0.00055421 0.00000000
3.21425601 0.93367672 -0.00263590 0.00000000
3.87965623 1.50002925 0.00049634 0.00000000
2.97762646 1.64644392 0.00460646 0.00000000
1.96441607 0.33822928 -0.00520693 0.00000000
2.79696291 0.38017294 0.00841509 0.00000000
4.08190773 1.08995743 -0.00175948 0.00000000
1.18183746 0.45931704 0.00053485 0.00000000
1.16997283 2.17059640 0.00418450 0.00000000
3.71544685 2.07069387 -0.00253085 0.00000000
4.64193266 0.90458204 0.00060579 0.00000000
1.20182531 0.69694877 0.00161975 0.00000000
3.54894612 1.42495361 0.00189114 0.00000000
2.44687788 2.02402541 -0.00322686 0.00000000
2.26918838 1.69427727 -0.00498031 0.00000000
0.39038998 1.20651398 0.00246252 0.00000000
1.28566554 0.28740711 0.00318558 0.00000000
3.15900639 0.27113316 -0.00416481 0.00000000
4.56743662 0.71018537 0.00076581 0.00000000
2.07069281 1.20556716 -0.00100531 0.00000000
1.00349979 0.34014199 0.00460679 0.00000000
3.89218015 2.18963808 0.00258839 0.00000000
2.56317306 0.44692956 -0.00409959 0.00000000
3.67030749 0.89456765 0.00103230 0.00000000
1.25934247 1.25104870 0.00186998 0.00000000
1.11392663 1.35860307 0.00117324 0.00000000
1.27760678 1.64012744 -0.00093318 0.00000000
0.20244463 1.41518327 -0.00055240 0.00000000
4.56848418 1.65253385 -0.00023466 0.00000000
0.25887249 1.62568217 -0.00165661 0.00000000
3.50851309 0.27187844 0.00240313 0.00000000
0.82438410 1.12612359 0.00296861 0.00000000
0.43465763 1.09368776 0.00232339 0.00000000
2.93208152 0.68701893 -0.00216490 0.00000000
0.74350838 0.30277371 -0.00077187 0.00000000
0.80224445 0.75913186 0.00083398 0.00000000
1.57828936 1.56073041 -0.00106953 0.00000000
0.70922786 0.86551541 -0.00345087 0.00000000
3.77054342 0.76484250 0.00041777 0.00000000
1.59216779 0.65322779 -0.00376514 0.00000000
1.86666091 1.47463293 -0.00322193 0.00000000
1.12731743 0.54502500 -0.00159779 0.00000000
1.23910567 1.54882523 0.00345781 0.00000000
3.85944395 0.11748805 -0.00497824 0.00000000
4.20468260 1.57444973 0.00097864 0.00000000
1.30056697 1.77887071 -0.00311917 0.00000000
3.86965651 0.02795259 -0.00181372 0.00000000
2.16060806 1.63447072 0.00309875 0.00000000
3.74718057 1.64404728 0.00019680 0.00000000
1.74174593 1.96013324 0.00015688 0.00000000
0.31505478 1.20465648 0.00471337 0.00000000
2.50089255 1.13045534 -0.00385491 0.00000000
4.03617982 2.16946113 0.00264643 0.00000000
1.18533764 1.50451360 -0.00266220 0.00000000
1.72160036 1.26419983 0.00369769 0.00000000
1.30976689 0.00720335 -0.00089262 0.00000000
2.67847005 0.84299863 0.00030515 0.00000000
4.12119309 1.06639623 0.00324456 0.00000000
1.00370551 0.44610508 0.00218800 0.00000000
0.04833704 1.48191104 -0.00116290 0.00000000
1.89279651 0.77160751 -0.00018930 0.00000000
0.92799632 0.16753547 0.00137583 0.00000000
0.71053667 0.79344207 0.00119025 0.00000000
3.52881571 1.25774113 0.00147823 0.00000000
3.04936277 0.76208032 0.00027817 0.00000000
2.85119964 1.45842797 0.00038387 0.00000000
0.14160873 1.47734400 -0.00282409 0.00000000
0.42671428 0.66060133 -0.00608319 0.00000000
0.54549170 0.25534212 0.00110250 0.00000000
0.80658769 1.98727089 -0.00108701 0.00000000
3.67027218 1.02352305 -0.00309277 0.00000000
4.62401685 0.51603468 -0.00278116 0.00000000
0.57598570 0.51306896 0.00186653 0.00000000
1.70771031 1.34683886 -0.00044323 0.00000000
0.09796467 1.54856924 -0.00009389 0.00000000
4.13207775 1.76469835 0.00152819 0.00000000
4.73714186 0.38540215 0.00044019 0.00000000
0.88095530 1.83371345 -0.00099420 0.00000000
0.34227334 1.40132195 0.00021915 0.00000000
2.83274059 0.06408737 0.00113343 0.00000000
3.24288659 1.86830961 -0.00340614 0.00000000
4.21769201 0.84843498 -0.00107188 0.00000000
2.98044666 0.56153661 -0.00362761 0.00000000
2.81920092 1.64576011 -0.00114420 0.00000000
4.74051167 1.93354496 0.00093115 0.00000000
4.21335932 1.59658322 0.00083515 0.00000000
3.64475717 0.99147779 0.00059964 0.00000000
3.07601004 0.15480184 -0.00167080 0.00000000
3.24495040 0.59028594 0.00281509 0.00000000
3.88581761 0.64390197 -0.00034684 0.00000000
3.90840021 0.73715623 0.00243879 0.00000000
1.41898655 0.84088109 -0.00186239 0.00000000
1.54584641 2.01236886 0.00478415 0.00000000
0.18737436 0.01964709 0.00341114 0.00000000
3.33109135 1.13741569 0.00406778 0.00000000
1.29446976 1.55544249 -0.00057127 0.00000000
3.22462442 1.91869450 0.00065905 0.00000000
0.71513012 2.15041085 0.00077036 0.00000000
4.29574852 0.25571789 0.00411955 0.00000000
0.00500728 1.32937717 0.00120433 0.00000000
1.63964408 1.66346691 0.00650215 0.00000000
2.97164032 0.40482226 -0.00381980 0.00000000
0.25187940 1.39855896 -0.00188341 0.00000000
2.53891823 0.07519144 -0.00195373 0.00000000
4.18585156 1.40213096 0.00434930 0.00000000
1.75769434 0.38758742 -0.00009814 0.00000000
3.16884331 1.59938676 -0.00118807 0.00000000
3.45423322 1.25255650 0.00220918 0.00000000
4.23466988 1.33125878 -0.00035925 0.00000000
4.35783837 0.10956866 0.00100743 0.00000000
2.57725626 0.92530149 -0.00113422 0.00000000
0.24038747 1.84280922 0.00290929 0.00000000
0.61339132 0.81803421 0.00623783 0.00000000
3.07662452 1.81254326 -0.00042069 0.00000000
4.71591472 1.65083279 0.00256587 0.00000000
0.39723581 1.22256986 -0.00260479 0.00000000
3.52794160 1.25265631 -0.00064161 0.00000000
3.55487291 1.03683328 -0.00137263 0.00000000
0.47275611 1.38060748 -0.00170527 0.00000000
1.77772504 1.08728740 0.00103934 0.00000000
1.96491100 0.34547235 0.00195186 0.00000000
1.99302983 1.65359255 -0.00205674 0.00000000
3.54856163 1.63519195 -0.00019814 0.00000000
4.17146191 0.08578656 -0.00242305 0.00000000
3.33582327 1.04713196 -0.00468076 0.00000000
2.24674535 2.09355499 -0.00042718 0.00000000
2.37225945 1.98323863 0.00304923 0.00000000
2.45023719 0.20161951 0.00668967 0.00000000
2.69651222 0.47945832 -0.00078903 0.00000000
4.43874168 1.24767563 0.00245912 0.00000000
4.14383412 1.87552007 0.00168004 0.00000000
2.58316855 0.10025145 0.00289081 0.00000000
2.19784482 0.15651239 -0.00230486 0.00000000
1.40899488 1.72213566 0.00336302 0.00000000
3.75982714 1.07696375 -0.00613639 0.00000000
4.18682356 0.41046136 0.00004533 0.00000000
0.54041966 0.22429790 0.00262990 0.00000000
2.33810605 1.64780676 0.00233837 0.00000000
4.62689740 0.31798362 0.00504985 0.00000000
3.31654675 0.38120078 -0.00074284 0.00000000
1.06478611 2.15138701 -0.00415326 0.00000000
1.57355565 1.55714672 0.00150337 0.00000000
2.50199143 2.07428754 -0.00252499 0.00000000
2.93734567 0.27660847 0.00224040 0.00000000
2.26368700 0.99051246 -0.00677426 0.00000000
3.55416963 0.34922060 0.00266229 0.00000000
1.44494796 1.72473998 0.00563731 0.00000000
2.46224491 0.57031389 -0.00145466 0.00000000
2.21169830 1.82425380 0.00521999 0.00000000
0.83243053 0.19988236 0.00295582 0.00000000
3.56563789 2.06730513 0.00320587 0.00000000
4.00651218 1.27218864 0.00215906 0.00000000
4.31383827 2.02284861 -0.00162115 0.00000000
3.63413652 0.28677164 -0.00002601 0.00000000
1.21680119 0.02592407 0.00002129 0.00000000
0.44488060 0.74130429 -0.00538808 0.00000000
2.71850568 1.82406579 -0.00054303 0.00000000
1.79102344 0.00423943 -0.00140139 0.00000000
3.87261710 2.03233896 0.00039464 0.00000000
4.67901532 1.00469273 -0.00459319 0.00000000
2.25585147 0.88877821 0.00186792 0.00000000
0.28826640 1.61214902 0.00134265 0.00000000
4.52259572 1.42027359 -0.00038379 0.00000000
1.18571328 0.13016974 -0.00242541 0.00000000
3.85436491 1.47369734 -0.00248982 0.00000000
2.08559464 1.48700780 -0.00085586 0.00000000
3.82065463 0.80313647 -0.00692493 0.00000000
0.85684854 0.98898346 0.00388674 0.00000000
0.36543752 1.22096096 0.00141957 0.00000000
1.67749692 1.93412467 -0.00106974 0.00000000
3.20302320 1.74903675 0.00304575 0.00000000
0.27186755 1.91953000 0.00169885 0.00000000
1.79182157 0.39356887 -0.00093769 0.00000000
2.95052561 1.38559440 0.00379502 0.00000000
4.55754680 2.00256216 -0.00002958 0.00000000
0.31128525 1.79959159 -0.00154951 0.00000000
4.35981402 0.58758953 -0.00041757 0.00000000
1.11224989 0.34629699 0.00100015 0.00000000
4.74357896 0.66152000 0.00096112 0.00000000
0.73091444 1.73323971 -0.00383542 0.00000000
1.78577996 1.00187351 0.00375222 0.00000000
0.18394260 1.93891868 -0.00016436 0.00000000
3.55209724 0.79785024 0.00121691 0.00000000
2.61669655 1.08027281 0.00035247 0.00000000
0.94619139 2.19851365 -0.00054740 0.00000000
2.35420954 0.78966104 -0.00087342 0.00000000
4.48871834 1.55594133 0.00385544 0.00000000
1.54867911 1.47460200 -0.00117342 0.00000000
0.32444392 1.37392782 -0.00102227 0.00000000
3.98557119 0.77778109 0.00168806 0.00000000
1.73640832 0.69434436 0.00083204 0.00000000
1.85458967 0.61649438 -0.00461847 0.00000000
3.24559915 1.46638951 0.00228456 0.00000000
2.11107253 0.72146680 -0.00229653 0.00000000
1.02500788 0.76790618 0.00221589 0.00000000
0.72191573 0.15525388 -0.00150240 0.00000000
0.61991377 1.81114055 0.00122114 0.00000000
0.06998625 1.59899403 -0.00084031 0.00000000
2.07238820 1.80280940 -0.00203304 0.00000000
2.31826922 0.02133540 0.00179669 0.00000000
4.54478053 1.86704077 -0.00098947 0.00000000
2.37129089 0.60423388 -0.00175598 0.00000000
4.05068576 1.51618911 -0.00073624 0.00000000
0.99304807 1.72622257 -0.00394294 0.00000000
2.96471492 1.98478998 -0.00298668 0.00000000
0.51406086 0.51391261 0.00300901 0.00000000
3.86879529 1.30807596 0.00026650 0.00000000
3.48002586 0.92215852 -0.00072374 0.00000000
3.73697372 1.72637231 0.00110079 0.00000000
0.55166700 2.15201923 -0.00479107 0.00000000
3.08294410 1.54793181 0.00252119 0.00000000
2.87933828 1.04433925 0.00438991 0.00000000
0.03697660 0.85064408 0.00056563 0.00000000
2.06617123 0.59713450 0.00513865 0.00000000
3.57304738 0.28356053 -0.00199567 0.00000000
1.73384089 0.09650065 0.00446142 0.00000000
0.34907928 1.78006356 -0.00064095 0.00000000
3.42309930 0.27277826 0.00176311 0.00000000
1.34136782 1.18935188 0.00096659 0.00000000
1.74851627 2.11033152 0.00371373 0.00000000
0.66396150 1.78973527 -0.00487685 0.00000000
2.89966545 1.84942307 0.00457751 0.00000000
4.27955522 0.78848584 0.00364275 0.00000000
0.41933134 0.86979270 0.00234658 0.00000000
4.34821930 0.90144621 0.00209706 0.00000000
1.32677752 1.08182592 -0.00047563 0.00000000
3.19443669 1.21424139 -0.00531213 0.00000000
3.31666786 2.09529739 0.00070255 0.00000000
4.11131055 1.16920077 0.00119028 0.00000000
0.67961029 0.70528986 -0.00440462 0.00000000
1.66034390 1.86766913 -0.00009087 0.00000000
1.48231702 0.07115809 -0.00092636 0.00000000
0.94381700 1.81971379 0.00152389 0.00000000
1.17789760 1.52861014 -0.00055532 0.00000000
3.17407875 1.05801374 -0.00520096 0.00000000
2.70601036 0.79697793 -0.00155126 0.00000000
4.64491559 0.44332471 -0.00180685 0.00000000
3.88226902 0.80671149 -0.00320386 0.00000000
2.23545294 0.97542749 -0.00296701 0.00000000
0.79732367 1.66290187 0.00159477 0.00000000
0.92765993 1.66765676 0.00252382 0.00000000
1.66254061 0.69567584 -0.00068441 0.00000000
4.49273642 0.68532535 -0.00018876 0.00000000
3.23375291 1.49820459 -0.00196813 0.00000000
3.48426783 1.16517454 0.00088497 0.00000000
3.39059711 0.19612435 -0.00520060 0.00000000
3.70553111 1.10661642 -0.00474006 0.00000000
3.56995705 1.96491020 -0.00234288 0.00000000
0.70287600 1.91352250 0.00206963 0.00000000
3.66772439 0.04981887 0.00112993 0.00000000
3.74780768 0.65314529 0.00055146 0.00000000
0.28984504 1.02748039 -0.00203506 0.00000000
1.46459676 2.19522614 0.00403220 0.00000000
4.67041336 1.43147819 -0.00040765 0.00000000
1.29434437 0.45840649 -0.00155805 0.00000000
0.80714861 0.61171464 0.00106275 0.00000000
0.07908198 1.22354350 0.00037778 0.00000000
4.62314001 0.98280381 -0.00082000 0.00000000
2.43290518 0.18927677 -0.00023954 0.00000000
0.19814125 1.74960117 0.00154623 0.00000000
0.82387518 0.99788098 0.00137076 0.00000000
2.94127909 1.60247804 0.00003956 0.00000000
4.42896790 0.11462522 -0.00433626 0.00000000
3.19442219 1.87861828 0.00289272 0.00000000
1.94576562 0.46111156 -0.00029180 0.00000000
2.92657167 1.81192530 -0.00216442 0.00000000
2.95026019 1.16970650 0.00335987 0.00000000
4.26170494 1.31538855 -0.00132738 0.00000000
0.22689820 1.39821346 0.00135579 0.00000000
2.83015900 2.08879990 -0.00177979 0.00000000
3.93188977 2.11865377 -0.00058922 0.00000000
1.02974127 1.24504102 0.00099815 0.00000000
3.65022811 1.73490737 0.00000195 0.00000000
3.14588593 0.51128203 0.00138467 0.00000000
3.50568900 0.59369941 -0.00555073 0.00000000
3.43858073 2.02358183 -0.00062734 0.00000000
0.08422232 0.98188199 0.00096707 0.00000000
1.83593162 0.48490264 0.00065168 0.00000000
0.40874589 0.44048897 -0.00069845 0.00000000
0.97227687 1.82435905 0.00182480 0.00000000
1.90515226 1.43723617 0.00006099 0.00000000
1.64659839 1.67736715 -0.00208422 0.00000000
0.92851588 1.34654494 -0.00556073 0.00000000
1.12118393 1.23955303 0.00078442 0.00000000
3.75470283 1.70935236 0.00211315 0.00000000
0.56518504 1.06166191 -0.00107238 0.00000000
4.19756034 0.35895841 0.00118602 0.00000000
4.57175963 0.00173340 -0.00064151 0.00000000
0.54426602 0.21239037 0.00517257 0.00000000
2.75614578 2.05915941 0.00166989 0.00000000
3.46290331 2.06157891 -0.00400238 0.00000000
1.52498323 1.89148295 0.00235494 0.00000000
0.33760127 1.94692026 0.00049592 0.00000000
4.14594216 0.05612082 0.00005770 0.00000000
3.83012689 1.07051371 0.00145267 0.00000000
3.52701015 0.20134907 -0.00092849 0.00000000
3.61057642 0.00962925 -0.00200001 0.00000000
4.53198534 1.55595189 0.00411441 0.00000000
3.85614398 1.06027719 -0.00268672 0.00000000
0.15676607 1.78414664 0.00005604 0.00000000
3.71537166 0.38939275 0.00206967 0.00000000
2.94031147 0.29354316 -0.00341926 0.00000000
3.32256259 1.42526941 -0.00323388 0.00000000
4.34841379 1.38923378 0.00179858 0.00000000
0.45657963 0.97233078 -0.00097821 0.00000000
1.23165782 0.52369305 0.00147147 0.00000000
0.29245719 0.24715400 -0.00081709 0.00000000
4.54049692 1.43117814 -0.00302051 0.00000000
0.28052254 0.57013009 0.00190767 0.00000000
1.08428320 1.95933532 -0.00092872 0.00000000
2.73299466 0.23651102 0.00212850 0.00000000
1.63912635 1.41994438 -0.00473584 0.00000000
2.68128170 0.03658914 -0.00200488 0.00000000
2.30944716 0.35833920 -0.00246925 0.00000000
3.42735896 2.16422122 0.00332819 0.00000000
0.43122703 0.91417111 0.00132823 0.00000000
2.46928928 0.49811511 -0.00080571 0.00000000
3.11259719 1.38519852 -0.00019040 0.00000000
4.27737610 0.44041075 0.00229667 0.00000000
2.72259658 0.03779722 0.00152557 0.00000000
2.99160514 1.65480733 -0.00136710 0.00000000
4.44264894 0.00691021 0.00253777 0.00000000
1.00214425 1.85391540 -0.00250589 0.00000000
1.96420167 0.93479176 0.00088831 0.00000000
2.06695975 0.88875008 -0.00141218 0.00000000
1.97551388 0.54349976 -0.00148497 0.00000000
4.37504875 0.68217165 0.00096360 0.00000000
0.78839326 1.18277284 -0.00011615 0.00000000
3.65032700 0.27354915 -0.00213439 0.00000000
3.75428774 1.92789739 0.00000262 0.00000000
0.47970540 0.22378161 0.00422839 0.00000000
3.87859329 1.77588739 -0.00175618 0.00000000
3.65068174 0.87015332 -0.00629163 0.00000000
0.83530731 0.14217136 -0.00488771 0.00000000
1.13803616 1.61441588 -0.00081655 0.00000000
3.40452662 1.02334757 -0.00122820 0.00000000
0.36105035 1.48337621 0.00186733 0.00000000
2.85756675 1.20539617 -0.00250193 0.00000000
3.49124214 1.76360278 -0.00260043 0.00000000
4.45319773 1.59562464 -0.00206454 0.00000000
1.06528701 1.16122825 0.00016687 0.00000000
1.28091380 0.22859225 -0.00092196 0.00000000
1.33313723 1.17471508 0.00156305 0.00000000
4.43316783 0.68125923 0.00110586 0.00000000
0.75487992 0.37077160 -0.00077291 0.00000000
2.05002027 1.81566655 -0.00269042 0.00000000
1.43072852 2.07262180 0.00285224 0.00000000
2.68366533 1.09996085 -0.00182947 0.00000000
0.63252154 0.57907415 -0.00530648 0.00000000
0.90466145 2.14612886 -0.00192228 0.00000000
1.63338082 1.93220299 -0.00203173 0.00000000
0.61079069 0.21207977 0.00157893 0.00000000
2.54249708 1.90339175 -0.00138677 0.00000000
4.13484042 1.70074402 -0.00193292 0.00000000
1.91736017 1.65778201 -0.00053994 0.00000000
4.20127832 1.52314860 0.00577442 0.00000000
2.85594228 0.94350283 0.00077189 0.00000000
0.29107485 0.65224761 0.00083706 0.00000000
1.87360881 2.07302330 -0.00201517 0.00000000
4.65856454 0.09710228 0.00052932 0.00000000
2.90629860 0.22505777 -0.00072705 0.00000000
2.14935456 0.47409815 0.00260835 0.00000000
2.27061984 0.09657599 -0.00245951 0.00000000
3.62338529 1.30654281 0.00419483 0.00000000
0.03282574 0.77742992 -0.00157733 0.00000000
0.84907244 0.47938925 0.00005774 0.00000000
2.58318999 0.99119377 0.00321101 0.00000000
4.71684069 0.68176599 -0.00022414 0.00000000
0.63709345 0.89867618 0.00042095 0.00000000
4.31013620 1.50172580 0.00252403 0.00000000
1.71903165 0.15760762 0.00010852 0.00000000
0.85992525 1.25526315 -0.00085091 0.00000000
4.23868994 2.09517210 -0.00211568 0.00000000
4.42710482 0.34700343 0.00493847 0.00000000
2.20127918 0.71213612 0.00142343 0.00000000
3.64048244 1.62351756 -0.00478821 0.00000000
0.84862324 0.10960992 -0.00285672 0.00000000
3.24402165 0.76711259 0.00239802 0.00000000
3.77003561 0.95581020 -0.00303731 0.00000000
4.50172253 0.92949796 0.00085048 0.00000000
4.45967162 2.06009725 -0.00062605 0.00000000
0.90653466 1.71163545 0.00258465 0.00000000
4.69374072 1.74122579 -0.00552591 0.00000000
0.47578166 1.51123513 -0.00015699 0.00000000
2.99246798 1.11443984 0.00204941 0.00000000
4.60189468 0.74679200 0.00002334 0.00000000
2.28029501 0.68349081 0.00149729 0.00000000
3.93123758 0.06568344 0.00249716 0.00000000
1.85820309 1.19525700 -0.00065953 0.00000000
3.94935136 0.05361645 -0.00344521 0.00000000
3.65475278 0.54732576 -0.00432021 0.00000000
2.65652329 0.18843495 0.00172997 0.00000000
1.27794861 0.16262158 0.00113859 0.00000000
0.18994815 1.32868651 0.00000023 0.00000000
3.59302830 0.05659223 0.00020253 0.00000000
1.92975341 0.86366998 -0.00001895 0.00000000
2.17042492 1.02498800 0.00266732 0.00000000
3.64264586 2.05616011 0.00056162 0.00000000
4.50259062 1.74600204 -0.00254170 0.00000000
0.97420449 0.38793944 0.00306077 0.00000000
1.29712662 0.91497074 0.00224149 0.00000000
1.48076050 2.04316900 0.00341807 0.00000000
3.68431826 1.22595109 0.00007356 0.00000000
3.80055475 1.37402775 0.00646759 0.00000000
2.99052261 0.49356078 0.00001049 0.00000000
4.65635471 2.03961885 0.00194927 0.00000000
2.86945926 1.24401008 -0.00758545 0.00000000
0.10374218 0.50971197 0.00040360 0.00000000
4.34854172 1.82460696 -0.00135555 0.00000000
3.48160834 2.04082295 0.00154754 0.00000000
4.47430532 0.92024047 -0.00074402 0.00000000
2.84427145 0.99977138 -0.00075871 0.00000000
1.77170166 1.60986253 0.00176376 0.00000000
4.38699248 1.54036868 0.00111277 0.00000000
3.32368055 1.25814567 -0.00356145 0.00000000
3.99039644 0.79473616 -0.00250511 0.00000000
1.46520636 0.13066277 -0.00112281 0.00000000
0.08140384 1.44816888 -0.00316309 0.00000000
4.25259425 1.81388194 -0.00150758 0.00000000
1.19867880 0.69055969 -0.00029774 0.00000000
0.46441415 0.49677970 -0.00253633 0.00000000
2.71093078 0.69928472 0.00139837 0.00000000
3.78665935 0.44760074 -0.00196844 0.00000000
4.10121691 1.43227536 0.00071332 0.00000000
1.11363822 2.15894531 0.00185602 0.00000000
3.19620534 0.20566653 -0.00211359 0.00000000
3.30479502 1.38898113 -0.00073158 0.00000000
4.54666576 2.02982301 -0.00156766 0.00000000
3.39795437 1.20559254 0.00289462 0.00000000
2.67756389 1.00568709 0.00030215 0.00000000
1.49977122 0.21097034 -0.00322522 0.00000000
3.14822169 1.16655517 0.00233469 0.00000000
4.55094522 1.37166748 -0.00117036 0.00000000
1.15854103 1.73633402 -0.00315620 0.00000000
3.58280905 1.73748696 0.00306585 0.00000000
1.73685192 2.15303955 -0.00212851 0.00000000
2.72276624 0.91909913 -0.00386684 0.00000000
3.04095188 1.05393052 -0.00033473 0.00000000
3.21754096 0.82403211 -0.00112464 0.00000000
3.08296313 1.53548472 -0.00480019 0.00000000
3.91749850 2.06149971 0.00480836 0.00000000
3.21081572 1.65416610 -0.00619563 0.00000000
4.50914988 1.73275845 0.00230788 0.00000000
4.22823312 0.93685151 0.00284053 0.00000000
0.46783382 0.77429182 0.00237962 0.00000000
1.37869867 2.02641690 -0.00115567 0.00000000
2.45741608 2.07406219 0.00171980 0.00000000
1.88189943 1.11106301 0.00009505 0.00000000
3.08369501 1.29322712 0.00185292 0.00000000
3.32774772 0.96701510 -0.00132913 0.00000000
0.84365633 0.44502799 0.00293767 0.00000000
3.91615405 0.72098777 -0.00041486 0.00000000
1.37337741 1.00852967 -0.00099236 0.00000000
4.75978228 0.39298684 -0.00094398 0.00000000
1.53938519 0.28105269 -0.00163581 0.00000000
1.35619937 1.10493717 -0.00245228 0.00000000
4.36117166 1.67810395 0.00004236 0.00000000
3.76532285 1.93885636 0.00429478 0.00000000
2.25380752 0.13897014 0.00094677 0.00000000
4.49577781 1.53811520 0.00048607 0.00000000
3.22801884 2.17839032 -0.00070044 0.00000000
2.27867528 0.30199852 -0.00093676 0.00000000
1.59200910 0.95454963 -0.00017639 0.00000000
2.11315901 0.98769046 0.00261624 0.00000000
0.02385005 2.02958366 0.00023327 0.00000000
1.63258776 1.95700641 0.00142052 0.00000000
1.67026214 0.83375188 0.00129078 0.00000000
2.71511644 0.01449965 -0.00142673 0.00000000
0.69870284 0.66606362 -0.00089522 0.00000000
1.28219526 0.38849706 -0.00087234 0.00000000
2.53347705 0.84647797 -0.00124356 0.00000000
0.09714962 1.75606341 0.00249775 0.00000000
3.44683095 0.28568102 -0.00496813 0.00000000
3.25457015 1.63933097 -0.00410293 0.00000000
2.82975570 1.16910203 -0.00272980 0.00000000
1.25497325 2.19696207 -0.00143391 0.00000000
2.67712752 0.70004113 0.00379806 0.00000000
1.93323253 1.98615030 -0.00338589 0.00000000
1.52083957 0.79680401 0.00090830 0.00000000
0.30373139 0.28888051 0.00166291 0.00000000
1.55962264 0.41396362 -0.00105250 0.00000000
3.86221214 1.28238583 -0.00008910 0.00000000
1.94330261 0.23119231 -0.00113410 0.00000000
2.02381904 1.87825606 0.00278984 0.00000000
1.23636031 1.22445041 -0.00071299 0.00000000
2.22368379 0.85029831 -0.00010640 0.00000000
3.76348179 2.06354349 0.00095646 0.00000000
4.32399171 0.09755393 -0.00110675 0.00000000
2.91525872 0.40499692 0.00152101 0.00000000
1.73091018 2.17795288 0.00162584 0.00000000
4.03857608 1.09049050 0.00201410 0.00000000
1.76470147 2.10592908 0.00136824 0.00000000
0.37199690 2.15900117 0.00018004 0.00000000
2.01652202 1.98272507 0.00253873 0.00000000
4.75493183 0.46469103 0.00105777 0.00000000
0.50485691 0.24289438 -0.00254271 0.00000000
1.50820418 1.11379321 0.00092048 0.00000000
4.03308236 0.34468745 0.00304689 0.00000000
1.83339798 0.08593619 0.00147599 0.00000000
1.26574449 0.36512117 -0.00135542 0.00000000
3.89491083 0.20788847 0.00216428 0.00000000
2.06668557 0.57563282 -0.00125571 0.00000000
2.92091158 0.64494371 0.00175407 0.00000000
4.26994651 0.73408188 -0.00296870 0.00000000
1.70115119 1.48460913 0.00109216 0.00000000
2.05567054 0.95329000 0.00107290 0.00000000
3.89153835 1.62118583 0.00217907 0.00000000
4.13285335 1.93999725 -0.00253388 0.00000000
0.06077647 2.16255392 -0.00280032 0.00000000
2.18223119 1.52648255 -0.00246619 0.00000000
1.94951753 0.40355642 0.00226555 0.00000000
0.40442668 1.76951141 -0.00281790 0.00000000
2.45454869 1.87711777 0.00090047 0.00000000
2.47377121 1.17331960 -0.00025166 0.00000000
3.53114128 0.43938842 -0.00311933 0.00000000
3.62732542 0.87074170 0.00260283 0.00000000
0.21887935 1.03165563 -0.00192267 0.00000000
4.33041345 0.98742010 0.00049401 0.00000000
2.39070639 1.06918208 -0.00179822 0.00000000
3.83738316 1.41829465 -0.00026924 0.00000000
1.30047181 1.92575111 -0.00195050 0.00000000
1.95610199 0.20165410 0.00112249 0.00000000
4.14789816 1.44088392 -0.00122383 0.00000000
3.71924321 0.03942200 -0.00107704 0.00000000
3.44928177 0.91495832 0.00401821 0.00000000
2.72253770 0.24939658 -0.00234061 0.00000000
4.75724010 1.75713806 0.00151952 0.00000000
0.63811173 2.19593361 -0.00156295 0.00000000
1.89736799 0.70706898 0.00381583 0.00000000
0.32994246 1.26761279 -0.00082704 0.00000000
2.48873746 1.15576828 -0.00190593 0.00000000
3.55935379 1.04334720 -0.00075237 0.00000000
2.52680069 1.71980138 0.00197902 0.00000000
4.64609054 0.81924544 0.00401274 0.00000000
0.80499412 1.62829156 0.00048939 0.00000000
2.70511040 2.15193133 0.00555758 0.00000000
3.83120558 0.39417397 -0.00480475 0.00000000
2.25785856 0.96605506 0.00177677 0.00000000
4.27204591 0.60089342 -0.00258234 0.00000000
2.12913911 0.47670929 0.00192637 0.00000000
1.88106801 1.45859798 0.00206069 0.00000000
3.50649607 1.12090777 0.00217602 0.00000000
0.80418558 2.03383883 0.00271966 0.00000000
2.26794000 2.05065885 -0.00425316 0.00000000
2.06413561 0.54769728 0.00315309 0.00000000
3.18144494 0.13848079 0.00244671 0.00000000
4.33893114 1.40628415 0.00005876 0.00000000
1.66751652 0.84481822 0.00111631 0.00000000
2.95027265 1.06626528 0.00337092 0.00000000
0.38569694 1.10618670 -0.00088569 0.00000000
2.35334763 0.18368960 -0.00349416 0.00000000
1.13569135 0.20872073 -0.00282521 0.00000000
2.78668094 1.84727557 0.00080424 0.00000000
3.75360698 2.06385669 -0.00111329 0.00000000
2.31966823 0.41311137 -0.00432506 0.00000000
0.93034275 1.43127238 0.00024937 0.00000000
4.40211281 1.99272404 0.00098622 0.00000000
3.06236117 0.61054432 -0.00147848 0.00000000
4.27131383 0.08967863 -0.00221728 0.00000000
3.37447205 1.65934375 0.00400365 0.00000000
3.15203291 0.44673931 -0.00190780 0.00000000
0.40673786 0.34679127 -0.00515745 0.00000000
1.15057174 1.91800282 -0.00309079 0.00000000
1.56267520 1.06369325 -0.00321103 0.00000000
2.69522237 0.18554919 0.00332124 0.00000000
3.75881237 2.04131251 -0.00149562 0.00000000
4.42655496 1.73343501 0.00241453 0.00000000
4.73630471 0.16398400 0.00076263 0.00000000
0.94429278 0.39348890 -0.00260604 0.00000000
3.25515255 0.81567113 -0.00043887 0.00000000
0.19361049 0.34046055 -0.00080340 0.00000000
1.08641814 0.96763009 -0.00121353 0.00000000
0.56823258 1.85474625 0.00118876 0.00000000
4.72781116 1.52643514 -0.00217265 0.00000000
3.87453766 0.13542134 -0.00061836 0.00000000
1.75505197 1.43914889 0.00120964 0.00000000
