2.80986968 0.70878392 0.00055679 0.00000000
3.27324334 0.67395767 0.00452699 0.00000000
0.49090015 1.32288798 0.00115036 0.00000000
4.34952072 0.58924868 0.00195151 0.00000000
4.17919403 1.73571455 -0.00351702 0.00000000
3.49385470 1.55908650 0.00048380 0.00000000
3.87406959 1.50641640 0.00127110 0.00000000
3.97525723 0.19396865 -0.00181475 0.00000000
3.37021990 0.42175027 -0.00052012 0.00000000
1.32342633 1.00806493 0.00051941 0.00000000
0.22988819 1.64220390 -0.00615046 0.00000000
3.16690910 0.51633518 -0.00240379 0.00000000
2.23920024 1.66399731 -0.00256701 0.00000000
3.31255003 0.54518481 -0.00303575 0.00000000
1.97077892 0.02423795 0.00278529 0.00000000
3.45609496 0.18968292 0.00245985 0.00000000
0.51310260 0.79895149 -0.00569403 0.00000000
1.70107735 1.64392900 0.00150696 0.00000000
2.17307127 1.63399818 -0.00140892 0.00000000
4.62148697 0.35245328 0.00649191 0.00000000
2.98417523 0.82238085 0.00161903 0.00000000
0.32212885 1.13310724 -0.00064767 0.00000000
2.18691367 1.43303764 0.00503929 0.00000000
4.91318927 1.38619040 -0.00134541 0.00000000
4.09591059 0.72847724 -0.00313953 0.00000000
0.05070467 0.80156394 -0.00609413 0.00000000
0.92844938 1.15440119 0.00162106 0.00000000
3.93972832 0.21802699 0.00280958 0.00000000
3.43740629 0.95811185 0.00048579 0.00000000
0.95915139 1.76709076 -0.00144634 0.00000000
2.52006650 0.28048614 0.00163549 0.00000000
1.44025530 0.28102081 0.00415514 0.00000000
0.63199530 1.22732350 -0.00094750 0.00000000
3.48843263 1.11462691 0.00241416 0.00000000
4.60997951 1.76950636 -0.00126428 0.00000000
0.31731862 0.34111000 0.00041071 0.00000000
2.27574162 0.16504563 0.00151356 0.00000000
4.74712905 0.28884750 0.00073763 0.00000000
3.66219424 0.77462845 0.00043459 0.00000000
1.96271493 0.01859196 0.00225313 0.00000000
4.56950442 1.79002003 -0.00244215 0.00000000
1.74530198 0.49370410 -0.00077053 0.00000000
2.23118071 0.13040963 0.00069233 0.00000000
3.34120031 1.64655915 0.00508245 0.00000000
3.68013467 0.80007624 0.00204861 0.00000000
2.06325758 1.30119188 0.00366137 0.00000000
2.36979324 0.20786069 0.00117978 0.00000000
3.04583082 1.66392846 0.00247326 0.00000000
4.13100905 0.65615652 -0.00120007 0.00000000
0.92438292 1.72314623 0.00078019 0.00000000
4.97979966 1.56835239 -0.00111398 0.00000000
1.96799652 0.12200361 0.00264145 0.00000000
2.93732315 0.80709950 0.00021144 0.00000000
2.81573430 0.88895870 -0.00085470 0.00000000
4.76227023 1.69482303 0.00005997 0.00000000
3.88548788 0.64305304 0.00585013 0.00000000
0.90953618 1.45542470 -0.00058329 0.00000000
1.34914693 0.31022730 0.00135161 0.00000000
3.84115756 1.69847271 0.00216966 0.00000000
2.00669215 0.54294062 0.00043198 0.00000000
4.62036796 1.55133818 0.00588248 0.00000000
4.97038716 1.68394687 -0.00383406 0.00000000
2.17336402 0.73077372 -0.00099383 0.00000000
3.63663800 0.64819401 0.00037183 0.00000000
3.62795600 1.56512136 0.00314489 0.00000000
0.54107126 1.23632873 -0.00382412 0.00000000
3.93880698 0.50300660 0.00414915 0.00000000
2.96180773 0.87935868 0.00419303 0.00000000
0.00849914 1.55034688 -0.00367726 0.00000000
1.16325170 1.62009428 -0.00172619 0.00000000
1.88742857 0.08004776 0.00373172 0.00000000
0.12926348 0.84579172 -0.00243965 0.00000000
4.74769809 1.39062044 -0.00355264 0.00000000
0.18928201 0.78963133 0.00027531 0.00000000
0.58135854 0.42523278 -0.00337337 0.00000000
0.43398112 0.68988576 -0.00103105 0.00000000
3.58453755 0.52578775 0.00273112 0.00000000
4.31229883 0.69407188 -0.00024882 0.00000000
1.64998753 0.07583346 0.00470927 0.00000000
0.30145527 0.16232524 0.00237318 0.00000000
1.69912873 0.19707946 0.00224078 0.00000000
0.92145283 1.65883573 0.00155472 0.00000000
0.24654153 1.75874158 -0.00148822 0.00000000
4.06602716 0.34642246 -0.00069550 0.00000000
1.32716556 1.14665628 0.00213546 0.00000000
3.92696797 0.79875490 0.00106789 0.00000000
2.82889279 1.06111060 -0.00096572 0.00000000
2.75825591 1.63437745 0.00028690 0.00000000
3.74864262 1.20672571 0.00409044 0.00000000
1.59909377 0.47149180 -0.00243802 0.00000000
0.79939573 0.00095844 0.00072852 0.00000000
3.15536856 0.16654418 -0.00371455 0.00000000
1.15406496 0.05942662 0.00302508 0.00000000
4.28214051 0.65875972 -0.00081100 0.00000000
4.09517985 0.97101022 0.00377941 0.00000000
4.04095260 1.57497335 0.00438747 0.00000000
2.25438456 0.19958619 0.00041462 0.00000000
2.85734583 1.65103437 0.00339473 0.00000000
1.48224106 0.59976110 0.00397118 0.00000000
1.46861176 1.07317594 0.00117984 0.00000000
4.77844637 1.71342858 -0.00183314 0.00000000
3.23736915 1.07143258 -0.00007717 0.00000000
3.70030756 0.05583084 -0.00267420 0.00000000
0.47775411 0.78771190 0.00226817 0.00000000
0.43284824 1.28668603 -0.00372307 0.00000000
3.70911397 1.20657630 -0.00192279 0.00000000
0.96968333 0.12957538 -0.00553913 0.00000000
0.04973253 1.54058836 -0.00051956 0.00000000
4.58461661 0.82996774 -0.00051463 0.00000000
2.37647394 0.81870441 0.00012836 0.00000000
0.27897133 1.23193444 -0.00278163 0.00000000
0.30522097 1.33198289 0.00242808 0.00000000
2.97945866 1.10967551 0.00413181 0.00000000
4.77849150 0.59228493 0.00352202 0.00000000
1.86247909 0.05472005 -0.00242562 0.00000000
1.03731050 1.25236670 0.00169962 0.00000000
0.90862700 1.09570960 0.00749078 0.00000000
0.92454893 1.58036271 -0.00201772 0.00000000
2.13500040 1.69969899 0.00227279 0.00000000
2.49235787 1.48033900 -0.00174016 0.00000000
0.45897007 0.49337869 -0.00253960 0.00000000
1.92807872 1.41818633 0.00252267 0.00000000
2.84880592 1.15094056 0.00196995 0.00000000
3.20301997 0.49230614 -0.00123424 0.00000000
2.22617757 1.36073890 0.00061895 0.00000000
1.56786983 0.42074230 -0.00113850 0.00000000
2.40136712 0.19161444 0.00536726 0.00000000
0.06282692 1.19037924 -0.00152530 0.00000000
0.67864027 1.66046450 -0.00132632 0.00000000
1.31995406 0.68704511 0.00498832 0.00000000
0.93622193 0.68371244 0.00420339 0.00000000
1.70105758 0.59500147 -0.00079103 0.00000000
3.55078804 1.44683626 -0.00067826 0.00000000
0.19638029 0.20229526 -0.00356742 0.00000000
4.39100174 0.79454799 0.00150195 0.00000000
1.03484226 0.32356063 -0.00268305 0.00000000
4.34633882 0.88093077 0.00227571 0.00000000
0.83195416 0.76956286 -0.00157944 0.00000000
1.08576340 1.78908000 -0.00007084 0.00000000
3.01721929 1.24947121 0.00444526 0.00000000
4.50741401 0.97513053 0.00084968 0.00000000
3.08610262 1.72574723 0.00115099 0.00000000
2.43258918 0.63859533 0.00112649 0.00000000
3.62890175 0.58524515 -0.00044891 0.00000000
1.81581037 0.95769149 -0.00004027 0.00000000
3.22155268 1.66766480 -0.00189334 0.00000000
1.42213181 0.35367744 -0.00031125 0.00000000
3.86020473 1.69273204 -0.00001083 0.00000000
4.94190934 0.26396003 -0.00011346 0.00000000
2.97049599 1.54295983 -0.00397597 0.00000000
2.30897376 0.97865882 0.00170685 0.00000000
2.26445711 0.46528950 0.00065104 0.00000000
3.24196451 1.74501972 0.00032569 0.00000000
4.39985266 0.73126104 0.00117226 0.00000000
2.40470283 1.56994887 -0.00067780 0.00000000
4.09164664 1.16325920 -0.00205439 0.00000000
3.13933708 1.15214193 0.00118642 0.00000000
3.41288231 1.67461033 -0.00241665 0.00000000
2.70971161 1.52685136 0.00275611 0.00000000
0.97680956 1.19393187 0.00116439 0.00000000
3.15567044 1.71827418 -0.00063660 0.00000000
2.88366552 1.24045412 0.00250117 0.00000000
3.23500333 0.74987394 -0.00251384 0.00000000
0.87554890 0.40796846 0.00148840 0.00000000
3.11582288 1.73670823 -0.00074262 0.00000000
1.12453255 1.31750818 0.00172103 0.00000000
2.84352389 1.71185101 0.00221512 0.00000000
1.98587423 0.84025568 -0.00237942 0.00000000
4.86221352 1.25973398 0.00262971 0.00000000
0.52038730 0.65403191 0.00448381 0.00000000
2.36223616 0.88488838 0.00130100 0.00000000
4.94078318 1.04068918 -0.00376982 0.00000000
0.98965410 0.53773915 -0.00079512 0.00000000
3.88659481 0.43081533 -0.00009107 0.00000000
1.56855406 0.17357575 -0.00117924 0.00000000
3.57714131 1.28264714 0.00013718 0.00000000
3.47086440 0.90108950 0.00150620 0.00000000
1.07911144 1.61946123 0.00220136 0.00000000
2.16267911 0.28939312 -0.00128100 0.00000000
2.36802514 0.48987435 0.00007085 0.00000000
0.18810136 1.77817939 -0.00092723 0.00000000
3.65056409 1.02128762 0.00117675 0.00000000
2.63172855 0.48323212 0.00224061 0.00000000
2.51325401 1.26131047 -0.00144628 0.00000000
1.42371051 0.19387431 0.00331551 0.00000000
2.34019523 1.56062014 -0.00155643 0.00000000
3.48986962 0.29463268 0.00070371 0.00000000
4.89257153 1.21558433 -0.00201463 0.00000000
3.29768930 0.69365477 -0.00365720 0.00000000
4.55111506 1.75802181 -0.00129500 0.00000000
4.30141437 0.94178834 0.00131639 0.00000000
4.42001635 1.66700317 -0.00255499 0.00000000
1.66386244 1.76209356 0.00404769 0.00000000
3.20396662 0.94854793 0.00202630 0.00000000
4.87432841 0.51506784 -0.00295430 0.00000000
3.14037467 1.25458894 -0.00314162 0.00000000
4.69004032 0.51309682 0.00186638 0.00000000
2.07063881 0.96535894 0.00041574 0.00000000
1.09621922 1.60852323 -0.00253557 0.00000000
1.14870398 0.22591737 0.00209563 0.00000000
0.56281834 0.56639665 -0.00043383 0.00000000
3.67623697 1.54107780 -0.00129418 0.00000000
1.79564730 1.64913327 0.00151924 0.00000000
1.75301589 0.56343647 -0.00056919 0.00000000
1.54759727 0.73809809 0.00012375 0.00000000
4.92292919 0.25581136 -0.00065203 0.00000000
4.61887676 0.13267034 0.00140944 0.00000000
3.38523151 0.95817698 -0.00057596 0.00000000
2.24714222 0.36514864 0.00244285 0.00000000
2.88050160 0.53475153 0.00289140 0.00000000
0.50468514 0.87962013 -0.00058217 0.00000000
3.06721337 0.41100727 -0.00129223 0.00000000
4.19047249 0.14522608 -0.00263743 0.00000000
0.51009759 1.46811214 0.00323018 0.00000000
1.99843318 1.40602948 -0.00027628 0.00000000
3.39106877 0.10199171 -0.00047858 0.00000000
1.22124196 0.85752935 0.00393741 0.00000000
4.06799526 0.83842786 0.00124752 0.00000000
1.19006892 0.97662187 -0.00135795 0.00000000
3.51227912 1.07963974 -0.00074260 0.00000000
1.02300683 0.18063387 0.00159611 0.00000000
0.78970428 1.71922920 -0.00117918 0.00000000
4.48033844 0.11162617 0.00033145 0.00000000
1.24024045 1.38505045 -0.00159978 0.00000000
2.39486433 0.50314264 0.00016232 0.00000000
4.01746026 1.09269778 0.00421150 0.00000000
4.95620913 1.66060273 -0.00416922 0.00000000
3.99492419 0.96091607 -0.00190670 0.00000000
3.75524462 0.87874212 -0.00422318 0.00000000
2.57143257 0.55191565 -0.00074027 0.00000000
0.35360276 0.27645867 0.00051814 0.00000000
0.22567683 1.20094049 -0.00186652 0.00000000
3.14997852 0.10879832 -0.00107108 0.00000000
3.33075235 1.41224063 -0.00458092 0.00000000
3.07586324 0.93697789 -0.00015453 0.00000000
2.30598960 1.00963753 0.00003967 0.00000000
2.39997647 0.57414545 -0.00334889 0.00000000
1.55536640 0.02606310 0.00026667 0.00000000
2.25390933 0.84100260 0.00062183 0.00000000
4.40075400 0.63466678 -0.00151382 0.00000000
2.77363537 1.41086298 -0.00030457 0.00000000
1.86534086 1.47724394 -0.00248900 0.00000000
1.04069847 0.65047870 0.00158988 0.00000000
0.64062007 0.47764725 0.00197370 0.00000000
0.89569878 1.14122130 -0.00417904 0.00000000
3.96182441 1.38411687 0.00019819 0.00000000
3.07075236 0.75533963 -0.00424164 0.00000000
0.17798742 0.39751240 -0.00184920 0.00000000
3.11386445 1.53642435 0.00281288 0.00000000
4.69207238 1.00087556 -0.00507532 0.00000000
2.57675776 1.33505529 0.00101154 0.00000000
2.19629603 1.05358968 0.00199532 0.00000000
0.07119837 1.34969221 -0.00073782 0.00000000
1.64829303 1.40968555 0.00198744 0.00000000
0.90223717 0.31440278 -0.00509762 0.00000000
2.58049032 0.01694886 0.00414301 0.00000000
4.70186651 0.09236163 -0.00121558 0.00000000
1.44581133 0.30531836 -0.00334498 0.00000000
4.16474542 0.20827205 0.00276465 0.00000000
0.14617442 1.15620598 -0.00320012 0.00000000
0.51574600 0.26396270 0.00613552 0.00000000
4.19590682 1.65026690 0.00124298 0.00000000
4.77203406 0.23575877 0.00056381 0.00000000
1.95053071 0.97850082 0.00164239 0.00000000
4.58345284 1.42211388 -0.00123658 0.00000000
4.10836645 0.17251547 -0.00153689 0.00000000
4.93625150 1.33854485 0.00582377 0.00000000
2.78176081 1.10921518 -0.00043185 0.00000000
0.81704280 1.08483058 0.00396010 0.00000000
0.50954936 0.90793529 -0.00388695 0.00000000
3.94407257 0.05054270 -0.00305677 0.00000000
2.32491207 1.25387222 0.00145181 0.00000000
0.36252453 1.40691967 0.00114476 0.00000000
3.02958171 1.36797529 0.00066045 0.00000000
0.78343315 1.08759393 0.00245725 0.00000000
4.03118938 0.65924893 0.00026089 0.00000000
3.64660196 1.40035057 0.00123340 0.00000000
4.11133112 1.49421526 -0.00259033 0.00000000
1.87293000 0.62927848 0.00041598 0.00000000
2.60345639 0.14415833 0.00305946 0.00000000
4.40041853 0.69137710 -0.00006697 0.00000000
3.60889009 1.17533289 -0.00236576 0.00000000
1.49922122 0.65749779 0.00353504 0.00000000
4.83533363 0.36608298 0.00313273 0.00000000
3.67703940 1.18931608 0.00315531 0.00000000
2.57493906 0.79526172 0.00080046 0.00000000
3.94657999 0.03620529 -0.00208361 0.00000000
1.32923054 0.89130608 0.00154231 0.00000000
0.25003206 0.34357211 -0.00336409 0.00000000
4.55670351 1.19419961 0.00332510 0.00000000
4.00575402 0.02361117 -0.00102570 0.00000000
3.53552917 0.10234545 0.00185287 0.00000000
0.57054926 0.55484206 -0.00119797 0.00000000
1.73033765 0.85580982 -0.00025022 0.00000000
4.01849050 0.83285319 -0.00375225 0.00000000
0.16421510 0.36793991 -0.00219410 0.00000000
3.00330414 0.15812679 -0.00191176 0.00000000
2.92201847 0.36175217 -0.00312826 0.00000000
2.49264348 1.56839269 -0.00204495 0.00000000
0.37126961 0.85834147 -0.00123900 0.00000000
3.41899665 1.35445939 -0.00164434 0.00000000
4.89332747 1.54506797 0.00191548 0.00000000
1.80882176 1.31017988 -0.00065523 0.00000000
3.43430627 1.27627689 0.00065238 0.00000000
0.93623293 1.40073027 -0.00220264 0.00000000
3.24820445 0.37000574 0.00051778 0.00000000
0.79560931 0.60719572 0.00328131 0.00000000
2.50592314 0.85980591 0.00130570 0.00000000
1.46662575 0.57587723 0.00222698 0.00000000
0.94815063 0.67920749 0.00047748 0.00000000
0.45078558 0.14526659 0.00477176 0.00000000
3.56805216 0.35405009 -0.00290627 0.00000000
3.89593961 0.91175561 -0.00489974 0.00000000
0.64858160 0.51668650 0.00169020 0.00000000
4.05225454 1.43175484 -0.00076379 0.00000000
2.28260512 1.47505773 -0.00304070 0.00000000
4.61990021 0.65803768 -0.00015443 0.00000000
3.24031115 1.57926045 0.00349462 0.00000000
1.62388527 1.68753308 0.00085895 0.00000000
3.24993930 1.37919018 0.00271727 0.00000000
2.08534146 0.44198368 0.00168099 0.00000000
1.76804094 1.37768531 0.00245967 0.00000000
3.20208708 1.47500886 -0.00183657 0.00000000
1.23047219 0.85170729 -0.00111838 0.00000000
0.03507195 1.66173919 0.00116582 0.00000000
4.55201928 0.02926020 0.00301297 0.00000000
3.04950362 1.43094236 0.00098247 0.00000000
2.82329030 1.05024922 0.00084929 0.00000000
4.91967597 1.04388486 -0.00238484 0.00000000
3.56161081 0.47286239 -0.00028408 0.00000000
1.43022436 1.39969689 0.00117568 0.00000000
4.63762022 1.47333453 0.00471210 0.00000000
3.17856521 1.18161692 -0.00110510 0.00000000
3.40562352 0.15955333 0.00451793 0.00000000
3.83152039 0.94553211 -0.00405786 0.00000000
0.14258921 1.70828398 -0.00079115 0.00000000
2.01762483 0.31188125 -0.00124367 0.00000000
2.05640688 1.62272603 -0.00053332 0.00000000
1.02465494 0.29899235 -0.00145115 0.00000000
3.51237618 1.67117546 0.00140821 0.00000000
1.79530362 0.60701809 -0.00186867 0.00000000
4.52718343 0.60068951 -0.00344843 0.00000000
1.38218468 1.14431201 0.00089803 0.00000000
4.14459312 1.74936721 0.00300065 0.00000000
4.67457053 1.56078573 -0.00277329 0.00000000
4.07785297 1.53788422 -0.00432708 0.00000000
4.76186138 0.33951873 0.00370458 0.00000000
0.32356862 0.93455530 -0.00570352 0.00000000
4.69106362 1.19054853 -0.00286697 0.00000000
4.45718630 1.70450446 -0.00177988 0.00000000
2.36934911 0.40307824 -0.00331321 0.00000000
3.88790664 0.64475116 0.00004420 0.00000000
4.64607104 1.25852577 -0.00171128 0.00000000
4.23052544 0.87511512 -0.00064362 0.00000000
4.07173089 1.75035933 -0.00052712 0.00000000
2.47146918 0.96262543 -0.00385054 0.00000000
4.90689557 0.77955478 -0.00062831 0.00000000
4.89269267 0.10567243 -0.00169294 0.00000000
2.55419146 1.61023330 0.00052730 0.00000000
1.42218946 0.34318726 0.00384910 0.00000000
1.37757269 1.14283457 0.00741636 0.00000000
2.40741658 0.68580243 0.00312647 0.00000000
4.19845187 0.19460676 -0.00026388 0.00000000
2.25492531 0.15987650 -0.00033571 0.00000000
0.97098730 1.78210115 -0.00013628 0.00000000
4.71117277 0.14628997 0.00391605 0.00000000
1.26467205 0.54339570 0.00397983 0.00000000
1.85132736 0.93652622 -0.00189019 0.00000000
1.76222724 1.14629226 0.00062484 0.00000000
1.68641181 0.81295064 0.00124060 0.00000000
4.20817359 1.15415401 -0.00295697 0.00000000
2.15784057 0.54031155 -0.00046584 0.00000000
4.73425070 1.59490591 0.00553037 0.00000000
2.61029530 1.70375104 -0.00069111 0.00000000
1.79331840 1.61766824 0.00139811 0.00000000
4.21972524 0.18670945 0.00258477 0.00000000
3.86182835 0.37681569 0.00375814 0.00000000
3.47883505 0.76394557 0.00399942 0.00000000
1.86232771 0.56849168 -0.00164724 0.00000000
3.76459406 1.32056200 -0.00385151 0.00000000
1.68596655 0.97330856 -0.00261068 0.00000000
3.12530229 0.61664905 -0.00424243 0.00000000
0.84859744 1.48352334 0.00138551 0.00000000
1.01134726 1.36081420 0.00254721 0.00000000
3.04676821 0.05229018 -0.00119300 0.00000000
0.49892756 0.27326687 0.00123262 0.00000000
1.79114328 0.09494481 0.00224823 0.00000000
0.50157755 0.26782613 -0.00586547 0.00000000
1.42262931 0.20611545 -0.00298217 0.00000000
1.03170121 0.47385160 -0.00331580 0.00000000
1.40081532 0.32749280 -0.00308971 0.00000000
2.46115235 0.24352923 0.00099338 0.00000000
1.59518442 0.00015112 -0.00357327 0.00000000
0.62033464 0.15646862 -0.00046235 0.00000000
0.76873784 1.01618306 -0.00366156 0.00000000
1.76623757 0.79932939 0.00164975 0.00000000
0.51201848 1.44779678 0.00001934 0.00000000
0.87721634 0.77042514 -0.00206368 0.00000000
3.85401785 0.02146576 0.00260593 0.00000000
0.89843353 0.76288152 0.00026054 0.00000000
2.58267067 0.12068962 -0.00332785 0.00000000
3.86207124 0.81361934 -0.00074717 0.00000000
4.85715807 1.37793101 0.00221054 0.00000000
4.75719602 0.04653178 0.00330286 0.00000000
4.97887004 1.38261466 -0.00392691 0.00000000
0.58261912 0.23172087 0.00223421 0.00000000
3.11697908 0.64104659 -0.00230331 0.00000000
4.97765705 1.05634196 -0.00119267 0.00000000
3.37286682 1.44470691 0.00201611 0.00000000
1.28060708 1.61148362 -0.00047175 0.00000000
3.31845290 0.36670160 0.00199704 0.00000000
3.18544797 0.02380636 -0.00035734 0.00000000
1.73617902 1.10312071 0.00082626 0.00000000
2.19807294 0.40597604 -0.00288663 0.00000000
2.37618473 0.67543414 0.00470379 0.00000000
0.69119721 1.31960698 -0.00223824 0.00000000
3.66568294 1.60891442 -0.00288962 0.00000000
1.86326759 1.67784504 -0.00044101 0.00000000
3.96281852 1.68501865 -0.00286787 0.00000000
0.92143786 0.26147212 0.00012247 0.00000000
1.91676393 0.38017139 -0.00189948 0.00000000
2.46972888 0.57064692 0.00087494 0.00000000
3.91134368 0.03035269 -0.00204136 0.00000000
0.87260229 1.77041745 -0.00107928 0.00000000
2.65793133 1.14383395 0.00356447 0.00000000
3.25103100 1.78460397 -0.00248438 0.00000000
0.57999563 1.78357216 0.00168009 0.00000000
0.50905486 0.69101218 0.00231880 0.00000000
2.74770672 0.57129518 -0.00394590 0.00000000
2.50249827 0.24662351 0.00643994 0.00000000
4.38359108 0.70691959 -0.00190487 0.00000000
1.77354185 0.58968737 -0.00136001 0.00000000
2.83844617 0.90281541 -0.00105044 0.00000000
1.06274139 0.29440690 0.00680178 0.00000000
3.47959686 0.48902254 -0.00156384 0.00000000
1.19157881 0.42013605 -0.00313958 0.00000000
3.32119902 1.24701040 -0.00026635 0.00000000
2.46635267 0.30215504 -0.00259385 0.00000000
1.41171471 1.71328418 0.00115079 0.00000000
0.93037416 1.03291622 -0.00197604 0.00000000
3.55298865 1.13183527 0.00403153 0.00000000
0.95614264 1.46580116 -0.00180013 0.00000000
3.06734256 0.45556897 0.00054442 0.00000000
1.44033513 1.08284010 0.00205724 0.00000000
3.17381168 0.37883525 -0.00123504 0.00000000
2.02710124 0.30304661 0.00350940 0.00000000
0.32198289 0.90675116 0.00031696 0.00000000
1.50568975 1.24389955 -0.00134674 0.00000000
4.56666950 1.65634830 -0.00063478 0.00000000
1.35712209 1.75752290 0.00717757 0.00000000
0.33245975 0.82351723 -0.00087062 0.00000000
4.84041421 1.40501419 0.00191152 0.00000000
2.07255259 0.97030598 0.00059331 0.00000000
3.52012654 1.05826588 -0.00375216 0.00000000
0.70993771 1.22075898 -0.00269217 0.00000000
3.92000175 0.31165811 0.00111153 0.00000000
3.07887420 1.09976028 -0.00219512 0.00000000
3.41741801 1.71877335 -0.00404054 0.00000000
2.00502391 0.78385970 0.00012874 0.00000000
3.96537294 0.07076241 0.00075250 0.00000000
3.35076397 0.81312647 -0.00189220 0.00000000
2.23779080 0.60910089 -0.00549283 0.00000000
4.94816082 0.47624433 0.00271600 0.00000000
4.33058667 0.26572060 -0.00104273 0.00000000
3.48175570 0.59428818 -0.00137519 0.00000000
1.48793140 0.70034354 0.00203403 0.00000000
1.43946110 0.18406237 0.00238339 0.00000000
0.67013044 0.73888854 -0.00403054 0.00000000
4.22733355 0.31656162 0.00332825 0.00000000
0.98043957 0.60514716 0.00024220 0.00000000
2.27759467 0.28043582 -0.00279595 0.00000000
1.15712867 0.11339543 -0.00596514 0.00000000
4.95657222 0.90496892 -0.00129217 0.00000000
1.76071882 1.23129726 0.00132601 0.00000000
2.79036821 0.30647933 0.00248827 0.00000000
4.45087391 0.91872626 0.00496765 0.00000000
1.76555945 0.34543816 0.00298932 0.00000000
2.01043318 1.68072634 -0.00344947 0.00000000
1.81740353 1.66014595 0.00030173 0.00000000
3.46920943 0.38531019 -0.00222175 0.00000000
3.56745260 0.33027496 0.00047477 0.00000000
3.39183437 0.48727353 0.00416892 0.00000000
3.58241167 0.03956946 0.00258030 0.00000000
4.08441788 0.90025812 0.00013635 0.00000000
4.30840919 0.27156942 0.00306273 0.00000000
3.06344330 0.21082692 0.00263203 0.00000000
3.02339544 1.21388293 0.00120598 0.00000000
1.95924240 0.30141601 -0.00134768 0.00000000
3.19706738 1.17072109 -0.00147280 0.00000000
2.03043462 1.18390070 -0.00061714 0.00000000
4.88820056 1.59646304 0.00248387 0.00000000
4.82399219 0.14531629 -0.00482760 0.00000000
1.66879321 0.23210117 0.00014726 0.00000000
0.46234751 0.90091525 -0.00375384 0.00000000
3.34093456 1.29912609 -0.00073129 0.00000000
1.36027080 1.48379159 -0.00002525 0.00000000
4.64351725 0.52504005 0.00058773 0.00000000
2.07355341 0.90696039 -0.00067514 0.00000000
0.94266261 1.62305670 0.00239536 0.00000000
2.92811180 0.70610471 -0.00194357 0.00000000
1.43447675 1.06815893 0.00419055 0.00000000
3.79846534 1.07598655 0.00109930 0.00000000
0.67118510 0.03089601 -0.00110562 0.00000000
1.92481605 1.31268474 -0.00028245 0.00000000
3.03206556 1.13470710 0.00453081 0.00000000
4.68724320 1.61464482 0.00026941 0.00000000
2.38618544 1.77346510 0.00329186 0.00000000
3.05048139 0.63283282 -0.00150231 0.00000000
1.12873404 1.56885169 -0.00173902 0.00000000
0.43268785 0.98406120 -0.00554465 0.00000000
2.31215435 0.20644050 -0.00240758 0.00000000
1.10992284 1.43479536 0.00113494 0.00000000
3.37415636 1.72911650 -0.00046779 0.00000000
3.15973592 1.53676464 -0.00195203 0.00000000
1.16945822 0.45716979 0.00004416 0.00000000
1.85489679 0.17803837 0.00781531 0.00000000
3.19130321 1.67290213 -0.00357541 0.00000000
4.09231901 1.62431659 0.00074035 0.00000000
3.92916451 1.13070769 0.00221482 0.00000000
0.34263750 1.54068868 -0.00285354 0.00000000
3.08924024 0.53033035 0.00320642 0.00000000
3.46792293 0.61361719 0.00127150 0.00000000
2.96637128 0.00797076 -0.00303462 0.00000000
0.37568035 1.68749987 -0.00138548 0.00000000
0.37004599 0.11064905 -0.00160083 0.00000000
4.72003987 1.02797100 0.00028685 0.00000000
3.87339102 1.64688562 -0.00156407 0.00000000
1.16503524 0.59227200 -0.00114794 0.00000000
1.00658728 1.64495613 0.00473992 0.00000000
0.46174627 1.31249179 -0.00295882 0.00000000
0.64703829 1.74576916 0.00018643 0.00000000
4.92270504 0.28237152 0.00023249 0.00000000
2.42672573 1.61212556 0.00258235 0.00000000
0.20341358 0.73465966 0.00672290 0.00000000
3.89190339 0.41154845 0.00365162 0.00000000
4.66895538 0.29433980 -0.00398949 0.00000000
3.95649247 0.56862589 0.00002098 0.00000000
1.71327787 0.50630672 -0.00095428 0.00000000
3.99612807 1.35459591 -0.00065470 0.00000000
4.51856872 0.97535831 0.00128884 0.00000000
4.61312904 1.04388299 0.00246534 0.00000000
2.86152406 0.28735146 0.00113506 0.00000000
4.54370189 1.13413423 -0.00285352 0.00000000
2.82293650 0.93757209 -0.00643147 0.00000000
3.13540067 1.24183037 -0.00218736 0.00000000
4.93028382 1.32745988 -0.00063815 0.00000000
1.22944315 1.22043419 -0.00116853 0.00000000
3.03795399 0.75787047 0.00325515 0.00000000
4.12783998 0.49033623 -0.00268828 0.00000000
3.55574700 0.75595358 0.00053494 0.00000000
4.70168231 0.34357623 0.00140249 0.00000000
2.28592576 1.00121964 0.00086863 0.00000000
2.34987066 0.33240634 -0.00160815 0.00000000
3.50680758 1.15913498 0.00057518 0.00000000
3.22621840 1.15243416 0.00156314 0.00000000
1.91102468 0.55931860 -0.00046534 0.00000000
4.88705757 1.46283036 -0.00175927 0.00000000
4.50976471 1.02669116 0.00002926 0.00000000
1.98318721 1.69661857 0.00420408 0.00000000
2.55303852 0.72729329 -0.00077265 0.00000000
0.28420764 1.07317670 0.00143604 0.00000000
1.00792451 0.12278487 -0.00272202 0.00000000
1.54161383 1.54713671 -0.00094544 0.00000000
2.19767482 0.66834910 0.00175180 0.00000000
0.08816139 1.35867293 0.00053244 0.00000000
0.69459514 0.97122177 0.00293135 0.00000000
2.39835477 1.77447865 -0.00419675 0.00000000
2.87946047 0.52666816 0.00251656 0.00000000
3.66711691 0.44201404 0.00139479 0.00000000
4.35963626 0.31665564 -0.00128809 0.00000000
1.23730620 1.33332209 -0.00606205 0.00000000
2.42731830 0.14374139 0.00010401 0.00000000
0.28033034 1.65241284 0.00315723 0.00000000
1.92257291 1.07808883 0.00187969 0.00000000
0.37078844 1.28419546 0.00065232 0.00000000
3.92335707 1.77111200 -0.00262789 0.00000000
4.36694559 1.53067740 0.00429916 0.00000000
0.40316862 1.50189199 0.00003257 0.00000000
2.00699189 0.73999846 -0.00188766 0.00000000
1.91226875 1.55079068 -0.00153636 0.00000000
0.59339084 0.10330690 -0.00104410 0.00000000
1.56497290 0.97455418 0.00199300 0.00000000
2.56283299 0.34552961 -0.00170914 0.00000000
3.22298246 1.22062889 0.00127918 0.00000000
0.48168866 0.69633654 -0.00012074 0.00000000
1.28300648 0.99905220 0.00031288 0.00000000
3.98245607 0.49531282 0.00126200 0.00000000
1.74563879 1.36973134 -0.00040450 0.00000000
3.30026764 0.01828761 0.00166721 0.00000000
3.16261917 0.71691766 0.00063999 0.00000000
3.48442692 0.22993523 0.00243395 0.00000000
4.48018239 1.54967364 0.00432981 0.00000000
1.26923068 0.74544011 0.00254951 0.00000000
4.30560317 0.35782116 -0.00087763 0.00000000
3.11320257 1.42402252 -0.00214707 0.00000000
3.99783181 0.93315599 0.00259915 0.00000000
4.79266860 0.12195893 0.00025749 0.00000000
0.96693815 0.78178905 -0.00130103 0.00000000
2.47794578 0.68121066 -0.00279070 0.00000000
1.00370928 1.41749432 0.00237892 0.00000000
2.00181223 0.54599946 -0.00020918 0.00000000
0.37019488 0.18218441 -0.00312307 0.00000000
4.12985229 1.43072325 -0.00114045 0.00000000
4.47899457 1.64926386 -0.00224630 0.00000000
2.90891494 0.14291400 -0.00020578 0.00000000
0.79510891 0.25445050 -0.00314265 0.00000000
3.65095405 1.25622175 -0.00193533 0.00000000
1.98947446 0.61831691 -0.00116474 0.00000000
1.47126157 0.15222746 -0.00113099 0.00000000
3.45999523 0.31389383 0.00297410 0.00000000
1.94008965 0.45842355 -0.00021508 0.00000000
4.27404784 1.38136172 0.00122798 0.00000000
0.01065261 0.65982617 -0.00355099 0.00000000
0.30195428 0.62111225 -0.00070583 0.00000000
3.61724068 1.45225511 -0.00591695 0.00000000
1.65769498 1.76694075 -0.00145468 0.00000000
1.92106758 1.47425288 -0.00016184 0.00000000
4.28088889 0.29692298 0.00187246 0.00000000
1.04642370 1.40745355 -0.00154907 0.00000000
3.00509531 1.57787674 0.00208478 0.00000000
1.85179488 0.52117520 -0.00031624 0.00000000
3.42881445 1.08356589 -0.00358274 0.00000000
0.60406029 0.73304444 0.00518042 0.00000000
0.16088874 1.37880878 -0.00174520 0.00000000
4.34624523 0.53658827 -0.00455731 0.00000000
4.66605672 1.29061844 0.00051498 0.00000000
4.14570381 0.76010893 0.00067796 0.00000000
2.61128388 0.44830187 0.00059430 0.00000000
4.10948059 0.10398819 -0.00151607 0.00000000
1.80067607 0.46697700 -0.00443664 0.00000000
4.74932527 0.40063573 -0.00092855 0.00000000
2.79171352 0.91988336 0.00429277 0.00000000
4.60273791 1.37515266 -0.00190703 0.00000000
4.47520517 0.23388427 -0.00011331 0.00000000
2.55990903 1.65432941 -0.00344448 0.00000000
1.87095412 0.00743300 0.00074011 0.00000000
3.45795296 0.02622860 0.00248467 0.00000000
0.44750142 1.41126699 0.00358873 0.00000000
3.99706088 1.64938190 -0.00198738 0.00000000
3.22137160 0.87196044 -0.00086222 0.00000000
1.14421996 0.81599790 0.00054892 0.00000000
2.63924995 0.56515567 -0.00016493 0.00000000
1.83672234 0.20992094 0.00001346 0.00000000
1.10425366 1.09491659 -0.00223389 0.00000000
2.26433162 0.24334836 -0.00298366 0.00000000
0.54512365 1.77111723 0.00139813 0.00000000
4.59473377 0.05710611 -0.00076574 0.00000000
0.43757781 0.85917915 -0.00268935 0.00000000
1.00211479 0.73802360 -0.00203751 0.00000000
0.08560620 0.02988867 -0.00019579 0.00000000
3.07108384 0.73596580 0.00099886 0.00000000
2.74220218 1.00944559 0.00405749 0.00000000
4.87578359 0.45529017 0.00443384 0.00000000
0.44053828 1.74734277 -0.00214171 0.00000000
4.52016315 1.24195368 0.00149762 0.00000000
1.40867789 1.34928569 -0.00332425 0.00000000
3.28764182 1.77757024 0.00096693 0.00000000
1.54517539 0.71002089 -0.00517500 0.00000000
3.56501346 0.22376016 -0.00070036 0.00000000
4.60403810 1.75941772 0.00007434 0.00000000
2.97522426 0.72902866 -0.00190720 0.00000000
1.13815033 1.44532758 -0.00176350 0.00000000
4.86812812 1.46818109 -0.00117982 0.00000000
2.38190621 0.64969597 0.00047193 0.00000000
2.21144508 1.45225053 0.00619986 0.00000000
1.12313540 1.27656161 -0.00345428 0.00000000
4.37969414 1.79377299 0.00211545 0.00000000
4.69936598 1.36094885 0.00303624 0.00000000
4.50646388 0.30091212 0.00090909 0.00000000
1.80573191 1.23569664 -0.00180746 0.00000000
4.92199786 0.31585254 -0.00144200 0.00000000
2.06640936 1.03319243 -0.00267880 0.00000000
0.12287479 1.15588637 0.00187509 0.00000000
3.43783893 1.79332406 0.00152615 0.00000000
3.96507524 0.55301875 -0.00364449 0.00000000
2.31938141 0.68776238 0.00285883 0.00000000
2.14663200 0.28739580 0.00211497 0.00000000
4.81854507 1.42318831 0.00004627 0.00000000
1.35017641 0.19830818 0.00067960 0.00000000
3.06763940 0.86657994 0.00085962 0.00000000
1.84743368 0.10268869 0.00271141 0.00000000
1.87375160 0.94363387 0.00109001 0.00000000
3.30021940 0.99414920 0.00283736 0.00000000
3.59435661 0.85823980 -0.00584241 0.00000000
2.85292650 1.47243386 -0.00369201 0.00000000
0.58420065 1.49266172 -0.00116965 0.00000000
4.08707173 0.92322808 0.00053768 0.00000000
1.19861465 1.52437194 -0.00020245 0.00000000
0.53527109 0.04286562 -0.00350980 0.00000000
0.18188149 1.08224318 -0.00049474 0.00000000
0.32128284 0.29393168 0.00374380 0.00000000
3.49281123 0.01599290 0.00098489 0.00000000
1.97790911 0.66866826 -0.00049909 0.00000000
1.85024321 0.59969484 -0.00403003 0.00000000
4.09173224 0.05217988 -0.00017601 0.00000000
0.20488634 0.81969376 -0.00141264 0.00000000
1.66254643 1.68580035 0.00114273 0.00000000
4.76469895 0.06221577 -0.00088767 0.00000000
4.64789752 1.06909742 -0.00131961 0.00000000
4.64869351 1.46380928 -0.00036101 0.00000000
2.26168552 0.44103140 0.00328375 0.00000000
3.27481830 0.01545997 0.00064398 0.00000000
1.97781450 1.11499682 0.00229087 0.00000000
3.26066488 1.79096021 -0.00209433 0.00000000
4.88331962 0.58720697 -0.00322735 0.00000000
1.41504735 0.93809694 -0.00485305 0.00000000
2.52107388 0.50187771 -0.00180764 0.00000000
0.13025229 1.36476859 0.00182721 0.00000000
4.21605257 0.89715613 0.00213936 0.00000000
4.16454523 1.19757607 0.00071013 0.00000000
2.32013872 0.52060329 -0.00141797 0.00000000
0.64794750 1.42846983 0.00251032 0.00000000
1.28069613 1.64713503 0.00406755 0.00000000
4.39769713 1.75233995 0.00086749 0.00000000
0.07789323 0.61261634 0.00317706 0.00000000
0.16404967 0.91704376 0.00320155 0.00000000
2.61090926 0.22864766 -0.00087534 0.00000000
0.14094575 1.67831790 0.00017470 0.00000000
1.29361454 0.93984082 0.00272474 0.00000000
4.17969253 1.28893291 -0.00376939 0.00000000
4.61581348 0.67172340 0.00076276 0.00000000
2.77357564 0.43403495 0.00595357 0.00000000
3.57063099 0.57410058 -0.00362799 0.00000000
0.54694093 1.46718937 0.00109417 0.00000000
1.72397999 0.99624916 -0.00133116 0.00000000
1.10346439 0.24733393 -0.00065961 0.00000000
2.49684523 1.04019653 0.00120034 0.00000000
4.22924441 0.23466103 0.00002231 0.00000000
3.08928037 0.07429635 0.00036084 0.00000000
0.73497104 0.15885766 -0.00216783 0.00000000
2.15501291 0.86822764 0.00141222 0.00000000
2.84437068 0.67612858 -0.00393416 0.00000000
4.02015094 0.16474772 -0.00072718 0.00000000
0.56046419 1.40799081 0.00165252 0.00000000
2.01515648 1.53862661 0.00092928 0.00000000
2.40751468 0.61272322 -0.00026647 0.00000000
0.78632533 0.87636131 -0.00034321 0.00000000
2.92075094 0.65236128 -0.00263814 0.00000000
3.84206114 0.83561717 0.00347521 0.00000000
0.36484933 1.03329138 0.00090481 0.00000000
0.98303080 1.18343555 0.00557599 0.00000000
0.70386469 0.47013816 0.00015231 0.00000000
0.34358344 0.01766569 -0.00241456 0.00000000
1.88803543 0.15460871 0.00351367 0.00000000
1.94944255 0.60821245 -0.00313147 0.00000000
4.84306606 1.67045988 -0.00232403 0.00000000
2.26917761 0.80488297 -0.00120814 0.00000000
2.82839756 1.13449003 0.00210994 0.00000000
0.80398602 0.71471686 -0.00133696 0.00000000
2.59999396 0.47863507 -0.00089580 0.00000000
3.32041633 1.18107672 0.00119176 0.00000000
1.10504585 0.89813486 -0.00195985 0.00000000
1.86390020 1.77397668 0.00069687 0.00000000
1.62800587 1.55231261 0.00109167 0.00000000
0.75439034 1.16774104 0.00457017 0.00000000
3.07276994 0.89974625 -0.00066803 0.00000000
2.83068134 1.33102639 0.00317140 0.00000000
3.36178867 0.34804199 -0.00201297 0.00000000
4.55035743 1.15116489 0.00025097 0.00000000
3.17101874 0.71748779 -0.00329495 0.00000000
3.92485451 0.47152731 -0.00119266 0.00000000
1.03007003 0.82430339 0.00126241 0.00000000
0.61025665 1.48388793 -0.00178885 0.00000000
4.20712068 0.23712644 0.00458708 0.00000000
1.79450398 1.68446586 -0.00183029 0.00000000
1.26067044 1.41479554 -0.00368589 0.00000000
3.17333817 0.66472178 0.00346388 0.00000000
4.18754882 0.50657316 -0.00090314 0.00000000
2.61164395 0.78339360 -0.00171670 0.00000000
4.25121241 0.47412148 -0.00340465 0.00000000
1.80563365 0.93374552 0.00038836 0.00000000
2.69878811 0.86893345 -0.00610663 0.00000000
0.24140476 0.99818682 -0.00164648 0.00000000
0.44532595 1.25388683 -0.00106075 0.00000000
2.74844400 0.39969375 0.00088130 0.00000000
3.33429348 1.02310510 -0.00277699 0.00000000
0.63526393 0.24188048 -0.00178996 0.00000000
4.65586820 1.04487074 -0.00130279 0.00000000
1.93520994 1.49550472 0.00442680 0.00000000
4.28470496 1.75791788 -0.00044420 0.00000000
3.36795479 0.67336484 -0.00207449 0.00000000
0.00275159 1.58225637 0.00062001 0.00000000
0.51174900 1.06345948 -0.00136908 0.00000000
4.19325480 0.93058330 0.00097507 0.00000000
2.84762106 1.78067738 0.00068416 0.00000000
3.87992018 1.03203292 0.00106686 0.00000000
2.26139034 1.79067363 0.00147083 0.00000000
1.41930016 0.60637701 -0.00493428 0.00000000
0.49201348 0.77355239 0.00124825 0.00000000
1.57229723 0.79083027 0.00092971 0.00000000
3.79423332 0.09049612 -0.00037403 0.00000000
2.53135940 0.05742287 -0.00160585 0.00000000
2.28134494 1.18876541 -0.00005192 0.00000000
4.89710973 1.51945470 -0.00093095 0.00000000
3.40381935 0.93158573 -0.00061585 0.00000000
4.41367212 1.44243106 0.00124892 0.00000000
4.63761318 0.56376926 -0.00383278 0.00000000
0.78617832 1.65969571 -0.00253268 0.00000000
2.57089031 1.10358051 0.00248988 0.00000000
3.95155472 1.33560922 0.00175249 0.00000000
2.13750319 1.67066385 0.00017857 0.00000000
2.48146482 0.26415394 0.00041049 0.00000000
2.11413714 1.17463730 -0.00368389 0.00000000
0.81767139 1.42486843 -0.00343417 0.00000000
0.90504513 0.46325393 0.00230338 0.00000000
2.92373682 0.43022162 -0.00013103 0.00000000
0.02625208 1.17779176 -0.00173185 0.00000000
4.94019900 0.17538495 0.00495912 0.00000000
3.21560509 1.06371719 -0.00159450 0.00000000
0.74590834 1.56693197 -0.00135640 0.00000000
1.91870776 0.43231681 0.00133388 0.00000000
2.20253302 1.34217273 -0.00225139 0.00000000
1.58940408 0.29410529 0.00063100 0.00000000
4.87173329 0.07880048 -0.00113236 0.00000000
3.19698099 1.46077229 0.00058276 0.00000000
3.16439463 0.11116916 -0.00276468 0.00000000
3.88525934 1.45567332 0.00239068 0.00000000
1.25233988 1.24984997 0.00222753 0.00000000
3.50454576 1.04881039 -0.00550566 0.00000000
0.52044351 0.96143624 -0.00159851 0.00000000
1.57751129 0.54256364 0.00244854 0.00000000
0.01905594 1.14590798 -0.00360112 0.00000000
1.74965564 0.34622190 -0.00413305 0.00000000
3.54387596 1.36062070 0.00438693 0.00000000
3.84807800 0.34754088 0.00061435 0.00000000
0.42323708 1.79444910 -0.00115074 0.00000000
0.97679560 1.02745949 -0.00321740 0.00000000
3.44681281 1.03899620 -0.00355516 0.00000000
1.24410511 0.90439039 0.00411932 0.00000000
2.56873603 0.87117326 -0.00072274 0.00000000
4.04326443 1.62170641 0.00119984 0.00000000
0.23068912 1.11690123 -0.00099406 0.00000000
3.71623555 0.05260209 -0.00078248 0.00000000
2.35920629 1.12402926 -0.00110799 0.00000000
1.65089011 1.14941109 0.00180163 0.00000000
2.81240561 0.89880355 0.00053043 0.00000000
1.29652183 1.39438777 0.00108699 0.00000000
4.93016967 0.96672086 -0.00234363 0.00000000
1.53675891 0.05964008 0.00116381 0.00000000
1.92869588 0.64060323 0.00195771 0.00000000
3.15536782 0.54328974 -0.00229696 0.00000000
2.64340440 1.35633440 0.00074526 0.00000000
2.61396843 1.43196131 0.00109716 0.00000000
2.50159334 1.73736542 0.00134168 0.00000000
2.07838646 0.89296144 -0.00080468 0.00000000
2.34499273 0.22223406 -0.00091179 0.00000000
0.26770284 1.21667475 0.00020000 0.00000000
0.88132579 0.51029401 -0.00360564 0.00000000
1.92624917 0.46245646 -0.00089292 0.00000000
1.78628619 1.71116049 -0.00382511 0.00000000
3.51011295 1.47359390 0.00022039 0.00000000
0.07419191 1.16141297 0.00148242 0.00000000
3.70389032 0.45426147 -0.00109061 0.00000000
0.08840103 0.19093709 0.00417025 0.00000000
3.82011263 1.47562335 -0.00031305 0.00000000
2.18339667 0.91522364 0.00192780 0.00000000
1.07976808 0.69675875 0.00334671 0.00000000
3.45822365 0.74983555 -0.00067255 0.00000000
1.37400100 0.87994096 -0.00284046 0.00000000
1.67673460 0.33412042 0.00114645 0.00000000
0.36980759 0.25526951 0.00210092 0.00000000
3.21478901 0.48704160 -0.00239796 0.00000000
0.11367967 0.70404670 0.00220702 0.00000000
1.45356540 0.18023610 0.00042419 0.00000000
3.54155341 0.14005949 0.00055734 0.00000000
1.22055073 1.30989271 -0.00064958 0.00000000
1.74990311 1.39631270 -0.00064367 0.00000000
1.86214908 1.39018150 -0.00259423 0.00000000
0.73382252 1.70956862 -0.00079398 0.00000000
0.21427261 0.95292671 0.00074972 0.00000000
0.23754705 0.87607197 -0.00044712 0.00000000
2.29578667 1.67749986 0.00307757 0.00000000
0.63766850 1.57035648 -0.00019358 0.00000000
1.18567500 0.84013605 -0.00214109 0.00000000
4.38164038 1.52257644 0.00045916 0.00000000
0.66329780 0.35938782 -0.00220168 0.00000000
0.21438927 1.46715279 0.00142113 0.00000000
3.72489768 1.14999888 0.00130667 0.00000000
4.74609723 0.20210823 0.00262843 0.00000000
1.31375610 1.04481879 -0.00222068 0.00000000
1.20915582 1.57207846 -0.00351783 0.00000000
4.33899673 1.51463548 -0.00235020 0.00000000
4.40725553 1.63639493 0.00026518 0.00000000
3.25950129 0.24038403 0.00034443 0.00000000
1.73982475 1.01323641 -0.00240777 0.00000000
2.98331075 1.02347531 -0.00137035 0.00000000
2.68611474 0.86807444 0.00081771 0.00000000
4.45272270 0.84431574 0.00036872 0.00000000
4.45078000 0.02628271 -0.00060973 0.00000000
2.98534481 0.01736179 0.00056091 0.00000000
2.90504131 0.63299398 0.00088622 0.00000000
1.76606938 0.75755976 0.00346272 0.00000000
0.27204384 1.13410240 -0.00117118 0.00000000
0.14351821 1.05712680 -0.00092527 0.00000000
4.96235549 0.65722383 -0.00396653 0.00000000
1.09476230 0.69880275 0.00396449 0.00000000
0.64732706 1.09030383 -0.00045306 0.00000000
2.25143276 0.48734547 0.00037306 0.00000000
3.78597208 0.45156407 0.00313152 0.00000000
3.63087723 0.12820639 0.00341018 0.00000000
2.84272889 0.32703870 -0.00339702 0.00000000
3.39849208 1.62029060 0.00278780 0.00000000
2.62076586 0.63713108 -0.00205350 0.00000000
3.21151917 1.23208681 -0.00116351 0.00000000
2.67253824 0.86090761 0.00111760 0.00000000
1.91625597 1.12998529 -0.00169817 0.00000000
0.86202782 0.62666088 0.00373766 0.00000000
4.43807425 0.48464871 0.00284592 0.00000000
0.96067175 0.53877981 -0.00152254 0.00000000
4.73565434 1.51264253 -0.00105933 0.00000000
3.17878933 0.11339582 0.00113108 0.00000000
1.50935729 1.41632080 -0.00376078 0.00000000
2.23886492 0.85032426 -0.00112700 0.00000000
3.05735985 1.04618643 -0.00025554 0.00000000
1.50579597 1.20317552 -0.00456862 0.00000000
0.61630123 1.30072489 0.00179398 0.00000000
1.41222555 0.43042599 0.00212325 0.00000000
2.07618068 1.00482278 0.00499077 0.00000000
0.52496867 0.67520449 0.00305224 0.00000000
3.66309091 0.13127987 0.00260423 0.00000000
2.91833747 0.76549988 -0.00233545 0.00000000
1.10397933 1.42286653 0.00048670 0.00000000
1.52071829 0.32644635 -0.00040822 0.00000000
1.06465771 0.74455225 0.00287967 0.00000000
0.34171643 0.69231864 -0.00059075 0.00000000
1.08704236 0.93731459 0.00098594 0.00000000
2.28919651 0.76340385 -0.00005793 0.00000000
2.83100075 1.77923858 0.00177383 0.00000000
4.15487449 1.49975993 0.00262282 0.00000000
3.91248392 0.49137219 0.00347037 0.00000000
0.12433248 0.44925432 0.00398736 0.00000000
2.35236655 0.96229554 -0.00081866 0.00000000
3.39723399 1.01923838 0.00380822 0.00000000
4.07088940 0.68416937 -0.00689691 0.00000000
0.23473102 1.17648102 -0.00218873 0.00000000
3.47934699 1.36145550 -0.00019292 0.00000000
0.81500288 1.76427143 -0.00220283 0.00000000
2.95550466 1.68144386 0.00132108 0.00000000
2.65571943 1.71988573 -0.00470559 0.00000000
4.79348775 0.82889720 -0.00308747 0.00000000
3.94670251 0.45576077 -0.00226417 0.00000000
4.18248248 0.93512513 0.00035568 0.00000000
3.11130779 0.97199761 0.00312466 0.00000000
0.78117864 1.75723252 0.00251846 0.00000000
0.74785460 0.46532884 0.00149778 0.00000000
2.75006679 0.56772609 0.00323332 0.00000000
3.04190621 0.49252076 -0.00105723 0.00000000
4.22760184 0.08797322 -0.00299903 0.00000000
4.95337725 1.18080719 0.00190430 0.00000000
3.01842534 0.34246818 0.00116256 0.00000000
1.33204245 1.60688111 0.00218771 0.00000000
0.44316493 0.00694568 0.00270128 0.00000000
3.63782058 1.14224499 -0.00224271 0.00000000
3.51276991 0.11229455 -0.00014662 0.00000000
4.69409004 0.22418771 -0.00040063 0.00000000
4.44562933 1.72374407 -0.00219308 0.00000000
0.07399362 1.45736591 -0.00182733 0.00000000
1.07122055 1.37399412 0.00009867 0.00000000
1.28008027 0.08041648 -0.00362413 0.00000000
1.43048083 0.31312444 -0.00535869 0.00000000
3.86446722 0.17745890 -0.00073174 0.00000000
0.95880769 0.90689028 -0.00329341 0.00000000
4.97209132 0.76439062 -0.00033603 0.00000000
2.49812013 0.37838122 0.00154988 0.00000000
1.80922098 1.42065649 -0.00235585 0.00000000
3.22054493 0.59625677 -0.00160057 0.00000000
2.25300618 1.67727556 0.00061813 0.00000000
1.85049004 0.60140125 -0.00228089 0.00000000
3.12042529 0.91398258 -0.00056881 0.00000000
3.19307688 0.31794917 -0.00401409 0.00000000
2.49334972 0.89582553 -0.00171417 0.00000000
2.39048374 1.10687463 0.00148929 0.00000000
0.83433828 1.00305676 0.00035522 0.00000000
1.92478491 1.43934564 0.00033599 0.00000000
1.08662341 0.72452541 -0.00021695 0.00000000
3.94106848 0.52622277 -0.00094380 0.00000000
1.72449647 1.64545092 -0.00379012 0.00000000
3.85976949 0.90917988 -0.00601539 0.00000000
3.81740883 0.57772780 0.00354414 0.00000000
4.21321644 0.10295962 -0.00210087 0.00000000
4.45883009 1.58077172 -0.00392549 0.00000000
1.49472076 1.23735938 -0.00089227 0.00000000
3.22802175 1.01226821 -0.00195282 0.00000000
2.93987119 0.68683344 -0.00266468 0.00000000
3.16444313 0.22022514 -0.00129346 0.00000000
0.59135758 0.83702084 0.00075522 0.00000000
1.21893936 0.93972843 -0.00200114 0.00000000
4.23257539 1.18140543 -0.00294243 0.00000000
1.33106325 0.71805638 0.00110152 0.00000000
4.00882732 1.04191877 -0.00014510 0.00000000
4.09233392 0.79689518 -0.00687470 0.00000000
2.52750354 1.58599075 0.00050036 0.00000000
0.23563570 1.00815082 0.00054826 0.00000000
3.50945627 0.19503300 -0.00256318 0.00000000
1.66042180 0.48229002 0.00260899 0.00000000
2.92405562 0.09861532 0.00136213 0.00000000
3.49204639 0.94320675 0.00289973 0.00000000
4.52980270 0.88798118 -0.00198201 0.00000000
4.54574050 0.64436161 -0.00057402 0.00000000
4.34941067 1.32791914 0.00093898 0.00000000
3.18317009 0.39208254 0.00056856 0.00000000
2.38779669 1.39876927 -0.00436090 0.00000000
4.23052881 0.55838056 -0.00185665 0.00000000
0.20259509 1.36574852 0.00109869 0.00000000
4.76981796 0.62588424 0.00128057 0.00000000
0.75239085 0.78738337 0.00058674 0.00000000
1.66636692 1.64962269 0.00273512 0.00000000
4.12450661 0.85138364 -0.00510887 0.00000000
1.75658397 1.74204327 0.00272902 0.00000000
0.28830869 1.23919260 -0.00346078 0.00000000
4.88389401 0.46353036 -0.00110854 0.00000000
0.53712871 0.56647656 0.00236687 0.00000000
2.05020337 0.46156328 -0.00057953 0.00000000
0.39293350 1.65669794 0.00064871 0.00000000
3.43528838 0.04080194 -0.00034775 0.00000000
3.04972504 1.70861660 -0.00238036 0.00000000
3.15817834 0.87196504 0.00372281 0.00000000
1.40622577 1.73448437 -0.00040824 0.00000000
0.83203795 1.66151949 -0.00055977 0.00000000
1.97477194 1.38927176 -0.00005295 0.00000000
2.91857373 0.17299161 -0.00217561 0.00000000
2.84102911 1.70805258 0.00501527 0.00000000
3.89261076 1.49417769 0.00001339 0.00000000
1.82114906 1.19426350 0.00091270 0.00000000
4.19634792 0.88543371 0.00066422 0.00000000
0.89208010 1.20619007 0.00137315 0.00000000
1.37853627 0.48692419 -0.00210671 0.00000000
1.38932294 0.15616529 -0.00170523 0.00000000
2.91638287 1.47398743 -0.00135528 0.00000000
0.70005316 1.07860385 -0.00431401 0.00000000
0.75253528 0.18921348 -0.00297123 0.00000000
4.37652937 0.62929712 0.00144126 0.00000000
3.09240338 0.58823067 -0.00106394 0.00000000
0.15178126 0.78395406 0.00267231 0.00000000
0.55387115 0.89486344 -0.00222230 0.00000000
1.09462111 1.42670323 0.00024628 0.00000000
3.47603694 0.47812676 0.00063629 0.00000000
3.09766784 0.48761236 -0.00335016 0.00000000
2.36070781 0.76017274 -0.00011903 0.00000000
4.77709905 1.57702194 0.00032565 0.00000000
2.37148540 0.24804909 0.00010529 0.00000000
1.22069626 0.14142147 -0.00401965 0.00000000
0.88814699 1.68036404 0.00009283 0.00000000
0.05379317 0.53988501 0.00319235 0.00000000
0.21862750 1.19474772 -0.00306020 0.00000000
4.55834988 1.62784298 -0.00112776 0.00000000
1.07840559 1.09087894 0.00289891 0.00000000
2.74304055 1.01961094 0.00342919 0.00000000
1.78313774 1.01272674 -0.00031339 0.00000000
4.74602097 1.17581756 0.00032473 0.00000000
2.16732206 0.39660129 -0.00071247 0.00000000
3.07392106 0.34254578 0.00176589 0.00000000
1.18274630 0.11884860 -0.00274195 0.00000000
1.79003311 0.76926820 -0.00396342 0.00000000
1.68733845 0.44657122 0.00107256 0.00000000
0.51135106 0.52663391 0.00122900 0.00000000
2.81326976 1.39747624 0.00009634 0.00000000
1.30189967 1.43180043 0.00307039 0.00000000
0.06522095 0.35508634 -0.00004128 0.00000000
3.88966100 0.52018928 0.00172958 0.00000000
1.61329574 0.97696152 0.00463589 0.00000000
4.67945650 0.80407671 -0.00121253 0.00000000
2.06161177 0.98255735 0.00058278 0.00000000
3.54159736 0.58694915 -0.00317894 0.00000000
1.69623997 1.43953572 -0.00453155 0.00000000
4.25631226 0.30239707 -0.00407161 0.00000000
1.30038544 0.89512632 0.00103727 0.00000000
0.23692023 1.01550215 0.00024471 0.00000000
3.52376172 1.49522467 -0.00377533 0.00000000
2.56505881 1.21222874 0.00078003 0.00000000
1.83717958 0.34977361 0.00079820 0.00000000
1.40506549 1.11645288 0.00081507 0.00000000
3.05829267 0.89484246 0.00147727 0.00000000
3.25846362 0.41004638 0.00058737 0.00000000
3.14196673 0.71454784 0.00037116 0.00000000
3.75091503 1.15657050 0.00403997 0.00000000
3.23119757 0.89569977 -0.00187702 0.00000000
2.32262826 1.78855015 0.00279282 0.00000000
