1.52274671 0.04311177 0.00188101 0.00000000
0.74394684 0.12283361 -0.00081732 0.00000000
2.01535179 1.40549517 0.00352442 0.00000000
2.00980363 1.10805563 0.00191169 0.00000000
2.32127324 2.01609226 0.00147564 0.00000000
3.54345198 1.61116553 -0.00637465 0.00000000
2.31142662 0.88532738 0.00299691 0.00000000
1.23855597 0.95844245 -0.00248305 0.00000000
3.30631085 0.45278589 0.00416782 0.00000000
0.98718879 1.64068394 0.00043164 0.00000000
3.57678884 1.52997294 0.00119886 0.00000000
1.50836274 1.93958032 0.00011672 0.00000000
1.17686912 1.23452999 -0.00317431 0.00000000
3.21899495 1.12002117 0.00458881 0.00000000
3.21010468 1.56677998 0.00029391 0.00000000
3.68394165 2.07609697 0.00038819 0.00000000
3.84284239 0.95825663 -0.00121212 0.00000000
3.37489419 0.54158702 0.00212129 0.00000000
0.93191790 1.65775583 -0.00111745 0.00000000
2.73615484 2.02429182 -0.00010776 0.00000000
3.10640570 0.38136719 -0.00290469 0.00000000
0.80833184 2.05297873 0.00082997 0.00000000
3.20893205 0.19782748 -0.00253627 0.00000000
0.48441460 1.39292946 0.00009620 0.00000000
3.76652571 0.33200013 -0.00123083 0.00000000
3.28980615 1.60394919 -0.00081959 0.00000000
2.64280954 0.28523412 -0.00567087 0.00000000
1.30026276 0.80329551 -0.00267251 0.00000000
2.21097450 0.55856734 0.00215415 0.00000000
2.64693846 0.18019845 0.00196167 0.00000000
2.08326624 1.00262670 0.00032283 0.00000000
0.29406394 1.83091005 0.00300949 0.00000000
1.12739926 1.31806715 0.00172691 0.00000000
0.88600795 1.54241380 0.00196784 0.00000000
0.74293090 0.85144463 0.00340372 0.00000000
1.79288761 0.73602886 0.00211600 0.00000000
3.60741029 0.61306237 0.00420794 0.00000000
0.61241636 2.05062888 -0.00156829 0.00000000
4.03005226 1.77190909 0.00379689 0.00000000
2.16096578 1.16116502 0.00535643 0.00000000
3.43181734 1.45277554 -0.00195348 0.00000000
1.94763613 1.64816369 -0.00081707 0.00000000
1.80058683 0.44764652 -0.00289209 0.00000000
2.42530840 1.14903276 -0.00231105 0.00000000
2.55705401 1.08731454 0.00000580 0.00000000
0.30463564 1.92967228 -0.00014800 0.00000000
3.35274763 1.04949427 -0.00058177 0.00000000
1.80741686 1.18773953 -0.00109595 0.00000000
0.30422215 0.33158271 -0.00008719 0.00000000
2.96615625 1.96055104 -0.00237522 0.00000000
3.37678753 1.30528722 0.00101612 0.00000000
0.38097294 2.10895616 -0.00144994 0.00000000
3.60079524 0.87495671 -0.00064356 0.00000000
1.54676690 1.97989186 -0.00418533 0.00000000
3.33425780 0.04674441 -0.00178520 0.00000000
3.39164924 0.04633634 0.00060720 0.00000000
0.74442087 0.02154295 -0.00151100 0.00000000
0.52704533 2.06161442 -0.00269857 0.00000000
0.38005279 1.22413394 -0.00451040 0.00000000
2.86512330 0.10512351 0.00279900 0.00000000
1.18570667 2.08057486 0.00229764 0.00000000
3.29895638 1.42873155 -0.00145107 0.00000000
2.59491922 1.17049079 -0.00341106 0.00000000
1.67057999 2.15035612 0.00211821 0.00000000
3.86487597 1.40031567 -0.00035466 0.00000000
3.54284699 0.45338512 -0.00607070 0.00000000
3.35668571 0.45863149 0.00096144 0.00000000
0.48371023 0.14814041 -0.00433497 0.00000000
2.94725883 1.49686699 0.00113503 0.00000000
0.83504753 1.21676588 0.00214135 0.00000000
3.05109445 1.12186693 -0.00245355 0.00000000
1.99564885 0.35193912 0.00204886 0.00000000
1.45551853 0.82790805 0.00128786 0.00000000
3.92992079 1.03000606 -0.00204468 0.00000000
2.24751645 2.14568999 -0.00179060 0.00000000
2.08735001 0.13251251 -0.00386298 0.00000000
3.81654197 0.63045756 0.00127151 0.00000000
1.50923502 0.55227622 0.00115399 0.00000000
3.48492747 0.93335266 0.00188578 0.00000000
0.67358699 0.10509875 -0.00139253 0.00000000
3.81719976 1.72747346 0.00328927 0.00000000
3.28126507 1.08571942 -0.00333033 0.00000000
3.85304682 0.22719543 -0.00355749 0.00000000
3.44772389 1.68563787 0.00041256 0.00000000
3.31519611 0.07751825 -0.00012650 0.00000000
0.62298974 0.90013737 0.00298269 0.00000000
3.55011521 1.74503995 -0.00189807 0.00000000
3.60647488 0.50670469 0.00222057 0.00000000
2.55382373 0.38589972 -0.00140337 0.00000000
1.68258578 0.91728910 0.00164094 0.00000000
1.33285389 0.43405226 -0.00119266 0.00000000
3.12695238 1.18928644 -0.00093062 0.00000000
0.23478048 1.45756668 0.00213187 0.00000000
2.43398313 0.62928805 -0.00022839 0.00000000
3.45427157 1.11566862 0.00112020 0.00000000
3.30192080 0.03857764 -0.00160643 0.00000000
2.86817623 0.07529803 -0.00289297 0.00000000
2.32901024 2.04196823 -0.00309807 0.00000000
3.70920747 1.83574128 -0.00069597 0.00000000
1.11494985 1.93487891 0.00277926 0.00000000
2.10666717 1.32509511 0.00328138 0.00000000
0.89714255 2.09154723 -0.00100419 0.00000000
3.32063801 1.14479347 -0.00168562 0.00000000
0.55979383 2.14461531 0.00050248 0.00000000
1.13084805 0.43749705 0.00778963 0.00000000
0.89011937 1.11100539 -0.00038446 0.00000000
2.14530743 1.06493159 0.00041284 0.00000000
2.93156670 0.35388577 -0.00313022 0.00000000
1.46678178 1.70456009 -0.00085084 0.00000000
0.82665335 1.10875131 0.00520363 0.00000000
1.34027229 0.27166891 0.00389019 0.00000000
3.85298676 1.92985384 0.00070855 0.00000000
3.14374643 0.79667870 -0.00014079 0.00000000
0.81485563 0.34716823 -0.00222745 0.00000000
0.67386594 1.77914310 -0.00155401 0.00000000
1.85192810 0.31448363 0.00084277 0.00000000
0.32692005 1.85793129 -0.00248402 0.00000000
0.85043179 1.67756353 -0.00137568 0.00000000
0.99824600 0.37443127 -0.00389785 0.00000000
0.96803552 1.86679346 -0.00270585 0.00000000
0.16796292 0.05196358 -0.00230215 0.00000000
3.15018009 1.90902345 0.00071546 0.00000000
2.01320680 0.67489555 0.00002138 0.00000000
1.49844479 0.56366712 0.00003355 0.00000000
1.06757643 0.71359889 -0.00076941 0.00000000
2.82537210 2.14338003 -0.00397842 0.00000000
3.39306110 1.16539417 -0.00205406 0.00000000
2.58917933 0.11889943 0.00088596 0.00000000
4.02378113 1.73339321 -0.00001082 0.00000000
1.96328337 0.73181441 0.00108448 0.00000000
2.22035153 2.03204630 -0.00284468 0.00000000
1.54617586 1.56935505 -0.00219394 0.00000000
3.00049117 0.62471973 0.00253782 0.00000000
1.34968167 0.35730324 0.00163743 0.00000000
3.52028593 0.75044157 0.00375965 0.00000000
0.85659124 0.54127441 -0.00113015 0.00000000
3.53116805 1.33035996 0.00049757 0.00000000
1.75789091 0.47998374 -0.00199530 0.00000000
3.47499144 0.32050019 -0.00562831 0.00000000
2.02173769 1.85488761 -0.00081127 0.00000000
2.40446286 1.54648492 0.00252146 0.00000000
2.91758244 0.31669353 -0.00341466 0.00000000
3.65887422 1.21514402 0.00177997 0.00000000
1.55727435 0.37214168 -0.00088319 0.00000000
3.83795370 0.72978040 0.00124533 0.00000000
0.76036999 1.11992146 -0.00168658 0.00000000
1.35530035 1.49495999 0.00078640 0.00000000
1.22878673 0.17223686 -0.00315566 0.00000000
1.49212298 0.90040783 -0.00403447 0.00000000
3.68918390 1.71089299 0.00129817 0.00000000
3.25712777 1.28283245 -0.00111198 0.00000000
0.57880320 0.90823909 0.00111302 0.00000000
2.16419572 0.77979488 0.00178899 0.00000000
0.90880315 0.08743389 -0.00296452 0.00000000
3.30643950 0.53060812 -0.00114199 0.00000000
0.96417078 1.14425215 -0.00045258 0.00000000
3.52936227 0.74211751 -0.00216685 0.00000000
0.25698067 1.62180718 -0.00196962 0.00000000
1.26335195 0.73373607 0.00229523 0.00000000
2.98272369 1.21909902 0.00004677 0.00000000
1.28003837 1.44785738 -0.00229701 0.00000000
0.04127756 1.58750681 0.00298574 0.00000000
0.11341019 0.27809910 0.00203150 0.00000000
1.71352100 0.88157587 -0.00481227 0.00000000
2.51920241 2.01255025 0.00040135 0.00000000
3.89641358 0.47359612 0.00060751 0.00000000
3.95588086 0.04887144 0.00079601 0.00000000
3.97052702 0.42538254 -0.00091122 0.00000000
3.48024052 1.82843159 -0.00455088 0.00000000
3.38683999 1.24852444 0.00064781 0.00000000
3.84718242 0.36247537 -0.00008150 0.00000000
2.02284465 1.95290430 -0.00483339 0.00000000
3.52517397 0.66043557 -0.00060299 0.00000000
4.08048548 0.01630050 -0.00014182 0.00000000
0.66972807 0.19747084 0.00228511 0.00000000
3.23181685 0.54752019 -0.00176547 0.00000000
0.95841193 0.38872083 -0.00064403 0.00000000
2.80752554 0.36339914 0.00342966 0.00000000
0.18572800 0.29400822 0.00032297 0.00000000
0.58461985 1.64108303 -0.00135074 0.00000000
3.00999744 0.46161559 -0.00000948 0.00000000
0.67584860 1.11605547 0.00452257 0.00000000
0.82739823 1.08604063 0.00033207 0.00000000
0.62956080 1.34864464 -0.00161690 0.00000000
1.96785973 1.40969605 -0.00263238 0.00000000
3.45350790 1.07388631 0.00087816 0.00000000
2.84188678 0.64703687 -0.00319593 0.00000000
2.61162462 0.25773658 -0.00039163 0.00000000
0.71486429 0.72928599 0.00091085 0.00000000
0.79524953 1.72860530 0.00169380 0.00000000
3.77010650 2.13454584 -0.00076442 0.00000000
1.64088626 1.02454426 -0.00076925 0.00000000
3.63627511 1.46410854 0.00036306 0.00000000
2.47782506 1.38160123 0.00453930 0.00000000
1.50914804 0.64966762 -0.00049620 0.00000000
3.42656236 1.83839764 0.00014729 0.00000000
3.35257689 1.78012990 -0.00206248 0.00000000
2.26363092 1.65918175 0.00468212 0.00000000
2.76092073 0.52226240 0.00033255 0.00000000
3.00359351 0.25160856 0.00059202 0.00000000
0.77886635 1.08544129 -0.00161756 0.00000000
3.18767043 1.64039252 -0.00187932 0.00000000
2.06504178 0.98650802 -0.00303115 0.00000000
1.94205734 1.73329727 0.00045137 0.00000000
2.05521400 0.71683960 -0.00484386 0.00000000
3.33297810 0.81800061 0.00078083 0.00000000
1.93549731 0.44472998 -0.00239488 0.00000000
1.51929323 1.12255594 -0.00079635 0.00000000
3.49566827 1.96521663 -0.00014001 0.00000000
2.58183410 0.09400457 -0.00005312 0.00000000
3.87399174 0.20840897 -0.00115902 0.00000000
1.54463273 0.45598658 0.00251859 0.00000000
2.03182975 0.90954346 0.00010398 0.00000000
0.27097709 1.36800545 -0.00399288 0.00000000
3.44728410 0.68037304 -0.00071573 0.00000000
1.09684920 0.49657406 0.00019490 0.00000000
1.63213475 0.87010051 0.00217543 0.00000000
0.24755215 1.09068029 -0.00058562 0.00000000
1.76031869 0.80661341 -0.00103835 0.00000000
1.47065767 1.74661483 -0.00177678 0.00000000
2.84598551 2.12554517 -0.00305376 0.00000000
3.48429452 2.10260733 -0.00154825 0.00000000
1.80590080 1.91026885 0.00301201 0.00000000
4.05347740 0.11349849 -0.00183976 0.00000000
1.34102789 1.87757563 -0.00186445 0.00000000
3.43913451 1.31638041 -0.00332693 0.00000000
3.21183313 0.61042911 -0.00138732 0.00000000
2.10015241 0.43536761 -0.00127983 0.00000000
2.22001986 0.32144609 0.00396232 0.00000000
0.30026857 0.70335308 -0.00046617 0.00000000
3.96423697 1.43767982 0.00026896 0.00000000
3.68378436 1.47537736 -0.00436589 0.00000000
1.47681016 1.99132751 -0.00130001 0.00000000
1.41238858 0.74266542 -0.00137461 0.00000000
2.77242312 0.08492193 -0.00045005 0.00000000
0.94998353 1.85860267 -0.00271380 0.00000000
2.89636351 0.84303009 0.00252969 0.00000000
2.85033625 0.66491003 0.00059020 0.00000000
1.15136362 0.13813107 0.00423153 0.00000000
3.43266366 0.42753867 -0.00079212 0.00000000
0.89512325 1.22326282 -0.00045093 0.00000000
1.08416163 0.69239277 0.00249810 0.00000000
1.10262469 1.00823286 0.00186770 0.00000000
0.95162852 1.87995710 -0.00175175 0.00000000
2.70895496 1.33431393 -0.00358087 0.00000000
2.18857639 0.51842467 0.00232572 0.00000000
3.39336258 0.69728831 -0.00175216 0.00000000
1.44893333 2.10554997 0.00136585 0.00000000
3.50563525 1.71813107 0.00072595 0.00000000
1.12289278 1.87598145 -0.00115000 0.00000000
2.03036240 1.88354206 -0.00394125 0.00000000
0.18584094 0.45097607 0.00013317 0.00000000
0.57518779 1.52332398 0.00010015 0.00000000
3.53980931 0.72110644 -0.00149695 0.00000000
1.40856975 1.83975130 -0.00259152 0.00000000
3.67317430 1.51147140 0.00090162 0.00000000
0.79674485 0.93782933 -0.00172739 0.00000000
4.08825470 1.60585761 0.00043462 0.00000000
1.40407797 0.95367547 -0.00345414 0.00000000
1.68692759 0.90806568 -0.00507161 0.00000000
1.27194533 1.76977102 0.00058485 0.00000000
1.24609454 0.68161233 0.00089341 0.00000000
3.08105786 0.44324986 -0.00198842 0.00000000
0.60909847 1.10264043 -0.00106646 0.00000000
2.89084296 0.20046092 -0.00078211 0.00000000
1.31288887 2.09179826 0.00345204 0.00000000
1.76343225 0.84332335 -0.00073402 0.00000000
0.25211589 0.45733807 0.00087878 0.00000000
1.80505693 0.55215558 0.00354294 0.00000000
2.16968608 1.95923526 0.00046881 0.00000000
1.92626980 1.37727718 -0.00078683 0.00000000
2.89144252 1.34973774 0.00009118 0.00000000
0.53365963 0.73815740 0.00234109 0.00000000
2.10689472 0.98006935 -0.00004201 0.00000000
0.87252458 1.52457842 0.00286255 0.00000000
2.46492740 0.92502529 -0.00281675 0.00000000
0.42970541 0.74161616 -0.00138647 0.00000000
0.06294615 1.81211261 0.00284715 0.00000000
2.52997225 1.44056758 -0.00034019 0.00000000
1.33480154 2.02279701 -0.00235498 0.00000000
2.20400145 0.74092645 -0.00032528 0.00000000
3.93961120 0.49347122 0.00368585 0.00000000
3.33812947 1.60392151 0.00043969 0.00000000
3.44660414 1.60145103 -0.00160755 0.00000000
3.55938824 0.28055979 -0.00271054 0.00000000
1.99690971 1.00670185 -0.00287868 0.00000000
1.39348905 1.89807508 -0.00049152 0.00000000
2.12306647 2.16534552 0.00268933 0.00000000
1.63068777 1.73454854 -0.00206657 0.00000000
1.97509293 1.24511998 -0.00332928 0.00000000
0.83811164 0.49903735 -0.00459087 0.00000000
1.53092105 0.33711272 0.00245095 0.00000000
1.01851608 0.76161953 0.00003945 0.00000000
0.21702494 0.45414295 -0.00260818 0.00000000
4.09452647 1.08288273 -0.00276791 0.00000000
0.47928951 1.83894502 0.00581320 0.00000000
2.11888959 0.03296588 -0.00287100 0.00000000
1.08449883 0.59724291 0.00274774 0.00000000
2.37856050 1.19734567 -0.00253374 0.00000000
2.28336960 0.61802616 -0.00151856 0.00000000
3.39561302 1.60793216 0.00057287 0.00000000
3.08487083 1.24370289 -0.00077734 0.00000000
0.64911520 1.18928009 0.00152849 0.00000000
0.68803939 0.98642287 0.00220304 0.00000000
2.50114727 1.15566987 0.00081102 0.00000000
1.96473183 2.00902871 0.00201821 0.00000000
3.42113744 1.34167789 -0.00383450 0.00000000
0.89906107 2.17625587 -0.00140909 0.00000000
3.20811880 2.15864159 -0.00235355 0.00000000
0.37397025 1.42036500 -0.00112940 0.00000000
0.29991911 1.03001230 -0.00233731 0.00000000
3.55377699 1.43909233 0.00275438 0.00000000
0.61434042 1.04795423 0.00049671 0.00000000
3.46112545 0.81831460 -0.00287464 0.00000000
0.65056185 1.07981148 0.00106849 0.00000000
3.97135575 0.99646703 0.00229860 0.00000000
2.93291204 1.91967501 0.00042504 0.00000000
2.63662045 0.83516684 0.00172907 0.00000000
0.91774981 1.90779721 0.00175100 0.00000000
1.84491079 1.64497645 0.00214718 0.00000000
2.71349788 0.39588805 -0.00077178 0.00000000
3.95407765 0.34475030 -0.00226130 0.00000000
1.62468100 0.36529094 0.00315671 0.00000000
3.44889574 0.95409380 -0.00336074 0.00000000
1.38479854 0.46769742 0.00068303 0.00000000
3.26667976 1.40955031 -0.00023827 0.00000000
2.95355168 1.40504996 -0.00265920 0.00000000
2.21642948 1.45552080 0.00089266 0.00000000
0.30317771 1.21045644 0.00225935 0.00000000
2.66319767 1.66682458 0.00026823 0.00000000
3.55416597 0.31185886 0.00003177 0.00000000
1.43213779 0.47399045 -0.00183386 0.00000000
1.12954667 1.14876835 -0.00329643 0.00000000
3.20002712 0.34352895 -0.00200836 0.00000000
2.25611596 1.61038184 0.00088446 0.00000000
2.11422562 1.14495039 0.00266645 0.00000000
0.96416442 2.03242852 -0.00262305 0.00000000
1.06045835 0.09171663 0.00200301 0.00000000
3.47209888 1.47170179 -0.00032768 0.00000000
3.65784335 0.53464594 -0.00023052 0.00000000
0.81209133 1.98398463 0.00569461 0.00000000
0.50662824 0.80757698 0.00089196 0.00000000
0.84495222 0.80508925 -0.00123143 0.00000000
3.04242911 0.70494359 0.00215432 0.00000000
0.81376349 0.66233216 -0.00207811 0.00000000
0.55295313 0.36848426 -0.00355484 0.00000000
3.73799428 0.36347114 0.00307820 0.00000000
0.82908777 1.89666032 0.00166627 0.00000000
3.93646208 0.44805498 -0.00083241 0.00000000
1.53595028 0.28735612 -0.00062571 0.00000000
0.30108180 0.48472518 -0.00433063 0.00000000
2.09347726 2.03538120 0.00026240 0.00000000
0.51354906 0.22119102 0.00390792 0.00000000
0.19267298 1.38509586 -0.00068625 0.00000000
1.92051209 0.45395293 0.00099453 0.00000000
2.54337474 1.34850926 -0.00236897 0.00000000
0.61852681 1.06080885 0.00057380 0.00000000
3.36031883 0.66393288 -0.00051798 0.00000000
4.09432224 1.30543308 0.00118485 0.00000000
1.51564515 2.07303926 0.00065063 0.00000000
1.96683567 0.08733870 0.00412139 0.00000000
0.89233877 0.86292049 -0.00198167 0.00000000
1.69356200 0.36609658 -0.00203165 0.00000000
2.91647046 1.24650176 0.00050990 0.00000000
3.91479412 0.68393206 0.00095741 0.00000000
0.45578719 0.82661347 0.00104349 0.00000000
3.38291446 2.06986929 0.00562508 0.00000000
3.67282844 0.45774270 -0.00300689 0.00000000
3.05599952 1.10551042 0.00253051 0.00000000
1.60110786 0.15838694 0.00083314 0.00000000
3.31449149 1.58872780 -0.00159221 0.00000000
3.32752602 0.53863803 0.00088197 0.00000000
2.62370630 2.06188227 0.00057961 0.00000000
0.42792149 0.47232063 0.00594268 0.00000000
3.25770625 2.07213170 0.00149016 0.00000000
3.76238775 0.86458014 0.00403782 0.00000000
1.89365331 0.83456117 0.00339384 0.00000000
2.67324871 0.10935592 -0.00056675 0.00000000
2.84839322 1.17888796 -0.00100353 0.00000000
0.07010790 1.59349199 -0.00107525 0.00000000
2.80701983 0.64553060 -0.00058888 0.00000000
1.26285670 0.17472307 0.00013747 0.00000000
2.77775489 0.83689674 -0.00249766 0.00000000
1.50842065 1.55704568 0.00265265 0.00000000
0.60479439 0.46535172 0.00295086 0.00000000
3.01316063 0.45253339 0.00139704 0.00000000
2.46026293 1.07629979 0.00241625 0.00000000
0.82967151 0.21003970 -0.00000987 0.00000000
0.12692448 1.23480599 -0.00040970 0.00000000
1.39401275 0.86839221 0.00268610 0.00000000
3.14572050 1.14427776 0.00098735 0.00000000
1.84481427 0.11936565 0.00288123 0.00000000
4.04145274 2.11974265 -0.00152518 0.00000000
0.01796690 0.70073874 -0.00361131 0.00000000
0.37837708 1.62918994 -0.00109394 0.00000000
1.32389979 0.06050080 0.00328090 0.00000000
3.64064964 0.06029322 -0.00045985 0.00000000
3.35796021 0.56053491 0.00472985 0.00000000
1.96517643 1.77443194 -0.00075069 0.00000000
1.75722000 0.63453429 -0.00121128 0.00000000
3.29622602 1.63864135 -0.00551169 0.00000000
1.60274600 2.16363313 -0.00100230 0.00000000
2.77840335 0.43882968 -0.00442993 0.00000000
0.89376347 1.01701606 -0.00171606 0.00000000
2.85764318 1.68463795 0.00072734 0.00000000
3.98228108 1.38661743 -0.00037054 0.00000000
1.36651464 0.49226015 0.00247449 0.00000000
1.91983274 0.33012457 -0.00035544 0.00000000
0.53981588 1.88674931 -0.00329703 0.00000000
3.31980653 1.34476790 0.00000739 0.00000000
0.89139186 1.44223245 -0.00099061 0.00000000
1.26993475 0.06013834 -0.00116698 0.00000000
0.15396518 1.81275031 -0.00141011 0.00000000
1.67336994 1.49738945 -0.00185161 0.00000000
2.00451406 0.28010366 0.00010654 0.00000000
1.71611989 2.07957934 0.00314721 0.00000000
0.44729026 1.91933058 -0.00068107 0.00000000
2.36589660 0.44353978 -0.00133919 0.00000000
2.43396050 1.54696815 0.00585207 0.00000000
0.00158177 0.03816408 0.00142592 0.00000000
2.29141099 0.34520838 -0.00068914 0.00000000
3.91390176 0.06754196 0.00066842 0.00000000
3.15926842 1.42469129 -0.00210698 0.00000000
2.73570434 0.99205928 -0.00019139 0.00000000
0.26136176 1.43974823 0.00007926 0.00000000
0.14132482 1.35303044 0.00109713 0.00000000
0.61321530 1.47230613 -0.00068138 0.00000000
2.42363352 1.30209941 -0.00391301 0.00000000
2.52116246 1.76074282 -0.00199715 0.00000000
3.25561026 0.81680280 0.00377922 0.00000000
0.45691745 0.66458609 0.00401973 0.00000000
0.81735853 0.17661559 0.00153481 0.00000000
1.06153378 1.30982171 0.00040071 0.00000000
3.67681191 0.52639909 -0.00196225 0.00000000
0.27416398 0.31902042 -0.00005893 0.00000000
0.82100371 1.30227320 0.00296264 0.00000000
2.92029098 0.33529602 -0.00137138 0.00000000
0.13856241 0.85378858 0.00350352 0.00000000
4.05576787 0.74718585 0.00200387 0.00000000
0.59355509 2.07003317 -0.00049605 0.00000000
2.90706143 0.73316849 -0.00186509 0.00000000
2.69161023 0.47427849 -0.00073742 0.00000000
0.61397205 1.98687694 -0.00019366 0.00000000
2.56479319 2.10020380 -0.00054480 0.00000000
0.32585631 1.79271590 0.00326934 0.00000000
3.01412829 0.65883675 -0.00227369 0.00000000
1.07809065 0.85290443 0.00092440 0.00000000
0.59455372 1.22469866 0.00339509 0.00000000
0.39339967 0.77410236 0.00186845 0.00000000
3.40016205 1.01160671 0.00118610 0.00000000
1.24191991 0.58359415 0.00223650 0.00000000
3.00377732 0.86399978 -0.00157061 0.00000000
0.91449838 0.11214690 -0.00522929 0.00000000
2.69660117 0.47746762 -0.00427935 0.00000000
0.93623693 2.15129072 0.00162347 0.00000000
2.95893065 0.67021755 -0.00184908 0.00000000
0.06196455 1.01762035 0.00065890 0.00000000
4.06455005 1.71009683 0.00152099 0.00000000
1.99880964 0.46759409 0.00096029 0.00000000
2.04826548 0.76727403 0.00019314 0.00000000
1.04296558 1.20086801 -0.00100807 0.00000000
3.96104648 2.03879402 0.00064903 0.00000000
2.64021679 2.17659775 -0.00072482 0.00000000
1.67746684 0.23331470 0.00085247 0.00000000
3.31869848 2.06611607 -0.00329004 0.00000000
3.95472431 1.34881093 -0.00277416 0.00000000
3.34226365 2.01661855 -0.00102926 0.00000000
3.71231698 1.06025268 0.00132105 0.00000000
1.51376441 0.99638368 -0.00246363 0.00000000
1.74341102 0.61142987 -0.00264624 0.00000000
2.71919981 1.02892935 0.00040530 0.00000000
2.22583133 2.11458155 -0.00056389 0.00000000
3.71003884 0.99775938 0.00216701 0.00000000
2.67257941 0.86265038 -0.00127500 0.00000000
1.05850278 0.59794490 -0.00002435 0.00000000
3.94559326 0.44839302 -0.00036960 0.00000000
3.79095152 0.70239536 -0.00159215 0.00000000
2.86002477 1.84552360 -0.00367596 0.00000000
1.41598724 1.48844668 0.00200546 0.00000000
2.24874796 0.67602228 -0.00293638 0.00000000
0.58764723 0.29540600 0.00167344 0.00000000
1.60800992 0.08113260 -0.00226415 0.00000000
3.57529540 0.40797059 -0.00224300 0.00000000
2.18344448 0.08568899 0.00541052 0.00000000
3.81207445 0.36011166 0.00141875 0.00000000
0.61095744 1.33015306 -0.00123309 0.00000000
0.06160330 1.67773136 -0.00085744 0.00000000
0.69708829 1.22744097 -0.00326811 0.00000000
2.51783144 0.70456986 -0.00075071 0.00000000
4.00243182 1.96414186 -0.00185612 0.00000000
0.33519052 1.44252160 0.00371558 0.00000000
3.88322666 1.04509371 -0.00087275 0.00000000
0.41823435 0.80451215 -0.00006744 0.00000000
0.38029759 0.54571424 0.00260866 0.00000000
3.99316090 0.77528571 -0.00522527 0.00000000
3.65073944 0.77945059 0.00205200 0.00000000
1.29969356 0.18107224 0.00261037 0.00000000
3.83676302 2.05158021 -0.00165138 0.00000000
3.27189998 1.72116415 -0.00515869 0.00000000
3.46360530 1.82438581 0.00152077 0.00000000
1.98882472 1.59210309 -0.00242074 0.00000000
0.10119953 1.75142872 -0.00132065 0.00000000
2.49790489 0.16711199 -0.00185082 0.00000000
0.54173433 2.12213894 -0.00196119 0.00000000
2.04377836 1.67435169 0.00267296 0.00000000
2.47879415 0.53781767 0.00144125 0.00000000
3.27337250 2.16716138 -0.00048293 0.00000000
3.14492063 0.05532717 0.00203779 0.00000000
1.20281430 0.76174153 -0.00233459 0.00000000
1.02475040 0.96810941 0.00287305 0.00000000
0.61282004 2.15258925 -0.00529737 0.00000000
2.73697369 1.79029439 0.00213823 0.00000000
1.15363769 0.02079161 0.00377292 0.00000000
1.05931868 1.06478739 0.00182181 0.00000000
3.84720851 2.10098513 -0.00062613 0.00000000
1.10043828 0.23561539 0.00166357 0.00000000
4.09819556 0.26966085 0.00363313 0.00000000
3.79802418 1.36970317 0.00208245 0.00000000
1.73529783 1.79851778 0.00021977 0.00000000
2.05164584 1.59371979 -0.00060553 0.00000000
3.28411881 0.68312370 0.00084121 0.00000000
3.79708723 0.59228534 0.00053094 0.00000000
2.53555904 1.01134502 -0.00124414 0.00000000
0.36461314 0.00128266 -0.00143528 1.00000000
2.75702443 -0.00204576 -0.00297109 1.00000000
0.37141310 -0.00086200 -0.00344691 1.00000000
0.44706154 -0.00020470 0.00102533 1.00000000
2.01461755 0.00197567 -0.00507923 1.00000000
1.56456977 -0.00140783 0.00220669 1.00000000
0.63688563 -0.00127723 -0.00104570 1.00000000
1.03686288 0.00152115 0.00294539 1.00000000
0.38191242 0.00188436 0.00404615 1.00000000
3.36577933 0.00053673 -0.00461751 1.00000000
3.66040787 -0.00447356 0.00459947 1.00000000
2.80025212 -0.00563926 -0.00364097 1.00000000
2.69411169 0.00300389 -0.00067088 1.00000000
3.72803542 0.00310245 0.00481701 1.00000000
1.39141155 0.00011460 -0.00016483 1.00000000
0.00980483 -0.00060665 -0.00179515 1.00000000
3.11373893 -0.00079593 0.00148408 1.00000000
0.19632580 -0.00241466 -0.00034343 1.00000000
2.68647261 -0.00261509 -0.00319151 1.00000000
2.29542433 0.00018047 0.00066620 1.00000000
3.64939539 0.00126740 0.00128035 1.00000000
1.48621369 -0.00145149 0.00300986 1.00000000
1.04149352 -0.00017743 0.00321872 1.00000000
2.70669904 0.00189203 0.00045737 1.00000000
1.77099765 0.00003570 -0.00032524 1.00000000
1.26924383 -0.00059159 0.00448597 1.00000000
0.22262062 -0.00139200 0.00106906 1.00000000
0.01924259 0.00077411 -0.00102024 1.00000000
2.86683639 -0.00063519 -0.00050518 1.00000000
0.01929597 0.00615863 0.00201104 1.00000000
2.68536487 0.00340769 -0.00013706 1.00000000
3.77990542 -0.00201756 -0.00271778 1.00000000
2.58314058 -0.00123423 0.00278750 1.00000000
0.31678902 -0.00238383 -0.00046344 1.00000000
1.27605133 -0.00312035 -0.00106579 1.00000000
0.78257678 0.00278447 0.00028788 1.00000000
3.62659829 0.00323099 -0.00128581 1.00000000
3.01164165 -0.00491167 0.00062701 1.00000000
3.91909286 0.00258803 0.00089077 1.00000000
1.54245488 0.00084105 -0.00053837 1.00000000
0.24664941 -0.00064052 -0.00594371 1.00000000
0.68722897 0.00437724 -0.00058311 1.00000000
2.16389767 -0.00293834 -0.00042304 1.00000000
3.40837369 -0.00059845 0.00172349 1.00000000
0.97925840 -0.00002342 -0.00033069 1.00000000
3.77197809 -0.00224242 -0.00079332 1.00000000
0.41055209 -0.00079952 0.00185200 1.00000000
4.03137427 0.00143351 0.00668278 1.00000000
3.17916103 -0.00090773 -0.00152173 1.00000000
3.82397782 0.00098840 -0.00401890 1.00000000
3.68207327 0.00031750 -0.00303671 1.00000000
0.61150171 -0.00071779 -0.00474601 1.00000000
1.28365978 0.00019560 0.00084763 1.00000000
0.10386701 -0.00071241 0.00070881 1.00000000
3.26408540 0.00074932 -0.00178994 1.00000000
3.49078931 -0.00146755 0.00045078 1.00000000
2.14362946 0.00108937 0.00238802 1.00000000
0.48522044 -0.00360890 0.00261991 1.00000000
0.12263436 -0.00115818 0.00079010 1.00000000
0.30280391 -0.00319978 -0.00059797 1.00000000
3.64831309 0.00253351 -0.00142673 1.00000000
1.68701124 0.00324497 0.00274638 1.00000000
2.09798615 0.00138351 0.00233774 1.00000000
3.90642094 0.00127478 0.00098049 1.00000000
3.90289005 0.00159520 0.00262015 1.00000000
2.24159545 -0.00057632 0.00215354 1.00000000
3.53802602 0.00318924 -0.00177287 1.00000000
2.61466086 0.00191218 0.00384522 1.00000000
3.07813779 0.00156694 -0.00047994 1.00000000
3.04943455 -0.00124248 0.00290576 1.00000000
2.40510832 -0.00376543 0.00128646 1.00000000
1.38104359 0.00000282 0.00672666 1.00000000
1.61701187 0.00354305 -0.00009820 1.00000000
0.78283569 0.00162581 0.00451861 1.00000000
1.06879931 0.00387190 -0.00129660 1.00000000
1.45970588 -0.00201424 0.00048582 1.00000000
1.98189223 -0.00045941 0.00492925 1.00000000
2.12594441 -0.00194262 -0.00262390 1.00000000
3.83903065 0.00130262 0.00483164 1.00000000
0.08185654 0.00207736 0.00098850 1.00000000
0.74448054 -0.00677625 -0.00050789 1.00000000
0.47140520 -0.00612780 0.00070711 1.00000000
1.00516560 -0.00225744 -0.00247999 1.00000000
0.26329305 -0.00004235 -0.00031986 1.00000000
1.52851630 0.00045615 0.00373217 1.00000000
1.96068128 -0.00001145 -0.00176784 1.00000000
3.81169611 0.00433792 -0.00215499 1.00000000
1.06149428 0.00170441 0.00587169 1.00000000
0.04959449 0.00217294 -0.00092286 1.00000000
2.36859835 -0.00219096 0.00481911 1.00000000
1.30887067 0.00257806 -0.00409942 1.00000000
2.56317473 0.00097551 0.00235661 1.00000000
3.74572693 0.00192448 0.00153874 1.00000000
1.95075615 -0.00065330 0.00319791 1.00000000
0.29874243 -0.00335313 -0.00210291 1.00000000
1.56164305 -0.00196476 0.00239445 1.00000000
3.88416011 -0.00116966 0.00246129 1.00000000
2.80270432 0.00015719 -0.00080777 1.00000000
4.08212533 -0.00050725 -0.00271845 1.00000000
2.11141904 -0.00133970 -0.00057960 1.00000000
0.18055472 0.00376865 0.00139540 1.00000000
2.71916922 0.00591851 0.00015132 1.00000000
2.10087423 -0.00207051 0.00512492 1.00000000
3.42396004 -0.00063110 0.00242795 1.00000000
4.01271441 -0.00169112 -0.00041973 1.00000000
1.90330374 0.00040362 0.00091173 1.00000000
2.52895646 -0.00140169 0.00235984 1.00000000
0.09598970 -0.00151218 -0.00031890 1.00000000
0.20612066 -0.00055344 0.00346394 1.00000000
2.94437581 0.00001953 0.00101404 1.00000000
3.40635274 0.00127912 -0.00007602 1.00000000
1.05293684 0.00369622 0.00243719 1.00000000
3.64158720 -0.00169820 -0.00056889 1.00000000
0.81730894 -0.00000526 0.00514293 1.00000000
2.68202623 0.00116783 -0.00086995 1.00000000
0.00272784 0.00298411 -0.00046536 1.00000000
0.12457793 -0.00055495 0.00294375 1.00000000
3.37973491 -0.00349682 0.00249902 1.00000000
1.42927219 0.00187062 0.00002302 1.00000000
1.14885453 -0.00210003 0.00184968 1.00000000
3.34874935 0.00265929 -0.00249293 1.00000000
0.42958927 0.00141228 0.00296160 1.00000000
3.76275914 -0.00268251 -0.00436599 1.00000000
3.99298056 -0.00204818 0.00205338 1.00000000
2.41505720 -0.00215641 0.00119855 1.00000000
3.57736642 -0.00038949 -0.00038106 1.00000000
3.50436212 0.00124113 0.00078001 1.00000000
3.32991473 0.00058428 -0.00226030 1.00000000
1.28592715 -0.00192703 0.00004080 1.00000000
3.56134157 0.00169597 0.00199819 1.00000000
3.36480256 -0.00402960 0.00252700 1.00000000
2.21936938 0.00150288 0.00054720 1.00000000
2.02783284 -0.00200101 -0.00350646 1.00000000
0.12774225 -0.00151460 -0.00252191 1.00000000
3.97536827 0.00009381 0.00058329 1.00000000
2.61141094 -0.00281284 0.00219321 1.00000000
0.64035347 -0.00232913 -0.00082157 1.00000000
1.05595216 0.00303138 0.00025041 1.00000000
1.30194586 0.00051590 0.00534778 1.00000000
2.84752248 0.00002188 0.00149974 1.00000000
2.02412795 -0.00208578 -0.00186207 1.00000000
1.13591366 -0.00340200 -0.00298513 1.00000000
0.24009360 0.00041939 -0.00355337 1.00000000
0.45503418 0.00141893 0.00246173 1.00000000
3.09743819 -0.00371760 -0.00144456 1.00000000
0.01728593 0.00723924 0.00284792 1.00000000
1.28046135 -0.00125677 0.00346454 1.00000000
1.75600306 0.00291702 -0.00267293 1.00000000
0.38191262 0.00322825 -0.00008770 1.00000000
2.12149426 0.00242827 -0.00169336 1.00000000
3.79437874 0.00240055 0.00321098 1.00000000
0.38015253 -0.00491078 0.00031837 1.00000000
2.94104046 -0.00019727 0.00002864 1.00000000
0.98324618 -0.00180840 0.00030649 1.00000000
0.39971476 0.00716940 0.00546399 1.00000000
0.89790822 -0.00288835 -0.00156646 1.00000000
4.03461449 0.00457009 0.00135166 1.00000000
3.89286155 -0.00216329 -0.00031395 1.00000000
3.07547807 0.00272668 -0.00279668 1.00000000
2.47040537 0.00338984 -0.00185324 1.00000000
2.48695029 0.00186849 -0.00231976 1.00000000
0.53682737 0.00090411 -0.00007850 1.00000000
0.78458801 -0.00464014 -0.00018691 1.00000000
0.04942099 -0.00223423 -0.00331135 1.00000000
1.87434977 0.00347488 -0.00106883 1.00000000
3.53698484 0.00046822 -0.00430801 1.00000000
3.74990588 -0.00036008 -0.00237809 1.00000000
2.62545399 0.00183988 0.00125843 1.00000000
0.46085380 0.00326892 -0.00006670 1.00000000
3.16185444 0.00123069 -0.00022295 1.00000000
3.45754505 0.00005382 -0.00189754 1.00000000
3.31148360 0.00212269 -0.00195690 1.00000000
1.25380279 0.00019872 0.00198934 1.00000000
1.69175245 0.00333427 0.00228679 1.00000000
0.31512636 0.00151192 0.00229419 1.00000000
3.49480917 0.00084144 -0.00008604 1.00000000
2.68674197 -0.00537331 0.00071921 1.00000000
3.08290965 0.00284377 0.00264081 1.00000000
1.09073069 0.00185881 -0.00273102 1.00000000
4.05092954 0.00125296 0.00488095 1.00000000
1.78093049 -0.00305635 0.00638728 1.00000000
3.78869529 0.00505383 -0.00209119 1.00000000
3.34511377 -0.00003148 -0.00246449 1.00000000
0.72002097 -0.00377118 -0.00048360 1.00000000
1.31313301 0.00095509 -0.00108332 1.00000000
2.80646438 0.00046472 -0.00031232 1.00000000
1.90483169 -0.00345895 0.00181504 1.00000000
0.34447722 -0.00404446 -0.00078737 1.00000000
3.05251363 -0.00110357 0.00030796 1.00000000
1.78366748 -0.00214516 -0.00188244 1.00000000
2.48446903 0.00072933 -0.00098244 1.00000000
0.00167594 -0.00248572 0.00182583 1.00000000
0.05562691 0.00090500 0.00129803 1.00000000
0.20822898 0.00083054 -0.00390814 1.00000000
0.08339794 -0.00102328 -0.00013788 1.00000000
0.43468723 0.00057295 -0.00211368 1.00000000
3.39442491 -0.00288986 -0.00003390 1.00000000
1.56206720 -0.00311337 0.00570031 1.00000000
3.14821996 0.00277675 0.00090709 1.00000000
3.06474592 0.00321360 0.00186176 1.00000000
3.76536274 -0.00129710 -0.00029549 1.00000000
0.93154957 0.00252624 0.00112286 1.00000000
2.00272814 0.00118217 -0.00348566 1.00000000
0.46090298 0.00108771 0.00126807 1.00000000
2.82029290 0.00013394 0.00153764 1.00000000
1.56092142 0.00236244 0.00444257 1.00000000
1.34237376 -0.00359254 -0.00348964 1.00000000
0.20384826 0.00598195 -0.00239080 1.00000000
3.00580661 -0.00194028 -0.00152751 1.00000000
2.94677018 -0.00219064 0.00659254 1.00000000
4.09446804 -0.00184452 0.00012419 1.00000000
1.23369546 0.00598618 -0.00059028 1.00000000
1.58575091 -0.00019466 -0.00260534 1.00000000
3.84351868 0.00166277 -0.00024573 1.00000000
3.22430800 -0.00095058 0.00110764 1.00000000
0.22218088 0.00160711 -0.00244373 1.00000000
1.96901538 -0.00584175 0.00060471 1.00000000
1.95588938 -0.00395447 -0.00153069 1.00000000
4.02536804 -0.00132980 0.00178771 1.00000000
1.13206291 0.00192977 0.00239929 1.00000000
3.00175364 0.00008151 0.00635906 1.00000000
1.06795816 0.00514396 0.00216591 1.00000000
2.25364676 -0.00479073 0.00066235 1.00000000
0.25713528 -0.00083964 0.00086205 1.00000000
3.24396920 -0.00133265 -0.00040540 1.00000000
0.56308078 0.00063204 0.00191220 1.00000000
3.90747759 0.00008399 -0.00413950 1.00000000
2.30591190 -0.00379334 -0.00081847 1.00000000
3.03295483 -0.00266676 0.00008213 1.00000000
1.05392857 0.00003317 -0.00120082 1.00000000
1.99210013 0.00339297 0.00452765 1.00000000
4.00189357 0.00292797 0.00583195 1.00000000
2.05171025 0.00156907 0.00023698 1.00000000
2.46963044 0.00059111 0.00462605 1.00000000
0.58512619 0.00034766 0.00371543 1.00000000
3.92389471 0.00031341 0.00328508 1.00000000
2.21364571 0.00301210 -0.00153591 1.00000000
0.69119106 0.00178050 0.00217789 1.00000000
0.10581902 0.00207932 0.00016843 1.00000000
0.22686737 -0.00462319 0.00035431 1.00000000
0.72475541 -0.00263652 0.00228136 1.00000000
3.93937583 0.00346486 0.00171932 1.00000000
1.23089411 -0.00597001 0.00148089 1.00000000
3.82572625 -0.00008301 -0.00014784 1.00000000
2.91024342 0.00087582 0.00369559 1.00000000
2.67498900 0.00600418 -0.00188256 1.00000000
1.14592415 -0.00048922 0.00094641 1.00000000
1.86408691 -0.00098966 -0.00007264 1.00000000
2.47073877 0.00030824 -0.00444865 1.00000000
3.42040089 0.00098675 0.00244264 1.00000000
3.71581405 0.00093797 -0.00040778 1.00000000
1.90226933 -0.00094882 0.00218306 1.00000000
0.67034496 0.00074879 0.00052744 1.00000000
2.29105178 0.00101879 0.00195964 1.00000000
1.54602463 0.00011082 -0.00052371 1.00000000
3.79806139 0.00288216 0.00014121 1.00000000
3.38437399 0.00376466 0.00254457 1.00000000
0.06032910 0.00141924 0.00281049 1.00000000
1.93853041 0.00080353 0.00133132 1.00000000
4.09236035 -0.00479796 -0.00146470 1.00000000
2.13747131 -0.00010953 0.00076368 1.00000000
0.39038021 -0.00061799 -0.00383873 1.00000000
1.09884715 0.00242697 -0.00025877 1.00000000
2.07238898 0.00252023 0.00038585 1.00000000
2.74994564 0.00073151 0.00005762 1.00000000
0.33229982 -0.00474411 -0.00178643 1.00000000
1.21349425 -0.00076840 -0.00275426 1.00000000
2.34134366 -0.00017924 0.00306089 1.00000000
2.71078949 -0.00425808 0.00075660 1.00000000
0.02119808 0.00217983 -0.00339548 1.00000000
3.61378501 -0.00146168 -0.00209967 1.00000000
2.46122260 0.00423946 0.00089868 1.00000000
3.85195749 -0.00245715 0.00037246 1.00000000
3.52225391 -0.00157273 -0.00344227 1.00000000
2.21782863 -0.00394067 0.00342874 1.00000000
0.06883190 0.00170567 -0.00221417 1.00000000
2.48064760 0.00025031 0.00270455 1.00000000
2.98227332 -0.00395449 -0.00190103 1.00000000
1.12996948 0.00106267 0.00451086 1.00000000
0.31467271 0.00295472 -0.00119440 1.00000000
3.17454914 -0.00110013 -0.00132398 1.00000000
3.01894838 -0.00075130 0.00335219 1.00000000
0.46953878 -0.00126812 0.00378447 1.00000000
2.13542601 0.00044436 -0.00203815 1.00000000
3.53928430 0.00237512 0.00296268 1.00000000
1.34617942 0.00134760 -0.00482894 1.00000000
1.43443743 0.00063258 -0.00111955 1.00000000
3.37330192 -0.00331506 -0.00301182 1.00000000
3.49501305 0.00402176 -0.00219726 1.00000000
1.81875190 0.00028736 -0.00110548 1.00000000
1.90236612 -0.00113185 -0.00255812 1.00000000
1.43032847 0.00268108 -0.00037038 1.00000000
3.10724796 0.00081698 -0.00236937 1.00000000
2.24672791 0.00157458 0.00185935 1.00000000
2.48930324 0.00182953 -0.00213234 1.00000000
1.58358871 0.00131819 0.00124605 1.00000000
2.53486550 -0.00221394 0.00256624 1.00000000
1.04132944 0.00002308 0.00070125 1.00000000
0.21655876 0.00016454 -0.00265630 1.00000000
3.44337773 -0.00385899 0.00096419 1.00000000
0.96894511 -0.00014594 -0.00229109 1.00000000
1.81551565 0.00157995 0.00147869 1.00000000
2.14350988 -0.00078295 -0.00513229 1.00000000
1.15744254 0.00150749 0.00097539 1.00000000
0.32067275 -0.00177299 -0.00243207 1.00000000
3.90100358 -0.00116893 0.00162233 1.00000000
3.35063251 0.00043296 -0.00263805 1.00000000
2.90966692 -0.00141118 0.00134838 1.00000000
0.17593954 -0.00342498 0.00353360 1.00000000
1.41161124 -0.00260127 -0.00282733 1.00000000
2.46445125 0.00023207 0.00103136 1.00000000
2.06228589 0.00069105 -0.00276852 1.00000000
0.80301594 0.00015468 -0.00147997 1.00000000
1.81867699 0.00080123 -0.00254279 1.00000000
2.52318338 -0.00336291 0.00085156 1.00000000
2.99565783 0.00134281 0.00038168 1.00000000
3.52185384 0.00005975 -0.00121208 1.00000000
2.99716452 -0.00223094 -0.00059230 1.00000000
1.39929079 0.00122489 -0.00113113 1.00000000
1.86719343 0.00055771 0.00423978 1.00000000
3.59996340 -0.00075363 0.00516570 1.00000000
3.41865945 0.00235442 0.00179006 1.00000000
1.58168233 -0.00396834 0.00138039 1.00000000
1.12308929 -0.00214859 0.00200091 1.00000000
1.23165798 -0.00275034 0.00036985 1.00000000
4.03648062 0.00324119 0.00158830 1.00000000
2.67927835 0.00194698 0.00315648 1.00000000
1.46333185 -0.00386424 0.00297136 1.00000000
0.18852927 0.00019088 0.00073789 1.00000000
0.56841893 0.00620686 -0.00116069 1.00000000
3.15586045 0.00489613 -0.00242771 1.00000000
2.39413187 -0.00064799 -0.00349248 1.00000000
1.03087623 0.00133990 -0.00084613 1.00000000
1.56939236 0.00523359 0.00039550 1.00000000
3.08340491 -0.00371912 0.00210455 1.00000000
3.29190365 0.00184684 -0.00706366 1.00000000
1.26615725 -0.00116916 -0.00227850 1.00000000
1.05064465 0.00073351 -0.00211555 1.00000000
0.56248289 -0.00176794 0.00136188 1.00000000
1.05095414 -0.00437104 0.00468699 1.00000000
0.09787497 -0.00137457 0.00034860 1.00000000
1.98549774 0.00210236 0.00070342 1.00000000
1.00140526 0.00314405 0.00646963 1.00000000
0.45781261 -0.00136640 -0.00579408 1.00000000
2.94492349 0.00158008 0.00142362 1.00000000
1.90022985 -0.00324403 -0.00439855 1.00000000
3.11265386 0.00425493 0.00178494 1.00000000
2.55265873 0.00278972 -0.00150485 1.00000000
0.18530770 -0.00392291 -0.00289910 1.00000000
0.88925317 0.00221004 -0.00155289 1.00000000
0.91260109 -0.00106997 -0.00114822 1.00000000
1.25348075 -0.00172574 -0.00043114 1.00000000
0.01821917 -0.00076655 0.00301235 1.00000000
2.96129520 -0.00692206 -0.00254841 1.00000000
0.97985852 0.00198355 0.00025638 1.00000000
0.42020304 -0.00045196 -0.00081417 1.00000000
3.31833609 0.00257388 -0.00103619 1.00000000
2.28627383 -0.00301519 0.00187824 1.00000000
1.67515212 -0.00041973 0.00339360 1.00000000
0.23797044 -0.00022021 0.00268601 1.00000000
3.80362531 -0.00022970 0.00186049 1.00000000
3.06971399 0.00225113 -0.00404625 1.00000000
3.57895350 -0.00043028 -0.00193607 1.00000000
3.43882915 -0.00333421 0.00188224 1.00000000
0.95742587 0.00339132 0.00027481 1.00000000
0.86159595 -0.00054826 0.00273937 1.00000000
1.44914820 0.00033069 0.00076078 1.00000000
0.83400223 0.00384654 -0.00236330 1.00000000
2.03019825 -0.00004463 0.00350989 1.00000000
2.28597829 0.00121222 -0.00257512 1.00000000
2.12160608 0.00100427 -0.00439910 1.00000000
2.57953341 0.00517557 -0.00066241 1.00000000
0.85456648 -0.00176887 0.00032405 1.00000000
2.66660238 0.00358061 -0.00176441 1.00000000
2.53749593 -0.00140896 0.00121761 1.00000000
1.47425594 -0.00036350 -0.00290420 1.00000000
0.28229359 0.00236661 0.00174378 1.00000000
0.12603456 0.00254990 0.00317919 1.00000000
0.36279475 -0.00020457 0.00072598 1.00000000
1.77320964 0.00325578 -0.00137711 1.00000000
1.78707575 0.00173088 -0.23971217 0.00000000
0.58677016 0.00329539 -0.23368589 0.00000000
0.66671043 -0.00115821 -0.16829999 0.00000000
1.70924145 0.00006831 -0.19245735 0.00000000
3.02205341 0.00525278 -0.25982822 0.00000000
0.86306835 0.00286479 -0.26367417 0.00000000
3.11679130 0.00602970 -0.16612990 0.00000000
2.05573802 0.00425263 -0.26298048 0.00000000
0.47096028 0.00072036 -0.20023171 0.00000000
0.79261191 0.00358562 -0.01838488 0.00000000
0.77561629 0.00225525 -0.06854606 0.00000000
2.27934636 0.00080088 -0.18899439 0.00000000
1.90740923 0.00149724 -0.25883693 0.00000000
3.06857728 -0.00300044 -0.00160001 0.00000000
0.29314405 0.00220096 -0.19973744 0.00000000
1.61895264 0.00337846 -0.16932882 0.00000000
1.21546079 0.00330088 -0.17309185 0.00000000
2.04257626 -0.00239128 -0.06387631 0.00000000
2.17608343 0.00072808 -0.22971090 0.00000000
0.35338044 0.00510362 -0.23288270 0.00000000
3.56014857 0.00096141 -0.10889134 0.00000000
0.24915512 -0.00240031 -0.03922880 0.00000000
2.47719728 0.00336953 -0.15154772 0.00000000
2.88818904 0.00053655 -0.08686596 0.00000000
2.29545820 0.00091664 -0.00862201 0.00000000
0.54221219 0.00203983 -0.08148303 0.00000000
2.42619796 -0.00062687 -0.00944216 0.00000000
3.81017005 0.00014320 -0.12333236 0.00000000
0.62721444 0.00697637 -0.15978193 0.00000000
2.68323009 0.00410161 -0.20197678 0.00000000
3.78288293 0.00034734 -0.21399131 0.00000000
1.72562915 -0.00214646 -0.03288026 0.00000000
3.59711149 0.00026657 -0.11676298 0.00000000
2.00434004 -0.00342739 -0.01091009 0.00000000
0.43478442 0.00133152 -0.19838138 0.00000000
1.61784053 -0.00176163 -0.15273558 0.00000000
0.76196791 0.00362815 -0.13987815 0.00000000
3.62441699 0.00280161 -0.14891146 0.00000000
1.64430624 0.00604626 -0.18819029 0.00000000
3.54773543 -0.00098564 -0.16406704 0.00000000
0.19313725 -0.00059500 -0.22406267 0.00000000
0.99323196 0.00469726 -0.08892611 0.00000000
3.69810846 -0.00143524 -0.03600609 0.00000000
2.77909457 0.00768654 -0.25630219 0.00000000
3.01595274 -0.00196374 -0.16670818 0.00000000
2.84418438 0.00292618 -0.21795845 0.00000000
1.05703237 -0.00313016 -0.11895625 0.00000000
0.87768156 0.00107949 -0.09331875 0.00000000
0.16661653 0.00062708 -0.20937816 0.00000000
2.40665723 0.00090041 -0.04369045 0.00000000
0.84597382 0.00329613 -0.14770045 0.00000000
0.77218225 0.00030979 -0.17919737 0.00000000
0.10021424 -0.00109907 -0.12498947 0.00000000
0.65319746 -0.00255831 -0.14909444 0.00000000
2.05362863 -0.00060658 -0.07003644 0.00000000
0.38162008 0.00106895 -0.24101226 0.00000000
4.04599229 -0.00005133 -0.00784439 0.00000000
2.22872427 -0.00221319 -0.08425455 0.00000000
2.24778160 -0.00534887 -0.06515039 0.00000000
3.02881274 0.00048357 -0.15827976 0.00000000
2.20459320 -0.00227934 -0.07323221 0.00000000
3.24945400 0.00260043 -0.05886609 0.00000000
3.02037665 0.00521421 -0.24762430 0.00000000
0.99898803 -0.00005363 -0.10373505 0.00000000
3.28520728 0.00064935 -0.00743721 0.00000000
2.53537973 0.00030821 -0.19959868 0.00000000
2.78322452 0.00483306 -0.24596734 0.00000000
0.06389727 -0.00412079 -0.01172357 0.00000000
1.96519585 0.00270308 -0.12147689 0.00000000
0.29438724 0.00402725 -0.19199105 0.00000000
3.26105132 0.00204932 -0.17043813 0.00000000
1.55808369 -0.00091905 -0.15214990 0.00000000
2.91656460 0.00131489 -0.13096574 0.00000000
1.43095960 0.00141908 -0.26052151 0.00000000
0.21994816 0.00336457 -0.24887393 0.00000000
0.50745845 0.00393171 -0.20631312 0.00000000
2.06591931 -0.00353091 -0.04695586 0.00000000
1.06995677 0.00332730 -0.19081927 0.00000000
0.46959422 0.00320410 -0.23364197 0.00000000
2.83945275 0.00477457 -0.14535008 0.00000000
1.44073962 0.00029814 -0.22911994 0.00000000
0.41445422 -0.00168364 -0.06167088 0.00000000
4.00289957 -0.00143022 -0.15841864 0.00000000
3.47089380 0.00476887 -0.00658437 0.00000000
3.61042080 0.00316005 -0.22326322 0.00000000
0.71212027 0.00226386 -0.06859168 0.00000000
0.60057516 -0.00299151 -0.17169535 0.00000000
2.16212416 -0.00011641 -0.08673794 0.00000000
2.41009324 0.00195270 -0.24422350 0.00000000
2.85404854 -0.00301605 -0.19432725 0.00000000
0.48632028 0.00743274 -0.22081243 0.00000000
1.24747765 0.00061712 -0.24292938 0.00000000
1.32562984 0.00319028 -0.25121039 0.00000000
3.92428796 0.00344308 -0.25139745 0.00000000
2.81830441 0.00120075 -0.25085429 0.00000000
1.62602712 0.00548913 -0.11618185 0.00000000
0.18950025 -0.00288470 -0.02003468 0.00000000
0.36928443 -0.00102121 -0.10679586 0.00000000
2.52245261 0.00158443 -0.22456006 0.00000000
0.69171324 0.00423521 -0.14067450 0.00000000
3.20413368 0.00184860 -0.04355836 0.00000000
1.66543982 0.00654308 -0.23914156 0.00000000
2.30714733 0.00054170 -0.08294569 0.00000000
3.34985140 0.00080186 -0.06600708 0.00000000
1.18650715 0.00274846 -0.19427847 0.00000000
1.89468470 0.00108777 -0.20440206 0.00000000
0.10560086 -0.00022402 -0.03036412 0.00000000
2.88985680 0.00101907 -0.19631420 0.00000000
3.89860985 0.00139101 -0.07476075 0.00000000
0.78569319 0.00096205 -0.07026521 0.00000000
2.66188128 0.00698696 -0.12208565 0.00000000
2.78277639 0.00016307 -0.14565234 0.00000000
1.09520171 0.00419160 -0.20861530 0.00000000
0.08535405 0.00020364 -0.04687569 0.00000000
2.12215187 0.00268064 -0.22438254 0.00000000
2.40115053 0.00596688 -0.22804447 0.00000000
3.35099334 -0.00009116 -0.15476864 0.00000000
4.03066240 0.00076640 -0.25081061 0.00000000
3.96441588 0.00376659 -0.07387671 0.00000000
1.53522160 0.00194736 -0.15775101 0.00000000
1.54764517 -0.00265320 -0.04012508 0.00000000
1.88707327 -0.00019426 -0.18012270 0.00000000
1.13783426 0.00643376 -0.23397678 0.00000000
3.82865520 0.00263942 -0.18185688 0.00000000
0.33501338 0.00371758 -0.11552765 0.00000000
1.00404060 0.00527477 -0.12205632 0.00000000
3.43268532 0.00083696 -0.10888536 0.00000000
0.89912769 0.00259245 -0.20450691 0.00000000
1.33103239 0.00254696 -0.25086018 0.00000000
1.80291941 0.00595855 -0.05591854 0.00000000
0.35336623 -0.00076968 -0.24806757 0.00000000
3.00353317 0.00441219 -0.12235276 0.00000000
1.86269026 -0.00227948 -0.06885969 0.00000000
2.37743909 0.00526645 -0.24633996 0.00000000
3.74548159 0.00047552 -0.14750955 0.00000000
3.01689901 0.00220174 -0.22863686 0.00000000
4.01741603 -0.00035617 -0.09120564 0.00000000
0.65448214 0.00496877 -0.21278766 0.00000000
0.49984422 0.00032596 -0.17424090 0.00000000
2.89715338 0.00281117 -0.16720767 0.00000000
2.85591993 0.00069577 -0.01425587 0.00000000
0.12252014 0.00504307 -0.11503399 0.00000000
0.82001333 0.00132198 -0.05433161 0.00000000
2.65684707 0.00170495 -0.06149871 0.00000000
2.84370585 0.00351209 -0.18547181 0.00000000
0.40499021 -0.00176492 -0.07050335 0.00000000
3.34170175 -0.00309187 -0.09159384 0.00000000
1.94642613 -0.00509099 -0.05369265 0.00000000
2.83037551 0.00338024 -0.10193794 0.00000000
1.23096474 -0.00193947 -0.01318927 0.00000000
2.14444434 0.00253635 -0.21865604 0.00000000
1.68865543 0.00455351 -0.17729737 0.00000000
2.27927051 0.00245600 -0.19364364 0.00000000
4.03479929 0.00302924 -0.04350282 0.00000000
2.42833128 0.00061072 -0.16719496 0.00000000
3.50681897 0.00294573 -0.16443517 0.00000000
0.89029929 0.00312769 -0.25845005 0.00000000
3.94376634 0.00427966 -0.25032358 0.00000000
4.07880527 -0.00043305 -0.13764618 0.00000000
1.84578151 -0.00092501 -0.02628274 0.00000000
2.92223199 -0.00020460 -0.02030946 0.00000000
2.22900212 0.00575384 -0.03094299 0.00000000
3.86315893 0.00112318 -0.08646111 0.00000000
0.91801172 0.00145985 -0.19867391 0.00000000
2.03915003 0.00171973 -0.07485968 0.00000000
0.56858557 -0.00107582 -0.06092679 0.00000000
0.56270311 0.00278336 -0.08292404 0.00000000
0.54709317 0.00055383 -0.17126591 0.00000000
