2.15919161 0.94220123 -0.00256772 0.00000000
4.30662206 0.24631655 0.00278669 0.00000000
3.80562069 0.35452610 -0.00103501 0.00000000
0.90258782 0.71171054 -0.00324423 0.00000000
2.62471071 0.34500976 -0.00463461 0.00000000
3.19953957 1.09954560 0.00279336 0.00000000
3.77589189 1.04969991 -0.00076773 0.00000000
4.05352332 1.42433238 0.00317937 0.00000000
2.67792751 0.79397233 -0.00068410 0.00000000
0.02897625 1.44892059 -0.00073944 0.00000000
3.69226688 1.17115932 0.00143473 0.00000000
3.88458719 0.84518056 -0.00135460 0.00000000
1.90940387 0.41838835 0.00551568 0.00000000
3.13270560 0.47842665 -0.00061337 0.00000000
0.08959424 0.85074983 0.00159771 0.00000000
1.90942811 0.55873760 -0.00065532 0.00000000
0.13244552 0.76049669 0.00223608 0.00000000
0.49142116 0.62705179 0.00087163 0.00000000
3.47961066 1.13750431 0.00051609 0.00000000
3.19995405 0.11339301 -0.00126718 0.00000000
1.87160460 1.47565633 -0.00595540 0.00000000
0.40004626 0.69051059 0.00271476 0.00000000
2.59595214 0.70811758 0.00087521 0.00000000
3.30766457 0.24029990 0.00156548 0.00000000
0.01966946 0.91104467 -0.00031673 0.00000000
1.11396217 0.52183930 -0.00194317 0.00000000
3.22751330 0.57113507 0.00148373 0.00000000
0.77375497 1.39606959 -0.00119764 0.00000000
4.05134502 0.14488000 0.00301784 0.00000000
0.68414387 0.87741652 0.00145792 0.00000000
0.60579344 0.88166721 -0.00056182 0.00000000
4.25857748 0.26111130 -0.00012594 0.00000000
2.75821097 0.59040692 -0.00036857 0.00000000
1.30197140 0.32210513 -0.00251387 0.00000000
3.69942960 0.07585896 -0.00031504 0.00000000
3.21414167 0.23652263 -0.00041652 0.00000000
1.55773151 0.33700551 -0.00089096 0.00000000
0.97552231 0.66748039 -0.00154164 0.00000000
0.77093457 0.29883278 -0.00201780 0.00000000
3.50101424 1.13844285 0.00314764 0.00000000
2.77639347 0.48431867 -0.00233794 0.00000000
2.54080885 0.27883160 -0.00211604 0.00000000
2.07742317 0.03163539 -0.00323311 0.00000000
4.24166377 1.40577039 -0.00299393 0.00000000
2.26539757 0.66714557 0.00233470 0.00000000
4.23243845 0.27186060 -0.00164748 0.00000000
2.11931828 1.45338292 -0.00063333 0.00000000
1.44985239 0.33890350 0.00163163 0.00000000
1.86993566 1.50820101 -0.00484400 0.00000000
0.07398070 1.07965725 -0.00064099 0.00000000
1.94774359 0.14482010 0.00355956 0.00000000
4.27660250 0.79870318 0.00550713 0.00000000
2.26123270 0.91992162 -0.00043908 0.00000000
0.96685892 1.31787261 -0.00302819 0.00000000
2.08803585 1.08587070 0.00284164 0.00000000
3.50019374 0.01647594 -0.00434620 0.00000000
0.75164176 0.58411974 0.00060796 0.00000000
0.41021502 0.09899592 -0.00226397 0.00000000
1.16347999 1.33701713 0.00011533 0.00000000
4.07545832 1.12747557 -0.00411677 0.00000000
1.11193269 1.55883326 0.00104488 0.00000000
2.68766847 0.05257648 -0.00013147 0.00000000
3.89733519 0.23270944 0.00090180 0.00000000
0.19890328 0.07110063 0.00152007 0.00000000
1.68786241 0.36171633 -0.00193785 0.00000000
0.13293472 0.85302433 -0.00126996 0.00000000
2.82916631 0.60740670 0.00304785 0.00000000
2.46943685 0.77397513 -0.00486907 0.00000000
3.64443708 1.55163515 0.00049570 0.00000000
1.24154251 0.96468232 -0.00060226 0.00000000
1.42771031 0.96005337 0.00106300 0.00000000
3.24706385 0.57240449 0.00045836 0.00000000
3.98077735 0.89718474 -0.00374255 0.00000000
2.95840537 1.03094238 0.00487250 0.00000000
0.99755448 0.47124456 -0.00342411 0.00000000
1.42061797 1.44576786 -0.00136842 0.00000000
0.14888774 1.59818196 -0.00084725 0.00000000
3.79362422 0.80238420 -0.00083182 0.00000000
1.44950330 0.54349622 -0.00071166 0.00000000
2.41432061 1.31328671 -0.00135197 0.00000000
0.56697082 1.16166766 -0.00034307 0.00000000
1.00063557 1.15674600 0.00282424 0.00000000
0.85021480 0.26903022 -0.00169983 0.00000000
2.15104208 0.34186907 0.00522337 0.00000000
1.15731877 1.04266345 0.00583770 0.00000000
3.80521259 1.43848111 0.00440584 0.00000000
1.45030498 1.17659846 0.00025540 0.00000000
0.84628627 1.11158889 -0.00128225 0.00000000
3.28214917 0.97669769 -0.00045450 0.00000000
2.90725804 0.37036579 -0.00157199 0.00000000
0.22858322 1.31826621 -0.00227742 0.00000000
2.70062239 0.51894997 0.00143968 0.00000000
1.50374769 0.39049594 -0.00412870 0.00000000
2.84181651 0.15626870 0.00549942 0.00000000
1.56561681 0.18815010 0.00111267 0.00000000
1.25089608 0.95722059 -0.00016780 0.00000000
4.04821049 0.73157836 -0.00280324 0.00000000
1.27205547 0.59727180 0.00181387 0.00000000
3.06158731 0.83434221 0.00015087 0.00000000
2.81149556 0.21637884 0.00263184 0.00000000
1.67001220 0.49161754 -0.00038615 0.00000000
1.02695179 0.97782427 0.00110884 0.00000000
3.98497134 0.12727167 0.00253995 0.00000000
0.77883964 0.51024314 -0.00197784 0.00000000
0.20122150 0.82225011 0.00074572 0.00000000
3.78383592 0.21533481 -0.00375566 0.00000000
0.86822011 1.62778201 0.00379690 0.00000000
3.44406175 0.09761979 0.00536239 0.00000000
3.01944729 0.16100873 0.00077696 0.00000000
1.20543967 1.18807620 0.00173301 0.00000000
1.49680877 1.61854314 -0.00149191 0.00000000
1.28870261 0.79300487 -0.00117583 0.00000000
1.96838801 1.59457935 -0.00039276 0.00000000
4.01299320 0.41249423 0.00041847 0.00000000
1.98831890 0.70735223 0.00442226 0.00000000
0.28390090 0.71502269 -0.00158898 0.00000000
0.63392466 0.58763787 0.00260332 0.00000000
2.54110576 1.57080846 0.00155881 0.00000000
2.64499181 0.01182713 -0.00013593 0.00000000
1.33573367 0.08010990 -0.00473613 0.00000000
1.11179298 0.41544555 -0.00005612 0.00000000
0.75590170 0.18981638 0.00177083 0.00000000
3.67845664 0.15931038 -0.00316015 0.00000000
0.80718421 1.13155305 0.00091583 0.00000000
1.44224658 0.18665157 0.00162268 0.00000000
3.14634804 0.96600359 0.00346283 0.00000000
0.90600646 1.17719752 0.00046910 0.00000000
2.10322155 0.09494889 -0.00333571 0.00000000
2.40046113 0.58655126 0.00031501 0.00000000
1.34855751 1.35581108 0.00189084 0.00000000
2.09125134 1.27118029 -0.00047027 0.00000000
1.50376815 0.10490378 -0.00412405 0.00000000
4.11010436 0.89958917 -0.00307907 0.00000000
0.45953182 0.80726536 0.00375943 0.00000000
3.67445990 1.27438830 -0.00244601 0.00000000
2.52521713 0.96995352 -0.00496502 0.00000000
2.05826379 1.61158130 -0.00303161 0.00000000
3.87882154 0.57024320 0.00083405 0.00000000
3.21069572 1.35078729 0.00462627 0.00000000
1.72613033 1.04343771 0.00340509 0.00000000
2.30609211 0.40113972 -0.00053455 0.00000000
1.33764477 0.05510733 0.00178324 0.00000000
2.59054881 1.23584097 0.00155429 0.00000000
1.49813380 1.27242484 0.00267211 0.00000000
4.28545034 0.35006181 -0.00182745 0.00000000
0.72128471 1.58716585 0.00052035 0.00000000
1.36488328 0.61026971 -0.00652343 0.00000000
2.69634975 1.53142262 0.00042348 0.00000000
2.79669918 1.03160784 0.00549559 0.00000000
2.58730215 0.06497403 -0.00126725 0.00000000
1.12614511 0.38430268 0.00068613 0.00000000
3.94145692 0.94960152 -0.00182579 0.00000000
2.46591930 0.54054644 -0.00046333 0.00000000
0.61954113 1.15403410 0.00101283 0.00000000
2.50577292 1.21189284 0.00161240 0.00000000
3.45377994 1.38385377 0.00145519 0.00000000
2.94870640 1.25402526 0.00028232 0.00000000
3.66906076 0.70332369 0.00352416 0.00000000
2.80980205 0.44519925 0.00119932 0.00000000
1.74246000 1.30191040 0.00236565 0.00000000
3.57092471 1.47547795 -0.00419118 0.00000000
3.45222683 0.19551072 0.00164903 0.00000000
0.99771707 0.60944031 -0.00438089 0.00000000
4.31962429 0.68225966 -0.00124530 0.00000000
3.53097522 1.02944481 0.00393289 0.00000000
4.27730924 0.42433558 0.00102723 0.00000000
2.17800588 0.00479904 -0.00357297 0.00000000
2.60618980 0.97086448 -0.00116230 0.00000000
1.23901283 1.17274502 -0.00068456 0.00000000
1.16948823 0.64136670 -0.00340712 0.00000000
3.63186740 0.30727305 -0.00043772 0.00000000
3.60283152 1.62148588 0.00423416 0.00000000
1.36831407 0.32660275 0.00687474 0.00000000
3.09433809 1.24463509 0.00040664 0.00000000
0.04463345 0.91608809 -0.00194457 0.00000000
1.50219546 0.93608486 -0.00168644 0.00000000
0.32454338 0.56164496 -0.00004193 0.00000000
1.49822989 1.37702234 0.00087752 0.00000000
4.21731671 1.54306054 0.00193801 0.00000000
0.28674383 0.04831096 0.00072450 0.00000000
3.44748364 1.27585656 -0.00096982 0.00000000
0.12211208 1.43967095 0.00340844 0.00000000
2.46830270 0.93307515 -0.00114144 0.00000000
2.29899309 1.64843007 0.00275214 0.00000000
3.38426388 0.97545853 0.00002819 0.00000000
3.88797759 0.73125055 -0.00077933 0.00000000
1.94077433 1.24693034 0.00053228 0.00000000
1.77633842 1.01398956 -0.00015509 0.00000000
0.02609437 0.47366354 -0.00294006 0.00000000
2.62332074 0.73814183 0.00048429 0.00000000
3.01059074 1.01161366 0.00260695 0.00000000
0.35181504 0.00542182 0.00073687 0.00000000
2.12989853 1.04833272 0.00055036 0.00000000
2.00591766 1.12260608 -0.00515223 0.00000000
2.75503682 1.12046679 0.00620691 0.00000000
3.62815744 0.11132526 -0.00073076 0.00000000
0.55740253 0.04010123 0.00349189 0.00000000
3.35893679 0.41196589 -0.00169004 0.00000000
4.30459911 0.28844273 0.00131295 0.00000000
2.90089045 1.07731129 -0.00092949 0.00000000
2.96765578 1.31115088 0.00226250 0.00000000
3.19728925 0.96629027 -0.00096202 0.00000000
3.20590878 0.81297045 -0.00206750 0.00000000
2.38111350 0.60997145 0.00197736 0.00000000
3.47063600 0.62766817 0.00070873 0.00000000
2.50169728 0.45282968 -0.00333052 0.00000000
1.47922270 1.51525107 -0.00074359 0.00000000
3.17698876 0.30815455 0.00056718 0.00000000
1.26560393 1.35095644 -0.00103318 0.00000000
1.29173988 0.83532366 -0.00216968 0.00000000
3.80895655 1.29446077 0.00137376 0.00000000
1.41588055 1.42670947 0.00573855 0.00000000
3.49086603 0.64849343 0.00162225 0.00000000
4.29761183 0.74017505 0.00404466 0.00000000
4.18137340 1.28925204 -0.00305749 0.00000000
3.22376058 0.20790660 -0.00099658 0.00000000
2.39524160 0.77144732 0.00327443 0.00000000
1.81026398 0.59781475 0.00252472 0.00000000
2.26173349 1.48041305 0.00384381 0.00000000
2.42430260 0.42148841 -0.00237274 0.00000000
1.58005885 1.28285030 0.00040063 0.00000000
2.75501792 0.16782352 0.00042512 0.00000000
3.59758992 1.35031422 0.00068709 0.00000000
4.26287362 0.19395843 -0.00127899 0.00000000
2.69677555 0.98994742 -0.00044014 0.00000000
1.06207265 0.26035629 0.00498274 0.00000000
3.85338423 1.61775835 -0.00222765 0.00000000
1.82793600 0.18135144 -0.00133672 0.00000000
2.75926934 1.20334885 -0.00110783 0.00000000
1.94112490 0.78817660 0.00204431 0.00000000
1.77471670 0.38469161 -0.00229072 0.00000000
1.33106195 1.03595710 0.00224966 0.00000000
3.55871874 1.48611095 -0.00363378 0.00000000
1.38972201 0.05131714 -0.00374465 0.00000000
0.23440632 1.26246199 -0.00015462 0.00000000
3.31543056 0.01826079 -0.00309201 0.00000000
1.51217600 1.57701938 0.00097904 0.00000000
1.85922573 0.95294764 -0.00126011 0.00000000
4.30678175 0.39171530 -0.00221494 0.00000000
0.90321987 1.16164159 0.00333137 0.00000000
0.26244490 1.44051636 0.00029282 0.00000000
1.64091875 1.09742167 -0.00027237 0.00000000
2.76367944 0.06331887 0.00268344 0.00000000
0.75568976 1.64520681 -0.00004817 0.00000000
1.01242813 1.41771743 -0.00171023 0.00000000
3.19693769 0.53580999 0.00528741 0.00000000
4.06385012 1.00836391 -0.00154967 0.00000000
1.98957754 0.06568226 0.00165879 0.00000000
0.09080599 1.51855021 0.00479774 0.00000000
3.35439221 0.22392387 -0.00241318 0.00000000
0.30384708 0.30393503 0.00033953 0.00000000
2.94799024 0.58656616 -0.00628388 0.00000000
4.15513739 0.96794834 0.00442960 0.00000000
1.64833943 0.66944344 0.00046615 0.00000000
1.42860569 1.19399812 0.00483913 0.00000000
4.29619919 0.90333494 0.00039390 0.00000000
2.03455034 1.16823190 -0.00143374 0.00000000
3.38603926 0.06678972 0.00219794 0.00000000
3.88587807 0.25533238 -0.00378128 0.00000000
2.76978303 0.25096887 -0.00141755 0.00000000
1.10737083 1.37254109 -0.00116209 0.00000000
3.44863594 0.96276782 0.00329212 0.00000000
2.15575588 1.09655720 0.00030034 0.00000000
0.74388119 0.59328278 0.00440998 0.00000000
3.58339126 1.06754333 0.00028017 0.00000000
0.63356489 0.59568416 0.00239488 0.00000000
3.90412300 0.58408272 -0.00183400 0.00000000
0.55829177 1.05830678 0.00531260 0.00000000
3.95017884 0.22672185 -0.00077356 0.00000000
4.08070935 0.00084731 -0.00244363 0.00000000
2.01126319 0.41287034 -0.00019430 0.00000000
1.51962940 1.05121729 0.00002653 0.00000000
3.12387328 0.06698869 -0.00191817 0.00000000
3.72869118 0.25974865 0.00107377 0.00000000
0.46491331 0.12236602 -0.00465886 0.00000000
3.69178562 0.27015536 0.00210274 0.00000000
4.00975960 1.04173565 -0.00626029 0.00000000
0.00823433 1.15132458 0.00270502 0.00000000
2.62149124 1.11048946 -0.00343199 0.00000000
0.41321835 1.57332222 -0.00094058 0.00000000
1.18255967 1.02857333 0.00098926 0.00000000
2.76929772 1.52622856 -0.00230710 0.00000000
2.06821182 0.91679743 0.00218047 0.00000000
3.01854147 0.07068755 -0.00412730 0.00000000
1.68374091 0.81847147 0.00032784 0.00000000
0.07568011 0.01072658 -0.00346863 0.00000000
4.31655711 1.55321791 0.00223114 0.00000000
0.23811811 0.41552001 0.00108310 0.00000000
0.84085880 0.90517347 0.00139864 0.00000000
3.32430120 0.73701252 0.00349183 0.00000000
0.26078147 0.23192152 0.00287107 0.00000000
3.07305954 0.32899657 -0.00484825 0.00000000
1.23947168 0.15551948 0.00055573 0.00000000
3.58821306 1.65517753 0.00305727 0.00000000
2.91134498 1.40066028 0.00084418 0.00000000
3.95985317 1.48307411 0.00274997 0.00000000
0.96626490 1.27908449 -0.00364445 0.00000000
3.60985604 0.98463524 0.00295933 0.00000000
3.27550354 0.30160138 0.00068403 0.00000000
3.99857284 1.09014861 -0.00295634 0.00000000
2.99833839 1.38198065 -0.00042856 0.00000000
4.33740920 0.45612994 -0.00032009 0.00000000
0.41173401 0.50746958 0.00375963 0.00000000
2.82348068 0.00153878 0.00129555 0.00000000
1.18997735 0.11532110 -0.00021302 0.00000000
3.11927873 1.06020617 -0.00025241 0.00000000
2.71366489 0.01073445 -0.00100468 0.00000000
2.32821531 0.02455703 -0.00056560 0.00000000
4.28718575 0.48490871 -0.00091557 0.00000000
3.98488330 0.25003355 -0.00389337 0.00000000
0.21420501 0.77219843 0.00162727 0.00000000
3.43344147 1.22910260 0.00117229 0.00000000
1.43619547 1.50200863 -0.00239801 0.00000000
0.18788292 1.64709536 0.00061155 0.00000000
4.20214714 1.18795752 0.00396294 0.00000000
1.14806166 0.68103206 0.00463087 0.00000000
4.32353130 0.27349533 -0.00422327 0.00000000
3.44336040 0.81992027 -0.00139127 0.00000000
0.87237809 0.49460187 0.00033802 0.00000000
1.74762397 1.26740823 -0.00303111 0.00000000
3.59788822 1.56629221 0.00284862 0.00000000
1.93875128 1.36267019 -0.00072777 0.00000000
2.47301740 0.33845316 -0.00414415 0.00000000
0.61037106 0.64762971 -0.00034241 0.00000000
2.21931249 1.61663073 -0.00247494 0.00000000
4.15594278 0.53211239 -0.00123058 0.00000000
1.91237897 0.58367629 0.00094876 0.00000000
0.77109196 1.27680624 -0.00132475 0.00000000
0.07571789 0.19846850 -0.00298348 0.00000000
1.14234409 0.74824250 -0.00007455 0.00000000
1.75258842 0.84659421 -0.00152440 0.00000000
1.71019087 0.17187837 0.00334291 0.00000000
2.30960827 1.64963864 -0.00414104 0.00000000
4.13607665 1.56886173 -0.00339038 0.00000000
2.57164519 0.89152742 -0.00080308 0.00000000
1.73953284 0.78262535 0.00323465 0.00000000
3.82008838 1.08249849 0.00248271 0.00000000
0.32016855 0.68122907 0.00316971 0.00000000
1.70358620 1.17957939 -0.00099391 0.00000000
3.97335123 0.88466154 0.00106198 0.00000000
3.64675981 0.09305709 -0.00189538 0.00000000
0.23074385 1.47767764 -0.00052567 0.00000000
1.80343368 0.61872245 -0.00688199 0.00000000
0.10312529 1.64955528 -0.00247146 0.00000000
2.59647620 0.19611551 0.00462218 0.00000000
1.13288531 0.93571881 -0.00085022 0.00000000
3.94313411 0.33331542 -0.00172644 0.00000000
2.74592012 0.66310483 -0.00122663 0.00000000
0.42374850 0.77444033 -0.00229052 0.00000000
3.66537073 0.56374256 -0.00133876 0.00000000
1.84995123 0.64893359 -0.00326320 0.00000000
2.10056746 0.61740990 0.00082287 0.00000000
0.49616310 0.95931530 0.00297421 0.00000000
3.62522272 0.26927654 -0.00252226 0.00000000
0.37268106 1.57875623 0.00177842 0.00000000
3.06065995 0.87356873 0.00092949 0.00000000
3.25013734 0.48551666 -0.00426837 0.00000000
0.30715720 1.30816330 -0.00232592 0.00000000
3.70931188 0.28072560 -0.00380629 0.00000000
3.42126520 1.26324987 -0.00363697 0.00000000
2.65065102 0.37470804 0.00352836 0.00000000
1.52309054 0.98519375 0.00019235 0.00000000
3.62035602 0.12168277 -0.00214034 0.00000000
3.39133412 1.22627690 -0.00100399 0.00000000
0.80107461 0.51705696 0.00098110 0.00000000
0.36807031 1.05291309 0.00301206 0.00000000
1.16847759 0.38956695 0.00116069 0.00000000
0.76612286 0.32794920 -0.00079434 0.00000000
0.49152994 0.17335311 -0.00306507 0.00000000
0.47202726 1.59292471 0.00119305 0.00000000
2.56627114 1.14313294 0.00152178 0.00000000
0.56774827 1.34433878 0.00046261 0.00000000
3.26272783 1.35818557 -0.00245742 0.00000000
0.53186008 0.04625197 0.00020594 0.00000000
1.88103232 0.07824247 -0.00073534 0.00000000
0.98718686 0.37706243 0.00105036 0.00000000
4.12936967 0.09440540 0.00134174 0.00000000
0.83759801 1.46974753 0.00087599 0.00000000
3.18728206 0.86208964 -0.00012886 0.00000000
1.70434781 0.19307928 0.00098547 0.00000000
2.18316644 0.45078422 -0.00025049 0.00000000
2.39301363 1.40324514 0.00076622 0.00000000
2.22694657 0.80324388 0.00000387 0.00000000
2.97845477 0.36196060 -0.00141662 0.00000000
1.58809574 0.81541175 0.00113642 0.00000000
1.87819109 1.40654852 0.00330137 0.00000000
0.98185209 1.02789690 0.00000312 0.00000000
3.46362895 1.06067770 -0.00181702 0.00000000
1.36415814 0.14993102 -0.00454463 0.00000000
0.15374193 0.19406409 0.00194199 0.00000000
2.93647909 1.04837628 -0.00118159 0.00000000
4.12922276 1.37416561 -0.00141737 0.00000000
2.63393589 0.76206083 0.00109721 0.00000000
4.00382036 1.60100035 0.00545575 0.00000000
2.80938213 1.66665352 -0.00156292 0.00000000
1.69389487 1.44800052 0.00223738 0.00000000
0.78000534 0.33974493 0.00192961 0.00000000
0.56492275 1.29863657 -0.00318346 0.00000000
2.53919358 1.62517149 -0.00232681 0.00000000
3.07324670 0.22694696 -0.00015332 0.00000000
0.68467762 1.57361828 -0.00239564 0.00000000
0.60991215 1.18828237 -0.00313938 0.00000000
2.37684537 1.45154891 0.00160188 0.00000000
0.67142474 1.09965139 -0.00062561 0.00000000
3.49309695 1.25617267 0.00166948 0.00000000
3.98934768 0.68948425 0.00059044 0.00000000
0.41423400 0.97470254 0.00086776 0.00000000
1.40480685 0.63103418 0.00106640 0.00000000
3.73253767 1.20103065 -0.00037044 0.00000000
3.40464432 1.12449136 -0.00147567 0.00000000
3.05454081 0.65294425 0.00059621 0.00000000
4.29556161 0.93711658 0.00245225 0.00000000
2.78597705 0.77495777 -0.00002626 0.00000000
0.87066266 0.84054752 -0.00062874 0.00000000
2.92257968 0.80252039 0.00268953 0.00000000
2.01155820 1.17880074 0.00176348 0.00000000
1.51790926 1.14774792 0.00090346 0.00000000
3.40822143 1.08935117 0.00196141 0.00000000
3.65014809 0.70539942 -0.00571674 0.00000000
3.47804945 1.40106756 -0.00290010 0.00000000
4.07739585 1.01968881 0.00136717 0.00000000
1.06243876 1.21620650 0.00127971 0.00000000
0.39012063 0.66397172 0.00470786 0.00000000
1.31188434 0.17346142 0.00453045 0.00000000
1.21825289 1.53164707 0.00305901 0.00000000
3.98242973 0.38982939 0.00340880 0.00000000
3.49026504 1.14006440 -0.00122529 0.00000000
3.87513414 1.06207940 -0.00064297 0.00000000
4.14506291 0.98241918 -0.00370061 0.00000000
3.37078542 0.09669841 0.00108201 0.00000000
0.13468990 1.40754970 -0.00255119 0.00000000
2.47642041 1.02348318 0.00282834 0.00000000
1.35881152 1.02085963 -0.00026545 0.00000000
3.17653802 0.34159964 0.00046264 0.00000000
3.75025643 1.46741598 -0.00046244 0.00000000
2.84058611 0.24047334 -0.00135793 0.00000000
2.97624642 0.26622910 0.00233877 0.00000000
3.02791305 0.83374378 0.00170673 0.00000000
0.65666269 1.00179180 0.00080387 0.00000000
2.25009509 1.28206466 0.00252250 0.00000000
1.36704843 1.53489893 -0.00006869 0.00000000
3.41313002 1.19488795 -0.00033166 0.00000000
3.71240951 1.56938773 0.00109558 0.00000000
3.81159929 1.38726240 -0.00131924 0.00000000
1.79575570 0.15040893 -0.00097851 0.00000000
3.34172222 1.28260901 -0.00234739 0.00000000
3.52311753 0.40936741 -0.00337933 0.00000000
4.18771779 0.45146563 0.00065486 0.00000000
1.43205560 0.45653040 0.00099518 0.00000000
0.32066346 1.07868999 -0.00181543 0.00000000
0.07047985 1.62217211 0.00147749 0.00000000
0.69256287 1.20253045 0.00151463 0.00000000
3.55603714 0.44966545 -0.00173881 0.00000000
1.48303821 1.02031150 0.00209458 0.00000000
1.43273390 1.09048152 -0.00055065 0.00000000
0.17494567 0.18159438 0.00213166 0.00000000
0.58912950 1.46540250 0.00513586 0.00000000
0.59658535 0.54401670 0.00161458 0.00000000
0.46971560 0.91101492 0.00212626 0.00000000
0.64050837 0.42249000 -0.00194867 0.00000000
4.23602035 1.56232801 -0.00176157 0.00000000
3.53199774 1.58818606 -0.00255717 0.00000000
0.98577406 1.58519733 -0.00355793 0.00000000
2.56851436 0.05316849 0.00055803 0.00000000
1.85364962 1.45000002 -0.00091293 0.00000000
2.42777410 1.56234070 0.00135472 0.00000000
2.06426458 0.51856429 0.00165042 0.00000000
3.89017848 0.57903535 0.00068377 0.00000000
1.39039521 1.11857629 0.00570736 0.00000000
2.36996596 0.41610206 -0.00185606 0.00000000
3.40584623 0.16053323 0.00061762 0.00000000
3.72222097 1.19347933 0.00137593 0.00000000
0.79792505 1.44809515 -0.00229570 0.00000000
0.21879495 0.57272945 0.00197850 0.00000000
2.93455390 1.23850585 0.00020734 0.00000000
0.94167203 1.28065742 0.00240890 0.00000000
3.69311164 0.39231325 -0.00060075 0.00000000
3.23926351 0.04995572 0.00085586 0.00000000
0.33883427 1.44327462 -0.00153891 0.00000000
3.24535461 0.38858400 0.00042081 0.00000000
1.35809708 1.24978102 0.00189757 0.00000000
0.68228206 0.53297931 0.00207911 0.00000000
3.33213979 1.29185728 0.00367748 0.00000000
3.61623627 1.25904322 -0.00107633 0.00000000
0.21987580 1.50869300 -0.00087823 0.00000000
0.35789755 0.77608684 0.00069765 0.00000000
0.97509976 1.15658568 -0.00451275 0.00000000
1.54016989 0.09919412 -0.00220088 0.00000000
1.98238731 1.45261556 0.00006041 0.00000000
2.50047941 0.69901008 0.00216980 0.00000000
1.19466125 0.13161632 0.00100809 0.00000000
2.93731844 1.41440689 -0.00106056 0.00000000
3.24681230 1.29912098 -0.00100848 0.00000000
0.81521079 0.27200807 -0.00227875 0.00000000
0.32948514 1.27248535 0.00541954 0.00000000
3.38311728 0.26247500 0.00164376 0.00000000
1.40917413 0.58808803 -0.00319031 0.00000000
0.95332513 0.52918260 -0.00232424 0.00000000
2.21195694 1.41130303 0.00383175 0.00000000
3.37148746 0.72428070 0.00250384 0.00000000
1.01515895 1.34592926 0.00194918 0.00000000
3.72347243 0.89521778 0.00234702 0.00000000
3.76469229 0.15596582 0.00419107 0.00000000
0.85954027 0.48682350 0.00581454 0.00000000
3.26590748 0.07228402 -0.00169894 0.00000000
3.19614091 0.20945817 -0.00385686 0.00000000
2.47546427 0.41372677 0.00013125 0.00000000
0.61722235 0.15999719 -0.00174226 0.00000000
3.15247914 0.03064944 -0.00355066 0.00000000
1.74453052 0.70749094 0.00283091 0.00000000
1.78752134 0.95613712 -0.00000906 0.00000000
2.62952381 0.53604206 -0.00154989 0.00000000
0.30554542 0.38166253 0.00114924 0.00000000
1.48602825 0.83636088 -0.00225186 0.00000000
2.93057390 1.66746524 -0.00280596 0.00000000
2.57252196 1.19105881 0.00052359 0.00000000
1.65369334 1.30599659 -0.00208027 0.00000000
2.89778491 1.00971117 -0.00299677 0.00000000
1.22664272 0.53703594 0.00296806 0.00000000
3.26260647 0.85244135 0.00061299 0.00000000
0.21086461 1.56822501 0.00402802 0.00000000
1.17644993 0.92352333 0.00138632 0.00000000
0.18292180 0.73694337 -0.00136811 0.00000000
3.79384525 0.63189415 0.00511531 0.00000000
4.04530175 0.38881258 -0.00047383 0.00000000
1.01237984 1.21951378 0.00363910 0.00000000
0.30224456 0.94682647 -0.00226600 0.00000000
1.99520628 1.10781900 0.00040607 0.00000000
0.64275906 0.09066910 0.00301481 0.00000000
3.12282530 0.06747271 -0.00262151 0.00000000
1.35269409 0.66170619 -0.00199769 0.00000000
3.11875050 0.59091240 0.00104465 0.00000000
1.07809750 0.45138629 -0.00042669 0.00000000
2.85619256 0.84455767 0.00005797 0.00000000
4.00395556 0.73044997 -0.00200533 0.00000000
2.79225451 0.72258506 -0.00159672 0.00000000
2.94173929 1.28095756 -0.00237435 0.00000000
2.67683936 1.62099648 0.00139711 0.00000000
0.18433727 1.50801488 0.00086287 0.00000000
2.06917538 0.57855046 -0.00074482 0.00000000
1.41625174 1.29063564 0.00670406 0.00000000
3.70934447 1.60274161 -0.00144099 0.00000000
0.49774189 0.53693114 0.00125594 0.00000000
2.16823414 1.42579376 -0.00028987 0.00000000
2.87402232 1.55099466 0.00093613 0.00000000
2.69158975 1.55931006 -0.00095628 0.00000000
0.09307102 0.70847499 0.00040747 0.00000000
3.87117636 0.72360485 -0.00159531 0.00000000
1.92285618 0.27448142 -0.00081221 0.00000000
1.46451470 1.55146987 0.00339451 0.00000000
1.07170717 0.93250825 -0.00199532 0.00000000
1.69705113 1.02486687 0.00123903 0.00000000
3.38777467 1.27953870 -0.00215468 0.00000000
1.66010327 1.61001735 0.00158045 0.00000000
3.40233502 0.45820234 0.00010325 0.00000000
1.55560115 0.32058088 -0.00345806 0.00000000
1.81302605 0.55214256 0.00030043 0.00000000
0.99177876 0.74896270 0.00171044 0.00000000
2.75782527 0.66327806 0.00001686 0.00000000
3.23146832 1.49929887 0.00446036 0.00000000
2.00334445 1.45285897 0.00537449 0.00000000
1.81792225 0.33979757 0.00034890 0.00000000
2.20548756 0.68162142 -0.00049439 0.00000000
0.54198589 1.43055721 -0.00029602 0.00000000
0.11297023 1.35817556 0.00344856 0.00000000
1.33793202 1.30290723 -0.00258931 0.00000000
0.39345462 0.47597631 -0.00101115 0.00000000
2.89307039 1.48554769 -0.00289243 0.00000000
2.68544515 0.19647743 -0.00097568 0.00000000
2.23620080 0.99036887 0.00259481 0.00000000
3.63319163 1.34370116 -0.00050306 0.00000000
1.17689859 0.53439638 0.00087560 0.00000000
0.47573585 0.06729531 0.00090552 0.00000000
2.87286061 0.93769800 0.00193368 0.00000000
3.49095394 1.64709511 -0.00236165 0.00000000
4.07640828 1.28893285 0.00131120 0.00000000
1.50192344 0.44516991 -0.00149439 0.00000000
1.14323891 1.62759474 -0.00260478 0.00000000
2.40714669 1.29670113 -0.00182612 0.00000000
1.24815817 0.25644146 0.00103506 0.00000000
4.18748998 1.61760381 0.00011747 0.00000000
4.09236535 1.41147436 -0.00259332 0.00000000
1.11169714 1.12265095 0.00117522 0.00000000
0.84191171 1.50336269 -0.00073080 0.00000000
0.15178104 0.53448432 0.00401751 0.00000000
1.95719525 1.06638110 0.00315296 0.00000000
0.76703991 1.16571386 -0.00244765 0.00000000
1.09555628 1.36383883 0.00406348 0.00000000
1.44263358 0.71030007 0.00065158 0.00000000
2.64285981 0.10134998 -0.00203440 0.00000000
2.87856955 0.23468798 -0.00266514 0.00000000
3.96663876 1.38964920 -0.00168256 0.00000000
1.33635384 0.59074600 0.00478129 0.00000000
2.02641042 1.49287796 0.00105682 0.00000000
0.56856243 0.24324079 0.00352777 0.00000000
4.23690196 0.30377816 -0.00249146 0.00000000
1.15281723 0.52266292 0.00166593 0.00000000
2.21941467 0.22266426 0.00246840 0.00000000
4.12710165 0.34462143 0.00124291 0.00000000
0.72368620 0.96108330 -0.00049671 0.00000000
3.50535271 1.42939700 -0.00053480 0.00000000
2.57536395 0.92874889 -0.00411490 0.00000000
1.37796153 1.25813745 -0.00083022 0.00000000
4.22024770 1.23951999 -0.00125798 0.00000000
2.20821741 1.25106580 -0.00051490 0.00000000
0.10860806 0.91465258 -0.00164124 0.00000000
1.96760526 1.25129078 0.00246943 0.00000000
2.97068002 1.02578632 -0.00509615 0.00000000
0.11510071 0.36975794 -0.00439952 0.00000000
3.32139234 0.63247342 -0.00160107 0.00000000
1.77659273 0.90834723 -0.00567930 0.00000000
0.59728952 0.32813599 -0.00306701 0.00000000
4.08972924 0.01375994 -0.00077149 0.00000000
3.23467037 1.17682874 -0.00213851 0.00000000
4.25237052 0.21557349 0.00173024 0.00000000
2.09498389 1.44454004 0.00077932 0.00000000
0.87664867 1.06278891 -0.00340762 0.00000000
2.63968081 1.63528693 0.00209812 0.00000000
2.08834333 0.36040194 -0.00172064 0.00000000
1.88296942 0.74582064 -0.00320127 0.00000000
2.50075043 0.04366211 -0.00038473 0.00000000
3.30930979 1.26906341 -0.00120172 0.00000000
2.13160493 1.12423110 0.00003680 0.00000000
2.69729674 0.94187067 -0.00225471 0.00000000
1.21093181 0.27451391 0.00291382 0.00000000
1.60321951 0.16344124 0.00326979 0.00000000
4.08277987 0.55227033 0.00528664 0.00000000
3.41976582 0.69503024 0.00170993 0.00000000
1.98114279 0.91357070 -0.00002285 0.00000000
1.47630711 0.53676962 -0.00386511 0.00000000
0.39238062 1.46087319 -0.00036354 0.00000000
2.80421147 0.41920884 -0.00220017 0.00000000
4.19381332 0.03859094 -0.00098883 0.00000000
0.61855996 0.20862912 -0.00367318 0.00000000
3.54045824 0.45994276 0.00080870 0.00000000
0.35274400 1.66030780 0.00066757 0.00000000
3.42308755 0.42360079 -0.00281090 0.00000000
2.38059151 0.00876266 0.00158277 0.00000000
1.19373470 1.60155242 0.00006009 0.00000000
2.00706261 1.21649631 -0.00120666 0.00000000
3.21122841 0.97125221 0.00342764 0.00000000
3.85513322 0.97441610 0.00146137 0.00000000
4.14937603 0.51467034 0.00093106 0.00000000
3.32755646 0.97887739 -0.00326156 0.00000000
2.02767936 0.07615601 -0.00015334 0.00000000
1.40053911 0.79543440 -0.00251351 0.00000000
0.50584160 1.54265603 0.00076318 0.00000000
3.98032325 0.64757943 -0.00295114 0.00000000
0.84711959 0.88520807 -0.00304103 0.00000000
1.51867555 1.60692534 -0.00027653 0.00000000
2.88711126 0.02319099 -0.00043847 0.00000000
0.81591105 0.13950705 -0.00113938 0.00000000
2.79012185 0.21295419 -0.00325160 0.00000000
0.97085830 0.33560227 -0.00221837 0.00000000
0.46032244 1.03549671 -0.00218819 0.00000000
0.60724939 0.45628559 0.00226443 0.00000000
3.15583414 0.17289792 -0.00465048 0.00000000
2.33285224 0.17941731 0.00006100 0.00000000
1.90414862 1.38679368 0.00114832 0.00000000
3.84094035 1.20521569 0.00127892 0.00000000
3.15605485 1.60844216 -0.00246610 0.00000000
3.43303003 0.68884154 -0.00105015 0.00000000
2.22282163 1.32062025 0.00269156 0.00000000
0.67015315 1.30857640 -0.00007216 0.00000000
1.42006321 1.17988917 -0.00605026 0.00000000
0.00680113 1.04088919 -0.00008226 0.00000000
1.87923399 0.23565320 -0.00133862 0.00000000
4.23440718 0.94767208 -0.00082015 0.00000000
2.24419206 1.64625819 -0.00178723 0.00000000
3.52260318 0.19143633 -0.00136129 0.00000000
0.53983194 0.98300402 -0.00055602 0.00000000
2.55466079 0.10392691 -0.00319247 0.00000000
2.62851402 1.04999080 0.00267435 0.00000000
3.76827919 1.00247617 -0.00017267 0.00000000
3.93909666 0.50450915 0.00032971 0.00000000
1.88874483 1.61774377 -0.00437335 0.00000000
1.89056433 0.92913748 0.00134758 0.00000000
2.22258590 1.56213815 -0.00608127 0.00000000
0.02252764 0.99151421 -0.00111215 0.00000000
0.32784600 1.49385000 -0.00322635 0.00000000
1.50178174 0.46379073 -0.00008942 0.00000000
2.51072813 1.42397674 0.00256259 0.00000000
3.37805921 0.49036788 -0.00024578 0.00000000
1.05516796 0.49866507 0.00033077 0.00000000
4.12269219 1.10305239 0.00290936 0.00000000
3.58846457 0.54548007 0.00289593 0.00000000
1.30901845 0.99135920 0.00366245 0.00000000
1.08053071 0.06559235 -0.00155361 0.00000000
1.69894300 0.43928245 0.00149640 0.00000000
4.16459957 1.37343210 0.00026446 0.00000000
2.06950482 1.37584413 -0.00218423 0.00000000
2.91226550 0.91373366 0.00048856 0.00000000
2.29733005 1.40393551 -0.00079622 0.00000000
3.72453840 0.99498079 0.00178229 0.00000000
4.23209592 0.65898291 0.00221006 0.00000000
4.20441747 0.14315972 0.00104220 0.00000000
1.56118312 1.16799987 -0.00422916 0.00000000
3.24330090 1.52648936 0.00029781 0.00000000
1.19220834 0.95730818 -0.00273496 0.00000000
3.36401200 0.94474031 0.00320406 0.00000000
4.31581672 0.24162732 0.00043637 0.00000000
2.04774374 0.46514105 0.00145650 0.00000000
2.29027585 0.35755436 0.00028287 0.00000000
0.61077341 1.38436611 -0.00088613 0.00000000
1.33451469 1.00274553 0.00247458 0.00000000
1.08387984 0.41983511 -0.00486494 0.00000000
2.80870458 1.32660285 0.00257706 0.00000000
3.75270152 1.33687649 -0.00014348 0.00000000
1.19439542 0.74066483 0.00575319 0.00000000
3.05696623 0.84993114 -0.00284631 0.00000000
2.04980642 0.39415900 -0.00183319 0.00000000
4.24519475 1.43570601 0.00138033 0.00000000
1.94225079 0.31303376 0.00221698 0.00000000
1.63200287 0.22842783 -0.00115574 0.00000000
1.72095032 1.30237602 0.00392305 0.00000000
2.73067367 0.16627198 -0.00125121 0.00000000
1.72709168 0.51917765 0.00261397 0.00000000
0.10635669 1.51510143 -0.00151635 0.00000000
2.80808654 0.72968464 0.00223669 0.00000000
3.55395680 0.25329250 0.00161145 0.00000000
1.41301284 0.02934870 0.00179706 0.00000000
0.61694283 0.22921181 0.00086929 0.00000000
3.08107361 0.09682514 -0.00040981 0.00000000
4.09014140 1.65614751 0.00022992 0.00000000
4.32767979 1.10787849 -0.00412647 0.00000000
2.77373741 1.60231543 -0.00270516 0.00000000
0.05070959 1.22279320 -0.00480843 0.00000000
3.51578376 0.93582670 -0.00091889 0.00000000
0.65671022 0.07327111 -0.00273390 0.00000000
1.00275379 0.16572850 0.00283221 0.00000000
0.59913338 1.24770422 -0.00080180 0.00000000
0.12838170 1.38659211 0.00284815 0.00000000
2.43442301 1.30209136 0.00018043 0.00000000
3.27056556 1.32770333 -0.00075150 0.00000000
3.49275863 1.22227492 0.00061522 0.00000000
1.64533108 0.65742140 0.00200652 0.00000000
3.20392184 0.66369907 0.00584790 0.00000000
2.25842742 0.72287178 0.00061251 0.00000000
1.26286810 1.47739414 0.00479740 0.00000000
2.54939737 0.78724019 -0.00102493 0.00000000
0.53405912 0.81932478 0.00143943 0.00000000
1.83961862 0.37412589 0.00054788 0.00000000
2.12213718 0.58291693 -0.00087584 0.00000000
3.72664082 0.84038675 -0.00114722 0.00000000
0.55538386 0.51871707 -0.00030985 0.00000000
0.69425577 0.98397675 0.00312341 0.00000000
1.35283351 1.18099326 -0.00330524 0.00000000
3.43733877 0.19133540 0.00159215 0.00000000
0.82756982 1.49304996 -0.00122486 0.00000000
3.98124426 1.21833581 0.00014977 0.00000000
3.24127548 0.73296640 -0.00278218 0.00000000
3.22687552 0.58508778 0.00206314 0.00000000
0.12695499 0.34418377 0.00089494 0.00000000
2.70788824 0.30891662 -0.00137539 0.00000000
1.83063289 1.07735762 -0.00026280 0.00000000
3.30777310 0.22146729 0.00338499 0.00000000
2.16046240 0.24231025 -0.00385081 0.00000000
3.54961421 1.63275010 -0.00239830 0.00000000
1.19066119 0.70333650 0.00631445 0.00000000
1.30198359 0.04198564 -0.00008007 0.00000000
4.05145003 0.81289560 -0.00153207 0.00000000
0.00010044 1.37115983 0.00261387 0.00000000
0.10086707 0.31168269 -0.00308626 0.00000000
1.44796476 1.55214966 0.00512484 0.00000000
4.17991947 0.87110117 -0.00472926 0.00000000
0.76270928 0.53444935 -0.00288211 0.00000000
2.66975548 0.92394143 -0.00264026 0.00000000
0.35495306 1.57118149 -0.00234365 0.00000000
0.08363426 0.43899967 -0.00242151 0.00000000
3.99465693 1.04159021 -0.00387132 0.00000000
2.52691180 0.64794649 -0.00073393 0.00000000
1.84402432 1.29398349 0.00050953 0.00000000
1.61368587 0.15586898 0.00402548 0.00000000
4.32423226 1.01502222 -0.00098360 0.00000000
0.88081449 1.36246407 -0.00258300 0.00000000
0.63324010 0.16409116 -0.00185484 0.00000000
0.03179762 0.04222866 0.00279243 0.00000000
1.17459790 0.09474465 -0.00124862 0.00000000
0.14291935 0.98299045 -0.00028047 0.00000000
0.56302069 0.65095442 0.00009483 0.00000000
0.97979699 0.64116690 0.00291882 0.00000000
3.02701318 1.20626311 -0.00293592 0.00000000
0.49117402 1.16696052 -0.00228688 0.00000000
2.20714627 0.91593792 -0.00457221 0.00000000
0.16358402 0.16381762 -0.00247552 0.00000000
0.56744515 1.47291736 -0.00085748 0.00000000
2.34361009 1.48498891 -0.00137432 0.00000000
2.79267074 1.23456032 -0.00290516 0.00000000
2.13650514 0.13118861 0.00084366 0.00000000
4.11546122 1.39356427 0.00306125 0.00000000
0.13364777 0.56341440 0.00056822 0.00000000
0.20335114 0.62118114 0.00292974 0.00000000
1.67886332 0.16661505 0.00132406 0.00000000
1.86877961 0.79776533 0.00201439 0.00000000
2.22794929 1.62933623 -0.00099409 0.00000000
2.94864081 1.52026588 -0.00090372 0.00000000
1.46143383 0.15170514 0.00340894 0.00000000
3.66484732 1.21837020 -0.00177224 0.00000000
0.79159500 1.61049389 -0.00179777 0.00000000
1.50311271 1.26674629 -0.00474786 0.00000000
1.29675515 0.19149547 -0.00036087 0.00000000
2.75434649 0.31314099 -0.00063719 0.00000000
0.87911795 0.82613722 0.00007932 0.00000000
0.07663060 0.92290934 -0.00173857 0.00000000
0.29625555 0.47604080 0.00061773 0.00000000
1.31277380 1.34117977 0.00092692 0.00000000
0.32400118 0.12481875 0.00371764 0.00000000
0.08011781 0.54696063 -0.00086637 0.00000000
2.07891128 1.49809622 0.00154372 0.00000000
2.13757499 0.96046684 -0.00033089 0.00000000
1.00729138 0.05397795 0.00078242 0.00000000
4.29580796 0.48296875 -0.00020609 0.00000000
0.49072848 0.12608960 -0.00376650 0.00000000
1.73955741 0.34231142 -0.00199305 0.00000000
3.43816530 0.90343147 0.00249496 0.00000000
0.19873395 0.70851820 -0.00135598 0.00000000
0.22548843 1.25192726 -0.00228716 0.00000000
0.45082480 0.67348812 -0.00153870 0.00000000
3.20770308 0.93719342 0.00168490 0.00000000
0.87591792 0.51993638 0.00029612 0.00000000
0.82372194 0.88845304 -0.00087131 0.00000000
1.50558094 1.34545083 -0.00291745 0.00000000
0.54388143 0.31335517 0.00028311 0.00000000
0.12446334 1.18644737 -0.00481279 0.00000000
3.51338471 1.02420303 -0.00429186 0.00000000
3.74249297 0.00127418 -0.00221238 0.00000000
1.83953044 0.99604961 -0.00458464 0.00000000
3.83553547 1.31352686 -0.00314191 0.00000000
0.43314136 0.02903147 0.00024290 0.00000000
0.00869936 0.07406013 -0.00253055 0.00000000
3.02204099 1.30295317 0.00024223 0.00000000
3.46719034 1.01603206 0.00162820 0.00000000
3.70332661 0.15127027 -0.00275359 0.00000000
3.07594975 0.82897957 0.00244581 0.00000000
2.43601716 0.14168447 -0.00254724 0.00000000
2.06154828 1.48539438 0.00073393 0.00000000
3.59018514 0.02631245 -0.00135864 0.00000000
0.00666212 1.41991989 -0.00084968 0.00000000
3.91018272 1.11530106 0.00210889 0.00000000
2.61881739 0.18155809 -0.00300525 0.00000000
1.32275508 0.55522650 0.00010510 0.00000000
1.01061013 1.10740510 0.00164598 0.00000000
2.39175573 0.25041490 0.00152357 0.00000000
1.02159402 0.30815788 -0.00377819 0.00000000
3.36942234 0.51276170 0.00148020 0.00000000
1.24582261 0.88942522 0.00098530 0.00000000
0.08261747 1.63654083 -0.00357384 0.00000000
1.34323371 1.40290406 -0.00371106 0.00000000
3.60252033 0.81485469 0.00006313 0.00000000
1.76606981 1.05236569 -0.00236699 0.00000000
4.11397400 1.49001185 0.00024220 0.00000000
1.68674545 0.93812105 0.00236190 0.00000000
2.72373389 0.24900253 -0.00028582 0.00000000
1.94117062 0.05397545 0.00086585 0.00000000
3.96087135 0.81232506 0.00367240 0.00000000
1.33266556 0.15634500 0.00276691 0.00000000
2.45881041 1.36931755 0.00048812 0.00000000
0.36474240 1.11593990 0.00022348 0.00000000
0.26998480 0.13726731 0.00177350 0.00000000
2.94085562 0.79685879 0.00270343 0.00000000
0.39890490 0.47956062 0.00033685 0.00000000
2.39921031 1.49702598 0.00071090 0.00000000
3.18252716 1.38452699 0.00256026 0.00000000
0.50289939 1.14419070 0.00246128 0.00000000
0.12539022 0.31798357 0.00006530 0.00000000
2.84961551 0.80104702 0.00035932 0.00000000
2.68819963 1.41420428 -0.00156536 0.00000000
3.30507839 1.04645102 0.00162010 0.00000000
1.76027031 0.10458236 -0.00151853 0.00000000
4.14013191 1.35623382 -0.00242696 0.00000000
0.35190508 0.65061575 -0.00135583 0.00000000
4.22868620 0.49066236 -0.00079145 0.00000000
3.58359319 1.60902105 0.00165393 0.00000000
2.09641074 0.56133503 -0.00385421 0.00000000
0.61343793 1.20442304 -0.00080318 0.00000000
4.03800272 0.26428937 -0.00353707 0.00000000
1.26739998 0.36133768 -0.00168021 0.00000000
3.67797528 0.12427744 -0.00615814 0.00000000
4.31511455 1.15004572 0.00260744 0.00000000
1.36602418 0.85978065 -0.00222661 0.00000000
0.17774531 0.53771758 0.00053860 0.00000000
2.19747822 0.63935192 -0.00024434 0.00000000
2.27764546 1.53627172 0.00055076 0.00000000
2.34234924 1.46909805 -0.00353282 0.00000000
0.64755885 0.20281931 -0.00021457 0.00000000
1.25582281 0.11660801 -0.00559531 0.00000000
4.21995542 0.88457199 -0.00585995 0.00000000
3.87841533 0.93920454 0.00142139 0.00000000
0.25598823 0.15085368 0.00178522 0.00000000
0.71238680 0.08743263 0.00209412 0.00000000
3.97755043 0.94779869 0.00596939 0.00000000
2.19794079 0.72780435 0.00035519 0.00000000
3.96137950 1.65599953 -0.00370589 0.00000000
0.83915057 1.26376556 -0.00348490 0.00000000
1.66622073 1.52542288 -0.00312261 0.00000000
3.42742645 0.82354229 0.00237740 0.00000000
4.24773477 0.06479732 0.00186546 0.00000000
3.83296287 1.16940248 0.00041402 0.00000000
1.33424281 1.21955188 -0.00420280 0.00000000
3.75163296 0.54739734 -0.00056815 0.00000000
1.57658026 0.47415677 0.00236143 0.00000000
1.77273189 1.61380226 0.00297318 0.00000000
1.21504842 1.52919239 0.00162990 0.00000000
4.18085948 0.96694316 0.00386596 0.00000000
1.64911081 0.02400555 -0.00077978 0.00000000
3.43851741 0.62164813 0.00047841 0.00000000
0.19219159 0.38652030 0.00046552 0.00000000
2.73219721 0.68449871 -0.00450698 0.00000000
4.21523570 0.39852556 -0.00147958 0.00000000
3.16158690 0.52961463 -0.00079339 0.00000000
2.91792053 0.71811905 -0.00077391 0.00000000
0.44814482 0.96312507 -0.00189813 0.00000000
2.56604543 0.70679308 0.00113950 0.00000000
0.46131414 1.59657412 0.00214608 0.00000000
3.47052971 1.51501771 -0.00410762 0.00000000
2.56472255 0.54165444 0.00295047 0.00000000
2.06104337 0.53497695 -0.00042773 0.00000000
2.86196038 1.56654209 0.00242253 0.00000000
0.70731272 1.65528006 -0.00178460 0.00000000
3.26128899 0.01845175 0.00140017 0.00000000
4.04953207 1.04677515 0.00265274 0.00000000
3.32918857 1.17742724 0.00342666 0.00000000
1.29115071 0.20745817 0.00141287 0.00000000
4.05474246 1.14157429 0.00223034 0.00000000
0.46680866 0.04054403 -0.00506618 0.00000000
1.86730700 0.94491081 -0.00088750 0.00000000
2.37377129 0.25058208 0.00047279 0.00000000
4.10275329 0.80795540 -0.00292078 0.00000000
2.87824966 1.22841543 0.00319504 0.00000000
1.75858104 1.57683291 -0.00025881 0.00000000
2.84221108 0.08407265 -0.00289171 0.00000000
2.26805804 1.03456599 -0.00102993 0.00000000
1.45043307 1.36713521 -0.00090657 0.00000000
0.98545255 0.97620788 -0.00315959 0.00000000
3.49110944 0.49238820 -0.00170463 0.00000000
3.65085065 0.81616135 -0.00029083 0.00000000
2.26322115 0.31705765 -0.00003696 0.00000000
2.65944133 1.13646089 0.00224760 0.00000000
0.48314160 1.58140969 -0.00564825 0.00000000
2.25073701 0.84203970 0.00554966 0.00000000
4.08444949 1.08808333 -0.00121069 0.00000000
2.79178781 0.75337084 -0.00087015 0.00000000
0.00565020 0.77587269 0.00039287 0.00000000
1.67819427 1.34445922 0.00543426 0.00000000
3.89251373 0.56728173 -0.00495197 0.00000000
1.99634969 0.39344716 -0.00276886 0.00000000
3.82252200 1.19096629 0.00107350 0.00000000
2.08944766 0.99042831 0.00055184 0.00000000
0.41295918 0.58613838 0.00066487 0.00000000
3.17704496 0.07790025 0.00444068 0.00000000
1.71505179 0.14413447 -0.00070768 0.00000000
0.80823789 0.11043284 -0.00254066 0.00000000
2.85461103 0.78688683 -0.00007198 0.00000000
1.91852594 1.58563029 -0.00217847 0.00000000
2.01857358 0.19256054 0.00010555 0.00000000
1.62169339 1.39024075 -0.00242013 0.00000000
2.74948889 0.58470536 0.00021395 0.00000000
3.18409013 0.29148929 -0.00616819 0.00000000
4.03922565 0.36991578 -0.00497165 0.00000000
3.39808944 1.26917988 -0.00032704 0.00000000
1.56818602 1.44141209 -0.00038441 0.00000000
0.08729255 1.01654199 0.00243255 0.00000000
3.58861450 0.94654707 0.00170348 0.00000000
3.99101808 0.70485206 0.00040007 0.00000000
3.33628936 1.46731282 0.00057436 0.00000000
2.07911520 0.71603299 -0.00417176 0.00000000
0.53262832 0.27633580 -0.00072977 0.00000000
0.77124405 1.14647100 -0.00402257 0.00000000
1.62132283 1.40376714 0.00439629 0.00000000
0.86185426 0.69917354 0.00234854 0.00000000
0.60588909 0.28823669 -0.00100553 0.00000000
3.57876608 1.47495509 0.00171677 0.00000000
1.61265564 0.44724571 -0.00083527 0.00000000
0.24861006 0.40917759 -0.00291165 0.00000000
2.42879298 1.10597483 -0.00109953 0.00000000
1.55196485 0.71507418 0.00049382 0.00000000
0.29726206 1.36888938 -0.00101890 0.00000000
1.78407050 0.10463011 -0.00400193 0.00000000
0.64194572 0.96664683 -0.00496365 0.00000000
4.34229381 0.19171554 -0.00223910 0.00000000
0.75583654 0.04443458 -0.00244603 0.00000000
0.10916013 0.27327525 -0.00416978 0.00000000
2.87430562 0.62176271 -0.00049125 0.00000000
2.74258927 1.20530943 0.00099720 0.00000000
4.16074253 0.90467607 -0.00309094 0.00000000
3.62583195 0.17655286 -0.00118611 0.00000000
0.67499626 0.55574297 0.00130951 0.00000000
1.69693780 0.33357871 0.00009638 0.00000000
1.03010426 0.27934317 -0.00255305 0.00000000
3.41435822 0.25885749 0.00370154 0.00000000
2.23735271 0.25055483 -0.00302326 0.00000000
0.21166538 0.52423465 -0.00093834 0.00000000
2.90222768 0.37967595 0.00105250 0.00000000
3.86294603 1.09773514 0.00010095 0.00000000
1.50916308 1.58255009 0.00114305 0.00000000
0.16469208 1.55138639 -0.00666154 0.00000000
4.16078386 1.14255178 -0.00308282 0.00000000
1.91774736 0.64643800 -0.00103799 0.00000000
0.32740117 1.15328341 -0.00133999 0.00000000
2.10707826 0.81416959 0.00475121 0.00000000
0.25611729 0.32579780 0.00128833 0.00000000
2.84837481 0.65453373 -0.00163285 0.00000000
1.33297145 1.03115067 0.00260301 0.00000000
4.32597261 0.33690710 -0.00070642 0.00000000
0.62954779 0.69083180 0.00172942 0.00000000
4.16831331 0.19506469 0.00449379 0.00000000
3.98684657 1.21110447 -0.00152992 0.00000000
0.20053992 1.43926752 0.00221519 0.00000000
1.84512801 0.94148117 -0.00352590 0.00000000
4.15368416 1.44736220 0.00443080 0.00000000
0.27197487 0.73380895 -0.00094324 0.00000000
1.66901604 0.39669692 0.00069811 0.00000000
2.12926899 1.05408861 -0.00171661 0.00000000
3.26221782 1.19460638 -0.00233291 0.00000000
3.72769071 0.52132528 0.00310113 0.00000000
3.20251810 0.56920069 0.00119089 0.00000000
3.83649843 0.68941042 0.00480603 0.00000000
0.85287714 0.42845737 -0.00137292 0.00000000
4.10284504 0.83813375 -0.00085859 0.00000000
1.69897974 0.81544937 -0.00318688 0.00000000
0.22328446 0.55880303 0.00216126 0.00000000
2.30617054 0.21973195 0.00061957 0.00000000
2.51944781 0.10899916 -0.00164168 0.00000000
3.76977560 0.35393635 0.00284870 0.00000000
3.23778241 0.11628122 -0.00266427 0.00000000
1.88243499 0.08713023 -0.00320743 0.00000000
2.63681059 1.41253925 0.00139107 0.00000000
4.15397882 0.76047591 0.00217036 0.00000000
0.94179079 1.30126825 0.00245105 0.00000000
2.12158141 0.87111251 0.00099551 0.00000000
1.85390729 0.51538192 0.00441898 0.00000000
4.16400299 0.04486525 -0.00057168 0.00000000
0.16296911 0.38621714 -0.00043906 0.00000000
1.84564387 1.47138157 -0.00136223 0.00000000
3.75503461 0.34334185 0.00384150 0.00000000
1.04844162 0.89525496 0.00463643 0.00000000
1.71176412 1.21481240 -0.00398150 0.00000000
0.84368953 0.49074175 -0.00025119 0.00000000
1.68187585 0.17109569 -0.00193375 0.00000000
3.18493712 0.34480855 -0.00091710 0.00000000
3.32205303 1.12809909 -0.00136706 0.00000000
1.77729297 1.66192967 0.00080160 0.00000000
1.17342893 1.50861264 0.00190133 0.00000000
0.67119889 1.01393873 -0.00026119 0.00000000
2.36470340 1.55772350 -0.00169790 0.00000000
0.92961577 1.00515898 0.00117941 0.00000000
2.53014972 1.58320165 -0.00070070 0.00000000
1.84896407 0.31988688 -0.00375869 0.00000000
1.63784826 1.31167574 -0.00260766 0.00000000
2.70050629 0.99895640 -0.00766817 0.00000000
3.15819065 0.57412607 0.00098228 0.00000000
3.00641105 0.19459486 -0.00264676 0.00000000
1.53636297 0.81807409 -0.00079164 0.00000000
3.84196047 1.32751016 0.00146482 0.00000000
1.88832618 0.85130261 0.00352374 0.00000000
0.95549552 1.50146920 0.00094810 0.00000000
1.05069783 0.67943564 -0.00064572 0.00000000
3.74019603 1.39679068 -0.00176313 0.00000000
2.41434550 0.70700703 0.00566476 0.00000000
1.43537004 0.44642173 0.00148442 0.00000000
4.21329739 1.07576240 0.00332378 0.00000000
3.54590468 0.34836941 0.00331351 0.00000000
3.38217968 1.45159147 0.00212375 0.00000000
0.32324081 0.57922348 -0.00145453 0.00000000
2.55754274 0.96782279 -0.00053412 0.00000000
0.97354429 1.21895344 -0.00070760 0.00000000
0.61990127 0.55305353 -0.00105629 0.00000000
2.40695992 1.44417099 0.00129790 0.00000000
1.21527081 0.37790596 0.00212492 0.00000000
0.80645876 0.02678912 0.00068278 0.00000000
1.98753821 1.51994719 0.00117328 0.00000000
1.97410551 0.25822987 0.00286234 0.00000000
3.64821562 1.04427722 -0.00728625 0.00000000
1.39957328 0.80372149 0.00020148 0.00000000
3.54736821 1.04528442 0.00335565 0.00000000
2.86181902 1.41343024 0.00020537 0.00000000
4.23761688 1.09170655 -0.00438888 0.00000000
1.04721917 0.18983495 0.00035448 0.00000000
