1.727117 0.781947 -0.002585 0.0
2.658336 1.552857 0.001663 0.0
0.895105 1.156686 -0.002135 0.0
1.551448 1.326683 -0.000206 0.0
1.573968 1.405878 0.000167 0.0
3.110349 1.219958 0.001891 0.0
3.641337 1.065602 0.002964 0.0
3.304174 0.543500 0.002208 0.0
1.731593 0.851298 -0.000491 0.0
2.525117 1.592754 0.002053 0.0
3.195607 0.169943 -0.002502 0.0
3.697581 0.975793 0.000532 0.0
2.460181 0.428073 0.000137 0.0
0.539719 0.755006 0.001845 0.0
3.886889 0.590090 0.001879 0.0
3.365452 0.147798 -0.004947 0.0
3.719493 1.316922 0.000773 0.0
0.523494 0.977819 0.004110 0.0
2.234498 0.112274 0.002453 0.0
2.874282 1.970680 -0.001742 0.0
0.814814 0.629988 0.002652 0.0
2.346562 1.521843 -0.002223 0.0
3.384049 0.954653 0.002716 0.0
1.190622 0.986429 -0.001104 0.0
3.262597 0.115559 0.001857 0.0
2.714082 1.874662 0.002912 0.0
0.372115 0.063433 0.000515 0.0
4.194567 0.246264 -0.001905 0.0
2.153869 1.606096 -0.002745 0.0
0.057911 0.285022 -0.000408 0.0
4.059243 0.879515 -0.004224 0.0
2.457204 1.683539 0.000680 0.0
1.335569 1.881543 0.000322 0.0
4.580403 1.165491 0.003961 0.0
3.731913 1.316405 -0.004329 0.0
0.885631 1.087487 0.000400 0.0
0.398622 1.609806 0.003342 0.0
4.527724 1.160579 -0.000966 0.0
1.880790 1.346183 -0.002200 0.0
3.036386 0.117866 0.000182 0.0
0.462449 1.264021 -0.001723 0.0
4.857411 0.883582 0.001814 0.0
4.129059 0.921703 -0.002168 0.0
4.222884 1.285421 -0.000793 0.0
3.437675 0.073125 -0.001201 0.0
0.731472 1.727014 -0.003659 0.0
3.844343 1.833897 -0.001491 0.0
0.988910 0.491245 0.004019 0.0
4.204548 1.238706 -0.003367 0.0
1.945623 0.731341 -0.000585 0.0
1.526899 1.176485 -0.000808 0.0
2.862076 0.292414 0.000252 0.0
0.091222 0.225471 0.001275 0.0
4.715441 0.758337 0.001496 0.0
0.999684 0.831046 -0.001982 0.0
1.765981 0.917503 -0.005049 0.0
4.074111 0.113580 0.001753 0.0
0.247291 1.417154 -0.002010 0.0
2.783957 1.935561 0.000263 0.0
4.388562 1.771223 -0.000503 0.0
0.214390 0.854276 -0.001236 0.0
3.368352 1.546714 0.001087 0.0
4.477853 1.293719 0.004093 0.0
4.075824 1.830621 -0.005499 0.0
2.822196 1.978312 0.001291 0.0
4.482099 0.022319 -0.000615 0.0
4.753896 1.038841 0.002000 0.0
1.949641 0.537195 0.000185 0.0
4.721352 1.640239 -0.000199 0.0
1.883620 0.463882 0.000241 0.0
3.793478 1.007592 0.000663 0.0
2.481031 0.974063 -0.006151 0.0
3.922068 0.940495 -0.000531 0.0
3.351018 1.202608 0.000025 0.0
2.558452 1.620008 -0.000452 0.0
2.351038 0.048447 0.003183 0.0
1.359598 1.343553 -0.000723 0.0
1.805143 1.792653 0.001354 0.0
3.490108 1.773978 -0.000792 0.0
4.310968 0.308267 -0.001625 0.0
1.707295 0.213945 -0.000660 0.0
4.281423 0.746340 0.002179 0.0
1.355812 1.430797 -0.004204 0.0
3.467396 0.328176 0.000190 0.0
1.879304 0.659973 0.002715 0.0
2.285507 2.028526 -0.000594 0.0
0.418181 0.189916 0.000678 0.0
3.281541 0.126561 0.001442 0.0
2.901627 0.762335 0.000077 0.0
0.331280 0.048791 -0.002234 0.0
1.532747 0.398704 0.000012 0.0
3.576246 1.083822 0.003322 0.0
2.916949 0.968007 0.002745 0.0
2.585132 1.033631 -0.002597 0.0
0.638502 1.290042 -0.001467 0.0
3.660801 0.691771 0.000433 0.0
3.002375 1.942240 -0.002256 0.0
4.041771 1.549094 0.005588 0.0
2.984874 0.285725 -0.003889 0.0
4.081416 1.658701 0.002359 0.0
3.221586 1.795661 0.003186 0.0
2.242915 0.695933 0.007048 0.0
2.903160 0.654700 0.001008 0.0
4.449763 1.239040 0.004277 0.0
1.829988 1.013146 0.001962 0.0
2.735827 0.586764 0.002389 0.0
3.487206 1.021940 0.006042 0.0
3.914709 1.422958 0.000643 0.0
0.259032 1.137463 0.000751 0.0
0.362900 1.802367 0.000181 0.0
0.850908 0.395268 -0.004260 0.0
2.587701 0.822379 -0.000887 0.0
3.024793 0.115076 0.002492 0.0
3.057593 0.063128 0.000421 0.0
0.224758 1.291861 0.002275 0.0
4.853705 0.254049 -0.005055 0.0
4.153416 0.470597 -0.002876 0.0
2.485127 0.274191 0.000495 0.0
0.102809 1.003159 -0.001147 0.0
2.207053 0.651838 -0.000388 0.0
1.714350 1.301641 0.001773 0.0
2.072595 0.493657 -0.001029 0.0
4.632974 1.752164 -0.001199 0.0
0.537448 1.721929 -0.002115 0.0
1.043505 1.492124 -0.002376 0.0
0.584125 1.266297 -0.002200 0.0
3.196595 0.691097 -0.001086 0.0
2.946509 0.817055 -0.000663 0.0
4.670318 1.691586 -0.002784 0.0
2.057013 0.077987 -0.000384 0.0
1.576046 1.581133 0.000930 0.0
3.864477 1.696023 -0.000275 0.0
2.119739 0.953102 0.001643 0.0
3.443784 0.212073 -0.000110 0.0
1.991849 0.516400 0.000799 0.0
2.848306 0.481100 0.002364 0.0
1.450317 1.826162 -0.001057 0.0
3.168276 0.750991 0.000808 0.0
2.302725 0.849628 0.000234 0.0
0.805410 1.921563 -0.002015 0.0
2.000962 1.678207 0.000053 0.0
0.516049 0.057446 -0.002588 0.0
2.533854 1.048895 -0.002771 0.0
1.918464 0.245978 0.002263 0.0
4.590651 1.981593 -0.002398 0.0
3.504882 1.535376 0.000848 0.0
2.271641 1.153622 0.006490 0.0
3.701193 1.118040 0.002433 0.0
0.615485 1.166719 -0.000671 0.0
1.164664 0.515194 0.001578 0.0
3.591441 1.704881 0.002480 0.0
4.447352 1.701898 0.000110 0.0
0.732588 0.624970 -0.000458 0.0
2.564389 0.877847 0.001847 0.0
3.328583 1.435023 0.005420 0.0
4.865083 1.769839 -0.001846 0.0
0.211660 1.570692 -0.003178 0.0
1.835464 1.474232 -0.000092 0.0
3.058613 0.171396 0.004214 0.0
1.602975 2.023468 -0.000482 0.0
4.903156 1.399717 -0.004809 0.0
2.575997 1.766504 -0.000500 0.0
2.193453 1.320807 -0.002549 0.0
0.906914 0.805752 0.003421 0.0
0.975408 0.651565 -0.003299 0.0
1.966099 1.523041 -0.000281 0.0
2.766546 0.353390 -0.000404 0.0
4.389053 0.160537 0.002887 0.0
4.516461 0.630684 0.001072 0.0
3.930937 1.542725 0.000567 0.0
2.543744 0.971587 0.001848 0.0
0.956221 1.292533 0.004948 0.0
3.213716 1.825971 0.001581 0.0
1.821836 0.794004 -0.004902 0.0
2.962105 0.172653 0.001163 0.0
0.526107 1.949705 0.002705 0.0
3.679414 1.654737 -0.003965 0.0
1.412001 0.200865 0.003808 0.0
2.630442 0.003956 0.000132 0.0
0.246269 0.685365 -0.002255 0.0
4.398233 0.045523 -0.004953 0.0
4.711334 0.135210 0.001634 0.0
1.338821 1.180493 0.000792 0.0
1.718118 0.846258 -0.000598 0.0
0.086733 1.119593 0.002435 0.0
4.239358 0.122159 -0.001957 0.0
0.677781 0.105526 -0.001200 0.0
2.977832 0.381317 0.002340 0.0
0.987969 0.931345 -0.002081 0.0
3.711045 1.336019 -0.000562 0.0
3.712347 0.652120 -0.000341 0.0
0.731880 0.039953 -0.000616 0.0
3.279962 1.816255 0.000647 0.0
3.012155 1.484350 0.004151 0.0
3.618757 0.308536 -0.001331 0.0
1.255228 1.228426 -0.001900 0.0
3.048787 0.755039 -0.004758 0.0
4.858441 1.985228 -0.002812 0.0
2.769246 0.500112 0.001005 0.0
2.162895 1.386650 0.001124 0.0
4.871661 0.401112 0.002733 0.0
4.758186 1.580495 0.001742 0.0
2.834916 0.569438 -0.003980 0.0
4.047255 1.121024 0.001678 0.0
4.094098 1.436998 -0.000428 0.0
2.369778 1.914694 -0.001652 0.0
3.801866 1.233253 -0.001451 0.0
0.268878 1.979359 0.000344 0.0
3.377064 1.427036 0.002040 0.0
3.343301 1.533735 0.002083 0.0
3.804509 1.104940 0.001400 0.0
3.948064 1.743933 -0.000203 0.0
3.798318 0.322623 0.000278 0.0
4.705902 1.601486 -0.003217 0.0
3.181438 0.941758 0.000388 0.0
3.522986 1.804150 -0.003871 0.0
2.905291 0.001223 0.000753 0.0
4.265882 1.302542 0.002915 0.0
3.972032 0.331656 -0.000004 0.0
0.690227 1.134995 -0.001246 0.0
3.914938 0.073393 0.003669 0.0
2.616514 0.963941 -0.003171 0.0
1.677920 0.659404 -0.000323 0.0
1.341630 1.299535 -0.003126 0.0
2.101791 1.145542 -0.001062 0.0
4.449008 1.273580 -0.003278 0.0
0.041614 1.042976 0.000426 0.0
2.230672 1.096827 0.002096 0.0
4.307136 0.571796 -0.000237 0.0
2.078484 0.263571 0.003183 0.0
0.779469 1.636810 0.003927 0.0
4.859873 0.243071 -0.001693 0.0
3.882291 0.262973 -0.000121 0.0
2.797889 0.850901 -0.000936 0.0
0.295611 1.728589 -0.001510 0.0
4.702155 0.516331 0.001678 0.0
0.096129 0.461308 -0.002614 0.0
3.200398 0.241488 0.000983 0.0
0.849774 0.604397 -0.001353 0.0
4.393308 0.483312 -0.002431 0.0
0.467673 0.003825 0.001877 0.0
0.297326 0.228720 0.002530 0.0
0.981801 1.210573 -0.000473 0.0
1.026094 0.283278 -0.000360 0.0
1.832077 0.231514 0.003823 0.0
1.582562 1.253498 0.001467 0.0
4.624149 0.035073 -0.002944 0.0
3.828538 0.790160 -0.000340 0.0
4.013129 0.509900 -0.004298 0.0
1.888091 0.193534 -0.001348 0.0
4.386729 0.997647 -0.003063 0.0
1.646890 0.527971 -0.000846 0.0
2.885827 0.718825 0.001496 0.0
3.462673 0.331866 -0.003141 0.0
0.767764 0.404022 -0.000972 0.0
1.306162 0.476013 0.002132 0.0
4.541605 0.428288 -0.000682 0.0
2.778771 1.588244 0.000880 0.0
0.662634 1.025402 -0.000256 0.0
2.441980 1.249580 -0.001154 0.0
3.564897 1.375560 0.000394 0.0
1.091693 1.164183 0.002846 0.0
2.070112 1.231424 -0.003247 0.0
2.067732 1.053276 0.001406 0.0
0.938158 0.177085 -0.004263 0.0
2.424066 1.951718 0.001856 0.0
3.633860 2.000680 -0.001385 0.0
2.479481 0.707463 0.003350 0.0
4.600451 0.633655 0.001538 0.0
4.382088 0.924820 -0.000655 0.0
1.924130 1.988777 -0.003820 0.0
1.006172 1.189675 -0.003675 0.0
4.099130 1.784161 -0.004714 0.0
0.551869 0.809517 -0.003709 0.0
2.900521 1.882700 -0.000011 0.0
4.326827 0.605086 0.001402 0.0
3.193834 1.470795 -0.001546 0.0
4.179016 1.060325 -0.000136 0.0
0.153546 0.433344 -0.003331 0.0
3.500163 0.313370 0.001449 0.0
2.232953 0.136590 0.000402 0.0
1.218528 0.715209 -0.000981 0.0
1.074881 0.611606 -0.004642 0.0
2.155113 0.396642 -0.004074 0.0
2.634457 0.441423 -0.000343 0.0
3.523124 0.772878 0.000995 0.0
0.020182 1.990130 0.000269 0.0
0.473445 0.784851 -0.003042 0.0
4.353096 1.914766 -0.001407 0.0
2.261223 1.904331 -0.003497 0.0
1.268296 0.415622 -0.002119 0.0
4.572072 0.633238 0.003854 0.0
2.428558 0.445721 -0.001652 0.0
0.470354 1.945458 -0.002884 0.0
1.242431 0.296764 -0.003063 0.0
3.894375 0.451336 0.003327 0.0
4.533796 0.410123 -0.001646 0.0
2.873103 1.274061 -0.000867 0.0
3.361213 1.777514 -0.000541 0.0
2.263897 0.184527 -0.001062 0.0
0.042590 1.362079 0.005166 0.0
3.243424 0.757841 -0.001090 0.0
0.682591 0.098028 0.001510 0.0
2.134398 1.434586 0.001388 0.0
0.009856 1.808067 0.003381 0.0
0.701565 1.173011 -0.001106 0.0
3.146943 0.510831 -0.002650 0.0
2.025555 0.198837 -0.001076 0.0
1.280271 1.157787 -0.001922 0.0
2.692867 0.673411 -0.001758 0.0
2.046557 0.091141 -0.000496 0.0
3.966532 0.606976 0.000232 0.0
1.376533 1.506049 -0.005058 0.0
4.370380 0.193259 0.003963 0.0
4.867628 0.662363 -0.001798 0.0
0.057565 1.206234 0.004333 0.0
3.308569 1.346639 0.003637 0.0
4.336885 1.547607 0.003316 0.0
0.102424 1.412144 -0.000925 0.0
2.705821 1.289273 0.001813 0.0
3.651829 1.182143 -0.000396 0.0
1.158398 1.841727 0.001403 0.0
0.364458 0.222488 -0.002399 0.0
2.206805 0.311757 -0.001008 0.0
4.653159 1.772851 -0.003974 0.0
4.884100 1.708447 0.003244 0.0
4.819650 1.694919 0.001757 0.0
1.065562 1.154820 0.001098 0.0
3.539348 1.396317 -0.000489 0.0
0.680220 1.279625 -0.005348 0.0
2.612146 0.199378 0.001700 0.0
3.886504 0.449707 0.000674 0.0
1.405643 0.179697 -0.000861 0.0
2.960824 1.649685 0.002639 0.0
1.002474 0.834037 -0.001943 0.0
4.340513 0.811704 -0.002088 0.0
3.455262 1.334772 0.002600 0.0
3.564480 0.070054 0.000206 0.0
3.983267 0.787243 -0.002026 0.0
4.722279 1.705846 -0.002697 0.0
3.505040 1.704162 -0.000912 0.0
0.505988 1.523815 0.002015 0.0
3.960584 1.616360 -0.003999 0.0
0.343029 1.071341 -0.003658 0.0
3.286728 0.234798 -0.002447 0.0
0.920298 1.295320 -0.000835 0.0
4.698756 0.337714 -0.000075 0.0
3.026996 0.036446 -0.005545 0.0
1.329379 1.783359 0.005606 0.0
2.057610 1.512765 0.001641 0.0
3.589475 1.772968 0.004100 0.0
3.457615 0.326726 0.001442 0.0
0.714183 0.826558 -0.001445 0.0
0.508985 0.768466 0.001086 0.0
3.215691 0.825140 0.000044 0.0
2.626128 0.199540 -0.001198 0.0
4.125286 0.880136 0.000507 0.0
0.668930 0.977850 0.000492 0.0
2.915827 0.232556 0.004940 0.0
4.465639 1.097994 -0.000359 0.0
1.438983 1.454218 -0.000365 0.0
0.837280 0.209120 0.001747 0.0
2.432854 1.783092 -0.001040 0.0
2.829009 1.273805 -0.000910 0.0
3.883887 0.703733 0.001927 0.0
4.841521 0.446961 -0.004330 0.0
3.796437 1.311921 0.003160 0.0
1.722561 0.172068 -0.002069 0.0
0.529394 0.878769 -0.003438 0.0
2.474172 1.214656 0.000873 0.0
3.328177 1.358615 0.000229 0.0
4.419396 1.546863 -0.001162 0.0
2.295741 0.200385 0.000465 0.0
4.797987 0.006158 -0.003557 0.0
0.778593 0.629693 -0.001327 0.0
0.498555 0.069179 0.001500 0.0
1.948962 0.594714 -0.001872 0.0
2.981238 1.624244 -0.003173 0.0
4.647384 0.065249 0.000196 0.0
0.238987 0.242884 -0.001656 0.0
1.165240 0.808912 0.001468 0.0
3.244576 1.572718 -0.004454 0.0
1.696400 0.143359 0.002181 0.0
1.249656 1.570770 -0.000681 0.0
3.811891 1.018262 0.001003 0.0
4.893389 1.115598 -0.002004 0.0
0.372522 0.614602 -0.002999 0.0
2.906234 0.508356 0.003523 0.0
4.886688 1.727982 -0.001100 0.0
1.915702 0.517893 -0.000034 0.0
2.370410 1.953529 0.000666 0.0
4.513141 1.444783 0.002158 0.0
0.943933 0.361146 -0.000248 0.0
0.809924 1.000082 0.002331 0.0
0.955836 0.761830 -0.000831 0.0
3.831745 1.551240 0.004594 0.0
1.131815 1.324053 -0.000088 0.0
3.250803 0.703643 -0.000503 0.0
1.100591 0.576856 -0.000979 0.0
1.656239 0.386776 -0.000904 0.0
4.878984 1.103312 -0.001743 0.0
0.759628 1.050643 0.002715 0.0
4.258591 0.254696 -0.000032 0.0
1.126895 1.539065 -0.001771 0.0
3.136978 0.048256 0.001824 0.0
2.259861 1.325157 0.000478 0.0
2.109282 1.790146 0.002257 0.0
2.430108 1.164841 -0.004950 0.0
4.091225 1.070142 0.002306 0.0
4.562360 0.654168 -0.004325 0.0
0.586484 1.302197 -0.004812 0.0
1.835864 1.210165 -0.001650 0.0
1.769038 1.924149 0.006220 0.0
1.906296 0.445540 0.001608 0.0
2.867249 1.133092 -0.003546 0.0
0.239116 0.776629 0.004382 0.0
3.323672 1.732177 0.001421 0.0
3.552112 1.452160 0.003502 0.0
2.955193 1.851032 -0.000311 0.0
3.840089 1.945506 -0.002866 0.0
3.789643 0.962181 -0.000512 0.0
2.280278 1.971946 -0.001045 0.0
3.512246 0.455322 0.005110 0.0
4.160149 0.444728 -0.001566 0.0
1.664199 1.654137 -0.000954 0.0
1.733073 1.606793 0.001617 0.0
3.852698 1.180863 -0.003269 0.0
2.964431 1.983300 0.000196 0.0
4.630855 0.467351 -0.003589 0.0
2.513075 0.651039 0.001849 0.0
4.028654 1.269516 0.001590 0.0
0.447419 0.912568 -0.000085 0.0
4.205114 0.408359 0.003526 0.0
4.454397 1.607328 -0.000384 0.0
2.765852 0.919276 0.000669 0.0
3.833326 1.265867 -0.005078 0.0
3.405767 0.732102 0.001016 0.0
1.136094 1.296901 0.000862 0.0
2.108975 1.431409 -0.000016 0.0
0.708954 1.694817 -0.001747 0.0
4.846248 2.008369 -0.002858 0.0
0.072031 0.845823 0.000012 0.0
1.120218 0.255275 -0.003001 0.0
4.422786 1.248496 0.003270 0.0
0.464102 0.364080 0.002344 0.0
1.448867 0.492275 -0.001373 0.0
1.073682 0.983910 0.001814 0.0
2.618395 1.971491 -0.000814 0.0
4.240647 1.131287 0.003250 0.0
4.398360 1.803923 0.003259 0.0
3.263359 0.149199 0.001015 0.0
1.770586 0.967044 0.000943 0.0
2.064066 1.262019 -0.003924 0.0
2.414720 0.654363 0.002690 0.0
0.073549 0.304512 0.001807 0.0
2.753525 0.977389 -0.000932 0.0
3.414128 1.286542 0.000389 0.0
4.708280 0.888015 -0.002945 0.0
1.975505 1.748006 0.000895 0.0
1.948185 1.209970 -0.001205 0.0
0.419258 1.922765 -0.000956 0.0
2.156164 0.018441 -0.001532 0.0
1.649370 1.220012 -0.000473 0.0
2.349152 1.371090 0.003540 0.0
4.073128 0.485482 0.000728 0.0
1.115543 0.860930 -0.006182 0.0
0.229717 1.215563 0.002300 0.0
2.858110 0.124483 0.002496 0.0
4.026582 0.962042 0.002870 0.0
1.914651 0.202335 -0.001360 0.0
0.195465 1.852471 0.002889 0.0
0.255866 1.480505 -0.002584 0.0
2.189927 1.461336 -0.000993 0.0
2.919206 1.068995 0.001517 0.0
2.850598 1.108829 0.000180 0.0
4.095482 0.079409 -0.004835 0.0
1.896772 1.549767 -0.001532 0.0
4.362095 1.133528 -0.001151 0.0
1.305156 1.626461 0.001984 0.0
3.784874 0.713378 -0.003224 0.0
0.234569 1.429109 0.002781 0.0
2.234935 0.957596 0.002874 0.0
0.171728 0.970308 -0.001933 0.0
1.863364 1.240863 0.000987 0.0
0.533597 1.799247 0.003347 0.0
2.888728 1.965228 -0.000159 0.0
0.022440 1.724793 0.000935 0.0
0.917593 0.121457 -0.000754 0.0
0.677221 1.907111 0.000765 0.0
0.266406 1.980073 0.004128 0.0
0.664977 1.575735 0.000132 0.0
2.483250 1.689890 -0.000159 0.0
2.987629 1.752288 -0.001327 0.0
4.605475 0.498080 -0.003039 0.0
2.978567 0.819987 -0.003235 0.0
2.949629 1.044628 0.002231 0.0
3.390327 1.297669 0.003942 0.0
2.466983 1.490935 -0.001926 0.0
3.363820 0.180888 0.002974 0.0
4.036730 1.653734 -0.001918 0.0
1.630885 0.003767 0.000404 0.0
3.099717 1.171957 0.000434 0.0
0.057193 1.928057 -0.000596 0.0
3.440046 1.967563 0.004956 0.0
2.991364 0.570876 -0.001049 0.0
2.679132 0.064876 -0.001155 0.0
0.690836 0.019322 -0.003595 0.0
0.936379 0.190150 -0.001595 0.0
2.328494 0.100883 0.001647 0.0
0.703819 0.106659 0.004580 0.0
2.012534 1.623240 0.000760 0.0
4.802178 1.907565 0.001306 0.0
1.262693 1.252856 0.002621 0.0
3.157317 0.087500 0.002162 0.0
3.170146 1.917734 -0.002201 0.0
4.732197 2.016447 -0.000599 0.0
2.834474 1.417879 0.003835 0.0
0.328170 0.036991 0.001359 0.0
3.271358 1.334860 0.001871 0.0
0.734768 0.102413 0.000500 0.0
1.214929 1.998040 0.003534 0.0
3.809496 0.239126 0.000248 0.0
1.538822 1.899022 0.000743 0.0
3.666718 1.038637 -0.001935 0.0
3.659353 0.279660 0.003585 0.0
3.380651 1.402468 0.002361 0.0
4.125167 1.014630 -0.002391 0.0
0.305133 1.407968 0.003482 0.0
0.846776 0.670690 -0.001471 0.0
4.065459 0.610692 -0.000737 0.0
4.507795 1.554563 -0.000524 0.0
4.688759 1.820846 -0.002304 0.0
1.923232 1.372678 0.001639 0.0
3.192447 0.138796 -0.000099 0.0
0.471237 0.715845 -0.001599 0.0
2.403354 1.489026 0.001429 0.0
4.383933 0.870289 0.004610 0.0
0.739719 1.009309 -0.002689 0.0
0.163245 1.432213 0.000938 0.0
0.964209 2.019390 -0.000093 0.0
1.801618 0.896933 0.003536 0.0
1.132044 0.865714 0.001821 0.0
4.182212 1.062065 -0.002652 0.0
4.159674 0.583428 0.003563 0.0
0.157665 1.191478 0.002204 0.0
3.649275 1.497704 -0.000866 0.0
2.827705 1.470632 0.003454 0.0
2.935352 0.515880 0.001367 0.0
4.776928 1.599915 -0.000357 0.0
0.764301 1.700970 -0.002858 0.0
2.329299 0.173388 0.000827 0.0
1.492419 0.999896 0.000883 0.0
1.225117 0.260697 -0.000632 0.0
3.378703 1.874185 0.002480 0.0
0.243948 1.534828 0.001337 0.0
1.793976 1.672106 0.000522 0.0
0.510593 1.206426 -0.002132 0.0
4.886788 1.669285 -0.001005 0.0
1.228667 0.690587 -0.000424 0.0
0.694737 0.754181 0.001640 0.0
4.564709 0.751678 0.000708 0.0
4.419986 0.306269 0.000777 0.0
4.724632 0.283458 0.000263 0.0
2.227275 1.819622 0.003201 0.0
2.701550 1.318143 0.000490 0.0
0.969110 0.514197 0.000122 0.0
1.887658 1.967256 0.002761 0.0
0.867923 1.036232 0.000264 0.0
0.629814 1.942821 0.000870 0.0
2.987891 1.712255 0.001462 0.0
3.166977 1.751316 0.002935 0.0
3.532221 1.114278 0.003284 0.0
1.767949 0.831837 -0.002186 0.0
0.684130 0.411195 0.000009 0.0
0.372051 1.270783 -0.003212 0.0
2.734712 1.052278 0.000632 0.0
0.642142 1.268812 -0.000809 0.0
2.768689 1.673330 -0.001576 0.0
3.672368 1.959018 -0.003410 0.0
0.617005 0.229053 0.002548 0.0
4.814654 0.515934 0.002555 0.0
2.535789 1.814075 -0.000844 0.0
0.770064 1.449143 -0.001499 0.0
0.930449 1.334185 0.001457 0.0
0.093709 1.047072 0.000732 0.0
3.786482 0.939033 0.003365 0.0
2.207578 0.357527 -0.000690 0.0
1.463228 1.995120 0.000226 0.0
1.374554 1.669249 0.000981 0.0
3.138331 1.801415 0.005136 0.0
2.772568 1.786411 -0.005696 0.0
3.712942 0.309348 0.000247 0.0
3.071882 1.854752 -0.002577 0.0
2.720246 1.765185 -0.000111 0.0
2.077662 0.074652 -0.002870 0.0
1.847481 1.763115 0.000709 0.0
4.575711 0.050946 0.002710 0.0
1.741360 1.388349 -0.001394 0.0
3.063996 0.143965 -0.000462 0.0
3.664872 0.758881 -0.001538 0.0
1.253485 1.421034 0.001124 0.0
3.998592 0.291343 0.000198 0.0
4.588680 1.906219 -0.003370 0.0
3.425206 0.499066 0.003405 0.0
4.537508 1.168981 0.001386 0.0
2.317481 1.010431 0.003646 0.0
2.684586 0.149213 0.001203 0.0
3.175167 0.600522 -0.000629 0.0
4.063524 1.792630 -0.003246 0.0
3.518993 1.495354 0.000999 0.0
0.454184 0.208987 0.000179 0.0
0.662493 0.169497 0.000958 0.0
2.639698 1.359913 0.000352 0.0
2.302290 1.593041 0.000835 0.0
3.046695 1.836187 -0.003912 0.0
3.906157 1.070023 0.000287 0.0
1.132664 0.713522 -0.001745 0.0
4.506425 0.123733 0.000558 0.0
1.787142 0.435498 -0.003277 0.0
4.142550 0.089480 -0.002910 0.0
2.612449 0.360026 -0.002889 0.0
0.840061 1.681824 -0.000304 0.0
4.827901 0.964928 -0.002655 0.0
2.058048 0.907532 -0.001226 0.0
4.784602 1.492376 -0.000865 0.0
3.351000 1.162963 -0.003185 0.0
4.729940 0.917007 -0.002445 0.0
0.668275 0.489827 -0.000225 0.0
1.861794 1.153365 0.002389 0.0
1.407006 1.235813 -0.001678 0.0
0.298378 0.147334 0.003695 0.0
0.019132 1.784965 0.000216 0.0
0.865737 1.233131 -0.001285 0.0
2.264641 0.367325 0.004888 0.0
2.858130 1.839407 0.001334 0.0
1.753291 0.307136 -0.005426 0.0
4.642859 1.997733 -0.002988 0.0
2.638352 1.140112 0.002357 0.0
0.699158 1.721681 0.002289 0.0
2.339881 1.014284 -0.002317 0.0
1.872294 1.136479 0.001784 0.0
3.510231 1.295403 0.000990 0.0
4.438024 1.077871 0.003493 0.0
1.826602 0.325170 -0.003873 0.0
2.058569 0.797882 0.001476 0.0
2.947812 0.626989 0.000369 0.0
2.154455 0.420230 0.001674 0.0
3.808519 1.764346 0.003408 0.0
3.385318 0.815575 0.002335 0.0
3.469618 0.476901 -0.000571 0.0
2.377794 0.876778 -0.001151 0.0
3.932072 0.630451 -0.000994 0.0
1.725484 0.726078 0.001320 0.0
0.239739 0.949898 -0.000909 0.0
2.734862 0.324603 0.000330 0.0
0.135248 0.330154 0.000447 0.0
0.188574 0.767324 0.003636 0.0
3.031396 1.562194 -0.000807 0.0
3.221755 1.132059 -0.002013 0.0
0.717035 0.791869 0.005948 0.0
0.417159 1.224954 -0.002032 0.0
4.162822 0.277881 0.006304 0.0
1.657526 0.197075 0.001073 0.0
1.887307 0.696840 -0.002194 0.0
2.405662 0.132486 -0.003463 0.0
0.939862 0.321594 0.003619 0.0
0.831384 0.038024 -0.003765 0.0
3.555939 0.650017 -0.003851 0.0
1.475856 0.812762 0.001427 0.0
2.005101 0.554371 0.001991 0.0
1.211774 1.223734 -0.004909 0.0
1.293879 1.948255 -0.003071 0.0
1.705871 1.327827 -0.000313 0.0
2.571112 0.340027 -0.001549 0.0
4.329109 0.705799 0.003351 0.0
0.605524 1.663763 -0.002051 0.0
4.070706 1.907569 0.001842 0.0
1.469199 0.605075 0.003066 0.0
2.391255 0.567294 -0.003558 0.0
3.635143 0.212526 0.000641 0.0
1.093867 0.609852 0.000610 0.0
0.880446 0.335243 -0.000843 0.0
1.087576 1.227630 0.001627 0.0
4.155707 0.591051 0.000088 0.0
2.507018 0.423303 0.003008 0.0
2.302987 0.743484 0.000109 0.0
1.902044 0.477594 0.000139 0.0
1.896798 0.913335 0.001056 0.0
1.555746 0.508219 0.004515 0.0
4.050350 0.716502 0.001288 0.0
0.957019 0.772062 -0.000391 0.0
0.705339 0.790068 -0.000318 0.0
3.602227 1.695172 -0.000227 0.0
1.459438 0.412593 -0.001991 0.0
3.925861 1.336291 0.001678 0.0
1.905302 0.877277 0.001463 0.0
4.476396 0.633017 0.001893 0.0
3.565802 0.872291 -0.000591 0.0
1.644619 1.147545 -0.002946 0.0
4.019530 0.280681 -0.000175 0.0
1.812263 1.021837 0.003891 0.0
4.106769 0.514422 0.000592 0.0
3.534163 2.019081 -0.003041 0.0
3.729497 1.288525 -0.000066 0.0
4.098022 0.204895 0.001939 0.0
2.365584 0.019801 -0.003064 0.0
1.523472 0.255533 0.002898 0.0
2.586962 1.210574 -0.000617 0.0
3.120647 1.146502 -0.000464 0.0
3.662436 1.510507 -0.003274 0.0
4.860900 1.707951 0.003577 0.0
0.053528 0.103921 0.001472 0.0
4.812442 1.442482 -0.002638 0.0
2.907471 0.020542 0.001941 0.0
1.814759 0.569326 0.000849 0.0
0.970362 1.566074 0.000065 0.0
3.036040 0.077253 -0.002946 0.0
3.125547 1.614044 -0.000683 0.0
3.843175 1.612231 -0.002365 0.0
1.312143 1.364933 -0.001012 0.0
4.257283 1.854662 0.000933 0.0
1.014267 0.908695 0.000022 0.0
1.798047 1.044602 0.000151 0.0
0.768655 1.102260 0.000705 0.0
3.016552 0.135151 0.001344 0.0
0.486709 1.617581 -0.001751 0.0
3.160594 0.565837 -0.004159 0.0
0.753097 1.227734 0.007062 0.0
4.633419 0.646117 0.000426 0.0
0.649003 1.866167 -0.003387 0.0
1.911741 1.128267 -0.001034 0.0
3.804422 1.516703 0.001589 0.0
0.474620 1.007815 -0.002746 0.0
2.731445 0.139599 0.002515 0.0
4.224171 0.161028 0.002452 0.0
1.059603 1.107022 -0.003831 0.0
4.245823 1.743301 0.001461 0.0
2.298148 0.423099 -0.002892 0.0
3.155712 1.783839 -0.002000 0.0
2.061279 1.181222 -0.005530 0.0
1.437196 1.097634 0.003036 0.0
4.672926 0.332371 -0.000942 0.0
2.190917 1.541377 0.005700 0.0
4.381251 1.514311 0.000556 0.0
0.483030 1.758346 -0.003741 0.0
2.039285 1.363971 0.002946 0.0
2.257496 0.506677 0.002135 0.0
0.957527 1.892277 -0.001519 0.0
1.515372 0.772908 -0.003001 0.0
0.199523 0.647786 -0.000558 0.0
1.625918 1.032762 0.001090 0.0
2.967677 0.472323 -0.000297 0.0
3.780903 1.342182 -0.002138 0.0
0.727328 0.719348 0.002070 0.0
1.282861 1.459335 -0.001068 0.0
2.713500 0.345707 0.001375 0.0
0.914035 0.099148 -0.001578 0.0
4.051610 1.000827 -0.002910 0.0
3.175877 0.017980 -0.002566 0.0
2.192712 1.993360 0.001678 0.0
0.604556 0.054625 0.001668 0.0
3.429822 1.254362 -0.002058 0.0
1.560552 1.765137 -0.004334 0.0
4.717177 0.115134 -0.000366 0.0
0.376890 1.107671 -0.003312 0.0
0.117345 0.115215 0.002071 0.0
0.473677 0.378400 -0.001330 0.0
1.566971 0.442153 -0.001665 0.0
3.431696 1.467612 -0.001065 0.0
1.149583 1.531871 -0.001261 0.0
2.743178 0.607672 -0.003580 0.0
0.078642 1.934907 -0.003952 0.0
4.000925 0.603941 0.001344 0.0
4.236595 0.479107 -0.003437 0.0
4.766184 0.117110 -0.000723 0.0
1.395926 1.421851 0.002439 0.0
4.326790 2.004043 0.002912 0.0
0.811870 0.004954 -0.002912 0.0
4.012358 0.520416 0.000176 0.0
2.847396 0.879061 0.001773 0.0
4.660639 1.383109 -0.006261 0.0
2.192979 1.272095 -0.001360 0.0
2.026674 1.505381 0.001190 0.0
1.167663 1.784896 -0.004799 0.0
3.964068 2.020958 0.003412 0.0
0.443411 0.079138 -0.004299 0.0
4.104721 1.350188 -0.001559 0.0
1.988517 1.850729 0.000366 0.0
2.577226 1.944872 -0.000741 0.0
1.007048 0.101470 -0.002215 0.0
4.449213 0.108065 -0.000475 0.0
2.404376 1.658514 0.001310 0.0
0.379006 0.222732 -0.003168 0.0
4.773079 0.182433 -0.003586 0.0
2.964001 1.995096 0.000306 0.0
4.523324 0.664870 -0.001139 0.0
0.974567 0.795594 -0.004441 0.0
0.805783 0.352166 0.006150 0.0
0.558741 1.017240 -0.001478 0.0
2.597279 1.568238 0.001248 0.0
1.332180 0.904587 0.000959 0.0
2.901797 0.884854 -0.003485 0.0
1.646858 0.268019 0.000967 0.0
2.171255 0.792966 0.002138 0.0
3.528783 1.990406 0.000761 0.0
4.139360 0.712990 0.000931 0.0
1.699412 1.446803 0.003173 0.0
3.478722 1.781108 -0.001446 0.0
2.204002 1.478869 -0.003164 0.0
2.366988 0.348221 -0.003112 0.0
3.174597 1.886703 0.000570 0.0
1.197634 1.177640 -0.003498 0.0
3.678878 0.294550 0.001544 0.0
4.399407 0.649882 0.003768 0.0
1.007373 0.464530 0.004014 0.0
2.521245 1.468574 0.003316 0.0
2.352336 0.003399 0.004132 0.0
2.429933 0.642089 -0.003635 0.0
0.326871 1.763620 -0.006262 0.0
4.435916 0.733365 0.004616 0.0
3.135845 1.980708 0.000244 0.0
2.160386 0.882673 -0.001480 0.0
4.618530 0.912784 0.002125 0.0
3.664326 0.417562 0.000214 0.0
1.986929 0.347907 0.002115 0.0
2.287856 1.240325 0.001490 0.0
2.838300 1.585516 0.000891 0.0
3.826916 1.753785 -0.001138 0.0
2.574169 1.571996 0.000673 0.0
2.170937 0.924458 -0.003872 0.0
2.780720 0.602335 0.004905 0.0
3.912556 0.345053 0.002676 0.0
1.417152 0.364770 -0.000159 0.0
0.588674 1.709621 -0.000927 0.0
4.145300 1.243746 -0.005248 0.0
2.132213 1.609004 -0.002024 0.0
2.766405 0.867978 0.001509 0.0
2.536552 0.414838 -0.005587 0.0
4.410827 1.778043 -0.006183 0.0
3.445832 1.111259 0.001001 0.0
2.741633 0.611460 0.003011 0.0
3.918478 0.519090 -0.003432 0.0
1.384231 1.620201 0.002432 0.0
1.666889 0.209525 -0.000978 0.0
4.326097 1.975415 0.002849 0.0
4.390473 0.242821 -0.002487 0.0
3.693908 0.794159 -0.000242 0.0
4.326434 1.773405 0.000002 0.0
0.308118 1.993761 0.000340 0.0
2.682310 0.266510 -0.002420 0.0
3.295773 0.322351 0.001983 0.0
0.144224 0.880636 0.004221 0.0
0.682746 0.678727 0.002352 0.0
2.719457 1.887144 0.000506 0.0
1.427607 1.001877 0.001598 0.0
4.848454 0.500853 0.003096 0.0
4.150343 1.057762 0.003122 0.0
0.626160 1.359573 0.001097 0.0
1.508336 1.975587 -0.000256 0.0
2.106428 1.966044 -0.000822 0.0
4.153728 1.212283 -0.002091 0.0
4.442298 1.309480 0.003724 0.0
0.560163 0.681431 0.004909 0.0
0.038841 0.337326 0.001306 0.0
2.491232 0.096046 -0.001607 0.0
1.012057 1.724118 0.003690 0.0
1.676676 1.666389 0.000980 0.0
2.636484 0.880295 -0.002506 0.0
2.408990 0.100110 -0.001552 0.0
0.989558 0.790818 0.003619 0.0
3.007269 1.311345 -0.002213 0.0
0.931326 1.345790 -0.007095 0.0
2.116188 0.245835 -0.000764 0.0
2.857093 0.854542 0.000084 0.0
1.909922 0.772550 0.000582 0.0
4.569816 0.492970 0.002799 0.0
1.808552 1.680911 -0.001075 0.0
4.062560 1.735350 0.001077 0.0
1.976483 1.649910 0.003353 0.0
4.011553 1.683811 0.000509 0.0
0.156862 1.494109 -0.003020 0.0
2.520087 1.012610 -0.001128 0.0
3.904884 0.468221 -0.000249 0.0
1.078263 0.610660 0.000230 0.0
1.876677 0.690615 0.002043 0.0
1.920692 1.013138 0.002909 0.0
1.462476 1.533705 0.000461 0.0
3.255285 1.077600 0.000595 0.0
1.235281 0.757415 0.002860 0.0
1.273163 0.610794 0.003338 0.0
0.061696 0.064153 -0.004990 0.0
0.651644 1.111781 -0.001346 0.0
1.962719 1.739678 0.001496 0.0
0.337569 1.675794 0.002004 0.0
4.293101 1.586713 -0.000832 0.0
1.577977 1.070735 0.001007 0.0
4.338723 1.942690 0.000253 0.0
3.371449 0.968046 -0.004359 0.0
2.677416 1.806845 0.003416 0.0
3.143584 1.302737 0.004613 0.0
3.218609 0.614123 0.002724 0.0
2.244482 1.271514 -0.002436 0.0
0.124965 0.880653 0.000084 0.0
3.209466 0.715344 0.001796 0.0
3.317685 1.612896 0.000483 0.0
1.426392 1.175825 0.000078 0.0
3.581360 1.598087 -0.001162 0.0
4.855877 0.462376 0.000550 0.0
3.483773 1.299878 0.004699 0.0
0.111807 0.260762 0.003594 0.0
2.869895 0.518027 -0.001866 0.0
0.692361 1.065593 -0.004732 0.0
1.952366 1.874929 -0.002278 0.0
2.444005 0.372626 -0.000818 0.0
0.756100 1.262374 0.004622 0.0
0.960531 1.004475 0.004655 0.0
0.108516 1.750658 0.000880 0.0
1.481331 0.182174 -0.001601 0.0
2.680445 0.595422 -0.000470 0.0
2.242491 0.047499 0.001337 0.0
2.251296 1.976407 0.001875 0.0
1.463333 1.834799 0.001314 0.0
4.414145 1.005203 0.001594 0.0
0.079134 1.935822 -0.001013 0.0
3.244638 1.323246 0.001348 0.0
1.751816 0.554192 0.000231 0.0
3.463254 1.945418 0.000775 0.0
1.140347 1.886643 -0.002121 0.0
2.401560 0.131490 0.003608 0.0
2.391823 1.676108 0.002358 0.0
2.975123 1.695903 -0.000436 0.0
1.260233 0.269276 0.000516 0.0
2.343051 1.569435 0.000381 0.0
2.165652 0.497498 -0.002469 0.0
2.437787 0.803747 0.001434 0.0
4.579038 0.626636 0.000211 0.0
0.232607 0.587627 0.000639 0.0
1.285057 0.994876 0.004273 0.0
2.285956 1.838408 -0.000301 0.0
0.746172 0.132920 -0.001553 0.0
0.101578 1.634922 -0.002861 0.0
1.310818 2.007321 -0.001440 0.0
0.785697 0.472151 -0.001250 0.0
3.827995 1.161585 -0.000031 0.0
3.485763 1.231846 0.000262 0.0
0.701222 0.937429 -0.002383 0.0
1.928353 1.935012 0.002632 0.0
2.580470 0.480751 -0.003632 0.0
4.734977 1.741439 -0.005475 0.0
0.118422 0.572679 -0.002869 0.0
3.874900 0.806760 0.001613 0.0
4.589095 0.058883 -0.002662 0.0
1.735708 1.481012 0.001683 0.0
1.954205 1.205327 -0.001282 0.0
2.053304 1.511494 0.003462 0.0
3.102248 0.396204 0.002643 0.0
4.267324 0.797392 0.000296 0.0
3.551787 1.581147 0.000721 0.0
0.847779 1.414003 -0.007731 0.0
0.937562 1.831689 -0.000771 0.0
1.224151 1.869335 -0.004033 0.0
2.564539 1.492439 0.001440 0.0
1.249284 0.878067 0.000540 0.0
4.599361 0.211124 -0.005507 0.0
0.100803 1.298837 -0.003515 0.0
4.618119 0.413389 0.001506 0.0
1.792624 0.107232 0.000026 0.0
2.889433 0.971915 0.001627 0.0
1.683789 0.559333 0.001234 0.0
3.794679 0.290442 0.006118 0.0
3.689678 0.238178 -0.003287 0.0
3.031047 1.738632 0.000106 0.0
3.323957 0.585631 -0.004089 0.0
4.704285 0.246388 -0.000527 0.0
0.943846 0.415044 -0.000781 0.0
4.356315 2.015506 0.001164 0.0
4.205209 1.180411 -0.006197 0.0
0.184666 2.012202 0.001169 0.0
0.384740 0.265001 -0.000941 0.0
3.179439 1.873096 -0.000694 0.0
0.071785 0.661904 0.000801 0.0
1.917845 0.767115 -0.001562 0.0
3.966275 0.152194 0.000410 0.0
4.791692 1.665878 0.001177 0.0
3.461032 1.350215 0.001125 0.0
1.342392 0.691080 -0.002990 0.0
3.989225 0.600324 -0.002951 0.0
2.723138 0.123974 -0.003155 0.0
4.196971 0.840832 0.002448 0.0
3.969994 0.979460 0.002868 0.0
0.185922 1.720686 0.003791 0.0
3.208559 1.344918 0.002957 0.0
0.485878 1.926627 -0.000786 0.0
2.658643 1.545389 0.000766 0.0
0.400309 1.597122 -0.004242 0.0
0.264022 0.869247 0.001666 0.0
0.888090 0.837043 -0.003952 0.0
4.369018 1.012595 0.003119 0.0
1.847580 1.804307 0.000108 0.0
0.699973 0.005960 0.002887 0.0
2.083306 0.155576 0.000437 0.0
3.836859 0.545653 -0.001269 0.0
2.894131 0.892628 0.001860 0.0
3.000025 1.037819 -0.000198 0.0
2.649602 0.532816 0.001729 0.0
3.329579 1.901364 -0.006093 0.0
1.839625 1.500927 -0.000787 0.0
1.654618 0.125778 0.003631 0.0
2.409369 1.074293 0.003687 0.0
0.340372 0.311510 0.000225 0.0
1.083498 1.762489 -0.001422 0.0
3.104238 0.541305 -0.004087 0.0
0.830247 1.143806 0.001457 0.0
3.979586 1.714999 0.001646 0.0
4.149218 0.430460 -0.007472 0.0
2.424493 0.210795 -0.001875 0.0
3.520306 1.007389 -0.001526 0.0
4.810107 1.187586 0.001697 0.0
4.194951 1.839170 0.003893 0.0
2.709306 0.016971 -0.003796 0.0
4.774363 1.224395 -0.000122 0.0
3.249774 0.309039 -0.000349 0.0
3.693615 1.112182 -0.002375 0.0
4.857003 0.645521 -0.001532 0.0
2.965329 0.850411 -0.002861 0.0
1.348898 1.486028 -0.001507 0.0
0.802745 1.227686 -0.003712 0.0
2.228814 0.097125 0.001703 0.0
1.987990 0.902352 -0.000445 0.0
2.894574 0.128313 -0.000995 0.0
0.878529 1.839199 -0.001087 0.0
3.330157 0.468651 0.000828 0.0
1.719873 1.607952 0.000404 0.0
2.943701 1.598562 -0.000883 0.0
2.394929 0.496349 0.000184 0.0
1.284677 1.600050 0.002426 0.0
2.184958 1.230102 -0.001025 0.0
4.874746 0.119938 0.000374 0.0
0.664502 0.317046 -0.000089 0.0
3.639061 0.073488 0.001424 0.0
0.910844 0.151041 -0.000298 0.0
0.844499 0.717564 0.005178 0.0
4.210374 1.717617 0.001756 0.0
1.129613 1.206549 0.001137 0.0
2.290925 1.685211 0.000073 0.0
4.661636 1.673915 0.001433 0.0
3.294813 0.105387 -0.002984 0.0
2.832759 0.159420 -0.005625 0.0
2.811649 0.342339 -0.000387 0.0
3.132486 0.299835 0.000442 0.0
1.737942 1.569236 -0.000357 0.0
2.139800 1.038483 0.002144 0.0
3.353963 1.031556 0.001240 0.0
4.587269 1.830581 0.001987 0.0
0.270645 1.592939 -0.000981 0.0
0.085464 1.737787 -0.000487 0.0
0.757740 2.013231 -0.001976 0.0
4.656324 1.302273 -0.002778 0.0
1.190853 0.358767 -0.000531 0.0
4.217844 1.778750 0.002038 0.0
2.595482 0.726497 -0.003308 0.0
2.929754 0.356619 0.000505 0.0
1.778221 1.442931 0.001552 0.0
2.362005 0.176130 -0.003170 0.0
0.280978 1.436874 -0.001491 0.0
2.317089 1.843832 0.001930 0.0
4.101428 1.849478 -0.002121 0.0
3.155826 1.028767 0.002531 0.0
4.087307 0.929414 0.000649 0.0
2.624694 0.497837 0.003508 0.0
2.794101 1.794152 -0.000604 0.0
1.788018 1.279550 -0.001318 0.0
2.662132 0.867262 -0.000216 0.0
0.594082 0.812866 -0.000255 0.0
3.115782 0.538972 -0.000214 0.0
4.513279 0.017612 -0.001986 0.0
0.626604 1.165402 -0.000279 0.0
4.618667 1.982643 -0.000584 0.0
4.007947 0.697363 0.003102 0.0
0.881907 0.501932 -0.002010 0.0
3.338623 2.010417 -0.001438 0.0
4.096107 1.912497 -0.001134 0.0
1.192453 1.062891 -0.002481 0.0
4.343130 1.575826 0.003991 0.0
1.892599 1.326862 -0.004457 0.0
0.745778 0.289007 -0.001952 0.0
1.213292 1.216039 0.003380 0.0
2.388562 1.068636 -0.001028 0.0
4.508158 0.550722 0.000096 0.0
2.083380 0.971303 0.000530 0.0
4.667106 1.527226 0.001351 0.0
2.465401 1.737753 -0.001365 0.0
1.772927 0.100311 0.002885 0.0
4.080272 1.469072 -0.000209 0.0
4.759095 1.777174 0.000958 0.0
1.720062 1.490381 0.000931 0.0
0.918992 1.384715 0.001242 0.0
3.777423 0.353838 -0.000261 0.0
4.896036 0.952441 -0.002587 0.0
1.942137 1.018572 -0.001569 0.0
1.916563 0.484818 0.000082 0.0
2.964380 0.112858 -0.003555 0.0
4.000613 1.242042 0.002603 0.0
4.602718 1.299857 -0.003506 0.0
0.882121 0.057696 0.001015 0.0
4.590631 1.328507 -0.000277 0.0
3.477955 1.399745 0.000538 0.0
4.531835 1.217567 0.001664 0.0
1.091924 1.007506 0.003353 0.0
3.949451 1.019968 0.001103 0.0
1.147012 0.460810 -0.004159 0.0
1.627502 1.646899 0.002948 0.0
3.496160 1.976610 -0.002959 0.0
2.598196 1.172712 0.002232 0.0
2.325406 0.788153 0.003492 0.0
3.653012 0.850210 -0.000850 0.0
4.089997 1.272100 -0.000331 0.0
4.243602 0.313047 -0.001599 0.0
4.345638 0.147762 0.002141 0.0
1.456596 0.661149 -0.004738 0.0
0.077265 0.344713 -0.004717 0.0
0.500107 0.180983 0.003896 0.0
4.556212 0.233576 0.000758 0.0
1.395589 0.712378 -0.003658 0.0
3.880620 0.347026 -0.000418 0.0
3.668640 0.517244 -0.000019 0.0
4.216681 0.785854 0.002502 0.0
4.309686 1.852354 -0.001885 0.0
4.869155 0.329892 -0.002330 0.0
3.397148 0.324543 -0.001055 0.0
2.262162 0.014857 -0.006714 0.0
0.207047 1.015392 -0.003902 0.0
2.174415 0.449384 0.003001 0.0
2.928658 0.440078 0.003713 0.0
0.909383 1.293123 0.000956 0.0
4.522201 2.026014 0.002284 0.0
3.265179 0.792188 -0.004979 0.0
1.254034 1.766081 -0.010542 0.0
1.587054 1.873705 -0.002708 0.0
0.761597 1.290792 0.001813 0.0
0.065061 1.502064 -0.002814 0.0
0.752273 1.751178 -0.002136 0.0
4.724655 1.538287 0.002521 0.0
3.785845 0.523179 -0.006208 0.0
1.966876 0.137494 0.001033 0.0
3.263314 0.749589 -0.000220 0.0
2.860440 0.434542 -0.001772 0.0
4.684278 0.795905 0.001265 0.0
4.486263 1.146638 -0.002730 0.0
4.244939 1.240126 -0.002756 0.0
0.909521 0.705228 0.002162 0.0
2.863658 1.224782 0.000537 0.0
4.453178 0.807567 -0.000489 0.0
3.759700 0.679657 -0.001614 0.0
3.554196 1.803502 -0.002505 0.0
2.934751 0.540508 -0.000955 0.0
2.574426 0.938318 0.001672 0.0
0.006948 0.260542 -0.001216 0.0
4.712676 1.579808 0.001168 0.0
0.049067 1.711685 -0.002349 0.0
4.423715 0.119876 0.002766 0.0
3.907054 0.531207 0.002218 0.0
4.473385 1.110726 0.004366 0.0
3.350437 0.512164 -0.002602 0.0
4.898433 1.791253 0.002709 0.0
4.889004 1.284498 0.002351 0.0
1.543906 1.122120 -0.001804 0.0
1.592531 0.662730 -0.002362 0.0
1.862619 0.301940 -0.001287 0.0
3.896396 0.775669 0.000194 0.0
0.622905 1.448615 -0.001283 0.0
3.578948 0.378350 -0.000290 0.0
1.357257 0.209229 -0.003804 0.0
2.943652 0.773191 0.004525 0.0
1.506325 1.378560 -0.003985 0.0
1.179690 1.884898 0.001302 0.0
3.873433 1.836008 0.000380 0.0
2.015690 0.570969 -0.000279 0.0
3.810398 1.138398 0.002719 0.0
4.111467 0.875725 -0.004087 0.0
4.211723 1.043926 0.000596 0.0
1.045742 0.339323 -0.000238 0.0
1.764934 1.017427 -0.002732 0.0
3.826174 0.832403 0.000510 0.0
4.875174 1.096713 0.006185 0.0
3.679281 0.948215 -0.000223 0.0
2.158788 1.954702 0.001607 0.0
2.988311 0.665975 -0.001431 0.0
1.837573 0.777886 -0.001752 0.0
0.740017 1.072822 0.001254 0.0
4.586475 1.953498 0.000929 0.0
0.063260 0.474249 -0.005059 0.0
4.369023 0.558706 0.001804 0.0
2.567386 1.512701 0.002636 0.0
0.306111 0.951119 0.003372 0.0
3.295362 0.248587 0.001703 0.0
2.187516 0.442473 -0.002155 0.0
4.118203 1.406483 -0.002573 0.0
2.347809 1.437617 -0.003119 0.0
0.542882 1.225952 0.000393 0.0
0.402661 1.086218 0.001931 0.0
0.704776 0.999172 -0.005502 0.0
2.811955 1.847340 0.001324 0.0
4.813677 0.722324 -0.000137 0.0
1.207972 1.116226 0.002785 0.0
2.513219 0.211263 0.001492 0.0
0.758147 1.464145 0.000014 0.0
3.314231 1.136975 0.001427 0.0
4.192910 0.643985 -0.000339 0.0
0.020952 1.398293 -0.001549 0.0
1.336203 1.002764 -0.001600 0.0
4.047001 1.233049 -0.003000 0.0
1.294742 1.798871 -0.001589 0.0
0.977491 0.764894 -0.000591 0.0
4.689040 0.142486 0.001012 0.0
4.597390 0.170594 -0.001543 0.0
1.698857 1.308253 -0.002041 0.0
3.314275 1.015529 0.000614 0.0
1.250652 1.120452 0.000765 0.0
1.621609 1.717818 -0.000209 0.0
4.765522 0.278219 0.002023 0.0
3.107575 0.856281 -0.001171 0.0
1.018611 0.871268 0.001533 0.0
2.121401 0.404078 -0.002222 0.0
3.188844 1.849110 0.000851 0.0
3.747310 0.726955 0.005397 0.0
3.865006 1.571863 0.004358 0.0
4.447216 1.185287 -0.002476 0.0
2.425099 1.965097 0.000646 0.0
0.147977 1.131366 -0.000072 0.0
0.307298 1.252404 -0.001054 0.0
0.650233 0.165656 -0.002804 0.0
3.723833 1.305797 -0.000329 0.0
3.272386 0.797861 -0.003183 0.0
3.390928 0.377382 -0.000464 0.0
0.845723 1.204403 0.000624 0.0
4.642046 1.696668 -0.000885 0.0
1.608490 0.992943 0.000646 0.0
1.214448 2.017858 -0.002699 0.0
3.307100 0.401912 0.002725 0.0
0.107069 1.608285 -0.000737 0.0
1.506618 1.803190 -0.000992 0.0
3.479306 1.586587 -0.001886 0.0
1.517677 1.278986 0.001664 0.0
0.163954 1.117871 -0.000970 0.0
0.596986 1.452620 -0.004564 0.0
4.477015 1.720194 -0.003350 0.0
4.848974 0.337191 -0.005045 0.0
4.259501 1.106490 0.004138 0.0
4.711147 0.077504 -0.004717 0.0
2.585702 0.080225 0.001076 0.0
0.831379 1.621342 0.004702 0.0
1.064572 0.003430 -0.006006 0.0
2.647388 1.188911 -0.000921 0.0
1.999122 1.411233 0.000365 0.0
2.409947 1.840982 -0.001261 0.0
1.780849 1.880760 0.000152 0.0
3.792255 0.074281 0.000510 0.0
0.975283 0.174388 -0.002284 0.0
0.930853 1.950128 -0.001023 0.0
3.746554 0.900727 0.003093 0.0
1.705929 1.758980 -0.001773 0.0
1.557278 0.091148 0.002379 0.0
4.334151 0.288965 -0.000340 0.0
1.641799 0.316393 -0.001207 0.0
2.594001 1.297294 0.000806 0.0
2.781193 0.279897 0.003471 0.0
0.772698 0.289333 -0.003226 0.0
0.520646 0.087468 0.000342 0.0
1.343585 1.701345 0.004272 0.0
0.787282 0.918127 0.000608 0.0
3.333743 0.142503 0.001650 0.0
1.407657 1.969033 0.002620 0.0
4.835662 0.260188 -0.002520 0.0
2.347858 1.826918 -0.001576 0.0
1.641264 1.193308 0.003263 0.0
3.789296 1.288356 -0.002252 0.0
4.608320 1.715172 -0.003933 0.0
2.868094 1.386133 0.001988 0.0
3.576010 0.781121 0.000905 0.0
3.148302 1.506854 0.002149 0.0
4.009875 1.934388 0.000077 0.0
3.535827 1.347213 0.003267 0.0
3.313828 1.936909 0.004584 0.0
4.037785 0.918013 0.000257 0.0
4.292688 1.056031 -0.003406 0.0
4.826248 2.020455 0.000531 0.0
0.212393 1.042677 0.005963 0.0
3.278758 1.253128 0.002399 0.0
0.982802 0.682304 0.003733 0.0
4.297810 1.673872 -0.001359 0.0
1.645506 1.666973 -0.005599 0.0
0.061360 1.276804 -0.000069 0.0
3.824732 1.760182 0.002076 0.0
1.512797 1.860821 -0.005758 0.0
0.702217 0.762547 0.001094 0.0
2.365459 1.028193 -0.000552 0.0
4.474736 0.113739 0.001597 0.0
3.843641 0.855147 0.001727 0.0
0.651680 0.756649 -0.001089 0.0
0.962672 0.203591 -0.001320 0.0
1.838164 1.916935 0.003803 0.0
3.872519 1.256989 0.000607 0.0
1.290100 1.623710 -0.002481 0.0
1.322165 1.811430 -0.004640 0.0
2.607052 1.049117 0.003000 0.0
0.962166 1.224546 0.002818 0.0
4.208825 0.947075 0.000830 0.0
1.746568 0.862696 0.002606 0.0
2.501619 1.132318 0.002487 0.0
2.259792 0.143939 -0.004160 0.0
2.156338 1.114918 -0.002412 0.0
1.793116 1.597623 -0.003882 0.0
4.691559 0.840208 -0.004516 0.0
3.541780 1.140710 -0.005489 0.0
2.561100 0.401343 0.000629 0.0
2.154702 0.124380 0.000280 0.0
3.183971 1.197370 0.001655 0.0
3.979517 1.864418 -0.001697 0.0
3.067943 1.481788 0.000860 0.0
2.816860 0.975858 0.000159 0.0
4.676575 1.243614 0.002033 0.0
3.758354 0.745208 -0.002373 0.0
3.713473 0.403189 -0.003482 0.0
4.469539 1.490405 -0.005589 0.0
1.196752 1.758351 0.003973 0.0
0.652110 0.867885 0.004290 0.0
0.346954 1.544152 0.000370 0.0
2.092533 1.102111 0.002541 0.0
1.187682 1.727037 0.002326 0.0
1.406020 0.161161 -0.000087 0.0
2.812284 0.976744 0.001108 0.0
3.664758 0.202705 0.001018 0.0
1.687554 0.575440 0.002155 0.0
2.007192 0.815539 -0.001510 0.0
0.464458 0.630853 -0.002092 0.0
0.928073 0.542081 0.001501 0.0
2.189564 0.881912 -0.001747 0.0
4.132097 1.146354 0.000614 0.0
4.022028 1.852680 0.001335 0.0
1.440020 1.018368 0.001202 0.0
4.259206 1.481533 0.000222 0.0
1.420920 1.829033 -0.002043 0.0
1.846728 0.479265 -0.000692 0.0
0.916035 0.626829 -0.004048 0.0
0.157998 0.585924 -0.001080 0.0
4.668267 0.567469 -0.006324 0.0
0.724284 1.268374 -0.002045 0.0
1.903006 0.619870 -0.000122 0.0
0.034549 0.346148 0.003017 0.0
1.019602 1.493277 -0.001920 0.0
2.168957 1.670801 0.004997 0.0
1.566926 1.728672 -0.001220 0.0
4.805783 1.191020 -0.001083 0.0
2.641381 1.026836 0.003650 0.0
1.467970 0.659218 0.004225 0.0
3.210816 1.784329 -0.000219 0.0
2.483028 1.455227 -0.001915 0.0
0.749337 1.545126 0.007241 0.0
2.310641 0.059256 0.001886 0.0
1.223414 1.698648 -0.001967 0.0
2.614772 1.862833 0.000927 0.0
2.381287 1.891185 -0.001016 0.0
2.297201 0.800318 -0.001199 0.0
1.107627 0.689871 0.000268 0.0
1.086205 0.260513 -0.003549 0.0
3.195708 0.689407 -0.002911 0.0
3.741366 1.937751 0.001464 0.0
0.922190 1.315100 -0.000270 0.0
1.298038 0.303314 0.000682 0.0
0.937617 0.825642 0.002140 0.0
1.513720 0.510756 -0.005732 0.0
3.569846 1.905018 0.003920 0.0
3.857841 0.351505 0.001338 0.0
4.577398 1.140486 -0.000530 0.0
4.036463 1.084823 -0.001404 0.0
1.502274 1.511454 -0.002020 0.0
2.783468 0.669239 0.003101 0.0
0.004790 0.805867 0.000538 0.0
3.562081 0.391547 -0.000150 0.0
3.140067 1.284019 0.001070 0.0
2.581093 0.642436 -0.000424 0.0
2.064917 1.616202 0.002810 0.0
3.746863 0.663169 -0.001154 0.0
1.417989 0.201542 -0.000284 0.0
3.040752 0.723736 -0.000665 0.0
2.894133 1.020738 0.001701 0.0
3.280961 0.543360 -0.000115 0.0
3.491632 1.056236 0.001649 0.0
0.036481 1.035844 0.004798 0.0
0.484343 0.626085 -0.003160 0.0
3.257084 0.954864 0.002730 0.0
2.354373 1.852052 -0.001253 0.0
4.405383 -0.007713 0.014749 0.0
4.307389 -0.005498 0.060053 0.0
1.887598 -0.004280 0.105615 0.0
0.746868 -0.003929 0.089817 0.0
3.402099 0.000242 0.050135 0.0
0.878682 -0.004289 0.072276 0.0
4.651206 0.003748 0.042584 0.0
3.265274 -0.006622 0.122335 0.0
2.629425 -0.005520 0.055320 0.0
2.494983 -0.003409 0.121349 0.0
2.252243 -0.004650 0.103153 0.0
3.878699 -0.004125 0.045991 0.0
3.248221 -0.002374 0.076237 0.0
0.937115 -0.005681 0.115826 0.0
1.749347 -0.002484 0.012499 0.0
0.389390 -0.006998 0.107279 0.0
1.052575 0.003877 0.063917 0.0
3.886948 0.003882 0.007156 0.0
3.262341 -0.009007 0.126178 0.0
1.005598 -0.001829 0.087329 0.0
4.472809 0.003443 0.019914 0.0
4.248058 -0.004375 0.065049 0.0
1.733967 -0.004555 0.114808 0.0
4.342012 -0.001552 0.115603 0.0
3.394127 -0.003309 0.085945 0.0
3.965133 -0.001764 0.071555 0.0
0.347678 -0.002538 0.064350 0.0
1.534462 -0.004099 0.125325 0.0
1.474934 -0.004253 0.101181 0.0
0.419140 -0.004465 0.036166 0.0
1.179499 -0.006370 0.100835 0.0
2.901155 -0.009589 0.116622 0.0
4.221238 -0.007826 0.087389 0.0
0.343203 -0.008366 0.085155 0.0
3.843437 -0.008598 0.063733 0.0
2.470993 -0.003950 0.017935 0.0
1.645412 -0.005550 0.065089 0.0
4.721923 -0.006871 0.096634 0.0
3.516023 -0.005203 0.033474 0.0
1.517640 0.000849 0.078392 0.0
2.428499 -0.001154 0.024884 0.0
2.804370 -0.000715 0.035158 0.0
3.383774 0.000464 0.006584 0.0
4.527687 -0.003598 0.093473 0.0
1.419567 -0.004455 0.097464 0.0
3.044994 -0.001599 0.091793 0.0
3.626488 -0.005211 0.123648 0.0
3.790834 -0.007026 0.084801 0.0
4.414605 -0.001296 0.074952 0.0
1.412318 -0.005145 0.130722 0.0
4.779155 0.003092 0.002743 0.0
3.971293 -0.000868 0.083775 0.0
2.304686 0.003627 0.026869 0.0
3.573368 -0.006088 0.135425 0.0
1.273199 -0.002566 0.076862 0.0
4.392571 -0.007793 0.092966 0.0
1.496300 -0.002702 0.123109 0.0
4.835913 0.000984 0.013268 0.0
3.215628 -0.001275 0.070518 0.0
3.399889 0.000730 0.017831 0.0
2.958963 0.001685 0.012188 0.0
0.340840 -0.002818 0.012361 0.0
3.996140 -0.004285 0.086766 0.0
4.427261 -0.004166 0.044918 0.0
0.327683 0.000051 0.040416 0.0
2.576377 -0.004676 0.058463 0.0
0.396659 -0.004742 0.071722 0.0
1.849761 -0.002431 0.074258 0.0
1.582602 -0.002194 0.015936 0.0
2.889018 -0.001025 0.030363 0.0
0.064151 -0.007277 0.085630 0.0
3.399051 -0.003999 0.045873 0.0
4.823143 -0.006340 0.103686 0.0
0.310833 -0.001777 0.081598 0.0
3.767158 -0.002255 0.049853 0.0
2.527387 -0.008576 0.064760 0.0
3.969331 -0.004363 0.099510 0.0
3.080014 -0.003432 0.108161 0.0
2.119726 0.001210 0.109526 0.0
3.025815 -0.000598 0.024426 0.0
2.227671 -0.004244 0.048837 0.0
0.603215 0.001139 0.001294 0.0
1.542783 0.002687 0.018673 0.0
1.830525 0.003349 0.021864 0.0
0.873022 -0.002466 0.032626 0.0
4.898701 -0.005683 0.132162 0.0
3.952467 -0.002609 0.111038 0.0
1.256399 -0.005508 0.064586 0.0
4.143184 -0.006696 0.053026 0.0
3.154589 -0.003980 0.058230 0.0
3.501066 0.000417 0.035948 0.0
3.129707 -0.002387 0.045955 0.0
3.785305 -0.000169 0.070854 0.0
3.978226 -0.005490 0.089549 0.0
1.274373 0.000870 0.026608 0.0
3.590650 -0.001240 0.028859 0.0
1.913250 -0.002803 0.124285 0.0
2.260252 0.001706 0.057733 0.0
3.228418 -0.002503 0.037030 0.0
4.217444 -0.004128 0.045605 0.0
3.147543 -0.000014 0.017733 0.0
4.134945 -0.004195 0.109424 0.0
4.718425 0.000288 0.021863 0.0
2.206826 -0.002575 0.038638 0.0
2.945702 -0.008539 0.053805 0.0
1.493598 -0.002955 0.125893 0.0
4.550783 -0.002647 0.074749 0.0
0.507319 -0.004831 0.112623 0.0
1.078973 -0.003977 0.069416 0.0
4.694954 0.000916 0.024442 0.0
4.417675 -0.005411 0.043622 0.0
2.160992 -0.000700 0.023562 0.0
3.731663 -0.011742 0.128220 0.0
1.512281 -0.004620 0.078003 0.0
0.523320 -0.000014 0.047267 0.0
2.940920 -0.009248 0.092781 0.0
0.924289 -0.000830 0.086017 0.0
1.014357 -0.001245 0.001227 0.0
2.337785 -0.007229 0.099171 0.0
3.315348 -0.004633 0.081314 0.0
2.001335 -0.004665 0.104856 0.0
3.256646 -0.000695 0.022235 0.0
4.505732 -0.009860 0.081050 0.0
3.524743 -0.006109 0.098278 0.0
2.154410 -0.007660 0.120465 0.0
4.892130 -0.004314 0.090244 0.0
2.136779 -0.005709 0.127210 0.0
4.019717 0.000474 0.034720 0.0
2.277076 -0.002843 0.038258 0.0
