4.137843 0.665586 0.001365 0.0
0.421522 0.069254 0.003191 0.0
4.367288 0.251019 0.000469 0.0
2.239486 0.182531 -0.002555 0.0
2.155988 1.340897 -0.002995 0.0
0.668918 0.523936 -0.003213 0.0
4.155724 1.538457 0.001797 0.0
3.026855 0.302884 0.004117 0.0
1.468817 0.753931 -0.001013 0.0
3.490049 1.404018 -0.003598 0.0
0.192865 1.317051 -0.003137 0.0
4.018421 1.081228 0.002540 0.0
2.611169 1.069233 0.001909 0.0
1.051135 1.542042 -0.002092 0.0
2.148093 0.520632 0.004117 0.0
3.271002 1.074488 0.002219 0.0
2.066817 1.106742 -0.002744 0.0
3.053736 0.702746 -0.000674 0.0
2.214335 0.995964 -0.002492 0.0
2.147715 0.510531 -0.001511 0.0
2.611677 1.387030 0.005109 0.0
4.327306 1.551019 -0.000057 0.0
0.126452 1.543335 0.002523 0.0
1.713281 0.332842 0.000593 0.0
4.572814 1.474013 -0.000376 0.0
3.153558 0.128597 0.001362 0.0
2.300083 0.653338 0.002710 0.0
3.735995 0.808220 0.001038 0.0
1.292942 1.043192 -0.003257 0.0
1.198460 0.357134 -0.001107 0.0
2.309076 0.288857 0.000145 0.0
2.352246 0.788982 -0.000379 0.0
4.576358 0.565333 0.000871 0.0
1.361940 0.568747 0.003608 0.0
1.838084 1.513530 0.002145 0.0
2.954617 1.637133 -0.003701 0.0
3.327142 0.580221 -0.000592 0.0
2.384532 0.352416 0.002649 0.0
2.625376 1.007197 0.001993 0.0
2.778121 0.415388 -0.000276 0.0
1.916302 1.002450 0.001237 0.0
3.808551 0.499196 0.001710 0.0
4.041633 1.573630 0.000947 0.0
3.249036 1.454412 -0.000750 0.0
3.380787 1.355851 -0.001806 0.0
2.827084 1.683263 -0.002770 0.0
2.860127 1.377075 0.003488 0.0
2.137963 1.537513 0.002291 0.0
0.613511 1.640506 -0.001782 0.0
1.874926 1.197653 0.000965 0.0
2.401969 1.203376 -0.002752 0.0
3.145686 0.194231 -0.001106 0.0
3.669862 1.153922 0.003309 0.0
0.419702 0.326493 -0.000531 0.0
2.622100 1.298993 0.000404 0.0
0.093296 1.444584 -0.003666 0.0
0.564555 0.683958 0.001924 0.0
2.106275 1.622145 0.002374 0.0
3.142074 0.629787 0.000903 0.0
3.138725 0.106629 0.003470 0.0
2.814004 0.901917 0.002955 0.0
3.260557 1.531014 0.001464 0.0
2.256091 1.384471 -0.004375 0.0
1.410538 1.329682 0.000906 0.0
4.391591 0.875332 0.001056 0.0
0.007369 0.596778 -0.004754 0.0
1.607834 1.416302 0.000054 0.0
4.396308 0.731009 0.001418 0.0
4.155897 0.646861 0.001404 0.0
3.112232 1.673213 -0.002076 0.0
2.954008 1.120772 0.000591 0.0
1.832419 0.557578 -0.000439 0.0
3.268481 0.692732 0.001186 0.0
1.154644 0.065744 0.001195 0.0
4.525342 1.600522 0.001929 0.0
3.948138 0.295480 0.001094 0.0
4.202869 0.521957 0.000245 0.0
1.377084 0.838766 0.002425 0.0
0.348596 0.568846 -0.000692 0.0
3.768260 1.478642 0.001056 0.0
3.544931 1.564298 -0.005799 0.0
1.555664 1.219644 0.001935 0.0
2.572049 1.431103 0.000086 0.0
2.090778 1.626283 -0.000493 0.0
0.141830 0.227121 0.001695 0.0
2.442986 0.036377 -0.003980 0.0
1.260887 0.723035 -0.000509 0.0
3.100913 0.031420 0.003343 0.0
1.922633 0.543422 0.003304 0.0
2.691884 1.213130 0.000781 0.0
1.093156 0.968656 -0.000410 0.0
1.921092 1.644170 0.002341 0.0
1.288532 0.044926 0.001376 0.0
0.436501 1.174061 -0.001063 0.0
0.980614 1.435200 -0.000991 0.0
0.046977 0.571620 0.001059 0.0
3.107430 1.132212 0.002019 0.0
1.330348 0.394043 -0.001972 0.0
3.257075 1.049300 0.001361 0.0
2.114553 0.257215 -0.000969 0.0
2.474170 0.138278 -0.002154 0.0
2.115995 0.467991 0.002258 0.0
0.978878 0.805095 -0.003323 0.0
2.935459 0.897529 0.001257 0.0
2.333330 1.022965 0.004062 0.0
3.262101 1.388261 0.004622 0.0
1.147301 0.131738 -0.000124 0.0
1.292949 0.076394 -0.005027 0.0
3.040508 0.010007 -0.002181 0.0
0.235867 1.065470 -0.002209 0.0
1.774146 0.985099 0.000255 0.0
3.807188 1.013129 -0.002310 0.0
4.293827 1.400974 -0.000131 0.0
1.397652 1.051881 -0.000250 0.0
3.252840 1.350695 -0.000358 0.0
1.081851 1.588406 -0.001619 0.0
0.178229 0.245406 -0.003129 0.0
3.237721 0.699946 0.005371 0.0
1.575277 1.127655 0.004127 0.0
3.609351 0.128899 -0.000480 0.0
2.024391 1.222404 0.002315 0.0
3.761663 0.453764 -0.001258 0.0
0.463277 0.553858 0.003346 0.0
3.811650 1.050618 -0.000455 0.0
2.318626 0.994083 0.000276 0.0
0.994376 1.379132 -0.000060 0.0
0.319630 1.088937 -0.004095 0.0
4.158907 1.370698 -0.002735 0.0
1.000096 0.452332 0.004845 0.0
0.622562 0.757992 -0.002726 0.0
4.069778 0.915013 0.003312 0.0
2.729645 0.706909 -0.004219 0.0
1.873802 0.864814 -0.004831 0.0
1.557103 0.212747 -0.000998 0.0
4.235603 0.988881 -0.004256 0.0
1.123809 0.178328 0.006666 0.0
1.304318 0.066050 -0.002239 0.0
1.122661 1.089817 0.001087 0.0
2.959906 1.665694 -0.003914 0.0
2.565992 0.711509 0.004706 0.0
4.417451 0.656897 -0.001926 0.0
3.862118 0.827635 0.003107 0.0
3.051501 0.516281 0.001592 0.0
2.402676 0.806353 -0.001411 0.0
0.824056 1.241065 0.000049 0.0
3.810538 0.582522 0.003722 0.0
3.958617 0.253699 -0.000462 0.0
3.863550 0.362362 0.002086 0.0
2.189022 0.103076 0.003582 0.0
1.568463 0.387943 -0.002325 0.0
0.115594 0.340083 -0.001659 0.0
2.637196 0.283018 0.002269 0.0
3.767303 1.529892 0.003150 0.0
3.014828 0.100058 -0.004012 0.0
1.709486 0.521974 -0.000534 0.0
4.049760 0.640722 -0.003671 0.0
0.521982 1.451190 0.001481 0.0
1.613239 0.868609 -0.002338 0.0
1.614447 1.638596 -0.002719 0.0
0.242845 1.266165 -0.002850 0.0
1.600480 0.825537 -0.004297 0.0
2.901843 0.908423 0.001209 0.0
1.547016 0.766025 0.000044 0.0
1.626087 0.592592 0.002278 0.0
0.985784 1.050701 -0.000506 0.0
4.590747 0.642015 -0.001918 0.0
2.544986 0.819158 -0.002409 0.0
2.699947 0.349347 -0.002693 0.0
0.606719 1.603572 -0.002586 0.0
1.981154 0.333572 -0.001192 0.0
2.600019 0.353034 0.000211 0.0
0.375444 0.587078 0.001636 0.0
3.462593 1.039937 -0.001821 0.0
1.467171 0.300480 0.007344 0.0
2.769758 0.453624 -0.001987 0.0
4.584550 0.886733 -0.001153 0.0
1.409828 0.573128 0.001555 0.0
3.947294 0.158791 0.002316 0.0
2.392040 0.347509 -0.002988 0.0
1.321197 1.129584 -0.001947 0.0
0.188834 1.257524 -0.001253 0.0
3.640923 0.683979 0.000392 0.0
2.450014 0.832486 -0.002241 0.0
1.742754 0.642410 0.000435 0.0
2.864102 0.522208 -0.001324 0.0
3.126190 1.600748 -0.002784 0.0
3.133256 0.356675 -0.000173 0.0
2.295177 0.865758 -0.000325 0.0
3.363922 0.484013 0.000183 0.0
0.989567 0.558392 0.002268 0.0
1.763744 0.615185 -0.000167 0.0
1.616148 0.003075 0.002996 0.0
0.285202 0.086717 -0.000069 0.0
4.111105 0.833951 -0.003316 0.0
0.647147 1.375882 -0.001837 0.0
2.769476 1.162575 0.001663 0.0
2.375044 0.804700 -0.002992 0.0
1.583559 0.931145 -0.000441 0.0
3.819652 1.098662 0.003274 0.0
0.748776 0.298574 -0.000971 0.0
2.585823 1.467150 0.003524 0.0
2.059002 1.243604 -0.002105 0.0
1.306674 0.307124 0.001849 0.0
0.484928 1.671675 0.002177 0.0
0.977419 0.966665 -0.002696 0.0
2.607574 1.236150 -0.002084 0.0
2.645328 0.989615 -0.000562 0.0
0.923316 1.458981 0.001103 0.0
3.786166 0.628206 -0.000356 0.0
2.931329 0.267576 0.001286 0.0
0.144953 1.573831 0.003613 0.0
1.090489 1.359356 -0.004827 0.0
2.047704 1.678082 0.003188 0.0
1.196229 0.666947 0.000969 0.0
2.575556 0.870679 0.000828 0.0
0.295948 0.029739 0.002718 0.0
4.210268 1.271057 -0.002464 0.0
1.490013 1.460719 -0.001911 0.0
2.648390 0.743264 -0.005716 0.0
2.626201 1.653269 0.001118 0.0
3.430712 1.558879 -0.002155 0.0
3.198405 1.416871 -0.003536 0.0
1.726666 1.406395 0.001043 0.0
3.219693 0.976350 0.001735 0.0
0.727801 0.149599 0.002849 0.0
3.858455 0.144699 -0.000813 0.0
4.095838 1.488073 -0.002303 0.0
1.272439 1.282873 0.003410 0.0
1.840448 0.215929 -0.003253 0.0
0.702917 0.227086 -0.000175 0.0
0.741246 1.109274 0.000561 0.0
4.098452 0.417784 -0.000372 0.0
1.097001 0.249132 0.003498 0.0
0.889560 0.890969 0.002736 0.0
1.648509 1.221901 0.002632 0.0
1.682602 1.211747 0.003962 0.0
1.950624 0.143884 0.000194 0.0
4.476331 0.251848 -0.002619 0.0
1.908583 1.610236 -0.002113 0.0
0.117034 1.188800 -0.000119 0.0
1.754329 1.674374 -0.002712 0.0
1.761102 1.557064 -0.000301 0.0
1.155462 0.729696 0.001524 0.0
2.572556 1.310309 0.003835 0.0
2.187910 1.540130 -0.001958 0.0
0.226645 1.241443 -0.001422 0.0
3.381562 0.973136 -0.009219 0.0
3.633059 1.665967 -0.003978 0.0
3.804509 1.621123 0.004032 0.0
1.208021 1.327582 0.001418 0.0
3.295067 0.371987 0.002733 0.0
0.115999 0.867795 0.004355 0.0
1.312588 1.657950 0.000588 0.0
3.452461 1.015021 -0.001223 0.0
0.550330 0.271184 0.000480 0.0
2.601794 1.368430 0.000497 0.0
4.301959 0.294982 -0.003122 0.0
1.334026 0.877084 -0.003500 0.0
2.659431 0.574263 0.002581 0.0
2.056879 0.533296 -0.003070 0.0
4.501097 0.373083 -0.001013 0.0
0.512552 1.543929 -0.003366 0.0
1.993349 1.150441 0.001274 0.0
4.111033 0.179012 0.001312 0.0
4.316094 1.231646 -0.001974 0.0
3.782542 1.550095 0.001381 0.0
1.491860 0.308647 -0.003438 0.0
4.272248 1.456573 0.004446 0.0
2.094439 0.339183 0.003756 0.0
2.842676 0.031491 0.001458 0.0
0.314431 0.765349 -0.001978 0.0
1.785559 0.005014 0.001433 0.0
3.459466 0.861005 -0.000156 0.0
3.370692 1.132146 -0.002416 0.0
0.015633 1.364789 -0.000572 0.0
2.865423 0.516051 0.004789 0.0
4.222354 1.244496 -0.000116 0.0
2.713892 1.613507 -0.001255 0.0
3.274457 1.100844 0.004748 0.0
3.524420 1.206718 -0.002202 0.0
1.061677 1.601011 0.000896 0.0
0.719488 1.355732 -0.000484 0.0
4.229354 0.051772 -0.003717 0.0
0.212761 1.557443 0.005690 0.0
0.562638 0.868463 -0.002456 0.0
3.300413 1.177489 0.004718 0.0
3.987569 1.514408 -0.001746 0.0
3.215340 1.037311 -0.001936 0.0
2.123877 0.401083 0.000520 0.0
1.819901 0.852958 -0.002421 0.0
1.084269 1.269163 -0.001827 0.0
3.859009 0.395381 -0.000994 0.0
2.211683 1.419642 -0.001853 0.0
4.533403 1.297337 -0.002279 0.0
2.070032 0.749907 -0.001246 0.0
0.481367 0.410104 -0.001211 0.0
0.303796 0.745614 -0.002600 0.0
1.646947 1.261391 0.000706 0.0
2.670299 0.574721 -0.001837 0.0
2.702341 1.195354 -0.003699 0.0
3.414322 1.253512 0.000505 0.0
2.377692 0.656116 0.000398 0.0
0.400992 0.638212 -0.002093 0.0
4.096148 1.166588 0.001655 0.0
1.043037 0.012487 -0.001148 0.0
2.305137 0.565768 0.001628 0.0
0.954606 1.227376 -0.001191 0.0
4.534835 1.464239 -0.002468 0.0
0.708741 0.862211 -0.000460 0.0
4.436573 0.155796 -0.000263 0.0
0.937853 0.558823 -0.002007 0.0
3.979245 0.563245 0.003334 0.0
2.415792 1.403647 0.004654 0.0
2.536551 0.086947 0.002075 0.0
3.532334 1.413520 -0.000425 0.0
2.340655 0.712725 -0.005700 0.0
0.779163 0.421912 -0.004180 0.0
1.203286 1.646873 0.000538 0.0
0.406006 0.823637 0.006248 0.0
3.585957 0.490263 0.000671 0.0
3.232533 0.219737 0.000602 0.0
2.651969 1.646902 0.003535 0.0
4.228071 0.207473 -0.002136 0.0
4.301962 0.902258 -0.001939 0.0
2.833207 0.639101 -0.001708 0.0
3.555419 1.298237 -0.000336 0.0
0.872816 1.242870 0.003360 0.0
-0.003122 0.914544 -0.002055 0.0
1.787205 0.289842 -0.002450 0.0
4.094490 0.149705 0.001071 0.0
4.319374 0.551220 0.004092 0.0
2.451895 0.802046 0.002440 0.0
0.317677 0.855931 -0.001994 0.0
4.142078 1.237941 -0.006836 0.0
2.583990 0.778232 0.004496 0.0
2.573154 0.602090 -0.000383 0.0
1.258561 1.142069 0.002209 0.0
2.055761 0.112778 -0.002687 0.0
1.909198 1.004569 0.001479 0.0
2.087449 1.265117 0.001999 0.0
2.857155 1.187247 -0.000033 0.0
1.223168 1.382294 0.003625 0.0
4.159103 1.604648 0.000854 0.0
3.938044 1.026796 0.001147 0.0
1.536105 0.800141 -0.003291 0.0
3.215555 0.866124 -0.002812 0.0
1.419775 1.335655 -0.002456 0.0
0.789206 0.708441 -0.001351 0.0
2.885246 0.869306 -0.002924 0.0
4.219612 1.254179 0.002842 0.0
4.295832 0.303825 -0.001584 0.0
0.449359 0.899355 0.001593 0.0
3.054004 0.204704 -0.002183 0.0
3.735540 1.314628 -0.001615 0.0
1.626115 1.593232 -0.001248 0.0
4.383350 0.815461 -0.006666 0.0
1.752411 0.051174 -0.001321 0.0
0.113659 0.932132 0.000284 0.0
0.088921 1.335488 -0.003404 0.0
1.825624 1.115179 -0.002378 0.0
2.233503 0.836330 0.002481 0.0
1.373756 0.493859 0.000435 0.0
0.237643 1.032272 0.003893 0.0
0.643421 1.468805 -0.003674 0.0
4.072762 1.253554 0.000627 0.0
2.154768 0.074288 0.000787 0.0
1.959825 0.334921 -0.002879 0.0
3.452599 0.718422 -0.002371 0.0
1.039216 0.083155 0.001220 0.0
3.457181 1.021877 -0.000641 0.0
2.804739 1.296629 -0.001304 0.0
1.404030 0.617222 0.001012 0.0
4.073816 0.503980 -0.001402 0.0
2.099742 0.612667 -0.000741 0.0
0.265428 1.270607 0.002190 0.0
2.819886 0.425515 0.000569 0.0
0.654497 1.633264 0.002018 0.0
1.027062 1.279164 -0.002529 0.0
2.897752 1.587881 -0.003350 0.0
1.143833 0.603306 -0.003715 0.0
3.785840 0.695122 -0.003633 0.0
1.928662 1.420745 -0.002468 0.0
0.896322 0.255941 0.001551 0.0
2.518568 0.965442 0.000136 0.0
0.067143 0.511542 0.002809 0.0
2.131066 0.026302 -0.000340 0.0
3.358932 1.073194 -0.000410 0.0
0.543034 1.608361 -0.001023 0.0
4.290009 1.386186 0.006102 0.0
4.064651 0.161365 -0.001764 0.0
3.063731 0.816999 0.003115 0.0
0.541962 0.913270 0.002069 0.0
4.046448 0.016339 -0.002700 0.0
1.727548 1.330132 -0.002402 0.0
2.907790 0.822768 -0.003129 0.0
3.309646 0.823768 -0.000267 0.0
2.184135 0.449594 -0.000217 0.0
4.269863 0.742151 0.000623 0.0
4.435224 0.631547 -0.004164 0.0
0.129257 1.508705 0.001246 0.0
0.341550 0.435036 -0.001094 0.0
0.071087 0.602409 0.001981 0.0
4.283646 0.611958 0.005811 0.0
2.108911 0.384335 -0.001742 0.0
0.722015 0.052869 -0.002633 0.0
0.400550 1.358589 -0.002937 0.0
2.679638 0.737460 -0.002291 0.0
0.855691 0.191266 -0.001901 0.0
0.016599 1.607431 0.004757 0.0
2.649646 0.359082 -0.000710 0.0
2.894029 1.530164 -0.001822 0.0
1.345353 0.341134 0.001913 0.0
1.890067 0.504364 0.003273 0.0
1.990451 0.273288 0.003026 0.0
2.543124 1.653375 -0.001750 0.0
2.355009 0.589481 -0.002003 0.0
3.027470 1.520732 0.001668 0.0
3.959995 0.016756 0.001776 0.0
3.907194 1.585599 0.001870 0.0
0.268899 0.726337 0.001289 0.0
2.993422 1.523346 -0.002609 0.0
2.422956 1.498311 -0.000359 0.0
2.834808 1.434846 0.001999 0.0
2.058649 1.620567 -0.001141 0.0
3.127295 1.175259 0.003694 0.0
2.630107 0.039113 -0.000882 0.0
1.500811 0.943620 -0.002404 0.0
2.422099 0.486072 -0.000688 0.0
2.595503 0.532818 -0.001230 0.0
1.882115 1.483634 -0.006266 0.0
4.351973 0.736762 0.001169 0.0
0.128761 0.926847 0.002482 0.0
0.916297 1.202101 0.004287 0.0
1.819522 0.056164 0.000354 0.0
1.741763 0.502517 -0.004616 0.0
2.195885 0.134238 0.001639 0.0
0.564684 1.093240 -0.002697 0.0
0.565630 0.794878 -0.004299 0.0
2.074095 0.531667 -0.000606 0.0
2.512408 0.557137 -0.000619 0.0
1.459574 0.500606 0.002409 0.0
2.730340 0.018753 0.000363 0.0
0.011963 1.037569 0.000517 0.0
3.936461 1.062013 0.005655 0.0
0.488849 1.573219 0.001387 0.0
1.955373 0.473113 -0.001061 0.0
0.809448 0.504020 0.000947 0.0
3.999805 0.360289 -0.006897 0.0
3.777678 0.392164 0.004218 0.0
2.920126 1.309007 0.002479 0.0
0.445836 0.613200 0.000544 0.0
3.243363 0.867788 -0.001108 0.0
4.395568 0.067719 -0.002990 0.0
2.628791 0.062644 -0.001834 0.0
0.951901 1.129838 -0.001934 0.0
1.539086 0.971683 -0.001467 0.0
1.372642 1.298302 0.001111 0.0
3.965996 0.072888 -0.000147 0.0
0.090979 0.437625 -0.000147 0.0
2.775857 1.607788 -0.001440 0.0
3.609730 0.249898 -0.000068 0.0
4.029160 1.078004 0.004023 0.0
1.791298 1.229925 0.000569 0.0
3.486056 1.218609 0.000183 0.0
4.411832 0.741576 0.001030 0.0
2.581049 0.620205 0.003438 0.0
4.292667 1.013167 0.000355 0.0
2.607146 1.051938 -0.000985 0.0
3.709026 0.504174 -0.003357 0.0
2.842908 1.101955 -0.001191 0.0
3.890897 0.984054 -0.003218 0.0
1.924488 1.047006 -0.003104 0.0
2.794297 1.385608 0.004390 0.0
3.059862 0.629363 -0.000521 0.0
2.458894 0.113430 -0.000165 0.0
3.726512 0.938908 0.006660 0.0
1.022245 0.628436 0.002665 0.0
3.780906 0.821362 0.002903 0.0
1.976554 1.110711 -0.003919 0.0
2.985179 0.945538 0.001027 0.0
0.575523 1.557250 0.005014 0.0
0.881655 1.520258 0.000186 0.0
1.789788 1.377476 -0.001367 0.0
0.523045 0.796887 0.000107 0.0
1.883581 1.031928 0.002435 0.0
2.380541 0.209456 -0.001461 0.0
0.901949 0.355102 0.001824 0.0
1.493817 1.196516 -0.000759 0.0
1.298031 0.321836 -0.001111 0.0
1.871753 0.394107 0.002397 0.0
4.359924 0.239128 0.001288 0.0
1.859055 0.391847 0.003469 0.0
4.324269 0.085467 0.000600 0.0
2.092627 1.225240 0.004431 0.0
3.824738 0.575291 0.001212 0.0
0.301145 0.493244 0.000400 0.0
1.022464 1.555671 0.004837 0.0
4.547611 1.489193 -0.000754 0.0
0.027317 0.713073 0.000942 0.0
0.325155 0.962843 0.004937 0.0
0.170009 0.106679 -0.001574 0.0
2.166748 0.689206 0.003365 0.0
2.731746 0.536205 0.000249 0.0
1.189893 1.103688 -0.001124 0.0
4.560586 0.268324 -0.001722 0.0
0.529752 1.086535 0.001519 0.0
1.071969 0.708749 0.000584 0.0
4.007732 0.327763 0.000660 0.0
1.906791 1.205216 -0.000399 0.0
0.749422 0.251244 0.003712 0.0
0.441846 1.326032 0.002377 0.0
1.273716 0.723848 -0.002941 0.0
0.086828 0.805232 -0.002027 0.0
2.387014 0.655389 0.001813 0.0
3.726460 0.211665 -0.000377 0.0
3.799851 0.117872 0.000254 0.0
0.989924 0.534703 0.002755 0.0
1.336181 1.191782 -0.003249 0.0
0.131578 0.248244 -0.002243 0.0
0.710673 0.535725 -0.001545 0.0
3.355896 1.565369 -0.005223 0.0
0.159062 0.240127 0.003514 0.0
1.710743 0.300543 -0.001921 0.0
4.086554 0.001252 -0.006176 0.0
1.463170 0.044974 -0.000482 0.0
3.672841 0.600735 0.000065 0.0
0.107087 0.700026 0.001304 0.0
4.110038 1.512982 -0.003990 0.0
3.181678 1.005720 -0.006047 0.0
2.942347 1.400000 -0.000403 0.0
1.296157 0.919116 0.001414 0.0
2.846643 1.160384 0.000674 0.0
4.100463 1.243707 -0.001114 0.0
4.110656 0.345528 0.001076 0.0
1.681593 1.504391 -0.002414 0.0
3.889890 0.539675 -0.001384 0.0
1.167511 1.047629 -0.001087 0.0
0.376604 1.045877 0.004381 0.0
0.826610 0.760718 -0.002382 0.0
2.830894 0.873928 0.000178 0.0
2.563614 0.856682 -0.001746 0.0
3.344854 1.277666 -0.000134 0.0
2.715451 1.020883 0.001610 0.0
2.036266 1.605116 0.001815 0.0
2.457660 0.326115 -0.000606 0.0
1.466292 1.224297 -0.004514 0.0
4.378307 1.647407 0.000569 0.0
2.053881 0.070883 0.000745 0.0
0.345488 0.852460 0.001039 0.0
4.490369 1.205639 -0.001064 0.0
1.631728 0.665667 -0.000053 0.0
2.117978 1.614438 0.004147 0.0
1.620422 1.407377 -0.001190 0.0
2.484062 1.546282 -0.002230 0.0
0.870531 0.123409 0.002308 0.0
0.301916 0.387547 0.001941 0.0
1.657518 0.239422 0.001435 0.0
1.252497 1.246362 -0.000335 0.0
0.666928 0.351747 -0.000717 0.0
3.915260 1.089892 -0.005045 0.0
0.690601 1.267710 -0.001505 0.0
2.257186 0.920434 -0.005731 0.0
2.017496 0.609143 0.004171 0.0
1.978345 1.593888 -0.001676 0.0
2.628151 1.070232 0.004438 0.0
3.165392 0.871749 -0.002440 0.0
1.898454 0.713360 0.003190 0.0
2.819334 0.615753 -0.006062 0.0
1.666089 0.180268 -0.003386 0.0
1.016566 0.811439 -0.003582 0.0
1.230912 1.622352 0.004972 0.0
1.662768 0.062659 0.002942 0.0
2.569390 1.194021 0.001884 0.0
3.728037 1.345123 0.000872 0.0
4.034763 0.362848 0.000558 0.0
1.559667 1.557145 -0.001076 0.0
3.127552 0.425893 -0.002323 0.0
1.922915 0.069766 -0.001840 0.0
1.612088 1.332628 0.000462 0.0
0.304643 1.077876 -0.000491 0.0
1.736210 1.391136 -0.000625 0.0
2.690093 1.586359 -0.000060 0.0
0.170604 0.861367 -0.002282 0.0
1.150177 1.134735 -0.003234 0.0
4.212035 1.111742 -0.003637 0.0
2.088596 1.527912 -0.001306 0.0
0.230557 0.033248 0.002466 0.0
0.572233 0.144471 0.000965 0.0
4.595830 0.123352 0.001633 0.0
3.873148 1.124314 -0.000607 0.0
2.307009 0.369826 -0.002040 0.0
3.069114 1.547629 0.001815 0.0
0.161614 0.512359 0.001700 0.0
2.706054 1.522806 -0.002254 0.0
2.028579 0.722141 -0.001437 0.0
0.221667 0.420388 0.001701 0.0
1.252816 0.187160 -0.004900 0.0
2.516890 1.351044 -0.000719 0.0
3.202182 1.088799 0.000744 0.0
1.037926 1.230145 -0.003498 0.0
4.426139 0.298334 -0.004335 0.0
0.793700 1.433421 -0.002404 0.0
0.777577 1.408781 0.005594 0.0
2.907999 1.562509 -0.000579 0.0
1.797000 0.246286 0.000786 0.0
3.546098 0.467720 -0.004982 0.0
3.985119 1.598069 0.000586 0.0
0.719068 0.057610 0.000996 0.0
0.335241 0.468495 -0.002476 0.0
0.372765 0.766118 0.001594 0.0
0.706249 0.650006 -0.003858 0.0
4.359176 0.363178 0.000654 0.0
0.507402 1.372789 -0.000211 0.0
0.965123 0.777105 0.000631 0.0
2.087586 0.475887 -0.000198 0.0
0.051401 1.348615 0.002275 0.0
1.539474 1.145911 0.000620 0.0
1.751098 1.464810 0.002433 0.0
3.148017 0.514209 0.000425 0.0
0.697117 0.834162 0.006069 0.0
3.905833 0.965649 0.001794 0.0
1.552401 1.343255 0.004295 0.0
0.487883 0.632216 0.001491 0.0
4.227948 1.234216 0.000014 0.0
1.481314 0.102624 0.002719 0.0
4.259419 1.494408 -0.002957 0.0
0.400093 1.381949 0.002517 0.0
4.093673 0.305632 0.001074 0.0
0.716531 0.628279 0.004334 0.0
0.701726 0.647313 -0.003417 0.0
4.262919 1.313061 -0.005196 0.0
0.942941 0.484423 0.000578 0.0
3.889161 0.167076 -0.003473 0.0
0.422036 0.471580 0.004614 0.0
1.613305 0.253706 0.002643 0.0
1.602067 0.957022 -0.001351 0.0
3.348628 0.976365 -0.001507 0.0
1.973205 0.090953 -0.002294 0.0
2.292874 1.455221 -0.000961 0.0
4.096664 0.349679 0.000489 0.0
4.502006 1.539804 0.000224 0.0
3.670194 1.004835 0.003322 0.0
0.631921 1.371399 0.000102 0.0
0.580620 0.881701 0.000449 0.0
4.523800 0.623959 -0.001037 0.0
0.697125 1.375340 0.001221 0.0
3.901530 0.181652 -0.001939 0.0
4.205347 0.676862 0.000798 0.0
2.879897 0.896139 -0.001648 0.0
2.448136 1.570447 0.002472 0.0
1.252417 0.422846 0.000851 0.0
2.845968 1.008271 -0.000185 0.0
0.462066 1.129829 -0.000383 0.0
1.204211 0.201905 0.001916 0.0
1.243789 1.143640 -0.002104 0.0
0.628185 1.412433 0.000636 0.0
2.855232 0.749241 0.000986 0.0
4.488830 1.526382 -0.000681 0.0
0.467906 0.593658 0.003443 0.0
3.769267 1.493540 -0.000154 0.0
1.348647 0.290391 0.002298 0.0
0.904041 1.652148 0.004262 0.0
0.552889 0.789528 0.001636 0.0
1.065774 1.248232 0.001094 0.0
0.464703 0.228686 0.000855 0.0
3.646193 1.446678 -0.000692 0.0
3.844610 1.072699 -0.000777 0.0
1.512186 0.338017 -0.005699 0.0
3.118480 0.886399 -0.000895 0.0
3.176994 0.348223 -0.002908 0.0
2.767849 1.327156 0.003300 0.0
1.426313 1.179709 0.000857 0.0
3.388223 0.939943 -0.000027 0.0
1.001051 0.678030 0.001010 0.0
3.403899 1.178768 -0.006602 0.0
1.089907 1.153213 -0.001528 0.0
0.552675 1.476144 -0.002464 0.0
2.025964 1.140890 0.001950 0.0
0.375023 0.405284 0.000532 0.0
0.640432 0.461903 0.003114 0.0
0.819281 1.019320 0.001476 0.0
1.683446 0.053711 -0.000713 0.0
1.444880 0.235557 0.000049 0.0
1.403353 1.430064 -0.004698 0.0
3.036565 0.634484 -0.002782 0.0
4.415721 1.060557 0.001310 0.0
2.687167 0.834413 -0.002099 0.0
1.289443 1.245733 -0.000680 0.0
2.745373 0.900293 0.001576 0.0
3.531969 1.233345 -0.000143 0.0
4.443209 0.174194 0.000584 0.0
1.895853 0.170115 -0.000785 0.0
4.247977 0.639465 0.000976 0.0
3.221756 1.214432 0.002830 0.0
0.193435 0.076929 0.000980 0.0
1.921711 0.759254 0.002254 0.0
4.488174 0.106977 0.002050 0.0
2.761576 1.402735 0.001344 0.0
2.282509 0.587966 0.000321 0.0
2.326937 0.348796 0.003947 0.0
3.508655 1.663337 -0.005777 0.0
1.317012 0.778597 0.002744 0.0
2.954289 1.045527 0.004426 0.0
1.328872 0.461346 0.002962 0.0
4.567515 0.393392 -0.001446 0.0
1.912928 1.125947 -0.001420 0.0
3.338348 1.182126 0.002878 0.0
3.886940 1.179730 -0.003570 0.0
2.445710 0.395524 -0.000409 0.0
1.009961 1.599010 -0.003116 0.0
4.520012 1.667375 0.001525 0.0
1.167649 1.424475 0.002870 0.0
2.024856 1.075184 0.001017 0.0
3.169863 1.111567 -0.002176 0.0
1.658980 1.262081 -0.002140 0.0
4.284824 0.937649 0.001330 0.0
1.426783 1.160541 0.001683 0.0
0.064698 1.339530 0.001634 0.0
3.734065 1.414353 0.001066 0.0
0.143776 1.488730 -0.000019 0.0
1.913433 0.533624 0.002242 0.0
3.234390 1.468113 -0.003714 0.0
0.232332 1.040870 0.004620 0.0
3.738103 0.014605 -0.002064 0.0
2.192507 0.622859 -0.000741 0.0
2.584545 1.217734 0.001126 0.0
4.586869 0.586444 0.000708 0.0
3.798369 1.100942 0.000894 0.0
3.088907 1.235454 0.002068 0.0
0.751723 0.490647 0.001357 0.0
1.785888 1.451345 -0.003597 0.0
4.230294 1.566372 -0.001672 0.0
0.932443 1.245987 -0.000919 0.0
4.239488 0.027720 -0.001122 0.0
2.680905 0.052368 -0.005982 0.0
1.934139 0.063914 0.001606 0.0
3.502166 1.300738 0.000486 0.0
3.820995 0.049007 0.002030 0.0
1.956002 1.521618 -0.001737 0.0
4.281766 1.250607 -0.001578 0.0
1.586220 0.996500 0.001901 0.0
2.310113 1.462335 -0.000892 0.0
2.572602 0.165551 -0.004471 0.0
2.523578 0.971048 -0.002520 0.0
4.362346 0.667691 -0.001879 0.0
4.347884 1.565703 -0.000472 0.0
1.237383 1.524004 0.002662 0.0
0.582466 0.217610 -0.002120 0.0
1.457195 0.406997 0.001787 0.0
3.217177 0.831712 -0.000110 0.0
2.382892 0.579535 -0.000475 0.0
4.228420 0.904843 -0.004459 0.0
0.632257 1.105123 -0.004271 0.0
4.483056 0.500363 -0.001173 0.0
3.132973 0.535718 -0.002945 0.0
0.510030 1.262802 -0.002616 0.0
4.447223 1.654527 0.000757 0.0
2.772726 0.693316 0.000470 0.0
0.551857 1.296584 0.000820 0.0
0.334573 0.048650 0.000989 0.0
3.452560 1.439668 0.003013 0.0
0.118005 0.209810 0.003316 0.0
2.250455 0.533899 0.000736 0.0
1.000733 1.596774 -0.002687 0.0
3.619353 0.843327 0.000472 0.0
0.487341 1.663555 0.000850 0.0
0.316066 0.755331 -0.000642 0.0
2.946742 0.364658 -0.000265 0.0
2.321221 0.469536 0.000545 0.0
1.579511 0.190669 0.002080 0.0
2.215253 1.233391 -0.001841 0.0
0.176822 1.495672 0.004516 0.0
0.062178 0.037988 -0.001475 0.0
1.704064 1.301190 0.003560 0.0
1.439338 1.154194 0.001106 0.0
2.038036 0.746848 -0.002828 0.0
2.245296 1.192302 -0.003077 0.0
4.543568 0.099103 0.005738 0.0
3.652544 0.077364 0.006178 0.0
3.184305 0.222474 -0.000653 0.0
4.051482 0.206023 -0.002166 0.0
0.172896 0.012823 -0.002907 0.0
2.377002 0.395164 -0.000227 0.0
2.334283 1.517157 -0.003488 0.0
1.673460 0.977872 -0.006274 0.0
2.360280 1.171687 -0.002261 0.0
1.087031 1.167131 -0.000332 0.0
0.064463 0.807077 -0.001607 0.0
4.517057 0.938425 -0.001716 0.0
0.775722 0.633228 -0.002558 0.0
3.571165 0.177344 0.000282 0.0
2.735961 0.040204 -0.003594 0.0
3.605658 1.397608 -0.000666 0.0
0.555759 1.111729 0.003798 0.0
2.955352 1.554777 0.010456 0.0
3.699420 0.401073 0.000271 0.0
3.749054 0.299732 -0.003137 0.0
3.307406 0.146506 0.004629 0.0
1.809891 0.253202 -0.000822 0.0
1.898916 1.017266 0.000479 0.0
4.186963 0.520470 0.001428 0.0
3.189400 0.684702 0.005096 0.0
4.005050 0.334175 -0.003225 0.0
2.568659 1.162764 -0.005200 0.0
1.584446 1.426616 0.000079 0.0
2.484327 1.609360 0.002608 0.0
1.052182 0.110809 0.003254 0.0
2.062696 0.704583 -0.003164 0.0
2.401866 0.349970 0.000435 0.0
3.239904 1.368184 -0.000667 0.0
3.924318 1.536724 -0.000318 0.0
1.089805 1.542352 0.003516 0.0
1.417270 1.462536 -0.001424 0.0
3.594740 1.115610 -0.001518 0.0
4.531148 0.843926 0.003041 0.0
1.165824 1.373978 0.000708 0.0
2.216982 0.717319 0.003061 0.0
3.923625 0.548832 0.001666 0.0
3.529447 0.270007 -0.002500 0.0
4.587242 1.118945 -0.000662 0.0
4.505842 0.667796 0.000468 0.0
3.751355 1.207359 -0.001132 0.0
3.396292 1.006524 0.002317 0.0
0.621843 0.951991 -0.001484 0.0
1.420775 1.337855 -0.002660 0.0
0.479963 0.655011 -0.001760 0.0
2.171674 1.005385 0.002335 0.0
2.248954 0.412574 -0.001857 0.0
0.611244 1.133568 0.003753 0.0
3.254945 0.292225 0.005573 0.0
2.722499 0.147381 0.002892 0.0
1.494524 0.007196 -0.002073 0.0
4.079357 0.421170 -0.000599 0.0
1.999276 0.621471 -0.001484 0.0
0.578696 0.653324 -0.001118 0.0
2.149626 0.186350 0.001047 0.0
3.370568 1.619195 0.001957 0.0
1.250534 0.811491 -0.002610 0.0
1.982061 1.355464 -0.002565 0.0
3.639640 1.315293 0.000428 0.0
2.189554 1.341180 0.002357 0.0
1.665815 1.200957 -0.000125 0.0
4.436892 1.498724 -0.000891 0.0
4.259282 0.665396 0.001775 0.0
0.736644 1.525137 0.001450 0.0
1.001154 0.316565 0.000089 0.0
3.316245 1.169672 -0.000906 0.0
0.295963 0.751215 -0.003115 0.0
2.192793 1.539360 -0.000230 0.0
1.123860 1.247659 -0.002347 0.0
1.411709 0.360312 0.004686 0.0
3.747237 0.653443 -0.002674 0.0
2.047904 1.533530 0.000556 0.0
4.430373 0.083314 0.002700 0.0
3.135527 1.516875 -0.005926 0.0
1.118951 0.235439 0.000446 0.0
0.023227 0.047399 0.000768 0.0
3.562799 1.234494 -0.004724 0.0
1.921835 1.206606 0.003611 0.0
2.559877 0.333678 -0.000647 0.0
0.911340 0.414108 -0.001753 0.0
2.609564 1.476448 0.001252 0.0
3.298422 1.465555 -0.002277 0.0
2.340086 0.977768 0.000422 0.0
1.481164 0.792183 -0.004756 0.0
1.922068 1.399031 -0.004068 0.0
3.597352 1.602186 0.000589 0.0
2.187386 0.262053 -0.003631 0.0
4.588466 0.225593 -0.006685 0.0
3.542436 1.355732 0.003061 0.0
1.776250 0.634363 -0.003834 0.0
3.026503 0.876579 -0.000001 0.0
3.395289 0.558405 -0.005165 0.0
2.004247 1.264906 -0.001623 0.0
0.837376 0.211493 0.003991 0.0
2.379681 0.102688 0.000268 0.0
2.705089 0.606791 0.002162 0.0
1.669242 0.107951 0.001070 0.0
3.026516 1.015627 -0.002530 0.0
1.232728 0.964196 0.001297 0.0
2.040502 0.530438 -0.000090 0.0
1.682518 0.598037 -0.001449 0.0
0.738518 0.072509 0.003310 0.0
4.160055 1.497746 0.000470 0.0
3.496416 0.394672 0.000496 0.0
3.144392 0.151359 0.003297 0.0
2.557221 1.436528 0.005887 0.0
1.875971 0.555209 -0.002408 0.0
0.124138 0.331910 -0.000542 0.0
3.056075 1.078725 -0.002676 0.0
4.522515 1.451953 0.002033 0.0
0.296551 0.269733 0.001388 0.0
1.012943 1.503260 0.002514 0.0
2.457505 1.275391 0.004609 0.0
0.215833 1.264727 -0.001071 0.0
2.510791 0.500953 -0.001563 0.0
3.966275 1.027173 0.002718 0.0
2.768558 0.408500 0.001939 0.0
3.339476 1.223521 -0.000762 0.0
2.174801 0.005190 -0.003105 0.0
3.566435 0.551739 -0.000370 0.0
4.353564 0.340888 -0.001530 0.0
0.962223 0.965647 0.001319 0.0
0.311128 0.852999 0.000403 0.0
3.905334 0.647878 0.007349 0.0
2.858930 1.558989 -0.000108 0.0
1.715599 1.546725 0.000048 0.0
2.795282 1.455439 0.001855 0.0
1.041923 0.436260 0.002634 0.0
1.250512 1.074866 0.002839 0.0
1.628649 0.402479 -0.002896 0.0
1.781920 0.986453 0.002718 0.0
0.536724 0.565909 -0.005828 0.0
2.479152 1.666395 0.001118 0.0
4.596312 0.744031 -0.006254 0.0
0.732582 0.657574 -0.005486 0.0
2.522649 0.480618 -0.000378 0.0
2.492593 1.256069 -0.000167 0.0
2.909030 0.355215 0.001051 0.0
2.791737 1.365608 0.000747 0.0
1.225721 0.212260 -0.002353 0.0
2.852294 0.222895 -0.000179 0.0
4.215688 0.773639 -0.001003 0.0
3.220127 1.024285 -0.004513 0.0
4.088466 0.508892 0.002662 0.0
2.315475 0.994626 0.000991 0.0
4.560430 0.496382 -0.003935 0.0
0.538389 0.447204 -0.001832 0.0
4.221505 0.757116 -0.000014 0.0
1.646857 0.854492 0.001943 0.0
0.869853 0.600454 -0.001081 0.0
0.180459 0.901809 -0.000182 0.0
2.495295 0.929042 0.000631 0.0
3.913534 0.131385 0.002583 0.0
2.909417 0.665501 0.001059 0.0
1.483911 1.373503 0.000536 0.0
1.694625 1.009821 -0.001496 0.0
3.889462 1.343753 0.003654 0.0
1.198804 0.559227 0.000554 0.0
1.943712 1.655215 -0.000386 0.0
0.923263 0.561051 0.001035 0.0
0.392296 0.173386 0.000799 0.0
0.411925 0.997443 0.000829 0.0
3.144409 0.903363 0.002592 0.0
0.112322 0.216561 -0.003200 0.0
0.725764 1.528157 0.000688 0.0
2.125609 0.258023 0.002233 0.0
1.425996 1.487737 -0.000481 0.0
3.421683 1.367656 0.002327 0.0
4.580006 0.351262 0.000293 0.0
2.655848 1.299325 -0.004505 0.0
0.115999 0.812533 -0.000269 0.0
1.396623 0.105042 -0.001219 0.0
0.607301 1.248142 -0.002613 0.0
4.169308 0.110430 0.000268 0.0
0.197906 0.168725 0.002628 0.0
1.240429 0.371128 -0.002320 0.0
4.468192 0.564836 0.003723 0.0
2.371921 1.064610 -0.002240 0.0
2.998462 1.608102 -0.000911 0.0
3.609465 1.301577 -0.003214 0.0
2.089569 0.503854 -0.001774 0.0
1.419154 0.921814 -0.001042 0.0
2.883447 0.834682 0.000349 0.0
3.707003 0.841010 -0.004314 0.0
3.188986 0.573528 -0.004981 0.0
4.306636 0.603426 0.000631 0.0
4.326485 1.567517 -0.000686 0.0
1.657941 0.138057 -0.003480 0.0
4.260520 0.744988 -0.001178 0.0
3.053849 0.701185 0.000938 0.0
3.515409 0.768304 -0.001019 0.0
1.865348 0.978766 -0.001691 0.0
1.324563 1.277934 -0.000488 0.0
1.602908 1.125496 0.004614 0.0
3.811273 1.188252 0.004644 0.0
4.361455 0.876957 -0.004335 0.0
2.638017 0.789332 0.005456 0.0
4.441971 0.436830 0.000996 0.0
0.152906 0.511678 -0.002351 0.0
0.766848 0.575558 0.000592 0.0
0.685465 0.398154 0.003855 0.0
4.100187 0.117956 -0.002779 0.0
4.045853 1.597733 -0.000222 0.0
2.693498 1.682786 0.005605 0.0
1.850936 0.901168 0.002493 0.0
3.132401 1.626600 0.001783 0.0
2.606613 1.009193 0.001427 0.0
3.608366 1.051729 0.001620 0.0
3.137287 0.255779 0.002663 0.0
4.246574 0.958440 -0.001545 0.0
1.973907 1.109116 -0.002854 0.0
1.962511 0.162665 -0.001242 0.0
3.561315 0.990997 -0.005170 0.0
0.298307 0.813567 0.002526 0.0
1.777280 0.428166 -0.004106 0.0
0.525843 0.087351 0.000460 0.0
1.203296 0.387953 -0.001014 0.0
3.281993 1.474843 0.002895 0.0
4.356937 0.860966 0.001401 0.0
4.139835 0.519371 0.001484 0.0
2.905629 0.342136 0.001378 0.0
3.323361 0.552948 -0.002986 0.0
1.315233 0.898091 0.004467 0.0
4.088759 0.497933 -0.002114 0.0
4.080404 0.466507 -0.001449 0.0
0.534060 1.060594 0.001758 0.0
0.843142 0.545870 0.001591 0.0
1.096119 0.603367 0.001148 0.0
3.825214 0.195150 -0.001005 0.0
2.968141 0.868503 -0.002917 0.0
0.460224 0.027718 -0.003511 0.0
2.894948 0.733619 -0.001319 0.0
2.190665 1.001631 0.002629 0.0
0.656187 0.292406 -0.000347 0.0
4.032324 1.330815 0.002081 0.0
3.008421 1.163679 -0.003311 0.0
4.257493 0.236423 -0.003972 0.0
1.209339 1.295786 -0.001356 0.0
2.028364 1.182353 -0.002960 0.0
1.236457 1.658494 0.000392 0.0
4.254421 1.257528 -0.005437 0.0
3.353882 0.430913 -0.000867 0.0
2.247238 1.618444 -0.003958 0.0
2.209372 1.499633 -0.000960 0.0
0.414010 1.260309 0.002652 0.0
3.612348 1.094083 -0.003064 0.0
0.302327 0.715088 0.000044 0.0
1.677777 0.473513 0.000549 0.0
0.415485 0.089856 -0.000633 0.0
0.905029 0.231389 0.000896 0.0
2.471378 0.856034 0.000536 0.0
4.549664 0.954711 -0.005606 0.0
1.152070 1.175670 -0.000471 0.0
4.199972 0.897256 0.002186 0.0
1.658435 0.264217 -0.003413 0.0
2.260392 1.069842 0.001907 0.0
1.307491 0.123487 -0.002160 0.0
2.854092 1.021831 -0.000895 0.0
2.350311 0.630700 0.004161 0.0
4.123220 0.363830 -0.003831 0.0
2.705523 0.878684 0.002668 0.0
1.989783 0.890171 0.000013 0.0
3.379248 0.228695 -0.001788 0.0
0.232292 0.279286 0.001639 0.0
4.358224 1.292678 -0.000374 0.0
2.746610 0.060325 0.003376 0.0
3.860576 1.270808 -0.000657 0.0
4.541040 1.076542 0.000515 0.0
2.078892 0.054859 0.000314 0.0
2.215686 1.455049 -0.000866 0.0
3.368442 0.936803 0.001314 0.0
1.604329 0.640967 0.001722 0.0
0.384952 0.885070 -0.000222 0.0
4.329556 0.266014 -0.000831 0.0
2.100964 0.590611 0.001582 0.0
3.034217 1.420944 -0.001316 0.0
0.161048 1.459816 -0.000354 0.0
1.625673 0.100639 0.000397 0.0
3.338709 0.159958 -0.004125 0.0
1.824660 0.204811 0.004010 0.0
0.372231 1.229849 -0.001697 0.0
0.894157 1.564995 -0.001592 0.0
3.196138 1.297457 0.002368 0.0
4.035356 1.269082 -0.000224 0.0
0.244146 0.463679 0.002507 0.0
3.656017 1.588904 0.001745 0.0
0.352692 1.446011 0.004248 0.0
0.746832 0.360369 0.000150 0.0
3.913438 0.754814 0.000600 0.0
4.398079 1.157918 -0.000649 0.0
1.578590 1.033144 0.001188 0.0
3.956850 0.243421 0.000328 0.0
1.118459 1.663450 0.000714 0.0
4.369934 0.370058 0.001868 0.0
1.861854 0.447269 0.000712 0.0
4.307893 1.658603 0.000043 0.0
2.112925 0.790798 -0.001894 0.0
1.186025 0.730827 0.002614 0.0
1.698405 1.656005 -0.001688 0.0
1.106687 1.411293 -0.003647 0.0
1.787361 0.740241 0.001066 0.0
0.051719 0.605559 0.000626 0.0
3.900538 1.260570 -0.001163 0.0
3.907065 1.462798 0.001965 0.0
0.481859 1.141108 0.000824 0.0
4.220977 1.047718 0.000835 0.0
0.770588 1.672515 -0.001018 0.0
0.475751 0.038272 0.001308 0.0
3.431510 0.990236 0.003886 0.0
0.073113 1.426794 -0.003179 0.0
0.039957 1.029382 -0.001010 0.0
3.969929 0.819249 -0.001825 0.0
3.498303 1.253951 0.004798 0.0
1.772928 0.433620 -0.002574 0.0
1.610894 0.438630 -0.000647 0.0
3.834823 1.633167 0.006475 0.0
1.780617 1.291396 -0.002256 0.0
0.447120 0.908857 0.002599 0.0
1.145180 0.748978 -0.002184 0.0
0.555706 1.485432 0.002913 0.0
4.428394 0.748805 0.001142 0.0
2.885562 0.674417 -0.001739 0.0
3.986993 0.765308 -0.000960 0.0
0.260715 0.778257 -0.001438 0.0
2.227935 0.731792 0.001065 0.0
2.296262 1.255395 -0.000101 0.0
1.966494 0.253509 -0.001550 0.0
2.552314 1.537559 -0.003746 0.0
2.029773 0.484940 0.000682 0.0
2.576240 1.465947 0.000911 0.0
2.300799 0.882561 -0.001485 0.0
3.742456 1.330260 -0.001021 0.0
2.128463 1.651430 -0.004685 0.0
2.769939 0.850274 -0.002091 0.0
4.459179 0.810575 0.000893 0.0
1.802399 1.536347 0.000203 0.0
4.224740 1.386014 -0.002098 0.0
2.483264 0.211593 -0.000640 0.0
2.518906 0.566227 -0.000346 0.0
2.167910 1.570071 0.008508 0.0
1.179296 0.038476 0.001089 0.0
1.052830 1.195243 0.003218 0.0
1.553965 0.843964 -0.007329 0.0
2.955985 0.355318 -0.002855 0.0
3.611599 0.759635 0.000344 0.0
3.296219 0.785432 0.003879 0.0
2.714332 0.424009 -0.001867 0.0
3.955585 1.274959 -0.000465 0.0
3.959089 0.284908 0.001448 0.0
0.272197 0.091537 0.000053 0.0
2.210267 0.888330 -0.001974 0.0
4.462218 1.320955 -0.001969 0.0
3.145133 0.158858 -0.000012 0.0
2.383114 0.027443 -0.002026 0.0
1.535188 0.199686 -0.004233 0.0
0.042449 0.307333 0.001046 0.0
1.751475 0.604137 -0.002447 0.0
2.377485 0.917485 -0.005393 0.0
0.393127 0.811912 0.003937 0.0
3.505654 0.870762 -0.000158 0.0
3.208571 0.932501 0.007005 0.0
3.879667 1.139447 0.000467 0.0
2.045692 1.195104 0.002319 0.0
0.378122 1.077144 0.002860 0.0
2.897476 0.226190 0.005494 0.0
4.292603 1.139198 -0.000596 0.0
0.995565 0.138125 -0.002752 0.0
3.095866 0.801008 -0.002078 0.0
3.925819 0.698707 0.002727 0.0
0.209422 0.054077 0.001194 0.0
4.577004 0.183654 0.000678 0.0
3.557410 0.569227 0.001846 0.0
0.813586 0.589336 0.005008 0.0
0.578319 0.001579 0.000351 0.0
3.870905 0.763781 -0.002495 0.0
1.134902 1.267483 -0.003288 0.0
0.513565 0.557158 0.001152 0.0
0.033388 0.029426 -0.002419 0.0
3.864144 1.677730 -0.001862 0.0
3.765263 1.155265 -0.002943 0.0
4.585333 1.444645 0.000281 0.0
2.257164 1.607598 0.000684 0.0
4.327498 0.546564 -0.001237 0.0
2.836997 0.007625 -0.000936 0.0
2.753087 1.461313 0.001640 0.0
3.495876 1.664584 -0.000206 0.0
3.887703 1.649398 -0.001227 0.0
3.276172 0.678148 -0.004036 0.0
1.622853 0.729682 -0.000785 0.0
1.766311 0.344856 0.004576 0.0
1.642832 0.253537 0.004047 0.0
0.325078 0.495449 0.001931 0.0
0.594680 0.087568 -0.002412 0.0
0.123275 0.221906 0.002068 0.0
1.802443 0.961027 -0.000439 0.0
1.594725 1.164179 0.003599 0.0
1.990077 1.376836 -0.001579 0.0
0.951164 0.415560 0.004706 0.0
3.638523 0.196916 0.001166 0.0
0.691151 1.327347 -0.003986 0.0
2.996457 0.751328 0.001100 0.0
0.140244 1.532574 -0.000945 0.0
0.062988 1.539160 0.000024 0.0
1.082073 1.041322 -0.002262 0.0
3.734747 0.636339 0.004867 0.0
0.037380 0.988967 0.001232 0.0
1.152477 0.819956 -0.001679 0.0
3.968086 0.971597 0.001930 0.0
4.318992 1.258807 0.000244 0.0
2.734503 1.603032 0.000481 0.0
3.900229 1.109585 0.002652 0.0
3.380684 1.364341 0.001363 0.0
3.382090 1.260800 0.001936 0.0
0.617034 1.103669 -0.001597 0.0
2.694352 0.409360 0.003645 0.0
1.658617 0.463012 -0.002233 0.0
3.600659 0.129085 -0.002468 0.0
2.160364 0.508407 0.002773 0.0
3.155787 0.502565 0.002218 0.0
2.086026 1.516919 0.000841 0.0
3.686745 1.590304 -0.000114 0.0
3.430680 0.036402 -0.003103 0.0
0.999639 1.234526 -0.000620 0.0
2.943490 0.936690 -0.001214 0.0
3.065090 0.863352 0.000070 0.0
3.723111 0.285512 0.000057 0.0
1.933118 0.317155 0.000637 0.0
0.141955 1.198396 -0.002773 0.0
1.514531 0.856125 0.003216 0.0
0.451305 0.843627 0.001493 0.0
0.137755 0.632752 -0.002479 0.0
3.128137 1.504470 0.000325 0.0
4.338680 0.723451 -0.000042 0.0
2.085515 0.279242 0.000582 0.0
0.712621 1.252279 0.000833 0.0
3.281724 0.229060 -0.005125 0.0
3.566743 0.235082 -0.000487 0.0
2.476538 0.665683 0.002109 0.0
1.441087 1.173596 0.003330 0.0
1.140812 0.174329 -0.000824 0.0
1.988765 0.861476 0.000293 0.0
3.591531 0.033847 0.000649 0.0
1.183355 1.502558 0.001057 0.0
2.347194 1.550408 -0.000196 0.0
3.016262 0.917373 -0.002767 0.0
0.765832 0.737464 -0.001065 0.0
3.212532 1.521485 0.002714 0.0
1.654209 1.178320 0.000849 0.0
2.361950 1.420621 -0.001702 0.0
0.449541 1.353243 0.004310 0.0
3.888039 1.239702 -0.002211 0.0
1.680973 0.618752 0.002539 0.0
2.017747 0.332313 0.000970 0.0
1.391749 0.398410 -0.002772 0.0
2.697195 0.500143 0.001335 0.0
0.074953 1.353830 0.000498 0.0
4.593301 0.303005 0.003544 0.0
0.050662 1.045795 0.002390 0.0
0.655473 0.927211 -0.001290 0.0
4.102907 1.368900 -0.002129 0.0
1.242549 0.309608 -0.001868 0.0
2.656445 0.609388 0.003429 0.0
1.828389 0.799419 0.002687 0.0
2.969707 1.569834 0.003607 0.0
4.020262 0.324899 -0.002221 0.0
3.165922 0.388566 -0.000585 0.0
3.381982 0.825320 0.002037 0.0
4.288931 0.973110 -0.003420 0.0
0.443167 1.203539 -0.001131 0.0
4.191410 0.023025 -0.003853 0.0
0.075552 0.673264 0.003651 0.0
3.148428 0.784069 -0.000974 0.0
2.520066 1.068942 -0.001038 0.0
0.728926 0.054321 -0.000190 0.0
1.349062 0.583270 -0.000222 0.0
4.460842 0.613388 -0.002727 0.0
1.709054 0.463817 -0.000288 0.0
1.111899 1.225477 -0.001349 0.0
2.331555 1.020204 -0.000181 0.0
4.076593 1.313573 -0.004201 0.0
3.372268 1.291412 -0.000983 0.0
1.868578 0.138479 0.003224 0.0
1.735864 0.201940 -0.000942 0.0
1.435767 0.661889 0.004416 0.0
2.061552 0.063081 0.000851 0.0
2.118710 0.134037 0.002363 0.0
4.338472 0.954311 0.005361 0.0
2.261204 0.010048 -0.001925 0.0
1.549766 0.568935 0.002397 0.0
1.194069 0.897844 -0.003088 0.0
3.530665 0.697417 0.000483 0.0
3.551705 0.818431 0.002703 0.0
4.142472 1.362140 -0.007388 0.0
2.906529 0.161993 -0.001031 0.0
1.266699 1.474384 -0.002240 0.0
0.477335 1.636614 -0.002786 0.0
0.199026 0.857219 0.003234 0.0
0.845612 0.895254 0.002625 0.0
0.703235 0.784793 0.004361 0.0
1.558388 0.848071 0.005469 0.0
0.955933 1.206266 -0.000331 0.0
0.262648 0.700366 -0.002131 0.0
4.507465 0.373963 0.002777 0.0
3.127458 1.223532 -0.004241 0.0
2.481739 0.337863 0.001811 0.0
3.104487 0.223058 0.000834 0.0
0.548652 0.043060 -0.000206 0.0
4.179898 0.458415 -0.002642 0.0
1.185074 0.621779 -0.001234 0.0
1.136897 0.454370 -0.001225 0.0
1.210969 0.438548 -0.003654 0.0
1.433139 1.022590 0.001531 0.0
0.092831 0.787120 -0.002390 0.0
2.141965 0.981846 0.005391 0.0
1.813725 1.579143 -0.002341 0.0
0.922751 0.868765 0.001976 0.0
1.651421 1.649053 -0.002336 0.0
1.607390 0.117641 0.003116 0.0
0.261333 0.323276 0.003476 0.0
4.404428 0.611375 -0.003054 0.0
1.340031 1.065051 0.001589 0.0
3.933106 1.524898 -0.001379 0.0
0.615935 0.961198 -0.000468 0.0
0.383273 0.517331 0.000874 0.0
1.443345 0.533311 0.001265 0.0
2.286868 0.662902 -0.003508 0.0
2.846046 1.055497 0.000381 0.0
1.008683 1.154814 -0.001154 0.0
1.033326 0.612155 0.000288 0.0
0.131430 1.400541 -0.003846 0.0
0.734918 1.140923 0.001519 0.0
2.441394 0.486020 0.001882 0.0
1.654465 1.451008 -0.001440 0.0
1.214727 1.579246 0.003530 0.0
0.062175 1.494899 0.002248 0.0
2.685361 1.346467 0.002080 0.0
2.207677 0.904796 0.001419 0.0
0.274193 1.500602 0.000648 0.0
1.601163 0.158703 -0.002675 0.0
2.350173 1.681224 -0.000360 0.0
3.369008 1.174579 -0.002014 0.0
2.392990 1.659250 -0.000164 0.0
1.344571 1.007693 0.000869 0.0
0.060209 0.313435 0.002577 0.0
2.982263 1.039076 0.002426 0.0
0.847982 0.111401 0.000415 0.0
2.203452 1.476348 -0.003919 0.0
1.432152 1.259416 0.003263 0.0
1.211671 0.628175 -0.001980 0.0
1.444256 0.191363 0.002065 0.0
1.105528 0.235561 0.001787 0.0
3.694048 0.492289 -0.002867 0.0
0.433446 0.500669 0.005378 0.0
3.534564 1.591441 -0.000002 0.0
2.892032 1.224333 0.000488 0.0
4.564838 0.796448 -0.001025 0.0
0.973839 0.873372 -0.000323 0.0
0.474966 0.733852 0.000373 0.0
1.607428 1.227267 0.001697 0.0
2.682042 0.216171 -0.002219 0.0
2.799330 0.742524 -0.001619 0.0
3.019883 0.940317 0.002325 0.0
3.382767 0.736733 0.007385 0.0
3.987981 1.346822 0.005000 0.0
4.195141 1.072575 -0.002081 0.0
2.903141 0.698790 0.000549 0.0
1.648199 0.410256 0.000841 0.0
0.163961 0.459024 0.001029 0.0
0.485235 1.066118 -0.000037 0.0
3.709590 0.017313 -0.001322 0.0
1.590811 1.395728 -0.001244 0.0
3.024843 1.048994 -0.004758 0.0
1.554673 0.127182 -0.000645 0.0
1.822999 0.025051 0.000199 0.0
2.041876 1.149260 -0.000317 0.0
3.162022 0.203452 0.000490 0.0
1.712005 0.488071 0.002934 0.0
2.103140 1.141188 -0.002656 0.0
1.510406 0.901678 -0.000982 0.0
0.835395 0.970072 -0.002825 0.0
4.301836 0.318502 -0.000914 0.0
1.949007 0.559092 -0.003904 0.0
2.355313 0.118121 0.001867 0.0
0.116681 1.225779 0.001116 0.0
3.304207 1.629744 -0.000066 0.0
1.209642 0.484722 -0.002661 0.0
3.796823 0.757671 -0.000648 0.0
1.085044 0.368542 -0.001068 0.0
0.285191 0.685106 0.003155 0.0
4.360377 0.362331 -0.000521 0.0
0.827237 0.027763 -0.000535 0.0
0.713163 0.319179 -0.002172 0.0
3.475276 0.006996 -0.000327 0.0
2.500596 0.665446 -0.003543 0.0
0.614077 1.496445 0.001464 0.0
2.870171 1.101318 -0.003094 0.0
0.015437 0.772136 -0.007567 0.0
2.104555 0.366839 -0.000875 0.0
3.542287 0.919690 -0.003169 0.0
0.550858 1.658133 0.001089 0.0
0.159065 0.547806 0.003787 0.0
1.626052 1.137500 0.001250 0.0
0.745449 1.446491 -0.003821 0.0
0.546820 0.139612 0.000602 0.0
1.207111 1.649622 0.001580 0.0
3.330843 0.052912 0.001838 0.0
3.347726 1.320336 0.003134 0.0
2.818606 1.168662 -0.002733 0.0
4.371369 0.913698 -0.000356 0.0
4.599662 0.276966 -0.002416 0.0
0.709606 0.142518 0.000233 0.0
3.586011 0.960587 0.000767 0.0
3.505969 1.644668 -0.006058 0.0
1.922393 0.266048 -0.003234 0.0
0.123129 0.849847 -0.003666 0.0
2.485223 1.426150 0.004214 0.0
4.571468 0.530624 -0.005501 0.0
3.304258 0.252717 0.000060 0.0
3.398985 0.052127 0.003849 0.0
1.610693 0.149989 0.004124 0.0
4.058506 0.913420 0.001566 0.0
0.336729 0.248741 -0.000354 0.0
0.956785 1.661848 0.000381 0.0
1.882564 0.181599 -0.001260 0.0
1.060795 1.009884 -0.003706 0.0
4.186324 0.716947 0.000429 0.0
3.279074 1.059848 0.003121 0.0
1.028946 1.267156 -0.002620 0.0
1.644108 1.365435 -0.002652 0.0
3.629127 0.362028 0.001816 0.0
3.072258 1.614320 0.002557 0.0
0.454430 0.719399 0.000103 0.0
1.480367 1.511133 0.001953 0.0
4.567707 0.966332 0.002510 0.0
0.529686 1.082897 -0.000587 0.0
2.041940 0.891436 -0.004452 0.0
2.549791 0.718290 0.000314 0.0
0.815730 1.108254 0.001471 0.0
1.257279 1.260088 0.000281 0.0
3.580874 0.973690 0.000295 0.0
4.298845 0.212156 0.001454 0.0
3.415333 1.155796 -0.000391 0.0
4.432070 0.865258 0.000520 0.0
2.865322 1.341856 -0.004549 0.0
2.152073 0.138500 -0.003350 0.0
3.121268 0.843699 -0.001735 0.0
2.305233 0.103961 -0.000071 0.0
1.027081 0.780681 -0.000148 0.0
0.096551 0.788112 -0.002646 0.0
2.755712 0.368650 -0.004935 0.0
3.960217 0.670780 -0.000724 0.0
1.319109 1.222752 -0.003925 0.0
0.953061 0.185741 -0.004069 0.0
3.207119 0.982395 0.004454 0.0
2.998042 0.625760 -0.001428 0.0
2.976653 1.564313 -0.001238 0.0
0.135728 1.112426 -0.000224 0.0
0.511093 0.725797 -0.001970 0.0
4.431169 1.208801 -0.003413 0.0
2.612624 0.211984 -0.000321 0.0
1.628641 0.402649 0.000443 0.0
3.366678 0.337878 -0.004662 0.0
3.790707 1.425152 0.000761 0.0
3.369769 1.291725 0.004217 0.0
1.651074 0.851334 -0.000127 0.0
1.939967 0.179246 -0.001515 0.0
3.202280 1.293114 0.002656 0.0
0.348389 1.571125 -0.000535 0.0
4.223670 0.352804 -0.000889 0.0
1.442250 0.714236 0.003734 0.0
2.951676 0.993880 0.001741 0.0
0.714618 0.048669 -0.001653 0.0
1.967566 0.853164 -0.003191 0.0
3.162933 0.723398 0.000777 0.0
3.391847 1.521003 -0.000321 0.0
1.354980 1.203788 -0.000366 0.0
4.446648 0.042285 0.002124 0.0
2.600077 1.424576 0.002038 0.0
4.209216 0.548314 0.003429 0.0
3.739603 0.459657 0.000259 0.0
3.756141 0.491656 0.000747 0.0
1.918240 0.496650 -0.002182 0.0
1.391596 1.391390 -0.000977 0.0
0.991323 0.178855 0.002901 0.0
2.325609 1.376983 -0.000032 0.0
4.191796 1.562002 -0.002148 0.0
1.482531 0.144337 -0.000783 0.0
2.769720 1.128909 0.001474 0.0
2.362838 1.087797 -0.000680 0.0
4.349110 0.419912 0.001904 0.0
2.201990 0.100633 0.000224 0.0
0.482909 1.141761 0.003556 0.0
0.014202 0.895242 0.003953 0.0
4.061035 0.626352 0.002193 0.0
4.484677 0.307627 0.001139 0.0
2.937278 0.434205 0.000401 0.0
3.393668 0.162103 -0.005842 0.0
2.461110 0.020227 0.004553 0.0
3.729079 0.437189 0.001515 0.0
4.488384 1.373202 -0.000203 0.0
1.064070 0.695111 0.000388 0.0
1.028053 0.951161 -0.001199 0.0
3.497737 1.021438 0.003831 0.0
4.345145 0.750342 0.000011 0.0
0.686434 0.505167 -0.000977 0.0
2.933731 0.748712 0.000325 0.0
0.953227 1.343325 -0.000621 0.0
3.449487 1.531410 -0.003269 0.0
2.163961 0.163615 0.005551 0.0
0.085415 1.052337 0.000049 0.0
3.211233 0.725665 -0.000621 0.0
0.578302 0.052840 0.000922 0.0
3.521095 1.329778 0.001833 0.0
1.303050 0.715194 0.001845 0.0
3.827164 0.869487 0.000649 0.0
3.343309 1.477416 0.003451 0.0
1.934239 0.788571 0.008475 0.0
1.361580 1.624004 -0.000143 0.0
3.014051 0.424577 -0.001017 0.0
4.265386 0.547438 -0.002875 0.0
2.192361 1.582872 0.003441 0.0
3.484779 1.615027 0.000248 0.0
3.666444 0.109785 -0.000382 0.0
1.601036 0.080903 -0.005123 0.0
3.991279 0.250202 0.000220 0.0
2.595556 0.156164 -0.003316 0.0
2.094746 0.438636 0.000986 0.0
4.012710 0.438468 -0.003072 0.0
4.358708 0.785517 -0.000577 0.0
1.302175 1.069329 -0.003156 0.0
3.261013 0.862121 0.001416 0.0
4.421702 0.695006 -0.000659 0.0
0.480826 1.330689 0.002452 0.0
1.948778 0.274456 0.002188 0.0
1.341672 0.641329 0.001947 0.0
0.388646 1.222512 0.000149 0.0
2.906433 0.040756 0.004500 0.0
0.907598 1.140276 -0.001956 0.0
0.236949 0.624434 0.001613 0.0
0.804630 0.945542 0.002678 0.0
4.358314 0.426504 -0.005437 0.0
0.128231 1.169550 0.000809 0.0
