1.64067308 0.50874146 0.00044574 0.00000000
1.23324334 0.14930080 -0.00295235 0.00000000
2.37157126 1.32421476 0.00308438 0.00000000
3.78071103 1.18162007 -0.00226370 0.00000000
3.51374948 0.39836246 -0.00028848 0.00000000
0.87097185 0.44311465 -0.00250822 0.00000000
2.27238303 1.43230299 -0.00025000 0.00000000
2.81424100 0.95901095 0.00254394 0.00000000
1.84164451 1.26430301 -0.00069148 0.00000000
3.76125351 0.88289213 -0.00017370 0.00000000
1.15147325 0.04314819 0.00019543 0.00000000
3.03742802 0.77612376 -0.00153160 0.00000000
0.64114802 0.29549152 0.00208233 0.00000000
1.38449635 0.08220976 -0.00215838 0.00000000
3.20294785 1.56782473 0.00000307 0.00000000
3.46831528 0.51502717 -0.00164738 0.00000000
3.96066666 0.82795604 0.00379312 0.00000000
4.12875371 1.16186774 -0.00046213 0.00000000
3.63092568 0.37037263 -0.00064628 0.00000000
3.23848687 0.12765650 -0.00393608 0.00000000
4.23065160 0.24358259 -0.00000779 0.00000000
3.98273927 1.64029368 -0.00162807 0.00000000
2.68245674 0.05683446 -0.00488729 0.00000000
3.88599159 0.83520884 0.00100903 0.00000000
1.14432406 0.38272805 0.00297075 0.00000000
0.41932335 0.11041011 0.00105854 0.00000000
4.20556494 1.44508732 -0.00253829 0.00000000
2.76541263 1.48732718 -0.00070816 0.00000000
3.30304923 0.41575461 0.00389582 0.00000000
2.96201691 0.64956012 0.00659168 0.00000000
4.21189991 0.35954889 -0.00293855 0.00000000
0.88656521 1.41066015 0.00136838 0.00000000
2.85568603 0.09319878 0.00232663 0.00000000
1.63397031 1.14140426 0.00261838 0.00000000
2.41310660 0.91615124 -0.00028773 0.00000000
1.17916088 0.09293086 0.00025719 0.00000000
2.11929563 1.16902248 -0.00297726 0.00000000
0.76346084 0.75680839 0.00349760 0.00000000
3.63074930 0.18859258 0.00224320 0.00000000
0.52198070 0.31669267 -0.00261692 0.00000000
3.36904873 1.11919701 0.00063366 0.00000000
2.66793294 0.26517870 0.00171631 0.00000000
3.06962501 0.40755924 -0.00544273 0.00000000
3.99153400 1.43793143 -0.00260667 0.00000000
2.93077566 1.28472964 -0.00191701 0.00000000
2.11971360 0.95596718 0.00301907 0.00000000
0.21876816 0.85467647 0.00054327 0.00000000
2.23004395 0.62959896 0.00381903 0.00000000
3.08027595 0.79278582 0.00193807 0.00000000
0.19718413 1.62979977 0.00076506 0.00000000
1.35268144 0.24533248 -0.00315068 0.00000000
1.47212678 1.47864808 0.00285908 0.00000000
1.03288363 1.35107831 -0.00138950 0.00000000
1.45093790 0.07777264 0.00064499 0.00000000
3.74051063 1.02119688 0.00184294 0.00000000
3.02434011 0.08997609 -0.00386807 0.00000000
3.38831009 1.11179176 -0.00034999 0.00000000
3.18232456 0.31754537 0.00062582 0.00000000
3.61177334 0.34813173 -0.00136256 0.00000000
1.41188425 1.02385660 0.00203791 0.00000000
1.71746536 0.06389665 -0.00016856 0.00000000
3.76255617 0.08478705 0.00315688 0.00000000
1.95439441 0.41375745 0.00143593 0.00000000
2.30635222 0.90924385 -0.00322327 0.00000000
3.18095526 0.17755531 0.00092886 0.00000000
2.00296231 0.69491347 0.00248234 0.00000000
3.18187539 1.43295558 0.00046183 0.00000000
2.23237282 1.28943858 0.00041140 0.00000000
3.78962606 1.10510339 -0.00202767 0.00000000
1.87533777 1.02669934 -0.00131036 0.00000000
1.29857888 0.14762139 -0.00237631 0.00000000
0.52374841 0.55530600 0.00217086 0.00000000
3.68204195 0.28943548 0.00106419 0.00000000
0.47788064 1.07594662 0.00241784 0.00000000
3.64239945 0.98958522 -0.00145263 0.00000000
3.36814817 0.85964048 0.00142918 0.00000000
1.19886862 0.36471808 0.00310290 0.00000000
3.18422920 0.16525441 0.00046092 0.00000000
3.44926150 0.82609554 0.00493352 0.00000000
1.96613829 0.36948672 0.00152982 0.00000000
3.30398906 0.06847889 -0.00407993 0.00000000
2.22980044 0.67972995 0.00281982 0.00000000
1.75401959 1.58602878 -0.00305866 0.00000000
1.49269549 0.54986686 -0.00381377 0.00000000
1.51574229 0.51104400 -0.00372856 0.00000000
2.39838534 1.50538552 0.00229374 0.00000000
0.30878465 0.71070888 0.00177124 0.00000000
2.93471193 0.55959875 -0.00097184 0.00000000
3.69114513 0.24124640 -0.00487482 0.00000000
1.77760922 1.61666973 0.00030830 0.00000000
3.72454523 0.95173155 -0.00133836 0.00000000
2.74257069 0.94723243 -0.00097308 0.00000000
3.02199753 0.71154650 -0.00612931 0.00000000
4.19879032 1.27618409 0.00586806 0.00000000
0.84058035 1.49297628 0.00275919 0.00000000
0.09746533 1.05744582 0.00102656 0.00000000
0.85635962 1.62845098 -0.00139164 0.00000000
1.65075544 0.26072133 -0.00006994 0.00000000
2.76703696 1.26241831 -0.00040176 0.00000000
2.14684934 1.13616119 -0.00461917 0.00000000
3.09289085 0.85544639 0.00202779 0.00000000
1.81453677 1.05251017 -0.00002557 0.00000000
4.11162619 0.05363133 -0.00079408 0.00000000
2.58287348 0.33482474 0.00196314 0.00000000
2.99256405 0.37357394 0.00283980 0.00000000
1.22998355 0.11541489 -0.00124879 0.00000000
0.95141500 0.88547781 0.00403430 0.00000000
0.56709780 0.54605651 -0.00112235 0.00000000
0.73945636 0.51304135 0.00272841 0.00000000
3.06553048 0.20819931 -0.00057389 0.00000000
3.80737816 0.13453839 0.00043804 0.00000000
1.73044486 1.24621551 -0.00269518 0.00000000
2.93056908 0.30623823 0.00150866 0.00000000
0.04588668 1.48349000 -0.00117523 0.00000000
1.78160825 1.10463534 0.00017483 0.00000000
3.74134789 0.18462899 -0.00133288 0.00000000
3.49002127 0.02536376 -0.00443968 0.00000000
1.27201759 0.19543340 0.00478626 0.00000000
3.11875256 0.77476638 0.00062403 0.00000000
2.46117349 1.36614405 -0.00092169 0.00000000
2.37108065 1.55250629 0.00532605 0.00000000
1.98715078 0.49116285 -0.00042839 0.00000000
3.42794602 1.31623601 -0.00333676 0.00000000
2.99775946 0.56112851 -0.00009842 0.00000000
1.94677804 0.92986381 0.00367105 0.00000000
3.49899518 0.41389362 0.00162028 0.00000000
4.19927617 0.22489855 -0.00106722 0.00000000
4.26979150 0.66244754 0.00362128 0.00000000
0.58235940 0.62326990 0.00135737 0.00000000
0.74492004 0.96108527 -0.00212397 0.00000000
1.99023675 0.64924611 0.00170626 0.00000000
3.68958870 1.60432855 -0.00024988 0.00000000
0.32416235 0.07580682 -0.00237156 0.00000000
1.99489622 1.10315342 -0.00056489 0.00000000
2.63298646 0.55925266 0.00122603 0.00000000
0.35369717 0.29471906 -0.00089781 0.00000000
2.81350586 1.07989081 0.00311340 0.00000000
2.57366728 1.20327220 0.00006253 0.00000000
1.53717677 0.71996102 0.00212875 0.00000000
0.42306941 0.56825553 0.00334160 0.00000000
0.40764236 0.92035496 0.00429484 0.00000000
2.31142092 1.47473600 0.00048816 0.00000000
3.74347550 0.01769590 0.00224494 0.00000000
1.79667583 0.87799087 -0.00117209 0.00000000
3.72678633 1.36165713 0.00278460 0.00000000
2.23223350 1.22186325 -0.00134429 0.00000000
0.49916337 1.37335712 0.00165596 0.00000000
0.84714527 0.77230151 -0.00044697 0.00000000
0.38242827 0.15153565 0.00197898 0.00000000
1.45872962 0.90943207 -0.00029169 0.00000000
2.34616415 0.88896316 0.00269384 0.00000000
1.17000633 0.76111009 0.00001056 0.00000000
3.06602076 1.50156792 -0.00105287 0.00000000
2.24651713 0.38762965 0.00185786 0.00000000
0.83026195 0.89416202 -0.00094746 0.00000000
1.01929783 0.14662390 0.00305779 0.00000000
1.28231534 0.16568687 -0.00271395 0.00000000
1.75991069 0.51143721 -0.00235303 0.00000000
1.42566893 1.34988803 -0.00120993 0.00000000
2.37830494 1.23465460 -0.00034483 0.00000000
1.16585680 0.63430061 0.00032733 0.00000000
0.51425732 0.05745763 0.00080171 0.00000000
1.21327321 1.23402891 -0.00010056 0.00000000
3.51460933 1.08333258 -0.00064753 0.00000000
3.40549301 1.06488177 0.00253648 0.00000000
3.24979020 0.49990311 -0.00087540 0.00000000
2.49951494 0.50476571 0.00030451 0.00000000
0.74892334 1.51043861 0.00024682 0.00000000
3.85407781 0.06487102 0.00253054 0.00000000
3.00424197 0.64500201 0.00393960 0.00000000
3.66655390 0.45137882 0.00370627 0.00000000
0.13699190 0.26196439 -0.00028810 0.00000000
1.61400330 1.40345592 -0.00069209 0.00000000
3.75086355 1.14352008 -0.00644640 0.00000000
2.08255749 1.25086945 0.00110009 0.00000000
2.94588907 0.10308464 0.00148352 0.00000000
4.14250191 0.84621797 -0.00236547 0.00000000
2.91162468 0.96272549 -0.00310090 0.00000000
2.67198821 0.68103960 -0.00046860 0.00000000
1.12604844 0.29896360 -0.00245705 0.00000000
4.13566650 0.79940086 -0.00239504 0.00000000
0.33500781 1.06213137 0.00173458 0.00000000
3.40905783 0.74030681 -0.00147519 0.00000000
2.12248058 1.41926540 0.00254842 0.00000000
1.87915368 1.44586490 -0.00027929 0.00000000
2.39650189 1.28846297 -0.00117348 0.00000000
1.58845635 0.38903890 0.00121210 0.00000000
1.74037911 0.46122435 -0.00105573 0.00000000
2.28848845 1.14489598 -0.00014293 0.00000000
1.35518460 1.12646172 -0.00343505 0.00000000
1.95183720 0.94750542 -0.00167880 0.00000000
2.24623835 0.58076442 0.00071240 0.00000000
2.28437680 1.07682762 0.00678174 0.00000000
0.05901710 1.59392864 0.00222946 0.00000000
2.43180683 1.49520259 -0.00102017 0.00000000
0.27946419 0.51210719 -0.00039713 0.00000000
3.94412377 0.20095196 0.00258431 0.00000000
2.30018805 0.46338711 0.00260046 0.00000000
4.14049042 0.96985640 0.00226920 0.00000000
4.14223449 1.10168022 -0.00150620 0.00000000
3.32622745 1.44305598 -0.00197143 0.00000000
0.94779564 0.94123753 0.00078978 0.00000000
0.60154520 0.02947052 0.00050714 0.00000000
4.19474469 0.19679030 -0.00335189 0.00000000
2.89591806 0.37421478 -0.00209445 0.00000000
1.94016875 0.49719744 -0.00441854 0.00000000
3.95275026 0.34815410 -0.00039419 0.00000000
1.45457552 1.03660166 -0.00053682 0.00000000
3.07679793 1.51328437 0.00179140 0.00000000
0.62058241 0.16933030 -0.00129624 0.00000000
1.24935753 0.88779345 0.00238924 0.00000000
1.52043761 0.47276839 -0.00212244 0.00000000
2.33920676 1.32087001 -0.00259763 0.00000000
1.75899547 0.29881164 -0.00260346 0.00000000
0.48676355 0.69374743 0.00206488 0.00000000
0.86192452 1.48608356 0.00028023 0.00000000
3.30297575 0.91523468 0.00140511 0.00000000
0.60011487 1.34879610 -0.00041572 0.00000000
4.26465806 0.25240434 -0.00273113 0.00000000
3.19606980 1.28020827 -0.00438048 0.00000000
1.60530216 0.20585566 -0.00030331 0.00000000
3.73174610 1.44830384 -0.00071348 0.00000000
2.35914225 0.93959388 -0.00208362 0.00000000
1.78668719 0.98293425 -0.00421234 0.00000000
1.29541518 1.56028638 0.00482936 0.00000000
1.18063855 1.11148093 0.00158942 0.00000000
1.35834025 0.90994848 0.00271270 0.00000000
1.26803868 0.86385345 -0.00159078 0.00000000
1.77159080 0.00442443 0.00273518 0.00000000
0.02634299 1.37087841 0.00335233 0.00000000
1.52792455 0.10894709 -0.00601465 0.00000000
2.68110127 0.28462451 0.00001013 0.00000000
0.64692438 0.18003924 0.00221395 0.00000000
0.71226567 0.09696400 -0.00293279 0.00000000
4.04437352 1.13402977 0.00318019 0.00000000
3.26330694 0.52218103 -0.00353904 0.00000000
2.06584181 1.57581701 0.00177372 0.00000000
0.76172425 1.31766766 -0.00386533 0.00000000
1.88598663 1.03174104 0.00475756 0.00000000
1.62647971 0.14120651 0.00075767 0.00000000
4.08903760 0.75858845 0.00005858 0.00000000
1.68003108 0.48923164 0.00435310 0.00000000
0.79430365 0.02354171 0.00206019 0.00000000
0.59975246 0.24735468 -0.00287373 0.00000000
0.91133649 1.21486233 0.00034791 0.00000000
1.09617853 0.96171344 0.00373030 0.00000000
2.85712531 0.19836408 0.00281402 0.00000000
1.90872661 0.05711255 -0.00303238 0.00000000
3.13771228 0.48725805 0.00416220 0.00000000
0.36981707 0.86976267 -0.00172491 0.00000000
3.20369583 0.13120857 0.00115285 0.00000000
1.65674686 0.04161469 -0.00024818 0.00000000
1.22438062 0.47463385 0.00145682 0.00000000
2.33920906 0.32887377 -0.00241679 0.00000000
1.71053606 0.15655219 -0.00117473 0.00000000
0.05060077 0.62866233 -0.00096356 0.00000000
1.04593067 1.44258788 0.00130513 0.00000000
0.11631753 1.29335003 0.00291151 0.00000000
3.14581550 1.08322696 -0.00256745 0.00000000
1.72870331 0.43202049 -0.00354735 0.00000000
0.05280066 1.16115201 0.00432734 0.00000000
1.62308498 1.53270327 -0.00399741 0.00000000
0.21255789 1.16332217 -0.00229047 0.00000000
3.82810954 0.38212461 -0.00056393 0.00000000
0.08062379 0.70964598 0.00251149 0.00000000
4.26366161 0.24007315 -0.00208373 0.00000000
2.30299875 0.87423468 -0.00151584 0.00000000
1.65584998 0.56900752 0.00018120 0.00000000
1.68644145 1.50461013 0.00190155 0.00000000
2.20872183 0.67514652 -0.00347938 0.00000000
3.91621874 0.28896498 -0.00300553 0.00000000
0.37096101 1.17223736 -0.00054832 0.00000000
3.16520084 0.66834739 -0.00030181 0.00000000
2.54130715 0.18436907 0.00260107 0.00000000
2.24655035 1.15703286 0.00212436 0.00000000
2.39466662 0.47067494 0.00023559 0.00000000
1.31025803 1.15641152 0.00308176 0.00000000
3.32019747 1.47201184 -0.00450951 0.00000000
3.01431260 0.11778712 -0.00839011 0.00000000
3.84261753 1.47613807 0.00001051 0.00000000
2.59842514 1.02156102 -0.00197869 0.00000000
2.95736248 0.81153872 -0.00069677 0.00000000
0.28297707 0.93911538 0.00080673 0.00000000
2.86371321 0.60134735 -0.00425031 0.00000000
0.33884296 1.16129271 0.00240492 0.00000000
1.35585676 0.89999068 0.00083507 0.00000000
1.08083189 0.71402271 0.00297862 0.00000000
2.89263896 0.75141987 0.00207020 0.00000000
0.18185580 0.49773528 -0.00001826 0.00000000
1.97875799 1.29570340 -0.00219760 0.00000000
0.86891832 1.50117595 -0.00548774 0.00000000
2.99393718 0.13575345 0.00089615 0.00000000
2.48030734 1.33860668 0.00222932 0.00000000
3.16005543 0.34921749 -0.00172558 0.00000000
2.67634041 0.30915264 -0.00269858 0.00000000
3.93027060 1.15136303 -0.00312794 0.00000000
0.42545326 1.44390466 -0.00179321 0.00000000
3.61850619 0.65841124 -0.00493456 0.00000000
1.18696644 1.63351817 -0.00155108 0.00000000
0.79141714 0.30151466 0.00071782 0.00000000
2.61869572 0.41005414 0.00103272 0.00000000
1.81586738 0.21011868 -0.00269437 0.00000000
3.56917034 0.02246910 0.00153758 0.00000000
3.18609043 1.00083199 -0.00161105 0.00000000
1.99336496 0.39908312 0.00031687 0.00000000
0.35182812 1.10829228 -0.00049613 0.00000000
4.07211488 1.29287921 -0.00327149 0.00000000
1.88895547 1.61852345 -0.00126720 0.00000000
3.60173869 0.19674002 -0.00387194 0.00000000
0.87261552 1.42397635 -0.00142938 0.00000000
0.00968708 1.11189769 -0.00147934 0.00000000
1.81394477 1.17067519 -0.00141160 0.00000000
4.13127558 0.62692018 0.00079333 0.00000000
0.36479191 0.51628833 -0.00160378 0.00000000
1.14123621 1.45976600 0.00304664 0.00000000
1.73457680 0.74358356 0.00206179 0.00000000
3.02435332 1.24551710 0.00269244 0.00000000
2.75264632 1.37453440 0.00008250 0.00000000
3.87665309 0.05976093 -0.00169979 0.00000000
2.79459122 0.16353688 0.00308677 0.00000000
1.10666668 0.96751193 0.00103169 0.00000000
3.52840133 1.49457594 -0.00429133 0.00000000
0.14625303 0.16961380 0.00621346 0.00000000
2.37074194 1.54669221 0.00404971 0.00000000
0.67714086 1.16311774 -0.00117091 0.00000000
1.26398296 1.29088593 0.00285728 0.00000000
1.58036055 0.97836150 -0.00134602 0.00000000
2.52457018 0.72620378 -0.00350751 0.00000000
4.00771491 1.01366475 0.00123645 0.00000000
3.14164570 0.50767678 -0.00019637 0.00000000
2.71749533 0.89499345 -0.00068050 0.00000000
3.05986879 0.33691619 -0.00081296 0.00000000
1.25570938 1.48779319 0.00214269 0.00000000
1.94743901 0.28504464 -0.00082945 0.00000000
1.61869440 0.14277569 -0.00088905 0.00000000
2.41503766 0.09247919 -0.00063184 0.00000000
1.74456113 0.53574116 -0.00281629 0.00000000
4.03472525 0.23265433 0.00154601 0.00000000
3.01488345 0.37188245 -0.00308317 0.00000000
4.24331772 1.45708726 0.00217392 0.00000000
3.55775213 1.63590268 -0.00047212 0.00000000
0.24006870 0.78098119 0.00333882 0.00000000
1.12376904 1.04900484 0.00439632 0.00000000
0.73601414 0.29231337 -0.00379516 0.00000000
2.73218052 1.48823934 0.00134835 0.00000000
2.97908078 1.30454183 -0.00049746 0.00000000
0.30669694 0.70177849 0.00353346 0.00000000
2.08381924 0.52610280 -0.00234151 0.00000000
2.82535322 0.15506539 -0.00210638 0.00000000
4.26317170 1.63657218 -0.00131819 0.00000000
4.12688793 1.10209519 0.00203781 0.00000000
1.29747843 1.54831107 0.00365204 0.00000000
0.46766984 1.44954575 -0.00628282 0.00000000
1.32240999 1.28666574 0.00204232 0.00000000
0.62802166 0.51774693 -0.00010797 0.00000000
2.45777246 0.53151259 0.00059999 0.00000000
1.15458577 1.57454318 0.00172345 0.00000000
1.95560710 1.22534448 0.00482688 0.00000000
3.80502883 0.45159541 -0.00230645 0.00000000
2.31524354 0.94799329 -0.00105887 0.00000000
3.98460364 0.47206217 0.00299401 0.00000000
1.15280131 0.91262958 0.00111876 0.00000000
3.88417983 0.10912685 -0.00259338 0.00000000
1.23015041 0.39619421 -0.00246252 0.00000000
1.91573239 0.24333224 0.00168835 0.00000000
3.58536359 1.06640274 -0.00492601 0.00000000
3.30209031 1.07800094 -0.00042252 0.00000000
1.87657917 1.54615001 0.00352670 0.00000000
2.01103161 1.04341879 -0.00182363 0.00000000
3.34044211 0.77933161 0.00274222 0.00000000
2.67330944 0.08124969 -0.00276788 0.00000000
0.98926831 0.60675981 -0.00122128 0.00000000
1.70205717 1.35363438 0.00231701 0.00000000
1.17455798 1.11735590 0.00253814 0.00000000
3.07408803 0.89722253 0.00294539 0.00000000
0.13280264 0.34094456 -0.00002967 0.00000000
3.76273390 0.71715736 -0.00021204 0.00000000
3.42414183 1.53622046 0.00174692 0.00000000
2.99789830 0.67018369 -0.00198697 0.00000000
3.78287784 1.00948569 -0.00068514 0.00000000
2.08847934 1.38657333 0.00118176 0.00000000
1.36161064 0.68611302 -0.00234476 0.00000000
1.69152537 1.43210411 -0.00202955 0.00000000
3.10529119 1.17623961 -0.00369528 0.00000000
0.89745924 1.63241616 -0.00222985 0.00000000
0.76646068 1.07257356 -0.00111369 0.00000000
1.02757394 0.09581092 -0.00287628 0.00000000
1.42622452 0.18766437 0.00263719 0.00000000
3.91914809 1.61977243 -0.00150504 0.00000000
2.17203985 1.38384209 0.00545649 0.00000000
1.14236817 1.25995797 -0.00246669 0.00000000
3.39794202 0.15933868 0.00084904 0.00000000
2.79684858 0.06536478 0.00279464 0.00000000
2.78530167 0.23956430 0.00095308 0.00000000
3.99136947 1.47335031 -0.00038582 0.00000000
2.26236036 0.89861922 0.00050706 0.00000000
3.49777796 0.56893559 -0.00258224 0.00000000
3.26343909 1.62800814 -0.00012253 0.00000000
0.42357012 1.48330795 -0.00316125 0.00000000
3.57653068 0.81434368 -0.00048873 0.00000000
1.53140787 0.14312962 -0.00002358 0.00000000
1.72451016 0.20576218 0.00065805 0.00000000
3.26973289 0.79184556 -0.00104091 0.00000000
0.90710957 1.28182481 -0.00032960 0.00000000
1.56659700 1.51043040 -0.00209699 0.00000000
0.63070501 1.16600295 -0.00080299 0.00000000
0.24622837 0.49597428 0.00328733 0.00000000
0.34797404 0.03060072 -0.00086110 0.00000000
2.62046404 0.95080232 0.00164334 0.00000000
0.29659774 1.08125559 -0.00117509 0.00000000
2.02165066 1.01365062 -0.00076207 0.00000000
0.89736972 0.16312922 0.00044594 0.00000000
1.57444242 1.60091467 -0.00185806 0.00000000
2.15497406 1.00792947 -0.00046721 0.00000000
3.58692565 1.61077472 0.00082564 0.00000000
1.91595686 0.37422994 0.00495390 0.00000000
2.60664571 1.38794535 -0.00198359 0.00000000
1.91464106 0.62123169 0.00265449 0.00000000
2.03842139 0.57341870 -0.00081409 0.00000000
3.09485526 1.61061763 -0.00090821 0.00000000
2.38997656 0.21608152 -0.00202494 0.00000000
1.39527021 0.93627634 0.00093303 0.00000000
3.34189512 1.43483184 -0.00142616 0.00000000
3.19509368 0.62319771 0.00133698 0.00000000
1.11799990 0.50642755 0.00336245 0.00000000
2.44668911 0.08315111 0.00145236 0.00000000
0.36810863 1.30023291 0.00113701 0.00000000
1.13931102 1.43501473 -0.00357181 0.00000000
4.16154353 0.90324461 -0.00077353 0.00000000
4.29470012 1.00304105 0.00435117 0.00000000
1.03698628 0.10994249 -0.00188834 0.00000000
0.52735485 0.28417316 -0.00045966 0.00000000
3.96218786 1.37783890 0.00141398 0.00000000
1.87629762 0.44920567 -0.00252815 0.00000000
2.52070838 0.04577723 0.00007431 0.00000000
0.23258504 0.70412346 -0.00317025 0.00000000
1.45492243 1.34079694 -0.00220874 0.00000000
2.39947262 1.48767537 0.00213128 0.00000000
0.02068633 1.44684419 0.00201923 0.00000000
1.25181475 1.15106900 0.00146365 0.00000000
1.88765813 1.23937001 -0.00312674 0.00000000
2.86277955 0.67415541 -0.00024716 0.00000000
1.65412305 0.58419101 0.00063764 0.00000000
1.52326337 0.55144818 -0.00662034 0.00000000
0.44946730 1.32129987 -0.00051771 0.00000000
4.22485815 0.92405554 0.00087397 0.00000000
3.85799536 0.84003391 -0.00458618 0.00000000
0.58692467 0.89779600 0.00164098 0.00000000
0.24500843 0.10434326 -0.00173816 0.00000000
2.87338824 1.46302780 0.00424480 0.00000000
1.51797039 1.43756220 -0.00111958 0.00000000
3.15630048 1.51929909 0.00118402 0.00000000
3.50724411 1.14670956 -0.00093759 0.00000000
2.58387023 0.60413731 0.00082644 0.00000000
3.34041443 1.34550473 0.00265792 0.00000000
0.57101531 1.15993195 0.00448985 0.00000000
0.67168213 0.14326135 -0.00415755 0.00000000
3.46513280 0.79830274 -0.00050175 0.00000000
0.78386774 0.14484931 0.00520555 0.00000000
1.55445019 0.34844820 -0.00103499 0.00000000
1.70347100 0.27385163 0.00020962 0.00000000
2.14544645 0.86186687 0.00043226 0.00000000
0.33771448 0.19372917 0.00188133 0.00000000
4.02753420 0.16919460 -0.00075320 0.00000000
0.11903668 1.06493433 0.00097881 0.00000000
1.24420698 1.52264575 0.00231718 0.00000000
2.22429816 0.67493488 -0.00532208 0.00000000
1.49784737 0.02992607 0.00028139 0.00000000
1.06698621 0.27624667 -0.00393527 0.00000000
3.81375777 1.62192036 -0.00135361 0.00000000
2.34669233 0.00819230 0.00146036 0.00000000
1.20361564 1.55185672 0.00236976 0.00000000
3.88810855 0.97971327 0.00067234 0.00000000
2.02196588 0.95001798 0.00262098 0.00000000
3.46472110 1.18985960 -0.00212387 0.00000000
0.94974003 0.77622677 0.00152558 0.00000000
1.50362996 1.30422084 0.00492909 0.00000000
1.98125988 1.42174186 -0.00384422 0.00000000
1.06614751 0.23907008 0.00238450 0.00000000
0.66422608 1.59584526 -0.00345206 0.00000000
4.25143135 0.29585376 0.00125089 0.00000000
4.22193102 0.07215605 -0.00229343 0.00000000
3.18482919 0.73272612 -0.00109420 0.00000000
0.65511510 1.56932460 0.00273309 0.00000000
1.74741469 0.08132138 -0.00082375 0.00000000
0.83696592 0.61394582 -0.00136016 0.00000000
1.72252734 0.96307191 -0.00042521 0.00000000
0.53171090 0.33398757 0.00063146 0.00000000
2.78892990 1.51479430 -0.00047152 0.00000000
0.21757247 0.20806031 -0.00063782 0.00000000
4.09210883 0.60900997 0.00184982 0.00000000
3.09887633 0.78031729 0.00018729 0.00000000
3.80160760 0.31472927 0.00413250 0.00000000
0.04779643 0.33329295 0.00070202 0.00000000
2.09276591 0.18467691 -0.00490521 0.00000000
2.03870265 1.29724420 -0.00339607 0.00000000
1.04527620 0.41647124 -0.00016539 0.00000000
0.36971013 0.29031470 -0.00264215 0.00000000
3.34410194 1.49375421 0.00217989 0.00000000
4.08568990 0.32889710 0.00262187 0.00000000
4.21231442 0.20583739 0.00141608 0.00000000
2.16607490 1.48139984 -0.00014611 0.00000000
1.21185712 1.57793369 0.00066441 0.00000000
0.42518494 1.62199993 -0.00474969 0.00000000
0.92389002 0.48702664 0.00230524 0.00000000
2.37966586 0.37050260 0.00007039 0.00000000
0.07872176 1.59224888 -0.00073367 0.00000000
0.66419550 1.54667605 0.00103111 0.00000000
3.58721789 0.54918624 -0.00413382 0.00000000
2.12132992 0.28351285 0.00477938 0.00000000
1.84800907 0.91216255 -0.00430242 0.00000000
2.10491081 1.56849952 -0.00066661 0.00000000
1.49259947 0.63564165 -0.00014425 0.00000000
2.78414939 1.20016531 -0.00353696 0.00000000
2.48674563 0.81866124 -0.00379196 0.00000000
0.08439866 1.41124039 0.00156103 0.00000000
3.71396546 1.33029883 -0.00138682 0.00000000
2.17972662 0.18518426 -0.00222050 0.00000000
0.78898843 0.94706441 -0.00174412 0.00000000
3.51439135 1.63871906 -0.00009388 0.00000000
0.58927653 1.45460285 -0.00022842 0.00000000
0.88977483 1.25992238 -0.00469358 0.00000000
3.09379284 0.50601423 0.00047299 0.00000000
4.28313102 1.53251735 -0.00271150 0.00000000
3.83507453 0.15213070 -0.00023977 0.00000000
0.67816831 0.14536314 -0.00222441 0.00000000
1.26851420 0.71017194 0.00211645 0.00000000
3.09752037 0.07307496 -0.00119577 0.00000000
1.98435481 0.90484964 0.00146942 0.00000000
0.63150603 0.48261160 0.00029218 0.00000000
2.72686440 0.87541640 0.00055414 0.00000000
1.25013045 0.24192187 0.00026115 0.00000000
1.45099857 0.57231877 -0.00738621 0.00000000
0.34307483 1.31682541 0.00347403 0.00000000
1.60753109 0.71648956 0.00281185 0.00000000
1.52677147 0.74378317 -0.00129065 0.00000000
2.34884550 0.14079643 -0.00208521 0.00000000
1.47263575 0.21038632 0.00181783 0.00000000
0.19453116 1.44668508 -0.00476133 0.00000000
2.05838692 0.87278165 -0.00068565 0.00000000
0.93589495 0.96690766 0.00248132 0.00000000
2.31769630 1.04161922 0.00069844 0.00000000
0.74657179 0.20597505 -0.00096805 0.00000000
0.93572861 0.40090693 0.00001952 0.00000000
1.30607688 1.61677152 0.00080175 0.00000000
0.78694763 0.56441599 -0.00052297 0.00000000
2.14517355 0.86004298 -0.00145255 0.00000000
0.80962421 0.63555159 0.00171684 0.00000000
0.38904629 0.93700923 0.00050955 0.00000000
2.86087939 1.35623697 -0.00176733 0.00000000
2.90969943 0.27763480 0.00003503 0.00000000
0.42587359 0.67374185 0.00021973 0.00000000
3.54163646 1.35967323 0.00064615 0.00000000
0.90879888 0.62477525 0.00189428 0.00000000
4.18550175 0.29652277 -0.00338551 0.00000000
0.26590690 1.41227676 0.00139326 0.00000000
1.34826809 0.31378764 -0.00202173 0.00000000
3.37310963 0.74218271 0.00245619 0.00000000
3.03849686 1.19482914 0.00866066 0.00000000
3.43241104 0.48695886 -0.00424540 0.00000000
3.51422621 0.92208839 -0.00295110 0.00000000
1.09564078 0.91559948 -0.00265228 0.00000000
3.70295686 0.12885044 0.00072367 0.00000000
3.99516556 1.22504957 0.00070792 0.00000000
1.33336772 1.16112069 0.00451388 0.00000000
0.60068631 1.07834150 -0.00004163 0.00000000
1.52393478 0.07666117 -0.00095142 0.00000000
2.85826201 1.54151885 -0.00051138 0.00000000
0.40325523 0.85909621 0.00022214 0.00000000
1.96656299 1.11986393 0.00093454 0.00000000
0.98482123 1.06166480 0.00082055 0.00000000
0.83690833 1.35966804 0.00386981 0.00000000
0.18278482 1.39636698 0.00235025 0.00000000
0.52337989 0.32808344 0.00320008 0.00000000
2.58933747 0.99570908 0.00082356 0.00000000
3.11229472 0.67011408 0.00033965 0.00000000
0.71898089 1.62645659 -0.00162091 0.00000000
1.55561127 1.32744284 0.00144656 0.00000000
1.57140495 1.59341373 -0.00306302 0.00000000
2.94269916 0.93756024 -0.00172027 0.00000000
3.99606349 1.17373114 -0.00145567 0.00000000
3.75194858 0.86222423 0.00240438 0.00000000
1.99109295 0.10053812 -0.00144931 0.00000000
2.33551060 0.33027069 0.00131745 0.00000000
3.42693779 1.39258610 -0.00281446 0.00000000
0.47200100 1.60163568 -0.00142970 0.00000000
0.84648153 1.51636752 0.00134233 0.00000000
1.53805902 0.54431934 -0.00193872 0.00000000
0.62997391 1.20800608 -0.00470891 0.00000000
0.90267609 0.53910887 -0.00485729 0.00000000
1.20573990 1.38632566 -0.00100603 0.00000000
1.37113840 1.22973857 0.00014084 0.00000000
3.88616924 1.20572263 -0.00059985 0.00000000
1.60236640 1.16777830 -0.00345190 0.00000000
2.61904377 0.73337866 0.00089875 0.00000000
3.28194864 1.50940732 0.00401654 0.00000000
3.68833691 1.42819164 -0.00212498 0.00000000
2.71640857 0.99212390 0.00116899 0.00000000
1.92205865 0.08210288 -0.00441338 0.00000000
3.11020864 0.43965417 -0.00052524 0.00000000
2.62901855 0.92752460 0.00394228 0.00000000
1.18251984 1.12043702 -0.00090503 0.00000000
1.46980921 0.35607206 -0.00248657 0.00000000
0.69755160 0.11736917 -0.00084381 0.00000000
3.62411433 0.28184439 -0.00087395 0.00000000
2.74315796 0.55334319 -0.00439496 0.00000000
3.03656517 0.60660608 0.00073734 0.00000000
3.66858581 1.21382530 0.00150316 0.00000000
3.38104267 0.88996467 -0.00148413 0.00000000
0.66307320 0.05676540 0.00069121 0.00000000
2.74783575 0.17432670 0.00485365 0.00000000
3.09256862 1.56793490 -0.00219432 0.00000000
2.62106972 0.50648707 0.00471992 0.00000000
3.78162827 0.68330094 0.00125006 0.00000000
0.61084908 1.00696112 -0.00229233 0.00000000
1.44342686 0.85185474 -0.00350930 0.00000000
1.84541628 1.15251452 -0.00101971 0.00000000
1.89974236 1.50298323 -0.00015519 0.00000000
2.68864651 0.17735475 -0.00067593 0.00000000
1.90308305 0.43012081 -0.00004695 0.00000000
3.71924665 0.96318706 -0.00008367 0.00000000
2.09213816 0.78223053 -0.00238514 0.00000000
2.19900246 0.18397918 -0.00177874 0.00000000
0.77721411 0.58426112 -0.00342444 0.00000000
0.82691871 0.51583100 0.00279233 0.00000000
4.18287857 1.50283723 0.00140138 0.00000000
3.07215326 1.47962380 0.00437159 0.00000000
1.46146585 1.26164463 0.00064432 0.00000000
0.67632600 1.54285696 0.00112415 0.00000000
0.16081262 0.07171545 0.00131516 0.00000000
1.90696027 0.45773398 0.00281200 0.00000000
3.31409012 0.63859562 0.00232104 0.00000000
3.75738449 1.61135964 -0.00237713 0.00000000
3.04196591 0.56501657 -0.00012201 0.00000000
0.51092409 0.77420714 0.00369663 0.00000000
3.68294500 0.30577062 0.00329816 0.00000000
0.28150041 1.14976750 -0.00403691 0.00000000
1.58988944 0.84702203 -0.00061024 0.00000000
0.69095842 0.45870215 0.00178083 0.00000000
1.15318418 1.02355181 0.00301909 0.00000000
3.92126190 0.24248039 -0.00090166 0.00000000
0.08662550 1.58426708 0.00017752 0.00000000
1.81688149 0.47042319 0.00263486 0.00000000
0.50134220 0.44560478 -0.00012909 0.00000000
3.17244393 0.22426861 0.00223082 0.00000000
3.18762025 0.95795521 -0.00154561 0.00000000
0.44096916 0.49944383 0.00354968 0.00000000
4.21905264 1.02738686 -0.00041495 0.00000000
1.61499506 1.35113867 0.00046292 0.00000000
2.53787656 0.26815723 0.00425702 0.00000000
0.60557087 0.35711597 -0.00505807 0.00000000
0.04041915 0.68034943 0.00336222 0.00000000
1.98897422 0.45614629 -0.00018763 0.00000000
1.43084494 0.45850014 -0.00130184 0.00000000
0.41742660 0.73756683 -0.00027649 0.00000000
0.50693948 1.13473956 0.00085399 0.00000000
2.83415791 0.13243699 0.00044549 0.00000000
3.41851495 0.29176013 -0.00236194 0.00000000
1.58145786 0.89554045 -0.00144969 0.00000000
0.22434275 0.58823049 0.00037292 0.00000000
2.17805355 0.46333653 -0.00081378 0.00000000
0.22540300 0.79802390 -0.00141808 0.00000000
3.87189248 1.15110246 0.00020165 0.00000000
2.62426931 1.32165922 0.00103874 0.00000000
3.61950157 1.48904105 0.00493110 0.00000000
0.62157520 1.15102564 0.00190548 0.00000000
2.16390639 1.40698926 -0.00012053 0.00000000
2.36631981 0.21555146 -0.00563424 0.00000000
0.95317985 1.26828090 0.00103237 0.00000000
4.18395477 0.56143241 0.00473425 0.00000000
0.23495581 0.74354113 0.00071167 0.00000000
2.45644616 0.97610018 -0.00290860 0.00000000
4.01763999 1.23854142 0.00173385 0.00000000
1.48358586 0.89786376 0.00165470 0.00000000
3.69197543 1.47652253 -0.00341631 0.00000000
0.25898386 0.16657759 -0.00046758 0.00000000
0.06636966 1.58818009 0.00287648 0.00000000
0.80970145 0.20640252 0.00229923 0.00000000
4.27307058 0.83358091 0.00465642 0.00000000
3.29517092 0.83093174 -0.00368600 0.00000000
1.73328013 1.16666393 0.00167012 0.00000000
4.08028561 0.04395166 -0.00384121 0.00000000
1.32729002 0.93536980 -0.00267560 0.00000000
0.46905452 0.83501615 -0.00078485 0.00000000
2.65411108 0.07630135 0.00161459 0.00000000
3.26675845 1.48636246 0.00416581 0.00000000
0.48450918 1.10285396 -0.00374726 0.00000000
3.46763898 1.56565394 -0.00370774 0.00000000
4.21314216 0.16859049 -0.00004407 0.00000000
1.14882611 0.61769878 -0.00282208 0.00000000
0.48006943 0.57828899 -0.00147632 0.00000000
4.15249699 0.58750595 -0.00100969 0.00000000
1.35937286 1.27816345 0.00025952 0.00000000
3.48198015 0.18319489 0.00218128 0.00000000
2.63413909 0.05841253 0.00130364 0.00000000
2.25471322 0.45828208 -0.00018044 0.00000000
0.45762121 0.68531283 0.00205419 0.00000000
2.89741201 0.61522725 0.00198187 0.00000000
0.09011504 0.95818675 0.00230988 0.00000000
1.92925454 1.36173065 0.00437115 0.00000000
0.86418168 0.23608716 -0.00321489 0.00000000
4.04696428 0.79908782 0.00352496 0.00000000
3.38362318 1.50987808 0.00096507 0.00000000
0.86248558 0.80700199 0.00030520 0.00000000
0.90920939 0.50609911 0.00214404 0.00000000
4.23615107 0.76347896 -0.00400152 0.00000000
1.35830993 1.35803445 0.00135753 0.00000000
0.42666580 0.75430389 0.00149600 0.00000000
0.36444205 0.55493050 -0.00156684 0.00000000
1.61527829 1.62550063 0.00087793 0.00000000
4.13048244 0.36954317 -0.00478537 0.00000000
2.55866843 0.43733830 -0.00190884 0.00000000
0.30140830 0.68003514 -0.00567518 0.00000000
2.32132974 0.48442590 0.00202266 0.00000000
0.29712713 0.40485280 0.00570931 0.00000000
3.49472573 0.06734751 0.00194852 0.00000000
3.75481583 0.89193449 0.00386682 0.00000000
3.54786143 0.98271282 -0.00297067 0.00000000
3.66284504 0.96097535 -0.00080500 0.00000000
3.65725519 0.76836594 -0.00165556 0.00000000
3.73252943 1.41522190 -0.00158913 0.00000000
0.61417554 0.98442590 -0.00537984 0.00000000
4.20670866 1.17789769 0.00087124 0.00000000
2.89586090 0.40340900 -0.00032925 0.00000000
3.32523580 1.52268264 -0.00053488 0.00000000
4.20640461 1.54600742 0.00109239 0.00000000
3.64241540 1.52906611 -0.00034204 0.00000000
1.09185978 1.35213227 0.00051890 0.00000000
2.19899811 0.27067295 -0.00477888 0.00000000
1.12305536 1.12582199 -0.00372667 0.00000000
1.52715172 0.43199582 0.00172681 0.00000000
1.70788395 0.74022484 0.00134710 0.00000000
4.09979566 0.10887125 0.00151179 0.00000000
0.99941635 0.55676079 -0.00228868 0.00000000
4.01365824 0.56474332 0.00420324 0.00000000
0.95758210 0.25732369 -0.00215843 0.00000000
1.79205862 0.41997062 0.00573903 0.00000000
1.86987539 0.72296379 -0.00450134 0.00000000
1.69764938 1.05122687 -0.00211325 0.00000000
0.87736102 1.39419638 0.00229381 0.00000000
1.47378765 0.42005107 -0.00093319 0.00000000
4.19130232 0.78533319 0.00181221 0.00000000
1.12069726 0.52200740 -0.00065107 0.00000000
0.99767311 1.41755994 0.00096481 0.00000000
3.81446444 1.22572386 -0.00172965 0.00000000
3.35792025 0.64259874 0.00184538 0.00000000
4.24657653 0.67838920 -0.00252025 0.00000000
0.31980497 0.26468103 0.00036081 0.00000000
2.37600403 0.14954309 0.00115114 0.00000000
3.68047899 0.92261420 -0.00233616 0.00000000
1.94061886 0.72844847 0.00101735 0.00000000
2.54070136 0.75351757 -0.00110643 0.00000000
0.11586233 0.51075776 0.00372589 0.00000000
2.93185076 1.34698814 -0.00281780 0.00000000
3.24415704 0.78430905 -0.00009431 0.00000000
2.90409473 0.92610839 0.00022353 0.00000000
2.57337977 1.03304610 0.00449859 0.00000000
3.54866555 0.84454770 -0.00193354 0.00000000
3.09768455 0.34582848 -0.00220845 0.00000000
0.75662370 0.14209224 0.00118858 0.00000000
1.53396050 0.83201335 0.00006793 0.00000000
1.12643160 1.23876240 -0.00436174 0.00000000
1.07913008 0.51772271 0.00384420 0.00000000
2.32366411 0.71752944 -0.00000405 0.00000000
3.81280377 0.83974548 0.00338882 0.00000000
0.04424309 0.53762914 0.00259519 0.00000000
3.80189359 1.57851345 0.00325972 0.00000000
3.38862184 1.33833806 0.00308786 0.00000000
0.91641310 0.19096745 -0.00001594 0.00000000
2.83886955 0.88666569 0.00100142 0.00000000
3.25595315 1.48812090 0.00457724 0.00000000
0.58981130 0.39232063 0.00307334 0.00000000
4.08886562 0.63837980 0.00111342 0.00000000
1.22815590 0.40184872 -0.00123513 0.00000000
0.22757439 0.63679477 0.00003490 0.00000000
1.34944878 0.61522600 -0.00190618 0.00000000
4.26436404 0.86010541 -0.00402695 0.00000000
1.09085499 0.96403006 0.00047619 0.00000000
1.47818042 1.11737604 -0.00469573 0.00000000
0.40361275 0.33847634 -0.00126054 0.00000000
1.30104177 0.05132709 -0.00172802 0.00000000
4.27509384 1.12066284 -0.00190775 0.00000000
2.57946643 1.52111167 0.00103819 0.00000000
0.19397811 0.62867647 0.00002016 0.00000000
0.74690139 1.11097891 -0.00008261 0.00000000
3.33400738 0.56729761 0.00036731 0.00000000
3.53384563 0.56665481 0.00311203 0.00000000
0.85340732 1.48969608 0.00177054 0.00000000
2.04254935 0.56359343 -0.00395992 0.00000000
3.95844561 1.19535036 0.00407021 0.00000000
3.45172633 1.19607660 -0.00066785 0.00000000
0.05022641 1.04967987 0.00330714 0.00000000
3.64120563 1.38000849 -0.00204263 0.00000000
2.96835919 0.22089909 0.00309694 0.00000000
3.31033193 1.38346288 0.00218512 0.00000000
0.22577880 0.95933938 -0.00130188 0.00000000
2.27908655 0.50885550 -0.00116605 0.00000000
2.93864926 1.02593029 0.00073540 0.00000000
3.60688034 0.26183150 -0.00234218 0.00000000
2.12128576 1.33317601 -0.00082229 0.00000000
2.32035839 0.31354745 -0.00233742 0.00000000
0.41721131 0.34504017 0.00119408 0.00000000
0.87157691 0.75768563 0.00005715 0.00000000
2.95848041 0.96440573 0.00126623 0.00000000
1.15787661 0.17989057 -0.00159368 0.00000000
1.67071968 1.44578175 -0.00619567 0.00000000
1.79249576 0.79457155 0.00059899 0.00000000
1.75931372 1.35172605 -0.00182009 0.00000000
3.30075375 1.18104784 -0.00276339 0.00000000
2.72662331 1.60893232 -0.00337638 0.00000000
1.30334862 0.60412421 0.00209593 0.00000000
3.19218536 0.51871271 -0.00322230 0.00000000
4.09132891 0.48993821 0.00215807 0.00000000
3.47222336 0.83172780 -0.00287303 0.00000000
1.08356430 0.64283441 0.00055108 0.00000000
2.07733818 0.08429722 0.00074388 0.00000000
3.85560845 0.96706213 -0.00017874 0.00000000
3.38532842 0.91529093 0.00171362 0.00000000
1.83125528 1.43023489 0.00126497 0.00000000
1.75817562 1.12683210 0.00070038 0.00000000
0.07486538 1.39448871 -0.00037853 0.00000000
3.63956268 1.25005865 -0.00280776 0.00000000
1.05273717 0.17308043 -0.00245518 0.00000000
4.29185725 0.95876152 -0.00168816 0.00000000
3.89724456 0.49810623 -0.00115819 0.00000000
0.47792389 1.56735640 -0.00175307 0.00000000
1.71373534 0.94863469 0.00083617 0.00000000
2.08314808 0.78246580 0.00086209 0.00000000
3.25952748 0.96995619 -0.00364050 0.00000000
2.91430099 1.35265558 -0.00088917 0.00000000
3.88648725 0.85902629 -0.00319276 0.00000000
1.25565571 1.18886344 0.00283463 0.00000000
2.20754782 0.67880689 0.00315600 0.00000000
2.30780408 1.40238136 -0.00004582 0.00000000
1.65820562 0.50738934 -0.00204840 0.00000000
0.40522030 0.62320709 0.00193062 0.00000000
1.90420405 1.29755649 0.00210628 0.00000000
2.53341340 1.15456850 0.00381222 0.00000000
3.52725930 0.50476562 -0.00116569 0.00000000
4.05607247 1.50838204 -0.00495463 0.00000000
1.53962569 0.09927544 -0.00283695 0.00000000
1.49820942 0.74050912 0.00150059 0.00000000
3.90542015 0.74914275 -0.00251643 0.00000000
1.61052471 1.62019506 -0.00233969 0.00000000
2.00604052 1.47968526 -0.00015413 0.00000000
2.44788075 1.14950180 0.00116030 0.00000000
1.25833526 1.64053853 -0.00295649 0.00000000
4.07203140 0.96609723 -0.00274956 0.00000000
2.86581592 0.36977230 0.00273720 0.00000000
0.15398682 0.78977013 0.00012553 0.00000000
2.99354509 0.64381783 0.00244077 0.00000000
0.50815011 0.73879157 -0.00454923 0.00000000
4.24649398 1.47427437 -0.00198525 0.00000000
1.29906945 0.44367725 -0.00050883 0.00000000
3.38976056 0.25294082 0.00340573 0.00000000
0.94282642 1.18163878 -0.00259857 0.00000000
4.08693349 0.32467035 -0.00089014 0.00000000
0.99213027 0.31791143 -0.00311048 0.00000000
2.60464908 0.65726335 0.00469060 0.00000000
0.11064752 1.25620411 0.00077890 0.00000000
4.28983650 0.92464144 -0.00561220 0.00000000
3.41242806 0.81891927 -0.00105590 0.00000000
4.11121669 1.56422055 0.00268770 0.00000000
0.40301681 0.70842559 0.00081610 0.00000000
3.65075639 1.46480302 -0.00434796 0.00000000
4.19797163 0.83155405 0.00150921 0.00000000
0.66121950 0.37823455 -0.00046438 0.00000000
0.84024536 1.03148612 0.00011164 0.00000000
4.07985936 0.91624489 0.00072010 0.00000000
3.21697046 1.27069791 0.00578146 0.00000000
0.97836986 0.54173841 0.00369678 0.00000000
3.46503175 1.39140675 0.00215369 0.00000000
3.11325486 0.77951014 -0.00181842 0.00000000
3.95911834 0.16346717 -0.00310958 0.00000000
2.28216634 1.11048076 0.00143784 0.00000000
2.82603315 1.36870444 -0.00226810 0.00000000
3.91028248 0.63889707 -0.00048040 0.00000000
2.44132774 0.28841412 -0.00323003 0.00000000
2.47535402 0.62528929 -0.00402774 0.00000000
0.63907702 0.72780468 -0.00226183 0.00000000
3.86581913 0.96581780 -0.00137371 0.00000000
2.69102441 1.57786952 -0.00098761 0.00000000
2.31166158 1.45133427 -0.00039492 0.00000000
3.34701550 0.03971743 0.00107866 0.00000000
1.41157341 1.35306957 0.00116854 0.00000000
0.51214403 0.21108723 0.00260247 0.00000000
0.98039637 1.44337041 0.00552217 0.00000000
4.14770112 0.58429394 0.00366225 0.00000000
2.41515748 1.31365233 -0.00177432 0.00000000
1.01223652 0.79832316 0.00357208 0.00000000
1.91778785 0.56668205 0.00180412 0.00000000
2.72854617 1.08753347 -0.00375863 0.00000000
0.00104081 0.96109292 -0.00126639 0.00000000
2.12161052 0.55415096 -0.00223245 0.00000000
1.12356459 0.74632402 -0.00089779 0.00000000
2.69188101 1.40781435 -0.00132545 0.00000000
1.86500734 0.71349689 -0.00026790 0.00000000
2.63021919 1.63969677 -0.00323288 0.00000000
3.57185785 0.92237520 0.00097121 0.00000000
3.01669225 1.28517604 0.00478546 0.00000000
0.42244711 1.17240951 0.00023139 0.00000000
3.28897659 0.34099686 0.00101627 0.00000000
1.65299498 1.61518132 0.00248592 0.00000000
1.81841616 1.01272573 -0.00233193 0.00000000
3.75267657 1.04129655 -0.00190088 0.00000000
2.75012970 0.62497744 -0.00199529 0.00000000
2.27457498 1.38528583 -0.00010714 0.00000000
2.78372531 1.40656980 0.00295997 0.00000000
0.42244142 0.56579281 0.00006686 0.00000000
3.27007690 1.58643333 -0.00100167 0.00000000
3.39596842 0.72961643 0.00125593 0.00000000
2.47697412 0.56828182 0.00159874 0.00000000
2.19183160 0.51955863 0.00075058 0.00000000
3.50260747 0.99478625 0.00425848 0.00000000
2.85321123 0.56561060 -0.00044785 0.00000000
3.22362502 1.49298024 0.00158335 0.00000000
0.96409581 1.25407405 -0.00338302 0.00000000
1.20400358 0.71952221 -0.00148367 0.00000000
1.35007004 0.77656805 -0.00111600 0.00000000
1.29120285 0.83896645 -0.00206898 0.00000000
1.00941931 0.49240272 0.00149638 0.00000000
0.22701707 0.26078774 -0.00048475 0.00000000
2.80167442 1.21314446 0.00321253 0.00000000
1.60714295 1.40371572 0.00254677 0.00000000
3.52899534 0.31259772 0.00293422 0.00000000
1.27569479 0.18813978 0.00133292 0.00000000
1.82869213 0.20874307 0.00040337 0.00000000
2.66025658 0.44038697 -0.00697940 0.00000000
3.15268415 1.13214628 0.00336722 0.00000000
0.68779859 1.46565437 0.00265853 0.00000000
1.29856446 0.40457677 -0.00174579 0.00000000
3.54959199 0.23295734 0.00174929 0.00000000
0.33959903 0.48333691 -0.00066081 0.00000000
1.32016223 0.86266735 -0.00501811 0.00000000
3.61574530 0.90259929 0.00058306 0.00000000
0.57733310 0.61798518 0.00093258 0.00000000
1.15634663 0.83100472 -0.00464809 0.00000000
2.71746196 1.49629343 0.00327129 0.00000000
2.22532203 0.17659467 0.00273285 0.00000000
1.89797820 0.37587509 0.00218991 0.00000000
4.08004803 0.89126270 -0.00001190 0.00000000
3.47646629 0.26839439 0.00275547 0.00000000
0.77229832 0.25826808 0.00201317 0.00000000
0.38356498 1.54868435 -0.00514819 0.00000000
1.08554491 0.58981206 -0.00130113 0.00000000
0.76470579 1.32955462 0.00266016 0.00000000
0.10099028 0.64366087 0.00181874 0.00000000
2.87320167 0.64280180 -0.00252924 0.00000000
3.17301845 1.31420239 -0.00361800 0.00000000
3.98386807 1.21855158 -0.00253837 0.00000000
2.14445209 0.16782738 0.00151212 0.00000000
3.92487696 0.42994568 0.00106116 0.00000000
0.82397699 0.55224063 0.00169451 0.00000000
0.08585581 1.45217396 -0.00420205 0.00000000
3.25490753 1.21419082 -0.00115143 0.00000000
2.28607861 0.25729616 -0.00390903 0.00000000
1.79013004 1.59716985 0.00216915 0.00000000
0.44011215 0.65068403 -0.00234885 0.00000000
2.49218715 1.31575331 -0.00347848 0.00000000
3.83161030 0.14405611 -0.00475167 0.00000000
3.85174552 1.24986715 -0.00411921 0.00000000
1.36098901 1.02333751 -0.00585991 0.00000000
1.99622209 0.21557594 0.00271549 0.00000000
3.39468749 0.80416368 0.00309199 0.00000000
0.31305441 1.63843126 0.00352864 0.00000000
1.21199513 1.30947237 -0.00100269 0.00000000
3.59815389 0.43628924 0.00122658 0.00000000
3.24062468 0.50617032 -0.00246092 0.00000000
0.28302894 1.46440540 -0.00112003 0.00000000
1.90718875 0.16912161 -0.00270963 0.00000000
3.22936279 0.47729422 -0.00082331 0.00000000
2.80858011 0.01078144 0.00300835 0.00000000
2.43913063 1.45619527 0.00016188 0.00000000
3.46284456 0.18460632 -0.00045489 0.00000000
0.12623899 0.55754942 -0.00121541 0.00000000
3.02037750 1.38720261 -0.00190010 0.00000000
3.34560104 0.73325106 -0.00111656 0.00000000
1.68752566 0.96950313 -0.00070811 0.00000000
3.33952615 1.34170872 -0.00045379 0.00000000
0.04673789 1.42574516 0.00329917 0.00000000
1.17459413 0.83159770 -0.00243700 0.00000000
3.47696802 1.05025130 -0.00231174 0.00000000
0.78379919 1.29562625 0.00272933 0.00000000
1.47955498 0.81859580 0.00052552 0.00000000
4.16638231 0.72082641 0.00029186 0.00000000
0.80057228 1.24044116 -0.00221688 0.00000000
2.97687800 0.82307224 -0.00145724 0.00000000
3.05575168 0.39167073 -0.00165765 0.00000000
2.21305572 1.52029229 -0.00068977 0.00000000
0.73500631 0.22380025 0.00139242 0.00000000
3.48713526 1.10533968 0.00086426 0.00000000
2.83168162 0.38167062 -0.00278340 0.00000000
0.73772397 1.06933124 0.00328522 0.00000000
1.02597242 0.94167341 0.00101401 0.00000000
0.12519157 0.66607278 0.00097032 0.00000000
0.17615803 1.07903412 0.00085311 0.00000000
0.08625234 0.82644717 -0.00132801 0.00000000
1.22229364 1.28606749 -0.00330403 0.00000000
3.70055728 0.71559196 -0.00266880 0.00000000
0.31331794 1.52907332 0.00388825 0.00000000
3.81515821 0.95452092 0.00211387 0.00000000
4.17399808 0.20021047 0.00073624 0.00000000
1.23367534 1.60019428 -0.00289778 0.00000000
1.04560159 1.28568191 0.00158497 0.00000000
2.77136348 1.43265696 -0.00083741 0.00000000
2.74626849 0.30829943 0.00152752 0.00000000
3.47043952 1.14674724 -0.00306036 0.00000000
3.04304658 0.96546041 -0.00436175 0.00000000
1.96228861 0.45479375 0.00112011 0.00000000
4.20353975 0.53409814 -0.00063434 0.00000000
0.51882431 0.93860726 -0.00014224 0.00000000
0.83897239 1.58363330 -0.00665464 0.00000000
0.73860913 1.24401624 0.00339624 0.00000000
0.74211358 0.22295935 0.00352720 0.00000000
2.22062044 0.24412259 -0.00319693 0.00000000
3.99116537 0.12508337 0.00414808 0.00000000
0.47919344 1.00250934 0.00246007 0.00000000
3.75249369 0.46533935 -0.00066426 0.00000000
1.38187344 0.97504611 0.00105973 0.00000000
3.92267069 0.34524810 -0.00305356 0.00000000
2.50857780 0.67312820 -0.00220555 0.00000000
0.45064405 0.50002283 0.00271136 0.00000000
4.26914364 0.20727155 0.00257228 0.00000000
1.42783930 1.41768830 -0.00191030 0.00000000
2.85574161 0.69030007 0.00521516 0.00000000
1.35677910 1.03688561 -0.00512302 0.00000000
3.95621758 1.00481885 -0.00181509 0.00000000
2.30084716 0.52396372 -0.00251961 0.00000000
3.51691915 0.13953578 -0.00350587 0.00000000
2.75062998 0.26697900 -0.00085352 0.00000000
3.37726392 0.74803029 -0.00090746 0.00000000
1.17666660 0.29542229 0.00102789 0.00000000
3.87677736 0.58984858 0.00666837 0.00000000
3.27774275 1.29345045 0.00030629 0.00000000
1.74552888 1.51499473 -0.00205848 0.00000000
2.22476378 1.44836562 0.00067449 0.00000000
3.28268328 1.19758489 -0.00283294 0.00000000
4.24726151 0.08958786 0.00386345 0.00000000
2.15832754 1.19255980 0.00080480 0.00000000
3.82423862 0.81022234 0.00196170 0.00000000
2.93681862 0.27893053 -0.00214688 0.00000000
0.67856359 0.48743380 0.00118168 0.00000000
1.70021041 0.12054315 -0.00429245 0.00000000
2.52307993 1.50036700 -0.00178109 0.00000000
3.60699521 0.24828460 -0.00076435 0.00000000
3.00252924 0.06249139 0.00207611 0.00000000
3.65075660 1.11600802 0.00135145 0.00000000
3.51871973 0.85177207 0.00213918 0.00000000
3.51273538 1.13141513 0.00045879 0.00000000
1.35286381 1.39956895 0.00067452 0.00000000
1.67569651 1.43245182 -0.00085389 0.00000000
1.00353370 0.67691688 -0.00045124 0.00000000
1.40668582 1.17106419 -0.00213344 0.00000000
1.82930814 0.63138268 -0.00144032 0.00000000
3.32182346 0.30462965 0.00156074 0.00000000
3.63879442 0.29667955 -0.00566309 0.00000000
1.20143882 0.84906046 0.00052595 0.00000000
0.73929733 0.96890457 0.00180679 0.00000000
1.77765154 0.30262346 -0.00366016 0.00000000
3.06988764 0.39256622 0.00197776 0.00000000
0.26688825 0.31556638 -0.00002649 0.00000000
0.97621317 0.13911164 0.00149835 0.00000000
2.44224243 1.22872673 0.00051108 0.00000000
2.18325218 0.54458736 -0.00133138 0.00000000
2.38462975 0.78961038 -0.00116316 0.00000000
3.91488619 0.99334837 0.00246276 0.00000000
3.88452395 1.12236779 -0.00121605 0.00000000
3.06353667 0.97191512 0.00364105 0.00000000
1.64236749 1.27569627 -0.00261257 0.00000000
2.83462926 0.57128703 0.00368919 0.00000000
1.54239227 0.96688228 0.00100214 0.00000000
2.79882265 0.99146168 0.00033736 0.00000000
1.42555655 0.39350595 0.00458563 0.00000000
1.40253245 1.25086591 -0.00115818 0.00000000
0.89621681 0.27075781 -0.00003303 0.00000000
0.21367303 0.22430983 -0.00225503 0.00000000
4.13493150 -0.00268555 0.00389029 1.00000000
2.67542415 -0.00051057 -0.00183480 1.00000000
