0.471485 0.300595 0.003265 0.0
2.002652 0.532422 0.000990 0.0
1.624072 1.512579 -0.003154 0.0
3.529537 0.899386 -0.000702 0.0
2.020014 0.944416 0.001483 0.0
3.359383 0.239665 -0.003948 0.0
1.571036 1.099344 -0.002031 0.0
3.823159 1.017315 0.000419 0.0
1.555628 0.839973 -0.000224 0.0
1.985822 1.346510 -0.001299 0.0
0.690932 0.481568 -0.001991 0.0
3.691291 0.116612 0.000234 0.0
0.800873 1.673931 0.001749 0.0
1.273844 0.083631 0.001357 0.0
1.242508 0.234974 -0.001203 0.0
4.138913 1.995647 0.002996 0.0
0.604725 1.790416 0.001744 0.0
1.655946 2.168332 -0.004474 0.0
1.269112 0.913457 0.004794 0.0
0.358148 0.989520 0.003037 0.0
0.762969 0.858939 -0.003798 0.0
3.060509 0.991488 0.001667 0.0
1.423883 0.472129 -0.003144 0.0
3.784628 0.057246 -0.002116 0.0
0.075369 1.649785 -0.002667 0.0
4.494054 0.698579 -0.000125 0.0
0.780506 0.098668 0.002842 0.0
1.055925 1.003640 0.002095 0.0
1.370308 1.830772 -0.003223 0.0
0.644525 1.976950 -0.002994 0.0
3.964966 0.762741 -0.000087 0.0
1.433615 0.139925 -0.002210 0.0
0.921617 1.614699 0.001317 0.0
4.214066 1.901616 0.001102 0.0
4.296248 0.348159 0.001871 0.0
1.761550 1.101445 -0.005285 0.0
2.449724 1.317393 -0.004101 0.0
2.715392 1.764263 -0.000094 0.0
3.865277 0.338909 -0.002500 0.0
2.140806 0.538502 0.007079 0.0
0.601193 1.132257 -0.000132 0.0
3.614998 0.531061 0.004365 0.0
2.992195 2.131292 0.006624 0.0
0.468218 1.878711 -0.004665 0.0
1.918421 1.485225 0.001901 0.0
4.445365 0.235834 -0.002321 0.0
1.078831 2.094179 -0.000931 0.0
2.537868 1.560710 0.001983 0.0
1.310050 0.537324 -0.001095 0.0
1.745937 1.723927 0.002594 0.0
0.074784 1.986930 -0.004402 0.0
2.578613 2.084230 0.002006 0.0
4.034294 0.507019 0.000268 0.0
2.554927 2.170337 0.002414 0.0
4.050741 0.452111 0.005716 0.0
1.697792 0.967117 0.001602 0.0
2.724184 0.855234 0.002166 0.0
1.448879 0.128916 -0.002571 0.0
0.268034 0.384148 0.001824 0.0
1.147242 0.265172 -0.001031 0.0
1.123174 1.233959 0.002256 0.0
2.685100 0.446710 0.000085 0.0
0.727403 2.121044 0.003384 0.0
3.805708 0.860349 -0.000104 0.0
1.811003 1.241622 -0.000299 0.0
0.103585 0.331618 0.001241 0.0
0.276338 2.172622 0.001313 0.0
3.756151 1.676208 -0.002629 0.0
3.310523 1.025448 0.002167 0.0
2.824104 2.017081 -0.002956 0.0
3.651503 0.817762 0.002963 0.0
2.335648 1.124914 0.004234 0.0
1.734577 1.414943 -0.002168 0.0
0.140595 1.104538 0.000184 0.0
3.905794 0.238802 -0.005569 0.0
3.955814 0.555074 0.000338 0.0
4.417513 0.077761 -0.000185 0.0
3.549312 1.213397 -0.000595 0.0
1.522439 1.127026 -0.001400 0.0
1.715725 0.532869 0.000972 0.0
1.040577 1.509508 -0.000352 0.0
0.210113 0.205996 0.001382 0.0
3.915532 1.056800 -0.000553 0.0
3.023518 0.110476 -0.005591 0.0
1.494786 0.835333 -0.000443 0.0
3.753123 1.072822 -0.002240 0.0
1.909234 2.088079 0.000300 0.0
3.145918 0.668197 -0.001872 0.0
4.514592 0.554777 0.000296 0.0
3.790979 1.359345 0.000710 0.0
1.854478 0.987464 0.000801 0.0
3.119826 0.224984 0.001650 0.0
4.380382 0.113306 0.004747 0.0
0.255314 1.679842 -0.000909 0.0
2.530868 0.283318 0.004444 0.0
0.328231 1.228540 -0.001640 0.0
1.526642 0.642460 -0.000609 0.0
2.445663 0.792944 -0.002737 0.0
1.326943 0.785859 0.003789 0.0
3.358873 0.741494 -0.002907 0.0
0.375563 2.041878 0.000702 0.0
1.433507 0.478892 -0.000802 0.0
2.053000 0.419833 -0.000366 0.0
0.705641 2.171527 -0.001816 0.0
0.519116 0.941992 0.003388 0.0
3.132146 1.543221 -0.000081 0.0
2.703429 0.483896 0.000001 0.0
1.677408 0.343358 -0.001520 0.0
0.638461 0.446533 0.001894 0.0
0.218484 0.683974 0.000436 0.0
2.062237 0.787869 -0.001938 0.0
1.816575 0.932448 -0.000748 0.0
3.663641 1.361272 0.001355 0.0
0.596272 1.571573 -0.001615 0.0
0.852815 1.063005 -0.000496 0.0
1.314333 1.489972 -0.001300 0.0
0.218335 1.814876 0.001511 0.0
0.346039 1.555353 0.000930 0.0
0.502193 1.709891 -0.004136 0.0
3.457229 1.620311 -0.003162 0.0
3.804520 1.211022 0.006215 0.0
1.963349 0.291606 0.000128 0.0
4.379750 1.514596 -0.002314 0.0
2.745675 2.094821 0.001441 0.0
1.546358 1.915444 0.002837 0.0
0.301140 0.284780 -0.002523 0.0
1.049007 0.780837 0.003188 0.0
0.585575 1.280733 -0.000608 0.0
2.789616 1.477084 -0.003715 0.0
4.016887 1.882566 -0.004936 0.0
0.332271 1.142200 0.002669 0.0
4.275850 0.775591 -0.001451 0.0
0.299096 0.377549 -0.002839 0.0
3.282197 1.748995 -0.000018 0.0
0.522619 2.065007 -0.000522 0.0
2.192240 2.051430 0.000070 0.0
4.115251 0.955600 -0.004070 0.0
2.973508 1.327316 -0.001348 0.0
4.373099 0.640274 0.003655 0.0
4.297742 1.627363 -0.000498 0.0
3.361727 2.014424 -0.002043 0.0
3.531011 0.154983 -0.001256 0.0
1.975100 0.055501 0.003620 0.0
4.199117 1.511353 0.000167 0.0
4.039489 1.180710 0.003298 0.0
3.860105 0.185899 -0.001952 0.0
3.471216 0.335338 0.001373 0.0
1.850185 1.187363 0.003744 0.0
1.878674 1.146010 0.000097 0.0
0.214031 0.044596 -0.003584 0.0
2.461628 1.022679 0.001743 0.0
3.648962 0.498022 -0.001090 0.0
2.049670 0.482478 -0.000525 0.0
3.334820 1.326181 -0.003690 0.0
0.288639 0.810494 0.000901 0.0
2.835422 1.511171 -0.001587 0.0
2.227813 1.978800 0.000821 0.0
0.908943 0.924192 0.004938 0.0
1.349383 1.324821 -0.002385 0.0
1.782715 0.408563 -0.001334 0.0
3.749454 1.359196 -0.000556 0.0
1.994839 1.487502 -0.003525 0.0
2.710594 1.493574 -0.002395 0.0
0.584291 0.572883 -0.003637 0.0
2.681995 1.805516 -0.001771 0.0
3.612640 0.027972 -0.000692 0.0
1.337399 0.430052 -0.001092 0.0
4.475288 0.478798 0.003009 0.0
3.646553 1.294868 -0.000870 0.0
3.437807 2.184731 -0.003316 0.0
4.032103 1.178637 -0.001100 0.0
1.821470 1.868238 -0.001564 0.0
2.719079 1.214110 0.001133 0.0
2.079102 1.856551 -0.002579 0.0
3.522284 2.020483 -0.003065 0.0
1.708571 0.660182 -0.000727 0.0
1.763263 0.244482 -0.001393 0.0
0.079718 0.892768 -0.004973 0.0
3.241758 0.018150 -0.002156 0.0
2.962014 0.947323 -0.003952 0.0
2.365015 0.462238 -0.003870 0.0
0.283597 1.112715 -0.000528 0.0
4.336078 0.818279 0.000343 0.0
3.115798 1.163895 0.001993 0.0
0.104474 1.825113 -0.002590 0.0
1.779545 1.044865 0.004036 0.0
1.720199 0.423431 -0.001964 0.0
1.360917 0.347640 -0.000416 0.0
4.297619 0.108082 -0.004328 0.0
3.918397 1.075375 -0.001132 0.0
2.776519 0.743656 0.001616 0.0
0.300834 1.820911 -0.004011 0.0
4.118281 1.091825 -0.000880 0.0
1.040344 0.692944 -0.003010 0.0
1.845049 0.470853 0.001671 0.0
0.500732 0.936210 0.001337 0.0
3.104800 0.039395 -0.001270 0.0
1.744955 2.180423 -0.003958 0.0
3.358007 0.739288 -0.005749 0.0
0.172335 2.119224 0.002976 0.0
2.939015 0.696513 -0.002048 0.0
1.665296 1.883188 0.001288 0.0
3.492911 0.856297 -0.003260 0.0
1.322780 0.526239 -0.003465 0.0
0.042132 1.950765 -0.000882 0.0
2.182563 1.263849 -0.003365 0.0
0.785330 1.497478 -0.002196 0.0
3.661943 2.015708 -0.003125 0.0
2.404257 2.017600 -0.001732 0.0
2.060159 0.872585 0.000897 0.0
0.022349 1.231320 -0.000242 0.0
4.391452 0.749130 0.000264 0.0
0.245065 1.093389 -0.001810 0.0
0.616686 1.568524 0.000345 0.0
2.441038 0.010394 -0.000124 0.0
2.934705 0.224854 0.004360 0.0
4.431452 1.131580 0.002187 0.0
4.181196 1.122025 0.003894 0.0
2.418022 1.230487 0.000268 0.0
0.295795 0.258594 0.001659 0.0
3.120246 2.066858 -0.001396 0.0
3.492346 0.892999 0.002336 0.0
1.456364 0.997701 0.003067 0.0
4.369662 0.061374 0.004147 0.0
2.167239 0.335131 -0.002570 0.0
3.018452 0.322015 0.002403 0.0
1.346653 0.583994 -0.002150 0.0
1.405516 0.347040 -0.005534 0.0
3.654556 0.493117 -0.004376 0.0
0.373550 1.408162 -0.001548 0.0
3.336848 1.532451 -0.001522 0.0
0.844300 0.634063 0.005221 0.0
0.536015 1.735809 0.001652 0.0
2.131999 0.098894 0.003930 0.0
0.661227 1.069676 0.000952 0.0
4.028576 1.314173 -0.005702 0.0
3.930099 2.116968 0.004261 0.0
0.921745 0.318995 -0.003140 0.0
3.024421 0.386796 -0.001419 0.0
4.251990 0.443246 0.001552 0.0
4.334358 1.394483 -0.001042 0.0
2.674541 0.493136 -0.002960 0.0
2.137216 1.832950 0.001256 0.0
0.531378 1.660947 0.001614 0.0
0.963646 1.912015 0.000318 0.0
3.525894 0.249637 -0.003198 0.0
3.377547 0.384156 0.000954 0.0
4.074336 0.276684 -0.002814 0.0
0.968635 0.103686 0.002862 0.0
0.750695 1.505972 -0.000957 0.0
2.618757 1.307872 -0.002065 0.0
1.398603 0.256301 -0.001852 0.0
0.812118 0.417041 0.001974 0.0
3.331256 1.586208 0.000024 0.0
2.108999 0.735741 0.002535 0.0
3.696911 0.908144 0.004241 0.0
2.447092 0.970122 0.003103 0.0
3.166020 0.014726 0.003544 0.0
1.979427 2.063946 -0.002684 0.0
3.984015 0.450307 -0.004750 0.0
1.467463 2.132604 0.001696 0.0
1.382406 0.061760 -0.000353 0.0
2.468141 1.665122 0.000030 0.0
1.811881 1.338650 0.000282 0.0
2.368716 1.489905 -0.002968 0.0
1.255558 0.827912 0.003230 0.0
0.325018 2.110332 0.002084 0.0
1.419274 1.410840 -0.003512 0.0
4.310767 1.827089 0.000130 0.0
0.738482 1.731073 -0.001345 0.0
3.423793 1.230556 -0.002326 0.0
1.920423 0.557902 -0.000344 0.0
1.554931 1.930974 0.000005 0.0
2.481710 1.755668 0.002218 0.0
1.200519 0.461786 0.001655 0.0
2.554284 1.133010 -0.001165 0.0
2.749596 0.527128 0.001940 0.0
4.312846 1.432089 -0.001487 0.0
2.663201 1.970135 0.001256 0.0
0.051067 0.987015 0.004491 0.0
1.906091 1.217313 -0.002448 0.0
2.488364 0.016721 -0.003930 0.0
1.208059 1.468405 0.001086 0.0
0.499203 1.146297 0.000558 0.0
1.062015 2.089151 -0.000715 0.0
2.887324 0.002948 -0.002641 0.0
2.719062 1.869135 -0.000727 0.0
0.598493 1.728826 -0.000117 0.0
3.502132 0.293083 -0.000109 0.0
1.000891 0.721315 0.001196 0.0
4.001576 1.846335 0.001059 0.0
4.002166 0.128759 0.002677 0.0
3.921269 1.140553 -0.002181 0.0
3.266614 0.389202 -0.001581 0.0
3.558941 0.402943 -0.001882 0.0
3.677422 1.563599 -0.000783 0.0
4.218879 0.457448 -0.002300 0.0
0.388512 1.509614 0.002426 0.0
2.191189 2.124126 0.001245 0.0
2.968807 0.825391 0.002949 0.0
2.918191 1.019180 0.000475 0.0
3.220787 1.999991 0.001097 0.0
1.059276 1.645228 -0.000024 0.0
4.284923 1.465564 0.001361 0.0
4.243975 1.541538 -0.001083 0.0
2.845200 0.760180 -0.001385 0.0
2.427182 1.771323 0.001389 0.0
2.116029 1.901426 -0.001972 0.0
1.771263 1.043506 0.000991 0.0
2.754365 0.857443 -0.000681 0.0
0.686674 0.902665 0.002313 0.0
3.552720 1.765355 -0.001160 0.0
4.504125 1.774848 -0.000047 0.0
0.543415 0.980486 -0.002671 0.0
3.717269 1.698953 -0.000392 0.0
0.290202 1.323026 -0.000502 0.0
4.335508 1.618086 0.000665 0.0
1.726881 1.161271 -0.004871 0.0
3.184831 1.098458 0.000482 0.0
1.128391 1.003334 0.003385 0.0
4.342569 1.654515 0.005799 0.0
2.665619 0.486042 -0.000987 0.0
0.015388 1.641549 -0.003310 0.0
1.994877 1.507099 0.001488 0.0
1.338630 1.507145 0.002539 0.0
3.257155 0.228306 0.001871 0.0
3.193742 1.464353 0.000844 0.0
3.012072 1.029422 -0.003045 0.0
2.969961 0.617995 0.001871 0.0
0.699292 1.222621 -0.000015 0.0
0.551667 0.448304 -0.000567 0.0
4.414735 1.291976 -0.001758 0.0
0.943450 1.745164 -0.004336 0.0
0.326140 0.329818 0.000677 0.0
0.617431 1.935668 -0.001256 0.0
4.320237 1.647759 0.000211 0.0
0.566590 1.293399 -0.002157 0.0
3.734375 0.645759 -0.002608 0.0
3.272966 1.813149 -0.002422 0.0
2.585270 0.864640 -0.000183 0.0
4.348971 0.657985 0.000248 0.0
2.876567 1.676539 0.002567 0.0
2.053048 0.978812 0.003893 0.0
2.937403 1.563176 -0.003816 0.0
3.052689 1.629795 0.001429 0.0
1.678358 0.111117 0.001424 0.0
3.538825 1.642892 0.000347 0.0
1.021545 0.838992 -0.004049 0.0
2.169519 0.501425 0.001103 0.0
1.938774 1.948275 0.006039 0.0
1.280727 0.890424 0.004323 0.0
3.139556 1.058496 0.001661 0.0
2.533455 0.873216 0.001347 0.0
2.662314 0.033859 -0.000371 0.0
1.759382 0.719690 0.002713 0.0
1.924340 0.569558 0.000160 0.0
3.051861 1.042349 0.000753 0.0
0.780539 1.259678 0.003577 0.0
2.890394 1.035988 0.001760 0.0
4.404421 0.818651 -0.002226 0.0
0.750281 0.814887 -0.000151 0.0
2.188464 2.050004 -0.000905 0.0
2.314400 0.115673 0.001328 0.0
0.006231 2.185514 -0.000881 0.0
3.816997 1.072118 -0.003271 0.0
2.803966 0.515561 0.000929 0.0
1.919671 1.813933 -0.002587 0.0
2.203872 1.183710 0.000192 0.0
1.089436 1.146097 0.000631 0.0
2.193028 0.563193 0.000750 0.0
3.173362 1.345348 0.000223 0.0
0.079221 0.171868 -0.001164 0.0
1.086884 0.925272 0.002056 0.0
3.632499 1.954421 -0.000620 0.0
3.017271 1.737398 -0.006273 0.0
1.725877 0.375394 0.000339 0.0
3.449465 0.121333 -0.002066 0.0
1.782669 0.415667 0.001313 0.0
0.782609 1.089110 -0.001375 0.0
2.231668 0.242468 0.000628 0.0
1.052924 1.012815 0.001984 0.0
0.516567 0.017033 0.002132 0.0
0.556845 1.598059 -0.002158 0.0
2.958727 0.790363 -0.001358 0.0
0.055784 0.535029 -0.004978 0.0
2.745387 1.088221 -0.000397 0.0
0.444802 1.192532 -0.000699 0.0
3.441932 2.055614 -0.002794 0.0
1.913199 1.819088 -0.001466 0.0
2.106171 0.477802 0.000422 0.0
1.818825 1.750217 0.000988 0.0
3.451959 1.801933 -0.001638 0.0
4.449280 1.752565 0.000362 0.0
3.349628 2.136864 0.003083 0.0
2.023557 1.875269 -0.001513 0.0
1.672434 2.101868 -0.003429 0.0
0.694821 0.568139 -0.001079 0.0
2.778674 1.141410 -0.000766 0.0
1.308995 0.781608 -0.001784 0.0
0.087751 0.027913 -0.001098 0.0
1.601539 0.920026 0.002246 0.0
4.462188 0.841559 -0.000987 0.0
4.390348 0.851827 0.002609 0.0
0.403852 1.157498 -0.003675 0.0
4.163145 2.146894 -0.001309 0.0
3.875757 1.465035 -0.000139 0.0
3.044623 1.303361 -0.001453 0.0
3.912812 0.800443 -0.001639 0.0
4.019810 2.174489 0.001266 0.0
2.335688 1.740534 0.002205 0.0
4.397402 0.605665 0.000459 0.0
2.606304 0.467975 -0.001527 0.0
4.047958 2.012135 -0.002262 0.0
2.829008 1.700115 -0.001589 0.0
2.546662 1.088421 0.001746 0.0
3.619180 1.339216 0.001313 0.0
3.973997 1.302701 0.002877 0.0
3.151773 1.029003 0.000358 0.0
0.491279 1.392892 -0.001398 0.0
1.928343 0.765931 0.000545 0.0
3.325410 0.674664 0.001848 0.0
4.013863 0.146917 0.002778 0.0
1.275070 0.522126 0.001723 0.0
3.430215 0.225138 0.000591 0.0
0.839087 1.849545 -0.002887 0.0
2.887701 0.220598 -0.003639 0.0
3.951837 0.236373 -0.001985 0.0
3.549445 0.603443 -0.005341 0.0
1.334734 1.025590 0.005809 0.0
0.178851 0.720104 -0.005284 0.0
1.095714 1.393345 0.005949 0.0
0.828901 0.122918 0.001674 0.0
0.262402 1.289381 -0.000105 0.0
2.318803 1.019825 0.001501 0.0
2.984073 1.648946 -0.003741 0.0
1.530649 0.916843 0.000759 0.0
3.636967 0.853798 -0.000386 0.0
0.071578 1.625859 0.001016 0.0
1.990086 1.928117 0.001173 0.0
4.146296 1.824009 0.001240 0.0
1.871026 1.264936 -0.000607 0.0
2.907346 0.093327 -0.000387 0.0
0.159221 0.229090 0.000748 0.0
1.856988 0.226897 -0.000493 0.0
0.891695 1.313984 -0.001346 0.0
3.332974 0.817923 0.002358 0.0
3.392764 0.090506 -0.000846 0.0
4.018813 1.134862 -0.002581 0.0
2.756760 2.075541 -0.003571 0.0
0.090223 0.242237 0.001704 0.0
1.843606 1.986890 -0.004348 0.0
2.495761 0.898472 0.002848 0.0
0.380924 0.329900 -0.001799 0.0
4.439162 0.996563 -0.001408 0.0
0.639829 1.475677 -0.000537 0.0
4.460628 0.250523 0.004332 0.0
0.933336 0.501887 -0.001932 0.0
3.941587 1.533137 -0.001299 0.0
2.778906 1.391484 -0.002720 0.0
0.908348 0.480052 0.005294 0.0
3.955105 1.118123 0.003581 0.0
2.896014 2.065877 -0.000656 0.0
3.708799 0.096822 0.000524 0.0
3.781723 0.919663 -0.002200 0.0
1.791111 2.062785 -0.002708 0.0
3.407211 0.216830 -0.004634 0.0
4.109690 0.176009 0.000437 0.0
3.111955 1.321692 0.001029 0.0
2.275455 0.390500 -0.001308 0.0
3.099060 1.742880 0.003289 0.0
1.000446 1.700922 0.002486 0.0
4.122270 0.285233 -0.004194 0.0
2.003391 1.697725 -0.002483 0.0
1.135634 0.505387 -0.001131 0.0
1.993106 1.790019 -0.001549 0.0
3.223786 1.954416 0.000431 0.0
0.215117 1.662844 0.001704 0.0
0.172485 0.546867 0.000488 0.0
2.853938 0.887926 -0.001899 0.0
3.393585 2.123212 0.000880 0.0
1.499658 1.187962 0.001369 0.0
4.301303 1.374371 -0.001331 0.0
1.944557 0.454120 -0.000344 0.0
2.109166 1.189498 0.003782 0.0
0.723940 0.055544 0.001923 0.0
4.235315 2.092392 0.001964 0.0
3.562993 0.365925 0.002586 0.0
3.771055 0.773764 -0.000167 0.0
1.555670 1.551843 0.001003 0.0
3.374903 0.952702 0.000779 0.0
4.320175 0.612710 -0.002066 0.0
2.864959 0.565142 -0.000141 0.0
1.421512 1.139014 0.002019 0.0
2.446880 0.004589 -0.000634 0.0
2.803605 2.048746 -0.001833 0.0
0.399827 1.168553 0.000305 0.0
3.322365 1.576422 -0.000618 0.0
1.589889 0.394918 0.002881 0.0
0.486619 0.472362 -0.004126 0.0
1.882223 0.062752 -0.002958 0.0
2.531366 1.612793 0.001143 0.0
3.537940 0.365742 0.001686 0.0
3.306650 1.609047 0.003735 0.0
2.225582 1.226193 -0.002813 0.0
2.985873 1.563148 -0.001604 0.0
1.013736 1.245658 0.003486 0.0
1.626313 1.998202 -0.001852 0.0
3.653614 1.537254 0.002078 0.0
0.962284 2.055250 -0.003516 0.0
2.631430 0.579091 0.009116 0.0
2.144619 0.118927 0.000463 0.0
0.308647 1.311482 -0.002366 0.0
3.408044 1.794608 0.000115 0.0
0.117415 0.275754 0.000420 0.0
0.227492 0.830839 -0.000811 0.0
0.110078 2.127645 0.003589 0.0
0.520276 0.384171 0.002260 0.0
3.761625 0.484874 0.000198 0.0
1.279254 1.237878 0.000993 0.0
0.667560 0.939397 0.001173 0.0
0.403158 1.389278 -0.002145 0.0
2.629327 1.462158 -0.000478 0.0
2.296150 1.016127 0.001603 0.0
1.489374 0.336429 -0.001772 0.0
4.275751 1.323944 0.001651 0.0
2.650593 1.036425 0.002771 0.0
2.861306 1.025896 -0.004296 0.0
2.428982 0.888294 -0.000893 0.0
0.005694 1.382498 0.003597 0.0
0.846268 0.158117 0.004596 0.0
3.701215 1.925210 0.000461 0.0
0.713850 0.516566 0.002021 0.0
3.206253 1.303172 0.001422 0.0
2.857276 0.071295 -0.000133 0.0
3.372019 1.972365 -0.000706 0.0
1.070644 0.544619 0.000815 0.0
3.427500 0.052211 -0.000450 0.0
1.016258 0.203580 0.002922 0.0
2.625214 2.068369 -0.001191 0.0
2.604904 1.291728 0.000052 0.0
0.401405 0.439878 0.001041 0.0
2.927963 2.009457 -0.003862 0.0
3.265108 1.118259 -0.004397 0.0
3.256828 1.138147 0.000454 0.0
1.271493 1.920402 -0.000076 0.0
2.927930 0.117886 0.001455 0.0
3.484379 0.522208 -0.000180 0.0
0.114904 1.033358 0.002466 0.0
2.292773 0.256390 0.001918 0.0
0.650653 1.628622 0.001929 0.0
2.717649 0.495326 0.003979 0.0
2.501228 0.220581 -0.000511 0.0
1.181347 1.912345 0.001615 0.0
1.093872 1.379540 0.003634 0.0
4.391577 2.007879 0.000791 0.0
3.388784 1.916534 -0.000890 0.0
4.077917 1.258882 -0.002498 0.0
0.465942 1.398624 0.000229 0.0
1.977448 1.969262 -0.001532 0.0
0.408620 0.695284 -0.002619 0.0
4.098118 1.549797 0.001093 0.0
3.316060 0.978642 0.003193 0.0
0.941919 1.064469 -0.001523 0.0
3.404215 0.209640 0.004415 0.0
3.904529 0.028468 0.000047 0.0
2.221376 0.765765 -0.003096 0.0
0.590677 1.294669 0.001564 0.0
4.338580 2.048260 -0.002584 0.0
1.467740 0.863753 0.002837 0.0
3.016926 0.621901 0.002036 0.0
0.599437 0.870660 -0.004528 0.0
1.188821 1.882110 0.004113 0.0
3.743382 1.996646 -0.000738 0.0
3.980081 1.100878 -0.002831 0.0
4.492818 1.127759 0.000628 0.0
1.617237 1.886789 -0.001690 0.0
2.220971 0.292316 0.000306 0.0
1.669996 1.984633 -0.002123 0.0
3.258274 0.557700 0.002723 0.0
3.860869 0.407569 -0.002456 0.0
2.752995 0.110858 0.002000 0.0
3.111891 1.516731 -0.006173 0.0
3.183085 1.372998 0.002192 0.0
0.687715 1.152754 0.000829 0.0
4.442971 1.058545 0.003366 0.0
4.221092 0.147317 0.000445 0.0
4.265806 1.745394 -0.000173 0.0
0.554581 0.668930 0.001090 0.0
2.600210 1.782276 0.004200 0.0
4.342269 0.292422 -0.000447 0.0
0.025663 0.907244 0.003592 0.0
2.919026 2.053408 0.003029 0.0
0.386641 0.683680 -0.001245 0.0
2.317610 2.030030 0.000413 0.0
3.361339 2.152681 -0.001021 0.0
1.435174 0.225348 0.000622 0.0
1.283668 1.071465 -0.000629 0.0
1.831708 1.993032 -0.002939 0.0
1.466950 1.898665 0.002683 0.0
2.377358 0.751408 -0.002496 0.0
3.261002 0.700485 -0.002041 0.0
0.203029 1.885465 -0.000647 0.0
0.987542 0.247802 -0.001215 0.0
1.573147 1.881905 -0.003118 0.0
1.070785 0.212696 0.002028 0.0
3.026973 2.116911 0.002371 0.0
1.504033 1.651038 0.004545 0.0
1.649226 2.025669 0.000788 0.0
4.351487 1.995465 -0.003075 0.0
1.472610 1.172763 0.001577 0.0
3.619860 1.570843 -0.000333 0.0
1.908792 0.849084 0.000026 0.0
0.904675 0.246344 0.001186 0.0
0.017229 1.940597 -0.000637 0.0
2.047129 0.524649 -0.002811 0.0
3.305192 1.104745 -0.002841 0.0
1.539360 0.434111 -0.000922 0.0
3.848500 0.546525 -0.000449 0.0
0.152130 1.015324 -0.002274 0.0
1.444778 1.382529 0.002445 0.0
2.150650 2.031028 -0.002638 0.0
1.786571 0.072802 -0.001895 0.0
3.154778 0.237830 0.001300 0.0
3.819529 1.257826 -0.002739 0.0
0.448775 1.785213 -0.004633 0.0
0.111513 0.456991 -0.000085 0.0
3.467251 1.392989 -0.004176 0.0
4.126969 1.845556 0.002815 0.0
0.631740 0.940429 0.000042 0.0
3.734705 0.545509 -0.000475 0.0
2.399364 1.126071 -0.004120 0.0
3.418265 0.933368 0.001761 0.0
2.660169 0.322221 0.000298 0.0
1.265353 1.485451 0.001721 0.0
4.162269 0.893205 0.000450 0.0
2.873174 0.735897 -0.001980 0.0
1.154947 0.574803 0.004003 0.0
3.130228 1.032738 0.001956 0.0
0.208696 0.227042 -0.002041 0.0
1.036501 0.868050 0.001705 0.0
1.401345 0.873040 -0.001139 0.0
0.609272 0.915373 0.002176 0.0
2.122134 1.692522 0.000073 0.0
2.107586 2.043059 -0.004005 0.0
1.712264 1.375020 -0.002893 0.0
3.866073 1.269120 -0.001447 0.0
4.077576 1.237335 0.003040 0.0
1.367455 1.941784 0.000543 0.0
0.435664 0.320395 0.004898 0.0
1.334990 1.401610 0.002890 0.0
3.452908 1.425600 -0.000774 0.0
1.112795 0.111107 -0.000591 0.0
4.168425 0.931552 -0.004158 0.0
1.287444 1.108475 0.001103 0.0
1.582774 1.515551 -0.003323 0.0
3.819944 1.609770 -0.002702 0.0
1.523835 0.578546 0.002484 0.0
3.587267 1.614815 0.000332 0.0
0.142369 1.822589 -0.000155 0.0
3.890096 0.314716 0.002494 0.0
1.163162 0.261803 -0.000314 0.0
3.646537 1.596686 -0.001834 0.0
3.958813 0.149383 -0.000116 0.0
0.857425 0.164515 0.003896 0.0
1.673754 0.745602 0.002737 0.0
2.883160 0.917935 -0.000448 0.0
0.333031 2.031074 -0.001017 0.0
1.402166 0.282162 0.003792 0.0
4.423162 1.425550 -0.003360 0.0
3.168628 1.858033 -0.002876 0.0
4.162046 1.521142 0.000478 0.0
3.996249 1.236926 -0.003196 0.0
1.566379 1.028569 0.000245 0.0
0.344620 1.950125 -0.000593 0.0
0.557063 0.221807 0.002351 0.0
2.200811 0.209405 -0.001752 0.0
1.664261 1.057264 0.003441 0.0
2.173317 1.862821 -0.000977 0.0
2.019091 0.386543 0.001896 0.0
0.115259 0.356738 -0.001389 0.0
2.117593 1.144363 -0.000981 0.0
4.405338 0.502807 -0.001890 0.0
0.453090 0.940135 -0.000110 0.0
4.369717 1.261165 0.005093 0.0
3.491524 0.492784 0.002298 0.0
1.313963 1.964294 0.000107 0.0
0.994050 1.305384 -0.004130 0.0
2.123640 0.284984 -0.004170 0.0
2.011213 0.642002 0.001070 0.0
0.674763 0.931740 -0.001054 0.0
2.193769 1.201535 0.000606 0.0
1.816201 2.091246 0.001014 0.0
3.876456 0.850735 0.000760 0.0
2.433811 0.540319 -0.002609 0.0
1.252001 0.691424 0.004669 0.0
2.283076 1.101748 0.000648 0.0
2.251678 1.969473 0.004502 0.0
0.661139 0.126548 -0.000596 0.0
3.046453 1.152396 -0.001031 0.0
0.451361 0.796375 0.000443 0.0
4.262673 0.972459 -0.000055 0.0
2.343109 1.836191 0.000548 0.0
3.285930 0.350954 -0.001264 0.0
2.544807 0.488962 -0.001118 0.0
0.369321 1.678077 -0.000825 0.0
2.515960 1.811723 -0.001440 0.0
0.043935 1.650676 -0.000665 0.0
1.663641 1.149192 -0.004326 0.0
1.968940 0.434725 -0.000546 0.0
4.509806 1.623170 -0.000584 0.0
4.010417 0.210908 0.002785 0.0
1.020448 1.666777 -0.001239 0.0
0.904448 1.777878 0.001454 0.0
2.505287 2.150649 -0.004408 0.0
1.488088 1.767137 0.000302 0.0
3.839326 0.939537 -0.000403 0.0
3.976146 1.615383 -0.002763 0.0
3.437364 2.011488 0.001600 0.0
2.995066 2.025729 -0.003673 0.0
1.420833 1.895972 0.001833 0.0
4.305755 1.344758 -0.002036 0.0
1.447311 1.568416 0.003379 0.0
0.850894 1.977998 -0.000991 0.0
2.654365 1.339695 -0.000007 0.0
2.698057 0.023470 -0.004632 0.0
1.843915 0.357892 0.001824 0.0
1.020998 0.113942 -0.003806 0.0
2.478711 1.346509 0.000048 0.0
0.637733 1.725766 0.000044 0.0
3.010381 1.596225 0.002611 0.0
3.428125 1.548468 0.001451 0.0
2.028829 0.816446 -0.000034 0.0
2.049655 0.342214 -0.002752 0.0
4.209301 1.390134 -0.000002 0.0
0.338265 2.063272 0.000549 0.0
0.905108 0.494938 0.000013 0.0
1.746091 0.163680 0.002370 0.0
3.918421 1.641536 0.001771 0.0
1.480057 1.119287 -0.000395 0.0
3.615502 0.215140 -0.001382 0.0
2.949677 1.886200 -0.000392 0.0
2.193344 0.405816 -0.002063 0.0
1.911926 0.296235 -0.000909 0.0
1.431142 1.981395 0.000735 0.0
1.972277 1.948638 -0.000382 0.0
1.882332 1.214164 -0.002257 0.0
0.196801 1.203972 0.000325 0.0
2.099533 1.568688 -0.001945 0.0
2.693353 0.082669 -0.001048 0.0
3.451628 0.330719 0.000780 0.0
2.107740 0.046343 -0.002036 0.0
1.954541 0.608074 0.000885 0.0
3.506952 1.501965 -0.004494 0.0
3.485653 0.615807 0.001916 0.0
0.383108 1.494911 -0.004597 0.0
3.958576 0.248209 0.001221 0.0
1.656136 0.575624 0.004638 0.0
3.222269 0.604799 0.001100 0.0
1.515712 1.961415 0.000841 0.0
3.675427 1.780476 0.001042 0.0
4.425235 1.926813 0.001096 0.0
3.188611 0.088258 -0.000859 0.0
0.615140 0.645075 -0.001598 0.0
4.186616 1.925536 0.000324 0.0
2.773625 0.287860 -0.001241 0.0
3.396524 1.430057 -0.003693 0.0
3.564814 1.559890 0.001620 0.0
4.483351 2.067912 -0.000707 0.0
0.494571 1.288417 0.001812 0.0
2.083735 1.827098 -0.003303 0.0
1.293549 2.147867 -0.000897 0.0
3.521960 0.925711 0.001293 0.0
0.738904 0.094211 -0.001367 0.0
3.926024 0.264991 0.000564 0.0
0.408933 0.099176 0.001112 0.0
1.023989 2.086140 0.005955 0.0
1.698891 0.965820 -0.005626 0.0
1.125876 0.154323 0.001223 0.0
3.324479 2.114312 -0.000256 0.0
1.039533 1.239397 0.002799 0.0
3.972503 1.694780 -0.001636 0.0
4.070568 1.169002 0.002649 0.0
2.570064 1.993550 0.002736 0.0
3.505319 1.412380 -0.002111 0.0
3.181575 0.746382 0.000393 0.0
4.032332 1.888361 -0.003367 0.0
1.671584 0.198312 0.000085 0.0
3.262434 2.176749 0.003393 0.0
2.715005 0.737200 0.004405 0.0
0.562426 1.337214 -0.001893 0.0
1.660104 0.233620 0.002878 0.0
0.952907 1.152571 0.001492 0.0
3.890365 0.457332 -0.000982 0.0
3.983316 0.953275 0.000563 0.0
1.545497 0.927936 -0.001224 0.0
2.558384 0.135568 0.003004 0.0
0.797312 0.799854 -0.001895 0.0
0.818993 1.554676 -0.001426 0.0
0.039671 0.830732 0.001064 0.0
3.410281 0.164677 0.000394 0.0
4.250859 1.046295 0.002526 0.0
3.517426 0.005806 -0.002137 0.0
0.595149 1.523145 -0.001577 0.0
2.060661 0.864862 0.001238 0.0
2.935643 2.091433 0.001040 0.0
1.375922 0.112274 -0.002129 0.0
4.439867 0.714059 -0.003271 0.0
1.785212 1.005471 -0.001717 0.0
0.420829 0.625666 -0.000098 0.0
4.330888 1.003022 0.004506 0.0
2.975291 0.293306 0.001265 0.0
2.161205 0.502818 0.000468 0.0
3.210832 0.756987 -0.000113 0.0
0.641424 0.158318 0.000406 0.0
0.963476 0.958382 -0.000559 0.0
4.286891 1.726405 0.001956 0.0
4.191932 0.677121 -0.002168 0.0
2.692881 0.895207 -0.003627 0.0
3.372831 2.035420 -0.001721 0.0
1.786627 1.351643 -0.003184 0.0
2.469945 1.224299 0.000870 0.0
1.226105 0.768495 -0.001041 0.0
1.717660 0.123136 -0.006017 0.0
1.247609 1.098729 -0.002018 0.0
3.978681 0.356031 -0.000864 0.0
0.988805 0.090798 -0.000611 0.0
0.138732 1.289946 -0.003432 0.0
2.977803 1.569142 0.002868 0.0
4.361057 1.528492 0.001372 0.0
1.135870 0.266481 0.001778 0.0
2.087580 0.999758 0.000316 0.0
1.623095 1.373742 0.002647 0.0
0.488451 1.953444 -0.002399 0.0
2.435255 1.293876 0.001717 0.0
2.150065 0.166915 -0.002334 0.0
4.259438 1.493882 -0.001570 0.0
1.586492 1.710089 -0.001852 0.0
2.392247 1.777685 0.001614 0.0
0.675119 1.286930 -0.000910 0.0
3.899677 1.855377 -0.001450 0.0
3.636228 0.224155 0.002366 0.0
3.859203 0.169104 -0.001996 0.0
2.781544 0.876600 0.000306 0.0
1.990215 0.320834 0.000371 0.0
3.730785 1.480906 0.001716 0.0
4.165305 1.021057 -0.004402 0.0
1.904389 1.399176 0.000066 0.0
4.414934 0.506033 0.002165 0.0
0.720915 0.902045 0.000586 0.0
3.845711 0.949337 0.001848 0.0
3.259190 0.361250 -0.001160 0.0
1.174000 1.475209 0.007089 0.0
1.952319 1.769947 0.002849 0.0
4.202627 1.240761 0.002330 0.0
4.098760 1.821773 -0.002044 0.0
1.521927 1.156102 -0.000331 0.0
2.118814 0.440562 0.000658 0.0
0.629478 1.051489 -0.004121 0.0
3.882238 1.631517 0.001305 0.0
3.496334 1.887797 -0.000506 0.0
2.214450 0.980367 0.001174 0.0
2.473747 0.152521 -0.003089 0.0
3.480629 1.571931 -0.000329 0.0
0.255568 1.760534 -0.000825 0.0
2.722550 0.638530 -0.003500 0.0
2.428402 1.414780 0.003196 0.0
4.355024 0.221297 0.004823 0.0
3.346484 0.073610 0.001759 0.0
1.905625 0.324217 -0.000970 0.0
3.862443 0.801275 0.001286 0.0
2.499162 1.563391 -0.002891 0.0
2.997454 0.169192 0.000163 0.0
1.302707 1.695692 -0.001789 0.0
0.499871 1.612393 0.002567 0.0
4.236926 0.860971 0.002652 0.0
4.256965 0.741990 -0.002184 0.0
0.631487 1.557192 0.002976 0.0
0.573155 0.105466 -0.001745 0.0
3.922446 1.275548 -0.001726 0.0
0.052084 2.050606 -0.001490 0.0
2.714060 0.764180 -0.002722 0.0
1.864339 0.131443 -0.003037 0.0
1.417855 1.158467 -0.001051 0.0
2.528725 1.845796 0.002918 0.0
2.861257 1.271584 -0.005794 0.0
1.852574 0.033331 0.000726 0.0
3.173448 1.380978 0.001333 0.0
2.039042 1.403643 -0.000661 0.0
2.931256 1.452531 -0.002972 0.0
1.864423 0.079249 -0.000214 0.0
4.126581 0.609475 0.001233 0.0
0.288828 1.857832 0.006108 0.0
3.485949 0.104037 0.001833 0.0
2.536569 2.093987 -0.000766 0.0
1.678892 1.758183 0.000916 0.0
2.131337 1.344393 0.001865 0.0
2.206939 1.278679 0.001007 0.0
1.743395 0.030362 -0.000280 0.0
0.849270 0.714713 0.002355 0.0
0.771767 0.585302 0.000908 0.0
1.171124 1.268933 0.002982 0.0
3.569538 0.932109 0.003840 0.0
2.423959 1.976973 -0.001917 0.0
4.309479 2.132126 -0.002658 0.0
0.488480 1.522250 0.000111 0.0
2.139881 0.519048 -0.001675 0.0
3.385275 1.713267 0.000439 0.0
3.542439 1.616954 0.001786 0.0
2.979672 0.733536 0.000544 0.0
3.482068 0.571066 0.000223 0.0
2.623084 0.176720 -0.001256 0.0
3.220321 1.169083 0.004498 0.0
4.312730 1.876664 -0.000444 0.0
3.452301 0.607223 0.001461 0.0
0.593926 0.271395 -0.001219 0.0
3.502778 1.908387 0.001690 0.0
1.491796 0.907749 -0.000768 0.0
3.115366 0.449114 -0.001252 0.0
3.342595 0.361721 0.001246 0.0
2.913680 0.030321 0.003354 0.0
1.794956 1.854697 -0.003353 0.0
2.408409 0.302924 -0.003185 0.0
2.932243 0.911853 0.004495 0.0
0.748972 0.541169 -0.001551 0.0
3.272071 1.310740 -0.002027 0.0
3.733930 2.032669 0.000695 0.0
3.895320 0.495526 -0.002376 0.0
2.190811 1.107073 0.001647 0.0
0.524219 0.608397 -0.004837 0.0
0.526380 1.613156 0.000847 0.0
4.130013 1.641382 0.001932 0.0
3.951873 0.732891 0.002872 0.0
0.938431 2.087346 -0.001508 0.0
2.996800 0.218981 -0.005560 0.0
2.017715 1.314466 -0.001985 0.0
3.614114 0.056315 0.000122 0.0
4.106987 1.834894 0.000091 0.0
0.346971 0.769502 0.000935 0.0
4.217153 1.824027 -0.001498 0.0
1.839609 0.484325 0.001644 0.0
3.353485 0.829819 -0.001524 0.0
3.412816 2.000102 0.002001 0.0
0.421016 0.355271 -0.003584 0.0
2.256500 0.907205 -0.000676 0.0
3.055445 0.699236 0.005070 0.0
0.498772 1.045291 -0.003798 0.0
3.728138 1.092617 0.000420 0.0
3.920716 1.629092 -0.002903 0.0
1.311449 0.800559 -0.001925 0.0
0.594980 0.046593 0.004353 0.0
2.791981 2.020867 -0.001491 0.0
3.013528 0.697517 -0.002701 0.0
2.664406 0.283737 0.004061 0.0
1.556293 1.336049 0.001452 0.0
4.194373 1.252780 -0.001106 0.0
0.302678 0.436377 -0.000438 0.0
2.909375 1.606174 0.000563 0.0
3.246304 0.272070 -0.003780 0.0
4.067226 1.461435 0.004990 0.0
1.330153 0.906582 0.005385 0.0
2.488204 0.450724 0.002348 0.0
0.123074 1.237987 0.000185 0.0
3.958570 1.483236 0.000666 0.0
0.714160 1.413480 0.000033 0.0
2.595788 0.469127 0.001985 0.0
3.202272 0.683583 -0.004674 0.0
4.379124 0.844239 0.002036 0.0
3.539632 2.149861 -0.001907 0.0
2.255060 1.959387 -0.000227 0.0
3.252250 1.741049 -0.000790 0.0
2.269397 1.028983 0.004642 0.0
0.358225 2.164722 0.000915 0.0
2.860183 1.088501 0.001833 0.0
2.448684 2.038425 -0.000172 0.0
2.446763 1.507329 -0.001040 0.0
1.356082 0.703742 0.000313 0.0
0.100571 0.739681 -0.000402 0.0
1.762029 1.841828 0.005660 0.0
1.530075 0.037285 0.001921 0.0
2.849441 1.519648 -0.000558 0.0
4.215634 1.574728 -0.001755 0.0
1.626522 2.126868 0.000728 0.0
1.827638 0.443914 -0.001793 0.0
3.514674 1.791277 -0.002436 0.0
3.037512 0.381584 -0.000877 0.0
0.968029 0.317599 0.001848 0.0
2.078302 2.169449 -0.001743 0.0
3.681240 2.153779 0.002046 0.0
0.220663 1.591905 0.004552 0.0
0.858755 2.015062 -0.001971 0.0
0.593794 1.607978 -0.000491 0.0
4.512468 1.637948 0.003093 0.0
2.856624 1.733727 -0.003067 0.0
0.492980 0.500826 0.003269 0.0
0.791655 0.446633 -0.002497 0.0
4.024379 1.206828 0.000354 0.0
3.232854 1.453631 -0.001020 0.0
0.788458 0.668604 -0.000998 0.0
2.722297 1.633171 0.001569 0.0
0.234216 1.452585 -0.003235 0.0
3.711209 0.697038 -0.003057 0.0
4.154484 0.177593 0.000495 0.0
3.206733 1.970695 -0.000864 0.0
0.631770 0.816148 -0.004096 0.0
0.081478 1.545425 -0.000887 0.0
0.479510 2.161898 0.000822 0.0
0.983528 0.926779 -0.002893 0.0
0.186223 0.969127 0.003646 0.0
1.354555 0.474411 0.000063 0.0
0.818791 1.187414 -0.000201 0.0
4.169795 1.421955 0.001321 0.0
1.192175 1.328302 -0.004371 0.0
0.605596 0.402576 0.000127 0.0
3.623372 1.904089 0.001354 0.0
4.201016 0.206566 0.000447 0.0
3.838322 0.349322 0.002227 0.0
4.082493 0.018676 -0.002518 0.0
0.226727 1.750704 0.000462 0.0
4.253129 0.661570 -0.003297 0.0
4.302742 2.054496 -0.003347 0.0
1.068086 1.560919 -0.004409 0.0
0.127196 1.686319 0.002273 0.0
1.601799 0.967146 0.003071 0.0
2.551705 0.336708 0.002269 0.0
4.002829 1.625573 0.002245 0.0
1.816608 1.182152 0.000875 0.0
0.005578 0.828976 -0.000685 0.0
2.189886 1.596787 -0.001021 0.0
0.102063 1.848097 0.001205 0.0
0.694924 1.947870 -0.001971 0.0
4.370221 1.774985 -0.003265 0.0
3.623146 0.886720 0.002868 0.0
1.735142 0.671424 0.000141 0.0
0.904881 0.667267 0.004841 0.0
4.069815 0.963595 -0.000780 0.0
1.945947 1.630967 0.003952 0.0
1.805647 0.539053 0.006674 0.0
3.360853 1.713263 -0.007156 0.0
2.893827 0.210329 -0.001269 0.0
3.882023 1.282417 0.002265 0.0
3.733941 1.105019 -0.004239 0.0
2.998851 1.312436 -0.005674 0.0
1.556251 1.385965 -0.001385 0.0
1.765262 1.746950 -0.002099 0.0
2.460203 1.420560 0.000038 0.0
1.263395 0.519750 -0.000265 0.0
0.128930 0.097986 0.002703 0.0
0.139877 1.140254 0.002364 0.0
4.456224 0.298718 -0.000747 0.0
2.364329 1.442596 0.000475 0.0
3.740121 1.115546 0.000344 0.0
0.704523 1.797979 0.002621 0.0
1.701716 0.509211 -0.000077 0.0
4.026590 0.186582 -0.002720 0.0
0.672168 1.857358 -0.004433 0.0
0.377435 0.896229 -0.002720 0.0
3.432409 0.414169 0.002842 0.0
1.587166 1.491978 0.000557 0.0
3.576588 1.368614 0.002774 0.0
3.951633 2.162606 -0.001800 0.0
0.721445 1.561678 -0.001379 0.0
1.713323 1.126052 -0.003630 0.0
3.628251 1.581607 -0.000058 0.0
3.531852 1.536835 0.002316 0.0
3.872608 1.457686 0.000987 0.0
3.742922 1.303603 -0.001937 0.0
4.251498 0.543450 -0.001685 0.0
3.677847 1.187410 -0.000922 0.0
2.756117 1.735682 -0.002047 0.0
1.048698 0.747720 0.002552 0.0
3.148015 1.909112 0.001326 0.0
1.281577 1.207361 -0.002053 0.0
1.847359 0.490940 0.001595 0.0
0.910293 1.328058 0.000190 0.0
0.956697 1.141143 0.003029 0.0
2.163610 0.988217 -0.001460 0.0
3.187368 2.108398 -0.001713 0.0
1.859597 1.707927 -0.003323 0.0
1.097865 0.720860 0.001862 0.0
2.586957 2.108905 -0.002719 0.0
2.410534 1.113487 0.000832 0.0
3.522119 1.350052 -0.000548 0.0
4.343480 0.317570 -0.001879 0.0
0.573849 1.275005 0.001178 0.0
1.613055 1.199479 -0.002090 0.0
3.572739 1.583857 -0.002285 0.0
3.696198 1.917853 0.001009 0.0
1.382870 1.461840 -0.004885 0.0
0.593253 0.528854 0.001899 0.0
0.979896 1.316657 -0.003010 0.0
4.377845 1.831732 0.000281 0.0
0.481391 1.707147 -0.006515 0.0
2.205257 0.546303 -0.000066 0.0
0.630555 2.100023 -0.003107 0.0
0.943401 2.143908 0.000652 0.0
3.490574 1.717863 -0.002555 0.0
3.404866 0.012199 0.002698 0.0
4.406118 1.464516 0.001103 0.0
2.319367 1.597996 0.004324 0.0
0.061626 0.735163 0.003141 0.0
2.095624 0.757637 -0.001125 0.0
3.792152 1.824041 -0.002985 0.0
3.368369 1.730717 0.000082 0.0
1.580927 0.977792 -0.000078 0.0
4.206153 0.399715 -0.003552 0.0
3.635081 0.961363 0.004079 0.0
3.391436 0.056428 -0.002270 0.0
3.501848 1.809339 0.000618 0.0
0.491760 0.958862 -0.001719 0.0
4.078725 0.512185 0.000174 0.0
1.846927 2.105322 0.001547 0.0
4.293147 0.235789 -0.000103 0.0
3.991146 1.010821 -0.000703 0.0
2.035206 1.709925 0.000961 0.0
2.438940 0.592415 0.000726 0.0
1.997747 0.508414 -0.000639 0.0
1.530249 1.155692 0.003073 0.0
4.299001 0.166642 0.003623 0.0
4.430028 0.049263 0.001616 0.0
3.819644 1.231878 0.001261 0.0
1.856386 1.815562 -0.001974 0.0
2.314200 1.537866 -0.000223 0.0
2.650348 1.361074 0.001850 0.0
4.467652 2.124211 0.005449 0.0
4.037668 0.710252 -0.000550 0.0
1.851232 2.086163 0.001400 0.0
2.568029 0.767348 0.003283 0.0
3.547626 0.144582 0.000738 0.0
0.100079 1.828720 0.002367 0.0
2.590945 1.845789 -0.000614 0.0
3.871881 2.156780 -0.002783 0.0
0.515068 1.320098 -0.004026 0.0
3.682124 0.054346 0.000665 0.0
3.281638 1.326262 0.001648 0.0
0.201629 2.083962 -0.001192 0.0
0.169307 2.106674 -0.001241 0.0
4.255232 1.987713 0.003411 0.0
3.761811 0.271470 -0.000822 0.0
2.454871 0.657547 0.002312 0.0
2.075663 0.692261 0.001357 0.0
2.785261 0.581275 0.004601 0.0
1.767601 0.529233 0.001055 0.0
1.513039 1.233871 -0.000622 0.0
4.500454 0.566972 0.003613 0.0
3.777302 1.528736 -0.000767 0.0
0.076840 0.369454 -0.000643 0.0
0.292591 2.023653 -0.001394 0.0
1.867856 2.002590 0.001588 0.0
2.412815 1.267277 -0.004909 0.0
1.188440 0.594820 -0.000986 0.0
3.845940 1.228210 -0.002864 0.0
3.131454 1.089050 -0.003426 0.0
3.293325 1.339734 0.001885 0.0
0.777576 2.173090 0.001807 0.0
0.893280 0.949962 0.001549 0.0
1.275540 0.451405 -0.001676 0.0
1.429609 0.765320 -0.000270 0.0
2.224590 0.189030 0.001480 0.0
2.319432 1.437524 -0.002932 0.0
2.741617 0.933955 -0.007620 0.0
3.266343 0.889609 -0.001040 0.0
2.497143 1.199732 0.000757 0.0
0.417333 1.345240 0.010214 0.0
1.774600 0.396024 -0.003221 0.0
1.546788 1.484649 -0.001426 0.0
4.137357 1.388428 0.000012 0.0
3.485535 0.993538 -0.000102 0.0
2.091682 1.217139 -0.001097 0.0
4.029113 2.107441 0.002289 0.0
1.718043 0.135629 0.001392 0.0
1.740397 0.805317 0.002008 0.0
0.697746 1.415297 0.005159 0.0
3.790952 1.024184 0.003064 0.0
2.711780 0.277246 -0.000887 0.0
4.158740 0.796692 -0.002967 0.0
1.983590 0.024334 0.002277 0.0
1.880463 0.427139 0.000767 0.0
0.901618 0.598651 0.003282 0.0
3.538453 1.227040 -0.002489 0.0
2.119250 0.419759 0.003322 0.0
1.367884 0.300937 -0.003231 0.0
1.794000 0.452412 0.000104 0.0
2.920249 1.664445 0.003254 0.0
3.981473 1.233765 -0.000034 0.0
0.293697 1.527184 -0.002203 0.0
2.891646 1.423257 0.002955 0.0
2.776454 0.434678 0.001022 0.0
3.632964 1.788926 -0.003023 0.0
1.515766 1.346667 0.000803 0.0
0.244388 0.484788 -0.001697 0.0
1.855996 0.776207 0.001021 0.0
2.976208 0.374743 -0.000500 0.0
2.905455 1.764412 0.001833 0.0
1.360237 0.265455 -0.000601 0.0
1.907282 0.329882 -0.004385 0.0
4.083365 1.865543 0.002157 0.0
4.319522 0.101092 0.002624 0.0
2.617539 2.069530 -0.000529 0.0
4.175031 0.813601 -0.004132 0.0
3.468831 1.056496 -0.001357 0.0
2.476639 0.045370 0.002589 0.0
3.948082 0.979693 0.003327 0.0
0.625346 0.454452 -0.001764 0.0
2.772141 1.429364 0.001863 0.0
4.088140 1.048134 0.002485 0.0
2.109717 0.886962 -0.003107 0.0
4.412712 1.523108 0.000336 0.0
1.453058 1.460056 0.001277 0.0
1.039184 0.385939 -0.001586 0.0
2.298711 0.264792 -0.001682 0.0
4.116012 1.913178 -0.002472 0.0
0.079272 0.995285 0.001347 0.0
1.154639 2.137584 -0.000755 0.0
0.761900 1.620957 -0.000978 0.0
2.491693 0.778414 -0.003335 0.0
1.304308 1.689469 0.002493 0.0
2.285291 0.664353 -0.001544 0.0
1.303498 0.819355 -0.004067 0.0
0.806851 1.300903 0.000265 0.0
1.646280 1.773738 -0.000064 0.0
0.080223 1.261238 0.003837 0.0
1.909157 1.425935 0.000048 0.0
0.547460 1.761369 -0.003190 0.0
4.467358 0.347974 -0.000831 0.0
2.938300 1.098504 0.001852 0.0
2.078541 1.881215 0.002257 0.0
0.044189 1.259613 0.001630 0.0
3.913828 1.778963 -0.001420 0.0
0.317914 1.127043 -0.000343 0.0
1.364734 1.596758 0.002047 0.0
4.149842 0.150663 0.000855 0.0
4.024083 1.682522 -0.000119 0.0
3.118022 0.698659 0.002576 0.0
3.861151 1.650632 0.005142 0.0
2.399353 0.639519 -0.004030 0.0
3.609065 1.552696 0.003588 0.0
2.387564 0.185074 -0.000658 0.0
3.376663 2.027548 -0.001317 0.0
2.494929 1.727237 -0.003373 0.0
0.920046 0.212858 -0.000695 0.0
4.039498 1.582332 -0.001476 0.0
3.350504 1.976313 -0.006490 0.0
0.611986 0.108641 0.003181 0.0
3.360295 1.835585 -0.000180 0.0
1.507539 0.595831 0.003105 0.0
1.664220 0.523464 0.001512 0.0
3.739403 0.986930 -0.004631 0.0
3.803698 1.355555 0.000022 0.0
3.986052 0.658725 0.001587 0.0
3.025396 0.281023 0.000583 0.0
2.105344 1.288723 -0.001569 0.0
3.595203 1.111619 -0.002643 0.0
2.729802 0.571374 -0.000478 0.0
0.185062 0.781934 0.001135 0.0
4.416686 1.463378 0.002271 0.0
3.914452 0.975850 -0.001170 0.0
0.466067 1.725233 0.000209 0.0
0.959777 1.961293 0.004809 0.0
2.618413 1.642374 0.000466 0.0
0.549807 1.837896 0.003286 0.0
1.302611 1.202871 0.002018 0.0
4.067705 0.165970 0.004678 0.0
2.270246 0.017201 -0.000553 0.0
4.098756 0.519368 -0.004623 0.0
4.018883 1.745555 0.002460 0.0
0.531540 1.801469 0.001581 0.0
2.368409 0.522255 -0.002843 0.0
3.214027 2.135966 -0.004119 0.0
2.415815 1.121208 0.003751 0.0
2.942220 0.055276 -0.001034 0.0
3.024505 2.029313 0.001478 0.0
1.995897 0.017279 0.000612 0.0
2.148362 1.371760 -0.000328 0.0
1.605826 0.366793 0.000687 0.0
1.789831 0.385051 0.004836 0.0
3.381309 1.509151 0.000402 0.0
1.000986 0.482626 -0.001961 0.0
1.184031 2.061645 -0.003359 0.0
2.681966 0.076428 -0.001217 0.0
2.248388 1.737243 -0.001071 0.0
1.721408 0.704201 0.001929 0.0
3.211584 0.850179 -0.000235 0.0
0.556660 2.169795 0.001370 0.0
0.060800 0.771606 0.000868 0.0
0.956985 1.198128 -0.000618 0.0
1.124823 0.302753 0.003482 0.0
0.422335 1.244175 0.002376 0.0
0.482780 0.071947 0.002676 0.0
2.941137 0.690308 -0.000659 0.0
1.879823 1.870490 -0.001104 0.0
3.167356 0.757699 0.001074 0.0
0.168976 1.301464 0.001946 0.0
3.362750 1.358894 0.000099 0.0
0.702366 0.842985 0.002054 0.0
0.594326 1.947284 0.000936 0.0
0.994167 1.116361 -0.002132 0.0
1.477673 0.225820 0.001157 0.0
1.185645 0.915423 0.001981 0.0
3.682580 1.037359 -0.000025 0.0
3.302726 2.177657 -0.002035 0.0
2.226499 0.628403 -0.000458 0.0
1.241685 1.958654 -0.002012 0.0
0.026630 0.244748 0.001985 0.0
3.703884 1.203270 0.001303 0.0
0.396902 2.041114 0.001944 0.0
2.560642 0.898367 0.001085 0.0
0.787660 0.806034 0.003034 0.0
0.054022 0.979131 -0.000404 0.0
0.435208 0.524929 0.003212 0.0
2.668292 2.163820 -0.000462 0.0
3.379668 1.257298 0.000729 0.0
3.317654 1.672618 -0.007641 0.0
0.705550 0.049031 0.001993 0.0
0.920129 1.347401 -0.000076 0.0
3.707666 1.573458 -0.002792 0.0
3.102760 0.797556 -0.003211 0.0
1.689661 0.504780 0.001196 0.0
1.427374 2.125268 -0.000119 0.0
1.350736 1.507769 -0.002909 0.0
1.103739 0.374206 0.002727 0.0
2.400873 0.254186 -0.000835 0.0
2.970577 0.796825 -0.004595 0.0
4.387437 0.177486 -0.001048 0.0
2.055930 0.739795 -0.001032 0.0
3.228845 0.198166 0.003414 0.0
1.198418 0.599658 -0.002610 0.0
4.391083 0.389449 0.000658 0.0
0.400053 1.197743 -0.002443 0.0
0.808541 1.932539 -0.004453 0.0
1.937849 0.139789 -0.000969 0.0
1.181644 1.695379 -0.001552 0.0
4.370051 0.485973 -0.000741 0.0
1.558313 0.892173 -0.002119 0.0
1.239241 1.888526 -0.000618 0.0
4.127284 0.185408 -0.000344 0.0
0.676373 1.604890 0.000447 0.0
3.182003 0.303953 0.001097 0.0
1.272184 1.626349 -0.001364 0.0
2.443149 0.383080 0.000049 0.0
4.234566 0.810230 0.000437 0.0
2.301590 1.215821 -0.001734 0.0
0.965635 1.781610 0.000349 0.0
2.276586 1.925521 0.001405 0.0
1.760587 1.472685 0.002715 0.0
3.187111 1.099871 0.002209 0.0
0.491452 0.280355 -0.002994 0.0
4.298541 1.257643 -0.003016 0.0
2.788080 1.237085 0.000872 0.0
2.849991 0.333924 -0.000410 0.0
0.008764 0.058882 0.000720 0.0
1.582954 1.932682 -0.003434 0.0
0.199752 1.037293 -0.004438 0.0
0.270264 0.871409 0.002415 0.0
1.885746 0.830579 -0.003167 0.0
2.842612 0.076499 0.000040 0.0
4.400132 0.201238 -0.001538 0.0
3.426780 2.163253 -0.000504 0.0
0.845306 1.810401 0.003013 0.0
1.219070 0.081242 -0.000884 0.0
3.663939 0.783374 -0.002878 0.0
2.950131 0.900931 -0.000157 0.0
0.295884 0.079692 -0.001840 0.0
3.972601 0.489387 -0.002846 0.0
2.489308 1.779375 -0.006153 0.0
1.463295 1.006177 0.000286 0.0
4.512045 0.200786 -0.001342 0.0
0.618344 0.475400 0.000162 0.0
0.195787 1.827327 -0.000732 0.0
2.744377 2.036568 0.000887 0.0
0.763592 1.514746 0.006584 0.0
1.183014 1.162115 0.003188 0.0
4.293626 1.424504 -0.000679 0.0
3.462062 2.040344 -0.001719 0.0
1.301615 1.583076 0.000106 0.0
0.558054 0.711808 -0.001987 0.0
2.158639 0.883597 -0.003215 0.0
4.474219 1.923357 -0.001424 0.0
1.216662 0.415587 0.000918 0.0
1.327953 0.549464 -0.001581 0.0
0.706978 0.514521 0.002558 0.0
1.865778 2.072071 -0.000882 0.0
3.626972 0.254019 0.001007 0.0
0.991188 0.065148 0.000095 0.0
2.487735 2.065683 -0.000906 0.0
2.924361 0.011090 -0.000896 0.0
0.591794 1.867203 0.002423 0.0
0.118811 1.394440 -0.001533 0.0
2.847647 0.349760 0.000535 0.0
3.197975 1.476201 0.001106 0.0
0.567794 1.998337 -0.002124 0.0
2.808764 0.452482 -0.000276 0.0
1.985151 1.628057 -0.000141 0.0
2.563113 1.160609 -0.000025 0.0
2.876506 0.607887 -0.001008 0.0
0.009026 1.227120 -0.002280 0.0
3.723460 1.156368 0.002418 0.0
3.075111 0.667893 -0.002434 0.0
0.688013 1.418087 0.005847 0.0
3.212694 1.089406 -0.006199 0.0
1.593028 0.948496 0.002782 0.0
3.698567 1.275869 0.003217 0.0
2.736833 0.344008 -0.001439 0.0
3.679445 0.884676 -0.003602 0.0
4.485251 0.961304 -0.003068 0.0
1.116770 1.343105 -0.000766 0.0
3.221597 0.827103 -0.004512 0.0
4.179366 2.141282 -0.000396 0.0
4.199427 1.547006 -0.000154 0.0
2.291100 2.127634 0.003934 0.0
3.687984 0.775408 0.001109 0.0
0.634381 1.024629 0.003298 0.0
0.187721 0.137919 0.000624 0.0
3.621162 1.924545 -0.000595 0.0
0.793258 1.250908 0.001454 0.0
0.071400 0.983444 0.000446 0.0
0.471091 1.304543 -0.004912 0.0
0.882890 1.519956 -0.003982 0.0
2.687016 1.574845 0.002910 0.0
2.909216 1.593447 -0.003935 0.0
2.284942 0.747298 0.002998 0.0
0.457868 1.192929 0.001733 0.0
1.920162 1.310726 -0.004357 0.0
3.867242 1.107162 -0.000236 0.0
3.797469 1.638606 -0.002900 0.0
1.753388 0.418847 0.001589 0.0
3.594961 1.526178 0.001208 0.0
2.031313 1.490524 0.000081 0.0
0.234483 1.053945 0.000407 0.0
3.777603 1.295896 -0.001412 0.0
4.459396 0.073531 -0.002092 0.0
3.388285 0.459976 -0.002946 0.0
0.863338 0.225855 -0.003918 0.0
1.228927 0.490875 -0.002970 0.0
4.426111 0.157945 -0.001577 0.0
3.606481 1.532078 0.001465 0.0
2.411751 1.076027 -0.001735 0.0
1.180431 0.000082 -0.000959 0.0
3.492830 2.044290 -0.000506 0.0
4.469343 0.330620 -0.002040 0.0
2.164328 1.713682 0.001192 0.0
2.333252 2.044736 -0.003204 0.0
4.035298 0.868921 0.001622 0.0
3.616292 0.981864 -0.003032 0.0
3.189247 1.042443 0.001946 0.0
1.841805 1.109718 0.004028 0.0
3.871631 0.846819 -0.000589 0.0
1.600565 1.534079 -0.001598 0.0
4.253785 0.895214 -0.005969 0.0
2.542452 0.208753 -0.001142 0.0
1.653909 0.357855 0.000966 0.0
1.700498 0.304834 -0.000278 0.0
2.392149 1.638079 -0.000507 0.0
2.162260 0.772754 0.000186 0.0
2.202480 1.062355 0.003767 0.0
1.742348 0.173478 -0.000888 0.0
3.528542 0.565318 -0.003707 0.0
3.188729 0.597434 -0.000983 0.0
2.475985 1.585370 -0.003163 0.0
2.790361 0.101572 -0.000134 0.0
3.407344 1.406786 0.003579 0.0
0.268543 0.083754 0.000761 0.0
2.975765 0.031494 -0.000760 0.0
3.486176 1.684919 0.001759 0.0
3.977754 0.099809 -0.001185 0.0
0.109795 1.324146 0.001829 0.0
0.625459 0.851147 -0.002372 0.0
2.550517 1.845990 -0.000901 0.0
1.148729 0.356779 -0.000446 0.0
0.492493 0.834333 0.000119 0.0
2.132661 1.992099 0.000862 0.0
2.191694 0.808160 0.001147 0.0
2.836418 0.469676 -0.002396 0.0
0.649542 0.926700 0.000957 0.0
4.208513 0.549914 0.003497 0.0
2.997710 1.597500 -0.000116 0.0
0.514834 0.098836 0.003260 0.0
2.364845 0.866612 -0.001347 0.0
0.052220 0.649709 0.001385 0.0
3.806459 0.066555 0.004413 0.0
2.243898 1.200284 -0.002262 0.0
0.987341 1.537338 -0.002639 0.0
2.997382 1.927535 -0.003222 0.0
2.314670 1.548722 0.001273 0.0
3.307815 1.517625 -0.000852 0.0
0.451383 0.142692 0.002219 0.0
3.894815 1.458962 -0.000114 0.0
4.162401 1.356385 0.000905 0.0
3.324818 0.762582 0.000311 0.0
2.132294 2.145606 0.004471 0.0
1.278637 1.345810 -0.006657 0.0
1.252898 0.981314 0.001069 0.0
4.251101 1.544559 -0.000899 0.0
0.877667 0.283961 -0.005171 0.0
2.254819 0.886416 -0.001473 0.0
4.291813 0.593612 0.000110 0.0
3.684244 1.821836 -0.001910 0.0
1.955993 0.877989 0.003978 0.0
3.329417 1.575996 0.002196 0.0
1.126910 0.141411 0.001053 0.0
3.200447 1.422182 0.003662 0.0
1.927327 0.999383 -0.000630 0.0
1.327791 1.584706 -0.005658 0.0
1.707705 1.286938 -0.004195 0.0
0.477660 0.508891 -0.002052 0.0
0.814456 0.154897 0.002988 0.0
1.211359 2.015744 0.002836 0.0
3.787806 0.707817 -0.001593 0.0
1.918239 0.315961 -0.001305 0.0
0.395875 1.607998 0.004520 0.0
0.222368 1.971674 -0.001576 0.0
0.088382 1.335078 -0.000093 0.0
0.806935 0.211021 -0.001129 0.0
0.207203 0.820762 0.002527 0.0
3.532497 1.894833 -0.001950 0.0
3.636326 0.144025 -0.001952 0.0
3.673305 0.202102 -0.001399 0.0
4.200576 0.222874 -0.000068 0.0
0.468339 1.034318 -0.002295 0.0
2.344825 2.177807 -0.000868 0.0
0.678209 1.190667 0.000476 0.0
2.319187 1.894191 0.000869 0.0
1.251357 2.079871 0.001755 0.0
