3.52748622 0.99304452 -0.00114276 0.00000000
2.78287446 1.09314071 0.00290645 0.00000000
3.18072069 0.38319824 0.00660996 0.00000000
4.46731346 1.48571587 0.00173749 0.00000000
2.08882727 0.01666187 -0.00044318 0.00000000
0.19108988 1.14243334 -0.00223858 0.00000000
0.40576846 1.19512396 -0.00301109 0.00000000
0.03550170 1.71374620 -0.00232537 0.00000000
0.76376075 0.59144873 -0.00197313 0.00000000
2.54570682 0.15208743 0.00027517 0.00000000
4.15356873 1.34006142 -0.00105124 0.00000000
3.63951649 1.88262661 0.00210976 0.00000000
0.05859316 1.82716097 -0.00450716 0.00000000
3.72574103 1.17402021 -0.00142799 0.00000000
2.86992579 0.30691190 0.00528380 0.00000000
1.45508052 2.09129277 0.00142371 0.00000000
1.37023821 0.93249766 0.00467789 0.00000000
3.47426988 1.61437477 -0.00008609 0.00000000
3.94057781 0.60732440 0.00052609 0.00000000
1.71470962 0.57468684 -0.00072572 0.00000000
2.55330371 0.86864300 -0.00101312 0.00000000
0.80386368 0.10370523 -0.00207272 0.00000000
4.12242268 2.06428447 -0.00174477 0.00000000
2.75339955 0.65732500 0.00495997 0.00000000
0.30457988 2.01669517 -0.00112065 0.00000000
1.25346716 0.19517378 -0.00271602 0.00000000
1.04465446 1.88897944 0.00494125 0.00000000
2.47024019 0.72355775 -0.00029945 0.00000000
1.21976790 1.04802219 -0.00042887 0.00000000
2.64122175 0.40872894 0.00136178 0.00000000
3.31699103 1.50295687 -0.00242184 0.00000000
0.19457230 1.13283569 0.00111041 0.00000000
1.28559150 1.94389592 -0.00085090 0.00000000
0.83642228 0.13834485 0.00038314 0.00000000
3.70689042 1.25430988 -0.00358568 0.00000000
2.45829477 0.82746046 0.00305738 0.00000000
2.55467649 1.38681777 0.00460499 0.00000000
4.23564682 0.12252208 -0.00066610 0.00000000
0.75985036 0.43400130 0.00043170 0.00000000
2.87162580 1.73393086 0.00374683 0.00000000
4.29543413 0.93986427 -0.00231442 0.00000000
0.91033538 1.26069964 0.00389157 0.00000000
1.25704570 0.28882163 0.00180643 0.00000000
1.12841230 1.77831279 -0.00577569 0.00000000
3.45140322 1.16589793 0.00297516 0.00000000
1.04332712 2.09042439 -0.00054633 0.00000000
0.21659061 1.22531247 -0.00402568 0.00000000
1.51574566 1.31479158 -0.00391924 0.00000000
3.98789574 0.35602376 -0.00110444 0.00000000
2.74900786 1.98814045 0.00146149 0.00000000
3.41665537 0.12343153 -0.00579678 0.00000000
0.26427595 0.27539594 -0.00050677 0.00000000
3.38112073 0.45975858 0.00070585 0.00000000
1.10549065 0.53393331 0.00021121 0.00000000
2.09375023 0.05393912 -0.00010773 0.00000000
2.95995032 1.06483187 0.00066376 0.00000000
2.25593288 0.93614792 0.00238684 0.00000000
4.33748889 1.25434018 0.00259935 0.00000000
3.96003472 0.42489167 0.00337452 0.00000000
1.13380680 1.48534288 -0.00249458 0.00000000
1.33182669 1.09522862 -0.00294843 0.00000000
1.73304724 0.73378817 0.00238911 0.00000000
2.85702907 0.44098031 -0.00504708 0.00000000
0.74818930 0.61247017 0.00100791 0.00000000
3.69685494 1.67841448 0.00388415 0.00000000
1.97317947 1.75870043 -0.00033786 0.00000000
3.87248825 1.37121770 0.00127505 0.00000000
1.09604766 1.83449252 0.00057233 0.00000000
0.20281868 0.94606864 0.00019966 0.00000000
1.46079925 2.01177282 -0.00186113 0.00000000
0.24607589 1.66282595 -0.00155762 0.00000000
2.10575042 0.25412045 -0.00333354 0.00000000
0.48656626 1.94315066 -0.00200409 0.00000000
1.62272822 0.43731010 0.00157285 0.00000000
3.00553620 0.90257038 0.00322333 0.00000000
2.89893249 0.25798920 0.00242960 0.00000000
2.40841079 0.72719377 0.00264771 0.00000000
1.59722455 0.73426415 0.00248103 0.00000000
1.54452322 1.83683840 0.00003478 0.00000000
0.94576033 0.75295145 0.00562257 0.00000000
0.75900785 0.96640360 0.00027184 0.00000000
3.55791230 0.41966485 -0.00324338 0.00000000
0.69644055 1.72438376 -0.00286997 0.00000000
0.82407200 0.92610539 0.00114150 0.00000000
0.16652781 0.63849165 0.00082292 0.00000000
4.42119720 0.18420459 -0.00104964 0.00000000
0.24140593 0.41869501 -0.00017998 0.00000000
1.32571445 1.46122727 -0.00056009 0.00000000
0.17879864 0.59763692 0.00817444 0.00000000
0.29334235 2.06533467 0.00273354 0.00000000
3.92446801 1.28099442 0.00232053 0.00000000
4.14580236 1.47786159 0.00242722 0.00000000
0.89062145 0.24763787 0.00013192 0.00000000
4.14532533 1.92996684 0.00228685 0.00000000
1.50487259 1.17738371 0.00789644 0.00000000
2.71601879 0.11717096 0.00064828 0.00000000
3.07828169 1.45494995 -0.00262023 0.00000000
4.42224776 1.22421738 0.00238168 0.00000000
1.84311424 0.65586787 -0.00076240 0.00000000
1.90778888 1.90167310 0.00012782 0.00000000
3.78894875 1.01569431 0.00299716 0.00000000
1.45000583 0.48209212 0.00049730 0.00000000
0.40971835 0.59384972 -0.00623367 0.00000000
3.12748012 0.06598153 -0.00031842 0.00000000
3.95775334 1.51713308 -0.00398595 0.00000000
0.74944509 1.90211584 -0.00263016 0.00000000
2.61131381 0.94180132 -0.00493040 0.00000000
1.38872712 1.43628922 -0.00058152 0.00000000
1.49617646 1.35064228 -0.00140879 0.00000000
2.98317567 1.88094864 0.00053945 0.00000000
0.66690983 0.77939839 -0.00306307 0.00000000
3.82768809 2.08764088 -0.00048846 0.00000000
0.87208863 0.31517679 0.00025445 0.00000000
1.37931953 1.68812706 0.00218809 0.00000000
0.20084866 1.06682656 0.00147033 0.00000000
0.83899476 0.84792056 -0.00232833 0.00000000
0.40782484 0.61553132 -0.00030712 0.00000000
2.74070660 1.56812940 0.00190649 0.00000000
3.75460763 0.70897273 -0.00028019 0.00000000
2.60010832 0.37911187 -0.00134707 0.00000000
0.95023629 0.30701579 -0.00431969 0.00000000
1.87653304 0.57767569 0.00140611 0.00000000
3.30988120 0.71837391 -0.00522976 0.00000000
1.69666207 1.24350591 0.00418950 0.00000000
3.88739916 1.97748509 0.00144627 0.00000000
3.71645809 0.03292490 0.00055437 0.00000000
2.83587159 0.26812613 0.00367097 0.00000000
4.31403419 0.21064839 0.00370208 0.00000000
1.29356426 1.10555542 -0.00178360 0.00000000
2.36632889 0.68460951 -0.00218805 0.00000000
0.80368769 1.93698514 0.00185021 0.00000000
2.14035899 1.77856042 -0.00197268 0.00000000
2.29938336 0.80831140 0.00087786 0.00000000
0.66345340 0.41264306 -0.00319565 0.00000000
4.05658352 2.03624974 0.00290746 0.00000000
0.59892139 0.79712566 -0.00053476 0.00000000
1.93603529 0.50118439 -0.00053585 0.00000000
1.01054613 0.73081367 0.00263243 0.00000000
1.75186177 1.54565375 -0.00241137 0.00000000
1.41406654 1.62477372 -0.00241091 0.00000000
2.84653559 1.87564556 0.00163235 0.00000000
2.11617796 1.13962602 0.00168910 0.00000000
3.84571404 0.11836551 0.00188100 0.00000000
4.35113073 0.44693436 0.00051699 0.00000000
2.96001542 0.61890661 0.00154962 0.00000000
1.85446680 1.53975620 0.00005922 0.00000000
1.23518797 1.96554663 0.00142469 0.00000000
3.85832485 0.99713790 -0.00201146 0.00000000
0.33579486 1.19250387 -0.00290975 0.00000000
1.03078349 1.61618051 -0.00087320 0.00000000
2.65223312 0.35582153 0.00330517 0.00000000
2.72220594 1.19721858 -0.00255213 0.00000000
0.70616703 1.45034018 -0.00108763 0.00000000
1.00470998 1.13544195 0.00089383 0.00000000
0.31592902 0.09212839 0.00125187 0.00000000
0.00661482 1.44888299 0.00336015 0.00000000
2.28547025 0.90108330 0.00142532 0.00000000
1.90225048 0.25662251 0.00277590 0.00000000
3.74857769 0.66645248 0.00053152 0.00000000
3.76174647 1.85823011 -0.00212976 0.00000000
0.75630631 1.96652343 0.00054148 0.00000000
0.51359322 0.59519579 -0.00272113 0.00000000
1.47600074 0.41142681 -0.00302637 0.00000000
3.65656566 0.08662211 0.00199287 0.00000000
1.62824233 2.01013386 0.00015684 0.00000000
0.25540982 0.09958396 0.00227041 0.00000000
0.91981653 1.73139690 -0.00085155 0.00000000
2.89745044 0.17709427 -0.00366676 0.00000000
1.44569948 1.29274057 0.00200716 0.00000000
4.20519631 1.03790043 -0.00230040 0.00000000
3.28439009 0.67592521 0.00065376 0.00000000
4.25966321 1.54976011 0.00002419 0.00000000
4.02704051 0.87348982 0.00062026 0.00000000
1.82626820 1.16860040 -0.00217446 0.00000000
2.12880682 0.40616972 -0.00063269 0.00000000
4.31375123 0.86106848 -0.00392757 0.00000000
1.89149461 1.67398780 0.00091898 0.00000000
2.57091282 1.03040114 -0.00254833 0.00000000
2.08407966 0.79288620 0.00251770 0.00000000
3.39132720 1.25443762 -0.00138349 0.00000000
1.97597771 1.29572365 -0.00079823 0.00000000
2.15198211 0.00121231 0.00016763 0.00000000
0.32087873 1.57012362 0.00090930 0.00000000
2.35190626 0.18733383 0.00350535 0.00000000
2.41844347 1.91862029 0.00001540 0.00000000
1.02250779 0.10056386 -0.00022779 0.00000000
4.32718079 1.20834429 0.00312763 0.00000000
1.77927237 1.84239859 0.00397965 0.00000000
1.43391290 2.10078115 0.00291052 0.00000000
3.39247090 0.01692835 -0.00210469 0.00000000
0.86499460 1.08777150 -0.00334742 0.00000000
3.25589099 0.14684462 0.00110903 0.00000000
1.20073877 1.73615341 -0.00032288 0.00000000
4.46571273 1.24187816 0.00154985 0.00000000
2.20756150 0.57840303 -0.00051239 0.00000000
1.41582968 0.33178426 0.00189117 0.00000000
0.30347614 0.50913516 0.00456898 0.00000000
3.72179796 2.09036397 0.00619566 0.00000000
0.32214900 0.46239565 0.00254818 0.00000000
4.08576884 1.85042971 -0.00174238 0.00000000
3.73052910 1.16348975 0.00236690 0.00000000
0.66421381 1.31823094 -0.00272076 0.00000000
2.72524552 2.06275835 -0.00349798 0.00000000
3.86758436 0.91726103 0.00255568 0.00000000
0.74800336 0.96885213 -0.00163600 0.00000000
1.32581901 0.47625360 -0.00572845 0.00000000
1.17712785 0.25729240 0.00193776 0.00000000
1.67562175 2.00549793 -0.00012724 0.00000000
1.41458943 0.63834135 -0.00061364 0.00000000
0.32056287 0.29698364 0.00355023 0.00000000
2.31851994 1.89054890 0.00144760 0.00000000
0.60357908 0.43736377 -0.00268913 0.00000000
3.49358966 0.99761027 0.00290844 0.00000000
0.61174620 0.12078516 0.00550085 0.00000000
4.41418737 1.25262571 -0.00200591 0.00000000
3.83450976 0.99167220 0.00066489 0.00000000
3.83594100 0.94434302 0.00487060 0.00000000
4.25427310 1.38556210 0.00057499 0.00000000
1.34926886 1.42246262 -0.00136500 0.00000000
4.27481479 1.87984900 0.00020703 0.00000000
2.79897332 1.81172993 0.00369852 0.00000000
0.07890072 1.90483262 0.00020437 0.00000000
1.75307560 1.97860508 -0.00017787 0.00000000
3.78798018 1.28574417 0.00008387 0.00000000
3.27012999 1.31418895 -0.00326550 0.00000000
1.27618331 1.91327861 -0.00775315 0.00000000
2.85564295 2.07705111 -0.00019277 0.00000000
2.62759760 0.46532390 0.00291619 0.00000000
2.26472402 1.24046031 -0.00061972 0.00000000
3.51084630 0.15206678 0.00377140 0.00000000
3.25427746 1.72965141 0.00349331 0.00000000
3.72152111 0.40194078 0.00013269 0.00000000
0.06372832 0.02693948 0.00095151 0.00000000
2.99434412 0.74278258 0.00402738 0.00000000
4.22890509 0.06343165 -0.00078395 0.00000000
0.90956583 1.84884693 0.00288605 0.00000000
0.40275902 1.92932273 -0.00025165 0.00000000
1.46162900 0.88429444 -0.00259866 0.00000000
1.96182581 0.34796514 -0.00386191 0.00000000
0.54839203 0.73383981 0.00191422 0.00000000
2.82817250 2.08967920 -0.00153768 0.00000000
2.47501833 0.79102448 -0.00165742 0.00000000
3.70027301 0.77679822 -0.00005652 0.00000000
3.49601882 1.48772498 -0.00321960 0.00000000
0.15530588 1.72866457 -0.00475978 0.00000000
1.79386046 1.60692109 -0.00018368 0.00000000
4.18540886 0.53275743 0.00022187 0.00000000
3.84536508 0.23516764 0.00023267 0.00000000
3.47433467 1.71069018 -0.00020361 0.00000000
3.62960317 1.92120136 0.00162930 0.00000000
2.91807889 1.40963722 -0.00050744 0.00000000
3.85463081 0.32927167 -0.00303057 0.00000000
3.38880214 1.71735912 0.00438496 0.00000000
3.73983352 1.48621359 0.00033558 0.00000000
1.62870006 1.82270315 0.00182411 0.00000000
2.42433939 1.68140189 0.00561212 0.00000000
0.39742319 1.92596471 -0.00153996 0.00000000
1.18299705 1.78535182 -0.00213491 0.00000000
3.95516222 1.49178751 -0.00103347 0.00000000
0.11202860 0.12847257 -0.00330558 0.00000000
0.40050917 0.50664976 0.00132988 0.00000000
0.70155019 1.40962757 0.00117643 0.00000000
3.07204661 0.74670654 0.00451328 0.00000000
4.13695438 0.67271021 -0.00272856 0.00000000
0.74542692 1.62779124 -0.00033195 0.00000000
0.52829248 0.39983152 0.00411974 0.00000000
0.80155946 1.29418005 0.00203109 0.00000000
1.41501368 0.03536939 -0.00068539 0.00000000
3.01050930 0.08414019 -0.00146195 0.00000000
3.13400825 2.04403981 -0.00183697 0.00000000
4.19026407 1.17154359 0.00309287 0.00000000
3.90028975 0.95780245 0.00059980 0.00000000
1.05607267 1.02701314 0.00038768 0.00000000
0.67743257 1.96309629 0.00175528 0.00000000
0.33375704 1.46651761 0.00154770 0.00000000
0.61133569 0.29977727 0.00077398 0.00000000
4.13879341 0.01841810 0.00199757 0.00000000
0.57136305 0.60736822 -0.00213452 0.00000000
1.47841725 1.04049318 -0.00273913 0.00000000
1.91690333 1.19197099 -0.00020536 0.00000000
1.31539112 0.09508600 0.00397795 0.00000000
3.93668521 0.63899655 0.00279578 0.00000000
1.94642324 1.10117048 -0.00070914 0.00000000
0.50314543 0.64693884 -0.00058241 0.00000000
2.29057949 0.91882497 0.00199217 0.00000000
1.17226153 1.57851967 0.00185457 0.00000000
1.41926570 0.06152043 0.00362537 0.00000000
0.88568551 0.38767882 0.00113950 0.00000000
0.03877652 0.16947870 0.00204439 0.00000000
0.74714032 1.56132199 0.00044372 0.00000000
1.41381765 1.06007227 0.00035383 0.00000000
2.92510535 1.21406738 -0.00273969 0.00000000
2.39035490 0.00460423 0.00268830 0.00000000
2.40804897 1.45656224 -0.00157513 0.00000000
0.89716290 1.99791655 -0.00039541 0.00000000
0.57593331 0.92382431 -0.00120146 0.00000000
0.82739364 0.57262818 -0.00019484 0.00000000
2.07721962 1.15241506 -0.00175729 0.00000000
0.33287531 1.95070608 0.00079262 0.00000000
2.37732710 1.41950197 0.00222065 0.00000000
4.28356734 1.43707552 0.00325094 0.00000000
2.76672826 2.03580126 -0.00090479 0.00000000
0.81276280 1.32223965 -0.00219485 0.00000000
2.16881189 1.35181075 -0.00167478 0.00000000
3.97326320 0.02710573 -0.00120069 0.00000000
3.02801278 0.89654445 0.00304024 0.00000000
0.93005235 0.31667314 -0.00174335 0.00000000
1.63636386 2.08327085 0.00008275 0.00000000
4.23372956 1.04329975 -0.00108076 0.00000000
0.87636987 0.95196636 -0.00082739 0.00000000
0.08550084 2.05295771 -0.00627949 0.00000000
0.41324649 0.56647265 0.00163583 0.00000000
2.44504607 1.42777362 0.00306848 0.00000000
0.39621344 1.65158976 0.00164552 0.00000000
1.06887577 1.34785184 -0.00017182 0.00000000
3.53535643 1.79081272 0.00087336 0.00000000
1.23045609 0.35715327 0.00515337 0.00000000
3.23098619 0.72915903 -0.00015608 0.00000000
2.49848411 2.02131541 -0.00607977 0.00000000
0.16098589 0.79325864 -0.00183677 0.00000000
0.81272607 1.84570514 0.00279443 0.00000000
2.83942562 1.82823782 0.00323234 0.00000000
1.78563619 1.13670892 0.00007561 0.00000000
3.31583229 1.22899696 -0.00098198 0.00000000
1.93195057 0.32918494 0.00226494 0.00000000
1.68746419 0.02879832 0.00017546 0.00000000
4.27144972 1.55812689 0.00035881 0.00000000
0.86738506 1.45055911 -0.00128839 0.00000000
3.57316842 1.44104343 0.00271563 0.00000000
2.23428404 1.03435370 -0.00095630 0.00000000
3.00543740 0.70816551 -0.00073925 0.00000000
1.13128771 1.29595182 -0.00418662 0.00000000
0.80725467 1.53261386 0.00285905 0.00000000
1.25414900 0.54450894 -0.00137684 0.00000000
1.97308554 1.26847158 0.00249097 0.00000000
1.12839415 1.36576990 -0.00576151 0.00000000
4.26055178 1.63715693 -0.00072115 0.00000000
3.39924972 0.78527422 0.00166043 0.00000000
1.97836339 0.44179924 -0.00260574 0.00000000
3.72260489 0.97147823 0.00476192 0.00000000
0.99634631 1.46755751 -0.00061736 0.00000000
2.12935877 2.00404419 -0.00078213 0.00000000
3.87193386 0.64278192 0.00399191 0.00000000
0.64803385 1.85949944 -0.00170757 0.00000000
2.00484634 1.54193105 -0.00269267 0.00000000
1.41438680 1.23196466 -0.00074289 0.00000000
1.89901058 0.77697292 0.00083321 0.00000000
2.42336657 0.48828700 0.00347745 0.00000000
2.63144822 1.70877419 0.00020324 0.00000000
3.50139855 1.11727565 0.00397671 0.00000000
1.75034253 1.42078230 -0.00054526 0.00000000
0.39991077 0.69060955 0.00004043 0.00000000
0.60408541 0.61461533 -0.00265357 0.00000000
3.09733737 1.23346517 0.00060632 0.00000000
1.77148659 1.60897354 -0.00108125 0.00000000
0.07612831 0.22438010 0.00028743 0.00000000
2.28325249 0.68528908 -0.00072967 0.00000000
2.93210963 1.67237163 0.00300990 0.00000000
3.32138342 1.22453578 0.00128727 0.00000000
3.09428358 1.96620235 0.00048629 0.00000000
2.66583243 0.73846063 0.00122379 0.00000000
3.49285412 0.49558647 0.00132107 0.00000000
0.55872497 2.02910852 0.00099046 0.00000000
3.31674149 1.21402195 0.00127271 0.00000000
2.00861648 0.44042154 0.00704197 0.00000000
2.66472291 0.49838944 0.00189389 0.00000000
1.54212126 0.37107041 0.00359658 0.00000000
0.07753480 0.58699266 -0.00181303 0.00000000
1.16714066 1.24799305 -0.00145895 0.00000000
2.79099034 0.06238309 -0.00007696 0.00000000
1.97353284 0.34929840 0.00280073 0.00000000
4.08722204 1.65012168 0.00062093 0.00000000
4.29643768 2.08203667 -0.00001625 0.00000000
2.56829675 1.33372006 0.00010235 0.00000000
3.28571745 1.43810975 -0.00453006 0.00000000
2.43803701 1.75901855 -0.00032756 0.00000000
3.54888508 0.18458216 -0.00304320 0.00000000
3.06237678 2.09917581 0.00033168 0.00000000
1.41692815 0.44822720 0.00073355 0.00000000
3.89440807 1.12313314 0.00282009 0.00000000
1.15639932 1.16566311 0.00071628 0.00000000
1.11683816 1.80121960 0.00121649 0.00000000
4.16410431 0.22537585 -0.00009016 0.00000000
4.03790520 0.67946507 -0.00286864 0.00000000
0.04679089 0.86092686 -0.00145892 0.00000000
0.58554581 1.29169315 0.00064924 0.00000000
3.58826447 1.03211850 0.00048634 0.00000000
3.25511075 0.67528372 0.00316608 0.00000000
1.79431391 1.18046346 -0.00327052 0.00000000
4.07672532 0.41380104 0.00409870 0.00000000
2.35136571 1.77210125 0.00235301 0.00000000
2.28260636 0.11647173 0.00122287 0.00000000
2.07415331 0.76217188 0.00177896 0.00000000
0.75799191 0.98259801 -0.00060169 0.00000000
3.27629000 0.34871290 -0.00482893 0.00000000
1.62195582 1.89401430 0.00349501 0.00000000
2.28773479 1.49475175 0.00156130 0.00000000
2.60944911 0.15112762 -0.00185231 0.00000000
1.29450502 1.76540320 -0.00106898 0.00000000
3.78021951 1.14665754 -0.00159575 0.00000000
3.24672445 1.85346647 -0.00090800 0.00000000
0.04278735 0.33534688 0.00010905 0.00000000
2.08465725 0.73926318 0.00117423 0.00000000
2.35190886 0.85851396 -0.00153142 0.00000000
1.76758048 0.30539325 -0.00076836 0.00000000
0.56528715 2.04345731 -0.00271417 0.00000000
2.20648374 1.07238401 -0.00009035 0.00000000
1.36719217 0.35237376 -0.00073509 0.00000000
3.15567406 0.91211373 0.00005766 0.00000000
1.02504471 0.24450205 0.00049548 0.00000000
2.07462375 1.61952093 -0.00289630 0.00000000
4.41923216 1.25336007 0.00302047 0.00000000
0.48405609 1.94542374 0.00284968 0.00000000
2.42100370 0.34250640 -0.00044077 0.00000000
3.41295667 1.54052818 -0.00440693 0.00000000
1.56795748 0.96925210 -0.00576872 0.00000000
1.20205954 1.75623134 0.00203487 0.00000000
0.00754771 0.05875843 0.00502842 0.00000000
0.62676156 0.49777856 -0.00279097 0.00000000
3.60491376 1.12331716 0.00267032 0.00000000
3.57882318 1.16707862 -0.00006707 0.00000000
1.89012804 0.59515582 -0.00089179 0.00000000
3.75658715 0.00537262 -0.00238488 0.00000000
1.75637367 1.83677136 -0.00158419 0.00000000
1.73208740 1.54263519 0.00342004 0.00000000
1.13710525 0.47485039 -0.00151982 0.00000000
0.88555386 0.59723293 -0.00382035 0.00000000
1.74150248 0.41481048 -0.00273240 0.00000000
2.22031859 0.75574103 0.00135875 0.00000000
2.78397160 0.52546932 0.00403193 0.00000000
2.72841524 0.03607942 -0.00281821 0.00000000
1.31686802 1.47328842 0.00362884 0.00000000
0.30913242 1.10804755 0.00098301 0.00000000
0.19318319 1.23674086 -0.00033379 0.00000000
1.22616075 1.34067506 0.00194165 0.00000000
0.84118022 1.51432083 -0.00033992 0.00000000
1.99921253 0.61680545 -0.00002649 0.00000000
1.26831923 0.45185777 -0.00120274 0.00000000
0.68349835 0.34450842 0.00537305 0.00000000
3.36841430 0.84128198 -0.00372625 0.00000000
2.99031289 0.42844615 -0.00310288 0.00000000
0.14479024 0.63272011 0.00008042 0.00000000
0.83391030 0.34238440 -0.00285083 0.00000000
2.24755663 1.98167212 0.00304138 0.00000000
1.02979769 0.98371941 0.00159292 0.00000000
0.46806792 0.79301186 -0.00465292 0.00000000
3.73531195 0.91407142 -0.00104846 0.00000000
3.49130403 1.29198578 -0.00187262 0.00000000
0.10620633 0.91065430 0.00309099 0.00000000
0.07778891 1.47284394 -0.00514822 0.00000000
2.80863681 2.08815172 0.00550926 0.00000000
1.42626045 0.38906212 -0.00460656 0.00000000
0.11885420 0.35154531 -0.00090162 0.00000000
1.70761929 0.85437271 0.00079986 0.00000000
1.53266540 0.68368046 0.00063425 0.00000000
0.86614467 0.01534396 -0.00162376 0.00000000
0.97348750 1.07790026 0.00329924 0.00000000
0.50554882 0.65201668 0.00356033 0.00000000
2.04952135 0.49342316 0.00209452 0.00000000
2.67439445 0.15364756 -0.00177863 0.00000000
1.74272769 0.09764212 -0.00429119 0.00000000
1.86724787 0.54368205 0.00035178 0.00000000
0.17111814 0.27109611 -0.00149884 0.00000000
4.40919391 2.08364028 -0.00010905 0.00000000
3.96000081 1.36063119 0.00075509 0.00000000
0.78945928 1.65708182 -0.00153030 0.00000000
0.34494388 1.69194642 0.00353006 0.00000000
1.82898846 1.20681468 -0.00001916 0.00000000
4.12521876 1.25651752 0.00007749 0.00000000
3.35637709 1.41780363 -0.00259437 0.00000000
0.14859747 0.14171977 0.00417852 0.00000000
2.56997479 0.13788902 -0.00346298 0.00000000
1.56025362 0.19016518 0.00095843 0.00000000
2.79060846 0.04730075 -0.00101330 0.00000000
0.71573926 1.38349563 -0.00064360 0.00000000
3.09814813 1.62597827 0.00088586 0.00000000
1.74833329 1.08757283 -0.00184694 0.00000000
0.19429907 0.12576597 -0.00073131 0.00000000
2.32561356 1.34646683 -0.00363061 0.00000000
2.68028705 0.11432323 -0.00271935 0.00000000
2.65119712 0.04157301 -0.00021256 0.00000000
4.17413862 0.43456980 -0.00478764 0.00000000
3.15119614 0.66454692 0.00169136 0.00000000
3.77669973 0.97664036 0.00283798 0.00000000
1.70896609 1.89399956 0.00175893 0.00000000
3.94061174 0.08965536 0.00322692 0.00000000
0.78656693 2.02431700 -0.00274892 0.00000000
0.92892855 1.43548164 -0.00331610 0.00000000
3.10826224 1.43731452 0.00256345 0.00000000
1.13620780 0.57613098 0.00208510 0.00000000
4.39509126 0.29026683 0.00091945 0.00000000
1.94006374 0.73194119 0.00116054 0.00000000
0.06521474 1.94285668 0.00104852 0.00000000
0.43010061 1.76200205 0.00152354 0.00000000
1.69240400 1.32213637 0.00274354 0.00000000
2.39981954 0.63975813 -0.00201868 0.00000000
1.88480700 0.53476874 0.00178767 0.00000000
2.71281558 0.49832795 0.00071914 0.00000000
2.28177825 0.64697290 0.00104576 0.00000000
0.35496499 0.38689242 0.00175119 0.00000000
1.57909359 0.47569478 -0.00209906 0.00000000
3.81065005 1.00988119 -0.00147712 0.00000000
0.84033464 0.84524474 0.00461426 0.00000000
0.94337934 1.35900242 -0.00347466 0.00000000
1.81430855 1.62053384 0.00074172 0.00000000
1.96306426 1.41339495 -0.00110399 0.00000000
3.49198754 1.62903923 0.00197006 0.00000000
3.80576968 0.41866139 -0.00079274 0.00000000
4.11787444 0.66528748 0.00114897 0.00000000
0.06482103 1.80696735 -0.00105585 0.00000000
2.35678952 0.46269859 0.00401223 0.00000000
0.66914509 0.79921815 -0.00054149 0.00000000
2.63552952 0.46536168 0.00192538 0.00000000
0.97129309 0.09962923 0.00017977 0.00000000
3.70829789 1.26353141 -0.00011424 0.00000000
0.06126776 1.93878537 0.00175319 0.00000000
2.42440259 2.00969940 -0.00138737 0.00000000
1.02149493 2.01784917 -0.00107154 0.00000000
1.57257382 0.54708768 -0.00014270 0.00000000
2.00618155 1.16513661 -0.00024384 0.00000000
1.18845133 1.21738711 0.00060282 0.00000000
3.50270957 0.93218307 -0.00006545 0.00000000
1.33973948 1.66083546 -0.00347563 0.00000000
3.00175978 2.10358247 0.00440118 0.00000000
2.72860340 1.23464985 -0.00210432 0.00000000
3.94377092 1.58800189 0.00445346 0.00000000
3.28725851 1.14465413 0.00134543 0.00000000
2.41714668 2.10278238 0.00162317 0.00000000
3.53483124 0.16224311 -0.00063475 0.00000000
1.41257758 0.22887744 -0.00232177 0.00000000
3.79996882 1.19276019 0.00210711 0.00000000
3.27365728 1.90341873 0.00306577 0.00000000
3.10349319 0.16367574 0.00070267 0.00000000
4.38255853 1.72107455 -0.00046937 0.00000000
0.09461418 0.34243481 -0.00397094 0.00000000
1.57020860 1.87888067 0.00237627 0.00000000
0.45631983 0.16172178 0.00181163 0.00000000
2.96818457 0.15420118 -0.00180084 0.00000000
0.68857027 0.94644904 -0.00121706 0.00000000
3.37261686 1.91105989 0.00322428 0.00000000
1.48864136 1.29890082 0.00059240 0.00000000
4.04261341 1.61318844 -0.00367896 0.00000000
3.68428859 0.18113849 0.00166320 0.00000000
4.01163042 0.30195574 0.00017394 0.00000000
0.48284467 0.75940473 -0.00300583 0.00000000
1.16964957 1.99502595 0.00428585 0.00000000
2.48497707 1.56351202 -0.00012789 0.00000000
3.91936599 1.58154041 0.00681299 0.00000000
0.89173809 1.95026206 0.00070955 0.00000000
0.37615919 1.60202918 -0.00323595 0.00000000
4.36094343 0.37795290 -0.00075610 0.00000000
3.70814710 0.61356233 0.00451738 0.00000000
2.51918870 1.67524197 -0.00302248 0.00000000
0.54457081 1.77893961 -0.00119485 0.00000000
0.34800746 0.58869207 -0.00400570 0.00000000
3.89864592 0.76913283 -0.00627803 0.00000000
3.33257683 0.88415183 -0.00298156 0.00000000
3.66997716 0.55910262 0.00228582 0.00000000
1.64502212 0.71850742 0.00366545 0.00000000
3.07960231 0.92862735 -0.00040363 0.00000000
0.30763209 2.04739402 -0.00184743 0.00000000
4.46068142 1.13478199 -0.00211509 0.00000000
0.11708760 0.06094873 -0.00452780 0.00000000
0.15201930 1.13771048 -0.00086763 0.00000000
1.67564443 0.38635370 0.00227617 0.00000000
3.73579192 0.80062623 0.00125880 0.00000000
1.50348792 1.57090461 -0.00274281 0.00000000
0.03749914 1.50593232 -0.00045950 0.00000000
4.19475510 0.35227801 0.00269156 0.00000000
3.31905477 0.64798238 -0.00461100 0.00000000
2.19057136 0.31838536 0.00215584 0.00000000
4.09036009 1.86876214 -0.00158418 0.00000000
1.49603457 0.54880877 -0.00460217 0.00000000
1.13032809 0.73264255 0.00067497 0.00000000
2.67236412 1.12237534 -0.00216785 0.00000000
0.72975758 0.16625831 -0.00248363 0.00000000
2.80541980 0.00102094 0.00060165 0.00000000
3.26061196 0.52001121 -0.00154963 0.00000000
4.22854137 0.10466950 -0.00401517 0.00000000
0.94862824 0.43088764 -0.00094858 0.00000000
2.39954372 1.56408452 -0.00058972 0.00000000
4.01781762 0.16481860 -0.00199379 0.00000000
2.61964614 1.07634205 0.00058005 0.00000000
0.38429207 1.67320345 0.00057578 0.00000000
2.22868603 0.21047384 0.00187248 0.00000000
4.03260231 1.44612692 -0.00731146 0.00000000
0.80408525 1.72304780 0.00243859 0.00000000
1.23078880 1.98586101 -0.00097483 0.00000000
0.47008766 0.83682804 -0.00081661 0.00000000
3.21332344 0.76444073 -0.00235728 0.00000000
4.27389966 1.79295113 0.00196324 0.00000000
3.85131376 0.68047873 -0.00071394 0.00000000
0.86637034 0.49859482 -0.00174626 0.00000000
2.02275262 0.03376329 -0.00058369 0.00000000
4.28689131 1.59400187 0.00040905 0.00000000
4.24510056 0.63193005 -0.00082089 0.00000000
2.56864995 0.23206172 -0.00415173 0.00000000
2.97151313 1.95633673 -0.00414409 0.00000000
0.62392411 1.49537095 0.00406801 0.00000000
3.75934616 1.44106057 -0.00463800 0.00000000
2.04275272 1.67515405 -0.00060233 0.00000000
3.41648000 1.85092495 0.00017513 0.00000000
0.35687979 1.22842702 0.00286029 0.00000000
2.69070155 1.65327310 0.00138355 0.00000000
0.70162470 0.65230883 -0.00137886 0.00000000
2.99099635 1.94127585 0.00405258 0.00000000
3.36057696 1.50350929 0.00106024 0.00000000
3.31076577 1.01688805 0.00229586 0.00000000
4.02217920 1.18104416 -0.00013390 0.00000000
0.85573941 1.34663205 0.00528029 0.00000000
2.62703560 0.67297538 0.00129753 0.00000000
1.80231464 1.67692285 -0.00166566 0.00000000
4.38357248 0.69341719 0.00257701 0.00000000
2.29076325 0.19320371 0.00025824 0.00000000
2.25381305 1.75961763 -0.00069217 0.00000000
0.78171423 0.13597527 -0.00165718 0.00000000
1.50577940 0.48050669 0.00159588 0.00000000
2.79214408 1.18404473 0.00425146 0.00000000
0.51788857 0.79068842 0.00190892 0.00000000
3.41898076 1.57916457 -0.00241602 0.00000000
4.10500554 0.67856500 0.00197167 0.00000000
0.69829593 1.49770500 0.00233507 0.00000000
2.15226049 0.03329265 -0.00346465 0.00000000
0.56621938 0.01069190 -0.00046133 0.00000000
3.94374006 0.35246250 -0.00003556 0.00000000
4.26562409 1.90502247 -0.00582185 0.00000000
0.84433308 0.22296218 -0.00046878 0.00000000
2.87711966 1.37981140 -0.00094525 0.00000000
2.28645455 0.56877688 -0.00201652 0.00000000
0.64718164 1.24196540 0.00486335 0.00000000
0.07172272 1.02726546 -0.00177533 0.00000000
1.71263179 1.92477257 0.00136453 0.00000000
4.25888013 0.31186979 -0.00061908 0.00000000
3.73575654 0.37696192 0.00337139 0.00000000
4.29099199 0.70474838 0.00196471 0.00000000
3.42976976 0.17834575 -0.00071921 0.00000000
4.01740258 1.51144732 -0.00054602 0.00000000
3.05533400 1.91213017 -0.00228080 0.00000000
4.11732530 1.35666211 -0.00083417 0.00000000
0.32594284 0.46726151 0.00358501 0.00000000
3.36769930 1.63577121 -0.00151784 0.00000000
0.98850211 0.30810524 0.00117706 0.00000000
0.28300422 2.06123747 0.00241235 0.00000000
2.29458719 1.07877374 -0.00102550 0.00000000
4.36367802 1.07861932 0.00365443 0.00000000
1.22866197 0.36324829 -0.00042573 0.00000000
2.61872976 0.51347242 0.00098301 0.00000000
3.33875297 1.72117753 0.00256991 0.00000000
0.90774010 1.04303751 -0.00009240 0.00000000
2.53000000 0.18589355 -0.00008867 0.00000000
3.71077750 0.28136788 0.00095137 0.00000000
2.69820538 0.82215477 0.00142181 0.00000000
2.77518835 0.74117089 -0.00099971 0.00000000
1.24443582 1.28245749 0.00039143 0.00000000
0.90953351 1.23868297 -0.00273770 0.00000000
0.47043866 0.08360224 0.00305417 0.00000000
3.52567267 1.89668632 0.00139964 0.00000000
0.44693067 1.14886747 -0.00198358 0.00000000
1.27779161 1.17485476 0.00148091 0.00000000
4.16413312 1.36493264 -0.00312521 0.00000000
0.78319831 1.41700396 0.00175315 0.00000000
1.07090068 0.53672266 -0.00477879 0.00000000
4.41132724 0.56386837 0.00174177 0.00000000
0.73282745 0.11164698 0.00061791 0.00000000
0.53133921 0.50708286 0.00246034 0.00000000
2.54263298 1.44716105 0.00385512 0.00000000
2.10443035 0.67217968 0.00188480 0.00000000
0.42327557 0.96525029 0.00301390 0.00000000
2.58480309 0.85419228 -0.00089983 0.00000000
3.64048696 1.71156485 0.00130934 0.00000000
3.57438398 0.73076039 0.00031086 0.00000000
1.50123902 1.10997916 -0.00228458 0.00000000
1.79729747 1.90592380 -0.00000451 0.00000000
2.69400152 0.64116947 0.00041895 0.00000000
2.89254546 0.33697752 0.00322572 0.00000000
1.56691316 0.93135084 -0.00102804 0.00000000
3.41095223 0.09657706 -0.00038865 0.00000000
1.51833941 1.26663446 0.00147814 0.00000000
0.50361269 1.70913879 -0.00304663 0.00000000
2.43293265 0.02602082 -0.00024518 0.00000000
0.99582571 0.50691224 -0.00017824 0.00000000
4.03501372 1.60475504 -0.00239110 0.00000000
2.26825558 0.87296118 -0.00127132 0.00000000
2.32561290 0.65610773 0.00090215 0.00000000
0.13404861 1.66722857 0.00291689 0.00000000
1.18359820 0.87593229 -0.00198652 0.00000000
2.47882096 2.04104916 0.00307603 0.00000000
2.13489100 0.84345183 -0.00057881 0.00000000
0.04953909 0.44755087 0.00056289 0.00000000
0.60066451 1.61667836 0.00102655 0.00000000
3.51859116 0.28723366 0.00075574 0.00000000
3.91057714 1.83716488 0.00451978 0.00000000
0.05873959 0.60132732 -0.00305967 0.00000000
4.26170907 1.81674540 0.00112126 0.00000000
1.06062976 0.13855831 0.00345856 0.00000000
1.41559282 0.83216946 0.00085876 0.00000000
3.88323077 0.29923413 0.00338843 0.00000000
1.62474748 0.38402578 -0.00123388 0.00000000
1.14401835 0.02669952 -0.00346301 0.00000000
1.96535368 0.98844179 -0.00450387 0.00000000
1.15314250 1.65328274 -0.00162904 0.00000000
2.96124597 1.98994359 0.00115536 0.00000000
2.91173969 2.06791214 -0.00199288 0.00000000
1.57592082 0.79486052 -0.00264829 0.00000000
3.79618047 1.56291160 0.00036091 0.00000000
0.51532183 1.79829064 -0.00555125 0.00000000
1.84395694 1.68158272 0.00023253 0.00000000
2.47951716 0.25017157 -0.00309011 0.00000000
1.15497825 0.81165753 0.00158403 0.00000000
2.49689630 0.41602555 -0.00292028 0.00000000
4.31122371 1.95899195 -0.00081357 0.00000000
3.15960130 0.19870849 -0.00142649 0.00000000
4.43059627 1.39598068 -0.00278056 0.00000000
2.76096531 0.35565042 -0.00010859 0.00000000
4.39425779 1.75424371 0.00203489 0.00000000
4.35352697 0.54207830 0.00059830 0.00000000
2.05117560 0.46787704 0.00311030 0.00000000
0.15897231 0.20415846 -0.00202240 0.00000000
3.49442217 1.87260106 0.00165320 0.00000000
0.61204372 0.83393096 0.00245958 0.00000000
0.12181363 1.00712776 0.00519289 0.00000000
1.02160679 0.53606506 0.00043822 0.00000000
3.22281876 1.31277543 -0.00752932 0.00000000
0.84340107 0.00674886 -0.00056184 0.00000000
0.25255830 1.53347356 0.00039040 0.00000000
3.23238304 2.04544547 0.00180047 0.00000000
2.83931135 2.06634773 0.00391037 0.00000000
1.51524883 2.07405439 -0.00393464 0.00000000
3.41078556 1.75868841 -0.00051334 0.00000000
2.17181314 1.96647420 -0.00019889 0.00000000
1.71416142 0.24148892 0.00035920 0.00000000
3.80343649 1.23706032 -0.00571951 0.00000000
3.63442405 1.20886770 -0.00248015 0.00000000
0.83038645 0.38442673 0.00216990 0.00000000
3.30194761 0.05711063 0.00157920 0.00000000
0.99451901 2.00262383 -0.00187296 0.00000000
4.08802160 0.63826023 -0.00005269 0.00000000
1.76503739 0.36896921 -0.00089323 0.00000000
2.49077599 0.83812303 0.00049784 0.00000000
3.90291292 1.07333971 -0.00438277 0.00000000
0.60635349 0.96576337 -0.00297828 0.00000000
2.85367091 1.39634759 -0.00268511 0.00000000
2.06087242 0.52055243 0.00301660 0.00000000
1.44763375 2.09108481 0.00190016 0.00000000
1.42401285 0.79831720 -0.00264762 0.00000000
4.46388237 0.93031129 -0.00584087 0.00000000
0.43337694 1.00318103 -0.00163617 0.00000000
1.78545145 1.36229218 0.00185821 0.00000000
3.38598502 1.43222870 0.00122084 0.00000000
3.99665315 0.44564208 -0.00120224 0.00000000
3.43061131 0.51267204 -0.00059450 0.00000000
3.25805506 0.42376622 -0.00019314 0.00000000
3.94535634 0.71383528 -0.00038527 0.00000000
4.22709649 1.51467937 -0.00177794 0.00000000
4.08267259 0.53553835 0.00415391 0.00000000
1.56033940 1.91901496 0.00330149 0.00000000
3.58599046 1.55361253 0.00256292 0.00000000
0.49133699 1.69023433 -0.00050003 0.00000000
2.92060955 1.86799489 0.00370446 0.00000000
1.10468716 1.32372483 0.00014466 0.00000000
0.99565850 1.16037649 0.00428396 0.00000000
3.84347660 0.20823229 -0.00241520 0.00000000
0.68225163 1.25005537 0.00053502 0.00000000
3.63640781 1.56142631 -0.00060080 0.00000000
4.01507607 0.11439378 -0.00331765 0.00000000
3.57150364 1.34104960 -0.00243339 0.00000000
0.46013241 0.72317422 -0.00131121 0.00000000
3.96632421 0.30660882 -0.00142389 0.00000000
3.64624156 2.01845693 0.00029924 0.00000000
0.29166436 1.32974123 -0.00574489 0.00000000
3.55199973 1.58773783 -0.00021568 0.00000000
3.60915701 1.73575659 -0.00149441 0.00000000
1.81997906 1.98265626 -0.00218863 0.00000000
2.96868731 1.85570244 0.00063385 0.00000000
3.80687329 0.15675005 0.00298273 0.00000000
3.77008715 2.07428383 -0.00201839 0.00000000
2.12137967 0.99415486 0.00004702 0.00000000
1.11462124 1.06685422 0.00427316 0.00000000
3.80255963 1.69552364 0.00260935 0.00000000
2.80150891 1.15553265 0.00144106 0.00000000
1.26221207 0.74819937 -0.00199791 0.00000000
3.26319538 1.64749764 -0.00037441 0.00000000
2.78030758 1.59783763 0.00003199 0.00000000
4.05991096 0.81618303 -0.00492328 0.00000000
2.38212325 1.05834439 0.00078686 0.00000000
0.75466545 1.47475576 0.00378683 0.00000000
4.14727485 0.73557654 0.00223313 0.00000000
4.31797732 1.11029391 -0.00273024 0.00000000
0.09185957 1.12554189 0.00181548 0.00000000
2.19918989 1.78830453 -0.00071934 0.00000000
2.10833941 0.30387801 0.00158994 0.00000000
3.73119272 1.97664350 -0.00348155 0.00000000
3.82815114 0.24935342 -0.00363081 0.00000000
1.51956708 1.46630372 0.00234366 0.00000000
2.44942645 1.39130339 0.00096495 0.00000000
3.58569269 1.35847661 0.00178228 0.00000000
3.25194092 0.20639243 0.00344409 0.00000000
0.02765722 0.37722976 0.00017427 0.00000000
1.48860291 1.51877129 0.00097311 0.00000000
3.82031113 1.67152807 -0.00292326 0.00000000
1.44199404 0.87502380 -0.00061148 0.00000000
2.99178609 0.32291331 -0.00040005 0.00000000
1.54297875 2.10662557 0.00127639 0.00000000
0.21860796 0.16844278 0.00162485 0.00000000
2.91190935 0.70555315 0.00402055 0.00000000
3.37437061 1.23942749 -0.00207586 0.00000000
4.08914101 0.43372609 0.00043467 0.00000000
0.37543458 0.27585186 0.00082904 0.00000000
0.14650663 1.08952858 0.00743215 0.00000000
3.19084514 1.67300009 -0.00057018 0.00000000
0.09046819 1.77138254 0.00379805 0.00000000
3.87432493 0.81294071 0.00117025 0.00000000
1.69689031 1.64235625 0.00190633 0.00000000
0.25507324 1.56300989 -0.00250155 0.00000000
3.70846380 1.31065933 -0.00238963 0.00000000
3.29931170 0.73446593 -0.00104396 0.00000000
2.80314132 0.58576139 -0.00091236 0.00000000
3.31213317 0.15228666 0.00158862 0.00000000
1.61550230 0.58840841 -0.00282771 0.00000000
3.35720083 1.22044586 0.00112191 0.00000000
0.66766671 0.32657964 0.00017050 0.00000000
2.81004800 0.02594492 -0.00028428 0.00000000
2.65611927 0.29619355 -0.00307316 0.00000000
2.40840505 1.79627371 -0.00100780 0.00000000
4.24480735 1.65822003 0.00124029 0.00000000
3.22705943 0.00810877 0.00094733 0.00000000
0.07407983 1.89909096 0.00379648 0.00000000
2.04616294 0.49126962 0.00183201 0.00000000
1.25516926 0.26088517 -0.00070664 0.00000000
0.47974008 0.12196619 0.00231181 0.00000000
0.20012027 1.97195583 0.00011196 0.00000000
2.60400687 1.82313238 0.00318512 0.00000000
3.22692470 1.88142177 0.00430640 0.00000000
0.88945386 0.07667551 -0.00259756 0.00000000
3.79131650 1.77244349 0.00285538 0.00000000
2.37814928 1.83551378 0.00054771 0.00000000
1.97768457 0.03866355 -0.00137886 0.00000000
2.77784565 0.11052273 0.00102823 0.00000000
3.93092177 1.88586951 -0.00232617 0.00000000
0.25485738 0.95102951 -0.00012115 0.00000000
3.42559428 0.10465199 0.00274281 0.00000000
0.95216281 0.01647783 0.00143183 0.00000000
2.57676898 1.22945038 0.00237385 0.00000000
0.26005264 2.06142329 0.00239810 0.00000000
0.67855572 1.97874639 -0.00185714 0.00000000
2.12255904 0.93567166 0.00153924 0.00000000
0.77970484 1.65637725 -0.00011855 0.00000000
0.72857684 2.03960298 -0.00064191 0.00000000
2.82883562 1.60318259 0.00146819 0.00000000
2.21456087 0.75713615 0.00263880 0.00000000
3.41909257 1.75038157 0.00145649 0.00000000
4.04213386 1.52230738 -0.00223567 0.00000000
3.24885512 1.55497858 -0.00102380 0.00000000
3.68924593 1.54671223 -0.00008261 0.00000000
2.56476284 0.92785981 -0.00296790 0.00000000
2.24700315 1.93137835 0.00114334 0.00000000
2.93302553 0.46847072 -0.00040409 0.00000000
1.30165945 1.16629157 -0.00041639 0.00000000
3.30243006 0.99368499 -0.00310382 0.00000000
3.68658353 1.38910487 0.00299137 0.00000000
1.65316842 0.64838124 0.00269484 0.00000000
1.65431402 0.36477771 -0.00144085 0.00000000
2.96686864 0.19196208 0.00465208 0.00000000
2.06691031 0.53965340 0.00052638 0.00000000
0.59639358 0.65500486 0.00191911 0.00000000
4.30210685 0.14866847 -0.00213178 0.00000000
0.97293521 1.67274481 0.00053219 0.00000000
1.58602838 1.22065432 0.00066251 0.00000000
4.12404466 0.08215445 -0.00167399 0.00000000
1.86453599 1.78248146 0.00229279 0.00000000
2.66013839 1.46591360 -0.00075921 0.00000000
3.24922658 0.25813704 0.00031698 0.00000000
2.96795110 0.74157235 0.00000851 0.00000000
1.55047943 1.64721431 -0.00233635 0.00000000
4.46327851 1.01586402 -0.00077759 0.00000000
1.54096111 0.38051339 -0.00479441 0.00000000
2.23729815 0.31752329 0.00180040 0.00000000
1.01227205 0.49802516 -0.00479033 0.00000000
0.75654361 0.24975949 -0.00197264 0.00000000
0.10625374 0.99899255 0.00219870 0.00000000
0.01437188 1.48674755 -0.00161348 0.00000000
0.17092405 0.21195265 0.00257052 0.00000000
1.86131059 0.95759976 -0.00122742 0.00000000
0.02235107 0.83319676 -0.00095063 0.00000000
0.02578328 0.90666188 -0.00078000 0.00000000
3.54434737 0.40210203 0.00220254 0.00000000
0.06774477 0.77705133 0.00107871 0.00000000
4.35167218 1.82117337 0.00243504 0.00000000
2.23347766 0.51828506 -0.00203092 0.00000000
0.71613606 1.77802057 -0.00601834 0.00000000
2.40182444 0.06799028 -0.00140107 0.00000000
3.06195792 0.27597941 0.00145323 0.00000000
3.07287969 0.13291763 -0.00014062 0.00000000
4.31098408 0.07533055 0.00221140 0.00000000
1.01541277 1.30476671 0.00124047 0.00000000
2.77449608 0.19518248 -0.00143285 0.00000000
2.95181710 1.82665332 -0.00225601 0.00000000
0.91917753 1.36708034 -0.00172943 0.00000000
1.20124760 0.76369366 0.00266668 0.00000000
1.95058428 0.77236791 0.00280984 0.00000000
3.54985141 1.24949017 0.00358791 0.00000000
1.10482843 1.54749132 0.00029613 0.00000000
2.21011649 1.51190815 -0.00245644 0.00000000
1.64712691 0.68209517 0.00249196 0.00000000
0.09724186 1.38475433 0.00434057 0.00000000
3.96837968 1.14496843 0.00170857 0.00000000
0.84764208 0.22710090 -0.00366154 0.00000000
4.39891310 1.97723128 -0.00101995 0.00000000
4.31099598 1.61755867 0.00116342 0.00000000
2.76059155 1.07205855 0.00374278 0.00000000
1.65959569 0.84854500 0.00053108 0.00000000
1.73054581 1.89266923 -0.00061247 0.00000000
0.29362615 1.31632842 -0.00207416 0.00000000
1.40774941 1.61692216 -0.00255331 0.00000000
0.86575945 1.81639332 -0.00025199 0.00000000
1.27223211 2.01934520 -0.00393611 0.00000000
0.65083684 1.53836526 -0.00179008 0.00000000
0.80857894 1.70619394 -0.00252631 0.00000000
0.12993100 0.85855341 0.00171171 0.00000000
0.90291584 1.82436293 -0.00137613 0.00000000
3.36469714 1.82281408 0.00326783 0.00000000
3.91165275 0.70072188 0.00133518 0.00000000
1.20529523 0.09510821 0.00328355 0.00000000
3.39381174 1.60362402 -0.00714135 0.00000000
3.63522861 1.19345687 -0.00196217 0.00000000
2.22358418 0.16912913 0.00056809 0.00000000
0.27990262 1.29715471 0.00211690 0.00000000
0.80106856 2.01581476 -0.00032931 0.00000000
0.41698894 1.87481351 0.00128931 0.00000000
0.61041023 0.94676273 -0.00190292 0.00000000
0.29704174 1.10500504 0.00010360 0.00000000
3.56313326 1.66431457 -0.00053191 0.00000000
3.50950667 0.49194474 -0.00208183 0.00000000
0.71044275 1.01749749 0.00343356 0.00000000
0.08632470 2.03631597 -0.00161731 0.00000000
0.21677240 1.80121264 -0.00161652 0.00000000
1.55951238 1.32205612 -0.00134060 0.00000000
0.72549627 0.47554471 -0.00129276 0.00000000
4.13053447 0.38797892 0.00071223 0.00000000
2.45587170 1.24781394 -0.00070609 0.00000000
3.26222125 1.44101104 0.00215464 0.00000000
3.11914866 0.16209610 0.00016327 0.00000000
3.14841177 0.92669755 0.00081749 0.00000000
3.69507054 1.58495161 -0.00134513 0.00000000
0.64376416 1.19408362 -0.00039347 0.00000000
1.00246585 0.02201532 0.00211371 0.00000000
4.32719560 0.75622052 0.00300854 0.00000000
1.75958414 0.30134671 0.00003091 0.00000000
3.15810856 0.60578760 0.00147634 0.00000000
0.23139759 0.46983451 -0.00156377 0.00000000
1.50270579 1.78968735 0.00118472 0.00000000
0.91358059 0.17749428 0.00362790 0.00000000
3.16312898 1.51859225 0.00059625 0.00000000
1.87819800 1.02149911 -0.00077886 0.00000000
2.33068088 0.56899830 -0.00137438 0.00000000
3.33002898 0.58332305 -0.00028523 0.00000000
3.97510264 2.03636105 -0.00063394 0.00000000
2.88431249 1.32037036 0.00142326 0.00000000
2.03813364 0.74702718 0.00007837 0.00000000
1.48942072 0.41389301 -0.00174162 0.00000000
3.82337065 1.08080210 -0.00247646 0.00000000
2.95275608 0.53291386 0.00105051 0.00000000
1.18090587 0.63629016 0.00215390 0.00000000
1.64266577 1.90198918 0.00000216 0.00000000
2.88388216 0.27416207 0.00471410 0.00000000
3.69533546 2.07407687 0.00256266 0.00000000
0.16667965 0.13758082 0.00021787 0.00000000
0.96162946 0.54210010 -0.00185142 0.00000000
0.05062049 0.54316238 -0.00199170 0.00000000
3.90167619 1.32293077 -0.00064229 0.00000000
1.87440339 1.52021251 -0.00470383 0.00000000
1.89187298 1.44245256 -0.00189291 0.00000000
1.56501912 1.69589426 0.00142382 0.00000000
4.38191065 2.09927903 0.00102281 0.00000000
3.70573079 1.67487085 -0.00005069 0.00000000
1.70424487 0.95593545 -0.00333768 0.00000000
0.43107809 2.01423163 -0.00070262 0.00000000
4.34805547 2.02689039 0.00341712 0.00000000
1.70969852 0.19314433 -0.00099313 0.00000000
3.15743300 1.29514975 -0.00156275 0.00000000
3.08715931 2.00050586 0.00070171 0.00000000
2.38130461 1.45332583 0.00086352 0.00000000
2.47052176 1.25336111 -0.00014741 0.00000000
1.47735043 1.41791362 -0.00275987 0.00000000
2.53500385 0.52095755 0.00294738 0.00000000
3.59815654 0.32378236 -0.00387444 0.00000000
4.02171133 0.58814942 0.00336668 0.00000000
1.09734921 2.05066968 0.00279266 0.00000000
0.17729606 1.53616169 0.00235513 0.00000000
1.69391701 0.29390184 -0.00224229 0.00000000
4.21775191 1.10901977 0.00026712 0.00000000
3.54167468 0.69296072 -0.00030032 0.00000000
0.67534319 0.11507313 0.00268213 0.00000000
3.46809094 1.92879741 0.00022996 0.00000000
2.07613208 2.05071977 -0.00132527 0.00000000
2.54676706 1.91123210 0.00217986 0.00000000
0.24790954 0.54544693 0.00080951 0.00000000
2.09787266 0.28329363 -0.00130583 0.00000000
2.22870623 1.14209747 -0.00022247 0.00000000
4.35638341 1.50589255 -0.00010176 0.00000000
3.62520494 0.59743412 0.00239706 0.00000000
2.27873044 0.27663112 -0.00193633 0.00000000
4.31860258 0.66289064 -0.00406571 0.00000000
3.43388126 0.44585976 0.00152772 0.00000000
0.56381359 1.18540443 -0.00083164 0.00000000
3.72663031 1.44071762 -0.00043556 0.00000000
0.10016159 1.68072894 0.00242521 0.00000000
3.46982529 0.15027896 -0.00451377 0.00000000
1.02299714 0.86753293 0.00254335 0.00000000
0.46868671 0.35099364 0.00065353 0.00000000
3.61507909 1.01474035 -0.00041738 0.00000000
1.35772564 0.80619672 0.00004227 0.00000000
1.18221387 0.60499015 -0.00318086 0.00000000
2.22016430 1.03747438 -0.00182928 0.00000000
1.12202678 1.43339183 -0.00117172 0.00000000
3.71271255 0.92154406 -0.00061605 0.00000000
3.57237781 1.81268386 -0.00099230 0.00000000
3.40235076 1.63201570 0.00400243 0.00000000
0.25420591 1.35858699 -0.00195270 0.00000000
4.20707219 0.30220163 -0.00065991 0.00000000
2.00226929 2.10706379 -0.00053306 0.00000000
3.52625264 1.27403205 -0.00105513 0.00000000
1.80415406 1.96021572 0.00358698 0.00000000
2.97343896 0.78355439 -0.00154306 0.00000000
3.08577023 0.99434073 -0.00023260 0.00000000
3.96905464 0.70472108 -0.00241008 0.00000000
2.83577304 0.48391088 0.00400854 0.00000000
4.36724981 0.72384572 0.00039439 0.00000000
1.60153302 0.54905481 0.00449318 0.00000000
4.39307094 0.74120258 -0.00077483 0.00000000
0.97821276 0.70566566 -0.00013506 0.00000000
3.20565720 0.70409002 0.00005535 0.00000000
1.76735541 0.76309550 0.00253837 0.00000000
1.97433359 1.97838781 0.00429317 0.00000000
1.95218671 1.91338416 0.00022228 0.00000000
0.48990275 0.39075505 -0.00058832 0.00000000
0.88643505 0.44954872 0.00374200 0.00000000
4.14581728 1.74704335 -0.00362850 0.00000000
2.86338973 1.75227391 -0.00051614 0.00000000
0.07843878 2.08658509 0.00540849 0.00000000
0.12475913 0.32665513 0.00135901 0.00000000
1.60682154 1.80842571 0.00337868 0.00000000
1.57139215 0.70735188 -0.00262955 0.00000000
1.23225455 1.18021681 -0.00103055 0.00000000
3.39587985 1.18438273 0.00096356 0.00000000
3.91965226 0.89034772 0.00170037 0.00000000
1.98147142 0.37343077 -0.00105578 0.00000000
2.92999294 0.86438051 0.00066921 0.00000000
2.66639658 1.43046785 0.00123195 0.00000000
3.35837758 1.66622496 0.00072424 0.00000000
0.08399057 1.06806067 0.00086096 0.00000000
0.12570675 1.19003800 -0.00019204 0.00000000
4.04939865 0.97625538 0.00013484 0.00000000
0.89126318 1.55496660 0.00075862 0.00000000
3.26913098 1.68555708 0.00063065 0.00000000
2.10163761 0.52040944 0.00515017 0.00000000
4.32803241 1.07188442 -0.00184379 0.00000000
0.18981697 0.26086163 0.00203493 0.00000000
4.24993465 1.66175570 -0.00476503 0.00000000
1.29731129 1.56006963 0.00055364 0.00000000
4.27960684 1.61201142 0.00057402 0.00000000
0.57498783 1.28727020 -0.00097269 0.00000000
1.46463440 1.07433163 -0.00345498 0.00000000
2.74201106 1.75282027 -0.00208025 0.00000000
3.84015615 0.57252597 -0.00282494 0.00000000
0.15340027 1.36919731 0.00115229 0.00000000
1.75247340 0.40006855 0.00638364 0.00000000
2.65639679 0.70698606 -0.00275099 0.00000000
0.32911834 1.58232740 -0.00051541 0.00000000
3.96413533 0.01182795 -0.00028074 0.00000000
3.36200019 0.94232004 0.00422794 0.00000000
2.11497029 1.50494971 0.00198911 0.00000000
2.55647710 2.08414746 -0.00092305 0.00000000
3.05870137 0.03829365 0.00224556 0.00000000
2.61516853 1.90720664 0.00488764 0.00000000
0.41867502 0.83862893 0.00156744 0.00000000
0.43480871 0.40073138 0.00404475 0.00000000
3.63548046 0.45055957 -0.00307540 0.00000000
