0.15949227 0.97823666 -0.00463397 0.00000000
3.60822162 0.33601282 0.00160248 0.00000000
3.24217710 1.75426493 -0.00458659 0.00000000
1.72037235 2.12091888 -0.00047404 0.00000000
2.78728195 1.60828924 0.00159112 0.00000000
2.38091359 1.27878547 -0.00171811 0.00000000
2.67443508 0.16240932 0.00013297 0.00000000
3.34397330 2.45518742 0.00085255 0.00000000
3.11617188 0.76344395 0.00205051 0.00000000
0.51441465 0.36241404 0.00103000 0.00000000
1.52441198 1.35237074 -0.00042102 0.00000000
3.68662183 2.36624964 0.00361457 0.00000000
1.32032958 1.11552681 -0.00375193 0.00000000
3.93558136 0.59586188 0.00389086 0.00000000
3.95558339 2.45369119 0.00288200 0.00000000
3.62341414 0.82908588 0.00070363 0.00000000
1.21727822 0.52232978 -0.00116362 0.00000000
0.49110099 0.07955598 -0.00336464 0.00000000
1.79900334 0.50351304 0.00167543 0.00000000
1.33740249 1.36202043 -0.00262976 0.00000000
0.89054575 1.54152803 -0.00036032 0.00000000
1.44850425 1.89844128 -0.00232180 0.00000000
3.82715152 0.96348217 -0.00729451 0.00000000
1.35791258 0.06184799 -0.00161250 0.00000000
3.44153031 0.03858180 -0.00026225 0.00000000
0.66379755 1.21332872 -0.00062130 0.00000000
3.87842875 0.18357646 0.00124133 0.00000000
0.47119196 0.65151855 -0.00021712 0.00000000
1.35684719 2.40548745 0.00071421 0.00000000
3.19506889 0.00784071 0.00136621 0.00000000
0.79784335 1.70423281 -0.00269896 0.00000000
4.02482350 1.10236625 0.00352557 0.00000000
3.82574026 0.01888314 0.00308865 0.00000000
2.55818535 0.57895040 -0.00136746 0.00000000
3.48379233 1.66920156 -0.00238029 0.00000000
3.06590417 0.78238299 0.00076564 0.00000000
3.05375027 1.04186514 0.00414756 0.00000000
0.55982850 0.05521265 0.00044332 0.00000000
2.31045963 0.39721337 -0.00097374 0.00000000
1.34276255 0.21135650 -0.00014867 0.00000000
1.78805787 0.15301785 -0.00272450 0.00000000
2.68463310 0.02149813 -0.00378526 0.00000000
4.04387725 2.39703713 0.00022866 0.00000000
1.94931299 2.02612507 0.00104972 0.00000000
2.41976052 0.64555308 0.00187942 0.00000000
0.52660288 1.67747927 0.00238833 0.00000000
2.40192022 0.73235726 0.00085848 0.00000000
3.57806147 0.99807068 -0.00355419 0.00000000
1.56023672 2.20268941 0.00348536 0.00000000
2.91054238 1.78319704 -0.00147817 0.00000000
3.10940600 2.04379537 0.00206728 0.00000000
2.04102790 0.78064953 0.00117170 0.00000000
3.06029129 0.65977094 0.00170252 0.00000000
3.74589682 0.40139014 0.00244630 0.00000000
4.07007531 1.22509507 0.00165659 0.00000000
0.82801441 0.34242142 -0.00279953 0.00000000
0.81379189 0.92784253 0.00110412 0.00000000
1.38988121 0.74096903 0.00209163 0.00000000
2.17025202 1.31093058 0.00186458 0.00000000
1.11411560 1.64390234 0.00101059 0.00000000
0.58766634 1.61152946 -0.00285494 0.00000000
3.41586124 2.26879240 0.00049645 0.00000000
3.98590616 1.94436936 0.00154811 0.00000000
1.97137898 0.65843843 -0.00040124 0.00000000
1.23810334 1.27404199 0.00301500 0.00000000
1.44332105 1.02766434 0.00091795 0.00000000
1.03278348 1.57265667 0.00325403 0.00000000
1.93134178 0.12739390 0.00607415 0.00000000
1.31205015 0.38762516 0.00125380 0.00000000
0.83717455 1.64660616 0.00293227 0.00000000
0.84416139 1.85134047 -0.00105721 0.00000000
1.32032236 0.14991678 0.00143688 0.00000000
3.05047731 0.55654624 -0.00241351 0.00000000
3.68002634 0.38170692 -0.00117245 0.00000000
0.62027988 0.41786755 0.00092915 0.00000000
1.75967837 0.08663433 -0.00084763 0.00000000
1.87396543 1.21083891 -0.00152774 0.00000000
0.08268597 1.70673127 -0.00317553 0.00000000
0.55572237 1.44354515 -0.00100478 0.00000000
1.47063816 1.42333945 -0.00132178 0.00000000
2.17284016 1.12936354 -0.00177009 0.00000000
2.27294287 2.20890806 -0.00135544 0.00000000
1.21896740 0.05378271 -0.00103333 0.00000000
0.83968177 1.88528973 0.00127053 0.00000000
1.15270838 0.26098109 -0.00516869 0.00000000
0.77504199 1.75828766 0.00302340 0.00000000
0.65792846 0.62647851 0.00248522 0.00000000
1.64301817 2.38786164 0.00087069 0.00000000
1.40727319 0.23341040 0.00487432 0.00000000
2.64456438 1.57587238 -0.00237677 0.00000000
0.57022223 0.72186075 -0.00321475 0.00000000
1.60952308 1.51173379 0.00291622 0.00000000
1.93926572 1.69665098 -0.00487037 0.00000000
0.16836460 1.73567053 -0.00404408 0.00000000
2.16928199 0.16859822 -0.00052964 0.00000000
1.61541973 0.61686543 -0.00263757 0.00000000
3.60897443 1.59780929 0.00327989 0.00000000
1.71230302 1.66292964 -0.00001542 0.00000000
1.96667267 1.22826729 0.00020039 0.00000000
3.39487117 1.26714937 -0.00357290 0.00000000
3.12036601 1.69873373 0.00164682 0.00000000
1.69967094 1.72950517 -0.00332494 0.00000000
1.57764986 0.26683043 -0.00170338 0.00000000
1.93633503 1.24456240 -0.00064790 0.00000000
3.75213429 0.80106546 -0.00296247 0.00000000
1.45500454 1.54966805 0.00226122 0.00000000
1.04344521 1.00481544 0.00018590 0.00000000
1.28916665 1.53149185 0.00092601 0.00000000
1.57993467 0.55149411 -0.00253908 0.00000000
2.25973767 0.42096250 -0.00279876 0.00000000
2.92257361 1.97040252 0.00097595 0.00000000
2.76590725 2.28102849 0.00015012 0.00000000
2.18743150 0.20130225 -0.00144573 0.00000000
0.53672245 2.45629075 0.00198751 0.00000000
0.18222852 1.79653739 -0.00203381 0.00000000
0.70612393 1.28369074 -0.00030425 0.00000000
0.18497525 1.89673671 -0.00372795 0.00000000
1.95212562 0.34556098 0.00277934 0.00000000
0.85109507 1.79327726 0.00187696 0.00000000
0.27483290 0.74020698 0.00083337 0.00000000
3.31176236 1.39641542 -0.00312122 0.00000000
3.14595208 2.17494391 -0.00574038 0.00000000
3.11129919 2.41210669 0.00448291 0.00000000
2.32362435 0.17238608 -0.00537437 0.00000000
2.01406705 0.96218440 -0.00404004 0.00000000
4.04359248 1.53828605 0.00288421 0.00000000
4.03005695 1.77410953 -0.00323547 0.00000000
1.31819888 1.88853458 -0.00302362 0.00000000
1.80359982 1.21819200 0.00255578 0.00000000
2.13671277 1.18266148 0.00113932 0.00000000
2.82556578 2.43559435 -0.00172975 0.00000000
2.90350871 0.11038261 0.00317378 0.00000000
3.36304861 0.01483059 -0.00235645 0.00000000
2.36724220 2.06626329 -0.00054523 0.00000000
2.72781253 0.57413789 -0.00324796 0.00000000
3.49394722 1.39560625 -0.00111863 0.00000000
2.51667185 1.19515815 -0.00231146 0.00000000
2.40703235 2.29228265 -0.00254059 0.00000000
3.26628125 1.94463797 0.00136910 0.00000000
2.96447905 0.38952358 -0.00252877 0.00000000
3.36934845 1.12249148 -0.00500432 0.00000000
1.30445538 0.54763696 -0.00316550 0.00000000
2.01160527 0.48544882 -0.00343051 0.00000000
3.45797864 1.91725192 -0.00094468 0.00000000
2.04240685 1.64243766 -0.00126777 0.00000000
0.36728373 0.77605725 -0.00125228 0.00000000
1.78281161 0.34400828 0.00179298 0.00000000
1.83358730 0.40348039 -0.00022397 0.00000000
0.34765063 0.31861956 -0.00237165 0.00000000
0.94633367 1.79589379 0.00441775 0.00000000
0.25491079 0.89815491 0.00353504 0.00000000
2.60040966 1.74593386 -0.00506620 0.00000000
2.91819080 0.64426293 -0.00017805 0.00000000
3.45233605 0.96834742 -0.00326281 0.00000000
3.58207698 1.95797993 -0.00177390 0.00000000
2.00890191 1.59181032 -0.00015990 0.00000000
1.88937038 1.22193003 0.00367809 0.00000000
2.69471330 1.66805497 -0.00188119 0.00000000
3.87522737 1.99081455 -0.00259807 0.00000000
2.71772603 1.44688125 0.00078895 0.00000000
2.46373159 0.25929222 0.00464440 0.00000000
1.25751155 0.60924068 0.00007226 0.00000000
1.01459343 0.22122619 -0.00136248 0.00000000
2.06803163 0.35858233 -0.00021444 0.00000000
2.99956662 2.13241599 0.00470832 0.00000000
1.18492434 2.23891406 -0.00120155 0.00000000
1.27581886 1.44488929 -0.00158858 0.00000000
1.20808215 2.12701041 0.00142302 0.00000000
2.97656219 2.39046360 0.00036412 0.00000000
1.25949456 2.13420046 0.00284709 0.00000000
0.86237108 0.69343502 0.00109209 0.00000000
2.57384690 1.63552400 -0.00065342 0.00000000
1.00008561 1.13610857 0.00470886 0.00000000
1.01501815 1.47698632 -0.00038448 0.00000000
3.90084534 2.36602120 0.00359780 0.00000000
3.43461677 1.13990780 0.00059368 0.00000000
3.32573679 2.43126097 0.00084522 0.00000000
0.75522556 2.17544327 0.00301415 0.00000000
1.16182456 0.01491326 -0.00244509 0.00000000
0.66103931 0.94084432 -0.00131845 0.00000000
1.64319157 0.82579466 -0.00329972 0.00000000
1.40601278 2.23332415 -0.00098453 0.00000000
4.04238059 1.54517403 0.00087967 0.00000000
2.60832905 2.15377657 0.00184127 0.00000000
3.38370336 0.98764768 0.00273372 0.00000000
2.31584824 1.42940485 0.00144382 0.00000000
1.59103533 2.12526749 0.00465634 0.00000000
1.01744915 1.35090827 -0.00122364 0.00000000
3.76542634 0.57562307 -0.00312054 0.00000000
2.15374061 0.51145372 -0.00026913 0.00000000
0.04257906 0.58950611 0.00222899 0.00000000
3.92246722 0.31877525 -0.00024177 0.00000000
0.94549293 1.25194029 0.00221111 0.00000000
3.68502785 1.30817038 -0.00028951 0.00000000
1.59619241 0.10999411 -0.00122652 0.00000000
3.26982413 1.55034874 0.00200274 0.00000000
2.50830213 2.14255272 0.00082304 0.00000000
2.07380375 0.30803057 -0.00248524 0.00000000
0.38563519 1.90471841 0.00207138 0.00000000
3.53009327 0.82190593 0.00099924 0.00000000
1.59582647 1.31864195 -0.00119963 0.00000000
3.73149734 0.10099007 0.00034886 0.00000000
0.44075327 1.66266547 0.00095000 0.00000000
1.91650507 0.14647718 0.00432477 0.00000000
2.90759622 0.55278790 -0.00021140 0.00000000
3.39169364 0.79086517 0.00177493 0.00000000
2.77881146 0.77123765 0.00168113 0.00000000
0.15689536 0.33836266 0.00118284 0.00000000
1.73829554 0.47335997 -0.00007873 0.00000000
1.62016712 0.77982669 0.00384489 0.00000000
1.21614758 1.99996865 0.00222662 0.00000000
1.32288765 2.36590052 0.00433257 0.00000000
0.92511315 0.29632773 0.00089976 0.00000000
1.75315660 1.61964580 -0.00203470 0.00000000
3.44628105 1.58505997 0.00255272 0.00000000
3.89637937 2.31541210 0.00113563 0.00000000
0.80913763 0.23183670 -0.00030658 0.00000000
3.19296498 0.55313074 0.00109917 0.00000000
3.51322073 1.76182883 0.00283690 0.00000000
1.23748746 1.52226162 0.00191765 0.00000000
3.50025151 2.14226925 0.00121424 0.00000000
0.95972384 2.26296731 -0.00026170 0.00000000
1.97530220 1.12251587 -0.00000867 0.00000000
2.54997845 0.72372887 0.00406209 0.00000000
3.22268350 2.20876596 0.00372750 0.00000000
2.49438273 1.41551021 -0.00521273 0.00000000
3.82682292 1.62954488 -0.00574422 0.00000000
2.86721011 2.11175127 -0.00308788 0.00000000
2.16961518 0.29568990 0.00234737 0.00000000
3.15775618 0.95205441 -0.00005755 0.00000000
0.01129549 0.73467254 0.00051631 0.00000000
0.87744183 2.38397571 -0.00169393 0.00000000
2.97642810 0.85690753 0.00164016 0.00000000
2.18307174 1.37949535 0.00151092 0.00000000
1.97141297 0.02077769 0.00202507 0.00000000
0.48318366 1.53876224 0.00000343 0.00000000
1.55725108 0.87456954 0.00567565 0.00000000
0.81344710 0.12924592 -0.00191927 0.00000000
1.28796636 1.36571851 -0.00116460 0.00000000
0.69272091 1.30631364 0.00218902 0.00000000
1.71069959 0.28964993 -0.00150858 0.00000000
2.60878850 1.70781390 -0.00132877 0.00000000
3.30197976 0.29241445 0.00331247 0.00000000
0.89129992 1.61714198 -0.00305249 0.00000000
3.71359591 0.00652879 0.00330399 0.00000000
0.77133856 0.04556828 0.00099404 0.00000000
1.46999616 0.62612456 0.00442408 0.00000000
3.63701521 2.23308690 0.00273720 0.00000000
4.03892413 0.08021714 0.00027825 0.00000000
2.31843192 2.35248960 0.00217958 0.00000000
2.43165720 2.29450986 -0.00089348 0.00000000
0.60010318 2.36043438 0.00266934 0.00000000
2.23091708 0.47287786 -0.00321486 0.00000000
1.58541486 0.19568218 0.00184650 0.00000000
1.51178276 0.72978848 -0.00017331 0.00000000
0.34895628 0.01966824 -0.00098004 0.00000000
2.97888376 1.40933670 0.00040044 0.00000000
3.13329973 1.42283045 0.00356508 0.00000000
0.40927716 2.41824348 0.00266511 0.00000000
3.80247569 0.26912518 -0.00167059 0.00000000
2.10991709 1.63839441 0.00146403 0.00000000
1.74306706 1.03346685 -0.00214145 0.00000000
3.46088030 1.20209590 -0.00373103 0.00000000
0.14972595 0.19649537 -0.00125222 0.00000000
2.65158449 0.59625983 0.00089826 0.00000000
3.13217705 1.20812791 -0.00311192 0.00000000
2.89855407 1.24473289 0.00283383 0.00000000
2.84309397 0.76855349 -0.00130668 0.00000000
1.03128323 1.30360303 -0.00163717 0.00000000
3.36256229 1.79925145 -0.00139909 0.00000000
3.16022160 1.60868236 -0.00039325 0.00000000
2.83481573 1.22042976 0.00310787 0.00000000
1.26902986 1.78945094 0.00079484 0.00000000
2.38878277 1.98979555 0.00458583 0.00000000
3.14885807 0.57107779 0.00059747 0.00000000
1.95200116 2.25810032 0.00045938 0.00000000
0.54552100 1.81326665 0.00411384 0.00000000
1.75331194 2.45389747 0.00229559 0.00000000
0.33077550 2.33443107 0.00000490 0.00000000
1.54429736 0.82843000 0.00054046 0.00000000
1.32011781 0.37909180 0.00743029 0.00000000
0.46618002 0.95763986 -0.00580795 0.00000000
1.40404600 0.44548238 0.00520261 0.00000000
1.75153934 2.11957241 -0.00307540 0.00000000
2.87901636 0.36054562 0.00381814 0.00000000
0.31289789 2.33635966 -0.00125319 0.00000000
1.02837754 2.23769020 -0.00269078 0.00000000
0.50303567 1.39058365 0.00524323 0.00000000
1.49591051 0.49104041 -0.00109285 0.00000000
3.95349912 0.07337985 0.00199435 0.00000000
2.08075753 2.03821983 0.00187919 0.00000000
1.75811396 2.25959822 0.00239233 0.00000000
2.71963643 1.49322297 0.00152878 0.00000000
1.62286506 2.41211948 -0.00056844 0.00000000
0.70628609 1.09559928 -0.00429472 0.00000000
1.91371232 0.17314509 -0.00138907 0.00000000
3.44308216 1.76261413 0.00172815 0.00000000
0.54439678 0.49535358 -0.00577712 0.00000000
0.43374302 1.07770982 -0.00027811 0.00000000
1.84757555 1.12452379 0.00390090 0.00000000
3.10454140 1.06457889 -0.00349235 0.00000000
1.74341866 2.44717274 -0.00230471 0.00000000
1.22652554 1.49987433 0.00381676 0.00000000
1.70458044 1.14252510 0.00060526 0.00000000
0.67904741 2.08568968 -0.00399313 0.00000000
1.44778737 1.78436939 -0.00175350 0.00000000
3.49435491 0.27738227 -0.00016624 0.00000000
1.95648966 1.42031167 -0.00031549 0.00000000
2.45004964 0.46553860 0.00318978 0.00000000
1.71967891 1.09495363 0.00090759 0.00000000
2.91549218 0.52396859 -0.00158824 0.00000000
2.98715679 1.09477423 -0.00180803 0.00000000
0.20421749 1.09884396 -0.00021990 0.00000000
0.65315096 0.36300229 0.00099502 0.00000000
1.38655988 1.72471524 -0.00075167 0.00000000
4.06536411 1.51630648 -0.00117432 0.00000000
0.10101517 0.44240223 0.00108321 0.00000000
3.58884137 1.62911221 -0.00480720 0.00000000
3.93395203 1.87918840 0.00272539 0.00000000
1.40202655 0.47254054 0.00381995 0.00000000
1.88746350 0.87117278 -0.00094281 0.00000000
0.29640291 0.35035990 0.00241234 0.00000000
2.88181514 1.01270823 0.00194723 0.00000000
1.16164140 2.20463816 -0.00444831 0.00000000
1.26948001 0.03942711 -0.00323439 0.00000000
0.46115896 2.41989902 -0.00202477 0.00000000
0.61735857 2.15793883 0.00230698 0.00000000
2.86641602 2.10429972 0.00179117 0.00000000
3.47187406 0.57332866 -0.00303824 0.00000000
2.93386057 1.28532589 -0.00112034 0.00000000
3.28627490 2.41848209 -0.00033539 0.00000000
1.71432862 1.03061690 0.00126001 0.00000000
3.11634581 1.82561452 -0.00680963 0.00000000
0.62540919 0.07997319 0.00205365 0.00000000
0.70929227 1.03657319 -0.00118300 0.00000000
0.86621403 1.56647349 -0.00061410 0.00000000
3.16424234 1.26985065 -0.00326112 0.00000000
1.17853203 2.31628562 0.00244865 0.00000000
1.06580305 0.24569883 -0.00326863 0.00000000
4.04597511 1.74323336 -0.00087504 0.00000000
2.70426131 0.61324569 -0.00221313 0.00000000
2.03841034 1.17710551 0.00092276 0.00000000
2.56962201 2.41406409 0.00022380 0.00000000
1.10503136 2.27991124 0.00039643 0.00000000
3.96362312 2.04974441 -0.00028226 0.00000000
0.47763287 0.02623109 0.00062544 0.00000000
0.72912833 1.30070113 0.00332550 0.00000000
2.85092716 1.48248112 0.00155089 0.00000000
1.25026615 0.22420497 -0.00449047 0.00000000
2.52491209 0.63412002 0.00049466 0.00000000
3.76143300 2.39599820 0.00122258 0.00000000
0.76962593 1.44102747 0.00026151 0.00000000
0.49235220 1.00638348 -0.00060638 0.00000000
3.97673245 1.84651550 -0.00004573 0.00000000
3.78629998 0.04882172 0.00077148 0.00000000
1.40125438 1.23612524 0.00192001 0.00000000
2.34616258 1.36858034 0.00164138 0.00000000
0.53397658 2.14276992 0.00590471 0.00000000
0.66546564 0.48275225 0.00437229 0.00000000
3.54846164 2.29380290 -0.00038088 0.00000000
3.87743560 1.37859119 0.00316515 0.00000000
3.97579738 1.50569736 -0.00433202 0.00000000
2.69395062 2.29836410 0.00198554 0.00000000
0.79136914 1.49824211 0.00349707 0.00000000
3.17511524 1.54662700 -0.00211864 0.00000000
2.44886830 1.99431897 -0.00624668 0.00000000
2.79295550 1.98339189 -0.00255154 0.00000000
3.42290594 1.59644150 0.00217042 0.00000000
3.02696397 1.75274510 0.00051547 0.00000000
3.56859582 0.63040261 0.00129327 0.00000000
0.35454908 0.58368287 -0.00426350 0.00000000
2.75783207 2.28867598 0.00317392 0.00000000
2.07631075 2.13397757 0.00821116 0.00000000
2.37248029 1.78113731 -0.00160857 0.00000000
0.81686927 1.31197523 -0.00146367 0.00000000
0.06005397 1.81472240 0.00260763 0.00000000
2.01230641 1.12033232 -0.00497533 0.00000000
2.42859398 2.10196505 0.00041922 0.00000000
3.42419256 1.38569688 0.00091932 0.00000000
0.18425300 0.57013435 -0.00315657 0.00000000
0.18513966 0.35996699 0.00175778 0.00000000
0.55197232 1.36091859 0.00305301 0.00000000
3.20446245 1.65495812 -0.00161287 0.00000000
3.61130682 1.51322154 -0.00153511 0.00000000
2.31818640 0.62961446 -0.00286733 0.00000000
1.23037388 1.29158315 0.00089893 0.00000000
1.22329998 1.61684218 -0.00195475 0.00000000
3.65571174 1.89408570 0.00041172 0.00000000
3.90986957 0.16623491 0.00534055 0.00000000
1.85453332 1.61621030 0.00282057 0.00000000
3.97055189 0.94019083 0.00252131 0.00000000
0.40235411 0.64724216 0.00352024 0.00000000
3.37051456 1.87836607 0.00034510 0.00000000
0.04172681 2.26894648 0.00022499 0.00000000
3.48111597 0.79314201 0.00219127 0.00000000
0.73819081 0.38445442 -0.00151693 0.00000000
2.20473672 1.14732044 -0.00259590 0.00000000
1.05647744 0.29215899 -0.00095349 0.00000000
1.16543704 1.42668714 -0.00035465 0.00000000
3.32130310 1.02500742 -0.00127107 0.00000000
2.47591749 2.25609183 -0.00200602 0.00000000
2.24064869 0.07496035 0.00490227 0.00000000
2.08208553 0.85913983 -0.00327307 0.00000000
1.26289266 2.18882407 0.00153900 0.00000000
1.95035994 1.26145979 -0.00336244 0.00000000
3.42639986 0.90401658 -0.00235684 0.00000000
1.83102954 2.00058947 -0.00221768 0.00000000
1.48027028 2.29942611 0.00071059 0.00000000
1.94537821 0.68048677 0.00373432 0.00000000
0.94989368 1.17368127 0.00257198 0.00000000
2.06408116 2.34362550 -0.00641290 0.00000000
1.48637168 1.90787276 -0.00226441 0.00000000
1.09201697 2.00473292 -0.00160956 0.00000000
0.76221814 0.72008065 -0.00157348 0.00000000
0.74198099 1.71636995 -0.00378062 0.00000000
1.92824152 1.83490704 0.00102524 0.00000000
2.65805040 0.50121432 -0.00210125 0.00000000
0.38914074 0.87315274 0.00070339 0.00000000
1.99937713 1.80470555 -0.00249633 0.00000000
2.96855563 1.99211287 -0.00082759 0.00000000
3.47291118 0.70173106 -0.00151855 0.00000000
2.33952581 1.83517116 0.00072291 0.00000000
0.77316458 0.70254454 0.00040085 0.00000000
1.97497843 2.18680480 -0.00124470 0.00000000
2.25104741 0.93187201 -0.00018628 0.00000000
1.67479782 0.36522866 -0.00299058 0.00000000
3.43523968 1.04879664 0.00026456 0.00000000
3.74408945 1.36028553 0.00280746 0.00000000
1.86707783 0.59932004 0.00157776 0.00000000
3.57994116 1.61842087 -0.00105240 0.00000000
0.87930321 2.36140040 0.00077399 0.00000000
3.90404008 0.56354667 -0.00083712 0.00000000
0.14786764 1.00755000 -0.00258859 0.00000000
2.06152195 1.47744418 -0.00327862 0.00000000
2.47374051 0.68675700 0.00127476 0.00000000
0.17700328 1.94974281 0.00340900 0.00000000
0.97131012 0.26130453 -0.00167231 0.00000000
0.32794878 1.29330433 -0.00233583 0.00000000
0.71977915 2.31098942 0.00175718 0.00000000
1.99304256 0.17095519 0.00314991 0.00000000
2.21942185 2.10364548 0.00196083 0.00000000
2.62949150 2.14419553 -0.00251980 0.00000000
0.26970168 2.37947530 0.00116132 0.00000000
3.65992157 1.48776756 -0.00179390 0.00000000
4.04163354 1.64794452 -0.00303278 0.00000000
1.12660736 0.19570475 0.00062367 0.00000000
2.16849937 1.86861319 -0.00102617 0.00000000
2.65704012 1.05807558 0.00180050 0.00000000
0.23458584 2.22608909 -0.00116158 0.00000000
1.16912173 1.93117668 0.00103754 0.00000000
0.54909023 1.35220580 -0.00317328 0.00000000
0.54317901 1.12894348 0.00336516 0.00000000
0.59572996 0.12864918 0.00307460 0.00000000
0.38994547 1.30329693 -0.00395667 0.00000000
0.19822592 1.15931032 -0.00490835 0.00000000
3.11057094 1.51436946 0.00149047 0.00000000
0.86841626 1.77951073 0.00072156 0.00000000
2.84224575 1.47427918 -0.00338643 0.00000000
0.14183816 0.50874691 0.00173488 0.00000000
3.16497056 0.01203350 0.00048083 0.00000000
2.98690398 2.20595840 0.00011470 0.00000000
0.46189223 1.31523545 -0.00046345 0.00000000
1.54485285 1.15827434 -0.00419029 0.00000000
3.14964485 0.25200905 0.00475537 0.00000000
2.87512533 2.44442312 -0.00376016 0.00000000
1.23253437 2.26575147 0.00127529 0.00000000
0.84562780 2.33872659 0.00206355 0.00000000
0.91739802 1.94773077 -0.00180768 0.00000000
0.95144509 0.25412163 0.00139012 0.00000000
3.61598215 0.34017627 -0.00363582 0.00000000
0.81575623 1.69705281 -0.00257173 0.00000000
2.41848892 0.37701265 -0.00163980 0.00000000
0.25598860 2.27825829 0.00360697 0.00000000
2.32703606 1.49768001 0.00534908 0.00000000
0.54036900 1.70244548 -0.00332579 0.00000000
2.80799857 2.16006363 -0.00128531 0.00000000
3.57307911 2.23533722 -0.00234232 0.00000000
0.38262406 1.14391095 0.00076910 0.00000000
3.88350488 0.94867537 -0.00029247 0.00000000
3.96495960 1.62771328 0.00178347 0.00000000
3.80232576 1.84574812 -0.00183499 0.00000000
2.72197769 1.68072343 0.00102398 0.00000000
1.04808804 1.94987897 -0.00146570 0.00000000
1.14429855 0.65450622 -0.00328850 0.00000000
2.48269742 2.39736063 0.00021203 0.00000000
2.99974196 1.34485837 -0.00266154 0.00000000
3.56880189 1.21671687 0.00356966 0.00000000
3.29446181 0.89119947 0.00124908 0.00000000
2.52362702 2.29359728 0.00413207 0.00000000
1.26329650 1.48994454 0.00050035 0.00000000
1.14701839 1.32623930 0.00048943 0.00000000
1.61081982 1.80458257 0.00653442 0.00000000
2.15722348 0.75441063 -0.00019516 0.00000000
3.18935340 1.92692056 -0.00423562 0.00000000
0.36088692 2.08950033 0.00159922 0.00000000
0.37230358 2.30759548 -0.00114243 0.00000000
3.66317074 1.88100236 -0.00416863 0.00000000
0.06212265 2.44612241 0.00240456 0.00000000
3.98894084 0.38178795 0.00273659 0.00000000
3.58704166 0.99745003 -0.00277298 0.00000000
1.27809541 1.75352850 -0.00507392 0.00000000
1.83931848 0.71869146 -0.00340372 0.00000000
2.54878926 1.14728428 -0.00092532 0.00000000
1.13784528 1.08870034 0.00387032 0.00000000
2.45730456 2.04243983 -0.00390721 0.00000000
4.06724591 2.03322597 -0.00421114 0.00000000
3.22632619 2.42506388 -0.00196903 0.00000000
1.04795120 2.25393783 0.00234017 0.00000000
2.04685279 1.01951553 0.00124578 0.00000000
2.78841827 2.23954291 -0.00339049 0.00000000
0.51372205 0.69033092 0.00113253 0.00000000
1.18906696 0.48592358 0.00355573 0.00000000
1.73543156 1.79747761 0.00429934 0.00000000
2.53295220 1.06740373 -0.00104132 0.00000000
3.94079979 0.11276492 0.00317350 0.00000000
2.75706651 1.44384790 -0.00290507 0.00000000
0.31092726 0.36457649 -0.00257937 0.00000000
3.01392245 1.78877036 -0.00223442 0.00000000
1.48423458 0.98334411 -0.00176227 0.00000000
2.54964663 0.68740873 0.00137919 0.00000000
3.96236345 0.21886146 0.00485454 0.00000000
0.07319778 2.36480662 -0.00089525 0.00000000
0.66519306 1.54544205 0.00004592 0.00000000
1.36504972 2.28908864 0.00152535 0.00000000
2.06493435 1.42688785 0.00158926 0.00000000
3.89118345 1.81378599 0.00208797 0.00000000
1.91579117 0.19651723 0.00329726 0.00000000
3.85688041 1.50569996 -0.00067603 0.00000000
2.67092405 2.45585350 0.00168216 0.00000000
1.42345734 1.59537978 0.00336893 0.00000000
3.16548887 0.50329676 0.00182020 0.00000000
2.94080099 0.38719900 0.00176658 0.00000000
2.57830590 0.30653117 -0.00136956 0.00000000
3.54729302 2.19629768 -0.00238929 0.00000000
3.55146546 1.25657968 -0.00002442 0.00000000
3.97946333 0.99813278 0.00322491 0.00000000
2.10816615 2.27123974 0.00084494 0.00000000
1.09877716 1.18254662 -0.00004869 0.00000000
4.01324323 0.23811928 -0.00308896 0.00000000
1.41063545 1.56508688 -0.00380013 0.00000000
0.30058120 1.56160465 -0.00006095 0.00000000
1.16895518 1.42000462 -0.00014938 0.00000000
0.71266481 1.44916567 -0.00142032 0.00000000
1.90714667 2.24113894 -0.00233307 0.00000000
1.82649679 1.95882295 -0.00264506 0.00000000
3.62147307 2.19531996 0.00184769 0.00000000
1.82729161 0.91174426 0.00285394 0.00000000
1.54589061 1.08086833 0.00269067 0.00000000
3.54638406 1.13997908 -0.00327401 0.00000000
0.81551603 0.18861864 0.00254085 0.00000000
3.49800733 1.74014621 -0.00055023 0.00000000
2.49201571 0.99315318 -0.00414839 0.00000000
2.52731938 0.34901586 -0.00186751 0.00000000
1.80683884 1.63743977 0.00068634 0.00000000
0.50227284 1.80955171 -0.00169039 0.00000000
2.94117729 0.36763542 -0.00264430 0.00000000
2.00420182 1.66578750 0.00249329 0.00000000
1.24717940 1.26131470 -0.00311865 0.00000000
3.03081535 2.06195328 -0.00103328 0.00000000
1.80813287 2.14819957 -0.00406626 0.00000000
0.33451858 1.94015683 -0.00309761 0.00000000
0.84808626 2.44372735 -0.00082165 0.00000000
2.60656472 0.00494071 -0.00359600 0.00000000
2.58415048 0.95978451 0.00126211 0.00000000
3.26782550 2.26189400 0.00404054 0.00000000
0.65712203 0.17133889 0.00156775 0.00000000
3.63063959 1.99272708 0.00727964 0.00000000
3.92770845 2.34373665 0.00237885 0.00000000
4.03246997 0.53480336 0.00544418 0.00000000
1.43720462 1.42010423 -0.00162408 0.00000000
1.54590067 0.33717536 -0.00168866 0.00000000
3.13250778 1.12002356 -0.00034603 0.00000000
0.73730692 1.38553908 -0.00006739 0.00000000
3.08238923 1.28049138 -0.00235546 0.00000000
3.13057037 1.38323677 -0.00442197 0.00000000
3.33612217 0.22846304 -0.00196631 0.00000000
2.77362792 0.92920703 0.00001243 0.00000000
1.54171438 1.40767346 0.00189973 0.00000000
1.99942406 0.55291267 0.00109917 0.00000000
3.00810799 1.41955020 0.00611825 0.00000000
0.74580930 1.89727029 0.00627998 0.00000000
3.40026614 2.44258812 0.00300759 0.00000000
2.91108715 0.99092014 0.00114915 0.00000000
0.91210322 2.43825495 0.00357476 0.00000000
0.54414755 2.14023251 0.00294300 0.00000000
1.06449314 1.28720906 -0.00092983 0.00000000
3.76240014 0.49303417 -0.00118550 0.00000000
1.72447045 0.48284179 0.00216867 0.00000000
3.29477586 1.88580495 0.00053401 0.00000000
3.51710263 0.54326656 -0.00200166 0.00000000
1.80815540 1.09020962 -0.00350396 0.00000000
1.80262138 1.59439349 -0.00349895 0.00000000
0.90091134 2.34647817 -0.00364666 0.00000000
1.82264345 0.74022475 0.00112439 0.00000000
1.09404737 0.94565012 0.00604854 0.00000000
1.25791677 0.31059271 0.00253550 0.00000000
3.10709713 2.38177712 0.00135773 0.00000000
2.20173147 0.58669420 0.00034535 0.00000000
1.38505939 2.23809983 0.00011214 0.00000000
1.03205766 0.83017436 -0.00299919 0.00000000
1.55688009 0.09258913 0.00397311 0.00000000
0.69289351 1.13505036 0.00029306 0.00000000
0.03488131 0.74653998 -0.00378308 0.00000000
3.86839153 1.00922394 -0.00530016 0.00000000
3.44848766 0.00897826 0.00021055 0.00000000
1.61427076 2.22727939 0.00256248 0.00000000
2.50186142 0.81418518 0.00000559 0.00000000
0.22732553 1.87189379 -0.00089100 0.00000000
1.02029338 1.02758129 -0.00096844 0.00000000
0.99067268 0.38275583 -0.00343268 0.00000000
0.60174091 1.16595955 0.00241480 0.00000000
2.79185930 0.41343047 -0.00001030 0.00000000
1.16642209 1.28223754 -0.00188676 0.00000000
2.55716931 2.32461125 0.00045605 0.00000000
2.32624090 1.15398907 0.00175102 0.00000000
2.77137327 0.60138251 -0.00184859 0.00000000
4.01374668 1.49652192 -0.00363612 0.00000000
2.77314017 2.12041199 0.00480041 0.00000000
0.74777857 2.38281283 -0.00315132 0.00000000
1.17308891 1.41205108 -0.00518135 0.00000000
0.58426194 0.96516891 -0.00046093 0.00000000
1.46681925 1.14647786 0.00041665 0.00000000
3.61822381 1.17960535 0.00248207 0.00000000
2.87844105 0.21203371 -0.00164555 0.00000000
3.28186414 2.13921791 -0.00062910 0.00000000
0.21369434 0.22473973 -0.00467869 0.00000000
1.79173155 0.15176410 0.00104873 0.00000000
2.81712125 2.27011436 0.00296579 0.00000000
3.02020317 1.62430001 -0.00144755 0.00000000
1.19271075 0.89056717 -0.00169804 0.00000000
1.47262566 2.32171753 -0.00066580 0.00000000
1.85980357 1.59903237 0.00032592 0.00000000
3.45576592 2.27346411 0.00041349 0.00000000
3.74778111 1.78470259 -0.00012900 0.00000000
3.75401685 0.42581667 -0.00055441 0.00000000
1.13466490 0.73854491 -0.00646998 0.00000000
1.83668817 0.00649129 -0.00181808 0.00000000
1.51690691 1.77535886 -0.00026885 0.00000000
2.38071787 0.32654672 -0.00133317 0.00000000
1.98000269 2.06048185 -0.00292986 0.00000000
0.35576717 2.09398517 -0.00213831 0.00000000
0.43537713 1.66368367 -0.00234129 0.00000000
2.89395140 1.86680164 0.00123702 0.00000000
2.28853908 1.25135611 0.00013860 0.00000000
2.43804458 0.67553605 -0.00212021 0.00000000
1.79279517 1.61767793 -0.00514591 0.00000000
2.26679677 1.36833312 -0.00231974 0.00000000
0.57653866 1.77833596 0.00113125 0.00000000
3.99237674 2.39246131 -0.00290607 0.00000000
0.51598657 0.17983527 -0.00277927 0.00000000
3.99388569 0.71708834 -0.00027113 0.00000000
1.57763934 0.04139099 0.00100679 0.00000000
1.82290165 0.75775388 0.00002766 0.00000000
1.46413176 1.82763088 0.00161833 0.00000000
3.50903365 0.10013803 -0.00020844 0.00000000
0.60688942 1.57286655 -0.00390872 0.00000000
0.64719841 0.66384062 0.00166613 0.00000000
0.56973616 1.41406979 -0.00183447 0.00000000
3.44008736 1.92442634 0.00188506 0.00000000
0.67580091 2.07337243 -0.00300071 0.00000000
3.89636980 1.96228203 -0.00109853 0.00000000
2.83292683 2.24577586 0.00072961 0.00000000
2.66079481 0.90897920 -0.00348212 0.00000000
0.43471632 1.14829657 -0.00463792 0.00000000
2.15858298 1.69940398 -0.00106997 0.00000000
3.77894556 0.10694003 -0.00126375 0.00000000
0.26885775 0.81997707 -0.00424776 0.00000000
2.09904703 2.22724507 0.00041402 0.00000000
3.92360406 1.85823600 -0.00466430 0.00000000
1.30972641 1.93720377 -0.00295230 0.00000000
1.04600487 1.84808170 -0.00036332 0.00000000
0.51006218 0.84473814 0.00389135 0.00000000
0.43176295 0.39492770 -0.00342637 0.00000000
3.35678815 2.31812991 -0.00360493 0.00000000
1.16702804 1.73787640 0.00067132 0.00000000
0.52323970 0.21655336 0.00094526 0.00000000
3.44922903 0.45665868 -0.00183796 0.00000000
3.11821162 0.40478900 -0.00002110 0.00000000
0.20176246 1.78643597 -0.00137525 0.00000000
2.10908937 0.01027513 -0.00401563 0.00000000
2.57513434 1.15368837 -0.00112235 0.00000000
0.53740810 1.26603292 -0.00192555 0.00000000
3.78365258 1.32080482 -0.00276754 0.00000000
0.43497515 0.35607036 -0.00212383 0.00000000
3.94415920 0.76444523 -0.00016738 0.00000000
1.78882544 0.81871329 0.00019148 0.00000000
0.14376653 0.24849687 -0.00253602 0.00000000
3.87490782 0.17388851 0.00129437 0.00000000
2.92661470 0.93821732 -0.00063085 0.00000000
0.30789290 2.35678204 -0.00117974 0.00000000
1.00203752 0.69689669 0.00231209 0.00000000
3.72964879 0.73726081 -0.00087148 0.00000000
2.80752763 0.32280086 0.00268124 0.00000000
3.61318364 1.81673873 0.00011613 0.00000000
3.33281798 1.76861645 0.00482852 0.00000000
1.53385713 1.77047997 0.00277343 0.00000000
0.59772792 0.07885501 -0.00522245 0.00000000
3.18197046 1.89021949 -0.00063518 0.00000000
1.59978543 0.28392241 0.00076929 0.00000000
2.00628434 0.28094613 -0.00157027 0.00000000
1.10465145 0.31474721 -0.00232777 0.00000000
1.52522166 0.33490143 0.00261612 0.00000000
0.62564177 0.03921193 -0.00329764 0.00000000
1.17591083 0.98241737 0.00094806 0.00000000
1.35351500 2.33093280 -0.00684317 0.00000000
0.50773471 1.43013230 0.00183381 0.00000000
1.88120963 1.13411165 -0.00183766 0.00000000
3.28924319 0.39132224 -0.00119740 0.00000000
0.86497999 0.76959434 0.00050839 0.00000000
1.30860085 2.11128162 -0.00084003 0.00000000
1.71110765 0.57156023 0.00044873 0.00000000
1.43658884 2.42732205 0.00217736 0.00000000
0.48853057 1.51208630 -0.00359136 0.00000000
3.23866884 1.89519214 -0.00078279 0.00000000
0.02951212 0.01227500 0.00244121 0.00000000
0.82242908 0.42596589 0.00061824 0.00000000
3.73169571 1.30266735 -0.00203107 0.00000000
0.73744707 1.18536951 0.00206226 0.00000000
2.19665300 2.07811729 0.00055465 0.00000000
2.93315998 0.25125891 -0.00038394 0.00000000
0.67279498 0.02467662 -0.00012043 0.00000000
1.20933218 2.17633689 0.00257821 0.00000000
2.62381650 1.17156320 -0.00363489 0.00000000
2.48222111 0.00765396 0.00208460 0.00000000
1.52436306 0.18719030 -0.00002367 0.00000000
0.30176186 1.74819333 0.00029287 0.00000000
2.15194239 1.64867255 0.00615502 0.00000000
0.90629034 1.10184775 0.00068055 0.00000000
0.98647060 0.73731271 -0.00223303 0.00000000
1.64179244 2.21253243 0.00200462 0.00000000
2.10278190 0.51081738 -0.00080363 0.00000000
1.21387561 1.95785127 -0.00178935 0.00000000
2.41904994 0.55540742 0.00270892 0.00000000
0.79775021 0.39046115 0.00059497 0.00000000
2.37264892 1.26486067 0.00297892 0.00000000
0.90229941 1.26582011 0.00175330 0.00000000
1.02661505 0.80152370 -0.00262382 0.00000000
3.35576940 0.05020070 0.00174625 0.00000000
3.69151450 2.45095402 0.00010524 0.00000000
0.04609300 0.18156857 0.00313442 0.00000000
3.70784348 2.03863351 -0.00001972 0.00000000
0.78398909 1.10356961 0.00167746 0.00000000
1.55428844 1.40757887 -0.00233610 0.00000000
1.17054454 1.98016149 0.00083079 0.00000000
3.02516727 2.03636776 0.00075525 0.00000000
1.25910826 2.02828396 -0.00285756 0.00000000
3.00638256 0.43468457 0.00339879 0.00000000
3.22732530 2.40272411 0.00170451 0.00000000
1.43389900 0.19517617 -0.00328547 0.00000000
2.81830924 0.97912252 -0.00528241 0.00000000
2.39883575 1.97870768 0.00431483 0.00000000
0.98704089 1.93730448 -0.00230057 0.00000000
3.81112058 1.53336998 0.00080039 0.00000000
0.95829199 0.59315049 0.00137639 0.00000000
1.91788152 0.73478676 0.00314966 0.00000000
0.60861131 0.87245112 0.00228351 0.00000000
1.46137361 0.42390698 -0.00575764 0.00000000
2.87784780 1.63706551 0.00132395 0.00000000
4.06810471 1.04705169 -0.00244134 0.00000000
3.51553956 0.65172416 -0.00071464 0.00000000
0.82583563 1.11272356 0.00216129 0.00000000
1.66218148 1.58782387 0.00147289 0.00000000
0.39425231 0.27444729 0.00035648 0.00000000
1.32310354 2.17616546 0.00048173 0.00000000
0.93042671 2.14250673 0.00316416 0.00000000
0.55874055 0.39892803 0.00075926 0.00000000
0.69219188 2.25826017 0.00175990 0.00000000
3.18795524 1.50735655 -0.00268668 0.00000000
0.81597536 2.26700772 0.00138873 0.00000000
0.56913388 1.67248864 -0.00064897 0.00000000
3.48782508 1.60573640 0.00013875 0.00000000
0.88902890 1.69787058 0.00337796 0.00000000
3.72654718 0.91463438 0.00082625 0.00000000
1.35933818 1.24717408 0.00380549 0.00000000
2.80723497 0.20490848 0.00216406 0.00000000
3.53946153 0.39631481 -0.00393699 0.00000000
1.89753472 1.54036192 0.00154970 0.00000000
2.74467849 0.43830661 -0.00303737 0.00000000
3.65797029 1.97092067 -0.00349692 0.00000000
3.84184156 1.08272940 -0.00115461 0.00000000
3.07513221 1.74149751 0.00368380 0.00000000
1.94702668 0.36370056 0.00181926 0.00000000
1.96724586 2.03550653 -0.00145303 0.00000000
3.26750021 2.39916747 0.00043599 0.00000000
1.54120023 0.81531794 0.00042748 0.00000000
3.37882304 0.85753045 0.00205550 0.00000000
1.48471915 2.36902776 0.00220555 0.00000000
0.95112981 2.19055311 -0.00142732 0.00000000
2.97845346 0.91492992 0.00217661 0.00000000
2.74919430 1.07818294 0.00167911 0.00000000
0.25047793 1.03015634 -0.00209359 0.00000000
1.13586213 0.08316342 -0.00151410 0.00000000
3.29175601 1.57271970 0.00403851 0.00000000
0.98024833 0.32746442 -0.00142145 0.00000000
0.51546431 2.19380312 0.00071358 0.00000000
3.69968318 1.88350460 0.00123257 0.00000000
3.10625374 0.78152418 -0.00296088 0.00000000
3.30021379 2.11043949 -0.00070506 0.00000000
0.96369961 1.25080541 -0.00011717 0.00000000
1.11812970 0.43418952 0.00220500 0.00000000
3.87269934 0.33680040 -0.00002023 0.00000000
0.65017821 0.27951802 -0.00208810 0.00000000
1.05796584 2.20810601 0.00001737 0.00000000
1.36783272 0.36237309 0.00310348 0.00000000
0.15451304 0.25957075 -0.00402747 0.00000000
2.31511947 0.83498502 -0.00401722 0.00000000
1.88889671 0.57492669 -0.00025806 0.00000000
1.88468021 1.58697774 0.00018408 0.00000000
3.36643115 0.91699238 -0.00065269 0.00000000
2.80908797 0.90742399 -0.00606280 0.00000000
2.96582426 1.30792618 0.00541984 0.00000000
0.41281646 1.40135976 -0.00151467 0.00000000
0.02247215 2.41957219 -0.00081379 0.00000000
3.50763714 1.65925363 -0.00421033 0.00000000
1.28372754 1.79483490 0.00610509 0.00000000
0.57992635 0.20329971 0.00233068 0.00000000
3.81908864 2.24582583 -0.00308246 0.00000000
2.70910653 0.06583576 -0.00042006 0.00000000
2.67665829 1.45475198 -0.00266517 0.00000000
0.57732757 0.56586802 -0.00068153 0.00000000
1.44901917 0.10003935 -0.00193657 0.00000000
0.24433105 1.53630517 -0.00148637 0.00000000
3.10651776 0.37263006 0.00119393 0.00000000
3.72518462 0.52099109 0.00263174 0.00000000
2.32511888 2.24725519 -0.00076575 0.00000000
0.90877225 1.53488573 -0.00115591 0.00000000
3.55735395 2.45141459 0.00596906 0.00000000
1.74207745 1.01595669 -0.00164469 0.00000000
3.71594971 0.06633806 0.00069552 0.00000000
0.75091949 0.42919632 -0.00212942 0.00000000
2.61524693 1.44825711 -0.00030139 0.00000000
2.63907367 1.84917138 -0.00086943 0.00000000
3.03800210 1.72070231 0.00126195 0.00000000
0.37034292 2.39079007 -0.00137170 0.00000000
2.95568213 2.34207260 -0.00375296 0.00000000
2.18388811 2.23976439 0.00175178 0.00000000
2.68592883 1.88611974 -0.00051795 0.00000000
3.58565325 0.72880557 0.00010047 0.00000000
0.87243517 1.99985760 0.00024764 0.00000000
1.08959550 0.55463115 -0.00176625 0.00000000
4.02726958 1.19686101 0.00029089 0.00000000
2.06565978 1.42698529 -0.00140621 0.00000000
2.49699040 1.27495179 0.00313233 0.00000000
1.15558041 0.26389196 0.00022978 0.00000000
2.82206978 2.39211802 -0.00135336 0.00000000
3.56883978 1.22988738 0.00071467 0.00000000
1.66700527 1.20740891 0.00112963 0.00000000
2.76537541 1.09012358 0.00035788 0.00000000
1.17091246 0.57047495 0.00081487 0.00000000
2.35385179 1.28687316 0.00036257 0.00000000
0.40431613 1.75322993 -0.00414284 0.00000000
0.07903814 1.50223436 -0.00055763 0.00000000
0.12761800 1.84809971 -0.00677669 0.00000000
0.67075494 0.59805481 -0.00592144 0.00000000
1.72796196 1.11574733 -0.00244969 0.00000000
3.22196625 1.42200971 -0.00112737 0.00000000
1.75732546 0.68575755 -0.00022979 0.00000000
3.62034043 1.26164593 0.00089228 0.00000000
2.38513363 0.50289836 0.00487240 0.00000000
1.42625615 0.19047259 0.00250353 0.00000000
3.49759173 1.41358046 -0.00355599 0.00000000
3.00264312 1.36191411 -0.00208898 0.00000000
3.53358422 1.16306998 0.00008957 0.00000000
0.95830991 1.67265923 0.00101840 0.00000000
0.29971839 1.19996280 0.00432240 0.00000000
4.00271004 1.57337081 0.00403100 0.00000000
1.31977910 0.55126044 0.00461172 0.00000000
1.05668889 2.38997863 0.00029811 0.00000000
0.43953936 2.07142518 0.00394099 0.00000000
3.63422897 1.98320101 0.00394952 0.00000000
2.51606283 1.61528046 -0.00043763 0.00000000
1.37148850 0.17294055 -0.00449778 0.00000000
0.97212800 2.10612043 0.00070218 0.00000000
1.80014030 1.02197045 0.00105687 0.00000000
0.88716347 2.21166319 0.00307826 0.00000000
3.49660848 0.66818801 -0.00291449 0.00000000
3.75914241 1.76966361 0.00083889 0.00000000
3.78272346 1.21527042 -0.00355289 0.00000000
2.04054077 0.65054516 -0.00294432 0.00000000
1.49109456 2.08256480 -0.00384042 0.00000000
0.91508651 1.26960975 0.00007900 0.00000000
1.77258141 2.34474906 -0.00259555 0.00000000
0.83831458 1.98605670 0.00143573 0.00000000
1.47777597 1.71831558 0.00094895 0.00000000
3.32301667 2.19138386 0.00605514 0.00000000
1.01753145 1.08183752 0.00141760 0.00000000
0.19399978 1.21192628 0.00217860 0.00000000
3.93486050 2.28528933 -0.00127613 0.00000000
0.55380100 0.61092601 -0.00333897 0.00000000
2.30321207 0.06403521 0.00352639 0.00000000
3.60943212 2.03264792 0.00166036 0.00000000
2.53726411 0.54858024 0.00109288 0.00000000
0.40981696 2.26396512 0.00045704 0.00000000
0.98415177 1.51310090 0.00108445 0.00000000
1.64196405 0.01383085 -0.00211424 0.00000000
0.65309544 0.69381545 -0.00101059 0.00000000
2.72113690 0.40283842 -0.00018758 0.00000000
1.88043356 0.30631507 0.00340489 0.00000000
2.05374490 2.34311438 -0.00000067 0.00000000
2.01445672 0.51873818 -0.00534295 0.00000000
3.79177274 2.13387266 -0.00187166 0.00000000
0.18285448 1.91320845 -0.00178214 0.00000000
1.26742304 0.66671058 0.00601250 0.00000000
0.89080570 2.43917431 0.00067415 0.00000000
3.09212191 1.84049433 0.00015838 0.00000000
3.27792376 0.30012540 -0.00418026 0.00000000
3.73718143 1.53816627 0.00361812 0.00000000
1.63106748 2.16658290 -0.00164499 0.00000000
2.60358298 0.12748662 0.00172207 0.00000000
1.29352429 1.65668523 0.00513472 0.00000000
2.15605031 0.88976701 -0.00036082 0.00000000
2.89013511 1.16990822 0.00115775 0.00000000
2.97166843 2.18166135 -0.00079467 0.00000000
0.22320876 0.08137651 -0.00210373 0.00000000
1.33445903 0.97688521 0.00118272 0.00000000
1.55727551 1.02091010 -0.00027021 0.00000000
1.34461135 0.09936332 -0.00034999 0.00000000
3.34474057 1.68861422 0.00499857 0.00000000
4.04823548 1.42862556 0.00192006 0.00000000
3.66299382 0.64187846 0.00160581 0.00000000
3.04005339 2.22533761 0.00146304 0.00000000
3.84028092 0.32068125 -0.00177030 0.00000000
1.71497516 0.64321656 -0.00436356 0.00000000
1.66868084 1.62788576 -0.00134768 0.00000000
1.46921831 2.22240349 -0.00227808 0.00000000
1.46700412 2.23708265 -0.00193844 0.00000000
2.34577900 0.08479416 -0.00411848 0.00000000
1.73898474 1.62825720 -0.00158836 0.00000000
2.04059508 0.12032309 0.00140382 0.00000000
2.21986926 1.99128776 -0.00074588 0.00000000
3.08699102 0.26070183 0.00002960 0.00000000
2.96761678 2.31847678 0.00119832 0.00000000
4.04624910 0.92208919 -0.00162829 0.00000000
0.15860946 0.72031382 0.00523327 0.00000000
1.07113614 2.05290912 -0.00193280 0.00000000
2.37444011 1.09310847 0.00314079 0.00000000
0.58931452 1.79467118 -0.00458444 0.00000000
0.96889402 0.86724403 -0.00019892 0.00000000
0.02431199 1.08823817 0.00088666 0.00000000
0.08756244 1.33427763 -0.00019785 0.00000000
1.37096195 0.27649644 0.00278265 0.00000000
0.13251633 1.54251820 -0.00539728 0.00000000
2.84591858 0.14294447 -0.00441029 0.00000000
2.55253467 1.26780374 0.00497682 0.00000000
0.81999516 2.17926880 -0.00124037 0.00000000
1.00711549 2.12906993 0.00078753 0.00000000
0.21790823 0.92229368 0.00392527 0.00000000
3.85389257 1.96170521 -0.00017201 0.00000000
1.56713610 0.25659934 0.00534010 0.00000000
2.99585009 1.62719941 0.00007049 0.00000000
2.23279468 2.41150998 -0.00047541 0.00000000
3.77281019 2.00762046 -0.00091397 0.00000000
2.25258980 2.28956905 0.00466179 0.00000000
0.86940190 0.72516978 -0.00058208 0.00000000
1.23955389 0.71871442 -0.00039785 0.00000000
1.90662382 0.78656596 -0.00042218 0.00000000
3.59655888 1.88938256 -0.00720621 0.00000000
3.90363030 2.10302276 0.00183759 0.00000000
0.61491855 1.57418403 0.00058748 0.00000000
3.25785090 1.51566626 0.00173416 0.00000000
0.20283616 0.79350714 -0.00183722 0.00000000
0.10958122 1.97962836 -0.00152130 0.00000000
0.09114535 1.47219009 -0.00227705 0.00000000
4.01624360 0.96727963 0.00223766 0.00000000
1.89609583 2.28786510 -0.00045611 0.00000000
3.44038538 2.27172877 0.00034382 0.00000000
3.89231943 0.81945800 0.00476919 0.00000000
3.76615587 1.90462225 0.00370215 0.00000000
3.75656889 0.98220697 -0.00070352 0.00000000
3.39284778 1.09034920 0.00237918 0.00000000
2.97944388 1.58032426 0.00282097 0.00000000
3.30386274 1.69446527 -0.00030614 0.00000000
0.98687180 1.20971431 0.00197586 0.00000000
0.52205774 0.96761790 0.00095983 0.00000000
0.31603092 1.48474323 0.00232774 0.00000000
3.36184911 1.48300113 0.00253357 0.00000000
1.95738373 0.69680800 0.00124888 0.00000000
3.67524357 0.27968463 0.00055373 0.00000000
1.39968870 0.77775763 -0.00089783 0.00000000
0.03925403 2.37897341 -0.00007625 0.00000000
3.15147133 2.22329321 0.00617152 0.00000000
1.21225054 0.02350938 0.00514920 0.00000000
0.61880079 1.67994447 0.00164118 0.00000000
0.26777267 0.03733147 -0.00323248 0.00000000
1.54239120 0.46204489 0.00342537 0.00000000
1.12526928 2.10080814 -0.00392761 0.00000000
4.00939669 1.07320908 0.00234638 0.00000000
1.13161502 1.33973153 -0.00268328 0.00000000
2.04486777 0.43782243 -0.00687052 0.00000000
1.26042151 1.97632244 -0.00024283 0.00000000
0.73733851 2.13643036 0.00323880 0.00000000
0.13762020 0.33435285 0.00320881 0.00000000
3.65190994 1.71381525 -0.00197691 0.00000000
0.86062013 1.51190578 -0.00183181 0.00000000
2.43890192 0.85679726 -0.00017687 0.00000000
2.42824208 1.23092609 -0.00029495 0.00000000
2.70660397 2.16964212 0.00274475 0.00000000
3.21051073 1.58513889 -0.00072363 0.00000000
3.00100238 2.41850969 -0.00120614 0.00000000
2.07376443 1.56318265 -0.00153226 0.00000000
2.25588108 1.29556664 -0.00330059 0.00000000
1.14340686 2.27149821 0.00073175 0.00000000
1.89000975 0.76252954 -0.00105906 0.00000000
3.96527251 1.90438789 -0.00403157 0.00000000
1.64879862 0.28106886 0.00029685 0.00000000
3.54331251 1.93901153 -0.00118466 0.00000000
2.42813856 0.35160932 -0.00054436 0.00000000
2.04708900 1.63095605 -0.00009658 0.00000000
0.23470693 2.46452856 0.00336377 0.00000000
0.78520404 0.58701118 0.00494277 0.00000000
0.89298679 0.95708834 -0.00191232 0.00000000
3.70615067 1.36242291 0.00256030 0.00000000
3.94018595 0.37419906 -0.00062428 0.00000000
0.22877140 1.13451676 -0.00187547 0.00000000
1.57670602 0.09993406 0.00217893 0.00000000
2.66535026 0.66610787 -0.00160455 0.00000000
3.70933657 0.42960741 -0.00432173 0.00000000
1.04097154 0.19147656 0.00461811 0.00000000
3.32293175 1.41918774 0.00190782 0.00000000
2.20825792 1.42145007 -0.00250014 0.00000000
0.23444406 0.39576213 0.00117776 0.00000000
0.15292223 0.38740372 0.00300045 0.00000000
1.42047565 0.99740840 -0.00188321 0.00000000
0.40448264 0.56002836 0.00058312 0.00000000
2.00705908 1.75129386 -0.00129185 0.00000000
2.07322897 1.16494184 -0.00004009 0.00000000
3.36710823 1.99345890 0.00001254 0.00000000
0.09537510 2.03825979 0.00101182 0.00000000
0.42065490 0.51064956 -0.00692322 0.00000000
2.05134558 2.15785688 -0.00114337 0.00000000
1.26886324 0.62789363 -0.00288392 0.00000000
0.81717063 2.28721130 -0.00679838 0.00000000
0.69303429 0.52084517 0.00246790 0.00000000
1.84953863 2.22873867 0.00241785 0.00000000
2.64850383 1.74260671 -0.00098314 0.00000000
2.87111418 0.84384455 -0.00092195 0.00000000
2.95033673 1.80568957 0.00012904 0.00000000
0.38059825 0.36057351 -0.00415565 0.00000000
3.80653366 1.22487480 -0.00073295 0.00000000
2.87138011 2.03399140 0.00172735 0.00000000
2.99078541 1.59201982 0.00267092 0.00000000
3.62855264 0.23251910 -0.00359692 0.00000000
3.78854501 2.02946612 0.00109274 0.00000000
1.99461656 0.14491547 -0.00257089 0.00000000
2.47633183 0.10117913 -0.00309073 0.00000000
1.07175316 0.32613805 -0.00231983 0.00000000
1.05143097 1.86379541 0.00090474 0.00000000
3.90888164 0.69729965 -0.00143355 0.00000000
2.97396564 1.48110424 -0.00080438 0.00000000
2.24262719 1.90477379 0.00035138 0.00000000
2.77419084 1.03002735 -0.00509070 0.00000000
0.48562787 2.45773407 -0.00175102 0.00000000
1.48812797 0.23666741 -0.00090549 0.00000000
2.14768996 1.47649671 0.00669472 0.00000000
1.15590926 0.66575906 -0.00058353 0.00000000
0.05310685 2.04417222 0.00002475 0.00000000
0.07423362 0.42773202 -0.00266698 0.00000000
1.45775530 1.27101961 -0.00166796 0.00000000
2.67705898 0.31935336 0.00135379 0.00000000
2.43310285 0.58615976 0.00229441 0.00000000
2.50966438 0.31153318 0.00058486 0.00000000
0.40516535 0.17129101 -0.00530455 0.00000000
1.77920584 0.97552778 0.00050352 0.00000000
1.45947597 2.12397215 -0.00002701 0.00000000
3.06329109 1.32815985 0.00019209 0.00000000
0.55401203 1.78213606 0.00112393 0.00000000
2.52521214 1.03669119 -0.00339534 0.00000000
3.90654314 1.41288430 -0.00775713 0.00000000
3.54434839 0.61580071 0.00222271 0.00000000
1.81220144 2.14552054 -0.00086666 0.00000000
2.51156622 0.04051565 0.00189690 0.00000000
2.71198081 0.49791038 0.00471889 0.00000000
2.25319881 1.45460584 0.00465774 0.00000000
1.49882810 1.19213072 -0.00004924 0.00000000
0.17297755 0.37027232 0.00151799 0.00000000
2.12908511 2.12911938 -0.00172362 0.00000000
0.41579057 1.47375339 0.00524713 0.00000000
2.38051397 0.58462844 0.00355234 0.00000000
