3.27735359 0.70562358 0.00018777 0.00000000
0.73037313 0.48112204 0.00321917 0.00000000
1.40495132 0.07839833 0.00246407 0.00000000
1.85674338 1.38085800 -0.00105411 0.00000000
2.17046901 0.75160184 -0.00106939 0.00000000
2.64447889 1.38668063 0.00078772 0.00000000
0.00841702 0.98709401 0.00170948 0.00000000
0.25581797 0.41805002 0.00409726 0.00000000
2.81209256 1.14496471 0.00257917 0.00000000
0.12121131 1.38503652 0.00029269 0.00000000
0.39134095 0.61190746 0.00365871 0.00000000
2.60046719 0.96552535 -0.00284865 0.00000000
3.05444967 0.54261867 0.00221165 0.00000000
1.87204167 1.16286990 0.00273625 0.00000000
0.01860315 0.00282023 0.00077574 0.00000000
3.77461695 0.91932186 0.00191848 0.00000000
2.06084494 0.04357892 0.00412134 0.00000000
0.78255299 0.19755313 -0.00219216 0.00000000
2.42474265 1.51788945 0.00143843 0.00000000
2.98540632 1.07991735 0.00257299 0.00000000
0.45070726 0.44132024 -0.00170129 0.00000000
1.92887769 0.79756216 0.00379160 0.00000000
1.13703546 1.23770369 -0.00231092 0.00000000
1.62647512 1.35637088 0.00005140 0.00000000
1.63220225 0.13814262 0.00169325 0.00000000
2.28500240 0.84072696 -0.00343512 0.00000000
1.24429235 1.13014444 -0.00329298 0.00000000
0.37424358 0.11589919 0.00410038 0.00000000
3.54131815 0.50163501 0.00153267 0.00000000
2.45696310 0.38619761 -0.00360103 0.00000000
1.94801917 1.07534105 0.00522426 0.00000000
0.11546310 0.69304393 -0.00253595 0.00000000
1.74058351 0.00964154 0.00205509 0.00000000
2.94340916 0.03267921 0.00086349 0.00000000
2.06274238 0.03534802 0.00203816 0.00000000
1.79578152 1.20675230 -0.00228739 0.00000000
3.01943119 0.38806716 0.00005127 0.00000000
3.55582933 0.48742705 -0.00090985 0.00000000
1.46059878 1.08175776 -0.00429992 0.00000000
3.58559980 1.11966594 -0.00162678 0.00000000
3.13835238 0.08285590 -0.00061910 0.00000000
2.21934572 1.48099340 -0.00222000 0.00000000
3.40726968 0.00240122 -0.00469841 0.00000000
1.07436075 0.37413532 -0.00082513 0.00000000
2.15695700 1.13861032 0.00321616 0.00000000
1.42281268 0.54760584 -0.00257995 0.00000000
2.73241346 1.25320101 0.00368053 0.00000000
1.73001392 0.44001784 0.00097124 0.00000000
3.01035472 1.09964006 0.00012611 0.00000000
3.59801134 1.52513086 -0.00264193 0.00000000
1.29794794 1.37526458 0.00139610 0.00000000
1.33479114 0.75754852 -0.00118566 0.00000000
1.16038182 1.19734923 -0.00335395 0.00000000
1.64664386 1.10799007 -0.00007768 0.00000000
1.18685815 1.51034116 0.00006557 0.00000000
0.63671098 0.49038023 -0.00014853 0.00000000
0.20703517 1.44053527 0.00111780 0.00000000
2.77150924 0.35096040 -0.00063961 0.00000000
3.38304919 1.00869852 0.00028086 0.00000000
2.15959491 0.72276629 -0.00200521 0.00000000
3.89742358 1.48072200 -0.00124707 0.00000000
1.46068804 1.49348149 0.00082831 0.00000000
3.76830238 0.57406955 0.00311141 0.00000000
3.96312398 0.51059845 -0.00084568 0.00000000
1.83558156 0.71334302 -0.00277595 0.00000000
2.67069473 1.37140465 0.00639596 0.00000000
1.78317460 1.18486521 0.00168232 0.00000000
3.46708354 0.43950494 -0.00001282 0.00000000
1.60355378 0.68543416 -0.00184310 0.00000000
3.76250340 0.72498131 0.00030484 0.00000000
0.19334158 0.11235329 0.00252122 0.00000000
1.69538310 1.13757118 0.00231656 0.00000000
2.34951380 0.54028079 0.00068592 0.00000000
1.69411290 1.17279753 -0.00259924 0.00000000
1.24983426 1.28763388 -0.00051485 0.00000000
2.57726282 0.73540974 -0.00237005 0.00000000
1.16904371 1.04887552 0.00251004 0.00000000
3.33611896 1.25748334 0.00380476 0.00000000
1.85826031 0.96333438 -0.00116874 0.00000000
3.70030777 0.94687535 -0.00219347 0.00000000
1.98709270 0.60015147 -0.00000678 0.00000000
0.82610642 0.54076785 -0.00256352 0.00000000
0.21839075 1.28076949 0.00070206 0.00000000
3.56882508 0.32845521 0.00107207 0.00000000
1.10717805 1.22943382 0.00101413 0.00000000
0.88176635 1.42545067 0.00221834 0.00000000
2.52694030 0.29982328 -0.00243581 0.00000000
1.89581654 0.72772922 -0.00275890 0.00000000
1.36710627 0.24822973 0.00518791 0.00000000
0.13940693 0.48132061 0.00052834 0.00000000
3.43343737 0.55938340 -0.00196916 0.00000000
3.99366440 1.29281461 0.00112674 0.00000000
1.88538183 0.95489913 0.00493927 0.00000000
0.37752816 0.74068601 -0.00082510 0.00000000
2.52622963 1.45939552 -0.00534816 0.00000000
0.99144414 0.49555231 -0.00266266 0.00000000
2.56324463 0.37695248 0.00159697 0.00000000
1.97592180 0.64981222 0.00079854 0.00000000
1.68139609 0.96344756 0.00095044 0.00000000
2.39822662 0.26430711 -0.00243224 0.00000000
3.75580674 0.80768697 -0.00205145 0.00000000
2.02919327 0.10773099 -0.00099392 0.00000000
2.14742680 0.16733844 -0.00250632 0.00000000
1.83003793 0.05506691 0.00277730 0.00000000
2.44810953 1.01727354 -0.00310420 0.00000000
0.00142456 0.08158035 -0.00465516 0.00000000
1.42206387 0.09700950 -0.00221500 0.00000000
2.81410796 0.44480899 -0.00117844 0.00000000
2.41640606 0.93332808 -0.00278323 0.00000000
2.02876438 0.27267828 -0.00097452 0.00000000
2.93179951 0.96997087 -0.00203278 0.00000000
1.07033621 0.26623456 -0.00034767 0.00000000
1.83243796 0.55378404 0.00301353 0.00000000
3.98208161 0.02208952 0.00128312 0.00000000
0.38552510 0.12476446 0.00037685 0.00000000
0.80383495 1.07190469 0.00317203 0.00000000
3.22254543 0.66043607 0.00032049 0.00000000
2.93033695 0.08338718 0.00499966 0.00000000
1.19320682 0.43309522 0.00093338 0.00000000
3.49575716 1.09831337 -0.00124154 0.00000000
1.75366690 1.52182930 -0.00173337 0.00000000
3.69147686 0.02591690 0.00103182 0.00000000
3.08482636 0.48389999 0.00120702 0.00000000
2.26195397 1.24484457 0.00181446 0.00000000
3.11231969 1.10813674 0.00062610 0.00000000
0.80704927 1.12784169 -0.00774078 0.00000000
1.24884689 1.44312350 -0.00112101 0.00000000
1.91462030 0.73050738 0.00137388 0.00000000
3.42349874 0.37461704 0.00098548 0.00000000
2.39445410 0.96370042 -0.00153081 0.00000000
3.87564714 1.01578522 0.00150812 0.00000000
0.15791119 0.06533772 0.00118632 0.00000000
0.48097237 1.21536452 -0.00305901 0.00000000
2.11490978 1.36918333 -0.00028246 0.00000000
1.26680694 1.05871331 -0.00010448 0.00000000
2.92107667 0.92813591 0.00100066 0.00000000
0.56847205 0.33383615 0.00283796 0.00000000
0.18466493 0.43121335 0.00505660 0.00000000
1.67627359 0.77252152 0.00122373 0.00000000
0.52050354 1.12559149 -0.00145550 0.00000000
0.57709214 0.60570537 -0.00090162 0.00000000
3.57269830 0.96769066 -0.00177543 0.00000000
0.77557793 1.23643686 -0.00099938 0.00000000
1.85940614 1.07028985 -0.00071180 0.00000000
3.02134340 1.11651180 -0.00287275 0.00000000
3.63034944 1.49770467 -0.00144693 0.00000000
3.73342732 0.52430617 -0.00536765 0.00000000
2.66874575 0.38218560 0.00054601 0.00000000
0.39665390 1.01413949 0.00473416 0.00000000
3.28968570 1.26111851 0.00324572 0.00000000
3.57138956 0.85855171 0.00127875 0.00000000
3.32028936 0.25087008 0.00097249 0.00000000
0.48020715 0.48091487 0.00005058 0.00000000
1.47205363 0.44750232 0.00534326 0.00000000
1.02657933 1.45375435 0.00005920 0.00000000
2.48287275 0.81744087 0.00448672 0.00000000
3.80774632 0.32884838 0.00131170 0.00000000
3.82069288 0.28786882 -0.00142799 0.00000000
2.56731698 1.04605662 0.00004556 0.00000000
2.99031959 0.94453090 -0.00147505 0.00000000
1.11901804 0.65928417 0.00048358 0.00000000
1.19671536 1.23153272 0.00088785 0.00000000
3.20066645 0.75683556 0.00029117 0.00000000
0.72671399 1.26789348 0.00271803 0.00000000
3.64735627 1.12646351 -0.00118226 0.00000000
2.42853637 0.34202492 -0.00187181 0.00000000
0.91831387 1.48995780 -0.00105159 0.00000000
2.81569651 1.42581805 -0.00143975 0.00000000
3.54340748 1.39980428 -0.00134278 0.00000000
2.80160099 0.21505466 0.00244323 0.00000000
1.49735939 0.53463397 0.00062784 0.00000000
3.25878552 1.39584577 -0.00082257 0.00000000
0.15418783 0.18831638 0.00171178 0.00000000
3.26066803 0.89688391 -0.00263653 0.00000000
2.87896267 1.26065007 -0.00416369 0.00000000
0.43902470 0.80671652 0.00048590 0.00000000
2.45933930 0.76263177 -0.00292867 0.00000000
0.81511720 1.17629804 0.00051813 0.00000000
0.58323445 0.66332750 0.00451119 0.00000000
1.09874576 0.96394454 -0.00266208 0.00000000
1.83529884 0.74963008 -0.00203907 0.00000000
0.82491924 0.16070442 -0.00428319 0.00000000
1.68837524 0.95468146 -0.00122439 0.00000000
2.39271425 1.33109084 -0.00053766 0.00000000
1.16383086 0.12370021 0.00089920 0.00000000
1.31567626 1.23880329 0.00485511 0.00000000
1.57457064 0.61929710 0.00169731 0.00000000
1.59184115 0.30534158 -0.00026002 0.00000000
1.94918224 0.15887123 0.00147806 0.00000000
3.68851909 0.17830152 0.00211566 0.00000000
3.20606732 1.32359634 0.00216249 0.00000000
3.72238745 0.13514329 -0.00337122 0.00000000
3.11843922 0.66132013 -0.00636160 0.00000000
1.33136821 0.17107248 -0.00148620 0.00000000
2.54440595 0.93239197 -0.00232339 0.00000000
1.25196646 1.05916739 0.00162403 0.00000000
3.19492748 0.05065995 -0.00177202 0.00000000
0.29117659 0.61826572 0.00201390 0.00000000
4.00464348 0.58047606 0.00290087 0.00000000
2.26011501 0.82711541 0.00212912 0.00000000
3.75453435 1.24045013 -0.00195193 0.00000000
0.65782342 0.95989565 0.00017880 0.00000000
2.43260275 0.75758141 0.00160018 0.00000000
0.67336039 1.44576571 0.00142649 0.00000000
3.51631494 1.10146262 0.00546683 0.00000000
1.75035582 0.28848477 -0.00746346 0.00000000
0.93666141 1.11289512 0.00556142 0.00000000
0.79070004 0.57697224 0.00302938 0.00000000
0.72512720 0.35244930 -0.00231754 0.00000000
1.52137852 1.48940902 0.00169135 0.00000000
3.58463189 0.61671531 -0.00158010 0.00000000
3.43745836 0.69900546 0.00309751 0.00000000
0.34625164 1.34679956 0.00379916 0.00000000
0.05570597 1.41278716 -0.00356729 0.00000000
1.69351863 0.97767616 -0.00010211 0.00000000
0.85021979 0.30243824 0.00604545 0.00000000
2.65720056 0.74144353 0.00544026 0.00000000
0.01223892 0.09795940 -0.00016296 0.00000000
0.53200109 0.93896346 0.00142050 0.00000000
1.07815034 0.52373038 -0.00183240 0.00000000
3.55094070 0.92311544 -0.00118181 0.00000000
0.20499883 0.17340137 0.00187397 0.00000000
1.80117478 0.44598498 0.00037370 0.00000000
1.69526502 1.44106014 0.00098095 0.00000000
0.43537562 0.03596598 -0.00041440 0.00000000
0.48949649 0.87387316 -0.00672115 0.00000000
3.05475278 1.44315279 -0.00319795 0.00000000
3.31144899 0.95135373 0.00204468 0.00000000
3.00716118 0.38756697 -0.00357590 0.00000000
2.38783225 1.39743054 -0.00172448 0.00000000
0.75270111 1.15656405 0.00375895 0.00000000
1.54601150 0.74874415 -0.00106250 0.00000000
3.89562537 0.19983433 -0.00053990 0.00000000
0.36580670 0.75580497 0.00066834 0.00000000
3.32767154 0.03526816 0.00000548 0.00000000
1.38391281 1.43527684 0.00034573 0.00000000
0.30594732 0.11788251 0.00015128 0.00000000
1.29402251 0.13829492 -0.00725540 0.00000000
1.99145253 0.61769638 -0.00329414 0.00000000
2.07962528 0.18427478 0.00134769 0.00000000
0.91743682 0.67917794 -0.00124168 0.00000000
1.39677440 0.43086264 -0.00186933 0.00000000
0.49005912 0.92058766 -0.00258018 0.00000000
0.49060798 0.60246407 0.00027190 0.00000000
0.11059275 0.49237718 -0.00347330 0.00000000
3.76448327 0.53657728 0.00166512 0.00000000
3.90387988 0.22382605 0.00050959 0.00000000
2.61908836 0.06926376 0.00593603 0.00000000
2.62917760 0.19062678 0.00035320 0.00000000
3.80465144 0.15839062 0.00064640 0.00000000
0.35410007 1.28598637 -0.00100855 0.00000000
3.62395508 1.18970742 -0.00382236 0.00000000
0.31955051 0.30494179 -0.00464874 0.00000000
3.11815909 1.22569070 0.00375537 0.00000000
3.39910291 0.45035493 0.00205961 0.00000000
2.42684890 0.74934369 0.00344141 0.00000000
2.72945106 0.18566316 -0.00181050 0.00000000
1.46155290 0.70659592 0.00079005 0.00000000
3.74024509 1.37116116 0.00011704 0.00000000
3.64414113 1.16022149 0.00374044 0.00000000
2.76765842 1.10788517 0.00076060 0.00000000
1.40988179 0.75456924 0.00302173 0.00000000
1.36881664 0.68942176 -0.00151962 0.00000000
2.43726545 1.31925018 -0.00359362 0.00000000
1.80535110 1.21453699 -0.00015254 0.00000000
3.65785251 1.25114075 0.00070805 0.00000000
0.77686551 1.41631613 0.00125083 0.00000000
2.57344613 0.75614783 0.00023386 0.00000000
3.16674727 1.13656079 -0.00597050 0.00000000
1.68251829 0.05974856 -0.00094403 0.00000000
3.84994037 1.13806086 -0.00317787 0.00000000
0.09785608 0.41509547 -0.00270282 0.00000000
3.76891285 0.79799975 -0.00014259 0.00000000
0.31158721 0.10790565 -0.00328376 0.00000000
3.49114119 0.18809833 -0.00497559 0.00000000
0.12202732 1.39370072 0.00225495 0.00000000
3.29776017 0.52397001 0.00082843 0.00000000
1.85915517 0.15008312 0.00127104 0.00000000
2.69182135 0.58564250 0.00405048 0.00000000
2.54283792 0.76292311 0.00079774 0.00000000
3.86061959 0.32269773 0.00415064 0.00000000
2.90727595 1.25749725 -0.00276562 0.00000000
2.04523947 0.54399417 -0.00560452 0.00000000
2.33691087 1.34575634 -0.00234644 0.00000000
1.73607377 1.50451501 0.00149023 0.00000000
2.83055923 1.37390307 0.00065295 0.00000000
3.93843222 1.07573294 -0.00005423 0.00000000
2.34689300 0.21422162 -0.00387692 0.00000000
1.75947760 0.25140491 -0.00632876 0.00000000
0.27177512 0.94987112 -0.00011446 0.00000000
0.70419129 0.76787571 -0.00217087 0.00000000
2.64959522 0.63445142 -0.00038367 0.00000000
3.82567092 0.13964292 -0.00067840 0.00000000
3.83728247 0.53032749 0.00102473 0.00000000
0.64840695 0.60199046 -0.00418317 0.00000000
2.80388249 0.41597934 0.00165125 0.00000000
0.63494080 1.41367720 0.00171407 0.00000000
1.32563110 0.04249671 0.00367113 0.00000000
0.05045995 1.19166106 0.00019307 0.00000000
2.49772272 1.29114403 0.00343873 0.00000000
0.76232867 1.09654038 -0.00294014 0.00000000
3.48047591 1.07474900 -0.00333948 0.00000000
3.05351725 0.65509659 0.00298585 0.00000000
3.01560255 1.04561513 -0.00258918 0.00000000
1.92789309 0.86049089 0.00256581 0.00000000
2.33755518 1.12127311 0.00386101 0.00000000
3.66088660 0.87471825 -0.00381166 0.00000000
1.69592031 0.21451819 0.00378252 0.00000000
0.68520863 1.46125321 -0.00073696 0.00000000
3.22018355 0.85733937 -0.00364422 0.00000000
2.08679245 0.85619869 0.00238093 0.00000000
2.51866926 0.48319323 -0.00146733 0.00000000
3.04708203 1.41906103 -0.00007870 0.00000000
3.47508721 0.51483050 -0.00215642 0.00000000
0.10177900 0.28849112 0.00472790 0.00000000
0.59016793 1.19694202 -0.00057791 0.00000000
2.21961199 1.50604034 -0.00047953 0.00000000
2.60434161 0.00661885 0.00373582 0.00000000
3.91266687 0.32393489 -0.00391390 0.00000000
1.12046592 0.23772038 0.00144832 0.00000000
3.16166901 0.24916864 -0.00147230 0.00000000
2.65425536 0.68531559 -0.00290447 0.00000000
3.59857471 0.06958382 -0.00102865 0.00000000
0.49391918 0.08920216 -0.00013025 0.00000000
3.63139749 1.04627597 0.00082339 0.00000000
1.78877880 0.54641377 -0.00292117 0.00000000
0.79055144 1.12806084 -0.00294129 0.00000000
2.07116191 0.58512200 -0.00179316 0.00000000
1.68576467 0.38975160 0.00322677 0.00000000
0.11593919 0.71136757 -0.00276736 0.00000000
1.80634008 1.44362520 -0.00053316 0.00000000
1.96847568 0.68157860 0.00173460 0.00000000
1.24832564 1.04384283 -0.00483668 0.00000000
2.29154667 0.22596452 -0.00203338 0.00000000
2.69541908 0.40423022 0.00259783 0.00000000
3.41177351 1.44996553 -0.00150175 0.00000000
2.53856923 0.51950156 -0.00518505 0.00000000
2.77323391 0.10706377 0.00236221 0.00000000
0.41468890 0.89334743 -0.00141684 0.00000000
0.05682411 0.53374878 -0.00192647 0.00000000
2.32899802 0.14580347 0.00170805 0.00000000
1.78075289 0.68335866 0.00338900 0.00000000
1.52398732 0.16490389 0.00109790 0.00000000
3.30436681 1.16883882 -0.00070515 0.00000000
2.98909938 0.87751093 -0.00353272 0.00000000
3.72074934 0.49902796 -0.00407015 0.00000000
2.34529243 0.08568316 -0.00050610 0.00000000
0.63464668 1.09620731 0.00268814 0.00000000
0.31752607 0.28222675 0.00230684 0.00000000
2.76419841 1.47021573 -0.00148576 0.00000000
3.59091423 0.83646354 -0.00130060 0.00000000
2.63092398 0.28158837 -0.00075299 0.00000000
2.53334639 0.32944552 0.00668964 0.00000000
1.79842971 1.37025506 -0.00051058 0.00000000
3.96189413 0.20542655 0.00220945 0.00000000
2.40595968 0.19920879 0.00276601 0.00000000
2.67789319 1.51070780 -0.00170477 0.00000000
2.37294439 1.45334355 -0.00117449 0.00000000
0.22584432 1.18477637 0.00266487 0.00000000
2.80429443 1.40177448 -0.00004654 0.00000000
0.37047006 0.93725132 0.00145843 0.00000000
2.81691270 1.14730893 0.00470700 0.00000000
2.37410222 0.51097484 -0.00095216 0.00000000
1.13645246 0.26474843 0.00121883 0.00000000
1.68509325 0.29245494 0.00192515 0.00000000
2.53201135 0.28345545 0.00414797 0.00000000
3.80157201 0.95974948 0.00307955 0.00000000
3.04327991 0.12991456 0.00159845 0.00000000
0.93369322 0.17880540 0.00425466 0.00000000
0.99416502 1.32618577 0.00012434 0.00000000
1.78404060 0.88516113 0.00148060 0.00000000
3.49180347 0.44524389 0.00180602 0.00000000
0.08657369 0.54860466 -0.00090735 0.00000000
1.44414212 0.51412216 -0.00430151 0.00000000
2.21327396 0.15543554 -0.00069741 0.00000000
2.84201757 1.12748952 0.00167608 0.00000000
3.81110458 1.29201597 -0.00075956 0.00000000
0.24260012 0.45026778 -0.00032890 0.00000000
2.45510195 0.04095165 0.00369185 0.00000000
2.55587025 1.44710390 -0.00169541 0.00000000
1.87570278 1.44849223 -0.00168392 0.00000000
0.03977772 1.45677804 -0.00143468 0.00000000
3.34807178 0.60880642 -0.00200045 0.00000000
0.91867197 1.09101146 -0.00203505 0.00000000
2.06500748 0.84496777 0.00124044 0.00000000
2.69558598 1.10765804 -0.00187401 0.00000000
0.05493741 0.67812196 -0.00013339 0.00000000
3.62918196 0.91238334 0.00224150 0.00000000
1.31121490 0.75099088 0.00056463 0.00000000
1.24358716 1.16064251 -0.00146241 0.00000000
3.22509637 0.44168320 0.00019186 0.00000000
0.88389041 0.86149987 -0.00397001 0.00000000
0.66788706 1.45069354 -0.00115826 0.00000000
3.21753543 0.40180939 -0.00374381 0.00000000
1.95331238 0.20696113 -0.00081109 0.00000000
1.89098573 0.18635442 -0.00380166 0.00000000
3.12799564 0.82757882 -0.00060874 0.00000000
1.50795559 1.08055185 0.00286854 0.00000000
2.28807493 0.04718319 0.00101958 0.00000000
0.79451545 0.89576434 0.00043269 0.00000000
3.02617519 0.89830885 -0.00475886 0.00000000
2.88347921 0.40716445 0.00247782 0.00000000
3.97027233 0.90460798 -0.00001899 0.00000000
1.05070858 0.43495007 -0.00209496 0.00000000
1.57013428 0.44389861 0.00191044 0.00000000
1.30121539 0.49179805 -0.00184960 0.00000000
2.60732036 0.59013238 -0.00720927 0.00000000
1.96653099 1.33267122 0.00012320 0.00000000
2.11079003 1.20129794 -0.00023547 0.00000000
0.54556100 0.54389138 -0.00120898 0.00000000
3.74125218 0.16842931 -0.00177711 0.00000000
1.70007554 0.05485115 0.00611810 0.00000000
0.35351161 1.04488998 -0.00127705 0.00000000
1.45042400 0.19428900 -0.00054952 0.00000000
0.80371229 0.69487691 -0.00326312 0.00000000
3.06923484 1.26754615 0.00153554 0.00000000
2.62337782 0.42631708 -0.00200236 0.00000000
2.35769716 0.21743735 0.00344655 0.00000000
3.05680353 0.34097440 -0.00222214 0.00000000
3.10706394 1.39089227 -0.00295878 0.00000000
2.86490895 0.60490781 0.00214193 0.00000000
3.09818398 0.40482252 0.00326731 0.00000000
1.15618464 0.28829409 -0.00029899 0.00000000
0.68599145 0.23758479 -0.00038021 0.00000000
2.79464750 0.84697780 -0.00039629 0.00000000
3.06642476 0.84316068 -0.00057709 0.00000000
2.00842279 0.80626825 -0.00431760 0.00000000
1.11497263 1.39501477 0.00442579 0.00000000
2.82539951 0.63782587 0.00029555 0.00000000
3.56394163 0.55004728 0.00007501 0.00000000
0.23808622 0.42939630 -0.00143754 0.00000000
2.81082935 0.05533897 0.00090637 0.00000000
1.66188168 0.55978112 -0.00138763 0.00000000
3.62757416 0.09266882 0.00119916 0.00000000
0.37501298 0.96924762 -0.00029894 0.00000000
3.78602113 1.47884840 0.00078977 0.00000000
3.26148764 0.92094957 -0.00077791 0.00000000
0.66377673 0.28343481 -0.00219044 0.00000000
0.56524811 1.06430701 -0.00127057 0.00000000
1.67957500 0.46752012 0.00063784 0.00000000
0.25121701 0.98160912 0.00291386 0.00000000
2.53183757 0.64764200 0.00201429 0.00000000
3.72681633 0.09122386 -0.00134693 0.00000000
0.22856914 1.22919794 -0.00356154 0.00000000
2.01056224 1.10864147 0.00222648 0.00000000
1.64674187 1.32301980 0.00376745 0.00000000
3.20572376 0.37992969 0.00019283 0.00000000
0.49100928 1.30422901 0.00153877 0.00000000
3.47726116 0.74734049 0.00071161 0.00000000
2.15361936 0.60491530 -0.00032434 0.00000000
1.82807384 0.83561228 -0.00242374 0.00000000
2.56811687 1.03407537 0.00248361 0.00000000
3.57721334 0.93751815 -0.00104744 0.00000000
3.21763815 1.28436647 0.00153219 0.00000000
2.54204978 0.81077135 0.00072411 0.00000000
0.65229501 1.44248511 -0.00227800 0.00000000
2.50459283 0.36978279 -0.00442282 0.00000000
2.15020015 0.38360164 0.00149453 0.00000000
1.03050969 0.39770651 0.00268246 0.00000000
0.60418621 1.00072474 -0.00227534 0.00000000
2.51754246 0.89958630 -0.00330751 0.00000000
0.92984209 0.87302751 0.00268631 0.00000000
3.37042468 1.22801159 -0.00205542 0.00000000
3.82256819 0.84715162 0.00533202 0.00000000
1.72884276 0.32239753 -0.00078703 0.00000000
0.11078521 0.10891266 -0.00179494 0.00000000
2.35588681 1.46971830 0.00246079 0.00000000
3.06321671 0.69352339 -0.00111565 0.00000000
0.57109075 0.74551072 0.00182109 0.00000000
3.50277754 1.17626784 -0.00712812 0.00000000
3.68696220 0.00729768 0.00268954 0.00000000
2.71712658 0.26873246 0.00303105 0.00000000
1.93545613 0.36999235 0.00039312 0.00000000
3.05003267 0.82030316 -0.00077226 0.00000000
2.77084249 0.97148530 0.00105967 0.00000000
0.99141553 1.29078217 0.00330600 0.00000000
1.10646036 0.78615719 -0.00043943 0.00000000
3.23521337 0.08253027 0.00056477 0.00000000
0.76940071 0.36342245 0.00102712 0.00000000
3.14234710 1.13777346 0.00040603 0.00000000
1.94726007 0.80637077 0.00459809 0.00000000
0.21852979 0.89913326 0.00650428 0.00000000
0.48446415 0.62332994 0.00137214 0.00000000
3.61982562 1.46892398 -0.00097447 0.00000000
2.76308061 0.12681028 -0.00028276 0.00000000
2.95142726 1.30445469 -0.00629406 0.00000000
0.77331489 0.43192806 0.00168044 0.00000000
3.02370239 0.33345168 -0.00247035 0.00000000
2.61843996 0.13169715 0.00365500 0.00000000
2.70625328 1.22927747 0.00032500 0.00000000
3.51938490 0.89765003 -0.00115573 0.00000000
3.93499999 1.15557277 -0.00043897 0.00000000
1.99145722 0.15541951 0.00024017 0.00000000
2.84734054 0.89110687 -0.00175087 0.00000000
1.20636686 0.90234194 0.00063571 0.00000000
0.24149509 1.24198021 -0.00366670 0.00000000
2.15964262 0.23184143 0.00389285 0.00000000
2.54821189 1.28867202 -0.00091849 0.00000000
0.16865744 0.38379110 0.00194045 0.00000000
0.63493395 0.28053635 0.00036342 0.00000000
0.34090472 1.19523582 -0.00164702 0.00000000
2.55239297 1.13225864 -0.00220346 0.00000000
1.04447044 0.71637738 -0.00091726 0.00000000
1.91139372 0.56685568 -0.00181856 0.00000000
3.99450066 0.20222782 0.00253624 0.00000000
3.42376750 0.69636886 0.00249695 0.00000000
0.87155888 0.48266955 -0.00938890 0.00000000
1.63505974 0.74514541 -0.00234167 0.00000000
0.41453709 0.82860815 0.00224890 0.00000000
1.38357137 0.41548387 -0.00107546 0.00000000
0.85685450 0.35997270 0.00519205 0.00000000
2.43295365 0.52777615 0.00064601 0.00000000
3.59090833 1.12477999 0.00422465 0.00000000
1.13717435 0.24450279 -0.00255400 0.00000000
0.27015564 0.80874536 0.00562883 0.00000000
0.68030084 1.46510138 -0.00051320 0.00000000
2.35925346 0.65973913 0.00081859 0.00000000
1.11891369 1.01051104 0.00066173 0.00000000
3.58941473 0.15688613 0.00046723 0.00000000
3.94537401 0.57814800 0.00000331 0.00000000
0.75683669 0.03116401 -0.00399529 0.00000000
2.44783484 0.84922950 0.00209170 0.00000000
0.64327937 0.34488808 -0.00017479 0.00000000
2.16630581 1.01288429 -0.00118496 0.00000000
2.82696399 0.59427614 0.00015647 0.00000000
0.79840563 0.11009015 0.00277089 0.00000000
1.99472413 0.75268246 -0.00228243 0.00000000
0.99497429 0.67195419 0.00195419 0.00000000
0.31882932 0.59954098 0.00272368 0.00000000
3.62874264 0.37778897 0.00076190 0.00000000
0.97224472 0.15920311 -0.00193710 0.00000000
1.41534307 1.27106481 -0.00077309 0.00000000
1.91783959 0.91699095 -0.00164914 0.00000000
3.17588118 0.88300134 0.00026165 0.00000000
3.31922962 0.53679936 -0.00051925 0.00000000
3.80384279 0.52119911 -0.00051912 0.00000000
2.86613256 1.28397629 0.00025300 0.00000000
0.45892571 1.48507297 0.00150225 0.00000000
1.95433447 0.86579215 -0.00190011 0.00000000
2.47167131 1.39884186 0.00240059 0.00000000
0.46924733 0.18125047 0.00273754 0.00000000
3.79181157 0.23343713 -0.00307976 0.00000000
0.10905953 1.14441249 0.00025777 0.00000000
1.47962951 0.60595661 -0.00213147 0.00000000
3.55125215 1.26528952 0.00016917 0.00000000
3.45738850 0.20957005 -0.00118381 0.00000000
0.74352263 0.07459287 0.00270589 0.00000000
2.52734223 1.48630100 0.00261864 0.00000000
3.43155811 0.33232972 -0.00479812 0.00000000
0.68990459 0.24238986 0.00305375 0.00000000
2.35401222 1.36873768 -0.00218311 0.00000000
3.74230628 1.42331873 0.00435384 0.00000000
1.00960619 0.98498706 -0.00128873 0.00000000
3.68379069 0.08891714 0.00094059 0.00000000
0.86373859 1.39052925 0.00047639 0.00000000
1.82920198 0.23187625 -0.00090529 0.00000000
1.09552699 0.14629519 0.00351665 0.00000000
3.31021055 0.17024511 0.00334589 0.00000000
2.25103195 0.03892401 -0.00149774 0.00000000
0.65189307 0.68330261 0.00268291 0.00000000
0.30195907 0.16560869 -0.00174240 0.00000000
3.43268454 1.20208151 -0.00182953 0.00000000
3.20892959 0.38463799 0.00141422 0.00000000
3.55767508 0.82334007 -0.00345647 0.00000000
0.81978443 0.44352851 0.00174591 0.00000000
2.35788044 0.43234280 -0.00229641 0.00000000
1.69895035 0.46171212 0.00204319 0.00000000
3.89611497 0.18374779 -0.00230339 0.00000000
1.48034792 0.90285226 -0.00021609 0.00000000
1.89592455 1.25096691 0.00194475 0.00000000
0.93642006 1.10362200 0.00523845 0.00000000
0.48471831 0.85390132 -0.00012258 0.00000000
1.25339727 1.05775253 -0.00269246 0.00000000
3.35312409 1.29671155 -0.00201109 0.00000000
2.23748829 0.44635386 -0.00249961 0.00000000
2.83428725 0.99315811 0.00114326 0.00000000
2.16751501 0.36827510 0.00237125 0.00000000
2.94384139 0.40900682 0.00410208 0.00000000
1.13087536 0.82730566 -0.00501185 0.00000000
1.97045448 1.52286471 0.00149456 0.00000000
1.43456336 1.43945744 -0.00049586 0.00000000
0.65377627 0.38705033 0.00033097 0.00000000
0.61177961 0.81847309 -0.00056186 0.00000000
3.29127724 0.59398769 0.00088152 0.00000000
3.89285101 0.56571546 0.00458766 0.00000000
3.34217921 1.34174365 -0.00348425 0.00000000
0.58588274 0.48596755 0.00330608 0.00000000
2.60244044 0.43488956 0.00128565 0.00000000
2.73812767 1.43612496 0.00178776 0.00000000
3.86304248 0.64819043 -0.00549625 0.00000000
0.51211804 1.50358802 0.00127370 0.00000000
0.36840508 0.66341849 0.00184150 0.00000000
3.69228395 0.62388252 -0.00254758 0.00000000
1.20755662 0.44702151 0.00190970 0.00000000
2.75661322 0.10384747 0.00470361 0.00000000
0.27692899 1.01982203 0.00090582 0.00000000
0.73368664 1.35872493 0.00208350 0.00000000
2.97111941 0.41797701 -0.00410162 0.00000000
3.65154092 1.51206110 0.00231529 0.00000000
2.87477094 0.44681151 0.00100269 0.00000000
2.10320477 0.21733191 -0.00125787 0.00000000
3.75408244 0.41009844 0.00207813 0.00000000
3.68116403 0.68023274 -0.00291917 0.00000000
0.44500737 0.71924796 -0.00357833 0.00000000
2.55997881 1.05364995 0.00313189 0.00000000
1.15443001 1.19052427 0.00477239 0.00000000
2.41542932 0.70903817 0.00450766 0.00000000
0.30055839 1.39127135 0.00182509 0.00000000
3.15128999 1.06469469 0.00142972 0.00000000
0.34530160 0.21364136 -0.00101977 0.00000000
1.86914742 1.40617177 0.00579874 0.00000000
1.85167415 1.48103973 0.00308428 0.00000000
3.62077665 0.21884605 -0.00483039 0.00000000
0.19404373 0.95930898 -0.00201195 0.00000000
1.89498408 0.69603443 -0.00326418 0.00000000
0.49683713 0.39797163 -0.00276646 0.00000000
3.82291084 1.01266078 -0.00042316 0.00000000
0.42445915 0.34198582 -0.00356720 0.00000000
0.38192706 0.29925369 0.00023643 0.00000000
1.87943055 0.91166709 0.00258764 0.00000000
2.05761047 0.16827791 -0.00046949 0.00000000
2.51090359 0.54331792 0.00154763 0.00000000
0.10019058 0.40581881 -0.00172481 0.00000000
3.05751412 0.70683087 -0.00204638 0.00000000
1.94519834 1.00654782 0.00062606 0.00000000
3.02866019 1.15977278 -0.00301264 0.00000000
1.79032738 1.29822659 0.00017529 0.00000000
0.61467487 0.28331956 -0.00246420 0.00000000
3.90145519 1.28378569 0.00618026 0.00000000
2.38972072 0.45267463 -0.00015938 0.00000000
2.88641603 1.04707988 -0.00168001 0.00000000
3.43136006 0.78602232 0.00059851 0.00000000
1.90611215 0.73572890 -0.00135463 0.00000000
2.16451534 0.36987554 -0.00351577 0.00000000
1.85329607 1.28196897 -0.00347782 0.00000000
3.42135071 0.71828239 0.00116283 0.00000000
3.44825347 1.23702703 -0.00144250 0.00000000
2.25782103 0.08188010 0.00512328 0.00000000
1.72091162 1.20387021 0.00231537 0.00000000
1.57775944 0.15006643 0.00087381 0.00000000
1.46517431 1.07000491 -0.00105009 0.00000000
3.36459115 0.14246799 0.00167385 0.00000000
3.78014806 0.33947333 -0.00028743 0.00000000
1.87639609 1.38790860 0.00196479 0.00000000
0.39471740 1.41819023 0.00148937 0.00000000
3.23016496 0.56521775 -0.00438367 0.00000000
0.65418892 0.96345016 -0.00230424 0.00000000
1.85971544 1.15132802 0.00017277 0.00000000
1.16258770 1.07853648 -0.00117983 0.00000000
2.92666049 0.80529660 -0.00212992 0.00000000
0.88865681 0.43341124 0.00620911 0.00000000
0.04014154 0.45672631 -0.00123232 0.00000000
0.66007676 1.34245185 -0.00069883 0.00000000
1.19567698 0.13687318 -0.00167772 0.00000000
1.78533814 0.16857208 -0.00157620 0.00000000
3.05679492 1.09592053 -0.00276260 0.00000000
2.57399461 0.10100372 0.00051797 0.00000000
1.29261098 1.21564037 -0.00038113 0.00000000
3.65360268 0.29343000 0.00081119 0.00000000
3.71153440 1.14986894 0.00091487 0.00000000
0.56250523 0.13932698 -0.00210268 0.00000000
0.40689969 1.46213984 -0.00058409 0.00000000
2.47111776 1.34054728 0.00268464 0.00000000
2.56511505 0.60362214 -0.00489136 0.00000000
3.63875290 0.51672189 -0.00116791 0.00000000
0.86277644 1.34006350 -0.00147532 0.00000000
2.06585005 0.19944593 -0.00227756 0.00000000
0.48719066 0.46427200 -0.00002089 0.00000000
0.48287175 0.94580940 0.00160285 0.00000000
0.24117639 0.74958930 -0.00111526 0.00000000
2.07952039 0.41490988 -0.00081237 0.00000000
2.90272434 0.45113423 0.00133798 0.00000000
0.47195606 0.58922314 0.00095926 0.00000000
1.19316440 0.16111689 -0.00002219 0.00000000
3.56975558 1.14920324 -0.00464431 0.00000000
3.14408274 0.86244668 -0.00521920 0.00000000
1.77193841 0.03186872 -0.00256916 0.00000000
1.18844653 1.19524451 0.00312108 0.00000000
1.04015643 0.36009158 0.00424599 0.00000000
1.66184750 1.40393579 0.00061199 0.00000000
2.23185499 0.12391902 0.00121470 0.00000000
0.25789003 0.42335108 0.00036289 0.00000000
2.71404549 0.26736459 0.00187580 0.00000000
2.47195560 1.03343591 -0.00259292 0.00000000
2.38175283 0.88201088 0.00298268 0.00000000
0.83050810 1.31528494 0.00122590 0.00000000
1.77453866 0.36510170 0.00071459 0.00000000
1.23948356 0.89422230 -0.00087800 0.00000000
2.47175232 0.49368657 0.00229024 0.00000000
3.59866650 0.83482542 0.00286645 0.00000000
4.00789567 1.10226872 0.00053439 0.00000000
1.79597003 0.20122651 0.00388291 0.00000000
2.51673593 0.46778001 0.00403998 0.00000000
3.05782942 0.21401924 0.00163029 0.00000000
0.70537712 0.31282580 -0.00267571 0.00000000
3.26862570 0.84011038 0.00048142 0.00000000
3.68250303 0.84801404 0.00233709 0.00000000
3.56155013 0.54384389 0.00377539 0.00000000
3.04781963 0.02176032 0.00232420 0.00000000
2.68985162 0.71161141 -0.00263116 0.00000000
1.95576606 1.38933884 0.00270480 0.00000000
2.57266191 0.94616059 0.00003686 0.00000000
2.23371406 1.14233643 0.00183500 0.00000000
2.69996814 0.97064775 -0.00501069 0.00000000
2.76437658 0.26306419 -0.00052819 0.00000000
1.31345053 1.27253004 -0.00526239 0.00000000
1.73518883 1.15620558 0.00006034 0.00000000
3.56747923 0.16164557 0.00459072 0.00000000
3.66909565 1.02590182 -0.00199445 0.00000000
3.24697752 0.24230554 -0.00094463 0.00000000
0.29123403 1.37900342 -0.00253512 0.00000000
1.19665686 1.06166418 0.00134799 0.00000000
0.44518542 0.51223612 0.00324398 0.00000000
0.52725120 0.53792847 0.00136177 0.00000000
2.48321920 1.49551132 0.00107352 0.00000000
3.25660831 1.02497742 -0.00148059 0.00000000
1.46573497 0.69016545 -0.00001812 0.00000000
2.53883252 1.47414481 0.00069594 0.00000000
3.81369366 1.47081902 0.00092988 0.00000000
0.86311619 0.41188496 -0.00153524 0.00000000
1.96720009 1.51758903 0.00092574 0.00000000
1.52615505 0.52792080 -0.00154114 0.00000000
1.41805432 0.25622561 0.00068050 0.00000000
3.19369157 0.68354395 -0.00174094 0.00000000
0.24178899 0.65628925 -0.00006629 0.00000000
1.05794675 0.65841029 0.00010310 0.00000000
1.79899382 1.37617794 -0.00441495 0.00000000
2.13058213 1.03689393 -0.00063989 0.00000000
1.46423436 1.47515043 -0.00096708 0.00000000
1.39911842 1.08891452 -0.00381079 0.00000000
1.70603975 0.82911359 -0.00075317 0.00000000
3.34446894 1.33359555 0.00389815 0.00000000
1.69815576 0.10896258 0.00229503 0.00000000
0.48554415 0.46694179 -0.00148705 0.00000000
2.12039947 1.11765024 -0.00404610 0.00000000
2.58820280 0.86978418 -0.00170790 0.00000000
0.01468942 0.76609140 -0.00058481 0.00000000
1.11756932 1.02795899 0.00194535 0.00000000
1.15615916 1.02852207 -0.00362009 0.00000000
0.18035964 0.20930383 0.00038297 0.00000000
2.97948966 0.93932335 -0.00450044 0.00000000
1.40280081 0.49177586 -0.00252571 0.00000000
1.58178079 1.52518491 -0.00177797 0.00000000
0.73708848 0.61058317 -0.00011192 0.00000000
0.46269500 0.45516882 -0.00173780 0.00000000
0.48713682 0.51218499 -0.00034566 0.00000000
3.04370881 1.13674401 0.00361422 0.00000000
1.43013695 1.13374449 0.00002902 0.00000000
1.28897869 0.34172083 -0.00146582 0.00000000
0.50680016 0.67543543 -0.00389190 0.00000000
2.05780077 0.14969691 -0.00038757 0.00000000
3.94026113 0.54809210 -0.00095627 0.00000000
1.88299509 0.37249686 0.00230149 0.00000000
2.32254079 1.19442827 0.00270716 0.00000000
1.14251238 0.02857926 0.00290687 0.00000000
0.05370979 1.41888180 0.00019260 0.00000000
2.67063115 0.36617567 -0.00188222 0.00000000
3.26347707 1.13354791 0.00320889 0.00000000
3.17725931 0.72854380 -0.00194676 0.00000000
2.54680349 1.38006304 0.00027494 0.00000000
1.00656526 1.09976691 -0.00040632 0.00000000
1.90981845 0.66905252 0.00362092 0.00000000
1.78238821 0.28361271 0.00107115 0.00000000
3.50081355 1.01559411 -0.00258508 0.00000000
3.59020485 0.02207044 -0.00016574 0.00000000
2.36307373 0.91006024 -0.00262881 0.00000000
2.67355816 1.04281119 -0.00117039 0.00000000
2.34687462 0.14029758 0.00112135 0.00000000
2.01942228 1.42149061 0.00362632 0.00000000
3.45918005 1.09944344 0.00685203 0.00000000
1.57984781 1.17997983 -0.00545783 0.00000000
0.89470133 1.03687461 0.00205142 0.00000000
0.80369663 0.71998418 -0.00534544 0.00000000
1.67607416 0.58449938 0.00177736 0.00000000
3.89503888 1.51259907 0.00204218 0.00000000
1.87872699 0.43645558 0.00384650 0.00000000
3.82224837 0.40625632 0.00123879 0.00000000
3.19024461 0.85049998 -0.00029147 0.00000000
0.76633162 0.96354830 -0.00154561 0.00000000
3.11965000 0.55402192 0.00286024 0.00000000
0.93675009 0.25940756 -0.00181771 0.00000000
1.07638416 1.18666189 -0.00308016 0.00000000
1.65235092 0.72650165 0.00062317 0.00000000
2.85378612 0.12761417 0.00146739 0.00000000
0.16065728 0.21017502 0.00174096 0.00000000
0.53378111 1.04764747 -0.00450019 0.00000000
2.06487350 0.99491164 -0.00004881 0.00000000
0.75673374 0.85573648 -0.00030843 0.00000000
2.30411292 0.38867001 0.00195715 0.00000000
2.05363802 1.30304665 0.00515320 0.00000000
0.69263636 0.59358033 -0.00134288 0.00000000
1.93624107 0.64531673 0.00231931 0.00000000
0.20943965 0.25893203 -0.00329407 0.00000000
1.55618478 0.59623424 0.00180255 0.00000000
2.92230457 1.17070494 0.00119298 0.00000000
1.64399527 0.01176318 0.00144914 0.00000000
2.02052938 1.32875070 0.00001826 0.00000000
0.13681930 0.93065815 -0.00504151 0.00000000
0.75427974 0.52882866 -0.00425207 0.00000000
0.86943867 0.25195128 -0.00223711 0.00000000
0.58132779 1.04570593 -0.00373566 0.00000000
0.34052383 0.75605108 0.00179173 0.00000000
0.34067221 1.14473234 0.00174085 0.00000000
3.20636257 0.54160737 0.00192609 0.00000000
3.11245404 1.29598786 0.00243384 0.00000000
1.13662667 0.45706904 0.00298867 0.00000000
2.57143537 0.28419424 -0.00448937 0.00000000
2.95891118 0.19140658 -0.00081098 0.00000000
3.71765955 0.77406332 0.00357217 0.00000000
1.05115310 1.07043321 0.00122109 0.00000000
3.32157627 1.14136588 -0.00086703 0.00000000
3.12153128 1.20562886 0.00237928 0.00000000
3.07455832 0.59629386 0.00192985 0.00000000
2.67806882 0.98758718 -0.00214728 0.00000000
1.56171790 0.50595498 -0.00516223 0.00000000
1.85233496 0.30989272 0.00017332 0.00000000
0.04122529 0.42566394 0.00005492 0.00000000
3.13875694 0.22001690 0.00252932 0.00000000
3.56147082 1.35672998 0.00428079 0.00000000
3.97888205 1.40685864 -0.00261617 0.00000000
3.72080742 0.58810709 0.00244165 0.00000000
2.90334601 0.86107493 0.00032758 0.00000000
1.23076639 1.10989309 -0.00134529 0.00000000
3.90254961 0.19090793 0.00235862 0.00000000
0.12115244 0.58340466 0.00156864 0.00000000
1.69518786 0.31803841 -0.00295065 0.00000000
1.01835981 0.27116063 0.00047740 0.00000000
1.01021504 1.23647950 0.00070473 0.00000000
3.94189928 0.31089314 -0.00094418 0.00000000
0.92286906 1.09447184 -0.00002488 0.00000000
2.98917968 1.19311032 -0.00276829 0.00000000
3.66249589 1.20283425 -0.00612284 0.00000000
2.74660491 0.37177971 -0.00148789 0.00000000
3.29876065 0.38997131 -0.00089245 0.00000000
2.32089454 0.37656493 0.00179760 0.00000000
0.47960420 0.46641827 -0.00062339 0.00000000
0.00545638 0.72811904 -0.00243169 0.00000000
2.96991380 0.54310100 0.00148115 0.00000000
2.73805098 1.05131830 0.00082237 0.00000000
3.44197519 0.85412046 0.00173685 0.00000000
0.54472751 0.42975317 -0.00065002 0.00000000
1.54923537 0.87877958 -0.00068530 0.00000000
2.25588567 0.88322711 -0.00181770 0.00000000
0.07192892 0.52730976 0.00059449 0.00000000
3.84450850 1.00501835 0.00324519 0.00000000
0.34648995 0.37863560 0.00299647 0.00000000
1.45503549 0.31511967 -0.00148270 0.00000000
1.58145756 1.41634583 -0.00114905 0.00000000
2.38488930 1.05823098 -0.00486615 0.00000000
2.50433773 0.90580650 0.00396956 0.00000000
0.35318706 0.13390849 0.00272681 0.00000000
3.30905390 0.23643821 0.00048211 0.00000000
0.00638657 0.44841612 -0.00511428 0.00000000
3.71434126 1.50572730 -0.00240700 0.00000000
0.79063098 1.00370424 0.00026551 0.00000000
2.61255458 0.82224705 0.00612990 0.00000000
2.27941536 0.28001802 -0.00087552 0.00000000
0.95209916 0.37905721 0.00378921 0.00000000
0.28195193 0.06346356 0.00186882 0.00000000
0.85924645 0.48483146 -0.00296180 0.00000000
1.80962087 0.17398355 -0.00014937 0.00000000
2.28842537 0.33222620 -0.00455073 0.00000000
0.58402130 0.34898173 0.00131996 0.00000000
2.46684339 0.32006902 -0.00221557 0.00000000
3.67826877 0.97826324 -0.00053942 0.00000000
0.13311078 0.71236333 0.00160512 0.00000000
0.51457654 1.43910276 0.00185170 0.00000000
3.62444225 0.24143726 0.00279545 0.00000000
3.99670273 0.64236359 -0.00059801 0.00000000
0.42064595 0.61672314 0.00110440 0.00000000
3.75298282 0.79173078 -0.00394356 0.00000000
0.95948443 0.37988329 -0.00004952 0.00000000
1.70487590 0.15286438 -0.00172349 0.00000000
3.86434338 0.13959269 -0.00318381 0.00000000
1.58968425 1.17144186 -0.00278421 0.00000000
1.79667772 1.05687696 0.00052938 0.00000000
3.82954142 0.22463483 0.00078907 0.00000000
3.18659079 0.24938167 0.00284167 0.00000000
4.01037070 1.06439610 0.00088671 0.00000000
1.45136414 0.89280561 0.00056262 0.00000000
1.51074583 0.13149281 0.00145426 0.00000000
2.73811023 0.97397688 -0.00256717 0.00000000
0.66232904 0.12213574 0.00184421 0.00000000
2.67009263 0.02146995 -0.00154662 0.00000000
2.58043316 0.93919448 0.00069635 0.00000000
0.31610807 1.25873821 -0.00225132 0.00000000
2.53184096 1.23676385 -0.00080096 0.00000000
2.07294874 0.00506885 0.00188068 0.00000000
1.57450036 0.87180806 -0.00447044 0.00000000
2.53546297 0.22546679 0.00071884 0.00000000
2.96641154 1.21004555 0.00222177 0.00000000
3.29284659 1.51913150 -0.00132762 0.00000000
1.35469269 1.21454579 0.00347959 0.00000000
0.17508240 0.40464436 -0.00170022 0.00000000
1.70734375 1.14851369 -0.00089675 0.00000000
0.31802784 1.50445323 -0.00531157 0.00000000
2.40105577 0.51860180 0.00036323 0.00000000
2.12859773 0.83716894 0.00156518 0.00000000
1.43642815 0.43282985 -0.00365424 0.00000000
0.93196321 0.29240492 -0.00051789 0.00000000
2.64298993 0.58419388 -0.00084318 0.00000000
1.09266375 0.77886086 0.00138006 0.00000000
0.10435351 1.00412189 0.00073239 0.00000000
0.66202157 0.71722097 -0.00130391 0.00000000
0.71392200 0.56294450 -0.00214241 0.00000000
1.79717506 0.59440828 -0.00024782 0.00000000
0.79485717 0.04740190 0.00173404 0.00000000
1.60324618 1.41292996 -0.00197351 0.00000000
0.29633125 0.42383573 -0.00011657 0.00000000
1.82338556 1.26956116 0.00685895 0.00000000
1.34064173 1.30816632 -0.00127530 0.00000000
3.95408079 1.03323991 0.00258384 0.00000000
3.32304973 0.13933711 0.00358576 0.00000000
0.14484124 1.49411659 -0.00191420 0.00000000
0.70431410 0.10127137 -0.00132202 0.00000000
0.53965331 0.31338382 0.00185516 0.00000000
0.42290226 1.37126341 -0.00396805 0.00000000
2.10584803 1.05813103 -0.00144149 0.00000000
3.10774724 0.34550835 -0.00027895 0.00000000
3.43315944 0.85565917 -0.00104440 0.00000000
0.38027311 0.80845846 0.00025064 0.00000000
2.70409740 0.27755185 -0.00096682 0.00000000
2.87842175 0.95745708 -0.00271018 0.00000000
1.36756448 1.08278055 0.00258692 0.00000000
0.53097293 0.74402726 -0.00170451 0.00000000
3.37177424 0.44517938 -0.00125322 0.00000000
3.97467738 0.71197126 0.00121313 0.00000000
1.72688124 1.11205719 0.00084306 0.00000000
0.20761449 0.79153799 0.00267502 0.00000000
3.08732728 0.38530017 0.00156713 0.00000000
2.58015852 0.79497878 -0.00016752 0.00000000
1.46255400 1.27268046 0.00336787 0.00000000
3.01825177 0.63090173 -0.00438362 0.00000000
3.09352708 0.17683931 0.00302515 0.00000000
1.87629626 1.24610041 0.00224953 0.00000000
3.18353599 0.39333959 0.00059141 0.00000000
0.49954507 1.46884465 -0.00030872 0.00000000
1.80271089 0.93784128 -0.00256884 0.00000000
3.16828895 1.18528678 0.00106197 0.00000000
4.02482972 1.34130631 -0.00154403 0.00000000
3.86970982 1.36118012 0.00259338 0.00000000
0.10558254 0.37661961 0.00121015 0.00000000
2.86703259 0.50168210 0.00065782 0.00000000
0.42777531 1.30000397 -0.00042188 0.00000000
2.83044838 1.34426880 -0.00230912 0.00000000
2.24481091 0.62210781 0.00273780 0.00000000
2.56517288 1.32904733 -0.00004116 0.00000000
1.29033243 0.17500159 -0.00016741 0.00000000
2.92406548 0.08452076 -0.00189689 0.00000000
2.08470224 1.42591902 0.00240202 0.00000000
2.88497748 0.47106879 0.00421465 0.00000000
3.37923065 0.84357795 0.00036804 0.00000000
0.62531439 0.38571333 -0.00057662 0.00000000
2.33842439 1.00504367 0.00262077 0.00000000
1.71412942 0.08956453 -0.00076096 0.00000000
2.74431017 1.37256816 -0.00258951 0.00000000
1.81631962 1.48255050 -0.00165032 0.00000000
0.21343742 1.46699976 -0.00155638 0.00000000
1.30481831 0.88926851 -0.00038823 0.00000000
0.22550317 0.61324720 -0.00244764 0.00000000
0.21402983 1.15714716 -0.00245639 0.00000000
3.53287548 1.21751721 0.00258895 0.00000000
0.33966997 1.25703242 0.00316243 0.00000000
3.15366856 1.21810399 0.00201328 0.00000000
0.07337354 0.87756631 -0.00166035 0.00000000
1.94700848 0.81144180 -0.00139135 0.00000000
0.02602093 0.66757648 0.00413713 0.00000000
1.49482937 0.58629401 -0.00262257 0.00000000
0.62025780 0.37540821 -0.00577529 0.00000000
2.38380650 0.99542635 -0.00064826 0.00000000
1.13584710 0.26393306 -0.00014580 0.00000000
0.04653313 1.12257771 -0.00403798 0.00000000
3.91373268 1.00086074 -0.00354466 0.00000000
3.71425527 0.04990377 -0.00131271 0.00000000
0.16545975 0.87677235 -0.00495103 0.00000000
2.48330225 0.09647549 -0.00137745 0.00000000
0.24281485 1.17751279 -0.00178548 0.00000000
1.90515725 0.51053172 -0.00089837 0.00000000
0.14083940 1.26095539 -0.00188897 0.00000000
0.71954618 1.49131059 -0.00090089 0.00000000
3.71298977 0.84663036 -0.00245045 0.00000000
3.63184248 1.29722927 -0.00051256 0.00000000
1.41122107 0.13534026 -0.00442363 0.00000000
3.68019470 0.35048921 -0.00006173 0.00000000
2.34853080 0.01305143 -0.00181592 0.00000000
0.29378602 0.22804855 0.00082568 0.00000000
3.12459349 1.00504820 0.00235826 0.00000000
3.65188049 0.67230289 0.00187309 0.00000000
3.43989976 0.91443424 -0.00116363 0.00000000
0.35446786 1.28103734 0.00333902 0.00000000
0.13227030 0.40674323 0.00165662 0.00000000
1.28424079 0.26576986 -0.00530142 0.00000000
0.73940959 0.49589535 -0.00175899 0.00000000
4.01464133 0.89782831 -0.00259722 0.00000000
2.55702701 0.02044017 0.00117319 0.00000000
2.12978246 0.16560282 -0.00098766 0.00000000
1.01903859 1.51998784 -0.00072323 0.00000000
0.89055020 1.34796861 0.00018800 0.00000000
1.67938898 1.43571248 0.00140088 0.00000000
1.29559250 0.05138374 -0.00354421 0.00000000
2.27416692 0.61272482 0.00090900 0.00000000
3.57595628 0.90306995 0.00297784 0.00000000
3.97940350 0.66808760 -0.00172284 0.00000000
0.90727980 0.20296649 0.00229187 0.00000000
0.59077197 0.92753704 -0.00417989 0.00000000
0.18121260 0.76397232 0.00094368 0.00000000
2.09854154 1.51325859 -0.00195221 0.00000000
3.71614372 0.05417410 -0.00605458 0.00000000
3.50936169 1.25788261 0.00259527 0.00000000
2.17164338 0.77800081 -0.00120868 0.00000000
0.66720764 1.32772898 -0.00042417 0.00000000
1.89219644 0.82285027 0.00197152 0.00000000
1.45078264 1.05928343 0.00345676 0.00000000
0.69069661 1.04218806 -0.00214272 0.00000000
2.21312157 0.93041558 -0.00030910 0.00000000
2.14436919 0.29302054 -0.00054598 0.00000000
0.55385768 1.38602573 0.00268289 0.00000000
2.76643954 0.02981883 0.00167682 0.00000000
3.84281853 1.52586673 0.00321197 0.00000000
1.09717834 0.19894194 -0.00326785 0.00000000
0.55804927 0.69003740 -0.00181414 0.00000000
2.43698657 0.93349714 0.00094347 0.00000000
2.76289260 0.84123668 -0.00292676 0.00000000
0.83821122 1.00881524 0.00395884 0.00000000
0.51996254 1.18145175 -0.00100878 0.00000000
3.19200815 0.62869236 -0.00006703 0.00000000
3.71788410 1.07382142 -0.00039214 0.00000000
3.69035408 1.15715250 0.00110468 0.00000000
1.59268875 0.22629392 -0.00018116 0.00000000
2.97450332 0.84455747 0.00046396 0.00000000
3.78817111 0.23680995 0.00023027 0.00000000
3.21378720 1.27837995 -0.00108231 0.00000000
1.30783254 1.37534591 -0.00108842 0.00000000
3.38791053 0.64204117 0.00067809 0.00000000
1.17924774 1.29237686 0.00053627 0.00000000
0.71062481 1.16610191 -0.00229870 0.00000000
3.56025787 0.17945856 -0.00279937 0.00000000
2.88826676 1.50785741 -0.00334776 0.00000000
1.44448254 0.59664438 0.00283182 0.00000000
1.00783738 1.39830355 -0.00407126 0.00000000
3.13716522 0.50638447 0.00135790 0.00000000
0.74963487 1.00084119 0.00013535 0.00000000
2.08314408 1.32046235 0.00210340 0.00000000
1.65621898 0.00612985 -0.00299818 0.00000000
3.20666215 0.46963821 -0.00289251 0.00000000
2.19508911 0.04210693 -0.00420356 0.00000000
0.80559970 0.77685616 -0.00186097 0.00000000
0.71651019 0.54222473 -0.00098241 0.00000000
2.52468151 0.43126797 0.00289333 0.00000000
2.02656354 1.13623262 -0.00441086 0.00000000
2.04680896 0.95927044 0.00013436 0.00000000
2.59294602 0.93574298 -0.00452002 0.00000000
3.58829455 0.11307616 0.00030766 0.00000000
0.91749242 0.89633779 0.00125002 0.00000000
1.36129423 0.91274790 -0.00037939 0.00000000
2.22522854 1.15257180 0.00232807 0.00000000
3.04357373 1.35664975 0.00137213 0.00000000
0.18777506 0.77547859 0.00321220 0.00000000
0.06621159 0.11950181 -0.00103132 0.00000000
2.15924109 1.41553688 0.00029193 0.00000000
2.64188343 1.26886283 0.00208047 0.00000000
3.34581911 0.48415277 -0.00159462 0.00000000
1.42797467 1.19861171 -0.00118481 0.00000000
0.44503191 0.98920974 0.00162378 0.00000000
0.91884259 0.91152352 0.00023341 0.00000000
2.44024990 1.46100702 0.00007964 0.00000000
2.04714922 0.50652439 0.00200141 0.00000000
3.24333865 1.11368733 0.00059111 0.00000000
3.11617874 0.25754292 -0.00117723 0.00000000
1.82480363 1.16940665 -0.00379696 0.00000000
2.08910099 1.12315015 -0.00187122 0.00000000
0.11095785 1.48990319 -0.00070743 0.00000000
0.82599280 1.10505828 0.00100703 0.00000000
1.16076864 1.09854574 0.00286772 0.00000000
0.76889297 0.15066801 -0.00032460 0.00000000
3.71722983 0.80993019 -0.00409215 0.00000000
2.67122265 0.43036826 0.00232619 0.00000000
1.57290466 0.04372838 0.00170822 0.00000000
