4.210220 1.253028 -0.005105 0.0
1.439599 1.090219 -0.001366 0.0
2.124749 1.565379 0.000684 0.0
2.729529 0.409566 0.000254 0.0
2.964102 0.226739 -0.003171 0.0
3.102503 0.644182 0.001054 0.0
0.238418 0.486747 0.001905 0.0
1.537832 0.518684 -0.003719 0.0
1.144302 0.220429 -0.000093 0.0
3.325408 0.916376 -0.002189 0.0
0.086582 0.525660 -0.001669 0.0
4.241412 0.292762 -0.000061 0.0
0.413251 0.435282 -0.002390 0.0
0.445768 0.058629 -0.000472 0.0
1.034345 1.149673 -0.000225 0.0
0.178648 0.773372 -0.002435 0.0
3.441529 1.690699 0.002131 0.0
0.790084 0.440185 0.001832 0.0
2.464308 0.339578 -0.000091 0.0
0.345871 0.316538 -0.002369 0.0
2.402059 0.844402 0.001473 0.0
1.472118 1.343787 0.001309 0.0
0.624887 1.399418 -0.000544 0.0
0.268631 1.166653 0.000711 0.0
0.601494 1.122317 0.000397 0.0
3.496972 1.009144 -0.004099 0.0
1.467468 0.956800 0.001573 0.0
2.610056 0.192401 -0.000919 0.0
0.825998 1.763159 -0.000515 0.0
2.048676 1.177024 -0.001007 0.0
3.040204 0.338912 0.001536 0.0
0.968618 1.332765 0.002967 0.0
2.251406 1.235659 0.000019 0.0
2.644832 0.020628 -0.003134 0.0
1.968147 1.844614 0.001409 0.0
2.907777 1.593381 -0.000944 0.0
0.967970 0.408295 -0.000628 0.0
2.151979 1.197974 0.000222 0.0
2.897189 0.951065 0.000055 0.0
4.119643 0.428463 0.006423 0.0
0.350085 1.069395 -0.000889 0.0
0.959647 1.481830 -0.001800 0.0
3.722052 1.342917 -0.003923 0.0
0.763912 0.973752 0.000889 0.0
3.360623 0.057953 -0.000525 0.0
4.072004 0.003850 -0.004086 0.0
4.289421 0.400818 -0.001622 0.0
1.827958 0.121737 0.006163 0.0
1.791991 0.397501 -0.003278 0.0
2.122020 1.037953 0.002195 0.0
1.066474 0.387248 -0.000972 0.0
2.576182 0.201360 0.003077 0.0
3.273550 1.683679 -0.003829 0.0
3.154907 0.952287 0.002402 0.0
3.787628 1.355329 0.003018 0.0
0.996834 0.679761 0.002253 0.0
3.157085 0.457937 -0.000233 0.0
4.251319 0.867091 0.002634 0.0
0.578719 1.803751 -0.000689 0.0
1.678957 1.314699 0.001489 0.0
0.175331 0.536520 0.000269 0.0
3.768102 1.793311 0.000954 0.0
2.403814 1.694084 -0.000564 0.0
2.335002 1.365852 0.001803 0.0
0.506403 0.502601 -0.002287 0.0
0.716829 1.140835 0.000552 0.0
0.547177 1.752793 -0.001249 0.0
0.304022 0.299071 -0.000638 0.0
1.931032 1.310262 0.003128 0.0
2.780032 0.328151 0.007757 0.0
3.841875 0.888863 -0.000164 0.0
2.884138 1.061922 0.001675 0.0
3.792962 0.262909 -0.007862 0.0
2.198276 1.165732 0.000126 0.0
3.950360 0.836980 0.000737 0.0
3.259150 1.365143 0.002973 0.0
0.072572 0.159242 0.000814 0.0
3.441538 0.518342 0.001655 0.0
0.921640 1.188343 -0.000158 0.0
1.978812 0.731048 -0.001353 0.0
1.976462 0.466802 -0.000547 0.0
1.126805 0.975524 0.000373 0.0
3.794984 1.384247 0.003484 0.0
1.929311 0.977504 0.001154 0.0
0.319046 0.434823 0.001186 0.0
1.420528 1.358991 -0.003965 0.0
1.755076 1.527114 0.001593 0.0
4.267558 0.734385 0.000705 0.0
1.438058 0.221885 -0.004453 0.0
2.140009 1.823588 -0.001759 0.0
0.786430 0.595074 0.004062 0.0
0.183987 0.094542 -0.002984 0.0
1.918594 1.754521 0.001368 0.0
1.517455 0.504323 0.002612 0.0
0.606858 0.756568 -0.000950 0.0
1.848428 0.063552 0.006113 0.0
2.031540 0.093951 -0.002757 0.0
1.695651 0.488259 0.001741 0.0
0.647125 1.342163 0.000071 0.0
3.344818 0.057558 -0.000841 0.0
3.930339 0.706106 -0.001214 0.0
0.641798 1.330042 -0.001107 0.0
3.470911 1.370656 0.002184 0.0
3.064639 1.774026 0.004563 0.0
1.412502 0.868721 -0.001125 0.0
0.223148 0.913314 -0.003335 0.0
0.189727 0.411359 0.002744 0.0
1.232940 0.149404 -0.004049 0.0
1.729935 0.587782 -0.001058 0.0
1.504093 0.290820 0.004171 0.0
4.082457 1.187775 0.000051 0.0
1.023856 1.529416 0.000507 0.0
2.276966 1.187786 -0.002133 0.0
3.575852 1.270070 -0.004043 0.0
4.199619 1.321723 -0.000324 0.0
0.088883 0.894822 0.000925 0.0
3.578883 0.231483 -0.000916 0.0
3.999371 1.765842 0.001732 0.0
1.839762 0.360572 -0.000137 0.0
0.915672 1.686353 -0.000867 0.0
3.425900 0.625185 0.000706 0.0
0.055719 0.003914 0.000389 0.0
2.231933 0.591860 0.000996 0.0
3.939843 0.377997 -0.001979 0.0
3.299936 1.437855 0.001713 0.0
2.887421 1.552935 -0.002159 0.0
3.068006 0.571718 -0.003455 0.0
0.820578 1.557334 0.000524 0.0
0.834583 0.080371 -0.001358 0.0
3.837098 0.228168 -0.002397 0.0
2.284068 0.411856 0.002028 0.0
1.709904 1.815985 -0.001494 0.0
0.274052 0.650964 0.001508 0.0
1.383982 1.303492 -0.000418 0.0
0.908100 0.311962 0.000984 0.0
1.410952 1.623776 -0.001210 0.0
0.132820 1.529383 0.002214 0.0
2.531954 1.471557 -0.001724 0.0
1.002500 1.482128 0.002570 0.0
0.476158 0.233205 -0.002827 0.0
0.557752 1.847294 0.004183 0.0
1.341034 0.460244 -0.002265 0.0
1.179089 0.682063 -0.000148 0.0
2.675315 0.893091 -0.005332 0.0
1.212316 0.754039 -0.003298 0.0
2.459836 0.814690 -0.000616 0.0
3.513043 0.477899 -0.005111 0.0
3.658177 0.363751 -0.001410 0.0
4.005347 0.082670 -0.000494 0.0
1.867979 1.550723 0.002993 0.0
3.089884 0.079798 -0.001715 0.0
3.846248 0.863452 -0.004927 0.0
1.744067 0.816242 -0.005512 0.0
1.150782 1.655470 -0.002559 0.0
1.593755 1.128131 -0.000257 0.0
2.443380 1.565224 0.005116 0.0
2.460899 1.502068 -0.002099 0.0
3.560621 0.590052 -0.003746 0.0
3.538970 1.350419 0.003575 0.0
4.009703 0.025573 -0.001805 0.0
3.762777 1.750477 -0.000797 0.0
0.078427 1.387195 -0.001996 0.0
2.081354 1.643242 0.001045 0.0
3.639652 1.163830 0.003420 0.0
3.404993 0.563917 -0.000650 0.0
0.258820 1.564748 0.000473 0.0
1.692737 0.609173 -0.002366 0.0
0.930387 1.049949 -0.004474 0.0
1.122777 1.732782 -0.002336 0.0
0.529330 0.828752 -0.001986 0.0
3.387434 0.051937 0.001277 0.0
2.620327 0.846840 -0.002140 0.0
1.205698 0.779677 -0.001678 0.0
2.631339 1.123976 -0.002201 0.0
0.877136 0.993387 0.001942 0.0
0.886214 0.943755 -0.003711 0.0
3.317787 1.595505 0.000124 0.0
4.063932 0.451534 -0.000234 0.0
0.449965 0.546344 -0.003413 0.0
3.791932 1.024588 0.001080 0.0
0.425134 1.846146 0.000789 0.0
1.799690 0.459422 -0.004341 0.0
4.228714 0.943268 -0.003516 0.0
3.033531 0.594552 0.000985 0.0
0.220241 0.105236 -0.001741 0.0
1.965413 1.078160 -0.000466 0.0
2.160115 1.741169 0.001278 0.0
0.729323 0.607522 0.004199 0.0
0.976873 1.434794 0.000189 0.0
0.720940 0.788259 -0.000781 0.0
2.924716 0.481423 -0.001345 0.0
4.274403 0.441947 0.002573 0.0
3.529664 1.692402 0.002171 0.0
0.806398 1.457153 0.000794 0.0
2.012016 1.583819 -0.001610 0.0
3.217857 0.619724 -0.000578 0.0
2.459126 1.781793 -0.002954 0.0
2.487948 1.593062 0.002632 0.0
3.038251 0.933613 -0.000388 0.0
0.969079 1.195947 0.001615 0.0
3.485749 0.108008 0.000700 0.0
2.015654 1.602340 -0.001406 0.0
1.271896 1.175218 -0.003211 0.0
4.029541 1.599558 -0.002762 0.0
0.272083 1.066851 0.002175 0.0
1.047040 0.763660 0.002541 0.0
4.275976 1.335892 -0.002582 0.0
0.402107 0.635022 -0.001703 0.0
3.143821 1.744809 0.001975 0.0
1.644459 0.613603 0.001958 0.0
1.950336 0.196168 0.000621 0.0
3.928677 1.094037 0.001597 0.0
3.961033 1.725504 0.003158 0.0
2.492729 1.461815 -0.001285 0.0
2.792737 1.156304 -0.001984 0.0
0.052815 1.474269 0.000761 0.0
3.763380 0.959215 -0.002359 0.0
0.509946 1.191341 -0.000677 0.0
1.199786 0.370567 -0.000642 0.0
2.492719 1.785497 0.002632 0.0
1.466972 0.784006 0.004020 0.0
2.593207 1.084066 0.003205 0.0
0.456497 0.836505 0.001155 0.0
3.077462 1.067986 0.001154 0.0
0.941615 1.140100 -0.003856 0.0
1.051001 1.225067 -0.003480 0.0
0.972679 0.585195 0.000045 0.0
1.595931 0.854934 0.003993 0.0
1.548096 0.447472 -0.000867 0.0
2.181412 0.076043 0.000476 0.0
1.236954 0.442556 -0.002769 0.0
2.572028 1.570321 -0.000879 0.0
0.114435 0.766535 0.005586 0.0
3.873050 0.777627 0.000338 0.0
1.662246 0.549579 0.001933 0.0
4.223796 0.341852 0.002902 0.0
0.260664 1.169315 0.000814 0.0
3.478768 0.976904 -0.000941 0.0
0.755205 1.477290 0.002796 0.0
2.439475 1.175287 0.005187 0.0
0.482627 1.207125 0.000574 0.0
2.660402 1.761332 0.000780 0.0
2.846456 1.701124 0.002975 0.0
3.852839 1.412869 -0.000047 0.0
1.623421 1.784848 0.001734 0.0
0.985008 0.342506 -0.003111 0.0
3.227805 0.477747 -0.001089 0.0
3.738176 0.997160 -0.000479 0.0
0.241097 0.232260 -0.000948 0.0
0.829981 0.915109 -0.001297 0.0
2.666764 1.329596 0.003227 0.0
1.075148 1.476874 0.001838 0.0
2.737603 0.893242 0.000048 0.0
2.684362 0.790302 -0.004790 0.0
2.163669 1.319000 0.002426 0.0
3.459593 0.960993 -0.003775 0.0
2.353112 0.688122 0.002095 0.0
3.561153 1.030139 -0.002966 0.0
2.343613 0.797318 0.001269 0.0
3.166151 1.644248 0.002100 0.0
0.612450 1.808858 0.001982 0.0
2.622246 1.050093 -0.000943 0.0
1.356967 0.380348 -0.000214 0.0
1.528601 1.339457 0.002590 0.0
0.236335 1.713664 0.003464 0.0
0.261565 1.508444 -0.000476 0.0
0.373574 0.328776 -0.000087 0.0
0.790455 0.250219 0.003483 0.0
3.275204 0.045717 -0.000605 0.0
0.369701 0.871584 -0.003075 0.0
0.118612 0.476062 -0.000155 0.0
0.258035 0.815118 0.001672 0.0
2.232879 0.588057 -0.000182 0.0
3.548109 1.440873 0.002455 0.0
4.352602 0.991687 0.000347 0.0
1.662954 0.179817 -0.002182 0.0
2.925533 0.741908 0.003342 0.0
3.504194 1.180239 0.001469 0.0
2.322888 1.646447 0.001209 0.0
3.887640 0.301509 0.000665 0.0
3.322397 0.721581 0.000297 0.0
1.853476 0.378145 0.003501 0.0
2.051741 0.818727 -0.002114 0.0
3.428431 0.450625 -0.000483 0.0
0.531433 0.067310 -0.007889 0.0
2.642086 0.402650 -0.001708 0.0
2.997900 1.636839 0.004731 0.0
0.493484 0.038997 0.000682 0.0
2.721538 0.864344 0.006238 0.0
2.263082 0.987619 -0.000758 0.0
3.633552 1.142512 0.004712 0.0
0.849908 0.131191 -0.000104 0.0
0.682488 1.290285 -0.000740 0.0
3.098560 0.150195 0.000031 0.0
0.543216 1.244438 0.000818 0.0
1.452226 0.605439 0.002420 0.0
0.053291 1.105965 0.003311 0.0
2.605348 0.686866 -0.001615 0.0
4.263058 1.122824 0.002560 0.0
0.324841 1.475643 -0.002303 0.0
0.738867 1.455316 0.004015 0.0
1.742754 0.888328 -0.001408 0.0
3.927466 0.407052 0.003284 0.0
1.523456 0.356530 0.000636 0.0
4.292194 0.281320 -0.001130 0.0
3.130662 1.148951 -0.001629 0.0
3.992927 0.722825 0.001093 0.0
3.225164 1.325229 0.000615 0.0
1.923243 1.351012 0.000895 0.0
1.801631 0.847033 0.002653 0.0
1.459803 1.135053 0.000101 0.0
1.188247 0.620576 -0.003555 0.0
0.310696 0.256856 0.000235 0.0
1.324594 0.166155 -0.000641 0.0
2.573803 0.256976 0.001726 0.0
0.774074 1.422526 0.002693 0.0
0.318108 0.468396 -0.002158 0.0
0.460170 0.240665 -0.001743 0.0
0.111030 1.136042 -0.000884 0.0
0.871877 0.169273 -0.003444 0.0
2.958864 1.596555 0.000591 0.0
0.255854 0.552870 0.003854 0.0
2.314760 0.400498 -0.001954 0.0
0.887911 1.750791 -0.001684 0.0
1.994991 0.481525 0.000518 0.0
0.777898 1.245925 -0.002569 0.0
2.939602 1.391055 -0.001792 0.0
1.011246 0.141127 -0.002984 0.0
3.636589 0.366407 0.002400 0.0
1.753601 0.637385 0.003479 0.0
1.559450 1.087918 0.000289 0.0
4.378419 0.540328 -0.000860 0.0
2.493516 1.238073 0.000096 0.0
2.998837 0.027621 0.004660 0.0
1.779033 1.680079 0.005634 0.0
2.524368 0.607212 -0.001064 0.0
2.193307 0.771753 0.000632 0.0
4.104549 0.932438 -0.000335 0.0
1.016757 1.202989 0.002019 0.0
2.977439 0.599412 -0.000747 0.0
3.854798 0.999657 -0.002057 0.0
0.865593 1.206074 0.004145 0.0
2.581598 0.855010 -0.000305 0.0
3.613365 0.013750 0.000635 0.0
0.754338 1.046702 -0.000803 0.0
0.902433 1.388418 0.005582 0.0
2.465253 1.805549 -0.000559 0.0
3.138751 1.627150 0.002007 0.0
1.238225 0.979383 -0.005530 0.0
1.219364 0.570711 -0.001013 0.0
0.494829 0.592701 0.000384 0.0
0.085556 1.691464 0.001400 0.0
2.556033 1.034026 0.004812 0.0
3.810082 0.218908 0.000711 0.0
2.626347 0.688033 -0.000808 0.0
1.094018 0.236263 0.001658 0.0
1.111898 1.357287 0.001486 0.0
3.729955 0.118578 0.001319 0.0
3.498277 0.015754 0.001612 0.0
3.416151 0.702876 -0.000349 0.0
2.932686 0.779417 0.000994 0.0
4.220312 1.447412 -0.002860 0.0
1.109313 1.619458 -0.001301 0.0
3.598673 1.353921 0.000943 0.0
0.824701 0.872954 -0.000421 0.0
0.758796 0.434125 0.000695 0.0
1.915585 1.666022 -0.001156 0.0
0.609713 1.564312 -0.001656 0.0
2.183300 0.520502 0.002650 0.0
1.880146 1.558696 0.000395 0.0
2.377509 0.278729 -0.000223 0.0
1.050197 1.732231 0.003845 0.0
2.550666 0.008779 -0.003428 0.0
4.035470 0.955951 -0.000348 0.0
3.684946 1.051798 -0.000942 0.0
3.417246 1.531658 -0.005332 0.0
1.201169 0.126520 0.001095 0.0
0.368412 1.696277 0.000368 0.0
1.477932 0.441790 -0.004423 0.0
3.294376 1.288284 0.000433 0.0
2.100637 0.117769 0.005157 0.0
3.579530 1.556881 0.001133 0.0
4.104350 0.125419 -0.005138 0.0
4.189912 0.303044 -0.001696 0.0
4.258000 1.176208 -0.000847 0.0
0.861413 1.730041 -0.000091 0.0
0.764780 0.127150 0.000898 0.0
1.772766 1.228512 -0.004573 0.0
2.289709 0.607874 -0.001155 0.0
2.828034 0.177184 0.003162 0.0
4.165879 0.956252 0.001801 0.0
1.600705 0.473389 -0.003129 0.0
0.727477 0.503382 0.002133 0.0
2.643067 0.532119 0.002682 0.0
3.661194 0.560982 -0.001515 0.0
2.643377 0.846617 -0.002163 0.0
3.871787 0.440288 -0.007171 0.0
2.366616 0.498193 0.004688 0.0
2.469368 0.618051 -0.001435 0.0
0.135783 1.630302 0.001359 0.0
3.826900 1.735512 -0.000086 0.0
1.208093 0.808465 -0.003502 0.0
2.472917 1.608212 0.001883 0.0
1.497998 1.083475 -0.000479 0.0
1.429933 0.481798 0.000968 0.0
1.781324 1.430387 -0.001521 0.0
1.071246 1.813181 0.001162 0.0
0.641160 0.919578 0.001596 0.0
3.514118 0.730548 0.000362 0.0
1.571883 1.139921 0.000265 0.0
0.517686 1.595924 0.000362 0.0
3.535025 1.338679 -0.001834 0.0
2.627593 0.297059 -0.000140 0.0
1.241390 0.707577 -0.000815 0.0
4.285314 0.609628 -0.000648 0.0
3.502575 0.589742 0.002290 0.0
3.335861 0.932171 0.002198 0.0
0.915117 1.834721 0.004470 0.0
1.367861 1.215836 0.000643 0.0
0.083345 1.735243 -0.002462 0.0
2.892878 0.501503 -0.000950 0.0
0.144318 1.557643 0.002115 0.0
0.034828 1.770995 -0.001022 0.0
3.373272 1.668195 -0.002456 0.0
2.087910 0.691291 0.003360 0.0
4.189463 1.073652 0.003507 0.0
0.306686 1.115658 -0.003763 0.0
4.223857 1.267082 0.002135 0.0
3.159505 1.233973 -0.001809 0.0
3.470780 1.716744 0.000581 0.0
4.311695 0.576438 -0.003573 0.0
2.424768 1.743457 -0.002975 0.0
0.345710 0.289202 0.000252 0.0
2.866885 1.255949 -0.001018 0.0
1.923283 0.357270 -0.000844 0.0
3.441469 0.703344 -0.003651 0.0
3.372250 0.148544 -0.004622 0.0
3.357426 1.060366 0.000526 0.0
1.159170 0.224535 -0.000372 0.0
0.777658 1.379697 0.000764 0.0
2.313109 1.580626 0.002940 0.0
4.220411 1.696114 -0.000446 0.0
2.177314 0.826100 -0.002227 0.0
4.204576 0.868536 0.004323 0.0
3.988894 1.797169 0.000315 0.0
2.431777 1.342888 0.001708 0.0
1.813235 1.607615 0.001370 0.0
1.097128 1.438824 0.001530 0.0
4.227988 1.520561 0.000133 0.0
0.816545 0.645427 0.006475 0.0
2.864626 0.952050 -0.002948 0.0
2.081221 1.673952 -0.001832 0.0
0.557872 0.153668 -0.002503 0.0
0.931876 1.493990 -0.005617 0.0
3.339509 0.571640 0.001501 0.0
3.905682 0.964353 0.002536 0.0
3.369690 0.990398 0.000624 0.0
0.924189 0.126553 -0.000807 0.0
3.260974 0.005570 -0.000555 0.0
0.486171 1.412408 0.006863 0.0
2.164799 1.163162 -0.005236 0.0
2.400916 0.122632 0.000376 0.0
2.114200 0.099476 0.005670 0.0
2.892553 0.909508 -0.000061 0.0
3.642041 0.462282 -0.000354 0.0
1.051447 0.670773 -0.002046 0.0
0.006386 0.348501 0.000101 0.0
1.279525 0.426434 -0.003260 0.0
3.967105 1.417228 -0.000323 0.0
2.682558 0.690462 0.000247 0.0
0.645830 1.186866 -0.004377 0.0
2.114919 0.139036 0.003193 0.0
0.079295 0.744631 0.003747 0.0
3.101051 0.200685 -0.004876 0.0
2.007108 0.343357 0.001135 0.0
3.210863 1.792806 0.003531 0.0
2.352495 1.361519 0.001592 0.0
1.542239 1.484744 0.001179 0.0
1.338747 1.742546 -0.002509 0.0
1.753101 1.046838 0.000163 0.0
2.303690 0.126882 -0.001547 0.0
3.093294 0.819970 0.000179 0.0
2.172650 0.892850 -0.003411 0.0
3.508443 0.013514 0.000634 0.0
0.768826 1.315505 -0.000217 0.0
1.176699 0.646852 0.001181 0.0
2.186311 0.703161 0.001865 0.0
4.241956 1.173834 0.003180 0.0
3.583539 1.708327 -0.000931 0.0
2.561313 1.542625 0.002589 0.0
3.632204 0.477911 -0.000613 0.0
1.893820 0.930544 0.000886 0.0
2.495822 1.148319 -0.001760 0.0
0.595173 0.917740 -0.002359 0.0
4.293541 0.076115 0.002451 0.0
1.654902 1.503966 -0.002576 0.0
0.567571 1.270839 -0.000236 0.0
1.333687 1.725217 -0.001664 0.0
1.247529 1.015173 -0.001784 0.0
1.137160 0.915996 0.001686 0.0
1.923978 0.721180 0.001631 0.0
2.161889 1.083686 -0.000683 0.0
0.290450 0.309429 0.005664 0.0
2.898424 0.174285 -0.003772 0.0
2.445047 1.153879 0.000605 0.0
3.335785 1.302697 0.002080 0.0
4.099084 0.692096 -0.001329 0.0
3.159297 1.011818 -0.001646 0.0
3.270506 1.180116 -0.000145 0.0
3.969679 0.168214 0.000451 0.0
0.829250 0.714448 0.004088 0.0
3.684776 0.967790 -0.002556 0.0
0.630457 0.910715 0.000550 0.0
0.192799 0.936093 -0.002966 0.0
2.793386 0.054452 -0.000316 0.0
0.417849 1.267048 0.003926 0.0
3.619019 0.164022 0.001997 0.0
0.052041 0.456834 0.003017 0.0
0.069555 0.809060 0.000012 0.0
0.791535 1.552832 -0.000615 0.0
0.518983 1.657508 -0.000308 0.0
2.016409 0.540512 0.002722 0.0
4.360486 0.371835 -0.002110 0.0
1.869461 0.279134 0.000933 0.0
0.545350 0.932146 -0.002554 0.0
2.710957 1.506705 -0.004861 0.0
0.018949 1.615991 0.000139 0.0
3.178375 1.780322 -0.004104 0.0
3.153361 0.525249 -0.002546 0.0
1.518411 1.717643 0.001822 0.0
2.048988 1.197894 -0.001591 0.0
2.044848 0.716215 -0.002178 0.0
0.602353 1.537446 -0.005670 0.0
1.399901 1.670648 -0.000505 0.0
3.876575 1.797673 -0.003085 0.0
1.331510 0.310275 -0.001044 0.0
3.235112 1.577200 0.000099 0.0
3.211605 0.744004 -0.000034 0.0
1.261476 0.227684 0.001519 0.0
4.032324 0.635694 -0.000352 0.0
2.091268 0.506271 0.001226 0.0
3.907854 1.130406 -0.000167 0.0
0.013278 1.419499 0.001321 0.0
1.145620 1.731371 -0.003278 0.0
1.863955 0.669367 0.001014 0.0
0.741645 1.793804 0.002328 0.0
3.045240 0.366055 -0.002441 0.0
1.570773 0.081874 0.006142 0.0
0.116301 0.939814 0.000841 0.0
0.730259 1.474271 -0.007199 0.0
2.521001 0.250344 0.000117 0.0
1.220047 1.776040 0.001963 0.0
3.350179 0.301383 0.002383 0.0
0.218768 0.499602 -0.002194 0.0
2.448442 0.149379 -0.002209 0.0
3.080814 0.821012 -0.000882 0.0
3.433431 0.704568 -0.000439 0.0
0.110303 0.291584 -0.001184 0.0
3.547748 0.661523 0.001996 0.0
3.446037 0.065941 0.001575 0.0
4.050522 0.112267 0.000519 0.0
0.761900 1.620285 -0.001351 0.0
1.774961 1.195709 -0.002350 0.0
2.847941 0.771332 -0.002017 0.0
0.142634 1.489213 -0.000953 0.0
3.876112 1.606405 -0.003262 0.0
1.168463 0.336307 0.002874 0.0
1.542678 1.212176 0.001654 0.0
3.771730 0.432818 -0.002414 0.0
4.297696 1.711709 0.003735 0.0
1.957810 1.252080 -0.000597 0.0
0.654009 0.602283 -0.000410 0.0
0.923885 1.476486 -0.003195 0.0
3.161332 1.308934 0.001865 0.0
2.718785 1.295799 0.000218 0.0
0.313225 1.027304 -0.006350 0.0
0.709911 0.646798 0.000675 0.0
1.764040 -0.002374 -0.000297 0.0
2.720823 1.158451 -0.000909 0.0
0.109237 0.972204 -0.002979 0.0
3.066184 1.303100 0.002630 0.0
0.836831 0.409049 0.001204 0.0
3.668256 1.539890 0.000554 0.0
1.893731 1.674841 -0.001673 0.0
1.910777 1.724898 0.002210 0.0
3.448920 0.988246 -0.001246 0.0
0.193360 1.673793 0.000178 0.0
2.783992 1.424318 0.004796 0.0
1.577542 1.530943 0.002481 0.0
1.005436 1.145835 0.003666 0.0
3.208587 1.607944 0.001831 0.0
3.581637 1.612939 0.000255 0.0
1.467961 0.873591 0.002061 0.0
3.705708 1.712306 -0.001554 0.0
1.315834 0.074708 -0.001439 0.0
1.675927 0.037395 -0.002453 0.0
1.149109 0.070866 -0.002367 0.0
2.226307 1.331854 -0.003580 0.0
1.470653 1.032534 0.001378 0.0
2.091458 1.739474 -0.002919 0.0
1.198085 0.294773 0.002423 0.0
2.169885 1.359246 0.000865 0.0
0.598117 0.340641 -0.000737 0.0
0.171504 0.642704 0.002756 0.0
3.724688 0.563259 0.002833 0.0
0.107811 1.509197 -0.000072 0.0
4.264015 1.817680 -0.002633 0.0
2.622195 0.903356 0.001126 0.0
4.033369 1.459306 -0.004712 0.0
2.312667 1.469576 -0.003703 0.0
0.167395 1.199152 -0.000368 0.0
1.381179 1.570887 0.001700 0.0
2.878063 0.285812 0.001619 0.0
0.978622 0.474998 0.001767 0.0
0.996886 1.440508 0.000241 0.0
3.007697 1.214965 -0.000590 0.0
4.371725 1.475976 -0.001236 0.0
0.443529 0.316226 0.001077 0.0
2.720236 0.602097 -0.001490 0.0
2.273480 1.146245 -0.000457 0.0
0.232915 1.522262 0.000976 0.0
2.034511 0.301971 0.008415 0.0
2.706736 1.137594 -0.006933 0.0
2.580378 1.545347 -0.003156 0.0
0.280962 0.917064 0.000523 0.0
1.746700 0.324414 -0.000650 0.0
3.978407 0.208734 -0.001105 0.0
0.318658 0.644579 -0.001771 0.0
3.746974 1.198086 -0.003647 0.0
0.542765 1.240218 0.001823 0.0
2.483554 0.650860 0.000271 0.0
0.862018 0.923975 0.000091 0.0
0.286384 0.073384 -0.000992 0.0
1.372344 1.302988 -0.000044 0.0
2.212986 1.385863 0.002196 0.0
0.339447 1.004788 0.003439 0.0
3.912552 1.270470 0.001844 0.0
1.043311 1.258128 -0.001257 0.0
2.120213 1.088598 0.002225 0.0
4.346188 0.265815 -0.001493 0.0
2.058845 0.827413 0.001216 0.0
0.253961 1.658645 -0.002982 0.0
0.875952 0.457251 -0.000155 0.0
3.476623 1.007850 0.003688 0.0
0.671067 0.757158 0.001498 0.0
3.260386 1.233556 -0.000381 0.0
3.436567 0.764903 0.000702 0.0
4.097043 0.643241 0.002513 0.0
2.184318 1.231430 0.005686 0.0
1.060148 1.639600 0.000979 0.0
2.649404 1.617919 0.000479 0.0
3.358518 1.489229 -0.000530 0.0
0.013319 1.277563 0.000757 0.0
1.090145 1.448450 -0.004137 0.0
1.552777 0.458122 -0.000841 0.0
3.658960 0.128256 -0.004037 0.0
4.061090 0.857313 0.009539 0.0
4.131796 1.014285 -0.003540 0.0
1.653982 1.320561 -0.002394 0.0
2.074078 0.562084 0.001371 0.0
3.125227 1.454422 -0.002070 0.0
3.554174 1.711832 -0.001523 0.0
4.340391 0.667979 0.002335 0.0
3.968451 1.272695 0.002621 0.0
2.388818 0.045195 -0.002310 0.0
3.787155 0.167183 0.003461 0.0
1.799494 1.047688 0.002499 0.0
1.748946 0.159422 -0.000062 0.0
2.823265 0.172223 0.001481 0.0
2.873975 0.079638 -0.002526 0.0
4.251260 0.807849 0.001249 0.0
2.836972 0.901287 0.005768 0.0
2.489722 0.752408 -0.003205 0.0
0.696859 1.821104 -0.000477 0.0
2.194389 1.346295 -0.002388 0.0
1.157856 0.037704 0.002465 0.0
4.255964 0.529171 0.005149 0.0
4.061522 0.027348 0.002252 0.0
2.601135 0.565346 0.001582 0.0
4.105125 0.652165 0.002272 0.0
2.386345 0.247511 0.001461 0.0
4.338209 0.540612 0.003280 0.0
1.443063 1.372815 0.000995 0.0
4.364497 0.634644 0.000984 0.0
3.408665 0.812970 -0.001351 0.0
0.985951 0.465768 -0.003315 0.0
3.733121 1.393995 0.003033 0.0
3.016513 1.140845 -0.002342 0.0
0.528336 1.833680 0.000146 0.0
0.845715 0.004156 -0.001923 0.0
2.369548 1.661877 0.001427 0.0
0.438699 1.393387 0.000214 0.0
3.972165 0.196483 -0.002437 0.0
3.562966 0.987175 -0.001083 0.0
2.217894 1.550657 0.000553 0.0
1.793832 0.583860 0.000571 0.0
0.689681 1.386562 0.000252 0.0
0.625074 0.857631 -0.000583 0.0
0.205721 0.773723 0.000508 0.0
1.085340 0.285340 0.000359 0.0
2.787958 0.020717 0.000678 0.0
1.259592 1.120774 -0.002865 0.0
2.612095 0.698660 0.001659 0.0
1.548413 0.121568 0.000992 0.0
1.523670 1.130617 -0.003753 0.0
3.652086 0.020198 0.000221 0.0
1.755465 0.222291 -0.003288 0.0
2.073856 1.200564 0.002371 0.0
1.077241 1.192292 0.001769 0.0
0.956528 1.820241 0.000912 0.0
1.760581 0.413128 -0.002635 0.0
1.000753 0.636348 -0.001102 0.0
0.396518 1.092653 -0.001459 0.0
3.952599 1.509700 -0.002058 0.0
4.180732 1.433572 0.000141 0.0
0.161056 1.057904 0.002392 0.0
1.009082 0.511149 -0.005615 0.0
0.145811 1.085428 -0.006044 0.0
4.237298 1.773779 0.000422 0.0
0.081926 0.565284 0.002133 0.0
1.752531 0.306497 0.002061 0.0
3.420273 0.832360 -0.000351 0.0
3.618924 0.440485 -0.003399 0.0
0.914468 0.726121 -0.000285 0.0
4.086559 0.742718 0.001358 0.0
1.475010 0.044126 -0.001232 0.0
3.491351 0.723863 0.001819 0.0
2.707988 1.358393 0.003070 0.0
2.037681 1.666136 -0.003154 0.0
3.360599 1.180267 -0.002477 0.0
3.171303 1.181042 -0.001183 0.0
3.765395 0.718795 0.001813 0.0
0.855410 1.407695 -0.001080 0.0
2.612915 0.843753 -0.000983 0.0
2.357386 0.029214 -0.001289 0.0
3.331213 0.573243 0.002561 0.0
0.999182 0.215855 -0.002952 0.0
3.490246 1.041637 -0.003843 0.0
3.845698 1.553919 0.001800 0.0
1.275708 0.255351 -0.002588 0.0
3.595152 0.836689 0.003635 0.0
1.375059 1.554785 -0.000794 0.0
1.716912 1.330348 0.001511 0.0
0.927709 1.393017 -0.003046 0.0
3.004833 0.107047 -0.002115 0.0
0.227262 0.712369 -0.003502 0.0
2.621928 0.839777 -0.000792 0.0
0.480836 1.709816 0.000427 0.0
4.331452 1.543473 -0.000060 0.0
1.534904 0.405558 -0.002349 0.0
0.217746 0.183826 -0.001988 0.0
2.534633 0.863584 -0.005927 0.0
3.422808 1.088369 0.001526 0.0
3.005233 1.391166 0.001974 0.0
2.297534 1.207431 -0.000433 0.0
3.014163 1.108404 0.000162 0.0
0.135252 1.236003 -0.000027 0.0
1.284029 1.226794 -0.000081 0.0
2.507488 0.083122 0.001047 0.0
2.721231 0.863822 -0.000266 0.0
0.216103 0.697320 -0.000166 0.0
1.169465 1.273436 -0.001385 0.0
2.974520 0.465788 0.001813 0.0
2.117949 1.132654 0.000304 0.0
1.948921 1.766802 0.001744 0.0
0.464456 0.831062 -0.003804 0.0
0.487748 1.176728 0.002112 0.0
3.249745 1.210512 -0.002594 0.0
1.348240 0.162636 0.001124 0.0
3.192253 1.038468 -0.000375 0.0
0.880507 0.554124 0.005055 0.0
1.559461 0.950524 -0.000817 0.0
1.878566 0.682968 0.000613 0.0
2.223593 0.487653 0.001281 0.0
1.323848 0.431088 -0.001180 0.0
2.419681 0.827861 0.001080 0.0
3.939182 1.757443 -0.002313 0.0
2.541296 0.115857 0.000300 0.0
0.597632 0.189354 0.001710 0.0
0.454620 0.374347 -0.002860 0.0
3.347474 1.800009 0.001346 0.0
4.269144 1.294156 0.000860 0.0
0.384722 0.919453 -0.005159 0.0
1.529249 1.430313 -0.005255 0.0
4.005802 0.540367 0.000041 0.0
3.496840 1.767786 -0.004252 0.0
3.513512 1.619093 0.004050 0.0
4.185172 1.250549 0.001392 0.0
3.954162 0.742463 0.000921 0.0
0.931388 0.191521 0.001879 0.0
1.945142 1.292197 -0.004967 0.0
1.220296 0.712768 0.000227 0.0
0.826895 1.837296 -0.002498 0.0
2.519209 1.598899 0.000659 0.0
3.135774 1.584165 0.001450 0.0
2.422897 0.375111 0.002810 0.0
3.606114 1.210255 0.000676 0.0
3.054833 0.428326 -0.003759 0.0
0.945124 0.352964 0.003588 0.0
3.333376 0.043101 0.000831 0.0
1.159369 1.183449 -0.006572 0.0
3.243935 0.207823 -0.001324 0.0
0.943397 0.525190 0.000221 0.0
4.149095 1.578646 0.006190 0.0
2.023574 0.300715 -0.001151 0.0
1.172971 0.428923 -0.004259 0.0
1.696751 1.123979 -0.001864 0.0
1.041432 0.260274 -0.000903 0.0
0.926158 1.495611 -0.000641 0.0
0.180359 0.314061 -0.000810 0.0
2.801030 0.873582 -0.002973 0.0
0.823972 1.632632 -0.003093 0.0
2.487127 1.205544 -0.000110 0.0
1.048180 1.474415 -0.001383 0.0
1.349541 1.455796 -0.005634 0.0
1.876711 0.525318 0.001240 0.0
0.092545 1.366660 0.004088 0.0
2.042298 0.698186 -0.001627 0.0
3.389739 0.424543 -0.002458 0.0
3.186396 0.237476 -0.000333 0.0
0.193188 1.505919 -0.002244 0.0
2.832966 1.693275 -0.004699 0.0
4.207541 0.498432 0.001738 0.0
3.842492 1.456155 0.003341 0.0
4.328073 0.148153 -0.001721 0.0
2.466737 1.497729 0.002131 0.0
3.808950 0.484754 0.002400 0.0
4.276494 0.275400 0.000196 0.0
2.866821 0.967247 0.001451 0.0
1.798663 1.822005 0.002344 0.0
1.896794 1.526366 0.000007 0.0
0.387162 1.563772 0.003756 0.0
3.635268 0.437946 -0.001343 0.0
0.100892 0.479489 -0.001590 0.0
1.871384 0.123121 -0.003433 0.0
1.891608 0.412694 -0.000366 0.0
0.712740 1.373582 -0.000135 0.0
2.367060 1.150377 -0.000586 0.0
0.683223 0.360370 -0.000606 0.0
3.776212 0.580342 -0.002050 0.0
3.198501 0.106603 -0.001164 0.0
1.853628 0.375800 0.000938 0.0
1.592467 1.726593 0.003168 0.0
1.648833 0.538473 0.000781 0.0
3.015327 1.798265 -0.000073 0.0
1.048322 0.023993 0.001363 0.0
0.344142 1.692606 -0.002449 0.0
1.547122 0.040364 0.000502 0.0
3.411393 0.985963 0.002003 0.0
1.874486 1.601851 0.001629 0.0
0.862457 1.645519 0.001041 0.0
2.878299 1.173850 -0.001390 0.0
1.902208 0.341352 -0.002377 0.0
3.537403 1.239934 -0.001050 0.0
1.519471 0.798672 0.003186 0.0
3.651927 0.293410 0.000509 0.0
2.729288 0.324963 -0.001384 0.0
2.099659 1.348343 -0.001916 0.0
3.497144 1.685039 0.001606 0.0
1.749613 1.714683 -0.002949 0.0
4.160166 1.237561 0.000110 0.0
0.979070 1.644289 -0.002704 0.0
2.746326 0.360543 0.000558 0.0
1.794380 1.189132 0.002938 0.0
2.839592 0.684873 0.002978 0.0
3.131712 0.048512 0.004068 0.0
3.830704 1.638950 0.002660 0.0
3.193020 1.475970 0.002358 0.0
2.176348 1.622294 -0.001130 0.0
0.967695 1.479653 -0.000464 0.0
2.336738 0.154482 0.000397 0.0
0.045916 0.206013 0.001409 0.0
3.860273 1.643898 0.000685 0.0
2.573886 1.654442 -0.000104 0.0
1.332708 1.643101 -0.004730 0.0
3.873079 0.261116 -0.001748 0.0
3.258924 1.846598 -0.002298 0.0
1.916697 0.285609 0.002667 0.0
0.303147 0.436916 0.001851 0.0
0.951504 1.638971 -0.001007 0.0
1.023913 1.128569 -0.000498 0.0
4.094326 0.302337 -0.004076 0.0
2.274022 0.098626 -0.000424 0.0
0.944174 0.302090 0.000293 0.0
2.843962 0.513285 -0.003670 0.0
2.177374 0.297658 0.001685 0.0
3.131753 1.272761 0.000756 0.0
3.533830 1.482092 0.003132 0.0
3.393307 1.269155 -0.001039 0.0
0.119343 0.773421 -0.006277 0.0
4.106913 1.472250 -0.001663 0.0
3.923791 1.319455 0.000892 0.0
0.204068 1.274718 -0.004033 0.0
3.862606 0.909639 -0.002226 0.0
0.007397 1.705496 0.000159 0.0
0.689115 0.791245 0.005757 0.0
1.628335 0.439854 0.002301 0.0
0.279792 1.041992 -0.002436 0.0
0.005169 1.463811 -0.008561 0.0
1.755730 1.481880 -0.005496 0.0
2.332569 0.347247 -0.000133 0.0
1.341482 0.777217 0.000830 0.0
2.314023 0.088782 0.002037 0.0
3.260640 0.801421 -0.003744 0.0
4.046703 1.579251 0.000435 0.0
3.125055 1.194153 -0.001310 0.0
0.143500 0.530483 -0.001425 0.0
2.888010 1.034053 -0.000509 0.0
1.462577 1.035239 -0.002632 0.0
1.771575 0.100406 -0.005609 0.0
1.751743 0.511484 0.002057 0.0
0.698588 0.132631 0.002309 0.0
1.524335 0.733215 0.002030 0.0
1.496498 0.093185 -0.000076 0.0
3.467204 1.524399 0.000301 0.0
0.507618 0.749350 0.000320 0.0
0.922907 0.148010 -0.003138 0.0
2.405171 1.151809 0.000813 0.0
1.592820 1.397384 -0.001559 0.0
1.948121 0.436198 0.002465 0.0
3.037416 0.191658 -0.002393 0.0
3.922110 0.194077 -0.000077 0.0
0.955404 1.579213 0.000511 0.0
3.276193 1.329788 0.002106 0.0
3.390672 1.249529 0.000880 0.0
2.511530 1.049999 0.002309 0.0
0.189030 0.660699 0.000090 0.0
2.749493 1.397409 0.004104 0.0
2.044790 0.095617 -0.005351 0.0
2.653779 0.799118 -0.001744 0.0
0.617925 1.045481 -0.000361 0.0
0.604401 0.764090 0.001945 0.0
2.504319 1.270473 0.001226 0.0
4.250848 0.026324 0.002917 0.0
4.341030 1.187120 -0.001718 0.0
0.799378 1.829273 0.001818 0.0
3.840029 0.833546 0.003501 0.0
3.911576 0.723603 -0.001706 0.0
3.578222 1.050209 -0.000358 0.0
4.314151 1.558535 0.003009 0.0
3.933874 0.956891 0.000476 0.0
2.234297 1.488125 -0.003315 0.0
4.031768 0.017606 0.000258 0.0
3.799709 0.854780 0.001617 0.0
0.723415 0.779906 0.001602 0.0
2.052571 0.645657 -0.003545 0.0
1.135734 0.525596 0.003825 0.0
2.144113 1.188681 0.001990 0.0
3.695106 1.765252 0.002411 0.0
3.852359 0.191232 -0.003231 0.0
0.758321 0.484945 -0.002024 0.0
1.553757 1.207883 -0.001815 0.0
1.202801 0.058048 -0.001939 0.0
1.208457 0.404505 -0.001276 0.0
1.814478 1.811890 -0.001626 0.0
2.971157 1.008087 -0.004005 0.0
2.235567 1.090625 -0.002676 0.0
4.102310 0.835680 0.001390 0.0
1.832763 1.754712 0.000984 0.0
1.456843 0.710132 0.000387 0.0
3.205403 0.308945 0.001711 0.0
0.370645 1.194806 0.001158 0.0
2.480996 0.913790 0.001323 0.0
2.397209 1.363726 -0.004887 0.0
2.316939 1.014104 -0.004054 0.0
2.763046 1.793459 0.001436 0.0
3.768166 1.153231 -0.001799 0.0
2.452103 0.308032 0.002207 0.0
1.086426 1.327718 -0.000645 0.0
1.467154 0.133090 0.002620 0.0
0.291939 0.202343 -0.003044 0.0
0.920817 1.382657 -0.002895 0.0
1.008571 0.737808 -0.000584 0.0
3.097304 0.787945 -0.000311 0.0
3.882106 0.322666 -0.000656 0.0
0.467494 1.517703 0.001743 0.0
3.025745 1.436764 0.001368 0.0
0.479848 0.121518 0.000284 0.0
0.613036 0.153001 -0.003569 0.0
0.033665 1.171548 -0.000924 0.0
3.878547 0.409518 -0.003639 0.0
0.341937 1.657611 -0.001001 0.0
2.083378 1.339285 -0.002429 0.0
1.829516 1.336146 -0.003969 0.0
4.191725 0.999530 -0.000667 0.0
2.450281 0.311131 -0.005778 0.0
2.243913 1.405987 -0.003105 0.0
0.678385 1.038359 -0.005200 0.0
2.233389 1.393845 0.000895 0.0
2.569094 0.526306 0.000045 0.0
4.046819 1.166177 0.003360 0.0
2.757379 0.806205 -0.000330 0.0
1.068506 0.247369 -0.002214 0.0
1.479907 1.332220 -0.001224 0.0
0.166214 1.606274 -0.005703 0.0
1.792134 1.672471 -0.002949 0.0
2.158538 0.232524 0.000692 0.0
2.301717 1.081587 -0.002472 0.0
2.922214 0.354387 0.001045 0.0
0.855104 1.039935 -0.003337 0.0
3.192123 1.147568 -0.005792 0.0
0.756883 0.414076 -0.005101 0.0
3.569756 1.734241 -0.001780 0.0
0.971853 1.062905 0.002478 0.0
1.599858 1.539285 -0.005460 0.0
0.568329 0.585841 0.002484 0.0
1.809415 0.041835 0.004506 0.0
1.767363 0.848820 0.002814 0.0
1.652744 0.725436 0.003218 0.0
2.349919 0.746202 -0.003437 0.0
0.702263 0.268589 -0.002165 0.0
0.559251 1.178905 -0.002235 0.0
3.266630 0.515077 0.001258 0.0
2.949125 0.954502 0.000375 0.0
3.600951 0.212157 -0.003479 0.0
3.149331 0.802734 -0.000886 0.0
0.290604 0.128025 -0.000199 0.0
4.277627 1.170626 -0.005105 0.0
4.295483 0.846887 0.003997 0.0
3.410335 1.610061 0.002540 0.0
2.850402 1.788844 -0.000791 0.0
4.345273 1.208527 -0.003379 0.0
1.348297 1.334741 0.003885 0.0
2.405741 1.815907 -0.000910 0.0
1.131934 0.108129 0.000180 0.0
4.320650 0.250899 -0.000935 0.0
3.065717 0.900806 -0.002624 0.0
2.739618 1.669859 -0.000359 0.0
2.855493 0.009416 0.002074 0.0
0.921006 0.624536 0.001698 0.0
2.239803 0.252259 0.000376 0.0
2.632737 1.782917 0.001026 0.0
1.524047 0.489152 -0.003322 0.0
0.998478 0.143720 0.000817 0.0
2.421232 0.818873 0.002558 0.0
1.864965 1.597550 -0.001932 0.0
0.845819 0.665424 0.004265 0.0
1.906156 1.588150 -0.003187 0.0
0.249823 0.212765 -0.000111 0.0
2.999602 0.684850 -0.000936 0.0
0.602228 1.144787 -0.003542 0.0
3.350195 1.575654 0.000134 0.0
2.598171 1.234631 0.003657 0.0
3.513021 0.901574 0.001161 0.0
3.959827 0.782613 0.002090 0.0
2.407450 1.094694 0.004481 0.0
2.796735 0.214549 -0.001654 0.0
0.084818 1.063083 -0.001480 0.0
2.095097 1.005984 0.003813 0.0
1.441737 1.182075 0.000959 0.0
1.608605 1.321024 -0.000233 0.0
2.705138 1.805061 0.003665 0.0
1.488786 1.136868 -0.000455 0.0
1.768907 0.710148 0.000765 0.0
2.903875 1.158786 0.004722 0.0
2.726351 0.880086 -0.000142 0.0
2.769353 0.402595 -0.003915 0.0
4.083115 0.862558 0.001917 0.0
0.940591 0.471804 0.002470 0.0
1.393120 1.510049 0.001345 0.0
0.029154 0.983418 0.005317 0.0
2.423264 0.796754 -0.003230 0.0
0.978038 0.381315 -0.000703 0.0
4.238292 0.080925 -0.002523 0.0
0.372763 0.123644 0.000642 0.0
1.301199 1.002184 0.001050 0.0
0.199094 0.972492 -0.003579 0.0
2.886874 0.587474 -0.002855 0.0
0.352943 1.026161 -0.002123 0.0
2.031692 0.779927 0.000346 0.0
2.149088 0.730154 0.000012 0.0
1.141943 0.457616 -0.000154 0.0
3.608884 0.374197 -0.002961 0.0
3.798019 0.580115 0.002632 0.0
3.287244 0.163700 0.000712 0.0
0.447785 0.297092 0.001016 0.0
2.363228 1.442331 -0.000384 0.0
3.649869 0.352123 0.002029 0.0
1.615698 0.477949 -0.001137 0.0
2.424108 1.031827 0.000413 0.0
2.850992 0.378756 0.006896 0.0
1.262606 0.276606 -0.000655 0.0
3.760990 1.450207 -0.004762 0.0
0.263837 1.229150 -0.002309 0.0
0.666939 0.248107 -0.000294 0.0
4.369714 1.693783 -0.001243 0.0
4.035002 1.398561 0.000203 0.0
2.109998 0.622435 -0.002186 0.0
1.101983 0.177985 0.002523 0.0
1.682091 0.569198 0.004784 0.0
3.677334 0.302680 0.002679 0.0
2.156054 1.041511 0.005472 0.0
2.881131 1.194955 0.007393 0.0
3.225408 1.172195 -0.004614 0.0
3.957281 1.487781 0.001283 0.0
1.576362 1.771695 0.001160 0.0
3.060755 0.613302 0.002977 0.0
2.281096 0.328796 -0.002323 0.0
4.037506 0.237220 -0.002457 0.0
3.011663 0.513399 0.000617 0.0
4.223592 1.375609 0.002123 0.0
1.782141 1.513837 -0.001369 0.0
0.681985 1.232302 0.000800 0.0
1.294781 1.271112 0.003376 0.0
2.962888 1.086058 -0.001696 0.0
0.064163 0.395136 -0.001853 0.0
2.886895 1.153708 -0.002615 0.0
2.107206 0.203769 0.005572 0.0
0.969570 0.899537 -0.000039 0.0
3.129285 1.504097 -0.001862 0.0
4.034754 0.141093 -0.001201 0.0
3.904595 1.205288 0.002908 0.0
4.222192 1.817022 0.004883 0.0
3.808950 0.627186 -0.002082 0.0
0.787678 1.466236 -0.000962 0.0
3.573238 0.610633 0.001669 0.0
1.872353 1.560777 0.000579 0.0
4.320101 0.670990 0.003081 0.0
0.717012 1.659490 -0.001161 0.0
3.226479 0.768606 0.003529 0.0
1.697410 0.046285 0.002052 0.0
1.050545 0.160974 0.000712 0.0
2.897852 1.658094 -0.000001 0.0
2.609150 1.589285 0.001260 0.0
0.700241 0.716456 0.001990 0.0
0.253466 0.215154 0.000893 0.0
1.749904 0.233302 0.001473 0.0
0.707023 0.261813 0.000488 0.0
1.916490 0.140719 -0.001034 0.0
0.665556 0.755381 -0.002306 0.0
2.637264 0.782986 -0.000243 0.0
3.646466 1.774194 -0.001920 0.0
4.077403 0.916856 -0.000161 0.0
2.687184 1.452943 -0.000550 0.0
1.849552 0.984940 -0.000473 0.0
0.772377 1.462981 0.001206 0.0
0.693653 1.239883 -0.003889 0.0
2.166944 1.681978 -0.001112 0.0
2.804600 1.345686 0.001445 0.0
1.674731 0.475110 0.002164 0.0
2.782354 1.268637 -0.003563 0.0
2.696825 1.670318 0.002948 0.0
1.421766 1.493601 -0.000357 0.0
3.565026 0.958459 0.003076 0.0
3.663136 1.367308 -0.002822 0.0
1.477009 1.327342 0.002095 0.0
2.746843 0.457834 -0.001213 0.0
2.600909 0.721291 -0.001006 0.0
3.326720 0.430895 -0.000568 0.0
1.654583 1.340143 -0.004418 0.0
1.225251 1.648268 0.000198 0.0
1.233149 0.258998 -0.000385 0.0
3.366339 1.189829 -0.002035 0.0
1.478164 0.026881 -0.003898 0.0
2.702935 1.739251 0.000325 0.0
3.554940 0.915763 -0.000751 0.0
3.391978 1.491510 -0.000138 0.0
0.343337 1.269475 0.000496 0.0
3.763708 0.604798 -0.001360 0.0
3.478617 1.607266 -0.002104 0.0
0.384009 0.999986 0.000590 0.0
4.115331 1.052126 0.005661 0.0
1.775734 1.230493 -0.002906 0.0
3.303668 1.612965 -0.000763 0.0
4.052694 0.052884 0.003572 0.0
1.889835 1.793535 -0.002507 0.0
2.077190 1.756303 0.000001 0.0
0.491443 1.129241 -0.004036 0.0
4.080166 0.149097 -0.001603 0.0
3.873546 0.938667 0.000558 0.0
2.877418 0.887356 -0.001744 0.0
0.737326 1.500861 -0.001268 0.0
2.262166 0.121243 -0.001348 0.0
1.297742 0.473665 0.001527 0.0
1.151425 1.383464 -0.000534 0.0
4.250171 0.185049 -0.000762 0.0
0.863154 0.335891 0.000008 0.0
2.565301 1.700430 0.000643 0.0
1.714281 0.843701 0.003383 0.0
1.219582 0.444813 0.000289 0.0
1.373495 1.119473 -0.001369 0.0
2.209879 0.662231 0.004915 0.0
3.530593 1.124130 -0.002768 0.0
1.363047 0.639226 -0.006181 0.0
0.504131 1.310823 -0.002767 0.0
2.637142 1.339391 0.000593 0.0
3.544173 0.346296 -0.004547 0.0
2.054733 1.254001 0.004273 0.0
3.754921 1.048918 0.001776 0.0
0.873253 0.133935 -0.000172 0.0
0.266483 0.862767 -0.001898 0.0
0.487844 0.232820 0.003075 0.0
1.596611 0.813824 0.000289 0.0
2.722665 0.818439 -0.001066 0.0
1.872666 1.294541 0.001818 0.0
1.173784 0.634544 -0.002302 0.0
4.033280 1.393832 0.001270 0.0
4.176760 0.054205 -0.003475 0.0
3.175884 0.042700 -0.002347 0.0
0.016396 1.796506 0.002469 0.0
3.634806 1.467492 -0.004992 0.0
3.949969 1.258000 -0.003402 0.0
0.107645 1.693523 0.001701 0.0
1.087579 0.453972 -0.000269 0.0
1.445573 0.346071 -0.000112 0.0
2.232209 0.623257 -0.000334 0.0
1.000257 0.008944 0.002283 0.0
4.080244 1.072990 0.000228 0.0
2.265356 0.336411 -0.001598 0.0
3.488625 0.844229 -0.000544 0.0
1.763067 1.301956 -0.000375 0.0
2.440718 1.816395 -0.001802 0.0
4.355311 0.038245 0.000674 0.0
2.539730 1.318894 -0.001823 0.0
0.313256 1.182994 -0.002846 0.0
1.696818 1.354775 -0.003422 0.0
1.293749 0.167547 -0.000184 0.0
2.040937 0.869025 0.002189 0.0
3.705375 0.787489 0.001655 0.0
3.125451 0.683961 -0.001929 0.0
0.191494 1.769788 -0.001194 0.0
1.089717 1.760793 -0.000944 0.0
0.162554 1.660779 -0.000305 0.0
2.356104 1.673658 0.004807 0.0
2.836737 0.734755 -0.003160 0.0
4.001081 1.536604 0.003941 0.0
0.096393 1.131829 0.000906 0.0
2.843874 1.798050 -0.000118 0.0
3.790136 1.362531 0.000782 0.0
4.020320 1.553249 -0.003993 0.0
2.710954 1.774365 -0.002266 0.0
3.368977 0.821183 0.000153 0.0
2.125499 0.660586 -0.001501 0.0
3.921876 1.790479 0.000810 0.0
0.428569 1.398118 -0.000877 0.0
1.682402 1.204437 -0.002732 0.0
2.725875 0.700987 -0.000062 0.0
3.304589 1.268057 -0.001532 0.0
3.403359 0.164401 0.002459 0.0
0.583538 1.081975 0.001632 0.0
3.639597 1.733576 -0.000253 0.0
1.549506 0.493606 0.002019 0.0
3.497480 0.456374 -0.001366 0.0
4.114170 0.903978 0.000294 0.0
4.171288 1.610128 0.000335 0.0
2.643169 1.238610 -0.001055 0.0
2.286308 0.927051 0.006478 0.0
3.046242 0.984222 -0.001499 0.0
3.976004 1.539494 0.000559 0.0
0.623599 1.829716 0.000017 0.0
2.619032 0.145021 -0.001099 0.0
3.946694 0.965854 -0.004466 0.0
0.770385 1.005556 0.003461 0.0
3.623238 1.214296 -0.000054 0.0
0.640061 1.576184 -0.002803 0.0
3.565056 0.480942 0.007645 0.0
2.867469 1.539419 -0.000135 0.0
4.137466 1.645602 -0.000954 0.0
3.765105 0.398818 0.004462 0.0
2.202500 0.119024 -0.002219 0.0
3.935942 1.473243 0.000537 0.0
3.363523 1.166052 0.000618 0.0
0.307270 0.498956 -0.001392 0.0
3.148007 1.091694 -0.001117 0.0
1.838359 1.617815 0.003068 0.0
4.237186 1.388056 -0.000195 0.0
1.510047 1.760827 0.000410 0.0
0.498883 0.287978 0.000888 0.0
0.242685 1.704032 -0.000422 0.0
0.577211 1.567933 0.001302 0.0
0.771871 1.806767 -0.001514 0.0
2.311905 0.996062 0.002350 0.0
1.352051 0.073374 0.000280 0.0
4.070791 1.160180 0.000969 0.0
3.761225 1.079000 -0.000313 0.0
2.381290 0.379962 0.002387 0.0
1.416132 1.146861 -0.000531 0.0
1.689574 1.044944 -0.003224 0.0
3.161704 1.104360 -0.002747 0.0
1.886900 0.914127 -0.002197 0.0
4.086494 0.285074 0.003122 0.0
0.485028 0.126257 -0.002665 0.0
1.976904 0.350945 0.001902 0.0
3.242375 1.288931 0.005500 0.0
0.543097 0.840337 0.002211 0.0
0.379329 1.774941 -0.000588 0.0
4.179564 0.654644 -0.001352 0.0
1.190308 1.313850 0.001504 0.0
1.178696 0.492869 -0.000493 0.0
2.675224 1.235234 0.004545 0.0
1.510795 0.479744 -0.001434 0.0
0.876630 1.715654 0.001208 0.0
2.370905 0.775198 0.000187 0.0
0.205137 0.939879 -0.002153 0.0
0.963564 1.322154 -0.001784 0.0
1.520569 0.585307 -0.001137 0.0
3.672182 1.458327 -0.000244 0.0
0.842217 0.093389 -0.002039 0.0
1.470456 1.599304 0.003020 0.0
3.337506 0.667512 0.001985 0.0
1.745195 0.125502 -0.000137 0.0
1.376052 0.863854 -0.004454 0.0
1.878896 0.449489 -0.001829 0.0
2.498229 0.222412 -0.002932 0.0
1.767603 0.396216 -0.000388 0.0
1.089020 1.110314 -0.001335 0.0
0.492787 1.471503 -0.002830 0.0
2.158728 1.623147 0.002558 0.0
3.114276 0.168052 0.003227 0.0
1.160736 0.163867 0.003414 0.0
2.857902 0.916355 0.001120 0.0
2.576856 1.812795 -0.001109 0.0
2.195761 0.946899 0.001090 0.0
2.404474 0.402765 0.001758 0.0
2.094832 0.187056 0.002677 0.0
1.062899 0.549070 0.002010 0.0
2.544006 0.519692 -0.000435 0.0
3.283502 0.951158 0.000823 0.0
0.299568 0.517410 -0.000568 0.0
0.484433 1.621223 -0.000965 0.0
2.571853 0.258096 -0.000520 0.0
2.976589 1.487892 0.001645 0.0
0.754700 0.276915 0.002106 0.0
3.754413 1.529572 0.002521 0.0
2.948410 0.152733 0.004716 0.0
4.290367 0.638030 0.001434 0.0
3.776419 1.504875 -0.000836 0.0
0.207891 1.134604 -0.001781 0.0
4.140337 0.110278 -0.002455 0.0
4.272919 0.647444 -0.001177 0.0
3.206573 1.180976 -0.001928 0.0
2.259598 0.986464 0.001782 0.0
2.097735 0.387573 -0.000570 0.0
1.382706 1.680945 0.001006 0.0
2.765853 0.191269 -0.001415 0.0
2.017149 0.572735 -0.001236 0.0
2.218432 0.869020 0.003906 0.0
3.382037 0.309806 0.002654 0.0
4.107843 0.335297 0.000761 0.0
3.684785 0.624496 0.001123 0.0
1.839079 0.092186 -0.000647 0.0
0.038841 1.266694 -0.001819 0.0
3.477843 0.828719 0.003152 0.0
3.264958 0.173655 -0.000185 0.0
3.564668 0.663931 -0.001450 0.0
1.703260 0.937166 0.002858 0.0
2.709702 0.936449 -0.001964 0.0
1.783887 1.196677 0.001669 0.0
1.454982 1.096754 0.004800 0.0
2.979134 1.334798 -0.001810 0.0
0.676340 1.588290 -0.001669 0.0
3.703205 0.611207 0.002053 0.0
2.793975 0.784205 0.001767 0.0
1.450867 0.526279 0.002975 0.0
1.425225 0.933189 -0.000455 0.0
1.823836 0.216428 0.004973 0.0
2.900030 0.523614 0.001887 0.0
4.161065 0.594505 -0.002196 0.0
4.230494 1.564211 -0.001598 0.0
4.036771 1.571008 0.003433 0.0
2.860432 0.321457 -0.002804 0.0
0.771486 1.770739 -0.000108 0.0
2.948493 0.075772 -0.000357 0.0
4.332056 0.139860 0.000186 0.0
3.371660 1.268266 -0.001235 0.0
3.332590 0.276407 -0.001845 0.0
3.158014 0.082479 0.002120 0.0
2.917592 1.104863 0.000530 0.0
1.485742 1.061404 0.003573 0.0
0.150283 0.463702 0.000144 0.0
3.271228 1.428155 0.000505 0.0
0.759967 0.253366 -0.001270 0.0
3.147726 0.990313 -0.003912 0.0
2.379766 0.486860 0.000426 0.0
0.106625 0.167646 -0.000103 0.0
0.248614 0.138777 0.000072 0.0
3.199671 0.893489 -0.002557 0.0
1.622059 0.928255 0.003423 0.0
3.690786 1.349715 -0.000715 0.0
2.941326 1.759769 0.000084 0.0
0.033278 1.169694 -0.001903 0.0
1.886942 0.982293 -0.003204 0.0
2.883561 0.658129 -0.000825 0.0
2.189169 1.369152 0.002987 0.0
3.161192 1.667023 -0.002914 0.0
1.906261 1.507258 0.001094 0.0
1.719337 1.246237 0.001609 0.0
0.803155 1.389008 -0.002100 0.0
1.280739 1.418190 0.003577 0.0
3.070117 1.578393 -0.001594 0.0
1.695883 1.624488 -0.000248 0.0
1.160912 0.361878 0.004663 0.0
1.101300 1.325685 -0.003898 0.0
0.966380 0.496965 -0.004654 0.0
1.963551 1.479841 -0.004079 0.0
1.873638 1.488852 -0.001961 0.0
0.919358 1.008952 0.003159 0.0
2.799070 1.547515 0.000965 0.0
0.189638 1.027701 -0.002896 0.0
2.580519 0.851567 -0.000429 0.0
1.830106 1.098082 0.002708 0.0
1.061906 1.150616 -0.004431 0.0
0.404153 1.312863 0.005093 0.0
2.339915 0.789533 -0.006631 0.0
2.401849 0.351455 0.000736 0.0
3.019603 0.708372 0.001218 0.0
0.560098 1.370704 -0.001775 0.0
3.554634 1.016241 -0.001149 0.0
2.129010 1.739766 0.002157 0.0
1.255248 1.279348 0.000899 0.0
2.749984 1.389594 0.002139 0.0
1.408201 1.052016 -0.003622 0.0
1.707108 1.207877 -0.002241 0.0
1.304720 1.679244 -0.000706 0.0
2.398091 1.782349 -0.003539 0.0
2.167475 1.309392 -0.004552 0.0
3.875117 0.316906 -0.003181 0.0
0.704002 0.660282 0.000120 0.0
2.968342 1.657483 -0.002882 0.0
0.311890 0.265483 0.002545 0.0
1.070298 1.247198 -0.001211 0.0
0.883019 0.928438 -0.002928 0.0
3.021876 0.598720 0.000761 0.0
2.816412 0.371192 -0.001526 0.0
2.867472 1.799937 0.000625 0.0
2.803513 1.792867 -0.002667 0.0
4.098981 1.776272 0.005666 0.0
1.029314 1.682023 0.001092 0.0
1.554403 0.227426 0.003937 0.0
0.924476 1.087722 -0.001572 0.0
3.892005 0.782594 -0.003204 0.0
4.221256 0.326509 0.003295 0.0
1.269739 0.213163 0.002320 0.0
2.073736 0.842511 -0.001489 0.0
2.891910 1.196483 0.001894 0.0
2.390919 1.250249 0.000524 0.0
0.640862 1.778619 0.001580 0.0
1.540005 0.282859 0.001314 0.0
1.373961 0.542662 -0.004986 0.0
1.530702 0.338435 -0.000588 0.0
0.555154 1.606235 0.000372 0.0
2.918998 0.884332 -0.001167 0.0
0.449023 0.954272 0.000013 0.0
2.872594 1.047350 -0.001772 0.0
1.394706 0.816611 -0.001011 0.0
3.351544 1.319283 0.001737 0.0
0.174645 0.436948 -0.000945 0.0
2.511081 1.227969 -0.006273 0.0
2.642625 1.437462 -0.001477 0.0
3.430080 1.470130 0.002415 0.0
3.361381 1.440173 -0.002509 0.0
1.870548 0.489881 0.003856 0.0
3.485045 0.149897 -0.000774 0.0
1.529984 1.496592 0.003150 0.0
0.580133 1.193236 -0.000334 0.0
2.208571 1.034801 0.003940 0.0
2.057469 0.187276 0.001577 0.0
2.900246 1.120819 -0.000988 0.0
1.413882 1.622418 0.001088 0.0
3.873150 1.100692 0.000055 0.0
3.266566 1.275868 -0.000045 0.0
2.176200 0.152816 -0.000930 0.0
2.071285 1.551048 -0.001356 0.0
0.430055 1.302398 0.000643 0.0
3.906887 1.623882 -0.002267 0.0
3.115744 0.308494 0.005404 0.0
2.686560 0.407708 -0.000583 0.0
0.765096 0.004710 0.002128 0.0
0.164864 0.408434 -0.002378 0.0
0.143239 1.133275 0.000892 0.0
1.940395 0.808350 0.001930 0.0
2.965674 1.850296 0.002688 0.0
1.196939 0.901548 0.003274 0.0
1.011481 0.669727 0.001604 0.0
0.520029 1.572493 0.000823 0.0
3.027303 0.881316 -0.000320 0.0
3.500526 0.978090 -0.003207 0.0
0.886081 1.110407 0.005241 0.0
1.868029 1.262225 0.000433 0.0
0.296465 0.750914 0.000601 0.0
1.647807 1.486606 -0.000738 0.0
4.251753 0.767680 -0.001443 0.0
3.712518 1.322113 -0.000209 0.0
2.895368 1.389934 0.000265 0.0
3.766764 1.327370 0.000958 0.0
4.181096 0.783117 -0.002243 0.0
1.855681 1.612972 -0.000766 0.0
2.723933 1.447659 0.000817 0.0
0.373748 0.140705 -0.001164 0.0
2.385445 0.521181 0.001677 0.0
0.884651 0.395972 0.001173 0.0
0.823317 1.820811 0.005448 0.0
0.690775 0.027935 0.002297 0.0
1.213159 0.236672 -0.000503 0.0
4.080545 0.358332 0.001188 0.0
1.111832 0.901447 -0.002316 0.0
3.853241 1.600537 -0.000695 0.0
2.701148 0.919869 -0.001625 0.0
2.094762 0.506039 -0.000761 0.0
2.887412 1.250383 0.001139 0.0
1.964317 0.351414 0.001199 0.0
0.569454 0.726437 0.003801 0.0
2.192855 0.624636 -0.006374 0.0
3.179265 0.325361 0.000205 0.0
0.617041 0.653201 0.005780 0.0
2.347656 0.619083 -0.002913 0.0
1.373340 1.422888 0.003875 0.0
1.991408 0.466919 0.002473 0.0
1.990032 1.194374 0.002907 0.0
2.902979 1.731325 0.000127 0.0
1.806461 0.557647 -0.002194 0.0
3.204066 1.563364 -0.001885 0.0
3.957020 0.392502 0.003006 0.0
0.755602 0.838708 0.005582 0.0
2.603548 0.934374 -0.002316 0.0
1.529106 0.833491 0.006079 0.0
0.634402 1.759189 0.000774 0.0
0.937728 0.497942 -0.000713 0.0
1.339930 0.074614 0.001375 0.0
2.048383 1.175179 0.000291 0.0
3.436670 0.174862 0.000463 0.0
0.287682 1.472877 0.000755 0.0
0.786701 1.770364 -0.002754 0.0
