3.113932 1.133409 -0.000046 0.0
3.284339 1.562307 -0.000594 0.0
2.845680 1.184528 -0.001340 0.0
0.773143 1.009298 0.001931 0.0
2.144182 1.233713 -0.000659 0.0
0.531243 0.665059 0.003822 0.0
3.265673 1.752618 0.000231 0.0
2.412200 1.097148 0.004731 0.0
4.590064 0.363383 -0.005104 0.0
0.943785 1.430586 0.002493 0.0
2.441376 0.750908 -0.000099 0.0
4.770809 1.333880 0.001583 0.0
3.765028 0.474308 -0.004796 0.0
1.566392 0.736310 -0.000290 0.0
1.215082 0.505376 -0.002193 0.0
1.835597 0.119228 0.001976 0.0
0.050983 1.796048 0.002248 0.0
1.840201 0.869071 0.001969 0.0
3.801022 0.902863 0.002943 0.0
2.854541 0.867806 0.000260 0.0
2.385084 0.944170 -0.001066 0.0
3.134252 0.635957 -0.004226 0.0
2.037540 1.893706 -0.000649 0.0
2.923952 1.368894 0.001727 0.0
0.407154 0.037675 -0.001314 0.0
0.173399 1.162087 -0.002536 0.0
4.429472 1.916568 -0.001620 0.0
1.879754 1.126191 0.000970 0.0
3.236155 1.391245 -0.002334 0.0
2.465631 0.578439 -0.001010 0.0
4.383980 1.169275 -0.002674 0.0
1.129767 1.244498 -0.001882 0.0
1.267940 0.458352 0.002766 0.0
2.391175 1.176974 0.003161 0.0
3.329950 0.520334 -0.002993 0.0
1.677447 1.807311 -0.000690 0.0
0.996157 1.928140 -0.002317 0.0
3.193500 0.138531 -0.000981 0.0
2.119210 0.598753 -0.000381 0.0
2.280797 1.288841 -0.002431 0.0
3.530683 0.213085 0.001863 0.0
0.917215 0.316161 -0.002453 0.0
0.880144 1.366058 -0.002876 0.0
0.467887 1.394534 -0.002963 0.0
1.051506 1.046439 0.000254 0.0
1.789791 0.409691 0.003419 0.0
3.610230 1.163526 -0.000424 0.0
2.829643 0.053870 -0.003067 0.0
0.213767 0.627420 0.000090 0.0
1.309955 1.848619 -0.005207 0.0
0.771453 0.816226 -0.001041 0.0
1.598142 1.397293 -0.003955 0.0
1.431446 0.430971 0.000920 0.0
4.088947 1.160486 0.001271 0.0
1.025154 0.975965 0.002190 0.0
2.881063 0.755350 -0.003081 0.0
1.702163 1.216787 -0.000142 0.0
4.501163 1.799695 0.001181 0.0
2.340418 0.908307 -0.002660 0.0
0.065378 0.535119 0.003158 0.0
0.499825 0.093615 -0.002169 0.0
3.673381 0.000497 -0.000893 0.0
1.935279 0.692705 -0.000536 0.0
1.114751 0.178332 0.002943 0.0
3.427437 0.890866 0.000418 0.0
3.699888 0.006520 0.001181 0.0
2.141712 0.398561 0.001203 0.0
3.230033 0.590736 0.001034 0.0
0.520555 0.197649 0.001053 0.0
2.345479 1.399729 -0.000451 0.0
2.333643 1.395277 -0.000478 0.0
4.146218 1.880642 -0.001451 0.0
3.323673 1.598344 0.001413 0.0
0.691170 0.807788 -0.002915 0.0
2.991823 1.515136 -0.000880 0.0
1.417607 0.333631 0.001119 0.0
0.239671 1.452805 0.000590 0.0
1.559075 0.859712 -0.000814 0.0
1.804869 0.865178 0.001638 0.0
1.039915 1.428423 0.001670 0.0
4.266393 0.929680 0.003963 0.0
2.844115 1.928126 0.003825 0.0
3.896223 0.152426 0.001186 0.0
2.561657 1.345336 -0.003227 0.0
1.715597 0.832278 0.000106 0.0
3.171306 1.434037 0.001510 0.0
4.619656 1.333455 -0.002873 0.0
0.702857 1.213063 -0.000658 0.0
3.530561 1.839917 -0.003507 0.0
1.956650 1.053620 0.001352 0.0
3.906577 0.918709 0.006702 0.0
4.548054 1.050795 -0.003420 0.0
0.876487 1.496484 0.000107 0.0
4.344833 1.451621 -0.001385 0.0
2.282823 0.513153 0.000949 0.0
3.919266 0.253570 0.003050 0.0
3.160865 0.492462 -0.001043 0.0
0.169410 0.838932 0.001719 0.0
1.016407 0.674924 0.000378 0.0
3.818406 1.786023 -0.000022 0.0
0.454274 0.348314 -0.002265 0.0
0.371782 0.791755 0.002223 0.0
3.726358 1.095683 0.000774 0.0
0.858490 0.750301 0.002856 0.0
0.605693 1.695883 -0.002498 0.0
2.381285 1.227606 0.000388 0.0
4.500202 1.492969 -0.001661 0.0
3.906532 1.791261 0.002203 0.0
2.408536 1.346060 0.001769 0.0
4.622015 0.997861 0.001770 0.0
0.959505 1.591649 0.001801 0.0
0.559507 0.493728 0.005401 0.0
2.452326 0.064487 0.003142 0.0
4.089514 1.546857 -0.000128 0.0
0.924762 0.626847 0.000229 0.0
2.653594 0.558983 -0.000699 0.0
4.641048 0.514435 0.001392 0.0
2.029503 0.437011 0.001243 0.0
0.125516 1.682005 0.001148 0.0
3.963205 1.630176 -0.003509 0.0
3.596537 1.667690 0.003815 0.0
4.028266 0.529474 -0.002070 0.0
0.098523 0.955319 -0.000574 0.0
3.409927 0.759253 0.001445 0.0
3.002271 0.399227 0.002627 0.0
4.498533 1.871599 -0.000074 0.0
4.511387 1.846480 0.002053 0.0
0.085423 1.104163 0.003350 0.0
2.418800 0.148237 0.000284 0.0
2.851887 0.392950 0.002375 0.0
3.911078 1.558836 0.003462 0.0
2.514812 1.417925 -0.000779 0.0
1.826654 1.804494 -0.001727 0.0
4.340825 0.048751 0.002621 0.0
0.330521 1.193247 -0.004587 0.0
3.012544 1.122078 0.000873 0.0
1.650585 0.957281 -0.000546 0.0
1.155822 1.484026 -0.004671 0.0
2.743049 0.059053 0.001120 0.0
2.747328 1.871132 0.000142 0.0
1.830507 0.457586 0.000633 0.0
1.685461 1.710330 0.003449 0.0
4.754910 1.309673 -0.000119 0.0
3.459078 0.826667 -0.003560 0.0
2.500446 1.260032 0.000372 0.0
3.942622 0.956652 -0.002182 0.0
2.727596 1.804951 -0.000152 0.0
2.173620 1.240122 -0.001155 0.0
1.285011 0.531431 -0.001599 0.0
3.928668 0.567208 -0.002475 0.0
3.896634 1.443503 -0.004862 0.0
0.520466 1.172709 0.001391 0.0
3.099748 1.529643 0.002490 0.0
3.064499 0.690657 -0.002190 0.0
0.079587 1.855459 -0.000899 0.0
4.789640 0.566369 -0.004639 0.0
2.876728 1.853757 -0.003218 0.0
2.322688 1.320279 0.002256 0.0
2.395070 1.310184 -0.004162 0.0
1.042629 0.283487 -0.000422 0.0
2.206296 1.205091 0.005640 0.0
3.770612 0.664230 0.001579 0.0
2.735510 1.375041 -0.003959 0.0
3.115172 0.324912 0.002494 0.0
1.050812 0.409649 0.009725 0.0
1.791666 1.258714 0.001042 0.0
4.561335 0.280993 0.000527 0.0
2.825164 0.164773 0.000768 0.0
0.837935 0.077812 -0.005178 0.0
3.389289 1.280409 -0.000761 0.0
3.039167 0.494117 -0.000117 0.0
1.919264 1.331890 -0.002588 0.0
4.608883 0.593239 0.002437 0.0
0.905131 1.085873 -0.007363 0.0
4.732868 1.863854 -0.001181 0.0
4.023892 0.608341 -0.001240 0.0
1.009072 0.162250 -0.002935 0.0
1.630732 0.729076 -0.000230 0.0
2.099685 0.641632 0.002798 0.0
1.035630 0.942650 -0.001091 0.0
0.906032 0.555005 0.005377 0.0
2.865891 1.853697 0.000165 0.0
1.401235 1.001558 -0.000162 0.0
2.139940 0.632987 -0.001045 0.0
4.020360 1.850762 -0.000583 0.0
0.485378 0.588970 -0.000537 0.0
1.210594 1.922186 -0.003897 0.0
1.349602 1.407530 -0.001117 0.0
1.164578 0.458199 0.003027 0.0
2.919056 1.101433 -0.001371 0.0
2.451914 1.682154 0.002387 0.0
3.512149 0.408259 -0.004250 0.0
4.617525 1.385445 -0.002157 0.0
3.440358 1.836228 -0.002606 0.0
1.327747 0.452645 0.003821 0.0
1.422781 0.497888 0.000255 0.0
2.775702 1.400125 -0.005987 0.0
2.601755 1.053205 -0.001267 0.0
1.300698 0.466496 0.000558 0.0
1.610364 0.748086 0.003907 0.0
1.526438 1.650153 -0.001372 0.0
2.300977 0.082643 0.000295 0.0
0.202128 0.363276 -0.002551 0.0
4.248558 0.286563 -0.001348 0.0
4.229190 1.740618 -0.000025 0.0
2.044815 0.902791 0.000200 0.0
2.663866 1.421012 -0.001243 0.0
3.697631 0.160900 0.000475 0.0
0.650060 1.052927 -0.001719 0.0
0.573998 1.106449 -0.000755 0.0
1.230352 0.685031 0.001559 0.0
3.495122 0.317777 -0.001850 0.0
1.387802 1.374064 -0.003626 0.0
1.523549 1.623594 -0.002258 0.0
2.511139 1.902806 0.002330 0.0
2.880535 0.758970 -0.006411 0.0
0.066616 1.224734 -0.001199 0.0
4.702626 1.891252 -0.000885 0.0
2.963175 0.174259 -0.001260 0.0
4.448938 1.681093 0.000370 0.0
0.441314 1.460198 0.000269 0.0
3.421889 0.547377 0.001654 0.0
2.976706 1.472068 -0.003143 0.0
3.557550 0.514414 0.003270 0.0
2.371288 0.478178 -0.001057 0.0
2.744159 1.858449 -0.004688 0.0
1.149127 1.671406 -0.002097 0.0
3.680972 1.544803 -0.004044 0.0
3.362873 0.950144 -0.001411 0.0
0.989599 1.227416 0.001126 0.0
1.993118 1.092226 0.000711 0.0
0.773435 1.080345 0.001742 0.0
3.736231 0.659493 0.002865 0.0
1.122200 0.041400 -0.000853 0.0
2.578555 0.665526 0.001786 0.0
3.056592 0.184495 0.001834 0.0
1.205488 0.058095 -0.000932 0.0
0.981282 0.935268 0.000252 0.0
1.580726 0.183400 0.000900 0.0
3.360457 0.037385 -0.003365 0.0
0.891112 1.590119 0.002636 0.0
1.963603 0.154148 0.002473 0.0
3.973204 1.226887 0.000678 0.0
1.862230 1.676860 -0.001290 0.0
0.231962 0.867775 -0.002025 0.0
0.697743 0.323788 0.000015 0.0
2.513935 1.832594 0.002054 0.0
0.080756 0.342181 -0.005021 0.0
2.518840 0.128471 0.000272 0.0
0.204147 0.178572 0.002294 0.0
4.190463 1.568214 0.000900 0.0
1.381641 1.915031 -0.001740 0.0
4.384331 1.573609 -0.000090 0.0
3.893728 0.631658 0.002485 0.0
0.922231 1.724254 0.002003 0.0
4.722819 1.364710 0.001159 0.0
2.413751 0.925617 0.002202 0.0
0.543677 0.361543 -0.000574 0.0
2.389854 1.507877 -0.000015 0.0
0.725502 1.860975 -0.003881 0.0
3.057945 1.626849 -0.002034 0.0
1.279987 1.565029 -0.003808 0.0
2.077903 1.632473 -0.002599 0.0
4.539288 1.029793 -0.002541 0.0
4.423254 1.125239 0.004321 0.0
2.757951 1.389198 -0.001372 0.0
4.651219 1.528357 -0.000174 0.0
1.087101 0.901496 -0.002451 0.0
-0.000160 0.504674 0.000891 0.0
0.341965 1.289505 -0.001091 0.0
0.551429 1.903586 0.001000 0.0
0.234707 0.118745 0.000347 0.0
4.405738 1.754423 0.001599 0.0
1.063107 1.076513 0.004445 0.0
0.547249 0.904276 0.001896 0.0
2.110437 0.809557 -0.000644 0.0
0.716911 1.247884 -0.001584 0.0
2.956996 0.042946 0.003508 0.0
3.218715 0.497743 0.003242 0.0
0.758468 1.793975 0.000437 0.0
2.005240 1.017264 0.002648 0.0
1.313225 1.650319 0.000942 0.0
2.860733 1.530897 0.001668 0.0
3.638399 1.456042 0.000146 0.0
2.594306 0.586622 -0.006139 0.0
1.492471 1.316588 -0.003146 0.0
4.004736 1.763305 0.000817 0.0
4.757928 1.891558 -0.000719 0.0
0.499398 0.154887 -0.000582 0.0
1.759788 1.304543 -0.001281 0.0
4.755217 0.889052 -0.001360 0.0
2.072827 1.086756 0.001942 0.0
3.665966 1.249946 -0.000488 0.0
2.488689 1.753155 -0.000936 0.0
2.787217 1.008502 -0.004774 0.0
1.608517 1.173054 0.004182 0.0
1.229209 0.240303 -0.002324 0.0
3.879133 0.869123 0.004538 0.0
2.619706 1.247705 -0.000876 0.0
1.765275 0.323108 0.000060 0.0
4.265235 0.094933 -0.002240 0.0
2.141365 0.556452 -0.002006 0.0
0.417140 0.999800 0.004406 0.0
2.807715 1.280469 0.000013 0.0
0.051528 1.135620 0.000597 0.0
3.235173 1.524798 0.003010 0.0
2.743070 0.764565 0.003170 0.0
1.745217 1.795712 0.003704 0.0
3.503591 0.501137 0.001054 0.0
3.871221 1.621838 0.002855 0.0
4.126158 0.924172 -0.001250 0.0
4.498731 0.175166 0.002212 0.0
0.747485 0.407354 -0.001516 0.0
3.032382 1.026835 0.002404 0.0
3.026591 0.940565 0.004159 0.0
2.744126 1.336499 0.003629 0.0
0.180454 1.544706 -0.004392 0.0
2.319553 0.069667 0.005003 0.0
3.439058 1.003597 -0.004472 0.0
4.629288 0.426370 -0.000793 0.0
1.070756 1.221047 0.001853 0.0
1.698398 0.305326 0.000427 0.0
4.255235 0.743418 0.001174 0.0
1.472204 0.254671 0.002225 0.0
4.437788 0.056509 -0.003056 0.0
2.125111 1.597970 -0.000064 0.0
1.630692 1.898192 -0.000803 0.0
0.256397 1.917105 0.003120 0.0
3.340640 0.512075 0.001274 0.0
0.725025 1.524013 0.000312 0.0
1.439540 0.771168 -0.002805 0.0
4.262055 0.970176 0.001268 0.0
4.386604 1.430641 -0.000026 0.0
3.009963 0.238714 0.002846 0.0
3.768031 1.509063 -0.002801 0.0
0.260228 1.039632 -0.001269 0.0
1.748522 0.308436 -0.002586 0.0
1.143857 1.649968 0.003364 0.0
2.925458 0.767308 -0.001312 0.0
1.862222 0.785302 0.004226 0.0
3.881046 1.849744 0.002213 0.0
4.481192 1.418238 -0.001636 0.0
4.788986 1.467436 0.002431 0.0
1.267072 1.701629 -0.000851 0.0
4.787927 0.834902 0.002400 0.0
2.053960 0.233149 0.002941 0.0
1.607662 0.061781 0.001269 0.0
0.131257 0.233032 -0.002204 0.0
4.586912 0.731397 -0.003058 0.0
1.497374 1.620661 0.001134 0.0
4.137410 1.062134 0.002672 0.0
3.340871 1.313077 0.000806 0.0
4.415246 1.550108 0.002859 0.0
2.411639 0.854044 0.000740 0.0
1.404743 1.448089 -0.003951 0.0
3.710951 1.448859 0.002638 0.0
0.041834 0.682596 0.000955 0.0
2.806055 0.257545 -0.001874 0.0
2.493330 0.383820 -0.000267 0.0
0.548273 0.821525 -0.004105 0.0
3.931455 1.257045 -0.000801 0.0
2.152640 0.875978 0.000719 0.0
2.420451 1.482530 0.001014 0.0
3.612564 1.367212 0.001013 0.0
2.963382 0.541004 0.004663 0.0
2.218699 0.139982 -0.003833 0.0
0.301424 0.739777 0.000394 0.0
1.180833 0.703007 0.000059 0.0
4.350768 0.618670 -0.002214 0.0
0.636553 0.814371 0.001015 0.0
2.261232 0.682584 0.002149 0.0
4.271037 1.763684 0.002520 0.0
4.530877 1.841766 -0.004026 0.0
4.174028 1.598581 0.001217 0.0
0.048352 1.460455 0.001191 0.0
0.282592 1.380987 -0.004964 0.0
2.027948 0.819721 -0.002590 0.0
2.467931 0.359336 -0.003859 0.0
2.018285 1.350691 0.003087 0.0
4.151689 1.782608 0.003901 0.0
2.468046 1.200040 0.003042 0.0
0.787602 0.446524 -0.001369 0.0
2.114467 1.013789 0.000855 0.0
3.958228 1.660934 -0.000855 0.0
4.574352 1.222426 -0.003426 0.0
0.027606 1.240089 0.003751 0.0
4.402645 0.882578 0.001825 0.0
0.626469 0.127496 0.002804 0.0
2.656163 0.236903 0.002935 0.0
3.892957 1.922705 0.002233 0.0
4.267165 0.603418 -0.000215 0.0
1.910708 1.431965 0.003134 0.0
4.396987 0.205795 0.001973 0.0
3.186123 0.099264 0.001982 0.0
1.125292 1.674614 -0.004941 0.0
3.206826 1.101169 0.005912 0.0
4.672305 0.826923 0.002405 0.0
0.366574 0.830859 0.002887 0.0
4.284889 1.366410 0.002188 0.0
3.332622 1.913818 -0.002849 0.0
3.697061 1.869771 -0.004853 0.0
1.347465 1.796853 -0.004591 0.0
0.219067 1.556094 0.001655 0.0
0.315253 0.572400 -0.000694 0.0
2.025634 0.299890 -0.001308 0.0
3.090604 0.605495 0.000903 0.0
2.191814 1.814363 -0.001148 0.0
0.295992 0.517258 0.000202 0.0
3.919843 0.205041 -0.000231 0.0
4.771170 0.237873 -0.006663 0.0
2.553274 1.809335 0.002081 0.0
0.502036 0.766603 -0.000462 0.0
3.235193 1.146572 -0.002230 0.0
0.241507 1.376956 0.002957 0.0
2.020776 1.331443 -0.003370 0.0
3.854203 1.216856 0.003018 0.0
2.623497 1.622928 0.001215 0.0
4.070561 1.929376 0.001022 0.0
3.700946 1.910435 0.002263 0.0
1.698898 0.184180 -0.000119 0.0
3.928919 0.528452 -0.000741 0.0
2.887787 1.440680 0.003002 0.0
1.839239 0.996922 -0.004118 0.0
0.681638 0.912782 0.004265 0.0
3.593952 0.624393 0.001776 0.0
2.565828 0.596248 -0.005016 0.0
3.165023 1.522642 -0.003166 0.0
1.934665 0.102164 0.003013 0.0
2.347154 0.051047 -0.000500 0.0
0.544071 0.495148 -0.000328 0.0
1.585724 1.519752 -0.000821 0.0
3.573995 1.661554 -0.003355 0.0
1.990804 1.609935 -0.000615 0.0
3.941950 1.897047 -0.002975 0.0
1.781638 1.353380 0.001006 0.0
4.465598 1.872433 -0.000514 0.0
4.741509 0.077263 -0.001985 0.0
4.275348 1.386662 -0.002223 0.0
1.733062 1.382960 0.001452 0.0
0.662352 1.509050 -0.003495 0.0
4.642835 1.560080 -0.006382 0.0
1.188820 0.070689 -0.005644 0.0
2.852770 0.460962 0.001618 0.0
2.818183 1.438940 -0.000555 0.0
2.103275 1.254643 -0.005465 0.0
4.403302 0.375298 -0.002878 0.0
2.175269 0.558037 0.001566 0.0
3.222721 1.279911 -0.002679 0.0
4.016279 0.533583 0.001090 0.0
2.719890 1.796783 0.001890 0.0
1.685334 1.431027 0.003270 0.0
1.394391 0.117454 0.002884 0.0
2.117187 1.019527 -0.001052 0.0
1.992730 0.309615 0.001298 0.0
3.598625 0.322134 -0.001637 0.0
2.675785 0.831127 0.002942 0.0
0.052152 0.827777 -0.002173 0.0
0.235722 0.185950 0.001244 0.0
1.826530 1.695976 -0.003605 0.0
3.667888 0.030491 0.001670 0.0
0.730245 0.091016 -0.000464 0.0
2.294312 1.682929 0.002630 0.0
1.973656 1.020502 0.001034 0.0
2.646075 0.016433 0.002098 0.0
1.496092 1.276850 -0.002808 0.0
0.840300 1.012282 0.004019 0.0
0.643312 0.910345 -0.003978 0.0
2.528387 1.652379 0.003393 0.0
0.489222 0.252593 0.004610 0.0
0.228342 1.885407 -0.002301 0.0
1.229114 1.861929 0.001548 0.0
2.756316 0.048740 -0.000099 0.0
0.412229 1.870325 -0.000922 0.0
3.283101 0.614053 -0.000505 0.0
1.842866 0.957161 -0.003465 0.0
1.917065 0.417918 0.001758 0.0
3.578414 1.120607 0.002347 0.0
3.533405 1.819280 0.002864 0.0
0.087705 1.288356 -0.002255 0.0
3.706914 0.346098 -0.000933 0.0
1.449965 0.002643 0.003957 0.0
3.831133 1.312635 -0.002130 0.0
1.245889 0.851408 0.000143 0.0
1.602293 0.388806 0.003407 0.0
1.134793 0.810609 0.002101 0.0
2.666656 1.102143 -0.004111 0.0
4.672647 1.071578 0.004805 0.0
3.139551 1.293819 -0.001039 0.0
4.299742 0.893878 -0.000510 0.0
3.370577 1.642211 0.000406 0.0
0.649459 0.960703 -0.000322 0.0
2.114003 0.363052 0.000594 0.0
2.676004 1.384076 0.001433 0.0
0.362483 1.929083 0.000589 0.0
3.212817 0.228718 0.000534 0.0
0.407088 0.914168 -0.001605 0.0
1.573069 0.322868 0.001107 0.0
0.565781 0.185837 0.000559 0.0
4.540312 0.106533 0.002829 0.0
0.236767 0.101166 0.001479 0.0
2.896858 0.751406 -0.001561 0.0
0.572746 1.212198 0.001331 0.0
1.964460 0.684142 0.001147 0.0
0.902115 1.388083 0.000929 0.0
3.623036 1.713214 0.000021 0.0
2.328573 1.913159 -0.000550 0.0
0.093354 1.847655 -0.000052 0.0
2.605909 0.686169 -0.001806 0.0
4.152633 0.264868 -0.001308 0.0
4.431477 0.862450 0.001320 0.0
1.496331 1.717779 0.001298 0.0
0.825777 0.930240 -0.002210 0.0
4.392710 0.677097 -0.004025 0.0
0.002909 1.299750 0.000381 0.0
2.128333 1.035692 -0.001226 0.0
1.677166 0.509592 -0.003538 0.0
0.643441 1.666408 0.000425 0.0
1.897134 1.926368 0.002242 0.0
0.547347 0.878928 0.007825 0.0
1.262166 1.854728 -0.002216 0.0
2.626036 1.044828 -0.005024 0.0
2.746525 1.266178 -0.002914 0.0
1.422221 1.431808 0.000819 0.0
4.109656 1.153390 0.003095 0.0
4.156327 0.579991 -0.000332 0.0
4.411851 0.794441 0.005505 0.0
2.399564 0.188586 0.000330 0.0
0.874964 0.194914 0.000829 0.0
1.081924 0.673699 0.001120 0.0
3.329977 0.933605 -0.000251 0.0
4.627275 1.492950 -0.000433 0.0
3.789216 1.474410 0.002602 0.0
3.157237 1.739501 0.000033 0.0
2.988413 0.014854 0.004082 0.0
1.148224 1.365550 -0.001478 0.0
4.653053 1.510257 -0.002134 0.0
2.107144 1.067199 0.000967 0.0
4.099144 1.792774 -0.001418 0.0
4.423623 1.788454 0.001903 0.0
0.880298 1.926070 0.001007 0.0
1.581664 0.250902 -0.000105 0.0
4.206079 1.441995 0.004375 0.0
4.531972 1.152847 -0.000448 0.0
2.715710 1.933168 -0.003849 0.0
0.098311 0.495895 -0.005363 0.0
4.059930 0.232163 -0.002605 0.0
0.699225 1.210941 -0.002465 0.0
4.742178 1.568161 -0.003044 0.0
0.875452 0.709119 0.000762 0.0
3.848396 0.512528 0.001128 0.0
1.758408 0.472365 -0.002144 0.0
2.295672 0.821414 -0.000048 0.0
1.981731 1.285242 -0.002320 0.0
2.413643 1.410746 -0.000027 0.0
3.369319 0.041007 -0.002238 0.0
1.292783 0.807235 -0.000998 0.0
1.152687 0.766444 0.000997 0.0
3.014615 0.006714 -0.000079 0.0
0.703067 1.663162 -0.007413 0.0
1.263840 0.225092 0.000531 0.0
3.627917 1.639489 0.003117 0.0
0.418302 0.396113 0.005306 0.0
4.480801 0.093895 -0.002176 0.0
1.679785 0.195129 -0.001614 0.0
0.267362 1.284610 0.001486 0.0
1.559533 1.929805 0.003347 0.0
0.447441 1.770587 0.000135 0.0
0.737392 1.692036 0.000905 0.0
0.446477 0.107465 0.000267 0.0
1.403378 1.269064 0.002164 0.0
0.480385 0.607737 0.002385 0.0
2.193845 0.386045 -0.001952 0.0
3.002749 1.672321 0.002092 0.0
0.811268 1.479052 0.006534 0.0
2.257881 1.365356 -0.002440 0.0
4.500234 0.371902 0.003028 0.0
2.122585 1.537780 -0.000960 0.0
2.930307 1.291377 0.002532 0.0
3.170960 0.091158 0.000733 0.0
2.103083 0.794450 -0.000411 0.0
0.062637 1.724169 -0.003068 0.0
0.726946 0.701882 0.003866 0.0
0.741531 1.031456 -0.004694 0.0
1.887835 1.096263 -0.002559 0.0
3.311800 1.045319 0.002128 0.0
3.326534 0.639152 0.001676 0.0
4.278315 0.234519 -0.000825 0.0
3.038566 1.233167 -0.000218 0.0
4.173482 0.390546 0.004446 0.0
0.448890 0.875184 0.000966 0.0
2.586112 0.971240 0.002476 0.0
0.244965 1.608069 0.004014 0.0
0.409430 0.610055 -0.001000 0.0
2.109792 0.053674 -0.000513 0.0
3.676462 0.982493 -0.001377 0.0
2.121928 0.424677 -0.000489 0.0
1.986993 0.110265 0.002622 0.0
1.351744 1.570077 0.003818 0.0
0.770957 0.782568 0.000824 0.0
1.515710 1.239109 0.004512 0.0
2.276901 1.120484 0.003863 0.0
1.269819 1.855981 0.001541 0.0
2.475517 1.890261 -0.003141 0.0
1.402811 0.632355 0.001630 0.0
3.519800 1.895605 0.001623 0.0
1.075774 1.512119 0.001815 0.0
0.926693 1.495865 -0.001841 0.0
1.156628 0.692644 -0.001304 0.0
0.175575 1.367138 0.000325 0.0
4.464396 1.221084 -0.002408 0.0
2.010182 0.153101 0.001418 0.0
4.165980 0.685141 -0.001730 0.0
2.322805 0.360262 0.002217 0.0
3.981044 0.497295 -0.000314 0.0
1.391700 0.441374 0.003280 0.0
4.727685 1.820887 0.000222 0.0
4.385670 1.283911 -0.002696 0.0
3.338314 1.675849 0.004545 0.0
4.392566 1.745490 -0.002294 0.0
0.681405 1.243052 0.003016 0.0
0.736820 1.640299 0.001839 0.0
2.781957 0.098193 0.001697 0.0
0.169737 1.184358 0.000608 0.0
0.596306 0.509299 -0.001504 0.0
1.042084 0.333023 0.000192 0.0
4.557235 1.707919 0.002758 0.0
2.944887 0.380198 -0.001424 0.0
4.303021 1.228639 0.001369 0.0
4.141516 0.449790 -0.001893 0.0
0.230510 0.625687 -0.001467 0.0
3.820623 1.587898 0.001167 0.0
1.737399 0.090650 -0.000914 0.0
0.026713 1.854427 0.000948 0.0
4.532927 0.459502 0.000324 0.0
3.932389 0.574581 0.003879 0.0
1.881619 0.391132 0.002994 0.0
4.541501 0.783694 -0.002980 0.0
2.875843 0.920219 0.004209 0.0
2.470555 0.056954 0.003544 0.0
3.047743 0.389032 0.001600 0.0
4.237446 0.684549 -0.004224 0.0
2.006582 1.046033 -0.003731 0.0
4.204196 1.446220 -0.001496 0.0
2.326130 1.789356 0.001734 0.0
4.115415 0.663191 0.003695 0.0
0.676446 0.642050 0.004486 0.0
0.280653 1.513765 0.000979 0.0
4.584837 1.399588 0.001746 0.0
3.755215 1.924794 -0.002110 0.0
2.845362 0.262335 0.001673 0.0
0.721534 0.629219 -0.004346 0.0
3.700614 1.706503 0.000344 0.0
3.126250 0.486475 -0.000433 0.0
0.041998 1.779676 0.003920 0.0
3.253783 1.454742 -0.004198 0.0
4.393429 0.080263 -0.000952 0.0
4.735431 1.161563 -0.001865 0.0
4.072575 0.272284 -0.001865 0.0
2.525243 1.360948 -0.001091 0.0
1.679000 1.323533 0.001531 0.0
3.157217 0.570525 0.000358 0.0
4.190130 1.328264 0.000585 0.0
3.711056 0.252303 0.002701 0.0
1.076263 1.027814 0.000127 0.0
2.029664 1.584268 0.001952 0.0
2.460516 1.136277 0.001320 0.0
1.736301 1.711393 0.003107 0.0
3.589220 0.126365 0.003475 0.0
2.555623 0.312258 0.000998 0.0
4.416365 0.397434 0.000394 0.0
0.969645 1.813176 -0.000642 0.0
1.848231 0.679310 0.003126 0.0
3.367061 1.505470 0.000980 0.0
4.658183 0.952175 -0.001947 0.0
2.199973 1.265705 -0.003276 0.0
1.919953 1.385204 0.002640 0.0
0.053261 1.793689 0.001472 0.0
3.893552 0.066650 0.003375 0.0
3.936294 1.599812 0.000259 0.0
2.318798 0.377507 0.001784 0.0
3.647395 0.685491 -0.003426 0.0
3.322979 0.093190 -0.000989 0.0
1.516468 0.497042 -0.004414 0.0
1.886707 0.454538 0.000571 0.0
2.859515 1.061312 -0.002396 0.0
2.660612 0.475316 0.002528 0.0
2.613894 1.671731 -0.000846 0.0
4.757591 1.519458 0.000456 0.0
3.211145 0.378816 0.001347 0.0
3.363090 1.149842 -0.000199 0.0
4.446663 1.883049 0.002049 0.0
2.506166 1.937055 -0.001642 0.0
0.871056 0.410376 -0.001157 0.0
3.997554 1.287695 0.001748 0.0
1.279551 0.465507 -0.001331 0.0
0.543599 0.608628 0.003230 0.0
4.778890 1.043527 0.002364 0.0
4.208366 1.709610 -0.001653 0.0
2.827936 1.074941 0.002938 0.0
4.638613 1.911391 -0.003730 0.0
4.088001 0.840649 -0.000372 0.0
3.854053 1.846226 -0.002918 0.0
0.544068 0.493683 0.001315 0.0
0.892967 0.750393 -0.002435 0.0
0.153653 1.444072 -0.002558 0.0
4.481484 1.225973 0.000117 0.0
3.116040 0.641953 -0.002439 0.0
1.382545 1.010530 0.002230 0.0
1.304782 1.905058 0.001449 0.0
3.615175 0.682641 0.000321 0.0
2.185382 1.262465 0.000553 0.0
4.522123 0.942343 -0.001288 0.0
1.942232 0.949826 0.000917 0.0
0.103728 1.490296 0.002455 0.0
1.059205 0.499666 -0.002305 0.0
0.636984 1.511295 -0.001286 0.0
3.420069 0.569313 0.002007 0.0
2.289451 0.451460 -0.006990 0.0
0.833416 1.027196 -0.005475 0.0
4.593374 1.034676 0.001274 0.0
0.221999 1.646186 -0.001304 0.0
1.289142 1.554824 0.001639 0.0
0.859346 1.866812 0.000904 0.0
2.498067 1.564963 0.002055 0.0
2.823408 0.087477 -0.002420 0.0
0.470846 1.581461 -0.000173 0.0
3.609191 0.962131 0.000061 0.0
2.951726 1.344640 -0.003606 0.0
3.362462 0.423272 0.001778 0.0
4.572883 0.177427 -0.001444 0.0
3.625543 0.949288 -0.003046 0.0
2.482492 0.022886 -0.002692 0.0
3.406108 0.211541 -0.001743 0.0
2.850296 0.679714 -0.000116 0.0
3.737662 1.879240 -0.001574 0.0
4.622983 1.892264 -0.000033 0.0
0.838253 1.285164 0.000475 0.0
3.312092 0.970742 0.000159 0.0
2.383254 0.252382 -0.000333 0.0
2.282024 0.944641 0.003662 0.0
0.143557 1.062469 0.001661 0.0
1.391115 1.218180 -0.003809 0.0
0.753286 0.186510 -0.002888 0.0
4.461994 0.747629 -0.002062 0.0
3.656964 0.203580 0.002500 0.0
3.722375 1.934280 0.001390 0.0
2.843688 1.006491 0.002985 0.0
0.517593 0.203252 0.000796 0.0
0.068884 1.453445 -0.003117 0.0
0.833661 1.263971 -0.003106 0.0
1.280240 1.112915 0.000856 0.0
3.478426 1.843618 -0.001337 0.0
2.549718 1.521475 0.004897 0.0
3.111595 1.803754 -0.005353 0.0
4.616256 0.706841 0.000655 0.0
1.489426 0.156015 -0.000284 0.0
3.166178 0.315380 0.003693 0.0
3.723707 0.670058 0.002266 0.0
1.239554 0.419582 -0.002028 0.0
1.801569 0.669063 -0.000632 0.0
0.215292 1.135237 0.001520 0.0
4.597729 0.294709 0.000780 0.0
1.794468 0.791516 -0.003215 0.0
4.237033 0.543428 -0.001568 0.0
1.255555 0.197310 0.002270 0.0
3.171602 1.277407 0.001892 0.0
2.874383 0.566423 -0.001896 0.0
3.588092 1.372359 0.000859 0.0
0.941651 0.377446 -0.001697 0.0
3.838276 0.435857 -0.000057 0.0
1.518416 1.893167 -0.000976 0.0
4.234818 1.446022 -0.000777 0.0
3.929636 1.245940 0.001026 0.0
1.578751 0.499840 -0.001954 0.0
4.648095 0.292232 -0.001892 0.0
1.719445 0.450187 -0.000852 0.0
1.552491 0.373861 -0.000809 0.0
1.362055 1.528521 -0.000777 0.0
2.029161 1.146331 0.000172 0.0
4.683525 0.873825 0.001358 0.0
3.194295 1.116625 0.000684 0.0
2.851929 1.574195 0.001273 0.0
2.702174 0.137917 -0.000331 0.0
0.555930 1.840176 0.005354 0.0
4.089172 1.769281 0.001211 0.0
2.858884 1.849736 -0.001140 0.0
1.459982 1.570272 0.003609 0.0
3.970640 0.054995 0.002129 0.0
0.644898 1.427498 0.002051 0.0
1.707702 1.567926 -0.001627 0.0
1.650207 0.877203 -0.000853 0.0
1.932176 1.118897 -0.003198 0.0
0.233126 1.440854 0.002341 0.0
0.895889 0.866577 -0.003280 0.0
1.358771 1.324668 0.003871 0.0
3.876308 0.447866 0.000148 0.0
2.591441 0.815124 0.002268 0.0
3.308485 1.422150 0.001706 0.0
1.808765 0.443529 0.000704 0.0
2.702581 0.103724 0.000322 0.0
3.261044 0.056207 0.001398 0.0
1.531562 0.195385 -0.000999 0.0
2.121623 0.831804 0.000002 0.0
3.616988 1.196740 -0.002007 0.0
3.427441 0.397017 0.005374 0.0
0.200935 0.190005 -0.005133 0.0
0.413959 0.793836 -0.005670 0.0
0.870370 1.606763 -0.001383 0.0
0.475398 0.280042 -0.000015 0.0
0.614559 0.668366 -0.001641 0.0
2.741606 0.055831 -0.000498 0.0
2.274968 1.212719 -0.000959 0.0
0.824529 1.895477 0.001292 0.0
2.573446 1.656585 0.002030 0.0
0.483284 1.270778 -0.000510 0.0
3.799807 1.651128 0.003617 0.0
0.152527 0.256664 -0.001686 0.0
0.714902 1.159116 -0.000470 0.0
1.223601 1.289438 0.001715 0.0
0.816923 1.465222 0.005757 0.0
1.171340 0.140530 0.002190 0.0
2.658960 1.697940 0.001611 0.0
1.716397 1.202485 -0.001233 0.0
4.401925 1.880488 0.004145 0.0
1.610390 0.434679 0.001068 0.0
2.196867 1.938508 0.003452 0.0
4.443926 0.165419 -0.004182 0.0
1.278525 1.169937 -0.000370 0.0
3.658261 1.130952 0.003291 0.0
0.744067 1.261015 0.000222 0.0
2.109014 0.167077 0.003361 0.0
2.996289 1.616081 -0.002033 0.0
3.029032 1.605438 -0.002945 0.0
2.910401 0.459851 0.005414 0.0
3.323131 0.475419 -0.006020 0.0
0.822143 0.867236 0.002994 0.0
3.875283 0.757024 -0.000915 0.0
1.506425 0.383641 -0.000667 0.0
1.655124 1.665856 0.001913 0.0
4.416234 0.375220 -0.000360 0.0
2.589133 0.022024 0.002355 0.0
2.724456 0.058873 -0.000689 0.0
3.641987 0.649377 -0.002026 0.0
2.682615 1.484183 -0.001577 0.0
2.262418 0.242901 -0.002725 0.0
1.075597 1.574858 0.001568 0.0
2.821268 1.229684 0.001186 0.0
1.189889 0.386404 -0.002086 0.0
3.347019 1.474905 0.001652 0.0
2.464527 0.873930 0.000325 0.0
0.237093 0.482462 0.001937 0.0
1.863908 0.830435 0.002035 0.0
4.146500 1.465825 -0.001387 0.0
0.317902 1.169745 -0.000010 0.0
3.361147 1.792372 0.001826 0.0
0.540358 0.569804 0.000673 0.0
1.779934 0.646222 0.001880 0.0
4.729471 0.919830 0.001425 0.0
1.977544 1.747418 -0.004578 0.0
2.842103 0.966136 0.000721 0.0
0.318636 1.519625 0.000800 0.0
3.182596 0.919099 0.002082 0.0
4.009768 0.738669 -0.000283 0.0
1.497918 0.055779 -0.000781 0.0
4.521264 1.168801 -0.001102 0.0
4.683794 0.606597 0.005338 0.0
0.945409 0.613798 -0.000627 0.0
3.263211 1.840016 0.001645 0.0
1.672764 0.545991 0.001295 0.0
1.846338 0.732687 0.000330 0.0
1.074845 0.354043 0.004540 0.0
3.008111 1.270336 -0.005202 0.0
4.607485 0.096166 -0.002493 0.0
1.307749 1.590877 -0.002995 0.0
2.625143 0.825322 0.000234 0.0
1.910237 1.896509 0.000963 0.0
2.631860 0.431404 0.000121 0.0
2.519253 1.890063 0.002264 0.0
4.143191 1.844341 0.001719 0.0
0.807663 0.395744 0.000236 0.0
3.808681 0.410439 0.000322 0.0
1.913399 1.805494 0.003003 0.0
0.048347 1.419643 -0.003721 0.0
4.139176 1.129449 -0.001034 0.0
1.823161 1.143460 0.000691 0.0
0.188983 1.243386 0.003408 0.0
3.005601 1.000130 0.003814 0.0
2.274896 0.455184 0.001151 0.0
2.803816 1.521344 0.001565 0.0
2.357850 0.319430 -0.002480 0.0
3.527313 0.761081 -0.001557 0.0
2.635966 0.375556 -0.000062 0.0
4.743736 0.932151 0.000484 0.0
1.830644 0.252560 0.002742 0.0
0.324721 1.612157 -0.003268 0.0
0.061008 0.961892 -0.001951 0.0
1.251082 1.758746 -0.002504 0.0
1.928430 1.799458 0.000135 0.0
1.710492 1.085241 0.003218 0.0
1.893561 1.448208 -0.001398 0.0
4.166130 1.642264 -0.000036 0.0
4.572381 0.459478 -0.003073 0.0
0.574331 1.702530 -0.000160 0.0
4.327620 0.364774 -0.001077 0.0
0.903606 1.218586 0.002079 0.0
2.334643 1.870337 0.000932 0.0
3.190826 1.329098 0.002646 0.0
4.416914 0.162439 -0.001729 0.0
0.855853 0.862043 -0.002346 0.0
1.980092 0.493486 0.001772 0.0
4.342945 1.606928 0.001999 0.0
0.912564 1.015880 -0.000384 0.0
2.575193 0.170958 0.003039 0.0
3.088152 0.232221 0.003672 0.0
4.343315 0.661649 0.002878 0.0
4.684922 1.815532 0.001881 0.0
1.071797 0.614911 0.000802 0.0
2.826014 1.899513 0.000653 0.0
4.505485 1.386896 0.002183 0.0
0.779989 1.622217 0.001157 0.0
2.998971 0.671612 -0.001208 0.0
0.509024 0.384995 0.000541 0.0
2.803441 0.823818 0.001052 0.0
3.270802 0.409771 -0.000620 0.0
3.352472 0.777517 -0.000041 0.0
3.357792 1.807323 -0.000105 0.0
2.812867 1.222947 0.001390 0.0
3.839114 0.319430 0.001622 0.0
4.495611 0.580469 -0.004463 0.0
4.155973 0.013033 -0.002035 0.0
2.520859 0.623223 0.003238 0.0
2.428573 0.830090 -0.001765 0.0
2.978106 0.125539 -0.000252 0.0
1.130753 1.741060 -0.001081 0.0
4.362570 1.064279 -0.002309 0.0
2.569608 1.479228 0.000540 0.0
0.600151 1.241264 -0.002159 0.0
1.684138 0.566923 0.001356 0.0
1.806130 0.487979 0.001069 0.0
2.976791 0.284056 -0.000849 0.0
3.454287 1.007680 0.002636 0.0
3.926277 0.133383 -0.001843 0.0
3.711875 1.542361 0.001400 0.0
0.771128 1.229481 -0.000215 0.0
2.238915 0.167261 -0.004194 0.0
0.001507 0.277569 0.001675 0.0
1.854066 0.382248 -0.000689 0.0
1.723612 0.261955 0.000388 0.0
2.352529 0.133058 -0.000123 0.0
3.516329 0.046386 0.000749 0.0
2.054693 0.917018 -0.001603 0.0
3.552865 0.177828 -0.000306 0.0
0.513620 0.542376 -0.000676 0.0
1.268092 1.739569 0.000588 0.0
4.178089 0.454193 0.001655 0.0
3.012651 0.789524 0.000790 0.0
4.080751 0.248587 0.000343 0.0
0.227761 0.334177 -0.004460 0.0
0.749513 0.726880 -0.002429 0.0
4.302172 0.050639 -0.001737 0.0
3.933574 0.547258 -0.000835 0.0
2.825046 1.386318 0.000510 0.0
3.730029 1.054379 0.001927 0.0
3.537991 0.212050 -0.002530 0.0
2.166070 0.193169 -0.004467 0.0
3.990021 0.175838 -0.003029 0.0
3.804951 0.198890 0.002385 0.0
3.681159 0.790075 -0.000946 0.0
2.973846 0.706331 0.004901 0.0
4.345116 1.786059 -0.002431 0.0
3.339636 0.462187 -0.001326 0.0
4.369775 0.198139 -0.006064 0.0
0.016288 0.702329 -0.000715 0.0
3.565327 0.096607 -0.003055 0.0
3.830998 0.843841 -0.000224 0.0
1.267128 1.107636 0.002258 0.0
1.605555 1.884702 0.002085 0.0
3.126091 1.808288 -0.001468 0.0
0.180247 0.524582 -0.005847 0.0
1.780319 1.112392 -0.000060 0.0
3.036208 1.577727 0.002307 0.0
1.562375 1.090501 -0.000734 0.0
2.225846 1.659688 -0.000756 0.0
0.208160 1.057440 -0.001116 0.0
0.346559 0.278496 0.006188 0.0
0.121421 0.000218 0.001369 0.0
1.110722 0.641540 0.001502 0.0
1.440501 1.152815 -0.000059 0.0
3.406128 0.193685 0.002318 0.0
3.631573 1.751609 -0.002294 0.0
4.747567 1.790361 -0.000363 0.0
1.922203 0.738717 0.001720 0.0
1.488084 1.085927 0.007492 0.0
2.422810 0.919720 0.001386 0.0
0.073338 1.596312 0.001783 0.0
0.726153 1.630926 0.001416 0.0
2.877279 1.856977 0.001014 0.0
2.896511 1.379500 -0.004565 0.0
0.511937 1.923764 0.004965 0.0
4.082800 1.596901 -0.003467 0.0
4.128086 0.919279 0.000549 0.0
2.867967 1.788599 0.002250 0.0
3.857174 0.102763 0.003614 0.0
3.164319 0.905437 0.002805 0.0
1.398589 0.393645 -0.001629 0.0
1.641888 0.734715 -0.003766 0.0
4.568894 0.928712 0.005154 0.0
1.027408 0.636702 0.003347 0.0
3.375256 1.755324 -0.000656 0.0
1.524491 1.598246 -0.002853 0.0
1.589211 1.075236 -0.001648 0.0
2.644677 1.293799 -0.001103 0.0
4.367701 0.058812 0.002503 0.0
3.413276 1.191771 -0.003415 0.0
4.379512 1.659934 -0.002981 0.0
1.472642 1.067204 0.002403 0.0
2.114394 0.856748 0.004714 0.0
2.829341 0.388692 -0.000434 0.0
0.855628 1.777106 0.002594 0.0
1.534999 1.819436 0.000129 0.0
3.494525 0.292091 0.002021 0.0
3.074831 1.127626 0.000349 0.0
3.950851 1.077383 0.000669 0.0
3.639907 0.433812 0.000908 0.0
4.342259 0.308206 -0.000316 0.0
2.658999 0.724487 -0.000564 0.0
3.963651 1.928823 -0.005825 0.0
0.071436 1.543622 0.001906 0.0
3.939796 0.818451 -0.000582 0.0
4.135615 1.116105 -0.002610 0.0
1.987910 1.494056 -0.006117 0.0
3.814728 0.562215 -0.002525 0.0
2.991158 1.438254 -0.004687 0.0
1.221442 1.860528 0.005540 0.0
0.912259 0.312526 -0.000387 0.0
3.131025 0.752606 -0.000190 0.0
2.215546 0.689628 0.002451 0.0
4.246242 0.406001 0.000297 0.0
4.042743 0.151474 -0.004186 0.0
4.126327 0.200268 0.004243 0.0
1.015759 1.456355 -0.003838 0.0
3.936798 0.970576 -0.000640 0.0
0.552202 1.717248 0.004178 0.0
2.028306 0.324077 0.004518 0.0
0.720594 0.151473 -0.006641 0.0
4.751673 1.075436 0.003893 0.0
1.292643 0.701958 0.000124 0.0
4.671481 0.481503 -0.001174 0.0
1.057318 1.652946 0.001684 0.0
1.532609 0.884557 0.001500 0.0
0.301595 1.506296 0.003182 0.0
4.529031 0.529491 0.000039 0.0
4.658370 1.088611 -0.001105 0.0
1.956360 0.803380 -0.001254 0.0
4.543117 1.709179 0.002736 0.0
1.813447 0.886088 -0.001670 0.0
3.701284 1.740667 -0.001357 0.0
0.344181 0.627162 -0.001839 0.0
0.293753 1.231313 0.002015 0.0
0.670541 0.964535 -0.003417 0.0
3.284702 0.001558 0.000039 0.0
4.365428 0.703577 0.002060 0.0
0.690471 1.054802 -0.002842 0.0
4.088965 0.514971 -0.000275 0.0
4.645492 1.911599 0.001029 0.0
3.820412 1.766843 0.003072 0.0
4.373238 0.004434 -0.000176 0.0
0.682832 0.020016 0.000518 0.0
3.057947 0.610911 -0.003246 0.0
2.163710 0.839214 0.001023 0.0
0.603501 0.998556 -0.001470 0.0
4.019742 0.845247 -0.004144 0.0
0.687742 0.846617 0.000304 0.0
2.801842 0.594740 0.003021 0.0
3.566392 0.026093 0.006527 0.0
3.289269 1.293045 0.001586 0.0
4.302489 1.718882 0.001202 0.0
4.287606 1.796771 0.000560 0.0
0.135384 1.841670 0.000826 0.0
3.806124 1.128501 -0.003661 0.0
3.401867 0.304675 0.004645 0.0
1.095439 0.236838 -0.002837 0.0
1.051993 0.934252 -0.000939 0.0
3.419742 1.821503 0.004623 0.0
0.928391 1.304326 -0.002158 0.0
2.200650 1.611280 0.004758 0.0
1.955485 0.164335 0.001736 0.0
4.513309 1.191116 0.001948 0.0
1.163365 0.697056 0.001618 0.0
1.219111 0.628112 -0.000563 0.0
3.026225 0.638074 0.002473 0.0
3.507582 0.972378 -0.000841 0.0
4.251549 0.801999 0.000745 0.0
1.202116 0.497774 0.000512 0.0
1.180079 1.766120 -0.001554 0.0
1.966729 1.138724 0.003959 0.0
4.574770 1.583266 0.004165 0.0
1.662340 0.605801 0.001448 0.0
2.672031 0.096853 -0.000554 0.0
2.605866 1.108199 0.005442 0.0
2.357265 0.815171 0.004359 0.0
1.056834 0.015687 -0.000968 0.0
2.961039 1.076628 0.003209 0.0
3.281270 1.931289 0.001123 0.0
3.680675 0.473550 0.000321 0.0
4.085669 1.899622 0.002658 0.0
1.828628 1.601497 0.001555 0.0
2.688145 0.292231 0.000701 0.0
4.408177 1.597607 0.000450 0.0
1.851319 1.616693 -0.001557 0.0
2.331511 0.954739 0.000050 0.0
2.141558 0.203400 0.000206 0.0
1.111178 1.085959 -0.000327 0.0
0.132548 0.498620 -0.000216 0.0
2.897547 0.664287 -0.000557 0.0
0.043719 0.112603 -0.000198 0.0
3.942900 0.687728 -0.000723 0.0
3.062124 0.886215 -0.004910 0.0
0.363660 0.860020 -0.000097 0.0
3.006860 0.702221 0.002234 0.0
4.770560 0.790288 0.004153 0.0
2.171101 1.619414 -0.000788 0.0
3.817164 0.085434 -0.002481 0.0
4.355965 0.008595 0.001167 0.0
1.100503 1.188836 -0.002488 0.0
4.522119 0.206945 -0.003939 0.0
4.028677 1.732594 -0.002836 0.0
0.417447 1.290944 0.001950 0.0
1.194763 0.381118 -0.000848 0.0
2.585456 0.926332 0.002975 0.0
0.428605 1.485583 -0.003063 0.0
1.251559 0.267488 -0.003068 0.0
2.219550 1.927552 0.000335 0.0
3.124491 1.578161 -0.000496 0.0
2.338336 0.775246 0.003081 0.0
2.237363 1.015728 -0.001112 0.0
3.960565 0.764143 0.003050 0.0
0.612365 1.076418 0.003285 0.0
2.117916 0.356391 0.002310 0.0
4.085972 0.519857 0.000953 0.0
4.050096 0.802191 -0.000081 0.0
4.771557 1.620263 -0.001739 0.0
0.239753 1.449896 0.002244 0.0
0.623700 1.462498 -0.003891 0.0
0.988329 1.587997 0.001035 0.0
3.625619 0.798054 0.000838 0.0
4.059096 1.450113 0.002044 0.0
2.419745 0.190793 -0.002647 0.0
4.060547 0.018497 -0.003235 0.0
1.777520 1.164592 0.000736 0.0
0.848493 0.651496 0.001265 0.0
1.442213 0.873922 -0.003982 0.0
1.660865 0.269277 -0.002012 0.0
1.255621 0.502372 -0.000628 0.0
0.851332 0.978485 -0.000499 0.0
2.356420 1.835727 -0.001091 0.0
3.437071 1.709152 -0.003547 0.0
3.182927 1.391236 0.000465 0.0
2.247076 0.080620 -0.000109 0.0
4.071094 1.725614 -0.000612 0.0
4.005502 0.066971 -0.003317 0.0
4.528533 1.390193 -0.000859 0.0
0.153614 1.371284 -0.002865 0.0
0.779152 1.388875 0.001934 0.0
2.552897 1.193973 -0.003614 0.0
1.403796 1.213218 0.003015 0.0
0.738832 0.551509 -0.003419 0.0
0.283561 0.700111 -0.000590 0.0
0.869415 1.850354 0.000410 0.0
2.444999 0.718746 -0.000256 0.0
4.645381 0.034291 -0.004032 0.0
2.796866 0.964379 -0.000484 0.0
1.533539 1.582515 0.000028 0.0
3.115134 0.054429 0.003946 0.0
1.034767 1.445422 -0.000971 0.0
2.513109 0.153282 -0.001669 0.0
3.071380 1.809490 -0.001681 0.0
1.043239 0.218540 -0.000943 0.0
0.169224 0.273441 -0.000244 0.0
4.308608 0.796602 -0.002308 0.0
1.297452 1.395578 -0.000995 0.0
1.163195 1.645779 0.001985 0.0
3.597971 0.014876 0.001290 0.0
1.700895 1.839682 -0.003496 0.0
3.222840 0.279612 -0.001772 0.0
1.334892 0.087438 0.004217 0.0
0.038083 1.532391 -0.001487 0.0
2.077808 1.785456 0.003482 0.0
1.319558 0.319143 -0.002194 0.0
1.973777 0.543431 0.000094 0.0
2.852396 1.200583 -0.000213 0.0
1.163634 1.201709 -0.001021 0.0
0.347090 1.022330 -0.003604 0.0
1.830143 0.670530 0.002969 0.0
1.244758 1.064908 -0.001394 0.0
1.592976 0.138806 -0.000806 0.0
4.421065 0.814133 0.005131 0.0
4.799270 1.599313 0.002657 0.0
4.470895 1.884724 0.000893 0.0
2.013660 0.655306 -0.001356 0.0
4.790997 0.786035 0.004080 0.0
0.956324 1.270573 -0.000709 0.0
1.332993 1.407529 -0.003972 0.0
3.416705 0.446624 0.004579 0.0
3.567266 1.054692 -0.001872 0.0
2.516243 1.088496 -0.000611 0.0
1.950640 0.973413 -0.000947 0.0
4.439992 1.124311 -0.005538 0.0
2.104301 0.706009 0.003637 0.0
0.290366 1.709950 -0.002320 0.0
4.566954 0.751105 -0.003788 0.0
4.158124 1.113873 -0.001211 0.0
4.219679 0.359527 -0.000921 0.0
2.744971 0.487389 0.000654 0.0
3.541517 1.367164 0.001643 0.0
3.097250 0.751305 -0.000639 0.0
2.200488 1.575700 0.001571 0.0
0.566487 1.484909 -0.000751 0.0
3.176027 0.638363 -0.000537 0.0
0.553812 1.822455 0.001268 0.0
3.258652 1.734290 -0.004543 0.0
1.909200 0.810543 0.001026 0.0
3.006681 0.584099 0.000526 0.0
3.327827 1.548442 -0.001661 0.0
0.076820 0.158979 0.000556 0.0
1.785897 1.186907 0.000021 0.0
3.849458 0.270865 0.001716 0.0
0.084431 0.158230 0.000406 0.0
1.083505 1.778074 0.000612 0.0
3.129012 1.798245 -0.000936 0.0
4.120843 1.784148 -0.001167 0.0
4.349307 1.465026 -0.000342 0.0
2.386837 1.217888 -0.001118 0.0
3.089299 1.469325 -0.000677 0.0
1.542430 0.710520 0.002098 0.0
2.920052 0.344399 0.000996 0.0
0.580818 1.604687 -0.000235 0.0
0.370431 1.253310 -0.001485 0.0
3.746956 1.222280 -0.007738 0.0
0.341368 1.484262 0.001109 0.0
1.485962 1.800605 0.000353 0.0
3.892141 0.282049 0.001225 0.0
1.175357 1.467589 -0.000668 0.0
1.145355 0.525124 -0.002602 0.0
0.888074 0.089994 0.004216 0.0
3.170755 0.747616 0.004117 0.0
0.764224 0.488706 0.000499 0.0
4.722625 1.801632 0.000909 0.0
1.452064 0.858509 -0.000792 0.0
1.994877 0.598809 0.006527 0.0
3.900317 0.214394 0.001000 0.0
1.552911 1.398679 -0.000555 0.0
1.785576 0.483832 0.001916 0.0
0.133896 0.674417 -0.001291 0.0
4.305691 1.849723 0.001260 0.0
2.701406 0.313040 0.002199 0.0
4.603456 1.290033 0.000281 0.0
0.245465 0.608595 -0.000719 0.0
0.453567 0.107158 0.003669 0.0
1.907735 0.938288 0.003222 0.0
0.442530 1.659229 -0.000346 0.0
2.067913 0.420539 0.000947 0.0
0.812374 0.245957 -0.006279 0.0
4.522325 1.420718 -0.001449 0.0
1.182992 0.695535 0.000602 0.0
0.248932 0.032656 -0.003104 0.0
3.135630 0.462485 0.003984 0.0
0.585177 0.387853 0.000857 0.0
3.585831 0.397247 -0.003071 0.0
0.417979 1.711009 -0.000145 0.0
1.162332 0.978525 0.000221 0.0
2.064343 0.064254 -0.004105 0.0
0.917562 1.738671 0.001016 0.0
3.154102 1.239135 -0.002245 0.0
4.021396 0.321638 -0.002560 0.0
0.898328 1.065956 0.001255 0.0
3.391850 1.574253 -0.000991 0.0
0.487541 1.756023 -0.000673 0.0
4.024356 1.693340 0.003294 0.0
3.474203 1.578407 -0.000211 0.0
0.208202 0.350833 -0.000019 0.0
0.906225 1.456958 0.003289 0.0
4.544333 1.535208 0.004138 0.0
1.174083 0.609035 -0.000895 0.0
2.578849 1.517063 -0.001205 0.0
3.163623 0.534204 0.000616 0.0
4.412301 1.828551 0.000528 0.0
3.165775 0.273223 -0.000837 0.0
4.119774 0.019781 -0.005325 0.0
2.831180 1.515331 -0.002613 0.0
0.602832 1.134227 -0.000532 0.0
3.366950 0.758826 -0.002866 0.0
3.632171 0.401158 0.004423 0.0
1.606746 1.488730 0.003008 0.0
1.892103 0.064510 0.004501 0.0
2.742607 1.398315 0.002331 0.0
3.797355 1.059410 0.002483 0.0
2.952037 0.284680 0.004691 0.0
3.170024 0.295313 -0.002248 0.0
3.453598 0.969056 -0.002352 0.0
4.153432 0.311269 0.002394 0.0
4.182195 0.361832 0.000085 0.0
3.346773 0.203735 0.006730 0.0
1.709882 1.550915 0.000996 0.0
3.205518 1.278210 0.002576 0.0
4.780378 0.147033 0.005525 0.0
4.086078 0.940504 0.000969 0.0
4.697092 0.831900 0.001712 0.0
0.997180 0.080789 0.000256 0.0
3.531038 1.260054 0.002513 0.0
3.892163 0.155322 -0.003274 0.0
3.360244 0.192715 0.000113 0.0
0.246195 1.252671 -0.000038 0.0
4.059826 1.028907 -0.003084 0.0
4.201236 0.373582 0.003594 0.0
2.000714 1.580140 0.002964 0.0
1.738537 1.487534 -0.001744 0.0
0.602331 1.173346 0.001340 0.0
3.133727 0.828934 0.000722 0.0
4.030858 0.140971 -0.002230 0.0
0.999810 1.671892 -0.001723 0.0
2.034428 0.011545 -0.000732 0.0
2.331460 0.670660 0.000422 0.0
4.324161 1.714475 -0.003259 0.0
3.761521 1.025673 -0.001540 0.0
0.227721 0.106746 0.005120 0.0
3.437711 0.519202 -0.000441 0.0
3.305718 1.892013 0.000017 0.0
1.638100 0.470846 -0.003034 0.0
3.404960 0.491100 0.005392 0.0
3.470142 1.176760 -0.000882 0.0
1.247840 1.556070 0.000355 0.0
0.665119 1.719092 -0.003344 0.0
3.955029 1.659666 0.005450 0.0
4.603584 0.106708 -0.003098 0.0
2.816329 0.567887 -0.004160 0.0
2.193718 0.789418 -0.003976 0.0
0.638481 1.518042 -0.000683 0.0
2.232455 1.063641 -0.000312 0.0
2.877046 1.026887 0.000352 0.0
4.101803 1.855936 0.001967 0.0
2.378236 0.945510 0.001642 0.0
2.380151 0.666860 -0.003160 0.0
3.370814 0.984087 0.003876 0.0
1.558055 1.254877 0.001062 0.0
3.751736 1.283743 0.002437 0.0
2.599543 1.683583 0.004455 0.0
0.089785 0.775883 -0.002619 0.0
0.449343 0.810100 -0.000582 0.0
4.251741 1.658798 -0.002909 0.0
2.849982 0.957464 0.000154 0.0
1.883155 1.676714 -0.000211 0.0
2.424441 0.973211 0.005453 0.0
1.910030 0.891384 0.004560 0.0
4.468734 1.192605 -0.001054 0.0
1.409514 1.887571 -0.001449 0.0
0.472575 1.848950 -0.000907 0.0
4.487195 1.891443 0.000529 0.0
4.413726 0.710626 0.000797 0.0
4.253989 1.501395 -0.000173 0.0
4.090114 0.072197 -0.000537 0.0
0.502472 1.935803 0.000173 0.0
0.634163 1.378969 -0.000736 0.0
3.361868 1.549541 -0.003545 0.0
2.025726 1.308556 -0.001422 0.0
1.664162 1.443640 0.004166 0.0
2.795721 0.153457 0.000185 0.0
0.882836 1.497423 -0.004803 0.0
1.612936 0.505885 -0.003422 0.0
0.344742 1.715994 0.003628 0.0
3.962511 1.587068 -0.000583 0.0
1.446881 0.019481 -0.005956 0.0
3.722714 0.437204 -0.003836 0.0
3.268316 1.295766 -0.002768 0.0
2.943393 0.908941 0.004405 0.0
4.092542 1.084688 0.001429 0.0
2.652795 1.086886 0.002268 0.0
0.270189 0.320515 -0.002224 0.0
1.630782 1.046929 -0.001427 0.0
2.399122 0.910540 -0.000802 0.0
3.448604 0.416267 0.000600 0.0
4.130760 1.151849 -0.003122 0.0
1.551086 1.162295 0.001407 0.0
1.586118 1.498483 0.003985 0.0
4.715646 1.583974 -0.000860 0.0
0.844210 1.651935 0.001497 0.0
0.021451 1.488473 0.000015 0.0
3.484095 1.788063 0.001405 0.0
3.922068 1.209624 0.002684 0.0
4.358031 0.357856 -0.002009 0.0
2.061035 0.432508 -0.002622 0.0
3.089361 1.558871 -0.002195 0.0
0.800628 1.825432 -0.005843 0.0
4.615463 0.826178 0.000099 0.0
1.946285 1.257240 -0.001205 0.0
4.194692 1.118423 -0.001383 0.0
2.811784 0.351109 -0.001490 0.0
1.355607 0.649044 0.004368 0.0
3.012377 0.259631 -0.000959 0.0
2.717192 0.010628 0.000242 0.0
0.208294 1.944812 -0.000860 0.0
2.756831 1.734104 -0.002743 0.0
1.547228 0.433055 0.004987 0.0
0.010678 0.057288 0.002627 0.0
1.178300 0.714833 -0.003571 0.0
3.639518 0.674156 -0.002881 0.0
0.042490 1.042103 -0.001504 0.0
0.928054 1.912635 -0.002887 0.0
2.410432 1.688358 -0.001501 0.0
3.252473 0.057789 -0.005522 0.0
4.595035 1.058064 -0.002675 0.0
2.331331 0.355976 -0.002046 0.0
2.641759 1.300332 -0.000009 0.0
2.781540 0.278189 -0.003298 0.0
2.445620 1.657592 -0.000326 0.0
0.465643 0.270877 -0.001008 0.0
4.215013 0.766352 -0.001908 0.0
1.071146 1.779716 -0.005347 0.0
0.463491 0.571350 -0.000305 0.0
2.684671 0.614856 -0.003034 0.0
0.308127 0.715420 -0.002669 0.0
0.856363 1.617856 0.002369 0.0
3.656769 0.342479 -0.000941 0.0
4.124349 1.529507 0.002403 0.0
3.292431 1.381673 -0.002282 0.0
4.538269 0.939711 -0.001011 0.0
0.559606 0.158293 -0.001347 0.0
1.672910 0.928023 -0.000589 0.0
2.475578 1.420287 0.005029 0.0
3.841988 1.131995 -0.000683 0.0
2.132200 0.932341 0.000376 0.0
2.306495 1.882506 0.000785 0.0
2.679249 0.446284 -0.002308 0.0
2.857855 1.883930 -0.007982 0.0
4.159281 0.023847 -0.000293 0.0
4.606091 1.117516 -0.000530 0.0
2.225101 0.464627 -0.001936 0.0
1.086412 0.443785 0.002142 0.0
4.439770 0.338576 -0.001528 0.0
3.267023 1.696310 -0.003713 0.0
0.617515 0.827134 0.000920 0.0
2.584867 1.365172 -0.000238 0.0
0.754035 1.512767 -0.001550 0.0
2.309683 1.916806 0.000382 0.0
0.425629 1.460685 -0.003207 0.0
3.621367 1.433151 -0.002217 0.0
2.228351 1.279131 0.002510 0.0
1.581256 0.033218 0.000241 0.0
1.260165 0.189631 0.002199 0.0
2.874921 1.853237 0.002004 0.0
2.661859 0.561901 0.002976 0.0
0.085742 1.549559 -0.002274 0.0
1.073862 1.941630 -0.002055 0.0
0.443862 1.937889 -0.001141 0.0
3.623960 1.562100 -0.001029 0.0
0.985991 0.119834 0.000313 0.0
3.284466 1.526962 -0.003615 0.0
3.335363 0.037387 -0.005705 0.0
3.262465 0.872972 0.001220 0.0
3.026542 1.882294 -0.002139 0.0
0.051143 1.759449 -0.000777 0.0
3.514461 0.230042 -0.000514 0.0
2.358537 1.309437 -0.002546 0.0
2.537075 1.454451 0.003310 0.0
0.900694 1.942751 -0.001516 0.0
3.861764 1.780168 0.001195 0.0
0.763016 1.008962 0.000850 0.0
0.949872 1.260607 0.000729 0.0
0.289862 0.851018 -0.001202 0.0
3.759729 0.741125 -0.002852 0.0
3.163147 0.768595 0.002458 0.0
2.638146 0.658158 0.000486 0.0
2.585162 0.649168 -0.002011 0.0
3.683720 0.728751 0.001695 0.0
3.440579 1.240934 -0.004381 0.0
4.431196 1.925174 0.000355 0.0
2.685424 1.006110 -0.003964 0.0
4.364164 0.762413 0.000827 0.0
3.385963 0.032614 0.007343 0.0
1.790437 1.677767 -0.000421 0.0
2.152352 0.357561 0.001236 0.0
1.597099 1.921649 -0.000681 0.0
1.900024 0.277965 -0.001105 0.0
4.022558 1.045105 0.000905 0.0
0.717797 1.645019 0.001326 0.0
2.783262 0.766159 -0.003391 0.0
3.643336 1.629247 -0.000826 0.0
3.567224 0.657925 0.002541 0.0
4.664638 1.756849 0.000715 0.0
2.992957 0.523329 0.003825 0.0
0.309426 0.144398 -0.004058 0.0
2.458033 1.505510 0.002107 0.0
2.699974 1.654162 -0.000543 0.0
3.077444 1.016633 0.002316 0.0
2.375372 0.060647 -0.004876 0.0
2.767702 1.824952 -0.001057 0.0
2.931997 1.660641 0.004595 0.0
2.984118 1.133212 -0.000274 0.0
1.792516 0.143164 0.000773 0.0
2.248429 1.913906 0.000128 0.0
3.577255 0.119813 -0.000026 0.0
0.736761 0.574635 -0.001035 0.0
4.798308 0.192811 -0.002469 0.0
0.727373 0.826749 -0.001352 0.0
2.842961 1.209527 -0.000564 0.0
0.729403 0.409224 -0.001081 0.0
2.365551 1.137004 0.001008 0.0
0.308057 0.394481 0.002275 0.0
4.013249 0.355961 0.000266 0.0
4.476787 1.070248 0.002391 0.0
0.355322 1.786469 -0.004593 0.0
4.227738 1.860777 -0.001365 0.0
0.807930 1.041147 -0.003481 0.0
2.518646 0.653176 -0.003002 0.0
2.090209 0.607834 -0.000651 0.0
2.923170 0.320832 -0.002281 0.0
4.737173 1.865157 0.001405 0.0
4.074868 1.873616 0.000957 0.0
2.138164 0.339553 0.000049 0.0
4.467492 0.413673 0.001804 0.0
0.004814 1.358340 -0.002984 0.0
2.520741 1.610773 -0.000173 0.0
0.031067 0.866127 0.001749 0.0
