2.90040105 0.00319160 -0.00051092 1.00000000
3.24671636 0.00204394 -0.00504939 1.00000000
2.11233590 -0.00285380 0.00122972 1.00000000
3.73252710 0.00039645 -0.00021318 1.00000000
1.57188097 -0.00177751 0.00123733 1.00000000
0.64001319 -0.00072655 -0.00034404 1.00000000
0.19012026 -0.00486198 -0.00385677 1.00000000
0.40534948 -0.00195729 0.00188941 1.00000000
1.18623276 -0.00671573 0.00078866 1.00000000
3.66442825 -0.00144734 -0.00268763 1.00000000
1.62370422 -0.00312290 0.00529789 1.00000000
3.85842716 0.00046131 -0.00085561 1.00000000
0.00007219 -0.00100599 -0.00244353 1.00000000
2.18277038 -0.00033452 -0.00363921 1.00000000
0.32735787 0.00514763 -0.00141501 1.00000000
2.73620966 0.00019649 0.00229256 1.00000000
3.92910045 -0.00435730 -0.00080365 1.00000000
1.72937884 0.00018546 -0.00086777 1.00000000
3.86827117 0.00045956 0.00652350 1.00000000
0.98798750 -0.00566379 -0.00178584 1.00000000
2.11944114 0.00310020 -0.00191471 1.00000000
1.47293810 -0.00206244 0.00045289 1.00000000
0.32530497 -0.00016949 -0.00342219 1.00000000
0.04971024 -0.00550015 0.00024361 1.00000000
1.70905768 0.00218746 0.00262863 1.00000000
2.31473068 0.00093651 0.00181422 1.00000000
1.90681412 -0.00166022 0.00243884 1.00000000
2.24790463 -0.00082650 -0.00145527 1.00000000
2.00463247 -0.00223178 0.00004073 1.00000000
2.21781493 0.00062004 0.00543795 1.00000000
1.56977893 0.00087198 -0.00146633 1.00000000
1.19908860 -0.00162579 -0.00116712 1.00000000
1.34600095 -0.00521894 0.00302649 1.00000000
1.54777053 0.00212368 0.00251075 1.00000000
1.72921198 -0.00207302 0.00393664 1.00000000
2.89841728 -0.00480778 -0.00442054 1.00000000
1.69317172 -0.00154484 0.00095185 1.00000000
1.29683522 -0.00173708 0.00145594 1.00000000
0.41566791 0.00023189 -0.00140235 1.00000000
0.66895228 0.00294259 -0.00056831 1.00000000
0.68921965 0.00140952 0.00143620 1.00000000
3.48154977 -0.00071340 -0.00141352 1.00000000
2.58896660 -0.00093069 0.00146556 1.00000000
1.27693565 -0.00108954 -0.00240701 1.00000000
3.39278433 0.00186566 -0.00263381 1.00000000
0.90822353 -0.00083551 0.00040883 1.00000000
1.05610420 -0.00263707 -0.00280496 1.00000000
0.94006687 0.00240025 -0.00282923 1.00000000
3.88112394 0.00050319 -0.00203633 1.00000000
1.65909185 -0.00061014 -0.00263506 1.00000000
3.28134957 -0.00183888 0.00199897 1.00000000
1.34427592 -0.00057695 0.00000168 1.00000000
0.14721596 0.00141635 -0.00329964 1.00000000
2.09149687 -0.00045875 0.00328159 1.00000000
0.76041397 0.00631228 0.00313401 1.00000000
3.47287035 -0.00079083 -0.00264149 1.00000000
0.18470718 -0.00283836 0.00042298 1.00000000
0.82866448 -0.00025567 -0.00175662 1.00000000
2.40167297 0.00229118 0.00015502 1.00000000
1.17525703 -0.00313416 -0.00028367 1.00000000
2.43717737 -0.00029727 0.00026715 1.00000000
1.53229751 -0.00199332 -0.00125971 1.00000000
2.84505568 0.00025556 0.00496231 1.00000000
0.07171695 -0.00140097 0.00034288 1.00000000
1.08473387 0.00042197 -0.00227723 1.00000000
2.72176447 -0.00045565 0.00260661 1.00000000
1.37594386 0.00010374 0.00211659 1.00000000
3.21186350 -0.00029260 0.00053834 1.00000000
3.79373230 0.00436430 0.00153676 1.00000000
3.68439121 -0.00068913 -0.00044800 1.00000000
0.94680011 0.00091678 -0.00339901 1.00000000
1.97647923 0.00043397 0.00390543 1.00000000
2.17861353 -0.00002702 0.00042436 1.00000000
1.09174021 0.00025421 0.00019668 1.00000000
2.15539639 -0.00029616 -0.00124083 1.00000000
1.46723320 0.00165332 0.00351057 1.00000000
2.05426042 0.00255572 0.00470442 1.00000000
1.35082162 -0.00249639 0.00248596 1.00000000
0.92422493 0.00097330 0.00096410 1.00000000
0.20645583 -0.00450190 -0.00255834 1.00000000
1.84299985 0.00291487 -0.00006981 1.00000000
0.54710054 -0.00037065 0.00125381 1.00000000
0.01125959 -0.00169903 0.00573694 1.00000000
2.95879661 0.00145960 -0.00227851 1.00000000
0.79807005 -0.00200963 -0.00169615 1.00000000
0.90072853 -0.00060950 -0.00179280 1.00000000
2.85302130 -0.00147039 -0.00215527 1.00000000
1.56491220 0.00490751 -0.00347817 1.00000000
1.10696596 0.00154985 0.00227890 1.00000000
2.49250221 -0.00002740 0.00193864 1.00000000
1.80028958 -0.00120786 -0.00196585 1.00000000
3.29087095 -0.00465177 0.00482046 1.00000000
3.45736397 -0.00267154 -0.00032695 1.00000000
2.82108601 0.00404048 -0.00116446 1.00000000
0.71104153 -0.00219332 0.00061206 1.00000000
1.64555533 0.00117589 0.00631578 1.00000000
1.80768034 0.00079594 -0.00154498 1.00000000
2.95468822 -0.00242393 -0.00055447 1.00000000
1.94494102 0.00151172 -0.00319580 1.00000000
2.71719231 -0.00043970 0.00171475 1.00000000
1.91051855 -0.00084928 -0.00006475 1.00000000
3.02515742 -0.00271880 -0.00389614 1.00000000
1.05768980 0.00377664 0.00040435 1.00000000
0.46189624 0.00216966 -0.00561158 1.00000000
3.33515468 -0.00406698 -0.00118719 1.00000000
0.99972394 0.00292943 0.00193490 1.00000000
3.89569757 0.00084150 0.00176781 1.00000000
2.50161039 -0.00047816 0.00400850 1.00000000
3.82358629 -0.00002239 -0.00162460 1.00000000
0.10295678 -0.00181133 0.00105557 1.00000000
0.28276816 -0.00246651 -0.00351682 1.00000000
3.64349125 -0.00446856 0.00036262 1.00000000
3.80923285 -0.00357249 0.00129171 1.00000000
3.77145565 0.00048203 -0.00243208 1.00000000
1.95314249 0.00014242 0.00084367 1.00000000
1.58408062 -0.00169238 0.00135735 1.00000000
3.11333744 0.00033897 -0.00756284 1.00000000
2.79018281 0.00015620 -0.00437472 1.00000000
1.04514051 0.00262716 -0.00135743 1.00000000
0.23113906 0.00147036 -0.00344052 1.00000000
1.79558390 0.00190767 0.00120136 1.00000000
3.30720717 -0.00769766 0.00052616 1.00000000
0.12127656 0.00091026 0.00024741 1.00000000
2.34581452 -0.00065335 -0.00220972 1.00000000
0.51265581 -0.00432766 0.00164618 1.00000000
2.69511210 -0.00244491 0.00059495 1.00000000
2.50423643 -0.00123260 0.00012420 1.00000000
1.04429722 -0.00414874 -0.00575566 1.00000000
1.53151889 0.00163218 -0.00121270 1.00000000
0.48869617 0.00258143 -0.00408087 1.00000000
3.11554193 0.00196664 0.00076113 1.00000000
0.45839234 -0.00057315 -0.00141062 1.00000000
0.56171207 0.00007036 0.00541590 1.00000000
1.84446775 -0.00075404 0.00161402 1.00000000
1.55625206 0.00084501 0.00041503 1.00000000
2.83581023 -0.00648906 -0.00503989 1.00000000
3.75595024 -0.00313948 0.00252772 1.00000000
0.93308962 -0.00127575 0.00235953 1.00000000
1.91711703 0.00101409 0.00203736 1.00000000
1.78916050 -0.00215667 0.00321580 1.00000000
0.80579389 -0.00048139 -0.00296799 1.00000000
3.36896336 -0.00243616 0.00002814 1.00000000
2.63719808 -0.00357413 -0.00004906 1.00000000
3.79485083 0.00018405 -0.00352664 1.00000000
2.90637653 0.00128120 0.00047213 1.00000000
3.56066412 -0.00097072 0.00101846 1.00000000
1.14485919 0.00028902 -0.00098606 1.00000000
0.77731906 -0.00174558 -0.00014080 1.00000000
2.43851765 0.00181780 -0.00227092 1.00000000
1.44247488 0.00072448 0.00073626 1.00000000
0.61962991 0.00535185 0.00242783 1.00000000
1.60839715 -0.00303370 -0.00060403 1.00000000
0.33055572 0.00490882 -0.00432255 1.00000000
2.15732475 -0.00127817 0.00167165 1.00000000
1.83703080 0.00096413 0.00180984 1.00000000
2.53712757 -0.00114225 0.00318310 1.00000000
2.83158412 0.00041743 0.00130028 1.00000000
2.41372743 0.00358322 -0.00090418 1.00000000
2.08214433 -0.00155899 -0.00171985 1.00000000
1.34960105 -0.00108884 -0.00104654 1.00000000
0.78107284 -0.00218314 0.00243898 1.00000000
1.49116972 -0.00158365 0.00231090 1.00000000
0.46139295 -0.00170660 0.00075233 1.00000000
1.33030537 -0.00035904 0.00249105 1.00000000
1.08215877 -0.00491887 0.00388981 1.00000000
1.99615300 -0.00058335 -0.00011203 1.00000000
0.79897271 0.00250814 0.00040297 1.00000000
3.94651821 -0.00116504 0.00291817 1.00000000
1.86237267 0.00148926 0.00104025 1.00000000
0.89196933 0.00020579 -0.00070138 1.00000000
2.23418583 -0.00048018 -0.00052182 1.00000000
0.06135974 -0.00223034 -0.00163509 1.00000000
2.66806135 0.00207181 0.00136572 1.00000000
0.77985984 0.00065149 0.00196994 1.00000000
2.92735843 -0.00451800 0.00243163 1.00000000
1.39318285 -0.00027950 0.00170639 1.00000000
1.17365423 -0.00070067 0.00424861 1.00000000
1.48092942 -0.00031514 -0.00013177 1.00000000
2.58619704 0.00338700 0.00015576 1.00000000
2.32634429 -0.00150451 -0.00254426 1.00000000
3.02130279 0.00211738 0.00474632 1.00000000
0.37334135 -0.00155284 0.00256297 1.00000000
1.81831753 -0.00200188 0.00318569 1.00000000
3.54346235 0.00081473 -0.00050034 1.00000000
1.71357141 0.00152650 -0.00163577 1.00000000
0.78937652 -0.00032252 -0.00178183 1.00000000
2.07239783 0.00243536 -0.00215530 1.00000000
3.78372471 -0.00041402 -0.00039443 1.00000000
0.15984547 -0.00435391 0.00182212 1.00000000
1.09712914 0.00120384 -0.00234875 1.00000000
3.43211725 0.00075273 -0.00224342 1.00000000
1.26595499 -0.00211200 0.00487212 1.00000000
0.82003120 0.00298808 -0.00218050 1.00000000
2.87388513 0.00110925 0.00013100 1.00000000
1.68348700 0.00327537 0.00285101 1.00000000
3.79189200 -0.00166174 0.00043383 1.00000000
0.29558643 0.00090501 -0.00015596 1.00000000
1.12500607 0.00007086 -0.00100318 1.00000000
0.62916944 -0.00263349 -0.00015221 1.00000000
0.17261552 0.00334612 -0.00078571 1.00000000
1.12321533 0.00106852 -0.00395416 1.00000000
3.12317540 0.00053275 0.00206359 1.00000000
0.89575526 -0.00125878 0.00129490 1.00000000
2.42317487 0.00236983 0.00239885 1.00000000
1.45596085 -0.00178298 0.00122754 1.00000000
2.98820603 0.00224815 0.00246056 1.00000000
2.46729382 0.00135845 -0.00172659 1.00000000
2.82203221 -0.00082716 0.00348114 1.00000000
3.41627074 -0.00096799 -0.00121018 1.00000000
3.19670918 0.00360606 -0.00031672 1.00000000
3.83925647 -0.00221063 0.00190727 1.00000000
1.05939325 -0.00060859 -0.00421345 1.00000000
3.95434102 -0.00128694 0.00122793 1.00000000
0.85634657 -0.00443294 -0.00418204 1.00000000
0.66450064 -0.00337790 -0.00272609 1.00000000
2.89949019 -0.00072923 0.00438752 1.00000000
2.79919401 0.00058394 0.00006085 1.00000000
3.60960462 0.00410372 -0.00005195 1.00000000
0.09116059 0.00124323 -0.00083605 1.00000000
1.13858921 0.00185105 0.00399381 1.00000000
0.72758391 0.00221479 -0.00409816 1.00000000
3.17547921 -0.00421368 0.00278334 1.00000000
0.32878610 0.00202794 0.00269774 1.00000000
3.67745002 0.00370962 0.00118067 1.00000000
3.22361994 -0.00066365 0.00182358 1.00000000
1.96671063 -0.00048629 -0.00143260 1.00000000
2.58830295 -0.00207289 -0.00114156 1.00000000
3.00076654 -0.00422440 0.00019922 1.00000000
1.24332226 0.00139987 0.00267455 1.00000000
3.57052200 -0.00267748 0.00373848 1.00000000
1.15393270 0.00111583 -0.00076590 1.00000000
2.32755086 0.00104042 -0.00021012 1.00000000
3.25827117 -0.00049759 -0.00089846 1.00000000
3.76070081 -0.00143258 -0.00094606 1.00000000
0.11592485 -0.00016116 -0.00024474 1.00000000
2.90633120 -0.00308248 0.00087551 1.00000000
3.69972176 -0.00211571 -0.00267493 1.00000000
0.53446061 0.00153836 0.00217663 1.00000000
0.13035480 0.00266436 0.00166010 1.00000000
0.76398040 -0.00071961 0.00180481 1.00000000
1.55325588 0.00274347 0.00315176 1.00000000
3.40078321 0.00081347 0.00472793 1.00000000
1.33414834 0.00173406 0.00151092 1.00000000
3.22525658 0.00157704 -0.00046221 1.00000000
2.26371579 -0.00082741 0.00379687 1.00000000
2.48081106 -0.00479360 0.00055411 1.00000000
3.56758159 0.00133441 -0.00080445 1.00000000
2.31340958 -0.00222302 0.00398809 1.00000000
2.57405422 0.00197869 0.00071439 1.00000000
3.68659283 0.00226740 -0.00351318 1.00000000
2.07663105 -0.00083267 -0.00171589 1.00000000
2.14275836 -0.00355137 0.00520945 1.00000000
2.60997043 -0.00210613 0.00291135 1.00000000
1.23203811 -0.00300768 -0.00084561 1.00000000
1.49524965 -0.00215593 -0.00266476 1.00000000
3.02001088 -0.00087786 0.00559562 1.00000000
2.04740326 -0.00066433 0.00360517 1.00000000
1.15697084 -0.00294544 -0.00039083 1.00000000
3.49482303 0.00194089 0.00073079 1.00000000
2.17758970 -0.00069900 -0.00020509 1.00000000
0.74223994 0.00195505 -0.00032972 1.00000000
1.78083328 0.00122369 0.00121596 1.00000000
3.80704034 -0.00012424 0.00164615 1.00000000
2.48291189 -0.00088766 -0.00437337 1.00000000
1.22974731 0.00169087 0.00244065 1.00000000
1.07951934 -0.00561460 -0.00055518 1.00000000
1.52176069 0.00054603 -0.00513197 1.00000000
1.37940996 0.00234749 0.00139428 1.00000000
1.31778945 -0.00000753 -0.00283653 1.00000000
1.15690855 0.00103341 0.00089701 1.00000000
1.71853688 -0.00197147 -0.00305902 1.00000000
0.31320758 -0.00161802 0.00216268 1.00000000
3.24475821 -0.00109247 0.00156854 1.00000000
1.36473042 -0.00032034 -0.00034063 1.00000000
1.69356216 0.00022750 -0.00139038 1.00000000
2.71115470 -0.00090047 0.00122550 1.00000000
1.70770726 0.00074518 0.00512836 1.00000000
2.01540996 -0.00006600 -0.00074157 1.00000000
2.25097043 0.00569109 -0.00208771 1.00000000
0.95774086 0.00388691 -0.00068785 1.00000000
1.01241581 -0.00336284 0.00060198 1.00000000
1.89968737 -0.00280981 -0.00120085 1.00000000
3.32983284 0.00190915 0.00132965 1.00000000
1.16290580 0.00115720 0.00199426 1.00000000
1.00116976 -0.00238104 -0.00626089 1.00000000
1.75139998 0.00243753 -0.00004054 1.00000000
3.39012586 0.00234597 -0.00008646 1.00000000
1.37027865 -0.00000373 0.00098234 1.00000000
2.15246844 -0.00041660 -0.00042459 1.00000000
0.12319908 -0.00132440 -0.00016861 1.00000000
1.63076840 0.00448502 -0.00515336 1.00000000
0.82093759 0.00340916 -0.00540606 1.00000000
0.78837070 -0.00327553 -0.00018674 1.00000000
1.00555669 0.00427553 -0.00330020 1.00000000
1.55302671 1.25215284 -0.00228931 0.00000000
3.22296765 0.98295106 -0.00119966 0.00000000
1.26501765 1.09521617 -0.00160401 0.00000000
3.54195727 0.99482490 -0.00262234 0.00000000
3.87351000 0.44398855 0.00160665 0.00000000
0.63416336 0.67091446 0.00140189 0.00000000
0.95668071 1.08232389 0.00059662 0.00000000
0.93363752 0.63735929 0.00513119 0.00000000
2.75688041 0.12010858 0.00008900 0.00000000
0.94433048 1.94829843 0.00013579 0.00000000
0.78079363 1.49858324 -0.00067910 0.00000000
0.25515555 0.51675834 0.00112040 0.00000000
3.01271401 1.28034304 -0.00132017 0.00000000
3.17385657 1.37330020 -0.00115124 0.00000000
3.59806862 1.11449623 -0.00080496 0.00000000
1.77047141 0.36527712 0.00524761 0.00000000
2.49723325 1.32421977 -0.00447707 0.00000000
1.44808706 0.72640179 -0.00001563 0.00000000
2.94177357 1.07074314 -0.00163203 0.00000000
3.96617513 1.19019776 -0.00177557 0.00000000
3.05176915 0.56364818 0.00053546 0.00000000
3.82597250 1.33866271 -0.00085903 0.00000000
2.56031722 0.72972978 -0.00117638 0.00000000
3.14746785 0.03684494 0.00147460 0.00000000
3.77057373 0.74041576 0.00076232 0.00000000
0.82760499 1.63858398 0.00496223 0.00000000
0.92043060 1.56366586 0.00129270 0.00000000
2.51683888 0.36723752 -0.00082416 0.00000000
3.71012028 1.58165338 -0.00304935 0.00000000
3.42610070 1.39912588 -0.00279413 0.00000000
3.08472723 0.83956827 -0.00013676 0.00000000
2.19830100 1.37326532 -0.00004901 0.00000000
0.04950669 1.27191900 -0.00271139 0.00000000
2.58393668 1.65294120 -0.00145957 0.00000000
0.78338375 1.11538780 0.00437011 0.00000000
2.98151815 1.23883931 -0.00331771 0.00000000
3.26530142 0.65886003 -0.00056990 0.00000000
0.53106099 1.95358711 0.00300621 0.00000000
2.12432684 1.50282452 -0.00022217 0.00000000
3.26586679 0.65694820 -0.00202615 0.00000000
0.51957030 1.82679930 -0.00454302 0.00000000
3.38676420 1.63302799 -0.00058981 0.00000000
2.99855870 0.20619305 0.00116024 0.00000000
3.14773907 1.22210964 0.00401022 0.00000000
2.52264936 1.75021233 0.00051939 0.00000000
3.90736999 1.85143652 -0.00381498 0.00000000
0.92053979 0.19779279 -0.00227796 0.00000000
1.98078504 0.80044116 -0.00125541 0.00000000
3.11210217 1.11449097 -0.00054131 0.00000000
0.26160019 1.89475302 0.00322554 0.00000000
1.77126103 1.20283765 0.00147792 0.00000000
2.71644783 0.32293067 0.00077981 0.00000000
3.17320353 0.16737402 -0.00412042 0.00000000
0.48430971 1.37561940 -0.00338449 0.00000000
2.52348148 0.80085114 -0.00219596 0.00000000
1.70791863 0.08753678 -0.00196511 0.00000000
2.08699191 0.03825822 0.00152125 0.00000000
0.46938329 1.64571527 0.00014191 0.00000000
1.32573301 0.86725464 -0.00172923 0.00000000
1.41476859 1.37307639 0.00264935 0.00000000
2.85515402 0.40202401 0.00190604 0.00000000
2.83322432 0.24694383 0.00205339 0.00000000
0.90746142 0.73639136 0.00219846 0.00000000
0.61721506 1.23083450 -0.00015291 0.00000000
2.62129435 1.28799818 0.00052417 0.00000000
3.66743856 0.56482779 0.00290571 0.00000000
0.97020063 0.91398268 -0.00213907 0.00000000
1.59492915 1.74396668 0.00370210 0.00000000
0.05359623 0.95268732 0.00326698 0.00000000
2.38340904 0.00817692 -0.00151283 0.00000000
3.73716377 1.16031943 0.00094782 0.00000000
3.40015077 0.15978581 0.00077341 0.00000000
3.84199247 0.81340632 -0.00070175 0.00000000
0.46436490 1.85381822 0.00286500 0.00000000
2.32634306 0.24062902 -0.00043805 0.00000000
0.33838169 0.62968535 -0.00094570 0.00000000
1.62576771 0.33737840 -0.00281186 0.00000000
2.29613730 0.93625176 -0.00301709 0.00000000
3.21861149 0.70533157 0.00429038 0.00000000
1.88103405 0.08970371 -0.00236104 0.00000000
2.37890535 1.43320064 0.00187949 0.00000000
2.69979154 1.81821595 -0.00337677 0.00000000
3.17524318 0.09917684 0.00027109 0.00000000
1.76267451 1.41381475 0.00179986 0.00000000
2.59094823 1.67014165 0.00158164 0.00000000
1.07707425 1.39113222 0.00224313 0.00000000
0.78714120 1.92982375 0.00367823 0.00000000
2.54400255 0.97663263 -0.00206610 0.00000000
0.62778437 0.74185014 -0.00340264 0.00000000
1.19703691 1.92894649 0.00178252 0.00000000
2.13002347 1.37398074 0.00182810 0.00000000
1.76019054 1.06212520 0.00178743 0.00000000
1.67741449 1.64905970 0.00065190 0.00000000
2.12466467 0.32604393 -0.00018413 0.00000000
1.13037968 1.22976105 -0.00103832 0.00000000
0.72204878 0.73852724 0.00064756 0.00000000
1.16194334 0.55579561 -0.00096232 0.00000000
3.82184668 0.05550415 -0.00099927 0.00000000
2.42226694 0.88388001 -0.00113864 0.00000000
2.49369764 0.55112966 0.00189869 0.00000000
3.94628629 0.78195003 -0.00081778 0.00000000
2.63970906 0.10060574 0.00154301 0.00000000
3.29914336 1.75308182 0.00152127 0.00000000
0.64688463 1.55501480 0.00083548 0.00000000
1.39232042 1.00863414 -0.00071626 0.00000000
2.00588020 0.47261710 -0.00030224 0.00000000
0.44957385 0.78915202 -0.00085086 0.00000000
1.18755530 1.75178102 0.00089713 0.00000000
2.05265420 1.05206655 -0.00201539 0.00000000
0.26289362 1.53723746 -0.00230839 0.00000000
3.39172768 1.85419820 0.00126436 0.00000000
3.21365601 1.63870393 0.00016717 0.00000000
1.98198046 0.01408113 -0.00224134 0.00000000
0.49444833 0.16706047 -0.00139544 0.00000000
2.09401772 0.02626349 -0.00245097 0.00000000
0.54611130 1.05416938 -0.00824788 0.00000000
2.08698062 0.30387380 -0.00340376 0.00000000
1.66016867 1.88511410 -0.00169130 0.00000000
0.33361014 1.10088341 -0.00131411 0.00000000
1.22678699 0.03616224 -0.00349501 0.00000000
1.50923924 1.84130434 0.00398957 0.00000000
0.58803015 1.84046607 -0.00014894 0.00000000
1.29494732 0.33076993 -0.00054168 0.00000000
2.06101038 0.72347428 0.00125507 0.00000000
0.95275670 0.88158469 -0.00502036 0.00000000
1.71872756 0.54615444 0.00305149 0.00000000
3.01582410 0.98662442 -0.00231785 0.00000000
0.81745359 0.19322755 0.00301204 0.00000000
2.69167130 1.62898231 -0.00059288 0.00000000
2.52663868 1.32574964 0.00161334 0.00000000
2.89748662 0.01063931 0.00278313 0.00000000
1.79207437 0.73679843 -0.00239846 0.00000000
1.99398870 1.47990165 0.00053116 0.00000000
3.14441675 1.70564600 0.00114579 0.00000000
2.15761329 0.27456167 0.00275635 0.00000000
0.16760963 1.60994206 0.00033473 0.00000000
1.06109798 0.38845207 -0.00177195 0.00000000
2.93948228 0.30437006 0.00058070 0.00000000
3.12004984 1.13634150 -0.00224329 0.00000000
1.15823363 0.02873779 -0.00295504 0.00000000
1.30355000 0.53829112 0.00172581 0.00000000
1.17659746 0.95971660 0.00284910 0.00000000
1.69444249 0.42860265 0.00217765 0.00000000
3.53333394 0.38234971 0.00097058 0.00000000
3.85809694 0.25179218 -0.00098309 0.00000000
0.33586835 1.70045821 0.00247190 0.00000000
2.19567127 0.32432333 -0.00085182 0.00000000
1.00811617 0.77705846 -0.00298282 0.00000000
1.99890159 0.41550085 -0.00137650 0.00000000
1.95180209 0.34405560 0.00126945 0.00000000
2.83084401 0.62878841 -0.00414323 0.00000000
2.18776465 0.29107264 -0.00039708 0.00000000
2.51124747 1.82489821 -0.00257161 0.00000000
2.44703974 0.53552795 -0.00174834 0.00000000
1.20361634 0.43040320 -0.00215047 0.00000000
1.46519213 0.31736444 -0.00376687 0.00000000
1.52013646 1.95635407 -0.00148545 0.00000000
2.14385981 1.51661943 0.00061065 0.00000000
3.45005773 0.22781497 -0.00028129 0.00000000
0.08724191 1.28116373 -0.00346191 0.00000000
2.46448074 1.13846893 0.00047928 0.00000000
2.48092107 0.93566996 0.00338616 0.00000000
3.33360125 0.63080744 0.00345207 0.00000000
0.92166357 1.89002433 0.00105512 0.00000000
3.47844869 1.93929238 -0.00087294 0.00000000
1.57412940 1.30177196 -0.00431271 0.00000000
3.62463037 1.32457242 0.00065596 0.00000000
4.00298059 1.64833360 -0.00190613 0.00000000
3.91356934 1.62589081 -0.00120243 0.00000000
1.33215375 1.21710591 -0.00557781 0.00000000
1.22191650 0.19780104 -0.00196663 0.00000000
3.92156235 0.36753245 -0.00000495 0.00000000
2.41258821 0.34781681 0.00045495 0.00000000
2.58841265 1.50017816 -0.00202619 0.00000000
0.89018388 1.48616301 -0.00274463 0.00000000
0.80464396 0.16486613 -0.00084483 0.00000000
3.30932150 0.24087066 0.00255322 0.00000000
1.59483794 1.86070236 -0.00204910 0.00000000
2.51416354 0.26867291 -0.00209131 0.00000000
3.70753603 0.02344061 -0.00313775 0.00000000
3.43278017 1.93949660 0.00141248 0.00000000
1.50817943 0.37895329 -0.00014095 0.00000000
1.97009094 1.79859126 -0.00354766 0.00000000
2.55327972 1.09832578 0.00055930 0.00000000
1.85583873 0.62808153 0.00112500 0.00000000
2.14655163 0.78507854 -0.00031460 0.00000000
3.75841444 0.09406132 -0.00217372 0.00000000
2.59991508 0.04471607 0.00258240 0.00000000
1.03562999 0.45234928 -0.00340167 0.00000000
1.23004257 0.11887606 0.00170824 0.00000000
1.85393320 0.73810429 -0.00011843 0.00000000
2.68125452 1.52065699 -0.00159566 0.00000000
0.41345892 0.95079560 -0.00094038 0.00000000
2.47356564 1.06617485 -0.00268426 0.00000000
1.92290001 0.05930875 -0.00192520 0.00000000
0.35170757 1.04672014 -0.00238040 0.00000000
2.73702070 0.24964092 -0.00318270 0.00000000
1.84571528 1.29195840 -0.00154326 0.00000000
3.91552165 0.39471383 0.00040800 0.00000000
2.19243302 0.96345634 -0.00486750 0.00000000
1.34387493 0.83862582 -0.00375028 0.00000000
3.95551523 0.34913214 -0.00337949 0.00000000
1.39562458 1.23949743 0.00257909 0.00000000
1.07192863 1.29267474 -0.00123284 0.00000000
2.03175706 1.75244673 0.00173475 0.00000000
3.28115886 0.28673749 -0.00144869 0.00000000
1.11583415 0.10971270 -0.00109683 0.00000000
3.90010642 0.93831077 -0.00256836 0.00000000
3.33412767 1.72265666 -0.00358131 0.00000000
2.40705798 0.02203637 0.00011872 0.00000000
3.65153064 1.58587799 0.00241139 0.00000000
3.44116798 0.43560217 0.00082678 0.00000000
3.70512388 1.44318417 0.00368656 0.00000000
1.06593530 0.26771051 -0.00272264 0.00000000
2.94879396 1.41309547 -0.00307583 0.00000000
2.01840403 1.11693592 0.00199597 0.00000000
0.85297646 1.60040129 0.00311512 0.00000000
1.37136157 1.13578173 -0.00189974 0.00000000
1.75535838 1.88056631 0.00038343 0.00000000
3.07806892 0.26105675 0.00224924 0.00000000
1.15555820 0.47668527 -0.00442656 0.00000000
2.11638496 0.70203466 -0.00033046 0.00000000
1.76530298 0.72451918 -0.00206923 0.00000000
2.63667110 0.91025431 0.00339056 0.00000000
3.21854659 1.81284628 0.00410081 0.00000000
1.76801228 0.21729503 -0.00003947 0.00000000
2.83820197 1.62301049 0.00030837 0.00000000
0.03765184 1.95401386 0.00215779 0.00000000
2.79285288 1.25471107 0.00063647 0.00000000
1.16187057 0.29211832 0.00094508 0.00000000
3.99704310 1.59997947 0.00259483 0.00000000
3.42126478 0.57710323 -0.00383584 0.00000000
1.14904807 0.46460292 -0.00333923 0.00000000
3.92332847 0.78059061 -0.00028605 0.00000000
1.46340823 0.81231304 0.00151543 0.00000000
1.18465672 0.08856605 -0.00198196 0.00000000
0.33752479 0.15538471 -0.00303370 0.00000000
0.71271460 1.01711411 -0.00034050 0.00000000
1.03321766 1.31439029 0.00212709 0.00000000
0.46010244 0.48592655 0.00277856 0.00000000
0.05402458 0.18357674 -0.00083569 0.00000000
4.00153048 1.74130730 0.00392676 0.00000000
2.34502438 0.45492719 0.00337711 0.00000000
0.96693279 1.55641973 0.00052857 0.00000000
1.48197826 1.46504937 -0.00060043 0.00000000
1.40319067 1.24945329 -0.00038144 0.00000000
1.54829646 0.66950090 0.00036575 0.00000000
1.13453035 0.26787353 -0.00273862 0.00000000
1.10146410 0.24142297 0.00032208 0.00000000
3.44003567 0.67025334 0.00175245 0.00000000
2.54054722 0.86846632 0.00321038 0.00000000
1.71371808 0.53540913 0.00046399 0.00000000
3.59211496 1.26571642 0.00246288 0.00000000
2.63399794 0.04118378 0.00680043 0.00000000
2.65086484 1.00837949 -0.00145088 0.00000000
1.10761393 0.84603244 -0.00003899 0.00000000
0.42479821 0.52511822 -0.00138979 0.00000000
2.99430189 1.08972697 -0.00081809 0.00000000
0.61096643 0.92117065 0.00433414 0.00000000
3.68860772 1.19428881 -0.00231059 0.00000000
0.73607922 0.77895833 0.00017199 0.00000000
1.40360324 0.36031084 0.00232909 0.00000000
2.65704743 0.81973679 -0.00090286 0.00000000
0.55237675 1.01728695 -0.00015894 0.00000000
3.76680304 0.68797860 0.00445482 0.00000000
2.43601785 1.35387651 -0.00044592 0.00000000
1.57041978 1.57643725 -0.00322022 0.00000000
1.16263607 0.82931214 0.00038476 0.00000000
0.01699104 1.85815882 0.00026038 0.00000000
2.70825918 1.80300778 -0.00221529 0.00000000
3.65406574 0.38111439 -0.00148579 0.00000000
1.57761610 1.12340227 0.00262739 0.00000000
1.87681722 1.62125103 -0.00291909 0.00000000
1.38819427 0.88369561 -0.00221684 0.00000000
0.51399293 1.92329905 -0.00062189 0.00000000
1.20766011 0.20270261 -0.00127003 0.00000000
1.10829133 1.76072957 -0.00058446 0.00000000
2.14527186 0.97036451 0.00069500 0.00000000
0.34582507 0.11487331 0.00273974 0.00000000
1.48419493 0.40002955 -0.00119413 0.00000000
1.05840430 1.62134099 0.00074492 0.00000000
3.23174314 1.42383559 0.00095093 0.00000000
1.94530293 0.17177914 -0.00110033 0.00000000
0.95281828 0.41952346 0.00124427 0.00000000
1.45781424 1.49786749 0.00055349 0.00000000
2.04311508 0.47219543 -0.00115777 0.00000000
1.51700392 0.54117025 0.00181753 0.00000000
2.45811038 0.09382949 -0.00117837 0.00000000
0.09175606 1.17298853 -0.00152857 0.00000000
0.91721576 1.46915295 0.00359806 0.00000000
0.03992876 1.41614982 0.00128684 0.00000000
2.68692475 0.40609983 -0.00057548 0.00000000
2.07775015 0.83360931 0.00020819 0.00000000
3.66447192 0.22699080 0.00601354 0.00000000
3.37294714 1.30022803 -0.00174168 0.00000000
0.82603122 0.05330008 -0.00025323 0.00000000
1.49517596 1.07870196 -0.00096103 0.00000000
3.40366787 0.23072149 -0.00360636 0.00000000
3.92706738 0.88075283 -0.00176246 0.00000000
1.38359002 1.52653506 -0.00154200 0.00000000
2.36657087 1.81311781 0.00022493 0.00000000
2.14234506 1.32359718 -0.00125357 0.00000000
3.27954181 0.15074484 -0.00015924 0.00000000
3.59675827 1.11871172 -0.00275960 0.00000000
0.35273708 1.15593433 0.00298014 0.00000000
1.65335750 1.63352819 -0.00072733 0.00000000
0.33910896 0.21764603 0.00199966 0.00000000
1.19808340 0.69405003 0.00375708 0.00000000
2.44366759 1.65265526 -0.00281813 0.00000000
0.88541536 0.87011139 -0.00122462 0.00000000
2.28108162 0.12555427 0.00282664 0.00000000
3.28752463 1.55690607 0.00214694 0.00000000
2.19655043 0.44579521 0.00481451 0.00000000
2.35499375 1.14318099 -0.00234120 0.00000000
3.94701620 1.37875715 0.00325858 0.00000000
1.12919634 0.92205195 -0.00107328 0.00000000
3.35617812 0.37315792 0.00325111 0.00000000
3.82683651 1.92989166 0.00432496 0.00000000
2.46763133 1.84392148 0.00091848 0.00000000
3.55570809 0.87600799 0.00091683 0.00000000
1.46862788 0.91849741 -0.00141054 0.00000000
3.97388810 0.07435754 -0.00121246 0.00000000
0.23469858 0.39876477 0.00008514 0.00000000
2.08027179 1.69685250 -0.00054749 0.00000000
2.69313576 0.73659516 -0.00216391 0.00000000
0.66382511 0.66091746 0.00155063 0.00000000
2.56528111 1.51180278 -0.00075846 0.00000000
3.98815181 1.52347608 0.00273610 0.00000000
0.02896001 1.17212944 -0.00607836 0.00000000
1.92544247 1.06878509 -0.00039129 0.00000000
0.19960692 0.37473093 0.00228880 0.00000000
3.78246862 1.74635453 -0.00235258 0.00000000
3.80739983 1.24781748 0.00051689 0.00000000
0.45193871 1.31768510 0.00286179 0.00000000
0.48676522 0.79888096 -0.00136439 0.00000000
1.47955752 1.93566299 -0.00479834 0.00000000
3.39035146 1.25750054 0.00085640 0.00000000
1.12811083 1.03854506 0.00345950 0.00000000
2.20083822 1.34996654 0.00417672 0.00000000
1.63537930 1.93257148 0.00491910 0.00000000
0.18789388 0.40701600 -0.00309106 0.00000000
2.41035278 1.36452794 0.00316333 0.00000000
3.58501561 1.83845073 0.00216023 0.00000000
3.93780211 0.01883458 -0.00174330 0.00000000
1.34206303 0.71140111 -0.00167996 0.00000000
2.53065857 1.45215926 0.00685587 0.00000000
0.67885268 0.15552118 0.00024356 0.00000000
0.05932318 1.29397082 0.00144447 0.00000000
2.88271404 1.41547190 -0.00438036 0.00000000
1.26792679 1.30997558 -0.00342282 0.00000000
2.06555976 1.78546647 0.00049821 0.00000000
0.56403088 0.14465232 -0.00183193 0.00000000
2.32298515 1.75631513 -0.00542153 0.00000000
0.17203854 0.15270166 0.00275543 0.00000000
1.91745553 1.92231521 -0.00181795 0.00000000
1.35142098 0.96888218 -0.00287897 0.00000000
3.90219988 1.41989011 0.00052936 0.00000000
1.60821572 0.90098387 -0.00069534 0.00000000
1.03618717 1.68258472 0.00241753 0.00000000
0.46733792 0.28191269 0.00020632 0.00000000
0.45794767 1.22775320 -0.00183952 0.00000000
3.09557215 1.15473805 0.00149769 0.00000000
3.49299429 1.88252363 0.00224325 0.00000000
3.06554342 1.02405617 0.00154196 0.00000000
3.02113320 1.68013419 0.00221460 0.00000000
2.39714565 1.23703613 0.00220046 0.00000000
1.02756409 0.19643340 0.00333756 0.00000000
0.23111762 1.05033233 -0.00079918 0.00000000
2.75250754 1.19283417 -0.00124855 0.00000000
0.44345265 1.68835363 0.00411601 0.00000000
1.47166304 1.86015024 -0.00352338 0.00000000
1.26146338 0.47100174 0.00354764 0.00000000
1.21955788 1.57610811 -0.00330574 0.00000000
2.80218089 0.26316589 0.00024867 0.00000000
3.05700284 1.07779040 -0.00406749 0.00000000
2.63864937 0.99342350 -0.00177661 0.00000000
2.61034519 0.18359218 0.00225487 0.00000000
2.75860063 1.20543004 -0.00110107 0.00000000
2.23203261 0.61790849 0.00085771 0.00000000
3.15040008 0.35799685 0.00109337 0.00000000
1.65987106 0.45407528 0.00147191 0.00000000
0.77460464 1.65230335 0.00054356 0.00000000
2.56471839 0.80387851 0.00145070 0.00000000
0.64676589 1.73320883 0.00193683 0.00000000
3.69386890 0.20118497 -0.00046277 0.00000000
1.74838905 0.67441758 -0.00310328 0.00000000
0.08274567 0.19914980 0.00320473 0.00000000
3.69350704 0.75098878 -0.00041819 0.00000000
2.03556151 0.30240958 -0.00369628 0.00000000
0.02616423 1.31824157 -0.00293873 0.00000000
2.53558415 0.49894533 0.00083790 0.00000000
2.98883343 0.18423583 -0.00274497 0.00000000
1.38566194 0.61693506 -0.00448816 0.00000000
2.01037890 0.36116235 0.00098896 0.00000000
0.35832298 0.21257449 -0.00022917 0.00000000
3.98223515 1.72998551 0.00102039 0.00000000
0.06887611 1.05084614 -0.00181006 0.00000000
1.58241597 0.21553554 0.00420582 0.00000000
1.75653820 0.69130201 0.00005154 0.00000000
0.97510458 1.43104825 -0.00512769 0.00000000
3.39393802 1.23618195 -0.00324111 0.00000000
0.90380810 0.85192568 0.00285895 0.00000000
1.03250084 0.93408558 -0.00039493 0.00000000
2.97392622 1.30421093 0.00213134 0.00000000
2.27166877 1.38735277 -0.00015901 0.00000000
2.44248081 1.34416984 -0.00258666 0.00000000
1.80675966 0.75488841 -0.00114697 0.00000000
3.41733980 0.93142620 0.00031995 0.00000000
2.74950657 0.49200428 -0.00171753 0.00000000
1.04916484 0.50056406 -0.00416060 0.00000000
1.02253564 0.54873562 -0.00286075 0.00000000
1.31204119 1.65648853 0.00168739 0.00000000
3.79968272 0.49292814 -0.00109286 0.00000000
0.02656683 0.84299069 -0.00173383 0.00000000
3.84457285 1.38466629 0.00025966 0.00000000
2.40201812 0.36311223 -0.00084305 0.00000000
3.29682090 0.42640734 0.00268359 0.00000000
2.52543494 1.37488201 -0.00004135 0.00000000
1.68076456 0.05053732 0.00230308 0.00000000
3.46577242 1.20887906 -0.00282848 0.00000000
2.19475667 0.43637354 -0.00313327 0.00000000
3.48366737 0.34304844 -0.00572276 0.00000000
0.14040771 0.20465232 0.00092242 0.00000000
2.10247110 0.22570872 0.00274698 0.00000000
0.45986089 0.13508366 -0.00522731 0.00000000
0.17051007 1.25988575 0.00036275 0.00000000
0.38577317 1.59370813 0.00489049 0.00000000
2.70250093 0.40221300 -0.00451882 0.00000000
2.79415054 1.28650619 -0.00275921 0.00000000
2.73108011 0.25072918 0.00089066 0.00000000
2.19660368 0.17621184 0.00061669 0.00000000
0.95230847 1.75049780 -0.00100050 0.00000000
0.16168988 1.12892274 0.00117816 0.00000000
2.14904371 1.50234604 -0.00038083 0.00000000
2.58995206 1.04448297 0.00118973 0.00000000
3.51890008 0.75755209 -0.00257312 0.00000000
0.96167704 0.92313024 0.00133487 0.00000000
1.45242471 0.89918062 0.00539017 0.00000000
3.67471795 0.69715020 0.00093079 0.00000000
1.20838570 1.63187873 -0.00078939 0.00000000
3.58662454 0.19040943 0.00354397 0.00000000
1.73460687 0.24814735 -0.00124526 0.00000000
2.73011021 0.17315706 0.00446829 0.00000000
2.15819706 0.61978303 -0.00104771 0.00000000
3.65024691 1.19960252 -0.00056399 0.00000000
0.99123781 1.35446424 0.00065261 0.00000000
2.54901813 1.19756141 0.00378620 0.00000000
0.97873111 0.27247068 0.00367937 0.00000000
0.64183062 0.90096218 0.00116308 0.00000000
3.08920820 0.44188645 0.00018705 0.00000000
2.55130481 0.41976264 -0.00071143 0.00000000
1.25056644 1.38043847 0.00108485 0.00000000
2.81721474 1.70304642 0.00010196 0.00000000
0.59059788 1.81588107 -0.00056090 0.00000000
0.17361507 0.42142118 -0.00332552 0.00000000
0.34569458 1.17466962 0.00100715 0.00000000
2.18888617 1.51310649 -0.00117608 0.00000000
0.52652531 0.79454872 -0.00016277 0.00000000
3.95284851 1.51670428 -0.00170435 0.00000000
1.32482717 0.42636645 -0.00390517 0.00000000
1.24552430 1.36365407 0.00013458 0.00000000
3.33928134 1.08812456 0.00423472 0.00000000
1.09931624 0.82122819 0.00433206 0.00000000
2.99619790 1.45539168 0.00221046 0.00000000
3.78924602 1.28528023 0.00219684 0.00000000
1.94289192 0.51914834 -0.00291174 0.00000000
0.08926789 1.39584732 0.00196298 0.00000000
3.27072865 1.87635176 0.00125355 0.00000000
0.17247244 1.95986715 0.00055797 0.00000000
3.73035921 0.31035014 0.00214884 0.00000000
1.40258674 1.45161162 -0.00230118 0.00000000
0.85052670 0.99810274 -0.00357046 0.00000000
0.72570556 1.45025381 -0.00278614 0.00000000
3.46511119 0.43420272 0.00073005 0.00000000
1.85320419 1.19056706 0.00542176 0.00000000
2.72767222 0.61015081 -0.00319994 0.00000000
1.38603360 1.70970612 0.00106366 0.00000000
0.68639250 0.01907243 0.00171863 0.00000000
1.93332812 1.46289177 0.00106287 0.00000000
0.76070964 1.34118656 -0.00199257 0.00000000
1.45049371 1.95684563 -0.00364099 0.00000000
0.29657882 0.50145708 0.00390551 0.00000000
2.23126228 0.41093592 0.00070405 0.00000000
1.90006862 1.45582708 -0.00156212 0.00000000
3.82735713 0.01411759 0.00057500 0.00000000
2.46295532 1.16884895 0.00072280 0.00000000
1.95472036 0.91407697 -0.00039547 0.00000000
0.31250510 0.27337642 0.00125899 0.00000000
0.22494774 0.84859434 -0.00060915 0.00000000
3.49636301 1.40391650 0.00306308 0.00000000
2.74358145 0.37643556 -0.00313055 0.00000000
2.48223838 1.26997096 -0.00002807 0.00000000
2.98751152 1.65073324 -0.00327211 0.00000000
3.84509623 1.32683101 -0.00262307 0.00000000
4.00631782 1.25827656 -0.00198646 0.00000000
3.26017541 1.27979690 -0.00082996 0.00000000
2.33258101 0.62774099 -0.00674877 0.00000000
3.83263559 1.82177260 -0.00183720 0.00000000
0.78997300 1.66260386 -0.00163116 0.00000000
2.18319506 0.45096049 -0.00546582 0.00000000
1.64275463 1.44241548 0.00089711 0.00000000
2.92815766 0.84363574 0.00435815 0.00000000
3.14409542 0.76626014 0.00248162 0.00000000
0.15128134 1.21088259 0.00130878 0.00000000
3.95799303 1.04039796 0.00474123 0.00000000
2.53727581 1.21667396 -0.00440657 0.00000000
0.65361387 1.36149274 -0.00112706 0.00000000
3.73085053 1.85166217 -0.00121706 0.00000000
3.94589471 0.71626936 -0.00136539 0.00000000
3.13840513 1.10698855 0.00347627 0.00000000
0.09448939 1.74609745 -0.00125066 0.00000000
2.79113187 0.13654969 -0.00095683 0.00000000
1.76189517 0.08355404 0.00220709 0.00000000
1.99274001 1.52194516 -0.00105649 0.00000000
1.61768868 0.95377323 -0.00168342 0.00000000
3.81903226 1.05348981 -0.00025122 0.00000000
2.57632592 1.87176601 0.00178745 0.00000000
0.29611329 1.04842647 -0.00275651 0.00000000
1.74491886 0.35966841 -0.00053669 0.00000000
3.11916010 1.53433034 0.00467609 0.00000000
1.55573479 1.00870230 -0.00018053 0.00000000
0.04021624 1.19330839 0.00203269 0.00000000
1.20825913 1.73858986 0.00012925 0.00000000
3.40183637 0.86332255 0.00155912 0.00000000
0.21764703 0.06430534 -0.00394518 0.00000000
3.95580788 1.29292065 -0.00032330 0.00000000
0.26978189 0.73202800 -0.00325045 0.00000000
3.11941169 0.77067751 -0.00268478 0.00000000
3.70816204 0.53017522 -0.00126799 0.00000000
2.51474297 0.47661062 0.00269692 0.00000000
3.60253126 0.39074496 0.00359486 0.00000000
2.11872778 0.03295390 -0.00027477 0.00000000
1.86624142 0.80843042 -0.00350609 0.00000000
1.04387177 0.63100864 -0.00009933 0.00000000
2.04623862 1.58279379 0.00039592 0.00000000
3.22263318 0.55693158 0.00180011 0.00000000
1.32711134 0.65705865 -0.00142711 0.00000000
1.89969745 0.00949841 -0.00032574 0.00000000
1.94442033 1.59210588 0.00330422 0.00000000
0.31422244 0.45183736 -0.00004021 0.00000000
2.03153142 0.64470342 0.00216872 0.00000000
1.06785820 0.80057260 0.00050447 0.00000000
0.15182216 1.17407949 -0.00249197 0.00000000
1.40671808 0.74615938 0.00186631 0.00000000
0.12483935 0.70604311 -0.00067117 0.00000000
1.07558796 1.05980037 0.00015572 0.00000000
3.44848224 1.18156161 -0.00118255 0.00000000
0.31583843 1.86059655 0.00501069 0.00000000
1.36086521 0.60209621 0.00395743 0.00000000
2.44322804 1.81344975 -0.00137738 0.00000000
0.43012994 1.26324083 -0.00042907 0.00000000
2.42949042 1.72987068 0.00055173 0.00000000
1.37219728 1.13033176 0.00218574 0.00000000
3.52342163 1.09916856 -0.00059538 0.00000000
3.53868204 0.15994125 0.00166719 0.00000000
0.74650584 1.92241767 -0.00239768 0.00000000
1.02619156 1.81084251 -0.00311565 0.00000000
2.10570577 1.29980667 -0.00097576 0.00000000
0.37048565 1.88004072 0.00071160 0.00000000
2.40189028 1.03185518 -0.00084571 0.00000000
3.38579594 0.87680653 0.00029221 0.00000000
1.78425193 1.51832967 0.00002844 0.00000000
3.36109657 0.02386530 0.00490261 0.00000000
3.26314824 0.08861894 0.00124002 0.00000000
2.14236342 1.19004756 0.00189170 0.00000000
0.87559641 1.27864428 -0.00223210 0.00000000
2.78893639 0.52956687 0.00185116 0.00000000
3.72490690 0.95845687 -0.00078814 0.00000000
1.12154804 1.13051616 -0.00213252 0.00000000
0.82747413 1.83257479 -0.00254759 0.00000000
0.70234396 0.32984955 0.00047947 0.00000000
1.39574073 0.03868595 -0.00476681 0.00000000
0.02644287 1.04415989 -0.00086320 0.00000000
1.74007289 1.26697773 0.00034814 0.00000000
0.84191532 0.51026386 0.00054956 0.00000000
3.84155002 0.40943445 0.00312281 0.00000000
3.21611426 1.82965039 -0.00466058 0.00000000
1.19304491 0.62706498 0.00168114 0.00000000
2.92564482 0.64748898 0.00119107 0.00000000
0.88104109 1.55012503 -0.00131019 0.00000000
3.24995861 0.46800777 -0.00355667 0.00000000
1.89244327 0.01280932 -0.00029898 0.00000000
0.49345505 0.06190922 0.00120989 0.00000000
1.17439119 1.25195554 0.00036363 0.00000000
2.45913757 1.83171798 0.00200589 0.00000000
1.94361296 0.13212677 -0.00733382 0.00000000
0.89679674 1.94372176 0.00166365 0.00000000
0.04023273 1.34049784 0.00190088 0.00000000
1.52993579 1.93433699 -0.00037554 0.00000000
3.00041653 1.83844550 0.00384567 0.00000000
1.98810970 0.14352116 -0.00377904 0.00000000
3.95744459 0.64121177 -0.00176964 0.00000000
3.70745688 0.88223437 -0.00062245 0.00000000
0.96245418 1.31918426 -0.00221704 0.00000000
2.19541758 0.98512522 0.00223628 0.00000000
1.35091032 1.19075122 -0.00360800 0.00000000
1.89988392 0.70613088 0.00197141 0.00000000
2.26561359 1.48121669 0.00160132 0.00000000
2.29678416 0.72821055 0.00215693 0.00000000
1.90855951 0.48283184 0.00005834 0.00000000
3.37709879 0.60211922 0.00124738 0.00000000
0.51800609 0.44710100 0.00084126 0.00000000
3.71374062 1.36168901 -0.00128228 0.00000000
0.45165089 1.34726402 0.00035355 0.00000000
0.96011697 0.75120902 -0.00380994 0.00000000
0.20221454 0.57916081 -0.00050752 0.00000000
3.50495108 0.05775379 0.00624831 0.00000000
3.49971056 0.88720189 -0.00301595 0.00000000
2.71049181 0.05212271 0.00275583 0.00000000
0.96473033 1.25058306 -0.00024485 0.00000000
0.60542842 1.74610850 0.00459707 0.00000000
2.11039750 1.02591091 -0.00280120 0.00000000
4.01007154 0.23469908 0.00122564 0.00000000
2.35275368 1.56690706 0.00504956 0.00000000
0.43528877 0.30170441 0.00072545 0.00000000
3.51319290 1.84506367 -0.00193641 0.00000000
3.47577173 0.69103780 0.00130842 0.00000000
1.78084889 0.89970578 0.00111659 0.00000000
0.31024750 1.85822808 0.00041409 0.00000000
0.24204663 0.76250128 0.00206640 0.00000000
2.94687007 0.59118977 -0.00157939 0.00000000
0.84128924 0.83913942 -0.00226536 0.00000000
2.31493957 1.51313348 0.00162793 0.00000000
0.02105325 1.42183848 0.00151925 0.00000000
3.10897714 1.13213100 -0.00891009 0.00000000
2.06745134 1.44046925 0.00010876 0.00000000
3.54195424 1.78996752 -0.00374893 0.00000000
2.65425983 0.84559660 -0.00183589 0.00000000
1.87968716 0.56607771 -0.00458085 0.00000000
3.24404850 1.03355456 -0.00393128 0.00000000
0.63490291 0.54746515 0.00068010 0.00000000
1.41474036 0.44836902 -0.00316383 0.00000000
0.69521139 1.95332517 -0.00006533 0.00000000
3.22946484 0.13463458 0.00092822 0.00000000
1.71478750 1.67690579 -0.00226538 0.00000000
2.02543562 0.56681119 0.00198615 0.00000000
0.03781588 1.81097213 -0.00379674 0.00000000
0.54755073 1.70324786 -0.00529753 0.00000000
2.06956727 1.21284999 0.00356269 0.00000000
1.79122646 1.29219117 -0.00299125 0.00000000
0.90788829 1.19989290 0.00157027 0.00000000
3.33846686 0.05027412 -0.00206984 0.00000000
0.34630892 1.53521964 -0.00082468 0.00000000
1.91918304 0.92458308 0.00178637 0.00000000
2.16840752 1.76773291 0.00005490 0.00000000
3.20448947 1.78516263 0.00076456 0.00000000
3.96530408 0.84420549 -0.00188639 0.00000000
1.22417503 0.08328997 -0.00282740 0.00000000
2.35477771 0.34837786 0.00080862 0.00000000
2.52942134 1.71732466 0.00038041 0.00000000
2.99331580 1.46434343 0.00069580 0.00000000
0.16669571 1.89958670 -0.00274807 0.00000000
1.91644544 1.29512213 0.00030798 0.00000000
2.71110991 1.65330518 -0.00471936 0.00000000
1.99737156 1.58906813 0.00278536 0.00000000
0.16539148 0.22735034 -0.00354324 0.00000000
0.96232394 1.37198098 0.00042183 0.00000000
2.12087133 0.67813189 -0.00216565 0.00000000
0.68126626 1.00174621 -0.00135543 0.00000000
0.86025862 1.78912145 -0.00085297 0.00000000
1.78456251 0.77945022 0.00010035 0.00000000
0.42578379 0.50490474 0.00147600 0.00000000
2.14762865 0.05431160 0.00200866 0.00000000
2.82281473 0.09607462 -0.00303306 0.00000000
3.45272661 1.50884358 0.00243184 0.00000000
0.34187639 0.58901352 -0.00033715 0.00000000
2.81656670 0.83412791 0.00342257 0.00000000
2.16761627 0.81277025 0.00324321 0.00000000
1.50039438 0.39883128 -0.00240420 0.00000000
3.94950003 0.84412910 -0.00115146 0.00000000
3.17011161 0.30359819 0.00012148 0.00000000
2.77117297 1.23617016 -0.00084913 0.00000000
2.29263738 0.18264878 0.00009131 0.00000000
1.70615984 1.09043855 -0.00026554 0.00000000
0.40885772 1.18952449 0.00338175 0.00000000
0.79384170 1.04869103 -0.00129474 0.00000000
2.02403813 1.94951088 -0.00048410 0.00000000
2.67560573 0.51910933 0.00180765 0.00000000
1.21839945 0.04028562 -0.00022488 0.00000000
2.69054461 1.69265203 0.00180497 0.00000000
2.60065791 0.76639680 0.00349633 0.00000000
3.90061720 1.47742698 -0.00066877 0.00000000
1.80340899 0.70106025 -0.00304586 0.00000000
3.08110606 0.73554423 0.00355923 0.00000000
1.25664489 1.46076854 -0.00129420 0.00000000
2.25266018 0.31442780 -0.00210891 0.00000000
1.68170956 1.74394062 -0.00187471 0.00000000
2.76977353 1.42457724 -0.00010931 0.00000000
3.96278102 1.71914743 -0.00056196 0.00000000
0.89402971 1.74570705 -0.00285965 0.00000000
1.12560675 1.13282481 -0.00166428 0.00000000
2.45203247 0.27114865 -0.00231668 0.00000000
3.98263191 1.89217068 -0.00014101 0.00000000
3.11192591 1.88597993 -0.00047953 0.00000000
1.50705219 1.91738174 0.00056406 0.00000000
3.06710141 1.89293234 0.00164002 0.00000000
0.55455625 0.27966674 -0.00136426 0.00000000
3.29019499 0.64617539 -0.00090133 0.00000000
2.87482652 1.17660052 -0.00190305 0.00000000
1.55435034 1.69009373 0.00196923 0.00000000
1.76083639 0.00944336 0.00158224 0.00000000
1.12826790 1.30927401 -0.00440801 0.00000000
2.67994459 1.63947096 -0.00067833 0.00000000
2.45991173 0.19673535 0.00032613 0.00000000
1.55082506 0.53728058 -0.00172259 0.00000000
0.59245772 0.63098186 -0.00255337 0.00000000
3.24376551 1.95980973 0.00434616 0.00000000
2.62198730 0.16303698 -0.00417105 0.00000000
1.33687201 1.62822583 0.00249885 0.00000000
2.12905406 0.37028154 0.00071701 0.00000000
1.40308983 0.32973996 -0.00006907 0.00000000
2.30564589 1.69865218 0.00042560 0.00000000
0.91835590 0.24487058 -0.00134511 0.00000000
1.78602296 0.28001022 0.00116152 0.00000000
3.29166887 0.15021405 0.00118472 0.00000000
0.97634989 0.39665783 -0.00006853 0.00000000
0.14575560 1.29083410 0.00490086 0.00000000
1.78465437 0.88810356 -0.00023251 0.00000000
1.30424094 1.65942835 0.00549153 0.00000000
2.17680509 0.18061570 0.00449070 0.00000000
2.47544125 0.15572392 -0.00032069 0.00000000
3.65229775 0.92244523 0.00022605 0.00000000
3.47198230 1.73536747 0.00053736 0.00000000
2.37638626 1.80189025 0.00061041 0.00000000
2.01255294 1.02251587 -0.00222193 0.00000000
1.94881061 0.95394102 0.00168458 0.00000000
3.97295486 1.30773596 0.00206983 0.00000000
3.08356062 1.14222886 -0.00124132 0.00000000
2.00940157 0.32293319 0.00143935 0.00000000
3.72854066 0.52075479 -0.00047157 0.00000000
2.01554727 1.47986353 0.00220353 0.00000000
3.97376628 0.04236659 -0.00196876 0.00000000
2.51154641 1.70078282 -0.00783006 0.00000000
2.73282131 1.35748487 -0.00258932 0.00000000
2.85685327 1.18610398 0.00086578 0.00000000
0.29342137 0.81551941 0.00043575 0.00000000
2.19616408 0.92384230 -0.00134310 0.00000000
1.15016944 0.20758397 0.00243080 0.00000000
0.83769065 0.54505598 0.00255469 0.00000000
1.85762090 1.76109683 -0.00175771 0.00000000
0.77585021 0.10852789 -0.00121499 0.00000000
1.83385226 1.36110082 0.00112497 0.00000000
2.16252095 0.90650818 0.00122908 0.00000000
2.86487485 0.21793534 -0.00744897 0.00000000
1.34138707 0.40878748 -0.00088144 0.00000000
2.64880860 1.51930731 0.00219546 0.00000000
1.41516288 0.54324064 0.00256423 0.00000000
1.47103428 1.07936401 -0.00269871 0.00000000
0.31993152 1.65653129 0.00023165 0.00000000
1.31737036 1.21082704 -0.00167784 0.00000000
3.31415831 0.22264699 0.00026863 0.00000000
0.81196749 0.61778694 0.00161998 0.00000000
3.32880199 0.58297704 -0.00231089 0.00000000
2.46414795 0.26518955 -0.00261767 0.00000000
0.28891916 1.01885051 -0.00013531 0.00000000
0.48172066 1.50017546 0.00186036 0.00000000
2.38823735 1.34380626 -0.00028431 0.00000000
0.41219048 1.85647681 0.00211009 0.00000000
2.92473171 0.68596178 0.00111127 0.00000000
3.20726975 1.12218978 0.00051685 0.00000000
1.95690980 0.25053356 -0.00471044 0.00000000
2.84351077 0.64728112 -0.00169632 0.00000000
1.18489563 0.82492727 0.00063890 0.00000000
3.05725413 1.18336013 -0.00439988 0.00000000
1.57457393 1.11132402 0.00189827 0.00000000
3.55536801 0.38525725 0.00263209 0.00000000
3.24892892 0.86347746 0.00238259 0.00000000
1.46171826 0.29781081 0.00310061 0.00000000
2.63259247 1.45528730 0.00273661 0.00000000
3.88484247 0.56758854 -0.00341060 0.00000000
1.42447855 0.79450673 -0.00262774 0.00000000
1.16113263 0.88405435 -0.00213231 0.00000000
2.13550897 0.92814647 -0.00079123 0.00000000
3.12307389 1.06705949 0.00035599 0.00000000
0.69708205 0.00368783 -0.00363240 0.00000000
2.81268085 0.26154976 -0.00015044 0.00000000
1.34876336 0.39462475 0.00279278 0.00000000
3.35751101 0.05845495 0.00183203 0.00000000
3.79766935 1.26661601 0.00171009 0.00000000
1.64027887 1.74257015 0.00304592 0.00000000
