2.242125 1.080510 -0.002882 0.0
1.502225 1.908037 -0.002643 0.0
1.222214 1.290799 -0.001145 0.0
1.525983 1.620857 0.002754 0.0
4.069885 1.166660 0.000454 0.0
1.333322 1.682101 -0.001918 0.0
0.740423 0.216939 -0.000818 0.0
1.536669 2.002487 0.002935 0.0
1.128542 1.869328 0.001852 0.0
0.893546 0.449766 0.003112 0.0
3.125884 1.600392 0.000713 0.0
1.343771 1.478706 -0.006467 0.0
0.805718 1.569014 0.001125 0.0
2.571912 1.870124 -0.002907 0.0
3.314914 1.726405 0.003037 0.0
0.362090 0.648733 0.002713 0.0
2.506349 0.543860 -0.000197 0.0
2.535137 1.601308 0.002774 0.0
4.269271 0.924902 -0.000019 0.0
3.479461 0.321102 -0.004920 0.0
1.908829 1.338049 -0.002254 0.0
3.219499 0.502072 0.001168 0.0
1.486380 0.012053 0.001036 0.0
2.084672 0.757183 0.001214 0.0
3.055714 1.731007 0.000818 0.0
3.374229 0.141152 0.002472 0.0
1.452337 1.193246 0.000434 0.0
0.004186 1.442467 0.000211 0.0
1.884110 0.390957 0.002258 0.0
3.391476 1.431120 0.003027 0.0
1.639016 1.881769 -0.002743 0.0
3.647670 1.874808 0.004125 0.0
3.917660 1.613731 0.001250 0.0
1.374377 1.568535 -0.000154 0.0
3.416828 0.630036 -0.001454 0.0
0.295225 1.201326 0.004789 0.0
2.870506 1.517390 0.002888 0.0
1.414188 1.954888 -0.000106 0.0
0.466513 1.491681 0.001830 0.0
1.566007 0.794985 -0.003024 0.0
2.249991 0.136350 -0.001424 0.0
4.082569 1.651343 -0.001176 0.0
0.936473 1.625607 0.000947 0.0
2.015257 1.380475 -0.000370 0.0
0.454551 2.008069 0.002613 0.0
4.096934 1.314350 -0.002921 0.0
0.967881 0.431320 0.000903 0.0
1.482001 0.203696 -0.002639 0.0
3.850551 0.215746 0.000505 0.0
1.802514 0.759462 0.002730 0.0
0.378254 1.221008 0.003695 0.0
0.213452 1.346416 0.001959 0.0
3.785327 0.253011 0.007051 0.0
0.827960 1.783382 0.004588 0.0
2.198328 1.063492 -0.002649 0.0
2.469795 0.443790 0.002600 0.0
1.529050 0.006976 -0.001502 0.0
2.711404 1.222918 -0.001104 0.0
4.005288 0.167448 -0.000184 0.0
0.147810 0.642860 -0.002046 0.0
3.972301 0.186982 -0.004827 0.0
2.142500 0.029300 -0.002451 0.0
3.427163 0.292511 0.001468 0.0
3.202747 0.653303 0.003457 0.0
4.153739 0.043064 0.003971 0.0
2.016792 1.495748 0.000584 0.0
1.682381 1.980332 0.004252 0.0
0.307190 0.143237 -0.002119 0.0
1.817353 0.468231 -0.001040 0.0
0.124095 0.662869 0.001763 0.0
4.081875 1.845653 0.003620 0.0
2.491885 1.937992 -0.001245 0.0
0.263148 1.625407 -0.001505 0.0
3.589549 0.468209 -0.000400 0.0
4.090021 0.559700 0.001471 0.0
1.797526 0.576146 0.006473 0.0
3.080105 1.555012 -0.003260 0.0
2.077271 1.514217 0.000139 0.0
4.095074 1.500428 0.003258 0.0
0.876444 0.649303 -0.000293 0.0
0.173243 0.270568 -0.000635 0.0
1.813061 0.460808 -0.001098 0.0
1.349546 0.266293 -0.002624 0.0
0.472859 1.055822 0.006238 0.0
3.706097 0.325490 0.001377 0.0
0.842359 1.341024 0.002592 0.0
0.141017 0.244559 0.004311 0.0
3.994867 0.356849 0.003722 0.0
0.114568 0.821567 -0.003555 0.0
2.396899 0.248614 -0.004280 0.0
0.675065 0.574203 -0.001217 0.0
1.676315 1.758839 0.001367 0.0
3.589975 0.898122 0.001688 0.0
1.041472 1.688545 0.001714 0.0
2.134636 0.695447 0.005938 0.0
2.207961 0.736554 0.000348 0.0
2.492397 1.975711 0.001965 0.0
1.622314 1.875763 -0.002823 0.0
2.905446 0.912494 -0.002881 0.0
3.287188 1.847963 -0.000403 0.0
1.976505 0.000728 -0.001707 0.0
3.175519 1.660059 0.001518 0.0
3.582979 1.644546 0.002604 0.0
2.646881 0.373516 -0.003628 0.0
1.017177 1.098035 -0.002654 0.0
3.573841 0.449150 -0.000643 0.0
1.987889 0.876525 -0.001210 0.0
3.176135 0.643947 0.000666 0.0
1.408111 0.687630 -0.005876 0.0
2.796974 0.023151 -0.000679 0.0
0.533447 1.383685 -0.003532 0.0
4.085888 1.847257 0.000464 0.0
2.639534 1.685448 -0.002683 0.0
2.858460 0.091990 0.000616 0.0
1.735227 0.201719 0.001167 0.0
2.572510 0.422722 -0.004588 0.0
2.979674 1.071495 0.001164 0.0
1.378490 1.840947 0.002267 0.0
4.016779 0.147219 -0.004008 0.0
1.136325 0.511123 -0.001400 0.0
2.055916 1.004445 0.001087 0.0
3.944845 1.442148 0.001234 0.0
2.416454 0.451171 0.000070 0.0
2.711439 1.991437 -0.001346 0.0
1.906888 0.743255 0.004343 0.0
2.988078 0.876424 -0.002032 0.0
2.580007 0.280716 -0.000532 0.0
0.862978 0.156871 0.004298 0.0
4.026226 0.304841 0.001420 0.0
0.192893 1.288863 0.001523 0.0
3.230756 1.708921 -0.005785 0.0
4.148634 1.611856 -0.004220 0.0
3.885196 0.754710 -0.002246 0.0
3.293438 1.907016 -0.000301 0.0
1.493695 0.049709 -0.000328 0.0
0.830315 1.402151 -0.001686 0.0
2.872378 1.730985 -0.000097 0.0
1.099929 0.321221 -0.003419 0.0
0.252295 1.140637 -0.001235 0.0
3.117550 0.975953 -0.000754 0.0
2.483393 0.082463 0.002321 0.0
2.201403 0.981619 -0.001547 0.0
1.720950 0.857411 -0.002064 0.0
2.922320 0.447850 0.004841 0.0
4.216728 0.168721 -0.002217 0.0
3.411684 1.209112 -0.000900 0.0
3.075726 1.267579 0.000846 0.0
2.980743 0.507740 0.001120 0.0
0.785829 1.809109 -0.001349 0.0
1.872491 0.136396 0.002613 0.0
0.125086 0.669297 0.000387 0.0
1.544492 0.174022 -0.001983 0.0
0.979213 1.803543 -0.001547 0.0
0.386895 0.533468 -0.001436 0.0
2.340982 0.183307 0.001217 0.0
3.871550 1.440979 -0.000755 0.0
1.089350 1.824925 -0.001481 0.0
4.042897 0.132317 0.003693 0.0
3.832742 0.984685 0.003852 0.0
0.185119 0.945067 -0.000607 0.0
0.939484 1.356916 -0.002954 0.0
0.257318 1.269884 -0.001930 0.0
3.717219 1.803933 0.002942 0.0
1.545708 1.726072 -0.001507 0.0
0.056059 0.798504 -0.001967 0.0
1.324358 1.447001 0.001356 0.0
3.435812 1.141744 -0.002068 0.0
1.070059 1.719707 0.000603 0.0
2.057723 1.765623 0.002940 0.0
3.786541 0.494523 0.000100 0.0
0.478350 0.219618 -0.001453 0.0
2.701033 0.301151 -0.001049 0.0
1.839589 0.314596 0.003618 0.0
3.738725 0.735490 -0.002226 0.0
2.613950 1.863337 -0.000622 0.0
3.836753 0.217260 -0.001757 0.0
3.226038 0.236695 0.002946 0.0
3.679585 0.021180 -0.001603 0.0
2.439184 1.467118 0.000978 0.0
3.456712 0.908898 0.000427 0.0
1.013491 0.548516 -0.003426 0.0
2.240054 1.788338 -0.003269 0.0
3.844757 0.950271 0.002664 0.0
4.239566 1.841478 0.000464 0.0
1.560983 1.025683 -0.003211 0.0
1.094212 1.331365 -0.003185 0.0
0.873559 1.732272 -0.000070 0.0
4.129231 1.497865 -0.001596 0.0
0.262246 1.410572 -0.002737 0.0
1.813118 1.704790 -0.006307 0.0
1.694438 0.365835 0.001002 0.0
0.908054 1.554477 -0.001348 0.0
0.537244 1.604413 0.003624 0.0
1.088170 0.388232 0.003226 0.0
0.618028 1.467408 0.000243 0.0
3.420672 0.793682 -0.000233 0.0
0.278406 1.666093 0.000036 0.0
2.738008 0.603661 0.000618 0.0
3.008762 0.245624 -0.002356 0.0
0.617476 1.014609 0.002008 0.0
4.072957 1.601069 -0.000845 0.0
3.699704 1.287212 0.000736 0.0
0.053848 1.290866 -0.000716 0.0
3.537573 1.819992 -0.001666 0.0
2.716345 -0.000205 0.002825 0.0
3.293073 0.700674 0.000802 0.0
2.398895 1.619435 0.004004 0.0
0.067568 0.168725 -0.000498 0.0
2.724187 1.323264 0.001260 0.0
2.409648 1.595110 -0.000701 0.0
2.251815 0.133951 0.001843 0.0
3.701520 1.407312 0.001762 0.0
0.393327 0.855668 0.000407 0.0
0.843911 1.959565 0.000430 0.0
3.218091 0.404277 0.000070 0.0
3.847060 1.633376 -0.000971 0.0
3.219434 0.687962 0.001052 0.0
1.675286 1.121167 0.001893 0.0
3.827275 1.225707 -0.003291 0.0
2.743506 0.595189 0.001576 0.0
4.146869 0.948668 -0.001026 0.0
3.905747 0.179712 0.003135 0.0
3.475896 1.253579 0.000623 0.0
2.280361 1.415577 -0.000359 0.0
2.925152 0.381072 -0.000382 0.0
2.558272 0.296142 0.002088 0.0
3.113632 0.832372 -0.000301 0.0
1.984770 1.253335 0.001627 0.0
2.210554 0.618221 -0.003201 0.0
1.617688 0.507593 -0.000125 0.0
1.760443 1.084207 -0.004873 0.0
2.895597 1.503752 -0.003701 0.0
0.639103 1.920407 0.005581 0.0
1.902097 0.394133 -0.002217 0.0
1.536204 1.458002 -0.000132 0.0
3.555924 1.453927 -0.000867 0.0
0.696346 0.130798 0.002478 0.0
3.152047 1.596606 -0.001249 0.0
0.711369 0.764669 -0.003803 0.0
2.763328 1.080038 0.000372 0.0
2.092456 1.537763 0.004691 0.0
1.421476 1.007465 -0.002494 0.0
1.041282 1.652552 0.005337 0.0
1.022623 1.491377 0.000456 0.0
2.282020 1.916806 0.000179 0.0
3.055833 0.875587 -0.001971 0.0
3.246620 1.294864 0.000906 0.0
1.355250 1.652193 -0.001402 0.0
3.479805 0.976255 -0.003429 0.0
3.463961 1.513778 -0.000325 0.0
0.670698 1.993678 0.001088 0.0
1.307191 0.890308 -0.003981 0.0
4.134100 0.587547 0.004835 0.0
0.040847 0.473562 0.003448 0.0
2.024525 1.535276 0.001234 0.0
3.665911 0.505666 -0.000569 0.0
3.355721 0.733801 0.000422 0.0
0.101642 0.834451 0.001597 0.0
2.311562 1.879589 0.002071 0.0
1.902108 1.054729 -0.001677 0.0
1.041609 0.340359 0.003943 0.0
3.989413 1.795610 0.000312 0.0
4.084889 1.464201 0.003268 0.0
2.508924 1.916021 -0.000101 0.0
2.552592 1.063216 -0.001610 0.0
4.058162 0.820010 -0.000799 0.0
0.679414 0.212422 0.002804 0.0
2.606987 0.403167 -0.001137 0.0
0.988745 1.296649 0.000858 0.0
3.897298 1.341928 0.001530 0.0
0.892147 1.422693 -0.000921 0.0
1.477068 0.696589 -0.001000 0.0
3.966279 0.021811 0.000534 0.0
0.681782 1.428165 -0.001576 0.0
4.215987 1.990967 0.000857 0.0
1.840509 1.475359 -0.002932 0.0
4.206620 1.899237 -0.003538 0.0
0.973666 1.671787 -0.001087 0.0
3.939700 0.494488 0.002995 0.0
0.612920 1.593027 0.002880 0.0
3.661961 1.362542 -0.001077 0.0
3.490296 1.046539 -0.001537 0.0
3.278357 1.781479 -0.000543 0.0
1.274536 1.979364 0.003016 0.0
3.855568 0.649826 -0.003765 0.0
4.023007 1.865072 -0.003068 0.0
3.673327 1.411592 0.003033 0.0
0.630673 1.268856 -0.001770 0.0
0.794928 0.617889 -0.001850 0.0
0.801224 1.431099 0.001833 0.0
0.328463 1.301173 0.002435 0.0
2.035255 0.158451 0.002465 0.0
1.923013 1.376579 0.003907 0.0
4.061586 1.598040 -0.002300 0.0
1.725909 1.226678 -0.000428 0.0
1.681637 1.751506 -0.000375 0.0
3.710529 0.623477 0.003352 0.0
1.462681 1.553066 0.002874 0.0
1.400962 0.456269 0.001567 0.0
3.526059 0.327149 -0.004576 0.0
0.385453 0.764493 0.000211 0.0
3.394973 0.160157 0.000817 0.0
2.882821 1.611530 -0.002343 0.0
1.370116 0.985173 0.002699 0.0
1.838997 0.709460 0.002375 0.0
4.154265 1.503039 -0.001047 0.0
3.756320 0.045243 -0.000659 0.0
1.140125 0.654904 0.002230 0.0
3.611782 0.434733 -0.000290 0.0
0.994560 1.738405 0.002621 0.0
3.656995 1.355480 0.001438 0.0
1.483568 0.056290 -0.002640 0.0
2.877282 0.552167 0.000740 0.0
4.248437 1.842143 0.001135 0.0
2.950982 0.526827 0.000448 0.0
4.018847 1.430273 -0.003922 0.0
0.427620 0.243197 -0.002340 0.0
0.643920 0.868664 0.001178 0.0
2.512071 1.384822 -0.004026 0.0
2.540615 0.219172 -0.001415 0.0
3.779295 0.322856 -0.000730 0.0
0.278916 1.118376 0.002230 0.0
3.795912 1.951987 0.001873 0.0
2.712476 0.091375 -0.002077 0.0
4.264604 1.792197 -0.003540 0.0
3.898807 1.558876 -0.000892 0.0
0.580323 1.040783 -0.001768 0.0
3.448829 1.530117 -0.004136 0.0
1.252212 0.544557 0.000704 0.0
1.507239 0.959396 -0.000283 0.0
2.950424 0.087296 -0.000743 0.0
1.724825 0.279061 -0.001954 0.0
3.851936 1.364321 0.004451 0.0
0.073897 0.436516 0.002639 0.0
4.186972 0.886473 0.002944 0.0
2.762781 1.335532 -0.000404 0.0
3.791091 1.298398 0.001849 0.0
3.303387 0.694492 0.000048 0.0
2.682390 1.830961 0.000468 0.0
1.980764 1.533593 -0.001374 0.0
2.088666 1.871492 0.003794 0.0
2.287791 0.909708 0.004666 0.0
3.179324 1.649134 0.001540 0.0
1.715750 1.819015 -0.001688 0.0
2.984608 0.247034 -0.004655 0.0
0.987753 0.459248 -0.000432 0.0
2.471820 0.979753 0.000788 0.0
2.175781 0.475336 -0.000610 0.0
1.507193 1.075940 -0.001341 0.0
2.128338 1.060610 -0.002246 0.0
4.164800 1.943514 -0.000977 0.0
2.743236 1.169588 0.000001 0.0
3.865163 1.546974 -0.002845 0.0
3.639050 0.636564 0.001572 0.0
3.421462 0.093884 -0.000665 0.0
0.799602 1.182857 -0.001198 0.0
3.851944 1.594105 -0.000612 0.0
2.036327 0.479638 -0.002729 0.0
2.077513 1.907184 0.003201 0.0
2.461308 1.133908 -0.001357 0.0
2.763810 0.105507 0.002380 0.0
2.655454 1.380705 -0.001182 0.0
0.681084 1.592071 -0.003282 0.0
0.697305 1.804124 0.002587 0.0
4.268884 1.886602 0.001760 0.0
3.412505 1.886277 0.000373 0.0
3.765526 0.309854 -0.001304 0.0
3.965890 1.517307 -0.001924 0.0
1.925997 1.126418 -0.000914 0.0
4.124962 0.984694 -0.000239 0.0
4.225356 1.398878 0.000958 0.0
4.216951 1.352643 -0.000353 0.0
2.884601 1.060454 -0.000710 0.0
1.069870 0.667718 0.000146 0.0
1.676941 0.026400 -0.001693 0.0
0.977145 1.596575 -0.002967 0.0
0.959602 1.544003 -0.001097 0.0
1.097275 0.285460 0.002587 0.0
4.126077 1.127114 0.001039 0.0
3.727716 0.403497 -0.006329 0.0
0.106373 0.460875 -0.001680 0.0
2.358206 1.200275 -0.001826 0.0
2.832030 0.054982 0.000632 0.0
1.540142 0.584802 0.000092 0.0
4.212618 0.639704 -0.000217 0.0
2.732217 1.938953 0.000956 0.0
1.563162 1.660098 0.000424 0.0
2.335215 1.945243 -0.000479 0.0
2.242637 0.523753 0.000121 0.0
2.756445 1.977447 -0.001045 0.0
3.894583 1.791655 0.003239 0.0
2.575173 1.844001 -0.002632 0.0
3.315504 0.289426 0.002035 0.0
3.045303 1.668486 0.001372 0.0
3.854880 1.901113 -0.003684 0.0
1.040459 1.574545 0.001979 0.0
0.255237 1.624059 -0.000060 0.0
4.247196 0.946829 0.004554 0.0
2.878754 1.868746 -0.001245 0.0
4.026016 1.232075 -0.002856 0.0
0.004418 0.233617 -0.002023 0.0
1.892504 0.729511 -0.000568 0.0
3.557100 1.492623 -0.003233 0.0
4.206830 0.345061 0.001254 0.0
1.252122 0.221350 0.001193 0.0
3.739100 0.062332 0.001402 0.0
4.181846 1.909401 -0.002220 0.0
2.305022 1.053620 -0.002848 0.0
0.491451 1.561068 0.002095 0.0
3.274983 0.364476 0.004656 0.0
2.799854 0.935312 0.000482 0.0
1.926292 0.673929 0.001543 0.0
0.698208 1.368384 0.000410 0.0
0.765881 0.842635 0.000349 0.0
2.676576 0.411157 -0.001025 0.0
1.543759 1.402062 0.002871 0.0
2.130584 1.307045 0.001753 0.0
0.268413 1.183947 0.000452 0.0
2.219652 0.400184 0.001005 0.0
0.457225 0.396028 -0.002834 0.0
0.159641 1.351263 -0.003634 0.0
3.814630 0.738931 -0.004218 0.0
2.426499 1.482253 -0.002020 0.0
2.549652 0.926292 0.001671 0.0
2.216387 0.375851 0.003282 0.0
0.845035 1.183439 0.001736 0.0
0.126838 0.828925 0.001767 0.0
3.269644 0.940030 -0.001135 0.0
3.506437 0.295935 0.003022 0.0
0.742563 1.328219 0.001575 0.0
0.750642 1.486680 0.004834 0.0
3.983570 1.683768 0.004067 0.0
2.730780 0.212458 0.002502 0.0
2.082057 1.799369 0.003457 0.0
1.951633 0.219918 0.004082 0.0
2.303931 0.716605 0.001192 0.0
2.144948 1.046895 -0.002920 0.0
2.444462 0.184467 -0.000894 0.0
0.734295 1.614209 0.002434 0.0
2.147463 0.620834 -0.004870 0.0
2.379653 0.842217 0.000532 0.0
0.620097 1.973735 0.003498 0.0
0.667391 0.344798 0.000359 0.0
2.710418 0.740319 0.000585 0.0
4.061588 0.392550 -0.001632 0.0
0.851036 0.415383 -0.002762 0.0
2.981497 0.301990 -0.006387 0.0
0.747923 0.548240 -0.001186 0.0
3.296855 0.294095 -0.000698 0.0
0.706485 0.233329 0.002536 0.0
4.158011 0.169989 -0.000501 0.0
0.949400 0.410827 -0.001465 0.0
1.230422 1.374354 0.001195 0.0
0.642778 0.787227 -0.003094 0.0
0.334387 1.660325 0.000489 0.0
3.441085 0.874976 0.000887 0.0
0.977638 0.375143 -0.004558 0.0
2.025613 0.335229 -0.003427 0.0
3.790025 0.888604 -0.001455 0.0
0.420236 0.141644 -0.001455 0.0
2.886363 1.400512 0.004018 0.0
0.111008 1.294933 0.002180 0.0
4.193769 0.826075 0.000257 0.0
4.014213 1.577350 -0.001525 0.0
2.730612 1.140567 -0.003265 0.0
4.250222 1.573902 -0.002756 0.0
3.169331 1.410199 0.000873 0.0
3.920199 1.989089 -0.002067 0.0
1.787395 0.164837 -0.000093 0.0
3.505563 0.421049 0.002307 0.0
2.335988 0.814292 0.002543 0.0
3.018694 0.206277 0.001016 0.0
2.792636 1.815443 -0.000243 0.0
0.315947 1.319133 0.000525 0.0
1.396133 0.127974 0.002725 0.0
1.659834 0.741876 -0.002413 0.0
0.999960 1.748283 0.001005 0.0
1.235925 0.088183 -0.000591 0.0
2.843254 0.964983 -0.003126 0.0
2.355808 0.378123 -0.001035 0.0
0.791902 1.738174 -0.004412 0.0
3.844591 0.541135 -0.001680 0.0
0.940692 0.003991 0.000962 0.0
2.203586 1.629527 0.000901 0.0
3.894532 1.958753 0.002874 0.0
0.550022 1.121535 -0.000323 0.0
0.544572 1.835864 0.002692 0.0
0.324468 0.165511 0.000074 0.0
0.409161 1.725199 -0.001742 0.0
1.854953 0.787695 0.002607 0.0
3.130153 0.014787 -0.002054 0.0
1.569476 1.432285 0.002264 0.0
0.433066 0.898631 0.000509 0.0
3.276446 0.353651 -0.001268 0.0
2.850572 1.131151 -0.001279 0.0
3.323529 0.917307 0.000699 0.0
0.468390 1.163441 -0.001344 0.0
4.079434 1.931732 0.000627 0.0
1.393166 1.676696 -0.000174 0.0
2.676901 0.091101 -0.001416 0.0
0.391845 1.832376 0.000718 0.0
0.154530 0.025446 0.000054 0.0
3.080198 1.883959 -0.000702 0.0
4.121214 1.380259 0.001957 0.0
3.256230 0.021038 -0.004160 0.0
3.769587 0.176491 0.002958 0.0
1.240634 0.271610 0.000272 0.0
0.883921 1.954938 -0.003605 0.0
3.480367 0.522572 0.002169 0.0
0.534399 1.447676 0.003366 0.0
2.458128 1.712042 0.003838 0.0
1.022856 1.958065 -0.004253 0.0
3.272189 0.386528 0.001670 0.0
1.368709 0.724875 -0.001378 0.0
0.864554 1.249408 -0.001792 0.0
0.870849 0.586369 -0.004330 0.0
3.265635 0.399114 0.001334 0.0
3.205492 0.339685 0.000235 0.0
0.123970 0.475662 -0.000920 0.0
2.692292 0.528167 0.004183 0.0
2.898218 1.177200 0.000061 0.0
1.863914 1.663611 0.002518 0.0
3.707037 0.291786 -0.000368 0.0
4.234200 0.935196 -0.000061 0.0
2.475497 1.712871 -0.001261 0.0
2.582615 1.125398 0.000631 0.0
2.129198 0.147181 0.000442 0.0
3.187289 1.627295 0.007255 0.0
3.597197 1.918112 0.001095 0.0
3.786742 1.617010 0.001181 0.0
3.684375 2.014479 0.001234 0.0
3.385363 1.870340 -0.001769 0.0
4.199919 0.257404 -0.003424 0.0
2.529052 0.496417 0.001039 0.0
2.144456 0.597797 -0.001045 0.0
3.957679 0.439542 0.004263 0.0
2.480855 1.621469 0.000684 0.0
2.355567 1.054299 0.001992 0.0
1.371651 1.279015 0.000368 0.0
2.311095 0.048299 0.000629 0.0
3.714403 1.806286 0.003901 0.0
0.484058 1.454431 -0.002741 0.0
1.017503 0.409672 -0.002330 0.0
0.681634 1.773429 -0.001609 0.0
1.357623 1.191947 -0.000481 0.0
0.116991 0.243037 -0.000130 0.0
3.473824 1.970147 0.005497 0.0
1.507266 0.421901 0.001066 0.0
0.835700 1.165643 0.002296 0.0
3.834925 1.187305 -0.003159 0.0
0.589977 0.003271 0.004019 0.0
1.967822 1.346406 -0.002277 0.0
1.235056 1.390469 -0.000546 0.0
3.770340 1.073890 -0.000676 0.0
0.559569 1.118290 -0.003204 0.0
1.939953 0.770459 0.001660 0.0
3.992332 1.933954 0.006303 0.0
4.183836 0.826853 0.002400 0.0
4.228239 1.564639 -0.005044 0.0
4.163582 0.400367 -0.003237 0.0
1.802691 1.562142 -0.003536 0.0
0.770830 1.562385 0.003326 0.0
1.736413 0.082954 0.000653 0.0
2.157690 1.583256 -0.002824 0.0
1.011540 1.570953 0.003340 0.0
2.851687 0.940810 0.002726 0.0
2.788749 0.317852 0.002060 0.0
3.332748 0.180779 -0.001015 0.0
2.793876 0.141532 -0.000247 0.0
3.671477 1.548033 0.000424 0.0
0.920608 0.806978 0.002522 0.0
3.122283 0.298635 0.002001 0.0
0.061103 0.677350 -0.001066 0.0
0.501650 1.842846 0.003246 0.0
3.167778 0.339909 -0.000896 0.0
1.803715 1.607701 -0.004789 0.0
2.201123 1.365818 0.000080 0.0
4.067162 1.265049 -0.002011 0.0
3.389071 0.139194 -0.001594 0.0
2.123118 0.966001 0.001361 0.0
3.602619 0.105710 0.001745 0.0
1.561148 0.120113 0.002172 0.0
2.954953 1.605224 -0.002127 0.0
1.204110 1.173850 -0.001718 0.0
4.187697 1.623726 0.000788 0.0
0.099038 0.471871 0.001978 0.0
2.084088 0.023331 -0.003169 0.0
2.976593 0.374469 0.000868 0.0
0.998370 1.821007 -0.001517 0.0
1.142136 1.388910 0.001926 0.0
3.798372 1.841208 -0.001674 0.0
1.580438 0.751561 0.001427 0.0
2.282777 0.611841 0.001277 0.0
3.353200 1.564204 0.005331 0.0
1.339018 0.060834 -0.000149 0.0
3.624106 0.683664 0.002318 0.0
2.425007 0.272565 0.003357 0.0
3.779689 1.364794 0.001121 0.0
2.366139 0.498858 -0.001424 0.0
1.141762 1.294540 -0.002166 0.0
2.225621 0.131125 -0.001017 0.0
2.491838 1.845979 0.003633 0.0
2.090562 0.264036 -0.000105 0.0
3.473137 1.910243 0.000589 0.0
2.494835 1.427871 0.003362 0.0
2.439676 1.554173 -0.000268 0.0
2.082892 1.727261 0.000961 0.0
3.570734 1.864110 0.004221 0.0
2.222314 1.007114 -0.001018 0.0
3.189969 0.979653 -0.003370 0.0
3.553529 0.842444 -0.002850 0.0
2.778457 1.260536 0.001312 0.0
4.169701 1.228922 -0.003470 0.0
2.758291 1.634952 0.003191 0.0
3.358709 1.276440 0.000873 0.0
3.398053 0.040242 -0.001306 0.0
1.515612 0.118470 0.008392 0.0
1.054471 0.462759 0.001060 0.0
0.511823 0.589634 0.000139 0.0
0.173280 0.444853 -0.002586 0.0
3.330876 1.247630 0.000758 0.0
2.609200 1.773419 -0.000244 0.0
1.837739 0.425164 -0.000307 0.0
1.241470 1.420753 0.002513 0.0
3.568849 0.944228 -0.001786 0.0
1.612096 1.092264 -0.002520 0.0
0.475508 2.013306 0.000345 0.0
0.848018 1.081577 -0.004921 0.0
2.743163 0.618734 0.004931 0.0
1.841826 0.107808 -0.001447 0.0
2.676205 1.736034 -0.003486 0.0
2.503663 1.793946 -0.000050 0.0
2.355072 0.861744 0.002144 0.0
2.676637 0.297667 -0.004297 0.0
3.055111 1.624758 0.001954 0.0
4.249021 1.900582 0.002127 0.0
0.305209 0.529759 -0.004038 0.0
1.703940 0.792740 0.001529 0.0
1.940764 0.463845 -0.000558 0.0
0.226169 0.817433 0.004664 0.0
0.538962 0.490150 0.001402 0.0
3.125691 0.625857 0.002284 0.0
0.651453 0.821727 -0.002872 0.0
2.415804 0.503477 -0.002774 0.0
3.085571 0.987278 -0.002204 0.0
1.985668 0.721131 -0.002227 0.0
1.789119 1.985754 0.000972 0.0
0.227061 1.666353 -0.001303 0.0
0.411108 1.206632 -0.002993 0.0
3.978657 0.531491 0.000261 0.0
0.698754 1.378853 -0.001230 0.0
3.153857 0.236078 -0.001389 0.0
3.545026 1.282913 -0.000604 0.0
0.028433 1.011200 -0.003595 0.0
1.597239 0.180609 -0.000976 0.0
3.143115 0.386137 0.002646 0.0
3.846606 0.123551 -0.002496 0.0
0.295318 0.461857 0.000997 0.0
3.343298 1.214336 -0.001920 0.0
3.918140 0.095469 0.001539 0.0
3.124335 1.860238 -0.001865 0.0
0.343426 1.678016 0.001588 0.0
0.224956 0.665074 0.000109 0.0
1.727952 1.514935 0.003825 0.0
2.239080 0.357542 -0.003177 0.0
1.369762 1.743224 0.000557 0.0
3.387681 0.877063 -0.000327 0.0
4.196769 0.064462 0.003547 0.0
3.838549 2.000229 -0.000071 0.0
3.561179 1.202570 0.004226 0.0
2.942091 1.780887 0.001383 0.0
2.515737 1.943874 -0.001028 0.0
1.491398 1.712274 0.003578 0.0
0.682688 0.034266 0.003677 0.0
3.883985 0.476929 0.002219 0.0
0.145939 1.915595 0.001248 0.0
3.546587 0.723968 -0.001013 0.0
3.795852 0.264473 -0.002409 0.0
0.675814 0.213558 0.001242 0.0
4.251391 0.643739 0.004213 0.0
3.545580 0.820238 -0.004016 0.0
3.400764 0.082952 -0.000037 0.0
1.719583 1.646295 -0.000543 0.0
4.106718 1.593150 -0.002985 0.0
1.315665 1.682438 -0.000811 0.0
1.129491 0.168059 0.000224 0.0
3.810377 0.327859 0.000537 0.0
1.515280 1.525453 -0.001774 0.0
2.765635 1.427984 -0.000523 0.0
2.357590 1.374000 0.000025 0.0
3.997597 1.055073 0.000766 0.0
2.001385 0.573523 0.000542 0.0
0.719548 0.546132 -0.000707 0.0
2.822413 1.054130 0.000741 0.0
1.975543 1.527335 -0.001329 0.0
2.098079 0.864298 0.002375 0.0
2.488473 1.494587 0.001213 0.0
1.426363 1.876240 -0.000179 0.0
4.020651 1.952739 0.001798 0.0
1.005418 1.861376 0.002812 0.0
3.997913 1.054586 -0.002301 0.0
2.214030 0.377423 -0.001600 0.0
3.798644 1.420247 0.000012 0.0
2.557966 0.207514 -0.001647 0.0
1.477205 0.884133 -0.000208 0.0
0.226831 0.422086 0.003201 0.0
0.375235 0.452218 -0.006184 0.0
1.379077 1.836266 -0.004601 0.0
3.661206 0.595251 -0.002484 0.0
1.210452 0.310890 -0.002812 0.0
1.237408 1.457331 0.002210 0.0
1.615188 0.686094 -0.001975 0.0
3.105851 0.052378 -0.000010 0.0
3.400156 0.159974 0.002616 0.0
2.740679 1.859997 0.001279 0.0
0.688958 1.243921 -0.001472 0.0
1.875605 1.363328 -0.000291 0.0
2.776289 1.548221 -0.001243 0.0
2.321100 0.109638 -0.002671 0.0
1.887543 1.852088 -0.001326 0.0
3.276586 1.481242 0.000960 0.0
2.531713 0.249446 0.001574 0.0
1.228568 0.907899 -0.004597 0.0
3.039533 1.691516 0.000067 0.0
1.020149 0.230721 0.000039 0.0
0.661918 0.484888 0.002397 0.0
1.025534 0.360037 0.001151 0.0
1.389387 1.268147 -0.001736 0.0
1.183572 1.737697 0.001652 0.0
1.499751 2.015238 -0.002760 0.0
3.358864 1.799213 -0.002147 0.0
0.123123 1.502755 0.000291 0.0
2.676666 1.946362 0.001679 0.0
2.131618 0.872115 -0.005149 0.0
1.111046 0.663329 0.000810 0.0
2.915795 1.100967 -0.002160 0.0
1.602462 1.191252 -0.000602 0.0
0.427172 1.940243 -0.000536 0.0
1.310090 0.355755 0.001043 0.0
2.871629 1.601453 -0.002206 0.0
0.128432 1.077737 0.003494 0.0
2.139505 1.642160 0.002028 0.0
0.209652 0.511906 -0.002244 0.0
1.147851 0.063766 0.003834 0.0
1.352414 0.780001 -0.002277 0.0
1.988825 0.673405 0.003365 0.0
4.096424 0.415495 0.005624 0.0
0.052495 1.473643 0.001576 0.0
4.052776 0.887148 0.000628 0.0
0.401512 1.517957 0.000828 0.0
3.842946 0.515919 -0.000194 0.0
2.103781 1.101605 -0.002125 0.0
0.674488 1.641926 -0.002400 0.0
3.885602 1.517328 -0.002055 0.0
1.148054 1.261329 0.004120 0.0
1.664858 1.903842 0.000061 0.0
3.525409 1.203424 -0.001900 0.0
1.431486 1.583846 0.002483 0.0
0.208058 1.765253 0.003082 0.0
1.893548 0.406579 0.000727 0.0
1.919656 0.757663 0.005210 0.0
3.155059 0.138700 0.001156 0.0
3.880250 1.528548 -0.000696 0.0
0.660979 0.890098 0.000797 0.0
1.168475 1.264468 -0.003678 0.0
0.257037 0.445440 -0.003820 0.0
0.851264 1.668690 -0.000812 0.0
2.399540 0.511067 0.002547 0.0
4.030553 1.994232 0.004130 0.0
3.587162 0.694469 -0.003639 0.0
0.031323 1.218018 0.001572 0.0
2.440168 0.236573 0.000418 0.0
2.133237 0.119984 -0.002646 0.0
1.742085 0.792909 0.001718 0.0
3.828640 0.966802 -0.000710 0.0
3.792728 1.317270 -0.001551 0.0
3.708627 0.043998 0.001334 0.0
1.891918 1.956585 -0.001821 0.0
4.079884 0.819903 0.000644 0.0
4.260967 1.618377 -0.002750 0.0
2.727718 0.570706 -0.001226 0.0
2.572167 0.416758 -0.001821 0.0
4.095582 0.669968 -0.002357 0.0
1.514205 0.175265 0.002105 0.0
2.714621 0.324562 -0.001238 0.0
1.150635 0.743519 0.000942 0.0
2.714153 0.437547 -0.001190 0.0
2.530319 0.104740 -0.002806 0.0
4.090662 0.914602 0.000177 0.0
0.639431 1.403249 0.003188 0.0
3.722138 0.082772 0.000045 0.0
0.238820 1.439825 -0.003533 0.0
2.559083 1.980496 -0.001809 0.0
3.309682 1.733312 0.000335 0.0
1.703401 0.667573 0.004797 0.0
0.626385 1.147002 0.007005 0.0
2.288925 1.928212 -0.002393 0.0
3.662716 1.632532 -0.000652 0.0
3.164300 0.053831 -0.001352 0.0
2.657056 0.096085 0.000832 0.0
3.093292 0.573233 0.003520 0.0
2.220270 1.326387 -0.001335 0.0
1.849142 1.937993 -0.000699 0.0
3.664641 1.063739 0.001712 0.0
3.001617 1.242700 0.002704 0.0
1.021460 0.181318 -0.002037 0.0
0.854925 0.702489 0.001810 0.0
3.969216 1.394280 -0.000954 0.0
3.360983 1.504065 0.000352 0.0
1.283465 0.578509 0.002348 0.0
3.645415 1.960285 -0.001332 0.0
1.137395 1.920899 0.001398 0.0
2.396996 1.940537 -0.001872 0.0
1.457429 0.932009 0.000096 0.0
0.254496 1.795668 -0.004011 0.0
1.101925 0.958328 -0.003801 0.0
0.171806 0.197576 -0.004682 0.0
0.532250 1.855135 -0.002148 0.0
2.837940 1.821030 0.002127 0.0
1.984391 0.853380 0.002638 0.0
2.881920 1.118749 0.001049 0.0
4.147758 0.434516 0.000213 0.0
2.746259 0.340827 0.002181 0.0
2.040094 1.414932 0.000271 0.0
1.820593 1.934344 -0.002859 0.0
0.801597 1.086977 -0.001133 0.0
2.522295 1.166290 0.002191 0.0
1.847929 1.213934 0.002489 0.0
0.089632 1.086985 -0.000057 0.0
3.934735 0.266941 0.002970 0.0
0.736889 0.890864 0.000876 0.0
2.426959 0.798958 -0.000468 0.0
1.308507 1.847027 -0.002145 0.0
3.412865 1.799343 0.001225 0.0
2.223074 0.152871 0.002078 0.0
3.912062 1.535739 -0.001052 0.0
1.496199 0.337848 -0.001735 0.0
1.396381 1.645175 0.001207 0.0
0.535800 1.853576 0.004196 0.0
1.058925 0.715823 0.001601 0.0
2.305586 0.236750 -0.001800 0.0
2.172412 1.992676 -0.000314 0.0
3.145611 0.998050 0.004444 0.0
1.763410 0.379696 -0.003146 0.0
3.334014 0.233997 -0.002506 0.0
1.747526 0.869688 0.003311 0.0
0.353406 1.069753 0.000534 0.0
0.145154 1.383576 -0.000142 0.0
3.387459 0.461483 0.001161 0.0
2.125861 1.111527 -0.001143 0.0
1.300734 0.506088 -0.003424 0.0
2.942456 0.220136 0.003306 0.0
1.487740 1.573945 -0.001133 0.0
3.117077 1.350911 0.002798 0.0
2.379231 0.772930 0.001310 0.0
1.467621 1.584546 0.002939 0.0
3.479660 1.785694 -0.002002 0.0
2.806019 0.913132 -0.002274 0.0
1.536691 1.371463 0.001455 0.0
1.821024 0.318684 -0.004206 0.0
0.448326 1.016737 -0.000951 0.0
1.592439 1.597116 0.002631 0.0
1.018024 1.679133 -0.001219 0.0
3.265384 1.835050 0.000083 0.0
1.669702 1.097531 0.001930 0.0
1.815969 1.019920 0.002336 0.0
3.215323 1.934261 0.001413 0.0
1.333862 0.265027 -0.001473 0.0
0.598530 1.058147 -0.004194 0.0
3.615080 1.825127 -0.000402 0.0
1.787814 0.453521 0.001018 0.0
1.331184 1.624900 0.002904 0.0
2.019343 1.354467 -0.003515 0.0
2.358239 0.722503 0.001317 0.0
4.073026 1.600633 -0.000596 0.0
4.153134 1.606339 -0.003693 0.0
1.018317 1.715181 -0.002997 0.0
4.271049 1.207340 0.000755 0.0
0.553859 0.417279 0.001778 0.0
0.919661 0.431171 -0.002329 0.0
2.322554 0.113083 -0.000484 0.0
3.767407 0.142887 -0.002068 0.0
3.034510 1.902259 -0.000986 0.0
0.803963 1.735475 -0.001413 0.0
3.700431 0.022675 -0.001039 0.0
0.141622 1.417650 0.000579 0.0
1.320771 1.906561 0.002850 0.0
0.708371 0.881318 0.002614 0.0
1.006120 1.461741 0.001742 0.0
1.466614 0.748278 -0.003491 0.0
0.806837 0.517072 -0.002390 0.0
0.725400 1.686880 0.002867 0.0
3.698687 1.710606 -0.002390 0.0
3.223749 1.309830 0.000768 0.0
2.705939 1.237340 0.000197 0.0
0.456524 0.028620 0.001380 0.0
0.093864 1.911588 -0.002049 0.0
2.429189 0.874089 -0.000772 0.0
1.986988 1.180411 -0.001504 0.0
0.499867 0.721619 0.001578 0.0
2.737944 0.942326 0.000616 0.0
1.701526 1.381247 -0.004879 0.0
1.424557 1.780213 0.001618 0.0
1.368491 1.318745 0.001809 0.0
1.334299 1.120242 0.000497 0.0
1.841285 0.205244 -0.000191 0.0
1.139826 0.244579 0.002397 0.0
2.793074 0.764168 0.001564 0.0
3.137413 1.960846 0.001320 0.0
1.225611 1.598657 0.002177 0.0
3.288972 1.264621 0.003804 0.0
0.937048 1.574501 0.001461 0.0
2.913142 0.870559 0.000013 0.0
0.746049 1.564322 -0.000399 0.0
1.945922 1.375139 -0.000142 0.0
3.842111 0.805838 -0.001807 0.0
2.813651 0.824737 -0.001578 0.0
0.724970 0.191173 0.001211 0.0
1.027008 0.579980 -0.002374 0.0
0.547596 0.233433 -0.003090 0.0
2.751381 0.155104 -0.004919 0.0
0.037253 0.628043 0.004498 0.0
2.268695 0.490820 -0.000859 0.0
0.704072 1.885383 -0.003034 0.0
1.672541 1.181876 -0.001642 0.0
0.931339 0.952721 -0.002826 0.0
2.491870 0.937165 -0.001789 0.0
1.638093 0.602032 -0.002954 0.0
3.691482 1.503693 0.001804 0.0
0.659097 2.012380 -0.000952 0.0
0.280428 1.014652 0.000926 0.0
1.489409 0.576697 0.000536 0.0
1.972674 1.400811 0.001189 0.0
1.264034 1.244666 0.003290 0.0
0.614824 0.096439 0.001609 0.0
2.721409 1.873897 0.002412 0.0
3.395322 1.053946 -0.002358 0.0
2.125561 0.074249 0.004010 0.0
3.433553 0.047579 0.001623 0.0
3.977317 1.169767 -0.005243 0.0
3.320081 1.073568 0.000601 0.0
3.372872 0.104671 0.001825 0.0
3.112740 1.554081 -0.001012 0.0
3.048453 0.487749 -0.000767 0.0
3.967257 1.668420 0.003413 0.0
0.011800 0.782474 0.004019 0.0
1.690826 0.583559 -0.002859 0.0
1.557615 0.422901 0.001882 0.0
0.224851 0.637050 0.003276 0.0
1.307193 0.377675 -0.005583 0.0
1.454158 1.704734 -0.002188 0.0
4.092979 1.026567 0.000916 0.0
2.542191 1.820200 -0.002727 0.0
3.941699 1.043175 -0.000804 0.0
1.582490 0.346728 -0.004879 0.0
0.442982 0.254751 0.000015 0.0
1.155916 0.009012 0.001283 0.0
3.245603 1.877426 0.002083 0.0
3.869959 1.788103 0.001053 0.0
2.864754 0.215425 0.004045 0.0
2.724316 0.218023 0.000757 0.0
0.981857 1.876987 -0.007004 0.0
3.323633 1.234426 -0.004057 0.0
1.272284 1.576371 0.004942 0.0
1.731697 0.816883 -0.000277 0.0
1.302824 1.596991 -0.000425 0.0
1.675384 0.897435 -0.000083 0.0
1.344992 1.943269 0.000520 0.0
0.820164 0.051179 -0.002316 0.0
1.223424 1.426646 0.008310 0.0
0.308122 0.052991 0.000438 0.0
2.261680 1.522053 0.001446 0.0
2.508184 0.193632 0.001776 0.0
2.679367 0.794698 0.000359 0.0
2.958755 1.866033 -0.002723 0.0
1.252800 1.761805 -0.002633 0.0
1.102541 0.238662 -0.002334 0.0
0.347425 1.026563 0.004729 0.0
0.845889 0.401686 -0.000298 0.0
3.634677 1.347570 0.003017 0.0
1.075687 0.699293 0.003625 0.0
1.687333 1.023181 0.001509 0.0
2.037265 1.938013 0.000083 0.0
3.527492 0.329220 -0.004206 0.0
2.016746 0.129544 -0.001998 0.0
1.322330 1.727110 0.000222 0.0
2.710032 1.023293 -0.001396 0.0
3.110624 1.800855 0.000846 0.0
1.604631 1.685479 0.003161 0.0
2.428592 1.413869 0.001502 0.0
2.226359 0.864728 0.001630 0.0
3.405688 1.363125 -0.005559 0.0
3.589775 1.897498 -0.001507 0.0
2.705676 1.646351 -0.002063 0.0
0.019621 0.092020 -0.001205 0.0
4.094849 0.743722 -0.002099 0.0
1.719479 1.097816 0.003128 0.0
2.211472 1.593891 -0.001424 0.0
0.636684 1.448484 0.001631 0.0
0.406959 1.739893 0.001428 0.0
3.152483 1.574030 0.000947 0.0
3.724025 1.549566 -0.002098 0.0
2.990006 1.337434 -0.001398 0.0
2.245137 1.734674 0.004348 0.0
0.192624 0.077200 0.000982 0.0
0.776163 0.315864 -0.003789 0.0
1.080557 0.898560 -0.002732 0.0
0.181947 0.944524 0.003799 0.0
1.541352 0.489957 0.002119 0.0
1.820159 0.786517 0.004581 0.0
0.808367 0.982420 -0.001553 0.0
3.286458 0.996173 0.002168 0.0
1.330030 0.594565 0.000864 0.0
0.216700 0.183456 0.001510 0.0
1.685120 1.493356 -0.001488 0.0
1.868861 1.054150 -0.002636 0.0
1.719385 0.179565 0.003645 0.0
3.444692 0.110903 0.002393 0.0
3.158004 1.967473 0.002691 0.0
3.419497 1.885243 0.000145 0.0
0.126470 1.958891 0.000676 0.0
1.969885 0.842242 -0.001100 0.0
0.199180 1.035711 0.001829 0.0
2.756906 2.006680 -0.004755 0.0
2.444213 1.311789 -0.005565 0.0
0.944496 1.926670 -0.004584 0.0
4.101525 1.768214 0.001271 0.0
0.789677 1.639499 -0.002787 0.0
3.962142 0.670820 -0.000284 0.0
3.529525 1.557905 -0.004753 0.0
2.799960 1.957874 0.002197 0.0
3.878159 0.833619 -0.000238 0.0
0.907609 0.183221 -0.000848 0.0
3.438434 0.649717 0.001242 0.0
0.292321 0.148590 0.003038 0.0
1.025236 1.332702 -0.000173 0.0
1.724451 2.012007 -0.000079 0.0
1.605171 0.186357 0.002085 0.0
3.846216 1.895147 -0.000493 0.0
2.795891 0.631683 -0.000674 0.0
1.064241 0.727495 0.000081 0.0
2.959874 0.941145 -0.000108 0.0
1.852310 1.287161 -0.002121 0.0
0.163706 1.851401 -0.000883 0.0
1.164475 0.024471 -0.000437 0.0
3.452514 1.860756 -0.000012 0.0
3.518731 1.704918 0.002406 0.0
0.941224 2.002345 -0.002890 0.0
0.992224 0.925380 0.001741 0.0
2.877330 0.347077 -0.001974 0.0
3.055463 1.536275 -0.000775 0.0
3.945947 0.481434 -0.000486 0.0
1.167671 1.970762 -0.003678 0.0
1.084321 0.867533 -0.004443 0.0
2.398464 0.778064 0.002517 0.0
2.305300 1.349480 0.000168 0.0
0.371985 0.965344 -0.002423 0.0
2.994691 -0.000240 0.001215 0.0
3.555711 0.395312 0.002954 0.0
2.143739 1.409286 0.001528 0.0
2.719314 0.594680 0.000485 0.0
1.335866 2.007198 -0.003878 0.0
1.798547 1.221737 0.001916 0.0
2.483248 0.204052 -0.000838 0.0
0.791000 0.806991 0.001817 0.0
0.042796 0.329260 -0.000359 0.0
2.218593 0.904547 -0.001517 0.0
2.508912 0.740124 -0.003611 0.0
1.369727 1.593911 -0.002096 0.0
1.869296 1.023362 0.001992 0.0
4.231489 0.008254 -0.000101 0.0
1.126562 0.244012 0.001864 0.0
2.625259 1.146272 -0.003369 0.0
1.234010 1.973484 -0.000899 0.0
3.911345 0.418958 0.002057 0.0
1.476958 1.904375 0.000837 0.0
3.898810 1.449514 0.001934 0.0
1.290703 1.281455 -0.002771 0.0
0.162059 0.557309 0.003752 0.0
1.830327 1.410265 0.000060 0.0
3.896913 0.609079 0.007743 0.0
1.357048 1.431580 0.002611 0.0
2.089613 1.845302 -0.002401 0.0
1.582324 0.937381 0.000216 0.0
1.582397 1.244838 0.000763 0.0
3.218777 1.164402 0.001595 0.0
1.089784 1.482253 -0.002274 0.0
2.713780 0.902176 0.003709 0.0
3.194129 0.454316 -0.000790 0.0
0.577596 1.141954 -0.001897 0.0
3.323286 0.474466 0.000070 0.0
1.919225 0.229127 0.001080 0.0
1.953089 0.629196 -0.000096 0.0
1.092976 1.790462 0.003272 0.0
2.410214 0.779772 -0.001054 0.0
1.685457 1.140616 -0.006255 0.0
1.537664 1.944155 -0.000045 0.0
3.891532 0.571731 0.002926 0.0
0.323378 0.798327 0.000161 0.0
4.097616 0.969373 0.002330 0.0
3.813201 0.746841 -0.002745 0.0
3.978485 1.903602 0.001269 0.0
4.106544 1.053231 -0.002847 0.0
3.735810 1.614963 0.001205 0.0
2.422090 0.132909 0.001349 0.0
2.777347 0.110878 -0.001606 0.0
2.579374 0.441864 -0.002715 0.0
2.656457 1.609411 0.001557 0.0
3.229510 0.943958 0.001163 0.0
2.782036 1.965966 0.001209 0.0
0.862515 0.056876 0.000852 0.0
0.052811 0.301364 -0.002150 0.0
2.914387 0.041106 -0.000497 0.0
0.825149 0.567776 0.000722 0.0
2.631626 1.775510 0.001298 0.0
0.889077 1.126132 0.000170 0.0
0.203548 0.627214 -0.002532 0.0
0.184477 1.474345 -0.001223 0.0
1.873319 0.182128 -0.001859 0.0
0.919735 1.263151 -0.002276 0.0
2.323280 0.533211 0.003976 0.0
2.809740 1.783849 0.000168 0.0
0.908652 0.622153 -0.000176 0.0
0.730127 1.033620 0.003117 0.0
1.945665 1.487023 -0.002840 0.0
1.437025 1.396206 -0.003256 0.0
3.792158 0.880820 -0.002293 0.0
4.060867 1.685607 -0.004986 0.0
1.232884 0.060447 -0.002873 0.0
0.228757 0.481423 -0.001955 0.0
0.905096 0.527882 -0.000419 0.0
0.400130 0.907260 -0.002013 0.0
1.824792 0.738440 -0.002314 0.0
2.288800 1.442485 0.000575 0.0
1.133286 1.072932 0.002683 0.0
2.024763 0.881166 -0.002650 0.0
2.012433 0.361660 0.001534 0.0
3.385734 0.469105 0.003526 0.0
3.285322 1.327764 -0.003278 0.0
0.603831 0.623506 -0.000860 0.0
1.669070 0.741242 0.003077 0.0
1.205103 1.010813 0.001630 0.0
3.678210 0.501547 0.001400 0.0
2.432872 0.898916 -0.000538 0.0
3.368164 0.178879 0.002289 0.0
1.344915 0.766188 0.000234 0.0
1.829650 0.799378 0.001761 0.0
1.806494 1.861479 -0.000265 0.0
0.102027 0.237466 -0.002779 0.0
0.307021 0.778625 0.003262 0.0
2.114071 0.691117 -0.002972 0.0
1.956622 0.621517 0.004526 0.0
2.365521 0.734223 0.000629 0.0
3.965672 0.457904 0.000662 0.0
1.221309 0.905708 -0.000621 0.0
0.220376 1.538088 -0.000803 0.0
0.986975 0.557118 0.003887 0.0
0.689855 1.929793 0.003481 0.0
3.688022 0.547350 -0.000978 0.0
1.120920 1.695058 0.002956 0.0
3.115785 0.919845 0.002546 0.0
1.492028 0.635375 -0.001888 0.0
3.711829 0.012766 0.002433 0.0
3.359933 0.302542 0.001730 0.0
0.397663 0.586736 0.000404 0.0
0.289932 1.483359 -0.001786 0.0
3.042185 0.817165 -0.002925 0.0
0.187509 0.660344 -0.000710 0.0
2.304167 0.656805 -0.000122 0.0
0.567967 1.119494 -0.001815 0.0
3.088553 0.453986 -0.001924 0.0
0.995446 0.688420 -0.000783 0.0
0.092503 0.143159 0.004713 0.0
3.886864 0.844782 -0.003352 0.0
1.219399 1.794081 0.002855 0.0
2.833162 0.453268 0.002815 0.0
1.396028 0.798718 0.004421 0.0
2.143026 0.966332 0.003609 0.0
0.289553 1.700843 0.006662 0.0
2.937800 0.101331 0.003499 0.0
1.845237 1.524706 -0.003765 0.0
2.514409 1.714301 -0.000051 0.0
0.355769 0.548043 -0.000384 0.0
2.296050 1.161261 -0.000397 0.0
1.501866 1.862306 0.000069 0.0
3.264545 1.729075 0.001963 0.0
0.979455 0.956632 -0.004753 0.0
1.578793 0.017391 0.000947 0.0
0.189340 0.642747 -0.000297 0.0
4.242034 0.233177 0.000085 0.0
2.504348 1.253046 -0.004674 0.0
1.646349 1.032752 0.000110 0.0
0.858071 1.976136 -0.004647 0.0
1.924257 0.202801 0.000531 0.0
0.435611 1.839838 -0.000276 0.0
2.856418 1.201909 -0.004207 0.0
4.199112 1.319572 -0.001285 0.0
3.881098 1.959044 -0.002631 0.0
3.870737 1.802861 -0.004987 0.0
3.280603 0.305715 -0.000448 0.0
0.328255 0.148074 0.003210 0.0
0.656878 0.498570 -0.001831 0.0
1.074447 0.117403 0.004183 0.0
1.122410 1.947572 -0.000539 0.0
4.172488 1.217111 0.003223 0.0
3.713964 1.175136 -0.001646 0.0
1.281491 0.570758 0.000974 0.0
1.049905 1.944937 -0.001989 0.0
0.478309 0.364043 0.003218 0.0
3.764958 0.614332 0.000442 0.0
1.253387 0.498628 -0.000785 0.0
2.562703 1.315757 -0.001696 0.0
0.181312 1.572511 0.002620 0.0
3.094707 1.777512 0.002292 0.0
4.095149 0.714204 -0.000122 0.0
1.093410 0.560379 0.002467 0.0
0.204977 1.727712 -0.002041 0.0
2.795968 1.462678 0.001912 0.0
2.343613 1.457263 -0.002195 0.0
4.152073 0.783644 -0.000688 0.0
1.382661 1.629023 -0.003357 0.0
3.665712 0.266671 0.000175 0.0
3.666804 1.354145 -0.000427 0.0
1.799346 0.456643 0.005282 0.0
3.181069 0.882157 0.001062 0.0
3.822516 0.109299 0.001453 0.0
0.963310 1.880130 0.002087 0.0
1.431217 1.594432 0.000925 0.0
3.656045 1.901136 0.001765 0.0
3.197740 1.633313 0.000365 0.0
3.718198 1.185397 -0.001001 0.0
2.551018 1.460266 0.000081 0.0
4.114534 0.234465 -0.004817 0.0
2.902251 1.929912 -0.001097 0.0
2.847520 1.462249 0.002928 0.0
1.855025 1.608064 -0.000477 0.0
2.212717 0.515155 0.003036 0.0
2.839908 0.948269 -0.002707 0.0
0.664375 1.549103 -0.000281 0.0
3.035447 1.588703 0.000328 0.0
3.764745 0.353842 0.002933 0.0
2.184841 1.430054 -0.003298 0.0
3.833846 1.277095 0.003095 0.0
1.442944 1.676886 0.002524 0.0
2.369172 0.501363 0.000200 0.0
3.996893 1.732541 0.001217 0.0
3.505873 1.099064 -0.003843 0.0
3.552742 0.728392 -0.005378 0.0
4.121294 0.956719 0.000343 0.0
3.285283 0.363426 -0.003835 0.0
1.632542 0.141396 0.000487 0.0
0.919251 0.544538 -0.001060 0.0
3.084051 0.009827 -0.000011 0.0
2.020928 0.062710 -0.000262 0.0
0.945696 0.380883 -0.000285 0.0
0.627322 1.508705 -0.000884 0.0
3.547227 0.551945 -0.000442 0.0
0.987253 1.595916 -0.002149 0.0
0.295077 1.526504 0.000626 0.0
0.120779 1.759021 -0.000688 0.0
0.766176 0.462775 0.001090 0.0
0.928378 1.398350 0.002987 0.0
0.452120 0.316327 -0.000337 0.0
1.487400 1.465625 -0.003207 0.0
0.492102 1.101607 0.001434 0.0
1.287172 1.078533 0.000092 0.0
0.586309 1.955844 -0.002372 0.0
1.068276 0.960507 0.001053 0.0
2.780332 1.649154 0.001432 0.0
3.913484 0.463790 -0.001039 0.0
1.347154 1.736551 -0.001241 0.0
0.133652 0.761564 0.001425 0.0
2.500827 1.697932 -0.000818 0.0
3.600856 0.224775 -0.001072 0.0
3.913443 0.214564 -0.000264 0.0
4.124674 0.954095 0.003893 0.0
0.787511 1.073943 0.000592 0.0
1.118954 1.664560 -0.003875 0.0
0.309550 0.655123 -0.002781 0.0
0.733241 1.223089 0.000578 0.0
1.082044 0.890929 0.004400 0.0
1.238572 0.253087 0.000201 0.0
2.836725 1.318215 0.002782 0.0
0.893100 0.135120 -0.000554 0.0
2.812468 0.337554 -0.002147 0.0
3.815000 0.946219 -0.004035 0.0
2.653011 1.228310 -0.003247 0.0
2.666678 1.144043 -0.000986 0.0
1.528803 1.875259 -0.000505 0.0
0.462359 0.302688 -0.002111 0.0
3.052499 0.769237 -0.003123 0.0
3.921450 1.276608 -0.002026 0.0
3.463619 1.985154 0.004786 0.0
3.032734 0.889257 -0.005294 0.0
2.443071 0.836064 -0.002339 0.0
4.042512 0.871334 0.001774 0.0
4.183352 0.123736 -0.006072 0.0
2.068840 0.205889 -0.001020 0.0
0.295136 1.928838 -0.000468 0.0
2.226208 1.806250 0.000303 0.0
0.650215 0.616232 -0.001701 0.0
1.112917 1.301399 0.000787 0.0
2.951000 1.185297 0.000310 0.0
3.099996 0.225208 -0.003494 0.0
1.234356 1.060286 0.001551 0.0
1.142128 0.343302 -0.001737 0.0
2.426555 1.089330 0.002158 0.0
2.346260 1.405881 0.002208 0.0
1.385169 1.756033 0.005951 0.0
0.283585 1.043542 0.001918 0.0
0.448065 1.041439 -0.001856 0.0
3.282103 0.693574 -0.001404 0.0
0.945510 0.236218 -0.000308 0.0
0.852895 0.831413 0.002624 0.0
0.024946 1.004126 0.001449 0.0
3.927095 1.333792 -0.000081 0.0
1.585268 0.730433 0.003028 0.0
0.030239 1.811149 -0.000346 0.0
2.660791 1.272900 -0.003240 0.0
0.381158 0.876421 0.002870 0.0
1.231344 0.172527 -0.001112 0.0
0.211474 0.698331 -0.004000 0.0
0.824217 0.467635 -0.003159 0.0
0.988779 1.521773 -0.005518 0.0
3.695759 1.811721 -0.002246 0.0
1.665781 0.686147 0.002746 0.0
1.607966 1.599842 -0.005598 0.0
0.455798 1.874813 -0.001333 0.0
0.522337 0.620126 -0.000636 0.0
2.363323 0.866459 -0.002388 0.0
0.029993 1.827760 0.003085 0.0
3.688521 1.512598 -0.001198 0.0
3.153577 1.794617 -0.002808 0.0
2.532450 1.096242 -0.001670 0.0
4.068406 0.089989 0.000503 0.0
0.234483 0.498445 -0.001899 0.0
1.303944 1.705840 0.001297 0.0
3.621983 0.392059 -0.002677 0.0
4.148476 0.070677 0.002490 0.0
1.002294 1.777349 -0.000553 0.0
1.714413 1.224744 0.001317 0.0
0.645329 1.617777 -0.000875 0.0
0.389691 0.521251 -0.001043 0.0
0.756761 0.419884 -0.001096 0.0
0.653559 0.360504 -0.003617 0.0
3.813612 0.391826 0.004045 0.0
3.050502 2.013617 -0.001485 0.0
1.587793 0.206545 0.001657 0.0
3.908212 0.451246 0.002509 0.0
3.597950 0.572219 0.005157 0.0
1.978540 0.862303 0.001187 0.0
2.236496 0.995294 -0.001229 0.0
0.746018 0.960379 -0.001577 0.0
1.981154 0.590871 0.003230 0.0
0.897735 1.554983 0.002495 0.0
1.133932 0.573306 -0.000601 0.0
0.061629 0.184592 -0.000148 0.0
0.641179 0.207949 0.003204 0.0
0.760245 1.051660 0.002095 0.0
2.977507 0.703545 0.003796 0.0
0.433625 0.491079 -0.002112 0.0
3.555727 1.703591 -0.000542 0.0
3.216714 0.278113 -0.000291 0.0
1.006060 0.964950 -0.001337 0.0
3.060743 1.977995 -0.001061 0.0
0.309621 0.366555 -0.000609 0.0
4.023824 1.711955 -0.002887 0.0
4.067831 0.525403 0.002557 0.0
2.789413 0.319869 0.003489 0.0
3.453704 1.814361 -0.000460 0.0
3.434347 0.904999 0.001763 0.0
0.898060 0.585988 0.001846 0.0
2.359387 0.270251 -0.001498 0.0
4.181720 0.421216 -0.002207 0.0
2.044482 0.474347 -0.000947 0.0
3.770615 1.403706 0.001064 0.0
3.835247 0.210443 -0.001482 0.0
1.356611 0.488176 -0.004018 0.0
0.242877 1.194602 0.002340 0.0
1.600212 1.863680 0.003063 0.0
3.297077 1.910765 -0.003000 0.0
0.433016 1.914565 0.002051 0.0
3.218908 0.896430 -0.002332 0.0
3.894134 1.462575 -0.001505 0.0
0.056165 0.488288 -0.002571 0.0
3.367488 0.776278 -0.004168 0.0
0.839212 0.951025 0.000841 0.0
2.188703 1.705652 0.001966 0.0
1.432581 0.653877 0.000856 0.0
3.650293 0.889078 -0.002662 0.0
0.455746 0.189525 0.003290 0.0
3.639803 1.237663 0.001889 0.0
2.989317 1.235310 -0.000996 0.0
1.646852 1.129935 0.000564 0.0
2.725191 1.718409 0.001885 0.0
4.095081 0.472988 -0.006117 0.0
0.368058 1.036902 -0.001455 0.0
1.457399 0.330928 0.001550 0.0
2.681235 1.083414 0.002447 0.0
2.519330 1.169724 0.001851 0.0
3.196663 0.952789 0.001109 0.0
3.903978 0.614439 -0.002497 0.0
2.270873 1.373501 0.003871 0.0
1.296646 1.602263 0.001076 0.0
0.983394 0.945517 -0.001016 0.0
2.414379 0.398175 0.001297 0.0
1.038376 0.624504 0.002745 0.0
2.501040 0.188970 0.000072 0.0
1.917943 0.229649 0.001401 0.0
0.715546 0.407241 -0.000523 0.0
0.977331 0.343022 0.002162 0.0
0.332270 1.975142 -0.002249 0.0
3.668784 1.123597 -0.001179 0.0
2.786248 1.682801 0.004204 0.0
1.088563 1.642514 -0.001482 0.0
2.163653 0.988981 0.000284 0.0
2.632456 1.878886 -0.003981 0.0
4.042900 1.952397 0.001002 0.0
2.226732 0.451590 0.000135 0.0
3.156607 1.380156 0.006670 0.0
2.823647 1.898980 -0.001462 0.0
1.820272 1.586843 0.001560 0.0
1.503168 1.797171 0.001314 0.0
2.506276 1.607840 -0.000793 0.0
4.116768 0.451219 0.005539 0.0
1.230592 1.373619 -0.001077 0.0
1.922151 1.840743 -0.003235 0.0
3.143292 1.585475 0.000723 0.0
1.428815 0.837741 0.000469 0.0
4.031326 0.352808 0.000348 0.0
2.772906 0.804972 -0.000076 0.0
2.066186 0.385320 -0.003789 0.0
0.167671 1.813110 0.002429 0.0
3.554870 1.911474 0.003313 0.0
0.122186 1.354771 -0.004515 0.0
1.887782 0.323805 0.002688 0.0
3.039136 1.419299 0.001447 0.0
2.454865 0.179069 0.000279 0.0
3.485057 1.074528 -0.000207 0.0
0.158356 0.848957 0.002373 0.0
3.124900 1.635751 -0.000083 0.0
4.048855 0.048579 0.001407 0.0
2.107957 0.337900 -0.001166 0.0
0.247199 0.462809 0.000306 0.0
4.193541 1.692183 0.003255 0.0
0.462389 0.047126 -0.001467 0.0
3.850689 1.712776 -0.001319 0.0
1.007114 0.131063 0.004176 0.0
4.124864 0.569242 -0.000256 0.0
2.039125 1.726106 0.003888 0.0
0.519385 0.337592 0.000858 0.0
2.488625 1.614771 0.001962 0.0
3.219336 1.009573 0.003707 0.0
3.026263 0.687649 -0.002038 0.0
1.054039 0.101783 -0.001184 0.0
0.408653 1.531923 -0.000832 0.0
0.123668 0.653475 -0.002329 0.0
1.613917 0.309902 -0.002701 0.0
0.751053 1.467976 -0.003772 0.0
4.029833 0.570512 -0.001914 0.0
3.673762 1.654054 0.002119 0.0
4.009513 1.344009 -0.002337 0.0
3.061998 1.218361 0.000444 0.0
0.927640 0.865420 -0.002917 0.0
3.237801 0.459538 0.003896 0.0
0.251607 0.844133 0.002309 0.0
3.778962 0.437813 0.003217 0.0
3.031425 1.875956 -0.003753 0.0
0.551553 0.283461 -0.001370 0.0
1.647213 1.713734 0.002608 0.0
1.660384 0.557417 0.000167 0.0
2.059178 1.886630 -0.001215 0.0
0.796912 1.475060 -0.001455 0.0
3.543546 1.075149 0.000027 0.0
3.030680 1.854811 -0.001016 0.0
2.186623 0.563683 0.000080 0.0
0.430942 0.993004 -0.002061 0.0
1.457564 0.472359 0.000190 0.0
2.982482 0.567305 0.005808 0.0
4.129964 0.647513 -0.000883 0.0
2.307771 0.855927 -0.000983 0.0
3.842698 1.192405 0.003291 0.0
1.577341 0.643321 -0.000787 0.0
0.673097 1.333982 -0.002528 0.0
1.112071 0.126449 0.004700 0.0
2.205859 0.940715 -0.000697 0.0
3.750279 1.551398 -0.001824 0.0
0.048493 0.701207 -0.000202 0.0
3.733067 1.066288 0.001297 0.0
2.198129 1.494112 -0.001417 0.0
1.891559 1.167302 0.001554 0.0
0.998453 1.692433 -0.004751 0.0
3.341905 1.685087 -0.003223 0.0
0.352991 1.921775 0.003876 0.0
3.772316 0.507875 -0.002252 0.0
1.553832 0.400597 0.001413 0.0
2.544720 0.491182 -0.002011 0.0
0.003182 1.570998 0.002318 0.0
3.884931 1.318202 -0.002058 0.0
1.262042 0.022006 0.002772 0.0
3.962121 1.063174 0.000344 0.0
1.406837 2.003340 -0.000398 0.0
1.459413 0.119322 0.001542 0.0
3.583904 0.778833 0.000321 0.0
3.403151 1.448232 0.002854 0.0
2.988389 1.261415 0.001626 0.0
0.612071 1.726323 0.000651 0.0
2.458821 0.880590 0.001988 0.0
4.201695 0.773709 -0.001177 0.0
3.506118 0.596971 0.001143 0.0
2.978094 0.002744 0.000788 0.0
3.068890 1.669828 0.004439 0.0
1.632979 1.464584 0.000947 0.0
2.611748 0.340819 -0.001424 0.0
0.502331 1.167401 -0.001725 0.0
0.497834 0.503780 -0.000518 0.0
1.572255 0.581887 -0.000372 0.0
3.946728 0.762390 0.003375 0.0
3.429977 0.100705 -0.002210 0.0
4.060426 0.836697 0.003284 0.0
2.212600 0.315718 -0.000812 0.0
1.735575 0.142740 -0.000484 0.0
0.981601 1.290331 -0.000170 0.0
