1.31735604 0.64897788 0.00063980 0.00000000
0.17762564 1.65981383 -0.00001742 0.00000000
3.36911453 1.67424507 0.00132339 0.00000000
3.36969573 0.39187134 0.00348779 0.00000000
0.65675767 0.60796252 -0.00209007 0.00000000
3.29523140 0.75882894 0.00074940 0.00000000
3.11076501 0.23592623 -0.00008959 0.00000000
2.40466084 0.95278645 0.00059719 0.00000000
1.87560794 1.48903712 0.00554910 0.00000000
1.87822025 1.82088722 0.00179582 0.00000000
2.14428458 0.90949565 0.00667300 0.00000000
1.93829735 0.49515725 0.00158574 0.00000000
4.13867991 0.28912443 -0.00196645 0.00000000
2.06589143 1.69084400 0.00465142 0.00000000
1.60752057 0.83622075 -0.00348564 0.00000000
0.47519563 0.40473947 0.00500181 0.00000000
3.75547400 0.24147587 0.00469060 0.00000000
2.25657987 0.92545875 -0.00086462 0.00000000
2.87324663 1.55417748 -0.00315795 0.00000000
2.26566882 0.72795353 0.00230986 0.00000000
0.24728639 1.34062290 -0.00378123 0.00000000
2.63623547 0.53061838 0.00592606 0.00000000
0.39088362 1.46133302 0.00146574 0.00000000
2.06712120 1.82431888 -0.00092386 0.00000000
3.60981132 0.48778746 -0.00160082 0.00000000
1.39028191 1.50439589 -0.00508072 0.00000000
0.45817778 1.36822107 -0.00242981 0.00000000
4.11129465 0.66357423 -0.00224722 0.00000000
2.19135270 1.39387126 -0.00125341 0.00000000
1.58869942 0.27777107 0.00428221 0.00000000
1.45010993 1.60541687 -0.00125211 0.00000000
1.20914490 0.58783512 -0.00244579 0.00000000
0.10731350 0.83208799 -0.00351892 0.00000000
3.96425501 0.29092653 -0.00133792 0.00000000
1.14271674 1.28742879 -0.00173108 0.00000000
2.99001618 1.60844325 -0.00050236 0.00000000
2.87665850 0.51968956 0.00082530 0.00000000
3.16241417 0.45045696 0.00007125 0.00000000
2.80640632 0.20616277 -0.00110058 0.00000000
3.41173062 0.65835610 -0.00131494 0.00000000
3.15429068 0.49790011 0.00158390 0.00000000
0.97856543 0.98507196 -0.00411136 0.00000000
0.68141908 0.55209578 0.00455096 0.00000000
1.52906339 1.00486180 0.00380136 0.00000000
3.05835834 0.30481163 0.00369232 0.00000000
1.41828774 0.59992387 -0.00023111 0.00000000
2.59512457 0.45214288 -0.00460083 0.00000000
4.12832133 1.35179183 -0.00111319 0.00000000
3.59333612 0.93073370 -0.00031049 0.00000000
1.49700298 0.21055055 -0.00416362 0.00000000
1.95737188 1.80831779 0.00146728 0.00000000
2.81881633 1.27855102 0.00048226 0.00000000
0.46107385 0.85902539 0.00218933 0.00000000
1.97430825 0.47536853 -0.00603948 0.00000000
3.93532669 0.79300066 0.00224180 0.00000000
2.30466757 1.69810405 0.00320873 0.00000000
3.17295330 0.59345863 -0.00034155 0.00000000
0.54699935 1.27146428 0.00020374 0.00000000
0.27124739 0.78762735 -0.00116849 0.00000000
2.70664893 1.03058133 0.00131499 0.00000000
1.58784654 1.80690051 0.00395333 0.00000000
1.66781991 0.30144405 0.00407121 0.00000000
0.97064393 0.96608345 0.00114234 0.00000000
0.34802644 1.25990342 -0.00365354 0.00000000
0.95446223 0.78803166 -0.00386977 0.00000000
2.07004999 1.24614273 0.00168667 0.00000000
2.45911669 1.07475126 0.00195115 0.00000000
0.46554069 0.32810077 0.00234493 0.00000000
2.05713653 1.80862726 0.00243387 0.00000000
4.04031069 1.08323374 -0.00217104 0.00000000
4.03484463 1.75016879 -0.00228432 0.00000000
2.44968218 1.40495850 0.00347173 0.00000000
1.20410349 1.80411460 0.00232336 0.00000000
0.37531203 1.66056753 -0.00071988 0.00000000
3.80068609 0.57008964 0.00209830 0.00000000
2.59068278 0.83460758 0.00423278 0.00000000
3.06770602 1.63549571 -0.00419307 0.00000000
2.08093188 0.53121504 0.00227824 0.00000000
1.44040903 0.05184272 -0.00129219 0.00000000
4.09200294 1.45805907 -0.00204190 0.00000000
2.47231040 1.62590727 0.00245505 0.00000000
1.13937944 1.01117843 -0.00074534 0.00000000
0.92588930 0.10200336 -0.00068954 0.00000000
3.85957013 0.38476916 0.00529937 0.00000000
0.93685071 1.43177418 0.00010492 0.00000000
2.58714594 1.47629385 0.00064016 0.00000000
1.41264827 1.82998643 -0.00037377 0.00000000
3.20986267 1.53754950 0.00020734 0.00000000
0.84307470 0.79723361 -0.00378799 0.00000000
1.09813666 0.85849923 -0.00246990 0.00000000
2.58377258 0.01745206 -0.00038436 0.00000000
4.15949216 1.86144575 -0.00540259 0.00000000
1.89758508 1.12105455 -0.00280122 0.00000000
3.22812526 1.57623436 -0.00284944 0.00000000
3.39556685 0.86113729 0.00066423 0.00000000
4.19061109 1.68537428 0.00054798 0.00000000
3.89118015 0.38062993 0.00181498 0.00000000
2.15810834 1.04948177 -0.00028951 0.00000000
3.98324247 0.82068647 -0.00296639 0.00000000
0.26562042 0.70215093 -0.00225790 0.00000000
3.27989383 1.50687900 0.00116195 0.00000000
2.86525683 0.90211962 -0.00089185 0.00000000
2.00959186 1.28058279 -0.00317163 0.00000000
3.06506648 1.40060702 -0.00199949 0.00000000
0.22614181 1.16278825 0.00456407 0.00000000
3.11560723 0.47731349 -0.00176825 0.00000000
2.37899481 0.24430682 0.00101783 0.00000000
2.95717772 1.24981656 -0.00032070 0.00000000
2.06484955 0.42079423 -0.00300641 0.00000000
2.73242546 0.11874164 -0.00008343 0.00000000
0.09728405 0.66340099 0.00222808 0.00000000
2.58606146 1.77037828 -0.00074522 0.00000000
0.04907178 1.07572376 0.00303643 0.00000000
1.46651199 1.18702927 -0.00224758 0.00000000
1.49618429 1.00684362 -0.00122748 0.00000000
0.62203439 1.04102728 0.00121800 0.00000000
3.17112941 1.19759692 0.00186851 0.00000000
0.79567716 1.03198841 -0.00144015 0.00000000
3.04438093 1.47309781 0.00064831 0.00000000
3.37816587 0.00540993 -0.00218408 0.00000000
4.04142300 0.96564011 -0.00167721 0.00000000
3.21053213 0.14500435 0.00012553 0.00000000
3.95936486 1.33249334 0.00048874 0.00000000
3.01091760 0.22913416 -0.00224390 0.00000000
1.06483155 0.00059052 0.00373953 0.00000000
4.08323784 0.23313515 0.00133489 0.00000000
3.57165866 1.81197704 0.00077056 0.00000000
3.22377544 0.22524647 0.00154280 0.00000000
3.80993131 1.71750885 -0.00017653 0.00000000
3.77182987 0.28960668 -0.00116160 0.00000000
0.26095990 0.06094010 0.00412785 0.00000000
0.70640247 1.49418253 0.00349746 0.00000000
0.59256630 1.46479998 0.00096891 0.00000000
2.75196062 0.90228510 -0.00310262 0.00000000
2.49570832 1.79605679 0.00276705 0.00000000
2.15318592 1.33919168 0.00040319 0.00000000
0.79662092 1.46134071 0.00167415 0.00000000
3.91630480 0.14233941 0.00145386 0.00000000
0.75966850 1.24148702 -0.00314345 0.00000000
0.45872753 0.48375680 -0.00180214 0.00000000
3.57938880 1.77029336 0.00475960 0.00000000
3.01550482 0.94621339 0.00152598 0.00000000
4.15532832 0.86178627 -0.00105425 0.00000000
3.57222336 1.30822222 0.00138779 0.00000000
3.28600465 0.46021629 0.00271021 0.00000000
2.65543876 1.77218226 0.00176267 0.00000000
2.18349527 0.16476703 0.00019981 0.00000000
2.81866676 1.54486189 0.00442008 0.00000000
4.18784370 1.08746913 0.00272631 0.00000000
2.92519396 1.66733250 -0.00092021 0.00000000
1.57300121 0.75541252 0.00154631 0.00000000
2.78773740 1.66233163 -0.00305629 0.00000000
3.65612321 0.98033555 -0.00331072 0.00000000
2.21403236 1.58882872 0.00032872 0.00000000
0.39763588 1.01298015 -0.00044024 0.00000000
2.81229659 1.34259328 -0.00501371 0.00000000
2.43592270 1.17814353 -0.00242223 0.00000000
4.01600484 1.44261689 0.00009443 0.00000000
1.08585365 0.32427526 0.00249793 0.00000000
1.18808913 1.32405298 0.00125100 0.00000000
1.23476494 0.21925933 0.00063627 0.00000000
3.90058694 0.98079032 -0.00213505 0.00000000
3.11812309 1.66277431 0.00114377 0.00000000
0.23383946 1.14203438 -0.00445900 0.00000000
2.37174239 0.38097107 0.00079161 0.00000000
4.18931428 1.04216343 -0.00309596 0.00000000
0.96114837 0.10833212 0.00270923 0.00000000
3.31620410 0.19364488 0.00085441 0.00000000
3.99334021 0.40373448 -0.00029402 0.00000000
3.34810557 1.21389056 -0.00433841 0.00000000
3.12479842 0.95406889 0.00429199 0.00000000
2.20544731 0.43893261 0.00214678 0.00000000
0.30155250 0.23107907 0.00178392 0.00000000
2.69934277 0.14146690 0.00005891 0.00000000
3.27051801 0.11225342 -0.00160125 0.00000000
0.03429558 1.00250877 -0.00273710 0.00000000
3.55290173 1.78694414 0.00187392 0.00000000
3.41036226 1.09195749 0.00101462 0.00000000
3.51829155 0.49141932 -0.00099473 0.00000000
0.08436451 0.46665623 -0.00202984 0.00000000
1.77160803 0.65922774 -0.00019568 0.00000000
1.62345749 0.25709143 0.00012751 0.00000000
2.30905101 1.34574459 -0.00145949 0.00000000
3.04126171 0.00319029 -0.00451785 0.00000000
1.41066739 1.33643110 -0.00242101 0.00000000
4.08893857 0.10962283 0.00280329 0.00000000
1.80888161 0.81830495 0.00251160 0.00000000
2.46960749 0.16175216 -0.00100475 0.00000000
0.91873741 1.35083845 0.00178156 0.00000000
0.31124638 0.87461278 0.00226462 0.00000000
3.66420949 1.45128392 -0.00517353 0.00000000
3.76137345 1.75762230 -0.00173030 0.00000000
1.91162050 0.16681797 0.00122051 0.00000000
2.96407363 0.90145809 0.00187442 0.00000000
2.36598895 0.18058258 -0.00272555 0.00000000
2.37363688 0.94272477 0.00308647 0.00000000
1.85384649 0.99193627 -0.00211038 0.00000000
0.90471422 1.19200918 -0.00066362 0.00000000
3.74013811 0.17942457 -0.00099001 0.00000000
0.22552816 0.42154197 -0.00219405 0.00000000
2.34486984 0.19823641 -0.00218452 0.00000000
2.12298997 1.71421046 0.00125565 0.00000000
0.01882764 0.42958600 0.00170865 0.00000000
3.50721152 1.71503071 -0.00289380 0.00000000
3.42984247 1.24230813 -0.00053277 0.00000000
1.57449817 0.05473273 -0.00096348 0.00000000
0.16330836 0.88613094 0.00226293 0.00000000
0.15704108 1.55761050 -0.00254775 0.00000000
3.97024524 1.75961041 -0.00153279 0.00000000
2.99064439 0.17923323 -0.00342147 0.00000000
0.26390883 0.12704033 0.00128207 0.00000000
3.22207946 0.80192361 -0.00089767 0.00000000
1.65780749 1.77171954 0.00019330 0.00000000
0.20944793 1.35868962 0.00051033 0.00000000
2.18236762 1.75242454 0.00069935 0.00000000
1.61218323 0.97752530 -0.00335428 0.00000000
0.06922128 1.14711211 0.00419216 0.00000000
3.01973617 0.38689802 -0.00086999 0.00000000
1.57249622 1.76182642 -0.00295279 0.00000000
2.30976719 0.05185446 -0.00277009 0.00000000
2.86647820 1.88850312 -0.00061039 0.00000000
4.17110031 0.44936887 0.00164415 0.00000000
0.75465727 0.99083600 -0.00357171 0.00000000
3.84567144 0.60396916 0.00149986 0.00000000
1.13002444 0.56237874 -0.00261140 0.00000000
0.34254738 1.23706402 -0.00153684 0.00000000
1.82348829 0.21708904 0.00395395 0.00000000
3.79202239 0.50774852 -0.00086698 0.00000000
3.81198721 1.66270742 0.00013367 0.00000000
2.28370714 1.07537582 0.00261908 0.00000000
1.68117990 0.17062205 -0.00203647 0.00000000
0.25949677 0.55608485 0.00052445 0.00000000
3.74473778 0.04979136 0.00313451 0.00000000
0.52845937 0.51411042 -0.00030318 0.00000000
3.60414697 1.24559812 -0.00584911 0.00000000
3.73257944 1.75149082 -0.00300900 0.00000000
0.32626377 1.05633278 -0.00231642 0.00000000
1.99649783 0.99921905 -0.00086235 0.00000000
3.76722961 1.78183556 0.00096392 0.00000000
3.31646028 1.57655947 0.00461442 0.00000000
0.20471271 1.88773709 -0.00264102 0.00000000
0.74895967 0.00166114 -0.00111273 0.00000000
0.42156021 0.68667466 -0.00491695 0.00000000
0.98301098 1.55184007 -0.00093056 0.00000000
2.89225695 1.11010116 -0.00353626 0.00000000
3.55501720 1.85410445 -0.00265279 0.00000000
1.87106115 0.92731539 -0.00398789 0.00000000
4.26823360 1.49150883 -0.00102688 0.00000000
4.10394211 0.89681394 -0.00412255 0.00000000
3.40248942 1.13494460 -0.00193827 0.00000000
1.61192740 1.73763910 -0.00280571 0.00000000
4.22344881 0.51859838 -0.00258768 0.00000000
2.51781162 0.11671480 0.00116653 0.00000000
3.27597621 0.62768071 0.00011229 0.00000000
2.12119341 1.90592908 0.00083810 0.00000000
2.14007275 0.62391577 0.00033284 0.00000000
0.21478460 0.78801982 0.00040899 0.00000000
2.90108762 1.79677757 0.00186314 0.00000000
1.32697678 1.59245871 0.00008121 0.00000000
3.20956813 1.27810001 0.00218850 0.00000000
0.11393106 1.72199761 -0.00017427 0.00000000
2.02938844 0.40243753 0.00558501 0.00000000
1.88919388 0.90943031 -0.00314731 0.00000000
2.07861378 1.37462690 -0.00132452 0.00000000
1.21894085 0.83790946 -0.00318558 0.00000000
0.94462936 1.39694022 -0.00185243 0.00000000
1.33907300 0.33870141 -0.00421534 0.00000000
3.34210984 0.28923309 -0.00304993 0.00000000
1.53232094 0.85272952 0.00204813 0.00000000
0.83592765 0.14687557 0.00472446 0.00000000
1.62445989 1.66253949 0.00002165 0.00000000
0.95151810 1.59474324 -0.00033789 0.00000000
3.63577151 0.99439295 -0.00167648 0.00000000
1.55685177 1.07101140 -0.00066723 0.00000000
4.23182077 0.46125088 -0.00088851 0.00000000
0.54391575 1.61918281 -0.00299798 0.00000000
0.95503049 1.88124351 -0.00216093 0.00000000
0.83159376 1.30836964 0.00482668 0.00000000
2.54086399 0.06163910 0.00128087 0.00000000
4.10668748 1.32610428 0.00203169 0.00000000
1.25184203 0.81821917 -0.00075101 0.00000000
0.18531586 0.65314557 0.00411623 0.00000000
0.62785723 0.98023079 -0.00521193 0.00000000
3.86900884 0.02437312 -0.00451640 0.00000000
2.45724128 1.39086281 0.00112550 0.00000000
4.14374544 1.68354838 -0.00030884 0.00000000
3.33499799 1.85609272 0.00253674 0.00000000
3.07262796 0.10426839 0.00122751 0.00000000
2.05869548 1.08176616 0.00026625 0.00000000
0.83983861 0.54037235 0.00380493 0.00000000
3.09804935 0.78639830 0.00044538 0.00000000
0.76629703 1.12160773 0.00324947 0.00000000
4.21831567 1.11227375 -0.00242551 0.00000000
1.60415547 0.32784075 0.00301856 0.00000000
3.53078214 0.41341044 0.00081037 0.00000000
1.31864870 0.54711253 0.00210436 0.00000000
0.05550068 1.74806716 0.00130058 0.00000000
4.15010541 1.36926209 0.00356268 0.00000000
2.68215468 1.87013535 0.00416281 0.00000000
3.10442119 0.74978766 0.00114197 0.00000000
2.81933150 0.64398846 -0.00139766 0.00000000
0.18479874 1.41596601 -0.00059508 0.00000000
0.16612831 0.36427174 0.00246028 0.00000000
3.63147322 1.17580043 0.00099848 0.00000000
3.02450258 0.68872795 0.00210269 0.00000000
0.38715957 0.94507154 -0.00005991 0.00000000
0.72795367 0.99554966 0.00636948 0.00000000
1.48829662 1.13516504 -0.00015265 0.00000000
1.98687377 1.59193844 -0.00105941 0.00000000
3.28094005 1.14315478 -0.00111505 0.00000000
1.14519110 0.25732192 -0.00312681 0.00000000
0.29573894 1.52941441 0.00056566 0.00000000
0.73919573 1.77196102 0.00029330 0.00000000
1.80193569 0.43963382 -0.00358973 0.00000000
1.30565615 0.35781391 0.00167405 0.00000000
0.58170604 0.79942151 0.00109689 0.00000000
3.62106344 1.46169495 0.00070133 0.00000000
4.11471092 1.15708621 -0.00047321 0.00000000
2.84719243 0.94685205 -0.00010312 0.00000000
0.46247254 1.21218510 0.00186916 0.00000000
0.74934340 1.58189083 0.00402430 0.00000000
2.54632974 0.07059149 0.00454235 0.00000000
0.38446842 0.43495273 -0.00289124 0.00000000
4.21889698 0.28014593 -0.00140859 0.00000000
1.34553479 0.65293624 0.00487570 0.00000000
3.37079919 0.46506773 -0.00131210 0.00000000
2.13156100 0.04852798 0.00347355 0.00000000
2.73690776 1.29957665 0.00375227 0.00000000
4.19522057 1.84169356 0.00150116 0.00000000
2.00469134 0.32774770 -0.00046218 0.00000000
3.46865807 0.64982049 0.00017170 0.00000000
1.25910451 0.83605088 0.00024861 0.00000000
2.33644375 1.49342070 0.00305270 0.00000000
3.71859002 1.79863253 0.00312669 0.00000000
3.45726980 1.82782425 -0.00263634 0.00000000
3.26184906 1.35499838 -0.00401416 0.00000000
3.28196586 0.93848446 -0.00169853 0.00000000
3.11810643 1.37556313 -0.00223938 0.00000000
0.55720842 1.20547243 -0.00108477 0.00000000
1.70099898 0.47870795 0.00307274 0.00000000
3.87516428 1.53968970 -0.00800148 0.00000000
1.37909142 1.15308340 0.00312154 0.00000000
0.91639824 0.59309898 -0.00040898 0.00000000
1.51373350 1.17568875 -0.00265836 0.00000000
0.25368594 0.20065868 -0.00095906 0.00000000
3.61580196 0.32983121 0.00126563 0.00000000
0.82640420 0.27980167 0.00259294 0.00000000
4.25039414 0.00554064 0.00166385 0.00000000
1.59912933 0.55010728 -0.00036533 0.00000000
2.22880154 1.31707568 -0.00015569 0.00000000
1.44207731 1.81557498 0.00215537 0.00000000
0.19934199 1.68434206 0.00119481 0.00000000
1.20402801 0.32971877 -0.00246036 0.00000000
0.22427320 0.44071525 0.00259834 0.00000000
2.54612673 0.25529868 -0.00415481 0.00000000
1.65761796 1.84573699 -0.00085503 0.00000000
1.59630570 1.67213992 -0.00349570 0.00000000
1.95205841 1.59398056 0.00328863 0.00000000
3.58750536 0.36483212 -0.00002600 0.00000000
4.22705386 1.45312591 0.00089680 0.00000000
0.87172138 1.16368983 0.00059425 0.00000000
3.19559786 1.64647020 -0.00050631 0.00000000
4.04094389 1.41636546 -0.00233030 0.00000000
2.20608951 1.13607686 0.00072576 0.00000000
0.19458684 0.67654859 0.00006573 0.00000000
1.16925381 0.86928894 -0.00624989 0.00000000
1.44532721 1.16105264 0.00296072 0.00000000
0.03884613 1.71574357 0.00039746 0.00000000
0.96902381 1.31434151 0.00456217 0.00000000
0.04851837 1.74690081 0.00139903 0.00000000
1.91837185 1.84678567 0.00068691 0.00000000
4.27470190 0.66882032 0.00196620 0.00000000
1.68687073 1.77941099 0.00181462 0.00000000
3.52800686 1.89718873 0.00748937 0.00000000
4.02164564 1.26495184 0.00301382 0.00000000
1.27692754 0.45658721 0.00121756 0.00000000
4.05652357 1.52139237 -0.00091474 0.00000000
2.50219855 0.28813483 -0.00140303 0.00000000
1.74787842 1.39390036 -0.00071575 0.00000000
2.74645187 0.13337896 0.00082947 0.00000000
2.22499650 0.90270579 0.00282092 0.00000000
1.81625684 0.89859580 -0.00116302 0.00000000
3.07396448 1.10958091 0.00276821 0.00000000
2.00125904 1.16892689 -0.00080524 0.00000000
2.97916750 1.71570804 -0.00399725 0.00000000
2.10302398 1.05607430 0.00244535 0.00000000
1.85611419 1.03929991 0.00407122 0.00000000
1.50713552 0.85919189 0.00420661 0.00000000
3.28711866 0.60721939 0.00001621 0.00000000
0.59708318 0.00857482 -0.00010749 0.00000000
3.58734277 0.41596803 0.00182507 0.00000000
0.41638709 1.08541708 -0.00011563 0.00000000
1.41923714 0.39921625 0.00110363 0.00000000
4.02562837 1.15745762 -0.00197281 0.00000000
3.88451848 1.49034401 -0.00228631 0.00000000
2.55194024 1.17976347 -0.00087570 0.00000000
3.07269539 1.45721662 -0.00182253 0.00000000
1.99864893 0.10320680 -0.00102209 0.00000000
0.96309816 0.26687299 -0.00283539 0.00000000
1.36295112 0.78464165 0.00270464 0.00000000
0.49199782 0.80704353 0.00221011 0.00000000
4.01037985 0.78700045 -0.00246158 0.00000000
1.41620627 0.25280448 -0.00037959 0.00000000
3.97956526 1.82744168 -0.00143056 0.00000000
4.01976621 0.26454989 -0.00430407 0.00000000
1.93186957 1.89349365 -0.00116853 0.00000000
0.06126457 0.89621980 0.00302497 0.00000000
2.89645253 1.10960327 0.00329858 0.00000000
2.50394519 0.49807077 0.00168373 0.00000000
1.88636863 0.56217285 0.00194561 0.00000000
3.54296845 1.53603348 -0.00331493 0.00000000
1.22686915 1.08205868 0.00104017 0.00000000
0.32414248 1.22108141 0.00144459 0.00000000
2.42972106 0.92704900 -0.00277352 0.00000000
0.35897805 1.64597745 0.00155279 0.00000000
3.17420083 0.45984303 0.00439204 0.00000000
4.13389697 1.40807310 -0.00070920 0.00000000
2.31021884 0.52927474 0.00596977 0.00000000
1.76607800 1.01171218 0.00512468 0.00000000
1.28067078 0.22202331 0.00046217 0.00000000
3.59457872 0.09000256 -0.00084786 0.00000000
0.00980929 1.76346913 0.00334969 0.00000000
3.80550856 0.37978597 -0.00020569 0.00000000
1.23157746 1.00598444 0.00033317 0.00000000
2.19086891 0.45925546 -0.00500222 0.00000000
1.22135041 0.21910660 0.00032903 0.00000000
1.57019193 1.19875489 -0.00066205 0.00000000
0.35081898 1.40291595 -0.00125932 0.00000000
4.06835715 0.08639267 -0.00421565 0.00000000
1.66080090 0.73613556 0.00107787 0.00000000
0.73291148 0.37390257 -0.00405334 0.00000000
1.39833642 0.42562301 -0.00078952 0.00000000
2.91426720 0.16812626 0.00193993 0.00000000
2.04560140 0.54080834 -0.00023628 0.00000000
1.69908530 0.60814290 0.00222757 0.00000000
2.33912725 1.72197982 -0.00297851 0.00000000
1.70390394 1.09942015 0.00061707 0.00000000
2.70334990 0.16716030 0.00095570 0.00000000
2.46450174 1.10313395 -0.00034926 0.00000000
1.04848077 0.62512528 -0.00201230 0.00000000
3.44899661 1.67663783 -0.00004566 0.00000000
0.95763523 1.91112894 0.00166952 0.00000000
0.04377036 1.20577219 0.00326554 0.00000000
0.40486621 1.34868048 0.00283743 0.00000000
2.78207157 1.33434825 -0.00163150 0.00000000
3.41290442 0.57795641 -0.00089528 0.00000000
2.53548464 1.70425199 -0.00276590 0.00000000
3.89265527 1.57185322 -0.00089950 0.00000000
3.67272603 1.36083747 0.00164282 0.00000000
3.50283065 0.99438550 -0.00002844 0.00000000
3.88806359 0.91501964 -0.00301270 0.00000000
1.61250182 0.33561011 0.00103250 0.00000000
0.18211356 0.31429342 0.00424566 0.00000000
3.01888002 0.74835768 -0.00104749 0.00000000
2.43134907 1.81003312 0.00119575 0.00000000
2.40952001 0.49990384 0.00099849 0.00000000
2.37842318 1.24417997 -0.00318933 0.00000000
1.34958615 0.75379193 0.00023172 0.00000000
0.28492463 1.70064779 -0.00350209 0.00000000
3.63003622 0.71834563 0.00301527 0.00000000
2.20131558 0.43996145 -0.00340013 0.00000000
1.08601694 0.47250964 0.00044165 0.00000000
4.16400663 1.00607479 0.00099991 0.00000000
3.95274707 1.09815254 0.00101562 0.00000000
0.38792562 1.32321600 0.00321404 0.00000000
0.76043805 1.81318153 -0.00368784 0.00000000
1.79367558 0.03362853 -0.00257256 0.00000000
3.46599710 0.83413606 0.00642758 0.00000000
1.19480266 0.76004422 -0.00015887 0.00000000
1.16097827 1.31713438 0.00160086 0.00000000
1.04239584 0.77366773 -0.00047203 0.00000000
1.05219810 0.14017702 0.00120372 0.00000000
3.29252297 0.91808189 -0.00239160 0.00000000
3.81808440 0.26201415 -0.00116804 0.00000000
3.86307655 0.24091451 -0.00022857 0.00000000
1.75998676 1.15061503 0.00024374 0.00000000
0.00388619 0.25736591 -0.00097373 0.00000000
0.49237553 1.63715095 0.00300678 0.00000000
0.89344128 0.90991291 -0.00271352 0.00000000
2.72944583 0.30317463 -0.00409090 0.00000000
0.22063573 0.27644432 -0.00232736 0.00000000
0.15341865 0.11107157 -0.00497182 0.00000000
1.36681562 0.74946064 -0.00057789 0.00000000
1.49179684 1.65179191 0.00500392 0.00000000
3.87157495 0.98560130 0.00199727 0.00000000
2.74061135 0.33007379 -0.00051909 0.00000000
3.27485159 0.78540206 -0.00403016 0.00000000
0.80763501 0.69172438 0.00246827 0.00000000
1.20363377 0.35538299 -0.00148778 0.00000000
1.02853344 0.98579968 -0.00144123 0.00000000
1.86176304 1.38344518 -0.00085269 0.00000000
0.70797159 0.71436293 0.00175089 0.00000000
0.26025400 0.31464506 0.00177963 0.00000000
3.62237928 0.93200372 -0.00106879 0.00000000
0.60087603 0.58094153 0.00252995 0.00000000
1.70504509 1.27175367 -0.00292423 0.00000000
0.17480701 0.27781169 0.00163536 0.00000000
3.32889180 1.25699521 -0.00274887 0.00000000
3.54188394 1.78726747 0.00066056 0.00000000
4.15164323 1.34470830 -0.00208186 0.00000000
1.69178918 0.58860004 -0.00252924 0.00000000
2.60103472 0.88550553 -0.00177615 0.00000000
4.16072039 0.46899444 0.00486327 0.00000000
1.07081978 1.69853551 0.00141267 0.00000000
2.96293450 0.87125128 -0.00058328 0.00000000
3.48177981 1.76998833 -0.00213847 0.00000000
0.50021287 1.65524530 0.00069775 0.00000000
1.54807292 1.57517085 0.00697288 0.00000000
1.83796214 0.20511770 -0.00018369 0.00000000
2.10761892 0.76811487 -0.00237394 0.00000000
2.83984377 1.21828439 -0.00218775 0.00000000
1.71309709 0.78320494 0.00200355 0.00000000
3.42658122 0.95322577 0.00498698 0.00000000
4.23052961 1.02238593 0.00180824 0.00000000
2.16559180 0.82011506 0.00190686 0.00000000
4.19546684 0.90912476 -0.00135877 0.00000000
1.54020559 1.59464553 0.00197379 0.00000000
2.73038936 0.30309974 -0.00170695 0.00000000
0.03457371 0.04748480 -0.00058661 0.00000000
3.21937137 0.92332665 0.00101240 0.00000000
2.79650401 0.25422597 0.00036590 0.00000000
2.05999660 1.56552659 0.00116958 0.00000000
0.61191531 1.14834050 -0.00516412 0.00000000
4.10857260 1.11113525 0.00236684 0.00000000
0.18658991 1.53672164 0.00160596 0.00000000
1.80698981 0.44559809 0.00145267 0.00000000
3.76860747 0.64381089 0.00465410 0.00000000
0.65052436 0.14594255 -0.00156576 0.00000000
3.13717188 1.91810110 -0.00253254 0.00000000
0.68705576 0.68665670 0.00117407 0.00000000
1.56592376 0.77095344 0.00236154 0.00000000
1.96664003 0.80185385 0.00227865 0.00000000
2.81704328 1.05563337 -0.00467048 0.00000000
0.55584044 1.81554005 0.00055598 0.00000000
2.72782104 0.94793500 -0.00108843 0.00000000
0.04731039 1.31271716 0.00003095 0.00000000
1.31898390 0.69774727 -0.00028183 0.00000000
1.46283728 1.04998230 0.00066007 0.00000000
1.79857097 1.07010161 0.00414910 0.00000000
2.22686001 1.79965760 -0.00083932 0.00000000
0.07584432 0.11573409 0.00170355 0.00000000
3.26248183 0.18470598 0.00139746 0.00000000
0.94531237 0.94829464 -0.00508133 0.00000000
4.16603637 1.14786722 -0.00176654 0.00000000
2.20587426 1.63732858 0.00298101 0.00000000
1.97846331 0.14811277 -0.00347818 0.00000000
3.62295956 0.54233229 -0.00095607 0.00000000
3.49465943 0.05282402 -0.00400815 0.00000000
3.32127308 0.73824921 0.00368049 0.00000000
3.62183683 1.86181767 0.00036937 0.00000000
2.01545154 1.78771104 0.00333200 0.00000000
1.24240898 0.45579176 0.00518750 0.00000000
3.56036477 0.68532590 0.00067811 0.00000000
1.61267923 1.56039399 0.00378462 0.00000000
0.52870692 0.05102312 0.00254579 0.00000000
4.08049431 0.74729152 0.00071898 0.00000000
1.44338247 1.71023479 0.00007875 0.00000000
1.25274955 1.28236874 -0.00593986 0.00000000
1.73879694 1.12609845 -0.00054158 0.00000000
1.46822632 1.75751681 -0.00524807 0.00000000
3.55221233 1.62500878 0.00088932 0.00000000
1.21153840 0.82576622 0.00200926 0.00000000
1.17265813 0.72829074 0.00514877 0.00000000
2.68768705 1.63762911 0.00092393 0.00000000
3.24987328 1.07785990 0.00141707 0.00000000
1.65274447 1.36016906 0.00187510 0.00000000
1.34295978 1.12202469 0.00102585 0.00000000
3.53359828 1.36810596 -0.00297973 0.00000000
2.81617306 0.93333371 0.00080808 0.00000000
1.06749768 0.80818024 -0.00162132 0.00000000
0.91209551 1.32085493 0.00089934 0.00000000
0.72510547 1.07009750 -0.00379997 0.00000000
1.03816540 1.51562242 -0.00196446 0.00000000
3.23083426 0.56305938 0.00256395 0.00000000
0.90624283 0.39389235 0.00159838 0.00000000
0.84532157 0.62693710 -0.00124443 0.00000000
0.37929105 1.51238703 0.00265230 0.00000000
1.97149355 1.39975571 -0.00311329 0.00000000
3.28531224 0.02126063 -0.00349162 0.00000000
2.52189635 1.03751551 0.00191401 0.00000000
2.65915650 0.58250987 0.00030133 0.00000000
4.13348251 1.05599063 0.00032259 0.00000000
1.97501404 1.80192216 0.00340528 0.00000000
1.55226551 1.51680363 0.00323849 0.00000000
3.56013906 1.31538725 0.00224630 0.00000000
3.46317480 1.62117781 -0.00303992 0.00000000
1.86163895 1.47941393 -0.00048199 0.00000000
0.85230480 0.71904272 0.00276787 0.00000000
3.31124832 0.90090048 0.00105616 0.00000000
1.64029299 1.81773658 0.00403704 0.00000000
1.61391349 1.23821310 0.00227312 0.00000000
2.98634584 1.26263595 -0.00001053 0.00000000
1.52688184 0.59175392 -0.00064564 0.00000000
2.28735754 0.66221699 0.00156785 0.00000000
0.43146355 1.14061425 -0.00352165 0.00000000
1.24413865 0.83788592 -0.00349762 0.00000000
1.80743356 0.09174189 -0.00294691 0.00000000
0.10337449 1.14188126 -0.00091790 0.00000000
1.97857431 1.82672497 -0.00089098 0.00000000
0.55890774 1.31832903 -0.00082121 0.00000000
4.02975442 1.86181796 0.00187861 0.00000000
0.44664125 1.85738290 -0.00226342 0.00000000
1.79078821 1.12866315 -0.00256364 0.00000000
1.85239015 1.15048248 0.00083048 0.00000000
0.24603371 0.67636907 0.00038983 0.00000000
2.83136251 0.79775572 0.00137740 0.00000000
3.44635611 0.66221358 0.00041007 0.00000000
1.80763066 1.43677429 0.00085337 0.00000000
4.07053987 1.07040721 0.00399137 0.00000000
0.12986169 0.36303733 -0.00165654 0.00000000
2.86765055 1.32564896 0.00005910 0.00000000
3.39941572 1.30338112 0.00297053 0.00000000
3.98925393 1.72771257 -0.00345997 0.00000000
0.29375144 0.24978924 -0.00292251 0.00000000
2.48017203 1.68806929 -0.00311164 0.00000000
0.50731649 1.12366991 -0.00386442 0.00000000
2.75677927 0.60894589 0.00041165 0.00000000
4.24134199 1.81559435 0.00223049 0.00000000
1.11846479 0.85794436 -0.00079657 0.00000000
0.91554636 1.16397767 -0.00398176 0.00000000
3.41478407 0.76792080 -0.00352622 0.00000000
2.69042011 1.40980102 -0.00031843 0.00000000
0.72705925 0.65942281 0.00110689 0.00000000
1.07078782 0.19355653 -0.00166694 0.00000000
2.21920845 0.72704096 -0.00154910 0.00000000
3.53394575 1.75154935 0.00211278 0.00000000
0.31290878 0.12838350 0.00146510 0.00000000
1.65868902 0.28424398 -0.00268331 0.00000000
1.43259192 0.75891354 -0.00233366 0.00000000
1.66748174 0.09990949 0.00268869 0.00000000
3.47500362 1.25935018 -0.00231239 0.00000000
2.66751009 1.29307345 0.00314083 0.00000000
0.06666166 0.45824174 0.00060641 0.00000000
4.00712855 0.58763409 0.00018941 0.00000000
0.94576714 0.95898924 -0.00055640 0.00000000
0.03599342 0.44431052 0.00232860 0.00000000
3.61931881 1.27145789 -0.00275144 0.00000000
3.12907401 1.50629848 0.00192538 0.00000000
0.75539794 0.70545405 -0.00421922 0.00000000
1.33777375 1.43945129 0.00219229 0.00000000
1.55115990 1.80473187 -0.00027318 0.00000000
2.36705099 1.73403265 -0.00066829 0.00000000
0.60175746 1.72960874 0.00227475 0.00000000
2.74962042 1.86320267 -0.00193945 0.00000000
0.54713154 0.92760717 0.00046424 0.00000000
3.92322016 0.74261876 0.00209512 0.00000000
1.95522788 1.67941167 -0.00123138 0.00000000
4.03520185 0.18324409 -0.00358617 0.00000000
1.24004650 1.72813572 -0.00102218 0.00000000
3.38513654 1.43829817 -0.00137319 0.00000000
3.83074732 0.24469478 -0.00358653 0.00000000
2.95690521 1.48414988 -0.00203801 0.00000000
3.81288981 1.09426599 -0.00305244 0.00000000
2.55331854 1.09476876 0.00236270 0.00000000
3.13682460 0.21512438 -0.00258663 0.00000000
3.34340798 0.04872822 0.00037376 0.00000000
2.97510568 1.16098250 -0.00569053 0.00000000
2.51287461 1.57754575 -0.00146589 0.00000000
4.23488272 0.62244148 0.00396294 0.00000000
3.28419468 0.52823152 0.00202547 0.00000000
0.37315702 0.29965777 -0.00065600 0.00000000
3.64429356 1.60860314 0.00011275 0.00000000
0.08790283 1.64664535 -0.00221148 0.00000000
1.19333396 1.59846911 -0.00323717 0.00000000
4.27332193 1.35134446 -0.00132975 0.00000000
3.25024079 0.44778086 0.00145961 0.00000000
3.19855553 1.77073558 -0.00438068 0.00000000
3.60517006 0.62368592 0.00215314 0.00000000
0.34305754 1.67314131 0.00092975 0.00000000
2.42306378 0.54851222 -0.00101269 0.00000000
4.20467530 1.84347862 0.00352976 0.00000000
0.39792395 0.26171345 -0.00098381 0.00000000
0.48013160 0.44615944 0.00239992 0.00000000
2.00203941 1.15354350 0.00002645 0.00000000
2.03410213 0.32722822 0.00110105 0.00000000
0.95276183 0.44070654 -0.00376680 0.00000000
0.00792115 0.72061948 0.00287046 0.00000000
1.49108839 0.98036532 0.00105449 0.00000000
2.67865255 1.65889684 -0.00220331 0.00000000
2.19470999 0.79803487 -0.00158763 0.00000000
4.03898698 0.37876337 0.00082365 0.00000000
0.49723233 1.29397036 -0.00200079 0.00000000
2.98188992 0.50002391 -0.00290248 0.00000000
2.94036332 1.64920008 0.00441281 0.00000000
3.68742829 1.31170596 0.00086865 0.00000000
3.24972772 0.81852889 0.00105237 0.00000000
1.75364648 0.30544572 -0.00022118 0.00000000
1.48367647 0.99022700 -0.00200276 0.00000000
1.36854128 1.24788180 0.00196514 0.00000000
0.75771333 0.72083159 -0.00396520 0.00000000
4.08365717 0.90242491 -0.00147997 0.00000000
0.60976214 0.60970166 -0.00275407 0.00000000
1.64711462 0.44736242 -0.00069014 0.00000000
4.01221898 1.91822972 -0.00169628 0.00000000
1.90137871 0.19448570 -0.00163690 0.00000000
2.79758574 0.37883048 -0.00254516 0.00000000
1.02864673 1.59862473 0.00182321 0.00000000
2.73749296 1.29698315 -0.00241571 0.00000000
1.39228557 1.22904878 0.00432368 0.00000000
2.87079898 0.55801474 -0.00255800 0.00000000
3.21564830 1.32995407 0.00088369 0.00000000
3.53920706 0.06372320 -0.00032008 0.00000000
4.23668748 0.33936942 0.00236349 0.00000000
2.00429500 0.06212381 0.00192840 0.00000000
1.56329070 1.27821203 -0.00051670 0.00000000
2.54960077 1.30883570 0.00199678 0.00000000
0.12152487 0.98779216 -0.00033327 0.00000000
3.42756759 1.55689082 0.00023949 0.00000000
1.32228279 0.37656641 -0.00527176 0.00000000
3.63857344 1.13070682 0.00203838 0.00000000
3.36219800 1.33160863 0.00434449 0.00000000
2.51574006 0.12422582 -0.00051804 0.00000000
3.93316443 0.05475897 0.00049661 0.00000000
3.60916052 1.76888625 -0.00368662 0.00000000
0.20792680 1.25733850 0.00010583 0.00000000
2.32826775 0.34053253 -0.00082879 0.00000000
3.54714906 0.83099667 0.00276932 0.00000000
3.40562051 1.12330293 0.00156335 0.00000000
0.12750834 1.78866240 -0.00151923 0.00000000
1.71065429 0.22694936 -0.00021956 0.00000000
3.64050366 0.66884973 -0.00485461 0.00000000
3.72530313 1.35089647 -0.00167677 0.00000000
0.22395857 1.09840552 -0.00043714 0.00000000
3.73752871 0.41722724 -0.00126054 0.00000000
4.22251817 0.40018844 -0.00220646 0.00000000
1.26029670 1.26057725 0.00311945 0.00000000
0.29790929 0.76831573 0.00145242 0.00000000
3.41829591 0.66863709 -0.00196649 0.00000000
1.00780418 0.00913111 -0.00505524 0.00000000
3.68106035 0.64066731 0.00037826 0.00000000
2.39804521 1.27775942 0.00219708 0.00000000
4.03634471 0.39769971 -0.00360383 0.00000000
0.04694188 1.83172141 -0.00208673 0.00000000
2.69525957 1.49619015 -0.00238433 0.00000000
2.01336744 0.47080467 0.00243351 0.00000000
1.69799414 1.09187155 0.00280809 0.00000000
4.03345676 1.14536275 0.00078950 0.00000000
3.63684692 0.66598742 0.00019053 0.00000000
1.63033003 0.08179447 -0.00507190 0.00000000
2.33616602 0.21259972 -0.00707041 0.00000000
2.69259781 0.63412492 -0.00208869 0.00000000
0.24713712 0.72144273 0.00116632 0.00000000
4.18637444 1.13721621 -0.00410415 0.00000000
0.14210520 1.73006502 0.00336655 0.00000000
3.71763080 0.73949159 0.00030945 0.00000000
1.09214278 0.36764355 0.00147329 0.00000000
0.15327068 0.00240044 -0.00371328 0.00000000
2.26329657 0.08921438 0.00273720 0.00000000
3.86719940 0.67019824 -0.00033226 0.00000000
1.37145695 1.74075590 0.00252666 0.00000000
1.03693245 1.56689394 -0.00144890 0.00000000
2.17951612 1.52113822 -0.00410278 0.00000000
0.46154561 1.24861394 0.00004611 0.00000000
0.59315952 1.49256980 0.00250028 0.00000000
1.62010527 1.16544105 0.00098510 0.00000000
0.54588129 0.55224918 -0.00358386 0.00000000
1.62616321 0.33316822 -0.00030823 0.00000000
1.79119571 0.50734270 -0.00269889 0.00000000
3.17671886 1.16534914 -0.00257137 0.00000000
4.25844070 0.04692112 0.00177750 0.00000000
1.85994870 0.59158959 -0.00523926 0.00000000
1.23317416 0.01963240 0.00117264 0.00000000
2.68004024 0.34367863 -0.00160563 0.00000000
0.57006235 0.77668671 -0.00093816 0.00000000
3.48633604 0.92752558 -0.00223296 0.00000000
3.30223796 1.36695018 0.00444237 0.00000000
2.37768170 0.37465202 0.00369362 0.00000000
2.70353851 0.24380085 0.00124631 0.00000000
3.16476442 1.82317736 -0.00491983 0.00000000
4.04396737 0.27485660 0.00034196 0.00000000
2.53404535 1.27972633 -0.00094077 0.00000000
0.57874469 1.13649032 0.00267826 0.00000000
1.21065517 1.26004958 -0.00651278 0.00000000
2.21913385 0.47786267 -0.00001839 0.00000000
3.37820241 0.82427021 0.00182478 0.00000000
2.70967033 0.88951883 0.00134619 0.00000000
0.67715561 1.74224662 0.00316137 0.00000000
2.28544087 0.51803541 0.00169502 0.00000000
0.61613045 0.02028328 -0.00431085 0.00000000
1.59070039 0.63510945 0.00605561 0.00000000
0.34511148 1.46175677 -0.00538273 0.00000000
0.01582551 0.27598221 -0.00337990 0.00000000
3.66839430 0.02117585 -0.00223125 0.00000000
1.98756311 1.30030779 0.00353773 0.00000000
4.19049669 0.96718229 -0.00063654 0.00000000
3.61778756 0.56838933 -0.00238029 0.00000000
1.16534563 1.48702430 -0.00431078 0.00000000
3.93745960 1.25567246 -0.00130413 0.00000000
0.90812898 0.89860388 0.00254759 0.00000000
3.13058906 1.56565610 0.00460294 0.00000000
1.85575943 1.81117029 0.00025262 0.00000000
3.69230453 1.69561684 0.00424593 0.00000000
2.66019511 0.30200197 0.00009910 0.00000000
2.33794549 1.52788945 0.00074484 0.00000000
0.66371825 0.38299955 0.00042847 0.00000000
4.20200410 1.88539443 0.00332101 0.00000000
0.15414238 0.28498276 -0.00214856 0.00000000
3.64563551 0.92332384 -0.00273344 0.00000000
0.50973990 1.62129809 0.00153771 0.00000000
3.97658848 0.85291097 -0.00050428 0.00000000
1.63988545 1.19606290 0.00071924 0.00000000
3.80752459 1.09078004 0.00269957 0.00000000
3.84818735 0.89238115 0.00154841 0.00000000
2.75817794 0.06154436 0.00266962 0.00000000
1.34964609 1.59326158 -0.00368135 0.00000000
1.18740886 1.22708608 -0.00034625 0.00000000
1.25719038 0.25878430 0.00379673 0.00000000
1.31414125 1.00716114 -0.00176906 0.00000000
0.10145569 1.34304775 -0.00213807 0.00000000
3.23241681 0.01356429 0.00168417 0.00000000
0.69905612 1.06863183 0.00135846 0.00000000
0.09076054 0.47801686 -0.00044568 0.00000000
2.06452936 0.02647839 -0.00205759 0.00000000
1.80059309 0.95332859 -0.00549774 0.00000000
2.09577652 0.43064674 -0.00249843 0.00000000
0.90718002 1.69794997 -0.00059492 0.00000000
2.70174543 1.13669008 -0.00150064 0.00000000
3.01269234 1.83196503 0.00155800 0.00000000
1.48050951 0.89154233 -0.00260788 0.00000000
2.60619596 0.70559799 -0.00552545 0.00000000
2.08765522 0.88553099 0.00112993 0.00000000
2.99149624 1.72233483 -0.00122960 0.00000000
3.05315635 1.88997062 0.00304324 0.00000000
0.09062018 0.59020056 0.00155484 0.00000000
4.20341941 0.74161944 -0.00076931 0.00000000
2.96395830 1.68093124 0.00220521 0.00000000
2.95571624 0.86355769 0.00078238 0.00000000
1.28219352 0.78059868 0.00051261 0.00000000
2.78723594 1.45508573 0.00373330 0.00000000
1.92674173 1.20620686 -0.00036356 0.00000000
0.84116647 1.06099634 -0.00235741 0.00000000
1.82462737 0.28279129 -0.00138304 0.00000000
3.53275502 0.49462649 0.00106372 0.00000000
2.95303152 1.44339545 -0.00055748 0.00000000
0.09688453 0.80655553 -0.00298638 0.00000000
1.03630607 1.46152174 0.00091757 0.00000000
2.05316919 1.63026348 -0.00027607 0.00000000
1.34688546 1.08192832 0.00116401 0.00000000
2.67775207 1.39647529 -0.00471721 0.00000000
3.41572079 0.70209229 -0.00278977 0.00000000
3.53281149 0.63180525 0.00260324 0.00000000
0.59924837 0.42465102 0.00259803 0.00000000
1.22793393 0.56368116 -0.00314900 0.00000000
2.73526895 0.24909992 -0.00083254 0.00000000
2.65759722 1.23928967 -0.00420770 0.00000000
3.63946466 0.03367669 -0.00058328 0.00000000
0.51328540 0.72269705 0.00195201 0.00000000
1.36804648 1.71524272 -0.00237175 0.00000000
2.50064578 1.46055142 -0.00015186 0.00000000
3.48827653 1.58553739 0.00398515 0.00000000
1.32281192 1.28395989 0.00557628 0.00000000
0.96094697 1.46455722 -0.00000737 0.00000000
0.11408891 1.22628613 0.00257476 0.00000000
2.14020529 0.62475951 -0.00104136 0.00000000
2.96353995 1.01710215 -0.00034272 0.00000000
2.18042752 0.51646480 -0.00312940 0.00000000
3.40883645 0.96963751 -0.00004997 0.00000000
1.09096681 1.14535855 0.00166118 0.00000000
1.50639068 0.44188567 -0.00187792 0.00000000
0.03521648 1.02908698 -0.00370100 0.00000000
3.08936265 1.28146981 -0.00006553 0.00000000
1.52750968 1.68049396 0.00276027 0.00000000
3.01667296 1.34986916 0.00205945 0.00000000
3.84757874 1.35717280 -0.00028897 0.00000000
4.03583648 0.90472156 -0.00208022 0.00000000
1.96928458 1.48462018 0.00016693 0.00000000
4.18937716 1.32525194 -0.00260482 0.00000000
0.66627340 0.71995633 -0.00028533 0.00000000
0.34457293 0.60954260 0.00146826 0.00000000
3.60747295 1.53631657 -0.00004230 0.00000000
4.25898867 0.11342167 -0.00342626 0.00000000
2.57825669 1.75582784 0.00333784 0.00000000
1.60863933 1.75544756 -0.00110928 0.00000000
1.06184513 1.67877396 -0.00361258 0.00000000
1.93862159 0.94706590 0.00145182 0.00000000
3.27913493 0.19954927 -0.00033447 0.00000000
2.16093417 0.15879889 0.00099886 0.00000000
3.00718527 0.05528495 0.00268477 0.00000000
2.03595945 0.83870789 0.00066501 0.00000000
1.99898377 1.55484729 -0.00373423 0.00000000
0.57277048 0.92359086 0.00334946 0.00000000
0.74632425 0.53237302 -0.00698931 0.00000000
2.39405949 0.36283882 -0.00047950 0.00000000
3.17196821 1.36953739 -0.00288214 0.00000000
0.01494208 0.03371490 -0.00285931 0.00000000
1.11179388 0.57343271 0.00226076 0.00000000
2.31171217 1.24922614 0.00080564 0.00000000
2.96362155 0.53240676 0.00502738 0.00000000
4.13873136 1.14879308 -0.00271187 0.00000000
2.63408877 0.29581258 -0.00429573 0.00000000
1.32380973 0.37616136 -0.00196955 0.00000000
3.48540318 1.27698761 0.00056601 0.00000000
3.38886816 1.31823538 0.00021307 0.00000000
0.03364222 1.21368205 -0.00333651 0.00000000
0.38344064 0.47566327 -0.00167479 0.00000000
1.75958086 0.89375425 0.00161721 0.00000000
2.00302323 1.45033703 -0.00189786 0.00000000
0.37620744 1.54743708 -0.00348173 0.00000000
2.76163676 0.31296731 0.00307856 0.00000000
3.81224229 0.45592333 0.00347321 0.00000000
4.19030414 1.75293379 -0.00042656 0.00000000
4.11825985 0.07365271 -0.00409093 0.00000000
2.63413485 0.55483914 0.00325544 0.00000000
1.38141014 0.58128183 0.00032471 0.00000000
3.99149669 1.64760601 -0.00129920 0.00000000
0.13341860 0.57195551 -0.00709521 0.00000000
0.73997717 1.08825393 -0.00298463 0.00000000
1.70725934 1.82953333 0.00388698 0.00000000
3.88833000 0.07225189 -0.00163689 0.00000000
0.87157445 0.13300102 -0.00117913 0.00000000
1.10270087 0.56834776 0.00097295 0.00000000
1.99662925 1.42295690 0.00451611 0.00000000
2.15701486 1.16333966 -0.00287251 0.00000000
0.95365013 0.67031754 -0.00304414 0.00000000
0.21575294 1.26984015 0.00622905 0.00000000
0.45476096 1.15173698 -0.00281276 0.00000000
1.14582069 1.19579272 -0.00095422 0.00000000
0.75277423 0.48146323 0.00309015 0.00000000
1.59010179 1.13625396 0.00251936 0.00000000
1.93780765 0.91848657 -0.00021351 0.00000000
3.63051669 1.46147925 0.00024860 0.00000000
0.74665616 0.46536611 -0.00404202 0.00000000
1.78103863 0.43621180 0.00662810 0.00000000
2.09805480 0.57811633 -0.00048251 0.00000000
3.84800216 1.71510203 0.00650807 0.00000000
0.12078739 0.93231376 0.00356311 0.00000000
2.61618340 1.89585196 0.00314529 0.00000000
2.65514266 0.90341727 -0.00051875 0.00000000
3.06750543 0.82446312 0.00120584 0.00000000
0.80775239 1.28899905 0.00338331 0.00000000
3.49768401 1.64334974 -0.00231467 0.00000000
2.98257660 1.84245479 0.00217388 0.00000000
3.75230225 1.89707937 0.00094158 0.00000000
0.31133940 1.33868460 0.00098838 0.00000000
0.76611334 0.37211846 -0.00063795 0.00000000
0.17239455 1.24001995 0.00419980 0.00000000
1.07129952 1.86126846 0.00255224 0.00000000
2.59040524 1.77521264 0.00127334 0.00000000
0.43078351 0.63343778 -0.00280480 0.00000000
1.92149059 0.01529488 0.00061626 0.00000000
2.57949255 0.97778368 0.00086735 0.00000000
0.82168245 1.63986480 -0.00527327 0.00000000
4.12666662 0.07783301 0.00083528 0.00000000
2.40870485 0.08217134 0.00190519 0.00000000
3.15727892 0.94235325 -0.00129195 0.00000000
1.31435331 0.50153637 0.00268021 0.00000000
0.87464111 1.81232458 0.00077884 0.00000000
0.77695580 1.49452571 0.00114680 0.00000000
0.05855251 0.17911681 0.00020505 0.00000000
2.37442615 1.78311324 -0.00110444 0.00000000
2.68397317 1.47198541 0.00278383 0.00000000
1.64069223 0.78385697 -0.00110437 0.00000000
2.13584692 1.13785725 -0.00088017 0.00000000
1.22400676 0.85179900 -0.00299343 0.00000000
1.25012581 0.37882797 -0.00002960 0.00000000
2.01176939 0.66554591 0.00332035 0.00000000
2.14974908 0.24945626 -0.00427344 0.00000000
2.19047736 1.46354052 0.00467662 0.00000000
1.11242470 1.89716870 -0.00021915 0.00000000
1.18166105 1.92122001 -0.00082578 0.00000000
2.34040781 0.46324521 0.00110046 0.00000000
0.03482040 0.05807358 0.00166928 0.00000000
1.42982960 0.21051912 0.00086191 0.00000000
1.03005541 0.99169294 0.00222472 0.00000000
3.97069295 1.50723021 0.00170272 0.00000000
2.89119096 0.43558494 0.00321592 0.00000000
3.59357500 1.67895330 0.00147390 0.00000000
3.95430559 1.36371294 -0.00211213 0.00000000
4.17511487 0.21063253 -0.00068305 0.00000000
0.95839507 0.44885868 0.00026308 0.00000000
3.99276031 1.12469029 0.00442068 0.00000000
3.35998815 0.93188164 -0.00078655 0.00000000
3.47357391 1.15827837 -0.00285741 0.00000000
1.06466677 1.51601918 0.00404007 0.00000000
0.33278728 0.49758792 0.00215619 0.00000000
0.00325422 1.84136250 0.00324181 0.00000000
3.70208300 0.56014858 -0.00087633 0.00000000
3.44751437 0.15869999 0.00150541 0.00000000
2.50452635 0.50795587 -0.00187492 0.00000000
0.08470844 0.99850237 -0.00093607 0.00000000
0.65661137 1.50190658 0.00336803 0.00000000
4.00076969 0.66863772 -0.00151884 0.00000000
4.23654366 0.37419105 0.00165073 0.00000000
2.48089334 0.08208410 0.00013732 0.00000000
3.30107231 0.18168479 -0.00238185 0.00000000
1.41728206 0.97821613 0.00121604 0.00000000
4.14622819 0.19180437 -0.00160161 0.00000000
3.82825624 1.64438994 -0.00161844 0.00000000
0.04653171 0.77664438 0.00380816 0.00000000
1.47029184 0.16481536 -0.00008598 0.00000000
4.27014613 1.10062038 0.00028873 0.00000000
0.13129575 1.56831377 -0.00054375 0.00000000
0.61696028 0.37680141 -0.00244648 0.00000000
3.17646274 0.65330089 0.00056433 0.00000000
4.14162775 0.87050067 -0.00110408 0.00000000
0.48975838 0.61853533 -0.00040741 0.00000000
0.57891223 1.83646480 -0.00464251 0.00000000
1.35501418 1.08853942 0.00446126 0.00000000
0.83529644 0.56327578 0.00606977 0.00000000
2.84545519 0.42523781 0.00021501 0.00000000
3.15790332 0.13929269 0.00308985 0.00000000
1.68094460 0.84481520 0.00187663 0.00000000
3.86072405 0.17786958 -0.00149128 0.00000000
0.48070893 1.11237608 -0.00049960 0.00000000
1.90782837 1.47534057 -0.00053550 0.00000000
1.38295521 0.44942424 0.00346890 0.00000000
1.90019346 0.72126410 -0.00068943 0.00000000
3.46192725 0.60396420 -0.00326903 0.00000000
3.16221121 0.97717065 -0.00078759 0.00000000
1.90185639 0.33884359 -0.00197912 0.00000000
1.19495199 1.50639417 -0.00420064 0.00000000
2.80378692 1.49874666 0.00226275 0.00000000
0.64115904 0.15425637 0.00089046 0.00000000
4.20564174 0.35255572 0.00562021 0.00000000
2.69847152 0.21440615 0.00200505 0.00000000
1.37412199 1.54822569 -0.00123260 0.00000000
2.57406530 1.49329579 0.00012583 0.00000000
3.16415348 1.56234865 0.00349026 0.00000000
3.35831522 0.51397883 0.00208725 0.00000000
0.40420496 1.08644570 0.00460360 0.00000000
3.81851325 1.44785473 0.00195858 0.00000000
3.74313279 0.00817150 0.00296821 0.00000000
4.08008617 1.61644565 -0.00047959 0.00000000
1.49413048 0.67683219 0.00652452 0.00000000
3.81823926 0.91067251 0.00120679 0.00000000
3.06422559 0.25225767 -0.00867266 0.00000000
1.44549535 1.70682391 0.00226090 0.00000000
1.74915109 1.51111593 0.00312681 0.00000000
0.34599381 0.24228342 0.00227929 0.00000000
0.50318548 0.55589358 0.00022395 0.00000000
0.71458077 1.41402943 0.00298782 0.00000000
2.94101551 1.90900445 -0.00512329 0.00000000
3.71953570 0.09857542 0.00157569 0.00000000
1.71112800 0.59087292 0.00090412 0.00000000
4.18927450 0.46195507 0.00059714 0.00000000
2.11677546 0.91512817 0.00486415 0.00000000
2.58085048 0.87860317 0.00103432 0.00000000
4.02333566 1.31026647 0.00009499 0.00000000
0.88869175 1.85514659 -0.00232002 0.00000000
1.73283141 0.87103019 0.00122087 0.00000000
1.52129981 0.05128516 0.00151300 0.00000000
3.74062755 1.37011972 0.00145536 0.00000000
0.21543742 1.29893538 0.00254399 0.00000000
2.70003743 1.91797180 0.00142339 0.00000000
3.44577774 0.29394458 0.00171002 0.00000000
1.96280883 0.47712702 -0.00032510 0.00000000
1.95189069 1.13483036 -0.00051322 0.00000000
0.37973621 0.63315646 -0.00191534 0.00000000
0.12823787 0.84228745 0.00023334 0.00000000
2.80323786 0.28412273 -0.00078267 0.00000000
2.59820307 0.48198512 -0.00602423 0.00000000
1.87434666 0.68491359 0.00336689 0.00000000
1.72650160 0.10805533 0.00183426 0.00000000
3.40585372 0.58250729 -0.00021055 0.00000000
2.98646054 0.75908022 0.00164397 0.00000000
1.17034001 0.95937687 0.00160955 0.00000000
4.08669088 1.51311522 -0.00203159 0.00000000
1.88511422 1.79868336 -0.00003657 0.00000000
3.78385089 1.33985628 -0.00326854 0.00000000
2.18271982 1.26085956 -0.00409848 0.00000000
0.45084030 0.92487875 0.00089424 0.00000000
1.17103888 1.91042050 -0.00038230 0.00000000
3.95261765 0.53006529 0.00021672 0.00000000
1.66393683 1.54277144 -0.00194247 0.00000000
1.37265610 0.03691116 0.00327092 0.00000000
0.92824160 0.40307227 0.00120393 0.00000000
1.90546972 1.33053550 0.00203313 0.00000000
2.83080891 1.77413117 0.00042624 0.00000000
0.30331310 1.51700567 0.00240201 0.00000000
3.63496623 0.55467228 0.00250978 0.00000000
3.98491526 1.37917179 -0.00136737 0.00000000
2.85650115 0.34533337 0.00382928 0.00000000
3.39395680 1.00943970 -0.00460337 0.00000000
0.46349800 1.63240561 -0.00271644 0.00000000
3.78429146 1.06079314 -0.00354857 0.00000000
0.25278970 1.07803858 0.00080442 0.00000000
3.49570143 0.19413812 -0.00065458 0.00000000
2.02842565 1.44456012 -0.00124394 0.00000000
