1.62979472 1.84160231 -0.00092739 0.00000000
1.79447639 2.26330073 0.00559793 0.00000000
3.28318117 0.31443852 -0.00095133 0.00000000
3.88821572 2.01724572 -0.00488305 0.00000000
0.24270253 1.38104065 -0.00117243 0.00000000
3.44361712 0.84287378 -0.00087818 0.00000000
1.83500343 1.10402251 0.00348977 0.00000000
3.75569639 2.33927526 -0.00052858 0.00000000
0.56700087 0.14391014 0.00074640 0.00000000
3.81396250 0.27002884 -0.00073726 0.00000000
2.92585892 0.52421162 0.00034868 0.00000000
2.43234968 0.22450458 -0.00219926 0.00000000
0.08521825 1.79632887 -0.00244408 0.00000000
0.16081022 1.85992269 0.00055488 0.00000000
2.44084241 1.04515186 -0.00035997 0.00000000
2.55119588 0.21501086 -0.00145695 0.00000000
0.59491767 0.84759919 0.00080127 0.00000000
0.25392638 2.29539794 0.00073498 0.00000000
3.40543244 1.84348422 -0.00071138 0.00000000
3.07960827 2.06733758 0.00113312 0.00000000
3.02712784 1.89064969 0.00169994 0.00000000
0.37073480 1.49758272 0.00004217 0.00000000
3.86228546 1.67686909 -0.00316412 0.00000000
0.68491036 2.30888084 -0.00024617 0.00000000
0.97641169 1.69176791 -0.00004659 0.00000000
4.16621928 2.45737999 -0.00274429 0.00000000
1.39628592 1.06455325 0.00140820 0.00000000
2.00361301 1.85153512 -0.00176305 0.00000000
3.98121012 1.46655948 -0.00032984 0.00000000
1.69462181 1.49884195 0.00391746 0.00000000
1.20705196 0.94853220 -0.00022331 0.00000000
2.50114655 1.01352648 0.00385494 0.00000000
3.72297190 0.72674868 -0.00328086 0.00000000
4.11357643 0.51276581 -0.00216006 0.00000000
1.77293756 1.03836568 0.00314477 0.00000000
3.69736967 0.14972512 0.00051122 0.00000000
1.12685631 1.59235219 0.00138846 0.00000000
3.13578161 1.35753020 0.00262254 0.00000000
1.20238719 1.63125192 0.00674684 0.00000000
2.60959650 1.87726073 -0.00355245 0.00000000
4.03099295 1.25512828 -0.00148213 0.00000000
2.83501054 0.20843238 0.00222238 0.00000000
1.24995700 1.18378979 -0.00473438 0.00000000
1.94221476 1.27387391 -0.00660532 0.00000000
0.38797786 0.69547293 -0.00211674 0.00000000
0.40183452 1.72368158 0.00310891 0.00000000
0.54159398 1.41531178 0.00141084 0.00000000
0.30600794 2.05904335 0.00251440 0.00000000
3.29633138 0.73427936 -0.00053059 0.00000000
1.40369140 0.86764027 0.00008616 0.00000000
1.43740484 1.09163739 -0.00367403 0.00000000
1.50370775 0.71931637 0.00036815 0.00000000
2.23742310 1.31007171 -0.00314334 0.00000000
3.63573144 2.34996303 -0.00301760 0.00000000
3.10187747 1.84350126 -0.00191901 0.00000000
3.77165239 1.43969613 -0.00163602 0.00000000
1.66565890 2.31551638 0.00197999 0.00000000
4.23157427 1.13818089 -0.00115190 0.00000000
3.94354553 1.93189066 -0.00245488 0.00000000
4.12944176 0.48676986 -0.00236496 0.00000000
1.09062001 1.73352787 -0.00116252 0.00000000
2.27450934 1.92994217 -0.00305099 0.00000000
3.62467264 0.46231371 -0.00202193 0.00000000
2.01434138 0.19018523 -0.00393521 0.00000000
4.09614472 0.03678044 0.00141917 0.00000000
1.58587528 1.15893786 0.00098935 0.00000000
0.33801220 1.10006832 0.00082701 0.00000000
3.35742787 0.13728828 -0.00051717 0.00000000
3.06271892 2.36344839 0.00043266 0.00000000
0.13130835 1.49499187 0.00051504 0.00000000
3.76688026 0.36262527 0.00223126 0.00000000
3.19281364 0.99174036 0.00003687 0.00000000
3.65861563 0.09709934 0.00193102 0.00000000
3.13102602 1.15570987 0.00226197 0.00000000
3.10256890 1.62855780 -0.00076430 0.00000000
0.02266792 0.61738291 0.00008571 0.00000000
3.89943066 0.59634170 -0.00028805 0.00000000
3.26968428 2.27375983 -0.00124424 0.00000000
3.39251997 2.06828930 0.00120434 0.00000000
0.04034872 2.29809717 0.00405251 0.00000000
4.24194417 1.92597258 -0.00348215 0.00000000
2.24112336 1.20168341 0.00256240 0.00000000
3.51095940 1.02961192 0.00216755 0.00000000
2.38368652 2.44952581 -0.00104875 0.00000000
3.52489167 0.48728321 0.00295121 0.00000000
1.43773483 2.00060447 -0.00321378 0.00000000
3.75668861 0.68904728 -0.00041793 0.00000000
2.41491336 0.85353571 0.00278208 0.00000000
2.48762768 2.05263373 -0.00008454 0.00000000
4.24509370 0.51351951 -0.00386371 0.00000000
2.60728498 0.95090831 -0.00373386 0.00000000
3.34464574 1.12992974 -0.00087636 0.00000000
4.15419278 1.63615820 -0.00267081 0.00000000
1.99207238 2.46439378 0.00143786 0.00000000
2.88850412 0.99346952 -0.00052651 0.00000000
3.81073681 2.40542027 -0.00247815 0.00000000
0.78178515 1.51136117 -0.00225946 0.00000000
3.69988426 0.77111300 0.00145781 0.00000000
2.70786355 1.67035053 -0.00105902 0.00000000
0.45436899 0.56984102 -0.00246557 0.00000000
3.36955172 0.05815478 -0.00216780 0.00000000
0.54555673 0.90691610 -0.00119221 0.00000000
1.73768489 0.76422219 -0.00406948 0.00000000
1.05076940 1.62416328 -0.00045401 0.00000000
1.59828208 1.12606852 0.00755735 0.00000000
0.86618864 1.86659145 -0.00220471 0.00000000
3.25227847 1.70002795 0.00182847 0.00000000
3.03781780 0.14836225 0.00113727 0.00000000
0.04302946 1.16056529 0.00105065 0.00000000
0.38909013 0.87018111 -0.00160241 0.00000000
3.92339968 0.01044319 0.00193387 0.00000000
1.35240624 0.65758391 -0.00339811 0.00000000
0.41410537 2.39599815 -0.00200968 0.00000000
1.67771961 0.44465836 0.00614142 0.00000000
1.58990959 0.43144091 0.00263442 0.00000000
1.61379986 2.29226326 -0.00161930 0.00000000
4.16856116 1.36719113 -0.00123601 0.00000000
2.68111373 2.03385092 -0.00025628 0.00000000
0.06881636 0.50666301 0.00042647 0.00000000
2.18672273 1.16523262 0.00064783 0.00000000
3.61216678 2.31409176 -0.00104194 0.00000000
1.52548653 0.92829676 0.00188603 0.00000000
4.21769642 1.55346190 0.00048311 0.00000000
1.21830573 0.02898331 0.00109350 0.00000000
2.44813436 1.01927199 -0.00208240 0.00000000
0.46202341 0.76885249 0.00330644 0.00000000
3.65602618 0.58343589 -0.00373500 0.00000000
3.56419757 1.54265840 -0.00069764 0.00000000
2.41868597 0.03687620 0.00059490 0.00000000
1.52538886 1.07150420 0.00003474 0.00000000
1.68781258 0.92654029 -0.00274279 0.00000000
0.60256460 0.40022125 -0.00432725 0.00000000
0.63223031 1.86646112 -0.00388226 0.00000000
4.15561954 1.20039120 0.00065827 0.00000000
0.07496270 1.27214463 0.00126992 0.00000000
3.70939086 1.99442335 -0.00169129 0.00000000
2.17628573 1.12256869 -0.00211405 0.00000000
4.05523065 0.43807909 0.00135471 0.00000000
0.75741586 1.17877049 -0.00445754 0.00000000
0.52544490 2.12665183 0.00166090 0.00000000
3.48713806 0.78764900 0.00143457 0.00000000
3.27383433 0.79593664 0.00579357 0.00000000
3.20124842 1.39842018 -0.00061828 0.00000000
1.51443866 0.20306958 0.00070710 0.00000000
3.61624050 1.91716232 -0.00015209 0.00000000
4.14893178 1.97482376 -0.00221223 0.00000000
3.33003930 2.26626393 0.00162731 0.00000000
3.48382522 2.20845653 -0.00557681 0.00000000
0.71412159 1.41937712 -0.00221853 0.00000000
2.95056630 0.41766210 0.00261431 0.00000000
1.86687708 1.02795269 -0.00377408 0.00000000
0.86759114 2.44521102 0.00289005 0.00000000
3.15694746 2.40366199 0.00245580 0.00000000
2.51820077 1.58861416 -0.00505455 0.00000000
3.07037642 0.13771093 0.00211039 0.00000000
1.59091409 0.32957934 -0.00079369 0.00000000
0.29813493 1.34571779 -0.00276379 0.00000000
3.19143733 1.71605099 0.00125161 0.00000000
1.06176859 1.39443026 0.00069617 0.00000000
1.57825674 0.95701108 -0.00184947 0.00000000
1.37071193 0.91768333 0.00347186 0.00000000
0.80685442 0.24969534 -0.00270605 0.00000000
0.72911833 1.93254795 0.00145036 0.00000000
3.82569841 0.69964269 0.00084102 0.00000000
2.91892564 1.48486317 0.00071940 0.00000000
1.90713478 0.83373146 -0.00251981 0.00000000
4.11682712 1.15081172 -0.00587809 0.00000000
2.83184681 0.83654518 -0.00188472 0.00000000
2.57478432 2.35060498 -0.00459847 0.00000000
0.30567895 0.88973855 0.00047419 0.00000000
3.30927453 0.52290334 0.00070794 0.00000000
1.30149770 1.87939984 0.00073840 0.00000000
0.32991412 1.26462069 -0.00258940 0.00000000
0.18642967 1.29824198 -0.00295709 0.00000000
1.59797506 0.46016970 0.00397661 0.00000000
1.73313587 1.64556821 -0.00271269 0.00000000
1.24666910 0.14821788 -0.00213410 0.00000000
1.00268196 1.02246114 -0.00135078 0.00000000
3.78287356 0.93044690 0.00323157 0.00000000
0.96436531 0.99436219 0.00192466 0.00000000
1.01827522 1.07800247 -0.00009546 0.00000000
2.52954636 0.11660743 -0.00231279 0.00000000
1.76790629 0.65631865 -0.00059372 0.00000000
1.82820224 0.94517649 -0.00193148 0.00000000
3.34073329 1.26261104 -0.00045254 0.00000000
4.17664011 2.29801885 -0.00545528 0.00000000
2.96489130 1.97699155 -0.00004787 0.00000000
2.37111680 0.04662906 -0.00392321 0.00000000
2.07102721 2.35915809 -0.00114228 0.00000000
0.49619776 1.26937579 0.00201447 0.00000000
1.07795254 0.93913556 0.00369455 0.00000000
0.40831483 0.93842457 0.00151806 0.00000000
1.21441696 1.33236484 -0.00282208 0.00000000
0.20823320 1.67956692 0.00107675 0.00000000
3.17857124 0.30381578 -0.00137847 0.00000000
1.38546986 1.61313082 0.00185239 0.00000000
2.31679954 0.27452742 -0.00002267 0.00000000
1.37969499 2.39381108 0.00107154 0.00000000
0.36348574 0.01794955 -0.00235731 0.00000000
1.60093867 1.01080439 0.00182436 0.00000000
2.95666674 0.44820561 -0.00037058 0.00000000
0.56510920 0.71368447 0.00064169 0.00000000
2.26601723 0.92613560 0.00037975 0.00000000
0.49840017 2.28094569 0.00243560 0.00000000
0.79651051 1.57479167 0.00392060 0.00000000
3.82986310 0.45550971 0.00038408 0.00000000
3.24436713 0.85490861 0.00075394 0.00000000
0.75471841 0.27572082 -0.00073497 0.00000000
0.15722758 0.47348365 -0.00299075 0.00000000
3.36894302 0.34268668 -0.00134901 0.00000000
4.13545958 1.51061662 0.00473950 0.00000000
0.25149836 0.72773453 -0.00167833 0.00000000
2.34109747 0.14865289 0.00367779 0.00000000
1.85456036 0.50842133 0.00179416 0.00000000
1.99367551 1.05157404 -0.00276558 0.00000000
3.64783197 0.83450792 0.00027935 0.00000000
1.77016298 0.54461469 -0.00075877 0.00000000
4.07860799 1.60888013 0.00238439 0.00000000
2.10264726 2.21348141 -0.00544916 0.00000000
0.43144362 1.61532597 -0.00168580 0.00000000
3.96231775 1.01365410 0.00181718 0.00000000
3.69388340 1.15098290 0.00035880 0.00000000
1.34978269 0.29284707 -0.00088298 0.00000000
1.89035761 1.45697352 -0.00044048 0.00000000
1.95864498 0.47233446 -0.00089987 0.00000000
2.22593955 0.11499876 -0.00210057 0.00000000
0.06109088 1.50107063 -0.00066551 0.00000000
2.56077777 0.07995892 -0.00262596 0.00000000
2.12181680 1.91215793 0.00218278 0.00000000
4.05655584 1.65466684 0.00011704 0.00000000
1.68733643 0.82704853 -0.00134349 0.00000000
1.77195903 0.72642551 -0.00096600 0.00000000
4.04587632 0.39834978 0.00273288 0.00000000
0.27401746 2.00301410 0.00022043 0.00000000
2.93509998 1.01176742 -0.00273474 0.00000000
0.34006419 2.40616690 0.00065238 0.00000000
1.01781117 1.18822210 -0.00004708 0.00000000
0.13737319 1.25709053 0.00237817 0.00000000
4.15536605 2.04641909 0.00042827 0.00000000
0.69353575 1.98647632 0.00068587 0.00000000
2.81585891 0.84973802 0.00090173 0.00000000
2.66206642 2.37734865 0.00193346 0.00000000
2.09017197 0.93298260 -0.00305829 0.00000000
0.02401695 0.58404581 -0.00072610 0.00000000
0.30915521 1.76544349 0.00179969 0.00000000
4.03862229 2.13755006 -0.00254826 0.00000000
2.60363187 0.72392100 0.00058738 0.00000000
1.15271892 0.07780326 -0.00560220 0.00000000
0.65907742 2.26891723 0.00166213 0.00000000
1.31655647 0.76246681 -0.00111844 0.00000000
1.47680928 1.95267640 0.00206393 0.00000000
2.52484314 1.56474970 0.00492767 0.00000000
2.13752398 0.74687888 0.00158690 0.00000000
0.78946229 1.11423038 0.00402745 0.00000000
0.56930634 1.38950570 0.00120532 0.00000000
3.38746941 2.43116682 0.00093074 0.00000000
0.45738013 2.29514079 -0.00262850 0.00000000
2.44740639 0.66538719 -0.00244256 0.00000000
4.27833648 1.16908317 -0.00606310 0.00000000
1.45431934 0.34153306 -0.00050595 0.00000000
1.29512439 2.32969375 -0.00348856 0.00000000
4.19807063 0.12153980 -0.00027204 0.00000000
2.43105948 1.28687946 0.00245821 0.00000000
3.86509400 0.77640968 -0.00124026 0.00000000
3.54838085 2.46138485 -0.00372340 0.00000000
0.48994484 2.10829723 -0.00100519 0.00000000
1.80913397 1.03314437 -0.00348176 0.00000000
1.09655449 1.18588907 0.00411482 0.00000000
0.62335976 2.20921255 0.00158275 0.00000000
3.37855753 0.42838400 0.00427327 0.00000000
3.54442509 0.51544562 -0.00005586 0.00000000
0.35786964 1.49916038 0.00519705 0.00000000
0.61475906 0.46569367 -0.00061192 0.00000000
0.17834611 0.38707597 -0.00509691 0.00000000
2.58839324 2.08780399 -0.00136006 0.00000000
2.79979946 1.84209110 -0.00075534 0.00000000
2.34077809 1.11280531 0.00122038 0.00000000
2.24567031 2.11870452 0.00257390 0.00000000
4.00097659 1.75589186 0.00241449 0.00000000
1.52000139 1.79456330 -0.00144261 0.00000000
1.59845536 0.54306612 0.00261714 0.00000000
0.05715911 1.45748149 0.00226990 0.00000000
3.57353013 0.35484925 -0.00035813 0.00000000
3.50061511 0.59765796 -0.00190055 0.00000000
1.82417680 1.45590633 -0.00254928 0.00000000
0.71958276 2.30309937 -0.00199973 0.00000000
4.18124488 0.51574775 -0.00463250 0.00000000
3.20104000 1.89147568 -0.00304791 0.00000000
1.67466932 0.89374667 0.00213327 0.00000000
3.36655846 2.24839809 0.00179284 0.00000000
0.77048233 1.71727488 -0.00115338 0.00000000
0.88783110 1.82519054 0.00460231 0.00000000
1.80217131 2.42386109 0.00230867 0.00000000
3.37548969 1.22408893 0.00113496 0.00000000
0.70866625 0.15516439 0.00133086 0.00000000
0.76713743 0.74054029 0.00362824 0.00000000
1.99235677 1.97075465 -0.00184844 0.00000000
0.69700076 1.53308563 -0.00526794 0.00000000
1.88587861 0.30943550 0.00194574 0.00000000
0.28401196 0.13051827 -0.00348100 0.00000000
1.63005501 1.70826188 0.00206861 0.00000000
2.50463204 1.56849776 -0.00041759 0.00000000
1.16351190 1.46835085 0.00105471 0.00000000
0.21344282 1.18624419 -0.00240537 0.00000000
2.94655076 0.94829075 0.00392092 0.00000000
1.12969477 0.85643896 0.00124570 0.00000000
2.68685186 0.45463118 -0.00360962 0.00000000
3.10678550 1.66359796 0.00045252 0.00000000
0.01752182 2.00003714 -0.00262378 0.00000000
3.74556726 1.39933034 -0.00118251 0.00000000
2.54895734 1.50334735 0.00240828 0.00000000
0.50280256 2.32005753 0.00103195 0.00000000
1.10716311 1.82424732 -0.00033107 0.00000000
2.75077126 1.91318130 -0.00115754 0.00000000
1.40110838 2.28080151 0.00250108 0.00000000
2.49801270 1.22728992 0.00345724 0.00000000
1.88455605 0.35594893 0.00014518 0.00000000
1.61332796 1.04674550 0.00351218 0.00000000
3.99048043 0.82032160 -0.00308514 0.00000000
2.88237109 1.27900864 0.00141899 0.00000000
0.36907623 0.91804600 -0.00007297 0.00000000
1.94305217 0.80841471 -0.00365545 0.00000000
4.11797469 2.12784341 0.00423746 0.00000000
1.13185798 1.43122396 -0.00392396 0.00000000
0.48162534 0.21742810 0.00114756 0.00000000
1.30406560 1.37883971 0.00108094 0.00000000
1.01475416 0.13591906 -0.00268323 0.00000000
3.44005095 0.57229528 -0.00433534 0.00000000
3.74911110 1.79804832 -0.00306014 0.00000000
0.10996807 0.80326629 -0.00070147 0.00000000
2.80388759 2.20870355 -0.00014261 0.00000000
4.00553107 0.94488124 -0.00120050 0.00000000
2.10341633 0.69895895 0.00140063 0.00000000
3.67859483 1.64671485 -0.00019767 0.00000000
0.55746961 1.27680645 -0.00140325 0.00000000
1.51242865 0.12698105 -0.00275008 0.00000000
0.22034361 1.04299109 0.00217286 0.00000000
1.34736980 0.18887063 0.00044922 0.00000000
2.43858580 0.03026270 -0.00309380 0.00000000
3.43030203 2.10591615 0.00019132 0.00000000
2.01710625 2.26740311 -0.00113614 0.00000000
0.96399467 1.07084064 -0.00296148 0.00000000
3.73054646 0.50674608 0.00429544 0.00000000
0.98085299 1.42830584 -0.00006584 0.00000000
0.36597199 2.07545570 -0.00250788 0.00000000
1.74565365 0.12789082 0.00250340 0.00000000
2.36438140 0.63017130 -0.00150523 0.00000000
3.08214478 1.23413587 -0.00067279 0.00000000
2.28961121 2.10058162 -0.00014606 0.00000000
0.64372678 1.25205288 0.00137183 0.00000000
0.48468795 1.89924920 -0.00021590 0.00000000
2.41268172 2.05104146 -0.00224202 0.00000000
2.28816563 0.00383778 -0.00155348 0.00000000
1.51522649 0.75070571 0.00186295 0.00000000
0.64601839 2.23457549 0.00158545 0.00000000
1.95551190 0.18711833 0.00264958 0.00000000
4.08422499 1.05912389 0.00089837 0.00000000
2.74603215 1.48757887 -0.00028803 0.00000000
3.22458937 2.42726749 -0.00333249 0.00000000
0.68284702 0.21314695 -0.00328305 0.00000000
0.59431038 0.79028305 0.00170294 0.00000000
0.43141181 0.93064196 -0.00192353 0.00000000
2.31223360 0.03544211 -0.00209688 0.00000000
0.39097381 0.10560899 0.00118252 0.00000000
3.24101038 1.25416568 0.00087868 0.00000000
1.91066704 1.92822986 0.00555824 0.00000000
0.25298047 0.23609916 -0.00316974 0.00000000
0.56336169 1.42801095 0.00174078 0.00000000
2.57430974 1.93886354 -0.00269523 0.00000000
1.87647443 1.14528324 -0.00422600 0.00000000
3.04791368 0.15856994 -0.00053310 0.00000000
2.55822281 1.60222853 -0.00054266 0.00000000
3.48992716 1.14251875 -0.00088611 0.00000000
2.88576327 0.29577226 0.00010863 0.00000000
0.56958208 0.21165897 0.00150801 0.00000000
4.10563299 0.32161267 -0.00194266 0.00000000
0.17202915 0.79847457 -0.00251060 0.00000000
2.50645434 1.57926352 0.00370068 0.00000000
2.18034103 1.78805065 0.00089705 0.00000000
0.88576382 0.88886879 -0.00406155 0.00000000
3.73603605 2.46522223 0.00290335 0.00000000
3.24378645 0.90765360 -0.00040708 0.00000000
0.28781761 2.09429976 -0.00195310 0.00000000
1.56150332 0.83794934 0.00357972 0.00000000
2.61217540 1.12343523 0.00413039 0.00000000
2.68224731 2.44682194 -0.00136687 0.00000000
2.75636124 2.19739165 -0.00144705 0.00000000
0.30074949 0.19405912 -0.00050907 0.00000000
3.31319560 1.81743521 0.00193024 0.00000000
0.27165809 0.09830686 0.00103305 0.00000000
3.92732158 0.09347174 -0.00246841 0.00000000
1.05334011 1.80313083 0.00102394 0.00000000
0.71413802 1.97549635 -0.00172717 0.00000000
0.90477882 2.05361677 -0.00069158 0.00000000
2.61322866 0.75667411 -0.00046008 0.00000000
1.47533895 0.97880893 0.00290435 0.00000000
1.81842333 1.09030782 0.00530806 0.00000000
0.96482944 1.19722825 0.00172280 0.00000000
3.10965973 0.09415550 0.00211024 0.00000000
3.71785405 0.08922184 -0.00332166 0.00000000
2.21082047 1.47761773 0.00281162 0.00000000
2.76834377 1.16508312 0.00064906 0.00000000
0.43584081 1.77273635 0.00272886 0.00000000
3.34464824 0.56558753 0.00422820 0.00000000
3.40047145 1.41901158 0.00473761 0.00000000
3.74711912 1.85615661 0.00023808 0.00000000
1.51858294 1.99715378 -0.00460210 0.00000000
3.19829740 1.34970220 0.00112515 0.00000000
0.97739898 2.41798350 0.00006319 0.00000000
1.15728538 1.52443480 -0.00121565 0.00000000
0.79951968 2.22984253 -0.00180080 0.00000000
2.93922489 1.95266377 0.00039304 0.00000000
0.85434030 1.74991039 0.00362658 0.00000000
2.57012197 2.24770236 0.00031836 0.00000000
2.11605465 1.83211224 -0.00158294 0.00000000
0.17760041 1.11959753 -0.00088797 0.00000000
3.80646859 0.35158135 -0.00327006 0.00000000
2.93779350 0.29333294 0.00299267 0.00000000
2.45522053 2.23134591 -0.00552982 0.00000000
1.45243807 1.15267163 -0.00121750 0.00000000
1.57980333 1.08112372 -0.00474936 0.00000000
1.74090815 0.63762783 -0.00068227 0.00000000
0.77653382 2.15422295 0.00293209 0.00000000
2.44232576 0.98922516 0.00007034 0.00000000
0.46856833 0.29865952 0.00086358 0.00000000
1.63266492 1.49980365 0.00074721 0.00000000
2.15910787 1.33104092 -0.00494237 0.00000000
0.10041061 0.04190163 0.00107423 0.00000000
1.59706229 1.96413202 -0.00013805 0.00000000
2.20005932 1.78605837 0.00249449 0.00000000
0.51374843 1.72232342 0.00165524 0.00000000
2.02742862 2.04722311 0.00124909 0.00000000
3.20660047 0.29116901 -0.00341101 0.00000000
2.64459803 1.73239900 -0.00198565 0.00000000
1.03591605 1.13074190 -0.00535773 0.00000000
1.72621414 0.36506622 0.00127029 0.00000000
3.18923779 0.13875979 0.00097218 0.00000000
3.03441024 1.12305226 0.00239765 0.00000000
1.71729335 2.44702121 -0.00181255 0.00000000
1.97973961 0.52151126 -0.00280120 0.00000000
3.99684292 0.98117219 -0.00179235 0.00000000
1.69222886 1.84464637 0.00044813 0.00000000
2.61286863 2.36696372 -0.00223571 0.00000000
3.99203731 2.13815298 0.00113796 0.00000000
0.91226748 1.67718882 0.00154128 0.00000000
2.64321966 0.82730424 0.00086846 0.00000000
0.58375666 1.27670663 -0.00469506 0.00000000
0.14563194 2.42120330 -0.00150295 0.00000000
0.54980769 0.13509444 0.00040887 0.00000000
0.16929448 0.13939710 0.00315453 0.00000000
1.45708210 0.73896116 -0.00101009 0.00000000
1.56002161 0.79177555 0.00147764 0.00000000
0.03523963 0.53208264 -0.00163814 0.00000000
2.13470250 1.81619145 0.00075623 0.00000000
1.40288195 0.58623297 -0.00061213 0.00000000
2.95447951 0.79204604 0.00079698 0.00000000
1.40983038 1.67048586 -0.00177537 0.00000000
3.34499977 1.57219510 -0.00047064 0.00000000
0.51141718 0.98063307 -0.00319668 0.00000000
3.57606906 1.89261724 0.00328240 0.00000000
0.57176412 0.40103294 -0.00120531 0.00000000
1.95935300 1.50996277 0.00178396 0.00000000
2.90284002 1.03012406 -0.00116447 0.00000000
3.83173938 0.25208073 -0.00530583 0.00000000
2.29959535 2.32022343 -0.00382217 0.00000000
3.68632231 2.07865139 -0.00012509 0.00000000
2.25172128 1.18848363 -0.00029027 0.00000000
1.99268060 1.26769671 -0.00038729 0.00000000
1.73519345 1.65551945 0.00359119 0.00000000
2.90689783 0.75144597 0.00143573 0.00000000
0.59958419 0.68342405 -0.00343831 0.00000000
2.09989388 1.63069728 -0.00251935 0.00000000
1.66233586 0.19849317 0.00094902 0.00000000
3.43702249 1.72271176 0.00038005 0.00000000
0.56965652 0.30479689 -0.00451504 0.00000000
3.63660070 0.62247078 -0.00103338 0.00000000
0.21938675 0.81468857 0.00385280 0.00000000
1.94540597 0.26909798 -0.00210662 0.00000000
2.24082838 1.30687641 0.00406443 0.00000000
1.59870012 0.19087696 0.00213098 0.00000000
0.96920378 2.27549796 -0.00344006 0.00000000
1.25036325 2.24644123 0.00027614 0.00000000
3.37575613 2.16895734 0.00096530 0.00000000
0.65693189 1.72294657 0.00175357 0.00000000
0.98222163 0.40914123 0.00003172 0.00000000
1.44250736 2.06078969 -0.00450624 0.00000000
2.78826138 2.30530481 0.00135555 0.00000000
1.56411066 2.46154493 -0.00264368 0.00000000
1.42728070 0.44858504 -0.00392978 0.00000000
0.66687982 0.18380265 0.00254366 0.00000000
3.66946905 1.29890938 -0.00184150 0.00000000
1.70949811 1.09405164 -0.00133687 0.00000000
4.10485909 1.06281322 -0.00073962 0.00000000
0.75949419 0.21396166 -0.00188117 0.00000000
2.21429690 0.05662979 -0.00133061 0.00000000
4.01382402 0.62391572 -0.00238824 0.00000000
3.07981377 1.22430161 -0.00019809 0.00000000
1.54984178 0.62314579 -0.00383627 0.00000000
2.59051766 0.98998633 0.00030078 0.00000000
1.26992838 0.31152928 0.00227966 0.00000000
0.67893793 2.11773985 0.00243429 0.00000000
4.25715986 2.29818799 0.00228559 0.00000000
2.93012047 0.13958768 -0.00251296 0.00000000
2.86674604 0.84811619 -0.00030899 0.00000000
2.03243009 1.34778922 -0.00126414 0.00000000
0.99133321 0.36288338 -0.00102013 0.00000000
1.65385841 1.90044664 -0.00214701 0.00000000
1.69893873 2.04556256 0.00162632 0.00000000
2.64079458 0.00815578 0.00329480 0.00000000
0.96148169 1.19226070 -0.00429470 0.00000000
0.37336332 2.25054000 -0.00030660 0.00000000
0.39331831 0.29640405 0.00382765 0.00000000
2.78646830 0.78940080 0.00355214 0.00000000
0.20816190 0.33904838 0.00132207 0.00000000
2.62310272 2.17893835 0.00023235 0.00000000
0.04285731 1.99496761 0.00154294 0.00000000
2.91971538 1.99994670 -0.00313981 0.00000000
2.40368879 1.68968241 -0.00185627 0.00000000
0.21063793 1.79921265 -0.00027477 0.00000000
2.80305031 1.44186912 -0.00007631 0.00000000
1.01371782 1.02886067 -0.00207720 0.00000000
3.30054625 0.41089474 -0.00259254 0.00000000
2.38267030 0.35402080 0.00299720 0.00000000
2.54840852 0.78185103 -0.00055495 0.00000000
2.72786773 0.91903666 0.00124047 0.00000000
1.45543877 0.75218231 -0.00347911 0.00000000
1.74009771 1.10313803 0.00270672 0.00000000
3.71678315 2.23559747 0.00254415 0.00000000
3.10538226 0.56378656 0.00250339 0.00000000
1.09412070 1.60288547 -0.00136776 0.00000000
0.72643699 2.29432273 -0.00096594 0.00000000
0.15909523 0.07210814 0.00233074 0.00000000
3.54470170 0.46659584 0.00097664 0.00000000
1.54623753 1.03143080 -0.00378671 0.00000000
0.45247189 1.66746131 -0.00407543 0.00000000
1.60447007 2.15557111 0.00206028 0.00000000
2.46275955 0.73720397 0.00158085 0.00000000
2.65348821 0.67185106 0.00033089 0.00000000
3.20726826 1.26868837 0.00222099 0.00000000
0.95109291 0.17713454 0.00119317 0.00000000
1.01261678 2.33589658 0.00172224 0.00000000
1.01935112 0.35704658 -0.00715594 0.00000000
2.51471229 1.92689497 0.00093634 0.00000000
1.39043767 2.46952812 -0.00106382 0.00000000
2.86695394 2.25701066 0.00085516 0.00000000
0.98577257 1.11090055 -0.00262852 0.00000000
2.80534347 0.36221534 0.00187030 0.00000000
0.27242069 1.96827744 -0.00161953 0.00000000
4.20072380 0.65481746 0.00037546 0.00000000
0.61687988 1.75699117 0.00301704 0.00000000
3.65112649 1.81884367 0.00090810 0.00000000
3.11776999 0.40623101 0.00102189 0.00000000
0.61635275 1.73101878 0.00068001 0.00000000
0.08415550 0.22529667 -0.00256862 0.00000000
3.75228113 0.10013022 -0.00217381 0.00000000
3.58581846 2.18954413 0.00128033 0.00000000
3.05967751 0.82205166 -0.00533214 0.00000000
0.35992034 2.29005023 0.00213969 0.00000000
1.36251769 2.02961698 0.00289145 0.00000000
0.16928654 0.02077786 0.00258210 0.00000000
4.20898553 0.12160061 0.00272730 0.00000000
1.20258454 2.32972111 -0.00392442 0.00000000
3.10093287 1.79749611 0.00466313 0.00000000
2.38251636 0.94794962 -0.00098815 0.00000000
2.33904118 2.41407497 -0.00514925 0.00000000
2.59050227 2.20979799 0.00027256 0.00000000
1.66116543 1.43315143 -0.00156479 0.00000000
0.36899901 1.92622075 -0.00044119 0.00000000
1.02402797 1.48143026 0.00218236 0.00000000
3.90154050 1.66102917 -0.00025274 0.00000000
1.64402024 2.24770348 0.00085832 0.00000000
1.44864839 1.16424446 -0.00227085 0.00000000
4.24569928 1.68162534 0.00251616 0.00000000
3.67611395 0.82877393 0.00115140 0.00000000
3.42657175 1.44308971 0.00166788 0.00000000
3.94516176 0.64674709 -0.00011554 0.00000000
0.63213510 1.55100114 0.00151277 0.00000000
2.52674199 0.99770306 -0.00332652 0.00000000
2.79249890 1.68950799 -0.00525284 0.00000000
2.41587720 1.58321524 0.00062294 0.00000000
1.40741475 0.68318687 -0.00270924 0.00000000
2.43114688 1.81965660 0.00135675 0.00000000
0.93912539 2.09651685 0.00022778 0.00000000
3.59007589 2.17354260 -0.00159820 0.00000000
2.41211452 1.01157207 -0.00383621 0.00000000
4.29733676 2.07501512 -0.00079394 0.00000000
1.86299001 2.30452515 -0.00038466 0.00000000
3.02290366 0.96390921 -0.00238337 0.00000000
3.19271270 1.06926204 -0.00398841 0.00000000
1.53295063 0.24981145 0.00071749 0.00000000
1.16799577 2.46655025 0.00045295 0.00000000
3.02585357 1.51530131 -0.00362470 0.00000000
0.32526360 0.46530518 -0.00099874 0.00000000
4.15015214 0.13073958 0.00195669 0.00000000
1.96752166 0.23480723 0.00280171 0.00000000
3.10431133 2.38123738 0.00251968 0.00000000
3.36988818 0.97023660 -0.00017059 0.00000000
3.01320396 2.47984470 -0.00495285 0.00000000
1.39531868 2.19383526 -0.00182325 0.00000000
0.01341237 0.46035962 0.00375184 0.00000000
2.18026320 1.69282358 0.00329120 0.00000000
2.68551963 1.06716463 -0.00014082 0.00000000
1.86603017 0.87660439 -0.00016141 0.00000000
2.23142116 0.03301877 -0.00091372 0.00000000
1.65752944 0.90787433 0.00154191 0.00000000
3.03674937 0.20124848 -0.00447501 0.00000000
1.59950079 0.27398799 0.00030925 0.00000000
3.16386288 1.01948175 -0.00040009 0.00000000
0.78976402 2.22056557 0.00197267 0.00000000
3.70881307 1.72135241 -0.00112869 0.00000000
0.37220551 0.47038182 0.00176552 0.00000000
3.63878847 2.05481752 0.00365003 0.00000000
3.12893579 0.02771361 -0.00285429 0.00000000
4.10797044 1.05995692 -0.00262019 0.00000000
1.73354282 2.30068229 -0.00377534 0.00000000
3.78281090 1.66176215 -0.00287043 0.00000000
4.08607285 1.42944378 0.00019407 0.00000000
2.37485242 2.24154863 0.00052534 0.00000000
0.95173052 2.39798320 0.00011901 0.00000000
3.13614681 2.06574505 0.00009808 0.00000000
0.38807003 1.23139490 -0.00303944 0.00000000
2.99557915 0.29479375 -0.00058834 0.00000000
2.42935663 0.30581382 0.00502311 0.00000000
1.19815197 1.60582987 0.00066399 0.00000000
0.49474987 0.60083042 0.00037694 0.00000000
1.32203977 1.50946373 -0.00242717 0.00000000
3.83060678 0.40732276 -0.00302147 0.00000000
2.23594134 2.13494103 -0.00395907 0.00000000
0.28820667 0.49872837 -0.00187066 0.00000000
3.24570581 1.95617838 0.00421979 0.00000000
2.03945232 2.32433038 -0.00037896 0.00000000
3.07727480 0.88011045 -0.00099722 0.00000000
3.24058176 0.83557579 -0.00041247 0.00000000
0.27163333 2.05296885 0.00155660 0.00000000
0.06601489 1.86703772 0.00044204 0.00000000
0.71245257 1.10750294 0.00349570 0.00000000
3.59810014 2.38132955 0.00050247 0.00000000
2.38565383 2.12710406 0.00423367 0.00000000
0.26243349 1.55057669 -0.00129752 0.00000000
0.86386788 1.70461407 -0.00023729 0.00000000
2.01232360 1.58591111 -0.00167886 0.00000000
2.70102002 0.15096582 0.00082836 0.00000000
0.54735223 0.05353880 -0.00239450 0.00000000
2.41201626 2.05114854 -0.00539047 0.00000000
3.62580884 0.56240005 -0.00339689 0.00000000
1.98800530 1.90575827 -0.00612136 0.00000000
1.51827376 1.42146795 -0.00255315 0.00000000
3.95563303 1.17762359 0.00144029 0.00000000
0.74265849 0.17588794 -0.00476212 0.00000000
2.21239118 0.38776238 -0.00242470 0.00000000
0.34519593 1.55344255 0.00004329 0.00000000
3.88529460 0.78526793 -0.00343793 0.00000000
0.45848937 1.02576887 0.00072889 0.00000000
1.50539359 0.15282835 -0.00158368 0.00000000
2.25448469 2.36909698 0.00196124 0.00000000
2.19159811 0.21771233 -0.00044614 0.00000000
1.77202385 1.84120086 0.00059270 0.00000000
0.79851540 2.08659349 -0.00280970 0.00000000
2.79098353 1.36529089 0.00040530 0.00000000
3.68952144 0.93477528 0.00310022 0.00000000
0.22420150 1.35065296 -0.00133321 0.00000000
0.84817271 1.67531374 0.00130117 0.00000000
2.10322460 1.99035286 0.00111834 0.00000000
3.97410747 1.98752178 0.00034121 0.00000000
2.07836602 0.26261503 -0.00001780 0.00000000
3.98488004 1.20385768 -0.00049852 0.00000000
3.22116731 1.49314400 -0.00346438 0.00000000
2.94291412 2.22607803 0.00140877 0.00000000
2.41363208 0.51074453 0.00220170 0.00000000
1.90690000 1.02548685 0.00322219 0.00000000
4.29022122 1.67786018 -0.00069357 0.00000000
2.91191657 1.11903776 -0.00297316 0.00000000
1.99949498 1.94831113 -0.00264288 0.00000000
3.70488899 2.32984233 -0.00027121 0.00000000
1.13314944 0.52579390 0.00353825 0.00000000
4.29063637 0.29364080 0.00407268 0.00000000
1.76395635 0.80624055 0.00050801 0.00000000
2.06580167 2.22577138 -0.00289121 0.00000000
3.58441248 1.64608138 0.00138550 0.00000000
4.04372394 0.12950689 -0.00340336 0.00000000
1.76962955 1.62616668 -0.00338653 0.00000000
3.93569347 2.27764403 0.00236304 0.00000000
1.71504752 1.02346784 0.00312730 0.00000000
3.08534109 2.07547696 -0.00231880 0.00000000
0.42095569 0.08256137 -0.00259232 0.00000000
1.22983981 1.30106034 -0.00163784 0.00000000
3.62724281 1.75842644 -0.00187885 0.00000000
4.21134680 1.18316920 0.00177178 0.00000000
2.62950174 0.47212148 0.00062731 0.00000000
1.62062221 1.27490782 -0.00031185 0.00000000
2.11539436 0.41039984 0.00555180 0.00000000
0.33916831 0.03712870 0.00023530 0.00000000
2.33141030 1.14965913 0.00301365 0.00000000
1.83640148 1.08249350 -0.00060081 0.00000000
1.39492250 0.44088547 0.00154708 0.00000000
1.07557008 0.09848366 0.00175863 0.00000000
3.23247601 0.33547218 0.00105549 0.00000000
3.47323251 1.99037380 0.00241224 0.00000000
1.39538067 1.84856212 0.00200776 0.00000000
2.65150912 1.29389114 0.00169596 0.00000000
1.63612808 1.29539632 -0.00105932 0.00000000
3.77659541 1.05416938 0.00038525 0.00000000
2.64528276 0.69707574 -0.00453477 0.00000000
2.23936817 1.69054670 -0.00281187 0.00000000
4.13323056 2.36131451 -0.00258904 0.00000000
4.08714305 0.71715075 -0.00412246 0.00000000
2.65519611 1.86428151 0.00363675 0.00000000
4.21632405 0.96455299 -0.00032702 0.00000000
1.49991725 1.44495370 -0.00373842 0.00000000
1.82951602 1.05840426 -0.00235761 0.00000000
4.25149231 2.23934205 0.00183407 0.00000000
3.73983070 2.45066353 0.00058545 0.00000000
4.02541992 0.48631349 0.00072642 0.00000000
1.95004827 1.39953497 0.00152105 0.00000000
2.01490319 1.50325552 -0.00087009 0.00000000
1.32264188 2.26881829 -0.00389092 0.00000000
0.03034942 0.14997450 0.00473221 0.00000000
3.41792906 0.66632159 -0.00034934 0.00000000
2.10736550 1.88623882 0.00280124 0.00000000
2.16530434 1.91227277 0.00276627 0.00000000
2.52235877 2.22479919 0.00182575 0.00000000
2.58313062 0.40708957 -0.00100801 0.00000000
0.36750391 0.53951999 0.00030049 0.00000000
1.41034548 1.91603566 0.00169906 0.00000000
2.35942812 0.62800351 0.00369076 0.00000000
3.95711166 2.23184509 -0.00196515 0.00000000
0.81199960 0.08706042 -0.00140836 0.00000000
1.93115596 1.58426048 0.00241736 0.00000000
2.50169064 1.89541013 0.00327247 0.00000000
0.42720921 1.92172902 0.00427546 0.00000000
3.40335054 2.14492987 0.00026942 0.00000000
3.48512792 0.12142942 -0.00317388 0.00000000
1.01943007 2.48290959 0.00039117 0.00000000
0.34045549 0.03472938 0.00158234 0.00000000
1.27370248 1.90622040 0.00401493 0.00000000
2.12354663 2.17437226 -0.00137977 0.00000000
3.40304961 0.91967864 0.00161418 0.00000000
2.73182871 2.44622052 -0.00007381 0.00000000
0.84994407 2.05263755 -0.00199893 0.00000000
0.23021645 0.66562958 0.00270539 0.00000000
2.82258010 1.76719923 -0.00083949 0.00000000
4.09256668 0.98519983 -0.00238285 0.00000000
3.01582484 0.50212728 -0.00120260 0.00000000
3.14611888 2.22063764 -0.00314481 0.00000000
3.95799400 1.98223417 0.00064734 0.00000000
1.91590881 0.29447744 -0.00008591 0.00000000
4.08793977 0.95912493 -0.00439237 0.00000000
0.54639489 2.09791120 -0.00122690 0.00000000
3.42143302 1.54408937 -0.00656335 0.00000000
2.70134188 0.43038353 -0.00097413 0.00000000
2.31765743 2.26037523 -0.00080605 0.00000000
0.10915314 1.71752170 0.00122771 0.00000000
3.07312182 0.08690536 0.00036052 0.00000000
2.43827007 1.20430907 -0.00456206 0.00000000
0.39021590 1.28177636 0.00134858 0.00000000
1.03754062 1.56222537 -0.00300911 0.00000000
3.74180408 1.78185740 0.00015131 0.00000000
3.02436439 1.48890355 -0.00219860 0.00000000
0.68215283 2.33052676 0.00046327 0.00000000
0.85449149 2.26700361 0.00396437 0.00000000
0.33849729 1.75262185 -0.00039755 0.00000000
4.22505938 1.39919786 0.00217095 0.00000000
2.36873600 1.74639156 0.00544386 0.00000000
1.96677593 1.15133327 0.00286041 0.00000000
2.92121073 0.04761056 0.00316899 0.00000000
3.66626505 2.13980480 -0.00003545 0.00000000
1.01848172 0.62046175 0.00182363 0.00000000
2.36930702 2.34196770 0.00136770 0.00000000
0.07186519 1.11324181 -0.00123872 0.00000000
1.40110081 0.01311879 -0.00033474 0.00000000
3.37054985 1.34237647 -0.00171324 0.00000000
2.32050627 0.02317282 -0.00168911 0.00000000
2.59321123 2.25637345 -0.00293860 0.00000000
1.00515713 0.34485222 0.00225912 0.00000000
3.58122418 0.17977253 -0.00004401 0.00000000
3.84543701 0.12740869 -0.00125947 0.00000000
2.65314298 2.40820522 0.00266178 0.00000000
2.50111824 1.39336046 0.00156391 0.00000000
1.72854542 2.23372018 0.00002394 0.00000000
2.08882083 0.36452022 -0.00259456 0.00000000
4.20862783 0.92864298 -0.00549481 0.00000000
2.70439051 0.39481983 -0.00150663 0.00000000
2.73524300 2.11417656 -0.00007875 0.00000000
1.17509341 1.23176165 0.00290555 0.00000000
3.10683280 0.57175862 0.00409639 0.00000000
1.24304725 0.55605069 -0.00537378 0.00000000
0.14136972 1.16851444 0.00105814 0.00000000
2.27093129 1.33392242 -0.00242680 0.00000000
1.10542970 0.51765235 -0.00200175 0.00000000
3.71558960 0.08535469 -0.00152615 0.00000000
0.00290826 0.28748842 0.00198723 0.00000000
0.16304081 0.35789024 -0.00255052 0.00000000
1.20203778 2.04748287 0.00136914 0.00000000
4.14479590 1.64063293 0.00280913 0.00000000
2.02963210 0.71460692 -0.00257842 0.00000000
3.03900346 0.16127144 0.00106403 0.00000000
1.71217511 2.07315079 0.00335733 0.00000000
1.86986780 2.26932258 0.00320843 0.00000000
2.92244716 0.68557740 -0.00203766 0.00000000
1.11100206 1.44746721 -0.00555378 0.00000000
1.07481601 1.30961492 0.00114691 0.00000000
2.26765585 2.45955584 0.00213576 0.00000000
0.92581827 1.16897065 0.00112887 0.00000000
2.74855733 2.22645832 -0.00420613 0.00000000
3.86039032 1.45823665 0.00225527 0.00000000
2.04935390 0.85832242 0.00538558 0.00000000
4.29642216 0.64660704 0.00155190 0.00000000
0.78537659 1.77154884 -0.00770448 0.00000000
1.88595163 1.94242734 0.00090400 0.00000000
1.37922317 1.95319445 -0.00002554 0.00000000
0.25798526 1.09074202 0.00059409 0.00000000
0.12748095 0.22838888 0.00090941 0.00000000
0.24459135 0.79809942 0.00395454 0.00000000
2.03929444 1.44146329 0.00197297 0.00000000
2.59478809 0.78147432 0.00425382 0.00000000
1.95514518 0.19687135 -0.00343294 0.00000000
4.00894958 1.09635069 0.00347182 0.00000000
1.02580887 0.98144350 -0.00236742 0.00000000
1.53189047 0.59089109 -0.00097231 0.00000000
0.47754362 0.03287765 -0.00018850 0.00000000
3.80152606 1.45208614 0.00211772 0.00000000
3.96597726 2.29835993 0.00400470 0.00000000
1.98233898 2.26726071 0.00245338 0.00000000
1.94215058 0.63239650 -0.00100305 0.00000000
3.80990471 1.83115433 -0.00236345 0.00000000
3.60271567 0.81159568 0.00091837 0.00000000
1.33287951 2.28192207 -0.00098285 0.00000000
2.76492284 0.16179526 -0.00084589 0.00000000
4.25342088 1.86370163 0.00375577 0.00000000
4.25627031 0.01771753 0.00256631 0.00000000
3.50317531 1.42609183 -0.00027068 0.00000000
1.75957270 1.11753643 -0.00109371 0.00000000
1.29537351 0.59594568 -0.00210565 0.00000000
0.40588376 1.85109057 -0.00131510 0.00000000
3.31614145 2.34396357 0.00265771 0.00000000
2.58797734 1.06214223 0.00082590 0.00000000
4.14364883 1.52372180 0.00158756 0.00000000
0.46838444 1.98791750 -0.00010657 0.00000000
0.12899575 1.31749068 0.00159628 0.00000000
2.14288994 1.32842822 -0.00232490 0.00000000
2.70899248 1.21716431 -0.00046483 0.00000000
1.41102014 0.26469493 0.00316579 0.00000000
3.76594583 0.58317709 -0.00091729 0.00000000
0.50518289 0.19376469 0.00014000 0.00000000
3.10990709 1.73297800 -0.00081414 0.00000000
1.40195989 0.25010326 0.00207915 0.00000000
1.44961403 1.89464754 0.00033297 0.00000000
2.30918220 1.49144887 0.00154871 0.00000000
2.81302661 1.85758895 -0.00114382 0.00000000
4.20088089 0.33903837 0.00393709 0.00000000
1.06688788 1.35306143 -0.00232386 0.00000000
0.15373990 0.31206064 -0.00093576 0.00000000
3.98034805 1.24887949 -0.00089274 0.00000000
3.10822687 0.12349913 0.00015251 0.00000000
0.29646601 1.48868192 -0.00164596 0.00000000
3.58810153 2.11127251 0.00368716 0.00000000
1.14176101 2.10867775 0.00437757 0.00000000
2.42573278 2.03243496 0.00317535 0.00000000
0.49718105 0.94159469 0.00123793 0.00000000
2.18955295 1.81171127 -0.00296729 0.00000000
3.63036571 2.29088457 -0.00008169 0.00000000
2.30803655 1.45095936 0.00028728 0.00000000
1.11108816 0.65891907 0.00049008 0.00000000
0.41464066 1.30114421 -0.00235322 0.00000000
0.66371063 2.44293678 -0.00185530 0.00000000
1.66327443 1.70503139 -0.00192758 0.00000000
2.80588197 0.78637634 0.00125243 0.00000000
1.62407791 0.41645221 0.00054925 0.00000000
0.59365676 1.50543940 -0.00020140 0.00000000
3.63421151 0.92603147 0.00346361 0.00000000
2.49170320 1.89079616 -0.00061788 0.00000000
4.02681559 2.28476887 0.00205672 0.00000000
1.23982217 1.96779859 -0.00068141 0.00000000
1.28453115 0.88376046 -0.00342622 0.00000000
3.44526498 2.31539676 -0.00017992 0.00000000
4.06116586 1.98198154 -0.00033199 0.00000000
3.39246923 2.17261958 0.00339281 0.00000000
3.62617384 1.07987635 0.00246681 0.00000000
2.76257426 1.24550792 -0.00312799 0.00000000
0.04808747 2.03083459 0.00019826 0.00000000
0.27746673 1.17866019 -0.00027338 0.00000000
1.21798324 1.32777305 -0.00017892 0.00000000
3.05460298 2.09179665 0.00364065 0.00000000
1.25484364 1.47802496 -0.00002141 0.00000000
3.14911794 1.18428245 -0.00595753 0.00000000
1.60472427 0.49557181 -0.00267842 0.00000000
2.62387604 1.69083697 -0.00199795 0.00000000
2.26832146 0.24722806 0.00005002 0.00000000
0.93782410 1.97098926 0.00051701 0.00000000
1.33116254 0.85886011 -0.00115445 0.00000000
2.56877983 0.75599287 -0.00378063 0.00000000
3.80519530 0.36577906 -0.00040842 0.00000000
1.30057108 1.30187199 0.00136099 0.00000000
4.22676102 0.22494993 -0.00206802 0.00000000
3.66927715 0.85249161 -0.00567028 0.00000000
4.21042870 0.68336069 -0.00205577 0.00000000
2.90818498 0.58707251 0.00258720 0.00000000
0.40946440 0.92365504 -0.00112864 0.00000000
1.56314407 0.24368683 -0.00050196 0.00000000
0.06139851 1.59880407 -0.00217870 0.00000000
2.67392262 2.32697810 -0.00004978 0.00000000
0.27799345 2.20940105 0.00136959 0.00000000
2.49445311 2.00495889 0.00377802 0.00000000
3.10936737 1.87245272 0.00724449 0.00000000
4.18294431 1.42086933 0.00317643 0.00000000
0.80044593 1.58663056 0.00004674 0.00000000
3.92914179 0.38650282 -0.00242973 0.00000000
3.72593541 0.30641231 0.00079683 0.00000000
0.07384606 1.48659187 0.00604217 0.00000000
4.01290632 1.65352077 -0.00376953 0.00000000
3.92744958 0.58480757 -0.00102318 0.00000000
0.81073213 2.40795180 -0.00327829 0.00000000
0.52052538 1.71253465 0.00141818 0.00000000
1.00820023 0.86814201 0.00009457 0.00000000
3.22138433 2.21086966 -0.00190974 0.00000000
2.59261843 0.43283815 0.00009481 0.00000000
2.66760362 0.54642915 0.00075057 0.00000000
0.85727105 2.03814184 -0.00268245 0.00000000
2.87065010 0.73887595 -0.00410143 0.00000000
1.91970167 0.97011254 0.00029178 0.00000000
1.47477381 1.78683580 -0.00118248 0.00000000
0.25882332 2.25723823 -0.00066971 0.00000000
3.99979233 0.34155503 -0.00204443 0.00000000
3.33406054 1.29607609 -0.00303825 0.00000000
1.10071707 0.40530230 0.00246491 0.00000000
4.27356005 1.28202887 0.00213034 0.00000000
2.67879482 1.94150740 0.00637413 0.00000000
3.00724805 1.54585100 -0.00109675 0.00000000
2.63926570 1.45441341 -0.00316732 0.00000000
1.21987694 2.45992472 0.00257116 0.00000000
1.69859628 1.17336870 -0.00079802 0.00000000
0.88658449 1.48425771 -0.00340424 0.00000000
1.47519914 1.50566094 -0.00145316 0.00000000
2.19879470 0.37780311 0.00046577 0.00000000
2.48486370 2.02161107 0.00036122 0.00000000
3.99649845 1.16489619 0.00037189 0.00000000
1.12659914 0.62368330 0.00131473 0.00000000
1.60106563 0.33091194 0.00115497 0.00000000
3.02669438 0.71158912 0.00157999 0.00000000
0.01204250 1.52059642 -0.00176233 0.00000000
2.92695551 1.35223921 -0.00029729 0.00000000
1.29666444 1.43681613 -0.00166604 0.00000000
2.87507169 0.69964995 -0.00567375 0.00000000
2.19759732 2.37404029 0.00096082 0.00000000
4.08999708 0.24995849 0.00028022 0.00000000
3.92621668 2.05971918 -0.00271256 0.00000000
1.33729327 0.99661836 0.00030486 0.00000000
1.61314930 0.14035628 -0.00033141 0.00000000
0.20882312 0.09684076 0.00252051 0.00000000
0.00043161 1.10984424 0.00069068 0.00000000
1.09152263 0.01057059 -0.00212238 0.00000000
1.36038794 0.57098048 -0.00041003 0.00000000
2.00128616 2.43574780 0.00385108 0.00000000
4.23914577 0.68197887 -0.00168635 0.00000000
3.88768065 0.04158665 -0.00341816 0.00000000
3.65072910 0.30658109 -0.00217033 0.00000000
3.66717768 1.91995236 -0.00224283 0.00000000
3.00631836 1.32434770 -0.00209531 0.00000000
2.99478560 2.32333860 0.00194063 0.00000000
3.52150844 2.26731464 -0.00277423 0.00000000
4.15261509 1.44998941 -0.00105865 0.00000000
0.31472440 1.79507351 -0.00082417 0.00000000
2.77778999 0.88217328 0.00323044 0.00000000
3.38112951 1.38344342 0.00095741 0.00000000
2.32202596 2.26611641 -0.00230213 0.00000000
3.19091483 1.40506018 0.00187878 0.00000000
2.69632294 1.73401181 -0.00468208 0.00000000
1.83604825 1.80051790 0.00107937 0.00000000
2.60197703 1.03791539 0.00079187 0.00000000
1.50309805 2.26436253 -0.00296198 0.00000000
0.48664413 1.05343376 -0.00234876 0.00000000
2.02570199 2.21290914 0.00076458 0.00000000
1.79416200 1.94321475 -0.00432829 0.00000000
0.94036362 1.49453602 -0.00128049 0.00000000
2.93506519 2.16437164 -0.00334704 0.00000000
2.68003778 1.61047857 0.00267241 0.00000000
3.83096694 2.35861822 -0.00219651 0.00000000
1.04862679 2.36665778 -0.00435563 0.00000000
1.28895726 1.76007668 -0.00228881 0.00000000
3.51930174 0.16322072 0.00099248 0.00000000
2.47124730 0.69588411 0.00313398 0.00000000
0.36776414 0.84220161 -0.00032324 0.00000000
2.41061216 1.24734826 -0.00103338 0.00000000
3.06554636 0.55895279 -0.00084453 0.00000000
2.18223505 0.81344998 0.00016203 0.00000000
1.50566393 1.36624039 -0.00253088 0.00000000
1.38361567 2.18130282 -0.00040640 0.00000000
0.10605201 1.56480891 -0.00119859 0.00000000
1.30222764 1.98220653 -0.00045532 0.00000000
4.10386167 2.46602285 0.00132777 0.00000000
2.60602235 0.65414826 -0.00083917 0.00000000
4.01302225 1.51389642 0.00025085 0.00000000
2.40128941 2.33626047 -0.00013183 0.00000000
3.11482282 0.64147999 -0.00074075 0.00000000
3.18822237 0.16176018 -0.00390173 0.00000000
1.31228591 1.01261917 0.00216460 0.00000000
3.47586683 2.10402184 0.00232422 0.00000000
2.73791782 0.14114241 0.00235242 0.00000000
1.21697792 0.41744328 -0.00254705 0.00000000
0.92676512 1.55884102 -0.00274949 0.00000000
0.63701934 1.45325877 -0.00523151 0.00000000
2.91682987 1.43283005 0.00494230 0.00000000
3.35963661 0.14832967 0.00177590 0.00000000
0.14802558 0.07670837 0.00132447 0.00000000
1.44825114 1.53144398 -0.00318861 0.00000000
3.15841865 0.44333410 -0.00093830 0.00000000
4.07484927 2.39044196 0.00429792 0.00000000
1.79142600 1.81387628 -0.00009228 0.00000000
0.29182645 0.54475827 0.00314647 0.00000000
0.93365261 0.22655077 0.00054652 0.00000000
2.12573656 2.32936197 -0.00004081 0.00000000
1.81079234 0.18413179 -0.00113998 0.00000000
0.31719827 2.36442413 -0.00306885 0.00000000
1.89084896 0.68796900 -0.00019305 0.00000000
1.36412169 1.43472792 0.00011594 0.00000000
2.43129022 1.43153456 0.00143402 0.00000000
0.32424118 1.83373413 0.00250258 0.00000000
1.03721254 0.90602590 0.00380751 0.00000000
0.34320514 0.31116667 -0.00068606 0.00000000
3.81148790 0.04372151 0.00060638 0.00000000
1.64962235 0.28830721 0.00388990 0.00000000
2.93363950 2.07926172 -0.00365759 0.00000000
1.26777497 2.33163177 -0.00002056 0.00000000
4.21421872 0.96495980 -0.00037048 0.00000000
4.29366770 1.94475710 -0.00265283 0.00000000
2.22242656 0.97811958 -0.00140325 0.00000000
1.36519277 0.38706867 0.00367860 0.00000000
2.90211226 0.37641859 0.00224275 0.00000000
0.25246073 0.65946375 0.00222130 0.00000000
0.63121750 2.28942251 -0.00183174 0.00000000
1.46849639 0.01697774 -0.00049227 0.00000000
3.12801684 1.96730942 0.00052832 0.00000000
4.00014274 2.07133806 0.00040522 0.00000000
1.63154006 1.57819124 0.00202734 0.00000000
2.38166854 0.06838335 -0.00420707 0.00000000
2.57325464 2.34759005 -0.00321109 0.00000000
2.40133104 2.15426230 -0.00134369 0.00000000
2.52368928 0.02104181 0.00262426 0.00000000
3.38424691 2.38561398 0.00381659 0.00000000
0.04926160 1.26210940 0.00249156 0.00000000
1.91565288 1.03904560 0.00145347 0.00000000
1.67003473 1.74857663 -0.00002403 0.00000000
0.76060368 1.78325487 0.00098683 0.00000000
2.46793550 0.67957745 0.00371534 0.00000000
3.63014544 2.06211189 -0.00106192 0.00000000
3.71193729 0.78870293 0.00001160 0.00000000
2.89491062 2.47110064 0.00053987 0.00000000
1.17834327 0.95858307 -0.00011992 0.00000000
0.58434470 1.97848112 -0.00121224 0.00000000
2.35080354 0.02032637 -0.00179387 0.00000000
0.09586129 1.34487305 -0.00105451 0.00000000
1.44578615 1.43640484 0.00429281 0.00000000
0.43680829 0.91913114 0.00508892 0.00000000
4.10427383 2.19744771 0.00105910 0.00000000
1.28442085 1.96841442 -0.00201767 0.00000000
0.24754342 0.26783608 0.00181744 0.00000000
0.96177297 2.41950718 0.00908634 0.00000000
0.63797021 0.58925109 0.00379921 0.00000000
3.51079177 1.25291698 0.00037121 0.00000000
3.69640278 0.96657946 0.00180359 0.00000000
0.04012009 0.59176263 -0.00418156 0.00000000
2.21686780 0.89740437 0.00158519 0.00000000
3.76791016 2.42096928 -0.00194983 0.00000000
3.44285753 1.91062304 0.00259360 0.00000000
1.41391784 2.02345542 -0.00428127 0.00000000
1.04144191 0.47069864 -0.00003035 0.00000000
4.06616295 1.55136637 -0.00438746 0.00000000
1.16413771 2.10868536 0.00366739 0.00000000
0.38767746 0.89499485 0.00015847 0.00000000
2.47294977 0.78507959 0.00225875 0.00000000
3.68941610 0.52529335 -0.00053801 0.00000000
1.89153525 1.25775346 -0.00481536 0.00000000
1.02297885 1.84549452 -0.00254317 0.00000000
3.47075576 2.36048364 -0.00007479 0.00000000
3.51145321 1.33613819 0.00027558 0.00000000
2.67329578 2.33303240 0.00058704 0.00000000
3.23452433 0.83913488 -0.00117404 0.00000000
3.26251112 0.17114874 -0.00210477 0.00000000
