4.566719 0.564784 -0.001051 0.0
2.074155 -0.000307 -0.002395 0.0
1.239596 1.770402 0.005619 0.0
1.343244 1.446225 -0.004221 0.0
2.294228 1.024575 0.000502 0.0
1.401691 0.999380 -0.003338 0.0
2.670137 0.666727 -0.003435 0.0
0.412495 0.883274 -0.001421 0.0
3.391479 1.242659 0.005634 0.0
4.295147 1.116985 0.001347 0.0
2.125213 1.296054 0.001260 0.0
0.172228 1.327464 -0.002738 0.0
-0.002025 0.325876 -0.003708 0.0
2.647566 1.167151 0.001424 0.0
3.902543 0.821887 -0.000847 0.0
2.579233 0.371671 0.000263 0.0
1.508178 0.400137 0.002361 0.0
3.423003 1.280300 0.000092 0.0
3.563721 1.566819 -0.003920 0.0
1.993693 0.151540 -0.001207 0.0
3.906627 1.549084 -0.000066 0.0
2.810749 0.462800 -0.000307 0.0
4.472437 0.167739 -0.000839 0.0
2.521255 1.250810 0.001671 0.0
2.544625 0.244809 0.001647 0.0
1.861509 1.784870 -0.004645 0.0
0.184814 0.710680 0.004149 0.0
3.688426 1.104253 0.002409 0.0
0.104382 0.770485 0.004115 0.0
3.104444 1.087784 0.000635 0.0
1.170320 0.463273 -0.000092 0.0
3.032732 0.078687 0.001634 0.0
0.185705 0.786746 0.002600 0.0
1.403645 1.432197 -0.000890 0.0
1.054208 1.766497 0.002302 0.0
2.856137 1.665650 -0.000526 0.0
4.248937 1.102721 0.001917 0.0
2.502818 1.375893 0.000529 0.0
0.860536 1.748324 0.000733 0.0
3.133245 0.722960 0.000165 0.0
4.409773 0.766593 0.001471 0.0
3.113699 1.781513 0.003247 0.0
4.225102 0.829566 0.000591 0.0
2.323839 1.087067 0.001838 0.0
4.589981 1.177099 -0.000110 0.0
3.380627 1.206901 0.000975 0.0
0.919359 0.357767 0.000991 0.0
2.173758 0.423566 0.001036 0.0
2.911444 0.720079 0.003253 0.0
0.981435 0.476332 -0.000082 0.0
2.112857 0.989636 -0.000378 0.0
0.228836 0.780358 -0.000775 0.0
3.037443 0.770169 -0.001508 0.0
3.136821 1.114231 0.002032 0.0
3.322765 1.428275 -0.000653 0.0
1.005177 1.419673 -0.000301 0.0
3.641361 0.367832 0.003478 0.0
1.691362 0.694933 -0.001088 0.0
4.270203 0.215171 -0.002105 0.0
4.447809 1.684454 -0.006056 0.0
2.776017 0.734569 0.000152 0.0
3.616814 1.650781 0.002731 0.0
3.243801 1.153984 0.000288 0.0
4.095581 0.185429 -0.000498 0.0
0.325229 1.599774 0.001879 0.0
0.625499 1.200312 0.001857 0.0
1.195570 1.157532 -0.004518 0.0
4.193314 0.332559 -0.000449 0.0
0.470908 0.944939 -0.001614 0.0
1.022979 0.029522 -0.002737 0.0
2.714878 1.126172 -0.003388 0.0
0.418027 0.282092 -0.000294 0.0
3.651094 0.790678 -0.002349 0.0
3.374831 0.112258 -0.001698 0.0
3.883485 1.053995 0.000285 0.0
2.915805 0.717621 -0.001584 0.0
2.104174 1.255168 0.000281 0.0
4.229850 1.424826 0.003801 0.0
3.467742 1.753946 0.000968 0.0
1.912152 0.905165 -0.002486 0.0
0.704302 0.987964 -0.002663 0.0
0.331035 1.398913 0.005528 0.0
2.982646 0.406291 0.000510 0.0
0.775743 0.785734 0.000187 0.0
4.460251 0.623541 -0.000180 0.0
1.568210 1.192421 0.002348 0.0
2.381233 0.805033 -0.006596 0.0
2.751809 1.402736 0.001360 0.0
3.823934 1.693266 0.003126 0.0
1.092763 1.664399 -0.001881 0.0
1.145792 1.766867 0.004726 0.0
2.579405 0.584451 -0.004741 0.0
1.050689 1.502034 -0.003672 0.0
3.733129 0.169630 -0.000068 0.0
3.538525 1.219021 0.000996 0.0
4.489675 1.575980 -0.002132 0.0
3.367913 0.300378 -0.000389 0.0
1.553317 0.907029 -0.000378 0.0
3.476517 1.087769 -0.001535 0.0
4.037968 0.788552 0.000821 0.0
3.506596 1.288448 -0.001945 0.0
0.537758 1.284662 0.003090 0.0
1.790029 1.093831 0.002770 0.0
4.154484 0.635099 0.000962 0.0
3.582604 1.325367 -0.001055 0.0
0.934424 0.715760 0.002589 0.0
3.207532 0.869843 -0.000459 0.0
3.464353 0.260942 0.001021 0.0
3.505680 1.376287 -0.001315 0.0
3.156587 1.337643 0.003777 0.0
0.386785 1.783829 -0.002479 0.0
0.287450 0.840938 0.000585 0.0
1.545672 1.590608 -0.006807 0.0
2.066177 1.646739 -0.002700 0.0
2.277461 1.438742 -0.005167 0.0
4.589644 0.647181 0.001055 0.0
1.214876 1.077074 -0.002288 0.0
0.243553 1.154617 0.000943 0.0
4.106884 0.754134 -0.003828 0.0
2.625373 1.317518 0.003425 0.0
2.490886 1.383346 -0.000427 0.0
1.172498 1.790517 0.001831 0.0
4.359942 1.151726 0.002743 0.0
4.280687 1.043586 -0.002282 0.0
4.218065 1.003069 0.004179 0.0
0.534971 0.686097 0.000421 0.0
1.849827 0.249834 0.003352 0.0
2.602816 0.056213 -0.000989 0.0
1.779510 0.404865 -0.000537 0.0
0.882573 0.899181 0.000862 0.0
2.889967 1.657019 0.002370 0.0
0.337453 0.868184 -0.002196 0.0
2.318165 0.209175 0.002559 0.0
3.568354 1.558248 0.001949 0.0
3.768816 1.495125 0.002093 0.0
3.325891 1.782123 -0.002861 0.0
4.560420 1.038260 0.000074 0.0
1.896223 1.197910 -0.000202 0.0
2.490118 0.919165 0.001252 0.0
2.367373 0.271279 0.003502 0.0
2.289692 0.121918 0.002515 0.0
2.977759 1.477221 0.001805 0.0
1.135132 0.634712 -0.001393 0.0
2.008989 0.684413 -0.002192 0.0
1.128956 1.322542 -0.004165 0.0
1.617404 0.819844 0.000437 0.0
1.986144 0.069548 -0.001264 0.0
2.434624 0.270888 -0.001342 0.0
3.863335 0.591028 -0.001648 0.0
3.802258 0.369285 -0.001658 0.0
4.069922 1.335836 -0.002142 0.0
4.257266 1.245486 -0.007966 0.0
3.050630 1.326009 0.002350 0.0
2.098291 1.548712 -0.003139 0.0
0.153120 0.507440 0.002293 0.0
3.279871 0.308165 -0.001448 0.0
1.102956 0.142910 0.007360 0.0
3.760647 0.041633 0.003857 0.0
2.937081 0.218345 -0.003641 0.0
3.171630 0.132516 0.002174 0.0
3.947775 0.230415 -0.004552 0.0
3.775909 1.220516 0.000392 0.0
0.230755 0.545252 0.005823 0.0
2.315403 1.552014 0.000428 0.0
0.325116 1.633896 -0.001762 0.0
2.297169 1.757317 0.002019 0.0
0.557916 1.770367 0.003701 0.0
2.645088 1.166925 -0.001019 0.0
3.199613 0.219274 -0.000929 0.0
0.055190 1.179873 0.003165 0.0
2.429972 0.590025 -0.001975 0.0
1.556182 0.047516 0.000743 0.0
1.228113 1.236318 0.000467 0.0
1.571686 0.430622 -0.000845 0.0
4.381777 1.634548 -0.000332 0.0
3.851248 1.414021 0.001020 0.0
3.191426 0.679815 0.001579 0.0
2.822852 0.312075 0.001978 0.0
4.074273 0.637465 0.003608 0.0
1.034643 1.165121 -0.000439 0.0
3.516838 1.320697 0.002775 0.0
2.932438 1.429276 0.000743 0.0
0.729098 0.885604 0.003016 0.0
3.692195 0.436342 0.000890 0.0
3.459115 0.665310 0.000006 0.0
0.562509 1.138132 -0.002130 0.0
1.089118 1.150400 0.003823 0.0
4.070146 0.796032 -0.003168 0.0
4.536909 0.290932 -0.002505 0.0
3.576782 0.458731 0.001932 0.0
2.260409 0.195234 0.000283 0.0
3.234856 1.223520 -0.006042 0.0
3.829920 0.596840 0.003504 0.0
4.238701 0.433122 -0.001669 0.0
3.466820 0.171829 0.001895 0.0
4.372920 1.206444 -0.002452 0.0
1.659682 0.912706 0.000177 0.0
2.163856 1.215776 0.005761 0.0
0.746863 0.008699 0.002319 0.0
1.981953 1.084902 -0.002272 0.0
3.583246 1.313098 0.000922 0.0
1.274710 0.525298 -0.000724 0.0
0.747244 0.723197 -0.001568 0.0
0.531660 1.175309 0.000390 0.0
3.033783 0.222942 -0.001408 0.0
4.535293 0.153305 -0.001788 0.0
0.083972 1.341834 0.000901 0.0
3.551416 0.164426 0.002036 0.0
4.567130 0.665447 -0.000973 0.0
4.013988 1.424641 -0.003005 0.0
2.582219 0.934448 0.005575 0.0
2.235378 0.264659 0.002296 0.0
1.987704 0.601261 -0.000953 0.0
3.994787 0.262697 0.004135 0.0
3.863059 1.699604 0.000287 0.0
1.728025 1.305032 -0.002588 0.0
1.376141 0.567419 -0.002163 0.0
0.933867 0.120655 -0.001063 0.0
3.523998 0.872410 -0.001468 0.0
1.365905 1.038697 0.000576 0.0
3.636746 0.824204 -0.000683 0.0
2.526451 0.137247 0.001345 0.0
1.060581 1.777606 -0.000176 0.0
3.191436 0.382528 0.000666 0.0
4.211352 1.076693 0.001093 0.0
1.035419 0.675626 0.001266 0.0
0.158574 1.282761 0.001472 0.0
3.023041 0.067517 -0.003382 0.0
0.192168 0.331880 -0.000978 0.0
4.050382 1.144584 0.001550 0.0
3.756046 1.171527 0.002597 0.0
2.935556 1.360168 -0.004579 0.0
3.253495 0.585116 -0.002070 0.0
0.872681 0.733020 0.000842 0.0
4.452582 0.877799 -0.001174 0.0
2.062237 0.299508 0.002285 0.0
4.245156 0.410371 0.000452 0.0
3.124616 1.481911 -0.003524 0.0
0.532646 1.280913 -0.001960 0.0
2.812978 1.048382 -0.000570 0.0
4.477257 1.214223 0.005200 0.0
0.025164 0.214989 0.001867 0.0
3.958075 1.376959 -0.000537 0.0
3.001223 1.364659 0.000420 0.0
3.565925 1.753749 0.000389 0.0
1.625875 0.892410 0.003033 0.0
2.861630 0.685089 0.000528 0.0
3.326850 0.195948 0.000436 0.0
2.734789 1.126218 -0.001012 0.0
3.656565 0.436913 -0.001659 0.0
1.222903 0.200938 -0.001604 0.0
0.359484 1.185151 0.006238 0.0
0.772312 0.258928 0.001477 0.0
0.467569 0.749068 0.001711 0.0
1.255476 1.422190 0.003951 0.0
1.098601 1.667864 -0.000318 0.0
1.663229 0.183115 0.002644 0.0
1.261876 0.913281 0.001177 0.0
4.250112 0.649385 0.000187 0.0
3.314278 0.700057 0.004833 0.0
2.875983 1.733961 -0.001173 0.0
1.875243 0.675291 0.001113 0.0
1.226952 0.921207 -0.000777 0.0
3.368404 1.074505 0.003876 0.0
1.956457 1.185914 -0.000901 0.0
2.147650 0.080296 0.001258 0.0
4.198931 1.615825 -0.004079 0.0
4.174136 1.101470 0.000738 0.0
4.554626 0.633649 0.000120 0.0
1.993645 1.159258 -0.001630 0.0
1.387575 0.083869 -0.000815 0.0
4.017623 1.250142 0.000918 0.0
2.385144 0.293104 0.002279 0.0
2.610659 0.314298 -0.000813 0.0
1.672351 0.087226 -0.004234 0.0
1.176433 1.545194 -0.001500 0.0
0.855485 1.770516 -0.003029 0.0
3.771999 0.757896 -0.002384 0.0
0.952799 0.478803 -0.001779 0.0
1.650065 1.645270 0.002657 0.0
0.328078 1.559461 -0.000307 0.0
1.057571 0.747230 0.000049 0.0
1.004926 1.514704 0.001828 0.0
3.547257 1.393976 -0.002871 0.0
2.668574 0.715466 0.004590 0.0
1.026182 1.262828 -0.001903 0.0
3.862711 1.057020 -0.003920 0.0
2.012603 0.614441 -0.001068 0.0
2.507608 0.353853 -0.000481 0.0
3.040336 1.462433 -0.002830 0.0
0.794993 0.310970 0.002946 0.0
0.891046 0.095423 0.005088 0.0
4.068365 0.320086 -0.001883 0.0
0.177111 1.687890 0.002053 0.0
3.991052 0.854681 -0.001975 0.0
0.896150 0.388986 -0.002453 0.0
2.941628 1.771564 -0.003793 0.0
1.308662 1.420331 0.006370 0.0
0.179807 0.591803 0.000513 0.0
0.529604 1.569287 0.002097 0.0
3.313987 1.381065 -0.002075 0.0
3.736540 1.688820 -0.000389 0.0
1.798748 0.334400 -0.001102 0.0
3.163203 0.345430 -0.001002 0.0
0.527805 0.306514 -0.000939 0.0
0.755274 0.975657 -0.004161 0.0
2.311331 1.376934 -0.001055 0.0
1.511812 1.449107 0.001726 0.0
2.623684 0.187823 0.000866 0.0
4.534950 0.298430 -0.000452 0.0
4.098843 0.125886 -0.002684 0.0
2.077348 1.607206 0.000591 0.0
2.449110 0.951058 0.002497 0.0
1.676400 1.691375 0.002703 0.0
3.365685 0.826299 0.002120 0.0
0.912702 1.010865 0.003950 0.0
0.383481 0.921642 -0.001152 0.0
2.255643 0.026474 -0.002823 0.0
0.828129 1.204845 0.000709 0.0
4.526135 1.629413 -0.000799 0.0
1.559432 0.746727 -0.000942 0.0
2.558886 0.341035 0.001325 0.0
1.481374 1.636464 0.000192 0.0
0.270813 0.644072 0.003903 0.0
1.405605 1.174264 -0.001700 0.0
3.018584 0.749622 -0.001572 0.0
3.235196 1.046463 0.001797 0.0
3.030097 1.328608 -0.000742 0.0
0.137836 1.520805 0.000225 0.0
3.235662 1.158013 0.001699 0.0
3.202837 0.919095 0.000709 0.0
0.063956 1.469843 -0.003016 0.0
3.035774 0.578315 0.008272 0.0
1.545942 1.332049 -0.002721 0.0
1.550813 0.997687 -0.000755 0.0
3.809814 0.359773 0.000277 0.0
1.381987 1.555832 -0.002767 0.0
4.425643 0.953693 -0.004680 0.0
1.366184 1.505434 -0.001444 0.0
0.878803 0.426225 0.005806 0.0
0.467872 0.248761 0.002160 0.0
2.408974 0.881202 0.001381 0.0
2.002878 0.887216 -0.001810 0.0
3.217175 0.790266 0.001258 0.0
4.167688 0.637473 -0.002805 0.0
3.175055 1.718834 -0.003897 0.0
4.409955 1.072018 -0.001130 0.0
2.876703 0.123373 -0.001578 0.0
0.189623 0.066911 0.000953 0.0
4.100572 0.101402 0.002117 0.0
1.297431 0.017638 -0.002443 0.0
3.357104 0.692886 0.001396 0.0
2.981244 0.579132 0.001130 0.0
4.496255 0.439420 -0.002010 0.0
0.040315 0.888349 0.000467 0.0
1.275411 1.760407 -0.000358 0.0
1.352717 0.344809 -0.001337 0.0
2.730058 1.381283 0.003667 0.0
2.550845 0.766083 -0.002652 0.0
4.165006 1.736979 -0.001976 0.0
2.015435 0.921592 -0.000976 0.0
4.568925 0.214222 0.001896 0.0
0.461242 1.194420 -0.001361 0.0
0.000933 0.796514 0.000141 0.0
3.696103 0.270916 0.001695 0.0
2.735655 1.117232 -0.001238 0.0
2.893395 1.235849 0.000385 0.0
2.068242 1.590916 -0.003528 0.0
4.499392 1.351063 0.006104 0.0
4.021607 0.834657 0.002872 0.0
2.836877 1.143444 -0.001438 0.0
0.494573 0.054864 -0.003104 0.0
4.251428 0.277983 -0.004637 0.0
2.293562 1.431342 0.002477 0.0
3.304352 0.245475 0.001665 0.0
0.518182 1.623164 0.001923 0.0
2.354285 0.081012 -0.004232 0.0
2.339917 0.041708 -0.002024 0.0
3.810374 1.536352 0.001129 0.0
4.566530 1.589107 0.002058 0.0
1.092197 0.316793 -0.001825 0.0
2.347797 0.130463 0.003479 0.0
4.179801 1.708307 0.000994 0.0
0.573902 1.024050 -0.000025 0.0
2.785817 0.806713 -0.001009 0.0
3.254888 0.312896 -0.000288 0.0
2.441962 0.105908 -0.004016 0.0
3.061884 0.029478 0.002321 0.0
4.214176 1.628631 0.002725 0.0
3.716560 0.370762 0.002877 0.0
3.192908 0.875560 0.000029 0.0
0.211101 1.273998 -0.002755 0.0
3.523255 0.336369 -0.000702 0.0
2.737887 1.494920 0.000570 0.0
0.519307 0.094838 0.001338 0.0
0.695322 0.926805 0.000683 0.0
1.749410 0.253213 -0.000970 0.0
0.516260 0.737499 0.002684 0.0
3.791871 1.335356 0.000965 0.0
0.297690 0.456083 -0.003096 0.0
0.623912 0.505848 -0.000256 0.0
0.415273 0.088074 -0.001176 0.0
4.134168 0.672140 -0.000002 0.0
2.310913 0.939529 0.000966 0.0
1.483191 0.843964 0.001879 0.0
3.926343 0.474458 0.003759 0.0
3.018174 1.774536 -0.000515 0.0
4.454583 0.034763 0.002082 0.0
1.778806 1.621661 -0.003802 0.0
4.557667 1.699078 0.000996 0.0
0.859399 1.017730 0.001484 0.0
2.149113 0.387228 0.001440 0.0
0.111514 0.427496 0.000083 0.0
1.308456 0.676565 -0.000409 0.0
2.191470 0.692478 0.001899 0.0
3.767741 0.009851 0.002749 0.0
2.399379 1.080328 -0.002902 0.0
2.733345 1.501978 0.003197 0.0
2.458424 1.636834 -0.002319 0.0
1.245835 0.522055 -0.002963 0.0
3.405596 1.682173 0.000040 0.0
3.028990 1.395032 0.000765 0.0
0.223448 0.548069 -0.002616 0.0
0.758356 0.223795 -0.001738 0.0
0.679916 0.794159 -0.003499 0.0
2.850087 1.608452 0.004181 0.0
2.171990 0.271761 -0.001730 0.0
3.355499 0.675424 0.001728 0.0
1.308299 1.188692 -0.001876 0.0
0.023784 0.855231 0.002303 0.0
1.803664 0.110652 0.001888 0.0
2.026426 1.247289 -0.000109 0.0
2.949778 0.389120 0.000370 0.0
2.647721 1.701324 0.004121 0.0
1.319043 1.642122 -0.004181 0.0
3.481360 0.028240 -0.005297 0.0
2.051084 1.082147 -0.000748 0.0
3.460316 0.513446 -0.003495 0.0
4.082832 1.562545 0.003360 0.0
1.918355 0.070025 0.001179 0.0
0.336306 0.327865 -0.000791 0.0
2.016706 1.173162 0.002666 0.0
3.326315 0.121864 -0.002727 0.0
0.074502 1.026628 0.003239 0.0
0.096341 1.482628 0.006666 0.0
1.377457 0.601708 -0.001844 0.0
3.247195 1.264550 -0.001314 0.0
2.988836 0.006183 0.001637 0.0
3.416275 1.745196 0.000208 0.0
4.481691 1.715176 -0.002651 0.0
2.248760 1.474374 -0.001349 0.0
0.127203 1.209060 -0.003608 0.0
1.886841 0.658410 -0.001672 0.0
4.412924 0.330376 -0.004247 0.0
2.073323 0.401226 -0.002668 0.0
4.472676 0.539305 0.000419 0.0
3.596384 1.035319 -0.000977 0.0
2.389213 1.232258 -0.002198 0.0
3.941486 0.804330 0.000310 0.0
0.014840 1.467070 -0.002696 0.0
3.893458 0.651250 -0.000905 0.0
0.022504 1.496032 0.003998 0.0
4.108353 1.641399 0.003835 0.0
0.275141 1.269267 0.000991 0.0
0.634271 1.221142 -0.002184 0.0
4.067557 0.216815 -0.006037 0.0
1.767928 1.466369 0.002795 0.0
2.612721 0.044533 -0.000076 0.0
3.168695 1.292257 -0.001998 0.0
2.354983 1.088721 -0.006019 0.0
2.049475 0.077520 0.004839 0.0
3.446443 1.710830 -0.002043 0.0
2.238444 1.336415 -0.000499 0.0
2.662026 1.432194 0.000142 0.0
4.298862 0.169587 0.001031 0.0
0.309665 0.421566 -0.000454 0.0
3.446055 1.125734 -0.002416 0.0
4.414265 0.920238 -0.002379 0.0
0.944555 0.488592 -0.001999 0.0
4.598329 1.136796 0.005558 0.0
3.998025 0.253412 -0.001205 0.0
2.418138 1.094384 0.001611 0.0
1.649066 0.831692 -0.002385 0.0
1.797250 1.089664 0.003099 0.0
2.477351 1.009014 0.001879 0.0
0.108175 0.567775 -0.000491 0.0
3.564029 1.647709 0.003383 0.0
3.003402 0.559927 0.003582 0.0
1.518638 1.621175 0.004467 0.0
1.092371 1.197044 0.000049 0.0
4.041430 0.681162 -0.001204 0.0
4.621294 1.314449 0.003231 0.0
2.633478 0.211685 -0.004228 0.0
3.775038 1.531350 0.001499 0.0
0.298802 1.675800 0.004048 0.0
3.807810 0.234297 0.001439 0.0
0.274756 1.368415 0.000318 0.0
1.242985 0.329193 -0.004594 0.0
3.021168 0.801236 -0.000990 0.0
4.349056 0.969328 0.002499 0.0
0.860786 1.803039 -0.001502 0.0
2.903510 0.887791 0.001346 0.0
1.682016 0.896131 -0.004785 0.0
2.485980 0.930753 0.001752 0.0
0.371872 1.724257 0.000352 0.0
2.244791 1.580357 0.001709 0.0
1.474041 1.257126 -0.002347 0.0
3.056962 1.045150 0.002349 0.0
1.865060 1.072654 -0.000416 0.0
0.538865 1.099155 0.001499 0.0
0.837378 1.733321 -0.000243 0.0
2.266127 1.552600 -0.002339 0.0
2.937655 1.022652 -0.003109 0.0
2.239172 0.325804 0.002724 0.0
2.042831 1.029726 -0.004845 0.0
0.799175 1.518352 -0.000982 0.0
0.759789 1.474660 -0.000099 0.0
3.085711 0.129255 -0.000388 0.0
0.093260 1.066664 0.002324 0.0
2.021854 1.468611 -0.000152 0.0
1.448205 0.992483 -0.002397 0.0
1.451444 0.939004 -0.001768 0.0
1.610649 0.960212 0.000705 0.0
1.782460 1.624582 -0.002177 0.0
4.214608 1.813355 0.000953 0.0
4.067052 0.670326 -0.000622 0.0
0.489666 0.843767 -0.002143 0.0
1.075939 1.103541 -0.003375 0.0
1.340002 0.213995 -0.003119 0.0
2.900604 0.719677 -0.000605 0.0
1.642004 0.149557 -0.001129 0.0
4.449934 0.768298 0.000634 0.0
1.858469 0.484138 0.001623 0.0
0.257111 0.798927 0.001913 0.0
4.437871 1.719878 0.002563 0.0
2.349486 0.775035 -0.000613 0.0
2.213434 0.070568 -0.001741 0.0
0.432580 0.128746 -0.002056 0.0
2.385535 0.125205 -0.001846 0.0
4.540073 0.243471 0.000637 0.0
4.420263 1.674125 0.002142 0.0
0.565744 1.209369 0.003998 0.0
4.575712 0.984357 0.003634 0.0
0.645988 1.712563 -0.001661 0.0
2.416254 1.638562 0.002401 0.0
0.638592 0.148251 0.001175 0.0
1.239658 1.618859 0.000872 0.0
3.181061 0.952069 0.001295 0.0
4.228704 1.238106 -0.000133 0.0
0.567098 1.591210 -0.001283 0.0
2.124247 0.959402 -0.003019 0.0
0.382703 0.180764 0.001344 0.0
0.660491 1.104268 0.001174 0.0
3.746604 1.257617 -0.000616 0.0
0.191656 1.420193 -0.001231 0.0
2.312659 0.445645 0.000709 0.0
2.814917 0.582599 -0.002121 0.0
4.164604 1.544170 0.002781 0.0
1.509785 1.640845 0.001091 0.0
0.109129 0.294757 0.004117 0.0
2.425887 0.477759 0.000764 0.0
0.546733 1.765079 -0.000621 0.0
0.883759 1.669328 -0.001306 0.0
1.258971 0.577053 -0.001099 0.0
3.307841 1.648042 -0.002891 0.0
3.017071 0.130052 0.001883 0.0
4.425203 1.121184 -0.000115 0.0
3.781194 1.570302 -0.006626 0.0
3.045061 0.327993 -0.003797 0.0
0.871933 1.023966 0.002932 0.0
2.367091 1.805392 -0.000472 0.0
3.529383 1.408118 0.001544 0.0
1.420569 1.374579 -0.001268 0.0
0.149712 1.189617 0.003238 0.0
1.819618 0.208596 -0.000012 0.0
0.294709 0.084182 -0.003954 0.0
0.069115 0.003029 0.001234 0.0
4.147598 1.032660 -0.000838 0.0
1.546351 1.377648 -0.002081 0.0
2.667863 0.815007 0.000014 0.0
0.411924 0.672587 -0.000597 0.0
1.549222 1.098096 0.001563 0.0
1.059621 1.152095 0.000301 0.0
3.543257 1.483886 0.002329 0.0
0.191652 1.340033 0.003503 0.0
0.246538 1.097887 0.003266 0.0
3.890049 0.284665 0.000495 0.0
3.572138 1.792977 -0.006325 0.0
4.312717 0.348124 -0.003561 0.0
2.228423 1.100435 -0.001250 0.0
1.670533 0.237114 -0.000959 0.0
1.934481 0.217106 -0.002518 0.0
3.178308 1.780592 -0.000301 0.0
0.707764 0.677367 0.001211 0.0
4.479568 1.047462 0.000678 0.0
4.444843 1.444735 0.000532 0.0
2.563089 1.666632 -0.000718 0.0
4.116531 1.021352 0.001763 0.0
1.093719 0.799100 0.002055 0.0
3.063457 0.367422 0.000877 0.0
1.848970 0.403537 -0.005452 0.0
4.504727 0.167546 0.002357 0.0
3.077670 1.391739 0.009564 0.0
1.614808 0.598799 0.000939 0.0
1.790452 1.267792 0.000854 0.0
3.589192 0.406378 0.002249 0.0
3.583579 1.602762 -0.000707 0.0
1.916811 1.096772 -0.003259 0.0
4.149402 1.114489 0.001728 0.0
2.452950 0.717803 0.000255 0.0
4.015774 1.453066 -0.002109 0.0
3.263046 1.605571 0.001406 0.0
2.918837 1.726781 -0.000029 0.0
3.013008 1.706422 0.003673 0.0
3.594515 0.443760 0.003593 0.0
2.610061 0.979670 -0.003716 0.0
0.627449 0.817167 -0.001295 0.0
2.863214 1.616067 0.000370 0.0
3.957334 1.066008 -0.002598 0.0
2.520895 0.060637 -0.000533 0.0
2.703909 0.173355 0.003771 0.0
2.996847 1.072068 0.000586 0.0
2.512105 0.223917 -0.001489 0.0
0.574419 0.927547 0.004086 0.0
4.052049 0.429318 0.000518 0.0
1.309637 1.405224 0.001373 0.0
2.775207 0.199745 0.002066 0.0
0.448168 0.484572 0.003836 0.0
1.871707 1.390043 0.001706 0.0
0.687606 0.672975 0.002038 0.0
3.186359 0.848365 -0.000601 0.0
3.898322 0.371508 0.002125 0.0
4.144786 0.058434 -0.004289 0.0
2.476996 1.026452 -0.005569 0.0
3.357350 1.381416 -0.000424 0.0
4.114436 0.084393 -0.001765 0.0
0.413215 1.575467 -0.000391 0.0
2.258903 0.010312 0.002261 0.0
1.853881 0.945439 0.000052 0.0
3.897811 1.132491 -0.000879 0.0
4.282519 0.045258 -0.001204 0.0
4.461124 1.220489 -0.002906 0.0
4.256829 0.445348 -0.000644 0.0
3.344941 0.754675 0.000460 0.0
0.903127 0.094124 0.000595 0.0
4.076156 0.394238 0.003711 0.0
3.910798 0.962842 0.002478 0.0
0.247394 1.564234 -0.001003 0.0
3.958265 0.398732 0.003207 0.0
2.175318 1.772262 -0.000510 0.0
2.361117 1.044776 0.003964 0.0
2.452431 0.603937 0.001192 0.0
4.275331 0.422605 0.001491 0.0
3.285272 1.372877 0.005372 0.0
1.456602 1.426866 0.001886 0.0
1.598655 1.705108 0.003097 0.0
0.740850 0.168897 0.000385 0.0
0.384306 0.902072 -0.000660 0.0
1.497615 1.441782 0.004377 0.0
1.861711 1.811062 0.002158 0.0
3.658394 0.050532 -0.003531 0.0
4.553968 1.111133 -0.000595 0.0
0.086083 1.600170 0.000024 0.0
1.593427 1.688324 0.001107 0.0
2.612481 0.865165 0.003882 0.0
2.171241 1.067929 -0.001922 0.0
3.457310 0.329565 0.003541 0.0
4.626056 1.732509 -0.000114 0.0
2.634945 0.862812 0.000293 0.0
3.271201 1.271940 0.003831 0.0
0.862192 0.277351 -0.000584 0.0
1.979363 0.922001 -0.000122 0.0
4.624085 0.871089 0.004979 0.0
1.953072 1.788810 -0.004297 0.0
4.433033 0.261757 -0.001282 0.0
2.265333 0.472823 0.000956 0.0
3.258128 1.313336 0.000327 0.0
2.887315 0.760845 -0.000445 0.0
0.592428 0.216225 -0.001325 0.0
2.340971 1.323328 0.000201 0.0
0.549864 0.715105 0.000533 0.0
1.841535 1.193230 -0.001142 0.0
1.193362 1.249926 0.003312 0.0
0.935712 1.358977 -0.001258 0.0
2.461621 1.191846 0.003671 0.0
3.754830 0.541326 0.004296 0.0
1.143586 1.242847 -0.006131 0.0
3.218916 0.579719 -0.000838 0.0
3.794163 0.731612 0.002052 0.0
0.254910 1.213279 -0.006376 0.0
1.256344 0.578839 -0.005607 0.0
0.612071 1.260828 -0.000075 0.0
0.500053 0.776810 0.000245 0.0
2.919147 1.167396 0.004242 0.0
1.549511 1.464811 -0.000481 0.0
4.099961 0.057451 -0.000518 0.0
4.630012 1.094414 0.001267 0.0
2.319474 1.219154 0.002136 0.0
4.604038 1.166803 0.000033 0.0
0.466578 0.589699 0.003408 0.0
1.000453 1.622840 0.000813 0.0
0.665771 0.047507 -0.000312 0.0
2.663533 0.742725 0.001999 0.0
3.996149 0.728012 -0.000017 0.0
0.169531 0.904573 0.001469 0.0
2.195453 0.469717 0.005063 0.0
2.310238 0.440314 0.000653 0.0
0.639454 0.602929 -0.001369 0.0
3.570070 0.462532 -0.001933 0.0
1.010003 0.774303 0.002916 0.0
3.344164 0.843442 -0.000018 0.0
0.228617 0.299234 0.001841 0.0
2.234112 0.182636 -0.002676 0.0
2.948501 1.408120 0.000596 0.0
3.612355 0.220054 -0.002513 0.0
4.052470 0.286896 0.004351 0.0
0.044006 1.370377 0.003913 0.0
3.246870 0.323543 0.002836 0.0
0.345793 1.557189 0.005500 0.0
1.421800 0.133638 -0.003817 0.0
4.284767 0.621728 -0.000508 0.0
0.859249 0.572010 -0.000303 0.0
3.105170 1.107609 -0.002930 0.0
1.203322 1.396532 0.002513 0.0
0.887297 1.093144 -0.000330 0.0
2.115899 0.505501 -0.004292 0.0
0.026536 0.625088 0.001392 0.0
2.543508 0.566900 0.002400 0.0
0.104772 0.680653 -0.002297 0.0
2.884407 0.400070 0.004806 0.0
2.661987 0.277694 -0.000985 0.0
1.643699 1.624398 -0.000826 0.0
1.681087 1.014768 0.001292 0.0
1.941452 0.229282 -0.003682 0.0
2.543945 0.868979 0.000268 0.0
1.325479 1.522923 -0.004153 0.0
1.935881 1.028123 0.001449 0.0
2.350920 0.778008 -0.002984 0.0
1.980767 0.938331 -0.003118 0.0
2.974469 1.438813 -0.000523 0.0
1.435955 1.633083 -0.001407 0.0
1.723254 1.122109 -0.000701 0.0
0.091059 1.116152 -0.004688 0.0
3.129924 0.502949 0.000377 0.0
1.560029 0.124068 0.000596 0.0
0.801918 1.640997 -0.002576 0.0
0.956808 1.409372 -0.003846 0.0
2.705203 0.148719 0.002401 0.0
1.336779 0.723682 0.001333 0.0
1.497408 1.060785 -0.002039 0.0
3.356716 0.276165 0.001150 0.0
2.001022 0.667580 0.002536 0.0
3.550413 1.323685 -0.001047 0.0
0.214509 0.868362 0.001507 0.0
1.415713 1.792735 -0.002348 0.0
4.135156 0.867820 -0.001423 0.0
3.721205 0.915882 -0.003784 0.0
0.355352 1.620304 0.000555 0.0
4.471715 0.472283 -0.002485 0.0
4.633054 1.102272 -0.002880 0.0
4.144514 0.372938 -0.000387 0.0
2.341791 0.116003 -0.003283 0.0
0.402176 0.184628 0.002583 0.0
4.294269 0.233470 -0.002969 0.0
2.073566 0.489068 0.005211 0.0
2.511524 0.684373 -0.000476 0.0
2.222745 0.095181 -0.002026 0.0
1.910250 0.019755 -0.000633 0.0
3.065314 0.996396 -0.000682 0.0
1.974785 0.851079 0.004262 0.0
0.572118 1.416335 -0.005318 0.0
1.270128 0.727820 0.004826 0.0
4.637400 0.293223 -0.002043 0.0
2.747051 1.232835 -0.001085 0.0
3.036627 0.338665 -0.002055 0.0
0.817006 0.043570 -0.000767 0.0
0.296374 0.412791 -0.002139 0.0
3.510134 0.961409 0.000049 0.0
1.922499 0.539478 -0.000344 0.0
0.491748 1.689303 0.000624 0.0
2.592378 1.232930 0.000685 0.0
2.396458 0.510156 0.000720 0.0
1.328404 0.988375 -0.000234 0.0
2.962466 1.152723 -0.004705 0.0
3.588687 1.565228 -0.001089 0.0
0.078381 0.459817 -0.001451 0.0
1.268807 1.177215 -0.001742 0.0
0.574191 0.550358 0.002012 0.0
3.226618 0.027360 -0.004151 0.0
1.148868 1.034441 0.000174 0.0
2.058772 1.226023 -0.000604 0.0
0.496290 1.018077 -0.000924 0.0
0.516795 1.256650 -0.001245 0.0
4.260013 1.650809 0.000395 0.0
3.529859 1.092051 -0.001861 0.0
1.384301 1.722898 -0.000442 0.0
2.408571 0.213616 -0.001089 0.0
3.357006 0.955783 0.000622 0.0
3.110986 0.301314 0.002239 0.0
1.972083 0.497039 0.003499 0.0
0.024894 0.274337 0.004764 0.0
0.422622 0.944412 0.006354 0.0
1.763559 1.517099 -0.002720 0.0
4.582530 0.832228 0.002843 0.0
2.457174 0.742714 0.000821 0.0
4.412483 1.588210 0.002945 0.0
1.318340 0.441589 -0.000018 0.0
3.922455 1.536299 0.004206 0.0
1.437417 1.244757 -0.000095 0.0
0.196151 0.456878 0.000847 0.0
4.555265 1.004688 0.004170 0.0
3.897611 0.394579 0.002762 0.0
2.099659 0.102523 0.004133 0.0
0.710670 1.324703 -0.000429 0.0
4.193486 0.378993 0.001860 0.0
4.041918 0.708696 -0.001991 0.0
0.965247 1.618997 0.001719 0.0
0.507397 0.673272 -0.002200 0.0
3.759528 0.607095 0.000457 0.0
1.754145 1.527845 -0.004638 0.0
2.789567 1.692819 0.000852 0.0
3.369381 0.762337 0.002434 0.0
3.722462 0.373539 -0.001006 0.0
3.048929 0.869120 -0.000922 0.0
2.743594 1.508323 -0.001421 0.0
1.896418 0.265953 0.000355 0.0
0.618173 1.063291 -0.000069 0.0
0.372352 1.532239 0.001578 0.0
1.083349 0.472447 0.000331 0.0
3.487134 1.106323 -0.002866 0.0
1.360847 0.734957 -0.001950 0.0
0.742514 1.541003 -0.000813 0.0
3.268535 1.390781 -0.000950 0.0
2.777886 0.871598 -0.002740 0.0
3.633231 1.739786 -0.000514 0.0
4.053698 0.331155 -0.001891 0.0
1.418116 0.584901 -0.005698 0.0
1.585309 1.564792 -0.000879 0.0
0.238790 0.084332 0.003545 0.0
1.228158 1.674327 0.001870 0.0
3.607977 1.269210 -0.001299 0.0
1.302651 1.354595 0.001014 0.0
2.679738 0.524486 -0.002786 0.0
0.979174 0.132664 0.000417 0.0
0.811185 1.324981 0.000562 0.0
3.896504 0.053642 -0.001489 0.0
1.251913 0.222920 0.000569 0.0
2.609523 1.702525 0.001124 0.0
1.803519 1.424118 0.002340 0.0
3.184008 0.848105 0.001230 0.0
4.594324 1.538679 -0.001937 0.0
2.664423 0.953041 -0.002066 0.0
2.123787 0.601935 -0.001743 0.0
3.173674 1.778923 0.000485 0.0
2.988212 0.775865 -0.003580 0.0
2.193559 0.823288 0.001689 0.0
0.418916 1.561814 -0.001782 0.0
0.980086 0.540380 0.000879 0.0
3.525826 0.338403 -0.000384 0.0
1.018365 1.514114 -0.000187 0.0
2.446020 1.635240 0.003053 0.0
3.690163 0.403338 -0.001623 0.0
2.073876 1.057335 0.002718 0.0
1.444097 0.948872 0.004652 0.0
3.678736 0.750395 -0.001353 0.0
3.534096 0.072668 -0.000786 0.0
4.283758 0.260212 0.002746 0.0
4.619020 0.327660 -0.002803 0.0
2.567675 1.486247 0.004314 0.0
2.921627 0.305790 0.002501 0.0
0.764660 1.335556 -0.001493 0.0
1.109036 0.451361 0.001121 0.0
1.278511 0.461399 -0.004907 0.0
0.439903 0.875077 -0.000710 0.0
0.434586 0.765273 -0.000469 0.0
2.813697 0.943658 0.002273 0.0
2.415820 0.975385 0.000665 0.0
1.113818 1.464752 -0.002888 0.0
0.062735 1.411016 0.001442 0.0
3.603143 0.070283 0.001329 0.0
0.989971 0.322135 0.002773 0.0
1.895513 1.742808 0.000851 0.0
2.595520 0.741262 -0.004405 0.0
3.547878 1.580301 -0.000566 0.0
3.933391 0.614974 0.000282 0.0
3.209968 0.887977 0.000486 0.0
2.691248 1.607116 -0.000998 0.0
2.133502 1.587688 -0.001177 0.0
4.493598 0.460745 -0.000990 0.0
3.498256 1.478290 -0.000347 0.0
0.675623 0.203998 0.002401 0.0
1.679579 1.710384 0.001158 0.0
1.643364 0.962970 0.000555 0.0
4.589002 1.165253 -0.002012 0.0
1.261880 1.238327 0.002138 0.0
0.122489 1.487709 -0.002578 0.0
1.963281 1.706269 -0.000905 0.0
3.649014 1.394940 -0.000826 0.0
0.757797 0.980250 0.004671 0.0
3.278134 0.804588 0.003881 0.0
2.684143 0.346313 -0.002084 0.0
2.961610 0.454891 0.001201 0.0
1.182995 0.459154 -0.000592 0.0
3.843257 0.830210 0.003041 0.0
3.614489 0.183651 -0.001754 0.0
2.049354 0.280610 -0.003935 0.0
3.492180 0.473823 0.002966 0.0
2.922993 1.494194 -0.001867 0.0
3.749905 0.354608 0.000130 0.0
3.719230 0.968478 0.003076 0.0
1.775834 0.540207 0.000955 0.0
0.098775 0.670882 -0.004121 0.0
3.620170 0.298062 -0.002826 0.0
4.291359 0.052490 0.001463 0.0
1.218474 0.763937 0.000967 0.0
0.838589 1.417430 0.000530 0.0
3.687447 1.002587 0.001228 0.0
2.668575 1.330421 -0.001615 0.0
3.438809 0.354914 -0.004625 0.0
0.247236 0.890059 -0.002165 0.0
3.576944 1.289869 0.000244 0.0
1.713906 0.458381 0.001797 0.0
1.408715 0.097399 -0.004672 0.0
0.128870 1.708545 -0.000116 0.0
4.252710 0.379120 0.006788 0.0
0.850127 1.001193 0.002845 0.0
0.705209 1.245527 0.001157 0.0
3.771030 0.076708 -0.000068 0.0
1.950429 0.073747 -0.000895 0.0
0.181051 0.881168 -0.002597 0.0
0.448354 1.487556 -0.002615 0.0
0.561248 1.748153 -0.002203 0.0
1.580763 1.311423 0.002194 0.0
3.293605 0.424830 0.004212 0.0
3.001457 1.328899 0.003101 0.0
0.347693 1.344261 0.002464 0.0
0.748296 0.212450 0.001343 0.0
1.333975 0.110744 -0.003464 0.0
0.113674 1.707613 0.001469 0.0
1.606310 1.715869 0.000779 0.0
4.388659 0.267704 -0.001651 0.0
3.942533 1.283799 0.000306 0.0
4.512717 0.781386 -0.000497 0.0
4.292065 0.075551 -0.002591 0.0
3.513272 1.762673 -0.001370 0.0
1.644822 0.927757 0.001041 0.0
1.913554 0.285271 0.002272 0.0
1.128998 1.719144 0.001367 0.0
2.684823 0.126026 0.002777 0.0
1.579817 0.108238 -0.001774 0.0
3.930609 0.137802 -0.001370 0.0
4.288061 0.486079 0.006297 0.0
3.826399 1.608450 -0.001631 0.0
4.078216 0.971718 0.001193 0.0
2.199659 1.583696 0.002923 0.0
2.983753 0.803870 -0.000499 0.0
1.440761 0.149794 -0.000915 0.0
1.724673 1.075784 -0.002755 0.0
4.004679 1.640161 -0.001808 0.0
0.416615 0.639593 0.001295 0.0
1.708535 1.277385 -0.000761 0.0
2.083440 0.486554 0.001227 0.0
3.373123 0.413105 -0.003817 0.0
3.718401 0.471249 -0.000878 0.0
0.613736 1.429658 -0.000629 0.0
3.740305 0.328761 0.001041 0.0
1.949015 0.166417 -0.001987 0.0
3.773912 0.987661 0.005636 0.0
0.754896 1.207123 0.003978 0.0
3.970118 1.767113 0.002779 0.0
0.199498 1.760967 0.004019 0.0
3.827839 0.526763 -0.001659 0.0
2.160347 1.205528 0.001400 0.0
3.204165 0.815295 0.004060 0.0
3.923044 0.264747 0.001009 0.0
0.763840 0.124679 0.006157 0.0
1.077359 0.204351 0.000645 0.0
2.534650 1.174199 0.000430 0.0
1.805781 0.648861 -0.003223 0.0
4.587983 0.264830 -0.005691 0.0
1.871283 1.644219 -0.002242 0.0
2.181094 0.568182 0.001509 0.0
3.393205 1.481164 0.000826 0.0
4.140561 0.857930 0.002026 0.0
3.156335 1.705934 0.000797 0.0
1.086218 1.556662 0.000564 0.0
1.370722 1.198356 -0.000638 0.0
2.522822 1.274537 -0.003138 0.0
0.064486 0.240894 -0.000218 0.0
2.849615 1.575411 0.002449 0.0
3.903416 1.395850 -0.002938 0.0
0.837442 0.454457 -0.000779 0.0
1.832107 0.786457 -0.000466 0.0
4.421681 1.362253 -0.005755 0.0
1.894806 0.539816 0.003527 0.0
4.384541 1.028443 -0.001741 0.0
1.710525 1.616923 -0.003154 0.0
3.989428 1.745945 0.002146 0.0
3.179211 0.503500 -0.005166 0.0
2.857055 0.101744 0.001166 0.0
3.295404 0.975472 -0.001307 0.0
2.176091 0.689960 -0.003049 0.0
1.487047 1.405229 0.002848 0.0
0.961092 0.178944 -0.002591 0.0
2.275267 0.988278 -0.000004 0.0
0.514142 0.291986 -0.003413 0.0
2.361978 0.877832 0.000390 0.0
0.311583 0.319778 -0.003528 0.0
3.526484 0.728895 -0.000783 0.0
2.517971 1.615411 -0.000103 0.0
4.208182 0.643106 -0.001939 0.0
3.062829 0.697003 -0.003064 0.0
3.575764 0.459571 -0.002379 0.0
0.668792 1.317142 -0.007039 0.0
3.963945 1.348272 -0.000373 0.0
0.295714 1.811357 -0.001871 0.0
3.033342 0.830252 -0.002966 0.0
4.015513 0.387123 -0.002054 0.0
4.135055 0.607517 -0.003042 0.0
2.278893 1.138370 -0.003135 0.0
4.593250 1.312444 0.000657 0.0
0.796402 1.713893 -0.002168 0.0
1.058253 0.334766 -0.004779 0.0
4.212658 1.487509 -0.001744 0.0
3.121632 0.441215 0.002728 0.0
3.759166 0.554066 0.004506 0.0
4.450806 1.166471 -0.004907 0.0
1.045284 1.209592 0.000367 0.0
1.301833 0.716977 -0.000967 0.0
2.478280 1.669287 -0.000691 0.0
0.000298 0.700799 -0.002295 0.0
3.689439 0.358389 0.000407 0.0
4.266082 1.532581 0.006604 0.0
4.549847 1.651741 -0.001563 0.0
3.215661 0.327135 -0.000211 0.0
1.641172 1.513005 0.001765 0.0
1.609623 0.387993 -0.001553 0.0
1.648389 1.544653 -0.001518 0.0
1.829081 1.660153 0.003265 0.0
2.061636 0.012912 -0.002772 0.0
4.005431 0.363192 0.002518 0.0
2.476880 0.617663 -0.001576 0.0
4.481782 0.749445 -0.000724 0.0
2.067397 0.932800 -0.000715 0.0
4.235526 0.771752 0.000247 0.0
3.044956 1.685596 0.004914 0.0
1.684606 1.249019 -0.001514 0.0
0.250901 1.742689 -0.001389 0.0
3.360599 0.180481 -0.000268 0.0
3.242308 0.784863 -0.004915 0.0
4.189692 1.028704 -0.004282 0.0
1.608768 1.517728 -0.000781 0.0
0.366755 1.350837 -0.002032 0.0
4.249406 1.619710 -0.000816 0.0
0.887524 1.667487 0.002669 0.0
3.919288 0.574584 -0.002329 0.0
1.152006 1.663985 0.000806 0.0
2.915205 0.598379 -0.001218 0.0
2.567870 0.758021 -0.000503 0.0
3.274569 0.933781 -0.002308 0.0
3.005237 1.807428 0.001494 0.0
1.761918 0.603298 0.000089 0.0
3.008013 0.280025 -0.003084 0.0
0.309118 1.545947 0.000529 0.0
3.337691 0.796862 -0.001982 0.0
0.420521 1.379907 -0.006391 0.0
2.082667 0.119923 -0.003519 0.0
4.482555 1.388586 -0.000398 0.0
3.916493 0.542958 -0.003092 0.0
4.046426 0.872204 0.000093 0.0
2.380016 0.349521 -0.001903 0.0
2.347293 0.333681 0.000790 0.0
4.452422 0.492923 0.002912 0.0
1.362333 0.380218 0.002236 0.0
0.214606 0.657741 0.003022 0.0
2.308472 0.219234 0.002993 0.0
2.731445 0.037733 0.005396 0.0
4.503676 0.444704 0.000744 0.0
3.343385 0.263388 -0.004095 0.0
1.842274 0.408314 -0.002107 0.0
3.404620 1.544132 -0.002489 0.0
0.695183 1.124676 -0.002264 0.0
0.235648 1.137771 0.002975 0.0
2.861676 1.638102 0.002174 0.0
1.130573 0.313175 0.000025 0.0
1.664881 0.009870 -0.000619 0.0
2.976626 0.759990 0.000009 0.0
2.854035 0.023563 -0.003075 0.0
1.658317 0.118913 -0.000018 0.0
1.886452 0.896599 -0.002227 0.0
2.577308 1.076384 -0.003998 0.0
0.334649 0.890488 -0.003915 0.0
1.666826 1.004867 -0.004792 0.0
1.418471 1.127595 -0.000364 0.0
0.386518 1.735059 -0.000289 0.0
4.228432 0.291220 -0.002040 0.0
1.520746 0.465353 0.003866 0.0
1.666456 0.856054 0.001380 0.0
1.404779 0.538443 -0.003886 0.0
1.061434 0.013680 -0.000737 0.0
3.928522 0.579657 0.000921 0.0
2.789918 1.324371 -0.003200 0.0
4.292489 1.568961 -0.001422 0.0
1.036564 0.876387 0.000630 0.0
1.520487 0.797339 -0.000102 0.0
0.631753 1.762533 -0.001343 0.0
1.756754 1.141210 -0.000245 0.0
3.159331 0.211392 0.001419 0.0
2.108257 1.294813 0.001958 0.0
3.506070 1.483606 0.003692 0.0
3.341558 1.502654 0.003707 0.0
4.390937 0.076790 -0.002503 0.0
0.220083 1.731954 -0.000283 0.0
3.208373 0.252216 0.000615 0.0
2.430463 0.023478 0.000541 0.0
1.818558 0.338411 0.004393 0.0
3.389063 0.601497 0.002922 0.0
0.124377 1.644604 0.000592 0.0
4.288579 1.395892 -0.003139 0.0
4.520050 0.615751 0.005009 0.0
3.306767 0.634639 -0.001714 0.0
1.226597 0.984900 0.001648 0.0
2.265610 1.610878 0.000528 0.0
3.542468 0.683933 0.000562 0.0
0.994848 1.238415 0.002172 0.0
3.768522 0.930013 -0.001260 0.0
0.606092 0.563974 -0.002523 0.0
2.227771 0.411566 0.002109 0.0
0.860860 1.074199 -0.000643 0.0
3.295413 1.661873 0.005738 0.0
2.262522 1.577320 0.003205 0.0
0.932736 0.172835 0.000246 0.0
2.091336 0.513087 -0.000641 0.0
2.505403 0.829552 0.001798 0.0
3.861252 0.700322 0.001207 0.0
1.504665 1.195200 0.000320 0.0
3.343555 1.366450 -0.000685 0.0
3.115109 1.451443 0.001402 0.0
3.386825 1.484378 -0.000555 0.0
0.771893 0.069395 0.001619 0.0
2.869511 0.122657 -0.007601 0.0
2.172549 0.498441 -0.001399 0.0
2.846937 1.357080 0.000886 0.0
1.529518 1.744655 0.000722 0.0
0.713668 0.185052 -0.001415 0.0
1.246145 0.793042 0.001232 0.0
1.102018 0.078006 0.003157 0.0
1.071518 0.673540 -0.000816 0.0
4.009542 1.085216 -0.000717 0.0
4.316614 0.525063 0.001272 0.0
1.007861 0.104401 0.001155 0.0
3.518827 0.959989 0.002584 0.0
3.562460 0.249319 0.002519 0.0
3.621488 0.861926 0.003185 0.0
1.363865 0.585192 0.001028 0.0
2.011568 0.016909 0.001661 0.0
4.217676 0.731558 -0.000813 0.0
3.937129 0.924238 -0.003368 0.0
4.548921 0.297436 0.002497 0.0
2.321268 0.674588 -0.000381 0.0
3.363120 0.197066 -0.002248 0.0
3.073775 0.736496 -0.004616 0.0
2.860779 0.119648 -0.001236 0.0
1.475428 0.447164 0.001728 0.0
1.139410 0.072662 -0.001754 0.0
0.070713 1.806831 0.002126 0.0
0.151914 0.402659 -0.004203 0.0
4.563471 0.723553 -0.000302 0.0
2.029267 1.450736 -0.001409 0.0
0.359454 0.105822 -0.001927 0.0
3.782334 0.973600 0.001936 0.0
3.511564 0.495332 0.001577 0.0
2.287393 0.662907 0.001797 0.0
3.846975 0.421355 0.003094 0.0
2.650354 0.305311 -0.001218 0.0
2.987397 0.859066 0.003616 0.0
4.081626 1.618032 -0.001103 0.0
4.419686 0.239655 0.004367 0.0
0.102889 0.089667 -0.001632 0.0
0.190407 0.920594 -0.000425 0.0
2.708326 1.558419 -0.003078 0.0
0.834887 1.705100 -0.001858 0.0
2.490830 0.600052 -0.003558 0.0
3.599196 0.688316 -0.000088 0.0
2.906107 1.482080 -0.000804 0.0
0.986671 0.611986 0.001051 0.0
1.740352 0.793920 -0.000750 0.0
1.158829 1.657195 0.001004 0.0
4.608954 0.225025 0.002651 0.0
0.569086 1.700828 0.001110 0.0
1.095600 0.593659 0.001459 0.0
4.601942 1.692546 -0.003523 0.0
0.585327 0.798274 -0.001110 0.0
4.000903 0.605703 -0.000727 0.0
2.787261 0.879377 -0.000559 0.0
0.621786 0.691256 0.000624 0.0
1.641423 0.894831 0.001076 0.0
4.497172 1.071981 0.001112 0.0
3.203639 0.184535 -0.001758 0.0
3.932375 0.489268 0.001270 0.0
1.956532 1.266254 -0.001417 0.0
1.753536 1.616593 -0.002038 0.0
1.570780 1.379286 -0.004171 0.0
3.181194 1.136143 -0.000386 0.0
2.299550 0.911904 -0.002274 0.0
1.803302 1.116184 -0.000415 0.0
0.880047 0.852502 -0.003484 0.0
3.314722 1.746721 -0.000747 0.0
2.504204 0.552091 0.003601 0.0
1.017611 1.788180 -0.001668 0.0
2.113916 0.338919 0.001606 0.0
0.761087 1.228529 0.000318 0.0
3.289781 1.399702 -0.000147 0.0
0.738111 0.154703 0.002113 0.0
0.486169 0.076296 0.000760 0.0
3.850364 1.600311 0.002305 0.0
2.482675 1.565324 0.002464 0.0
3.289309 1.211146 0.004401 0.0
0.160269 0.236452 0.000184 0.0
0.884667 1.492543 -0.004725 0.0
0.959800 0.388950 -0.001436 0.0
1.312470 0.485177 -0.006470 0.0
2.088410 0.162623 0.002560 0.0
2.274005 0.363417 0.002019 0.0
2.508410 1.809570 -0.001525 0.0
2.726040 0.139815 -0.003647 0.0
4.100774 0.097015 0.001955 0.0
1.700522 0.523133 -0.000247 0.0
1.039381 0.827605 0.002071 0.0
0.527216 0.493028 -0.002052 0.0
0.995415 0.079679 0.000942 0.0
0.441889 0.963485 0.000398 0.0
4.583957 1.700320 -0.003409 0.0
2.154142 0.668556 0.000184 0.0
2.116784 1.185528 -0.002524 0.0
1.362624 0.866542 -0.003710 0.0
0.450364 0.816163 -0.001444 0.0
3.602997 1.188985 0.003382 0.0
0.439248 0.910239 0.000935 0.0
1.889257 1.431952 0.000040 0.0
2.896003 1.208401 -0.002877 0.0
0.766499 1.115793 0.001085 0.0
2.370629 0.614376 0.000196 0.0
1.292129 0.889663 0.000985 0.0
3.505714 0.361196 -0.001072 0.0
2.496804 0.571980 0.000965 0.0
1.183186 1.185912 0.004759 0.0
0.546738 1.323145 0.000441 0.0
4.634305 1.138250 -0.004255 0.0
0.068041 1.723144 0.002500 0.0
1.084588 0.071923 0.003627 0.0
1.180297 1.123792 0.002579 0.0
0.129694 1.270723 0.000840 0.0
4.093368 0.230167 -0.004132 0.0
1.340505 0.871233 0.001681 0.0
0.597740 1.075845 -0.000040 0.0
4.514094 1.774433 0.002282 0.0
2.636239 0.600388 -0.002194 0.0
1.304539 0.462528 0.001096 0.0
0.217941 1.520512 0.000573 0.0
1.102484 0.796300 -0.002441 0.0
1.568901 0.245279 0.001554 0.0
1.952237 0.110929 -0.003744 0.0
2.686319 0.703571 0.002508 0.0
2.607415 0.068973 -0.000184 0.0
2.938060 0.326765 -0.003458 0.0
3.329502 0.732019 0.006763 0.0
0.619889 1.304537 0.001024 0.0
0.640550 0.260562 0.000752 0.0
0.091037 1.041670 0.000483 0.0
3.283561 0.496577 0.001790 0.0
1.651005 1.436206 0.000224 0.0
3.060009 1.520252 -0.000043 0.0
0.166606 0.008375 0.000452 0.0
2.356450 1.497662 0.000112 0.0
0.350622 1.604205 0.001904 0.0
2.556922 1.071618 -0.001052 0.0
0.043927 1.500142 0.003895 0.0
4.553494 1.314421 -0.002184 0.0
2.714788 0.595831 0.000404 0.0
2.291305 0.847210 0.003351 0.0
1.917281 0.388299 0.000559 0.0
3.979567 0.017547 0.000414 0.0
4.290797 0.161884 -0.000057 0.0
3.778571 0.447614 0.000871 0.0
0.302150 0.070593 -0.000467 0.0
3.196490 0.219288 0.001620 0.0
3.774444 1.157944 0.000409 0.0
0.165345 1.219460 0.005729 0.0
0.640605 1.184145 -0.004073 0.0
0.542690 0.276932 0.000768 0.0
4.234426 0.238656 0.003595 0.0
0.449728 1.538551 0.000588 0.0
2.276169 1.099367 0.000716 0.0
3.519546 0.042487 0.004016 0.0
2.887165 1.515955 -0.000512 0.0
2.085957 0.026885 0.001521 0.0
4.397671 0.569219 -0.000624 0.0
4.477339 1.610492 0.000461 0.0
3.807853 0.175987 -0.001742 0.0
3.733127 1.809398 -0.003346 0.0
4.432494 1.162522 0.000791 0.0
1.309324 1.553751 -0.001982 0.0
0.812110 1.516742 -0.002500 0.0
4.535754 1.006265 -0.001513 0.0
1.889926 0.579521 0.000457 0.0
0.143673 1.314563 -0.003894 0.0
0.459119 0.485446 -0.003447 0.0
1.540602 1.571888 0.000550 0.0
3.021542 0.966663 0.003200 0.0
4.211159 0.168736 0.005478 0.0
2.771028 1.394011 -0.000303 0.0
4.437852 1.176088 0.002086 0.0
2.299198 0.084944 0.000663 0.0
2.425027 0.130335 0.002297 0.0
1.479582 1.579889 -0.000073 0.0
4.297294 1.554113 -0.001211 0.0
4.034154 0.517025 -0.005874 0.0
4.318687 0.641787 0.001138 0.0
3.496953 0.841451 0.003910 0.0
0.795924 0.395492 -0.000582 0.0
1.885529 1.419977 -0.000825 0.0
4.346387 0.644087 0.002364 0.0
4.053343 1.590013 -0.001490 0.0
4.630385 0.933819 -0.001702 0.0
2.206183 0.901091 0.003466 0.0
1.940508 0.984444 -0.002889 0.0
0.619584 0.565163 -0.001051 0.0
1.371494 0.110495 -0.003358 0.0
2.142436 1.276132 0.002193 0.0
2.553910 1.577294 0.001220 0.0
1.740254 1.071331 -0.002761 0.0
0.587090 1.549369 0.005015 0.0
0.805858 1.446527 0.000205 0.0
3.416087 1.026232 -0.000622 0.0
0.199737 1.696796 0.003236 0.0
1.482824 0.719376 0.000970 0.0
1.481734 1.209348 0.001374 0.0
2.849865 1.388313 -0.000744 0.0
3.426530 0.223599 -0.003438 0.0
3.925134 0.084569 -0.000986 0.0
1.102662 0.121936 -0.001806 0.0
2.499733 1.339787 0.000253 0.0
4.546986 1.283764 0.001172 0.0
3.749677 1.403139 -0.003035 0.0
1.915972 1.465505 -0.000018 0.0
0.041023 0.793128 -0.003735 0.0
0.503400 0.389144 0.002365 0.0
3.594418 1.007515 -0.000186 0.0
1.812636 0.126174 -0.002051 0.0
0.628453 0.102100 0.000466 0.0
1.204651 0.646674 0.001194 0.0
3.527828 1.699768 -0.004243 0.0
3.303672 0.645201 0.004995 0.0
0.181905 0.263646 0.001729 0.0
3.621713 1.792677 0.000731 0.0
4.260355 1.587476 -0.001553 0.0
2.111930 1.631868 0.001926 0.0
0.268867 0.028976 0.001875 0.0
2.135458 1.576101 -0.000073 0.0
4.116475 0.352245 -0.002644 0.0
3.826132 1.148645 0.000439 0.0
2.685834 0.497377 -0.000727 0.0
3.595084 0.129709 0.001063 0.0
2.682221 1.107159 0.001551 0.0
3.431093 0.150219 0.006046 0.0
3.379597 1.795399 0.000950 0.0
0.288739 1.423716 -0.001284 0.0
2.830337 1.342843 0.002738 0.0
1.307317 0.869519 -0.001448 0.0
0.865315 0.725295 -0.001703 0.0
3.143714 1.462267 -0.002963 0.0
3.209077 0.882243 -0.000445 0.0
0.752619 0.582289 -0.003631 0.0
0.591785 0.356939 -0.002037 0.0
4.248836 0.569283 -0.000603 0.0
1.999929 0.628210 -0.002871 0.0
1.411663 1.586452 0.006069 0.0
2.725475 0.033936 -0.000488 0.0
1.868779 1.390341 -0.004865 0.0
2.048575 1.382705 0.003149 0.0
1.734117 1.255636 0.000249 0.0
0.169129 0.828057 -0.002513 0.0
1.165729 0.755065 0.002934 0.0
3.220504 0.884429 0.000253 0.0
2.057724 1.343060 -0.000444 0.0
3.675064 1.127488 -0.001005 0.0
2.384855 0.931275 0.001015 0.0
1.471991 0.222549 0.000572 0.0
0.585366 1.611756 0.001052 0.0
1.237833 0.044943 -0.000987 0.0
3.261257 0.906112 0.000796 0.0
4.381641 1.796596 -0.000629 0.0
0.464580 1.033176 0.001901 0.0
1.186981 0.825240 0.000679 0.0
2.602503 1.761929 -0.001441 0.0
3.259021 0.063294 0.004706 0.0
0.704987 0.499317 -0.000110 0.0
2.858146 1.788366 0.000186 0.0
2.749430 0.608954 -0.001360 0.0
0.599523 1.404361 -0.001004 0.0
2.784355 1.528426 0.004635 0.0
2.709168 0.477646 -0.002682 0.0
1.582814 1.176312 -0.001486 0.0
2.889427 0.485745 0.003334 0.0
0.119770 0.826669 -0.005486 0.0
2.199314 1.219768 -0.001452 0.0
2.487648 1.192608 0.000173 0.0
4.517865 0.647094 -0.002208 0.0
4.409148 1.701131 -0.000742 0.0
3.291795 0.263757 -0.000578 0.0
1.564390 0.035742 0.001550 0.0
3.310007 0.709575 0.001813 0.0
0.714501 1.331794 -0.004340 0.0
4.409294 1.103037 0.001030 0.0
1.588393 1.723718 0.004361 0.0
0.729296 0.686779 -0.000483 0.0
3.018935 0.955356 0.001705 0.0
0.483122 0.617493 0.003266 0.0
1.441283 1.795327 -0.001343 0.0
4.449813 0.079870 0.000867 0.0
2.489774 1.529750 -0.005117 0.0
1.310841 0.049921 -0.000722 0.0
3.178570 0.124760 -0.005337 0.0
1.465406 0.147653 -0.003814 0.0
1.867286 0.151075 0.002287 0.0
1.018967 0.331103 0.000877 0.0
0.316103 0.944435 0.002488 0.0
1.770209 0.184278 -0.001286 0.0
2.534945 0.880208 0.001895 0.0
4.252176 1.777381 0.002130 0.0
1.390722 1.491179 0.000294 0.0
3.853876 0.340802 0.000314 0.0
3.673844 0.521380 -0.002568 0.0
3.155763 1.101526 -0.001667 0.0
1.120115 1.410361 0.002451 0.0
0.953579 1.305601 -0.007415 0.0
2.426307 0.326827 -0.004094 0.0
2.525061 1.350958 0.003805 0.0
4.347896 0.916063 -0.002035 0.0
0.952712 0.581663 0.002961 0.0
4.436567 0.987332 0.001683 0.0
2.416842 0.591179 0.002807 0.0
1.852174 0.730687 -0.003296 0.0
4.568141 0.515384 -0.001296 0.0
3.765946 0.591349 0.001795 0.0
1.899599 1.004828 0.004549 0.0
0.418178 0.146062 0.002797 0.0
4.405201 0.642203 -0.005240 0.0
2.244038 0.751994 0.000717 0.0
1.006342 1.076601 -0.002564 0.0
2.034738 0.229507 0.002177 0.0
1.498932 0.391790 0.001262 0.0
0.822676 1.804641 0.001739 0.0
4.156820 1.609482 -0.001137 0.0
0.756532 1.657637 0.000953 0.0
3.086752 0.856807 -0.000990 0.0
1.051546 0.185939 0.003039 0.0
3.626018 0.502754 0.001064 0.0
2.781009 0.029983 -0.004027 0.0
1.237650 0.556244 -0.000259 0.0
2.603220 1.035823 -0.000157 0.0
0.351810 0.470243 -0.003826 0.0
0.275309 0.962577 0.001005 0.0
0.070419 1.018898 -0.001052 0.0
3.586052 1.452608 0.001212 0.0
0.836091 1.325137 0.005412 0.0
2.681930 0.058138 -0.001887 0.0
3.747525 0.880867 0.001161 0.0
2.056191 0.075631 -0.001996 0.0
2.042431 0.467384 0.002718 0.0
1.644207 0.247350 -0.000078 0.0
3.482723 1.749653 -0.003502 0.0
0.858083 1.204871 0.004120 0.0
2.527801 0.096896 0.000076 0.0
2.423170 0.665256 0.001648 0.0
1.618258 1.374732 0.001039 0.0
0.089370 1.473874 -0.000192 0.0
2.697868 1.615130 0.003157 0.0
2.687786 0.525419 0.003701 0.0
0.329854 0.918324 -0.001006 0.0
0.808875 0.714568 0.004415 0.0
2.108959 0.005649 -0.000245 0.0
1.903609 0.666938 -0.000946 0.0
1.578028 1.663456 -0.000196 0.0
1.674635 1.178291 -0.001887 0.0
2.247585 0.207331 -0.003080 0.0
1.348822 1.646847 0.000278 0.0
1.179869 1.581409 -0.000688 0.0
1.952902 0.595042 -0.003924 0.0
1.143427 0.614071 -0.001242 0.0
2.221744 0.012896 0.003145 0.0
2.668515 1.687373 0.001583 0.0
2.506550 1.273006 0.000533 0.0
3.751637 0.088055 0.001923 0.0
2.381510 1.073501 0.006149 0.0
2.562180 0.212883 -0.002542 0.0
1.045224 0.826347 -0.006246 0.0
1.054706 0.919169 -0.005293 0.0
2.858117 1.598404 -0.000146 0.0
1.189400 1.553182 0.003190 0.0
0.623359 0.664591 0.001808 0.0
3.177752 1.633776 0.003141 0.0
2.258611 0.444998 -0.001254 0.0
0.747516 0.083267 0.003493 0.0
1.115647 1.350337 0.000663 0.0
3.249450 1.533747 -0.002511 0.0
1.345999 0.247918 -0.001245 0.0
0.510935 0.508135 -0.002833 0.0
3.244601 0.397754 0.003281 0.0
3.817424 0.331072 0.001935 0.0
1.152103 0.816849 0.000316 0.0
3.726787 0.208754 0.006321 0.0
0.172990 0.643456 -0.004530 0.0
3.307311 1.122551 0.000928 0.0
1.788656 1.491438 -0.000800 0.0
2.769033 0.279059 -0.002295 0.0
4.605295 0.306417 -0.001043 0.0
0.294883 0.067111 0.004013 0.0
0.660118 0.718512 -0.004856 0.0
4.330229 0.722172 0.001671 0.0
1.323589 1.238272 0.000403 0.0
1.138353 0.266292 -0.001865 0.0
