1.372303 1.058775 -0.000115 0.0
2.414800 0.823213 0.000571 0.0
2.745390 0.933085 -0.003289 0.0
3.736684 0.063402 0.003383 0.0
2.368969 0.311020 0.001056 0.0
3.672100 1.272108 -0.000677 0.0
1.520259 0.802708 0.002429 0.0
3.227866 1.753479 0.001635 0.0
3.399557 1.185280 0.001051 0.0
2.822906 0.621935 -0.001260 0.0
3.915759 0.615280 0.003781 0.0
0.063499 1.719409 0.003607 0.0
4.464344 1.161591 -0.002399 0.0
2.988444 0.492107 -0.000921 0.0
3.089669 0.897394 0.000070 0.0
2.329344 1.397364 -0.000032 0.0
2.445224 0.462727 0.000587 0.0
3.118149 0.754226 -0.003033 0.0
3.139506 1.508161 -0.002706 0.0
3.613484 1.753529 -0.002156 0.0
2.354185 0.319040 0.001450 0.0
0.260235 0.076626 -0.001559 0.0
2.679736 0.850600 -0.000943 0.0
4.034468 0.349417 0.001975 0.0
3.996373 0.538141 0.004034 0.0
2.528875 1.163381 -0.000551 0.0
3.126757 0.837522 -0.001395 0.0
3.255892 0.227636 0.001183 0.0
3.103185 0.430570 -0.000704 0.0
3.130510 0.966342 -0.000885 0.0
0.530511 0.037875 0.005202 0.0
1.992829 0.840155 -0.006579 0.0
0.513217 1.668821 -0.001334 0.0
1.059938 1.693244 0.000304 0.0
1.055391 1.578562 -0.001719 0.0
1.178423 1.643055 -0.003838 0.0
2.397698 0.467361 0.001050 0.0
4.395282 1.136124 0.001238 0.0
4.029539 1.451256 0.002558 0.0
1.554719 0.854799 0.000201 0.0
3.047918 0.173493 -0.000737 0.0
1.180469 0.764075 -0.000150 0.0
0.594661 0.848324 -0.000807 0.0
1.476988 0.144032 0.001581 0.0
0.742594 0.988168 0.003298 0.0
3.256764 0.610472 -0.002543 0.0
3.727832 1.589947 0.001482 0.0
4.453543 0.784749 -0.003091 0.0
0.630779 1.028370 0.000548 0.0
4.064717 0.281452 -0.000312 0.0
0.488557 1.237762 0.000711 0.0
2.407479 1.364704 0.000799 0.0
3.029211 1.550321 0.006182 0.0
1.717997 1.379913 -0.001362 0.0
2.845536 0.956222 0.003628 0.0
0.846721 1.047993 0.001437 0.0
1.923310 1.532747 -0.000886 0.0
1.729209 0.490706 0.004037 0.0
2.861903 0.121323 -0.000581 0.0
1.577069 0.148751 -0.001832 0.0
2.227495 1.063098 -0.001266 0.0
0.738538 1.694242 0.002561 0.0
0.903909 1.165625 0.000831 0.0
0.403367 0.454977 0.001731 0.0
0.538861 1.502988 -0.001103 0.0
4.568483 0.104677 -0.000985 0.0
4.126019 0.294202 0.000332 0.0
1.083695 0.543668 -0.001617 0.0
3.868050 0.055177 -0.000080 0.0
3.126245 0.768155 -0.005835 0.0
1.674940 0.742787 -0.000482 0.0
3.321962 1.462868 0.000691 0.0
0.165658 1.314252 0.002205 0.0
0.906173 1.279877 0.004178 0.0
3.256530 1.752137 0.000232 0.0
0.256242 1.645911 0.000682 0.0
2.128363 0.677463 0.001086 0.0
2.435704 1.309453 -0.002727 0.0
3.893558 1.614883 -0.000576 0.0
3.072335 0.444098 0.001676 0.0
1.553474 0.797988 0.002575 0.0
3.541991 0.893305 -0.001773 0.0
1.457304 1.331642 0.005349 0.0
3.274977 1.062357 -0.001828 0.0
4.221174 1.295432 0.001668 0.0
2.377345 1.446634 -0.000543 0.0
3.767413 0.759684 0.002683 0.0
3.270554 1.584149 -0.002637 0.0
3.755676 1.476318 0.004558 0.0
0.718926 0.935453 -0.001445 0.0
4.353179 0.277460 0.000717 0.0
3.329621 0.967631 -0.001315 0.0
0.765066 0.009290 0.001856 0.0
0.918621 1.431959 -0.001216 0.0
3.145399 0.514902 0.003129 0.0
3.977196 0.405200 -0.002395 0.0
1.660277 1.795793 0.000808 0.0
3.992952 1.352429 -0.000798 0.0
3.043242 0.916565 0.001622 0.0
2.252860 0.591999 -0.001759 0.0
4.481759 0.683554 -0.003681 0.0
0.059332 0.597958 -0.001063 0.0
4.155740 1.274303 -0.004065 0.0
2.906681 0.550444 -0.000476 0.0
1.828271 1.487476 -0.001556 0.0
4.317491 0.232808 -0.004181 0.0
4.143206 1.697048 0.002316 0.0
2.231284 0.071291 -0.000218 0.0
3.212698 1.306688 0.004316 0.0
4.408302 1.220110 -0.000041 0.0
2.723469 0.808906 0.000775 0.0
3.392842 0.650778 0.003275 0.0
3.379451 0.721218 -0.002514 0.0
3.181976 0.210099 0.000547 0.0
0.506135 0.429057 0.000626 0.0
1.920226 0.154498 -0.002648 0.0
0.869607 1.400075 -0.001315 0.0
3.139203 0.093448 0.001390 0.0
4.568738 1.533360 0.000160 0.0
4.291448 0.620385 -0.000146 0.0
4.041173 0.439377 0.000375 0.0
2.629707 1.341949 -0.000884 0.0
2.435132 0.536706 0.000527 0.0
1.101892 1.446108 -0.002669 0.0
1.953263 1.778724 0.001123 0.0
2.256493 0.632531 0.001136 0.0
2.700203 1.628298 0.002830 0.0
2.565594 0.196503 -0.000989 0.0
4.329867 0.862007 -0.000842 0.0
3.138380 1.679159 -0.002941 0.0
4.142783 1.493337 0.001183 0.0
1.984352 1.164293 0.000635 0.0
3.916151 0.679118 0.000013 0.0
1.547069 1.080060 0.000744 0.0
3.888396 0.418236 -0.000435 0.0
3.858768 0.845203 0.003192 0.0
3.561649 1.756626 -0.000971 0.0
3.825805 1.751171 0.001939 0.0
0.378207 0.555477 -0.003080 0.0
2.639830 0.087519 0.002767 0.0
4.051293 0.026730 -0.000281 0.0
3.715496 0.482001 -0.001690 0.0
3.496267 0.118731 0.001705 0.0
0.312803 0.675027 -0.000274 0.0
1.011799 1.144262 -0.008406 0.0
4.608665 1.082420 -0.004725 0.0
3.910823 0.693920 0.002467 0.0
2.908045 0.158972 0.000222 0.0
3.275075 0.108610 -0.002022 0.0
0.204166 0.157645 -0.003157 0.0
0.090661 0.865768 0.000731 0.0
0.627586 0.903496 0.000670 0.0
0.087390 1.028527 0.001706 0.0
2.350746 0.874926 -0.004020 0.0
1.487988 0.040130 -0.001550 0.0
3.740168 1.662614 -0.002916 0.0
4.311442 1.817834 0.000351 0.0
1.483514 0.807964 0.003063 0.0
2.759239 1.175318 0.000265 0.0
0.633525 1.746211 -0.000809 0.0
2.675110 0.672371 -0.004486 0.0
4.380235 0.301618 0.000217 0.0
1.857881 1.760774 -0.000521 0.0
1.746743 0.056605 0.003154 0.0
1.334792 1.631032 -0.001283 0.0
2.148113 1.347438 0.000555 0.0
1.133544 0.513779 0.003746 0.0
4.266260 1.446878 -0.002129 0.0
1.929718 0.395183 -0.001188 0.0
0.037293 0.138950 0.006681 0.0
3.269149 0.780055 0.003914 0.0
2.892362 0.286720 -0.003748 0.0
1.855676 0.112021 -0.000583 0.0
0.463677 1.482574 -0.000888 0.0
3.383111 0.027658 -0.003068 0.0
0.679094 0.709472 0.002819 0.0
1.670107 0.613046 -0.001758 0.0
3.748833 0.128246 -0.003678 0.0
0.378840 0.978130 -0.002989 0.0
3.893165 1.501963 -0.004188 0.0
0.761822 1.155093 -0.003325 0.0
2.160559 1.115941 -0.003509 0.0
2.078316 1.139260 0.000995 0.0
2.085601 0.849842 -0.002265 0.0
3.637376 0.647392 0.002435 0.0
3.659736 1.709455 0.000682 0.0
0.988992 1.636615 -0.000411 0.0
2.852885 1.103398 0.005959 0.0
2.137765 0.744318 -0.002838 0.0
3.952260 0.583820 0.000212 0.0
0.824253 0.442442 0.003197 0.0
0.704300 1.751805 0.001161 0.0
4.470541 0.589168 0.000066 0.0
3.931457 1.031426 0.003873 0.0
0.640031 0.884034 0.001084 0.0
3.000512 1.750173 -0.000355 0.0
0.593333 1.758470 -0.001166 0.0
1.024722 1.646896 0.001788 0.0
2.606018 1.223499 0.003560 0.0
3.848624 0.018198 -0.000474 0.0
4.235784 1.253709 -0.006288 0.0
1.255043 0.918309 0.003276 0.0
2.622179 0.828190 0.000659 0.0
2.869499 0.453854 0.000239 0.0
0.308050 0.132487 -0.001011 0.0
2.223159 0.660334 0.001714 0.0
0.137474 0.972010 0.003147 0.0
2.863522 0.997446 -0.000451 0.0
4.378781 1.268234 0.002149 0.0
2.893439 0.687800 -0.004057 0.0
1.290920 1.307022 0.001979 0.0
1.609768 1.714884 -0.004938 0.0
2.884814 0.449956 -0.000373 0.0
3.350124 0.964932 -0.000468 0.0
3.868610 1.646976 0.000678 0.0
2.604166 1.200258 0.002014 0.0
3.926123 0.688458 0.000582 0.0
2.336928 0.955038 0.001193 0.0
3.594557 0.446172 -0.003151 0.0
4.048840 1.620559 0.002637 0.0
3.735592 0.319061 -0.000276 0.0
0.002463 1.634265 -0.002935 0.0
4.252366 0.069342 0.003938 0.0
1.993719 0.113501 -0.001133 0.0
0.762561 1.406467 -0.002315 0.0
2.161328 0.117954 0.001296 0.0
1.643598 0.265224 -0.004589 0.0
0.238453 0.327165 -0.000705 0.0
3.597203 0.763368 0.001902 0.0
4.307871 1.040522 0.000734 0.0
0.772973 1.061464 0.002940 0.0
3.486269 0.467826 0.000618 0.0
0.700450 1.098490 -0.002570 0.0
1.942451 0.061521 0.000028 0.0
0.923315 0.114394 -0.002976 0.0
2.297948 1.634515 -0.002354 0.0
2.251929 1.159414 -0.000398 0.0
2.661563 1.422030 0.003818 0.0
2.963170 0.053726 -0.003332 0.0
1.341951 1.759818 0.001869 0.0
1.184761 1.804069 -0.000597 0.0
2.328094 1.225326 -0.001897 0.0
0.959243 0.647045 0.000248 0.0
4.021355 1.564690 0.000904 0.0
3.267448 0.421072 0.000498 0.0
4.447189 0.729869 -0.001700 0.0
1.980997 1.368213 -0.000005 0.0
0.089498 0.043704 -0.000913 0.0
4.280047 1.163501 0.001368 0.0
1.199136 0.713906 0.003488 0.0
0.623668 0.565591 -0.002062 0.0
0.614118 1.779835 -0.002920 0.0
1.771567 0.398177 -0.005133 0.0
3.493967 0.347905 0.004522 0.0
2.373145 1.746030 -0.003554 0.0
3.308716 1.034891 0.002775 0.0
2.331340 1.710889 -0.001764 0.0
2.415298 0.679985 -0.000406 0.0
4.194012 1.669205 0.001233 0.0
0.826423 0.174884 0.004867 0.0
2.045504 1.649631 0.000262 0.0
2.542002 0.507532 -0.000486 0.0
1.687171 0.534966 -0.002500 0.0
2.774892 0.428953 -0.003516 0.0
3.541894 0.635814 0.004819 0.0
0.080575 1.670752 -0.005190 0.0
0.548918 0.019334 0.000182 0.0
4.307253 1.427338 -0.001390 0.0
2.352666 1.197377 0.001465 0.0
4.486489 0.255650 0.000151 0.0
4.442349 0.776278 -0.001322 0.0
0.119199 1.150279 0.006772 0.0
2.650973 0.824369 0.001755 0.0
1.942901 0.091784 0.000881 0.0
2.148928 1.743166 0.002654 0.0
2.032325 1.178954 0.002371 0.0
0.772263 1.309945 -0.002064 0.0
0.350768 1.036195 0.005160 0.0
2.407411 0.806993 0.001992 0.0
3.798423 1.385188 -0.003503 0.0
4.110677 0.111145 0.001999 0.0
0.220776 0.848757 0.001287 0.0
0.820997 -0.003344 0.000052 0.0
1.493550 0.807669 0.002192 0.0
0.837792 0.969546 -0.003407 0.0
3.025134 1.231610 -0.000817 0.0
3.783376 0.213066 0.001315 0.0
1.327056 0.912501 -0.004042 0.0
2.474904 1.170886 -0.000576 0.0
0.323768 0.622929 -0.002008 0.0
2.589589 1.548795 -0.001794 0.0
1.457812 0.235617 0.001992 0.0
4.271607 0.815959 0.001166 0.0
3.892789 1.672098 0.000082 0.0
3.741958 1.301845 0.005764 0.0
1.417594 0.537510 -0.000970 0.0
4.129783 0.315117 -0.001725 0.0
2.183658 1.259859 0.000785 0.0
0.863076 1.538852 -0.000766 0.0
3.576561 1.403978 0.002519 0.0
4.596067 1.162323 0.000123 0.0
0.533083 1.654470 0.000420 0.0
3.653172 1.001971 0.001559 0.0
3.183039 0.601301 -0.000441 0.0
2.161480 1.801920 0.002102 0.0
4.618373 1.729334 -0.004301 0.0
2.622948 1.704181 0.001881 0.0
2.187899 0.180863 0.001627 0.0
1.309959 1.483566 0.000827 0.0
3.474591 0.765920 0.002549 0.0
0.409073 0.102400 0.000999 0.0
4.586404 1.503461 -0.001303 0.0
3.976624 0.163121 0.005347 0.0
2.103334 1.677416 -0.004592 0.0
2.874310 1.169103 0.004693 0.0
1.329243 0.891143 0.001957 0.0
0.318672 1.453027 0.000942 0.0
0.163405 1.159818 -0.001955 0.0
2.797665 0.840963 -0.001565 0.0
0.327872 0.764328 0.000467 0.0
2.032411 1.775940 -0.000243 0.0
4.212512 0.343066 -0.001124 0.0
4.460906 0.724848 -0.004366 0.0
0.729263 1.531653 -0.004281 0.0
4.427256 1.030693 0.000666 0.0
1.618881 1.324314 0.001966 0.0
2.242436 0.824390 0.003836 0.0
3.563558 1.578367 -0.003433 0.0
1.511326 1.163118 -0.001766 0.0
2.700952 0.880443 -0.002005 0.0
0.078685 1.215555 -0.002232 0.0
1.686287 1.017259 -0.003093 0.0
1.788117 0.970733 0.001843 0.0
3.861699 0.521203 0.001259 0.0
1.827729 0.793081 -0.001868 0.0
2.482807 1.679424 -0.000048 0.0
0.386946 0.705362 -0.000586 0.0
3.078320 1.329489 0.001495 0.0
2.089218 0.413788 0.000515 0.0
3.807559 0.629636 -0.000826 0.0
0.374239 1.296384 0.000238 0.0
0.249901 1.529715 0.001984 0.0
3.535372 1.324893 0.000663 0.0
0.770742 1.657371 0.001308 0.0
0.033067 1.405109 0.000848 0.0
4.201459 0.814057 -0.001061 0.0
2.854427 1.504842 -0.004050 0.0
3.146490 0.570179 0.000974 0.0
1.053909 0.106223 -0.002334 0.0
0.910584 0.354644 0.001279 0.0
3.942146 1.398729 -0.007037 0.0
4.296053 0.164532 -0.000703 0.0
0.929198 0.970937 -0.002649 0.0
3.200773 1.475261 0.003165 0.0
2.764284 1.348280 -0.000631 0.0
2.710155 1.380456 0.000753 0.0
0.611468 0.966786 -0.001198 0.0
4.541952 0.204669 -0.001419 0.0
2.852782 1.797980 0.000674 0.0
2.191335 1.758314 -0.003534 0.0
0.059626 1.600289 0.002943 0.0
1.449970 0.616140 -0.005099 0.0
0.610064 1.788608 0.004099 0.0
1.277390 1.562717 0.004377 0.0
0.142523 0.306416 0.000913 0.0
0.400238 1.039908 -0.001783 0.0
2.160441 0.568241 0.000124 0.0
4.606590 0.169670 0.006542 0.0
3.195335 0.408902 0.001280 0.0
0.078012 1.607502 0.002872 0.0
3.594967 1.114551 0.001033 0.0
0.459960 1.163014 -0.003635 0.0
3.246086 0.018424 0.000652 0.0
2.911098 1.581448 -0.004331 0.0
2.300033 1.055062 0.001417 0.0
4.342967 1.512602 0.001352 0.0
2.245126 0.639965 0.002552 0.0
0.272442 1.149874 -0.000014 0.0
3.793843 0.963971 -0.001909 0.0
1.416775 0.712155 -0.000128 0.0
3.227428 0.532199 0.001866 0.0
3.426910 0.624220 -0.003904 0.0
1.176880 1.779392 -0.005499 0.0
1.712392 1.681788 -0.001209 0.0
0.825111 0.342624 -0.001613 0.0
4.605693 0.140049 0.001898 0.0
1.661018 0.566674 -0.002757 0.0
3.752689 0.959932 0.003117 0.0
3.662427 0.477999 0.001933 0.0
1.975479 0.688445 -0.002997 0.0
0.981538 1.195896 -0.001822 0.0
2.131617 0.895163 -0.003523 0.0
0.862752 1.167674 -0.003530 0.0
0.811766 0.352453 -0.001799 0.0
0.822471 0.219328 -0.003198 0.0
1.830874 0.535419 -0.000703 0.0
4.189741 1.493461 -0.000017 0.0
2.830050 1.304065 -0.000405 0.0
2.703130 0.761801 0.000273 0.0
0.375680 0.453337 -0.000257 0.0
4.133761 0.867236 0.002688 0.0
0.767800 1.627113 -0.009699 0.0
2.647034 1.407402 -0.000669 0.0
2.743856 1.685355 0.003360 0.0
1.729726 0.803131 -0.000283 0.0
2.008649 0.150217 0.000918 0.0
1.105646 1.237146 0.000909 0.0
2.103424 1.298927 -0.003699 0.0
2.482625 0.594707 -0.002021 0.0
2.358510 0.443353 -0.002188 0.0
0.697251 0.749983 -0.002718 0.0
3.075488 0.433582 0.001459 0.0
3.588423 1.546278 0.000619 0.0
0.578306 0.190882 -0.000816 0.0
2.894469 1.688276 -0.003327 0.0
3.612581 1.322278 -0.001994 0.0
4.455016 1.636450 0.000416 0.0
4.334822 0.148119 0.001344 0.0
0.708094 1.460322 -0.000297 0.0
1.260429 1.266275 -0.000424 0.0
2.053346 0.177749 0.002133 0.0
0.630674 1.484258 -0.000607 0.0
2.763429 1.220614 -0.000570 0.0
0.481431 0.087179 -0.002061 0.0
1.649660 0.684658 0.002885 0.0
4.506309 1.091059 0.000311 0.0
3.593027 0.142268 0.002963 0.0
2.457877 0.665786 0.001458 0.0
1.341603 1.451816 0.002086 0.0
1.915885 0.982180 0.000572 0.0
3.217574 0.298781 -0.001759 0.0
4.466516 0.897282 0.000004 0.0
2.812072 0.610807 0.001514 0.0
2.923863 1.428858 -0.000339 0.0
2.345447 1.237134 -0.001752 0.0
4.477965 0.136931 -0.002759 0.0
0.824574 1.723838 -0.001793 0.0
3.591297 0.110100 0.002780 0.0
4.449530 1.643971 -0.001476 0.0
2.423575 1.265666 -0.002965 0.0
4.581512 1.276384 0.000954 0.0
4.284861 1.074682 -0.000114 0.0
0.194125 0.240931 0.001649 0.0
0.466499 0.161747 -0.001875 0.0
3.916551 1.476844 0.001880 0.0
2.788922 1.708202 0.002941 0.0
0.902986 0.765781 0.001498 0.0
2.775143 0.139201 -0.000321 0.0
3.649467 0.261836 0.001538 0.0
3.533942 1.362003 -0.003680 0.0
2.418983 1.375519 -0.002358 0.0
3.511835 1.549875 0.002209 0.0
4.002187 0.301497 -0.001911 0.0
4.256052 0.754971 -0.005034 0.0
1.169887 0.314997 -0.001076 0.0
0.417657 0.092610 -0.000046 0.0
0.501229 0.587818 -0.001000 0.0
4.256163 1.100599 0.001893 0.0
0.052451 0.644037 0.000593 0.0
0.115713 0.063682 -0.003133 0.0
0.305401 0.289710 0.001510 0.0
4.150051 1.656775 -0.002817 0.0
1.890115 0.676582 -0.003716 0.0
4.319052 0.789934 -0.004766 0.0
0.539729 0.155313 0.002360 0.0
0.810269 0.151929 0.001025 0.0
0.168566 1.781563 0.005439 0.0
4.282105 1.768517 -0.000088 0.0
3.897427 1.277160 -0.000813 0.0
1.638234 0.964520 -0.000814 0.0
0.195221 0.892755 -0.000326 0.0
2.774512 0.994322 0.000595 0.0
0.464686 1.070871 0.000356 0.0
1.366111 1.441082 -0.004384 0.0
0.510382 1.243699 0.003695 0.0
1.536457 0.870058 -0.000401 0.0
1.815819 1.714534 -0.001370 0.0
1.903472 0.271277 -0.000661 0.0
0.288660 0.330987 0.000874 0.0
0.981173 1.264557 0.000045 0.0
0.773256 0.574665 -0.002011 0.0
3.254085 1.248716 -0.004352 0.0
2.095401 0.604796 -0.000960 0.0
0.384452 0.811787 0.001227 0.0
3.290135 0.807755 -0.002860 0.0
1.658055 0.992473 0.001251 0.0
0.874074 1.176058 -0.002602 0.0
1.655270 1.202209 -0.002073 0.0
0.025352 0.505852 0.001069 0.0
0.192596 0.761149 0.000404 0.0
2.849138 1.339597 0.002866 0.0
1.923443 0.442553 0.002682 0.0
0.894038 1.652209 0.001893 0.0
3.004125 0.196173 0.003305 0.0
1.849742 1.412840 -0.001624 0.0
0.873369 0.747547 0.001631 0.0
0.664258 1.097817 -0.000987 0.0
4.288055 1.330947 -0.000759 0.0
-0.001777 1.087604 -0.000711 0.0
3.111516 0.907263 -0.000332 0.0
4.092774 0.553634 -0.002968 0.0
0.699203 0.172255 0.005130 0.0
1.542089 0.400982 -0.000304 0.0
2.663052 0.504608 0.003619 0.0
1.479764 0.954668 -0.001771 0.0
2.263865 1.488735 0.004828 0.0
2.160793 0.359209 0.004723 0.0
4.072524 0.982472 -0.000935 0.0
2.182510 1.489511 0.000705 0.0
2.287163 0.957404 -0.000170 0.0
1.249933 1.357917 0.002032 0.0
4.286062 0.865739 0.000245 0.0
3.781289 0.993770 0.002574 0.0
2.828756 0.116050 -0.001939 0.0
1.477498 0.246828 0.000244 0.0
2.016657 1.063116 0.003901 0.0
0.764635 1.241537 -0.001051 0.0
2.475713 0.240835 0.000767 0.0
1.225898 0.926278 0.001651 0.0
3.403949 1.330768 0.003753 0.0
0.533215 1.147375 0.004007 0.0
3.473464 0.290602 0.000313 0.0
2.801473 1.757832 0.000993 0.0
2.343303 0.528823 0.002121 0.0
1.426549 0.010721 0.002097 0.0
2.696714 1.040135 0.005384 0.0
2.355724 1.596736 0.002632 0.0
2.411319 0.979016 -0.001666 0.0
3.364950 1.657728 0.002730 0.0
2.796478 1.273486 -0.002898 0.0
3.922119 0.019616 0.001790 0.0
0.988257 0.782937 -0.002266 0.0
0.517846 0.677879 0.004254 0.0
2.610443 0.621759 -0.003137 0.0
2.378825 1.780462 -0.001124 0.0
4.234126 1.792206 0.001662 0.0
1.797296 1.162855 0.002373 0.0
4.409171 1.708845 0.001151 0.0
3.548860 0.156220 0.003500 0.0
2.667266 1.386940 0.003835 0.0
1.828359 0.501798 -0.001973 0.0
0.073400 0.252545 -0.000202 0.0
0.484046 0.834984 0.000059 0.0
3.340369 0.522673 -0.004024 0.0
0.565395 1.193621 -0.003157 0.0
3.928102 0.211697 -0.000548 0.0
1.431053 1.444806 -0.000809 0.0
3.930020 1.595222 0.001219 0.0
4.522881 1.276957 -0.000247 0.0
2.786554 1.244508 0.004406 0.0
3.948546 1.410234 -0.002195 0.0
0.323172 0.556941 0.001605 0.0
0.791549 0.558467 -0.001954 0.0
2.408824 0.514617 -0.000621 0.0
0.166974 0.181926 -0.003084 0.0
0.248224 0.673921 0.000173 0.0
1.095554 0.314424 -0.000274 0.0
2.312063 1.812023 -0.000864 0.0
3.152200 0.780979 0.001942 0.0
2.439549 1.615151 -0.003128 0.0
1.056042 1.226318 -0.001263 0.0
3.985932 0.000662 0.004692 0.0
0.833547 0.521904 0.000078 0.0
1.784729 1.059777 0.002204 0.0
2.323654 1.560224 -0.002676 0.0
1.707686 1.102420 0.001053 0.0
2.540866 0.124563 -0.001579 0.0
3.933371 0.785158 0.002199 0.0
3.114291 0.226515 0.002227 0.0
2.010145 0.313192 0.002187 0.0
3.444809 0.394710 0.000366 0.0
4.185409 0.527575 -0.001502 0.0
1.358786 0.209741 0.004012 0.0
1.545699 0.792422 0.001243 0.0
2.798758 0.349575 -0.001869 0.0
0.313039 0.738615 0.001426 0.0
4.101624 0.112914 -0.000449 0.0
4.102263 1.171311 0.000459 0.0
4.523299 1.675033 0.000962 0.0
4.202184 1.123649 -0.001887 0.0
4.374184 0.071769 -0.000789 0.0
1.615765 0.347433 -0.001851 0.0
2.553996 0.085197 0.001356 0.0
2.239378 1.557497 0.001020 0.0
1.662073 1.207479 -0.002071 0.0
0.262942 0.705401 0.002312 0.0
1.265368 0.833380 0.004621 0.0
2.754578 1.257888 -0.004042 0.0
0.556349 1.648785 -0.001272 0.0
3.467060 0.556789 0.000695 0.0
2.884841 0.021850 -0.000968 0.0
0.457785 0.152489 0.000467 0.0
3.356467 1.751525 0.000747 0.0
1.344135 1.566990 -0.000344 0.0
1.666644 0.044201 -0.001131 0.0
4.006014 0.986869 0.005311 0.0
2.308005 1.141128 0.000586 0.0
0.249608 0.713300 0.003165 0.0
4.033319 0.759135 0.003074 0.0
1.449585 0.187911 0.000181 0.0
1.757170 0.772035 0.000053 0.0
2.095127 0.429784 0.001109 0.0
0.807434 1.687410 -0.001872 0.0
1.453186 1.757230 -0.003868 0.0
0.348240 0.268841 -0.000547 0.0
1.192728 1.428004 -0.000259 0.0
1.611619 1.453176 0.000611 0.0
4.591536 1.509111 -0.003964 0.0
1.969107 0.480231 0.003246 0.0
4.528427 0.151996 0.001868 0.0
1.671491 0.959957 0.003611 0.0
3.696215 0.242257 0.001243 0.0
2.849399 1.529735 0.004433 0.0
2.624306 1.339644 -0.000815 0.0
4.173988 0.083152 0.002043 0.0
3.889530 0.761278 0.002737 0.0
2.593426 0.553965 -0.002338 0.0
3.609269 0.185258 -0.003015 0.0
2.260498 1.424831 0.001656 0.0
4.514997 0.134891 0.001335 0.0
3.903626 1.569690 -0.002160 0.0
0.333272 1.164582 -0.000097 0.0
0.926694 0.509220 0.002254 0.0
0.875872 1.531182 -0.001605 0.0
0.968509 1.074067 -0.000762 0.0
0.155187 1.541370 0.002104 0.0
0.141839 1.717148 -0.002571 0.0
0.036972 1.194308 -0.000941 0.0
1.612940 0.308157 -0.000522 0.0
2.840920 0.566495 0.002851 0.0
0.617422 1.646194 -0.005342 0.0
2.809542 1.500533 0.001686 0.0
0.217833 1.764632 -0.002468 0.0
1.601157 0.915107 -0.001096 0.0
3.806347 0.422393 0.001806 0.0
1.497295 0.764995 -0.001828 0.0
3.634033 0.403759 0.002074 0.0
0.810314 0.861737 0.001135 0.0
3.318718 1.795311 -0.002328 0.0
2.159785 0.102137 0.000331 0.0
1.898501 1.560314 0.001109 0.0
3.935071 1.139483 -0.002402 0.0
2.471151 1.663846 -0.002058 0.0
0.073741 0.723715 0.001505 0.0
4.474368 0.711646 0.002415 0.0
3.934377 0.408945 0.000342 0.0
2.786917 1.345737 -0.003377 0.0
1.945145 0.035078 0.002198 0.0
2.995497 1.054266 -0.000264 0.0
0.143596 0.570303 0.000065 0.0
2.185377 1.552569 -0.002356 0.0
0.649121 0.081009 0.000043 0.0
2.421049 1.244054 -0.000279 0.0
2.137585 0.662631 -0.001981 0.0
4.463746 0.466061 0.004215 0.0
0.270831 0.253412 -0.001529 0.0
3.424058 1.655102 -0.000333 0.0
0.743119 0.476740 0.002441 0.0
2.134977 0.551330 -0.003113 0.0
2.493950 0.181402 -0.000597 0.0
1.684967 0.469934 0.001596 0.0
4.414739 1.684332 0.001186 0.0
0.518532 0.989325 0.003087 0.0
3.830592 1.111682 -0.000006 0.0
1.909092 1.642442 0.002494 0.0
2.485788 0.725240 0.000325 0.0
3.211253 1.049365 -0.000277 0.0
0.073876 1.244532 -0.003955 0.0
3.895972 0.928696 0.002641 0.0
1.255024 1.527908 -0.002099 0.0
0.945937 1.623537 -0.000163 0.0
2.447330 0.996250 0.002342 0.0
2.713684 0.005771 0.001107 0.0
1.483919 0.977646 -0.001910 0.0
4.139896 0.622849 -0.001877 0.0
0.687403 1.194776 -0.001677 0.0
0.288292 1.483690 -0.000580 0.0
1.146035 1.722472 -0.002614 0.0
1.553309 1.621416 -0.001417 0.0
4.293612 0.200829 -0.000045 0.0
3.807742 0.159711 -0.002913 0.0
4.066024 0.805822 -0.000080 0.0
3.926442 1.531421 0.004049 0.0
3.853903 1.149121 -0.002909 0.0
4.004209 0.686359 0.000388 0.0
3.676785 0.548837 0.001430 0.0
4.362713 1.509495 0.001375 0.0
4.402061 0.958511 -0.000579 0.0
1.172402 1.191822 -0.000834 0.0
1.605524 1.468482 0.001516 0.0
3.021898 0.734933 -0.007280 0.0
4.506721 0.217153 -0.000955 0.0
0.347548 1.211371 -0.000060 0.0
0.733102 0.936546 -0.001992 0.0
2.069864 0.372735 -0.000087 0.0
3.119368 1.819993 0.001671 0.0
0.806399 0.358531 0.002500 0.0
1.269165 0.155277 -0.005638 0.0
2.435251 1.218986 -0.003748 0.0
2.269757 0.179647 0.001784 0.0
1.344359 1.428620 -0.002148 0.0
0.404989 0.771198 0.000673 0.0
2.515663 1.714012 0.002033 0.0
1.869711 1.257474 0.001283 0.0
1.417077 0.184608 0.000163 0.0
4.214724 0.220361 -0.001958 0.0
4.002758 1.113607 0.001914 0.0
3.101027 0.109659 0.001016 0.0
2.932893 1.088495 0.001342 0.0
0.729169 0.948536 -0.001831 0.0
3.844195 0.496021 0.002337 0.0
1.575462 0.593761 -0.003652 0.0
2.764449 1.350356 -0.001495 0.0
1.535361 1.582083 0.002648 0.0
2.186285 1.400903 0.003632 0.0
3.923912 1.541743 0.002398 0.0
1.779334 1.623483 -0.002295 0.0
0.623344 0.262931 -0.001944 0.0
3.862676 1.598314 -0.003126 0.0
0.879191 0.043351 -0.001846 0.0
1.170201 0.055506 0.002176 0.0
0.415057 0.709615 0.004500 0.0
3.981905 1.698961 0.003223 0.0
2.035254 1.795714 -0.000733 0.0
0.698283 0.868721 0.001238 0.0
0.160992 0.916356 -0.000925 0.0
0.756464 0.893182 0.000745 0.0
0.849179 0.785402 -0.000735 0.0
0.979867 1.525721 -0.000335 0.0
4.039432 1.519818 0.001908 0.0
1.156688 1.730606 -0.004399 0.0
4.492993 0.670850 -0.002445 0.0
3.181418 0.341402 -0.002738 0.0
3.304283 0.267414 -0.002624 0.0
4.388247 1.796957 0.001541 0.0
2.074449 1.637377 0.002632 0.0
0.246297 1.488263 -0.004292 0.0
1.648401 1.307818 -0.000441 0.0
1.518106 1.151884 -0.003775 0.0
3.794656 1.171754 0.002151 0.0
3.916069 0.534185 0.001960 0.0
4.350924 0.960325 0.003228 0.0
0.977266 1.167858 0.002975 0.0
0.990207 1.198333 0.004331 0.0
3.906687 0.234996 0.001796 0.0
3.102398 0.123161 0.000239 0.0
2.261055 1.395426 -0.002185 0.0
1.267649 0.579586 -0.002953 0.0
3.368558 0.087281 0.002063 0.0
4.455438 1.120929 -0.002808 0.0
1.195238 0.343218 0.004145 0.0
3.565622 0.446564 -0.004608 0.0
1.913985 1.451288 -0.000447 0.0
3.902987 0.932175 -0.000602 0.0
1.986206 1.091600 0.002160 0.0
2.391068 0.003574 -0.002411 0.0
3.398874 1.282697 0.002910 0.0
3.779609 0.499198 -0.005791 0.0
1.166294 0.829932 -0.002559 0.0
3.337242 1.574199 0.004621 0.0
1.652454 1.365127 0.009116 0.0
3.763229 1.290283 0.001795 0.0
2.373017 1.408270 -0.002664 0.0
2.038034 1.677773 -0.000105 0.0
1.875321 0.214534 0.000353 0.0
2.918063 0.648453 0.002916 0.0
2.607413 0.883543 0.001769 0.0
4.077852 0.394342 0.001503 0.0
1.580369 0.429337 -0.001302 0.0
1.913486 0.658503 -0.007186 0.0
1.865555 0.017909 0.001044 0.0
1.076166 0.903834 0.000377 0.0
4.485006 1.055818 0.000353 0.0
1.576586 1.700302 0.003290 0.0
2.352987 0.486274 -0.000445 0.0
0.632322 1.710110 -0.001161 0.0
4.283924 1.282589 -0.001490 0.0
0.172702 1.224731 -0.001032 0.0
0.810909 1.070924 -0.000260 0.0
3.525036 1.321415 0.005409 0.0
1.603589 0.009138 0.002343 0.0
2.624935 0.644354 0.002667 0.0
0.753886 0.098050 0.002386 0.0
2.770751 0.401177 -0.001980 0.0
2.088195 0.906508 0.000595 0.0
2.300238 0.041767 -0.000322 0.0
3.734271 1.532319 -0.001570 0.0
3.608340 0.924235 -0.001287 0.0
0.378186 0.032814 -0.001801 0.0
2.605371 1.545457 -0.003223 0.0
4.522954 1.405673 0.000405 0.0
0.653859 1.449870 -0.001154 0.0
1.682061 0.790536 0.003382 0.0
1.447526 1.050229 0.000346 0.0
3.200789 1.102798 0.002494 0.0
0.526501 1.517725 -0.001079 0.0
4.600623 1.499458 -0.000357 0.0
1.598419 0.953054 0.003537 0.0
3.622832 1.362359 -0.000212 0.0
2.633885 1.295562 -0.003618 0.0
0.431274 1.379347 0.001218 0.0
3.245423 0.136973 0.001620 0.0
0.968196 1.316613 0.002913 0.0
1.042758 1.053174 0.000069 0.0
3.459949 0.372658 0.001231 0.0
3.702788 1.226541 0.004006 0.0
3.611495 0.320197 0.000740 0.0
3.499991 0.561071 0.001008 0.0
2.643650 0.368205 -0.001279 0.0
2.145702 1.774346 -0.001558 0.0
0.735074 0.778978 -0.003259 0.0
3.217222 1.369171 -0.002363 0.0
3.015328 0.786333 0.001347 0.0
2.518192 1.443861 -0.002341 0.0
3.907823 0.273899 0.000547 0.0
3.787730 0.936573 0.002235 0.0
3.909961 1.106281 0.003416 0.0
1.882806 0.135066 0.004356 0.0
2.337247 0.011049 0.001570 0.0
2.639292 1.602003 0.000994 0.0
4.411535 1.807075 -0.002450 0.0
4.479375 0.269204 0.004300 0.0
1.601530 1.692096 -0.001305 0.0
2.936010 1.480185 -0.001084 0.0
0.880075 1.624162 0.003029 0.0
3.727631 1.734322 -0.003308 0.0
1.577164 0.993926 -0.000593 0.0
0.221496 1.424773 -0.003663 0.0
4.018059 1.173464 -0.000255 0.0
1.496585 0.192740 0.001825 0.0
0.946839 0.893591 -0.001976 0.0
0.311725 0.555425 0.001194 0.0
2.186841 0.551553 0.001571 0.0
0.762662 0.525202 -0.001160 0.0
3.314842 1.083069 0.001720 0.0
0.605896 0.350766 0.002267 0.0
1.484148 1.799593 0.004293 0.0
0.081115 1.365724 0.000064 0.0
0.732508 1.242486 -0.001449 0.0
0.800137 1.212016 -0.005547 0.0
4.186527 1.025541 0.002024 0.0
3.123696 1.418225 0.003278 0.0
1.188238 1.716934 0.000944 0.0
3.986194 1.096075 0.002990 0.0
0.325384 1.413879 -0.000612 0.0
3.312689 1.115556 -0.002944 0.0
1.400634 1.610259 -0.000299 0.0
1.770722 1.209667 -0.000892 0.0
0.046560 1.183627 -0.004179 0.0
1.574004 1.361357 0.000288 0.0
3.565548 0.754800 -0.001772 0.0
3.503907 0.884565 -0.004163 0.0
1.853691 1.085934 -0.001809 0.0
3.375430 1.804420 -0.000742 0.0
3.875984 1.490021 -0.001085 0.0
2.202687 1.540921 0.000954 0.0
3.668669 1.606390 -0.000256 0.0
1.119428 0.025462 -0.003352 0.0
2.641555 0.741345 -0.003515 0.0
1.362358 1.253519 -0.001681 0.0
1.824111 0.846616 -0.000689 0.0
1.242272 0.220750 -0.003365 0.0
2.399356 1.604351 0.002482 0.0
2.079704 1.449898 -0.000097 0.0
1.030743 1.321319 -0.002603 0.0
4.326628 0.562485 -0.001054 0.0
2.218134 0.848571 -0.001223 0.0
0.769053 0.958559 0.001792 0.0
1.029601 1.766505 0.001213 0.0
1.061319 0.606015 0.004371 0.0
0.137549 0.464015 -0.002695 0.0
1.514475 1.730149 -0.002038 0.0
2.007462 1.058210 -0.000128 0.0
0.873265 0.587002 0.000047 0.0
3.817491 1.631149 -0.000724 0.0
2.363028 0.162810 0.001291 0.0
3.319482 0.756608 0.003284 0.0
3.422872 0.764909 0.002202 0.0
0.107914 -0.000367 0.000135 0.0
2.316792 1.094738 -0.001351 0.0
2.794958 1.129471 -0.001181 0.0
0.872599 1.263291 -0.003273 0.0
2.633037 1.522305 0.000294 0.0
4.146247 1.799781 0.001103 0.0
2.362788 1.175430 -0.002009 0.0
1.906048 0.588924 0.003773 0.0
1.372902 1.384263 -0.000818 0.0
2.316712 1.691360 -0.003504 0.0
2.370299 0.067356 0.004029 0.0
2.240844 0.557205 0.000964 0.0
4.292146 0.675951 -0.000870 0.0
0.539626 0.702358 -0.000663 0.0
4.084256 1.163613 0.002270 0.0
0.071790 0.652357 0.002633 0.0
4.141052 1.387364 0.002351 0.0
3.341621 0.831337 -0.000068 0.0
1.941782 1.424225 0.003263 0.0
3.758358 0.940899 0.000610 0.0
4.323072 0.532382 0.001357 0.0
3.354304 1.688021 0.001585 0.0
3.722868 1.082629 0.003098 0.0
2.599165 0.582638 -0.002060 0.0
2.187938 1.071571 0.000735 0.0
2.152008 1.278423 -0.001739 0.0
2.131111 1.382529 0.002203 0.0
4.560011 1.673851 -0.004103 0.0
1.226884 0.709037 0.001587 0.0
3.961083 0.409920 0.001431 0.0
1.357192 1.673440 0.000265 0.0
1.673533 0.463762 -0.001706 0.0
3.871188 0.676460 -0.000059 0.0
0.482405 1.132876 0.002101 0.0
2.121238 0.720989 0.003143 0.0
3.016726 1.786647 0.000179 0.0
4.547045 1.380056 0.001723 0.0
1.282594 0.782515 0.000618 0.0
2.156804 1.154265 -0.000638 0.0
1.863539 0.259178 -0.001713 0.0
2.201802 0.438260 0.002108 0.0
2.581652 1.529412 -0.000477 0.0
0.913654 0.359412 -0.000668 0.0
4.343355 1.270508 0.004423 0.0
0.409867 1.189560 0.000584 0.0
0.476911 0.741889 0.001387 0.0
1.003440 0.080744 -0.003827 0.0
0.498629 0.922904 -0.002760 0.0
4.063949 0.243251 -0.003262 0.0
3.148185 0.000393 0.000109 0.0
0.952142 0.653028 -0.001745 0.0
1.889086 0.652763 0.000892 0.0
2.504275 0.581603 -0.000414 0.0
1.732870 0.040127 -0.001657 0.0
0.164708 1.396009 0.000389 0.0
1.974730 0.821097 0.002184 0.0
2.068640 1.127121 -0.002799 0.0
0.638444 0.276127 0.001611 0.0
0.533073 0.341577 0.005819 0.0
3.982068 0.239624 -0.003744 0.0
2.414080 0.477407 0.001469 0.0
0.513337 1.681471 0.003170 0.0
3.285373 0.245097 0.002447 0.0
1.530306 1.315503 -0.000710 0.0
1.423653 0.985968 -0.001692 0.0
0.375706 0.390083 -0.001303 0.0
1.207912 0.390514 -0.003089 0.0
4.139503 1.788651 -0.003336 0.0
1.159487 1.363578 -0.000991 0.0
0.360878 1.241672 0.000678 0.0
2.523533 0.598970 -0.004654 0.0
0.263585 0.262571 -0.002718 0.0
2.352004 0.414469 -0.002078 0.0
3.330186 0.364718 -0.002784 0.0
4.208495 1.036985 -0.000030 0.0
2.007018 0.547227 0.000023 0.0
4.012805 0.903204 0.000796 0.0
2.385539 1.236269 -0.000464 0.0
3.928022 1.395303 0.001121 0.0
2.492629 1.335158 -0.003719 0.0
2.265300 0.346059 0.000541 0.0
0.522139 1.310311 0.001352 0.0
2.568091 1.457940 -0.003383 0.0
0.574299 1.563785 0.002103 0.0
0.016146 0.290378 0.001025 0.0
1.605515 0.921156 0.007346 0.0
1.930569 0.125094 -0.001520 0.0
3.451486 0.488414 0.002193 0.0
0.246608 0.452733 0.001076 0.0
1.437229 0.495312 0.000570 0.0
1.120454 1.275425 0.002644 0.0
1.427369 0.790510 0.000463 0.0
0.899992 1.027182 -0.000019 0.0
3.142864 1.056780 -0.002418 0.0
0.428155 1.255739 0.000292 0.0
0.462049 1.267146 0.000726 0.0
0.914782 0.695533 0.002019 0.0
0.359887 1.346435 0.001854 0.0
4.060383 1.511230 0.001941 0.0
4.131357 0.487176 0.002938 0.0
3.365874 0.413467 0.001183 0.0
2.111573 0.526751 0.002691 0.0
0.137680 0.145705 0.001214 0.0
1.583631 0.279535 0.004794 0.0
1.901991 0.162549 0.001832 0.0
0.334900 0.066410 -0.004212 0.0
3.901352 0.040218 -0.002035 0.0
0.413977 0.009715 0.003028 0.0
2.830662 0.396695 0.002865 0.0
3.547135 1.162240 -0.006306 0.0
3.430155 1.396763 -0.006707 0.0
2.907799 1.482554 -0.000780 0.0
0.236182 1.723310 0.000517 0.0
2.552833 1.632726 -0.002071 0.0
4.404294 1.606806 0.003692 0.0
2.890240 0.202433 -0.001079 0.0
3.288835 0.939977 -0.000055 0.0
1.536201 0.488339 0.002716 0.0
4.299273 0.761619 -0.004902 0.0
2.907506 1.597761 0.001126 0.0
3.600896 1.672753 0.001721 0.0
4.410852 1.640270 0.001737 0.0
2.787406 1.094165 0.006359 0.0
3.524763 1.082424 0.002523 0.0
4.151797 1.467742 0.002460 0.0
2.425365 0.358828 -0.004566 0.0
2.942084 0.639996 -0.003222 0.0
0.945294 0.188973 -0.006021 0.0
4.176747 0.046677 0.002552 0.0
0.258485 0.365675 0.001042 0.0
1.243056 1.802150 -0.000286 0.0
1.192038 0.636101 -0.000261 0.0
2.376240 0.971580 0.000144 0.0
2.604111 1.409037 -0.000102 0.0
2.333417 1.769003 0.002511 0.0
3.525996 0.494044 0.001201 0.0
3.387654 0.161732 -0.003239 0.0
2.878558 1.530710 0.000688 0.0
2.636472 0.545131 -0.003181 0.0
3.739223 0.955833 -0.000238 0.0
2.616117 1.698015 0.002789 0.0
0.408719 0.244058 -0.005020 0.0
1.885444 0.505016 0.001033 0.0
0.985091 1.441193 0.004237 0.0
2.053606 1.169834 0.000531 0.0
1.616844 0.631032 0.000149 0.0
0.165714 0.577913 0.001073 0.0
0.488953 0.700774 -0.000713 0.0
0.882322 0.300312 -0.000160 0.0
2.249882 1.283892 0.001658 0.0
4.159056 0.164742 -0.001061 0.0
4.324606 0.335895 -0.004096 0.0
4.078282 0.570089 0.000463 0.0
4.554135 0.597779 0.005291 0.0
1.912765 0.533674 0.002656 0.0
2.782232 1.226453 0.000657 0.0
2.812500 0.876216 0.001200 0.0
4.499330 1.758372 -0.000251 0.0
3.263268 0.708713 -0.000308 0.0
1.000423 0.280652 -0.001335 0.0
2.660245 0.231898 -0.001755 0.0
0.946905 1.492923 -0.000240 0.0
0.721135 1.330071 0.001241 0.0
2.616090 0.211580 0.000873 0.0
3.753884 1.312986 -0.000815 0.0
4.455137 0.305880 -0.003591 0.0
3.528632 1.135745 -0.006299 0.0
3.922716 1.197794 0.002080 0.0
0.971486 0.211600 0.001375 0.0
3.707224 0.878665 0.006053 0.0
0.196635 1.145807 0.001588 0.0
2.649764 1.123107 -0.004064 0.0
1.545526 0.072816 -0.000969 0.0
3.926964 0.629991 -0.006291 0.0
0.781611 0.254321 0.000589 0.0
2.569312 1.675428 -0.002439 0.0
1.372455 0.322532 0.005790 0.0
2.217869 0.139540 -0.001808 0.0
2.233580 0.109701 0.002893 0.0
1.025587 1.271961 0.000190 0.0
2.486284 1.460973 0.001504 0.0
3.382435 1.222478 0.000914 0.0
1.192656 0.117987 -0.002676 0.0
4.583374 1.770920 0.001606 0.0
0.916838 1.047825 0.001285 0.0
1.782377 0.995157 -0.003474 0.0
0.971722 1.548296 -0.003171 0.0
2.710802 0.015845 -0.000082 0.0
2.518265 0.706642 -0.003208 0.0
1.398825 1.744539 -0.000466 0.0
2.377771 1.296118 0.000036 0.0
3.487966 1.741979 0.000484 0.0
1.842035 0.052184 0.000047 0.0
1.376304 0.706442 -0.000253 0.0
2.007453 1.222634 0.000632 0.0
4.450874 0.093502 -0.001860 0.0
0.118529 1.097629 -0.001344 0.0
2.203841 1.079445 0.000366 0.0
2.758883 0.366556 0.000816 0.0
1.298848 0.288243 0.001898 0.0
4.351878 1.111661 0.001370 0.0
0.750000 0.435883 0.003612 0.0
1.188541 0.117929 -0.002601 0.0
0.118967 1.558811 -0.000947 0.0
0.276009 0.782366 -0.001724 0.0
1.155044 0.167384 0.004719 0.0
4.279830 1.280493 -0.000908 0.0
2.402000 0.368240 -0.004265 0.0
3.982998 0.493838 -0.003115 0.0
2.269807 0.815368 0.000257 0.0
3.102266 1.307167 -0.002452 0.0
3.256026 0.080698 0.000458 0.0
0.822254 0.230626 -0.001790 0.0
1.966978 1.523816 0.002065 0.0
0.883602 0.120152 0.001917 0.0
0.825637 1.767017 -0.000901 0.0
2.036174 0.504999 0.000472 0.0
4.508615 0.090154 -0.001655 0.0
0.817290 0.117177 0.003322 0.0
1.559125 1.424746 0.000207 0.0
1.726459 0.382786 0.000809 0.0
0.049763 0.808076 0.003378 0.0
1.339597 0.755464 0.004699 0.0
3.399446 1.333651 0.004679 0.0
0.710775 1.357206 -0.000384 0.0
1.094903 1.333230 0.002118 0.0
3.680340 0.237356 0.000634 0.0
0.060653 1.349870 0.003605 0.0
1.109689 0.997475 0.002362 0.0
0.585293 0.694225 0.002786 0.0
4.419086 0.137147 -0.000253 0.0
0.768050 0.335620 0.003067 0.0
3.808573 0.583093 0.000126 0.0
2.998105 1.049684 0.000740 0.0
0.706888 1.088793 -0.001704 0.0
2.042577 1.343388 -0.002224 0.0
2.656070 1.130196 0.003557 0.0
0.596462 0.825526 0.002513 0.0
0.294058 0.299481 0.000499 0.0
0.173044 0.951111 -0.000412 0.0
3.876646 0.115011 -0.001264 0.0
3.880543 0.223385 0.002291 0.0
0.913016 1.178885 0.002130 0.0
1.092424 0.354259 -0.000840 0.0
1.881634 1.483917 -0.003494 0.0
2.991886 0.877467 0.000757 0.0
1.905574 0.133540 -0.003501 0.0
1.913826 1.477278 0.002214 0.0
2.757100 0.087309 0.000106 0.0
2.312720 0.910407 -0.001313 0.0
1.529734 1.231105 -0.003543 0.0
3.158604 0.796343 -0.000740 0.0
2.343200 0.886349 -0.001166 0.0
1.359596 1.189634 0.003537 0.0
3.264427 0.097148 0.000702 0.0
1.677754 0.277022 -0.000775 0.0
1.513266 0.251748 -0.000724 0.0
3.667234 0.947086 0.000707 0.0
2.749885 0.070535 -0.002941 0.0
3.221337 0.167564 -0.001605 0.0
3.195613 1.119506 0.001289 0.0
1.007372 0.674048 0.000646 0.0
4.425266 0.800764 0.002220 0.0
1.683756 1.043157 -0.000852 0.0
2.416014 0.550192 -0.000931 0.0
4.151190 0.051051 -0.002684 0.0
2.473336 0.341303 0.000014 0.0
0.163822 0.962608 -0.002414 0.0
3.524513 0.937728 -0.001131 0.0
1.048418 1.696300 0.002521 0.0
4.443784 1.695299 -0.004609 0.0
2.286105 0.257383 -0.002121 0.0
3.661614 0.713744 -0.005057 0.0
0.502847 1.589272 -0.002465 0.0
0.748240 0.386219 -0.001895 0.0
4.408843 0.901005 0.008155 0.0
2.529015 0.657211 0.001605 0.0
1.856025 0.115401 0.003972 0.0
1.643106 0.003545 0.004272 0.0
0.255333 1.042219 -0.000655 0.0
4.465738 0.290727 0.002168 0.0
1.382415 1.451227 -0.001064 0.0
0.300420 0.689931 -0.002205 0.0
1.548890 0.160173 0.000436 0.0
2.448356 1.002977 0.004951 0.0
0.850789 1.073332 0.001308 0.0
3.244614 0.982259 0.007719 0.0
1.404140 1.804789 0.002573 0.0
1.287843 0.975993 -0.000578 0.0
1.133279 1.558651 -0.001667 0.0
3.958092 0.264975 0.003204 0.0
1.207244 0.548499 -0.000981 0.0
1.410393 0.411528 0.001469 0.0
4.109667 0.078042 -0.001536 0.0
2.529551 1.226957 0.001432 0.0
1.222647 1.614047 0.002811 0.0
0.519099 0.245010 -0.000534 0.0
1.373912 0.684812 -0.000374 0.0
0.018708 0.803140 0.000287 0.0
3.145158 0.802714 0.000150 0.0
0.582940 0.479082 -0.002602 0.0
2.489976 0.536435 0.002313 0.0
4.182179 0.439317 -0.002079 0.0
1.691610 0.110918 -0.002157 0.0
0.328628 1.736306 -0.001821 0.0
0.985724 0.050471 -0.001038 0.0
3.313735 0.624731 0.002392 0.0
0.226464 0.694775 -0.000016 0.0
2.287326 0.780837 0.003909 0.0
0.823267 0.037190 0.002726 0.0
3.041476 0.468771 0.002757 0.0
0.450896 0.419473 0.000496 0.0
4.375284 0.463160 0.002108 0.0
1.445896 1.666557 0.001426 0.0
0.660324 0.650224 0.000388 0.0
4.219035 1.027166 -0.001665 0.0
4.171536 1.644435 -0.004782 0.0
4.604544 0.703665 0.000275 0.0
1.146246 0.142811 -0.004421 0.0
3.202185 1.104869 -0.001392 0.0
1.783952 0.786129 0.001222 0.0
0.341990 1.188793 -0.000486 0.0
3.071577 0.110497 0.002575 0.0
2.919705 0.312411 -0.000713 0.0
2.696215 1.130416 0.001038 0.0
0.819634 1.724376 0.002120 0.0
1.696854 0.590607 -0.000837 0.0
3.035358 1.755400 0.004638 0.0
0.818565 0.477978 -0.001196 0.0
0.427383 1.612256 -0.000445 0.0
1.828124 1.091559 0.002272 0.0
4.348549 0.901935 0.001041 0.0
4.240003 0.893601 -0.000823 0.0
1.176362 0.301450 0.001001 0.0
2.126739 0.247653 -0.000880 0.0
3.495563 1.575081 -0.000078 0.0
2.771686 1.365548 0.001185 0.0
4.115264 0.795231 -0.002156 0.0
2.995569 1.291026 0.001620 0.0
1.993503 1.810915 0.004018 0.0
3.737944 0.319190 0.001150 0.0
0.368027 1.417889 -0.003377 0.0
4.299514 1.096277 0.001512 0.0
0.505747 0.944983 -0.001994 0.0
1.618909 0.599804 0.003166 0.0
2.471091 0.407556 -0.000580 0.0
2.776359 0.847347 -0.001111 0.0
2.603264 1.312464 -0.001656 0.0
4.466488 0.099730 -0.003305 0.0
3.881944 1.819955 -0.002094 0.0
1.094457 0.119926 0.001533 0.0
4.204173 0.332404 0.003926 0.0
0.019865 0.806773 0.002212 0.0
0.380681 1.543247 0.001402 0.0
1.177746 0.422838 -0.000528 0.0
2.572017 0.816925 0.003265 0.0
1.600291 0.497183 0.002474 0.0
2.755671 0.136500 0.002266 0.0
3.729775 0.653729 0.004620 0.0
0.883971 1.746631 -0.001889 0.0
4.281578 0.738153 -0.001159 0.0
3.392951 0.104758 0.000431 0.0
4.485761 0.710794 -0.003582 0.0
0.123811 1.007667 -0.004022 0.0
3.269681 0.735098 0.001443 0.0
0.177489 0.730849 0.000217 0.0
1.981744 1.336144 0.002039 0.0
1.402521 1.270368 0.002814 0.0
1.181427 0.976673 -0.000140 0.0
0.912119 0.418269 0.005410 0.0
2.726144 1.678228 0.001305 0.0
3.226654 1.474209 0.003591 0.0
4.372865 1.130098 -0.002485 0.0
3.657551 1.286985 0.000535 0.0
0.002457 1.216466 0.000262 0.0
3.407822 0.761154 0.001477 0.0
1.170318 0.641840 0.001218 0.0
0.816318 0.722755 -0.001352 0.0
4.519083 1.593000 -0.001234 0.0
2.412356 1.272136 -0.002795 0.0
4.547912 1.636337 0.001313 0.0
1.019033 1.517935 0.001056 0.0
3.511099 1.207229 -0.003012 0.0
0.952427 1.708557 0.000493 0.0
3.835262 0.262131 0.001522 0.0
4.556014 1.181336 -0.000967 0.0
0.875202 0.883863 0.004478 0.0
0.932338 0.925702 0.000725 0.0
2.174031 0.590294 -0.002815 0.0
0.765344 1.621826 -0.001462 0.0
0.048084 1.182655 0.001755 0.0
3.653400 0.969934 -0.001961 0.0
3.488413 0.811698 0.002073 0.0
2.098520 1.647424 -0.001830 0.0
2.622456 0.085130 0.000979 0.0
1.887961 1.087889 -0.003263 0.0
3.169153 0.332925 -0.000941 0.0
4.196269 0.265085 0.002704 0.0
3.266036 1.010774 -0.001237 0.0
1.639778 0.817259 -0.000427 0.0
3.721921 0.679119 0.004625 0.0
4.504066 1.604858 0.000808 0.0
4.443121 0.159416 -0.002917 0.0
1.202897 0.087697 0.003552 0.0
2.511990 1.767474 -0.004016 0.0
3.867872 0.163252 -0.003137 0.0
0.344129 0.519119 0.001038 0.0
4.395901 1.433344 0.000319 0.0
0.423314 0.937202 0.002677 0.0
0.560324 1.561585 -0.000087 0.0
4.302251 1.762744 0.001089 0.0
1.890943 0.155022 -0.003195 0.0
1.515593 0.903608 -0.002076 0.0
2.549941 0.621589 0.001099 0.0
2.526835 1.248618 -0.003301 0.0
3.582554 0.166973 0.001611 0.0
2.762903 1.727067 0.000702 0.0
3.092806 0.479653 -0.000726 0.0
1.887200 0.225471 0.000258 0.0
4.581527 1.213532 0.001786 0.0
2.981282 0.916277 0.003113 0.0
2.064284 0.708375 -0.000713 0.0
2.864092 0.549860 -0.000163 0.0
2.299783 1.436148 -0.000060 0.0
3.701216 1.361543 0.004182 0.0
2.123690 1.041291 0.000445 0.0
3.303920 1.125154 0.001190 0.0
0.297856 1.799331 -0.001946 0.0
0.797087 1.727693 -0.001871 0.0
3.503784 0.252791 0.003912 0.0
2.965404 0.517759 0.000325 0.0
2.015797 0.593233 0.001326 0.0
4.518966 1.206534 -0.005222 0.0
1.768693 0.847602 -0.002116 0.0
1.469064 0.776720 -0.002365 0.0
4.574821 1.614119 -0.003048 0.0
0.434745 0.989668 0.000718 0.0
2.401488 1.765831 -0.000590 0.0
1.337860 1.157741 -0.002046 0.0
2.643453 1.334590 -0.001576 0.0
2.068877 1.647695 0.000791 0.0
0.335986 0.361105 -0.000452 0.0
1.371624 1.493410 0.000040 0.0
2.215360 0.533086 -0.002069 0.0
2.546411 0.473455 0.000273 0.0
0.699135 1.259626 -0.000659 0.0
4.213516 1.638318 0.000030 0.0
4.016770 0.478203 -0.001851 0.0
3.673912 1.361947 0.000269 0.0
2.823330 1.702972 0.000545 0.0
3.561837 0.077876 -0.002099 0.0
4.025192 1.629375 -0.002020 0.0
0.876518 1.634775 -0.000008 0.0
3.348864 1.731034 -0.001069 0.0
3.394759 0.314144 0.001645 0.0
1.541844 1.247460 -0.001906 0.0
2.492065 0.792983 -0.007341 0.0
3.129936 1.125258 -0.000232 0.0
3.639802 0.525010 -0.000379 0.0
3.745165 1.119192 -0.001376 0.0
0.223611 0.815983 -0.002743 0.0
4.402764 0.538650 0.003863 0.0
4.155928 0.432428 0.004580 0.0
0.389284 1.187896 -0.003302 0.0
2.601228 0.322016 -0.000153 0.0
1.254016 1.430537 0.003086 0.0
1.756366 0.594123 -0.005802 0.0
0.292656 1.545062 -0.003156 0.0
2.569217 0.626769 -0.002530 0.0
1.071299 1.309081 -0.004050 0.0
0.963562 1.291861 0.002228 0.0
1.385166 0.214560 0.002163 0.0
1.921284 0.924912 0.001672 0.0
0.462942 1.049093 -0.000477 0.0
0.527853 1.025629 -0.000032 0.0
0.024377 0.723840 0.002210 0.0
3.773655 0.414405 0.000304 0.0
2.963864 0.981823 -0.001954 0.0
2.410929 0.641526 0.003942 0.0
1.108150 1.107260 0.001334 0.0
4.339780 0.196426 0.000717 0.0
2.586753 0.189045 0.000115 0.0
3.361153 0.729117 -0.000122 0.0
4.070975 0.420366 -0.002057 0.0
0.168816 1.451324 0.001777 0.0
3.476365 1.492518 -0.000743 0.0
2.253409 1.270245 0.002665 0.0
1.268708 1.393668 0.003571 0.0
2.624179 1.210246 -0.003163 0.0
3.130736 0.424188 -0.004440 0.0
0.533585 1.408256 -0.001549 0.0
0.737793 0.270649 0.001618 0.0
2.534531 0.217445 0.001924 0.0
0.954688 1.190618 -0.002230 0.0
2.021099 1.372731 0.006971 0.0
4.137800 0.833052 0.004606 0.0
4.509980 0.029075 0.001114 0.0
0.761048 0.758578 0.003744 0.0
3.957791 0.398146 -0.002093 0.0
3.794782 1.697845 -0.001694 0.0
4.583902 0.941087 0.002366 0.0
0.222738 0.957086 0.000429 0.0
1.008711 0.069802 0.005054 0.0
0.591347 0.647635 -0.004517 0.0
2.061301 0.970316 0.003358 0.0
3.332149 1.089529 -0.002464 0.0
1.661648 1.479328 -0.001942 0.0
4.022965 1.485052 0.002777 0.0
3.342308 1.806334 0.002190 0.0
1.848414 1.367531 0.001755 0.0
4.262712 1.405015 0.000456 0.0
0.063283 0.603386 0.000799 0.0
2.025032 0.147802 0.000497 0.0
3.954749 1.503038 -0.001898 0.0
3.451447 0.021906 0.000505 0.0
3.860048 0.061897 0.001515 0.0
0.064158 0.940662 0.004663 0.0
2.571829 1.768617 0.001087 0.0
2.124512 0.014861 -0.002018 0.0
1.813986 1.454332 0.004148 0.0
2.577933 1.181237 0.003263 0.0
1.615143 0.309335 -0.000014 0.0
2.219867 1.608098 -0.001210 0.0
2.626960 0.593522 0.001773 0.0
0.164607 0.114778 -0.000998 0.0
3.276115 1.542998 -0.005196 0.0
0.361675 0.177459 0.001410 0.0
3.056233 0.478361 0.001141 0.0
0.244172 1.694055 -0.001966 0.0
2.918572 0.719755 -0.001024 0.0
3.018456 1.193442 -0.002834 0.0
1.206658 0.064396 -0.001073 0.0
4.069055 0.445904 0.005670 0.0
4.363432 0.439003 0.001272 0.0
2.038839 1.746072 0.004409 0.0
4.018807 1.420525 0.003722 0.0
0.318715 0.478796 0.000118 0.0
1.558262 1.638038 -0.003060 0.0
1.978560 1.275614 0.001720 0.0
2.685419 1.802203 0.002100 0.0
0.615082 1.613443 0.000544 0.0
1.143427 1.021095 -0.001999 0.0
0.327529 0.400384 -0.002373 0.0
0.761953 0.810317 0.002095 0.0
2.417290 1.003279 -0.001129 0.0
0.976504 0.537634 -0.002003 0.0
3.856712 0.400423 -0.000110 0.0
3.828912 1.481634 -0.004510 0.0
1.644868 1.047966 0.002842 0.0
2.317191 0.534778 0.000506 0.0
0.526729 0.224324 0.001145 0.0
0.789001 0.868742 0.000464 0.0
4.038801 1.598413 -0.002713 0.0
2.525092 1.617292 0.001581 0.0
0.945981 0.410324 0.005534 0.0
2.753198 1.428387 0.003689 0.0
0.106009 0.339744 -0.000444 0.0
1.622849 1.192038 0.001068 0.0
3.861270 1.306582 0.001797 0.0
4.284366 0.744554 -0.004785 0.0
0.977253 0.742412 0.000973 0.0
4.461132 1.671792 0.004201 0.0
1.839330 0.143612 -0.000903 0.0
4.349652 0.924598 -0.004505 0.0
1.688434 1.689690 0.000306 0.0
3.964577 1.640168 0.001977 0.0
3.268041 1.310336 0.008847 0.0
3.106014 1.745144 0.001242 0.0
3.720537 0.532056 -0.002260 0.0
0.349166 0.666823 -0.000742 0.0
4.061642 0.283740 0.000926 0.0
3.194844 1.683735 0.000615 0.0
0.094973 1.454321 0.001816 0.0
1.574559 1.243997 0.001959 0.0
4.478411 1.708585 0.003114 0.0
1.241598 0.861961 0.000265 0.0
2.560923 1.514481 0.001994 0.0
2.294606 1.771170 0.000039 0.0
0.635156 1.071607 -0.001293 0.0
3.911883 0.709637 0.000377 0.0
1.476545 1.218484 0.003699 0.0
0.876891 1.255976 -0.005706 0.0
2.126010 0.155308 -0.000141 0.0
1.403476 1.810297 -0.001184 0.0
0.940524 0.670636 -0.002035 0.0
2.751681 0.103817 0.002701 0.0
4.413506 1.393017 -0.000017 0.0
4.212754 0.109203 0.000072 0.0
3.549056 0.375881 0.004475 0.0
3.301413 1.684840 0.002064 0.0
3.790333 0.356423 -0.001328 0.0
4.221041 0.434400 0.002235 0.0
1.726853 1.307334 -0.000147 0.0
2.366210 1.676399 -0.000575 0.0
2.410168 1.402052 -0.002331 0.0
0.795120 0.293536 -0.000698 0.0
0.936558 0.681866 0.001045 0.0
0.751549 1.373304 -0.001126 0.0
1.804430 1.437515 0.003866 0.0
1.137137 1.391070 0.001894 0.0
0.031704 0.683615 0.000791 0.0
0.100718 1.178721 -0.001751 0.0
3.290095 0.018137 -0.001758 0.0
2.861726 0.529290 -0.002950 0.0
1.579172 1.344043 0.000201 0.0
1.238382 0.668198 -0.000116 0.0
4.614925 1.567552 -0.001564 0.0
1.781876 1.613693 -0.004366 0.0
2.551543 0.165940 -0.000565 0.0
4.163958 1.411380 0.000712 0.0
2.924531 0.368960 0.005248 0.0
0.813155 0.326073 0.002780 0.0
3.781599 0.656385 0.001958 0.0
3.343421 0.507560 0.002562 0.0
3.806851 1.762879 0.004331 0.0
3.503358 1.803755 -0.001485 0.0
0.674001 1.060599 -0.002036 0.0
1.727738 0.482914 0.000997 0.0
0.042091 0.309404 0.001354 0.0
1.914096 0.789219 -0.003586 0.0
2.722145 1.158038 0.000707 0.0
4.410734 1.467889 0.000800 0.0
4.044335 1.441779 -0.000702 0.0
0.583685 0.243352 -0.003791 0.0
2.373366 1.787023 -0.003671 0.0
2.508691 0.951607 0.001189 0.0
1.204211 1.563031 0.003593 0.0
2.063459 1.729806 -0.000016 0.0
3.545330 1.405028 0.001993 0.0
0.404045 0.366881 0.002035 0.0
3.715926 1.388929 -0.002068 0.0
1.994959 0.530460 0.004291 0.0
2.662916 0.430781 0.001519 0.0
1.770677 0.656160 0.002225 0.0
3.005220 1.582395 -0.001252 0.0
3.491257 0.520595 -0.001612 0.0
3.419533 1.703447 -0.002787 0.0
2.101216 1.477471 0.000084 0.0
1.138641 0.153276 0.004693 0.0
3.127879 0.806985 -0.001530 0.0
2.273618 1.725070 -0.002645 0.0
1.826727 1.379949 -0.000010 0.0
3.247262 0.451225 0.000663 0.0
1.492644 0.615151 0.002806 0.0
1.449318 1.341444 -0.005093 0.0
4.068536 0.786915 0.003900 0.0
