4.660619 1.431929 -0.000675 0.0
3.705773 1.473928 -0.000133 0.0
0.972976 1.687434 -0.001984 0.0
1.554200 1.479966 -0.001527 0.0
2.489693 1.479161 -0.000140 0.0
0.612648 1.452995 -0.001802 0.0
4.044912 0.239271 0.002785 0.0
2.282290 0.117087 -0.001099 0.0
0.869013 0.299224 -0.004760 0.0
3.127139 1.255863 -0.000247 0.0
1.671907 0.321482 0.000061 0.0
1.442672 0.311350 -0.004299 0.0
4.294182 0.680461 0.002212 0.0
0.989580 0.901310 0.005373 0.0
4.449403 0.426633 -0.001973 0.0
1.273005 1.628116 -0.001802 0.0
4.435589 0.447985 -0.003575 0.0
4.161978 1.297051 0.000711 0.0
0.300314 0.734265 -0.000278 0.0
0.183684 1.341452 0.003956 0.0
4.562675 0.229294 0.000048 0.0
0.155000 0.433008 -0.000114 0.0
3.390183 0.201043 0.002243 0.0
0.176584 0.870095 -0.002771 0.0
2.576008 0.685997 -0.001551 0.0
4.083319 0.567067 0.002975 0.0
3.283319 1.466286 0.000411 0.0
3.155806 0.719047 0.000048 0.0
4.536391 0.326399 -0.002765 0.0
1.055934 0.450116 0.000623 0.0
1.442823 0.131810 0.006263 0.0
4.085569 0.807539 -0.002013 0.0
3.372857 0.649963 -0.002443 0.0
1.399350 1.222887 0.001972 0.0
1.032902 1.592710 -0.004116 0.0
4.596188 0.812930 -0.000020 0.0
1.310717 1.392072 -0.002958 0.0
1.457247 0.724868 -0.004031 0.0
0.281567 0.718607 -0.001344 0.0
2.055277 0.597464 0.001645 0.0
4.316735 1.101299 -0.002167 0.0
0.537903 0.242003 -0.003149 0.0
3.280888 0.320580 -0.000740 0.0
0.346060 0.682183 0.003124 0.0
2.107049 0.550161 0.003998 0.0
4.521646 0.648828 -0.001384 0.0
4.459595 1.398781 -0.000920 0.0
0.502651 0.840751 -0.001310 0.0
3.383030 0.270288 -0.003588 0.0
4.462547 0.347603 0.003309 0.0
0.388061 0.781211 0.003406 0.0
2.787157 0.739708 0.003557 0.0
0.196536 0.942896 0.000862 0.0
2.754753 1.569184 -0.005995 0.0
0.684957 1.569559 -0.002133 0.0
4.506945 0.736757 0.000051 0.0
4.025894 0.853226 0.001226 0.0
1.925622 0.408707 -0.003750 0.0
2.539380 0.658787 -0.003615 0.0
2.012921 1.087611 -0.003354 0.0
1.477503 0.684320 0.003150 0.0
2.223060 0.045850 0.004761 0.0
4.520082 1.141872 -0.000304 0.0
3.360151 1.049518 -0.004043 0.0
0.569545 1.242871 0.001471 0.0
2.729786 1.517769 0.004918 0.0
1.143831 1.110394 0.000485 0.0
3.934914 0.675549 -0.000391 0.0
0.787865 0.538196 -0.002557 0.0
2.128980 0.839464 0.000878 0.0
2.845732 1.083000 0.000710 0.0
2.028350 0.806075 0.002009 0.0
1.124447 0.756547 -0.004167 0.0
4.569737 1.206788 -0.001568 0.0
3.485173 1.436505 -0.000485 0.0
0.307381 0.449287 0.002822 0.0
0.890856 0.531058 -0.001701 0.0
4.413505 1.095176 0.000665 0.0
4.348939 0.625342 -0.001624 0.0
1.682689 1.154681 0.001544 0.0
1.663028 1.433378 -0.004322 0.0
3.566543 0.667482 -0.003794 0.0
3.279702 1.116726 -0.000150 0.0
0.657878 1.467926 0.000800 0.0
4.538966 1.466965 0.004179 0.0
0.494803 1.465650 0.001715 0.0
3.474592 1.596884 0.000448 0.0
2.579138 1.403567 0.001305 0.0
4.675254 0.416147 -0.001584 0.0
0.298643 1.348481 0.000003 0.0
2.590796 0.734480 -0.000835 0.0
2.310322 1.543392 -0.000003 0.0
2.050900 1.644409 -0.001814 0.0
1.442097 0.476802 0.002346 0.0
3.377920 1.289715 -0.003013 0.0
2.940949 0.332648 -0.005053 0.0
1.903043 0.291530 0.000137 0.0
0.632030 1.609049 -0.001734 0.0
3.191526 1.264191 -0.000593 0.0
2.607877 1.181423 -0.001995 0.0
2.308037 0.669584 0.002043 0.0
0.263686 1.288445 -0.001265 0.0
0.637232 1.010814 -0.000603 0.0
0.252726 0.824855 -0.002476 0.0
0.134706 1.284481 -0.001707 0.0
2.363328 1.102383 0.000327 0.0
2.887184 0.313677 -0.005392 0.0
2.550698 1.152457 0.005487 0.0
1.926357 1.596172 -0.001630 0.0
1.557743 1.167881 -0.001523 0.0
2.149980 1.563362 0.001144 0.0
2.844415 0.939677 -0.000502 0.0
3.338413 1.566793 0.001353 0.0
1.932949 0.178100 0.001626 0.0
0.874828 1.685109 -0.000146 0.0
1.484749 0.659344 0.001162 0.0
0.168953 1.318619 0.001909 0.0
0.466943 0.700987 -0.000949 0.0
1.229136 1.645348 -0.003829 0.0
2.243442 0.891108 -0.001934 0.0
4.015556 0.726645 0.003367 0.0
1.104085 0.256099 -0.000075 0.0
3.995561 0.649847 -0.000085 0.0
0.205341 1.572022 0.001252 0.0
3.919707 0.373993 -0.002588 0.0
0.747501 1.243936 0.001853 0.0
3.180405 0.454857 0.000017 0.0
0.552752 0.545375 0.004341 0.0
2.462325 0.365440 -0.002135 0.0
4.349432 1.248480 -0.001416 0.0
2.425277 0.052533 -0.003125 0.0
3.444306 1.531733 -0.002585 0.0
1.032475 1.534454 0.000414 0.0
2.631983 0.422203 -0.006804 0.0
0.856860 0.148391 0.000269 0.0
0.055196 0.386536 -0.000276 0.0
3.030052 0.613955 0.002984 0.0
3.606293 1.276300 -0.002889 0.0
3.551541 0.855114 -0.001940 0.0
2.782019 0.263573 0.001009 0.0
4.323510 0.778802 0.000436 0.0
4.320512 0.977221 0.002748 0.0
3.197371 1.675295 0.001919 0.0
4.110950 0.872146 0.000053 0.0
4.097113 0.333878 -0.004139 0.0
1.253699 1.375092 -0.001046 0.0
0.108187 1.138731 0.002142 0.0
0.256545 0.406312 -0.001112 0.0
2.626689 0.538022 0.000579 0.0
2.441015 1.448659 -0.001210 0.0
1.511200 1.686272 0.001902 0.0
1.657603 1.365324 -0.001389 0.0
3.169380 0.665144 0.003927 0.0
0.975267 0.646666 0.004002 0.0
4.091966 0.177618 -0.002009 0.0
0.114075 0.406867 -0.001082 0.0
1.532667 0.401145 -0.003682 0.0
0.375609 1.070011 -0.004660 0.0
1.528700 0.125299 -0.000627 0.0
3.177815 0.069237 0.001580 0.0
4.524825 1.076705 0.005118 0.0
2.222264 1.521430 -0.001797 0.0
2.595144 0.233624 -0.000298 0.0
2.515420 0.033419 0.002329 0.0
1.088399 0.395453 -0.003254 0.0
1.474803 0.785167 0.000852 0.0
3.140257 0.041236 0.004270 0.0
2.487415 0.972530 -0.000940 0.0
2.730609 0.407130 -0.000585 0.0
3.437197 1.647989 0.003564 0.0
0.373093 1.328745 0.001322 0.0
4.514623 1.357479 -0.001448 0.0
0.171462 1.139844 0.004813 0.0
1.688065 1.483469 -0.004410 0.0
0.128908 0.969332 -0.003555 0.0
3.574216 1.485337 0.001193 0.0
0.069859 1.451840 0.001509 0.0
2.747518 1.142798 0.000016 0.0
3.058845 0.368260 -0.001866 0.0
3.984987 1.349726 0.001397 0.0
0.152470 1.342304 0.000802 0.0
3.344658 0.437476 -0.004174 0.0
0.186147 0.556532 -0.001083 0.0
4.369656 1.257990 -0.001442 0.0
2.701435 1.550256 -0.001836 0.0
3.911666 1.151024 0.000850 0.0
2.814927 1.265641 0.000234 0.0
4.530817 0.394738 0.000849 0.0
1.685413 0.908185 -0.002198 0.0
1.312478 1.430433 -0.000417 0.0
3.405159 0.331720 -0.001189 0.0
0.550290 0.972105 -0.004617 0.0
3.726218 0.185187 0.002875 0.0
2.227665 1.299286 0.001004 0.0
2.153567 0.938254 -0.004222 0.0
2.729242 1.235274 -0.002043 0.0
0.004987 0.461596 -0.001626 0.0
3.539371 0.219931 -0.004072 0.0
1.102594 1.477178 -0.001332 0.0
4.409602 1.207450 -0.000846 0.0
2.221815 1.594640 -0.002975 0.0
3.939773 1.295406 0.000990 0.0
-0.000863 0.955945 0.003009 0.0
2.946751 0.917302 -0.000198 0.0
0.530810 1.385377 -0.004490 0.0
1.442862 0.284107 -0.000863 0.0
4.460479 0.471180 -0.003403 0.0
3.652871 1.079298 -0.000192 0.0
1.491257 1.664627 -0.001516 0.0
2.365633 1.379619 0.003315 0.0
3.532307 1.222062 0.001147 0.0
1.830576 1.132295 -0.002800 0.0
2.533843 0.873888 -0.001952 0.0
1.654338 0.486885 -0.001476 0.0
1.491509 1.084900 -0.001147 0.0
4.432911 0.598634 0.000938 0.0
2.052954 0.885969 -0.000577 0.0
0.512925 1.418134 0.005060 0.0
0.367832 1.546906 -0.002125 0.0
0.541457 0.170535 0.003570 0.0
3.590574 1.260419 -0.003213 0.0
3.579952 0.071939 0.000482 0.0
4.072588 0.021621 0.004310 0.0
1.720396 1.289525 0.003286 0.0
0.497574 1.037344 0.006083 0.0
4.017614 0.072304 -0.002560 0.0
1.751911 0.742182 -0.003771 0.0
3.716764 0.073103 0.002450 0.0
1.876675 1.537686 -0.000165 0.0
0.474303 0.897333 -0.001425 0.0
0.425464 0.751952 0.001289 0.0
2.944753 0.770246 0.001449 0.0
0.669098 1.282274 0.004069 0.0
1.749375 1.222940 0.001785 0.0
0.464029 0.521220 0.000631 0.0
2.385080 1.020217 0.001456 0.0
3.179876 0.087522 -0.001283 0.0
2.776705 0.360629 0.000237 0.0
0.455446 0.121124 -0.001077 0.0
1.176065 0.345390 0.000771 0.0
0.540576 1.380635 0.001230 0.0
0.602600 0.589362 -0.001830 0.0
2.090711 1.085978 0.000199 0.0
3.035406 1.578076 0.000129 0.0
0.031488 0.626856 0.000101 0.0
2.110657 1.530593 0.001063 0.0
2.090488 1.446389 -0.004412 0.0
0.910015 0.809896 0.000058 0.0
2.789709 0.354871 -0.003429 0.0
0.410624 0.096189 0.000444 0.0
4.332156 0.251959 0.003026 0.0
2.651728 0.275614 -0.002862 0.0
2.830402 0.588135 -0.002596 0.0
0.261583 0.911206 0.002266 0.0
4.383418 0.379019 -0.000197 0.0
1.357481 0.163483 -0.005980 0.0
3.911520 1.498132 -0.003207 0.0
1.454599 0.859742 -0.000232 0.0
0.146679 0.617121 -0.001466 0.0
3.868666 0.862531 0.001174 0.0
2.861473 1.099938 -0.001172 0.0
0.093349 0.189501 -0.001660 0.0
4.307921 1.195332 -0.001813 0.0
2.396173 1.332560 0.000657 0.0
2.482644 0.466742 -0.002173 0.0
4.302329 0.829434 0.002518 0.0
1.784409 0.388394 0.003569 0.0
3.049476 1.684287 -0.001786 0.0
4.373689 1.472428 0.001181 0.0
1.091374 1.235951 -0.001210 0.0
2.143354 0.923493 -0.001650 0.0
1.787921 0.063283 -0.003607 0.0
1.786693 0.952660 -0.002926 0.0
3.962548 0.140584 0.001826 0.0
3.789519 1.481790 0.003950 0.0
1.165070 1.274027 0.003791 0.0
0.560894 1.212189 -0.003143 0.0
2.248271 1.033596 -0.002371 0.0
4.576798 0.212243 0.003495 0.0
2.964556 0.143073 0.001751 0.0
0.737625 1.353257 0.009085 0.0
3.689858 1.158747 -0.000456 0.0
1.958974 0.107464 0.000426 0.0
1.686302 0.139405 0.000719 0.0
2.819316 1.083956 0.002010 0.0
3.652620 0.168400 -0.000344 0.0
3.805272 1.341084 0.000918 0.0
1.223899 0.730787 -0.003113 0.0
2.306435 1.029162 -0.000214 0.0
1.769732 0.056222 0.000186 0.0
4.037606 1.675801 0.003111 0.0
1.517917 1.522879 -0.001981 0.0
3.269769 0.852317 0.000506 0.0
4.192281 0.358912 -0.002552 0.0
0.069434 0.209609 0.002038 0.0
3.574992 1.094291 -0.003498 0.0
4.185324 0.722675 0.001922 0.0
1.799589 0.485459 0.002414 0.0
0.069286 1.525915 0.000476 0.0
1.870954 0.799839 0.004058 0.0
3.236824 0.796742 -0.002196 0.0
1.935374 0.272694 0.000414 0.0
3.590434 1.440964 0.004123 0.0
3.947129 1.668455 -0.000190 0.0
2.797265 0.854455 0.003869 0.0
1.395458 0.170332 -0.006070 0.0
3.090230 1.274614 -0.000610 0.0
4.178575 0.572160 0.000572 0.0
3.519611 1.082728 0.002092 0.0
3.352438 0.281758 -0.002332 0.0
3.295313 0.921897 -0.000366 0.0
3.334955 0.719183 0.001135 0.0
1.361721 0.799431 0.004332 0.0
3.511665 0.077450 -0.005655 0.0
4.613221 0.801170 -0.001217 0.0
0.755085 1.663396 0.000827 0.0
4.389509 0.339210 -0.003873 0.0
3.390958 0.182153 -0.000995 0.0
1.108353 0.379425 0.002352 0.0
3.759575 0.214062 -0.001702 0.0
0.615773 0.759491 -0.001807 0.0
1.079303 1.405434 -0.002411 0.0
3.252281 0.829813 -0.004014 0.0
1.938967 0.530045 -0.003860 0.0
0.730688 0.922057 -0.000658 0.0
1.320971 0.044468 -0.000727 0.0
0.750379 1.483313 0.000264 0.0
3.041597 0.624585 -0.003042 0.0
0.376640 1.346118 0.001578 0.0
1.626845 1.054830 -0.000777 0.0
3.819405 1.273189 0.002607 0.0
0.335477 1.401497 -0.001773 0.0
0.629827 0.114464 -0.004001 0.0
2.041309 0.809163 0.004612 0.0
3.810611 0.599503 -0.003405 0.0
0.221695 1.570089 -0.000527 0.0
2.703430 0.342869 0.004452 0.0
3.015936 0.498425 -0.000855 0.0
3.333363 0.554294 0.003541 0.0
2.443628 0.738799 0.000098 0.0
3.892092 1.102478 -0.002056 0.0
1.508338 0.252381 -0.002039 0.0
4.046937 1.556689 -0.000789 0.0
4.392252 0.146868 0.002802 0.0
4.525495 0.643582 0.001726 0.0
1.080500 0.123656 0.004038 0.0
0.948487 0.961725 0.001899 0.0
4.619091 0.017613 -0.000018 0.0
1.446505 1.413912 -0.003385 0.0
2.749057 1.531727 -0.000748 0.0
1.077213 1.404863 0.000576 0.0
1.376041 0.544381 0.000485 0.0
0.811905 0.071170 -0.002042 0.0
1.607562 0.354851 0.000650 0.0
2.075622 1.371326 0.002201 0.0
0.208798 1.275605 -0.002303 0.0
1.992063 1.027186 0.004175 0.0
1.704023 1.202295 -0.000609 0.0
2.205396 0.536632 -0.004507 0.0
1.028770 0.554959 -0.001604 0.0
0.411975 1.535128 -0.000108 0.0
3.769715 1.019410 0.000208 0.0
1.528287 0.874682 -0.001471 0.0
2.064047 0.370161 -0.000835 0.0
0.906835 0.228385 0.002051 0.0
4.220823 1.102494 -0.000630 0.0
4.053929 0.643303 -0.003015 0.0
2.138132 1.211614 -0.002981 0.0
0.368459 0.751544 -0.001393 0.0
1.060003 1.619488 -0.000174 0.0
1.991045 1.201392 -0.000223 0.0
3.019247 0.682785 -0.001188 0.0
0.546837 0.768333 0.001518 0.0
1.839314 0.256263 0.000206 0.0
1.161666 0.915663 0.000356 0.0
1.008248 0.130852 -0.002029 0.0
2.010241 0.661590 -0.006246 0.0
1.347898 1.127398 -0.000446 0.0
4.382447 0.085365 -0.000070 0.0
2.673058 0.857435 -0.005745 0.0
1.418729 0.330187 0.001553 0.0
1.513306 1.676684 -0.003392 0.0
2.234552 0.160726 -0.000507 0.0
1.724219 1.349541 -0.000373 0.0
1.341359 1.337638 0.000723 0.0
4.657543 0.138449 0.001713 0.0
1.147296 0.937990 -0.000504 0.0
3.321227 0.879986 0.002689 0.0
2.614459 0.731473 -0.000064 0.0
2.978490 1.127381 0.000361 0.0
1.084471 0.940151 -0.001231 0.0
3.024129 0.128525 0.001593 0.0
0.595827 1.121312 -0.000486 0.0
4.523456 1.462740 0.003459 0.0
3.795900 0.666604 -0.000367 0.0
3.832275 0.459206 -0.001695 0.0
0.432193 0.860649 0.000149 0.0
1.103858 1.287719 0.000477 0.0
2.357324 0.214067 0.001702 0.0
4.156558 0.766422 0.002887 0.0
2.106307 1.174987 -0.000033 0.0
3.365849 0.297628 -0.000151 0.0
4.088433 0.540444 0.001977 0.0
0.798074 0.922594 0.002839 0.0
1.984840 1.235434 0.001619 0.0
3.037266 0.040466 -0.001486 0.0
4.665281 0.523771 0.004000 0.0
4.110351 1.273194 0.000253 0.0
2.162573 0.680805 -0.001611 0.0
3.312246 1.496731 -0.002199 0.0
1.900641 0.724765 0.000909 0.0
3.072744 0.895552 0.002258 0.0
3.168307 0.142184 0.001455 0.0
2.046633 0.668760 0.002329 0.0
0.014736 0.425667 -0.001273 0.0
3.993922 1.657660 0.001596 0.0
1.335764 1.283770 0.001493 0.0
2.473293 1.218306 0.000274 0.0
3.748792 0.714123 0.000304 0.0
2.562852 1.609271 0.000803 0.0
0.832071 1.022255 0.002694 0.0
1.951899 1.380912 0.000563 0.0
0.841654 1.566817 -0.005647 0.0
3.129290 0.024391 0.003462 0.0
3.211491 0.344036 0.001668 0.0
2.985353 1.584087 0.002711 0.0
2.670654 1.646087 0.002748 0.0
4.079173 0.139412 0.001029 0.0
2.670557 0.184032 -0.000536 0.0
1.451000 1.040207 -0.001181 0.0
0.244180 0.395715 0.000568 0.0
4.484113 0.330360 -0.000767 0.0
0.097474 1.341556 0.001665 0.0
0.547035 1.663006 -0.003269 0.0
1.883501 1.032430 0.000344 0.0
1.696470 0.765197 0.004611 0.0
3.653788 1.572336 0.000772 0.0
0.168775 0.323712 0.000052 0.0
2.923750 1.020245 -0.000554 0.0
1.246567 0.372223 -0.000908 0.0
2.785555 0.336998 -0.001900 0.0
0.043810 1.440813 -0.002238 0.0
0.845608 0.910836 0.003429 0.0
2.580545 0.995846 0.000164 0.0
4.529350 1.598832 0.002725 0.0
0.601654 0.991754 -0.000397 0.0
4.081688 1.663448 -0.002123 0.0
1.703396 0.644181 -0.002417 0.0
0.257563 0.277024 0.000153 0.0
2.594207 1.340709 0.005655 0.0
4.401089 0.728457 0.000076 0.0
3.525981 1.673600 -0.001483 0.0
3.927433 1.590108 0.000366 0.0
1.208432 0.893457 -0.003318 0.0
2.767495 0.676017 -0.000468 0.0
2.267522 0.769464 -0.002679 0.0
3.812152 0.203582 0.004106 0.0
2.907455 1.501170 -0.001602 0.0
3.194219 0.293320 0.000183 0.0
1.501575 0.029851 0.000763 0.0
0.945374 0.832013 0.000802 0.0
2.665016 0.169204 0.002477 0.0
3.752856 0.444134 -0.001093 0.0
1.813026 0.461504 0.001353 0.0
0.741827 1.280778 -0.002056 0.0
4.215993 0.949379 0.000631 0.0
2.028271 1.220057 -0.004297 0.0
3.070909 0.286066 -0.003470 0.0
0.874958 1.184313 -0.000013 0.0
4.098293 1.527280 0.002194 0.0
3.096635 1.441811 0.000291 0.0
4.468533 0.541937 -0.002753 0.0
4.040255 1.091184 -0.001659 0.0
2.612936 1.556557 -0.002063 0.0
1.257831 1.072155 0.000335 0.0
2.736844 1.279102 -0.001485 0.0
2.593574 0.018647 0.005374 0.0
2.747438 1.004114 -0.002160 0.0
0.276658 1.055912 -0.004761 0.0
1.640886 1.570209 -0.000284 0.0
1.498993 0.927333 -0.002892 0.0
0.143048 0.717887 -0.001784 0.0
2.318257 0.830778 -0.002582 0.0
4.611409 0.675298 -0.002932 0.0
2.093859 0.902563 -0.002465 0.0
2.884860 1.050512 -0.000041 0.0
1.719354 0.450445 0.000066 0.0
3.281042 0.589207 0.001830 0.0
0.033862 0.008356 -0.003326 0.0
2.016867 0.254041 0.000748 0.0
2.254136 0.827920 -0.002764 0.0
3.560781 0.800545 0.004147 0.0
0.492451 0.686065 0.001526 0.0
3.749953 0.658992 -0.001520 0.0
2.799978 0.406610 -0.001548 0.0
3.989658 0.588216 0.000371 0.0
2.730435 1.495227 -0.003847 0.0
3.851563 1.154907 0.003268 0.0
2.757688 0.990696 0.000543 0.0
2.307414 1.027295 0.001245 0.0
1.975689 0.156666 -0.002538 0.0
0.776408 1.232022 -0.002263 0.0
4.457984 1.187530 0.003211 0.0
0.659249 0.325459 -0.000478 0.0
2.596209 1.187480 -0.000747 0.0
0.950689 0.896613 -0.002056 0.0
3.032961 0.079603 0.001282 0.0
4.673219 0.879871 0.001721 0.0
3.992633 1.346549 -0.001085 0.0
3.215624 0.986230 0.000094 0.0
4.444456 0.479329 0.000120 0.0
4.373393 0.429739 0.001940 0.0
4.454069 0.262690 0.000997 0.0
3.978976 0.699219 0.000962 0.0
3.032902 1.538575 0.004676 0.0
4.191347 1.087166 -0.001105 0.0
2.411903 1.666177 0.000168 0.0
1.496127 0.368626 -0.000103 0.0
0.923536 1.042035 0.002101 0.0
4.260082 1.594491 -0.000563 0.0
3.983499 1.531403 -0.002096 0.0
2.014963 0.786796 -0.001863 0.0
0.418117 0.624982 -0.001797 0.0
2.678775 1.286573 0.001183 0.0
0.491594 0.357494 0.003347 0.0
4.321180 0.342732 0.003029 0.0
2.168400 0.835692 -0.001169 0.0
1.786395 0.217351 0.002026 0.0
0.676701 0.512131 0.002267 0.0
3.322810 0.391585 -0.000226 0.0
1.554987 0.249962 -0.000180 0.0
2.154801 0.183914 -0.002278 0.0
0.674203 1.333174 0.002371 0.0
2.318075 0.884018 0.001334 0.0
0.159318 0.807322 0.003046 0.0
4.034482 0.570632 0.001287 0.0
0.742644 0.483945 0.001705 0.0
0.549441 1.244100 0.000139 0.0
3.889755 1.288953 0.000395 0.0
0.109860 0.539731 0.005190 0.0
1.422821 0.647617 -0.000697 0.0
2.100292 0.234195 0.001850 0.0
4.311104 0.963725 -0.000888 0.0
3.615303 1.623112 0.002005 0.0
3.604430 0.104541 -0.003039 0.0
1.091417 1.538484 -0.000143 0.0
0.941318 1.381639 -0.003320 0.0
1.145143 0.556770 -0.000603 0.0
4.104773 0.213358 -0.000783 0.0
0.285514 1.486792 0.004295 0.0
3.073107 0.451400 0.001875 0.0
2.051488 0.374286 0.000209 0.0
3.542731 0.726783 -0.000179 0.0
0.579054 0.428343 0.000061 0.0
0.855672 1.614292 -0.002736 0.0
0.500743 0.515207 -0.001465 0.0
1.233115 1.177661 0.000326 0.0
4.199814 0.286633 0.003997 0.0
1.094910 1.035097 -0.000768 0.0
3.914266 1.333781 0.004710 0.0
0.409334 0.394737 0.002151 0.0
4.061931 0.658378 0.000311 0.0
3.158776 1.195782 0.001556 0.0
2.088981 1.055738 -0.002230 0.0
2.433543 0.680370 -0.000404 0.0
0.780353 0.996297 0.001364 0.0
1.994648 0.992077 0.003514 0.0
2.534471 0.343030 0.002867 0.0
0.061084 0.897595 -0.001684 0.0
1.376868 0.250793 -0.000621 0.0
3.161602 1.240126 -0.001965 0.0
3.835818 1.426751 -0.001698 0.0
2.372096 1.495224 -0.001515 0.0
2.190247 0.924539 -0.000499 0.0
1.092966 0.992674 -0.001587 0.0
0.477007 1.030673 -0.001032 0.0
0.071238 0.651213 -0.001711 0.0
3.420771 0.823243 -0.000831 0.0
4.569091 0.884484 -0.001744 0.0
4.082213 1.360373 -0.002772 0.0
0.782252 0.786301 0.001750 0.0
1.536296 0.054720 -0.000037 0.0
2.996447 0.230722 -0.002484 0.0
0.156240 0.948006 -0.001233 0.0
0.925321 1.622546 -0.000193 0.0
1.123749 1.378756 -0.001093 0.0
4.330425 1.375032 -0.002030 0.0
1.982029 0.381606 0.000413 0.0
0.185990 1.318917 0.006559 0.0
3.153237 0.245908 -0.001524 0.0
4.178326 0.751675 0.004559 0.0
3.434803 1.013373 0.002661 0.0
4.131645 0.573479 0.000115 0.0
0.298910 1.298811 -0.002079 0.0
0.610947 0.285725 -0.000347 0.0
3.364560 0.014417 0.000051 0.0
3.565190 0.345937 0.002559 0.0
3.356374 0.277885 0.000288 0.0
0.970903 1.348502 0.004429 0.0
3.232590 1.511244 -0.001969 0.0
3.870781 0.115792 0.000454 0.0
3.908456 0.586279 -0.002791 0.0
0.243919 0.858603 0.005449 0.0
3.917042 0.603919 0.003007 0.0
1.912213 1.215245 -0.003169 0.0
2.892216 0.004021 0.001495 0.0
4.076594 0.621714 -0.003076 0.0
4.411060 0.019818 0.000229 0.0
3.240829 1.233009 -0.004752 0.0
4.064174 1.305356 0.000381 0.0
3.754224 0.751797 -0.003912 0.0
4.344192 0.776903 -0.000494 0.0
0.897360 1.365913 -0.000263 0.0
2.346230 0.446086 0.000401 0.0
4.646840 0.543891 0.002007 0.0
3.981807 1.433536 -0.004378 0.0
2.074435 1.169070 -0.002462 0.0
1.807069 0.271884 0.001927 0.0
3.429254 0.354632 -0.004107 0.0
3.794665 0.834120 -0.001131 0.0
4.342979 0.947574 -0.000650 0.0
1.535791 1.103340 -0.001194 0.0
4.557567 1.593724 0.002076 0.0
3.290759 1.150265 0.001836 0.0
1.855037 0.298072 -0.000949 0.0
2.405737 0.613541 -0.000198 0.0
3.974183 0.412825 0.002396 0.0
2.937191 0.203809 -0.001869 0.0
4.062458 1.380023 0.003048 0.0
0.613654 0.147612 -0.001751 0.0
4.500238 0.732024 0.000163 0.0
3.777634 0.769510 -0.003607 0.0
1.655384 1.163463 -0.003140 0.0
0.484290 1.692881 -0.001451 0.0
4.376242 1.125110 -0.002443 0.0
2.268367 0.985020 -0.003744 0.0
1.276280 0.519197 -0.002353 0.0
3.515096 1.141440 0.002091 0.0
0.787035 0.923600 0.004225 0.0
1.431446 1.162805 0.000774 0.0
2.250978 0.392587 0.003142 0.0
1.986500 1.337663 -0.002464 0.0
3.073681 1.122345 0.001081 0.0
4.023835 0.440831 0.000262 0.0
3.346255 0.825065 -0.000306 0.0
0.044017 0.542293 -0.002916 0.0
3.491416 1.351943 -0.000108 0.0
3.340889 0.873346 0.001359 0.0
0.311159 0.388743 0.004150 0.0
1.815855 1.089447 0.000851 0.0
0.300210 0.840839 0.000318 0.0
4.337407 0.705052 -0.001698 0.0
2.229069 1.457303 0.002253 0.0
3.870734 1.321485 -0.002871 0.0
2.957647 1.054061 -0.003081 0.0
2.893873 1.276217 0.001157 0.0
3.442719 0.457630 -0.001150 0.0
1.816779 1.113586 -0.000827 0.0
3.223670 0.327053 -0.001166 0.0
0.213002 1.425009 -0.003291 0.0
3.437632 0.507896 0.002375 0.0
3.045580 1.573598 0.000251 0.0
0.016836 0.818015 -0.005636 0.0
1.955093 0.965339 0.000076 0.0
0.851302 1.199039 -0.000232 0.0
4.540391 0.832392 -0.000719 0.0
1.842555 1.276618 0.000643 0.0
1.893532 1.331215 0.000931 0.0
1.653503 1.136526 -0.002478 0.0
3.115975 0.725792 0.001086 0.0
1.669536 1.553153 0.003277 0.0
2.666865 0.247787 0.001248 0.0
3.423895 1.127176 0.005262 0.0
2.038165 1.212719 -0.003577 0.0
2.822762 0.787060 -0.001780 0.0
3.924359 1.360517 -0.000550 0.0
0.641986 1.399222 -0.000859 0.0
3.540772 1.614463 -0.005253 0.0
0.662967 0.233861 0.003656 0.0
2.480616 0.636539 -0.002626 0.0
2.349327 0.365111 -0.002971 0.0
3.150311 1.358016 0.000783 0.0
2.741704 0.261328 -0.001658 0.0
0.509816 0.813694 0.001197 0.0
2.210648 0.802206 0.001887 0.0
1.769148 1.537871 -0.000168 0.0
2.411006 1.560766 0.001661 0.0
3.667303 1.615023 0.001561 0.0
0.013640 0.121065 0.001781 0.0
3.464563 0.237062 0.001280 0.0
1.289399 1.190289 -0.001434 0.0
2.534138 0.011514 -0.000082 0.0
2.384003 0.951106 0.003510 0.0
4.317963 0.164253 0.003147 0.0
0.673622 0.891353 0.001514 0.0
3.146194 0.928463 0.005448 0.0
3.395152 1.379881 0.003898 0.0
4.482094 0.267082 -0.001636 0.0
3.983434 0.066390 0.001889 0.0
3.937007 0.053366 -0.001986 0.0
3.732106 0.728197 -0.000230 0.0
4.299470 0.546687 -0.001390 0.0
2.722052 1.082133 0.004472 0.0
3.874447 0.218005 0.003032 0.0
0.062833 0.808815 -0.002011 0.0
1.924228 1.070025 0.002193 0.0
4.400942 0.383148 0.002161 0.0
2.047212 0.039001 -0.001660 0.0
1.096689 0.662785 -0.002920 0.0
0.994689 1.397205 0.001133 0.0
1.802658 0.587938 -0.000036 0.0
0.935152 1.126648 0.001820 0.0
1.632031 0.592459 0.002915 0.0
1.273801 1.173158 -0.004169 0.0
0.831984 1.669637 -0.001608 0.0
4.305786 1.611647 -0.003980 0.0
3.496117 1.304901 0.000058 0.0
1.933560 1.080099 -0.002104 0.0
4.624371 1.230696 -0.001674 0.0
4.419309 1.565535 0.002276 0.0
0.808661 0.673793 0.001583 0.0
0.599358 1.001025 0.001759 0.0
1.035642 0.209920 0.002303 0.0
3.344669 0.646609 0.000996 0.0
4.261574 0.173837 -0.003394 0.0
4.246601 1.263089 0.002991 0.0
0.314438 1.178945 0.000258 0.0
2.392098 1.455428 -0.006891 0.0
1.145428 1.555575 -0.000803 0.0
3.831576 1.617502 -0.001775 0.0
0.433522 1.160511 0.001935 0.0
1.875044 1.361437 -0.004911 0.0
3.350355 1.278190 -0.001600 0.0
3.338309 1.408343 0.000435 0.0
4.416773 1.469186 0.000261 0.0
0.989027 0.247811 0.002826 0.0
1.256083 0.124788 -0.000811 0.0
1.959745 0.916356 -0.005409 0.0
4.400450 0.611260 0.004919 0.0
3.444305 0.962641 0.000031 0.0
3.291862 1.196435 -0.000920 0.0
4.211906 1.216755 -0.000952 0.0
3.888372 0.853335 -0.002882 0.0
0.274725 0.432861 0.002865 0.0
3.227701 1.203687 0.002953 0.0
3.272638 0.805029 0.000854 0.0
1.810213 0.271968 0.001055 0.0
1.717164 0.523839 0.005294 0.0
1.040296 0.352722 -0.001296 0.0
3.048058 0.340841 0.006113 0.0
2.656282 0.658952 -0.001522 0.0
2.638158 0.584212 -0.000820 0.0
0.961640 0.921592 -0.000597 0.0
2.738512 1.342022 -0.000952 0.0
3.591470 0.531463 0.001048 0.0
1.842413 0.546024 0.000949 0.0
3.625536 0.300430 0.002776 0.0
3.460936 0.329119 0.005118 0.0
3.458073 1.533959 0.002757 0.0
2.600687 0.222412 0.004596 0.0
1.329468 0.720386 0.001077 0.0
3.813071 1.395596 0.001923 0.0
3.094951 0.757359 0.000934 0.0
4.567733 1.535795 0.002518 0.0
1.313795 0.189553 -0.001152 0.0
1.401771 0.074852 0.003666 0.0
1.529253 0.498391 0.002565 0.0
3.937371 0.165165 -0.000512 0.0
1.893176 0.008749 0.002828 0.0
3.865193 0.105235 -0.001207 0.0
0.329969 0.707256 -0.004179 0.0
3.874398 1.406976 0.001024 0.0
4.358890 1.570825 -0.001620 0.0
1.739774 1.054020 0.001357 0.0
0.618621 1.624821 0.003386 0.0
3.156103 0.357782 -0.002096 0.0
3.015706 1.451229 -0.001011 0.0
1.011552 1.697313 0.002135 0.0
0.980948 0.386672 0.002610 0.0
1.023638 1.697057 -0.004195 0.0
2.314841 1.101003 0.000587 0.0
3.061289 1.622111 0.000658 0.0
1.998334 0.016346 -0.000168 0.0
4.366493 1.421112 0.003755 0.0
4.452843 1.253211 -0.000954 0.0
3.487352 1.607508 0.000651 0.0
1.467402 1.434272 0.005207 0.0
1.267384 1.545968 -0.003359 0.0
2.421400 0.285667 0.001951 0.0
4.267937 0.338054 -0.001962 0.0
2.298931 0.632401 0.000506 0.0
1.305201 1.442859 -0.000987 0.0
0.529517 1.301630 0.001122 0.0
4.600546 0.396527 -0.002046 0.0
0.744348 0.129390 -0.001388 0.0
1.022345 0.763857 0.001005 0.0
2.951656 0.481966 -0.000213 0.0
2.374745 0.941573 0.002161 0.0
1.578961 1.516161 -0.002166 0.0
0.115473 0.074535 0.001227 0.0
1.927773 1.111761 0.002687 0.0
0.184003 0.172812 0.000572 0.0
1.253184 0.282473 0.002979 0.0
2.709923 1.445451 -0.000788 0.0
0.131444 1.468061 -0.002436 0.0
4.237584 1.366180 0.002854 0.0
2.247638 0.480381 0.001924 0.0
1.721546 1.410406 -0.002179 0.0
2.522327 1.262239 -0.001669 0.0
2.311403 0.639710 -0.003929 0.0
2.553239 1.374532 0.000208 0.0
0.312835 0.966220 -0.001280 0.0
2.021490 1.096303 0.002018 0.0
2.973419 0.278557 0.001188 0.0
1.595936 0.109456 -0.002369 0.0
3.635289 1.649193 0.000657 0.0
2.447375 0.728704 -0.001291 0.0
1.404741 1.217522 0.004491 0.0
3.716338 0.792175 -0.000814 0.0
0.254542 0.468685 -0.003194 0.0
4.395270 0.173995 0.002257 0.0
3.774252 1.159010 -0.000926 0.0
1.788350 1.679892 -0.000638 0.0
3.540453 1.161814 -0.000161 0.0
0.417432 0.285887 -0.005129 0.0
3.682836 0.730263 0.000246 0.0
1.447955 1.476905 -0.002051 0.0
3.766169 0.190617 -0.002613 0.0
1.296577 1.109372 -0.001329 0.0
3.840781 1.529005 -0.001122 0.0
0.832640 0.836101 -0.000316 0.0
0.617182 0.199765 0.002110 0.0
3.143554 0.150810 0.000705 0.0
2.695548 0.526346 -0.003672 0.0
4.539634 0.449093 -0.002177 0.0
1.932912 0.908360 0.001229 0.0
1.152573 1.585232 0.003831 0.0
1.574140 0.707219 -0.003296 0.0
3.195443 1.333576 0.000402 0.0
2.114612 1.495743 -0.002607 0.0
1.698041 1.401341 -0.002452 0.0
1.641263 1.354924 0.000115 0.0
0.403383 0.323110 -0.005849 0.0
3.283758 0.718957 -0.004366 0.0
3.686650 0.397831 0.000443 0.0
0.742210 0.624002 0.002697 0.0
0.734512 1.536586 0.003324 0.0
0.349544 0.871962 -0.000008 0.0
1.064506 0.964122 -0.000264 0.0
4.277096 1.617274 -0.001162 0.0
0.269887 0.238060 0.001346 0.0
2.962825 1.127373 0.001293 0.0
3.045377 0.839359 0.001304 0.0
1.635499 0.032883 0.001637 0.0
4.035320 0.139745 -0.002467 0.0
3.888841 0.971710 -0.000056 0.0
1.315823 1.474595 0.000551 0.0
0.410309 0.437245 -0.005036 0.0
2.803355 1.037984 -0.002648 0.0
4.403853 0.993291 0.002245 0.0
0.441001 1.616700 0.000756 0.0
0.832709 1.297317 0.000085 0.0
3.765641 1.170607 -0.001719 0.0
2.413620 1.538775 -0.000811 0.0
3.758087 1.690272 0.004595 0.0
3.115106 0.236992 -0.001138 0.0
2.002640 0.009152 0.000466 0.0
0.807289 1.613610 -0.002335 0.0
1.639190 0.682950 -0.003814 0.0
0.767544 0.767722 0.000546 0.0
0.786648 0.986999 -0.005552 0.0
0.904636 1.427113 -0.000431 0.0
3.451286 0.794938 0.001486 0.0
0.495962 1.123440 -0.001499 0.0
0.352560 1.414724 0.000235 0.0
3.140423 0.185178 0.002991 0.0
3.443357 0.965512 -0.002771 0.0
0.446013 0.784491 0.002462 0.0
1.820518 1.364556 0.003372 0.0
2.574529 0.497857 -0.003975 0.0
3.994468 0.050540 0.000557 0.0
0.218631 1.547713 0.001320 0.0
0.180683 0.130848 -0.001230 0.0
1.026399 0.836681 -0.002439 0.0
4.154012 1.084925 -0.002376 0.0
3.742986 1.104945 -0.000084 0.0
2.275377 1.497743 0.000929 0.0
2.054397 0.820743 -0.003909 0.0
0.316725 0.890672 -0.001495 0.0
2.686129 0.007960 0.003429 0.0
2.603534 0.718605 -0.001124 0.0
3.125430 1.141583 0.003133 0.0
2.891673 0.151168 0.002820 0.0
3.339199 1.655566 0.004589 0.0
4.366811 1.021266 0.004598 0.0
0.607334 1.272289 0.002447 0.0
1.072362 0.741630 -0.000309 0.0
3.123676 0.814469 -0.002693 0.0
1.019547 1.283038 -0.001606 0.0
4.124741 0.288399 -0.005081 0.0
1.596403 0.449944 0.001402 0.0
0.962971 1.108734 0.000939 0.0
3.188286 1.533003 0.002847 0.0
0.792518 1.659330 -0.003148 0.0
2.268001 1.580273 -0.000064 0.0
2.855455 1.478022 0.002080 0.0
0.870465 0.471541 -0.000433 0.0
1.056333 0.354571 -0.003494 0.0
3.672749 1.690018 0.001372 0.0
1.472106 1.027473 0.001111 0.0
2.486333 1.350046 0.000188 0.0
2.303789 0.131668 0.001573 0.0
2.972472 1.050869 0.002692 0.0
2.379235 1.317204 0.004509 0.0
0.601475 1.614930 -0.000878 0.0
2.756968 1.365070 0.001957 0.0
2.964414 1.179760 0.000302 0.0
3.691005 0.019302 0.001736 0.0
3.075379 1.300352 0.003813 0.0
1.517953 1.405810 0.001969 0.0
0.594962 0.654845 -0.001060 0.0
3.855708 0.025840 -0.001880 0.0
1.284229 0.128721 0.000890 0.0
2.683327 0.479542 -0.000495 0.0
1.391346 0.180067 0.002865 0.0
3.537980 0.503534 -0.002246 0.0
3.342375 0.153449 -0.001179 0.0
3.873792 0.245019 0.002416 0.0
3.511526 1.558934 -0.000155 0.0
2.024133 1.661522 0.000787 0.0
2.254430 0.042250 0.000908 0.0
4.269265 1.650537 -0.000131 0.0
2.876288 0.295596 0.003139 0.0
4.539059 1.267822 -0.002994 0.0
4.230836 0.121624 -0.004061 0.0
1.925561 0.318428 0.004531 0.0
0.362984 0.712657 0.001903 0.0
0.930942 0.255991 -0.004141 0.0
4.338541 0.582848 -0.002605 0.0
1.309811 0.302601 0.001397 0.0
0.890043 1.295618 -0.003381 0.0
4.646258 1.208814 -0.005446 0.0
4.072778 0.769745 -0.003203 0.0
1.042938 1.612301 -0.005040 0.0
1.854616 0.698208 -0.000320 0.0
0.348888 1.643643 0.000352 0.0
3.105120 1.652222 -0.007306 0.0
2.647565 0.343095 -0.000332 0.0
3.979341 0.177920 -0.002821 0.0
1.889268 1.143052 -0.001579 0.0
0.351722 1.002341 -0.000712 0.0
3.804668 0.373777 -0.002583 0.0
1.633227 1.622965 -0.000259 0.0
4.316391 0.329356 -0.001354 0.0
2.387963 0.914704 0.000957 0.0
3.146936 1.378923 -0.005356 0.0
3.647310 1.478904 -0.001980 0.0
3.318772 1.522818 -0.001873 0.0
3.756780 1.107750 0.002637 0.0
0.952500 1.615909 -0.000254 0.0
2.488141 1.425290 0.000660 0.0
1.041188 1.574248 0.001435 0.0
1.484796 0.393679 -0.000589 0.0
3.150614 1.084427 0.001230 0.0
3.456232 1.045005 0.002126 0.0
1.636314 1.290142 -0.007693 0.0
4.192428 0.187447 0.001083 0.0
2.829105 1.579757 0.001042 0.0
2.517459 0.172329 -0.003479 0.0
1.951359 0.305810 -0.002989 0.0
2.818930 0.716267 -0.001622 0.0
0.292212 0.419312 -0.001244 0.0
0.427340 0.497529 0.000469 0.0
3.743319 0.228093 0.001996 0.0
1.156864 0.277380 -0.001801 0.0
3.112164 1.658390 -0.000412 0.0
3.108223 0.569014 -0.000752 0.0
0.636886 0.160294 -0.000867 0.0
0.757868 0.394605 -0.000427 0.0
3.395018 0.783012 0.000091 0.0
2.355227 0.099927 -0.008982 0.0
3.438586 0.248373 0.002180 0.0
3.922886 0.526437 -0.000173 0.0
3.500872 0.766990 -0.000666 0.0
1.689188 0.704905 -0.007045 0.0
2.490003 0.685912 -0.001334 0.0
2.577040 1.144393 -0.002127 0.0
3.884844 1.347840 0.000089 0.0
3.092770 1.579767 0.006919 0.0
3.658969 1.177590 0.002080 0.0
3.286464 0.840696 -0.000341 0.0
4.675487 0.465166 -0.001950 0.0
4.123168 1.087260 0.000692 0.0
3.698631 0.182833 0.000056 0.0
4.079399 1.484814 0.001070 0.0
0.704232 1.374792 0.002209 0.0
1.658023 1.421350 0.004649 0.0
2.433411 0.198025 0.000266 0.0
4.073633 0.204681 -0.001178 0.0
2.879192 0.698336 -0.000837 0.0
1.402772 1.160734 0.001439 0.0
4.391246 0.635452 -0.001277 0.0
1.413423 0.361621 -0.001262 0.0
0.445632 0.586663 0.002698 0.0
1.569303 1.289286 0.001945 0.0
2.651063 1.615464 0.002587 0.0
1.528632 0.713289 0.003100 0.0
2.287750 0.551666 0.001797 0.0
3.654097 1.355946 0.000008 0.0
0.270410 0.062957 0.000880 0.0
4.432374 0.928167 0.002583 0.0
3.114235 1.069059 -0.003615 0.0
2.189365 0.918832 0.005213 0.0
0.058804 0.110679 0.003906 0.0
3.562635 0.566276 0.000301 0.0
4.342729 1.108737 0.000442 0.0
3.755466 1.556252 -0.001800 0.0
2.999815 1.020044 -0.004822 0.0
0.246579 1.294479 0.001353 0.0
0.095341 1.283555 0.001663 0.0
2.868963 1.287379 -0.005510 0.0
0.923531 0.218729 0.001755 0.0
2.716212 1.266575 0.001419 0.0
3.494522 0.152918 0.000838 0.0
3.172124 0.291225 -0.000861 0.0
3.544567 0.453723 0.000240 0.0
2.891015 0.649814 -0.003943 0.0
3.048805 0.578506 -0.003113 0.0
1.855682 1.108403 0.000633 0.0
2.533605 0.701794 0.000132 0.0
0.696252 0.087858 -0.000850 0.0
2.449128 0.156093 -0.000946 0.0
4.667131 1.623683 0.000704 0.0
2.390961 1.053874 0.000551 0.0
2.973580 0.168105 -0.001280 0.0
4.244123 0.097170 0.001124 0.0
0.454307 0.702334 -0.002207 0.0
3.391479 0.192241 0.003035 0.0
2.326980 0.330536 0.001435 0.0
2.452385 1.645217 0.002861 0.0
2.474218 0.047722 -0.001716 0.0
0.815825 0.764350 0.000096 0.0
0.356336 0.525662 0.001128 0.0
0.013924 0.320446 -0.003718 0.0
0.567023 0.030497 0.001165 0.0
3.832103 1.492791 -0.003714 0.0
1.299479 0.413803 -0.001696 0.0
3.809894 1.264563 -0.001389 0.0
0.226319 0.000079 -0.002711 0.0
3.658447 0.853289 0.001007 0.0
1.025944 0.097613 -0.003572 0.0
1.106191 0.428642 0.004095 0.0
0.693894 1.622847 0.000870 0.0
3.739131 0.678579 0.000230 0.0
0.265283 0.248949 -0.000767 0.0
3.988732 0.182554 0.001557 0.0
4.501971 0.069497 -0.000689 0.0
0.658713 0.448366 -0.000451 0.0
3.667505 0.239081 0.000155 0.0
0.998601 0.460251 0.006010 0.0
2.910365 1.249971 0.000137 0.0
2.892412 1.160827 -0.004228 0.0
4.305287 1.326315 0.002142 0.0
2.621384 1.305234 0.003921 0.0
1.279629 0.381969 -0.002189 0.0
2.462424 1.316442 -0.001366 0.0
2.625005 1.331310 0.001659 0.0
4.028551 0.385690 0.003432 0.0
1.347170 0.643667 -0.003737 0.0
0.281901 1.683886 0.002621 0.0
2.975178 0.637919 -0.003083 0.0
2.972282 1.216620 -0.000564 0.0
3.262903 0.592501 -0.001170 0.0
1.658195 0.287939 -0.004304 0.0
1.220859 0.508943 -0.001727 0.0
4.630185 1.491044 0.000473 0.0
0.478762 0.004961 -0.003015 0.0
3.768821 0.780272 0.001950 0.0
4.259250 1.021288 0.000212 0.0
3.589937 0.168391 0.000490 0.0
1.362797 1.683272 0.000043 0.0
2.302985 0.871616 -0.001864 0.0
2.133279 0.210908 -0.001436 0.0
3.816512 1.086052 -0.001111 0.0
3.897354 0.958188 0.004127 0.0
4.505279 0.856959 -0.003114 0.0
0.392619 -0.000366 -0.000543 0.0
1.661097 1.522308 -0.001488 0.0
0.487222 0.500502 0.000389 0.0
3.113647 1.093954 -0.004014 0.0
3.109774 0.919347 -0.000655 0.0
2.882042 1.646872 0.003840 0.0
3.517078 1.390907 -0.004816 0.0
4.619715 0.874298 0.000791 0.0
1.402638 0.133743 0.000486 0.0
0.343701 1.462844 0.000717 0.0
3.352313 0.285476 -0.000540 0.0
0.319497 1.498412 -0.002744 0.0
2.407388 0.120617 0.001918 0.0
3.470778 0.603435 -0.000312 0.0
2.732294 1.284991 0.000641 0.0
4.178872 0.664110 0.001811 0.0
3.201981 0.300241 -0.000796 0.0
0.988004 0.257981 0.002546 0.0
0.231823 0.602048 0.000876 0.0
0.571651 1.604878 -0.000567 0.0
0.311162 1.351455 -0.001414 0.0
4.274660 0.427702 -0.001488 0.0
2.618102 1.623637 -0.000768 0.0
1.953712 0.716257 0.002699 0.0
4.381038 0.967918 -0.001420 0.0
2.611957 1.621943 0.000340 0.0
4.421386 0.640166 0.000026 0.0
2.526718 1.538976 -0.000632 0.0
3.595874 0.659999 -0.000524 0.0
1.429018 1.390925 0.000031 0.0
1.028550 0.534039 0.000155 0.0
4.643524 0.569499 0.007379 0.0
4.081702 1.348100 -0.004605 0.0
3.091674 1.243385 -0.001824 0.0
2.119204 0.635089 0.000934 0.0
4.005615 0.549632 -0.000066 0.0
2.724001 0.596450 -0.002841 0.0
1.568075 0.674959 0.005071 0.0
0.933772 1.642143 -0.001043 0.0
1.452646 1.415247 0.001305 0.0
4.417111 1.163696 -0.001695 0.0
2.410512 1.691036 0.000068 0.0
0.174774 0.761309 -0.005272 0.0
0.787811 0.891737 0.000171 0.0
4.458643 1.101158 0.000554 0.0
0.104877 0.365925 -0.004409 0.0
0.095940 1.544647 -0.002305 0.0
0.372790 1.254618 -0.000024 0.0
0.843056 0.769207 -0.001196 0.0
0.860497 1.520013 0.001666 0.0
3.385629 1.203221 0.004089 0.0
0.058936 0.831742 0.002703 0.0
4.410697 1.381937 0.002588 0.0
0.405591 1.031878 0.001979 0.0
0.320960 0.006239 -0.001270 0.0
1.305959 1.329972 -0.004756 0.0
4.157253 0.648955 0.000028 0.0
1.711368 0.876313 -0.001818 0.0
0.023767 0.728291 -0.004175 0.0
3.886563 1.688343 -0.003313 0.0
3.138787 1.623590 -0.003889 0.0
2.629917 1.361079 0.003740 0.0
0.081514 0.531340 -0.005852 0.0
4.011954 0.237622 0.001349 0.0
2.848349 0.600721 -0.005444 0.0
2.948013 0.549946 0.006386 0.0
0.506546 0.862003 -0.000401 0.0
3.302218 0.335960 -0.001669 0.0
2.541188 1.148914 -0.004271 0.0
0.018787 0.309668 0.004698 0.0
1.601804 1.038326 -0.004183 0.0
4.168402 1.083041 -0.002529 0.0
2.134292 0.441876 -0.003657 0.0
2.363960 0.666991 -0.000126 0.0
1.865239 1.370410 0.005691 0.0
2.836103 0.958803 0.002044 0.0
1.215017 1.580832 0.002210 0.0
4.170647 0.948286 0.000060 0.0
0.472710 0.881225 0.002435 0.0
3.578434 0.340246 0.001157 0.0
3.056032 1.164562 0.001058 0.0
2.451106 0.101324 -0.001840 0.0
3.248952 0.845469 0.000252 0.0
1.063954 0.785953 0.002383 0.0
3.676604 1.251228 0.001515 0.0
4.124069 1.174464 0.003844 0.0
0.865422 1.308900 -0.000967 0.0
1.755873 0.895421 -0.000353 0.0
1.946366 0.076918 0.001445 0.0
4.356863 0.084054 -0.000896 0.0
1.086949 1.388382 0.000219 0.0
3.061105 0.860784 0.001932 0.0
2.203725 0.663013 0.000803 0.0
2.391966 1.530150 0.002902 0.0
1.163932 1.070873 -0.003494 0.0
4.397125 0.056228 0.001006 0.0
4.188370 1.379309 -0.001018 0.0
3.553493 0.888026 0.000579 0.0
1.201658 0.560492 0.000361 0.0
3.473764 0.717819 0.000347 0.0
0.934817 1.596497 0.000181 0.0
0.545671 1.228937 -0.003195 0.0
3.931189 0.192852 0.001948 0.0
3.138860 0.146647 -0.004433 0.0
2.439052 1.538716 0.002743 0.0
2.213830 0.864888 0.001023 0.0
3.708999 0.035388 -0.000086 0.0
2.757490 1.308893 0.000315 0.0
2.535070 0.853009 -0.003227 0.0
1.134654 0.495158 -0.000734 0.0
3.658974 0.055478 -0.002384 0.0
3.487385 0.996308 -0.002475 0.0
1.536034 0.937688 -0.000017 0.0
0.896790 0.123694 0.002494 0.0
2.227041 0.934018 -0.000945 0.0
1.324673 1.061147 0.000514 0.0
3.236336 0.777652 -0.003869 0.0
3.182107 0.809024 0.004204 0.0
2.122803 0.797827 -0.001591 0.0
2.491752 0.856099 0.002467 0.0
4.097901 1.691903 0.000654 0.0
4.242374 1.024181 0.001353 0.0
0.427303 0.590204 -0.004640 0.0
0.828017 0.450075 0.001908 0.0
0.030184 1.193085 0.001262 0.0
0.285083 0.953217 -0.003023 0.0
0.099950 1.175331 0.000024 0.0
2.046231 1.156680 -0.005851 0.0
1.566689 0.388966 0.005027 0.0
0.541860 1.504077 0.000513 0.0
4.048294 1.419558 0.001410 0.0
3.678510 1.319060 0.003069 0.0
3.847512 1.495628 0.003652 0.0
0.805774 0.642996 0.002027 0.0
3.581265 1.673659 -0.000122 0.0
1.985667 1.277764 -0.000311 0.0
2.735065 0.577036 0.001781 0.0
2.457408 1.647154 -0.000145 0.0
1.172813 0.906101 -0.002266 0.0
2.907185 1.301186 -0.001298 0.0
4.004233 1.619926 -0.004066 0.0
2.237921 1.434282 -0.003552 0.0
0.267791 1.241596 0.000052 0.0
3.026718 0.325079 -0.002594 0.0
3.328959 1.300776 -0.004249 0.0
0.855744 0.096483 0.000770 0.0
1.598981 0.538413 0.001554 0.0
3.434724 1.469031 0.000619 0.0
3.930678 1.599226 -0.000499 0.0
1.142149 0.170269 -0.003279 0.0
0.936509 0.785720 0.005708 0.0
0.236780 1.265634 0.001602 0.0
0.648095 0.923919 -0.001522 0.0
1.060612 1.411237 -0.005857 0.0
0.128661 0.496439 0.000652 0.0
4.165532 0.134120 -0.002062 0.0
4.163708 1.300727 0.001898 0.0
1.422178 0.750629 0.005907 0.0
1.188188 0.513947 -0.002499 0.0
0.109338 0.765609 0.003370 0.0
4.131322 0.663816 -0.001154 0.0
3.203994 0.240968 -0.002143 0.0
1.817610 0.860270 -0.002440 0.0
3.177313 0.349623 -0.002946 0.0
1.567186 0.576582 0.003059 0.0
1.610542 1.558651 -0.001684 0.0
3.994964 0.720441 0.002183 0.0
3.935736 0.126501 0.000385 0.0
0.727062 1.210652 -0.000778 0.0
2.389513 1.281908 0.003101 0.0
1.775572 0.176837 0.000519 0.0
3.885565 0.548911 0.002218 0.0
0.436514 1.567866 0.001170 0.0
4.413159 1.083082 -0.005273 0.0
4.485972 0.947963 0.001444 0.0
1.248990 0.308794 -0.001804 0.0
1.177097 1.208360 0.002209 0.0
2.570302 0.472383 -0.000677 0.0
3.476271 0.583843 0.003161 0.0
2.034613 0.911288 0.005238 0.0
3.345032 0.338056 0.001588 0.0
0.284093 0.277360 0.003687 0.0
1.894179 1.403695 -0.002217 0.0
2.447187 1.545339 0.002700 0.0
0.446984 0.823382 0.000372 0.0
3.424420 0.045582 -0.000349 0.0
1.165994 0.290970 0.004600 0.0
2.472865 1.250542 -0.000998 0.0
3.914395 0.084640 0.000724 0.0
3.628213 0.253802 0.002305 0.0
2.301337 1.424891 -0.001704 0.0
4.056312 0.587813 -0.000231 0.0
4.575476 0.486966 -0.002585 0.0
1.736109 0.916629 0.004025 0.0
3.401988 1.411807 -0.002566 0.0
4.549345 0.784061 0.003380 0.0
3.708490 1.263716 0.000105 0.0
2.220564 1.200715 -0.000801 0.0
4.273155 1.161704 -0.003201 0.0
2.155108 0.538594 -0.002382 0.0
3.439917 1.053008 -0.001981 0.0
0.275916 0.711418 0.001921 0.0
4.339634 0.924930 0.000849 0.0
0.844843 0.760946 -0.003717 0.0
1.436984 1.557144 0.000918 0.0
2.328448 1.512568 0.003677 0.0
2.199805 0.707314 -0.002177 0.0
3.945494 0.545874 0.001081 0.0
0.785398 1.487556 -0.000014 0.0
0.977838 0.241904 -0.000847 0.0
4.485425 0.590518 0.003613 0.0
2.833892 0.772635 -0.003010 0.0
2.810894 1.483523 -0.006384 0.0
1.192675 1.484158 -0.002375 0.0
0.609054 1.190811 0.001903 0.0
2.147456 1.285384 0.002420 0.0
4.097182 0.726200 -0.001055 0.0
3.974111 1.462862 0.000511 0.0
2.678472 1.429409 -0.003684 0.0
0.517186 1.558636 -0.003748 0.0
0.398976 0.615681 0.000826 0.0
1.544119 1.330138 0.001249 0.0
1.706026 0.542592 -0.001189 0.0
0.066071 0.323438 -0.003776 0.0
0.509556 1.095034 0.003369 0.0
1.658203 1.204738 0.005333 0.0
1.458794 0.521837 0.000335 0.0
0.988397 1.626887 0.002738 0.0
1.218967 0.937936 -0.000424 0.0
2.851112 0.698367 -0.000842 0.0
3.990993 1.667551 -0.003304 0.0
0.802327 1.478800 -0.001095 0.0
1.974111 0.212873 -0.000075 0.0
0.244714 1.218166 -0.000779 0.0
3.623003 0.215477 -0.000800 0.0
4.631164 0.508639 0.005168 0.0
4.568770 1.102975 -0.003053 0.0
4.088976 1.630415 -0.004663 0.0
2.049305 1.094851 0.001368 0.0
4.212234 1.104918 -0.000237 0.0
0.465681 1.369129 -0.002330 0.0
3.428047 1.658129 0.002847 0.0
1.720472 1.416373 0.001302 0.0
3.796899 1.571515 -0.000917 0.0
3.020976 0.042510 -0.001642 0.0
0.751449 0.967576 -0.000001 0.0
1.547697 0.022937 0.001001 0.0
3.647181 0.479307 0.003099 0.0
4.557239 1.174962 -0.002870 0.0
2.883675 0.919921 -0.003190 0.0
2.218199 1.488412 -0.000396 0.0
2.117092 1.652234 0.005158 0.0
3.737957 1.571642 -0.002822 0.0
1.208065 0.961732 -0.002446 0.0
0.400524 0.434450 -0.003723 0.0
4.456241 1.575701 -0.000696 0.0
4.465310 1.257930 -0.000382 0.0
2.230460 0.895470 -0.004415 0.0
0.002702 1.576824 0.001323 0.0
3.618223 0.121392 -0.001341 0.0
0.577133 1.491061 -0.001345 0.0
1.467651 1.312613 -0.001855 0.0
1.594308 0.785273 0.003271 0.0
4.357046 0.544793 0.000518 0.0
1.604667 0.141286 0.000346 0.0
4.532140 0.332750 0.000627 0.0
2.889419 1.121275 0.003465 0.0
0.405793 0.051909 0.001084 0.0
3.651396 0.043920 -0.003288 0.0
3.291501 0.097042 0.002081 0.0
0.380045 1.504775 0.002612 0.0
4.265032 0.782155 0.002497 0.0
1.175555 1.659923 0.000558 0.0
3.656790 0.773788 -0.000191 0.0
4.319513 1.312344 -0.001880 0.0
3.223437 1.654508 0.004384 0.0
0.318284 1.000767 -0.003863 0.0
1.653584 1.342203 -0.002565 0.0
3.979623 0.246851 -0.000412 0.0
2.066046 0.063428 0.000105 0.0
0.367093 1.049467 0.002894 0.0
0.557025 0.568349 -0.000307 0.0
3.276135 0.554254 0.000465 0.0
0.143932 0.119718 0.002588 0.0
1.934295 0.696493 -0.003624 0.0
4.090847 1.170133 -0.001348 0.0
2.387992 0.537733 -0.005453 0.0
1.776173 1.431127 -0.001491 0.0
0.384091 0.700252 0.000808 0.0
3.720402 1.525519 0.000535 0.0
1.477468 1.118943 -0.002540 0.0
3.564197 0.550939 -0.003663 0.0
3.126592 1.498656 -0.001298 0.0
2.519934 0.154304 -0.002395 0.0
0.881477 1.411165 0.001749 0.0
0.499895 1.103790 -0.000309 0.0
1.542758 0.529762 -0.001212 0.0
2.451691 0.335404 0.003323 0.0
2.227637 0.429961 -0.001047 0.0
3.297155 0.620311 0.001705 0.0
3.893360 0.235490 -0.002310 0.0
3.322636 0.836062 0.000418 0.0
3.131964 0.655043 -0.003962 0.0
0.110411 0.962567 0.000112 0.0
3.201538 1.005288 -0.003286 0.0
0.937446 0.868389 -0.001520 0.0
1.004193 1.155450 0.000828 0.0
0.722623 1.553561 0.005291 0.0
2.200848 0.831274 0.001031 0.0
0.749342 0.574624 -0.002908 0.0
3.163385 0.492027 0.000439 0.0
4.365712 0.363034 -0.004252 0.0
2.632361 1.649581 0.000997 0.0
4.419893 1.374983 0.004087 0.0
0.873013 0.375442 -0.002929 0.0
2.366918 0.683909 0.000700 0.0
4.240739 1.297506 0.001382 0.0
3.794966 0.676059 -0.000212 0.0
0.721115 0.802671 -0.002538 0.0
1.817995 1.015973 0.003487 0.0
1.630649 1.658044 0.000560 0.0
0.142772 0.428094 -0.002640 0.0
3.553364 1.516907 -0.002117 0.0
4.275440 0.471968 0.002392 0.0
3.779516 0.329877 -0.000966 0.0
2.141725 1.680390 0.000285 0.0
3.618262 0.382261 -0.000762 0.0
0.591464 1.501274 -0.000060 0.0
1.348128 0.379439 0.000648 0.0
0.101000 0.000947 -0.003279 0.0
1.777277 0.923842 0.001344 0.0
1.920566 0.893652 -0.001339 0.0
0.171911 1.625564 -0.000856 0.0
4.158316 0.911809 0.003312 0.0
1.009446 1.641195 -0.001375 0.0
3.702309 1.569787 0.000457 0.0
3.027159 0.216716 -0.003448 0.0
2.833756 1.408023 -0.002462 0.0
3.660670 1.151161 0.000363 0.0
0.359526 0.830491 -0.000745 0.0
3.487982 0.140412 0.000139 0.0
3.376346 1.144195 -0.000708 0.0
0.365948 0.864096 0.005772 0.0
1.344676 0.956454 -0.001396 0.0
0.764480 1.692937 0.004017 0.0
0.058669 0.051381 -0.000033 0.0
0.579691 1.679184 0.000678 0.0
3.749110 0.547739 -0.001309 0.0
3.454606 0.521957 0.000251 0.0
2.996422 1.610077 0.003545 0.0
3.195555 0.376301 -0.000131 0.0
0.075658 0.091333 -0.001683 0.0
0.648622 0.814221 -0.000604 0.0
2.978352 0.309603 0.001522 0.0
3.705013 0.217387 -0.000255 0.0
4.077485 1.472387 0.003213 0.0
4.432470 0.166483 -0.000591 0.0
2.512261 1.078227 -0.002382 0.0
0.869456 0.123562 -0.001626 0.0
0.689765 0.331955 0.000010 0.0
2.278269 0.366662 0.000034 0.0
0.708144 0.824344 -0.000397 0.0
1.839445 0.686801 -0.001247 0.0
2.837567 1.414002 0.003608 0.0
0.572810 1.270727 0.000201 0.0
3.775308 1.003627 -0.003037 0.0
0.162475 0.750133 0.001606 0.0
3.463954 1.180043 0.000600 0.0
1.390822 1.183235 -0.000605 0.0
1.298315 0.128103 -0.001645 0.0
2.052766 0.514746 -0.000194 0.0
4.150649 0.682871 0.000494 0.0
0.203168 0.354410 0.001267 0.0
4.068451 0.927558 0.002372 0.0
1.890362 0.546358 0.006543 0.0
4.444511 1.640226 0.002169 0.0
1.674250 1.339061 -0.002517 0.0
3.141977 1.291319 0.002630 0.0
3.394171 1.487465 -0.000321 0.0
2.399008 0.621322 -0.000256 0.0
0.978298 1.422727 0.000373 0.0
3.893294 0.678854 0.003917 0.0
0.146582 1.298041 0.003193 0.0
1.930962 0.194225 -0.006041 0.0
1.687650 0.439925 0.000225 0.0
0.809327 0.104513 -0.004621 0.0
2.180818 0.137216 0.000970 0.0
1.276821 0.085559 -0.000506 0.0
4.035424 0.740678 -0.003432 0.0
0.808129 1.047379 0.002627 0.0
3.049726 1.009058 0.000162 0.0
0.195587 0.250711 0.001049 0.0
1.519143 0.487305 -0.001959 0.0
2.106697 1.609383 0.002245 0.0
4.153245 0.230761 0.000965 0.0
0.803881 0.960255 -0.000095 0.0
2.117448 0.783582 -0.005375 0.0
3.577631 1.677284 -0.006049 0.0
4.148003 1.292395 -0.005068 0.0
2.415791 0.855062 -0.004711 0.0
2.317669 0.712211 0.002064 0.0
3.895974 1.601384 0.004027 0.0
1.336830 0.164969 0.004745 0.0
0.276438 0.550044 -0.000997 0.0
2.369878 0.180756 0.000985 0.0
1.287518 0.712518 0.002792 0.0
3.626611 1.383089 0.001541 0.0
3.689915 1.197186 -0.004142 0.0
2.541514 1.227977 -0.000712 0.0
0.769264 1.275513 -0.002915 0.0
4.489177 0.683682 -0.004283 0.0
0.358702 0.437599 0.000686 0.0
0.349027 0.055821 -0.000386 0.0
4.426112 0.831318 -0.000193 0.0
2.125983 1.216427 0.002387 0.0
4.351598 0.732182 -0.000636 0.0
0.191138 0.758548 -0.001968 0.0
3.242486 1.305934 0.001710 0.0
3.964429 0.843861 0.000784 0.0
0.388290 1.483822 0.000416 0.0
3.971682 1.514499 -0.000638 0.0
0.196077 0.640755 -0.004362 0.0
4.262525 0.643136 0.000210 0.0
2.788497 0.562707 -0.001100 0.0
3.022620 0.495286 -0.001542 0.0
4.262162 1.522894 -0.000957 0.0
0.552265 1.577175 0.001455 0.0
3.058075 1.365858 -0.000172 0.0
2.975652 0.100383 0.000133 0.0
1.066474 1.535735 -0.004656 0.0
1.066717 1.694716 -0.000076 0.0
1.809116 1.313267 -0.001858 0.0
2.510289 0.889827 0.000542 0.0
3.432249 0.335109 -0.001425 0.0
2.333150 1.680802 -0.001153 0.0
3.135285 1.275169 -0.001553 0.0
0.328113 1.660404 -0.002771 0.0
