4.533383 2.104733 0.003301 0.0
1.027653 0.180412 -0.000932 0.0
0.493300 1.676635 0.003319 0.0
1.663810 2.277249 0.001535 0.0
0.084264 1.737731 0.001643 0.0
0.053146 0.502529 -0.001179 0.0
4.454568 1.687029 0.001306 0.0
1.901805 0.562859 0.002989 0.0
4.442355 2.186879 -0.000834 0.0
0.976048 1.808430 -0.001489 0.0
2.282539 1.817508 0.001204 0.0
3.984131 2.285051 -0.000260 0.0
1.014280 0.839442 0.002757 0.0
3.987011 1.395814 -0.001562 0.0
2.195628 1.164277 -0.000452 0.0
4.031054 0.697302 0.006413 0.0
3.458646 0.843769 0.002298 0.0
2.616874 2.067409 -0.003533 0.0
0.315342 0.302130 0.000015 0.0
3.768797 0.709383 -0.001518 0.0
0.266499 1.926721 -0.003908 0.0
2.646147 0.518449 0.000281 0.0
1.016101 0.400295 -0.002058 0.0
1.247533 1.186036 -0.001517 0.0
2.652472 0.004888 0.000092 0.0
0.859235 0.964552 -0.002849 0.0
4.386395 0.324177 -0.001444 0.0
3.993076 1.468315 -0.000059 0.0
0.665277 1.842681 -0.005025 0.0
2.704951 0.981354 -0.001363 0.0
2.249783 1.339546 -0.000677 0.0
3.316441 2.307481 -0.000094 0.0
2.095488 1.243510 0.002639 0.0
1.520904 1.898415 0.000425 0.0
2.733110 2.019558 -0.001416 0.0
4.366043 2.023359 0.001351 0.0
1.164709 0.238284 0.000374 0.0
3.255103 2.205276 -0.000362 0.0
2.731258 2.363304 0.003176 0.0
0.511520 1.754796 -0.004284 0.0
3.558993 1.073743 0.001541 0.0
2.632555 0.484370 0.002508 0.0
3.619076 0.287717 0.002748 0.0
2.449867 0.834144 -0.000133 0.0
1.211585 1.402992 -0.001619 0.0
4.803413 0.395537 -0.001791 0.0
3.102867 0.723308 -0.000284 0.0
4.827052 1.055796 -0.001208 0.0
0.996717 0.367363 0.001233 0.0
2.387385 0.368930 0.001872 0.0
1.172950 1.872640 0.004709 0.0
4.108679 0.474266 -0.000437 0.0
1.845694 1.582238 -0.000517 0.0
1.271297 0.220041 0.001031 0.0
3.774074 0.748661 -0.000348 0.0
2.557495 0.707389 0.000326 0.0
1.775770 1.173530 0.000736 0.0
2.358501 1.124415 -0.000030 0.0
0.911092 1.312227 -0.000097 0.0
1.520266 1.047178 0.000475 0.0
2.795636 0.132646 0.004428 0.0
2.068069 0.078757 0.000792 0.0
4.271372 1.235435 0.000598 0.0
4.655825 1.604272 0.001735 0.0
0.771179 2.380446 0.000370 0.0
1.066171 1.271039 -0.002117 0.0
2.420899 1.764856 -0.000202 0.0
1.668798 1.978740 -0.003278 0.0
3.572355 0.105842 0.001759 0.0
1.456374 0.588400 -0.003006 0.0
0.575900 2.045230 0.001339 0.0
3.982990 0.811549 0.001950 0.0
4.691393 0.880478 -0.001139 0.0
3.101827 1.988307 -0.002891 0.0
3.181451 0.000918 -0.001565 0.0
1.273656 0.343463 -0.002972 0.0
0.234460 0.192540 -0.002182 0.0
4.798205 0.347186 -0.002243 0.0
0.471148 1.511426 -0.001107 0.0
3.792343 0.903825 -0.000327 0.0
2.662636 1.645943 0.004519 0.0
4.055382 0.787351 -0.005123 0.0
3.403464 2.219245 -0.000787 0.0
0.665815 1.132720 0.005096 0.0
4.769191 0.949804 0.000450 0.0
3.573093 1.438035 0.002633 0.0
2.194676 2.212612 0.003185 0.0
0.608643 0.725014 -0.000107 0.0
4.409733 1.490635 0.001091 0.0
0.352948 0.722122 -0.001281 0.0
1.479385 1.395633 -0.000878 0.0
4.092930 1.518207 0.004360 0.0
2.357489 1.005401 -0.003430 0.0
4.396164 1.792491 0.000994 0.0
4.309778 0.305030 -0.000660 0.0
2.038743 1.651170 0.002714 0.0
3.686987 2.326123 0.001238 0.0
3.286477 0.249610 -0.003075 0.0
3.588694 2.115517 -0.000854 0.0
2.453146 0.080786 0.002058 0.0
1.497470 0.455987 -0.003748 0.0
3.373302 0.935458 0.002419 0.0
0.011474 2.290550 -0.000931 0.0
0.145207 0.768957 0.001651 0.0
2.200045 1.767941 0.002457 0.0
2.108403 1.988385 0.001579 0.0
2.193308 1.657767 0.000353 0.0
2.906408 1.214619 0.001161 0.0
3.089600 1.601570 0.003753 0.0
2.081317 1.948861 -0.003976 0.0
4.300622 0.824810 -0.003876 0.0
3.269496 0.856415 -0.000195 0.0
0.187378 1.165068 0.002726 0.0
0.821488 0.738822 0.000439 0.0
3.923720 1.611075 -0.000869 0.0
1.899839 1.176812 0.002094 0.0
3.151758 1.163133 -0.001025 0.0
0.139578 0.095068 -0.003591 0.0
4.306144 2.208947 0.000423 0.0
1.923028 2.045273 0.002256 0.0
3.380751 1.407023 -0.005799 0.0
0.739248 0.946273 0.000325 0.0
3.624992 1.113957 0.002682 0.0
1.389322 0.288027 0.001009 0.0
0.532157 0.922267 -0.000816 0.0
0.388551 0.776603 -0.003224 0.0
1.801690 1.770686 -0.003095 0.0
0.732246 1.595502 -0.001079 0.0
1.522058 1.487724 0.001829 0.0
0.723795 2.193118 0.002386 0.0
1.264804 2.000603 -0.001600 0.0
4.241369 1.592404 0.000090 0.0
3.458280 0.237239 0.004617 0.0
1.538843 0.295756 -0.003723 0.0
2.748435 0.631703 -0.001057 0.0
1.549476 0.177673 -0.002523 0.0
1.879723 1.086479 0.000832 0.0
3.895302 0.003134 0.005248 0.0
3.606065 1.179001 0.001981 0.0
0.892906 1.783258 0.001238 0.0
3.458896 0.773079 -0.000332 0.0
0.926747 1.388021 0.001538 0.0
4.214718 1.828858 0.005446 0.0
2.243175 2.189446 0.000322 0.0
4.534064 0.248872 -0.001254 0.0
1.714009 2.189546 -0.002413 0.0
3.779218 2.035707 0.003009 0.0
0.099597 1.662545 0.002564 0.0
1.148039 1.113657 -0.005002 0.0
2.947679 0.738351 -0.000427 0.0
1.147095 2.102084 0.001963 0.0
1.503521 0.042148 -0.000910 0.0
4.505357 0.169364 -0.000255 0.0
2.660482 0.383181 0.001680 0.0
3.356908 2.255460 -0.001958 0.0
1.690700 0.365414 0.000723 0.0
4.081215 1.784155 -0.002763 0.0
0.323131 1.040750 -0.003813 0.0
1.585793 2.223761 -0.001761 0.0
3.397052 1.577598 -0.003185 0.0
2.295779 0.316210 0.002345 0.0
3.862142 0.032935 0.002110 0.0
2.056609 0.631725 -0.003462 0.0
3.960537 1.167566 0.002947 0.0
3.208212 0.179065 0.002040 0.0
3.313666 2.192021 -0.000541 0.0
4.774635 0.336384 -0.001447 0.0
2.746331 0.433040 0.000952 0.0
3.793530 2.092358 0.002971 0.0
0.824189 1.208227 -0.000535 0.0
4.215210 0.073620 -0.001758 0.0
4.533124 0.400779 -0.001533 0.0
0.334866 2.015959 -0.001108 0.0
1.265080 1.125659 -0.001062 0.0
4.200274 0.884455 0.002646 0.0
3.611079 1.170630 -0.002291 0.0
3.526248 1.996965 -0.003367 0.0
4.583259 0.783752 -0.004779 0.0
3.247337 1.244293 0.005152 0.0
2.241259 1.329273 -0.001751 0.0
2.405716 0.243664 0.001919 0.0
4.092999 0.271488 0.000876 0.0
1.654635 0.778648 0.000760 0.0
2.713872 1.130111 -0.002029 0.0
3.809863 0.675586 0.000907 0.0
2.993398 1.978647 0.001589 0.0
0.380662 0.407928 -0.003198 0.0
3.203435 1.397047 -0.002948 0.0
1.251724 1.167320 0.001475 0.0
4.573042 1.723825 0.002240 0.0
4.127889 0.152352 -0.002760 0.0
3.266021 1.166221 0.002708 0.0
2.431873 2.191794 0.000742 0.0
0.652018 0.174970 -0.001956 0.0
4.747671 2.311218 -0.000876 0.0
1.624615 0.989628 -0.003839 0.0
4.021360 0.529251 -0.002828 0.0
0.069305 1.536480 0.000789 0.0
4.485792 1.380583 0.002165 0.0
1.289722 2.337619 -0.000709 0.0
1.035807 0.329868 -0.002038 0.0
3.238441 1.987732 -0.002015 0.0
2.109898 0.162871 0.004089 0.0
0.073206 2.352813 0.002309 0.0
3.578610 1.381806 0.003315 0.0
2.281518 0.588213 0.001174 0.0
3.105827 1.150386 0.007060 0.0
0.826268 0.683482 -0.004324 0.0
1.101457 1.565535 -0.001650 0.0
1.000640 0.727762 -0.004209 0.0
2.740861 1.567396 0.002962 0.0
0.518124 0.382136 0.000161 0.0
3.608249 1.330455 -0.000324 0.0
0.663115 0.468417 0.000061 0.0
0.509207 1.347263 -0.001884 0.0
1.002612 1.451431 0.003818 0.0
4.349448 1.368221 -0.001125 0.0
0.194632 0.835290 0.000518 0.0
0.980801 2.338578 -0.004019 0.0
0.392488 2.120773 -0.001270 0.0
3.186919 0.038312 -0.000973 0.0
1.910932 0.458079 0.005104 0.0
4.824219 1.440724 -0.000068 0.0
2.437140 0.494859 -0.001596 0.0
2.250668 1.035863 0.003270 0.0
1.850214 0.284416 -0.000436 0.0
4.202936 0.728192 -0.000290 0.0
0.921758 0.463870 -0.000304 0.0
3.309904 1.307912 -0.001891 0.0
1.142660 1.903225 -0.006254 0.0
3.058010 0.706581 -0.002019 0.0
2.328574 0.725304 -0.001587 0.0
3.491785 0.073931 -0.000193 0.0
4.280166 1.598336 0.001783 0.0
4.720617 2.176337 -0.000364 0.0
2.477905 0.667926 -0.006102 0.0
1.153136 0.206915 -0.001616 0.0
2.836397 1.532992 -0.000230 0.0
4.536457 0.700694 0.005040 0.0
2.585210 0.709174 0.001105 0.0
1.645012 1.450669 0.000687 0.0
0.503751 1.315177 0.003727 0.0
3.118573 0.544592 -0.000889 0.0
1.856983 1.143926 -0.003210 0.0
0.964878 0.039554 0.001077 0.0
4.376436 1.881384 0.000601 0.0
2.646671 0.164072 -0.004949 0.0
3.604033 2.394650 -0.003600 0.0
3.605314 0.345648 -0.001910 0.0
2.763455 0.495832 -0.000803 0.0
1.006316 1.024273 -0.001865 0.0
3.145885 0.772982 -0.003123 0.0
0.819879 2.039340 0.003027 0.0
4.276819 0.468155 -0.001246 0.0
2.562332 1.842825 -0.001647 0.0
1.774647 1.274090 0.001679 0.0
0.766352 2.141614 0.000423 0.0
2.389244 0.890279 -0.001350 0.0
3.511104 0.274774 0.000727 0.0
1.369897 0.269614 0.001313 0.0
4.113495 1.371886 0.000116 0.0
4.168555 0.727610 -0.002453 0.0
3.282974 2.027065 -0.000910 0.0
2.897579 1.521860 0.001515 0.0
2.376631 2.131306 -0.001002 0.0
1.456860 1.950648 -0.002558 0.0
2.093414 0.710515 0.000776 0.0
0.069828 2.382321 0.004847 0.0
2.504740 0.565258 0.001399 0.0
3.381168 0.426284 0.003628 0.0
2.211344 2.280620 0.001021 0.0
0.822538 1.249704 0.001332 0.0
3.103166 2.038531 0.000913 0.0
4.383621 0.282571 -0.000220 0.0
4.403036 0.633603 -0.002703 0.0
0.697342 0.383473 0.002953 0.0
4.787001 1.278436 -0.000855 0.0
0.670686 1.443933 0.001316 0.0
0.774425 1.714406 0.000295 0.0
3.246823 1.164533 -0.001302 0.0
1.240208 1.030113 -0.003020 0.0
2.123343 1.138658 0.001954 0.0
0.996017 0.507432 -0.001606 0.0
3.395658 0.555590 0.002327 0.0
4.157153 2.060129 -0.005321 0.0
3.456396 1.053513 0.002600 0.0
3.477838 0.055829 0.002798 0.0
2.000270 1.070398 -0.001345 0.0
3.961950 0.239696 0.002897 0.0
3.857803 1.952586 0.001556 0.0
4.372575 1.885829 0.002480 0.0
0.422681 0.960642 -0.001168 0.0
4.623404 0.134531 -0.003073 0.0
2.017390 0.374246 0.000868 0.0
4.747863 0.162075 -0.003478 0.0
2.011132 1.639346 0.009426 0.0
2.930548 0.486714 0.004026 0.0
3.362338 1.645482 0.003357 0.0
0.151389 0.068906 -0.002478 0.0
0.004247 2.375797 -0.000426 0.0
0.960471 1.588813 -0.002331 0.0
4.627602 0.023280 -0.001384 0.0
3.065542 2.082009 -0.001704 0.0
2.394526 0.865764 -0.003356 0.0
4.745703 0.764179 -0.000320 0.0
4.563687 0.370681 0.000355 0.0
0.276836 2.098276 -0.000791 0.0
1.350286 2.366707 0.000936 0.0
1.169311 0.929710 -0.001872 0.0
0.074531 1.959184 0.001103 0.0
0.667258 0.380445 0.000121 0.0
4.700734 0.189362 -0.001832 0.0
4.599307 0.914629 -0.002116 0.0
3.454540 0.629535 -0.001309 0.0
0.732419 1.878904 0.000494 0.0
2.552374 1.319437 0.001709 0.0
0.973199 0.343275 0.001302 0.0
3.726623 1.700679 -0.004087 0.0
3.663326 0.408995 -0.001815 0.0
3.637621 2.312814 0.000811 0.0
3.622433 0.340841 -0.000269 0.0
2.621942 2.147440 -0.001147 0.0
4.136687 2.075704 0.000904 0.0
2.474080 2.028631 0.002148 0.0
4.054595 1.150250 0.004298 0.0
1.502241 1.921229 -0.000202 0.0
3.770659 0.900465 0.004016 0.0
1.195245 1.349818 0.004635 0.0
2.817377 2.331014 -0.006681 0.0
1.593404 1.276769 -0.002261 0.0
1.974802 1.056874 -0.000443 0.0
0.663429 1.615328 0.002510 0.0
2.274374 1.970941 -0.001546 0.0
2.855476 1.458910 -0.002359 0.0
2.292084 0.109211 -0.000772 0.0
3.609769 0.814808 -0.004508 0.0
2.103278 0.584082 0.004029 0.0
4.263820 0.152411 0.001560 0.0
4.669714 1.901239 -0.001360 0.0
3.855595 1.529535 -0.000956 0.0
2.224722 1.920723 0.004415 0.0
3.735160 1.713413 0.003561 0.0
3.341906 2.060417 0.003986 0.0
2.322433 1.355927 -0.004615 0.0
1.835395 0.328520 -0.000756 0.0
0.553604 2.087648 0.001901 0.0
2.361166 0.458257 0.002181 0.0
0.364607 0.276930 -0.002136 0.0
3.505575 1.180295 -0.001038 0.0
3.847504 0.447327 0.000959 0.0
1.155202 1.564432 -0.001770 0.0
4.331503 1.952174 0.000641 0.0
3.718690 1.815436 -0.003183 0.0
2.898503 1.265057 -0.000296 0.0
3.544269 2.191367 0.000929 0.0
0.864590 2.160954 -0.000090 0.0
4.806877 1.003745 -0.000885 0.0
3.193681 1.339554 0.003086 0.0
3.450700 2.265889 0.000633 0.0
1.107104 2.020368 0.000118 0.0
2.570517 0.405022 -0.001310 0.0
4.808776 1.031208 -0.001369 0.0
3.696479 0.598663 -0.003081 0.0
1.073422 2.025801 0.007383 0.0
2.357715 2.061880 -0.003675 0.0
0.806390 0.055723 -0.000205 0.0
3.965704 1.336059 -0.000053 0.0
0.123698 0.655768 -0.002740 0.0
1.570867 1.664246 -0.002852 0.0
4.518329 2.218417 -0.000864 0.0
4.801792 0.475819 -0.001030 0.0
2.171575 1.480370 0.000784 0.0
4.152313 0.299205 -0.001943 0.0
3.935751 0.091021 0.000457 0.0
0.406237 0.921036 0.002954 0.0
1.751016 1.420119 -0.000351 0.0
1.339329 1.475553 0.001088 0.0
0.040561 1.807058 0.007243 0.0
0.512527 0.848632 0.001474 0.0
2.828136 0.251653 0.005174 0.0
2.088513 0.980707 -0.001967 0.0
3.138375 2.179317 0.002153 0.0
4.658109 0.227654 -0.001063 0.0
0.892766 0.133917 -0.000864 0.0
2.722870 1.263797 0.003999 0.0
0.627890 0.166362 0.000959 0.0
2.379397 1.784160 0.001767 0.0
0.665905 1.419080 -0.000584 0.0
0.464810 2.025029 0.000495 0.0
1.585192 1.885741 0.002347 0.0
3.486976 0.493254 0.003234 0.0
2.719798 1.341517 -0.001644 0.0
3.347637 0.216420 0.002079 0.0
0.965539 0.283144 0.000190 0.0
0.132937 1.661461 0.005732 0.0
4.196922 0.808462 -0.000298 0.0
3.999850 0.883094 -0.001704 0.0
0.506076 1.129155 0.003155 0.0
4.397986 1.305117 0.001249 0.0
4.309696 0.343734 0.000993 0.0
3.749577 0.703829 -0.003221 0.0
3.136502 0.797315 -0.001821 0.0
1.747916 2.329099 0.002807 0.0
2.728500 0.706439 -0.000968 0.0
2.953376 0.066694 -0.003425 0.0
0.840155 0.257388 -0.000819 0.0
4.082193 0.307911 0.001651 0.0
4.482203 1.985513 -0.000302 0.0
3.499953 1.215632 -0.003430 0.0
2.044922 0.217196 0.004275 0.0
1.291073 1.282284 -0.001250 0.0
1.703168 0.333426 -0.004729 0.0
4.091184 1.413974 0.002318 0.0
0.592767 0.497093 0.001362 0.0
4.387925 1.573981 -0.001741 0.0
2.303751 0.233718 0.003744 0.0
3.223367 0.681186 0.005633 0.0
2.926521 0.700041 -0.001678 0.0
2.475741 0.162945 0.006115 0.0
4.015779 1.779987 -0.001262 0.0
0.546776 1.424763 -0.002521 0.0
1.162666 0.688298 -0.000199 0.0
1.121318 1.521790 0.000035 0.0
1.683305 2.055235 -0.001431 0.0
1.515578 0.300286 0.000765 0.0
2.918594 0.319300 0.001810 0.0
1.496063 1.961538 0.000247 0.0
1.278418 0.982421 -0.002954 0.0
0.148188 0.492668 -0.000141 0.0
4.630230 1.703757 0.006683 0.0
0.327898 2.361440 0.002003 0.0
2.293461 0.972323 -0.003609 0.0
2.610007 0.245618 -0.002756 0.0
4.260004 1.855428 -0.001397 0.0
4.201841 2.277419 -0.001090 0.0
2.381789 1.301965 -0.003148 0.0
1.269086 0.062150 -0.003944 0.0
3.668076 0.650451 0.004601 0.0
1.106170 1.799785 -0.004009 0.0
4.738162 0.252336 0.001263 0.0
3.671237 0.311094 0.001292 0.0
3.244655 1.721434 0.002841 0.0
1.598118 0.510608 -0.002091 0.0
1.209368 0.949399 0.000106 0.0
1.016182 1.394425 0.001275 0.0
3.428767 1.281216 -0.001006 0.0
0.061832 2.377463 -0.001491 0.0
2.159929 0.268319 -0.004274 0.0
1.468365 0.559873 0.002226 0.0
4.071678 1.302838 -0.002514 0.0
0.480059 1.380025 0.002783 0.0
1.511691 1.513513 0.002806 0.0
3.710344 0.498773 0.000347 0.0
4.525936 0.595841 -0.002649 0.0
2.421969 2.209839 -0.000639 0.0
1.886358 2.218731 -0.002775 0.0
0.521719 0.819546 -0.003164 0.0
4.244549 1.628318 -0.000974 0.0
3.959465 1.218011 0.002798 0.0
3.869172 0.664195 -0.001895 0.0
1.596062 1.826509 -0.001499 0.0
1.720928 0.072976 0.000324 0.0
0.641290 2.103355 0.003894 0.0
2.537866 1.436602 0.002364 0.0
4.385404 0.211887 0.002102 0.0
0.935722 1.605919 -0.003495 0.0
2.935969 0.361306 -0.001278 0.0
3.158576 0.049840 0.005111 0.0
2.377929 2.293089 0.002723 0.0
0.467550 2.288913 0.004059 0.0
0.049657 0.073646 -0.000109 0.0
4.539060 2.241205 0.001659 0.0
2.274058 2.154534 -0.001774 0.0
4.295150 0.544884 0.000302 0.0
1.481615 0.088088 0.001126 0.0
3.500504 0.390117 -0.001963 0.0
0.628396 1.752202 0.001230 0.0
0.478697 2.193791 -0.001107 0.0
2.274233 1.029919 0.000135 0.0
2.282950 1.048320 0.002798 0.0
1.051465 0.051714 0.001681 0.0
0.352662 1.922476 -0.000361 0.0
0.560190 2.043707 -0.003172 0.0
2.013104 1.715265 -0.002781 0.0
0.281316 1.587526 -0.000518 0.0
0.912385 2.080216 0.003021 0.0
1.973081 1.186501 0.005603 0.0
2.262089 2.285864 0.001112 0.0
4.348429 1.005868 -0.000344 0.0
4.062743 2.332841 0.001884 0.0
3.331873 2.308636 0.000272 0.0
0.451900 0.846566 -0.000098 0.0
2.478337 0.071040 0.000070 0.0
1.842434 1.621386 -0.000252 0.0
4.278929 0.838062 0.000430 0.0
0.929473 2.016892 0.000534 0.0
4.162404 1.023906 0.002144 0.0
2.360295 1.353532 0.002848 0.0
4.793698 1.097164 -0.001310 0.0
1.680643 0.240191 0.003582 0.0
4.363267 0.324971 -0.002090 0.0
1.573264 1.031958 -0.001978 0.0
3.045839 0.263961 0.003711 0.0
1.768175 0.637860 0.000061 0.0
1.239686 1.949614 -0.000780 0.0
3.498784 0.760654 0.000899 0.0
0.052809 2.357971 -0.000583 0.0
0.730263 0.350415 0.001091 0.0
0.947495 2.245039 -0.004501 0.0
0.599225 2.242615 -0.004639 0.0
3.921376 1.383027 0.002463 0.0
0.835989 1.415375 -0.003101 0.0
2.919764 2.304240 -0.000826 0.0
2.306037 2.328685 -0.003784 0.0
0.443675 0.399613 -0.001952 0.0
4.018784 1.939711 -0.000703 0.0
2.412484 2.125524 -0.003863 0.0
1.322743 1.757657 0.001491 0.0
2.833832 1.903613 0.004235 0.0
2.263955 0.089594 0.001279 0.0
0.991864 0.049242 -0.004978 0.0
1.684206 0.726462 0.001147 0.0
2.448854 0.801378 -0.001429 0.0
2.986014 0.411630 0.000871 0.0
0.404816 0.750590 -0.000799 0.0
4.138290 1.112322 0.009216 0.0
3.620417 1.260834 0.002201 0.0
4.525491 0.066649 -0.001795 0.0
0.425416 0.011715 -0.002070 0.0
2.091123 0.987293 0.002352 0.0
2.848879 1.629543 0.003395 0.0
2.879917 0.798789 -0.000888 0.0
3.376015 0.181341 0.002230 0.0
4.009557 2.324764 -0.002305 0.0
1.787543 0.326149 0.002501 0.0
2.250848 2.228110 -0.000303 0.0
3.169086 1.713131 0.003311 0.0
2.359691 1.196553 0.003048 0.0
2.581472 0.788556 0.001714 0.0
4.192736 0.719576 -0.000561 0.0
3.240953 1.386432 0.006898 0.0
2.688430 1.056584 0.002720 0.0
2.839817 1.831667 -0.001555 0.0
4.552743 0.130918 -0.001715 0.0
1.841675 1.589219 0.000737 0.0
4.106292 1.076519 -0.003584 0.0
2.451112 0.199794 0.003366 0.0
2.441752 1.369133 0.001304 0.0
4.704096 0.524406 -0.000547 0.0
3.831006 0.263367 0.000838 0.0
3.759813 0.986797 -0.002170 0.0
4.700562 2.013064 0.002778 0.0
0.586507 0.778530 -0.000187 0.0
0.964393 0.365245 0.003158 0.0
4.469279 0.460621 0.000350 0.0
1.666966 0.510504 0.001345 0.0
3.802006 0.229128 0.001253 0.0
0.015601 1.010532 -0.002656 0.0
1.244853 0.134385 0.002530 0.0
0.078397 1.996440 -0.003236 0.0
2.010848 2.337897 -0.000469 0.0
3.623897 0.728391 0.002364 0.0
2.811256 0.587694 0.001748 0.0
4.227866 2.171240 0.000392 0.0
1.962791 1.343380 0.000671 0.0
1.876427 0.110740 -0.000764 0.0
2.237823 0.982074 0.001854 0.0
3.525280 0.149219 -0.003192 0.0
4.821057 1.413301 0.002940 0.0
0.529135 2.247465 0.001108 0.0
1.795774 2.270426 -0.003788 0.0
2.410600 0.609891 0.001898 0.0
2.247396 1.561715 -0.003544 0.0
1.260415 0.290348 -0.000140 0.0
4.547499 0.437721 -0.003171 0.0
1.795313 1.296192 -0.000414 0.0
2.815170 0.103260 0.000323 0.0
3.801483 1.709707 -0.001441 0.0
1.650566 2.183623 0.002641 0.0
1.578525 1.937243 -0.003471 0.0
2.516703 0.808297 -0.000629 0.0
4.529972 0.835169 -0.000922 0.0
2.720825 2.242227 0.005432 0.0
3.838034 0.661662 0.000401 0.0
3.015536 1.069641 -0.002123 0.0
3.011934 1.746366 0.000985 0.0
4.767575 0.520679 -0.000761 0.0
0.050166 1.938373 0.000663 0.0
4.201972 1.543225 0.001803 0.0
0.337188 1.823951 0.002753 0.0
4.294720 0.658580 -0.002383 0.0
1.401362 0.030283 0.003185 0.0
4.549428 2.101799 -0.000519 0.0
0.989580 0.768048 0.002349 0.0
4.217284 2.040815 0.001686 0.0
2.728395 0.223139 -0.000049 0.0
3.011312 0.636291 0.001368 0.0
1.364332 0.799669 -0.000255 0.0
0.307225 0.312624 -0.003911 0.0
2.910694 1.669533 -0.000450 0.0
0.483396 2.072761 0.004902 0.0
1.698237 0.133743 0.001703 0.0
1.177109 1.843539 0.002295 0.0
1.620218 1.535628 0.000205 0.0
0.025349 2.211694 -0.000135 0.0
1.763727 0.289610 -0.000321 0.0
2.148703 1.828014 0.002134 0.0
3.866722 0.519761 0.000168 0.0
0.639846 0.567093 -0.002226 0.0
2.534028 1.707773 0.001046 0.0
0.341643 1.119448 -0.000718 0.0
2.441072 0.990991 0.002275 0.0
0.213455 1.588316 -0.004070 0.0
0.279606 0.267135 -0.001303 0.0
2.077958 1.129009 -0.001723 0.0
4.562013 0.597624 0.002319 0.0
0.859867 1.828223 -0.001746 0.0
4.391021 1.649987 0.003754 0.0
2.016824 1.896556 0.001634 0.0
3.450128 1.109318 0.002442 0.0
3.104782 1.829855 -0.005149 0.0
1.684457 1.688194 -0.002311 0.0
0.932312 2.152600 -0.000622 0.0
2.211128 0.881283 0.001947 0.0
2.994566 0.684566 0.000071 0.0
2.058119 0.275017 -0.002305 0.0
2.233034 2.018299 0.001135 0.0
0.913264 0.829261 -0.000960 0.0
4.149856 0.341376 -0.004397 0.0
1.565529 0.687774 -0.003742 0.0
2.740983 0.635688 0.001000 0.0
0.616493 1.745747 -0.000424 0.0
3.237481 0.293289 0.001212 0.0
0.610068 2.139027 -0.001655 0.0
1.763666 0.533864 0.003586 0.0
0.550796 1.808738 0.001980 0.0
1.914666 0.267796 -0.002087 0.0
3.451492 0.372522 0.001666 0.0
0.806443 1.309923 0.003033 0.0
4.400630 1.805126 -0.002518 0.0
4.076609 0.217805 0.002668 0.0
2.413198 2.289231 0.004296 0.0
0.067375 1.773958 -0.000929 0.0
3.831607 1.965864 0.001239 0.0
2.396148 0.233559 0.002623 0.0
1.840100 1.583616 0.001265 0.0
3.108476 0.326987 0.000621 0.0
0.517853 1.246552 0.001706 0.0
4.579981 1.902341 -0.003541 0.0
1.873861 1.826572 0.003237 0.0
0.345559 0.590535 0.003347 0.0
4.548371 0.221244 -0.001784 0.0
2.979686 2.167006 -0.001707 0.0
2.344304 1.710969 -0.001547 0.0
2.101638 1.350251 -0.001003 0.0
1.458838 0.404214 -0.002299 0.0
4.648332 0.628520 -0.001420 0.0
2.878144 2.202416 0.002827 0.0
3.897663 2.243767 -0.002782 0.0
2.608723 1.066541 -0.000418 0.0
3.354150 0.642132 0.000976 0.0
1.051033 0.851663 0.002342 0.0
4.268542 1.244794 -0.000787 0.0
0.144007 2.112687 0.003713 0.0
3.075072 1.411459 -0.001069 0.0
0.234920 0.917783 -0.000810 0.0
0.004400 1.899578 0.004210 0.0
1.595313 0.697476 0.004694 0.0
0.261958 0.594209 -0.003618 0.0
3.642593 2.195163 -0.002385 0.0
1.930385 1.487925 0.000520 0.0
4.506451 1.496879 0.001975 0.0
1.068716 1.903981 -0.000195 0.0
1.008755 0.588490 0.001562 0.0
3.458726 2.115836 -0.002139 0.0
4.302569 0.677393 -0.004482 0.0
4.313107 1.763688 -0.003229 0.0
0.135837 1.740278 -0.000869 0.0
0.805716 1.132359 -0.000663 0.0
4.403223 1.994128 -0.003238 0.0
4.615057 0.879283 0.000281 0.0
3.504914 0.215120 -0.000854 0.0
3.868009 2.319521 -0.000502 0.0
3.782798 0.705917 0.002134 0.0
4.514826 0.871003 0.000816 0.0
4.255934 1.708569 0.002682 0.0
4.262457 1.467134 -0.001087 0.0
0.910828 0.869547 0.000006 0.0
1.404996 1.135017 0.001915 0.0
0.370175 1.040923 -0.001100 0.0
0.318654 2.278259 -0.001486 0.0
1.557128 0.868852 -0.002871 0.0
4.113532 0.003632 0.006542 0.0
3.372495 1.793420 -0.002511 0.0
2.878558 0.848505 0.004251 0.0
0.189357 0.464754 -0.000503 0.0
3.159535 0.479704 0.004860 0.0
3.104311 1.693942 0.003688 0.0
2.209540 0.557218 0.004420 0.0
3.165665 1.064695 -0.000201 0.0
2.189075 1.683411 -0.000866 0.0
2.180330 1.768648 -0.001400 0.0
3.347492 0.384667 -0.004229 0.0
4.392765 0.952624 0.003103 0.0
0.443685 1.850224 0.001157 0.0
2.104692 0.454744 0.001052 0.0
4.144853 1.453851 -0.003742 0.0
3.513004 0.492260 0.001460 0.0
4.053399 1.355001 -0.000051 0.0
3.020559 0.842231 0.006500 0.0
0.339000 2.172309 0.003336 0.0
2.280165 1.601711 0.002411 0.0
0.781826 0.818203 -0.002240 0.0
4.793339 1.986063 0.001772 0.0
0.730419 1.897433 0.003454 0.0
4.026030 1.376864 0.003008 0.0
4.276389 1.440069 0.001370 0.0
4.686576 0.116782 -0.002622 0.0
0.838335 1.152342 -0.001360 0.0
0.135560 0.097550 -0.000714 0.0
3.733201 2.292977 -0.001849 0.0
3.073607 2.230717 0.001346 0.0
2.831913 0.345962 -0.002247 0.0
1.119889 0.423523 -0.001127 0.0
2.211097 1.528810 -0.000071 0.0
4.432307 1.661926 0.002006 0.0
1.389830 1.659065 -0.001005 0.0
0.587859 0.213187 -0.001948 0.0
4.011363 0.314317 -0.000921 0.0
3.788067 0.406060 -0.002351 0.0
4.536756 0.232008 -0.000321 0.0
4.622848 1.075827 -0.000252 0.0
0.742653 0.334795 -0.001049 0.0
0.448555 0.312201 0.001644 0.0
1.121789 1.640802 0.001572 0.0
1.841537 0.557487 0.000093 0.0
0.523854 0.602097 0.002514 0.0
4.602507 1.648648 0.000963 0.0
1.555069 1.335335 0.000190 0.0
1.183404 1.285495 -0.002319 0.0
2.809665 2.289609 -0.004280 0.0
1.918468 0.202818 -0.002059 0.0
1.488148 1.068588 0.003629 0.0
3.276613 1.353689 -0.001422 0.0
3.284898 1.530681 0.000153 0.0
3.189694 1.523781 -0.001262 0.0
4.541205 0.529036 -0.000592 0.0
1.434263 2.124014 -0.000170 0.0
2.482647 0.332431 -0.001527 0.0
1.873817 1.035327 -0.002281 0.0
2.942239 0.929322 0.000668 0.0
1.032665 1.126719 -0.001006 0.0
3.477235 0.062961 -0.000120 0.0
4.340057 1.411270 -0.001671 0.0
4.282831 1.416344 0.002173 0.0
2.759444 2.218035 -0.000435 0.0
3.266138 1.260674 0.000843 0.0
1.854266 1.230910 -0.003010 0.0
4.100280 1.619364 -0.000686 0.0
1.210419 1.637555 -0.001869 0.0
1.649766 1.398079 -0.000455 0.0
1.372067 0.836477 0.000902 0.0
3.707597 2.301916 0.002994 0.0
4.231453 0.734628 0.000176 0.0
0.523732 0.653411 -0.006231 0.0
2.834105 1.529756 0.002480 0.0
3.120204 0.448121 0.000401 0.0
2.739895 0.974116 -0.003691 0.0
3.670414 1.121660 -0.000013 0.0
3.183962 0.305630 -0.003318 0.0
0.049710 1.095166 -0.001741 0.0
2.145347 0.475983 -0.000061 0.0
1.253731 0.479186 0.000698 0.0
2.537995 0.039659 0.001015 0.0
1.281022 2.056970 -0.001155 0.0
3.211016 2.014716 0.003139 0.0
2.892371 1.287600 -0.000686 0.0
1.601627 1.144579 -0.002964 0.0
0.735533 1.934428 -0.003047 0.0
1.756705 0.544979 -0.001230 0.0
4.587448 0.946991 -0.000958 0.0
3.952281 0.079621 0.001617 0.0
2.830928 2.021740 -0.001923 0.0
0.624561 1.228884 0.001772 0.0
0.725771 0.497570 -0.000972 0.0
1.541608 0.369158 0.001892 0.0
1.362960 0.622864 -0.003985 0.0
1.621860 0.129667 0.002366 0.0
4.167454 2.352157 -0.001308 0.0
2.744950 1.003783 -0.000257 0.0
2.217480 0.633103 0.002703 0.0
1.864658 0.720065 -0.000762 0.0
3.866018 0.656223 -0.001645 0.0
4.060215 1.687930 -0.001020 0.0
3.605963 0.205249 0.002066 0.0
0.999506 0.018081 -0.002237 0.0
4.631577 1.763230 0.001852 0.0
4.054666 0.371511 0.002511 0.0
2.855941 0.877125 -0.000618 0.0
2.853253 0.123634 -0.004695 0.0
1.169720 0.442938 0.000504 0.0
2.875667 0.240795 -0.001644 0.0
3.726949 1.952776 0.000251 0.0
0.458243 0.447638 -0.003484 0.0
1.701822 1.143735 -0.001349 0.0
0.224011 0.241952 -0.000820 0.0
1.056799 0.465697 0.003131 0.0
1.992754 1.480727 0.000643 0.0
0.162195 1.271337 0.001077 0.0
1.610288 1.168271 -0.006192 0.0
1.777963 2.348326 0.005722 0.0
3.694448 1.817716 0.001925 0.0
2.213905 1.812422 -0.000040 0.0
0.364726 0.226172 -0.000617 0.0
1.917316 0.633738 -0.004334 0.0
3.460363 0.925498 0.002522 0.0
2.630007 0.514863 -0.001263 0.0
4.459758 1.978327 0.002391 0.0
2.483595 0.887839 0.001634 0.0
1.953552 0.508675 -0.000433 0.0
4.301409 2.046183 -0.000917 0.0
3.002376 1.175055 0.002666 0.0
3.989258 1.233638 -0.000663 0.0
1.240693 0.024759 -0.002827 0.0
3.539513 0.562515 0.001861 0.0
1.536978 0.479439 -0.001871 0.0
1.190212 2.232390 0.003253 0.0
2.016737 1.831551 -0.000277 0.0
2.673662 0.481978 -0.003666 0.0
4.632336 1.663014 -0.001871 0.0
1.321821 1.048303 0.001423 0.0
4.591703 1.298325 0.002461 0.0
4.753149 1.232624 -0.000068 0.0
4.167088 1.098664 -0.002539 0.0
3.982551 1.561484 -0.000909 0.0
4.226193 1.128195 0.001190 0.0
4.593015 0.412495 0.003766 0.0
2.574623 1.074402 0.004004 0.0
3.327447 1.645954 -0.001447 0.0
2.764980 2.133584 0.004469 0.0
4.671181 1.467307 -0.001840 0.0
2.646722 2.321561 0.001866 0.0
4.330546 1.561601 0.004290 0.0
2.987020 1.046372 -0.002367 0.0
3.610900 1.316850 0.000173 0.0
4.383355 0.874848 -0.000365 0.0
1.233582 0.479613 0.000854 0.0
2.811878 2.075899 -0.004127 0.0
1.299217 0.673513 0.000857 0.0
2.597167 2.215327 -0.001339 0.0
4.305953 1.070002 0.002329 0.0
1.197480 0.024814 0.001638 0.0
0.924026 1.245140 0.003274 0.0
3.857258 1.011697 -0.000710 0.0
3.965457 1.820669 -0.002236 0.0
3.355443 0.512798 -0.000718 0.0
3.148688 2.113037 0.000473 0.0
2.075747 0.246230 0.001482 0.0
0.743673 1.584266 -0.000440 0.0
2.243024 1.690162 -0.001911 0.0
3.141523 2.214596 -0.000124 0.0
4.230777 1.688108 -0.004432 0.0
4.559050 2.187075 -0.000364 0.0
1.033473 1.713932 0.002511 0.0
1.353985 0.008336 0.001745 0.0
1.832173 0.042446 -0.000586 0.0
4.464561 1.024117 0.001424 0.0
2.572307 1.006767 0.005818 0.0
2.459715 0.980209 0.001517 0.0
4.546240 0.669872 -0.002064 0.0
3.043824 0.731054 0.000215 0.0
0.443711 2.294802 -0.002499 0.0
3.921730 0.048339 0.001026 0.0
0.916669 2.272769 -0.004162 0.0
2.880967 0.358078 0.001671 0.0
1.745364 1.557116 -0.003070 0.0
0.608440 0.987621 -0.001436 0.0
2.197356 1.218985 0.001195 0.0
3.235125 1.808926 0.000259 0.0
3.182763 0.370831 -0.002770 0.0
3.293893 1.541510 0.001802 0.0
3.168190 0.541820 0.001144 0.0
1.466130 1.297933 0.000030 0.0
1.946933 0.795063 -0.000176 0.0
1.147453 0.581593 -0.000742 0.0
1.297122 0.175233 0.002761 0.0
4.698224 2.309578 -0.001234 0.0
1.305164 1.560691 0.001165 0.0
0.830276 0.051489 -0.000862 0.0
0.494221 0.016177 -0.000352 0.0
2.856320 0.740289 0.000369 0.0
1.201008 1.052070 0.001306 0.0
3.628442 2.009188 0.003967 0.0
3.166657 1.718938 0.004095 0.0
0.209265 2.061713 0.000870 0.0
0.430092 2.309393 0.000486 0.0
1.577095 2.310593 -0.001998 0.0
0.214021 0.011232 0.003176 0.0
2.707365 1.897630 0.001326 0.0
3.256674 1.947482 0.001867 0.0
4.599233 0.004345 -0.003625 0.0
0.562309 0.570137 0.001409 0.0
4.143533 0.497567 0.002550 0.0
3.251380 0.210997 -0.000972 0.0
2.636966 1.852314 -0.002907 0.0
2.325607 2.032077 0.001347 0.0
0.964016 1.982773 0.000625 0.0
3.449294 0.229926 -0.002180 0.0
3.608717 0.513238 0.000253 0.0
3.138319 0.958256 -0.000160 0.0
0.137592 2.023266 0.000214 0.0
4.774397 1.211829 0.000809 0.0
1.822752 0.330194 -0.003544 0.0
3.014828 0.289946 -0.001381 0.0
4.467342 1.871968 0.002876 0.0
2.354358 0.007691 0.000074 0.0
4.685515 0.297226 0.001630 0.0
3.605443 1.809875 0.003228 0.0
0.823784 1.195718 -0.000652 0.0
4.491097 0.703190 0.002714 0.0
3.763387 1.897809 0.001722 0.0
3.587970 1.711267 0.001232 0.0
2.837183 0.554362 0.002400 0.0
1.901016 1.211072 0.000026 0.0
1.490569 0.739250 0.001393 0.0
1.019159 2.070334 0.006750 0.0
4.460620 1.714929 -0.000052 0.0
3.279022 2.090842 0.000002 0.0
1.881748 1.027102 0.002601 0.0
1.491239 0.985132 0.001438 0.0
4.389135 0.192132 -0.004604 0.0
1.592180 1.232968 0.005474 0.0
1.382472 0.962119 0.003040 0.0
2.779161 2.360658 0.000492 0.0
3.741826 0.302728 -0.000637 0.0
3.098556 1.755706 -0.003478 0.0
3.966659 0.856481 0.001352 0.0
2.589772 1.862084 0.002230 0.0
3.236591 0.302584 -0.002183 0.0
2.256451 1.636697 0.001476 0.0
1.366150 0.299028 0.002260 0.0
0.514875 0.044867 -0.000901 0.0
0.696968 2.151438 -0.000913 0.0
4.329805 2.368834 0.004649 0.0
3.993007 0.703396 0.000588 0.0
2.449831 0.387007 0.000769 0.0
1.660444 0.186480 -0.001660 0.0
0.999994 0.438776 0.001659 0.0
2.719501 1.643753 0.000008 0.0
4.257053 1.452291 -0.000353 0.0
3.451894 2.111779 -0.000564 0.0
3.255794 1.160150 -0.002227 0.0
2.232876 0.037601 0.005036 0.0
2.373171 1.469745 0.004756 0.0
3.481388 0.305347 -0.000110 0.0
1.888953 1.652602 0.001874 0.0
1.868729 1.368966 -0.001574 0.0
0.522814 1.037393 -0.000437 0.0
2.863664 0.858324 0.000253 0.0
0.035001 0.549208 -0.000575 0.0
1.293380 1.529692 -0.000338 0.0
0.424998 1.323330 0.002140 0.0
2.019152 1.590298 0.002482 0.0
2.514511 2.223844 -0.001040 0.0
1.249292 0.238887 -0.004082 0.0
2.321087 0.020802 -0.003575 0.0
4.558335 0.319550 -0.004943 0.0
1.379781 2.322242 0.001978 0.0
2.332297 2.018337 0.005234 0.0
2.883474 0.209319 -0.002499 0.0
4.281374 0.329163 -0.003113 0.0
0.570935 0.662627 -0.000668 0.0
4.795921 0.927472 0.002193 0.0
3.153869 1.646957 -0.000647 0.0
3.023014 1.384052 0.002503 0.0
4.295881 0.508229 -0.001815 0.0
2.345655 0.642024 0.001826 0.0
2.715027 1.704405 -0.001603 0.0
3.185711 2.225645 -0.004795 0.0
0.760909 0.661114 -0.001545 0.0
4.727296 0.374849 0.000578 0.0
3.428211 1.032682 0.001214 0.0
4.449779 0.391564 -0.004087 0.0
4.188729 2.285673 -0.002532 0.0
3.870705 0.593854 0.002659 0.0
1.997525 0.047068 0.002358 0.0
2.073797 1.723929 -0.000207 0.0
0.015795 1.454072 -0.002241 0.0
3.562835 2.234145 -0.000156 0.0
1.916866 1.981136 0.004390 0.0
1.605746 2.188782 -0.000611 0.0
3.066104 1.610904 0.001399 0.0
4.290290 2.352181 -0.002589 0.0
4.036801 2.253203 0.000139 0.0
0.466103 0.494887 -0.001806 0.0
3.673533 1.308074 -0.002121 0.0
3.231091 0.304487 -0.003872 0.0
1.106000 0.947934 -0.002132 0.0
4.757973 1.816585 -0.001738 0.0
3.500756 0.026515 -0.000177 0.0
1.539134 1.151217 -0.000123 0.0
1.426763 0.760378 0.000436 0.0
1.114590 1.035051 -0.000154 0.0
3.201103 1.153700 0.003432 0.0
3.287214 0.258537 0.001932 0.0
1.033552 1.172396 -0.000112 0.0
0.162480 1.130757 0.000878 0.0
1.620171 2.246767 -0.002444 0.0
4.404909 1.664646 0.002257 0.0
4.257210 0.276792 -0.002022 0.0
1.553165 1.130432 0.003087 0.0
0.957584 0.315633 -0.001351 0.0
4.202118 2.342966 0.002361 0.0
3.553704 1.681257 0.001664 0.0
2.395342 2.021292 0.000141 0.0
3.809924 1.429646 0.003701 0.0
0.804631 1.269671 0.004521 0.0
2.659596 1.185324 -0.002103 0.0
4.070295 0.225237 0.003653 0.0
3.191784 1.336907 0.000705 0.0
1.613064 2.324284 -0.004313 0.0
3.511532 2.203825 0.001494 0.0
4.186088 2.363025 0.001704 0.0
3.982998 0.024234 -0.000306 0.0
1.677107 2.228948 -0.004024 0.0
3.742902 1.492792 0.002570 0.0
4.473982 0.202083 -0.000690 0.0
3.488338 1.727147 0.003467 0.0
1.039224 1.014372 0.000646 0.0
3.768163 1.112647 -0.004389 0.0
3.675403 1.477551 0.003767 0.0
1.667414 1.969219 -0.002493 0.0
4.298795 1.151517 0.001277 0.0
0.557631 0.047551 -0.000060 0.0
1.115260 1.976270 -0.001402 0.0
0.912647 1.575406 -0.004179 0.0
1.613254 2.065648 -0.006276 0.0
1.566515 1.609283 0.002920 0.0
0.590283 1.208323 0.000342 0.0
3.452278 0.752482 -0.001516 0.0
2.348850 1.638323 0.001325 0.0
3.951364 1.990664 -0.002302 0.0
0.364919 0.633099 -0.001525 0.0
2.238133 0.665933 -0.001494 0.0
3.166980 1.252652 0.000831 0.0
3.612620 1.507631 0.003147 0.0
1.923052 1.181491 -0.002541 0.0
1.281454 0.414325 0.001378 0.0
3.355904 1.056275 0.000040 0.0
1.565434 0.035129 0.000341 0.0
1.323630 1.348641 -0.001646 0.0
1.569575 2.151965 -0.003515 0.0
4.026653 1.721917 -0.004521 0.0
2.336679 1.540974 0.000884 0.0
2.620000 0.091809 0.000802 0.0
0.377443 1.337849 -0.000904 0.0
1.167740 2.202213 0.001510 0.0
1.959949 1.555597 -0.000964 0.0
4.736495 1.507864 0.002786 0.0
2.107103 1.015031 -0.004265 0.0
2.315815 2.368769 0.002556 0.0
0.427666 0.676306 -0.002601 0.0
2.491998 0.210911 0.001193 0.0
4.835890 1.426995 0.001428 0.0
0.053719 0.111232 0.000459 0.0
3.919009 0.006937 -0.003373 0.0
4.006248 0.176393 -0.001040 0.0
0.880309 1.136590 -0.007707 0.0
2.024118 1.546385 0.001969 0.0
3.480667 1.476230 -0.003681 0.0
0.367790 1.535941 -0.003036 0.0
1.671955 0.338243 0.001424 0.0
3.025551 0.814915 0.000083 0.0
0.477232 0.768174 -0.000777 0.0
3.289711 0.302959 0.000489 0.0
4.391385 1.939159 -0.000789 0.0
3.432667 0.339578 -0.000529 0.0
2.264599 0.556975 -0.001331 0.0
0.227843 1.096185 0.002522 0.0
0.192909 0.588675 0.002424 0.0
2.620307 1.711830 -0.000528 0.0
4.773811 1.498864 0.002549 0.0
4.072746 1.928164 -0.000144 0.0
1.166964 2.048927 -0.001030 0.0
2.209574 0.169438 0.000772 0.0
3.506107 2.131878 -0.000628 0.0
4.768897 1.650382 -0.004703 0.0
2.766026 1.958649 -0.005622 0.0
3.096177 1.070356 -0.001437 0.0
1.918261 1.927531 0.002374 0.0
0.285920 1.602223 0.001659 0.0
1.309278 1.528693 -0.002059 0.0
1.206741 1.199521 -0.002142 0.0
4.244379 1.078642 -0.003204 0.0
0.957517 1.624635 0.003089 0.0
0.039603 0.684907 -0.002395 0.0
2.731226 2.087760 0.001313 0.0
2.363679 1.894612 -0.000398 0.0
3.948769 0.268047 -0.000328 0.0
1.784169 0.787051 0.002159 0.0
4.711368 1.777037 -0.002106 0.0
1.616974 0.744370 0.005421 0.0
0.350560 0.130508 -0.005069 0.0
4.050812 0.444613 0.002199 0.0
0.837125 1.936518 0.003480 0.0
3.498731 1.902142 -0.000363 0.0
3.792328 2.326031 0.000945 0.0
2.010810 1.617144 -0.002287 0.0
2.951934 0.507959 0.002196 0.0
1.074664 0.444788 -0.001675 0.0
4.044505 1.262625 0.003147 0.0
1.543608 1.771664 0.002199 0.0
3.199030 1.192235 -0.003219 0.0
3.562698 2.157233 0.000989 0.0
0.530025 1.484909 -0.000346 0.0
2.608822 2.357662 0.000159 0.0
3.470880 1.989036 0.001030 0.0
3.509809 1.559358 -0.006572 0.0
1.263381 0.925236 -0.005228 0.0
4.614770 1.534781 -0.002666 0.0
1.570719 1.284475 -0.000420 0.0
4.324261 1.436369 -0.002792 0.0
1.729413 2.376019 0.002153 0.0
2.705771 1.645568 0.000620 0.0
1.005328 1.334730 0.005776 0.0
4.784146 1.226082 0.002935 0.0
0.394608 0.068768 -0.001566 0.0
3.423335 1.689325 -0.000947 0.0
3.696451 1.113224 -0.000244 0.0
3.795311 1.897027 0.000178 0.0
3.884540 1.522731 -0.000317 0.0
0.817905 1.187450 0.001284 0.0
4.276084 1.968149 0.000130 0.0
4.444910 1.190866 0.002272 0.0
2.995207 1.065293 -0.001394 0.0
0.437617 1.755390 0.000503 0.0
2.659360 0.863981 -0.005742 0.0
2.965937 0.419405 -0.000269 0.0
1.805160 1.714322 0.002248 0.0
0.430895 2.362689 -0.002256 0.0
1.254700 1.035581 0.003399 0.0
0.233040 2.388471 0.001959 0.0
3.699351 0.118440 0.000779 0.0
2.710781 1.520045 0.001163 0.0
1.785352 1.715476 0.002609 0.0
0.208880 1.906619 0.002850 0.0
0.104327 2.107791 -0.000753 0.0
4.770527 1.080994 0.000171 0.0
0.852542 2.170354 -0.000404 0.0
1.062351 0.159304 0.005412 0.0
2.717291 1.771878 -0.002705 0.0
2.607032 1.154909 0.000431 0.0
4.063598 0.110795 -0.000761 0.0
2.542022 2.153910 -0.001109 0.0
2.268433 0.630033 0.000304 0.0
4.721552 2.129051 0.000245 0.0
3.362962 0.087309 -0.001806 0.0
2.835962 1.973377 0.001734 0.0
3.833178 1.137879 0.004424 0.0
3.184476 1.938303 0.000277 0.0
1.594091 2.003499 0.002685 0.0
0.648334 1.888323 -0.002242 0.0
0.111267 0.434562 0.000758 0.0
4.499439 0.785904 -0.003358 0.0
0.018513 2.331193 0.003472 0.0
4.516087 0.787540 0.001532 0.0
0.509153 0.311812 0.003960 0.0
0.183089 0.268213 -0.001248 0.0
2.361751 0.528837 -0.001890 0.0
4.201988 0.036577 -0.000116 0.0
3.337385 2.358441 0.000840 0.0
4.002497 0.343810 -0.000739 0.0
1.069030 0.309827 -0.002363 0.0
1.994885 0.157529 0.003985 0.0
2.018548 1.621800 -0.000325 0.0
3.477764 2.318072 -0.001662 0.0
1.932207 0.644428 -0.003483 0.0
0.345536 0.885179 -0.003578 0.0
3.135171 0.959539 0.002817 0.0
2.954991 2.334678 -0.001728 0.0
2.156625 0.891223 -0.001373 0.0
0.965704 0.705687 0.001230 0.0
0.560104 0.611244 0.001900 0.0
4.142195 2.043792 -0.000000 0.0
4.377504 2.276091 -0.000779 0.0
3.772001 0.830956 -0.001401 0.0
1.920287 0.118925 0.001304 0.0
1.200605 1.409067 -0.001502 0.0
3.953784 1.600022 -0.002320 0.0
3.505366 0.721840 -0.001122 0.0
1.722263 2.185437 0.001744 0.0
0.932393 1.625356 0.001547 0.0
1.740540 2.250203 0.000328 0.0
1.238819 1.696598 0.002581 0.0
3.173797 1.018164 0.001867 0.0
4.478974 1.986801 0.003847 0.0
3.880665 0.820728 -0.005378 0.0
0.830227 0.415497 -0.001618 0.0
2.829786 0.567829 -0.002567 0.0
3.891985 0.211375 0.000902 0.0
1.007427 0.839771 0.001244 0.0
3.030287 1.915612 -0.000503 0.0
3.191296 2.388357 0.002555 0.0
0.420865 0.318548 -0.000216 0.0
4.519856 2.360139 -0.000781 0.0
0.862566 0.006435 -0.002357 0.0
3.070492 1.360221 -0.002267 0.0
4.455799 1.191834 0.000311 0.0
4.680300 1.133092 -0.000213 0.0
3.352687 1.700532 0.001830 0.0
1.321821 1.047351 0.000027 0.0
3.561779 1.923431 0.000871 0.0
0.323894 1.211175 0.000232 0.0
3.867505 2.147546 -0.005932 0.0
0.103778 0.639781 0.000953 0.0
1.097242 1.682467 -0.005262 0.0
3.905880 1.804753 0.000167 0.0
2.056704 2.003166 0.001541 0.0
3.497809 2.349554 0.002902 0.0
4.091963 1.046676 -0.000271 0.0
2.737420 2.249287 0.002745 0.0
4.566322 1.302555 0.000215 0.0
2.168522 1.851162 -0.001075 0.0
4.102577 2.163133 0.001959 0.0
4.287854 0.199594 -0.002620 0.0
3.188861 0.921725 0.001350 0.0
1.690851 0.018909 -0.002209 0.0
1.578716 0.819980 0.001031 0.0
0.352948 0.664894 -0.001249 0.0
0.033489 1.414700 -0.000349 0.0
3.629705 0.533745 -0.000512 0.0
1.979415 1.544473 -0.000804 0.0
1.133903 0.788345 -0.005373 0.0
1.728187 1.025400 0.003876 0.0
2.167092 1.733010 0.001757 0.0
4.518942 0.228612 -0.006024 0.0
0.252316 0.966181 0.001996 0.0
2.467608 0.240270 -0.000159 0.0
3.148206 1.015060 -0.000962 0.0
2.486151 0.835215 -0.003298 0.0
0.544769 0.799117 0.003236 0.0
3.502307 1.019964 0.000496 0.0
0.699461 1.303534 0.001685 0.0
1.721540 2.105726 0.000593 0.0
1.634389 1.747264 -0.004346 0.0
1.612370 0.690331 -0.007828 0.0
2.455365 0.359078 -0.000965 0.0
0.694182 2.293807 0.001238 0.0
1.424289 0.733353 0.000390 0.0
1.977323 1.264460 -0.002088 0.0
3.073398 0.172778 0.000108 0.0
2.961407 1.337352 -0.003891 0.0
1.353083 0.299265 -0.000705 0.0
2.376152 1.649522 -0.000639 0.0
3.514319 0.418407 -0.003028 0.0
1.245820 0.706313 0.002195 0.0
2.457097 0.822188 0.003386 0.0
1.018186 0.464889 0.001991 0.0
0.341307 1.235112 -0.003167 0.0
2.360263 1.352863 0.002220 0.0
3.726654 2.272175 -0.001212 0.0
4.236889 1.496002 -0.002490 0.0
0.376168 1.892311 -0.003193 0.0
3.253991 1.628814 0.000396 0.0
1.965561 0.319054 0.005494 0.0
1.241232 2.378102 0.002298 0.0
3.470688 1.215899 -0.003746 0.0
1.812992 1.269058 -0.002296 0.0
1.157134 0.736112 0.005630 0.0
4.769347 0.924981 -0.000890 0.0
4.771229 0.731065 0.000111 0.0
4.710886 0.254375 -0.000244 0.0
4.324898 1.244158 0.000937 0.0
3.816590 0.856464 -0.003507 0.0
2.953879 1.167342 -0.001069 0.0
3.349577 0.230319 -0.005141 0.0
3.746677 1.460437 -0.002172 0.0
1.197923 1.813078 -0.000283 0.0
2.328545 0.219458 0.002028 0.0
1.676514 1.317338 -0.001144 0.0
4.838540 0.541556 -0.001721 0.0
2.395170 1.754076 -0.001355 0.0
3.594235 0.955142 0.001364 0.0
2.351674 1.278938 0.001576 0.0
1.868256 1.377883 0.001071 0.0
4.677624 1.271863 -0.000626 0.0
2.714449 0.787409 0.002229 0.0
2.436841 0.078784 -0.003228 0.0
2.029981 1.834764 -0.005023 0.0
0.299726 2.323611 0.003746 0.0
2.983473 1.372617 -0.004306 0.0
2.805213 0.570489 0.003741 0.0
2.700501 2.316430 -0.002086 0.0
0.838291 0.807600 -0.003607 0.0
4.196236 2.154621 -0.002180 0.0
1.199565 2.343781 -0.000521 0.0
3.625497 2.167773 0.003517 0.0
2.800692 1.431182 -0.001494 0.0
0.548549 1.123485 0.001063 0.0
4.625679 0.222978 -0.005149 0.0
0.879364 0.832502 0.001331 0.0
3.201258 2.123693 -0.000587 0.0
2.552217 1.947024 -0.002417 0.0
1.461324 1.563599 -0.001730 0.0
2.855111 2.168556 0.002053 0.0
0.723873 1.042398 -0.000833 0.0
0.008562 1.333730 0.000427 0.0
4.128007 0.533267 -0.000535 0.0
3.243449 0.545737 0.000544 0.0
1.678319 0.682186 -0.000390 0.0
3.018712 2.391580 0.000885 0.0
4.535812 0.441379 -0.000896 0.0
1.147961 1.098804 0.000146 0.0
3.200589 1.229566 -0.002605 0.0
3.066358 1.624066 -0.001529 0.0
1.786705 1.409732 0.000594 0.0
2.380358 1.839961 -0.002870 0.0
2.964904 0.405505 0.001571 0.0
4.579397 0.746658 0.002614 0.0
0.903245 2.266171 0.000503 0.0
3.444513 2.346240 0.001242 0.0
4.143275 0.986408 0.003221 0.0
4.730300 0.215020 -0.002853 0.0
3.414640 0.332530 -0.000215 0.0
3.342033 0.463579 -0.001314 0.0
0.254280 1.324875 0.001594 0.0
4.825782 2.081430 -0.001153 0.0
2.634767 0.665446 0.002827 0.0
4.288475 0.057984 0.001906 0.0
4.819768 0.172400 0.001062 0.0
0.325773 0.225921 -0.004030 0.0
1.657975 0.062104 -0.000350 0.0
0.835133 0.384252 -0.002094 0.0
3.609689 0.369141 -0.002998 0.0
4.784201 0.757198 -0.001995 0.0
0.917068 1.508778 0.000133 0.0
1.852872 0.165539 0.001109 0.0
1.243351 1.220893 0.000700 0.0
4.782671 0.546283 0.000841 0.0
3.675751 0.979058 0.000143 0.0
2.854889 0.706949 0.001350 0.0
0.677701 0.986972 -0.000583 0.0
0.563167 1.518063 0.000488 0.0
1.295592 2.037870 0.004484 0.0
1.272360 0.893279 -0.001852 0.0
2.284061 2.125456 -0.000569 0.0
0.163336 1.495874 -0.000950 0.0
2.284575 1.861217 0.002284 0.0
2.393233 0.797031 -0.001189 0.0
4.348099 2.245730 0.003132 0.0
0.847196 1.382292 -0.002327 0.0
3.540452 1.020140 0.004128 0.0
4.030855 2.141590 0.002349 0.0
0.568947 1.504388 0.000012 0.0
1.755848 1.203045 0.003095 0.0
0.254715 1.905551 0.002116 0.0
4.207935 2.389143 0.003033 0.0
4.596138 0.728357 -0.001532 0.0
4.084440 2.064292 -0.002700 0.0
0.133511 1.662974 0.000480 0.0
0.674798 2.232024 0.000004 0.0
3.466173 2.136846 -0.001700 0.0
4.529177 1.596872 -0.000230 0.0
3.042582 1.732504 -0.001404 0.0
4.414016 1.666395 -0.000927 0.0
1.348131 1.501525 -0.004067 0.0
0.488636 0.794469 0.005397 0.0
3.584596 0.563794 0.003257 0.0
0.334453 1.874656 0.001490 0.0
3.631352 1.825664 -0.003144 0.0
0.222020 2.023748 -0.000476 0.0
0.116436 1.317465 0.001226 0.0
3.073934 2.105145 0.001615 0.0
0.804024 0.614999 -0.001810 0.0
3.637231 0.798563 0.000255 0.0
1.886256 1.930743 -0.001314 0.0
2.253113 1.953882 -0.003115 0.0
4.674879 2.384127 -0.001450 0.0
0.190023 1.766909 0.001894 0.0
0.547056 1.456570 -0.001116 0.0
2.627890 1.991928 0.001549 0.0
3.614226 1.962867 0.003662 0.0
3.345755 1.802040 -0.001654 0.0
2.750178 2.129808 0.000597 0.0
1.922572 2.169338 0.004969 0.0
2.933353 0.122408 -0.000353 0.0
4.748006 1.673285 -0.000088 0.0
3.581386 0.741071 0.002064 0.0
3.469836 1.889248 -0.003325 0.0
1.446163 1.689760 -0.004548 0.0
4.626475 0.575756 0.001617 0.0
1.142006 1.155423 0.003376 0.0
2.540326 0.843823 -0.001638 0.0
3.992901 1.146736 0.001126 0.0
1.327347 1.581206 0.006000 0.0
3.089153 1.667076 0.001419 0.0
1.659912 1.502767 0.004412 0.0
4.228554 0.231163 0.001070 0.0
1.064999 2.288081 0.000292 0.0
1.741338 1.336895 0.000661 0.0
0.728555 1.710722 -0.000411 0.0
4.347509 1.667114 -0.001941 0.0
1.733426 0.373630 -0.001163 0.0
3.763348 0.218484 0.001589 0.0
2.289227 1.542708 -0.000146 0.0
2.452488 1.572059 0.002197 0.0
1.795494 0.628380 -0.003061 0.0
1.439748 0.642474 0.000560 0.0
4.262623 0.626141 0.002852 0.0
0.807957 0.243688 -0.000743 0.0
1.838400 1.512595 -0.002187 0.0
3.267911 1.227109 0.003423 0.0
2.839235 0.127804 0.001428 0.0
1.630778 1.254445 -0.002055 0.0
4.577204 0.168345 -0.000095 0.0
0.031447 1.872177 0.001850 0.0
3.661879 0.958448 0.000113 0.0
1.153039 1.753310 0.000430 0.0
2.805131 2.056136 0.001019 0.0
2.000351 1.424164 -0.004566 0.0
3.577510 0.701149 -0.001097 0.0
1.349908 1.535877 -0.003477 0.0
0.542302 0.122629 -0.000635 0.0
0.812277 0.001200 -0.004830 0.0
0.809655 1.001974 -0.001899 0.0
0.798610 1.235683 -0.002241 0.0
1.662551 1.610679 -0.000376 0.0
3.283864 2.024984 0.000968 0.0
1.328944 2.054376 0.000673 0.0
4.553159 1.415497 0.001742 0.0
2.019838 1.219310 -0.003863 0.0
3.636384 1.016959 0.000908 0.0
0.194109 1.073782 0.001225 0.0
3.597182 1.725499 -0.001530 0.0
1.748909 0.404921 -0.002132 0.0
3.215911 1.574958 0.001052 0.0
0.426808 0.908287 0.000526 0.0
3.356999 2.351978 0.000164 0.0
3.676467 0.210508 0.002739 0.0
1.119603 0.359426 0.000169 0.0
3.648781 1.123893 -0.008946 0.0
1.386655 1.452993 0.002167 0.0
3.034054 1.240922 0.000742 0.0
4.131236 1.954622 -0.000883 0.0
4.132730 2.226164 0.000854 0.0
0.632448 1.656298 -0.002137 0.0
0.289557 1.724612 -0.004639 0.0
3.160180 1.078080 0.000511 0.0
3.594328 0.094150 -0.001065 0.0
2.968689 0.508642 -0.001408 0.0
4.170418 0.611374 0.000636 0.0
4.252362 2.163532 -0.002798 0.0
4.761066 1.638158 -0.001538 0.0
2.354402 1.034212 0.002033 0.0
3.665585 0.751575 0.003182 0.0
1.377659 2.213874 0.003552 0.0
0.441727 0.113917 0.000233 0.0
0.020952 2.182863 0.001236 0.0
2.959225 0.726378 0.000319 0.0
1.593092 0.403838 -0.001474 0.0
0.997528 0.667179 -0.002078 0.0
2.527318 0.075987 -0.000727 0.0
2.624979 0.913612 -0.000829 0.0
2.263409 0.229836 -0.005907 0.0
1.919566 0.996385 -0.003349 0.0
4.731014 1.277915 -0.001746 0.0
4.551038 0.349488 0.000206 0.0
4.067305 1.058342 0.001510 0.0
2.291690 1.958983 0.002070 0.0
2.792005 1.698342 -0.000065 0.0
3.320916 0.607736 -0.002101 0.0
1.205422 0.346532 -0.001749 0.0
1.643748 1.944496 0.003442 0.0
1.616951 1.794984 0.001788 0.0
0.440566 0.248805 -0.000678 0.0
2.446541 1.140417 0.000277 0.0
0.708257 1.885067 0.003159 0.0
3.383774 2.330212 0.001064 0.0
3.177607 0.216103 0.002563 0.0
4.774791 1.540909 -0.000162 0.0
1.494685 0.665501 0.002569 0.0
0.071850 1.966159 0.002349 0.0
3.315733 2.247633 0.000162 0.0
1.130753 2.292192 -0.001416 0.0
0.960011 0.801030 -0.004591 0.0
3.739947 1.513096 -0.000998 0.0
4.618319 1.903492 0.002408 0.0
4.018805 1.151948 0.000438 0.0
4.248277 0.650246 -0.002985 0.0
0.029964 2.354391 -0.001790 0.0
2.684786 0.204931 0.002888 0.0
1.458790 1.502387 -0.002284 0.0
2.390534 1.315855 0.004912 0.0
0.975818 1.385934 0.001764 0.0
2.549746 0.882219 -0.000024 0.0
3.463872 0.187689 0.001306 0.0
3.581444 0.261191 -0.001194 0.0
4.331195 0.271367 0.002397 0.0
4.727204 1.982023 -0.002199 0.0
3.212803 0.844035 0.001456 0.0
0.875733 1.773124 -0.002769 0.0
0.960681 2.130132 -0.002234 0.0
1.094226 0.245622 0.000318 0.0
2.441952 1.702664 0.002290 0.0
3.292339 2.165669 -0.002374 0.0
2.310630 0.981905 0.001447 0.0
2.285044 0.614756 0.003758 0.0
2.273841 0.070156 -0.005451 0.0
3.445151 1.088224 0.003172 0.0
2.329852 1.367743 -0.000329 0.0
4.489735 1.434000 0.005531 0.0
2.755047 1.602605 0.000464 0.0
2.255406 0.350708 0.003874 0.0
2.562997 1.366063 0.002363 0.0
2.393865 0.621097 0.000895 0.0
4.773733 0.964270 -0.001348 0.0
3.396869 0.200334 0.001684 0.0
0.939130 1.945431 -0.002615 0.0
2.902198 1.870283 0.004718 0.0
2.969179 2.202468 0.003922 0.0
2.952796 1.810726 -0.005525 0.0
1.439223 1.689663 -0.000862 0.0
1.497725 0.824203 -0.000989 0.0
