1.716977 0.056227 0.001090 0.0
1.050397 0.703726 -0.001298 0.0
3.036456 0.303452 0.001569 0.0
3.098483 1.275955 0.007073 0.0
2.885880 0.382531 -0.001231 0.0
3.213584 0.758645 -0.001988 0.0
2.647982 0.020210 0.002100 0.0
0.957340 0.272412 0.000274 0.0
2.587274 1.345064 0.000027 0.0
3.489625 0.104743 -0.004377 0.0
2.697875 0.052486 -0.000210 0.0
0.287575 0.489099 0.001668 0.0
2.542069 0.633910 0.001365 0.0
1.755192 1.072639 0.003064 0.0
1.980867 1.182557 -0.001596 0.0
1.238649 1.259524 -0.003029 0.0
0.974496 1.303668 0.000355 0.0
1.945073 0.838373 0.001465 0.0
3.964083 1.527883 0.003594 0.0
2.468872 0.967461 -0.002275 0.0
0.925585 1.259491 -0.003063 0.0
1.614080 0.240407 -0.002793 0.0
2.927259 1.194038 -0.004225 0.0
2.326426 0.393182 0.002027 0.0
1.931070 1.422874 -0.000710 0.0
1.993665 1.345444 0.003496 0.0
3.887028 0.902033 -0.002356 0.0
3.630990 1.073199 -0.003083 0.0
3.382804 0.212362 -0.001012 0.0
1.769717 0.376626 -0.003609 0.0
0.311151 0.216327 -0.003223 0.0
0.103744 1.096942 0.000978 0.0
0.513899 0.159106 0.001403 0.0
3.379220 0.396947 -0.004137 0.0
0.753177 0.725119 -0.001818 0.0
1.576685 1.533953 -0.002171 0.0
1.409942 1.005980 -0.000604 0.0
1.677217 0.916929 -0.000841 0.0
3.798452 0.784883 0.002773 0.0
2.895977 0.235672 0.002623 0.0
0.775828 0.907042 -0.002154 0.0
0.490706 0.659717 0.000587 0.0
1.940621 1.166728 0.001738 0.0
0.001300 1.119634 -0.001931 0.0
0.966357 0.777201 0.002697 0.0
3.550756 0.592379 0.002303 0.0
1.299889 0.228231 -0.001076 0.0
1.890981 0.316570 -0.002848 0.0
2.114881 0.871279 0.001336 0.0
2.951373 0.098901 -0.001384 0.0
1.619919 1.196294 -0.000683 0.0
3.376074 1.220928 0.000276 0.0
2.805301 0.074186 0.005372 0.0
2.824398 0.266367 -0.001146 0.0
3.546294 0.250147 -0.003449 0.0
3.232436 0.245877 -0.002131 0.0
2.696745 1.424321 -0.002654 0.0
2.402670 1.284364 -0.006598 0.0
2.119861 1.300749 -0.000528 0.0
2.797184 0.334292 0.002252 0.0
3.968015 0.531657 0.003227 0.0
1.594611 1.180907 -0.001202 0.0
0.241790 1.020301 -0.000781 0.0
1.888511 0.366529 0.000042 0.0
0.527425 0.369612 0.000080 0.0
2.677482 0.022881 -0.000805 0.0
3.966295 0.617307 -0.006043 0.0
0.250135 0.644256 0.002483 0.0
1.327055 0.115731 0.004167 0.0
0.365841 0.112484 -0.005381 0.0
3.552516 1.065440 0.000287 0.0
3.110609 0.277716 0.000522 0.0
1.577951 0.880437 0.002365 0.0
1.716626 1.233149 -0.003908 0.0
1.997271 0.706694 0.003981 0.0
1.708266 0.716386 -0.002272 0.0
1.149097 0.883378 0.003603 0.0
3.401350 0.906571 0.001431 0.0
2.503271 1.461447 0.003121 0.0
0.838991 1.137065 -0.002481 0.0
1.922584 0.416589 0.002945 0.0
0.832901 0.597584 -0.003424 0.0
3.419961 0.461651 -0.003046 0.0
0.496536 1.340112 -0.000377 0.0
0.577433 0.987014 -0.001567 0.0
0.221907 1.266252 0.000503 0.0
1.000297 0.347310 -0.002952 0.0
0.460058 0.476868 -0.000947 0.0
3.915050 1.266656 -0.001204 0.0
1.913199 0.573602 0.006089 0.0
0.768644 0.383778 0.001735 0.0
3.498263 0.425531 0.002669 0.0
0.237013 1.303523 0.002270 0.0
1.139002 1.124980 -0.002798 0.0
1.233855 0.231260 -0.000804 0.0
3.722340 0.719058 -0.008106 0.0
1.255294 0.319791 0.000082 0.0
3.268910 1.420723 -0.001398 0.0
0.275118 0.334991 -0.005512 0.0
2.506710 1.000642 -0.004494 0.0
3.711178 0.912148 0.000765 0.0
2.018433 0.101476 0.000495 0.0
0.785407 0.425277 0.004790 0.0
3.043491 0.364703 -0.000299 0.0
1.338592 1.171472 -0.001721 0.0
2.805117 1.504320 0.001364 0.0
3.115237 1.411178 -0.000319 0.0
3.448440 0.599855 -0.000524 0.0
0.943116 0.426103 0.001204 0.0
2.840095 0.463846 -0.001107 0.0
3.115061 0.658874 -0.001870 0.0
1.277012 0.876467 0.000979 0.0
2.021738 0.010096 0.002904 0.0
1.875134 1.401275 -0.001675 0.0
3.133465 1.008537 -0.000787 0.0
0.682400 0.950483 -0.000055 0.0
3.002434 1.241607 0.000660 0.0
1.839201 0.961170 0.000889 0.0
2.002511 0.215155 0.000770 0.0
3.984156 0.385693 -0.001598 0.0
1.343938 0.288879 -0.000555 0.0
1.519499 0.473881 0.001954 0.0
0.671466 1.005217 -0.004125 0.0
1.899160 0.314224 0.003661 0.0
3.817423 0.558431 0.002187 0.0
0.246646 1.404540 0.001226 0.0
0.318917 1.400492 -0.000607 0.0
2.809215 0.471278 0.004637 0.0
0.927612 1.358893 0.004818 0.0
3.498495 1.500643 -0.000169 0.0
0.900201 0.941287 0.000507 0.0
2.634443 1.475992 -0.001473 0.0
0.589047 0.129109 0.000954 0.0
2.092150 0.495450 -0.005361 0.0
2.163918 0.636153 0.001780 0.0
2.178143 0.765785 0.003427 0.0
3.641109 1.186244 -0.004685 0.0
3.079155 0.797337 -0.000021 0.0
1.903884 0.872628 0.000761 0.0
1.885097 0.393810 -0.000554 0.0
2.619499 0.458255 0.000475 0.0
2.590505 1.035287 -0.000263 0.0
0.696177 1.028198 -0.006366 0.0
0.652670 0.341096 -0.000248 0.0
2.409902 0.575688 -0.004662 0.0
3.596751 1.295520 -0.002317 0.0
3.543251 1.316154 0.000013 0.0
3.635997 0.259967 0.002657 0.0
0.375055 0.128396 -0.004086 0.0
2.546883 0.310826 -0.002272 0.0
2.420390 1.303966 0.003760 0.0
3.662197 0.840411 -0.000415 0.0
0.479329 0.728068 0.002871 0.0
3.313404 0.974355 0.000433 0.0
2.986810 1.426946 -0.001345 0.0
3.695082 0.629123 0.001517 0.0
1.215179 1.133867 -0.001735 0.0
3.951603 1.532684 0.000747 0.0
1.054190 0.108172 0.002862 0.0
3.891581 0.456003 -0.001319 0.0
0.161658 0.948509 -0.001257 0.0
2.978824 0.363544 -0.001848 0.0
1.891687 1.344594 0.002168 0.0
3.605391 1.144125 -0.000551 0.0
3.616675 0.440715 -0.003927 0.0
2.667326 1.266767 -0.001537 0.0
1.269352 0.188325 0.001430 0.0
2.429941 0.246035 0.002146 0.0
2.102010 0.149188 0.000331 0.0
2.382333 1.464763 -0.001224 0.0
1.232816 1.320836 -0.000823 0.0
3.719530 0.709834 -0.000630 0.0
2.518949 1.135528 0.001410 0.0
2.728683 0.936530 0.003157 0.0
1.112086 1.104033 -0.001908 0.0
3.477834 1.167639 -0.002656 0.0
0.835955 0.449633 0.000803 0.0
1.833372 0.988304 -0.002660 0.0
2.317180 0.568125 -0.001024 0.0
2.311703 0.501048 -0.001558 0.0
2.695016 1.376417 -0.001285 0.0
3.130895 0.021617 0.000827 0.0
2.224685 1.146882 0.001744 0.0
2.395366 0.096736 -0.000614 0.0
2.252039 0.788007 0.000687 0.0
2.669695 1.443440 -0.003224 0.0
3.581384 0.551164 0.001210 0.0
1.058760 1.073942 -0.001594 0.0
0.232834 0.208428 0.000295 0.0
2.853167 0.666697 -0.000078 0.0
0.965245 0.290634 -0.000162 0.0
0.147018 1.157790 -0.002350 0.0
1.958613 1.284587 -0.003248 0.0
3.101213 0.075771 -0.001152 0.0
0.603467 0.988297 -0.001285 0.0
2.628170 0.902449 0.000295 0.0
2.853377 1.301451 0.002771 0.0
2.089003 0.396120 0.004525 0.0
1.197515 0.553179 -0.000856 0.0
2.349735 0.790464 -0.001185 0.0
3.395841 0.025420 -0.002404 0.0
2.734375 0.180822 -0.001468 0.0
1.534354 0.629980 0.001938 0.0
0.537880 1.496505 -0.000916 0.0
3.690945 0.467091 -0.000543 0.0
1.083608 0.423450 0.002863 0.0
2.914468 0.269408 -0.002342 0.0
3.404682 0.011328 -0.000373 0.0
0.574164 1.245664 0.002705 0.0
1.233906 0.879408 0.000893 0.0
4.020042 0.488940 0.000127 0.0
0.474198 1.120242 0.000739 0.0
0.167710 1.164400 0.002467 0.0
3.671074 0.704896 0.003210 0.0
3.924494 1.482300 0.001731 0.0
2.125839 1.274878 0.001571 0.0
2.906091 1.022682 0.002583 0.0
2.422438 0.488303 -0.002648 0.0
1.869936 0.430530 -0.000024 0.0
3.382148 0.542698 0.000613 0.0
1.777628 0.320929 0.000399 0.0
1.108586 1.106961 0.002668 0.0
0.199129 0.663031 -0.003518 0.0
2.528266 0.085458 -0.000306 0.0
3.012909 0.712449 -0.000192 0.0
1.400211 0.989327 0.001009 0.0
2.398974 0.417991 0.002415 0.0
1.171022 1.087726 -0.000849 0.0
3.459364 0.855597 -0.001822 0.0
0.199820 0.400830 0.002380 0.0
1.621502 0.262507 -0.000386 0.0
2.943889 0.947570 -0.002024 0.0
0.664639 1.275758 0.003215 0.0
1.113572 0.286883 -0.001245 0.0
2.488300 0.111204 0.002551 0.0
0.551372 0.322173 0.001393 0.0
1.269420 1.351481 -0.001792 0.0
1.746746 0.799523 0.002190 0.0
1.979203 0.467172 -0.004466 0.0
3.689187 0.869502 -0.000674 0.0
0.360980 0.728630 0.001788 0.0
0.620955 0.872731 0.001041 0.0
1.605245 1.397576 -0.000608 0.0
3.633350 0.290840 0.001119 0.0
1.949376 1.490231 0.000136 0.0
2.787313 0.495424 -0.002952 0.0
0.673816 0.842017 0.003693 0.0
1.123794 0.358008 -0.000837 0.0
0.283237 0.589661 0.000188 0.0
0.856969 0.577919 0.001959 0.0
0.756094 0.669596 -0.000288 0.0
2.375624 1.121967 0.000320 0.0
1.889635 0.153929 0.000848 0.0
1.348782 0.031823 0.003626 0.0
3.905007 1.103152 0.002665 0.0
3.938043 0.086738 0.003115 0.0
2.729745 1.145001 0.002315 0.0
2.560623 0.244261 -0.000537 0.0
3.595589 0.548545 0.001231 0.0
0.050361 0.724863 0.001161 0.0
2.319192 0.415905 0.001886 0.0
1.383739 0.497021 -0.002001 0.0
1.019936 1.349599 0.004103 0.0
0.408205 1.401940 -0.001825 0.0
0.736464 0.793372 0.003398 0.0
3.750494 0.708231 0.002358 0.0
0.016884 0.942352 0.001551 0.0
0.980845 1.089969 0.002224 0.0
2.744137 1.089399 0.002555 0.0
1.114567 0.168473 0.002216 0.0
2.741002 0.775675 -0.002383 0.0
2.654394 1.054697 -0.001586 0.0
1.324027 0.104965 0.000314 0.0
0.462281 0.426935 -0.000354 0.0
1.148057 0.319655 -0.005609 0.0
1.643443 1.118173 0.003398 0.0
0.660682 0.647547 0.003997 0.0
1.800949 0.617774 0.003771 0.0
3.318705 0.773766 0.002067 0.0
0.242680 0.512304 -0.000946 0.0
2.408904 1.491861 0.002677 0.0
1.082019 0.548720 -0.000933 0.0
3.900980 0.767963 -0.000424 0.0
2.246024 0.642401 0.002949 0.0
0.954673 0.078080 0.003682 0.0
2.842772 0.003709 0.000625 0.0
3.117011 1.466331 0.003779 0.0
2.345672 1.453376 0.006495 0.0
1.519254 0.688575 0.000663 0.0
2.148725 0.024094 0.001469 0.0
1.622699 0.905445 0.002021 0.0
0.033593 0.076595 -0.000881 0.0
2.839720 0.938037 -0.003114 0.0
2.750458 0.234506 0.003568 0.0
1.535997 1.388138 -0.003091 0.0
0.837154 1.401029 -0.002145 0.0
2.344598 0.821237 0.000605 0.0
1.217423 0.463341 -0.000465 0.0
3.641321 1.173348 0.003605 0.0
3.838521 0.818599 0.001037 0.0
0.104364 0.721930 0.003516 0.0
0.623337 0.451655 -0.001684 0.0
2.425223 0.504147 -0.002569 0.0
4.038558 1.462553 0.007427 0.0
1.921304 0.868736 -0.001439 0.0
3.126979 0.706093 0.004503 0.0
0.258311 1.076886 0.003851 0.0
3.917067 0.163583 -0.001873 0.0
0.247723 0.993111 -0.000223 0.0
0.266030 0.124141 0.002018 0.0
3.178609 1.328016 -0.004273 0.0
2.189646 0.596979 0.001692 0.0
3.308268 0.188405 0.000960 0.0
2.311349 0.426038 0.005027 0.0
3.343068 0.024775 0.000213 0.0
3.399581 0.987557 -0.004673 0.0
1.913898 1.314626 0.002897 0.0
2.635745 0.822799 -0.001599 0.0
3.037730 1.133428 -0.000694 0.0
0.924153 1.493789 0.002082 0.0
3.945705 0.907999 -0.001458 0.0
2.276433 1.428013 -0.001865 0.0
0.787643 1.000819 -0.001955 0.0
1.559145 0.504465 -0.001142 0.0
2.015099 1.486069 0.001297 0.0
2.404879 0.785820 -0.005357 0.0
1.250885 1.269561 0.004993 0.0
1.374663 1.019585 0.002740 0.0
0.601309 0.093562 0.003006 0.0
1.592535 0.407927 0.001137 0.0
0.129465 0.826104 0.003810 0.0
2.607722 0.255091 -0.001210 0.0
3.339739 1.531637 0.002679 0.0
2.562828 0.569256 -0.003623 0.0
3.307698 1.255050 -0.000531 0.0
0.610169 0.856331 -0.001709 0.0
1.413698 0.760365 0.000548 0.0
2.686654 0.521623 0.002028 0.0
3.382520 1.000845 -0.001747 0.0
0.508498 0.515710 -0.003200 0.0
1.888496 1.139081 0.000725 0.0
2.518544 0.117682 0.003276 0.0
1.800521 0.688385 -0.001445 0.0
3.532524 1.170285 0.001361 0.0
2.448108 1.520476 0.000053 0.0
3.073308 0.792256 -0.004893 0.0
2.035395 0.807945 -0.002085 0.0
0.683996 0.655725 -0.003590 0.0
1.540294 0.113484 -0.001227 0.0
3.377132 1.423730 -0.002883 0.0
3.668317 0.130002 0.000035 0.0
1.616716 1.297734 0.001446 0.0
2.427603 0.746960 0.006302 0.0
3.675938 0.923574 0.001359 0.0
2.795725 0.677614 -0.002485 0.0
2.895912 0.139073 0.000397 0.0
0.314503 0.913095 0.000285 0.0
3.406850 1.484147 0.000546 0.0
3.521906 0.607265 0.002019 0.0
3.970641 0.154398 -0.001642 0.0
2.782153 0.085871 0.000191 0.0
1.521406 0.204638 0.002912 0.0
3.960512 1.462379 0.000730 0.0
0.928379 1.279957 -0.001465 0.0
2.785659 0.813929 0.001310 0.0
0.633221 0.776881 -0.000523 0.0
2.172156 0.896964 -0.000641 0.0
2.560048 0.491777 0.002927 0.0
4.043893 0.486024 0.000981 0.0
1.178222 1.092111 -0.000366 0.0
1.506461 0.204267 0.001331 0.0
1.161578 0.307101 0.000414 0.0
1.931810 0.803126 0.002115 0.0
3.096760 0.219389 -0.000579 0.0
0.175181 0.495920 0.002542 0.0
1.284731 0.750553 -0.001625 0.0
3.048486 0.183910 -0.000684 0.0
0.870532 1.205008 -0.000908 0.0
1.227240 0.487763 -0.001341 0.0
1.246545 0.722946 -0.003847 0.0
3.411004 1.477474 0.000147 0.0
3.128952 1.043411 0.001783 0.0
1.579610 0.596250 0.004504 0.0
2.720863 0.165741 -0.000670 0.0
0.029545 0.985916 -0.002981 0.0
3.812173 0.081456 0.004228 0.0
2.893448 1.403241 -0.000246 0.0
3.583721 1.416143 0.002492 0.0
1.706228 0.995113 0.002068 0.0
0.262948 0.872928 -0.002419 0.0
0.660326 0.377218 0.002459 0.0
0.353143 1.118652 -0.002266 0.0
3.135394 0.577275 -0.004033 0.0
3.365071 0.529080 0.000096 0.0
3.099513 1.315312 0.000951 0.0
3.298869 0.264305 0.000222 0.0
1.619548 0.721812 -0.002257 0.0
0.530317 0.199006 -0.001006 0.0
3.615519 1.064403 0.002419 0.0
1.391571 1.149228 -0.000245 0.0
0.943192 1.426867 -0.002939 0.0
1.824719 1.202459 0.002287 0.0
0.160606 1.145443 0.000574 0.0
2.833447 0.007675 -0.000285 0.0
1.631314 1.188541 -0.001640 0.0
0.994520 0.969073 -0.004298 0.0
3.507284 0.694690 0.000846 0.0
3.326100 0.969891 -0.002020 0.0
1.340495 1.233555 0.001504 0.0
4.004849 0.701196 0.000568 0.0
1.720140 0.756641 0.000163 0.0
0.832489 1.361102 -0.001320 0.0
1.004180 0.071990 -0.002449 0.0
3.657659 0.796522 -0.002490 0.0
1.602672 0.274917 -0.003177 0.0
2.636969 1.526264 -0.003383 0.0
3.507115 0.787886 0.000106 0.0
0.755701 0.798077 0.005727 0.0
1.029977 0.580855 0.000882 0.0
0.977108 1.164495 -0.004510 0.0
3.208105 0.302115 -0.003997 0.0
2.618366 0.633521 0.002516 0.0
0.075853 1.282202 0.000474 0.0
0.959640 0.697992 -0.001538 0.0
0.328480 0.006038 0.003128 0.0
1.312190 1.087035 -0.001732 0.0
2.727797 0.035925 -0.000173 0.0
0.026476 0.960302 0.003834 0.0
0.456056 1.391562 -0.006034 0.0
3.089762 1.284553 0.003237 0.0
0.890442 0.684487 -0.004042 0.0
3.062638 0.323761 0.004840 0.0
3.338948 0.963153 0.001304 0.0
3.692322 0.776461 0.001479 0.0
4.030112 0.809810 0.000108 0.0
0.463489 1.074306 0.001198 0.0
0.190943 0.065124 -0.003126 0.0
2.206061 0.697725 -0.002088 0.0
2.351593 0.078388 -0.001476 0.0
2.444738 1.179671 -0.000148 0.0
0.710216 0.425322 0.007072 0.0
0.680792 1.066517 -0.000244 0.0
0.721504 0.310172 -0.006050 0.0
3.301794 0.592099 -0.002895 0.0
1.828468 1.363175 -0.002861 0.0
0.625637 0.915885 0.002249 0.0
0.371279 0.733775 -0.001010 0.0
1.667652 1.184799 -0.001962 0.0
3.228804 0.894585 -0.000320 0.0
0.270030 0.228806 -0.002058 0.0
3.614196 1.470028 0.000783 0.0
0.340832 0.786657 0.000990 0.0
3.446729 1.206828 -0.001447 0.0
3.101820 1.540543 -0.001056 0.0
0.407310 0.146982 0.005178 0.0
3.373956 1.241173 -0.001138 0.0
2.709863 1.280557 0.000766 0.0
0.550819 0.394929 0.006688 0.0
2.752251 0.463163 0.000410 0.0
3.552982 1.404384 0.002375 0.0
1.293587 0.688430 0.002574 0.0
0.633411 0.233168 0.000858 0.0
1.629270 0.663153 -0.001489 0.0
2.563765 0.011991 0.000879 0.0
1.062569 1.527239 -0.006066 0.0
2.601489 0.581615 0.001136 0.0
1.669908 1.024053 0.001079 0.0
1.027980 0.635091 0.004133 0.0
0.419644 1.080952 0.000743 0.0
1.892694 1.384206 -0.000832 0.0
1.808372 1.412834 -0.001988 0.0
3.619996 1.418525 0.000429 0.0
1.584518 0.856328 -0.002095 0.0
0.700358 1.392698 -0.000521 0.0
1.260049 1.093207 0.003220 0.0
1.597829 0.279119 0.001752 0.0
1.795500 1.213983 -0.000686 0.0
0.813019 1.064401 -0.002622 0.0
3.343503 0.602670 0.002605 0.0
1.498405 0.858719 -0.000946 0.0
2.153141 0.799457 -0.004472 0.0
0.630415 0.511406 0.000045 0.0
2.148121 0.632226 0.002881 0.0
1.996715 1.502888 0.001969 0.0
1.913855 1.123759 -0.001135 0.0
2.536887 1.413141 0.000558 0.0
1.225436 0.309248 -0.001280 0.0
0.341971 0.461598 0.000830 0.0
2.962803 1.012842 0.002175 0.0
2.405862 1.361627 0.002828 0.0
1.819900 1.358398 -0.003239 0.0
3.503404 1.471749 -0.004885 0.0
1.054248 0.472636 -0.003436 0.0
1.276264 0.826476 -0.003647 0.0
2.540219 0.044038 0.000798 0.0
3.851535 0.990182 0.000860 0.0
1.740269 0.752485 0.002730 0.0
2.307034 1.237470 0.002276 0.0
3.938806 0.286189 -0.001572 0.0
2.081517 0.378346 -0.004350 0.0
1.633336 0.212542 0.003270 0.0
1.665658 1.362176 -0.000978 0.0
2.169237 0.416441 0.002662 0.0
3.190975 0.415881 -0.003705 0.0
3.710127 0.356169 -0.000165 0.0
1.091532 0.120833 0.001518 0.0
0.040507 0.196706 -0.001431 0.0
0.325472 1.511941 -0.004933 0.0
3.244796 0.893951 0.002242 0.0
3.914432 1.478874 -0.003362 0.0
2.717068 0.075776 0.000323 0.0
1.426652 0.299919 0.001502 0.0
2.734493 1.090181 -0.000944 0.0
1.197683 1.050043 0.002240 0.0
1.008178 0.615335 0.000200 0.0
2.063111 0.370131 0.000053 0.0
1.365732 1.142638 0.003091 0.0
1.038475 0.545969 -0.000726 0.0
3.713892 0.679694 -0.002297 0.0
1.715478 0.635543 0.000534 0.0
2.114899 1.467117 -0.001914 0.0
1.829805 0.364495 0.001259 0.0
2.247701 1.418659 0.001453 0.0
2.270002 0.582285 0.001262 0.0
3.728177 0.707811 0.000044 0.0
3.200738 1.121747 -0.002975 0.0
2.808340 0.741414 -0.002638 0.0
2.172491 1.244639 0.006012 0.0
3.054209 1.525817 0.002018 0.0
0.168393 0.889159 -0.002094 0.0
2.964311 1.080392 0.000813 0.0
3.570282 1.008404 -0.002728 0.0
3.006802 0.525806 0.002156 0.0
0.827100 1.541853 0.000392 0.0
0.093454 1.419276 0.002047 0.0
0.410718 1.509337 -0.000752 0.0
3.114005 0.927661 0.001541 0.0
2.750534 0.374775 0.000297 0.0
4.009450 0.873862 -0.002970 0.0
3.029363 0.054966 -0.000317 0.0
3.475669 0.997184 0.000457 0.0
3.758588 0.099633 0.003085 0.0
3.255565 0.330937 0.001689 0.0
2.471576 1.043921 0.000510 0.0
1.662170 0.524829 0.002072 0.0
3.703700 1.458851 0.001458 0.0
3.939303 0.873409 0.001364 0.0
0.596878 0.023173 0.000767 0.0
0.730089 1.481888 -0.004246 0.0
0.261088 0.218987 -0.001153 0.0
0.324115 0.038456 0.000531 0.0
1.992080 1.446896 -0.002274 0.0
0.779488 0.328263 -0.002098 0.0
1.986261 0.805385 -0.001601 0.0
2.881797 0.965869 0.002683 0.0
3.655029 0.745607 0.000922 0.0
3.214127 0.666364 -0.000925 0.0
0.017581 1.448918 -0.000532 0.0
0.365145 1.233267 -0.000403 0.0
0.992289 1.341829 0.002805 0.0
2.723051 0.859271 0.005513 0.0
1.784167 1.379850 0.003140 0.0
0.139263 0.432406 -0.001485 0.0
2.681866 1.302849 -0.001574 0.0
3.133642 1.511863 0.003077 0.0
2.288213 1.087367 -0.000047 0.0
0.444322 1.500524 0.003935 0.0
3.823235 0.251273 0.000642 0.0
4.015113 0.055198 0.002005 0.0
1.472932 0.635473 0.005324 0.0
1.080785 -0.000851 0.001653 0.0
3.554853 1.472840 -0.000368 0.0
3.601846 0.202926 0.000863 0.0
1.739558 1.194540 0.001309 0.0
3.541783 0.167824 -0.003012 0.0
0.006790 0.144644 -0.000701 0.0
1.001911 0.969674 -0.000320 0.0
0.543519 0.796638 -0.001191 0.0
3.806495 1.089249 -0.001482 0.0
3.562838 0.700985 0.000320 0.0
2.775277 1.261414 0.001359 0.0
2.708773 0.294033 -0.002531 0.0
3.362104 0.464218 -0.000959 0.0
1.957185 0.327257 0.001467 0.0
3.288834 0.362489 0.000263 0.0
3.469505 0.400492 -0.001416 0.0
1.553014 0.521111 -0.003487 0.0
3.730484 0.215047 -0.005737 0.0
2.911252 0.429760 -0.001338 0.0
4.032073 0.894168 0.002024 0.0
3.093279 0.487639 -0.002694 0.0
0.580530 1.405629 0.005108 0.0
1.786041 1.069948 0.000001 0.0
0.670187 0.090347 -0.000245 0.0
2.667017 1.075507 0.003178 0.0
2.473987 0.562000 0.003872 0.0
1.248790 0.830410 0.000880 0.0
0.950455 0.645363 -0.000595 0.0
3.048932 1.422271 0.001936 0.0
1.661664 0.007707 0.000687 0.0
3.655772 1.384512 -0.001542 0.0
1.254297 0.442505 -0.003435 0.0
1.077277 0.709224 -0.001799 0.0
0.513677 0.996747 0.002275 0.0
3.014952 0.055011 0.000485 0.0
1.808764 1.487190 0.005250 0.0
3.404519 0.283406 0.002941 0.0
0.595069 0.466833 -0.003044 0.0
0.931307 1.523099 0.002154 0.0
0.048139 0.791502 0.000261 0.0
1.302272 0.012721 0.001148 0.0
1.409343 0.450003 0.004224 0.0
0.152268 1.011828 0.003696 0.0
1.301608 0.012224 -0.001285 0.0
2.209440 0.252794 0.000807 0.0
1.676162 0.293244 -0.000125 0.0
2.221125 1.254821 -0.002963 0.0
0.126663 1.427861 0.001955 0.0
2.354846 1.524571 0.001497 0.0
0.889435 0.083527 -0.002242 0.0
0.020166 0.983900 -0.002059 0.0
0.680431 0.534989 0.000247 0.0
1.333148 0.119467 0.004341 0.0
3.908297 0.090855 -0.000351 0.0
0.262139 0.548729 -0.000534 0.0
2.696563 0.801471 0.001151 0.0
2.806622 0.975442 -0.002119 0.0
2.173516 1.009778 0.002333 0.0
3.157097 1.024070 0.001935 0.0
3.521012 0.662920 -0.002867 0.0
3.835613 1.538328 -0.000479 0.0
3.655337 0.263901 -0.000028 0.0
1.302711 0.194275 0.002232 0.0
3.607185 0.336526 -0.000833 0.0
2.294873 1.037431 -0.002025 0.0
3.521325 1.177407 0.000465 0.0
3.944696 0.954084 0.002885 0.0
1.028688 0.796725 0.001292 0.0
1.023592 0.863471 -0.000018 0.0
0.047344 1.509747 -0.001099 0.0
2.684692 0.400684 -0.001641 0.0
1.336874 0.033416 -0.001061 0.0
0.578127 0.763077 0.002774 0.0
3.922080 1.512274 -0.006629 0.0
2.817807 1.510672 0.003136 0.0
0.149180 1.354290 -0.000554 0.0
3.424970 0.378275 -0.001579 0.0
2.016703 0.135850 0.000614 0.0
1.648128 0.180958 -0.002510 0.0
0.469985 0.271139 -0.001510 0.0
2.055740 0.531343 0.004492 0.0
2.410547 1.341105 -0.000693 0.0
2.857817 0.298990 0.001402 0.0
3.643479 0.971777 -0.000634 0.0
1.509146 0.678788 -0.002713 0.0
1.085126 1.439749 -0.001785 0.0
1.801628 0.185481 -0.000132 0.0
0.982930 0.627987 0.001248 0.0
3.018542 1.001946 -0.004147 0.0
2.635399 1.033793 -0.002107 0.0
0.124869 0.041040 -0.000779 0.0
2.836698 0.834564 -0.003298 0.0
0.049756 0.753426 0.000421 0.0
2.868947 1.335434 -0.007559 0.0
2.375839 0.254123 -0.001278 0.0
0.157936 1.026208 -0.000554 0.0
3.574934 0.190639 0.001701 0.0
1.957223 0.330104 0.004942 0.0
0.476453 1.020675 0.002399 0.0
2.597867 0.107596 -0.000388 0.0
1.761277 0.302854 -0.001913 0.0
3.486859 1.107430 0.003024 0.0
3.420519 1.528345 0.002509 0.0
3.690631 1.257797 0.000043 0.0
0.989397 1.508521 0.000253 0.0
2.416123 0.550158 -0.000976 0.0
2.908664 1.311064 -0.000963 0.0
1.785859 0.471460 0.001457 0.0
3.967513 0.089253 0.001607 0.0
1.045035 1.477817 0.003698 0.0
3.212584 0.166514 -0.003696 0.0
2.787645 0.564088 -0.002695 0.0
2.188663 0.955858 0.004361 0.0
3.793932 1.255630 0.003548 0.0
1.900293 1.036368 0.003332 0.0
2.069110 0.365856 0.003394 0.0
3.158787 0.419028 -0.004694 0.0
1.136613 0.678842 0.006114 0.0
3.779050 0.263923 -0.001060 0.0
3.972741 1.017009 -0.001985 0.0
2.649028 1.302170 -0.001922 0.0
3.312104 0.050073 0.002367 0.0
2.591614 0.190375 -0.000555 0.0
2.742008 0.127626 -0.002993 0.0
1.411522 1.377798 -0.004749 0.0
2.995281 1.446224 0.001968 0.0
0.062487 0.752459 0.001314 0.0
3.726745 1.440545 -0.004610 0.0
2.238444 0.672752 0.001196 0.0
2.145722 0.025375 -0.002106 0.0
1.959075 0.272305 -0.000003 0.0
0.584459 0.246961 -0.004840 0.0
3.059724 0.453677 0.001294 0.0
1.967983 1.168305 0.004999 0.0
0.166351 0.033757 0.003761 0.0
1.332602 1.132892 0.001205 0.0
2.116473 1.466560 -0.000535 0.0
0.910404 1.041070 -0.001275 0.0
0.899111 0.180771 0.000931 0.0
3.479545 1.533031 -0.002841 0.0
1.538916 0.611421 0.001726 0.0
3.437191 0.122850 0.004056 0.0
0.023173 0.589549 -0.002254 0.0
0.720643 1.088118 0.004465 0.0
0.702115 1.313688 0.002920 0.0
0.138010 0.201065 -0.000450 0.0
3.281495 1.281998 0.000500 0.0
3.928552 0.650750 -0.003600 0.0
1.473962 0.232467 0.000051 0.0
3.346267 1.456390 -0.000343 0.0
1.399925 1.322396 0.000868 0.0
0.727421 0.286002 0.000838 0.0
2.947665 0.268403 0.003840 0.0
1.874812 0.490348 -0.000864 0.0
0.413549 0.237399 0.000547 0.0
3.243388 0.581288 0.000268 0.0
3.278067 1.471974 -0.000960 0.0
0.929307 1.288206 0.001183 0.0
3.126077 1.201102 -0.000496 0.0
3.141747 1.379113 0.000379 0.0
3.926849 1.245507 -0.000716 0.0
0.929645 0.227206 0.001063 0.0
1.538804 0.371698 0.001036 0.0
1.280294 0.540592 0.002525 0.0
3.122201 1.487951 -0.002642 0.0
3.249349 0.768368 -0.000628 0.0
4.019515 0.138258 0.002208 0.0
0.118797 1.476569 -0.001930 0.0
2.901084 0.569917 -0.001184 0.0
3.392710 1.037055 0.001375 0.0
1.026626 1.210343 -0.003623 0.0
2.957216 0.190236 0.002126 0.0
1.225721 0.317378 -0.000362 0.0
0.997083 0.707484 0.000843 0.0
2.065589 1.529599 0.000089 0.0
1.131537 0.675720 0.001275 0.0
2.524549 0.820577 -0.002684 0.0
3.118829 0.118593 -0.001140 0.0
3.996198 1.117993 -0.003375 0.0
0.875631 0.874815 0.000042 0.0
2.696856 0.487114 0.004015 0.0
0.641366 1.464923 0.001327 0.0
2.873777 0.581394 0.003245 0.0
3.901522 1.098891 -0.000542 0.0
1.603135 0.988856 -0.000882 0.0
0.196822 0.503114 -0.001401 0.0
1.768126 0.801570 0.002797 0.0
1.867121 0.002078 0.003221 0.0
1.792198 0.782890 0.001336 0.0
3.114373 1.323706 0.003537 0.0
0.206166 0.732191 0.000652 0.0
2.007042 0.490881 -0.002245 0.0
1.290065 1.469574 0.001301 0.0
1.795824 0.452240 -0.000123 0.0
0.727544 0.768100 -0.003345 0.0
0.947067 0.296939 -0.000358 0.0
3.672544 0.331790 0.001056 0.0
1.642175 1.420980 -0.000271 0.0
3.087514 1.053653 0.000381 0.0
3.470585 1.056605 0.000087 0.0
1.010991 1.308991 0.000285 0.0
2.534413 0.279135 0.002515 0.0
4.017747 0.588884 0.000350 0.0
0.366752 0.594139 -0.001267 0.0
3.879660 1.431892 -0.002364 0.0
3.027504 0.588685 -0.000950 0.0
1.887846 0.435958 0.003693 0.0
3.800877 1.097340 0.001725 0.0
1.176124 0.698056 0.000259 0.0
0.045755 0.314637 -0.000005 0.0
1.128855 0.088609 -0.004261 0.0
0.954697 0.482602 0.007441 0.0
2.414277 0.379118 -0.000891 0.0
3.916546 0.497260 0.000649 0.0
1.068376 0.654734 -0.001359 0.0
0.544785 0.842815 0.001766 0.0
2.291087 0.046036 0.002665 0.0
3.225397 1.175435 0.005010 0.0
1.161625 0.178753 0.005711 0.0
0.436468 0.340190 -0.000297 0.0
0.290711 0.809655 0.004543 0.0
0.039036 0.449808 -0.000143 0.0
1.742273 1.470800 -0.002163 0.0
2.774470 1.120809 -0.000029 0.0
0.460868 0.360854 0.000502 0.0
1.315286 0.538298 -0.000578 0.0
1.252740 0.532539 -0.000213 0.0
4.024681 0.430237 0.006904 0.0
0.073121 0.772736 0.004855 0.0
2.550455 1.301092 -0.001859 0.0
2.555746 0.474898 -0.001089 0.0
2.235627 0.797056 -0.000973 0.0
1.040139 0.339496 0.001973 0.0
1.523394 1.024120 -0.001065 0.0
2.341715 0.007674 0.002304 0.0
1.037687 1.337465 0.001046 0.0
3.190214 0.920817 -0.001367 0.0
3.518706 0.965972 -0.001454 0.0
3.876835 0.507608 0.000993 0.0
1.912581 0.793889 -0.001148 0.0
1.106294 0.334211 -0.001057 0.0
0.453548 1.477735 -0.000591 0.0
1.243158 0.986919 -0.000046 0.0
2.822320 0.309566 0.003131 0.0
4.031565 0.011267 0.001932 0.0
1.305542 1.178069 0.001368 0.0
1.417268 0.343816 -0.000022 0.0
0.165711 0.366775 -0.003007 0.0
1.249210 0.671744 0.002216 0.0
1.401376 1.453862 0.000903 0.0
2.995147 0.752094 0.003491 0.0
4.045794 1.143259 -0.001420 0.0
0.037005 0.258347 -0.004704 0.0
1.143764 1.488122 -0.001299 0.0
2.441512 0.308762 0.001730 0.0
2.860045 0.304901 0.000073 0.0
1.537614 0.551285 0.003094 0.0
3.704884 0.851420 0.000857 0.0
2.838347 0.757840 -0.001751 0.0
2.882139 0.218755 -0.007672 0.0
3.822577 0.014347 0.000441 0.0
0.148719 0.976568 -0.000001 0.0
3.322697 0.178407 0.000056 0.0
3.086315 0.246829 0.000147 0.0
1.590392 1.169798 0.000989 0.0
1.904236 1.115913 -0.000087 0.0
1.505590 0.404512 -0.001681 0.0
1.554610 0.526695 0.002881 0.0
1.152393 0.979805 -0.001356 0.0
0.569828 0.186300 0.000999 0.0
2.509439 0.540203 0.001333 0.0
3.853785 1.336101 0.000168 0.0
3.991731 1.126621 0.003292 0.0
2.418876 0.732490 -0.002087 0.0
3.762756 1.105688 0.001031 0.0
3.436076 0.700821 -0.000708 0.0
1.434668 0.957405 -0.001062 0.0
3.544428 1.454979 0.003889 0.0
2.453352 1.233712 -0.002106 0.0
2.913575 0.783592 0.005255 0.0
2.156935 1.230737 -0.001877 0.0
2.805846 0.150022 0.000109 0.0
1.333823 0.439853 0.003157 0.0
1.506064 0.725865 -0.003985 0.0
2.890689 1.340262 -0.006250 0.0
3.298815 1.363733 0.001278 0.0
2.422807 0.297467 -0.002039 0.0
2.392143 0.360048 0.003490 0.0
1.002375 0.996308 0.000890 0.0
0.575429 1.273646 -0.000638 0.0
0.252439 0.689927 0.000520 0.0
1.680327 1.508231 0.000912 0.0
1.509253 1.409335 -0.002798 0.0
0.114692 0.266898 -0.002382 0.0
0.832231 0.779640 0.003371 0.0
3.483393 0.693572 0.002028 0.0
1.050811 0.719322 -0.003530 0.0
2.822429 0.234112 0.000644 0.0
3.845269 0.564456 0.000976 0.0
2.855202 0.704290 -0.002505 0.0
2.626187 0.100254 -0.000168 0.0
0.118341 1.439975 -0.003168 0.0
0.420321 0.460545 0.000386 0.0
1.029882 1.076020 0.000406 0.0
2.536786 0.552993 -0.000029 0.0
3.603627 0.274929 0.001459 0.0
1.373077 0.373085 0.000726 0.0
0.322417 0.720065 -0.001016 0.0
0.849213 0.054238 -0.002683 0.0
0.084103 0.674819 0.000329 0.0
2.362435 0.846909 -0.005771 0.0
1.891845 0.021419 -0.001850 0.0
1.773867 0.553561 -0.001296 0.0
1.021274 0.477860 -0.002446 0.0
0.475578 0.714131 0.000239 0.0
2.009571 0.995623 0.002193 0.0
2.333810 1.016884 -0.000294 0.0
3.053451 1.185796 0.001312 0.0
0.417002 0.692425 -0.001965 0.0
2.694960 0.107664 -0.000983 0.0
1.744685 1.270996 0.000609 0.0
1.008940 0.118980 0.004117 0.0
2.886586 0.391783 -0.000587 0.0
2.114293 1.477802 -0.004364 0.0
1.375859 0.878522 0.000738 0.0
3.664859 0.408976 -0.005270 0.0
1.928827 0.335607 0.002755 0.0
3.370087 0.828900 0.000117 0.0
3.442413 0.375346 0.000674 0.0
3.434931 0.809564 -0.000848 0.0
1.457480 1.286072 0.001083 0.0
0.329903 0.833635 -0.001899 0.0
0.899706 0.230708 0.001103 0.0
2.491567 1.038932 -0.000835 0.0
3.497867 0.031220 0.002306 0.0
0.699699 0.432771 -0.000381 0.0
1.107624 1.306082 -0.000835 0.0
3.319050 1.496686 -0.001397 0.0
3.506746 0.008700 0.001872 0.0
2.055909 1.197327 0.002343 0.0
1.076846 0.426540 -0.000228 0.0
1.228155 1.258113 -0.001240 0.0
3.212227 1.185019 -0.001092 0.0
1.587724 0.333234 0.001603 0.0
1.260025 1.531185 -0.001091 0.0
0.890334 0.256191 -0.002718 0.0
2.414481 0.669699 -0.004421 0.0
1.887825 1.485243 0.003754 0.0
1.650948 0.157332 -0.002564 0.0
0.209508 0.014791 -0.002250 0.0
2.923484 1.123498 -0.001432 0.0
1.745144 0.944307 0.002303 0.0
0.323330 0.973646 0.000510 0.0
0.221061 0.896154 0.001173 0.0
0.214649 1.068904 -0.001013 0.0
2.426101 0.204938 -0.000188 0.0
1.598136 0.667384 -0.001242 0.0
1.917679 0.835798 0.000521 0.0
1.852415 1.212295 -0.003102 0.0
0.180004 0.486886 0.000339 0.0
2.884164 0.294799 -0.002044 0.0
0.969516 1.426402 0.000379 0.0
2.897854 0.613551 0.004682 0.0
1.388420 1.028013 0.000624 0.0
1.573662 0.233435 -0.000052 0.0
0.790538 0.829664 0.003899 0.0
3.627764 0.698218 -0.003412 0.0
1.293167 1.010475 -0.001513 0.0
2.792589 0.510171 -0.000090 0.0
0.149172 0.977707 -0.003114 0.0
2.185943 0.893470 -0.005109 0.0
3.401632 0.535963 -0.000086 0.0
2.779433 0.961882 0.001354 0.0
2.794737 0.988132 -0.001501 0.0
2.666628 1.243296 -0.000679 0.0
0.625424 1.486758 -0.001477 0.0
0.854287 1.281188 -0.001254 0.0
1.104682 0.529432 -0.003361 0.0
3.214283 0.195664 0.000814 0.0
2.849017 0.607919 -0.002435 0.0
2.574840 1.015356 0.000999 0.0
0.236692 0.519280 -0.000501 0.0
1.685486 0.344068 -0.004281 0.0
1.679481 1.120996 0.001425 0.0
3.857546 0.772207 -0.001738 0.0
1.427731 0.785202 -0.004469 0.0
3.828455 1.377970 -0.002229 0.0
3.873968 0.956546 -0.002060 0.0
2.029676 0.767970 -0.000210 0.0
2.090667 1.222172 0.001073 0.0
2.173788 0.856245 0.003264 0.0
1.696364 1.250062 0.001404 0.0
1.694674 1.505551 0.001088 0.0
1.174594 0.933784 0.002801 0.0
0.931602 1.041891 0.002614 0.0
1.981773 1.157656 -0.000020 0.0
1.364004 0.949622 -0.000633 0.0
0.955601 1.003775 0.006024 0.0
1.612933 0.375462 0.005135 0.0
2.521701 0.583919 -0.002577 0.0
0.268369 1.079073 0.002163 0.0
1.994552 1.151404 0.000740 0.0
0.826725 1.383518 -0.004811 0.0
3.313793 1.020012 -0.000362 0.0
1.073986 0.194801 0.001853 0.0
0.577567 0.834696 0.005098 0.0
0.185410 1.484788 0.001982 0.0
0.829108 0.778710 0.001725 0.0
0.516874 1.401370 0.003040 0.0
1.658056 0.910359 0.000380 0.0
2.239681 0.860822 -0.000533 0.0
3.368027 0.158648 0.005305 0.0
2.333163 0.233600 -0.002347 0.0
1.570570 0.835856 -0.000224 0.0
3.808924 0.219890 -0.004573 0.0
2.446035 0.479245 -0.000494 0.0
3.726215 0.936953 -0.000938 0.0
0.282505 0.581839 -0.000410 0.0
1.935687 1.103337 0.003190 0.0
3.310066 0.090363 -0.003751 0.0
2.996352 1.265513 0.003549 0.0
0.288882 0.066469 -0.003511 0.0
3.803094 0.717087 0.000962 0.0
2.860544 0.095376 0.000764 0.0
3.309395 0.630014 -0.001463 0.0
3.378427 0.854452 -0.002086 0.0
2.643803 0.871962 0.001285 0.0
2.101931 1.515136 0.002593 0.0
1.391671 0.364107 0.004891 0.0
3.144090 0.730948 -0.000778 0.0
3.503963 0.032955 0.005792 0.0
1.504734 0.268036 0.001648 0.0
2.336736 0.654717 0.000633 0.0
0.334378 1.343369 0.002793 0.0
3.397153 0.324319 -0.000807 0.0
3.706370 1.348898 0.000277 0.0
2.183635 1.029257 0.000488 0.0
2.236652 0.142955 -0.000754 0.0
2.206737 0.338347 0.000681 0.0
2.847875 0.992879 -0.002504 0.0
3.286055 0.746108 -0.003718 0.0
2.234281 0.600770 -0.005121 0.0
0.399732 1.406245 -0.001723 0.0
2.737002 0.948103 0.002547 0.0
1.872893 0.086935 0.002150 0.0
0.918396 1.252141 0.003005 0.0
1.718516 1.435865 -0.002747 0.0
3.825029 0.233600 0.001433 0.0
3.814334 1.408988 0.006881 0.0
3.902528 0.696288 0.003452 0.0
0.730465 0.682100 -0.002386 0.0
2.284965 1.126348 -0.002272 0.0
2.576784 0.545426 -0.000275 0.0
3.446080 1.500600 -0.001314 0.0
1.092645 0.376954 0.001155 0.0
2.399371 1.344719 -0.002868 0.0
2.009068 0.571742 -0.000709 0.0
1.286036 1.396984 0.001865 0.0
1.458408 0.460416 -0.003889 0.0
0.764731 0.761280 -0.000242 0.0
0.631946 0.906825 -0.001974 0.0
1.038072 0.669707 -0.007355 0.0
3.890452 0.904224 0.000685 0.0
2.977623 0.780605 -0.002059 0.0
1.621390 0.977685 0.002018 0.0
0.570466 0.813729 -0.001068 0.0
2.180411 0.923937 0.001623 0.0
2.771278 0.874375 0.002530 0.0
0.119225 0.033522 -0.001567 0.0
1.755661 0.144432 0.004233 0.0
1.060525 0.584049 -0.000054 0.0
0.678558 1.461458 -0.002831 0.0
0.522610 0.765135 0.000340 0.0
1.615395 0.112041 0.001549 0.0
1.416050 0.363949 -0.003887 0.0
2.558925 1.254473 -0.000947 0.0
2.523535 0.587676 -0.000505 0.0
2.912319 0.617550 -0.000493 0.0
1.162224 0.603823 -0.002108 0.0
2.892402 1.210424 -0.004230 0.0
3.677260 0.055231 0.001457 0.0
1.079747 1.476027 0.000004 0.0
2.285556 1.319271 -0.001215 0.0
1.551662 0.465253 0.001657 0.0
0.948898 1.519299 0.000464 0.0
1.292941 1.001379 0.000113 0.0
2.233210 1.324840 -0.001253 0.0
2.659492 1.178647 0.001681 0.0
2.813487 0.316771 0.000717 0.0
1.088829 1.069866 -0.001779 0.0
0.641122 1.404367 0.001131 0.0
3.391819 0.342065 -0.002924 0.0
3.121827 1.454722 0.002556 0.0
3.197127 0.008927 0.000581 0.0
3.564218 0.021617 -0.001281 0.0
2.240098 0.766537 -0.001918 0.0
2.204104 0.676295 -0.004033 0.0
2.507762 0.283152 -0.001869 0.0
2.340068 1.452209 -0.003505 0.0
3.614997 1.089074 -0.006359 0.0
2.870431 0.563546 -0.000986 0.0
0.495505 1.410673 -0.000767 0.0
3.126639 0.519476 -0.001770 0.0
3.447118 0.222064 -0.000043 0.0
3.620199 0.008225 -0.000611 0.0
3.641234 0.812157 -0.004106 0.0
0.620985 1.537619 0.000351 0.0
0.761242 0.691085 0.001876 0.0
1.201003 0.343983 0.001812 0.0
2.554615 0.655575 0.000679 0.0
2.050300 1.439132 -0.002152 0.0
3.288765 1.172936 -0.003720 0.0
0.202279 0.571635 0.001036 0.0
0.972675 0.428304 -0.001458 0.0
3.142213 1.068888 -0.008004 0.0
1.170973 0.589523 0.003107 0.0
2.486011 0.213632 -0.002156 0.0
3.005600 0.679584 0.000075 0.0
3.900259 0.784878 0.000515 0.0
2.875223 1.040980 -0.002151 0.0
2.596361 0.446616 -0.002728 0.0
3.661040 0.335233 0.000050 0.0
0.955879 0.304031 -0.002767 0.0
3.671213 1.210321 0.002023 0.0
0.843279 1.309950 -0.002081 0.0
1.352085 1.468338 0.000051 0.0
1.780849 1.274462 -0.002219 0.0
0.720317 0.161397 -0.005095 0.0
2.935182 0.575130 0.001023 0.0
3.844070 0.667746 -0.001112 0.0
3.929717 1.130665 0.001372 0.0
3.769592 0.746164 -0.000235 0.0
3.644168 1.311771 -0.000353 0.0
3.647806 1.419147 0.004889 0.0
0.681124 0.015187 -0.000037 0.0
0.005516 0.946696 -0.004497 0.0
2.324899 0.735069 -0.000157 0.0
0.979299 0.677017 -0.001402 0.0
0.560723 1.377072 -0.002264 0.0
0.225378 1.239005 0.000977 0.0
2.059524 1.062104 0.002930 0.0
3.606724 1.360281 -0.005046 0.0
0.074533 0.457287 0.000075 0.0
2.612160 0.127781 0.006786 0.0
0.020125 0.542324 -0.000240 0.0
3.375311 0.756674 0.000449 0.0
2.539139 0.443804 0.000009 0.0
3.209311 0.068106 0.002307 0.0
3.751007 0.245092 0.003238 0.0
0.744537 1.263058 -0.001339 0.0
0.182275 0.832048 0.000114 0.0
1.626868 0.543775 0.002030 0.0
2.620548 1.033104 -0.001811 0.0
0.800659 0.717477 0.002746 0.0
2.405325 0.692763 0.005152 0.0
1.365445 0.177830 -0.002330 0.0
0.521211 0.909478 -0.000940 0.0
1.143051 0.608910 -0.005359 0.0
3.761412 0.952987 0.001910 0.0
3.758917 0.238910 -0.003360 0.0
1.714213 0.728708 0.001129 0.0
4.044737 1.025173 -0.004108 0.0
3.033889 0.225788 0.000133 0.0
3.637803 0.794765 0.000732 0.0
1.404519 0.559980 -0.000169 0.0
2.781358 0.580258 0.000983 0.0
2.724331 1.160769 0.000180 0.0
0.139538 0.347950 0.001547 0.0
2.625234 1.040331 0.002164 0.0
1.395193 0.422014 0.000066 0.0
2.106656 0.760266 0.001222 0.0
0.148934 0.052021 -0.001474 0.0
3.706009 1.264786 -0.003333 0.0
0.665863 0.837040 0.005789 0.0
1.501917 0.734004 0.000565 0.0
3.164367 0.201293 -0.001208 0.0
0.662520 1.153397 0.004395 0.0
2.022946 0.025974 0.000389 0.0
2.635255 0.905747 0.002775 0.0
3.059288 1.097528 0.002939 0.0
1.944650 1.231287 0.000576 0.0
0.810878 0.759672 -0.000464 0.0
2.381140 0.621522 0.002583 0.0
3.573200 1.055034 -0.001087 0.0
0.820632 0.990123 0.004625 0.0
0.688592 0.489522 0.002496 0.0
3.450112 1.524296 0.002729 0.0
3.308218 0.841441 0.000850 0.0
1.203576 0.854160 0.002858 0.0
3.063694 0.049773 -0.001699 0.0
3.437557 1.278848 -0.002550 0.0
3.323385 1.228754 -0.005010 0.0
3.663400 0.350981 -0.003516 0.0
2.171696 0.840850 -0.000015 0.0
2.559113 0.767336 0.000869 0.0
2.683220 1.007280 -0.002001 0.0
3.997793 1.406693 -0.000724 0.0
0.820577 0.603630 -0.001753 0.0
1.723225 0.585140 -0.002184 0.0
2.985669 0.407820 0.003097 0.0
0.231211 0.992482 -0.002730 0.0
3.371042 1.255470 0.002684 0.0
3.750656 1.306460 -0.005414 0.0
1.805106 0.601863 0.000497 0.0
2.956328 0.018346 -0.002963 0.0
1.539353 1.515067 -0.002668 0.0
0.289453 0.393117 0.001405 0.0
1.048841 0.310582 -0.000951 0.0
3.497462 1.364614 -0.003674 0.0
2.722081 1.026631 0.001672 0.0
2.685767 0.882731 -0.002874 0.0
1.347334 0.242174 0.001222 0.0
1.256222 0.653652 -0.003522 0.0
3.965510 0.655773 0.000540 0.0
0.137872 0.931289 0.001043 0.0
1.710596 1.441325 -0.002011 0.0
0.290436 0.789597 0.001949 0.0
1.283305 0.540155 0.000031 0.0
1.001056 1.229225 -0.001966 0.0
2.680873 0.572872 -0.000550 0.0
0.862021 0.370414 0.003541 0.0
2.678383 1.270633 -0.001206 0.0
0.458497 0.865571 0.000058 0.0
0.653046 1.103591 0.003390 0.0
1.542604 0.132623 -0.000919 0.0
2.801404 1.297662 0.007613 0.0
1.804729 0.560545 0.000093 0.0
3.141059 0.693981 -0.000231 0.0
0.321237 1.145047 0.000502 0.0
2.415311 0.473006 -0.000187 0.0
2.568706 0.721161 0.003791 0.0
0.719667 1.114654 -0.002615 0.0
1.191585 1.422385 0.000603 0.0
0.276457 1.507454 -0.002129 0.0
0.907561 0.244896 0.001896 0.0
2.280531 0.610132 0.003214 0.0
0.490320 0.214860 -0.001648 0.0
1.639349 0.680130 -0.001770 0.0
3.447060 1.225342 0.000177 0.0
1.067174 1.020771 0.000110 0.0
3.778841 0.347791 -0.002393 0.0
2.345444 0.386856 0.000549 0.0
3.839387 1.457109 -0.001452 0.0
2.771090 0.988742 -0.001669 0.0
1.476823 0.042302 0.004340 0.0
0.833614 1.150616 0.001708 0.0
0.432601 1.329869 -0.000143 0.0
0.024388 0.648240 -0.001547 0.0
2.387501 0.222577 0.001628 0.0
0.999611 0.446012 0.002011 0.0
0.020082 0.292061 0.000138 0.0
0.065039 0.183526 -0.002144 0.0
0.636394 1.147825 0.000210 0.0
1.653292 0.083511 0.000806 0.0
0.717810 1.129514 0.004859 0.0
2.329185 0.827752 0.001409 0.0
0.764890 1.100497 0.000342 0.0
2.083072 1.220668 0.000496 0.0
2.210265 0.220464 -0.001302 0.0
2.370871 0.489221 0.003771 0.0
1.631534 0.990305 0.002643 0.0
1.890653 0.310151 0.004102 0.0
1.896127 0.156376 0.000673 0.0
1.756948 0.477211 0.001718 0.0
0.376922 0.494332 0.002137 0.0
1.078747 0.077896 -0.002023 0.0
2.002805 0.343081 -0.001080 0.0
2.255026 1.032347 -0.001893 0.0
1.833978 0.669840 0.002508 0.0
2.923111 1.484399 0.001992 0.0
3.142483 1.236621 -0.001400 0.0
0.592977 0.386836 -0.003544 0.0
0.455231 0.486479 0.000726 0.0
1.961921 0.619805 -0.000624 0.0
2.976924 1.273391 0.004115 0.0
2.445980 1.095079 0.001254 0.0
1.878059 0.598737 0.004408 0.0
2.167348 1.151569 -0.000651 0.0
2.366970 0.693101 -0.000162 0.0
3.500729 1.521596 -0.002261 0.0
3.020702 0.890807 -0.003655 0.0
3.232025 1.189281 -0.002564 0.0
0.396326 0.898720 0.003600 0.0
3.311709 0.279230 -0.001742 0.0
1.072300 0.341429 -0.003982 0.0
3.804901 0.497411 -0.003235 0.0
3.074516 1.369034 0.000786 0.0
1.317837 0.869076 0.002894 0.0
1.634307 0.334449 0.001095 0.0
2.239875 0.108503 0.000054 0.0
1.370927 0.347930 0.003433 0.0
2.000512 0.311149 -0.004385 0.0
2.372957 0.677648 -0.002452 0.0
1.747619 0.686358 -0.001264 0.0
0.511254 1.513771 -0.005550 0.0
0.006816 1.168430 0.001946 0.0
1.558879 1.287366 0.004608 0.0
3.006344 0.950271 0.002180 0.0
0.898760 1.378293 -0.001792 0.0
2.404447 0.173871 0.001062 0.0
1.540184 0.927754 -0.002609 0.0
3.147723 0.762343 -0.002286 0.0
2.505581 0.484882 0.003543 0.0
0.377789 0.793136 0.001675 0.0
0.129055 0.288968 0.002826 0.0
1.082865 1.398319 0.000202 0.0
1.922917 1.136181 0.003446 0.0
0.321741 1.329987 0.000993 0.0
1.042937 0.372452 -0.003203 0.0
3.226140 1.293284 0.001149 0.0
3.656277 0.700114 -0.000531 0.0
3.486922 0.501987 -0.000498 0.0
3.258840 0.153041 -0.002535 0.0
3.754879 0.388612 -0.000749 0.0
0.288406 0.282492 -0.000585 0.0
1.974826 1.323921 0.000773 0.0
2.434432 0.968944 -0.001983 0.0
0.042802 0.643781 0.001384 0.0
1.884166 1.440236 0.000466 0.0
0.760823 1.134426 0.002110 0.0
2.986879 0.616654 0.001922 0.0
3.309191 0.345340 -0.000371 0.0
1.091034 1.357756 0.001148 0.0
0.211449 0.191103 -0.001454 0.0
0.776287 1.091320 -0.000230 0.0
2.973022 0.401164 -0.004017 0.0
2.093474 0.253555 -0.003681 0.0
2.060099 0.188015 0.005731 0.0
0.719163 0.876134 -0.002784 0.0
2.670293 0.541676 0.003979 0.0
2.715319 0.705734 -0.001339 0.0
1.668741 1.307461 -0.000515 0.0
1.640851 0.055605 0.000116 0.0
2.008536 0.533427 -0.000516 0.0
2.249644 0.088170 0.001411 0.0
0.785538 0.156030 0.001882 0.0
3.817544 0.351436 0.004137 0.0
0.426451 0.893200 0.001097 0.0
0.050268 0.037779 0.003578 0.0
0.065586 1.231537 -0.001826 0.0
3.035877 1.202949 0.001795 0.0
0.744055 0.648025 0.001406 0.0
0.907309 0.340512 -0.000331 0.0
2.178419 1.425796 0.003286 0.0
2.353843 1.033853 -0.001038 0.0
3.150773 1.388481 -0.000953 0.0
3.415801 0.688705 -0.002259 0.0
1.464099 1.345893 -0.003188 0.0
2.929799 0.061197 -0.000870 0.0
2.439507 0.586346 0.002346 0.0
3.257273 0.578428 0.000895 0.0
2.295312 0.349654 -0.001883 0.0
0.850524 0.247858 -0.006447 0.0
3.525435 1.446556 -0.003093 0.0
2.289332 1.468191 0.002959 0.0
1.441970 0.542165 0.000619 0.0
0.959818 0.392180 0.002030 0.0
2.582774 0.089710 0.000650 0.0
3.957726 1.437416 0.000967 0.0
2.827027 0.453065 -0.002444 0.0
2.005111 0.910459 0.001982 0.0
2.527159 1.421767 -0.001675 0.0
1.171588 0.501862 -0.001397 0.0
3.321230 0.692471 -0.001345 0.0
0.203091 0.899087 0.000405 0.0
1.953055 0.582042 0.001369 0.0
2.916992 0.052865 -0.004279 0.0
0.316026 0.829494 -0.000162 0.0
0.274893 0.439659 -0.000602 0.0
0.265834 0.287493 0.002178 0.0
1.138573 1.503965 0.000805 0.0
1.845115 0.189708 0.001273 0.0
1.674227 0.980957 0.000170 0.0
2.651884 0.944653 0.002451 0.0
1.021205 0.593901 0.000010 0.0
0.557390 0.091441 -0.000308 0.0
1.670962 0.709463 0.001383 0.0
0.687179 0.863333 0.003577 0.0
2.934519 1.117886 0.000499 0.0
2.010823 1.004574 -0.000068 0.0
1.988016 1.251429 0.004887 0.0
4.015854 0.041682 -0.000231 0.0
2.890346 1.060249 -0.001835 0.0
2.270035 1.505654 0.001544 0.0
0.108417 0.082010 -0.004153 0.0
1.259788 1.265043 0.003070 0.0
0.007863 1.501859 0.001095 0.0
3.056674 1.104668 -0.000418 0.0
0.463042 0.753586 0.001290 0.0
3.163952 0.688825 0.001138 0.0
3.669047 0.348593 0.000520 0.0
3.289357 0.222766 0.001178 0.0
1.726803 1.309644 0.000702 0.0
3.368499 1.309257 0.001673 0.0
1.763097 0.545514 -0.001330 0.0
0.200395 0.645376 0.000643 0.0
1.642701 0.192547 0.000555 0.0
1.188876 0.589490 -0.003213 0.0
0.977614 1.227901 0.001806 0.0
3.764122 0.099609 -0.002292 0.0
0.435538 0.569772 0.003724 0.0
0.767505 0.999108 -0.000385 0.0
0.311836 0.061739 -0.005347 0.0
1.390682 1.356032 -0.000309 0.0
2.341442 1.445499 -0.006213 0.0
3.992290 0.370612 -0.000134 0.0
0.257803 0.167190 -0.001542 0.0
2.063280 0.774666 0.000959 0.0
2.043830 0.261758 0.001699 0.0
3.241904 1.107568 0.000733 0.0
3.023911 0.679532 -0.004041 0.0
2.555662 0.034254 0.004342 0.0
1.632748 0.688766 -0.001785 0.0
2.821560 1.139473 -0.002948 0.0
1.720170 1.398036 -0.002038 0.0
3.345545 0.964970 0.005986 0.0
3.340967 0.687806 0.000145 0.0
0.710090 0.731301 -0.003266 0.0
3.373117 0.908005 -0.006552 0.0
0.491264 0.742859 -0.000555 0.0
1.973695 1.068351 0.001169 0.0
2.559661 0.525134 -0.001695 0.0
2.265094 0.440452 0.001497 0.0
0.527390 0.600636 0.001283 0.0
3.220009 1.162608 -0.003500 0.0
0.111430 0.618298 0.001326 0.0
2.277518 0.360034 0.001337 0.0
1.834461 0.746559 -0.000548 0.0
2.588319 0.497364 0.002316 0.0
4.003885 0.397590 -0.000932 0.0
0.785180 1.314205 -0.001317 0.0
3.783291 0.317240 -0.001822 0.0
3.057020 0.253124 -0.001900 0.0
1.687340 0.077697 0.002098 0.0
2.482308 1.137402 -0.000081 0.0
1.609943 0.627886 -0.002252 0.0
0.043381 0.954569 0.001282 0.0
3.817608 0.928103 -0.003501 0.0
3.478737 0.700213 0.001119 0.0
0.028424 0.774635 -0.002236 0.0
0.848073 0.507656 -0.004090 0.0
3.475347 1.439357 0.001753 0.0
0.898370 1.425221 0.001144 0.0
3.763528 0.359764 0.000479 0.0
3.039885 0.560430 0.003219 0.0
2.463264 0.673097 -0.004306 0.0
2.862301 0.507680 0.001068 0.0
3.325950 1.470418 0.001413 0.0
1.332004 0.164408 -0.000269 0.0
0.186378 0.371374 -0.001555 0.0
1.825996 0.782160 -0.000345 0.0
1.988886 1.045141 -0.001730 0.0
1.350838 0.797473 0.001388 0.0
3.911203 0.452616 -0.000270 0.0
1.480253 0.847360 0.001542 0.0
1.269046 1.099345 0.000970 0.0
0.362351 0.049321 -0.000254 0.0
2.821504 0.430181 -0.000741 0.0
3.216526 1.522174 -0.001608 0.0
0.228991 0.644999 0.000275 0.0
1.596253 0.957686 -0.001437 0.0
0.295257 0.549864 0.001610 0.0
3.535916 0.777976 -0.000888 0.0
3.329628 0.362767 -0.004535 0.0
0.705553 0.257530 0.000042 0.0
2.592815 0.627153 -0.000320 0.0
3.299679 1.375842 0.001073 0.0
1.975817 1.303584 0.003083 0.0
1.012088 0.320930 0.003849 0.0
0.003482 0.823719 0.000333 0.0
0.323931 0.399500 -0.002185 0.0
3.657616 0.604563 -0.000702 0.0
0.297174 0.478822 0.002475 0.0
0.626681 1.311671 -0.000404 0.0
0.736326 0.397158 0.005643 0.0
2.873675 0.321952 0.003806 0.0
2.305565 1.339521 0.002442 0.0
1.015124 0.456617 -0.001869 0.0
3.402509 0.034100 -0.000129 0.0
0.371543 -0.001113 -0.002350 0.0
1.161520 0.092460 -0.000524 0.0
2.298124 1.096097 -0.003238 0.0
0.350938 0.379656 0.000928 0.0
3.024514 1.139854 0.000667 0.0
2.881440 1.340847 0.007256 0.0
3.529747 0.327792 -0.005117 0.0
1.036656 1.193666 -0.002079 0.0
0.101748 1.081397 -0.004408 0.0
0.513715 1.053496 -0.000922 0.0
1.791645 0.068178 0.000411 0.0
0.668818 1.179748 -0.005803 0.0
2.825168 0.652214 -0.001177 0.0
0.051183 0.262971 0.001498 0.0
2.258392 1.450921 -0.002363 0.0
1.269562 0.500169 0.001914 0.0
3.498647 0.539295 0.001501 0.0
2.363300 1.501055 -0.001260 0.0
0.379549 0.040178 0.000352 0.0
1.212229 0.482973 -0.001583 0.0
1.575389 0.268993 0.002087 0.0
3.417805 0.701391 -0.002943 0.0
2.095526 0.655437 -0.000611 0.0
1.797373 1.116715 -0.002100 0.0
0.436684 1.427295 0.003155 0.0
0.659723 0.474059 0.003409 0.0
1.357308 0.003692 0.004201 0.0
3.192158 0.086418 -0.001393 0.0
1.471748 1.238857 0.000096 0.0
1.441889 1.086288 0.006139 0.0
0.215122 0.939424 -0.000260 0.0
1.744075 0.801161 0.001377 0.0
2.490766 0.373262 0.001006 0.0
1.735724 0.964491 -0.000896 0.0
3.764635 1.020975 0.001331 0.0
2.714058 1.230612 0.000307 0.0
0.912678 1.204681 0.001903 0.0
0.141204 1.096796 0.001269 0.0
2.575672 0.959879 0.000103 0.0
1.882652 0.575195 0.000005 0.0
2.854892 0.957836 -0.000385 0.0
0.385581 1.523843 -0.001673 0.0
2.729865 0.892524 0.003911 0.0
3.970739 0.433945 0.001801 0.0
0.769383 0.911875 -0.001970 0.0
1.962476 0.429209 0.000536 0.0
3.065892 1.153517 0.003276 0.0
1.231406 0.932847 0.002170 0.0
3.111103 0.805686 0.001819 0.0
1.091364 1.022060 -0.000604 0.0
1.179955 0.193440 0.002641 0.0
3.389091 0.052254 0.002124 0.0
0.296169 0.564496 0.003689 0.0
3.508075 1.457947 0.003309 0.0
3.441403 0.345807 0.002119 0.0
0.127063 0.505354 0.000178 0.0
2.197651 0.363261 0.000941 0.0
3.518116 0.531951 0.004241 0.0
2.092638 1.238192 0.001425 0.0
3.847610 0.496543 0.004096 0.0
3.043655 1.415584 0.001720 0.0
3.081047 1.034076 -0.001941 0.0
3.340005 0.469186 0.002113 0.0
0.882718 0.341428 -0.004137 0.0
1.011890 0.456670 -0.001180 0.0
2.283138 0.489760 -0.002417 0.0
0.587440 1.041471 0.005097 0.0
1.493537 0.617207 0.000437 0.0
0.690474 0.820542 0.000790 0.0
2.308189 1.174558 0.003498 0.0
2.834060 0.411707 -0.003494 0.0
3.783475 0.864223 -0.000583 0.0
1.507673 1.522806 -0.001357 0.0
0.028025 1.537654 -0.002002 0.0
2.015887 1.327149 -0.001766 0.0
