0.601809 1.714066 0.000467 0.0
1.902396 0.279978 -0.001117 0.0
1.263108 0.799580 -0.000811 0.0
0.270680 1.929715 -0.000300 0.0
2.453996 1.431127 -0.005350 0.0
3.156010 1.011612 -0.002552 0.0
3.421233 0.416059 -0.001707 0.0
2.124899 1.545506 0.002284 0.0
2.539321 1.707013 -0.001609 0.0
0.358866 1.902290 0.000909 0.0
2.923013 0.091891 0.000002 0.0
1.046355 0.542980 -0.001510 0.0
3.686709 1.615497 0.002214 0.0
3.842418 0.383273 0.001888 0.0
2.006099 0.434564 -0.002905 0.0
1.989056 0.035706 -0.002311 0.0
3.786456 1.173392 0.001987 0.0
3.824925 0.759630 -0.004335 0.0
0.075101 1.233296 -0.003730 0.0
2.688091 1.477376 0.001065 0.0
0.469461 0.772489 -0.003045 0.0
1.364071 0.809763 0.002244 0.0
2.470776 0.289976 0.002106 0.0
3.425566 0.013859 0.001648 0.0
1.299112 0.732291 -0.000374 0.0
1.469594 0.786639 0.000943 0.0
0.179767 1.295301 0.002794 0.0
0.733803 1.870129 -0.001812 0.0
0.836320 1.003327 0.005117 0.0
1.892693 1.859465 -0.001611 0.0
3.010755 0.947595 -0.001002 0.0
0.471851 1.955339 -0.002566 0.0
2.896207 0.924226 -0.001085 0.0
3.395153 0.187929 -0.000877 0.0
0.562905 1.959736 0.001830 0.0
2.862946 1.629778 0.004038 0.0
0.743930 1.429534 -0.001660 0.0
1.710552 0.158135 -0.001269 0.0
3.450187 1.280504 -0.000934 0.0
2.619140 0.765399 0.005647 0.0
3.459154 1.836790 -0.003121 0.0
2.803564 0.385212 -0.004048 0.0
2.973147 1.824743 0.003182 0.0
1.137614 0.109155 -0.004032 0.0
1.097466 1.564426 -0.000424 0.0
2.949058 0.170909 0.000251 0.0
3.656066 0.648720 -0.000096 0.0
1.765004 1.803871 0.002276 0.0
0.582863 1.065099 -0.002132 0.0
2.200267 0.084669 -0.003406 0.0
1.560947 0.995370 -0.003778 0.0
2.746953 1.364217 0.000011 0.0
1.512493 1.022589 0.005344 0.0
0.665142 0.071772 -0.001434 0.0
3.280622 1.405264 -0.002038 0.0
2.755293 0.398726 0.000323 0.0
2.411864 1.286153 0.001019 0.0
2.520368 1.600395 0.002843 0.0
1.676770 1.356494 0.000317 0.0
3.015244 1.821229 0.001167 0.0
2.658136 1.110455 -0.002595 0.0
1.273992 0.150911 0.000814 0.0
0.497944 0.750286 0.000123 0.0
0.400854 1.758376 -0.001437 0.0
0.436845 0.689905 -0.001246 0.0
1.019657 0.457638 0.000703 0.0
2.190581 0.378027 0.002501 0.0
3.416975 0.710118 0.001302 0.0
3.380950 0.005172 -0.002746 0.0
2.556575 0.400333 -0.000083 0.0
3.766178 0.940194 0.001967 0.0
2.887838 1.934626 -0.001018 0.0
3.896509 0.677194 -0.003122 0.0
1.908111 1.610898 0.001082 0.0
2.590594 1.059800 -0.004653 0.0
0.344578 1.110567 0.001605 0.0
2.290738 0.185862 0.002059 0.0
1.540077 0.315362 -0.002159 0.0
2.206755 0.819069 -0.001318 0.0
1.300225 0.049138 -0.001361 0.0
3.197887 0.856595 0.003152 0.0
0.510940 1.686460 0.002188 0.0
2.566727 0.010234 -0.000693 0.0
2.727184 0.285758 0.004730 0.0
3.866353 1.065304 -0.000018 0.0
2.778937 1.453109 0.002018 0.0
0.256635 0.688471 0.002350 0.0
0.516619 1.443072 -0.003728 0.0
0.906275 1.216616 0.001060 0.0
3.968523 1.412221 0.001646 0.0
1.883166 1.268339 -0.001339 0.0
2.325935 0.347042 -0.000829 0.0
1.435771 0.173357 -0.003495 0.0
1.921780 1.785500 0.003713 0.0
0.623208 0.322775 0.003363 0.0
2.615481 0.488508 -0.000810 0.0
3.816106 1.368296 -0.002029 0.0
1.863697 1.200274 -0.003106 0.0
1.544783 0.933436 -0.000774 0.0
1.623125 0.339932 -0.003311 0.0
2.120564 1.731569 -0.000402 0.0
0.000492 0.579627 0.000360 0.0
0.921958 1.029442 -0.002563 0.0
2.084272 1.265945 0.004164 0.0
0.665784 0.531173 -0.001348 0.0
1.003491 0.721776 -0.001069 0.0
1.808697 0.153973 0.000659 0.0
2.021083 1.721855 0.001668 0.0
1.879398 1.947275 -0.000128 0.0
1.352440 0.480693 0.001447 0.0
2.350636 0.351616 -0.003273 0.0
2.820326 1.496126 -0.004227 0.0
3.759732 1.085158 -0.005709 0.0
2.718876 1.234059 0.000015 0.0
3.183075 1.085844 0.000149 0.0
1.019264 0.996466 0.001777 0.0
2.068893 0.653898 -0.000610 0.0
3.093621 1.598932 -0.003199 0.0
2.445833 0.010027 -0.003121 0.0
2.199287 0.668230 0.001314 0.0
3.201115 1.605980 -0.001424 0.0
1.141265 1.669442 -0.000745 0.0
2.939213 1.014767 -0.000006 0.0
1.442231 0.376961 0.000472 0.0
2.195144 0.089843 0.001648 0.0
1.548803 1.732804 -0.001804 0.0
0.968912 0.573524 0.000980 0.0
1.966874 0.557474 0.002707 0.0
0.327023 1.546560 -0.001642 0.0
2.750506 1.814502 -0.001165 0.0
2.816267 2.001808 -0.001402 0.0
3.999842 1.427910 0.004550 0.0
3.006775 1.747879 0.001687 0.0
2.778645 0.172359 -0.001181 0.0
3.236052 0.387894 0.000442 0.0
0.628449 1.508086 -0.002004 0.0
3.458813 1.437888 0.000497 0.0
3.318471 0.710634 -0.001167 0.0
1.412991 1.059627 -0.000406 0.0
0.078643 1.088198 0.005509 0.0
0.459298 0.591120 0.000608 0.0
0.991235 0.412865 0.001360 0.0
2.161846 1.576837 0.003383 0.0
1.714520 1.266717 0.001990 0.0
0.483387 1.226854 0.000137 0.0
3.526379 0.015314 0.001083 0.0
2.383801 1.947323 0.001093 0.0
3.621876 0.268989 0.001193 0.0
0.452292 1.100217 0.000372 0.0
2.396790 1.702444 0.001234 0.0
1.720114 1.076534 -0.000319 0.0
2.386238 0.499234 -0.000714 0.0
2.415076 1.865261 0.000944 0.0
0.251538 0.912680 0.003623 0.0
3.032882 0.595650 0.001572 0.0
2.752508 0.579653 0.000941 0.0
3.177422 0.355430 0.001747 0.0
2.478228 0.062275 -0.001777 0.0
3.964069 0.951237 0.001191 0.0
1.710869 0.496701 0.001350 0.0
2.817306 0.719992 -0.000848 0.0
3.286917 1.243364 0.002063 0.0
0.498468 1.493022 0.003423 0.0
1.778736 1.554657 -0.001832 0.0
0.185709 1.542263 0.000789 0.0
3.850505 1.023444 -0.002148 0.0
3.218538 0.496150 0.000630 0.0
1.177093 1.837636 -0.000321 0.0
3.422127 0.339140 0.000851 0.0
2.668036 1.926635 0.004220 0.0
2.870254 0.493243 -0.000826 0.0
3.104165 1.410797 0.002537 0.0
2.210406 1.416847 0.001304 0.0
2.449449 1.528329 -0.001709 0.0
1.396677 0.605710 0.002910 0.0
2.519593 0.999437 -0.002202 0.0
0.216946 0.385532 -0.000176 0.0
1.039197 1.488868 0.002105 0.0
2.357451 1.616053 -0.003254 0.0
3.211219 1.747529 0.001132 0.0
1.381590 0.788451 0.003766 0.0
1.736933 1.832040 0.002506 0.0
2.915062 0.992188 0.003916 0.0
0.318332 0.285227 0.000466 0.0
4.000272 0.128913 -0.000980 0.0
3.559747 0.501847 -0.000063 0.0
0.868901 1.070875 0.002603 0.0
1.159826 1.866282 -0.000543 0.0
3.575374 0.840859 -0.001404 0.0
1.889091 1.237902 -0.003399 0.0
0.764733 0.607295 0.001587 0.0
2.164852 1.687372 -0.007084 0.0
1.551562 1.061302 -0.000712 0.0
0.035221 0.804472 0.001451 0.0
3.945683 1.399534 -0.002314 0.0
0.193942 0.061212 -0.001248 0.0
3.829120 1.134143 0.002232 0.0
3.569592 1.766153 0.003594 0.0
0.565579 0.659150 -0.001990 0.0
3.513748 0.663658 0.000195 0.0
2.509615 0.958186 0.000329 0.0
0.633395 1.454568 -0.003676 0.0
3.843041 1.728499 -0.001589 0.0
2.543977 0.533551 0.001111 0.0
2.307358 1.495193 0.000827 0.0
1.056992 1.247526 0.000612 0.0
1.905294 1.521000 0.000236 0.0
0.815189 0.553811 0.001979 0.0
1.026096 1.708636 -0.000517 0.0
1.971420 1.865977 0.000299 0.0
3.810614 0.524666 0.000650 0.0
0.176191 1.169243 0.000036 0.0
2.787078 0.540205 -0.002392 0.0
2.218742 0.488729 0.001202 0.0
3.826635 1.049763 0.005530 0.0
0.973471 0.124275 0.002555 0.0
1.282661 0.010839 -0.002328 0.0
0.941250 0.067513 0.002439 0.0
1.893783 0.734482 -0.003338 0.0
0.754688 0.604410 -0.003242 0.0
0.814467 1.610853 -0.001990 0.0
3.980366 0.671687 0.001434 0.0
1.043770 0.931791 0.002979 0.0
0.258336 0.088714 -0.000641 0.0
3.563126 0.489353 -0.001300 0.0
3.654567 1.039533 0.002358 0.0
0.733640 1.986256 0.003699 0.0
2.895964 0.881303 -0.000479 0.0
2.142224 1.412022 -0.001546 0.0
2.038068 1.037633 -0.002902 0.0
3.682471 0.918050 -0.000040 0.0
2.061257 0.037658 -0.000605 0.0
1.787751 0.209479 0.001581 0.0
0.491027 0.215400 -0.000863 0.0
0.332003 1.030135 0.001457 0.0
0.508819 1.024569 -0.001988 0.0
1.090063 1.797938 -0.001026 0.0
0.597292 1.723690 0.000567 0.0
1.237395 1.387876 0.000205 0.0
0.384705 0.519937 0.001103 0.0
1.715380 1.201591 -0.001460 0.0
3.342004 1.923377 0.003393 0.0
0.209161 0.435205 -0.000929 0.0
2.719698 0.740248 0.000600 0.0
3.752593 0.287588 0.002635 0.0
3.967462 1.525335 0.002611 0.0
0.578053 0.322069 -0.003729 0.0
2.219105 0.695346 0.001119 0.0
3.769448 1.077449 -0.000564 0.0
3.959786 0.453174 -0.002599 0.0
0.071578 1.463083 -0.000586 0.0
1.066577 0.611426 -0.000792 0.0
0.373906 1.606892 -0.000013 0.0
0.435073 1.066741 0.004477 0.0
2.118071 1.937926 -0.000953 0.0
3.820280 1.080469 -0.002485 0.0
3.541104 1.679364 0.002499 0.0
0.264233 1.353776 -0.000441 0.0
0.682119 0.114387 0.000875 0.0
1.712041 0.785313 0.002474 0.0
1.040478 1.697047 -0.002515 0.0
2.467512 1.345319 0.000843 0.0
3.768191 0.923586 -0.000117 0.0
3.674558 1.296771 0.000776 0.0
0.313853 2.002076 0.000217 0.0
2.596221 1.380287 -0.001010 0.0
0.723215 1.782501 -0.001314 0.0
1.115148 1.141578 -0.000529 0.0
1.400085 0.686936 -0.000528 0.0
3.688515 1.230109 0.002769 0.0
0.352693 1.161317 0.002196 0.0
2.870334 0.109427 0.000779 0.0
3.054925 0.830071 0.002410 0.0
2.951604 0.471165 0.000045 0.0
2.780737 0.310273 0.000995 0.0
3.030094 1.034340 0.002002 0.0
2.068765 0.082988 0.000527 0.0
2.941895 0.679486 0.001324 0.0
0.435104 0.993473 0.000159 0.0
2.303791 0.759732 -0.000167 0.0
2.458346 1.241086 -0.000487 0.0
2.840572 0.954890 0.000203 0.0
3.544832 0.790229 -0.000113 0.0
1.341808 1.509703 -0.002169 0.0
1.243068 0.306801 0.001725 0.0
3.230867 0.995269 -0.004038 0.0
3.546329 0.696271 -0.002755 0.0
0.525731 1.085562 -0.002117 0.0
0.215410 0.184468 0.002367 0.0
0.102501 1.471892 -0.001013 0.0
3.509648 1.006756 0.001044 0.0
2.052942 0.851368 0.002188 0.0
1.813208 1.092072 -0.001167 0.0
0.432552 0.592926 -0.002970 0.0
3.796844 1.842914 0.001603 0.0
3.708997 1.158494 0.003197 0.0
1.991078 1.437856 -0.005265 0.0
2.813127 1.426273 -0.006082 0.0
1.412511 0.207928 0.000634 0.0
0.938682 1.418708 0.003659 0.0
0.075018 1.575320 -0.001514 0.0
2.281329 1.681183 0.000578 0.0
3.711421 1.539210 -0.000629 0.0
3.658958 0.959658 -0.001009 0.0
0.356057 0.609644 0.000126 0.0
0.188870 1.408972 -0.000087 0.0
3.715147 1.160219 0.000673 0.0
3.120763 1.822677 -0.003331 0.0
2.718992 0.130098 -0.000306 0.0
1.371429 0.058280 0.001162 0.0
2.977886 2.011497 -0.001570 0.0
1.907717 1.019087 0.000367 0.0
1.803116 1.856585 0.000967 0.0
2.144033 0.433861 0.001560 0.0
3.986600 1.256259 0.001176 0.0
1.935188 1.238050 0.000256 0.0
3.960239 1.059767 -0.001667 0.0
3.866446 1.787710 -0.001897 0.0
1.007401 1.071033 0.000933 0.0
1.661627 1.558568 0.002729 0.0
0.605292 0.454899 0.002008 0.0
2.585382 0.403966 -0.000724 0.0
2.191270 0.641735 0.003018 0.0
1.296040 0.419916 0.002189 0.0
0.989542 1.769148 -0.002880 0.0
1.723169 1.384997 0.004072 0.0
2.271151 1.696746 0.003030 0.0
3.555369 0.347338 0.005086 0.0
1.463377 0.757312 -0.000858 0.0
3.846280 1.884809 0.000255 0.0
1.508871 1.848268 -0.004485 0.0
3.180476 1.264111 -0.004584 0.0
1.936573 0.044818 0.001731 0.0
3.385036 1.145505 -0.002147 0.0
0.256538 0.289440 -0.001824 0.0
3.331012 0.220948 -0.000459 0.0
0.635364 1.484636 0.001460 0.0
1.034467 0.366785 -0.001012 0.0
2.804211 1.394208 -0.000145 0.0
2.675811 1.498037 0.000170 0.0
0.092366 1.877265 -0.000432 0.0
2.414559 0.027294 -0.001169 0.0
1.278294 1.609953 0.001782 0.0
3.236459 1.611551 0.001526 0.0
0.436960 0.416138 0.002650 0.0
0.874266 0.578973 -0.001013 0.0
1.000384 1.409924 -0.001772 0.0
0.028411 0.381761 -0.001035 0.0
2.678552 1.602079 0.002060 0.0
3.768312 1.498524 -0.005456 0.0
1.214351 1.335158 -0.005843 0.0
0.027087 1.569501 0.001537 0.0
2.669659 1.546586 -0.005305 0.0
2.337350 0.669026 -0.000909 0.0
1.593730 0.427267 -0.001956 0.0
3.977474 1.913471 0.001277 0.0
2.134755 1.317386 -0.001338 0.0
0.755451 0.382910 0.002303 0.0
3.741170 0.083038 0.003379 0.0
0.142594 0.966163 -0.007014 0.0
2.100636 1.260030 -0.004443 0.0
0.363288 1.693633 0.002598 0.0
2.658295 1.741882 0.000614 0.0
3.448835 0.720895 0.001535 0.0
2.321405 0.729950 0.000725 0.0
2.399126 0.534697 -0.000458 0.0
1.859879 1.072107 0.001070 0.0
3.922189 1.738984 0.003066 0.0
2.956846 0.087286 -0.004449 0.0
0.424952 0.710421 0.001126 0.0
2.775910 0.268784 -0.002193 0.0
3.468776 0.995796 0.000988 0.0
1.537337 0.199344 0.001376 0.0
3.816088 1.838179 -0.002842 0.0
0.958625 0.980058 0.002446 0.0
3.034355 1.948728 -0.000192 0.0
3.301223 0.128837 -0.002318 0.0
3.949224 0.548113 0.003807 0.0
0.256281 0.625527 0.002881 0.0
3.930037 0.109945 -0.002294 0.0
3.709917 1.037930 -0.004691 0.0
1.302689 0.938029 0.003662 0.0
3.135974 1.096575 -0.000363 0.0
0.291636 0.085639 0.001863 0.0
0.523854 0.617762 -0.000512 0.0
1.248537 0.734155 0.001539 0.0
1.894445 1.973637 0.004310 0.0
2.339378 1.783850 0.000666 0.0
1.821168 0.665879 0.002203 0.0
0.858099 1.572447 -0.003156 0.0
1.751542 0.445582 -0.001013 0.0
2.795998 0.362064 -0.004768 0.0
2.649178 0.965719 -0.001867 0.0
2.062159 0.007222 -0.000201 0.0
3.995730 0.345722 0.001450 0.0
0.689674 0.683696 0.004205 0.0
0.914231 0.398777 0.002170 0.0
1.965454 1.113786 0.001354 0.0
0.136111 1.931663 0.006437 0.0
1.368345 0.438715 0.002215 0.0
3.984841 0.962702 0.000520 0.0
1.629303 0.228171 0.001764 0.0
1.274734 0.967289 0.003085 0.0
1.691978 0.985295 -0.000135 0.0
1.218390 1.011977 -0.001602 0.0
3.786854 1.497396 0.003739 0.0
3.361871 1.982949 -0.002248 0.0
3.785478 0.946634 0.004255 0.0
2.354147 1.454706 0.002259 0.0
1.457912 1.778930 -0.000518 0.0
0.872580 0.995060 -0.002192 0.0
1.850910 1.215197 0.000658 0.0
2.110687 1.230152 0.001009 0.0
3.191413 0.397015 0.001539 0.0
0.260727 1.040936 0.001097 0.0
3.006218 0.270159 0.001011 0.0
2.169448 1.742730 0.002411 0.0
0.920536 0.292636 0.000672 0.0
2.626652 1.564267 0.000214 0.0
1.896434 0.719252 -0.002620 0.0
1.584609 1.260069 0.000127 0.0
2.557018 0.288714 -0.003282 0.0
3.210051 1.974307 -0.001966 0.0
3.519689 1.351377 -0.001407 0.0
1.513165 1.022758 0.000216 0.0
2.684115 1.719580 0.000445 0.0
0.742254 1.995653 0.002511 0.0
1.664202 1.533231 -0.001434 0.0
2.963977 0.371082 -0.002860 0.0
3.676162 1.728627 0.000657 0.0
1.666458 1.992188 -0.000199 0.0
0.543578 0.218713 0.000793 0.0
2.496106 1.177005 -0.003624 0.0
1.477810 0.368322 0.000054 0.0
2.600358 0.240658 0.000353 0.0
1.232790 0.083156 -0.000568 0.0
2.030560 1.259109 0.001087 0.0
0.921631 0.795271 -0.000293 0.0
2.368067 1.000516 -0.002506 0.0
1.999710 0.909693 -0.002829 0.0
1.765510 1.279612 0.003345 0.0
0.244499 1.751321 -0.002678 0.0
0.546367 0.202945 0.003691 0.0
2.194264 0.375101 -0.004858 0.0
0.311593 0.010627 0.003393 0.0
3.597604 1.091964 -0.005001 0.0
1.673825 1.887412 0.000255 0.0
1.589960 0.057525 -0.003261 0.0
2.464079 2.008395 0.003000 0.0
3.930493 1.251620 -0.000268 0.0
3.586890 0.060022 0.005227 0.0
3.730724 2.005514 0.003373 0.0
2.271752 0.811153 0.001487 0.0
2.022077 1.518053 -0.003109 0.0
2.783896 0.014040 0.001967 0.0
1.260189 1.390603 -0.004893 0.0
1.637289 1.056842 -0.001118 0.0
0.877066 0.954520 0.001881 0.0
0.688785 0.869727 -0.002141 0.0
3.763912 1.762411 -0.001404 0.0
2.341904 1.175800 -0.002000 0.0
2.521595 1.459699 0.001062 0.0
2.823218 0.785977 -0.000753 0.0
2.331245 0.013984 0.003136 0.0
1.315518 0.294570 0.000608 0.0
0.795907 0.875087 0.006297 0.0
3.459396 1.621113 -0.001854 0.0
2.878570 1.814460 0.002856 0.0
2.522414 0.940844 -0.000076 0.0
3.881914 0.684861 -0.001956 0.0
2.612576 0.642195 0.003478 0.0
3.737892 1.461677 -0.004530 0.0
0.006519 0.371023 -0.001147 0.0
3.731857 0.225126 0.002391 0.0
0.605878 0.969729 0.003125 0.0
3.789125 0.361864 -0.000487 0.0
0.838189 1.307615 0.002580 0.0
3.377998 0.602385 -0.002594 0.0
1.047017 0.594889 0.000903 0.0
1.492061 0.172854 -0.001988 0.0
3.929910 0.411858 0.002460 0.0
3.629192 1.562717 0.000143 0.0
1.989499 0.920513 0.000452 0.0
0.355735 1.066224 -0.003194 0.0
3.066083 0.867716 0.000343 0.0
1.681580 0.945799 0.002266 0.0
0.008707 0.080442 -0.000715 0.0
3.213133 1.217251 -0.003378 0.0
2.884303 0.256722 0.001469 0.0
2.097321 0.446274 0.000128 0.0
3.060305 0.108787 -0.003128 0.0
2.957827 0.417375 0.003018 0.0
0.855250 1.002276 0.001570 0.0
1.872708 0.811993 0.005052 0.0
1.628275 1.782302 0.000316 0.0
2.278302 0.694556 0.000208 0.0
3.752240 0.380565 -0.002539 0.0
2.387958 0.357179 -0.000431 0.0
0.172425 0.336422 0.000105 0.0
0.266400 0.852141 -0.000508 0.0
2.731859 0.317535 -0.001816 0.0
0.525518 0.024066 -0.005796 0.0
2.735555 0.732625 0.002519 0.0
1.895074 1.917001 -0.000678 0.0
0.442899 1.969793 -0.001659 0.0
0.068609 0.151595 -0.002528 0.0
1.057268 0.659951 -0.000182 0.0
1.378441 1.853576 0.003785 0.0
2.965104 1.372202 -0.001273 0.0
2.750755 1.396045 -0.000122 0.0
0.565113 1.144462 -0.000507 0.0
0.092928 1.635302 0.000192 0.0
1.900688 0.784371 -0.000966 0.0
2.274345 0.747707 0.001251 0.0
3.824563 1.313866 0.001134 0.0
0.623832 1.192737 0.000745 0.0
3.182250 0.658420 -0.001672 0.0
2.011003 -0.001621 -0.001011 0.0
0.078068 1.993677 -0.004431 0.0
2.103718 0.592377 -0.005074 0.0
2.202908 1.267423 -0.002472 0.0
3.468037 0.894677 -0.001050 0.0
3.995653 1.057276 0.003644 0.0
0.630111 0.206727 0.004927 0.0
1.564873 1.718770 0.003388 0.0
2.361384 0.437715 0.000765 0.0
0.183603 0.889727 -0.002890 0.0
2.386936 0.596020 0.000231 0.0
1.125802 0.609882 0.001770 0.0
3.738564 0.125969 0.003426 0.0
3.769313 1.895237 -0.002422 0.0
0.469003 0.914780 0.000714 0.0
0.806653 1.236742 0.003286 0.0
3.895370 0.953667 -0.001620 0.0
3.459015 0.452438 0.002663 0.0
3.345680 0.555395 0.000278 0.0
0.855413 0.270458 0.000386 0.0
1.091200 1.268321 0.001653 0.0
0.180450 0.988339 0.000673 0.0
1.876908 1.192375 0.002438 0.0
0.238445 1.967591 0.000841 0.0
1.805142 0.233966 0.000138 0.0
3.142269 1.996668 0.000162 0.0
0.717523 1.137588 -0.001081 0.0
3.664846 0.226690 0.002032 0.0
0.026131 1.530377 0.002551 0.0
2.467856 0.135936 0.000834 0.0
3.605973 1.443278 0.002370 0.0
1.273351 1.743275 0.002750 0.0
0.230733 1.491616 -0.001776 0.0
0.027149 1.806301 -0.000664 0.0
0.574355 0.176773 0.001731 0.0
1.589756 0.880142 0.003208 0.0
3.398155 1.756105 -0.001123 0.0
1.321873 0.385354 -0.001856 0.0
3.924138 1.217804 -0.002499 0.0
2.685387 1.471926 -0.000549 0.0
3.547049 0.523867 -0.000961 0.0
1.016152 0.755520 -0.000266 0.0
1.435796 1.208289 0.000864 0.0
2.584098 0.874402 -0.003805 0.0
3.187732 0.181488 -0.004053 0.0
3.532999 1.859949 -0.002489 0.0
3.769356 0.662245 0.001212 0.0
0.742486 2.006142 -0.001059 0.0
3.715920 1.170997 -0.001644 0.0
3.921016 0.596601 0.001669 0.0
2.932961 0.812325 0.000216 0.0
0.293059 1.003833 -0.000563 0.0
2.740094 0.746436 -0.000185 0.0
2.683101 1.910209 -0.002059 0.0
2.205859 1.358617 -0.000217 0.0
3.371103 0.150503 0.001928 0.0
1.232719 1.883974 0.004132 0.0
1.870895 1.670792 0.002283 0.0
0.517619 0.816961 -0.003242 0.0
1.167609 1.560106 -0.001197 0.0
2.744565 1.293140 -0.000558 0.0
0.610224 0.031063 -0.002893 0.0
2.618446 0.149432 0.004009 0.0
3.215416 0.456804 0.000189 0.0
2.221606 0.125643 -0.000716 0.0
1.343659 0.253228 -0.002238 0.0
1.481101 1.804447 0.001689 0.0
3.523142 0.846586 0.001607 0.0
3.765552 1.588580 0.007088 0.0
0.793711 1.082581 -0.001681 0.0
0.476565 0.967696 0.000348 0.0
2.542115 0.922320 -0.000917 0.0
2.333375 0.427275 -0.001713 0.0
1.853063 1.733139 -0.000353 0.0
3.253537 1.653867 -0.003336 0.0
3.664581 1.267303 -0.001518 0.0
1.182729 1.068870 -0.000714 0.0
1.426021 1.319567 -0.001369 0.0
1.654918 0.758321 -0.003865 0.0
2.940749 1.284475 0.001729 0.0
1.132517 1.833149 0.002983 0.0
2.546047 0.224256 0.002345 0.0
1.257396 0.344373 -0.001273 0.0
0.260995 0.566118 0.001530 0.0
3.892893 1.872920 0.000717 0.0
1.385544 1.603365 -0.001268 0.0
2.643027 0.162078 -0.001398 0.0
3.005341 0.205175 0.002901 0.0
2.426047 0.361544 -0.003505 0.0
3.646773 1.305527 -0.001438 0.0
3.825325 0.414827 -0.002055 0.0
3.575837 1.031331 0.001776 0.0
1.926461 1.140059 0.006737 0.0
2.625804 0.703068 -0.003542 0.0
2.128335 0.840107 -0.001953 0.0
1.232840 0.200102 -0.006503 0.0
0.915556 0.918721 -0.000736 0.0
3.587911 0.126997 0.002943 0.0
3.720663 1.325925 -0.002318 0.0
0.591217 1.061931 0.002869 0.0
0.309493 1.370901 0.000193 0.0
2.835090 0.529177 -0.000507 0.0
3.446014 1.728848 0.001232 0.0
1.756466 1.742381 0.001540 0.0
3.715055 1.193489 -0.002664 0.0
0.848282 1.415735 -0.000731 0.0
2.439748 1.830428 -0.001976 0.0
3.054613 0.314318 -0.006532 0.0
2.745600 0.864043 0.003634 0.0
2.806852 0.006750 0.000701 0.0
2.151753 0.805722 0.002860 0.0
2.456913 0.302086 -0.002004 0.0
3.348876 1.339293 0.002504 0.0
3.760085 0.092191 0.001096 0.0
1.465393 0.117925 0.001439 0.0
0.727837 0.105836 0.001945 0.0
1.689632 1.535154 0.000271 0.0
1.831360 1.014731 0.002277 0.0
0.773580 1.870616 -0.003146 0.0
0.892606 0.078782 0.000410 0.0
3.530369 1.118649 -0.003844 0.0
2.361459 0.448936 -0.000553 0.0
2.538182 1.538523 -0.003769 0.0
1.002261 1.160153 -0.001763 0.0
1.112668 0.084896 -0.000860 0.0
3.318040 0.179114 0.004152 0.0
1.187638 1.000052 0.000081 0.0
1.550389 0.458660 -0.002112 0.0
1.843656 1.886816 -0.001011 0.0
3.392932 1.956790 0.000387 0.0
1.909772 0.342596 -0.000063 0.0
1.623601 0.639759 0.005241 0.0
2.203336 1.590590 -0.000636 0.0
3.311315 1.642955 0.001015 0.0
3.392114 1.508422 -0.003293 0.0
3.546312 1.163122 -0.002929 0.0
3.799175 1.321113 -0.001289 0.0
3.069695 0.633478 -0.002384 0.0
4.003630 1.532586 -0.002326 0.0
1.544730 0.046777 -0.001296 0.0
1.774025 0.795311 -0.003427 0.0
1.681505 0.302669 -0.005543 0.0
2.301896 1.327930 -0.002440 0.0
2.558006 0.085837 -0.001983 0.0
2.904627 1.922784 0.001793 0.0
3.013971 0.277962 0.000819 0.0
3.458163 1.129130 0.001062 0.0
3.308534 0.204429 -0.000081 0.0
0.812561 1.875044 -0.003856 0.0
0.337029 1.129604 -0.000667 0.0
3.372987 0.050918 0.001308 0.0
1.717218 1.036401 0.003610 0.0
0.946681 0.299784 -0.001894 0.0
0.061713 1.062453 -0.002978 0.0
1.087795 0.124344 0.004982 0.0
3.582676 0.204224 -0.000412 0.0
3.128505 1.488048 0.002175 0.0
3.296699 1.091498 0.000995 0.0
2.020036 1.853312 -0.004313 0.0
1.779012 0.313283 -0.003198 0.0
0.006524 0.999536 -0.003415 0.0
2.779122 0.618793 0.003791 0.0
2.652289 1.799362 0.000790 0.0
1.802538 0.017180 0.002790 0.0
1.373431 0.481213 -0.002345 0.0
0.290604 0.771721 -0.002673 0.0
0.991965 1.976458 0.001263 0.0
0.737433 1.680541 0.000084 0.0
2.907323 0.342895 -0.002534 0.0
2.743980 1.675101 0.001125 0.0
1.560241 1.147083 0.001533 0.0
1.781209 0.937388 -0.002903 0.0
3.646968 1.656001 0.003340 0.0
1.471954 1.179698 0.003305 0.0
3.023185 1.246881 0.000885 0.0
0.343127 1.442084 0.004185 0.0
2.433162 1.126376 -0.000652 0.0
3.747051 1.156091 0.003139 0.0
3.391792 1.212229 0.003273 0.0
1.481489 0.268950 0.001487 0.0
3.196873 0.791165 0.001687 0.0
1.947883 0.127863 0.002531 0.0
2.987599 1.118498 0.001869 0.0
2.869765 0.449990 -0.002335 0.0
0.896273 0.032638 -0.002766 0.0
2.762508 1.298151 0.000582 0.0
3.051035 0.160626 -0.003574 0.0
3.148175 0.206395 0.003862 0.0
2.664856 0.418032 0.003462 0.0
3.201891 1.336852 0.001783 0.0
0.650463 0.476228 -0.001327 0.0
3.438507 1.867133 -0.004425 0.0
1.074661 0.017080 -0.001315 0.0
0.584378 1.847792 0.003493 0.0
2.962831 0.429852 -0.001497 0.0
0.755224 1.947949 -0.002530 0.0
3.728063 1.463694 -0.001731 0.0
1.661137 0.377209 0.000090 0.0
1.224901 1.174400 -0.000645 0.0
3.599403 0.831218 0.005864 0.0
1.583800 1.220147 0.000801 0.0
1.849921 1.946776 0.001603 0.0
1.855791 1.536249 -0.002241 0.0
0.635438 1.979325 -0.002760 0.0
1.878386 1.015309 -0.001603 0.0
3.796112 1.969821 -0.004623 0.0
0.235225 1.060285 -0.002852 0.0
3.441554 0.770632 0.000894 0.0
1.803496 1.533413 0.001044 0.0
2.630671 0.335140 0.003549 0.0
1.012671 0.559275 0.003089 0.0
1.964370 1.270640 0.001709 0.0
2.629866 1.224339 0.001914 0.0
3.166465 1.916762 -0.001006 0.0
2.888775 0.956486 0.000027 0.0
2.384881 2.005334 0.002867 0.0
3.293321 0.062904 0.001795 0.0
0.286987 0.082160 0.000360 0.0
3.916840 1.157566 0.001747 0.0
0.295412 0.637927 -0.001829 0.0
0.138493 1.731921 -0.001664 0.0
0.945810 0.450560 -0.001472 0.0
0.424619 1.607067 -0.003545 0.0
3.302431 0.566107 -0.002624 0.0
2.125043 1.368020 -0.001383 0.0
1.446113 0.151035 0.003675 0.0
2.470540 0.576671 0.001985 0.0
3.622383 1.104298 -0.001503 0.0
3.409127 0.788957 -0.003368 0.0
0.762754 0.816047 -0.000660 0.0
1.843976 1.735236 0.000034 0.0
0.034887 0.404557 -0.003432 0.0
1.440519 1.889245 0.000830 0.0
3.573248 1.020960 -0.001767 0.0
2.977151 0.337399 -0.004640 0.0
2.100716 0.213327 0.001794 0.0
1.897735 0.616598 -0.003410 0.0
2.885195 0.469035 0.003771 0.0
0.856342 0.449713 0.005559 0.0
3.919846 0.142218 -0.003191 0.0
2.032063 1.997064 -0.000417 0.0
1.623932 1.817914 0.000792 0.0
2.929560 1.721688 -0.000054 0.0
2.218393 1.414200 -0.004244 0.0
3.083319 0.828870 0.001360 0.0
1.787252 0.407810 -0.000590 0.0
1.173422 0.531973 0.001526 0.0
0.050413 0.623501 0.000718 0.0
3.037572 1.154896 0.002196 0.0
0.693491 0.701054 -0.000418 0.0
0.573695 1.974952 0.001566 0.0
1.639266 0.705201 0.000935 0.0
1.401811 0.710293 0.003309 0.0
3.340926 0.414681 0.001716 0.0
3.692286 0.389647 -0.000108 0.0
2.049680 0.333395 -0.001777 0.0
2.546468 1.934409 -0.001281 0.0
2.493119 0.310955 -0.002978 0.0
1.419000 1.705275 -0.000120 0.0
0.761041 0.241779 0.003299 0.0
3.829803 1.876046 0.002691 0.0
2.256763 1.192153 0.003218 0.0
2.422508 1.807749 -0.002312 0.0
1.645727 1.201482 0.002640 0.0
0.027257 1.833428 -0.002459 0.0
1.795982 0.674239 0.000443 0.0
3.580595 1.254716 -0.003474 0.0
0.307465 0.930499 -0.003743 0.0
1.247825 1.926090 -0.003811 0.0
0.937516 1.832654 -0.001271 0.0
0.144193 1.969936 0.000602 0.0
3.754646 1.314962 -0.001530 0.0
2.342777 1.337769 -0.001379 0.0
0.476432 1.209600 0.003573 0.0
2.579499 1.096098 0.001554 0.0
3.663834 0.459367 0.000082 0.0
3.670095 1.902246 0.003808 0.0
2.132978 1.577983 -0.002563 0.0
2.621845 1.545449 0.004016 0.0
2.824261 1.619311 0.002104 0.0
2.951976 0.522907 -0.003808 0.0
3.293023 1.543722 0.000209 0.0
3.234816 1.938223 0.000786 0.0
0.660885 1.807265 -0.002868 0.0
0.545553 0.780966 -0.000261 0.0
2.247866 1.958247 -0.000176 0.0
3.497005 0.188019 0.003557 0.0
2.489665 0.437713 -0.000865 0.0
2.237250 1.408659 0.001700 0.0
1.329312 1.471004 0.002090 0.0
1.092056 1.908487 -0.001478 0.0
3.046040 0.396920 0.003147 0.0
2.989011 1.744485 0.000358 0.0
2.667609 0.589251 0.003183 0.0
3.700105 0.112395 -0.000891 0.0
2.175162 0.337222 -0.004158 0.0
2.813442 0.707907 -0.002986 0.0
2.806725 1.326391 0.000159 0.0
1.656007 0.931772 -0.002180 0.0
1.081943 1.998142 -0.000967 0.0
2.524779 0.172421 -0.002932 0.0
1.359667 0.269360 0.001567 0.0
0.138082 1.557892 0.000292 0.0
3.251685 0.953125 0.000464 0.0
3.613624 0.593458 0.000465 0.0
0.798574 0.604113 0.001984 0.0
1.588082 1.173550 -0.002305 0.0
1.713140 1.569422 -0.002834 0.0
1.783379 1.897873 0.001713 0.0
1.047065 0.773321 0.001437 0.0
0.198907 0.076012 -0.000618 0.0
1.368722 0.764891 -0.001296 0.0
1.752071 1.885485 -0.004669 0.0
2.903539 0.476727 0.002886 0.0
1.658150 1.242240 0.000477 0.0
3.000984 1.240278 0.007096 0.0
2.219373 1.970151 0.002725 0.0
3.997458 1.809690 -0.002022 0.0
1.747729 0.145542 -0.002474 0.0
0.452969 0.337988 -0.001296 0.0
2.410070 0.360309 -0.002064 0.0
1.040965 1.983453 -0.003161 0.0
1.445928 0.754329 -0.000187 0.0
0.207699 1.020108 0.001291 0.0
3.247064 1.576214 0.001871 0.0
2.563902 0.378438 0.001450 0.0
1.984717 1.431305 0.000273 0.0
3.530152 1.276670 -0.000185 0.0
1.756706 1.475532 -0.005278 0.0
2.752253 0.351820 0.001334 0.0
3.472975 0.382744 -0.002498 0.0
2.817996 1.819034 0.002147 0.0
2.015201 0.352259 0.002673 0.0
3.890129 1.389866 -0.004851 0.0
0.261247 0.271707 0.003096 0.0
0.727681 0.852281 0.002247 0.0
2.726139 0.293695 0.000198 0.0
0.994692 0.808902 0.005127 0.0
3.676951 1.260026 -0.000982 0.0
1.490313 0.626524 0.000230 0.0
1.457934 0.071672 0.001904 0.0
3.524705 0.325358 0.001701 0.0
2.209531 0.707203 -0.001479 0.0
2.837010 1.638297 0.002942 0.0
1.978064 1.341581 -0.002922 0.0
3.766416 0.822377 0.000428 0.0
0.301955 0.468060 -0.007001 0.0
2.785664 1.355836 0.001465 0.0
3.661586 1.141643 0.000233 0.0
3.086786 0.440800 0.000166 0.0
2.522662 1.920163 -0.001301 0.0
1.124906 0.684023 -0.002406 0.0
1.727968 0.946211 -0.000160 0.0
2.453142 1.916687 -0.001321 0.0
3.650990 0.153194 0.004098 0.0
3.315869 0.587591 0.002579 0.0
2.224496 1.693965 -0.000618 0.0
2.332192 1.019015 0.000010 0.0
1.432522 0.308333 -0.003632 0.0
2.410214 0.217514 0.001204 0.0
1.180203 0.664192 0.002702 0.0
2.762655 0.656487 -0.003400 0.0
1.281483 0.314296 0.000876 0.0
2.224915 1.683029 -0.000195 0.0
1.112335 0.599380 -0.000730 0.0
3.282492 1.600344 0.005945 0.0
1.847046 0.872530 0.000391 0.0
0.443635 1.391673 -0.003241 0.0
0.883522 0.738184 -0.000914 0.0
1.841230 1.880460 -0.001514 0.0
1.726892 0.781672 -0.001656 0.0
0.882561 1.712369 -0.002858 0.0
0.119829 1.511977 0.002284 0.0
1.657755 1.310062 -0.001237 0.0
2.911215 1.350482 0.000538 0.0
1.078160 1.853085 -0.007756 0.0
0.880629 0.565739 -0.005472 0.0
1.179445 0.136358 0.003084 0.0
1.942961 0.400093 -0.001785 0.0
0.282532 1.597753 0.001093 0.0
0.732946 0.595857 -0.001634 0.0
2.360544 0.810201 0.001758 0.0
2.552925 1.589043 0.000067 0.0
0.504556 0.937150 0.000012 0.0
0.752486 0.077722 0.001378 0.0
3.070460 0.787586 -0.003683 0.0
0.406705 0.860606 0.001662 0.0
1.171645 1.636295 -0.001378 0.0
1.837834 0.359352 0.001120 0.0
1.438197 0.715256 -0.002476 0.0
2.147887 1.633576 -0.003733 0.0
2.499626 0.079473 -0.002447 0.0
0.054505 0.007891 0.003029 0.0
2.947702 0.039264 0.004526 0.0
0.942928 0.376826 0.000855 0.0
3.215447 1.810030 -0.003810 0.0
1.470499 1.848171 -0.001542 0.0
0.719818 0.543079 -0.003502 0.0
2.790259 0.477914 -0.001130 0.0
2.854331 1.007591 0.002036 0.0
0.787009 1.556877 -0.004406 0.0
2.714911 0.159605 0.000261 0.0
2.041733 1.283592 -0.001535 0.0
0.133723 0.339222 -0.002196 0.0
3.347763 0.855601 -0.002000 0.0
3.411791 1.460947 0.002744 0.0
1.960541 0.202259 -0.003267 0.0
0.433295 0.167636 0.003686 0.0
0.658213 1.597841 -0.000142 0.0
1.018054 1.810720 -0.001813 0.0
3.880276 1.705116 0.000137 0.0
1.339243 1.866465 -0.000244 0.0
1.858957 0.065914 0.001214 0.0
0.922600 1.721466 0.000910 0.0
1.555822 1.561509 -0.000093 0.0
2.604083 0.309806 0.002480 0.0
2.883845 1.563024 -0.001537 0.0
3.492318 0.834032 0.002447 0.0
3.755471 0.444910 0.000814 0.0
1.269368 0.269454 0.002314 0.0
2.066744 1.527185 0.001759 0.0
2.860925 1.267067 -0.001428 0.0
2.767145 0.737713 0.006820 0.0
1.924518 0.800397 -0.001632 0.0
3.542153 1.048559 0.003273 0.0
1.304733 1.403320 0.002811 0.0
0.443968 0.664651 -0.001164 0.0
2.125339 0.977656 0.001200 0.0
1.361646 1.999937 -0.002554 0.0
0.868299 0.409023 -0.000632 0.0
1.615345 1.154081 -0.003061 0.0
1.417458 0.965006 -0.003046 0.0
1.592590 0.240941 0.002053 0.0
2.074677 1.172962 0.000818 0.0
1.085015 1.863496 0.003268 0.0
1.890248 0.757564 0.001225 0.0
0.588549 0.023530 0.000003 0.0
1.323907 0.852185 -0.000355 0.0
2.432037 0.150509 0.000591 0.0
2.244019 1.413632 0.003238 0.0
0.833601 1.445021 -0.000539 0.0
0.566118 1.826196 -0.002642 0.0
2.990303 0.651688 0.004459 0.0
1.143177 1.513628 0.000697 0.0
2.371888 0.083651 -0.003605 0.0
1.407607 0.679101 -0.000919 0.0
3.463246 1.859614 0.000106 0.0
0.412310 0.773643 -0.000677 0.0
1.043667 1.528582 0.002088 0.0
0.546116 0.878372 -0.003587 0.0
3.923017 1.596679 -0.003365 0.0
3.848831 1.364011 -0.001451 0.0
0.219666 0.379163 0.000176 0.0
3.019572 1.384622 -0.003580 0.0
3.949021 0.985417 -0.000059 0.0
2.590992 1.621111 0.000743 0.0
2.771142 0.277083 0.003007 0.0
1.202700 1.304111 0.004992 0.0
0.425246 0.835579 -0.000582 0.0
3.190981 1.428752 -0.004339 0.0
0.615437 1.505671 0.001589 0.0
3.266661 0.235275 0.001292 0.0
1.335985 1.567342 -0.003329 0.0
1.325814 1.404073 -0.001419 0.0
0.845871 0.001539 0.002314 0.0
1.067158 0.783192 0.001787 0.0
3.607468 1.609607 -0.001246 0.0
0.266178 1.183680 0.001068 0.0
0.359997 1.113193 -0.001887 0.0
1.585490 1.419459 0.002092 0.0
1.783615 0.458713 -0.000825 0.0
2.090206 0.834417 0.000088 0.0
1.875711 1.323426 -0.001090 0.0
1.516385 1.859881 -0.000462 0.0
3.748542 0.986533 -0.004049 0.0
2.429466 0.401482 0.006547 0.0
1.023566 0.360422 -0.000200 0.0
2.305791 0.095514 0.000164 0.0
0.785598 0.366210 -0.001665 0.0
1.514379 1.245979 -0.002470 0.0
2.547677 0.060938 -0.002618 0.0
3.836276 0.905824 0.003587 0.0
3.628132 1.492317 0.002382 0.0
1.863483 1.537666 -0.000817 0.0
3.192987 0.465813 0.004960 0.0
3.882159 1.729078 -0.001327 0.0
3.654372 1.774548 0.001309 0.0
0.118578 1.504317 -0.001663 0.0
1.260704 1.302760 -0.002624 0.0
3.997237 0.604410 0.001331 0.0
2.379318 0.226291 -0.001323 0.0
1.416077 1.729528 0.000112 0.0
0.030552 0.658161 -0.001624 0.0
0.541233 1.580552 0.000928 0.0
3.814109 1.562723 0.002209 0.0
1.107511 0.332275 -0.001852 0.0
0.391617 0.808797 -0.003129 0.0
1.869557 0.815968 0.001426 0.0
2.660684 0.240502 0.003922 0.0
2.103561 1.370301 -0.003353 0.0
3.845259 0.569814 -0.003548 0.0
2.158969 0.730407 -0.000844 0.0
3.800271 0.327053 0.000617 0.0
1.093041 1.439315 -0.002359 0.0
1.112304 1.504871 -0.000466 0.0
1.246828 1.779286 0.000408 0.0
1.810192 0.501195 -0.000862 0.0
3.587243 1.407645 -0.004919 0.0
3.902686 0.610737 -0.000223 0.0
3.239880 0.133185 0.002495 0.0
0.113700 0.504746 0.000949 0.0
2.343750 0.572491 -0.002863 0.0
3.193651 1.511829 0.002143 0.0
3.871994 0.676554 0.002873 0.0
2.102816 1.666510 -0.000667 0.0
1.441745 0.665365 -0.002607 0.0
0.471604 1.748020 -0.005639 0.0
0.437806 1.563202 -0.002086 0.0
2.241673 1.903779 -0.003354 0.0
2.330840 1.019078 -0.003683 0.0
0.833666 0.603610 -0.001277 0.0
3.954431 0.558104 -0.002118 0.0
2.601513 0.263394 -0.000597 0.0
0.700575 1.453835 0.003069 0.0
3.939152 1.199939 -0.001212 0.0
3.885808 0.538312 -0.002903 0.0
3.730475 0.603432 -0.001592 0.0
1.918375 1.149859 0.000963 0.0
3.911664 0.358269 0.001793 0.0
3.905935 0.730699 -0.002301 0.0
2.258925 0.578906 0.001049 0.0
1.704309 0.378813 -0.000557 0.0
3.281288 0.096494 0.001162 0.0
3.043416 0.597397 -0.004171 0.0
1.162466 1.962554 -0.001912 0.0
0.604003 1.983295 0.003804 0.0
3.993000 1.182312 0.002780 0.0
0.844997 1.117974 -0.002629 0.0
1.900694 1.641946 -0.000303 0.0
2.960526 0.165384 -0.000354 0.0
0.205916 1.074896 -0.003329 0.0
0.536990 0.200353 0.002376 0.0
3.665593 0.526426 0.002455 0.0
0.757821 1.989785 -0.003278 0.0
0.933171 0.748855 0.001791 0.0
2.081668 1.325371 0.008815 0.0
2.033930 1.899918 -0.004462 0.0
2.990052 1.020147 -0.000735 0.0
1.643713 0.058498 -0.002365 0.0
0.311332 1.285155 -0.003524 0.0
2.580945 0.596710 0.001028 0.0
0.457753 0.618143 0.000010 0.0
0.070931 0.249894 0.001689 0.0
3.103745 0.059863 0.001471 0.0
2.045978 1.841083 0.002958 0.0
3.346853 0.189973 0.003851 0.0
0.159306 0.190965 -0.003405 0.0
0.748834 0.373314 -0.003176 0.0
3.583119 1.084464 -0.002415 0.0
3.195417 1.174738 -0.002606 0.0
2.212676 0.724917 0.002904 0.0
1.631323 0.334388 0.000127 0.0
0.144086 1.627615 0.002513 0.0
2.549881 0.047425 -0.002900 0.0
1.268049 0.906337 0.001716 0.0
3.457422 0.744115 0.003349 0.0
1.100671 1.893784 0.003098 0.0
2.171768 1.331131 -0.000217 0.0
2.143297 0.486077 0.001426 0.0
2.377562 0.710236 -0.000500 0.0
1.392526 1.805564 0.003143 0.0
0.378877 0.683877 0.000447 0.0
1.603057 0.052920 0.000753 0.0
3.224205 0.774608 0.001412 0.0
1.274426 0.939207 0.001083 0.0
2.345837 1.152309 -0.000303 0.0
3.748041 0.687357 0.002536 0.0
3.957231 1.141952 -0.002525 0.0
3.146641 0.193026 0.002474 0.0
3.471412 1.632679 -0.001834 0.0
2.787586 1.880699 -0.003588 0.0
1.416689 0.438592 0.002442 0.0
1.461149 1.201792 0.000441 0.0
1.785082 1.398405 0.001353 0.0
2.923874 0.096839 0.003045 0.0
3.794303 0.619522 -0.002437 0.0
2.016559 1.071553 -0.002986 0.0
0.982029 0.645595 -0.003076 0.0
1.832235 0.549717 -0.002376 0.0
2.084445 1.354423 -0.004524 0.0
1.283672 1.593810 -0.002415 0.0
2.313373 1.769055 -0.001067 0.0
0.272578 0.010952 -0.002286 0.0
2.081551 0.077471 -0.003784 0.0
2.506514 1.262510 -0.001999 0.0
2.363949 0.507188 -0.002191 0.0
0.242738 1.365103 0.000267 0.0
1.170090 1.667814 -0.002415 0.0
3.767232 1.003003 0.000123 0.0
3.870122 1.153479 -0.003070 0.0
0.839279 1.443938 0.005509 0.0
3.594651 0.898372 0.002370 0.0
0.295955 0.951075 0.003743 0.0
1.693300 0.726033 -0.003488 0.0
2.081256 0.123217 -0.002552 0.0
3.516210 1.134034 -0.004303 0.0
2.402591 0.327324 -0.002699 0.0
3.076390 1.635686 0.002809 0.0
2.430824 0.001891 0.004168 0.0
3.709106 1.866147 -0.001868 0.0
3.120601 1.524835 0.001066 0.0
1.152839 1.454192 -0.003760 0.0
1.149035 1.072135 -0.002084 0.0
1.776390 0.372352 0.003973 0.0
3.063614 0.775771 -0.002279 0.0
0.841816 0.204867 -0.002567 0.0
3.709628 1.531617 -0.001318 0.0
0.738525 0.999486 0.000516 0.0
1.660095 1.978651 -0.000333 0.0
2.402139 1.923531 0.001250 0.0
3.082048 1.638821 0.000466 0.0
0.920279 0.058155 0.002553 0.0
3.612909 1.061839 -0.000387 0.0
0.442735 1.241647 -0.000167 0.0
3.849097 0.303104 0.001486 0.0
0.564410 1.118308 0.002610 0.0
0.526374 0.081008 -0.002575 0.0
0.065702 0.943595 0.002369 0.0
2.026496 1.482993 -0.001082 0.0
3.994802 1.464755 -0.001311 0.0
2.489328 1.551223 0.001850 0.0
3.968453 0.374664 -0.000411 0.0
0.975499 0.106798 0.004607 0.0
0.936896 2.001553 -0.000147 0.0
3.750050 0.143827 -0.000718 0.0
0.980203 0.558685 -0.000430 0.0
1.257333 1.713116 0.000320 0.0
1.737734 0.646765 0.002259 0.0
3.942597 2.008007 0.000649 0.0
0.780508 0.121671 -0.006853 0.0
2.719765 1.168116 -0.004479 0.0
3.210713 0.131398 0.000946 0.0
0.221531 1.547875 0.002090 0.0
2.826723 0.609066 0.000671 0.0
3.580527 1.514174 -0.004777 0.0
3.764952 1.261065 0.000392 0.0
3.801951 0.800142 -0.000785 0.0
3.813412 1.600943 0.001216 0.0
3.886415 1.273790 -0.004192 0.0
2.942291 0.949354 0.000584 0.0
2.881709 1.183553 0.002233 0.0
0.019558 0.197345 0.001760 0.0
2.082043 0.291103 -0.001042 0.0
3.900617 0.645963 0.000026 0.0
2.755257 1.587491 -0.000395 0.0
1.009230 0.443608 -0.003882 0.0
2.061100 0.636782 -0.002519 0.0
3.367379 1.596026 0.001432 0.0
3.915271 1.328091 0.002705 0.0
2.717795 1.059635 0.006048 0.0
1.298183 0.283630 0.002686 0.0
3.736755 0.517940 -0.001015 0.0
3.341077 1.669235 -0.002859 0.0
3.731108 1.748434 -0.000818 0.0
3.079355 0.339634 -0.000726 0.0
3.213007 1.967150 0.002539 0.0
3.052990 1.746387 0.001204 0.0
3.000899 0.962796 -0.003012 0.0
3.732422 0.409171 0.004237 0.0
2.296679 1.741542 -0.002997 0.0
1.660574 1.480712 -0.001036 0.0
0.024994 1.944970 0.000863 0.0
3.350731 1.355387 -0.001339 0.0
2.787772 0.738973 0.001377 0.0
0.560800 1.760167 -0.000107 0.0
3.965986 1.472021 0.004744 0.0
0.302789 0.152987 -0.000284 0.0
1.690192 1.544234 -0.000042 0.0
2.338248 1.037029 0.001335 0.0
2.765167 0.190026 -0.001838 0.0
3.736007 1.867635 -0.001462 0.0
0.884626 1.272017 -0.004010 0.0
1.713020 1.354972 -0.000644 0.0
1.993348 1.860086 -0.005122 0.0
0.281739 0.465717 0.000548 0.0
3.344569 1.150820 -0.000091 0.0
1.426410 1.742176 0.003415 0.0
3.529180 1.883562 0.001680 0.0
3.909715 1.719375 0.000525 0.0
2.036333 1.270220 0.002821 0.0
0.219522 1.517357 0.003317 0.0
3.732979 0.070826 -0.000032 0.0
1.292764 0.763954 -0.000085 0.0
1.461898 0.769927 0.000359 0.0
3.137633 0.761157 -0.000459 0.0
3.881738 0.271515 -0.000902 0.0
2.772485 1.469925 0.000636 0.0
3.433466 1.744280 -0.000493 0.0
0.166392 0.639548 0.000909 0.0
2.628857 0.634800 0.001908 0.0
0.786173 0.084515 -0.002443 0.0
0.301651 1.391961 -0.001343 0.0
2.605988 0.281523 -0.002165 0.0
3.969148 0.457962 0.000024 0.0
1.607259 0.026148 -0.001819 0.0
2.214411 1.705317 0.000839 0.0
1.804666 0.303104 0.000188 0.0
3.642128 1.707970 -0.003931 0.0
3.343280 0.770624 0.000566 0.0
2.478001 0.486034 -0.001775 0.0
3.691534 1.557988 0.001613 0.0
3.204299 0.962093 -0.000332 0.0
1.622843 0.715317 0.005626 0.0
3.781114 0.399165 0.002272 0.0
2.139215 0.200770 0.003403 0.0
0.458216 0.966740 0.002079 0.0
0.971106 1.780623 0.002294 0.0
2.804511 0.552742 -0.001030 0.0
2.242828 1.519195 0.000963 0.0
0.600322 0.670142 -0.002854 0.0
0.123296 1.295266 -0.002161 0.0
1.387990 0.196648 0.003259 0.0
2.078693 0.271189 0.001883 0.0
1.044229 0.217209 -0.003265 0.0
0.665137 0.420326 -0.000861 0.0
2.956745 0.154638 0.000734 0.0
2.870999 1.149664 -0.003342 0.0
2.954481 1.152271 -0.003078 0.0
1.175544 1.912159 0.001323 0.0
1.460334 1.201915 0.002901 0.0
3.458679 0.268347 -0.000503 0.0
2.078234 1.723306 0.002374 0.0
1.886713 1.296691 -0.002237 0.0
2.991314 1.841896 0.004631 0.0
2.131242 1.233366 0.000410 0.0
0.580287 0.890630 0.001299 0.0
0.873074 0.527621 -0.001233 0.0
2.056123 0.772853 -0.002673 0.0
2.711251 1.807883 0.000127 0.0
2.467415 0.791447 0.001963 0.0
2.125509 1.248348 0.000195 0.0
2.298676 1.153591 0.000433 0.0
2.736707 1.291258 0.002891 0.0
2.400801 1.426606 0.001327 0.0
0.754240 1.348405 -0.002502 0.0
2.946612 1.932744 0.002580 0.0
3.976496 1.130415 0.001515 0.0
3.627997 0.215175 -0.002394 0.0
2.031470 1.979535 -0.003328 0.0
3.470262 0.152859 -0.003892 0.0
3.384356 0.247330 -0.000408 0.0
0.318512 1.957639 -0.004877 0.0
2.539477 1.220011 -0.000508 0.0
1.610195 1.546442 -0.003611 0.0
3.434956 1.687940 -0.001399 0.0
2.558564 1.050307 0.002178 0.0
1.593475 0.930950 -0.001822 0.0
1.414294 1.938920 0.000504 0.0
1.487180 1.727304 0.002362 0.0
1.590976 1.538779 0.002727 0.0
1.117668 1.020694 -0.001685 0.0
3.093159 0.381768 -0.000514 0.0
3.506186 0.708643 0.003531 0.0
3.996662 0.149708 0.002091 0.0
2.821565 1.545234 0.000785 0.0
3.758696 0.142746 -0.000755 0.0
0.574960 1.565449 0.000627 0.0
1.381554 1.033529 0.007062 0.0
3.219250 1.814826 0.004773 0.0
1.207088 0.101191 -0.001949 0.0
2.753301 0.279414 0.000296 0.0
0.784515 0.246892 -0.002628 0.0
2.332918 1.165110 -0.002103 0.0
1.774562 0.220122 -0.000202 0.0
0.981886 0.486271 0.001136 0.0
2.711837 1.679198 -0.001220 0.0
2.324569 0.570938 0.000389 0.0
3.645440 1.868398 -0.001236 0.0
1.401168 1.492424 0.000124 0.0
3.416924 0.418636 0.001920 0.0
3.426399 0.411174 0.003671 0.0
2.469873 0.190362 0.000947 0.0
3.168111 0.417128 0.001681 0.0
1.862231 0.533578 0.001331 0.0
2.057866 1.780147 0.002755 0.0
1.195412 1.942466 0.000958 0.0
3.024421 1.294194 -0.000098 0.0
2.193763 1.806296 -0.001250 0.0
1.695626 1.053190 0.002094 0.0
1.045207 0.990216 -0.001334 0.0
0.550359 0.532651 0.004543 0.0
0.493832 0.392094 0.001015 0.0
3.242879 1.180627 0.001295 0.0
2.948798 1.615429 0.001474 0.0
1.154279 1.307895 -0.000086 0.0
0.019218 1.703414 0.004292 0.0
3.694930 1.912377 -0.003397 0.0
1.584964 1.670306 -0.000249 0.0
1.424438 1.669100 0.001467 0.0
0.342309 0.935347 -0.002466 0.0
1.525996 0.107699 0.003177 0.0
2.320139 1.095977 -0.001157 0.0
1.129582 1.981748 -0.001052 0.0
0.438210 1.402603 -0.002447 0.0
1.392142 1.900159 0.001815 0.0
3.538232 0.114960 -0.000707 0.0
1.139081 1.286845 -0.000645 0.0
1.241815 0.808482 -0.000747 0.0
3.140278 1.418326 0.003645 0.0
2.716889 0.900536 -0.001578 0.0
3.131043 0.245626 -0.001035 0.0
0.793242 1.061144 0.001454 0.0
3.241145 1.172105 0.001298 0.0
2.286891 1.018069 -0.001771 0.0
1.025800 0.899144 0.000118 0.0
2.492544 0.875391 -0.000439 0.0
3.655641 0.773724 0.000761 0.0
1.723975 1.333949 -0.000343 0.0
0.820268 1.110787 -0.000626 0.0
2.502841 1.007563 0.000313 0.0
1.527304 0.692035 -0.003136 0.0
0.993686 1.575289 -0.002483 0.0
3.426050 1.532032 0.000772 0.0
3.266067 0.571040 0.002513 0.0
0.769020 0.893410 -0.001488 0.0
2.988395 1.758649 0.002333 0.0
0.047795 1.376686 0.000109 0.0
2.263604 1.752843 -0.000650 0.0
0.232293 1.452767 -0.000804 0.0
3.486096 1.420511 -0.002169 0.0
1.432677 0.744703 0.000052 0.0
3.407277 1.253005 0.001205 0.0
3.087338 1.355059 -0.001846 0.0
1.191203 1.336168 0.000342 0.0
0.684724 1.772165 -0.001910 0.0
3.057590 0.226097 0.000501 0.0
1.914818 0.622689 0.001998 0.0
3.171353 0.806126 -0.000774 0.0
3.880597 1.317634 0.004150 0.0
2.581220 0.048336 -0.003259 0.0
3.390200 0.442573 0.001574 0.0
1.862587 0.721789 -0.001100 0.0
2.178690 1.358389 -0.002350 0.0
1.455132 0.028809 0.004523 0.0
3.035505 0.433978 0.001879 0.0
3.775294 1.263948 0.001721 0.0
3.445943 1.834419 0.002622 0.0
2.656315 0.947055 -0.001752 0.0
0.773190 0.756364 -0.000161 0.0
1.762803 1.500158 0.002411 0.0
1.417891 1.109430 0.000682 0.0
0.824810 1.321661 -0.002287 0.0
0.531796 0.789219 0.002413 0.0
2.100592 0.382052 -0.004197 0.0
3.628609 1.646494 -0.006003 0.0
1.281509 0.577368 -0.000939 0.0
0.718917 1.235636 -0.000290 0.0
0.777043 1.584692 0.001773 0.0
1.769736 0.690755 0.003480 0.0
3.222360 0.105577 -0.003418 0.0
2.916749 1.132371 -0.002411 0.0
0.504648 0.048885 0.001897 0.0
3.830528 1.128829 0.002013 0.0
3.895224 0.396661 0.000754 0.0
2.291938 0.544322 -0.000852 0.0
1.440412 0.089105 0.004530 0.0
0.250133 1.247842 0.001062 0.0
3.917193 0.457118 0.001076 0.0
1.447151 1.902584 0.001022 0.0
1.455263 0.548869 -0.000157 0.0
1.900772 0.989841 -0.000782 0.0
1.337867 1.846077 -0.002103 0.0
2.256222 0.193190 -0.000151 0.0
3.770739 0.224849 0.002486 0.0
2.403731 1.645439 -0.001374 0.0
2.050073 1.091013 -0.004129 0.0
3.184413 0.227145 -0.002281 0.0
2.131025 1.849371 -0.006543 0.0
2.890212 0.721672 -0.002971 0.0
0.448137 0.905093 -0.001328 0.0
0.271800 1.919220 -0.000970 0.0
2.160289 0.558830 0.002242 0.0
1.975152 1.043635 -0.000875 0.0
2.692216 0.326690 0.000268 0.0
3.865673 0.579616 -0.000028 0.0
0.412115 0.343716 -0.000586 0.0
2.227220 1.566399 -0.003876 0.0
2.604761 0.714198 0.001942 0.0
1.534373 0.411762 -0.003073 0.0
2.986772 1.993416 0.001172 0.0
3.285145 0.677593 -0.003461 0.0
0.929747 1.671399 -0.002524 0.0
1.102162 1.422613 -0.004329 0.0
1.858212 1.324853 0.003799 0.0
1.208772 0.849505 0.001606 0.0
1.228557 1.480147 -0.002177 0.0
2.267291 0.295944 0.001229 0.0
2.556026 1.371316 0.000938 0.0
2.430415 1.466302 0.001672 0.0
2.270470 1.951215 0.000737 0.0
3.684573 0.863948 -0.000257 0.0
1.698498 1.911427 -0.000807 0.0
3.332786 1.404852 0.001157 0.0
1.523581 0.370774 -0.001525 0.0
3.113713 1.543131 0.002359 0.0
0.726268 0.356929 0.000516 0.0
3.498115 0.117751 0.003328 0.0
1.468779 1.058808 0.002327 0.0
3.743356 1.934835 0.000038 0.0
1.878753 1.311585 0.001990 0.0
2.812932 1.674214 -0.006393 0.0
1.708381 0.641923 0.002853 0.0
0.273758 0.590529 -0.001240 0.0
0.719366 1.788313 0.000147 0.0
1.788738 0.220045 0.002240 0.0
3.731361 1.348305 0.001086 0.0
2.299714 1.825665 0.001794 0.0
3.643805 1.694204 0.001915 0.0
1.380448 1.696705 -0.000182 0.0
1.372064 0.328071 -0.002661 0.0
0.836623 0.640239 0.002042 0.0
0.884313 1.279606 -0.000084 0.0
1.039031 0.920873 -0.004759 0.0
2.205567 0.040611 0.001558 0.0
1.112966 0.011874 -0.002229 0.0
0.519643 1.729745 0.003686 0.0
1.651296 1.130854 -0.003653 0.0
0.515651 0.239446 -0.000475 0.0
3.657034 0.602259 -0.001303 0.0
1.359645 0.856830 -0.000305 0.0
4.007933 1.188689 -0.000208 0.0
0.513329 1.591923 -0.002942 0.0
0.509056 0.107625 -0.000435 0.0
1.709245 0.073503 0.000351 0.0
0.571812 0.675135 -0.000117 0.0
1.794689 1.006429 0.001905 0.0
2.542633 0.591619 -0.002620 0.0
1.074605 0.156113 -0.003734 0.0
4.003177 1.913763 0.003889 0.0
2.471998 1.796499 0.000206 0.0
2.424534 1.554551 0.002144 0.0
1.138542 1.069224 0.002036 0.0
3.665933 1.835568 -0.000346 0.0
3.156508 1.199685 -0.002560 0.0
3.884257 0.938026 -0.002713 0.0
1.014753 1.122800 0.001262 0.0
3.812387 0.400783 -0.003319 0.0
0.598326 1.562529 -0.002794 0.0
1.892202 1.623325 0.003030 0.0
0.146269 1.621531 0.000196 0.0
1.589624 0.907187 0.001000 0.0
1.915756 1.882870 -0.002138 0.0
0.519138 0.757474 -0.000461 0.0
3.130620 1.051761 -0.000399 0.0
0.037634 0.667997 0.004911 0.0
3.096739 0.897032 0.001671 0.0
2.156393 0.940005 0.002951 0.0
0.094112 1.074362 0.001948 0.0
3.110632 0.371335 -0.002287 0.0
2.336509 0.415134 0.003608 0.0
1.910431 1.266676 0.001560 0.0
2.057606 1.979608 -0.000965 0.0
3.042399 1.275152 -0.001434 0.0
1.990324 1.687543 0.003281 0.0
0.763649 0.641338 -0.000249 0.0
0.720875 0.237373 -0.001334 0.0
1.116316 1.107240 0.002454 0.0
2.748845 1.800117 -0.000575 0.0
0.210867 0.299350 -0.000030 0.0
1.148290 0.585453 -0.000497 0.0
2.029386 1.094015 0.003688 0.0
0.600868 1.333429 0.005641 0.0
2.486524 1.317709 -0.000948 0.0
2.115415 0.497529 -0.000851 0.0
3.225211 0.041129 0.000375 0.0
0.447314 1.308083 -0.000793 0.0
2.972144 1.753850 -0.000205 0.0
1.191444 0.288569 -0.003631 0.0
2.076398 0.362985 0.003198 0.0
0.429591 1.220064 -0.005217 0.0
0.105055 0.205403 0.000084 0.0
2.177489 1.277857 0.002805 0.0
1.027433 1.922381 -0.003775 0.0
1.408480 1.526786 -0.000673 0.0
0.575143 1.998550 0.002439 0.0
0.814805 0.266511 0.002079 0.0
0.201986 0.622885 -0.002213 0.0
1.407983 0.964479 -0.000059 0.0
1.945312 1.935079 -0.000969 0.0
1.964623 1.684172 0.003849 0.0
3.789252 0.088521 -0.001465 0.0
2.421661 1.557973 0.004746 0.0
1.698994 1.688505 0.001117 0.0
3.460029 0.375989 -0.002682 0.0
0.572664 1.093859 0.000769 0.0
3.952819 0.180834 0.001244 0.0
1.897607 1.464062 -0.004988 0.0
3.449727 1.960969 -0.000964 0.0
3.931848 0.594673 0.000201 0.0
3.863052 0.564076 -0.000036 0.0
3.815194 1.474028 -0.000337 0.0
1.054844 0.523980 -0.001639 0.0
1.492860 1.179595 -0.002374 0.0
1.259254 0.567135 0.003077 0.0
2.224483 1.373509 -0.002046 0.0
2.945980 1.890323 0.001040 0.0
