1.61064385 0.27338534 -0.00225856 0.00000000
2.93240254 0.55685667 -0.00129171 0.00000000
3.01135954 1.75505945 -0.00166105 0.00000000
4.27167670 1.57483006 0.00213369 0.00000000
3.68223637 0.82264873 -0.00052972 0.00000000
0.18984652 1.48731575 -0.00331188 0.00000000
0.62388279 0.19396297 -0.00245024 0.00000000
2.69738070 1.84440280 0.00029422 0.00000000
2.47106838 1.04422548 -0.00138797 0.00000000
1.88059938 0.29694139 -0.00090589 0.00000000
1.39171773 0.15008235 0.00805624 0.00000000
1.34160062 0.79412241 0.00330172 0.00000000
0.17381554 0.24225237 0.00400059 0.00000000
0.80345417 0.71319616 -0.00408600 0.00000000
0.80832825 1.10251744 -0.00206762 0.00000000
4.06910549 1.15457844 0.00609032 0.00000000
1.29171890 1.79243021 0.00082692 0.00000000
0.23397389 0.94823073 0.00071233 0.00000000
0.91170335 1.13847366 -0.00265594 0.00000000
2.37826943 1.88460314 0.00360624 0.00000000
0.26643572 0.47904671 -0.00149759 0.00000000
2.48092369 0.79903368 -0.00432141 0.00000000
4.43461106 1.86333037 0.00279185 0.00000000
3.35370227 1.71548961 -0.00315544 0.00000000
2.07627327 0.38113103 0.00092904 0.00000000
2.02499684 1.68957177 -0.00003739 0.00000000
4.27593948 1.00075230 -0.00238603 0.00000000
1.45796569 0.17698767 -0.00014667 0.00000000
0.06379114 1.07797641 -0.00065923 0.00000000
3.72759625 1.49987810 -0.00375482 0.00000000
4.09218185 0.60500215 -0.00802384 0.00000000
0.33346687 1.76897943 0.00333096 0.00000000
1.33212406 0.20302026 -0.00150103 0.00000000
3.62309366 0.58345735 0.00144502 0.00000000
2.90837218 0.01686165 0.00155332 0.00000000
0.93775748 0.70286662 0.00049710 0.00000000
2.98642292 1.27730312 -0.00029278 0.00000000
1.20063458 0.15816984 0.00236996 0.00000000
2.15859787 0.94578876 0.00092630 0.00000000
0.04644038 0.25529508 0.00147860 0.00000000
0.20104094 1.56425059 -0.00008190 0.00000000
3.14157415 1.68072128 -0.00368233 0.00000000
1.89360190 1.02215931 -0.00362737 0.00000000
1.67796476 1.00439553 0.00047175 0.00000000
1.29184340 0.10477533 -0.00086684 0.00000000
0.26360018 0.95146710 0.00069781 0.00000000
1.20018234 1.82324551 0.00321573 0.00000000
3.63385929 0.20023963 -0.00321143 0.00000000
3.59608760 0.48783122 0.00462488 0.00000000
0.66578158 0.39793222 -0.00141018 0.00000000
0.55066630 1.34989087 -0.00410228 0.00000000
2.82849603 1.00360902 0.00187285 0.00000000
2.25578916 0.38579239 -0.00022368 0.00000000
3.94648936 0.79657975 -0.00315274 0.00000000
4.36220962 1.76719128 -0.00583772 0.00000000
2.59019835 1.69021137 -0.00192780 0.00000000
4.21142602 0.70328743 -0.00106519 0.00000000
1.87685219 1.05808937 -0.00067901 0.00000000
4.34351312 1.38422647 0.00065950 0.00000000
1.74385159 1.30644882 -0.00070645 0.00000000
1.51278713 1.82676983 -0.00262765 0.00000000
1.29165535 1.57454870 0.00152711 0.00000000
0.89555903 0.99226661 -0.00162693 0.00000000
0.19818320 1.29046121 0.00249021 0.00000000
3.85821765 0.15053861 -0.00010155 0.00000000
0.03338849 1.08939401 -0.00264116 0.00000000
1.02848488 1.90462109 -0.00027482 0.00000000
1.94164568 0.33742844 0.00589615 0.00000000
1.64470152 1.90154400 -0.00019745 0.00000000
0.29190325 1.01805394 -0.00056041 0.00000000
3.50171502 1.91168570 0.00166372 0.00000000
2.47247078 1.29461459 -0.00394489 0.00000000
4.10036319 0.07125038 0.00177729 0.00000000
3.90186439 0.56824389 -0.00149001 0.00000000
0.57532686 0.19906696 0.00269628 0.00000000
0.87172831 1.74526211 -0.00380224 0.00000000
2.18152770 1.01869521 0.00331020 0.00000000
2.96406550 0.40517618 -0.00048399 0.00000000
2.98103416 0.03482609 -0.00256094 0.00000000
3.66333048 1.00577450 -0.00183290 0.00000000
0.06987774 0.97838326 0.00317993 0.00000000
3.97817754 0.37182393 -0.00150557 0.00000000
1.33307428 0.09674158 0.00029706 0.00000000
2.57724939 1.07667694 0.00096435 0.00000000
2.79219792 0.16654117 0.00100271 0.00000000
0.80947390 1.01096979 -0.00155832 0.00000000
0.06250881 0.40434082 0.00321798 0.00000000
0.97417763 0.48542226 0.00035205 0.00000000
2.23653621 0.85169649 -0.00264860 0.00000000
3.77172166 1.71399536 0.00225094 0.00000000
4.46454124 1.07318338 -0.00046447 0.00000000
1.36744348 0.17171406 0.00092544 0.00000000
0.20900765 1.78486379 0.00189503 0.00000000
0.63942864 1.24560268 0.00148330 0.00000000
1.32898847 1.14055680 0.00264855 0.00000000
0.70171904 1.41937217 -0.00309797 0.00000000
3.06630455 0.26640810 0.00076952 0.00000000
3.06646450 0.91313295 -0.00060246 0.00000000
2.71632946 0.36306035 -0.00174519 0.00000000
2.02176810 0.47322496 0.00239596 0.00000000
1.12926075 0.78722503 0.00547211 0.00000000
2.68926057 0.60821576 -0.00077750 0.00000000
3.65688121 1.33830428 -0.00051776 0.00000000
3.72368457 0.48946821 0.00312727 0.00000000
1.58594778 0.49812342 -0.00312250 0.00000000
2.60248529 1.19138405 0.00175463 0.00000000
0.90326651 1.37664795 -0.00125564 0.00000000
2.25111880 1.02260383 -0.00001580 0.00000000
1.38270877 1.59520610 0.00243085 0.00000000
3.43126070 1.66454957 -0.00308584 0.00000000
3.91506745 1.49600245 -0.00086689 0.00000000
0.82838377 1.78473405 0.00184073 0.00000000
0.47383673 0.61038047 0.00371433 0.00000000
3.71991728 0.37827397 -0.00124196 0.00000000
3.47121370 0.55342076 -0.00008706 0.00000000
3.64020891 0.50121369 -0.00054372 0.00000000
3.85160399 0.01062480 0.00086777 0.00000000
2.61103764 1.80697523 -0.00077065 0.00000000
3.67397203 0.76330698 0.00225617 0.00000000
0.27554556 1.78575563 0.00298691 0.00000000
2.51759808 1.19161211 0.00011025 0.00000000
1.80338929 0.70897461 0.00227443 0.00000000
2.93698376 0.64574981 -0.00038120 0.00000000
3.08851499 0.01548916 0.00265028 0.00000000
1.55933164 1.24835927 0.00053822 0.00000000
0.60880856 1.60097893 0.00493212 0.00000000
4.08100118 1.01371914 0.00384325 0.00000000
1.03156868 1.90914942 -0.00070244 0.00000000
3.46273827 0.93099330 0.00024351 0.00000000
4.47448920 0.39463615 0.00066251 0.00000000
2.70002527 1.08228467 0.00061750 0.00000000
2.23154012 1.01892999 -0.00397307 0.00000000
2.95592498 0.92790993 -0.00169278 0.00000000
1.83534181 1.55206783 -0.00458214 0.00000000
0.43954680 0.78559986 -0.00001808 0.00000000
0.96473391 0.43944904 -0.00410146 0.00000000
1.61520649 1.10463621 0.00061767 0.00000000
1.40734177 1.77826772 0.00114625 0.00000000
4.00061203 0.79221123 -0.00123183 0.00000000
3.86073609 1.07301502 0.00148444 0.00000000
1.47996962 1.51713883 0.00065010 0.00000000
2.84910637 1.50093218 -0.00044751 0.00000000
1.90830528 0.99521849 0.00052936 0.00000000
1.34247660 1.04954320 -0.00315860 0.00000000
3.66282366 0.57830323 0.00208737 0.00000000
1.26638084 1.41534399 -0.00123077 0.00000000
0.90233965 0.05780794 -0.00286779 0.00000000
3.96828972 0.73464662 0.00122994 0.00000000
4.29039172 0.41169548 0.00004750 0.00000000
2.68884756 1.24959075 0.00139305 0.00000000
4.48519549 0.00158344 0.00198522 0.00000000
2.69365448 0.51623224 -0.00470099 0.00000000
2.67296076 1.31175407 -0.00130121 0.00000000
0.90228265 1.40968557 0.00219054 0.00000000
1.64131582 0.78985394 -0.00311912 0.00000000
0.76885363 1.66039995 -0.00283447 0.00000000
0.40760014 0.37526497 0.00229352 0.00000000
0.10562763 0.01665779 -0.00266279 0.00000000
3.70143286 1.26570436 -0.00094933 0.00000000
3.86124864 1.18753627 -0.00229115 0.00000000
4.47944392 1.55198605 -0.00012683 0.00000000
0.46942411 0.73944643 -0.00133236 0.00000000
2.64117843 1.39343760 0.00387532 0.00000000
4.44496554 1.59225461 0.00160537 0.00000000
2.97694371 1.37409432 -0.00066079 0.00000000
2.31523400 0.74507183 -0.00064016 0.00000000
4.11466722 0.70466562 0.00229342 0.00000000
1.72924154 1.23149517 -0.00071130 0.00000000
1.24830807 1.63673457 0.00237953 0.00000000
1.35784508 0.44756346 -0.00335958 0.00000000
0.18767659 0.15166617 -0.00348022 0.00000000
3.49017916 1.89972992 -0.00163712 0.00000000
3.84225169 1.02322327 -0.00175791 0.00000000
2.42912361 1.54782000 0.00194483 0.00000000
0.04787633 0.22547841 -0.00151366 0.00000000
4.05538647 0.07315638 0.00348664 0.00000000
0.87102275 1.17924853 0.00203885 0.00000000
1.95633770 1.12009202 -0.00106239 0.00000000
2.61716304 0.64911040 0.00475463 0.00000000
2.54708056 0.38884285 0.00142708 0.00000000
0.22892667 0.68195303 -0.00179717 0.00000000
0.78971321 1.12315169 0.00285921 0.00000000
2.54920199 1.33451604 0.00236220 0.00000000
0.63887912 0.50001677 0.00427477 0.00000000
3.77448993 1.54852560 -0.00029535 0.00000000
4.19872502 1.21481503 0.00152492 0.00000000
3.78159507 1.07152331 -0.00211057 0.00000000
1.96949728 0.71967453 0.00410170 0.00000000
1.65593902 0.71462523 0.00223084 0.00000000
0.92497860 1.86477953 0.00000265 0.00000000
1.13019709 0.13714075 0.00208217 0.00000000
1.41436014 0.83352883 -0.00053217 0.00000000
2.78421253 0.39502890 0.00113257 0.00000000
1.92935541 1.59132381 0.00162661 0.00000000
0.16454375 0.57376929 0.00040431 0.00000000
0.62530703 1.31980653 -0.00199623 0.00000000
0.64956189 0.22485461 0.00067301 0.00000000
4.00686617 0.17815997 0.00566382 0.00000000
1.18392769 0.71265305 -0.00007885 0.00000000
0.85778782 1.38410940 0.00086663 0.00000000
0.70515947 1.11802810 -0.00224435 0.00000000
0.69127230 0.13591602 0.00074758 0.00000000
2.78545804 0.21429437 -0.00017588 0.00000000
0.80816786 1.07519154 -0.00139565 0.00000000
1.31774309 1.26150187 -0.00041383 0.00000000
4.19086593 1.79458606 0.00261981 0.00000000
3.42567700 0.47076366 -0.00242706 0.00000000
3.90265882 1.12675932 -0.00310817 0.00000000
3.22524807 0.38199473 -0.00174200 0.00000000
2.92114322 1.61162994 0.00050751 0.00000000
3.85105876 1.17183792 -0.00109670 0.00000000
3.23557831 0.55094004 0.00275679 0.00000000
2.18501310 0.78802971 -0.00204686 0.00000000
2.32469288 0.61911649 0.00517206 0.00000000
3.81467298 0.57711184 0.00258695 0.00000000
1.53826968 1.58828984 0.00451435 0.00000000
1.29796687 0.91608268 0.00069746 0.00000000
3.75130478 0.32952788 -0.00152311 0.00000000
1.38959873 0.95216896 0.00319188 0.00000000
2.03838799 1.38001747 -0.00018718 0.00000000
3.80136881 1.79023434 0.00227516 0.00000000
4.23256298 0.68240615 0.00331091 0.00000000
2.49041083 1.90366196 0.00031206 0.00000000
2.44524658 1.22706416 -0.00044194 0.00000000
0.36975196 1.47744620 -0.00255085 0.00000000
2.32292982 1.62938957 0.00074775 0.00000000
1.53859351 1.31977500 0.00243271 0.00000000
0.19457521 1.28693618 0.00177130 0.00000000
1.24033642 1.42793903 0.00108308 0.00000000
0.97532633 0.38120942 0.00017508 0.00000000
0.72131199 0.12457289 0.00281686 0.00000000
3.88407459 1.45862456 0.00563079 0.00000000
1.43360651 1.90346648 -0.00281105 0.00000000
0.20922456 1.64915688 0.00531086 0.00000000
4.08243000 0.19169011 0.00219711 0.00000000
4.09195150 1.20190577 0.00321262 0.00000000
2.69654852 0.30544496 0.00319125 0.00000000
3.58503968 0.82958961 -0.00164214 0.00000000
0.05783424 1.90314237 -0.00077375 0.00000000
3.58998000 1.27090027 0.00423193 0.00000000
1.90942429 1.55511439 -0.00072002 0.00000000
3.32747388 0.44055998 0.00316522 0.00000000
2.69690015 1.81991156 0.00324089 0.00000000
3.52702734 1.19789850 -0.00517766 0.00000000
2.29938883 0.79213127 0.00129051 0.00000000
2.88892429 0.08394296 -0.00115971 0.00000000
0.49090018 0.31389191 0.00089095 0.00000000
0.38119436 0.97043382 0.00186779 0.00000000
1.14904417 1.15510641 -0.00062988 0.00000000
2.04139183 1.79399522 -0.00248602 0.00000000
2.85653925 0.35942272 0.00513140 0.00000000
1.35390490 0.64464970 -0.00432216 0.00000000
3.64620288 1.41416210 0.00023089 0.00000000
3.38444386 1.51042005 -0.00141251 0.00000000
0.45929181 1.09614478 0.00158117 0.00000000
0.40900203 1.75897054 0.00089241 0.00000000
0.23324533 1.43407865 -0.00027923 0.00000000
3.83634338 1.67125076 0.00240531 0.00000000
2.21916069 0.89838745 0.00397218 0.00000000
0.86658629 0.85835756 -0.00050833 0.00000000
1.25766051 0.20960180 0.00071479 0.00000000
0.59144237 0.81251286 -0.00069568 0.00000000
4.11473989 0.84592806 -0.00038992 0.00000000
2.32786682 1.64249206 -0.00128079 0.00000000
2.25190388 1.68433620 -0.00062819 0.00000000
2.88440375 0.08785135 0.00046375 0.00000000
1.55674749 0.62114427 -0.00108961 0.00000000
2.29911678 0.18177530 0.00096229 0.00000000
3.58784404 0.46343837 -0.00032097 0.00000000
4.09571724 1.03616471 0.00341968 0.00000000
2.81181142 0.25860359 -0.00083303 0.00000000
3.37238715 0.74962051 -0.00168530 0.00000000
3.49939693 1.30060823 -0.00310916 0.00000000
0.80801762 0.72632924 -0.00157118 0.00000000
2.16017044 0.19220826 -0.00142501 0.00000000
2.69436167 1.73431808 0.00116963 0.00000000
3.12490635 1.73072467 0.00169329 0.00000000
1.90454513 1.86592169 -0.00128927 0.00000000
0.61668232 0.28981833 -0.00106873 0.00000000
4.04227479 0.62012735 0.00441168 0.00000000
1.77640138 1.75417721 0.00074056 0.00000000
2.09672063 0.40564434 -0.00139716 0.00000000
2.59171943 0.07836040 -0.00118495 0.00000000
2.68209281 1.24827331 0.00182421 0.00000000
0.99977143 0.23319517 0.00101724 0.00000000
2.45488029 1.23437956 0.00027012 0.00000000
1.12170705 1.56176987 0.00103841 0.00000000
1.01154173 0.16465971 -0.00030759 0.00000000
1.06035355 1.65139687 -0.00236384 0.00000000
3.32093317 0.87358603 -0.00121328 0.00000000
0.07318697 1.04322928 0.00102099 0.00000000
0.07248916 1.66076230 -0.00423872 0.00000000
2.95496745 1.09205547 0.00276996 0.00000000
2.46334771 0.11264691 0.00003846 0.00000000
2.96835165 0.70952249 -0.00317694 0.00000000
2.41958941 1.16631220 -0.00213947 0.00000000
0.80321717 1.87883384 -0.00338985 0.00000000
3.70382248 1.39887627 0.00075495 0.00000000
4.45383413 1.67336297 0.00023809 0.00000000
3.57505535 0.96835237 0.00096820 0.00000000
1.70760517 1.62677449 0.00136210 0.00000000
1.25229384 0.35223412 0.00074407 0.00000000
1.57080548 1.05793740 0.00175968 0.00000000
3.09714619 1.57766133 -0.00518850 0.00000000
1.71988400 0.19094947 0.00069867 0.00000000
2.14117785 0.65717327 0.00155838 0.00000000
1.16484955 0.47165485 -0.00163340 0.00000000
3.58147471 0.09891992 -0.00263287 0.00000000
4.36209350 0.23474269 0.00180205 0.00000000
1.41537503 1.49715744 -0.00652968 0.00000000
0.61482830 1.37593509 0.00238004 0.00000000
4.08067950 0.28170336 -0.00126614 0.00000000
1.47266433 1.27886684 0.00016170 0.00000000
3.83326111 0.43022759 -0.00099961 0.00000000
3.80574800 1.87186403 0.00057522 0.00000000
3.82560635 0.24788798 -0.00235879 0.00000000
2.91323866 0.98828194 -0.00313210 0.00000000
0.25838125 0.28942375 0.00070090 0.00000000
1.36979387 0.59646120 0.00252399 0.00000000
0.09682223 0.19898070 0.00057176 0.00000000
3.21726378 0.45438111 0.00242433 0.00000000
3.00478894 1.24111978 -0.00100573 0.00000000
2.76844619 1.30605128 0.00198266 0.00000000
1.12353146 1.30651834 -0.00153339 0.00000000
2.54498730 1.25123489 -0.00032731 0.00000000
1.34392162 1.72768438 0.00439781 0.00000000
2.17373917 0.36683878 -0.00490006 0.00000000
2.76833481 1.28834228 -0.00013665 0.00000000
3.58547597 1.06388612 0.00119371 0.00000000
0.22784794 0.57181204 0.00126905 0.00000000
1.35151910 1.01334575 -0.00042633 0.00000000
1.61203610 0.65159979 -0.00244695 0.00000000
1.85718707 0.04026880 -0.00367996 0.00000000
1.69558355 0.11840505 -0.00289805 0.00000000
4.11850723 1.34855608 -0.00066220 0.00000000
0.83740286 1.10567227 -0.00404592 0.00000000
0.36576761 1.19408416 0.00234653 0.00000000
0.65780329 0.42266632 0.00025564 0.00000000
4.38525465 1.01319391 0.00117041 0.00000000
1.26201465 1.46539782 0.00066103 0.00000000
1.09202142 0.06853228 -0.00263982 0.00000000
0.43002765 0.51658123 0.00228701 0.00000000
1.55119543 0.15705990 -0.00380905 0.00000000
3.13424118 1.71211070 0.00328451 0.00000000
2.97400154 1.62010630 -0.00064240 0.00000000
2.02069530 0.96612341 -0.00033687 0.00000000
1.24200557 0.29028240 0.00077618 0.00000000
0.36387038 0.16120102 0.00129688 0.00000000
3.17665261 1.19706259 0.00316936 0.00000000
1.72815839 1.61556268 0.00209534 0.00000000
4.26985615 1.21469584 0.00038165 0.00000000
1.49191987 0.98055123 -0.00169450 0.00000000
2.55291321 1.44263658 -0.00294509 0.00000000
2.21815055 0.33166879 -0.00107157 0.00000000
1.04478154 1.45944506 0.00173641 0.00000000
1.29945522 1.14869066 0.00288626 0.00000000
3.48985698 1.63395721 0.00117200 0.00000000
4.32135503 0.95870034 0.00081777 0.00000000
0.89845825 0.05931752 0.00299657 0.00000000
0.00658488 0.57202644 -0.00455058 0.00000000
3.94109215 1.85988290 0.00301186 0.00000000
2.91367842 1.69892495 -0.00057649 0.00000000
2.09209075 1.72687657 -0.00523154 0.00000000
3.75232059 1.56922456 0.00187007 0.00000000
1.82211176 1.54610935 -0.00224574 0.00000000
2.12431301 0.68000197 -0.00284312 0.00000000
1.39032264 1.77312963 0.00267672 0.00000000
0.40951203 1.91918215 -0.00256684 0.00000000
3.43469982 1.03039240 0.00177683 0.00000000
2.93708233 0.94302279 -0.00083595 0.00000000
1.12602781 1.85649745 -0.00064557 0.00000000
0.10608660 0.98568346 0.00221571 0.00000000
0.75882247 0.86721262 0.00282750 0.00000000
1.64920787 0.34071522 0.00328486 0.00000000
0.97720768 0.31166307 -0.00014654 0.00000000
0.78111043 1.40220477 0.00088236 0.00000000
2.22246747 0.84249590 -0.00364723 0.00000000
1.26692997 1.27125809 -0.00116841 0.00000000
3.73326460 0.91806987 0.00525377 0.00000000
3.45670224 0.15793928 0.00141117 0.00000000
3.94610479 1.45409884 0.00423230 0.00000000
0.37709020 1.26426574 0.00086028 0.00000000
0.03579650 1.36118054 0.00109661 0.00000000
0.57415715 0.54135402 -0.00162029 0.00000000
0.05497298 1.14978799 -0.00134682 0.00000000
4.48202694 0.53355612 0.00102317 0.00000000
3.52555804 0.11012690 0.00315052 0.00000000
1.44576632 0.93068286 0.00024545 0.00000000
2.48545908 1.59504571 0.00063604 0.00000000
4.38690750 0.76220390 -0.00089650 0.00000000
1.73788100 1.66492141 0.00395548 0.00000000
1.57156957 0.14569285 -0.00331545 0.00000000
3.89566092 1.29771478 0.00012157 0.00000000
4.07542374 1.50027288 -0.00327618 0.00000000
2.17785061 0.43795352 0.00038652 0.00000000
2.49046743 0.14172652 -0.00149539 0.00000000
4.44391035 1.16218357 -0.00058011 0.00000000
3.83986912 0.57185098 0.00163383 0.00000000
3.07595116 1.16505254 0.00217024 0.00000000
4.39267691 0.03604622 -0.00328310 0.00000000
3.08564111 0.47808620 -0.00471114 0.00000000
1.97376617 1.60662739 -0.00128823 0.00000000
4.26344667 1.33738037 -0.00154803 0.00000000
1.47305936 1.08076673 0.00069314 0.00000000
0.21194577 0.57936880 -0.00000977 0.00000000
2.90131994 0.45217439 0.00062930 0.00000000
4.13654180 1.29888325 0.00301654 0.00000000
3.75873502 0.31054082 0.00162521 0.00000000
1.46197269 1.45525748 -0.00035356 0.00000000
2.08124139 0.27870997 0.00347156 0.00000000
3.38878200 1.73916585 -0.00287348 0.00000000
3.27941194 0.46755780 -0.00109937 0.00000000
2.06504778 0.74568665 0.00032197 0.00000000
4.25549100 1.88252760 0.00063586 0.00000000
2.85893594 0.55627635 0.00334248 0.00000000
0.97502139 0.52638162 -0.00098516 0.00000000
2.49918263 0.47467020 0.00117451 0.00000000
3.34379625 1.43469808 0.00016857 0.00000000
1.36388530 1.30719846 0.00051694 0.00000000
0.55105745 0.98029882 0.00012510 0.00000000
4.09204106 0.82982515 -0.00035769 0.00000000
4.27513463 0.84489306 0.00263330 0.00000000
1.38389681 0.97479503 -0.00142427 0.00000000
2.90462444 0.96560799 0.00371145 0.00000000
0.98654651 1.21701093 0.00135794 0.00000000
0.34732352 0.85127499 0.00191059 0.00000000
4.06298988 0.29606093 -0.00334208 0.00000000
2.22079276 0.41157142 -0.00068768 0.00000000
2.07617825 1.03036839 -0.00069856 0.00000000
0.71167983 0.27336399 0.00121684 0.00000000
3.74311503 0.24591792 0.00004631 0.00000000
1.54260842 1.15539190 0.00031999 0.00000000
2.82964833 0.24334986 -0.00435219 0.00000000
2.50967064 0.43075774 0.00351486 0.00000000
4.25410135 0.36296503 -0.00323986 0.00000000
0.00654401 0.79335414 0.00627847 0.00000000
1.18881792 0.87419003 -0.00056763 0.00000000
2.81349879 0.31646998 -0.00211151 0.00000000
2.01926693 0.63014526 0.00390156 0.00000000
3.89665242 1.92020362 0.00145316 0.00000000
0.68415482 1.91683343 0.00440675 0.00000000
4.19630064 0.62132203 -0.00678915 0.00000000
0.19505731 0.57712737 0.00071712 0.00000000
3.40668502 1.30384524 0.00131859 0.00000000
3.70809024 0.37040096 -0.00058551 0.00000000
3.33664364 0.16702491 -0.00321692 0.00000000
3.38255050 0.06921149 0.00284542 0.00000000
1.03603292 0.67807624 0.00308486 0.00000000
2.08324734 1.37976524 -0.00094501 0.00000000
4.01393209 0.43887677 -0.00134847 0.00000000
0.46216503 0.36785069 -0.00695972 0.00000000
2.20356870 1.32795476 0.00680021 0.00000000
3.58727354 1.80152951 -0.00205951 0.00000000
1.16217702 1.16646364 0.00281373 0.00000000
1.82570896 0.06306855 -0.00051163 0.00000000
0.67433378 1.28063649 0.00041097 0.00000000
3.12181667 0.77621966 0.00116292 0.00000000
3.31847624 1.26647188 0.00165863 0.00000000
1.51224665 0.88407834 0.00236623 0.00000000
4.04384074 0.44450737 -0.00197972 0.00000000
0.79028074 0.72421349 0.00155902 0.00000000
4.39469797 0.02109727 0.00065974 0.00000000
2.87387602 0.86181331 0.00175879 0.00000000
2.20088613 1.45537816 0.00213578 0.00000000
1.51058212 0.59235985 0.00047444 0.00000000
3.46588502 1.44251912 -0.00127232 0.00000000
0.26555540 0.23963061 -0.00269231 0.00000000
1.37446487 1.58036031 -0.00004050 0.00000000
2.83926953 1.73094936 -0.00077120 0.00000000
0.53955934 1.00117841 -0.00166648 0.00000000
4.27419342 1.17782646 -0.00250793 0.00000000
3.01625967 0.84484523 -0.00111608 0.00000000
0.41534004 0.67107239 -0.00261270 0.00000000
3.84438203 1.54052064 -0.00323037 0.00000000
0.50119955 0.03505035 0.00190534 0.00000000
3.85971950 1.72364289 0.00111510 0.00000000
4.20376389 1.67096457 0.00001461 0.00000000
2.92661097 1.63934495 -0.00012793 0.00000000
2.60286795 0.81618664 -0.00143440 0.00000000
2.29604888 1.82808760 -0.00145025 0.00000000
4.21748462 0.93611054 0.00165618 0.00000000
4.08023037 0.27701551 0.00435917 0.00000000
2.97193896 0.22172056 -0.00176463 0.00000000
0.76354685 0.13066210 -0.00095825 0.00000000
3.79551230 0.97314127 -0.00297490 0.00000000
0.43390467 0.23623818 0.00105074 0.00000000
3.08092273 1.54412962 -0.00052382 0.00000000
2.35827813 0.31023920 0.00330712 0.00000000
2.65243434 1.53026191 0.00053170 0.00000000
1.46373732 0.00313643 0.00119104 0.00000000
4.35734934 0.96332442 0.00229298 0.00000000
0.45414629 1.59002485 -0.00065765 0.00000000
0.62973016 0.50773072 -0.00203826 0.00000000
0.14859445 0.16963054 0.00253113 0.00000000
1.60888633 1.67914455 0.00084192 0.00000000
4.34435360 0.50101461 -0.00052125 0.00000000
1.14097806 0.70130862 -0.00126548 0.00000000
4.28963900 0.70766864 -0.00400805 0.00000000
3.35808589 1.40203328 -0.00106584 0.00000000
1.90499327 0.26217174 0.00103626 0.00000000
4.07246706 1.43252180 -0.00185310 0.00000000
2.57000819 1.13527448 0.00081456 0.00000000
3.27033374 1.53975921 0.00247456 0.00000000
2.86095429 0.78825982 -0.00463143 0.00000000
1.57991497 1.50097749 -0.00172307 0.00000000
1.08695840 0.87394816 -0.00147876 0.00000000
3.53123380 0.47100912 -0.00403981 0.00000000
3.10962063 0.15594932 -0.00137239 0.00000000
0.30130290 0.88939593 -0.00230386 0.00000000
3.56597521 0.91663815 0.00022826 0.00000000
1.29269441 1.08562538 -0.00213427 0.00000000
2.47246995 1.31543375 0.00275389 0.00000000
0.92537671 0.48877561 -0.00306511 0.00000000
1.64380224 0.63551806 0.00302732 0.00000000
4.33747209 1.21478883 -0.00136108 0.00000000
4.07509611 1.53743174 -0.00025451 0.00000000
0.57337663 1.63284296 0.00164425 0.00000000
3.40434531 0.09630677 -0.00162995 0.00000000
1.48986798 0.49098715 0.00143890 0.00000000
4.23869702 0.79388227 -0.00160897 0.00000000
4.35922423 1.82394405 -0.00149169 0.00000000
0.62930708 1.79441196 0.00159224 0.00000000
1.86804284 1.00360973 0.00166239 0.00000000
0.54824816 1.28516910 -0.00213270 0.00000000
3.69674904 0.50186804 -0.00385766 0.00000000
1.85999010 1.68500922 -0.00075210 0.00000000
2.08092261 1.76248130 -0.00291137 0.00000000
1.18104666 0.70761806 -0.00000281 0.00000000
3.67079529 0.19175822 0.00387178 0.00000000
3.92023059 0.98412262 0.00172166 0.00000000
3.83778630 1.45794598 0.00120227 0.00000000
1.36436474 1.74858551 -0.00020122 0.00000000
2.57501760 1.52864819 -0.00498298 0.00000000
1.70019971 1.59098226 -0.00453419 0.00000000
1.83140587 0.66741155 0.00286487 0.00000000
1.45884083 0.81520667 0.00437136 0.00000000
1.25903816 1.21724359 -0.00239680 0.00000000
0.15906512 0.08054719 0.00163842 0.00000000
4.17778410 0.06886375 0.00096203 0.00000000
0.16463533 1.75156567 0.00028437 0.00000000
2.29440461 1.55614005 -0.00027135 0.00000000
4.06482600 1.84300692 -0.00539446 0.00000000
0.05101468 0.80057354 -0.00067733 0.00000000
2.61628690 0.69141019 0.00313094 0.00000000
0.73213927 1.00151905 -0.00397624 0.00000000
3.04696174 1.23058960 -0.00096497 0.00000000
2.73943351 1.84864517 -0.00333606 0.00000000
0.75720263 1.69849625 -0.00405491 0.00000000
0.80279843 1.68688336 0.00096652 0.00000000
1.62374654 1.08207434 0.00448862 0.00000000
2.69015486 0.68710910 0.00188899 0.00000000
0.48662453 1.73446114 0.00083115 0.00000000
2.69318489 0.82865665 0.00330652 0.00000000
0.41305064 0.43915566 0.00556929 0.00000000
0.94030274 1.17813769 0.00282315 0.00000000
3.29494896 1.31190391 0.00249026 0.00000000
2.97721777 1.69473226 -0.00192415 0.00000000
2.04246172 0.23072914 -0.00049891 0.00000000
1.37355996 0.36457158 0.00184946 0.00000000
0.86022790 0.04772430 -0.00238067 0.00000000
1.75531034 1.33969046 0.00092485 0.00000000
1.24289984 0.73090003 -0.00012198 0.00000000
4.46140796 0.43515469 -0.00056755 0.00000000
4.37255541 0.71904909 0.00368557 0.00000000
1.40995684 1.09904097 -0.00275510 0.00000000
2.12924655 1.27990318 -0.00125398 0.00000000
1.93936340 0.45550460 -0.00293740 0.00000000
0.18302969 1.09500494 0.00412871 0.00000000
1.47056044 1.06899751 0.00099507 0.00000000
1.01206573 0.82959500 0.00004735 0.00000000
3.51591945 1.51659395 0.00184333 0.00000000
2.83379811 1.29092409 0.00090329 0.00000000
3.33520559 1.16621400 -0.00000428 0.00000000
0.91821430 0.80033175 -0.00343028 0.00000000
3.64756542 1.76405510 0.00236330 0.00000000
2.04988391 0.63314630 0.00054869 0.00000000
4.41390354 0.21091732 0.00053484 0.00000000
3.85241333 0.15500045 0.00069551 0.00000000
0.73805481 1.38799638 0.00139471 0.00000000
4.36970515 0.38245827 -0.00254458 0.00000000
1.76620013 1.55106201 0.00142124 0.00000000
1.42483669 1.40244098 0.00012737 0.00000000
0.97506542 0.46414979 -0.00459264 0.00000000
1.72065804 0.75432004 0.00374011 0.00000000
1.77313734 1.91881234 -0.00078099 0.00000000
0.77073170 0.82623884 0.00110707 0.00000000
2.60758305 0.95855540 -0.00047512 0.00000000
3.26700337 0.84112719 -0.00263694 0.00000000
0.31714669 0.31375111 0.00056326 0.00000000
1.15867150 1.13915171 -0.00195067 0.00000000
1.31586883 1.24935981 -0.00127511 0.00000000
3.09363069 1.63352816 0.00180291 0.00000000
1.35930523 0.98221254 -0.00006307 0.00000000
3.60908441 0.87325233 0.00088863 0.00000000
0.64481557 0.71061743 -0.00137566 0.00000000
0.07123529 1.67052257 0.00048813 0.00000000
3.56154855 0.26857105 0.00026612 0.00000000
0.15613128 0.89351128 -0.00005244 0.00000000
1.98096654 0.87192882 -0.00164840 0.00000000
3.38269104 0.89247668 0.00030235 0.00000000
3.08826484 1.44179666 0.00539487 0.00000000
2.57198226 0.90112488 -0.00451761 0.00000000
2.60149467 0.71468967 -0.00324448 0.00000000
3.10890184 1.66065999 0.00354771 0.00000000
2.89055241 0.70769017 -0.00041709 0.00000000
1.18941444 1.79194479 -0.00348387 0.00000000
4.03116378 0.12902183 -0.00202981 0.00000000
2.74273943 1.45682069 -0.00126227 0.00000000
0.65483804 0.38902516 -0.00014415 0.00000000
2.30201967 0.81218381 -0.00010663 0.00000000
1.21174150 0.83571256 -0.00007795 0.00000000
4.22186065 0.54543437 -0.00082794 0.00000000
2.97331483 0.78200641 0.00338195 0.00000000
1.49260827 0.14859954 0.00128947 0.00000000
0.29653002 1.02713228 -0.00001915 0.00000000
0.06605947 0.60359528 -0.00157180 0.00000000
0.21510661 0.09587648 0.00036208 0.00000000
1.83983213 1.22050760 -0.00359181 0.00000000
2.13833120 0.23689820 0.00064017 0.00000000
3.20889255 0.28139664 -0.00251111 0.00000000
0.71308731 0.15790879 -0.00175082 0.00000000
2.08496011 1.15999692 -0.00249192 0.00000000
0.03703929 0.98807656 0.00006043 0.00000000
3.59842877 1.09200591 0.00186786 0.00000000
0.42479181 0.73957362 -0.00199612 0.00000000
0.64882294 1.50627484 -0.00180004 0.00000000
2.65642119 1.15768442 0.00105570 0.00000000
0.79115954 0.92164218 0.00235249 0.00000000
3.85448213 0.06534049 -0.00252677 0.00000000
3.52467235 1.30766658 0.00175670 0.00000000
3.75258920 1.64149048 -0.00260806 0.00000000
1.17796231 1.78504097 -0.00005655 0.00000000
2.06644471 1.41373388 -0.00183158 0.00000000
3.14148935 0.84657589 -0.00069007 0.00000000
0.80684016 0.14195976 0.00402207 0.00000000
4.06701427 1.21082684 -0.00050588 0.00000000
1.79849788 0.38795376 -0.00173738 0.00000000
1.13472748 1.67378241 0.00199863 0.00000000
2.85499509 1.38047539 -0.00170636 0.00000000
4.02577855 0.36793711 0.00245922 0.00000000
2.72600548 1.18758102 -0.00276821 0.00000000
3.61148537 1.43836721 -0.00036623 0.00000000
1.54990464 0.94078007 -0.00169704 0.00000000
1.37588044 1.70315969 0.00016281 0.00000000
1.81793233 0.46517292 -0.00244105 0.00000000
1.34750182 1.22932444 0.00152280 0.00000000
0.69595731 1.89163261 -0.00005215 0.00000000
1.17285487 0.60671206 0.00182116 0.00000000
4.27647545 1.78721266 0.00030492 0.00000000
2.87695866 0.34902816 0.00068320 0.00000000
2.84538169 1.00783316 -0.00042760 0.00000000
0.42778406 1.78146454 -0.00080327 0.00000000
2.77980428 0.35749254 0.00238925 0.00000000
0.41881402 1.10628391 0.00053559 0.00000000
1.36569907 1.89235333 0.00512926 0.00000000
2.50955523 1.38082151 -0.00284624 0.00000000
2.94002221 1.02864387 0.00102157 0.00000000
3.96433133 0.79987658 0.00055415 0.00000000
3.86849974 0.46612506 -0.00165298 0.00000000
4.12622835 0.51279779 0.00755423 0.00000000
3.63557415 0.81597786 -0.00447506 0.00000000
3.05572670 0.29754277 0.00146442 0.00000000
0.79417106 1.30884112 0.00211206 0.00000000
0.15869177 1.48417742 0.00328437 0.00000000
0.76953780 0.44631140 -0.00393425 0.00000000
3.91265034 0.05940762 -0.00287123 0.00000000
2.96466527 0.09598082 -0.00407679 0.00000000
2.19381696 1.61731294 0.00220025 0.00000000
3.56075394 0.61674321 0.00397710 0.00000000
0.34149625 1.09040446 -0.00288996 0.00000000
1.35288192 1.80763884 -0.00282725 0.00000000
3.16749652 1.28668803 0.00413353 0.00000000
3.82133253 0.77829273 -0.00049799 0.00000000
2.67569039 0.32707284 0.00162320 0.00000000
0.31304081 1.53203607 0.00019123 0.00000000
0.48027511 0.37298135 0.00153880 0.00000000
1.31599549 0.49247209 -0.00195288 0.00000000
0.30353189 0.18524312 0.00606609 0.00000000
2.69788243 1.77974255 -0.00533027 0.00000000
3.09091285 0.85886411 0.00607363 0.00000000
0.46943806 0.75280629 0.00038394 0.00000000
1.13939329 0.71380791 0.00080316 0.00000000
4.32007446 0.14613097 -0.00236169 0.00000000
4.21141782 1.65575708 -0.00156792 0.00000000
1.56720069 0.70641624 0.00102701 0.00000000
0.85132306 1.62828335 -0.00084225 0.00000000
2.10983657 1.33615948 -0.00083464 0.00000000
2.85203064 1.61745531 -0.00222283 0.00000000
3.46148897 0.21152737 0.00045874 0.00000000
0.46164886 0.01694054 0.00079269 0.00000000
2.90229323 0.87119819 0.00002582 0.00000000
2.16423034 0.13466340 -0.00038402 0.00000000
1.60053321 0.80530876 0.00182200 0.00000000
0.31315272 0.93869745 0.00081277 0.00000000
3.91365307 0.75901936 0.00569998 0.00000000
0.41430290 0.72384416 -0.00054144 0.00000000
3.14044556 1.66773677 0.00026926 0.00000000
0.04147261 1.29582136 0.00142289 0.00000000
0.32568250 1.00422361 -0.00298533 0.00000000
1.49339829 0.69150533 0.00327436 0.00000000
2.30952765 0.15569751 -0.00254222 0.00000000
3.45839400 1.06263248 0.00181447 0.00000000
1.65251092 1.53119702 0.00268549 0.00000000
0.90970402 0.76086043 -0.00092301 0.00000000
4.44924980 1.54853864 0.00226370 0.00000000
2.03149402 1.36992254 -0.00494689 0.00000000
1.73446263 1.72922474 0.00262865 0.00000000
2.60517859 1.14592064 0.00101672 0.00000000
1.62568786 0.20205253 -0.00179216 0.00000000
2.78850261 0.29445166 -0.00231973 0.00000000
1.97727343 0.36885412 0.00213368 0.00000000
2.73846192 0.22103748 -0.00069493 0.00000000
4.33041863 1.82877444 -0.00322586 0.00000000
2.60190916 0.90789523 0.00011262 0.00000000
1.88215810 1.73437996 -0.00547927 0.00000000
2.13029771 0.49964797 0.00057247 0.00000000
3.48469513 0.95367667 0.00299153 0.00000000
0.72096503 0.18274364 0.00328958 0.00000000
0.61299751 0.80278292 0.00008517 0.00000000
3.00379436 0.76871970 0.00115759 0.00000000
4.29217287 0.35624602 0.00049513 0.00000000
3.97299342 1.33486929 0.00361796 0.00000000
0.23185320 1.75606161 -0.00182597 0.00000000
1.50826508 0.30637610 0.00067484 0.00000000
1.78576113 0.82546974 0.00542673 0.00000000
3.72680111 0.60932809 0.00066543 0.00000000
1.11123579 0.15007352 0.00401671 0.00000000
1.16416135 0.72297772 -0.00131513 0.00000000
3.77055189 0.17207980 0.00028467 0.00000000
1.22375687 0.48278750 0.00354021 0.00000000
3.38969007 1.62692449 0.00161367 0.00000000
3.91931277 1.40977755 0.00166981 0.00000000
1.22137367 0.79629889 0.00063300 0.00000000
0.16502131 0.46068753 -0.00304356 0.00000000
4.37594429 0.08645394 0.00059416 0.00000000
0.44158244 1.68940661 0.00791805 0.00000000
0.08532335 1.80281907 0.00174797 0.00000000
4.02675562 0.88146728 0.00008266 0.00000000
1.58240617 0.17783700 0.00132325 0.00000000
2.32558248 1.31389325 -0.00125590 0.00000000
1.91646996 0.71209512 0.00070004 0.00000000
3.06841903 1.14582102 0.00184302 0.00000000
1.44099085 1.16071077 0.00125206 0.00000000
0.85019035 0.37274777 0.00015543 0.00000000
3.14405609 1.33286459 0.00160812 0.00000000
2.18670207 1.51948443 0.00272680 0.00000000
3.66858290 1.25656277 -0.00225772 0.00000000
1.09640272 1.29068330 -0.00734388 0.00000000
2.00403522 1.63723001 -0.00081887 0.00000000
2.47976766 1.13106755 0.00202854 0.00000000
2.77333784 0.67012676 -0.00008017 0.00000000
1.08257370 1.88698019 0.00006210 0.00000000
0.36559203 1.18728595 -0.00032329 0.00000000
0.05029907 0.58404389 0.00212850 0.00000000
3.35266985 1.11664987 0.00166007 0.00000000
0.43940951 1.16088893 0.00100732 0.00000000
1.98285467 0.97640325 0.00263767 0.00000000
1.56203763 0.90625222 0.00102996 0.00000000
3.95583890 1.18233335 -0.00275442 0.00000000
1.51499060 0.72162202 -0.00154887 0.00000000
3.10432587 0.92768981 -0.00267976 0.00000000
3.40394707 0.17194759 0.00690529 0.00000000
4.13589209 0.94886962 0.00105518 0.00000000
3.78888197 1.35096611 -0.00300218 0.00000000
0.57250206 1.69204817 -0.00373967 0.00000000
3.24466048 0.31283397 0.00214173 0.00000000
2.99511325 1.26282463 0.00232516 0.00000000
2.76990747 0.65260934 0.00252311 0.00000000
2.64532680 0.12810947 -0.00057223 0.00000000
4.28810890 1.28432997 -0.00268111 0.00000000
0.20112482 0.79823382 0.00241526 0.00000000
0.85988671 1.27353987 -0.00057510 0.00000000
1.42179515 0.43023026 0.00198051 0.00000000
4.44862334 0.64646132 0.00001679 0.00000000
0.63083494 0.14534702 -0.00144420 0.00000000
3.79368144 1.28435714 -0.00010834 0.00000000
0.24894244 1.73635554 -0.00140937 0.00000000
0.52895686 1.12926674 -0.00006381 0.00000000
1.55810761 1.15109352 0.00237885 0.00000000
3.95191927 1.90118254 0.00040938 0.00000000
0.29596785 1.81769671 -0.00063097 0.00000000
0.95742105 0.56734064 0.00207402 0.00000000
4.35258117 1.68224431 0.00197893 0.00000000
0.40084253 0.31122322 -0.00361592 0.00000000
0.39356119 0.43571599 0.00414714 0.00000000
3.81292251 0.78619703 0.00113922 0.00000000
0.57540779 0.21308789 -0.00222969 0.00000000
2.65171271 1.46179055 -0.00069525 0.00000000
0.28418619 0.34310827 0.00219451 0.00000000
3.70738482 1.77367383 -0.00125797 0.00000000
1.94468189 0.04956579 -0.00365452 0.00000000
3.21405703 0.00678642 0.00254944 0.00000000
1.79655467 0.92190138 -0.00137690 0.00000000
1.43673759 0.62802732 -0.00121579 0.00000000
4.04672057 0.57911832 0.00212817 0.00000000
1.02276489 1.82922906 -0.00429782 0.00000000
2.15249917 1.36578560 0.00299785 0.00000000
1.14772925 1.28395492 -0.00332959 0.00000000
2.32300185 0.30698571 0.00446024 0.00000000
4.18283732 1.34454641 -0.00040812 0.00000000
0.29019990 1.37725519 -0.00263448 0.00000000
1.66655006 1.39870135 0.00117102 0.00000000
2.08524525 0.23508639 -0.00026317 0.00000000
2.98907024 1.63542082 0.00078838 0.00000000
1.28996885 0.84595975 0.00175668 0.00000000
1.12526739 0.15014678 0.00054767 0.00000000
2.08353917 1.16160302 -0.00360512 0.00000000
0.07956872 0.10349620 0.00222971 0.00000000
1.20155680 0.43972780 0.00212031 0.00000000
1.45498096 0.68191139 0.00248113 0.00000000
1.80270434 1.55783868 0.00273871 0.00000000
0.82716215 0.59904629 0.00242142 0.00000000
0.76129169 1.12007197 -0.00133051 0.00000000
0.32406883 1.71037975 0.00248476 0.00000000
2.43144031 1.71531374 -0.00106496 0.00000000
0.24377313 0.37324653 -0.00212331 0.00000000
1.15612479 1.80335342 0.00614706 0.00000000
1.53758347 0.85494337 -0.00039537 0.00000000
4.10565143 0.38321192 0.00378600 0.00000000
1.25100533 0.93931562 0.00080952 0.00000000
0.32734504 0.89206062 0.00198421 0.00000000
2.09556340 0.47319655 0.00224981 0.00000000
0.46441831 0.17366371 0.00592488 0.00000000
3.77713113 0.18730342 -0.00081913 0.00000000
2.10041906 1.64621112 0.00212620 0.00000000
2.63620227 0.26761961 -0.00074880 0.00000000
4.34189858 1.30855005 0.00010830 0.00000000
0.37677930 1.57021389 0.00561200 0.00000000
2.92573761 0.53815548 -0.00043596 0.00000000
1.02382382 0.61213826 -0.00026108 0.00000000
2.37911677 0.59241235 -0.00150242 0.00000000
1.18548332 1.75147978 0.00014315 0.00000000
2.22770929 1.26388565 0.00013847 0.00000000
3.66142582 0.96970509 0.00036725 0.00000000
0.27095460 0.36157353 -0.00343004 0.00000000
2.64767650 0.02994774 0.00022842 0.00000000
1.35831669 1.82766982 -0.00167581 0.00000000
3.25092186 1.12970199 0.00333404 0.00000000
3.53965424 1.47010787 -0.00070137 0.00000000
4.36520786 0.43353951 -0.00424075 0.00000000
2.58838902 1.43436717 -0.00445417 0.00000000
2.05305272 1.57347446 0.00514774 0.00000000
3.09075867 1.15553554 -0.00111349 0.00000000
3.75075548 1.80296173 -0.00307682 0.00000000
1.40817435 0.73338715 0.00277732 0.00000000
1.61045689 1.30047230 0.00049687 0.00000000
2.65677386 1.59762297 -0.00139356 0.00000000
1.61431950 1.82533686 0.00096324 0.00000000
0.22130980 1.42481483 0.00270538 0.00000000
4.04422208 0.13476449 -0.00170747 0.00000000
0.40317266 1.80267950 0.00142495 0.00000000
2.88551097 1.26613882 -0.00125413 0.00000000
0.05167891 1.90887468 0.00174730 0.00000000
2.10977240 1.80156428 0.00112471 0.00000000
1.46467092 0.16276484 0.00387771 0.00000000
2.71983315 0.85779363 0.00317604 0.00000000
1.13131710 0.47021774 0.00248931 0.00000000
2.29024421 1.87880999 -0.00074990 0.00000000
3.46542563 1.76327278 -0.00064568 0.00000000
0.51610711 1.29204480 0.00110246 0.00000000
2.44367330 1.12680219 0.00115396 0.00000000
0.10541678 1.86345766 0.00367041 0.00000000
1.45405070 1.32468375 0.00188495 0.00000000
1.71416525 0.25325452 -0.00044470 0.00000000
1.43277555 1.14066510 -0.00147457 0.00000000
0.98177465 1.27782131 0.00274651 0.00000000
2.48308990 1.26487086 -0.00144385 0.00000000
1.93510685 1.79902359 0.00031892 0.00000000
2.71715974 1.68587626 -0.00216415 0.00000000
4.48971601 0.62138073 0.00272491 0.00000000
1.99265947 0.78393556 0.00103656 0.00000000
2.46214078 0.17399156 0.00333635 0.00000000
0.52575783 1.64178112 0.00365063 0.00000000
0.30660086 0.02208388 0.00263009 0.00000000
2.74782813 0.22578328 0.00043780 0.00000000
0.54734204 0.63268075 -0.00155126 0.00000000
0.92298520 0.37691995 -0.00236205 0.00000000
3.05258782 1.52511021 -0.00001592 0.00000000
2.60813369 0.11002557 -0.00288648 0.00000000
3.57546417 1.42195004 -0.00058321 0.00000000
3.65413102 0.29385836 -0.00091102 0.00000000
0.33267213 0.71154292 -0.00125542 0.00000000
1.90227789 0.42702391 0.00368159 0.00000000
3.40140913 0.00203893 0.00455294 0.00000000
3.26509264 1.06687751 -0.00580395 0.00000000
2.73531464 1.50804974 0.00310326 0.00000000
3.59284754 0.87234698 0.00286573 0.00000000
4.30902019 0.60760878 -0.00091831 0.00000000
1.39750814 0.23807767 -0.00007325 0.00000000
3.53554972 0.56955650 -0.00188983 0.00000000
1.14888112 1.62554447 -0.00160710 0.00000000
1.66244560 1.20812178 -0.00088399 0.00000000
1.08382159 1.83296682 -0.00062879 0.00000000
0.42756689 0.69691454 -0.00329904 0.00000000
2.35379518 0.28914183 -0.00306214 0.00000000
2.02459970 0.94924024 0.00249796 0.00000000
0.38219494 0.31657833 -0.00124601 0.00000000
0.54275560 1.23239372 0.00010355 0.00000000
3.70775499 0.18263297 0.00220057 0.00000000
4.21799970 0.92043781 0.00065913 0.00000000
0.28826233 1.22797203 0.00017446 0.00000000
4.43037086 0.51412472 0.00148294 0.00000000
1.66355491 1.55215642 -0.00210835 0.00000000
0.50883239 1.69706425 0.00036393 0.00000000
3.21762056 1.71197353 -0.00303690 0.00000000
2.65056455 1.91650748 0.00595066 0.00000000
2.74445104 0.44176016 0.00136727 0.00000000
1.09279184 0.76974292 -0.00320406 0.00000000
0.06610665 1.49629413 0.00030272 0.00000000
1.61616776 0.44217301 -0.00335138 0.00000000
3.14689647 1.81789813 -0.00159842 0.00000000
3.84352984 1.25285095 0.00159541 0.00000000
3.69688832 0.15720247 0.00057339 0.00000000
1.14264224 1.21829061 0.00135013 0.00000000
2.73456507 1.06188497 0.00172161 0.00000000
4.25887810 1.40240725 -0.00239329 0.00000000
4.35900319 1.78876416 0.00397210 0.00000000
3.01706076 1.56673841 -0.00161515 0.00000000
3.54342944 0.65180951 -0.00319395 0.00000000
1.14813477 1.12610940 0.00022998 0.00000000
3.30799640 0.87834469 -0.00327495 0.00000000
0.14660940 1.61555348 0.00141850 0.00000000
0.36809323 0.91919068 -0.00387164 0.00000000
4.26519469 1.32754463 -0.00162383 0.00000000
1.12951875 1.30074800 -0.00046314 0.00000000
0.79131270 1.21994528 -0.00221621 0.00000000
4.03782232 1.24865073 -0.00102776 0.00000000
2.78207957 1.00399503 -0.00181882 0.00000000
1.34616613 0.63110427 -0.00154515 0.00000000
1.21796504 0.64585850 0.00085639 0.00000000
2.06758711 0.95794448 0.00437270 0.00000000
3.25688501 0.36939400 0.00211854 0.00000000
4.37188803 0.09274760 -0.00014496 0.00000000
1.69016628 1.20361210 -0.00135561 0.00000000
4.21285789 1.16606354 -0.00165481 0.00000000
1.45791242 0.91637768 0.00705986 0.00000000
4.09724066 0.47445132 -0.00309836 0.00000000
4.06554681 1.54759662 -0.00252966 0.00000000
1.87048399 0.79174187 -0.00252997 0.00000000
3.89638520 1.42438155 -0.00144471 0.00000000
2.44289127 0.56655420 0.00041911 0.00000000
2.36864102 0.84853873 0.00364210 0.00000000
2.48181936 1.72607532 0.00016118 0.00000000
3.89107405 1.85372169 0.00060587 0.00000000
1.02455314 0.61603042 0.00209996 0.00000000
4.15312696 0.60011003 -0.00057909 0.00000000
4.40884393 1.45652560 -0.00050971 0.00000000
2.20939576 0.60241998 -0.00195123 0.00000000
0.17700543 0.00963121 -0.00019114 0.00000000
3.27693832 1.39688522 -0.00140552 0.00000000
1.94256523 0.66451016 0.00065823 0.00000000
3.62461017 1.89764647 0.00000602 0.00000000
1.78532167 0.57580157 0.00328692 0.00000000
0.57476257 0.18005183 -0.00057324 0.00000000
2.13704391 1.75646545 0.00268645 0.00000000
2.54674619 1.74316306 -0.00273235 0.00000000
4.13903354 0.75875840 0.00024374 0.00000000
2.92584459 0.49814762 -0.00289270 0.00000000
0.74365226 0.20708629 -0.00109292 0.00000000
0.30907903 1.59774593 -0.00071953 0.00000000
1.04403394 0.90283071 0.00168924 0.00000000
2.02427116 1.61838334 -0.00135801 0.00000000
0.43953972 0.51493278 -0.00303862 0.00000000
2.79290462 1.31344745 0.00538122 0.00000000
2.46219768 0.27615751 0.00212770 0.00000000
0.93082587 1.07330600 -0.00253266 0.00000000
2.04258480 0.48920680 0.00330010 0.00000000
4.08977349 1.24131507 -0.00055768 0.00000000
4.27980300 0.17292591 0.00224436 0.00000000
1.39608117 0.83821872 -0.00173173 0.00000000
1.26381310 0.69317120 0.00036689 0.00000000
4.33269905 0.82098429 0.00146643 0.00000000
0.08727025 1.33658298 0.00122637 0.00000000
2.87827802 0.61685373 0.00066220 0.00000000
3.11788522 0.99211598 0.00193840 0.00000000
0.49955893 1.34085953 0.00137696 0.00000000
1.44710946 1.73383847 0.00342844 0.00000000
3.23311649 1.47659076 -0.00026351 0.00000000
0.36906827 1.86084598 -0.00062421 0.00000000
2.62766271 0.92931061 -0.00141981 0.00000000
2.89154870 1.90999451 -0.00078535 0.00000000
1.61906396 0.39020224 -0.00554959 0.00000000
0.16631946 1.35248679 -0.00425873 0.00000000
3.20423174 1.58904199 -0.00154973 0.00000000
0.90476600 0.46638778 0.00118623 0.00000000
3.89949663 0.32225418 -0.00182307 0.00000000
0.97690826 1.66694033 0.00374603 0.00000000
0.11332567 0.60899875 -0.00085434 0.00000000
0.97589014 1.78209520 -0.00081865 0.00000000
2.14403759 0.94168184 -0.00169799 0.00000000
2.41663226 1.07067889 -0.00574262 0.00000000
2.52568190 1.06564650 -0.00242980 0.00000000
2.04039608 1.18785865 0.00265055 0.00000000
0.05568411 1.92271700 0.00098327 0.00000000
4.45611802 0.37097484 0.00203805 0.00000000
3.57739518 1.64488148 -0.00155424 0.00000000
4.35843769 1.15382709 0.00136382 0.00000000
1.50877326 0.64576697 0.00126010 0.00000000
0.61919015 0.47000914 0.00149015 0.00000000
1.97695867 1.32324502 0.00058093 0.00000000
4.34859180 1.65393203 -0.00245233 0.00000000
2.98406096 1.17880249 -0.00323914 0.00000000
2.15535653 1.35159626 0.00350233 0.00000000
3.95470284 1.16045893 -0.00046221 0.00000000
1.74101342 1.24562315 -0.00198027 0.00000000
1.85921991 1.88697132 -0.00070888 0.00000000
0.05813410 1.51627805 0.00109208 0.00000000
1.93287268 1.72075272 -0.00171274 0.00000000
0.76023194 0.35095427 0.00026560 0.00000000
4.36504404 0.00771429 0.00153771 0.00000000
2.89110929 0.41289582 -0.00115489 0.00000000
4.14064235 1.86146504 0.00286062 0.00000000
3.66880670 1.74171811 -0.00193188 0.00000000
1.29693481 0.52228963 -0.00333175 0.00000000
3.40615588 0.59780356 -0.00203207 0.00000000
1.17645073 1.35882700 0.00202516 0.00000000
0.24375533 0.14205344 -0.00276614 0.00000000
0.49306850 1.43374714 -0.00085669 0.00000000
0.28817770 1.36527956 -0.00196198 0.00000000
4.39895197 0.78099462 0.00106417 0.00000000
2.18568607 1.32422261 -0.00134192 0.00000000
3.81378132 1.81646693 0.00104871 0.00000000
4.07615373 0.74752691 0.00003772 0.00000000
0.05115582 0.37594438 -0.00394506 0.00000000
3.71217157 1.75912566 -0.00297104 0.00000000
3.84622850 1.58725303 0.00349565 0.00000000
1.41383880 1.46044859 -0.00096179 0.00000000
3.80681411 1.75574771 0.00407169 0.00000000
4.39410317 1.83291038 0.00121582 0.00000000
0.34987775 1.08503046 0.00452725 0.00000000
4.48117928 1.71639950 -0.00047466 0.00000000
4.09529802 0.99018353 -0.00466362 0.00000000
4.30577348 0.10847036 0.00238597 0.00000000
1.02091065 1.55266762 -0.00229449 0.00000000
3.31088118 0.99650515 0.00320451 0.00000000
0.45702822 0.59833941 0.00103609 0.00000000
3.40090486 1.85400098 -0.00254221 0.00000000
0.39725875 1.79698770 -0.00268067 0.00000000
3.57784391 0.31175880 -0.00155724 0.00000000
2.42706450 1.18691811 0.00092918 0.00000000
0.71317590 1.09146034 0.00193172 0.00000000
0.63663537 0.46718600 0.00306287 0.00000000
0.90615980 1.15503691 0.00138828 0.00000000
1.74190300 1.17679059 -0.00127596 0.00000000
0.82240794 1.86561329 0.00516810 0.00000000
0.81525805 1.47091290 0.00384300 0.00000000
4.35605299 1.12544021 -0.00352378 0.00000000
4.07148884 0.85488239 0.00108798 0.00000000
1.42238654 0.64071818 0.00240823 0.00000000
0.88611658 0.83251909 -0.00135725 0.00000000
0.90067174 1.75330002 -0.00045734 0.00000000
2.16828333 1.68701891 -0.00047372 0.00000000
2.74598692 0.46266682 0.00006231 0.00000000
0.20153060 1.65150875 -0.00477645 0.00000000
1.13670905 1.55520656 0.00002417 0.00000000
4.47939337 1.62040538 0.00523693 0.00000000
4.18659419 1.63933897 0.00318469 0.00000000
1.53559001 0.53305621 0.00004074 0.00000000
2.39014889 0.35540225 0.00499868 0.00000000
4.29230732 0.73756235 -0.00014832 0.00000000
3.78536497 0.42778406 -0.00399718 0.00000000
2.04986024 0.81109034 -0.00105543 0.00000000
1.08566745 0.45838518 -0.00143203 0.00000000
2.46654844 0.29703474 -0.00148522 0.00000000
4.25119998 0.94285333 -0.00072768 0.00000000
4.31845500 0.54266774 -0.00165153 0.00000000
3.50272431 0.46695998 0.00298096 0.00000000
0.38743228 1.05749217 -0.00222595 0.00000000
2.82110930 1.76972043 0.00045307 0.00000000
1.44624172 0.15342265 0.00155494 0.00000000
0.21553630 0.87979197 0.00010934 0.00000000
3.04159558 0.41960738 -0.00530793 0.00000000
1.61180065 1.31868469 -0.00137508 0.00000000
3.21752582 1.23666407 -0.00309417 0.00000000
4.29397599 1.22234990 -0.00297483 0.00000000
3.63263135 0.23118989 -0.00316870 0.00000000
2.22692609 1.11024015 -0.00178728 0.00000000
3.60387606 0.23431298 -0.00134361 0.00000000
