2.36966399 1.46264330 -0.00207358 0.00000000
1.71178793 1.29412710 0.00074250 0.00000000
1.39665016 0.07444526 0.00017660 0.00000000
1.23347416 0.07317040 0.00341830 0.00000000
3.56183539 1.09133420 0.00262989 0.00000000
3.69379001 0.21721036 -0.00130116 0.00000000
2.26664438 0.91727811 -0.00472313 0.00000000
4.50999564 0.89575439 -0.00052929 0.00000000
1.14703583 0.60719894 -0.00325482 0.00000000
2.05289899 0.31658386 -0.00295805 0.00000000
4.13167335 0.19398459 0.00144795 0.00000000
2.97381089 0.79725445 -0.00159159 0.00000000
0.82719376 0.96368979 0.00121780 0.00000000
1.45386976 1.30210404 0.00097537 0.00000000
0.85188815 0.60316885 -0.00296254 0.00000000
2.83885162 0.02204907 -0.00538821 0.00000000
3.82075573 0.26008514 0.00178029 0.00000000
2.85861028 0.33585981 -0.00154198 0.00000000
1.35043393 0.12349849 0.00203857 0.00000000
2.56038215 1.50387933 -0.00043762 0.00000000
3.33622953 1.24153909 0.00031925 0.00000000
1.33069373 0.99612972 0.00285933 0.00000000
0.84554895 0.42982087 -0.00082744 0.00000000
0.01854999 1.14613396 0.00484568 0.00000000
3.04004786 0.63643836 -0.00100417 0.00000000
1.76853930 1.72767029 -0.00347003 0.00000000
1.27459517 1.58667636 -0.00378514 0.00000000
3.33265642 1.55947847 0.00013196 0.00000000
3.79058039 0.69732359 0.00434215 0.00000000
2.48732922 0.86132202 0.00109251 0.00000000
3.58905510 0.06724040 0.00097185 0.00000000
2.64238376 0.68673233 -0.00298987 0.00000000
0.06265283 0.38123653 -0.00473846 0.00000000
2.70142023 0.90079548 -0.00096132 0.00000000
2.29996430 1.04216126 0.00073806 0.00000000
0.57921693 1.05946523 0.00209554 0.00000000
2.43699303 0.71383537 -0.00501777 0.00000000
4.29085679 1.23825513 0.00267729 0.00000000
1.08479403 1.73189726 -0.00104604 0.00000000
1.96133373 0.58864690 0.00114047 0.00000000
2.32186906 0.14668048 0.00411841 0.00000000
1.26583205 1.41574536 0.00383592 0.00000000
2.88842558 0.96357696 0.00197995 0.00000000
4.27552901 0.71229496 -0.00141765 0.00000000
2.90975720 1.54339989 -0.00294686 0.00000000
3.96631062 1.09629113 0.00306136 0.00000000
2.25796675 0.79081458 0.00047388 0.00000000
4.16176638 0.92694890 0.00095461 0.00000000
3.04892200 0.71103762 -0.00280494 0.00000000
1.80616133 0.01752006 0.00443915 0.00000000
2.24988428 1.05233912 0.00289286 0.00000000
4.14538932 1.37005524 -0.00261393 0.00000000
2.80340996 0.55857709 -0.00019496 0.00000000
3.70552145 1.23051050 0.00261576 0.00000000
0.99183117 0.23972716 0.00437826 0.00000000
2.97845101 0.60258153 -0.00248692 0.00000000
4.47640868 0.26141349 -0.00273295 0.00000000
2.35768126 1.12059724 0.00012400 0.00000000
2.91784258 1.53317891 0.00401615 0.00000000
1.42624958 0.98016317 0.00343641 0.00000000
3.91903076 0.14248424 0.00043500 0.00000000
3.10652861 0.52302689 -0.00125918 0.00000000
3.77862541 0.89324601 0.00397310 0.00000000
3.88346550 0.28754568 -0.00517942 0.00000000
3.60112617 0.12928475 -0.00170556 0.00000000
4.33968625 0.80083140 0.00326632 0.00000000
3.46530895 0.22544245 0.00149429 0.00000000
2.65417360 0.01838643 -0.00246343 0.00000000
1.61289940 1.45769588 -0.00335126 0.00000000
2.32373324 1.65691297 -0.00595365 0.00000000
3.69179868 0.51264499 -0.00076975 0.00000000
2.92463743 0.92804765 0.00231165 0.00000000
4.28228342 1.67367751 -0.00154187 0.00000000
0.21644462 0.17449181 0.00112052 0.00000000
4.53791341 1.20543384 0.00285050 0.00000000
3.20022664 0.03974456 0.00060532 0.00000000
3.66973414 0.35801042 0.00477688 0.00000000
2.30394308 0.96490587 -0.00057532 0.00000000
0.28268729 1.51912303 0.00209590 0.00000000
0.27972821 1.07300262 -0.00549950 0.00000000
0.33051045 1.11779924 -0.00215205 0.00000000
3.83706599 0.30997943 -0.00350743 0.00000000
3.90326317 0.50981735 0.00170941 0.00000000
2.69063255 0.69239424 0.00141902 0.00000000
2.92758908 0.57879032 0.00090426 0.00000000
2.53977512 1.21165974 -0.00097159 0.00000000
0.12463643 0.10561961 -0.00200276 0.00000000
2.57907836 1.69481285 -0.00217997 0.00000000
2.37390657 1.04965192 0.00200524 0.00000000
0.05030711 1.30384457 -0.00028375 0.00000000
0.93052603 1.26824151 -0.00328519 0.00000000
2.21549399 1.51185906 -0.00110730 0.00000000
4.60108559 1.48957769 -0.00036080 0.00000000
1.03507375 1.46047126 0.00259369 0.00000000
3.51689798 1.09058054 -0.00211443 0.00000000
4.51209796 0.47909765 -0.00023866 0.00000000
1.18435463 1.65257940 -0.00190891 0.00000000
0.20636963 0.39560359 0.00360799 0.00000000
2.18555558 0.57978472 -0.00193810 0.00000000
3.46616724 1.45793281 0.00456168 0.00000000
0.94351335 0.10864810 0.00209471 0.00000000
4.56292137 0.72355585 -0.00177081 0.00000000
1.77425945 0.06978333 -0.00103322 0.00000000
4.44197471 0.57694141 0.00208638 0.00000000
4.22935321 0.84401530 0.00244288 0.00000000
0.29031609 1.05741643 -0.00215352 0.00000000
3.65158651 0.12418645 -0.00104484 0.00000000
0.72341261 0.13886499 -0.00153501 0.00000000
4.27876847 1.35642388 -0.00209731 0.00000000
0.16720254 1.31077271 0.00423241 0.00000000
1.49290473 1.64519845 0.00162667 0.00000000
4.58634984 0.78326567 -0.00158930 0.00000000
0.48216504 1.59862038 -0.00177617 0.00000000
2.18133225 1.04074047 0.00037485 0.00000000
1.34527589 1.32604319 0.00305791 0.00000000
0.69785535 0.85513601 -0.00390992 0.00000000
1.51563618 0.22618248 -0.00146474 0.00000000
3.27573713 1.36567095 -0.00118358 0.00000000
0.51910312 0.13704865 0.00135756 0.00000000
3.20373261 0.64799727 -0.00120013 0.00000000
2.38465212 1.34596399 0.00163447 0.00000000
0.05605788 0.94028228 -0.00098043 0.00000000
1.19875171 1.19690110 -0.00096285 0.00000000
0.09756371 0.94275711 0.00158798 0.00000000
0.00434454 0.58000249 -0.00153905 0.00000000
0.77561227 1.56121969 -0.00015330 0.00000000
3.82550277 1.53121929 -0.00039936 0.00000000
0.09510631 0.81120636 -0.00209019 0.00000000
2.91138365 0.55786216 0.00327542 0.00000000
3.58639775 0.24515344 -0.00031210 0.00000000
3.40434959 0.81909799 -0.00169279 0.00000000
3.53981051 0.57687737 -0.00510723 0.00000000
1.63906972 0.82168943 0.00089635 0.00000000
3.80451251 0.65391952 -0.00129503 0.00000000
2.82999342 1.63937976 -0.00093958 0.00000000
3.71692891 0.82338142 0.00194660 0.00000000
3.34368941 0.12510660 -0.00349415 0.00000000
2.28941638 1.23483827 -0.00245872 0.00000000
1.68759828 0.59868835 -0.00064054 0.00000000
4.46244852 0.15110960 0.00423880 0.00000000
3.16639227 0.23647467 -0.00221678 0.00000000
3.56755683 0.00203186 0.00515990 0.00000000
0.68136261 0.32963651 0.00236384 0.00000000
0.08376940 1.40069196 0.00188567 0.00000000
0.24055057 1.36296749 -0.00109387 0.00000000
2.14737808 1.51368309 0.00138875 0.00000000
0.58619078 1.10467450 -0.00503129 0.00000000
4.31616106 1.31508876 -0.00130748 0.00000000
2.53515029 0.99128440 -0.00158169 0.00000000
0.65045405 0.65268691 -0.00079562 0.00000000
0.36280493 0.19711744 -0.00228000 0.00000000
2.77166281 0.03992659 0.00088822 0.00000000
0.39144168 0.57008109 -0.00376930 0.00000000
1.44370822 0.53897689 0.00371601 0.00000000
1.74018579 0.79544540 0.00085571 0.00000000
2.98552366 1.12558451 0.00351395 0.00000000
0.26263508 0.07925852 0.00335879 0.00000000
2.70489900 0.01531939 0.00109422 0.00000000
4.26452492 0.76625778 0.00217906 0.00000000
3.82536917 0.84749616 -0.00182125 0.00000000
2.77807725 0.65680018 -0.00055955 0.00000000
3.62721363 0.88652909 0.00111519 0.00000000
3.19253631 1.28111977 0.00287101 0.00000000
1.28032961 0.78351760 0.00161672 0.00000000
1.62361828 1.04214803 0.00273996 0.00000000
1.16168691 0.76543808 0.00057663 0.00000000
0.54125493 0.57646176 -0.00100161 0.00000000
4.22091233 0.93671418 -0.00136373 0.00000000
4.06780837 1.47950546 0.00014075 0.00000000
2.45310970 0.44438598 0.00052839 0.00000000
4.51811939 0.04805854 -0.00128410 0.00000000
2.93630369 0.42492384 -0.00157662 0.00000000
2.44346113 0.65361626 -0.00278333 0.00000000
2.90288138 0.40717340 -0.00058131 0.00000000
0.47399262 0.27901467 0.00252639 0.00000000
1.90871642 0.89904445 -0.00257837 0.00000000
3.82935764 1.46083520 0.00167404 0.00000000
3.08342482 0.72410932 0.00194098 0.00000000
1.83295286 0.21999164 0.00047253 0.00000000
0.24493727 0.21808163 0.00568811 0.00000000
2.78445346 0.20406502 0.00088039 0.00000000
3.33845345 0.51725580 -0.00015975 0.00000000
1.52916079 0.67898781 -0.00427111 0.00000000
1.31586142 0.18727372 0.00436553 0.00000000
3.87258823 1.33250967 -0.00052710 0.00000000
1.26362341 0.38726942 -0.00152786 0.00000000
4.27775137 1.42660775 0.00253087 0.00000000
2.27974747 1.65856666 -0.00100315 0.00000000
3.32820788 1.27002367 -0.00164844 0.00000000
4.33977225 0.34501518 0.00604978 0.00000000
1.52493872 1.62297990 0.00356917 0.00000000
1.90873875 0.70894766 0.00112986 0.00000000
2.89338731 0.94165696 -0.00251867 0.00000000
3.59971989 0.88482475 0.00289105 0.00000000
1.61290357 0.99941510 0.00135107 0.00000000
0.76010444 0.88210022 -0.00004066 0.00000000
3.37121882 1.51344322 -0.00310077 0.00000000
0.40349323 1.31711983 0.00203313 0.00000000
0.99596787 0.31576815 -0.00625627 0.00000000
2.43163164 1.61011834 0.00454431 0.00000000
1.34415160 1.32863777 -0.00277746 0.00000000
0.07901674 0.50197503 0.00305628 0.00000000
1.83409251 0.56338214 0.00868247 0.00000000
2.34425905 0.43407324 0.00026468 0.00000000
2.56559649 0.85253738 0.00246531 0.00000000
1.16482089 0.59780221 -0.00099366 0.00000000
0.35666806 0.19205175 -0.00098496 0.00000000
2.72260031 0.66163236 -0.00015079 0.00000000
2.64055531 0.32387068 0.00412773 0.00000000
0.25993464 0.49748191 -0.00032763 0.00000000
0.11238596 1.72886762 0.00073750 0.00000000
3.59350732 0.55515454 -0.00166343 0.00000000
2.77681426 1.51398545 0.00513279 0.00000000
0.28773480 1.63691579 -0.00300191 0.00000000
0.13010572 0.09041817 -0.00412340 0.00000000
4.16381992 1.61193228 -0.00301748 0.00000000
2.08780344 0.35185451 0.00125709 0.00000000
3.95134702 0.49126866 0.00417002 0.00000000
3.40671211 1.68895334 0.00148931 0.00000000
1.99227635 0.93344479 -0.00040919 0.00000000
3.98576417 0.38210084 -0.00118279 0.00000000
0.61489877 1.68899494 0.00029212 0.00000000
3.85899822 0.71369688 -0.00333126 0.00000000
4.15468461 1.28908338 0.00048144 0.00000000
3.35575291 0.51865588 -0.00382331 0.00000000
1.31826273 0.35763393 0.00356310 0.00000000
1.22395616 0.14520914 -0.00073589 0.00000000
0.64082669 0.56400213 -0.00596295 0.00000000
1.76814233 0.10645598 -0.00132910 0.00000000
3.18209495 0.98936097 0.00631512 0.00000000
2.53829131 1.57035061 0.00023802 0.00000000
1.92975470 1.49465973 0.00347933 0.00000000
2.16988803 1.03221415 -0.00113150 0.00000000
2.24669040 0.95944036 -0.00610744 0.00000000
0.40601693 1.63428417 0.00374378 0.00000000
3.61514591 0.76439837 0.00166852 0.00000000
2.18595146 0.41211567 -0.00224333 0.00000000
3.89100972 0.07932225 0.00145703 0.00000000
3.79317523 1.60613119 0.00351697 0.00000000
2.59522316 1.71503430 0.00279751 0.00000000
1.99041719 0.20430657 0.00208989 0.00000000
0.58621890 0.44126231 0.00187239 0.00000000
1.52159023 1.34241959 -0.00202819 0.00000000
0.01023460 0.64915359 -0.00062345 0.00000000
0.77120534 0.62185983 -0.00380480 0.00000000
2.51078628 1.41058554 -0.00225981 0.00000000
0.61791564 1.12253160 -0.00026028 0.00000000
2.85608347 0.03015722 0.00129361 0.00000000
2.63715549 1.03287992 0.00199951 0.00000000
2.29748611 0.04870506 0.00032568 0.00000000
2.93639489 1.45371713 -0.00341320 0.00000000
0.50727348 1.19673106 0.00158203 0.00000000
4.29595190 0.98757947 0.00260524 0.00000000
0.41485596 1.53052256 0.00348017 0.00000000
0.49614678 0.89835037 -0.00240078 0.00000000
3.36654457 0.36628303 0.00100335 0.00000000
0.29402879 0.77023666 -0.00029280 0.00000000
1.67211231 1.40246373 0.00306225 0.00000000
3.04153865 1.19009611 0.00283941 0.00000000
0.64866811 0.14325886 0.00433869 0.00000000
2.48058675 1.46458794 -0.00143874 0.00000000
0.49931687 0.28798345 -0.00110927 0.00000000
3.14541343 0.14869691 0.00137964 0.00000000
3.40115357 0.81472884 0.00163514 0.00000000
3.61774607 0.91278057 -0.00029203 0.00000000
2.30464515 0.64124380 -0.00148094 0.00000000
1.96255540 1.12730221 0.00011068 0.00000000
2.02500680 1.64184372 -0.00157446 0.00000000
1.90441038 0.77423421 0.00262522 0.00000000
1.60771700 1.56860545 -0.00227135 0.00000000
0.69581996 0.44499853 0.00038116 0.00000000
1.65209791 0.66037315 0.00090323 0.00000000
2.50281164 1.71649007 0.00029902 0.00000000
2.68505934 0.71179710 0.00257159 0.00000000
3.84837135 0.30332708 -0.00104593 0.00000000
3.77389259 0.23032249 0.00216329 0.00000000
1.26029281 0.74336279 0.00060590 0.00000000
3.76649812 1.08489783 0.00111180 0.00000000
0.06817177 0.26386287 0.00099112 0.00000000
1.04015385 0.02406653 0.00150086 0.00000000
2.09570408 0.21788016 -0.00448039 0.00000000
3.33263083 0.08960020 -0.00418627 0.00000000
3.04368026 0.80093739 -0.00162609 0.00000000
1.37520034 0.64224443 -0.00276559 0.00000000
4.12214255 1.37992967 0.00219798 0.00000000
0.21136544 1.30165879 -0.00376870 0.00000000
3.68548714 0.94954955 -0.00401802 0.00000000
3.30017256 0.94800045 -0.00041722 0.00000000
0.42849082 1.44061286 -0.00215573 0.00000000
3.74922781 1.21942908 0.00091561 0.00000000
3.96521303 0.43308562 0.00414796 0.00000000
3.32442475 0.99111155 0.00250077 0.00000000
1.82667848 0.18170705 0.00042415 0.00000000
3.42492678 0.46308169 -0.00027290 0.00000000
1.84600634 0.75762941 -0.00234110 0.00000000
2.61133769 0.97348565 -0.00065625 0.00000000
1.26057888 1.45604610 0.00007296 0.00000000
1.80442843 0.34835471 -0.00215380 0.00000000
1.00286484 0.41632101 -0.00006730 0.00000000
2.69411297 0.96904940 -0.00481645 0.00000000
1.82487625 0.99174435 -0.00005939 0.00000000
1.96609968 0.97727498 -0.00230529 0.00000000
2.14520777 1.00211790 0.00050425 0.00000000
4.42717736 1.67694217 -0.00020572 0.00000000
0.62803186 0.60025543 0.00619038 0.00000000
2.49532417 0.86392827 -0.00030523 0.00000000
2.64468423 1.02025757 -0.00092794 0.00000000
3.55776783 1.37960849 -0.00462293 0.00000000
0.55598670 0.02369799 0.00104651 0.00000000
1.42996411 0.67285951 -0.00115914 0.00000000
4.34925471 0.46134856 -0.00086816 0.00000000
0.11902922 0.96868142 -0.00183694 0.00000000
1.44138713 1.22248047 0.00906506 0.00000000
0.71540664 1.36460544 0.00373559 0.00000000
2.06697239 1.62394912 -0.00068788 0.00000000
0.38437066 0.65741801 0.00109870 0.00000000
3.23879924 1.15681820 -0.00191943 0.00000000
3.21050785 0.58748457 -0.00136015 0.00000000
2.73382486 1.50717373 0.00055967 0.00000000
3.90977481 0.99062680 -0.00140484 0.00000000
3.10718133 0.37915119 -0.00077417 0.00000000
3.84022677 1.03691518 -0.00120561 0.00000000
4.35951673 0.58549768 0.00268767 0.00000000
3.00899991 0.26971114 0.00303286 0.00000000
0.72224680 1.67291801 -0.00010378 0.00000000
1.82751051 1.40094836 -0.00125311 0.00000000
1.76652015 0.56953393 -0.00061908 0.00000000
2.19012132 0.31832431 0.00014824 0.00000000
0.20175553 0.61999632 -0.00101306 0.00000000
4.01475891 0.10040080 0.00088011 0.00000000
2.37097042 1.58669229 0.00104641 0.00000000
4.53231829 0.98400836 -0.00302046 0.00000000
1.61355164 1.65753286 0.00070247 0.00000000
4.17380688 1.24450596 0.00278852 0.00000000
0.30051682 0.32397765 -0.00311447 0.00000000
4.03608863 1.37479633 -0.00094189 0.00000000
1.60550150 1.22303433 -0.00178017 0.00000000
0.41017868 0.31916405 -0.00118396 0.00000000
3.02949555 1.34093821 0.00050889 0.00000000
1.55280467 1.65451983 -0.00077525 0.00000000
4.14709038 0.25543135 0.00200760 0.00000000
3.18222571 1.18983415 0.00159996 0.00000000
1.50926506 1.04677710 0.00439231 0.00000000
3.35503884 0.81392131 0.00219380 0.00000000
3.10819018 1.08018249 0.00011866 0.00000000
1.63893502 0.53418975 -0.00074851 0.00000000
3.04141761 1.14310433 -0.00173654 0.00000000
3.62444513 0.60414508 0.00049897 0.00000000
3.16079838 0.71919011 0.00401117 0.00000000
3.22710051 0.35096741 0.00246315 0.00000000
1.09783147 0.55928829 0.00256236 0.00000000
3.12291053 1.54608335 -0.00010317 0.00000000
3.83959929 0.56583868 -0.00013826 0.00000000
0.21079496 1.62589865 -0.00044889 0.00000000
3.57807663 1.52795405 0.00370083 0.00000000
2.45722755 1.65978629 0.00014776 0.00000000
2.64214739 0.05087569 -0.00311567 0.00000000
3.24039241 0.94735095 0.00542547 0.00000000
1.13282372 1.21214759 0.00383962 0.00000000
1.41495098 0.08929342 -0.00334432 0.00000000
3.62081321 0.65837254 0.00410432 0.00000000
0.00120949 0.87073286 0.00142260 0.00000000
0.99754565 0.09724046 -0.00153280 0.00000000
4.37176111 0.51856887 0.00242467 0.00000000
2.80761784 0.48755724 -0.00087423 0.00000000
0.43291684 1.03505904 -0.00049217 0.00000000
1.93324822 1.49895916 -0.00050050 0.00000000
3.29443971 0.01381735 -0.00425438 0.00000000
3.55606987 0.54239172 -0.00040806 0.00000000
3.64335564 0.83993350 0.00003891 0.00000000
1.58816972 1.66020593 -0.00183336 0.00000000
3.26509218 1.42137367 -0.00440328 0.00000000
3.72057189 0.44408409 -0.00020998 0.00000000
0.80320531 0.29467001 -0.00137966 0.00000000
1.78172376 0.07448450 0.00201242 0.00000000
1.47379587 0.64835963 0.00296386 0.00000000
3.17436807 1.43700517 -0.00241070 0.00000000
0.85708630 1.01080470 -0.00541468 0.00000000
0.65594618 1.45668275 -0.00179380 0.00000000
0.33877650 0.32207981 0.00256006 0.00000000
0.50289704 0.13651166 0.00138455 0.00000000
1.29362735 0.63373720 0.00096100 0.00000000
1.81696692 0.83283214 -0.00378721 0.00000000
1.97784013 1.58175559 -0.00003799 0.00000000
3.31796612 0.12472447 0.00124987 0.00000000
2.58968484 0.01549877 -0.00235780 0.00000000
2.01038433 1.23119527 0.00166490 0.00000000
4.02488287 1.56783174 0.00153572 0.00000000
0.68601025 0.55919288 -0.00090474 0.00000000
1.68724853 0.05059446 -0.00131071 0.00000000
2.25948287 0.66314762 0.00489178 0.00000000
1.53807848 1.03014706 -0.00234234 0.00000000
1.19556903 1.00034642 -0.00080466 0.00000000
3.43313527 0.92012520 -0.00272977 0.00000000
3.71971243 0.88498398 0.00122362 0.00000000
0.04417834 0.62254412 0.00266487 0.00000000
3.96193936 1.35940606 0.00157305 0.00000000
1.00296485 0.81004002 0.00201327 0.00000000
1.76429933 0.26966012 -0.00096012 0.00000000
0.79235929 0.18705358 0.00060907 0.00000000
2.84605562 1.06336186 0.00282471 0.00000000
4.37148705 1.03457309 -0.00073897 0.00000000
3.88361044 1.62738192 -0.00352372 0.00000000
4.39097132 0.47091624 0.00352147 0.00000000
0.04748699 0.90973658 -0.00314284 0.00000000
4.28635355 0.26570185 -0.00199451 0.00000000
0.31262694 0.67021138 0.00217477 0.00000000
3.78881193 1.41703334 -0.00086354 0.00000000
1.79643790 0.67337043 0.00172742 0.00000000
2.94260870 0.29404926 0.00533376 0.00000000
4.20489239 0.66125324 0.00204974 0.00000000
4.57843989 0.10956918 -0.00492821 0.00000000
3.70876812 1.51488173 0.00139246 0.00000000
0.76747685 1.03708533 -0.00388201 0.00000000
1.48263234 0.75896810 -0.00200538 0.00000000
2.28209101 0.45575189 0.00021505 0.00000000
1.94826758 1.61637879 0.00337338 0.00000000
0.88683148 1.48506663 0.00061956 0.00000000
1.90177001 1.48165272 0.00061832 0.00000000
2.90901530 0.34793890 -0.00137569 0.00000000
3.14369207 0.12777592 0.00074987 0.00000000
3.54366450 1.28876707 -0.00281095 0.00000000
1.74448317 0.87423607 -0.00030405 0.00000000
0.51769820 0.27564774 -0.00283866 0.00000000
0.51434773 0.89434039 -0.00198209 0.00000000
3.34619317 0.83649569 -0.00362997 0.00000000
1.41633855 0.15582823 -0.00216399 0.00000000
0.39810753 1.50410848 -0.00070374 0.00000000
1.36910662 1.45059801 0.00156212 0.00000000
2.64661241 0.30786097 -0.00086313 0.00000000
3.65416129 0.63545652 0.00061016 0.00000000
1.40166318 0.53436485 0.00048179 0.00000000
3.10619707 0.25606118 -0.00161102 0.00000000
1.64297526 1.44667989 -0.00271605 0.00000000
1.33767388 1.45845414 -0.00127180 0.00000000
1.94979666 0.14454408 0.00100375 0.00000000
1.44861633 1.20311073 -0.00206409 0.00000000
3.19613679 1.27306148 -0.00362566 0.00000000
2.36648362 0.31978793 0.00224341 0.00000000
1.13936826 0.35076639 -0.00051851 0.00000000
2.05927266 1.56334234 0.00006223 0.00000000
1.00075933 1.60346272 -0.00305180 0.00000000
3.01870522 1.45737407 -0.00418839 0.00000000
0.79305944 1.04506910 0.00510404 0.00000000
4.05025751 0.71756866 0.00285761 0.00000000
1.74425693 0.63004292 -0.00038272 0.00000000
0.85466435 0.67407733 0.00160261 0.00000000
3.86328487 0.82602191 -0.00086864 0.00000000
0.55528344 1.64617427 -0.00229947 0.00000000
2.25701515 0.09969699 0.00191332 0.00000000
0.98308731 0.59360211 -0.00088413 0.00000000
1.59342338 0.14468138 -0.00122711 0.00000000
2.08297382 0.70112033 0.00110552 0.00000000
1.97307307 1.38770059 -0.00513197 0.00000000
2.23358473 1.42540754 -0.00135608 0.00000000
0.31194598 1.37183853 -0.00104738 0.00000000
2.50862218 0.68773039 0.00199477 0.00000000
4.42188436 0.08417019 -0.00022856 0.00000000
0.92993559 0.43003153 -0.00295575 0.00000000
2.67485897 0.65942512 -0.00289127 0.00000000
1.97524481 1.03065630 -0.00028713 0.00000000
2.06856619 0.51506790 -0.00095053 0.00000000
3.86399489 1.00820901 0.00445331 0.00000000
1.74803243 0.57390194 -0.00260528 0.00000000
2.37533336 1.50908759 0.00232373 0.00000000
2.26575781 1.50947861 0.00149625 0.00000000
3.48619609 0.62540312 -0.00188751 0.00000000
1.68225654 1.15464546 -0.00160467 0.00000000
3.30075939 1.60282522 -0.00116691 0.00000000
2.32545492 0.10615209 0.00120495 0.00000000
1.84515619 1.63486281 0.00260844 0.00000000
3.16493784 0.56710452 0.00183263 0.00000000
2.09724205 0.11581599 0.00060276 0.00000000
2.76078420 0.97527918 0.00023850 0.00000000
3.22294841 1.23106635 0.00049699 0.00000000
1.81776492 1.08770048 0.00135804 0.00000000
2.91548326 0.74379882 0.00567953 0.00000000
3.60630929 0.33858461 0.00138004 0.00000000
2.09548502 0.12986804 -0.00088680 0.00000000
3.49857074 1.01523682 0.00244907 0.00000000
4.04461121 0.28788918 -0.00208478 0.00000000
3.67445250 1.34003318 0.00059247 0.00000000
0.37608461 0.89946872 0.00102442 0.00000000
0.02873368 0.79433330 0.00109048 0.00000000
0.04094066 1.34452679 -0.00051214 0.00000000
2.75947140 1.54744226 0.00380721 0.00000000
4.22477343 0.22081074 -0.00110885 0.00000000
3.30417192 1.57219303 -0.00014646 0.00000000
0.77987466 0.36744225 -0.00049009 0.00000000
3.41298129 0.41122633 -0.00136066 0.00000000
2.55220788 1.10741989 -0.00345091 0.00000000
4.33606738 1.03525195 -0.00440453 0.00000000
1.29269719 1.54131105 0.00318743 0.00000000
3.77430850 0.26171002 -0.00248898 0.00000000
1.83030618 1.68465199 0.00306719 0.00000000
0.78537651 0.98616116 -0.00324048 0.00000000
1.31443095 0.93524245 0.00272473 0.00000000
1.57648523 0.13039890 0.00011956 0.00000000
0.25231318 0.61575318 -0.00157786 0.00000000
2.00590975 1.37264546 -0.00183009 0.00000000
3.37700273 0.44156868 -0.00228819 0.00000000
2.77256354 1.16223474 0.00459930 0.00000000
4.59133260 0.38338798 -0.00201981 0.00000000
3.21701178 0.83014814 -0.00271678 0.00000000
4.60009965 1.40542924 0.00374117 0.00000000
1.24253674 0.39829782 -0.00128422 0.00000000
3.63690634 0.76846068 -0.00225579 0.00000000
4.10640535 0.25645870 -0.00007516 0.00000000
1.91006140 0.75180319 -0.00042809 0.00000000
4.29834374 1.21120822 -0.00177939 0.00000000
4.24033765 0.96279241 0.00323794 0.00000000
3.86429999 1.22465881 0.00039574 0.00000000
3.15281472 1.31525699 0.00027901 0.00000000
4.21959577 1.51713633 0.00422894 0.00000000
4.47766481 0.48879528 0.00030317 0.00000000
2.98338453 0.62558209 -0.00571381 0.00000000
0.24097807 1.69510219 -0.00178463 0.00000000
1.38430040 0.37279377 -0.00114909 0.00000000
4.05385950 1.66144100 -0.00225730 0.00000000
1.44452615 1.29165739 -0.00080707 0.00000000
2.17080308 1.29932446 -0.00519846 0.00000000
1.13763359 1.42521145 0.00132718 0.00000000
1.66696841 1.61661245 -0.00253789 0.00000000
3.57543588 0.43526278 0.00365647 0.00000000
3.02172667 0.90001037 -0.00599674 0.00000000
1.26115149 1.51805673 -0.00168810 0.00000000
1.78723856 0.51703042 -0.00356880 0.00000000
4.13586451 0.97023610 -0.00409639 0.00000000
2.83535138 1.64177235 0.00096639 0.00000000
3.81269344 1.12786825 -0.00146929 0.00000000
0.56582361 1.13788205 -0.00393297 0.00000000
0.36158080 1.72248523 -0.00295121 0.00000000
4.35703519 0.21528070 0.00331489 0.00000000
0.90606694 0.72269927 -0.00422931 0.00000000
1.43351844 0.02137836 -0.00376067 0.00000000
3.78736826 0.36232375 0.00216047 0.00000000
1.46974757 0.07539164 0.00280060 0.00000000
0.19292025 0.92372796 -0.00261492 0.00000000
3.37090258 1.57684243 0.00106401 0.00000000
3.29255025 0.38457331 0.00063146 0.00000000
0.30179281 0.68821873 0.00098796 0.00000000
0.39162592 1.03298589 0.00339013 0.00000000
4.24242348 0.53222618 0.00001532 0.00000000
2.70276002 1.35943586 0.00092955 0.00000000
4.47336022 0.92078822 -0.00140888 0.00000000
1.51778547 1.25349459 0.00346435 0.00000000
1.49730370 0.41522193 0.00161885 0.00000000
0.87593818 1.11430603 0.00081813 0.00000000
0.20616925 0.92293762 -0.00407886 0.00000000
3.97050456 1.51189218 -0.00297227 0.00000000
3.26151337 1.25992911 0.00128973 0.00000000
0.56757770 0.92984659 0.00309913 0.00000000
0.81202403 1.55326420 -0.00278877 0.00000000
0.74059599 0.82613074 0.00002911 0.00000000
2.87496922 0.11703161 0.00060571 0.00000000
3.20574479 1.43780007 0.00111827 0.00000000
2.93193696 1.56863866 0.00100753 0.00000000
1.07628551 1.44469266 0.00298404 0.00000000
2.05124140 1.17238513 -0.00088007 0.00000000
4.58361142 0.91191423 -0.00120480 0.00000000
1.83010684 0.78569126 -0.00346403 0.00000000
3.21203941 0.84999237 -0.00329444 0.00000000
4.58784458 0.45152476 0.00425199 0.00000000
2.37064424 0.07709501 -0.00025530 0.00000000
1.45004932 0.41806246 -0.00158858 0.00000000
0.09870218 0.63715663 -0.00327276 0.00000000
4.10120965 1.21346034 0.00013940 0.00000000
3.90290310 0.11397327 0.00165621 0.00000000
1.44188161 1.38867662 0.00316926 0.00000000
1.64847186 0.19947674 -0.00248415 0.00000000
2.38301463 0.61009010 -0.00065947 0.00000000
1.00936676 0.27705892 0.00186325 0.00000000
2.37654098 0.66510660 -0.00116628 0.00000000
4.61053982 0.14271392 -0.00311434 0.00000000
2.35114046 0.84456769 0.00080999 0.00000000
0.02673917 0.09938475 0.00209082 0.00000000
1.83060920 1.69681193 0.00075533 0.00000000
0.58439332 0.72717659 0.00153982 0.00000000
0.25033524 0.91488564 -0.00356962 0.00000000
2.61669116 1.60578756 -0.00165769 0.00000000
3.10418850 1.37759686 0.00345128 0.00000000
1.75367708 1.64971051 0.00361114 0.00000000
1.95858026 1.06825331 0.00130820 0.00000000
0.20481431 1.10588660 -0.00224849 0.00000000
1.91646663 0.06730956 0.00038130 0.00000000
1.44704621 0.31571294 0.00422851 0.00000000
3.73127872 1.10481005 -0.00068448 0.00000000
2.78618965 1.70405798 -0.00053543 0.00000000
1.60137344 0.14775705 0.00123433 0.00000000
2.58252602 1.48565819 -0.00121183 0.00000000
2.50127904 1.60033011 -0.00168674 0.00000000
1.26392328 0.28659005 0.00340482 0.00000000
3.30081330 1.69634405 0.00181041 0.00000000
2.08151611 0.89996218 -0.00064229 0.00000000
3.49667107 0.00106814 -0.00459177 0.00000000
4.57538906 1.29383473 0.00352156 0.00000000
4.27591083 1.13803214 -0.00330152 0.00000000
4.58962906 0.93160859 0.00027799 0.00000000
4.37399376 1.28312046 0.00216730 0.00000000
0.12999040 0.15318842 -0.00395323 0.00000000
3.31489139 0.98998072 -0.00227562 0.00000000
3.47027095 1.66264148 -0.00206917 0.00000000
1.22661423 0.79423570 -0.00119003 0.00000000
3.22338980 0.89058931 0.00187663 0.00000000
4.60257137 0.05020025 -0.00665552 0.00000000
0.69724558 1.34634304 -0.00185083 0.00000000
2.05942224 0.60018720 0.00031558 0.00000000
0.56017435 0.78383529 0.00175976 0.00000000
0.85239889 0.73679910 -0.00090217 0.00000000
0.58295322 0.27349842 -0.00026676 0.00000000
2.67353206 1.05243371 -0.00172330 0.00000000
3.24925431 0.40421717 0.00436446 0.00000000
1.47891210 0.58090052 -0.00087398 0.00000000
0.49396407 0.72492004 0.00389620 0.00000000
3.94568821 0.17488486 -0.00124739 0.00000000
0.17034842 1.06314564 0.00237271 0.00000000
2.53011457 1.05627573 -0.00028129 0.00000000
3.81020531 0.46318402 0.00171130 0.00000000
4.15842828 0.01682643 -0.00098451 0.00000000
3.10630563 0.85474638 -0.00130993 0.00000000
2.89757515 1.58455216 0.00183232 0.00000000
0.71871993 0.04309762 -0.00444371 0.00000000
2.49166030 0.87967346 0.00472617 0.00000000
4.16127147 1.17414131 -0.00058710 0.00000000
1.98434416 0.69522635 0.00239097 0.00000000
3.07996230 0.55054202 0.00398894 0.00000000
0.49894783 1.01310824 0.00010151 0.00000000
1.85468982 1.69282895 -0.00182890 0.00000000
1.33321257 1.22303154 0.00154273 0.00000000
2.48299869 0.75896600 0.00018162 0.00000000
4.16224180 1.46478259 -0.00217119 0.00000000
4.58773285 0.20338020 0.00304582 0.00000000
2.68673046 1.63372940 -0.00241698 0.00000000
2.99266086 1.34073188 0.00005568 0.00000000
3.09680009 1.17030283 -0.00346334 0.00000000
3.48761097 1.13081897 -0.00101073 0.00000000
1.44675975 1.64833880 -0.00545131 0.00000000
3.12786526 1.46346679 0.00084706 0.00000000
1.25589398 0.69575366 0.00015305 0.00000000
3.07950786 1.26248947 0.00235033 0.00000000
2.90516982 1.30498226 0.00070398 0.00000000
0.87557532 1.51111432 0.00138653 0.00000000
0.47174944 0.50251085 -0.00082422 0.00000000
2.69500242 0.47036461 -0.00249289 0.00000000
0.37775530 1.09138038 0.00404419 0.00000000
2.39744209 1.07940589 0.00396029 0.00000000
4.14970806 1.34958995 -0.00724601 0.00000000
1.77409389 0.70127914 0.00311066 0.00000000
0.91423936 0.98585437 -0.00125600 0.00000000
1.99229111 0.90238968 -0.00185430 0.00000000
0.04564113 0.45733564 -0.00145919 0.00000000
1.77219634 0.25224715 -0.00305067 0.00000000
2.06203020 0.18432910 -0.00227311 0.00000000
3.32767587 1.42364180 -0.00129079 0.00000000
4.33161052 0.63293438 -0.00252931 0.00000000
3.59020054 0.89036494 0.00273546 0.00000000
1.03637770 0.49082784 -0.00331588 0.00000000
2.45387793 1.24914418 -0.00199365 0.00000000
1.94039523 1.72998811 -0.00452597 0.00000000
0.21144217 0.52750496 0.00410324 0.00000000
2.80358837 1.02105026 0.00037873 0.00000000
2.46491695 0.66730021 -0.00552509 0.00000000
2.29429484 0.22962473 -0.00017268 0.00000000
1.53454796 0.00754644 -0.00044706 0.00000000
0.71261265 0.29357522 0.00362026 0.00000000
4.54124467 0.60478693 -0.00372230 0.00000000
0.00878165 1.67237320 -0.00199201 0.00000000
2.98816342 1.35895748 -0.00309214 0.00000000
1.89816786 1.59998371 -0.00034176 0.00000000
2.28528564 0.86664805 -0.00129217 0.00000000
4.25895539 1.05795319 0.00217777 0.00000000
1.86262820 0.23192845 0.00284295 0.00000000
3.46737406 1.02173069 0.00087192 0.00000000
3.88907883 1.25214619 0.00270921 0.00000000
1.61133139 1.59730498 0.00156062 0.00000000
4.22400617 1.69092697 -0.00339890 0.00000000
4.18731206 1.31725469 -0.00099346 0.00000000
1.28934606 1.54192127 0.00120284 0.00000000
2.44203501 1.03173960 0.00302035 0.00000000
3.30251936 1.31061793 0.00201116 0.00000000
0.41030700 1.29484286 -0.00093878 0.00000000
4.09661732 1.21404409 0.00065986 0.00000000
0.70895618 0.05706104 -0.00155493 0.00000000
3.17745800 0.80515142 -0.00462089 0.00000000
0.35034295 0.87311372 0.00177787 0.00000000
0.20520798 0.02249266 0.00157194 0.00000000
4.19828170 0.37841437 -0.00024177 0.00000000
4.26968326 1.35886422 -0.00190279 0.00000000
0.16893492 0.52899443 0.00247296 0.00000000
2.36819949 1.43336013 -0.00068015 0.00000000
2.93322381 0.87755997 -0.00090748 0.00000000
2.02000276 1.62876974 -0.00519374 0.00000000
3.73062223 0.08656430 -0.00029070 0.00000000
3.07953337 0.96487372 0.00130743 0.00000000
2.04334610 0.61065926 0.00065615 0.00000000
2.84719983 1.16517862 -0.00123549 0.00000000
1.01767366 1.49227532 -0.00085859 0.00000000
2.62659295 0.12396150 0.00172050 0.00000000
3.60037590 1.01541205 0.00056357 0.00000000
4.27465843 0.15256994 0.00003792 0.00000000
3.07369618 1.58195336 -0.00432162 0.00000000
3.95011022 0.51146470 -0.00108635 0.00000000
0.18304041 1.44459907 0.00298719 0.00000000
1.06212247 0.26044181 0.00077838 0.00000000
0.07061879 1.05913769 0.00174319 0.00000000
0.34188186 0.49989178 0.00254087 0.00000000
3.92854237 1.30369231 -0.00415489 0.00000000
0.28410695 0.52290004 -0.00174552 0.00000000
1.30064789 0.30106001 0.00064949 0.00000000
0.99866867 0.49234639 -0.00556337 0.00000000
3.18320716 0.16673923 -0.00181163 0.00000000
1.58280367 0.39184057 0.00251203 0.00000000
3.03032259 1.67096144 0.00149415 0.00000000
0.14270556 1.20920183 0.00180731 0.00000000
3.66887912 0.10658801 0.00461979 0.00000000
4.18288683 1.27954237 -0.00113671 0.00000000
0.46987177 1.09911970 -0.00199960 0.00000000
4.25638131 1.60787373 -0.00046364 0.00000000
3.07226058 0.76105563 -0.00356871 0.00000000
0.06315991 0.41160631 0.00216832 0.00000000
3.22361365 0.29031513 0.00063389 0.00000000
3.06682780 0.82889051 -0.00053026 0.00000000
4.08568104 1.01008263 -0.00174232 0.00000000
3.79445345 0.07748036 -0.00510338 0.00000000
1.52994905 0.21163793 -0.00331514 0.00000000
4.13286202 1.25949461 0.00262059 0.00000000
1.75867839 1.72190332 -0.00037700 0.00000000
4.14883347 0.03604660 0.00146568 0.00000000
0.35882159 1.22024895 0.00094514 0.00000000
3.76917433 0.46900969 0.00218341 0.00000000
1.83529707 0.26418654 -0.00059948 0.00000000
3.85501025 1.43609427 -0.00325399 0.00000000
2.39171204 0.64081683 -0.00057958 0.00000000
0.59872527 1.53760770 0.00120916 0.00000000
2.09690135 1.63871520 -0.00046680 0.00000000
3.92551665 0.04706068 -0.00221674 0.00000000
3.10829558 1.49259984 0.00279875 0.00000000
1.09537176 1.29493431 0.00101807 0.00000000
0.31366059 0.63108014 0.00099410 0.00000000
1.73428781 0.23673903 -0.00074718 0.00000000
1.71701729 0.61414336 -0.00049230 0.00000000
0.31777661 0.74998677 0.00511691 0.00000000
4.01477699 0.95639872 0.00072261 0.00000000
0.86939720 0.70637862 0.00242877 0.00000000
0.12013156 0.07649133 -0.00119813 0.00000000
1.36163251 1.10965105 0.00097621 0.00000000
4.21650104 0.44276160 0.00056001 0.00000000
2.09374705 0.56608371 -0.00051271 0.00000000
1.40944728 0.58417458 0.00118895 0.00000000
1.39155059 1.63980136 -0.00396668 0.00000000
1.73631371 0.47651778 0.00012828 0.00000000
1.53560586 0.61896077 -0.00191080 0.00000000
1.89102637 0.49769132 -0.00525871 0.00000000
0.63401275 1.00902085 -0.00126977 0.00000000
0.90898003 1.66177601 0.00042149 0.00000000
1.47370300 1.00627886 0.00227769 0.00000000
4.53560787 0.10790727 -0.00046604 0.00000000
1.39407751 0.82694317 -0.00089896 0.00000000
1.30403650 0.49431012 0.00568098 0.00000000
0.05864022 1.12689464 0.00026553 0.00000000
2.66256109 1.58683264 -0.00175095 0.00000000
2.66675601 1.19592619 0.00070591 0.00000000
3.14715204 0.36560358 0.00233317 0.00000000
1.57038770 0.77722184 0.00354822 0.00000000
1.62440562 0.37260631 -0.00138001 0.00000000
1.62329873 1.73125334 -0.00610460 0.00000000
4.57946727 1.37835767 -0.00153004 0.00000000
3.91136232 0.82328186 0.00489837 0.00000000
2.87845518 1.51600112 0.00211266 0.00000000
3.92509170 1.07874588 -0.00250435 0.00000000
4.17023667 0.75645596 -0.00197715 0.00000000
2.66446170 1.53088760 -0.00362213 0.00000000
4.33145149 1.54551894 0.00002797 0.00000000
4.06736593 0.34174856 0.00222111 0.00000000
4.33525548 1.21506696 -0.00567463 0.00000000
2.28831171 0.13165567 -0.00660120 0.00000000
4.55016690 0.03487063 0.00289191 0.00000000
3.57559636 0.51792485 -0.00153945 0.00000000
0.37883977 0.25813004 -0.00807923 0.00000000
3.41359535 0.11812214 0.00262676 0.00000000
2.63764878 1.51827925 0.00475107 0.00000000
3.79524633 0.34974963 0.00211419 0.00000000
3.70092666 1.32579443 -0.00021813 0.00000000
4.06825068 1.09790466 -0.00110500 0.00000000
0.24898845 1.31426113 0.00239192 0.00000000
2.87696826 0.55663778 0.00230376 0.00000000
0.59709870 1.53230408 0.00333549 0.00000000
0.29804380 1.28967605 -0.00391694 0.00000000
4.35231875 0.22245277 -0.00047233 0.00000000
2.76644318 1.02649458 0.00016081 0.00000000
4.48902423 0.57826299 -0.00042034 0.00000000
4.58856205 0.62103067 0.00229316 0.00000000
2.39109423 0.05595787 0.00159058 0.00000000
2.22617977 1.30042906 0.00313364 0.00000000
3.15441759 1.19582917 0.00002588 0.00000000
1.75057127 0.21359179 -0.00329804 0.00000000
4.16706872 0.71734548 -0.00041474 0.00000000
4.21227890 1.32302752 -0.00170846 0.00000000
4.39031231 0.99238187 -0.00053111 0.00000000
3.46315314 1.01599436 0.00385694 0.00000000
1.18961677 0.25626255 -0.00444097 0.00000000
2.00428643 1.30645207 -0.00094184 0.00000000
4.18051156 0.81623544 0.00314226 0.00000000
3.51611255 0.33281468 0.00209331 0.00000000
3.76196471 0.73540340 -0.00033557 0.00000000
3.88124404 0.21101272 0.00073300 0.00000000
2.31871866 1.38776845 0.00335373 0.00000000
2.31541798 1.18536180 0.00188414 0.00000000
3.86595417 1.54466232 0.00050246 0.00000000
2.51084889 0.57130809 -0.00498583 0.00000000
2.00628946 1.00050403 -0.00124320 0.00000000
0.12885331 0.62346175 -0.00199937 0.00000000
4.18785515 0.96968061 0.00162095 0.00000000
2.55556181 0.15047455 0.00113039 0.00000000
3.39655202 1.44342836 -0.00434043 0.00000000
3.76726267 0.58758011 0.00397349 0.00000000
3.20476205 0.54639387 0.00015623 0.00000000
2.74721014 1.52205490 0.00115522 0.00000000
1.88961043 0.44993569 0.00112606 0.00000000
2.97462826 0.94023187 -0.00414691 0.00000000
3.68105359 1.52514315 -0.00303229 0.00000000
1.27973283 1.49121258 0.00280121 0.00000000
3.34775439 0.65519335 0.00380408 0.00000000
4.31232695 0.26925992 0.00209443 0.00000000
1.98823033 1.07626727 -0.00011538 0.00000000
3.45394829 1.65561389 0.00095397 0.00000000
3.35305702 1.00061600 0.00032982 0.00000000
0.25172050 0.05829135 -0.00181340 0.00000000
1.60197384 1.01905095 -0.00165137 0.00000000
4.41550872 1.01163307 0.00063786 0.00000000
0.93996235 0.70819999 -0.00131297 0.00000000
2.50398503 1.04645742 -0.00249558 0.00000000
2.35568814 0.64551481 -0.00349820 0.00000000
1.12608198 0.12511336 -0.00053588 0.00000000
0.06731356 1.63775028 -0.00304278 0.00000000
1.31724608 1.33500507 0.00181573 0.00000000
1.08022387 1.36122052 0.00079587 0.00000000
0.33083038 0.87836343 -0.00360813 0.00000000
0.73560372 1.55179020 -0.00164518 0.00000000
2.17788776 0.11614897 0.00060952 0.00000000
1.14114034 1.52638895 0.00072292 0.00000000
2.19166051 0.58086601 0.00065573 0.00000000
3.42040360 0.12581591 -0.00075325 0.00000000
4.29033794 0.85926748 0.00168701 0.00000000
3.59662233 0.37157169 -0.00264061 0.00000000
0.29472530 1.57535341 0.00240966 0.00000000
1.12657294 1.20330981 -0.00158297 0.00000000
0.14541681 1.38912040 0.00017681 0.00000000
0.04700707 1.27252153 0.00143497 0.00000000
3.30315522 0.07402005 0.00046022 0.00000000
0.49423779 1.11934471 -0.00024768 0.00000000
3.45165521 1.58297835 0.00080460 0.00000000
4.48697194 0.71891916 0.00334574 0.00000000
1.38645597 0.61727660 -0.00225585 0.00000000
4.04026620 1.69713000 -0.00131728 0.00000000
2.38158716 0.61529737 -0.00219264 0.00000000
3.25869333 0.90931630 0.00125404 0.00000000
4.26074440 0.43560667 0.00275959 0.00000000
3.69621571 0.73474911 0.00086833 0.00000000
1.61059825 0.67947880 0.00076531 0.00000000
2.87135194 1.26909808 0.00207769 0.00000000
0.92426880 0.86763340 -0.00360228 0.00000000
3.30713763 0.86289950 0.00048817 0.00000000
1.84990107 0.49033307 0.00195736 0.00000000
2.58307705 1.34010459 0.00289849 0.00000000
3.36520748 1.26790486 0.00131798 0.00000000
0.62115563 1.05091044 0.00504708 0.00000000
1.32367186 1.10146379 -0.00205295 0.00000000
1.65061685 0.46383934 0.00013307 0.00000000
2.55857841 1.36390747 -0.00068534 0.00000000
2.51019673 0.10931607 0.00011891 0.00000000
0.06198062 0.67532385 -0.00411733 0.00000000
2.96348506 0.18220896 0.00229544 0.00000000
0.42382929 0.21514217 0.00447795 0.00000000
2.20558161 0.52200753 0.00184785 0.00000000
4.26039201 0.40116671 -0.00353470 0.00000000
0.98199743 1.18352608 0.00067092 0.00000000
2.65213924 1.24131079 0.00195442 0.00000000
3.72373351 1.32943515 0.00075780 0.00000000
2.58362301 0.99075046 -0.00108479 0.00000000
2.56898178 1.58788204 -0.00022895 0.00000000
3.22819044 1.36231208 0.00304299 0.00000000
1.43592793 1.20657503 -0.00093543 0.00000000
0.47864296 1.29312298 0.00275438 0.00000000
2.60542479 0.06829132 0.00311767 0.00000000
0.75816489 0.52420266 -0.00346849 0.00000000
2.94211097 1.37107428 -0.00124337 0.00000000
2.15548394 0.20093298 0.00247250 0.00000000
2.38281325 0.10731715 0.00078078 0.00000000
0.52358867 1.69532312 0.00051637 0.00000000
4.57416110 0.81353849 0.00372551 0.00000000
4.16764275 0.88501239 -0.00268084 0.00000000
2.95363231 0.02801299 0.00127680 0.00000000
4.06462554 0.58023684 -0.00130406 0.00000000
0.72067213 0.17279597 -0.00124636 0.00000000
2.05311251 0.47341761 -0.00344869 0.00000000
4.26349277 1.13514611 0.00255012 0.00000000
1.05101930 1.46258990 -0.00501627 0.00000000
1.61104921 1.67007859 -0.00369622 0.00000000
1.12842936 0.02942448 -0.00123827 0.00000000
2.72104587 0.48528523 -0.00372372 0.00000000
4.59880381 1.51312373 0.00052347 0.00000000
1.51873072 1.51846511 0.00121974 0.00000000
2.26481461 0.17048458 0.00049977 0.00000000
1.40625422 0.46211939 -0.00638361 0.00000000
4.12424837 1.45089672 -0.00036651 0.00000000
3.88978890 1.42568680 -0.00087197 0.00000000
4.07784701 0.82965076 -0.00014928 0.00000000
2.89002554 1.13786908 0.00231113 0.00000000
2.42183196 0.74701430 -0.00148694 0.00000000
0.45847769 0.46267806 -0.00165714 0.00000000
2.97719441 1.63819875 0.00281349 0.00000000
2.60412453 1.23731447 0.00625265 0.00000000
1.71206021 1.20715481 0.00046784 0.00000000
4.21884049 1.08282951 0.00468439 0.00000000
3.13897922 0.40327131 -0.00056786 0.00000000
2.30712484 0.44132527 -0.00060882 0.00000000
1.95080598 1.48751063 -0.00302700 0.00000000
2.87935232 1.57302567 -0.00012448 0.00000000
2.83508428 0.93565354 0.00055907 0.00000000
2.98285314 0.60504946 -0.00361944 0.00000000
4.33519428 0.29748012 0.00207561 0.00000000
3.88877023 0.99877999 0.00048633 0.00000000
4.59819689 1.69199532 -0.00140083 0.00000000
4.45807244 1.26623141 -0.00111832 0.00000000
1.51279669 0.62695009 0.00249075 0.00000000
0.02622841 1.04058471 -0.00480006 0.00000000
0.35271999 1.65183240 0.00154852 0.00000000
2.19937222 0.30819505 0.00006416 0.00000000
1.15661720 1.35002123 -0.00340042 0.00000000
3.41498510 1.43600015 -0.00209531 0.00000000
4.35486739 1.11011421 0.00153941 0.00000000
0.51104058 1.61186044 0.00162631 0.00000000
2.59417916 1.66149306 0.00096618 0.00000000
3.28572869 1.13391779 0.00385583 0.00000000
0.25796889 1.73056828 -0.00163335 0.00000000
0.17136476 0.61908937 -0.00127732 0.00000000
1.12336523 1.12492282 -0.00255133 0.00000000
2.48177922 0.41260758 -0.00165064 0.00000000
0.36440479 0.58642921 0.00141017 0.00000000
0.88211819 0.24907447 -0.00492672 0.00000000
3.53969439 1.08802425 0.00435023 0.00000000
1.93872532 0.50723201 0.00135632 0.00000000
0.27744180 0.01971952 0.00287300 0.00000000
2.88225591 0.92716337 -0.00567683 0.00000000
3.96466915 1.14178970 -0.00222529 0.00000000
4.53674508 1.15365156 0.00101542 0.00000000
0.18264827 0.42436706 -0.00300748 0.00000000
2.82614178 1.34257490 -0.00095277 0.00000000
1.09110434 1.23766879 -0.00324399 0.00000000
3.75722640 0.40367252 -0.00071927 0.00000000
2.74221418 0.29264418 -0.00210145 0.00000000
4.20398454 0.28019799 -0.00445692 0.00000000
2.27845319 0.14975547 -0.00048497 0.00000000
0.20922784 0.15453747 -0.00246790 0.00000000
0.15565837 0.85975704 -0.00160286 0.00000000
2.94399521 1.52080280 -0.00505901 0.00000000
2.30317788 1.58571128 0.00154606 0.00000000
4.13570075 0.31205346 -0.00023926 0.00000000
2.22340648 0.06431382 -0.00221980 0.00000000
3.87515709 1.65250266 0.00001766 0.00000000
0.20545840 0.19235794 -0.00390188 0.00000000
3.72945069 1.61072308 0.00394042 0.00000000
0.08019315 0.74608449 0.00057545 0.00000000
0.86714192 0.22019401 -0.00359730 0.00000000
3.55860785 1.11109230 0.00048741 0.00000000
2.13946865 1.01946642 0.00006891 0.00000000
0.90023778 1.70172886 -0.00042133 0.00000000
2.14287569 0.32986903 0.00312167 0.00000000
0.38630166 1.15791435 -0.00006450 0.00000000
3.64320286 0.23473637 -0.00098273 0.00000000
0.56933347 0.33246645 -0.00319076 0.00000000
3.31311246 0.24418964 -0.00029712 0.00000000
0.50170601 1.33613451 0.00048441 0.00000000
0.33676658 0.87912907 -0.00066299 0.00000000
2.02668168 1.22032982 0.00187062 0.00000000
1.13042302 0.98211282 0.00199890 0.00000000
1.93625045 0.26697681 -0.00101071 0.00000000
1.04703233 1.18181560 -0.00417886 0.00000000
3.75575086 1.20248828 0.00028069 0.00000000
0.71163825 0.27624214 0.00127483 0.00000000
2.13759909 1.11236096 -0.00077406 0.00000000
3.11080731 0.17527166 -0.00196043 0.00000000
0.04656018 0.63009426 -0.00029911 0.00000000
0.65945481 0.01712236 0.00050023 0.00000000
2.97538129 1.44603933 0.00126838 0.00000000
3.61444542 0.36561603 -0.00057924 0.00000000
3.96147675 0.49069169 -0.00145845 0.00000000
0.45623456 0.86690486 0.00120602 0.00000000
2.57015271 1.41240326 -0.00372542 0.00000000
4.14575593 0.86717748 -0.00349182 0.00000000
3.40403458 0.51594630 -0.00165396 0.00000000
3.20772987 1.31625189 0.00099297 0.00000000
2.86025932 0.50516139 -0.00424466 0.00000000
4.57711188 0.10986940 -0.00295360 0.00000000
2.93434326 0.07307713 0.00136162 0.00000000
3.70585094 0.96524699 -0.00258742 0.00000000
2.84157194 0.56734172 0.00201792 0.00000000
2.73004720 1.52744588 -0.00079050 0.00000000
1.08354915 0.97044832 -0.00154561 0.00000000
0.22301030 1.05000924 0.00033741 0.00000000
2.33684470 1.15020362 -0.00115230 0.00000000
2.26764569 1.40615180 0.00447344 0.00000000
1.29590905 0.77982905 -0.00532334 0.00000000
1.44994518 0.16138008 -0.00016144 0.00000000
1.71023791 0.43529303 0.00261730 0.00000000
1.85675411 0.78183987 0.00183753 0.00000000
4.38668595 0.90686906 0.00192069 0.00000000
4.28458671 0.42041811 0.00033456 0.00000000
0.76236685 1.25631317 -0.00127054 0.00000000
3.90965113 0.00845187 -0.00007535 0.00000000
3.72725797 1.68352571 -0.00048273 0.00000000
2.81593455 0.94208351 -0.00166413 0.00000000
3.90236165 0.47636795 0.00607044 0.00000000
1.81683001 1.29366054 -0.00204586 0.00000000
4.07237061 0.07779751 0.00397404 0.00000000
2.94300875 0.12659769 -0.00184389 0.00000000
0.05262577 0.00080033 0.00218261 0.00000000
2.51082951 0.50096798 -0.00612937 0.00000000
3.76727327 0.92946939 -0.00057788 0.00000000
1.08788683 1.00049950 0.00062761 0.00000000
2.76365468 0.23673281 0.00121441 0.00000000
1.25778996 0.51986380 -0.00044639 0.00000000
3.03311950 1.23794909 -0.00036361 0.00000000
4.25624591 1.66619399 -0.00447757 0.00000000
3.73456367 1.59084733 0.00546221 0.00000000
3.90369322 1.16763639 -0.00164503 0.00000000
3.97978269 1.24359992 -0.00017577 0.00000000
1.94453217 1.46941122 -0.00080595 0.00000000
1.16550157 1.57465845 -0.00379984 0.00000000
0.13141709 1.29179424 -0.00189230 0.00000000
0.21040490 1.61032592 0.00026870 0.00000000
3.24651239 1.62617206 -0.00695817 0.00000000
3.65652962 0.05073172 -0.00209447 0.00000000
2.51365565 1.27681300 0.00097145 0.00000000
4.57944681 1.36203389 -0.00071478 0.00000000
2.96870364 1.21511918 -0.00113507 0.00000000
2.27323792 1.51253275 -0.00285267 0.00000000
0.55591835 1.21583093 -0.00079852 0.00000000
4.19879219 1.58016431 0.00219384 0.00000000
3.16384577 0.44397221 0.00505067 0.00000000
2.09270707 0.55206089 0.00089848 0.00000000
3.61372375 1.25208249 -0.00148518 0.00000000
1.94346339 1.16366758 0.00611672 0.00000000
1.83448935 0.50308386 0.00310649 0.00000000
3.54062335 1.60388524 -0.00355369 0.00000000
3.10408761 1.09816165 0.00246903 0.00000000
0.85775703 1.23568321 0.00144340 0.00000000
3.73489436 0.61018400 0.00211711 0.00000000
3.30390431 1.04200754 0.00041095 0.00000000
3.26393441 0.90360887 -0.00202452 0.00000000
3.01418385 0.07860563 0.00223328 0.00000000
1.76459906 1.37899217 -0.00016032 0.00000000
0.65616969 0.69532569 -0.00151311 0.00000000
4.53964708 1.47225879 0.00195035 0.00000000
2.36386472 0.69212150 -0.00142045 0.00000000
3.79733632 1.72089206 0.00113223 0.00000000
2.28604813 0.17759946 0.00190967 0.00000000
4.47887036 1.42650896 0.00191468 0.00000000
4.05509374 1.04839239 -0.00035231 0.00000000
0.16898029 0.22509371 -0.00002801 0.00000000
4.41059076 1.13984012 0.00040865 0.00000000
2.76229201 1.45475089 -0.00109103 0.00000000
3.29189659 0.14282942 0.00211167 0.00000000
0.80913641 0.69274802 -0.00058544 0.00000000
2.84956990 1.35140361 0.00075104 0.00000000
1.09861472 0.72437307 -0.00044586 0.00000000
0.64480698 0.50221695 0.00135514 0.00000000
0.81358025 1.45712039 0.00437794 0.00000000
3.00920405 0.05805907 -0.00655366 0.00000000
0.21234193 0.34773906 0.00333998 0.00000000
2.25327419 1.56021883 0.00165827 0.00000000
3.77804171 0.89934150 -0.00023491 0.00000000
2.78842092 1.64630848 0.00124617 0.00000000
1.88690962 1.60910733 -0.00185535 0.00000000
0.93417661 1.59852089 -0.00098168 0.00000000
0.01634801 0.29086970 -0.00280041 0.00000000
4.50945268 1.34766746 0.00048377 0.00000000
