2.53705485 0.87838917 -0.00151283 0.00000000
0.32847825 1.32837875 0.00095147 0.00000000
3.54549155 1.68085272 -0.00119954 0.00000000
0.21777201 2.07084709 -0.00044466 0.00000000
1.70613151 0.69121629 -0.00380098 0.00000000
1.14852482 0.97029443 -0.00267955 0.00000000
0.30447481 0.00186820 -0.00121459 0.00000000
3.27576472 0.78373526 -0.00230941 0.00000000
2.83241566 2.05196202 -0.00197000 0.00000000
1.51503406 1.58180400 0.00178975 0.00000000
0.90466911 1.78706733 -0.00095775 0.00000000
2.95545680 0.08966984 -0.00116481 0.00000000
4.14014532 0.19761652 -0.00062820 0.00000000
3.93747522 0.63568262 0.00147532 0.00000000
4.07019814 1.64453551 0.00232740 0.00000000
2.41680313 1.45122077 0.00488277 0.00000000
3.09413707 1.98321775 -0.00100488 0.00000000
3.50033614 1.01786921 -0.00374573 0.00000000
2.40901824 0.38431621 0.00418314 0.00000000
3.18187212 2.00916256 -0.00089473 0.00000000
0.41859610 1.83497599 -0.00148545 0.00000000
0.03296891 1.32910324 -0.00150258 0.00000000
0.19741746 1.27861990 0.00138809 0.00000000
4.12837000 0.29969450 -0.00059046 0.00000000
1.32614442 1.59575675 0.00242608 0.00000000
3.88126979 1.74246582 -0.00122105 0.00000000
3.04921398 0.96874054 -0.00456683 0.00000000
0.70636866 0.85751544 -0.00148527 0.00000000
1.94136652 1.52877449 -0.00145167 0.00000000
3.59431018 0.88747661 -0.00078426 0.00000000
3.00326911 1.46105939 0.00128722 0.00000000
1.52898192 0.68353894 0.00078220 0.00000000
3.42121032 0.83405670 -0.00078329 0.00000000
3.13883148 1.96797062 0.00041465 0.00000000
2.60220344 1.94769326 -0.00074809 0.00000000
0.58629432 1.93589628 0.00140761 0.00000000
2.61701333 1.87535216 0.00171861 0.00000000
0.04079136 1.84671012 -0.00143724 0.00000000
2.51220467 0.87316594 -0.00197359 0.00000000
1.69791189 0.32993331 -0.00369747 0.00000000
4.30148657 2.06358898 -0.00157663 0.00000000
4.64723193 1.50250878 -0.00429685 0.00000000
4.34703267 0.53360184 -0.00003529 0.00000000
2.65881074 1.61327279 -0.00322969 0.00000000
4.00250242 2.05764159 -0.00245597 0.00000000
1.00559072 1.35044065 -0.00079579 0.00000000
4.72777614 1.71115574 -0.00218110 0.00000000
0.51389102 0.18193514 -0.00131682 0.00000000
4.59799998 1.85457437 0.00013750 0.00000000
1.93053415 0.14301487 -0.00504952 0.00000000
1.88960231 1.62374337 -0.00051421 0.00000000
4.05524820 0.65158203 -0.00190820 0.00000000
3.93776852 0.55471295 -0.00166288 0.00000000
3.84929290 0.99238980 0.00083391 0.00000000
4.08298522 0.08980320 -0.00114228 0.00000000
4.45981925 0.02552785 -0.00085073 0.00000000
0.97960209 0.95078056 -0.00190123 0.00000000
1.84558952 1.09714788 -0.00144806 0.00000000
2.48644764 0.40514004 0.00025790 0.00000000
2.51325871 1.47073642 0.00468636 0.00000000
1.79677168 1.51044780 0.00130774 0.00000000
4.07871039 0.63284564 -0.00387174 0.00000000
3.17875496 1.28522254 0.00040920 0.00000000
3.11902107 1.43663735 0.00003394 0.00000000
4.41198525 0.52160806 0.00093709 0.00000000
0.87145368 0.96912212 -0.00378148 0.00000000
0.43500020 0.64049626 -0.00043693 0.00000000
1.90356865 1.44896299 -0.00326273 0.00000000
1.46117811 0.45492172 0.00157182 0.00000000
2.11033906 1.39683091 0.00133302 0.00000000
1.73119166 2.01343014 -0.00444690 0.00000000
1.07516359 0.49876513 -0.00280763 0.00000000
3.00462568 1.82946529 0.00010046 0.00000000
0.53114821 0.73932767 0.00030525 0.00000000
0.42182615 0.88177866 0.00213487 0.00000000
0.84378506 2.08062170 0.00116335 0.00000000
0.78367740 1.15003346 0.00212075 0.00000000
3.63673107 0.43297317 -0.00014480 0.00000000
1.42806857 1.16846629 -0.00114265 0.00000000
1.53665956 0.17462965 -0.00114297 0.00000000
3.51778409 0.74612383 -0.00240399 0.00000000
1.83712715 1.05624566 -0.00180940 0.00000000
4.22891016 0.29831616 -0.00112871 0.00000000
3.89168407 0.00813793 0.00226238 0.00000000
3.17456389 0.71774698 -0.00607244 0.00000000
2.82478811 0.27292440 0.00127922 0.00000000
3.68368784 0.90850419 -0.00106658 0.00000000
2.32567727 0.21500617 0.00084108 0.00000000
4.10904589 0.22690678 0.00390623 0.00000000
3.23606880 2.04721935 0.00725451 0.00000000
3.83204642 0.94525408 0.00416880 0.00000000
0.98448645 1.73711585 0.00269764 0.00000000
1.10501088 1.00849391 0.00018347 0.00000000
3.65376688 0.59737780 -0.00005348 0.00000000
3.34950046 0.10268429 -0.00401529 0.00000000
3.63643045 0.95297198 -0.00238163 0.00000000
1.22822418 1.25883568 -0.00294254 0.00000000
2.30528659 0.38856056 0.00467968 0.00000000
0.64884252 1.56475862 -0.00411713 0.00000000
3.44430855 1.10228034 0.00119012 0.00000000
2.14983365 1.80165597 -0.00181876 0.00000000
0.88735664 1.73106400 -0.00406968 0.00000000
4.03820174 2.00475553 0.00407639 0.00000000
3.44452643 0.07386724 -0.00281151 0.00000000
0.64556755 0.32222067 0.00052196 0.00000000
3.73466017 0.91294132 0.00036546 0.00000000
1.19837109 0.47206791 0.00017611 0.00000000
4.71275526 1.31130287 -0.00215810 0.00000000
0.15071305 1.84741107 0.00068480 0.00000000
4.11777888 1.51371668 -0.00307963 0.00000000
1.58287320 0.85705186 -0.00108035 0.00000000
3.48926500 0.76175316 -0.00550898 0.00000000
3.84003486 0.31330418 0.00027773 0.00000000
1.69251179 0.46804968 0.00391933 0.00000000
2.25818873 1.35065151 -0.00359720 0.00000000
4.42474246 1.47566817 0.00233389 0.00000000
4.76037683 0.07151686 -0.00236553 0.00000000
3.92970524 1.50578281 -0.00126538 0.00000000
3.17114722 1.62616625 0.00368226 0.00000000
4.16861985 0.38304210 -0.00003230 0.00000000
2.83163504 1.32650138 -0.00236941 0.00000000
1.40229259 0.68953505 -0.00478230 0.00000000
3.81159185 0.27783398 0.00178309 0.00000000
2.69896369 1.78185928 0.00326326 0.00000000
1.46547181 1.39261598 -0.00068456 0.00000000
3.28669547 0.83313667 -0.00044468 0.00000000
4.49574475 1.31437994 -0.00013105 0.00000000
4.25242476 1.93428889 0.00102253 0.00000000
0.98197978 0.75455999 0.00188009 0.00000000
4.49727261 1.37598661 -0.00143531 0.00000000
3.72630390 0.72030525 -0.00106917 0.00000000
0.37708971 1.92387412 -0.00112359 0.00000000
1.89420030 0.44604512 0.00343626 0.00000000
4.20292509 2.03952366 0.00212690 0.00000000
3.40885473 0.80457962 0.00093313 0.00000000
2.14803763 0.33923818 0.00009618 0.00000000
2.21883030 1.53001809 -0.00003561 0.00000000
3.51130264 0.75386389 -0.00053647 0.00000000
4.18063641 0.89145026 0.00084295 0.00000000
3.96872699 2.08435964 0.00026415 0.00000000
0.91285098 0.02604261 -0.00120696 0.00000000
4.44273543 0.16289939 0.00063449 0.00000000
1.63607595 1.20000033 0.00259285 0.00000000
2.88088299 1.65159962 0.00030546 0.00000000
3.32253784 1.46057132 -0.00161345 0.00000000
4.38102959 0.18863784 0.00263394 0.00000000
0.51689370 0.52671696 0.00014333 0.00000000
3.15089038 0.57146802 -0.00131346 0.00000000
0.25675341 0.06165580 -0.00110203 0.00000000
2.74702941 1.52415009 0.00340700 0.00000000
3.48006329 1.64732836 -0.00343424 0.00000000
0.32240420 0.83521355 -0.00144978 0.00000000
0.10245785 0.85119740 -0.00026375 0.00000000
0.62588335 0.87039092 -0.00109888 0.00000000
4.22881092 1.99533396 -0.00251502 0.00000000
3.13036504 0.78969580 0.00053521 0.00000000
3.67063575 0.40380666 0.00536404 0.00000000
0.96438336 1.68950062 0.00362237 0.00000000
0.11311949 1.20190794 -0.00076083 0.00000000
1.84194305 1.72804465 0.00194739 0.00000000
1.00667443 0.17808077 0.00168671 0.00000000
2.28478643 0.84082363 -0.00204895 0.00000000
4.71474184 1.60269516 0.00231602 0.00000000
3.59342926 0.84987966 -0.00049117 0.00000000
3.49537579 0.57419744 0.00023582 0.00000000
2.52405765 1.89829562 0.00312450 0.00000000
3.94481587 0.85949212 0.00140016 0.00000000
2.92911479 0.50486841 -0.00064837 0.00000000
3.03227577 2.05344332 0.00045561 0.00000000
1.38308192 2.03122116 -0.00262635 0.00000000
3.13893059 1.61661023 -0.00115168 0.00000000
4.37950447 0.97132796 -0.00234677 0.00000000
1.06367730 2.07895303 0.00265753 0.00000000
3.24772736 1.74879674 -0.00414157 0.00000000
1.92327866 1.03992771 -0.00205417 0.00000000
0.83842426 0.11522171 0.00226283 0.00000000
0.44230272 1.74310423 0.00008439 0.00000000
3.70698964 1.42043671 0.00100577 0.00000000
2.55465204 1.72495578 -0.00303602 0.00000000
2.29846577 0.55061833 0.00033764 0.00000000
1.29214217 1.95113988 0.00207437 0.00000000
0.37840554 0.65524387 -0.00170603 0.00000000
4.36848132 0.46843875 0.00058852 0.00000000
0.27923592 0.28529194 0.00409240 0.00000000
3.11856586 0.67615155 -0.00192791 0.00000000
3.02998673 0.11809614 -0.00330260 0.00000000
3.48759312 0.51278618 0.00024495 0.00000000
3.02711785 1.81326489 -0.00296164 0.00000000
4.44200697 0.90686814 -0.00110865 0.00000000
0.75808770 1.22170593 -0.00166941 0.00000000
2.26551095 0.79924938 -0.00269089 0.00000000
1.76749388 0.64233210 -0.00142410 0.00000000
3.67420846 1.68694881 -0.00236663 0.00000000
3.06580778 0.30224340 -0.00087656 0.00000000
3.31845051 1.11528425 -0.00121514 0.00000000
0.29039526 0.18092578 0.00205029 0.00000000
4.65691884 0.85129372 0.00184461 0.00000000
2.16514661 1.63672501 0.00024112 0.00000000
2.93846580 1.30680392 -0.00009187 0.00000000
2.16145506 0.95902254 0.00495044 0.00000000
0.82275220 1.65489131 0.00455262 0.00000000
0.41577280 1.11961882 -0.00273611 0.00000000
3.86642108 0.14966964 0.00048728 0.00000000
4.75202699 1.69061110 0.00037260 0.00000000
0.56851898 1.98911796 -0.00086098 0.00000000
2.68859385 0.10056771 0.00542968 0.00000000
2.19895024 1.00944240 -0.00193690 0.00000000
3.51870366 1.88600397 0.00101841 0.00000000
3.81310009 0.02392918 0.00171805 0.00000000
4.03645115 0.47607720 -0.00076291 0.00000000
0.69057688 1.80913743 0.00173378 0.00000000
0.09967519 1.21087319 -0.00013221 0.00000000
2.83480977 2.04483887 -0.00065073 0.00000000
4.42933770 0.79545513 -0.00395322 0.00000000
4.34322518 1.70891456 0.00024868 0.00000000
3.65770422 0.24489615 0.00136133 0.00000000
1.47426226 0.30168421 -0.00354444 0.00000000
0.53949158 1.43249337 -0.00181261 0.00000000
4.18831366 1.51072857 0.00137291 0.00000000
4.24980369 0.39375600 -0.00030844 0.00000000
2.20126477 0.61649620 -0.00576497 0.00000000
0.27946018 1.55883084 0.00060094 0.00000000
2.92286502 0.62464771 0.00091016 0.00000000
3.71037439 0.65297148 0.00011811 0.00000000
3.57511983 0.20287849 -0.00192758 0.00000000
2.21799165 1.89377650 0.00204407 0.00000000
3.66396344 0.75911421 0.00253020 0.00000000
1.54639076 0.43010337 0.00302841 0.00000000
3.35074641 0.56816898 0.00061955 0.00000000
3.24845024 1.48528776 0.00103108 0.00000000
3.71636876 0.18184681 0.00205036 0.00000000
0.94868856 0.50030492 -0.00102639 0.00000000
0.61070401 0.39523315 0.00065710 0.00000000
3.20261299 1.46595459 -0.00374609 0.00000000
1.36178724 0.39214718 -0.00345310 0.00000000
1.55772842 1.44326708 0.00027367 0.00000000
2.68077644 1.81770230 0.00272075 0.00000000
1.10886512 1.82296807 -0.00253560 0.00000000
0.05999075 1.25241609 -0.00265313 0.00000000
1.47430618 1.57126494 -0.00085108 0.00000000
2.49938989 0.79651411 0.00149151 0.00000000
2.81970998 1.46475727 0.00043934 0.00000000
2.01425381 0.11646944 0.00117553 0.00000000
1.38125382 0.39599515 -0.00208841 0.00000000
1.54690302 0.18806454 -0.00575726 0.00000000
3.05158707 1.68324010 0.00641677 0.00000000
4.66341985 1.35788036 0.00059840 0.00000000
0.39136581 0.49886420 -0.00309966 0.00000000
0.83869522 0.37884428 0.00285976 0.00000000
0.25907297 0.26493129 -0.00184512 0.00000000
1.61257708 0.63622692 0.00334309 0.00000000
1.14078769 1.33146546 0.00372272 0.00000000
0.84584475 1.75107930 -0.00036691 0.00000000
3.44835475 1.62113067 -0.00283890 0.00000000
1.41159873 0.14147082 0.00348971 0.00000000
2.22263498 1.64856338 0.00095919 0.00000000
3.15761630 1.47132927 -0.00027903 0.00000000
0.40937377 0.18898011 -0.00376569 0.00000000
4.52345761 0.83764008 0.00208726 0.00000000
3.77150391 0.19661444 0.00071835 0.00000000
3.55846734 1.89150668 -0.00180304 0.00000000
4.16335286 1.26179806 0.00265612 0.00000000
2.62644135 0.64409078 -0.00162774 0.00000000
0.81100906 1.09459039 -0.00201033 0.00000000
3.51225563 1.41353659 -0.00243069 0.00000000
3.59953767 0.55220713 0.00279968 0.00000000
0.45375566 0.38054261 0.00106955 0.00000000
0.73805589 2.08238973 0.00072395 0.00000000
1.26567061 0.12486785 -0.00175886 0.00000000
1.46514945 0.27708657 -0.00109785 0.00000000
4.06445530 1.93030202 -0.00177843 0.00000000
2.60640902 1.41700984 -0.00041981 0.00000000
0.89783394 0.96181418 0.00582685 0.00000000
0.09961517 0.07670591 0.00153017 0.00000000
3.82028555 1.28607596 0.00157269 0.00000000
1.81922847 0.58544231 -0.00650394 0.00000000
2.25871194 0.87945645 -0.00648748 0.00000000
3.85913974 0.94434454 -0.00087679 0.00000000
0.36688428 0.29913282 0.00046175 0.00000000
4.32794364 0.99461588 0.00217294 0.00000000
1.17315625 0.54986619 -0.00335648 0.00000000
4.27433854 0.71561349 -0.00018112 0.00000000
1.13330776 0.37998935 0.00425240 0.00000000
3.13936297 1.85340974 -0.00224396 0.00000000
3.96466533 0.14324720 0.00049988 0.00000000
0.25042903 1.88742293 0.00389185 0.00000000
1.68407466 1.49662793 0.00304333 0.00000000
4.27799808 1.02452253 -0.00162191 0.00000000
2.70229855 1.47971140 0.00157538 0.00000000
2.39740923 0.27647001 0.00210370 0.00000000
3.09718276 0.63915843 0.00281019 0.00000000
0.96848865 1.43439470 -0.00237940 0.00000000
3.49186518 0.32456231 0.00176807 0.00000000
3.12469379 1.19546199 -0.00131258 0.00000000
4.10854518 0.24142188 -0.00365327 0.00000000
1.87701777 0.45326374 -0.00446065 0.00000000
1.88041821 1.50586738 0.00031414 0.00000000
0.98556773 1.52659317 -0.00001901 0.00000000
2.75957692 1.75132249 0.00125540 0.00000000
0.65868490 1.84706983 -0.00194563 0.00000000
2.20197496 0.90989077 -0.00107088 0.00000000
4.13579867 0.03036648 0.00194390 0.00000000
4.19667493 1.90720075 -0.00095792 0.00000000
2.89606650 1.56647249 0.00231005 0.00000000
2.36737451 1.61664386 -0.00001469 0.00000000
2.54502998 0.20974550 0.00027394 0.00000000
2.39630071 1.09534956 0.00306346 0.00000000
0.75960687 0.66649452 0.00274809 0.00000000
4.19480647 1.14691500 -0.00561882 0.00000000
0.52772390 1.52258980 -0.00094015 0.00000000
4.72928986 0.98046491 -0.00176217 0.00000000
2.75824757 0.78108686 -0.00113580 0.00000000
2.38552028 0.75960524 0.00152606 0.00000000
1.32426594 1.86345243 -0.00240253 0.00000000
1.04525330 1.57248538 0.00013123 0.00000000
0.51490955 1.48211503 0.00001073 0.00000000
4.23183264 1.39696024 -0.00407092 0.00000000
2.38495027 0.74158186 0.00160836 0.00000000
1.51628735 0.17354290 -0.00241239 0.00000000
0.87402908 1.76384692 -0.00194723 0.00000000
2.24504552 2.08213060 -0.00167361 0.00000000
1.29266798 0.28585080 0.00222979 0.00000000
1.81795078 0.06270354 -0.00439121 0.00000000
0.10023613 0.71385546 -0.00279629 0.00000000
4.49315967 0.33247426 0.00268163 0.00000000
4.21463742 1.46075796 -0.00249996 0.00000000
0.84445479 0.94091541 0.00076299 0.00000000
4.59667950 0.17859793 -0.00228897 0.00000000
2.89356149 2.07722960 0.00027780 0.00000000
3.92674920 1.86294156 0.00455693 0.00000000
0.86151181 0.23604446 -0.00129363 0.00000000
0.77701892 1.30360246 0.00049064 0.00000000
4.64577909 1.28219442 0.00506283 0.00000000
3.57541709 1.68531195 -0.00252608 0.00000000
2.46078655 1.12333810 -0.00229909 0.00000000
1.50846332 0.87038104 -0.00454847 0.00000000
2.80327261 1.45537915 -0.00163051 0.00000000
2.89759537 2.01209018 0.00320645 0.00000000
1.12062354 0.66184553 -0.00154132 0.00000000
4.32001498 1.54895948 -0.00086627 0.00000000
3.64059865 1.96767555 -0.00391063 0.00000000
1.58775765 0.69324800 0.00092776 0.00000000
1.72328364 1.79544509 0.00184475 0.00000000
2.05667396 0.31334107 0.00089462 0.00000000
0.11210421 1.04625354 0.00571228 0.00000000
1.48578227 1.87868734 -0.00029244 0.00000000
1.80501047 1.29995461 0.00134127 0.00000000
1.15594151 0.00780469 0.00308185 0.00000000
1.06138634 0.13019796 -0.00366983 0.00000000
2.18441658 1.04175018 0.00009407 0.00000000
1.07046091 1.65210631 0.00065806 0.00000000
1.15862654 1.96108167 -0.00036248 0.00000000
1.22585819 0.13260726 0.00053003 0.00000000
0.81642328 0.19909700 -0.00278533 0.00000000
0.90974402 0.23004414 -0.00090622 0.00000000
4.10111458 1.62053789 -0.00082239 0.00000000
1.24361777 0.32451174 -0.00241972 0.00000000
0.81824820 1.19066095 -0.00080017 0.00000000
1.96002509 1.61739327 -0.00026756 0.00000000
1.18827905 1.68745232 0.00208749 0.00000000
4.30797271 1.60657379 -0.00407944 0.00000000
1.68548665 0.97501924 -0.00104950 0.00000000
3.34044286 0.48725688 0.00585794 0.00000000
3.37482975 0.63710783 0.00324923 0.00000000
0.57323271 1.41195732 -0.00276691 0.00000000
0.98367358 2.04294841 -0.00108203 0.00000000
0.33818004 1.41282382 -0.00021113 0.00000000
0.75909217 0.57860404 -0.00237184 0.00000000
0.40443134 1.33461138 -0.00211986 0.00000000
4.06180304 0.00872316 -0.00205788 0.00000000
0.59737854 1.81442478 0.00325596 0.00000000
4.14816788 1.37265769 -0.00157762 0.00000000
2.01474319 1.24220549 0.00226288 0.00000000
3.43360323 0.77661858 0.00504922 0.00000000
3.19660472 1.40240286 -0.00036271 0.00000000
2.29841628 1.39425193 -0.00207146 0.00000000
2.63111510 0.19153698 0.00117479 0.00000000
0.17492857 1.53289513 -0.00024986 0.00000000
1.18417220 0.30154702 0.00009893 0.00000000
3.93694209 0.54986305 0.00023904 0.00000000
0.50301160 1.23097886 0.00005379 0.00000000
4.31131538 1.76570105 -0.00037813 0.00000000
1.71600708 1.55507348 -0.00548031 0.00000000
4.16677377 0.46568439 -0.00222656 0.00000000
0.50840002 0.26590620 0.00177412 0.00000000
4.74878211 0.13369826 -0.00375761 0.00000000
3.60769890 0.18702364 -0.00302487 0.00000000
0.26236936 1.45668291 -0.00081507 0.00000000
4.10968088 0.60653007 -0.00272647 0.00000000
2.09503123 1.88743285 -0.00051067 0.00000000
1.02375235 1.82059637 -0.00302507 0.00000000
2.84770510 0.85016340 -0.00231789 0.00000000
3.27112583 0.19587056 -0.00096778 0.00000000
0.27459220 1.78961585 -0.00152421 0.00000000
1.84458333 1.79363989 0.00216821 0.00000000
2.68394509 2.06415848 0.00251287 0.00000000
4.25158296 1.81791588 -0.00071920 0.00000000
2.26695156 0.69542685 0.00196820 0.00000000
2.36041765 0.73207027 0.00193884 0.00000000
3.53416163 0.48160507 0.00366603 0.00000000
0.76402497 1.35584746 0.00469042 0.00000000
2.02732756 1.75424829 -0.00185889 0.00000000
1.81982657 0.48420856 -0.00193446 0.00000000
3.61026675 0.00845899 0.00095834 0.00000000
3.12495948 1.25796961 -0.00416723 0.00000000
1.62386580 0.14913753 0.00320193 0.00000000
2.59966674 1.33378752 0.00437066 0.00000000
4.48391616 0.85074034 -0.00225397 0.00000000
2.68169276 1.54304488 -0.00032647 0.00000000
3.42841420 1.45048591 -0.00134791 0.00000000
4.58387717 1.58637356 -0.00196713 0.00000000
1.11628279 0.43125313 -0.00239608 0.00000000
3.04508805 0.06360015 0.00020713 0.00000000
2.06578285 1.94645116 0.00163640 0.00000000
0.94240678 1.43521901 0.00215662 0.00000000
0.63668950 1.89913043 -0.00208465 0.00000000
1.56058025 0.52851675 -0.00115557 0.00000000
3.14716897 0.21866273 0.00283896 0.00000000
0.06920632 1.46289600 0.00082551 0.00000000
0.04970796 0.47713412 0.00180361 0.00000000
2.16492727 1.81529404 0.00217755 0.00000000
1.02341233 0.49660158 -0.00279902 0.00000000
2.83645048 1.75044186 0.00296961 0.00000000
1.87675101 1.19080252 0.00181320 0.00000000
4.18653020 0.11823249 -0.00218735 0.00000000
1.44349012 0.98098525 -0.00145672 0.00000000
0.94511148 0.10299040 -0.00229375 0.00000000
2.31659830 0.73172059 -0.00033921 0.00000000
0.98626986 0.44979257 0.00006911 0.00000000
1.26642863 0.40805291 -0.00423493 0.00000000
3.21816400 0.59409530 -0.00140795 0.00000000
3.37168577 1.88980811 0.00187148 0.00000000
0.54348075 2.02709205 0.00112006 0.00000000
0.12036351 1.82861290 -0.00052481 0.00000000
1.47403121 0.23840022 0.00159051 0.00000000
0.20880114 0.83004663 -0.00117700 0.00000000
1.34204384 1.17151747 -0.00141709 0.00000000
2.10915112 0.75120315 -0.00483222 0.00000000
3.39803314 0.40870517 0.00077233 0.00000000
2.48698525 1.05637917 0.00341309 0.00000000
1.57492316 0.03663763 0.00087828 0.00000000
2.63810419 1.91200368 -0.00247143 0.00000000
2.27522811 0.32410865 -0.00231440 0.00000000
3.79434969 0.36224572 -0.00095768 0.00000000
1.62684433 0.38851269 -0.00078273 0.00000000
3.82139224 0.28734267 -0.00081050 0.00000000
1.67785355 0.94873869 -0.00186431 0.00000000
4.01937993 0.19752730 -0.00477268 0.00000000
1.20322899 1.27333737 -0.00198189 0.00000000
3.18182069 2.02650378 -0.00011400 0.00000000
1.81297501 1.43040697 -0.00026033 0.00000000
3.25946076 0.30019447 -0.00235227 0.00000000
4.12940198 1.05915199 -0.00363803 0.00000000
0.88901651 2.02369539 -0.00227727 0.00000000
0.42800003 1.51624946 -0.00305911 0.00000000
0.71212669 1.12417688 0.00172209 0.00000000
0.65750050 0.19049739 -0.00167098 0.00000000
4.32168760 1.27619287 -0.00299311 0.00000000
0.67078654 0.26808873 -0.00124303 0.00000000
2.49107056 1.75193187 -0.00045484 0.00000000
4.41350143 1.09568939 0.00036390 0.00000000
2.79423729 0.32369434 -0.00406017 0.00000000
0.08795507 0.83937942 -0.00116775 0.00000000
2.82757861 1.76782433 0.00257075 0.00000000
1.94636682 1.78779663 0.00042546 0.00000000
0.95866579 1.00053701 0.00070167 0.00000000
0.06452463 0.41842667 -0.00197797 0.00000000
1.80547391 1.46012442 0.00123440 0.00000000
2.48535632 1.05737254 -0.00044412 0.00000000
0.69450214 1.99395398 -0.00207851 0.00000000
0.59524341 0.14607891 -0.00035582 0.00000000
3.52669403 1.81614013 0.00033512 0.00000000
4.04670025 0.59663569 -0.00287314 0.00000000
0.13839799 0.58364214 -0.00167095 0.00000000
3.05399686 0.49893810 -0.00064498 0.00000000
2.58587210 1.09210256 0.00296060 0.00000000
3.43530645 1.89619280 -0.00553946 0.00000000
3.30328790 0.73980799 -0.00211687 0.00000000
0.40582732 0.57712248 -0.00194419 0.00000000
0.42998990 1.86617304 -0.00029061 0.00000000
2.93594483 0.48466839 0.00069657 0.00000000
1.73321066 0.01916614 0.00142049 0.00000000
4.62815215 1.31398702 0.00375593 0.00000000
1.99463255 1.10093069 0.00140940 0.00000000
2.44648861 2.01792358 -0.00123612 0.00000000
3.87366516 0.55304200 0.00063215 0.00000000
3.35559797 0.19166664 -0.00083630 0.00000000
0.68254841 1.39876931 0.00356729 0.00000000
0.77659922 0.61300771 -0.00335276 0.00000000
4.55962324 0.52917923 -0.00263642 0.00000000
1.96419595 1.87573575 0.00182385 0.00000000
2.38241002 0.52712144 0.00138036 0.00000000
3.09369359 1.53879716 -0.00061957 0.00000000
4.20518812 0.94460809 0.00044800 0.00000000
0.00126106 0.62295957 -0.00254530 0.00000000
1.26580732 0.76230553 -0.00139362 0.00000000
3.13813603 0.62477265 -0.00145605 0.00000000
0.02874913 0.86873155 0.00419513 0.00000000
1.13514129 2.04788067 -0.00270930 0.00000000
1.95828349 0.91338602 0.00184232 0.00000000
4.33375354 1.92810025 -0.00411688 0.00000000
0.23186845 1.84701108 -0.00201271 0.00000000
0.93485475 0.83108586 0.00374503 0.00000000
4.60500640 0.27662146 -0.00244835 0.00000000
0.15622156 1.11888076 0.00018325 0.00000000
1.02873693 0.80478295 0.00281647 0.00000000
0.43924400 0.01541828 -0.00254712 0.00000000
0.29429772 1.60546042 0.00128982 0.00000000
3.92855872 0.41913036 0.00079524 0.00000000
1.88441891 0.70665700 0.00147323 0.00000000
2.59766232 0.81982744 -0.00333011 0.00000000
0.49623930 0.00420330 -0.00218568 0.00000000
3.67017566 1.48599920 0.00044772 0.00000000
4.01681292 0.20150160 0.00135610 0.00000000
1.71022931 1.23384486 0.00227289 0.00000000
1.68035218 0.13648916 0.00091021 0.00000000
3.03153925 1.87412325 -0.00091200 0.00000000
3.89595338 1.67818761 -0.00560228 0.00000000
1.78697347 0.33383723 0.00244549 0.00000000
0.91559862 0.23686544 -0.00137207 0.00000000
1.78909555 1.83792221 -0.00043349 0.00000000
4.01848264 0.54713947 0.00130761 0.00000000
4.62181923 1.94631183 -0.00379090 0.00000000
0.54613031 2.08441617 -0.00262743 0.00000000
1.13946254 1.96814632 -0.00130875 0.00000000
3.07255089 1.95843423 0.00044856 0.00000000
2.86567734 0.58274994 -0.00233903 0.00000000
3.77441895 0.06843524 0.00269960 0.00000000
2.46838237 2.02743579 0.00250178 0.00000000
0.73163551 1.46791014 0.00281894 0.00000000
0.43920380 0.35307145 -0.00033651 0.00000000
3.27797909 2.05346903 0.00008445 0.00000000
1.70599749 0.54758226 0.00041507 0.00000000
0.30757361 1.11896118 0.00000613 0.00000000
4.51445739 0.55197893 -0.00481347 0.00000000
1.88869263 0.05767044 0.00061011 0.00000000
2.34280770 2.05464773 0.00034142 0.00000000
1.05932302 2.03638235 0.00037880 0.00000000
1.96485798 0.85493112 -0.00070431 0.00000000
1.54895421 0.35802216 -0.00178963 0.00000000
4.08209163 1.03761979 0.00629180 0.00000000
3.97874190 0.84055079 -0.00148035 0.00000000
3.63012009 1.50312831 0.00030552 0.00000000
3.35360953 0.99044542 0.00005997 0.00000000
2.27482045 2.05608607 0.00112915 0.00000000
0.41307760 0.58281676 0.00187200 0.00000000
0.65946656 0.05644644 -0.00253639 0.00000000
3.62141505 1.97314191 -0.00117977 0.00000000
4.20796506 1.81227846 0.00168082 0.00000000
3.02334199 1.31929407 -0.00031580 0.00000000
3.21291049 0.60178504 -0.00305907 0.00000000
3.19637301 0.43270145 -0.00101190 0.00000000
1.07621781 1.80261106 -0.00491134 0.00000000
2.60906378 0.79077875 0.00153154 0.00000000
4.31162739 0.19405162 0.00078935 0.00000000
0.00542380 0.56556867 -0.00120371 0.00000000
0.25702660 0.84683352 0.00220806 0.00000000
2.09477751 0.63644142 -0.00378283 0.00000000
1.01068561 0.64902358 0.00029710 0.00000000
2.95375791 0.40819684 0.00261925 0.00000000
0.92774185 0.64012002 0.00538350 0.00000000
1.09924249 0.04161520 0.00263237 0.00000000
2.87071344 1.10201240 0.00104349 0.00000000
0.46596913 1.84136538 0.00199307 0.00000000
1.17783255 1.55049775 -0.00204315 0.00000000
3.37211046 0.87091834 0.00270649 0.00000000
3.08503623 1.85473157 -0.00007085 0.00000000
4.60574924 1.58632568 -0.00048201 0.00000000
3.64871812 1.52743955 -0.00608666 0.00000000
4.60666923 1.51195602 -0.00052086 0.00000000
0.05294935 1.56507949 0.00043472 0.00000000
1.62064961 1.47998365 0.00026020 0.00000000
2.09656353 0.51588837 0.00022625 0.00000000
0.90986754 1.29590896 0.00053841 0.00000000
1.75688629 1.21487317 -0.00155074 0.00000000
1.23207501 1.11190094 0.00197709 0.00000000
3.32096024 1.32449859 0.00243505 0.00000000
4.36908796 1.16695510 -0.00017547 0.00000000
2.62012636 1.43131762 -0.00150307 0.00000000
0.04274017 0.76926140 -0.00052129 0.00000000
0.74919442 0.53050607 0.00058166 0.00000000
2.08952510 1.42403587 0.00145528 0.00000000
3.74532085 0.04882900 0.00073710 0.00000000
4.49500369 1.59703494 0.00191444 0.00000000
4.41165795 1.60829044 -0.00092387 0.00000000
4.15365097 1.57343025 0.00114084 0.00000000
2.08419549 0.91591575 -0.00277434 0.00000000
3.62589984 1.79063758 -0.00162976 0.00000000
2.56658635 0.47724832 0.00203171 0.00000000
3.99001403 0.26177466 -0.00108218 0.00000000
3.87519501 2.06982508 0.00010357 0.00000000
3.85781024 1.36134823 -0.00093470 0.00000000
1.53486045 0.27566073 0.00626608 0.00000000
3.63195834 1.97926064 -0.00069010 0.00000000
2.11070694 1.08835798 0.00111011 0.00000000
0.86541755 0.66284825 -0.00173302 0.00000000
2.52804093 1.05863502 0.00048804 0.00000000
2.22268390 1.44228198 0.00133277 0.00000000
3.52399718 0.53913699 0.00367466 0.00000000
2.69978139 0.69162395 -0.00276792 0.00000000
4.67479348 0.80699336 0.00004727 0.00000000
3.53898092 1.95824471 -0.00267446 0.00000000
0.85982961 0.25913192 0.00151886 0.00000000
3.08782970 1.09799200 -0.00424040 0.00000000
1.76118868 0.44714300 0.00200384 0.00000000
2.16558796 0.94968607 -0.00109629 0.00000000
0.82856404 1.90077938 0.00164828 0.00000000
0.25561028 1.71232738 -0.00016413 0.00000000
2.21307081 0.30588780 0.00048037 0.00000000
4.05693587 0.82360374 0.00053351 0.00000000
2.02350904 1.46933110 0.00280464 0.00000000
0.64348493 1.82772329 -0.00403381 0.00000000
3.73440422 1.95294744 -0.00567645 0.00000000
2.77220679 1.46918348 -0.00352823 0.00000000
1.19018140 1.93695842 -0.00126271 0.00000000
2.37058695 0.42255041 0.00189125 0.00000000
0.26349749 0.40794129 -0.00198606 0.00000000
3.59709290 1.70139069 -0.00212100 0.00000000
1.71035986 1.32207389 -0.00161464 0.00000000
0.08144544 1.31673963 0.00222953 0.00000000
4.51061044 0.80899094 -0.00105873 0.00000000
1.46069406 1.21250825 -0.00304414 0.00000000
1.71579227 0.77549700 -0.00040188 0.00000000
0.06374001 0.25903689 -0.00016679 0.00000000
0.57161085 0.63956379 -0.00133060 0.00000000
3.36020547 0.79277659 0.00407958 0.00000000
2.11929895 1.05504286 0.00311698 0.00000000
4.42303157 1.08999830 0.00100185 0.00000000
0.04323287 1.76853630 0.00252554 0.00000000
2.54363316 0.19994883 -0.00070363 0.00000000
2.05236147 1.68190540 -0.00041252 0.00000000
1.70036292 0.83745665 0.00204109 0.00000000
1.32418989 0.31114606 -0.00065973 0.00000000
2.70221897 0.39009912 -0.00154113 0.00000000
1.52316214 0.47817532 0.00184261 0.00000000
1.48537659 0.52277220 0.00123768 0.00000000
3.05735952 0.84444313 -0.00193202 0.00000000
1.81142127 1.07801239 0.00504818 0.00000000
0.21752930 0.75089639 0.00135998 0.00000000
0.44545339 1.98891856 0.00096108 0.00000000
2.47054059 0.65786385 -0.00623089 0.00000000
2.81056757 1.80729281 0.00016310 0.00000000
0.05352940 1.67972837 -0.00068990 0.00000000
4.17312175 0.07793880 -0.00304150 0.00000000
3.09494706 0.96538306 0.00075467 0.00000000
2.27544249 1.80467024 0.00019749 0.00000000
3.35919551 1.72571788 -0.00380056 0.00000000
0.10388651 1.33894928 0.00134080 0.00000000
0.82780817 1.62181707 -0.00078378 0.00000000
2.06103768 0.82204987 0.00405597 0.00000000
1.49142656 0.15360638 -0.00019961 0.00000000
4.52547375 1.41271330 0.00115605 0.00000000
1.16975989 1.99536125 0.00366180 0.00000000
2.40198011 0.43722114 0.00170444 0.00000000
1.96386089 1.99302065 0.00051289 0.00000000
4.11527098 0.55020305 0.00229182 0.00000000
2.45010708 0.23807709 0.00230098 0.00000000
3.66341285 0.70613234 0.00408812 0.00000000
1.78432413 0.47779913 -0.00465327 0.00000000
2.47988241 1.24235332 -0.00075115 0.00000000
3.84494312 0.63176821 0.00125613 0.00000000
3.59410574 0.15693249 0.00162073 0.00000000
1.27220173 1.05470943 0.00248648 0.00000000
1.03575168 1.28735005 0.00054936 0.00000000
0.31169497 1.22694089 0.00634694 0.00000000
3.80960231 1.38309352 -0.00309248 0.00000000
0.00744201 1.30519327 -0.00234469 0.00000000
4.51520988 1.32431065 0.00295663 0.00000000
4.66209857 0.09544439 -0.00414048 0.00000000
4.48867586 1.71327095 0.00247518 0.00000000
4.23907008 1.90839635 0.00019787 0.00000000
3.21409139 1.28389963 0.00442483 0.00000000
2.43589386 1.39320977 0.00203607 0.00000000
2.32077186 2.03096326 -0.00130999 0.00000000
1.99615505 0.03284943 0.00434213 0.00000000
4.33433099 1.78963517 -0.00078746 0.00000000
0.73234766 1.66638494 -0.00206047 0.00000000
2.77874538 1.04014423 0.00159955 0.00000000
1.02986818 1.29155140 -0.00490712 0.00000000
3.83759120 1.89612719 -0.00314608 0.00000000
2.82929888 1.80570650 0.00042709 0.00000000
0.25314441 0.46865243 0.00207562 0.00000000
0.31257385 1.67897933 -0.00076784 0.00000000
3.36306127 0.13313512 0.00016877 0.00000000
4.53416987 1.30629451 -0.00175162 0.00000000
0.45395953 1.49224779 -0.00024751 0.00000000
3.88610596 0.31565166 0.00120330 0.00000000
0.57778536 1.07002742 0.00201658 0.00000000
2.83987768 1.53188265 0.00212613 0.00000000
1.91343562 1.83138903 0.00072049 0.00000000
0.19270483 1.54237293 0.00038351 0.00000000
0.18128697 1.16807041 0.00127215 0.00000000
3.61136633 0.92734451 0.00103942 0.00000000
1.93976760 0.00454306 0.00333361 0.00000000
2.45740541 1.19214442 -0.00261639 0.00000000
1.90503394 1.25826706 0.00010932 0.00000000
3.91092773 1.94990685 -0.00113354 0.00000000
1.81491575 0.08578663 -0.00184156 0.00000000
2.07441314 0.89689850 0.00003578 0.00000000
4.68983564 1.57612946 0.00332380 0.00000000
1.98459485 1.87276713 -0.00221091 0.00000000
3.68238422 1.03481998 0.00114694 0.00000000
1.96869794 0.53811674 0.00203695 0.00000000
2.32517298 2.03081650 -0.00311549 0.00000000
1.07061378 1.93833273 -0.00230026 0.00000000
3.04842869 0.40461846 0.00106389 0.00000000
1.84555501 1.64350491 0.00461096 0.00000000
2.06510801 0.95849092 0.00479679 0.00000000
3.54293348 2.02989560 -0.00319089 0.00000000
2.22538190 1.19433121 -0.00357898 0.00000000
2.54710504 0.54072767 -0.00119178 0.00000000
2.90997886 0.00313940 0.00113113 0.00000000
1.99433784 1.88744483 0.00134527 0.00000000
1.12829347 1.60582232 -0.00439710 0.00000000
2.60276162 0.00803966 -0.00060294 0.00000000
0.45624120 0.74376913 0.00081226 0.00000000
4.11880698 0.63062515 -0.00325289 0.00000000
3.32800333 1.86788838 -0.00235122 0.00000000
0.91208331 1.67511156 -0.00165500 0.00000000
4.75492767 1.04625779 -0.00111622 0.00000000
3.43071912 0.46496542 -0.00018686 0.00000000
2.65478887 1.06554210 0.00322898 0.00000000
0.05334946 0.93094038 -0.00415675 0.00000000
3.62818068 0.61426519 -0.00390244 0.00000000
0.11856280 1.12222241 0.00235057 0.00000000
0.48221821 1.92322264 0.00166416 0.00000000
1.51905217 1.42231605 -0.00259739 0.00000000
4.11340144 0.96238762 -0.00449353 0.00000000
3.04536396 0.34976159 0.00160959 0.00000000
4.58130918 0.42006519 -0.00136672 0.00000000
2.51760369 1.18569502 0.00201601 0.00000000
4.61986628 1.94221486 0.00283236 0.00000000
1.12523330 1.14011176 -0.00047868 0.00000000
4.63789421 0.26127996 -0.00095339 0.00000000
0.23813524 1.26764761 0.00357232 0.00000000
3.74605778 1.88901311 -0.00051635 0.00000000
2.09613645 1.93413230 -0.00197758 0.00000000
2.30711375 0.69679260 0.00035002 0.00000000
3.09662069 0.21337372 -0.00142044 0.00000000
0.43865794 1.79189619 0.00236073 0.00000000
0.94270986 1.52820283 0.00096553 0.00000000
4.11146361 1.85197129 0.00038977 0.00000000
1.43309612 0.85498208 0.00244254 0.00000000
2.05366812 0.07106581 0.00050178 0.00000000
2.51724567 1.70304697 -0.00048245 0.00000000
1.40641477 1.48993022 -0.00118768 0.00000000
4.43387474 0.57377939 -0.00304179 0.00000000
0.88767126 0.55167858 0.00176601 0.00000000
4.37167595 1.40484424 0.00276332 0.00000000
2.55093418 0.00894154 0.00602573 0.00000000
3.66224250 1.81387145 0.00275279 0.00000000
4.56524394 1.85203257 0.00629860 0.00000000
0.57541692 1.55620959 -0.00419272 0.00000000
1.57419455 0.77584099 0.00334207 0.00000000
4.46244418 1.74202188 0.00320199 0.00000000
0.57247213 0.54474773 0.00232830 0.00000000
1.85153205 0.47169063 0.00094311 0.00000000
2.62941528 1.00235423 0.00401403 0.00000000
4.41426815 0.59276455 0.00044904 0.00000000
1.36990142 0.90745401 0.00384950 0.00000000
2.75713159 0.86544665 0.00030994 0.00000000
0.96047946 0.69705741 -0.00368036 0.00000000
1.29811800 1.68632815 -0.00000966 0.00000000
0.53243702 0.25070498 -0.00000693 0.00000000
0.52920038 1.09085001 -0.00185308 0.00000000
4.64819690 1.87880542 0.00220190 0.00000000
1.53823387 1.76465347 0.00362422 0.00000000
4.74797996 1.64931836 0.00024886 0.00000000
1.83335996 0.96386249 0.00033942 0.00000000
1.09824112 1.25681703 -0.00276728 0.00000000
0.47411874 1.65865906 0.00103778 0.00000000
0.64169522 2.06645346 0.00481027 0.00000000
1.66526053 0.92944316 -0.00318369 0.00000000
3.05909645 2.01400299 -0.00375882 0.00000000
3.33537022 0.69052004 -0.00115041 0.00000000
0.36604832 0.59242688 0.00407984 0.00000000
2.44946359 1.32097804 0.00373951 0.00000000
1.26135394 0.59285195 -0.00306914 0.00000000
2.61576712 0.18655647 -0.00082117 0.00000000
0.69356185 1.80436485 0.00086425 0.00000000
2.39690638 0.89721051 -0.00193709 0.00000000
0.99679391 0.97459007 -0.00376809 0.00000000
3.42062797 0.21954982 0.00059565 0.00000000
0.29592785 2.06514587 0.00390007 0.00000000
2.52621431 0.44678805 0.00356859 0.00000000
1.41331334 0.75091555 -0.00223315 0.00000000
1.43740702 1.37256095 -0.00300809 0.00000000
2.59928399 1.49911260 -0.00055932 0.00000000
4.27264226 0.04589904 0.00160851 0.00000000
0.14097557 0.09242356 -0.00063171 0.00000000
3.03875292 1.80471543 -0.00371256 0.00000000
0.45251424 1.92058181 0.00243642 0.00000000
0.17483011 0.22996974 -0.00394764 0.00000000
1.66940376 1.21885863 0.00261434 0.00000000
4.64012562 0.82667104 0.00073184 0.00000000
2.38225268 1.77956112 -0.00348986 0.00000000
1.91257759 1.58374702 -0.00072320 0.00000000
2.41649280 0.68589462 -0.00298454 0.00000000
1.37592747 1.35978159 -0.00067719 0.00000000
0.29238599 0.91968909 0.00137115 0.00000000
1.01178816 1.20109957 -0.00115012 0.00000000
0.74673529 1.97868844 0.00300911 0.00000000
0.47662653 1.42082173 0.00035153 0.00000000
1.25333114 1.56819548 0.00112271 0.00000000
2.51878715 0.85922487 0.00070782 0.00000000
3.04393354 1.75624970 0.00272827 0.00000000
3.01430108 1.17351238 -0.00302797 0.00000000
4.53349767 1.29199536 -0.00185753 0.00000000
0.90877167 0.23679628 0.00019824 0.00000000
4.24466818 1.24019173 -0.00091944 0.00000000
1.87053847 1.91228688 -0.00275155 0.00000000
0.55190333 1.59450164 0.00122074 0.00000000
4.32152607 0.83088398 -0.00062746 0.00000000
1.58115734 0.23022414 -0.00129309 0.00000000
4.26365069 0.76417593 -0.00172701 0.00000000
2.33952496 0.53810818 0.00034992 0.00000000
1.52635387 1.71995415 0.00219082 0.00000000
1.16090013 0.60951111 0.00282457 0.00000000
0.38247811 1.80310023 -0.00003066 0.00000000
4.11878336 0.45684169 0.00472007 0.00000000
0.12876222 1.41958010 0.00455193 0.00000000
2.37704773 1.98033095 0.00095938 0.00000000
1.99953269 0.84922110 -0.00233905 0.00000000
4.05219230 0.94164244 0.00084288 0.00000000
3.89485246 0.17659608 0.00252442 0.00000000
2.91948856 1.82007684 0.00358132 0.00000000
2.53713960 0.35413371 0.00039202 0.00000000
0.99257493 0.70776864 0.00144510 0.00000000
4.04664445 1.47875532 -0.00105887 0.00000000
0.27916880 0.56023173 -0.00403975 0.00000000
4.12532314 1.85690003 -0.00259287 0.00000000
0.21734275 0.77432458 -0.00247950 0.00000000
2.04886392 1.28678699 0.00279668 0.00000000
4.08821080 0.37400561 -0.00262873 0.00000000
0.75966742 0.25825913 -0.00290628 0.00000000
4.40553013 0.09684180 0.00263683 0.00000000
4.19400249 0.98351180 -0.00016496 0.00000000
3.83423239 0.04242838 0.00074008 0.00000000
4.27630581 1.08200268 -0.00429345 0.00000000
4.66512331 0.97200424 -0.00235296 0.00000000
3.08343254 0.56590708 0.00285328 0.00000000
0.15369713 0.94498141 -0.00205790 0.00000000
0.12329346 0.62594160 0.00048651 0.00000000
4.06209298 0.18519101 -0.00246317 0.00000000
2.50825627 0.26260276 -0.00079862 0.00000000
3.13077514 0.09508896 -0.00585664 0.00000000
3.29381396 1.32207000 0.00161746 0.00000000
2.11934985 2.08187831 -0.00128664 0.00000000
1.06683941 0.76703320 0.00172206 0.00000000
2.63891320 0.71849811 0.00027560 0.00000000
4.45825989 1.73805800 0.00064060 0.00000000
1.60185225 1.77819230 -0.00235811 0.00000000
4.06019558 1.10180787 -0.00216578 0.00000000
4.50500076 0.90484731 -0.00037669 0.00000000
2.16045732 2.03946673 -0.00013231 0.00000000
0.94906990 0.14697767 0.00389527 0.00000000
1.69345327 0.92841186 0.00048021 0.00000000
1.18869825 0.34000571 -0.00686541 0.00000000
3.43096937 1.95057255 -0.00360835 0.00000000
1.26163998 0.72010633 0.00426959 0.00000000
1.81923545 2.03809388 0.00272871 0.00000000
2.85646368 1.78380688 -0.00078636 0.00000000
1.56571871 1.71471834 0.00213402 0.00000000
0.87558508 0.38538584 0.00130433 0.00000000
4.31967456 1.35569375 0.00312683 0.00000000
0.07348719 1.28055748 0.00331784 0.00000000
0.84970856 1.98028977 -0.00172947 0.00000000
4.01479493 1.71917308 -0.00005355 0.00000000
1.77518074 0.13317369 0.00064384 0.00000000
2.60295069 2.02242155 0.00217857 0.00000000
4.41802630 0.12032421 0.00454529 0.00000000
4.49837397 1.53449802 -0.00078271 0.00000000
3.11386541 1.18834978 0.00429326 0.00000000
2.59727884 0.55718371 -0.00191171 0.00000000
1.11631548 1.67833626 0.00120361 0.00000000
0.70151657 1.77185841 -0.00160176 0.00000000
4.22918363 1.61686121 -0.00001202 0.00000000
3.33844554 1.77239891 0.00300870 0.00000000
4.51448696 1.33031356 -0.00006866 0.00000000
3.20326182 2.07285428 0.00290041 0.00000000
0.14997924 2.07453466 0.00243296 0.00000000
0.26636684 1.16574453 -0.00066926 0.00000000
3.81950508 1.36956234 0.00144267 0.00000000
4.06766712 0.06471052 0.00547478 0.00000000
2.65549740 0.35953366 -0.00166227 0.00000000
0.51491221 1.30880186 -0.00110764 0.00000000
3.93446256 1.59229383 0.00164215 0.00000000
0.68701179 0.01947431 0.00243941 0.00000000
0.70499920 1.10020774 -0.00185271 0.00000000
3.66084775 1.43125296 -0.00161051 0.00000000
2.59315158 0.37619247 -0.00189593 0.00000000
3.16226843 1.79473625 0.00013815 0.00000000
3.48462897 1.09343213 -0.00143360 0.00000000
3.62441714 0.80112320 0.00113574 0.00000000
0.09808116 0.94111520 -0.00072728 0.00000000
0.12303526 0.76740222 -0.00026528 0.00000000
2.00885533 1.16297046 -0.00502362 0.00000000
2.92899042 0.42821287 -0.00081980 0.00000000
2.07082464 1.73484222 0.00108713 0.00000000
0.78018592 1.52190318 0.00073995 0.00000000
0.04252571 1.75080210 -0.00047379 0.00000000
2.41134314 0.48493214 0.00144260 0.00000000
3.05802931 1.03444846 0.00222361 0.00000000
3.63128193 0.59709740 -0.00035055 0.00000000
2.75883004 0.86896509 -0.00269222 0.00000000
4.56811646 1.95795894 0.00061529 0.00000000
1.07877022 0.57096557 0.00131007 0.00000000
0.04015481 1.38883189 -0.00469646 0.00000000
1.02189677 1.20318540 -0.00129768 0.00000000
4.17293544 1.90661977 0.00026572 0.00000000
1.06786573 0.91601243 -0.00001375 0.00000000
1.17462652 1.07429649 0.00018035 0.00000000
0.58924281 0.59092177 0.00360568 0.00000000
2.49325920 0.82878607 -0.00236922 0.00000000
2.33951136 0.27008295 0.00044297 0.00000000
1.27737578 0.72456073 0.00164165 0.00000000
3.05888713 1.54180397 -0.00144690 0.00000000
0.10302190 0.87513089 -0.00225123 0.00000000
3.71153353 0.07958960 0.00415974 0.00000000
0.69178507 0.49011652 -0.00252069 0.00000000
2.62695188 1.49710217 -0.00009118 0.00000000
1.11478633 1.87517209 -0.00300547 0.00000000
4.65651999 0.93551413 0.00552999 0.00000000
0.33748474 1.23684512 0.00048910 0.00000000
0.21141397 1.58551827 0.00198496 0.00000000
3.16327363 1.08731265 -0.00193493 0.00000000
2.96950560 1.06870738 -0.00493468 0.00000000
0.58336317 0.90365572 0.00151634 0.00000000
3.91488473 0.70318359 0.00155055 0.00000000
1.11154486 1.46084855 0.00042269 0.00000000
2.56119185 1.60877672 -0.00378429 0.00000000
0.80203045 1.20086337 -0.00171802 0.00000000
1.47708013 0.09403925 0.00074799 0.00000000
3.82700334 1.47037284 0.00541243 0.00000000
2.00165363 1.18100124 -0.00281037 0.00000000
2.81317751 0.02767775 -0.00198945 0.00000000
3.77097010 1.79746785 0.00100707 0.00000000
1.76279906 1.13308171 0.00007087 0.00000000
0.23130206 0.72936676 -0.00228361 0.00000000
3.55904403 1.74342955 -0.00320492 0.00000000
2.56304930 1.10801146 -0.00021055 0.00000000
1.39083225 0.41621005 0.00241652 0.00000000
4.10606373 1.24106127 -0.00289720 0.00000000
1.43189214 0.69183682 -0.00342178 0.00000000
0.12699608 1.68962293 0.00371284 0.00000000
4.74770007 1.40958120 -0.00228279 0.00000000
2.50730490 0.19390617 0.00115572 0.00000000
4.74412516 1.45903878 -0.00338449 0.00000000
3.72875643 1.63486973 -0.00048622 0.00000000
3.22001468 2.01908287 0.00158562 0.00000000
2.71131065 1.04492765 0.00062141 0.00000000
2.53095104 1.44900996 -0.00015310 0.00000000
1.60823831 1.24318096 -0.00124100 0.00000000
1.82986193 1.25229038 -0.00208850 0.00000000
1.87857175 1.62822629 0.00181125 0.00000000
3.96230131 0.85781754 -0.00457030 0.00000000
2.16405272 0.30664199 0.00150903 0.00000000
2.95365468 1.70718227 -0.00217282 0.00000000
3.79131651 1.12768358 -0.00587975 0.00000000
3.96568854 1.22552057 0.00216263 0.00000000
3.96498578 1.75519250 0.00029133 0.00000000
0.90734837 0.27137222 0.00543886 0.00000000
1.45832815 0.62322746 0.00433789 0.00000000
3.57731583 1.19568635 0.00156545 0.00000000
4.18368159 1.22457190 -0.00109882 0.00000000
0.14004990 1.04354232 0.00211691 0.00000000
3.59148412 0.02894793 0.00151388 0.00000000
0.32392527 1.76348968 0.00265766 0.00000000
3.50184464 2.02902170 -0.00054939 0.00000000
1.78673627 0.04669239 -0.00052506 0.00000000
1.67181653 1.02137700 0.00050425 0.00000000
2.86786256 1.44558015 0.00026542 0.00000000
2.58400189 2.05086372 0.00234076 0.00000000
0.29472439 1.39898534 0.00287937 0.00000000
1.59257079 1.50114700 0.00078244 0.00000000
4.50548523 0.28600415 0.00714767 0.00000000
0.99255410 1.51809275 0.00236918 0.00000000
2.11049956 1.71637902 -0.00059605 0.00000000
4.76122748 1.54991682 -0.00046367 0.00000000
1.15682585 0.46178700 0.00323442 0.00000000
1.78693320 0.80067753 -0.00387244 0.00000000
3.10445567 1.76307392 0.00174062 0.00000000
2.19622808 0.17797244 -0.00336244 0.00000000
1.58091958 0.65649847 0.00080068 0.00000000
3.91938736 1.91877220 0.00374855 0.00000000
2.14959018 1.07842699 -0.00013088 0.00000000
3.27178262 1.11191863 0.00690355 0.00000000
4.43823311 1.45405076 -0.00094118 0.00000000
2.80268787 1.45332960 -0.00332136 0.00000000
1.25929077 1.38851468 -0.00059721 0.00000000
2.37266369 0.81877128 0.00015635 0.00000000
0.62881114 1.00197350 -0.00039481 0.00000000
1.78623223 0.77255634 -0.00124892 0.00000000
1.85244768 1.27389552 -0.00381464 0.00000000
3.35625584 1.66800565 -0.00390764 0.00000000
3.91644900 1.27898662 -0.00539379 0.00000000
1.64563733 0.81918807 -0.00039609 0.00000000
2.55476228 0.33676139 -0.00009088 0.00000000
2.29048881 0.23024472 0.00186470 0.00000000
4.35413282 0.70341671 0.00011691 0.00000000
2.70787293 1.55866110 -0.00420655 0.00000000
0.86127370 1.63373150 -0.00147276 0.00000000
1.66436282 0.68491777 0.00341583 0.00000000
4.17038036 0.47397996 -0.00101759 0.00000000
3.32279008 1.94143024 0.00146649 0.00000000
3.23009178 1.35620613 -0.00419514 0.00000000
2.73113444 0.40345704 -0.00032166 0.00000000
4.61392964 0.72247412 -0.00003125 0.00000000
2.33931101 0.27351679 -0.00209701 0.00000000
4.68410489 0.40164884 0.00431426 0.00000000
4.63786558 1.73757171 -0.00247744 0.00000000
0.65860100 0.95596257 0.00288466 0.00000000
1.60689019 1.05944312 0.00000201 0.00000000
0.86463493 1.28225512 0.00447390 0.00000000
1.44316152 1.66021344 0.00092367 0.00000000
4.37254470 0.35320706 -0.00132367 0.00000000
4.52111134 1.90332448 0.00543508 0.00000000
1.47136411 0.50086075 -0.00203065 0.00000000
0.39537492 0.50341529 0.00281653 0.00000000
4.58175995 0.14266363 0.00228312 0.00000000
1.98666784 0.37530726 -0.00127506 0.00000000
4.16182453 0.38230242 0.00244876 0.00000000
4.67714755 1.21344740 -0.00141845 0.00000000
0.72520298 2.01414010 0.00228548 0.00000000
1.98411478 1.89933363 -0.00173622 0.00000000
3.30478795 0.39885139 0.00170187 0.00000000
0.33528028 0.06191961 0.00377387 0.00000000
4.56928463 2.00869893 -0.00250321 0.00000000
4.62391590 0.77137655 -0.00317105 0.00000000
1.96247459 0.57400432 0.00204977 0.00000000
1.54428479 1.60974219 -0.00175075 0.00000000
1.47823361 0.05600187 0.00118733 0.00000000
3.27951170 2.05159085 0.00000314 0.00000000
2.94971061 0.81593145 0.00147055 0.00000000
2.16217825 0.81839922 -0.00021171 0.00000000
0.91041701 0.15344262 0.00095810 0.00000000
1.44229048 1.28446259 -0.00425729 0.00000000
4.58157543 1.99844065 -0.00285253 0.00000000
2.46338629 1.94185980 -0.00318314 0.00000000
0.06428910 0.60520445 0.00155765 0.00000000
4.27309063 1.31681391 -0.00032234 0.00000000
3.15582808 1.54158962 0.00147514 0.00000000
0.77807577 0.47992607 -0.00173538 0.00000000
0.01082041 1.93129866 0.00339569 0.00000000
3.31208691 0.05311393 -0.00077342 0.00000000
3.36800714 1.91839748 0.00226815 0.00000000
3.61642518 1.47391858 0.00267028 0.00000000
1.25568369 1.53773678 -0.00115130 0.00000000
3.86346385 1.97385791 0.00045615 0.00000000
3.25154174 1.54393807 0.00181982 0.00000000
1.39278999 1.95586000 0.00251979 0.00000000
0.18281192 1.81415761 0.00247598 0.00000000
1.34517431 1.87602833 -0.00169814 0.00000000
0.60154251 1.80967117 0.00289759 0.00000000
3.13177528 1.15291255 -0.00031852 0.00000000
1.94566600 2.03976552 0.00290429 0.00000000
3.74498968 2.00026723 -0.00338831 0.00000000
1.98503678 1.96213938 -0.00228920 0.00000000
2.04040230 0.18135565 0.00131102 0.00000000
3.15071189 1.45021374 -0.00310211 0.00000000
1.47290762 1.63426845 0.00224504 0.00000000
2.47429435 1.65346519 0.00103924 0.00000000
2.07762160 1.36585246 0.00221291 0.00000000
1.12510319 0.51917701 0.00701338 0.00000000
1.54679253 0.13139731 0.00191112 0.00000000
4.65747763 0.12641404 -0.00284713 0.00000000
1.66419141 0.82046898 0.00300973 0.00000000
4.36844358 1.41844786 0.00120685 0.00000000
0.56111426 0.62097877 -0.00207430 0.00000000
1.92631638 0.83197930 0.00050942 0.00000000
4.68290622 2.05681820 -0.00230261 0.00000000
2.56326058 0.37793222 0.00284695 0.00000000
0.03755871 0.38694316 0.00142346 0.00000000
0.29942230 0.18880367 0.00021663 0.00000000
2.33129104 0.61833997 0.00495789 0.00000000
3.36329340 0.71573242 0.00303460 0.00000000
0.07190960 1.06653254 -0.00171868 0.00000000
2.10722317 0.89855968 -0.00120908 0.00000000
