3.578624 1.910530 -0.002705 0.0
3.019997 0.228171 0.001685 0.0
0.967190 0.219391 0.001655 0.0
1.452756 1.554716 -0.005857 0.0
1.837384 0.898833 0.000034 0.0
1.769798 1.892160 0.005801 0.0
2.619895 1.693432 -0.000602 0.0
3.102912 1.488017 0.000981 0.0
0.945745 2.041958 -0.000140 0.0
2.410700 0.935910 -0.001692 0.0
2.220952 1.192998 -0.002571 0.0
1.837848 0.963234 0.000588 0.0
1.300749 1.873293 0.000518 0.0
3.489163 1.129006 0.000430 0.0
0.907942 2.170002 0.000730 0.0
0.332853 1.322375 0.001283 0.0
1.330105 0.183245 -0.000221 0.0
2.094485 1.818188 -0.002634 0.0
4.596924 1.409830 -0.002713 0.0
0.918631 0.106693 0.001585 0.0
0.891367 1.482921 0.002704 0.0
0.721463 0.235806 0.002821 0.0
0.041337 1.063000 -0.000326 0.0
0.856215 1.828915 -0.000653 0.0
3.096052 1.170283 0.000654 0.0
0.970181 0.295965 -0.001630 0.0
3.660462 2.003086 -0.000880 0.0
2.369910 0.407073 0.000758 0.0
2.020145 1.310368 0.001226 0.0
1.679464 1.054266 0.002446 0.0
3.025153 0.213665 0.001731 0.0
0.117876 2.124873 -0.003305 0.0
2.373978 0.187503 0.000510 0.0
2.163054 0.688636 -0.007092 0.0
1.332478 2.223074 -0.000754 0.0
3.703952 0.575018 -0.002285 0.0
1.411295 2.162205 -0.002650 0.0
2.340702 0.283481 0.000233 0.0
4.216955 0.979553 -0.002908 0.0
3.619107 0.384716 -0.002739 0.0
1.614336 0.636227 0.001402 0.0
4.517757 1.340748 0.000276 0.0
1.970308 1.543369 0.000269 0.0
1.007518 1.075740 -0.003626 0.0
1.128000 0.181833 0.002251 0.0
0.358712 0.963815 -0.002767 0.0
4.417934 0.703039 -0.000704 0.0
1.522111 1.135515 0.002269 0.0
3.102001 2.193011 -0.005202 0.0
1.820715 0.301283 -0.000731 0.0
2.398442 1.051870 0.000118 0.0
3.915961 0.203907 0.003614 0.0
1.779334 2.066777 0.001870 0.0
2.190108 0.828746 -0.003135 0.0
2.368138 1.406926 0.004288 0.0
1.394767 0.589823 0.002343 0.0
1.878256 0.763488 0.002294 0.0
3.546912 2.187805 -0.003198 0.0
0.182995 0.205845 -0.002177 0.0
0.995449 2.079529 -0.002438 0.0
0.036921 1.813365 -0.000451 0.0
0.284414 0.820535 0.000135 0.0
0.803765 0.429399 -0.002273 0.0
0.409870 0.323058 0.001607 0.0
4.598219 0.377161 -0.000387 0.0
3.071328 1.680283 0.003681 0.0
0.286883 0.900782 0.005478 0.0
2.755118 0.433520 -0.000794 0.0
0.076619 0.670758 -0.002379 0.0
1.575437 1.869136 0.003128 0.0
1.840761 1.303198 -0.003699 0.0
0.423691 1.627263 0.004366 0.0
2.243300 0.571357 0.002407 0.0
4.625964 0.591872 0.002191 0.0
1.901222 0.381391 0.006073 0.0
3.502999 2.153010 -0.001038 0.0
3.992529 0.462000 0.000835 0.0
3.871588 0.464817 0.006932 0.0
1.899882 2.224456 -0.002695 0.0
0.441342 1.522051 -0.002783 0.0
1.756573 1.776005 -0.001101 0.0
0.658241 0.933874 -0.005337 0.0
1.828407 0.784209 0.003914 0.0
4.729441 0.279447 0.000376 0.0
1.065760 0.800828 0.001583 0.0
1.349976 1.304682 0.001342 0.0
0.365711 0.527987 0.000184 0.0
2.241545 1.351179 -0.002749 0.0
0.171580 1.766486 -0.002973 0.0
2.574323 1.667734 -0.000251 0.0
3.759919 0.259681 -0.002068 0.0
0.551170 2.154052 0.000252 0.0
4.770699 2.133407 0.002572 0.0
1.585132 1.672505 0.003950 0.0
4.678465 1.357120 -0.000295 0.0
4.184523 1.746381 0.000182 0.0
3.781567 0.602297 -0.000403 0.0
1.116218 1.942204 0.001237 0.0
3.236131 0.713728 -0.000079 0.0
3.726747 2.044115 -0.003729 0.0
0.354641 2.192383 0.002640 0.0
1.202914 0.282681 0.001247 0.0
3.855786 0.226998 -0.002126 0.0
0.208839 1.179356 -0.004551 0.0
3.953886 1.478788 0.001309 0.0
4.661226 0.487566 -0.004001 0.0
0.588433 1.263308 0.003544 0.0
0.021599 1.402767 0.002088 0.0
4.636964 0.220948 -0.002363 0.0
1.553630 0.570175 0.002903 0.0
2.389587 0.847215 0.003529 0.0
1.561444 1.475622 -0.001045 0.0
4.336531 0.002525 -0.002737 0.0
3.501476 1.481992 0.001406 0.0
1.753848 0.625171 0.001236 0.0
3.652578 1.276506 -0.000402 0.0
4.727970 0.908762 0.003528 0.0
3.884501 2.141398 0.000484 0.0
3.274616 0.657967 0.000947 0.0
3.939982 1.249055 -0.003089 0.0
4.027773 0.150331 0.007304 0.0
3.031327 1.454326 -0.002725 0.0
4.569785 1.461572 0.003202 0.0
3.280743 1.976256 0.000555 0.0
1.122560 1.887203 0.000360 0.0
0.540873 0.723639 0.000640 0.0
0.754726 1.137775 0.000270 0.0
0.765953 0.686467 -0.002508 0.0
1.917291 0.677670 0.004642 0.0
1.166252 1.932177 0.002117 0.0
1.969428 0.537450 0.003502 0.0
3.299772 1.132161 0.004570 0.0
3.906567 0.578502 0.001865 0.0
1.156364 2.044045 0.003601 0.0
1.604576 1.688676 -0.000964 0.0
3.966302 1.496903 0.002063 0.0
4.217436 1.756756 0.002410 0.0
3.502471 1.698766 0.000228 0.0
3.170101 0.104908 -0.000296 0.0
4.027762 1.587261 -0.000669 0.0
1.530510 1.304468 0.000157 0.0
2.647060 1.374611 0.001393 0.0
4.784477 1.152920 0.002214 0.0
2.575937 0.261784 0.001488 0.0
3.509547 0.749509 -0.001383 0.0
3.489744 1.710896 -0.003697 0.0
4.048072 1.187873 -0.002095 0.0
4.025102 0.865785 -0.001336 0.0
2.495729 2.032211 0.005967 0.0
4.356475 1.175322 -0.003226 0.0
4.665176 0.186825 -0.000945 0.0
3.210310 1.210026 0.000268 0.0
3.566800 0.938319 -0.001245 0.0
4.581169 1.963060 -0.001486 0.0
0.869323 1.315085 0.000438 0.0
4.024316 0.117428 0.000022 0.0
0.995297 1.407621 -0.002741 0.0
1.844057 1.237260 0.001075 0.0
0.383384 1.716391 -0.000029 0.0
0.711380 0.266485 0.000904 0.0
0.871020 0.327656 -0.002513 0.0
2.062660 0.594773 0.001902 0.0
1.265355 0.210071 -0.000798 0.0
0.513040 0.009417 -0.000372 0.0
0.320698 1.718560 0.000086 0.0
0.964157 1.291941 -0.004763 0.0
2.590937 1.057078 -0.001313 0.0
1.724524 0.163926 -0.000903 0.0
4.468285 0.673319 0.000920 0.0
3.297066 0.499431 -0.000250 0.0
2.862532 0.416773 0.003917 0.0
4.572059 0.640535 0.000367 0.0
2.004455 0.253264 -0.000951 0.0
0.993647 1.513239 -0.002097 0.0
3.839397 0.417719 -0.000626 0.0
3.218440 1.275704 0.000377 0.0
1.423866 0.367816 0.000370 0.0
1.892149 1.875138 0.002464 0.0
4.525977 1.797322 -0.002279 0.0
1.725148 1.691983 0.003008 0.0
2.154642 1.385465 -0.003656 0.0
2.788088 0.897816 0.001312 0.0
2.112378 0.724453 -0.000508 0.0
4.673659 1.282530 -0.000479 0.0
2.174029 1.359843 0.003874 0.0
4.750745 1.285170 0.002945 0.0
0.941159 0.021046 -0.000965 0.0
3.145004 0.459454 -0.005090 0.0
1.637123 0.516708 0.001380 0.0
2.721546 1.153873 -0.000361 0.0
0.137264 1.295991 -0.001463 0.0
1.094481 0.968762 -0.000397 0.0
3.762388 1.046449 -0.001754 0.0
2.907634 1.889910 -0.001609 0.0
3.509670 0.679215 0.002259 0.0
3.234139 0.846885 -0.001768 0.0
4.766092 0.944240 -0.001291 0.0
1.205316 1.509968 -0.001051 0.0
1.161139 0.944893 -0.000176 0.0
3.931456 0.530809 0.003576 0.0
2.808386 1.486845 0.000100 0.0
3.664412 1.237366 -0.002689 0.0
0.985406 1.271232 0.002982 0.0
3.623383 1.356599 0.002157 0.0
3.866949 2.176553 -0.000098 0.0
1.909236 1.624597 0.003954 0.0
2.724750 1.021039 0.005805 0.0
4.049536 0.125011 0.001354 0.0
1.169784 2.082268 -0.001555 0.0
0.663092 1.986920 -0.003642 0.0
2.617207 1.584839 0.000920 0.0
0.338426 1.225504 -0.001661 0.0
0.747734 0.171631 -0.001234 0.0
3.331777 0.008294 0.002190 0.0
1.278952 1.466043 -0.000768 0.0
4.401010 1.221832 -0.000347 0.0
4.169591 0.762069 0.004843 0.0
4.131035 0.985948 -0.000106 0.0
3.601808 0.540063 0.004651 0.0
3.313052 2.053126 -0.002952 0.0
3.412291 0.970468 0.003281 0.0
1.269668 1.312338 -0.000006 0.0
2.740149 1.269114 0.000654 0.0
3.487394 0.387760 -0.005347 0.0
0.809011 0.180429 0.001132 0.0
0.255689 1.947954 0.003648 0.0
0.658002 2.076743 0.000111 0.0
3.793475 1.830037 -0.002043 0.0
4.212696 0.251088 -0.005886 0.0
0.379978 1.505775 -0.000838 0.0
0.691051 0.313513 -0.000261 0.0
3.410878 1.205403 -0.006311 0.0
4.329753 2.101595 -0.004574 0.0
0.440095 0.360900 -0.003629 0.0
0.724771 1.065530 0.001942 0.0
1.793185 1.148116 0.007054 0.0
1.433488 0.775608 -0.002023 0.0
1.859855 1.588619 -0.003336 0.0
3.395190 1.298950 -0.001916 0.0
1.109223 1.547112 -0.003009 0.0
3.681515 0.597878 0.004009 0.0
4.533176 1.526318 0.000922 0.0
3.906512 2.022361 0.002246 0.0
2.944618 0.894822 -0.002698 0.0
2.461750 1.692317 0.000963 0.0
1.197701 0.086084 -0.003101 0.0
1.867113 0.494432 -0.002006 0.0
3.566120 1.479181 -0.001741 0.0
0.855147 0.931784 0.000039 0.0
2.371855 1.778682 -0.001457 0.0
0.248612 0.231206 0.002374 0.0
1.709355 0.958759 -0.003591 0.0
2.334026 0.725601 -0.000218 0.0
3.970821 0.014856 0.000034 0.0
1.759008 1.943533 0.000501 0.0
0.813949 0.080233 -0.000897 0.0
4.246807 1.434688 -0.002022 0.0
1.770548 1.515348 0.003492 0.0
1.307330 1.469433 -0.000477 0.0
2.599175 1.138345 -0.000632 0.0
3.212984 1.710222 0.006760 0.0
2.799960 0.551245 0.005285 0.0
0.847032 1.748065 -0.000648 0.0
2.744409 0.471255 -0.002387 0.0
2.942503 2.168524 -0.002423 0.0
0.352410 0.965247 -0.001166 0.0
0.864593 1.909415 0.002507 0.0
3.958778 2.035579 0.001215 0.0
0.119803 1.767713 -0.004824 0.0
4.261722 1.258946 -0.003471 0.0
2.281321 1.931440 0.001631 0.0
3.461015 1.403221 0.001082 0.0
1.546101 0.943890 -0.000296 0.0
1.350697 1.082274 -0.000378 0.0
4.106001 0.110290 0.001059 0.0
1.306253 1.157523 0.000648 0.0
3.574733 0.573978 -0.004578 0.0
3.008121 0.756470 -0.000698 0.0
3.042385 1.988634 -0.004866 0.0
4.108903 1.229314 -0.000334 0.0
1.913004 0.503571 -0.003974 0.0
0.253810 0.196872 0.001084 0.0
2.846110 0.577021 -0.002273 0.0
2.934406 1.697548 0.000419 0.0
4.630567 1.916236 0.003259 0.0
1.405911 0.935359 0.000100 0.0
2.002585 1.076307 -0.000773 0.0
1.362337 1.743702 -0.001249 0.0
3.391800 0.123697 0.001171 0.0
4.705957 1.621789 -0.001419 0.0
0.688099 1.490590 -0.000230 0.0
4.572978 1.170212 -0.003506 0.0
2.075844 1.787535 0.005388 0.0
4.579690 1.079481 -0.005605 0.0
3.291475 0.461580 -0.002072 0.0
4.562197 2.039670 -0.000956 0.0
3.879302 0.693190 -0.004951 0.0
1.733327 1.518344 0.002996 0.0
4.157121 1.000826 0.004084 0.0
3.941381 1.791555 -0.002164 0.0
0.542607 0.012197 0.000263 0.0
3.942553 0.041937 0.000319 0.0
3.824805 0.046010 0.002903 0.0
4.388551 0.880074 -0.001431 0.0
2.234680 0.474080 -0.001708 0.0
1.685651 2.048700 -0.002128 0.0
4.443352 0.037200 -0.004320 0.0
1.898744 2.105871 -0.000188 0.0
4.296602 2.047406 -0.002620 0.0
3.765937 0.772140 0.001057 0.0
2.811397 2.078293 0.000281 0.0
1.788593 0.329791 -0.001405 0.0
3.052631 0.915836 0.002210 0.0
2.121157 1.042903 -0.001196 0.0
0.563103 2.173167 0.001391 0.0
0.360525 0.263719 -0.001070 0.0
2.075051 1.047239 0.001510 0.0
3.784059 0.933776 0.000191 0.0
4.536562 0.376865 -0.004547 0.0
2.685413 0.770256 0.000185 0.0
2.213495 0.904748 0.000638 0.0
4.723597 2.104548 -0.000636 0.0
1.306397 1.096273 -0.001565 0.0
2.437170 1.590314 0.003366 0.0
3.697725 0.448778 0.002325 0.0
2.079616 0.987624 -0.000599 0.0
3.776071 0.926314 0.000728 0.0
2.754843 0.655601 0.000395 0.0
2.758923 0.666830 -0.002208 0.0
0.478181 1.384694 -0.000648 0.0
3.809309 0.942572 -0.001059 0.0
1.220732 0.983305 0.001654 0.0
3.221432 0.486506 -0.001671 0.0
0.388306 0.701013 0.001008 0.0
1.873864 0.034917 0.002982 0.0
4.297399 2.026705 0.001655 0.0
3.871079 0.389087 -0.000807 0.0
2.549326 1.581092 0.001650 0.0
2.489952 1.745477 -0.001770 0.0
1.760222 0.680654 -0.003159 0.0
2.942477 2.054734 -0.001421 0.0
2.652812 0.621146 -0.001257 0.0
1.575748 0.403036 -0.002724 0.0
1.478874 0.047565 0.000912 0.0
0.521083 2.136842 -0.001324 0.0
3.297113 0.087461 -0.000315 0.0
4.522173 1.480942 -0.001668 0.0
3.229844 1.998056 0.000233 0.0
1.634210 0.535500 -0.003099 0.0
1.055050 0.548295 0.002996 0.0
0.765951 1.859999 0.003562 0.0
2.044682 0.694131 0.000506 0.0
0.439130 1.127833 0.001073 0.0
2.201362 0.463719 -0.002639 0.0
0.859769 1.990955 -0.003052 0.0
0.286857 0.787549 0.002791 0.0
4.072321 1.052216 0.002256 0.0
1.120875 1.543221 -0.004020 0.0
0.748806 1.701546 -0.000912 0.0
0.684888 0.744988 0.001002 0.0
3.445076 2.099436 -0.000530 0.0
2.194595 0.389536 0.005170 0.0
4.253215 1.684527 0.002292 0.0
3.344706 1.913793 0.000859 0.0
1.763303 0.474181 0.002608 0.0
4.592221 1.904343 -0.000012 0.0
3.353510 2.085600 -0.002512 0.0
0.244412 0.975860 -0.000322 0.0
2.268251 1.328293 -0.000590 0.0
2.379644 0.688037 -0.000759 0.0
4.727445 0.203832 -0.001418 0.0
2.426874 1.975838 0.001753 0.0
3.949288 1.349340 -0.001259 0.0
0.934200 1.970510 -0.000403 0.0
2.282821 0.378968 0.001950 0.0
1.769312 1.532083 -0.006863 0.0
4.762188 0.806805 -0.002457 0.0
1.424344 1.981539 -0.004151 0.0
4.117307 2.174585 0.000935 0.0
1.305896 1.813397 0.000410 0.0
2.065557 0.907865 -0.000895 0.0
3.403161 0.453073 -0.001603 0.0
1.144649 2.030120 -0.003598 0.0
2.471055 0.989633 -0.001355 0.0
0.036354 2.146712 -0.002503 0.0
4.625090 2.090819 0.002192 0.0
0.429072 0.289433 0.001201 0.0
3.671800 0.621517 -0.001530 0.0
0.695462 1.401085 -0.001287 0.0
4.277562 1.872083 -0.001060 0.0
1.575852 1.759386 0.003768 0.0
0.493621 0.290601 -0.003874 0.0
0.715088 2.125839 0.000536 0.0
2.013165 1.795235 0.001817 0.0
0.390342 1.471840 0.001357 0.0
4.601938 1.659917 -0.004601 0.0
2.279711 1.877317 -0.000255 0.0
0.357609 0.812401 -0.000820 0.0
3.386338 2.097501 0.000031 0.0
4.639502 1.511529 0.001826 0.0
1.588436 2.235766 -0.004339 0.0
0.497470 0.303997 -0.002479 0.0
3.145599 0.111971 -0.000192 0.0
2.827768 1.845443 0.000056 0.0
3.984797 0.806568 0.001285 0.0
2.982776 1.394528 -0.001497 0.0
0.221882 0.003123 -0.001188 0.0
1.561384 1.045555 0.001705 0.0
3.152978 0.222963 0.001522 0.0
3.279167 1.195605 0.001858 0.0
3.723349 2.173377 -0.000806 0.0
0.977660 1.030551 -0.001149 0.0
1.553501 1.626553 -0.003369 0.0
0.897455 0.370613 0.000395 0.0
1.311853 0.122528 -0.004580 0.0
2.170002 1.869375 0.002562 0.0
3.049091 1.291576 -0.002799 0.0
3.968278 1.077391 0.000963 0.0
3.540628 0.529059 -0.001568 0.0
1.906942 1.849147 0.000774 0.0
4.240999 1.041518 0.005563 0.0
2.020535 0.133271 -0.001035 0.0
3.786432 0.800043 0.001127 0.0
3.995172 1.521872 -0.004274 0.0
3.814147 1.432523 -0.001649 0.0
0.714573 1.211127 0.000971 0.0
4.132958 0.889298 -0.000523 0.0
2.949513 1.168316 0.000087 0.0
0.636710 0.089858 -0.001549 0.0
4.186435 2.203058 0.002419 0.0
3.140463 2.200422 0.000582 0.0
0.245635 1.607101 -0.001366 0.0
3.238241 1.339673 0.000316 0.0
1.724940 2.044180 -0.000935 0.0
2.991410 1.646146 0.001681 0.0
3.159754 1.813987 -0.001147 0.0
0.345494 0.465300 0.002295 0.0
2.232254 0.830110 -0.001747 0.0
4.788483 0.135239 -0.006137 0.0
1.842499 1.792354 -0.000075 0.0
1.761627 0.387441 -0.003437 0.0
3.264579 1.584928 -0.001498 0.0
1.306689 2.087885 0.000042 0.0
1.529206 1.142550 0.001008 0.0
2.918048 1.698257 0.002979 0.0
1.244079 1.068824 0.003859 0.0
3.778805 0.244600 0.001562 0.0
4.280518 1.542597 0.004099 0.0
2.598186 2.097924 0.000077 0.0
0.095766 1.583786 0.001179 0.0
4.434576 1.271093 -0.002948 0.0
4.744163 1.909696 0.001615 0.0
2.584515 1.978436 0.003547 0.0
4.063973 2.173230 -0.001360 0.0
2.866789 1.293063 -0.000723 0.0
3.947397 1.673612 0.001224 0.0
3.945703 0.829510 -0.001470 0.0
0.813507 1.932937 -0.001567 0.0
3.498813 1.723409 0.004890 0.0
3.342902 1.900204 -0.000058 0.0
4.589456 0.235475 -0.000988 0.0
3.953782 0.750773 0.000690 0.0
3.996060 1.098718 -0.001925 0.0
1.305650 0.317123 -0.003653 0.0
0.937785 1.143497 -0.005206 0.0
4.525067 0.036331 -0.003851 0.0
0.084112 0.924156 -0.001701 0.0
4.153048 0.711585 0.001987 0.0
1.076364 1.603304 -0.001482 0.0
4.243346 2.080612 -0.000232 0.0
3.868228 0.564184 -0.001938 0.0
3.303627 0.703177 -0.003625 0.0
2.969286 1.672921 0.000047 0.0
0.637527 1.460511 0.002829 0.0
2.996762 1.693116 -0.002104 0.0
1.229584 1.911171 0.001088 0.0
3.301641 2.196959 -0.002401 0.0
0.347568 0.065241 0.001958 0.0
1.374791 0.035453 0.001053 0.0
0.546566 0.327745 0.000164 0.0
1.737142 0.600378 0.000520 0.0
3.381400 0.104975 -0.000124 0.0
4.437849 0.382348 -0.001192 0.0
2.778140 1.039117 0.000115 0.0
0.135681 0.822804 -0.000577 0.0
0.559437 1.048756 0.001948 0.0
1.882286 0.493580 -0.000241 0.0
3.076899 1.481480 0.001730 0.0
3.723117 1.359226 -0.001687 0.0
0.039827 1.910483 -0.003222 0.0
3.343884 2.092104 -0.003070 0.0
2.921736 1.651422 -0.001558 0.0
3.440945 1.107790 -0.002667 0.0
1.589410 1.043623 -0.000135 0.0
3.852234 2.076047 0.000006 0.0
0.347998 0.061874 0.000897 0.0
0.996406 1.806404 -0.001324 0.0
4.788594 1.175135 -0.000275 0.0
2.278575 0.549418 -0.001659 0.0
4.528788 0.857142 -0.000835 0.0
1.175337 1.423621 0.000850 0.0
4.364003 1.272726 0.001171 0.0
1.627230 1.724654 -0.004326 0.0
3.244231 0.458743 0.002157 0.0
2.954130 1.590924 0.000193 0.0
0.908855 0.602272 -0.001930 0.0
0.317697 2.186754 0.003964 0.0
4.616394 1.211957 -0.000242 0.0
0.284361 0.942294 -0.001388 0.0
4.367420 0.262190 -0.000960 0.0
4.538154 0.117572 0.003810 0.0
0.972070 0.900898 0.000716 0.0
1.451453 1.564250 0.001185 0.0
0.873154 1.333922 0.000612 0.0
4.552796 0.711706 0.002697 0.0
1.879039 0.847364 0.001676 0.0
0.726158 2.008073 -0.003100 0.0
4.370342 0.041002 -0.001470 0.0
0.403406 0.971371 0.000482 0.0
1.988933 0.630932 0.000982 0.0
0.922459 1.008409 0.001593 0.0
1.429756 1.440097 -0.002744 0.0
1.066581 1.998879 -0.001877 0.0
0.159569 0.095850 -0.003838 0.0
1.496809 1.231711 -0.001110 0.0
1.709551 2.109217 -0.000265 0.0
0.656910 1.435081 -0.004867 0.0
1.389270 0.283640 0.001615 0.0
2.472703 0.506819 -0.002606 0.0
2.878924 1.552956 0.003102 0.0
1.170224 1.408190 -0.003084 0.0
4.371619 0.291207 0.000049 0.0
1.648518 1.571150 -0.000520 0.0
0.988087 1.706787 0.001322 0.0
0.880949 1.082500 -0.001305 0.0
1.281090 1.678276 -0.005308 0.0
2.483200 0.136014 0.001026 0.0
2.788334 1.812210 -0.003243 0.0
2.898639 0.041985 0.002868 0.0
3.949505 0.470274 0.003930 0.0
2.343670 1.706659 0.001373 0.0
1.501816 0.103014 0.000149 0.0
2.571387 0.714614 -0.001145 0.0
3.707897 0.254630 0.004491 0.0
1.425032 0.219005 -0.002456 0.0
0.467434 0.942782 -0.000131 0.0
4.701456 1.824938 -0.001328 0.0
1.227907 0.360966 -0.001801 0.0
3.081899 1.254894 0.002296 0.0
3.888054 1.742682 0.000636 0.0
3.690998 1.535905 0.001644 0.0
0.979659 0.249557 -0.000734 0.0
3.306269 0.869393 0.001604 0.0
2.464299 1.390536 -0.000949 0.0
2.270241 0.754941 -0.000502 0.0
2.545209 1.281722 -0.002599 0.0
1.462326 0.199309 -0.002870 0.0
3.010882 2.134781 0.000437 0.0
0.852323 1.612582 -0.000862 0.0
3.727900 0.748393 0.002968 0.0
1.891811 0.834554 0.004593 0.0
0.752640 1.584126 0.000649 0.0
0.056218 1.896453 0.001053 0.0
0.997395 0.810553 -0.004224 0.0
3.487796 2.034344 0.002625 0.0
1.880724 0.642367 -0.004505 0.0
4.523467 0.687981 0.001396 0.0
1.395513 2.025790 -0.003520 0.0
4.676478 1.590942 -0.001459 0.0
2.293180 0.142284 0.000779 0.0
2.030857 0.528982 0.003565 0.0
2.170181 1.676576 -0.006524 0.0
2.308583 0.643940 0.000101 0.0
3.573118 0.193299 0.002213 0.0
0.739148 1.853795 0.006009 0.0
3.179234 0.054683 -0.004187 0.0
3.034426 0.576575 -0.002984 0.0
1.721845 1.112667 -0.000492 0.0
0.645852 0.765459 0.001547 0.0
0.263103 1.558460 -0.000486 0.0
1.368563 1.468738 -0.000963 0.0
3.742071 1.337661 -0.002926 0.0
2.313987 0.880277 -0.003473 0.0
2.574988 0.410835 -0.003438 0.0
3.133474 0.901888 -0.002799 0.0
1.371526 1.010745 -0.001360 0.0
0.060225 0.470958 0.000840 0.0
1.104243 0.255304 -0.003667 0.0
2.342957 0.921491 -0.007163 0.0
1.368837 0.254542 -0.003754 0.0
0.271326 0.866222 0.002063 0.0
3.651421 0.399177 -0.004227 0.0
1.946131 1.084081 0.002428 0.0
2.389974 0.185690 -0.003137 0.0
1.221088 1.430897 0.000485 0.0
2.833088 1.208894 0.001381 0.0
4.528955 1.463985 -0.001814 0.0
1.920904 0.966312 0.001496 0.0
2.181753 1.094598 -0.001063 0.0
0.888447 1.275352 0.003010 0.0
4.334122 0.323850 0.004993 0.0
0.431649 0.842607 0.005371 0.0
1.396364 1.097258 -0.000668 0.0
3.084719 2.134795 0.000599 0.0
4.062620 1.089131 -0.005038 0.0
3.520918 0.026001 0.001300 0.0
3.721791 0.861898 -0.000926 0.0
0.677258 0.286341 0.000226 0.0
4.150217 0.001829 0.003478 0.0
3.925700 0.458037 -0.004321 0.0
3.844533 0.495074 0.002641 0.0
1.955439 0.784950 0.000825 0.0
1.513206 1.525684 -0.001621 0.0
1.467466 0.944393 -0.001249 0.0
1.330304 1.603373 -0.002121 0.0
4.338214 1.820110 -0.005039 0.0
1.347879 1.534119 0.004186 0.0
0.435847 2.170521 -0.001901 0.0
4.582152 1.333557 -0.000929 0.0
1.114961 0.443478 -0.001002 0.0
0.232941 2.230859 0.003647 0.0
3.304600 2.198112 0.000381 0.0
3.446894 0.542952 0.000664 0.0
1.633555 1.366363 0.005323 0.0
4.727787 0.165999 -0.002291 0.0
4.171719 1.146390 0.001243 0.0
0.562908 1.707685 0.000849 0.0
4.294536 0.842585 0.000594 0.0
1.478770 0.608731 0.001526 0.0
3.388548 2.172769 -0.005133 0.0
0.300870 1.836233 0.002504 0.0
2.763325 1.367323 0.003118 0.0
3.782576 1.835345 0.000973 0.0
2.726707 1.270737 0.000139 0.0
3.005545 0.878410 -0.000969 0.0
0.813464 2.235948 -0.000169 0.0
1.420912 2.211186 -0.001751 0.0
4.466353 0.008162 0.001197 0.0
4.228942 0.709335 0.000917 0.0
1.799344 1.439926 0.000274 0.0
1.565599 0.391058 -0.001204 0.0
2.324965 1.000196 0.003870 0.0
3.159280 0.089553 0.001489 0.0
2.381804 1.290971 0.001964 0.0
0.910066 0.556485 -0.000346 0.0
1.770666 1.517802 -0.000110 0.0
2.707985 0.859480 0.003196 0.0
0.738874 0.193052 0.000994 0.0
4.456514 1.929275 -0.000849 0.0
1.200022 1.024714 -0.004083 0.0
2.299353 2.054003 -0.000984 0.0
3.515148 2.202280 -0.001071 0.0
1.507848 0.698174 0.000356 0.0
0.764660 0.510217 -0.000047 0.0
4.241117 1.776129 -0.001266 0.0
2.563317 1.693875 -0.002385 0.0
0.772315 1.772939 0.000049 0.0
2.649596 1.559796 0.000758 0.0
4.769467 0.892302 -0.001806 0.0
2.882577 1.030913 -0.000392 0.0
4.358185 0.219043 0.001922 0.0
4.335354 1.990462 0.001977 0.0
3.527310 1.892364 -0.003024 0.0
2.559615 1.142706 -0.000366 0.0
3.894438 0.206705 -0.004558 0.0
0.694712 2.153030 0.001177 0.0
4.491655 1.488491 -0.001656 0.0
4.109295 1.436358 0.001223 0.0
3.914556 0.433255 0.000605 0.0
2.050196 0.590248 -0.000679 0.0
0.215996 0.837081 -0.002488 0.0
1.250609 1.545933 -0.002440 0.0
3.817085 0.923663 0.001359 0.0
4.095681 0.567649 0.001574 0.0
3.852697 2.162872 -0.002285 0.0
3.063745 2.107142 0.001246 0.0
3.114997 1.283055 -0.000991 0.0
4.290919 0.543821 -0.001861 0.0
0.215915 0.050156 0.002415 0.0
1.248706 0.272019 0.004315 0.0
0.096410 1.253817 -0.000590 0.0
3.269977 1.830754 -0.000307 0.0
1.563127 1.225303 -0.004948 0.0
3.186049 1.452262 -0.001224 0.0
3.985983 1.659259 0.001063 0.0
2.078541 0.897397 -0.000515 0.0
2.490953 1.366448 0.000280 0.0
0.676169 0.978277 0.001567 0.0
2.833591 1.070638 -0.001111 0.0
3.428068 1.982382 -0.002578 0.0
0.464830 1.401587 -0.000652 0.0
1.660812 2.193816 -0.004221 0.0
0.090262 1.774788 0.001923 0.0
0.969488 0.115525 0.003457 0.0
3.533455 0.485134 -0.001599 0.0
0.150662 1.396024 -0.000744 0.0
2.460815 2.081688 0.000021 0.0
3.723354 1.828946 -0.002134 0.0
0.385182 1.317124 -0.001654 0.0
2.000967 2.030258 -0.004390 0.0
1.693592 0.733138 0.003211 0.0
2.564984 1.066079 0.000032 0.0
3.496915 0.393676 0.001202 0.0
2.753749 1.452255 -0.004868 0.0
0.066250 0.538396 0.001745 0.0
4.689873 0.888081 -0.001175 0.0
4.056476 1.134096 -0.003265 0.0
2.022975 0.520649 -0.006475 0.0
4.472343 0.049823 -0.001917 0.0
1.331745 0.173642 0.002743 0.0
3.010611 0.249755 0.003665 0.0
4.308793 0.535244 0.000074 0.0
1.700919 1.646572 -0.001653 0.0
3.803098 0.045451 -0.000129 0.0
2.465652 0.370048 0.001221 0.0
4.447841 1.540564 -0.000015 0.0
2.818882 2.099618 -0.001915 0.0
1.885413 2.195516 0.003549 0.0
2.021311 2.117332 -0.002771 0.0
1.946211 1.050636 0.002695 0.0
2.787234 1.181485 -0.005179 0.0
1.795598 0.544597 -0.003685 0.0
2.233464 2.210838 0.001416 0.0
1.372669 1.106027 0.000889 0.0
3.548258 1.740986 -0.000715 0.0
4.277266 1.714102 -0.003743 0.0
3.081634 0.196542 -0.002503 0.0
2.297456 2.116374 -0.005679 0.0
4.422262 1.795983 0.002757 0.0
3.062633 1.587687 -0.000958 0.0
3.102605 0.210914 -0.003272 0.0
1.087441 0.071664 0.003609 0.0
0.832321 1.988250 -0.000867 0.0
2.563331 0.641086 0.000578 0.0
0.073969 2.237835 -0.000907 0.0
1.963331 1.850764 0.002964 0.0
3.393641 2.184369 0.003843 0.0
1.356720 1.672276 -0.000648 0.0
3.610240 1.801136 -0.002746 0.0
3.425776 0.576561 0.002375 0.0
2.547038 0.796060 -0.000587 0.0
2.101819 1.042713 0.002472 0.0
3.579224 0.279013 -0.000122 0.0
2.797530 1.399389 -0.000077 0.0
2.693508 0.971784 0.000335 0.0
0.332774 1.171991 -0.000221 0.0
1.564860 1.345554 -0.000901 0.0
2.652970 0.033371 -0.000357 0.0
0.951103 0.680017 -0.000164 0.0
0.398426 0.666399 -0.001964 0.0
1.383929 1.408002 0.000906 0.0
2.192582 2.082486 0.003970 0.0
0.164232 0.536556 -0.000851 0.0
4.642161 2.155655 -0.000080 0.0
3.160079 0.502986 -0.002183 0.0
0.803794 0.572214 0.000234 0.0
1.135855 1.959104 -0.002221 0.0
3.445911 1.618150 0.000441 0.0
1.569445 0.983455 -0.008670 0.0
3.339843 2.017860 0.003269 0.0
0.965800 2.095889 0.001899 0.0
3.752079 1.579382 0.000886 0.0
4.726020 1.280407 0.001403 0.0
1.928729 0.332513 -0.002887 0.0
3.962186 1.192409 0.003427 0.0
0.641416 0.891405 0.002892 0.0
4.088903 2.232750 -0.001064 0.0
0.891232 2.048909 0.002407 0.0
4.766385 1.185723 -0.003201 0.0
3.347331 1.448521 0.000467 0.0
2.433414 0.530064 -0.003235 0.0
4.262079 1.370808 0.002224 0.0
4.330515 1.118002 -0.000318 0.0
3.326998 0.413108 -0.001498 0.0
2.395794 0.679307 -0.004117 0.0
3.120068 1.786005 -0.000492 0.0
2.251300 0.351343 0.002568 0.0
4.476192 0.184543 0.004420 0.0
3.667157 2.125484 0.001418 0.0
4.124125 1.121480 0.002394 0.0
4.214603 1.431301 0.000874 0.0
2.927681 0.318422 0.004188 0.0
3.919427 0.799433 -0.000232 0.0
0.772430 1.148043 0.000900 0.0
0.136074 1.650231 -0.002175 0.0
2.716704 1.765521 -0.002075 0.0
2.081684 0.215292 -0.003538 0.0
0.916028 1.405631 -0.004305 0.0
3.026613 1.466869 -0.001548 0.0
1.000716 1.088141 -0.001893 0.0
3.122155 0.156587 -0.000271 0.0
2.867140 1.789935 -0.002271 0.0
3.713482 2.052407 0.000992 0.0
0.980292 1.208552 -0.004231 0.0
2.756805 1.641506 0.000095 0.0
1.874735 1.837781 -0.001045 0.0
3.325746 0.413443 -0.000451 0.0
4.225344 0.598341 -0.001294 0.0
0.264419 1.881144 -0.001326 0.0
1.251369 0.377392 0.005639 0.0
0.804213 1.524438 -0.002497 0.0
4.680480 0.453553 -0.000420 0.0
1.024175 1.998825 0.002236 0.0
3.253754 0.649111 0.005497 0.0
4.176631 1.120496 -0.001320 0.0
4.594466 0.464341 -0.004725 0.0
2.078664 1.906418 -0.001399 0.0
0.559245 1.515261 0.000989 0.0
1.320475 2.233438 0.003135 0.0
1.098039 1.600969 0.003144 0.0
0.116422 0.243636 -0.000481 0.0
1.847940 1.299978 0.002811 0.0
2.438938 0.820314 -0.000911 0.0
4.681612 0.190811 -0.000359 0.0
0.741220 1.103221 -0.000019 0.0
3.131591 1.600167 -0.000960 0.0
1.722744 0.992134 -0.003788 0.0
4.386799 0.116532 -0.001733 0.0
0.387102 1.999753 0.001118 0.0
2.771662 1.865843 0.001309 0.0
4.323289 1.794493 0.003563 0.0
1.998644 0.194008 -0.002562 0.0
3.943683 0.263876 -0.000650 0.0
3.151384 1.766472 0.006335 0.0
0.490524 0.980303 0.002304 0.0
0.131349 1.564895 0.003599 0.0
4.658428 1.377618 -0.006366 0.0
0.337468 0.796675 0.001856 0.0
0.128656 0.664618 -0.000449 0.0
1.453114 1.985535 0.001569 0.0
2.495858 0.622960 -0.002544 0.0
4.494514 1.748567 0.001222 0.0
4.004355 2.106431 0.002100 0.0
4.760530 0.505127 -0.001324 0.0
1.291415 1.004764 -0.004822 0.0
4.693638 0.272628 -0.000058 0.0
3.415949 1.844782 0.002068 0.0
2.712505 2.068253 -0.000923 0.0
2.179641 1.413224 0.002005 0.0
3.282899 0.492092 0.001676 0.0
3.661955 0.618079 0.001053 0.0
3.118671 1.190529 -0.001739 0.0
0.587843 1.214752 0.002402 0.0
0.692060 1.873259 -0.000705 0.0
0.527004 1.739897 -0.001252 0.0
1.760828 1.644851 0.000241 0.0
3.267461 1.480307 -0.000447 0.0
4.402441 1.998167 -0.000203 0.0
2.996281 1.929097 0.002288 0.0
0.926788 0.165609 -0.000858 0.0
1.812810 0.713483 -0.001314 0.0
1.166991 1.116858 -0.003451 0.0
3.314995 0.769741 -0.000101 0.0
0.452034 0.405636 0.001916 0.0
0.864013 0.449697 0.003943 0.0
2.737414 1.629775 0.001354 0.0
2.632075 1.870637 0.004290 0.0
1.551179 1.457267 0.002048 0.0
3.419303 0.202353 0.000721 0.0
2.474295 1.187946 0.001690 0.0
2.572348 0.710034 -0.002928 0.0
3.903590 1.803279 -0.003718 0.0
1.811201 1.711925 0.002350 0.0
1.238692 1.630270 -0.003817 0.0
3.665323 0.189688 -0.002069 0.0
0.651097 1.883339 -0.000485 0.0
0.664649 1.395138 -0.002514 0.0
2.189674 1.825697 -0.002034 0.0
2.661920 0.647282 -0.000929 0.0
2.267609 2.090957 0.000903 0.0
4.343572 0.507118 -0.000613 0.0
4.007372 1.511207 -0.006093 0.0
0.519248 1.469247 0.000673 0.0
0.377010 1.140508 0.002473 0.0
3.560313 0.820060 0.000169 0.0
2.521637 1.636072 0.002972 0.0
4.101747 2.069353 0.002173 0.0
3.087658 0.026368 0.001794 0.0
4.072673 0.782343 -0.000068 0.0
3.859498 1.666799 -0.000797 0.0
2.726698 0.514200 0.000966 0.0
0.586372 1.170848 0.001875 0.0
3.864212 0.868254 0.003370 0.0
1.195268 0.503990 0.003229 0.0
0.984691 1.591231 0.001782 0.0
0.519881 1.495432 -0.001931 0.0
0.952785 0.116398 -0.001111 0.0
2.529327 1.807024 -0.003011 0.0
4.640245 1.335115 -0.000448 0.0
4.670346 1.866948 -0.001963 0.0
3.409899 0.235736 0.000133 0.0
2.582362 1.086913 -0.003694 0.0
4.195716 0.836623 0.000770 0.0
1.538610 2.211392 -0.004183 0.0
0.700370 1.771096 0.005004 0.0
0.307154 1.585738 0.000892 0.0
4.099254 0.476668 -0.001705 0.0
4.695514 1.104749 0.000068 0.0
3.073408 2.174952 0.006470 0.0
0.023470 0.921685 -0.005401 0.0
3.774386 0.592600 -0.002560 0.0
4.637734 1.906243 -0.002001 0.0
3.702746 1.532529 -0.000231 0.0
3.813664 1.117432 -0.002616 0.0
4.664240 1.527654 0.001882 0.0
2.049729 0.361292 0.000748 0.0
2.743847 1.387846 0.006520 0.0
1.372238 0.857700 0.001144 0.0
2.059812 1.635859 0.000269 0.0
2.150460 1.802743 -0.001155 0.0
4.611424 0.377933 0.001441 0.0
0.870452 1.127187 -0.000892 0.0
3.804522 1.549827 0.001538 0.0
2.147103 1.791067 0.003312 0.0
4.128540 1.546524 -0.004191 0.0
0.534429 0.434215 0.000194 0.0
2.423681 1.955640 -0.001664 0.0
2.727572 0.558298 0.000315 0.0
4.141562 0.427453 -0.000705 0.0
0.894974 0.007088 -0.001299 0.0
1.000045 0.887914 0.001585 0.0
1.809328 1.646320 -0.002634 0.0
2.461556 0.728914 -0.000256 0.0
0.458678 1.365844 -0.000290 0.0
3.043847 1.179006 -0.003992 0.0
1.287609 1.190439 0.000012 0.0
2.890986 0.119474 0.000267 0.0
0.316185 1.142377 0.002358 0.0
3.584071 1.145193 -0.000871 0.0
0.912899 1.913342 -0.000403 0.0
2.271993 2.226848 0.000744 0.0
2.507434 0.850921 0.000395 0.0
4.753016 0.113977 0.000817 0.0
2.182486 2.037460 0.000324 0.0
1.702684 1.643754 -0.001697 0.0
1.562736 1.129322 0.004343 0.0
3.645272 1.858966 0.001298 0.0
2.371804 1.509409 0.000248 0.0
2.569566 0.537029 0.000665 0.0
0.099441 2.150079 0.001047 0.0
0.152022 1.179315 -0.002433 0.0
1.916899 1.622401 -0.002949 0.0
2.701625 0.496336 -0.002484 0.0
0.717008 1.395277 -0.001287 0.0
1.141443 1.227067 0.002347 0.0
3.163567 1.698361 0.000667 0.0
1.917837 0.848973 0.004119 0.0
1.811577 1.941337 0.000520 0.0
4.056316 2.134329 -0.002141 0.0
4.565986 0.859105 -0.005204 0.0
1.420950 0.613365 -0.003245 0.0
1.078588 0.543409 0.002137 0.0
2.536200 0.902370 -0.000786 0.0
0.554364 2.231647 0.002368 0.0
2.607335 0.115999 -0.001863 0.0
3.038213 0.449963 0.001527 0.0
0.070541 1.329689 -0.000180 0.0
3.939043 1.233683 -0.000256 0.0
3.100899 0.192348 -0.002261 0.0
0.655407 2.127549 -0.001164 0.0
0.500021 2.059285 -0.002644 0.0
4.155473 1.966983 -0.004541 0.0
4.709486 0.518096 0.000128 0.0
3.966464 2.080433 0.000750 0.0
0.120301 1.000856 0.002464 0.0
1.064208 0.525578 0.004520 0.0
2.118212 1.859495 0.000946 0.0
1.212693 1.966607 -0.000906 0.0
3.240526 0.143323 -0.003764 0.0
2.472823 0.997586 0.001797 0.0
3.791973 1.197940 0.002896 0.0
3.693902 0.143582 -0.001090 0.0
0.560459 1.886590 -0.004981 0.0
3.132378 1.681271 0.003515 0.0
3.403804 0.990690 0.003151 0.0
3.604720 1.209388 0.000886 0.0
3.718642 1.441532 -0.001954 0.0
2.605318 0.440124 0.006655 0.0
4.685728 2.157959 -0.000842 0.0
3.540183 0.732509 -0.000479 0.0
0.474434 1.168564 -0.004803 0.0
1.244282 1.027028 -0.001893 0.0
1.449606 0.799318 0.002278 0.0
1.963165 1.321785 -0.000035 0.0
1.555833 0.012767 0.002860 0.0
3.300391 1.869621 0.001657 0.0
2.483253 2.021398 -0.001023 0.0
3.536961 0.240092 -0.001755 0.0
0.370786 0.415420 0.001540 0.0
0.701031 1.122470 0.000332 0.0
0.895057 2.102897 -0.000524 0.0
3.510363 1.690285 0.001950 0.0
4.782040 0.239321 -0.002155 0.0
1.255858 1.655561 -0.001257 0.0
1.965585 0.973360 0.002425 0.0
0.517185 2.230377 -0.002263 0.0
0.371097 2.081177 -0.001163 0.0
2.302315 1.897805 0.000770 0.0
1.898159 0.424939 0.004356 0.0
3.735106 0.977222 -0.001559 0.0
4.337497 2.099918 -0.003399 0.0
0.241795 1.814853 -0.002836 0.0
0.046999 0.044466 -0.000606 0.0
2.714710 1.486099 0.000063 0.0
4.683722 0.024870 0.003007 0.0
4.531236 2.157979 0.000004 0.0
0.400781 1.369101 0.001121 0.0
3.837934 0.641797 0.004822 0.0
1.815757 0.955437 0.005961 0.0
3.121826 0.084062 -0.001657 0.0
0.379034 0.724742 -0.003974 0.0
3.510203 0.375604 0.002567 0.0
1.323112 0.729442 -0.001441 0.0
4.260998 1.658360 -0.003444 0.0
4.453980 0.190016 -0.002327 0.0
2.339793 1.396819 -0.001818 0.0
1.050731 0.240248 -0.006715 0.0
2.864229 1.865252 -0.003332 0.0
1.308225 1.170689 -0.002310 0.0
1.384125 1.267807 -0.001396 0.0
0.976626 1.944405 -0.003638 0.0
0.904359 0.398954 0.001942 0.0
2.282755 1.173765 0.001257 0.0
1.595049 1.238428 -0.008179 0.0
1.100507 0.756866 -0.000530 0.0
0.409047 0.404637 0.000765 0.0
0.793729 2.075483 -0.001363 0.0
2.884328 1.661548 0.002242 0.0
2.687708 1.357920 -0.001390 0.0
1.142795 1.468384 -0.000132 0.0
0.620081 0.940499 0.001296 0.0
4.634182 1.514605 0.005369 0.0
1.455171 0.928663 0.002773 0.0
1.770305 1.250872 -0.001600 0.0
3.364368 0.092578 -0.002269 0.0
1.902076 2.168456 0.006231 0.0
3.028377 0.883189 0.000774 0.0
3.375994 1.422512 0.002014 0.0
2.550210 1.445861 0.000431 0.0
3.254645 1.803013 -0.001377 0.0
0.895526 0.688979 -0.003430 0.0
2.964415 2.218486 -0.004865 0.0
1.889650 1.784049 -0.004228 0.0
1.677263 1.739056 -0.003109 0.0
2.022607 1.697820 0.004661 0.0
0.441144 0.806639 -0.002655 0.0
1.834434 1.454817 0.000221 0.0
4.803606 1.954313 0.000920 0.0
0.516208 1.232785 0.001738 0.0
4.321855 1.192875 -0.001300 0.0
3.923656 0.663126 -0.000502 0.0
4.291466 0.594203 -0.001533 0.0
1.355519 2.209117 -0.002944 0.0
2.644932 1.618522 0.004133 0.0
3.353047 2.182608 0.003379 0.0
4.797227 1.248804 -0.000328 0.0
1.442081 1.409418 -0.001622 0.0
1.623671 1.329803 -0.001704 0.0
3.801719 1.412543 0.001029 0.0
3.603016 0.323662 0.002505 0.0
3.573085 1.455716 -0.004921 0.0
3.725101 0.932400 0.001798 0.0
2.038050 1.432312 -0.004418 0.0
2.331521 0.160256 -0.000256 0.0
3.982098 0.862080 0.002377 0.0
1.517596 2.055595 -0.002063 0.0
4.054574 0.693405 -0.000499 0.0
1.381465 1.822966 -0.003587 0.0
0.762956 1.720644 0.003523 0.0
3.786504 1.460387 0.001139 0.0
1.122668 0.150198 -0.004196 0.0
4.186614 0.648418 -0.003760 0.0
2.309209 0.877353 0.002691 0.0
3.081575 2.076600 -0.003112 0.0
4.209797 0.402533 0.002198 0.0
0.546279 0.749424 0.005520 0.0
2.934500 0.182368 -0.001624 0.0
1.012495 0.952078 -0.005908 0.0
3.742161 1.033287 0.000119 0.0
4.639418 0.415771 -0.001242 0.0
1.793609 1.738334 0.000983 0.0
4.493235 0.193993 0.001230 0.0
0.760535 2.227436 -0.001528 0.0
3.045849 1.641720 0.001112 0.0
0.691252 0.513518 -0.001590 0.0
1.242155 0.310412 -0.003269 0.0
1.496264 1.062311 0.001855 0.0
0.494085 0.918117 -0.001764 0.0
3.625500 1.218817 0.000222 0.0
0.662738 1.221171 -0.002941 0.0
4.452730 1.806872 0.001127 0.0
0.104426 2.159256 -0.001625 0.0
4.043875 0.845167 0.001446 0.0
2.781942 0.463866 0.000855 0.0
0.943149 1.292952 -0.000496 0.0
4.545236 2.106782 0.002777 0.0
0.555401 1.979783 -0.003297 0.0
3.642548 1.281149 -0.001249 0.0
1.941587 1.469401 -0.000301 0.0
4.308410 1.542331 -0.000155 0.0
1.562429 1.526944 -0.001118 0.0
3.042731 1.950425 -0.001493 0.0
2.540019 0.248262 0.001311 0.0
2.722169 1.042052 0.000771 0.0
1.812240 0.327862 -0.001491 0.0
4.351755 1.922316 0.001737 0.0
1.607526 1.478416 -0.002044 0.0
0.458050 1.002931 -0.000332 0.0
1.914556 0.914054 0.000880 0.0
0.954580 1.375285 0.000488 0.0
2.425236 2.146924 -0.001450 0.0
0.526831 2.100250 0.000124 0.0
2.608552 1.604660 0.003363 0.0
3.591939 1.164444 0.000491 0.0
4.787445 1.629615 -0.001457 0.0
3.705645 0.301619 0.003269 0.0
1.383685 0.919855 0.003982 0.0
1.984868 1.898211 -0.000538 0.0
2.471156 0.888472 -0.000703 0.0
1.957310 1.164152 -0.000484 0.0
4.495999 0.224104 0.002163 0.0
4.395226 0.075999 0.002228 0.0
2.194786 0.812128 -0.001771 0.0
3.931566 0.026133 -0.001785 0.0
1.147708 1.306143 0.001239 0.0
2.126094 0.347111 -0.003637 0.0
0.101982 1.691527 0.001853 0.0
0.712818 1.733976 0.003237 0.0
1.053718 0.151021 0.002411 0.0
0.469050 1.058206 0.001699 0.0
2.963443 1.238968 -0.002645 0.0
2.494619 0.667836 -0.001231 0.0
1.298930 1.294506 0.002655 0.0
2.412860 2.142057 -0.000208 0.0
2.252286 1.772603 -0.000349 0.0
4.780452 0.789164 -0.002330 0.0
1.226094 2.168122 -0.001613 0.0
2.919836 0.894668 -0.003196 0.0
2.705080 1.067906 0.003759 0.0
4.054393 0.512356 -0.001621 0.0
0.497363 1.272075 -0.003569 0.0
2.709378 1.162313 -0.000209 0.0
1.152475 1.981836 -0.000130 0.0
2.634530 0.796417 0.001186 0.0
0.575601 1.717440 -0.001156 0.0
3.182976 1.356814 0.000737 0.0
2.751458 0.772588 -0.001123 0.0
2.462237 0.187098 0.003423 0.0
2.564857 1.552646 0.000518 0.0
1.437659 0.190205 0.000620 0.0
1.649762 2.033064 0.003756 0.0
0.881247 0.137030 0.000809 0.0
2.427042 1.349593 -0.006554 0.0
0.997367 0.168835 0.006532 0.0
1.019349 0.365359 -0.000152 0.0
4.116585 0.682698 -0.000688 0.0
2.343752 0.462055 -0.002943 0.0
0.622258 0.136122 0.002810 0.0
3.056272 1.992234 -0.002959 0.0
0.125592 0.443069 0.003552 0.0
2.498517 1.121312 0.003343 0.0
0.854419 1.653982 -0.001972 0.0
3.204696 1.360335 -0.000548 0.0
0.773960 1.657310 0.000125 0.0
3.334992 1.443391 0.003996 0.0
0.940021 1.292607 0.001857 0.0
1.782944 0.358135 0.002671 0.0
1.883080 2.079044 0.004472 0.0
1.423105 0.308309 0.002863 0.0
1.701935 0.666320 0.001818 0.0
0.214600 0.327130 0.001114 0.0
4.420107 1.726076 -0.001415 0.0
4.587281 0.025624 0.002868 0.0
4.143650 1.634388 -0.002787 0.0
0.537680 0.457421 -0.000695 0.0
1.796561 1.570003 0.001225 0.0
4.392277 1.872464 -0.000360 0.0
1.330085 0.831000 -0.001579 0.0
3.100596 0.866743 -0.002801 0.0
3.212642 0.224306 0.001833 0.0
2.932467 1.187160 0.003389 0.0
1.538436 2.229462 -0.001735 0.0
0.692805 1.286136 -0.001292 0.0
2.644835 1.569050 -0.005368 0.0
1.617132 1.211946 -0.001281 0.0
0.369230 2.066024 -0.000136 0.0
2.877597 0.052914 0.002162 0.0
2.786723 2.087144 0.003741 0.0
4.386766 0.975319 -0.005421 0.0
3.530400 2.035412 -0.000018 0.0
4.380689 1.947714 -0.003184 0.0
1.367183 1.664321 0.005270 0.0
0.949036 1.457041 -0.002900 0.0
4.636329 1.653113 -0.002639 0.0
0.287787 0.149261 0.000240 0.0
4.534021 0.443723 0.004872 0.0
1.486004 1.208763 -0.003192 0.0
4.320409 1.748552 -0.004211 0.0
1.064272 1.642505 0.002278 0.0
2.811056 1.604231 -0.002391 0.0
2.285577 1.765738 0.000707 0.0
0.816679 1.893257 0.001918 0.0
4.670894 1.583461 0.002567 0.0
1.572494 0.136887 0.000984 0.0
3.466791 1.748512 -0.000124 0.0
2.627979 1.021432 0.002703 0.0
1.950335 1.330855 0.006458 0.0
1.515192 0.049325 -0.001021 0.0
2.817226 0.909833 0.001337 0.0
3.116340 0.126132 0.003495 0.0
2.891210 0.402148 -0.002181 0.0
4.228982 0.741645 0.001600 0.0
4.746158 0.752624 0.001311 0.0
3.883069 0.442131 0.002001 0.0
0.593532 1.481467 -0.000511 0.0
1.633308 1.714872 -0.000103 0.0
2.103807 0.167204 -0.000892 0.0
4.167132 0.101438 -0.001118 0.0
3.647193 0.237252 0.001444 0.0
2.150510 0.379975 -0.000336 0.0
4.677538 0.105483 -0.002888 0.0
1.519963 1.560577 0.003324 0.0
4.064921 0.310730 -0.002392 0.0
1.252336 1.877564 0.000276 0.0
2.381455 0.048728 -0.005092 0.0
4.549062 1.934678 -0.001810 0.0
1.212082 1.400993 -0.004500 0.0
3.683549 0.295527 0.000537 0.0
1.336418 0.886738 -0.000019 0.0
3.246817 1.584695 -0.000290 0.0
3.509794 2.157325 -0.004234 0.0
4.334898 1.197310 -0.001141 0.0
4.300996 2.021431 -0.004427 0.0
4.124969 0.394162 0.002621 0.0
0.711070 0.749037 0.000370 0.0
0.913575 1.695151 -0.000459 0.0
0.353314 0.357376 0.001078 0.0
1.134004 0.258761 0.003348 0.0
2.345177 0.059333 0.002652 0.0
2.715650 0.352101 0.004889 0.0
2.647818 0.583464 -0.000291 0.0
3.896295 1.554691 -0.003458 0.0
3.815844 0.746004 -0.002996 0.0
3.853937 1.402256 -0.002124 0.0
1.749503 0.819576 0.001221 0.0
0.793308 1.704923 -0.003112 0.0
4.505719 2.014541 0.002571 0.0
2.572449 0.649431 -0.000510 0.0
0.645742 1.019793 0.002468 0.0
3.445286 1.515682 -0.001934 0.0
4.470967 1.427235 0.001636 0.0
4.696706 1.816970 -0.000965 0.0
2.511806 1.513995 -0.001382 0.0
0.328263 1.114489 0.005180 0.0
1.237206 0.594724 0.001525 0.0
0.539678 2.068013 0.002906 0.0
0.883912 1.456928 -0.003449 0.0
2.500799 0.714934 0.002107 0.0
4.559657 0.967093 -0.002560 0.0
2.550292 1.295402 -0.002363 0.0
3.239846 0.073389 0.002923 0.0
2.876982 1.551399 -0.002151 0.0
4.782883 2.038363 0.000945 0.0
2.393602 0.052123 0.004059 0.0
3.588423 1.085617 -0.002110 0.0
1.955918 1.997678 -0.000030 0.0
3.016424 0.807260 0.000198 0.0
2.354536 1.182462 -0.003792 0.0
4.606099 1.919151 0.003421 0.0
0.082713 1.201339 0.001710 0.0
3.794044 0.568850 -0.000354 0.0
0.484977 1.160044 0.002045 0.0
2.740170 2.046177 -0.000532 0.0
2.395686 0.870325 0.001741 0.0
3.463987 1.603591 0.000476 0.0
2.150098 1.538696 0.005218 0.0
4.258454 0.537868 -0.002546 0.0
2.712963 0.923225 0.002286 0.0
4.127874 0.057436 0.002564 0.0
2.420873 0.881232 0.000896 0.0
0.066371 0.263010 0.002751 0.0
3.709693 1.657913 -0.002211 0.0
1.171039 1.679973 0.003416 0.0
1.745620 0.485031 0.000958 0.0
0.397199 1.886872 -0.001792 0.0
2.347731 0.812291 -0.003184 0.0
0.619623 1.430021 0.004262 0.0
2.535811 0.182657 0.002902 0.0
3.869167 1.816800 -0.000401 0.0
4.394939 0.156756 -0.000461 0.0
0.975427 1.977172 -0.000866 0.0
4.756353 1.556368 -0.000445 0.0
2.010217 1.200264 0.002751 0.0
3.460356 0.413570 0.001017 0.0
1.265073 0.353088 0.000321 0.0
3.930613 1.830750 0.000035 0.0
1.415489 1.156593 0.000160 0.0
3.716361 0.417420 -0.001618 0.0
0.810359 1.766777 -0.003613 0.0
0.546083 2.050238 -0.001576 0.0
1.121811 1.234716 -0.001386 0.0
3.809347 0.444700 -0.000135 0.0
1.237593 1.784347 0.005490 0.0
2.847285 2.049193 0.000584 0.0
1.185062 1.632446 0.000717 0.0
0.844246 1.978026 -0.005025 0.0
1.121357 1.808155 -0.002910 0.0
3.077093 1.551175 -0.000945 0.0
1.074860 1.010951 0.001272 0.0
1.478709 1.130454 0.000535 0.0
2.124267 0.526518 -0.001403 0.0
1.947915 2.100090 0.001644 0.0
0.034810 1.691928 0.004012 0.0
3.007884 0.219515 -0.001721 0.0
3.139923 1.673154 -0.004260 0.0
3.482807 0.127930 -0.001167 0.0
4.492615 1.334467 0.000797 0.0
0.313717 0.100181 0.001446 0.0
3.548076 0.086932 -0.000255 0.0
2.937482 1.884995 -0.002459 0.0
3.937731 0.049412 0.002236 0.0
1.870533 1.331994 0.002395 0.0
3.604532 1.234012 0.001690 0.0
1.448974 1.313418 0.000849 0.0
2.985818 1.373138 -0.000221 0.0
2.810658 1.349179 0.002069 0.0
4.460997 0.287370 -0.000900 0.0
0.611990 0.435213 -0.002909 0.0
0.779296 0.903186 -0.002473 0.0
0.550920 0.816433 0.001877 0.0
0.974118 0.233331 -0.000219 0.0
4.207315 0.911408 -0.002269 0.0
2.430133 0.425047 -0.001335 0.0
2.536448 0.805475 -0.001900 0.0
3.486820 0.006192 -0.002269 0.0
3.622890 1.115416 0.001280 0.0
4.292516 1.129872 0.003451 0.0
3.036410 0.429163 -0.004622 0.0
3.439064 1.685168 0.004255 0.0
1.768121 1.430967 0.002519 0.0
1.970076 1.982837 -0.002857 0.0
4.651313 1.964996 -0.000385 0.0
0.444193 1.206508 0.003221 0.0
4.477352 1.331534 0.004955 0.0
4.112315 1.873652 0.000527 0.0
0.952366 1.346616 -0.002411 0.0
1.528678 0.782350 0.000252 0.0
0.408682 2.042492 -0.000312 0.0
3.315933 1.771098 0.000840 0.0
0.739730 0.565391 0.000440 0.0
2.005869 1.251424 -0.000378 0.0
4.351241 1.269552 -0.002461 0.0
1.583975 0.308452 -0.000929 0.0
2.472876 1.550942 -0.001952 0.0
2.452008 0.693311 -0.001133 0.0
1.224566 1.529144 -0.001930 0.0
2.007744 1.149514 -0.001519 0.0
4.152489 1.815482 -0.003452 0.0
3.346689 1.306370 0.002254 0.0
0.941177 0.041427 -0.003187 0.0
1.680115 0.693016 0.004297 0.0
3.423284 0.290689 -0.004490 0.0
2.759948 0.382249 -0.000403 0.0
0.635314 0.957728 0.000074 0.0
1.396806 0.034150 -0.001201 0.0
3.568282 0.093306 0.001313 0.0
2.902783 1.438066 0.000154 0.0
3.758752 1.642886 -0.000468 0.0
0.538408 0.951528 -0.001950 0.0
0.240311 0.505030 0.001455 0.0
3.877538 0.278489 0.002660 0.0
4.050736 1.877027 0.001615 0.0
3.595437 1.179113 -0.003211 0.0
3.891265 1.260821 0.004180 0.0
3.757938 1.382436 0.000528 0.0
1.697354 0.013199 -0.003625 0.0
3.986203 1.628886 -0.000286 0.0
3.568239 0.744588 0.000958 0.0
4.554243 0.104331 0.000501 0.0
2.093102 0.692131 -0.001189 0.0
1.526735 0.463647 -0.001150 0.0
0.924240 0.789323 0.002480 0.0
4.668436 0.698642 0.000840 0.0
1.204103 1.403535 0.001192 0.0
3.599742 1.781562 0.004402 0.0
1.742247 1.453938 0.001298 0.0
2.025576 1.135758 0.000995 0.0
0.315802 1.128067 0.000484 0.0
0.618571 1.928920 -0.000933 0.0
3.751871 1.302122 0.003817 0.0
3.090793 2.136676 0.001598 0.0
0.945896 1.097440 0.000309 0.0
1.466889 1.520629 0.004969 0.0
0.106259 1.321247 0.000003 0.0
3.260652 1.387490 0.004233 0.0
0.479202 0.265232 -0.000145 0.0
0.249308 0.807454 -0.000647 0.0
2.625781 0.125047 -0.001248 0.0
4.788544 0.782611 -0.001079 0.0
3.382581 0.409789 0.002580 0.0
1.161032 0.787649 0.001285 0.0
1.751798 1.263331 0.003099 0.0
2.712059 1.979126 0.001058 0.0
2.113997 1.908646 0.004255 0.0
1.191626 0.825158 0.002158 0.0
1.181461 0.728795 -0.002436 0.0
2.937045 1.526857 0.000507 0.0
1.985030 2.146556 -0.001444 0.0
0.661068 0.312503 -0.000750 0.0
4.034973 0.958328 0.000837 0.0
1.124705 0.388395 0.000586 0.0
1.080949 1.310323 0.003593 0.0
2.260815 1.600549 0.003534 0.0
2.222308 1.679174 -0.000759 0.0
1.473911 0.909620 0.000243 0.0
1.963698 0.968596 0.002227 0.0
1.936683 0.414109 -0.000297 0.0
4.091716 1.205381 -0.000137 0.0
0.214079 0.562569 0.002953 0.0
1.593373 0.068204 0.002395 0.0
4.588922 0.920083 0.001060 0.0
3.934899 1.813149 -0.000923 0.0
2.478771 0.852071 -0.001481 0.0
2.565663 0.923607 0.001690 0.0
4.695510 0.574797 0.002412 0.0
3.043171 0.421133 0.000577 0.0
2.072412 0.296229 -0.004731 0.0
1.468540 1.191779 -0.003317 0.0
2.871615 0.329678 0.004283 0.0
4.799507 1.098319 0.000107 0.0
2.609457 1.810664 0.001503 0.0
1.238274 1.663054 -0.000355 0.0
3.630679 1.614814 0.000796 0.0
3.617617 1.833737 0.001012 0.0
0.686011 1.216217 0.000737 0.0
1.637429 0.744491 0.004308 0.0
1.915167 0.780009 0.001473 0.0
4.477128 1.628497 -0.001631 0.0
1.775725 0.439341 0.000659 0.0
0.679827 1.250807 0.000569 0.0
4.052484 1.749706 0.000878 0.0
4.279950 1.628940 0.002445 0.0
3.644452 1.713824 -0.000701 0.0
3.603343 0.061008 -0.000159 0.0
2.298104 0.849458 0.001792 0.0
0.259575 0.828906 0.002139 0.0
0.333977 1.237514 0.001912 0.0
2.982417 0.918013 -0.001893 0.0
0.567879 1.743941 -0.000689 0.0
1.066628 1.821775 -0.004251 0.0
1.157074 1.150466 0.002875 0.0
1.300095 0.041238 -0.002544 0.0
2.293699 1.331282 0.002027 0.0
2.177923 2.217741 0.007642 0.0
2.232801 0.178877 -0.004838 0.0
1.031001 1.356787 0.000048 0.0
4.116916 1.644356 -0.000690 0.0
1.872279 1.300582 -0.002118 0.0
4.008258 0.465850 -0.000425 0.0
0.390276 0.716477 0.003973 0.0
1.705107 0.994961 0.002442 0.0
3.962711 1.053411 0.003455 0.0
1.147620 0.885503 -0.001781 0.0
1.092569 1.340533 0.003223 0.0
3.589099 0.334406 0.001220 0.0
2.356227 1.350359 0.003631 0.0
1.357052 0.244972 0.000849 0.0
0.725653 1.336711 0.000711 0.0
4.058290 1.918670 -0.001851 0.0
3.442972 1.524124 -0.001199 0.0
0.040858 1.739668 0.002527 0.0
2.388051 1.868097 -0.001778 0.0
1.544524 0.388569 0.000417 0.0
1.460123 1.758547 -0.002117 0.0
3.860619 0.830671 0.002360 0.0
0.168500 0.842770 0.000951 0.0
2.190902 1.597319 0.001901 0.0
3.427799 1.842202 0.002053 0.0
0.263261 0.001151 0.003928 0.0
4.052764 2.183772 0.002457 0.0
3.206597 0.235262 0.000179 0.0
0.126834 1.221546 -0.001230 0.0
1.540077 0.555518 -0.002944 0.0
0.103467 0.883170 0.000259 0.0
1.509399 2.015423 -0.002029 0.0
0.384815 1.162733 0.002316 0.0
2.877007 0.048210 0.001998 0.0
2.790718 0.421775 0.001608 0.0
1.343245 0.104631 0.000559 0.0
3.385577 2.190201 0.000368 0.0
1.458498 0.787968 -0.002019 0.0
0.386393 2.200141 0.002435 0.0
3.602411 0.385960 0.002002 0.0
0.554702 1.751397 0.004779 0.0
0.697556 0.911729 -0.000302 0.0
3.944515 0.553661 0.005179 0.0
1.977928 0.032929 -0.005325 0.0
1.266579 1.979741 0.000939 0.0
2.630987 0.885105 0.003485 0.0
3.258417 0.012783 0.004341 0.0
2.860386 1.352520 -0.001067 0.0
3.166710 0.210142 0.002741 0.0
3.088462 1.629539 -0.002909 0.0
2.276879 0.150645 -0.000941 0.0
2.700763 1.014972 0.004768 0.0
1.858744 1.823512 0.000328 0.0
2.939977 0.216566 -0.002377 0.0
1.264761 0.044612 -0.001103 0.0
4.775761 1.213188 0.001838 0.0
1.663493 0.077754 -0.004903 0.0
2.998149 1.809157 -0.002611 0.0
2.731564 0.481738 0.006170 0.0
2.310937 1.003994 -0.003673 0.0
0.075216 0.484787 0.002582 0.0
2.297960 0.269564 0.000175 0.0
2.636598 1.373170 -0.003790 0.0
0.099367 1.617139 -0.000228 0.0
1.848610 0.421811 0.000094 0.0
3.247743 0.615633 -0.000807 0.0
4.159989 2.167245 0.001960 0.0
2.099038 0.470049 0.000123 0.0
0.009256 1.383606 -0.000206 0.0
3.463426 1.700627 0.001001 0.0
