0.44444448 1.61038087 0.00071033 0.00000000
3.61253480 0.25282869 -0.00396808 0.00000000
0.21478831 1.34372575 -0.00321814 0.00000000
2.84751786 0.31315098 0.00237835 0.00000000
2.31925720 0.62375150 0.00276192 0.00000000
1.83523368 0.52192167 -0.00020682 0.00000000
2.29393750 0.54369466 -0.00224543 0.00000000
1.70448100 0.95711590 0.00203194 0.00000000
1.96393493 1.24147424 0.00039952 0.00000000
1.49053789 1.33639725 0.00392442 0.00000000
4.17084944 1.68710454 0.00324260 0.00000000
2.06236743 1.82130995 0.00189399 0.00000000
1.96655039 0.61897703 0.00015659 0.00000000
0.15075854 0.82045671 0.00362112 0.00000000
3.42592623 0.29090227 -0.00118407 0.00000000
0.76593955 1.87072948 0.00532951 0.00000000
2.59582109 1.34765666 0.00189266 0.00000000
1.70050918 1.03983663 -0.00055422 0.00000000
0.72466439 1.31450480 0.00452491 0.00000000
0.93059509 1.00465961 0.00223233 0.00000000
3.33860609 0.28282926 -0.00267966 0.00000000
4.15329753 1.62199850 -0.00093005 0.00000000
1.05865532 1.63064841 -0.00416544 0.00000000
2.74622050 0.42097318 0.00567409 0.00000000
2.38128250 1.27928914 -0.00139680 0.00000000
3.18701810 0.20608628 0.00075014 0.00000000
1.07559154 1.78812177 -0.00124758 0.00000000
2.95358431 0.43108620 -0.00158978 0.00000000
0.49171523 0.95547425 -0.00382753 0.00000000
3.40110998 0.84654862 0.00304168 0.00000000
0.38401097 1.39866436 -0.00046968 0.00000000
4.36492086 1.21166198 0.00023402 0.00000000
1.15022416 0.43754985 -0.00491389 0.00000000
3.63350734 0.35344423 -0.00275364 0.00000000
1.37229569 1.14509882 -0.00385825 0.00000000
2.02961827 1.10182822 0.00139925 0.00000000
3.16245549 0.57425024 0.00088092 0.00000000
2.62180678 1.25817797 -0.00046023 0.00000000
1.42829506 1.90219562 0.00400550 0.00000000
4.23256184 1.60866934 0.00042698 0.00000000
1.61336152 0.03192129 0.00154358 0.00000000
3.76219838 0.29469652 -0.00173811 0.00000000
2.41425929 0.85603806 -0.00085672 0.00000000
2.35304794 0.39996964 0.00314587 0.00000000
1.31756262 1.11854052 -0.00241384 0.00000000
3.02990063 0.60275409 -0.00190735 0.00000000
2.22038296 0.77755583 0.00283093 0.00000000
0.78696005 0.62221952 0.00462873 0.00000000
1.54447731 1.86680116 0.00091416 0.00000000
1.91204094 0.46765402 0.00368568 0.00000000
0.29628108 1.60528240 -0.00553516 0.00000000
1.55014406 0.36003036 -0.00433906 0.00000000
3.00316185 1.66443869 -0.00201202 0.00000000
1.07790905 0.97140959 -0.00493953 0.00000000
0.91819214 0.35134380 0.00207736 0.00000000
4.04386782 0.10403259 0.00045010 0.00000000
3.68370325 0.77965790 0.00404194 0.00000000
3.34749517 1.18838273 -0.00150829 0.00000000
1.12775731 0.80720621 0.00303708 0.00000000
0.88009298 1.56215871 0.00007356 0.00000000
0.56059423 0.06093154 -0.00419005 0.00000000
0.00516529 0.97952175 -0.00021353 0.00000000
0.23206229 0.61414376 0.00442693 0.00000000
1.93728818 0.95196128 -0.00080315 0.00000000
3.27423636 1.32063116 0.00200908 0.00000000
2.64054505 1.34095450 -0.00130093 0.00000000
3.78191023 0.42070122 -0.00170988 0.00000000
1.28630873 1.76609775 0.00203341 0.00000000
2.12351219 0.94493160 -0.00199857 0.00000000
0.96698298 0.93823088 0.00225123 0.00000000
3.03124668 0.32821097 -0.00227690 0.00000000
3.60860815 0.78613306 0.00283169 0.00000000
2.49088571 1.42130287 0.00015517 0.00000000
3.08408751 0.35811352 0.00099472 0.00000000
1.01884219 0.06706754 -0.00347581 0.00000000
3.35404050 1.24494226 0.00452542 0.00000000
3.37420273 1.31857564 0.00126728 0.00000000
1.17194958 0.88270974 -0.00223092 0.00000000
4.04182278 1.41137005 0.00043375 0.00000000
0.44260806 0.23437071 0.00367668 0.00000000
1.88287061 0.12720631 0.00388809 0.00000000
0.01696481 1.32489068 -0.00227182 0.00000000
2.47896820 1.61155147 -0.00208060 0.00000000
0.66581077 0.15508418 0.00120123 0.00000000
2.11740285 0.34724482 0.00382403 0.00000000
0.92784840 0.85589079 0.00004155 0.00000000
4.38661204 1.28968549 0.00497903 0.00000000
1.61471609 1.61832337 0.00312765 0.00000000
2.32920118 0.66580353 0.00270604 0.00000000
3.05923330 0.63372050 -0.00142381 0.00000000
2.67770660 0.38687150 -0.00216154 0.00000000
0.47565766 0.85659819 -0.00084019 0.00000000
3.25190291 1.77340112 -0.00045850 0.00000000
1.49077069 0.93960400 0.00203121 0.00000000
1.80871384 0.45976661 0.00577234 0.00000000
3.04096296 0.05536904 -0.00108761 0.00000000
1.26495205 1.74048626 0.00009630 0.00000000
4.10399654 1.38781187 -0.00182013 0.00000000
2.93124398 0.50623827 -0.00017314 0.00000000
1.83280641 0.88988553 0.00061953 0.00000000
3.53612842 0.33832748 0.00120601 0.00000000
4.45705850 1.53014398 0.00056523 0.00000000
2.94248368 0.70973412 0.00536304 0.00000000
3.76728155 1.66019850 0.00314833 0.00000000
3.66832243 0.28210671 0.00295699 0.00000000
2.32486360 1.91139187 0.00189049 0.00000000
2.36412974 0.78004570 -0.00322460 0.00000000
1.04095692 0.22209647 0.00316699 0.00000000
1.55336452 1.33340235 0.00122088 0.00000000
3.82002441 1.77257541 -0.00064079 0.00000000
3.34313998 1.50359502 -0.00425512 0.00000000
4.13142460 0.15826506 0.00217354 0.00000000
2.84595463 0.15073223 -0.00263943 0.00000000
0.98974292 1.80971915 -0.00012357 0.00000000
4.05350781 1.90873248 0.00531383 0.00000000
3.08999364 0.13697310 -0.00171753 0.00000000
1.91015816 0.67784245 0.00603916 0.00000000
0.58016609 1.26426847 -0.00010144 0.00000000
3.42946157 0.05140326 0.00082195 0.00000000
3.66377534 1.41028433 -0.00018848 0.00000000
3.48302361 1.13613054 -0.00230732 0.00000000
3.94093052 0.88622264 -0.00310181 0.00000000
3.17656171 1.60704575 0.00036495 0.00000000
0.77667851 1.58235893 -0.00066937 0.00000000
2.17772953 0.81620600 0.00206293 0.00000000
2.20002744 1.88997814 -0.00168468 0.00000000
1.91503807 1.15374313 0.00080691 0.00000000
4.39609942 1.35502514 -0.00223264 0.00000000
1.20344752 0.81635962 0.00117792 0.00000000
3.86702251 0.32936420 -0.00271381 0.00000000
1.19918647 1.48020132 -0.00289058 0.00000000
3.60358672 1.34087157 0.00352818 0.00000000
2.89852523 0.68832553 -0.00369396 0.00000000
4.30081595 0.04145600 -0.00244142 0.00000000
2.47617615 0.08535757 0.00198525 0.00000000
1.11185186 1.08874636 0.00084151 0.00000000
3.94321957 0.78476699 0.00102449 0.00000000
3.68778098 0.79307791 -0.00367410 0.00000000
0.32561312 0.17008695 0.00350958 0.00000000
1.50660743 0.92054106 -0.00110604 0.00000000
1.36089417 0.19648518 0.00042515 0.00000000
3.73950828 0.16610071 -0.00326493 0.00000000
2.34059435 1.86465402 -0.00116850 0.00000000
3.72739279 1.55955985 -0.00107348 0.00000000
2.68631263 0.53180598 0.00240716 0.00000000
0.88062007 1.76988896 0.00294175 0.00000000
0.08383692 1.32961129 -0.00042854 0.00000000
3.12671834 1.82301223 0.00010028 0.00000000
4.13300959 1.44430466 -0.00398134 0.00000000
2.00626841 0.17374821 -0.00125386 0.00000000
2.46320004 1.63154936 0.00033885 0.00000000
0.68871972 0.69116383 -0.00184498 0.00000000
1.28654229 1.90573028 0.00485990 0.00000000
0.12906754 0.42963606 -0.00289188 0.00000000
2.02917114 0.03533704 -0.00464684 0.00000000
1.17963201 0.68056493 -0.00151551 0.00000000
0.36718409 0.01805541 -0.00024056 0.00000000
4.07983120 1.62661334 0.00165846 0.00000000
2.04917027 0.02262513 -0.00192404 0.00000000
4.10364387 0.83406348 -0.00108233 0.00000000
3.33502621 1.82714549 -0.00005142 0.00000000
3.18917429 1.70365252 0.00216640 0.00000000
1.83467536 0.88821758 -0.00182181 0.00000000
4.15187372 0.04221473 -0.00394932 0.00000000
0.62535300 0.26399330 -0.00037413 0.00000000
3.29902572 0.07061185 0.00327593 0.00000000
3.12044457 1.47605658 0.00097205 0.00000000
1.21275758 1.34157281 -0.00381965 0.00000000
0.90152927 1.11177929 0.00124336 0.00000000
1.43767421 0.60486171 0.00365415 0.00000000
4.13425807 1.02739438 -0.00194503 0.00000000
2.29404519 0.02454816 -0.00053305 0.00000000
0.35489957 0.31723369 -0.00226424 0.00000000
1.99814683 1.23863600 0.00079262 0.00000000
1.49705018 1.05642008 -0.00270643 0.00000000
0.89734665 1.30819249 0.00321665 0.00000000
3.13889100 1.64906847 0.00228244 0.00000000
0.27589187 1.57019790 0.00032401 0.00000000
1.23901567 1.29382929 -0.00093262 0.00000000
2.31509673 1.71747470 0.00160728 0.00000000
1.75583384 1.24853521 -0.00182787 0.00000000
3.75268212 0.70286462 -0.00027419 0.00000000
3.19592225 0.48310981 0.00484757 0.00000000
1.68894879 0.42636426 0.00081298 0.00000000
2.56050427 1.37854614 0.00327862 0.00000000
3.64427481 1.05074495 0.00070320 0.00000000
3.69700791 0.23507573 0.00199029 0.00000000
1.58988873 1.20407390 0.00085349 0.00000000
0.33207370 0.17093660 -0.00232976 0.00000000
0.13724103 0.56507418 -0.00101007 0.00000000
0.42651019 0.94450891 0.00417603 0.00000000
1.53699310 1.42546596 0.00529816 0.00000000
3.34170441 0.74685389 0.00387409 0.00000000
0.57017435 0.36357660 0.00171923 0.00000000
4.32051486 1.04159168 0.00184672 0.00000000
0.33380679 1.73984817 0.00021283 0.00000000
2.74535839 1.91011609 0.00525382 0.00000000
3.98088464 1.42203672 -0.00124796 0.00000000
4.34824178 0.17823548 -0.00066793 0.00000000
2.54613999 0.63286080 0.00706114 0.00000000
0.13192228 1.47649204 -0.00120614 0.00000000
0.84052455 0.32668135 -0.00022708 0.00000000
2.52616893 0.02375331 0.00318100 0.00000000
1.69313627 1.47759815 0.00155487 0.00000000
0.26064865 0.17230220 -0.00356176 0.00000000
2.79360257 1.43886194 -0.00035819 0.00000000
2.61535945 1.19039685 0.00124179 0.00000000
2.00157173 0.38479780 0.00311362 0.00000000
0.63384355 0.20446337 0.00052119 0.00000000
0.80544460 0.51655624 0.00320206 0.00000000
2.13186083 1.02187313 0.00439614 0.00000000
0.27105942 1.44359263 -0.00086781 0.00000000
1.25201017 1.24927339 -0.00135987 0.00000000
3.53804083 0.90204055 -0.00201198 0.00000000
0.70065261 0.76112095 0.00499782 0.00000000
2.13243553 1.10913084 -0.00100785 0.00000000
1.11745524 0.56094395 0.00125548 0.00000000
2.14577863 0.94197646 -0.00204333 0.00000000
3.52571152 1.07948798 -0.00331904 0.00000000
2.42676920 1.29152723 0.00364688 0.00000000
2.01075956 1.00837931 -0.00196773 0.00000000
4.44885450 1.77722702 -0.00179259 0.00000000
2.60697978 1.53198320 -0.00487360 0.00000000
0.91803235 0.66026763 0.00385616 0.00000000
0.37048604 1.46017111 -0.00133021 0.00000000
1.97872330 1.40407961 -0.00063416 0.00000000
0.49051110 0.63343614 0.00045369 0.00000000
0.67644487 1.31441252 0.00122653 0.00000000
3.47950643 1.17649173 -0.00073411 0.00000000
0.62428312 0.53355304 -0.00218514 0.00000000
4.35013724 0.13644911 -0.00421694 0.00000000
2.35033489 0.40458821 -0.00066999 0.00000000
0.65585588 1.86255295 0.00225399 0.00000000
2.41795797 0.23499204 0.00142170 0.00000000
1.72867409 0.24529868 0.00264310 0.00000000
3.00426941 0.66146372 -0.00137417 0.00000000
2.74982356 0.18185512 0.00083945 0.00000000
1.93396029 0.18068271 -0.00199005 0.00000000
0.17963075 1.71399122 0.00239204 0.00000000
3.49779676 1.88373226 -0.00041226 0.00000000
3.57010576 0.46149678 -0.00267375 0.00000000
3.38987621 1.14289490 0.00101973 0.00000000
0.61774628 0.83206927 0.00379576 0.00000000
3.25718331 0.26222221 -0.00150188 0.00000000
1.24438496 1.87033313 0.00400551 0.00000000
3.12750489 0.18190770 -0.00250054 0.00000000
1.73059478 0.93960810 -0.00164148 0.00000000
2.07107958 0.86579967 0.00245131 0.00000000
0.62142915 0.05610361 -0.00294522 0.00000000
3.91539370 1.24320516 0.00374869 0.00000000
1.99750998 1.69274653 -0.00021505 0.00000000
3.50553073 1.39896609 0.00047792 0.00000000
0.71349020 1.01829793 -0.00021158 0.00000000
2.20311052 1.56187025 0.00053173 0.00000000
3.51448220 1.31038022 0.00374751 0.00000000
1.96253055 1.64148111 -0.00165157 0.00000000
1.20634579 1.64185623 -0.00219978 0.00000000
4.07411373 1.83282696 0.00467869 0.00000000
1.87345411 1.76699991 0.00282153 0.00000000
0.41625671 0.80299571 -0.00010555 0.00000000
0.59772328 0.22420168 -0.00266831 0.00000000
2.09827478 1.85568416 -0.00383553 0.00000000
0.84144710 0.80803901 0.00096290 0.00000000
2.93993262 1.14560616 0.00281032 0.00000000
2.39543931 1.83626425 -0.00318865 0.00000000
1.50539150 0.19310465 0.00049445 0.00000000
3.40750262 1.25283162 0.00171717 0.00000000
0.95120948 1.85246592 0.00275478 0.00000000
2.98814561 0.84068737 0.00197251 0.00000000
3.00128816 0.37458978 -0.00189100 0.00000000
3.57667158 1.13936637 -0.00183436 0.00000000
2.21312987 0.44823824 -0.00083644 0.00000000
1.67990791 1.55417483 -0.00461460 0.00000000
1.46282797 1.63691260 -0.00137689 0.00000000
1.58987782 0.10785104 0.00182678 0.00000000
0.78158460 1.66060775 0.00145308 0.00000000
4.39359223 0.44480391 0.00318074 0.00000000
2.36727107 0.94796432 0.00052589 0.00000000
3.85554691 0.91635696 0.00019648 0.00000000
3.50803739 0.35908161 -0.00237512 0.00000000
1.37299427 0.83189678 -0.00188827 0.00000000
1.08075852 1.44194409 -0.00382440 0.00000000
2.76975368 1.12191905 0.00294310 0.00000000
2.54201221 0.82583182 0.00107142 0.00000000
2.53678354 0.74573173 -0.00486640 0.00000000
1.71556821 0.83778881 0.00374863 0.00000000
4.19988707 1.22259003 0.00693678 0.00000000
4.07249296 1.37616934 0.00194885 0.00000000
2.73126647 1.78896307 -0.00056032 0.00000000
3.44110232 1.54608062 -0.00057487 0.00000000
2.97839366 1.74468524 -0.00267936 0.00000000
0.92401196 0.33969308 0.00101985 0.00000000
2.16549488 0.87457876 -0.00203823 0.00000000
0.65405283 1.61908632 -0.00292369 0.00000000
2.69180484 1.68356807 -0.00133317 0.00000000
2.47033112 1.10708672 -0.00020132 0.00000000
4.06209009 0.74084583 -0.00631037 0.00000000
2.35895481 1.07875772 -0.00194191 0.00000000
0.24005256 0.21457123 0.00089273 0.00000000
2.18373387 1.57915572 -0.00444123 0.00000000
2.30689929 1.21396612 0.00161010 0.00000000
1.23459678 0.27774393 -0.00363219 0.00000000
2.25593911 0.85031362 -0.00380865 0.00000000
3.22359074 1.29214055 0.00018442 0.00000000
0.18801629 0.26160847 -0.00091493 0.00000000
1.93809596 1.71905925 -0.00349900 0.00000000
0.10050083 1.38602350 -0.00073034 0.00000000
2.50052956 0.28689915 0.00533485 0.00000000
3.33443095 0.01805419 0.00059182 0.00000000
1.83377213 0.61884806 -0.00077383 0.00000000
3.89175689 0.48871876 -0.00387789 0.00000000
0.43064892 1.53788310 -0.00089861 0.00000000
3.92059372 0.17906280 -0.00261418 0.00000000
1.82891605 0.96820367 0.00073474 0.00000000
1.35410209 1.85740839 0.00024080 0.00000000
3.34063693 1.39458910 -0.00204015 0.00000000
0.29578960 1.71066459 0.00082043 0.00000000
0.92044597 0.20133745 0.00273333 0.00000000
4.16942188 1.67980587 0.00063819 0.00000000
3.69217054 0.26042853 -0.00468190 0.00000000
3.80484771 0.67967077 -0.00131013 0.00000000
0.04795887 0.75603196 0.00515607 0.00000000
4.28161554 0.28384344 -0.00348466 0.00000000
3.03129632 0.47747697 0.00271960 0.00000000
3.13597165 0.05760742 -0.00048356 0.00000000
3.94735071 1.91607016 -0.00045063 0.00000000
1.00237554 0.62353774 0.00383474 0.00000000
2.26108252 1.31500985 0.00204163 0.00000000
3.21992859 1.74537251 -0.00328616 0.00000000
3.59233505 0.45225098 0.00168582 0.00000000
1.33173485 1.25755491 0.00354238 0.00000000
1.90412595 1.31188730 0.00357889 0.00000000
4.37837176 1.55227040 0.00110038 0.00000000
2.61866485 1.86215062 0.00162151 0.00000000
3.28813123 0.17403405 0.00160116 0.00000000
2.97441112 1.89448723 -0.00148636 0.00000000
4.40601863 0.33313464 0.00274555 0.00000000
0.45284704 0.64819772 0.00184111 0.00000000
3.51731464 1.84443272 0.00279948 0.00000000
2.14997795 0.84201178 -0.00101835 0.00000000
1.37125669 1.78306435 0.00165594 0.00000000
4.10325235 1.13788267 -0.00266707 0.00000000
3.28412175 0.92532710 0.00098152 0.00000000
1.14617985 1.02976316 -0.00326626 0.00000000
4.37189378 1.03892879 -0.00143064 0.00000000
1.38861446 0.35145831 0.00281151 0.00000000
3.65896136 0.70686822 0.00509147 0.00000000
2.83494663 1.37642571 -0.00473899 0.00000000
2.75033358 0.14047744 0.00312847 0.00000000
4.05068266 0.09344699 0.00087839 0.00000000
0.28650848 0.02802914 -0.00002792 0.00000000
3.01948058 1.27318684 -0.00290763 0.00000000
1.78794527 0.72081619 -0.00182228 0.00000000
3.12487386 0.23799000 0.00237453 0.00000000
1.48784592 1.59723947 -0.00359293 0.00000000
3.37138853 0.15817977 -0.00080076 0.00000000
0.92736884 0.43687067 -0.01012742 0.00000000
3.84033437 0.14044685 0.00565542 0.00000000
0.74340990 0.23925783 -0.00195038 0.00000000
2.45317006 1.30584602 0.00182197 0.00000000
1.33507315 1.44896629 0.00397354 0.00000000
3.09442912 0.07801315 -0.00127536 0.00000000
4.35996053 0.83890755 0.00235741 0.00000000
2.45909508 1.11342863 -0.00150944 0.00000000
3.88274072 0.86774288 0.00054778 0.00000000
2.43704108 1.71531508 0.00111220 0.00000000
0.62558710 1.05367757 -0.00211995 0.00000000
0.13613092 1.52578283 0.00116667 0.00000000
0.28335228 0.28012017 0.00011287 0.00000000
2.09229170 1.02192895 -0.00096857 0.00000000
2.93072303 0.68627873 -0.00417437 0.00000000
3.18811905 0.63923619 -0.00009211 0.00000000
2.53960950 1.71355351 -0.00580468 0.00000000
0.46757360 0.79629469 -0.00042505 0.00000000
1.12773062 0.86167472 -0.00272306 0.00000000
1.99765685 0.08169291 -0.00411960 0.00000000
1.75405313 0.40658713 -0.00003761 0.00000000
4.20558426 1.38884048 0.00032389 0.00000000
0.01373128 1.48872806 0.00140701 0.00000000
1.52093635 0.88664330 0.00094759 0.00000000
0.47531741 1.62865738 -0.00003036 0.00000000
2.49949179 1.77294675 -0.00179249 0.00000000
2.92907087 1.75428013 0.00138923 0.00000000
3.61183641 0.56489608 0.00237174 0.00000000
1.05107087 0.34013956 0.00029367 0.00000000
0.45753926 1.24072427 0.00272952 0.00000000
3.66544192 1.73323274 -0.00024408 0.00000000
4.11282690 1.79354919 -0.00130318 0.00000000
3.72240250 0.75862061 -0.00072110 0.00000000
1.97638738 1.36047001 -0.00137448 0.00000000
3.65865207 0.91762651 -0.00336795 0.00000000
0.34398114 1.31899535 0.00364711 0.00000000
1.72954408 1.66658593 0.00465150 0.00000000
1.25389994 1.42818750 0.00429747 0.00000000
2.63834470 1.02882419 0.00268750 0.00000000
3.42908936 1.69121884 0.00227685 0.00000000
2.14428798 1.64652114 0.00023025 0.00000000
0.66282248 1.00931694 -0.00111622 0.00000000
1.33191470 0.93516773 -0.00351258 0.00000000
3.57063543 1.64857794 0.00097974 0.00000000
1.62688873 0.57638974 -0.00448450 0.00000000
0.43545397 0.99925276 0.00304314 0.00000000
4.10537122 0.32834762 0.00418628 0.00000000
1.46011718 1.54730604 -0.00400952 0.00000000
0.67338164 0.51059937 -0.00181678 0.00000000
2.71548615 0.86959010 0.00391159 0.00000000
1.07309789 0.99720213 -0.00262997 0.00000000
4.07540557 1.83503102 -0.00242081 0.00000000
0.52732069 0.65695313 0.00270544 0.00000000
4.37858350 1.07413957 0.00156191 0.00000000
3.95230017 1.75424429 0.00085731 0.00000000
0.85638149 1.80691719 0.00020305 0.00000000
3.56889426 0.13060614 0.00090744 0.00000000
0.72120502 1.76369210 -0.00371400 0.00000000
1.97183985 1.73039780 0.00030941 0.00000000
2.83598677 0.36026294 0.00192443 0.00000000
0.27453001 1.77649275 0.00492301 0.00000000
4.13243489 0.88852148 0.00308111 0.00000000
2.69818236 1.63010649 0.00058457 0.00000000
2.91978788 0.06885885 0.00259990 0.00000000
4.42175721 0.72445986 -0.00184241 0.00000000
1.83310170 0.27755137 -0.00446978 0.00000000
4.33324496 0.83417445 0.00266613 0.00000000
2.22135530 1.50239209 -0.00038025 0.00000000
3.32802453 1.13234883 0.00040340 0.00000000
3.30505174 1.65068251 -0.00145035 0.00000000
3.28366288 0.29716911 0.00261769 0.00000000
2.08983158 0.83319210 0.00180329 0.00000000
0.72993598 1.11460404 0.00006205 0.00000000
0.66999590 1.29036102 0.00144285 0.00000000
3.58810827 0.45594932 0.00471555 0.00000000
2.35780674 1.66605591 -0.00048022 0.00000000
2.23069107 1.33510353 0.00088281 0.00000000
1.36395464 1.24106673 0.00216172 0.00000000
4.16424307 0.33965638 -0.00427715 0.00000000
2.19589831 0.85991222 0.00023643 0.00000000
1.18362738 0.08703529 0.00245224 0.00000000
1.78590107 1.12848346 0.00001737 0.00000000
0.50183094 1.77775150 0.00130942 0.00000000
4.20820759 1.06006815 -0.00260963 0.00000000
0.36481437 1.10677529 0.00273932 0.00000000
2.46602489 0.35713819 -0.00084470 0.00000000
3.23122795 1.61490854 -0.00146558 0.00000000
0.88465558 1.91469119 0.00073723 0.00000000
2.08933999 1.21693361 -0.00230505 0.00000000
4.09100972 0.24699667 -0.00327344 0.00000000
1.08323552 0.91774554 -0.00206234 0.00000000
4.28307655 0.97445363 0.00316216 0.00000000
0.76757402 0.82005168 0.00244301 0.00000000
1.52128145 0.63169787 0.00221510 0.00000000
0.48640048 1.30635489 -0.00232741 0.00000000
0.84641875 1.53617879 0.00015630 0.00000000
1.30739656 1.85731897 -0.00053811 0.00000000
1.57354617 0.01327088 -0.00413865 0.00000000
3.17668884 0.22512890 -0.00161348 0.00000000
0.71989834 0.90632000 -0.00273467 0.00000000
1.58173713 1.73024950 0.00017441 0.00000000
1.21385711 0.12770890 0.00224325 0.00000000
2.68836507 0.96100940 -0.00073613 0.00000000
4.38856970 0.52630963 -0.00222984 0.00000000
4.20398225 1.90205755 -0.00068837 0.00000000
2.31942340 1.01397162 -0.00359245 0.00000000
4.42379943 0.62216413 0.00167610 0.00000000
1.25284822 0.69073518 -0.00502077 0.00000000
1.75626652 0.40282048 0.00266768 0.00000000
4.29796402 0.85673900 0.00112503 0.00000000
1.63305776 0.76833212 -0.00217352 0.00000000
0.68095811 1.04443161 0.00239703 0.00000000
1.56686832 1.75935965 -0.00208889 0.00000000
1.94441901 1.15298738 -0.00304303 0.00000000
1.63006524 1.73036852 -0.00333281 0.00000000
0.01360529 1.24582736 -0.00041317 0.00000000
4.07481781 0.81514214 -0.00032118 0.00000000
0.57110461 0.33105017 0.00167013 0.00000000
0.85035087 1.81235450 0.00025987 0.00000000
1.81384747 0.33722805 0.00155992 0.00000000
2.59879835 1.36365527 0.00077212 0.00000000
0.09516294 0.39895195 0.00063371 0.00000000
1.36910776 0.72333715 -0.00127370 0.00000000
1.89265972 0.95706010 -0.00061126 0.00000000
4.30976260 0.67375771 -0.00021966 0.00000000
1.92337122 1.41811974 -0.00162470 0.00000000
1.30664033 1.22933875 0.00154607 0.00000000
0.11718313 0.98354560 -0.00224263 0.00000000
0.82220347 0.13623253 0.00188729 0.00000000
2.83896919 0.61738569 0.00157668 0.00000000
1.85316984 0.33023952 -0.00250684 0.00000000
1.96411465 1.89588654 -0.00106076 0.00000000
2.37532410 0.83846449 0.00287931 0.00000000
0.92150471 1.79590654 0.00074495 0.00000000
3.76894695 0.74428439 -0.00314340 0.00000000
0.23991854 0.42686793 0.00268596 0.00000000
0.99618479 0.84206928 0.00033624 0.00000000
2.12982534 0.52683549 0.00443392 0.00000000
1.35689063 1.43984152 -0.00010249 0.00000000
2.95663511 1.51745523 -0.00079795 0.00000000
0.70448104 0.86668964 -0.00030017 0.00000000
2.94332777 1.65598699 0.00296283 0.00000000
0.33812520 0.01160347 -0.00196428 0.00000000
1.22286631 0.65161305 -0.00079973 0.00000000
2.89885832 1.63794360 -0.00186576 0.00000000
1.62362272 1.34493888 0.00320727 0.00000000
2.75032679 1.68653026 0.00270694 0.00000000
2.33335921 0.72878249 0.00164651 0.00000000
1.30680246 1.43752856 0.00313937 0.00000000
0.53093993 0.52808825 0.00097551 0.00000000
3.52661201 0.91915293 0.00190490 0.00000000
2.55477706 1.76706429 -0.00181692 0.00000000
1.01901836 1.17347807 -0.00204338 0.00000000
3.51915375 1.87152436 -0.00206185 0.00000000
4.43451710 0.44229392 -0.00258294 0.00000000
0.71960103 1.05165416 0.00048766 0.00000000
0.99531735 1.56881224 0.00165780 0.00000000
0.61565080 1.69482794 -0.00010657 0.00000000
1.40350721 0.95512591 0.00141231 0.00000000
1.23243203 0.16699601 0.00136530 0.00000000
3.48475249 1.66901792 -0.00110136 0.00000000
2.48957877 1.05682715 0.00136390 0.00000000
4.23565688 1.28856661 -0.00090005 0.00000000
1.22969160 1.58034237 0.00051958 0.00000000
2.74914275 0.17878380 0.00056742 0.00000000
1.68640596 0.79144904 -0.00144197 0.00000000
1.22011746 0.76492087 -0.00097034 0.00000000
1.35175108 1.51589846 -0.00174419 0.00000000
3.54485600 0.59356642 0.00000896 0.00000000
3.04980131 1.27092398 0.00248592 0.00000000
0.60537033 0.57462681 0.00035745 0.00000000
1.92682382 0.77038916 -0.00175533 0.00000000
2.96508927 0.74986396 -0.00096231 0.00000000
0.34221344 0.49935394 0.00568003 0.00000000
2.70277584 0.91199545 -0.00506325 0.00000000
3.80210124 1.45408543 0.00052641 0.00000000
2.34528740 0.04991249 0.00043498 0.00000000
3.65260102 1.00747259 -0.00132063 0.00000000
4.29207722 0.89059733 -0.00318131 0.00000000
1.30950229 0.67876961 -0.00148011 0.00000000
3.54635793 1.75849973 -0.00007091 0.00000000
3.77901239 0.23118652 0.00272686 0.00000000
1.70089928 1.10389801 -0.00415341 0.00000000
3.58652289 1.20981668 -0.00265666 0.00000000
4.19131370 1.87836189 -0.00394766 0.00000000
3.91652652 0.31309071 0.00068540 0.00000000
2.82116671 1.59930680 -0.00236474 0.00000000
1.95573899 0.05053019 -0.00128462 0.00000000
2.09594685 1.78928034 -0.00323534 0.00000000
3.26675960 1.88235036 0.00230507 0.00000000
0.82925276 1.29267423 0.00252750 0.00000000
2.72007549 1.34220523 -0.00102318 0.00000000
1.82538828 1.37736917 0.00193421 0.00000000
0.08249905 1.26186027 -0.00204790 0.00000000
1.54437673 0.42570452 -0.00104858 0.00000000
2.05217090 1.10299603 -0.00039035 0.00000000
2.40927791 1.79623070 0.00278661 0.00000000
3.88297717 1.51783274 -0.00208251 0.00000000
3.51960218 0.71145147 0.00214217 0.00000000
4.17887820 0.67376048 -0.00428828 0.00000000
2.36184676 0.74952480 -0.00447362 0.00000000
0.29790525 0.58457394 0.00001145 0.00000000
2.21201414 1.90938239 -0.00164660 0.00000000
0.36743055 0.02755788 0.00225309 0.00000000
3.48501976 0.13729351 0.00140188 0.00000000
3.30048561 1.24562532 0.00119131 0.00000000
0.12545273 1.19812910 0.00265250 0.00000000
2.80951214 0.64288287 -0.00445814 0.00000000
1.12592662 0.25890869 -0.00278367 0.00000000
3.70847046 1.08448286 0.00248087 0.00000000
1.96437508 1.61044072 0.00160075 0.00000000
0.21651844 1.39176045 -0.00051136 0.00000000
3.86398216 0.62564224 -0.00067970 0.00000000
0.73603898 0.09635542 0.00476458 0.00000000
4.13576101 0.07043707 0.00163169 0.00000000
0.67410244 1.17148211 -0.00002802 0.00000000
0.60641493 1.45078839 0.00086622 0.00000000
2.39897524 1.66325544 -0.00076719 0.00000000
2.51438597 1.18417172 -0.00117331 0.00000000
0.86192685 0.83711814 -0.00382828 0.00000000
2.50861886 0.47185787 0.00087973 0.00000000
0.18698746 1.39948745 0.00458982 0.00000000
2.29821371 1.47584874 -0.00016702 0.00000000
0.42125371 0.02525105 0.00469850 0.00000000
1.80294621 0.02433309 -0.00300131 0.00000000
0.99301123 0.93487834 0.00446824 0.00000000
0.47281653 1.45923546 -0.00418883 0.00000000
3.87244434 0.01546648 0.00067701 0.00000000
1.24491939 1.21373758 0.00165569 0.00000000
2.47652021 1.59593889 0.00064992 0.00000000
0.49571440 1.79749701 -0.00101542 0.00000000
0.59271385 0.39475295 -0.00269051 0.00000000
4.38683930 0.40662038 0.00026758 0.00000000
2.13439417 0.49047958 0.00298022 0.00000000
1.23279894 0.85815217 0.00084341 0.00000000
2.83191982 0.76517971 0.00656385 0.00000000
2.85852204 1.32334351 -0.00041939 0.00000000
0.86695584 1.38258040 -0.00056159 0.00000000
3.02772750 1.49493016 -0.00049159 0.00000000
2.65131663 0.63560803 -0.00296934 0.00000000
2.82378943 0.43485694 -0.00060647 0.00000000
1.83542646 1.61093027 0.00060167 0.00000000
4.39014006 1.92248556 0.00157927 0.00000000
1.96048605 0.47674014 0.00160865 0.00000000
0.73162845 0.71518324 -0.00155676 0.00000000
4.23597115 0.60657951 -0.00240190 0.00000000
0.77382471 0.30106688 0.00214187 0.00000000
3.84098362 1.40496503 -0.00206490 0.00000000
1.10029445 1.39357637 -0.00694397 0.00000000
1.81177197 0.72680504 -0.00210613 0.00000000
2.18484094 1.75105400 -0.00214942 0.00000000
4.34246683 1.37896010 -0.00289495 0.00000000
1.68367730 0.20926063 0.00473760 0.00000000
2.61505319 0.65516273 -0.00456006 0.00000000
3.57822277 1.43844820 0.00390042 0.00000000
1.29409332 0.60156636 -0.00248619 0.00000000
3.02296309 0.79421962 -0.00400005 0.00000000
2.97069957 1.21604420 -0.00020139 0.00000000
2.27853347 1.85859649 0.00212507 0.00000000
1.23674372 1.33207391 0.00125739 0.00000000
1.89878558 1.84903284 0.00319633 0.00000000
1.88827729 0.78865725 -0.00069888 0.00000000
4.02465669 0.42318142 -0.00192022 0.00000000
0.77651871 1.91983738 0.00301580 0.00000000
0.34877738 0.58743793 -0.00165987 0.00000000
3.07134738 0.65193289 -0.00370318 0.00000000
1.01929458 0.02991126 0.00308484 0.00000000
4.28367181 1.39199658 -0.00459666 0.00000000
1.77608804 1.10260976 -0.00176370 0.00000000
3.87504394 0.98843346 -0.00032442 0.00000000
1.40032312 0.61616238 0.00390726 0.00000000
1.87107390 1.52052081 -0.00037594 0.00000000
4.21845682 1.14714187 0.00155611 0.00000000
0.78985038 0.38809496 0.00072604 0.00000000
3.47281534 0.52653883 -0.00063571 0.00000000
1.71802930 0.56697664 -0.00108452 0.00000000
3.04928871 1.61607463 0.00002028 0.00000000
1.26629724 1.89301762 0.00566651 0.00000000
0.60493896 0.36790272 0.00129505 0.00000000
1.91853180 1.92110723 0.00162096 0.00000000
1.64437181 1.91710910 -0.00376942 0.00000000
4.11245855 0.27997133 -0.00047404 0.00000000
0.83637187 1.41242753 0.00152392 0.00000000
2.31535450 1.80818996 0.00185863 0.00000000
2.60219519 0.90500836 0.00037561 0.00000000
2.05990038 0.55124187 -0.00369574 0.00000000
2.40091646 1.09424601 -0.00172963 0.00000000
1.10713057 1.77377473 0.00129400 0.00000000
3.47084929 1.74840529 0.00230988 0.00000000
0.45120089 0.02242431 -0.00340505 0.00000000
2.76783033 1.66344972 -0.00294462 0.00000000
0.30796869 0.05322434 -0.00234567 0.00000000
4.02683850 1.50066704 -0.00095500 0.00000000
1.37617289 0.58257399 0.00360165 0.00000000
0.45227085 0.26655594 0.00160860 0.00000000
0.55210785 1.62569515 0.00041605 0.00000000
0.51348197 0.63733901 0.00327349 0.00000000
2.17200341 0.52487214 -0.00185045 0.00000000
1.73420631 0.92473407 -0.00401393 0.00000000
3.39569277 0.25252986 -0.00398655 0.00000000
2.93882972 0.71441395 0.00166391 0.00000000
0.71138781 0.02147776 0.00554508 0.00000000
0.49641479 0.45138047 0.00525656 0.00000000
4.37562531 0.12122332 -0.00143144 0.00000000
0.57661008 0.81379990 -0.00201390 0.00000000
1.18978132 0.86295449 -0.00147925 0.00000000
1.75344594 0.81065757 -0.00134298 0.00000000
4.06782351 1.55004003 -0.00143529 0.00000000
2.58032494 0.45691582 -0.00028621 0.00000000
1.82896230 0.16658266 0.00092735 0.00000000
1.69381560 0.72355148 0.00093929 0.00000000
0.74339702 1.73268687 0.00017848 0.00000000
4.34138244 0.48906337 -0.00002011 0.00000000
2.95699435 1.56435386 0.00060470 0.00000000
4.23625037 1.87823660 -0.00094668 0.00000000
0.69287771 1.19409034 0.00302223 0.00000000
4.27583246 1.91891133 -0.00027830 0.00000000
2.77226100 1.11076692 0.00080557 0.00000000
1.57083895 0.18513145 0.00198540 0.00000000
4.22457683 0.57680453 -0.00198971 0.00000000
1.33935076 0.46195599 -0.00262578 0.00000000
4.27474192 0.90395251 -0.00308643 0.00000000
3.13220721 1.66573406 0.00341265 0.00000000
0.85728230 0.77974291 -0.00250188 0.00000000
1.01320020 1.21409580 0.00190165 0.00000000
2.31666006 1.34024145 -0.00011706 0.00000000
2.76831309 0.67703278 0.00366767 0.00000000
3.00433350 0.30738077 0.00451118 0.00000000
0.18972000 0.54335419 -0.00191934 0.00000000
0.57020985 1.77806782 0.00616383 0.00000000
2.58539424 0.50497302 0.00258904 0.00000000
0.26249398 0.10836291 0.00360972 0.00000000
1.13928183 1.62544685 -0.00060626 0.00000000
3.67368776 1.60144531 0.00062003 0.00000000
1.87169831 0.12897986 -0.00070648 0.00000000
1.30230432 0.01827950 -0.00006647 0.00000000
2.44487182 1.64403946 -0.00164579 0.00000000
0.94177942 0.17572432 0.00394901 0.00000000
1.71107779 1.78704944 -0.00017076 0.00000000
1.03416186 0.20508683 -0.00066551 0.00000000
4.12337276 1.15336169 0.00363639 0.00000000
0.02799496 1.56857026 -0.00108151 0.00000000
2.16502334 0.06576538 -0.00483084 0.00000000
1.33516360 0.74564253 -0.00596329 0.00000000
0.84671816 1.38121364 -0.00363553 0.00000000
0.99739893 1.14279144 0.00116524 0.00000000
0.53827573 1.67473586 0.00422998 0.00000000
0.59234115 1.06930152 -0.00038782 0.00000000
0.76926114 1.03032699 0.00176157 0.00000000
1.31709381 1.35832818 0.00288983 0.00000000
4.30477604 1.48922135 0.00396764 0.00000000
1.50639678 1.03482529 0.00357841 0.00000000
1.45175151 1.25389055 -0.00080470 0.00000000
4.08234465 0.88223247 -0.00174992 0.00000000
2.05593572 0.79022412 0.00074070 0.00000000
3.88211793 0.79742810 0.00304425 0.00000000
0.40034219 0.20057690 0.00057368 0.00000000
3.22634258 1.46343985 0.00300217 0.00000000
3.70099787 1.10801313 -0.00058026 0.00000000
0.91560321 1.76255864 0.00014928 0.00000000
1.38739722 0.28917253 0.00187222 0.00000000
2.03480155 1.28917543 -0.00649018 0.00000000
4.39208588 1.29022965 -0.00458356 0.00000000
0.69546371 1.15676104 0.00021772 0.00000000
2.15057216 1.35129049 -0.00226573 0.00000000
0.60364563 1.36440514 0.00181913 0.00000000
1.95990442 0.56517024 0.00295791 0.00000000
0.22241327 0.33316126 -0.00234679 0.00000000
1.95422212 0.25782093 -0.00492582 0.00000000
3.14568526 0.68644609 0.00385842 0.00000000
4.29540611 0.40094040 -0.00242531 0.00000000
0.48791016 0.47201716 0.00058608 0.00000000
1.64090276 1.33976934 0.00129213 0.00000000
0.81861128 0.12471550 -0.00065620 0.00000000
0.20815424 0.27518913 -0.00119978 0.00000000
0.36935572 0.15797890 0.00373169 0.00000000
4.19840573 0.50515107 0.00017597 0.00000000
4.08874618 1.00891901 0.00155372 0.00000000
0.94981356 1.84626908 -0.00158711 0.00000000
4.10653040 0.16878766 0.00051842 0.00000000
0.04832774 1.51889195 -0.00151027 0.00000000
4.05043596 0.66983596 0.00221785 0.00000000
3.52295816 0.93409572 0.00033691 0.00000000
3.48421534 0.46693753 0.00114762 0.00000000
3.17348409 0.64903983 0.00082543 0.00000000
0.33673565 0.47123816 0.00397911 0.00000000
2.06396881 0.12310925 -0.00195829 0.00000000
1.76961883 1.77055764 0.00184296 0.00000000
1.79092397 0.79689984 0.00067052 0.00000000
2.83151029 0.56354571 0.00070606 0.00000000
3.79167931 1.69484249 0.00442293 0.00000000
3.52744518 0.11374501 0.00154325 0.00000000
4.05441851 1.86739807 0.00005845 0.00000000
3.81811521 0.88129645 -0.00382328 0.00000000
3.10237969 0.05403693 -0.00340956 0.00000000
0.89874999 1.91292915 0.00277735 0.00000000
4.36125372 0.65910671 -0.00292030 0.00000000
3.13308164 1.61064158 0.00469634 0.00000000
0.30605408 0.46916369 -0.00673729 0.00000000
3.78253112 0.21489439 0.00214931 0.00000000
1.22255220 0.61433557 0.00172947 0.00000000
0.71040140 0.61847504 -0.00028986 0.00000000
2.95389118 0.24208321 0.00221958 0.00000000
2.15097986 1.36121020 -0.00186060 0.00000000
3.00325692 0.23595216 -0.00141016 0.00000000
3.03074259 0.22089350 0.00420685 0.00000000
0.06564770 1.62844947 -0.00264273 0.00000000
4.04878255 0.89362525 0.00167195 0.00000000
0.65228323 0.46263576 -0.00110882 0.00000000
3.40964822 1.09709815 0.00308874 0.00000000
1.63787965 1.39251043 0.00090286 0.00000000
0.43213248 0.42116817 0.00062217 0.00000000
3.51045359 0.40911401 -0.00208040 0.00000000
3.02107611 0.83530330 -0.00087104 0.00000000
0.89008323 1.90881739 0.00193714 0.00000000
3.50064465 0.55501309 0.00236882 0.00000000
2.28922249 1.02298737 0.00032013 0.00000000
3.32178668 0.94964611 0.00381249 0.00000000
3.17580301 0.25428144 -0.00320524 0.00000000
3.43095192 0.54795026 -0.00383749 0.00000000
2.05317912 0.79022247 -0.00298160 0.00000000
4.15354759 1.53607942 -0.00100379 0.00000000
2.52329126 0.80226174 -0.00264852 0.00000000
0.88223814 0.98312363 -0.00162736 0.00000000
0.34754526 0.09297961 0.00018773 0.00000000
2.36368251 1.73670091 -0.00381786 0.00000000
2.96267683 1.49197245 -0.00292972 0.00000000
2.18506965 0.05374574 -0.00445343 0.00000000
0.51515877 1.89763254 0.00099018 0.00000000
1.19060387 0.86820149 0.00034086 0.00000000
1.17158306 1.88259059 -0.00218984 0.00000000
3.06331869 0.03068900 0.00081847 0.00000000
3.26726322 1.70746977 -0.00374516 0.00000000
1.11917042 1.46923078 -0.00070173 0.00000000
0.51455622 0.97215539 -0.00168123 0.00000000
0.79141525 1.39434281 -0.00103948 0.00000000
2.47486068 1.58424409 0.00167098 0.00000000
0.41610480 1.06812658 0.00009950 0.00000000
3.92983266 1.54576449 0.00206540 0.00000000
1.57664011 1.58513147 0.00196254 0.00000000
3.35174434 0.55903212 0.00029116 0.00000000
1.56840220 1.56462117 -0.00331570 0.00000000
3.10428483 0.19770617 -0.00085944 0.00000000
0.18684230 1.26613346 0.00036526 0.00000000
3.57583905 0.84422733 0.00426534 0.00000000
0.27853725 1.85841461 -0.00105066 0.00000000
2.95413881 1.78658418 0.00102447 0.00000000
2.58233943 0.04141086 0.00250111 0.00000000
3.43803317 0.85713232 -0.00294857 0.00000000
1.42347255 1.84784144 -0.00159899 0.00000000
1.51771363 1.57484929 -0.00052348 0.00000000
3.00681079 1.83575278 -0.00087186 0.00000000
3.53925395 1.27964449 0.00328741 0.00000000
4.23970666 1.01779636 0.00105994 0.00000000
0.02592628 0.21806713 0.00114361 0.00000000
1.62540224 0.15675283 0.00125936 0.00000000
2.47855806 0.96351970 0.00425869 0.00000000
1.79377102 1.28774332 -0.00484851 0.00000000
2.00532503 0.06671652 0.00128038 0.00000000
3.48326845 0.30596209 -0.00563411 0.00000000
4.09991783 0.99088949 0.00150257 0.00000000
0.63771351 0.98101224 0.00147765 0.00000000
0.90032699 1.84766188 -0.00161209 0.00000000
3.39124467 1.43806046 0.00047061 0.00000000
0.53501821 1.51028230 0.00182009 0.00000000
3.99733066 0.70266656 -0.00189651 0.00000000
3.50782732 0.38864676 0.00293509 0.00000000
2.76373077 0.58041066 0.00212738 0.00000000
2.21335930 1.77362777 0.00233920 0.00000000
3.38210809 0.33750032 0.00027056 0.00000000
2.38384973 0.99569865 -0.00189230 0.00000000
0.04474604 1.56164011 0.00200426 0.00000000
2.59222632 1.10123721 0.00210677 0.00000000
0.29319739 1.87611198 -0.00077758 0.00000000
4.29964996 1.70843901 -0.00110080 0.00000000
3.83820935 1.89694416 0.00102139 0.00000000
0.71206695 1.73797718 0.00266388 0.00000000
3.53782220 0.62105048 -0.00551418 0.00000000
1.17678876 1.46541318 -0.00511957 0.00000000
1.01052817 1.06449775 0.00073052 0.00000000
1.91147104 0.67858683 0.00136151 0.00000000
3.38400586 1.91226039 0.00072888 0.00000000
1.64443604 0.46765372 -0.00056449 0.00000000
1.55588167 1.28821610 0.00169981 0.00000000
2.50320364 1.00194695 -0.00348442 0.00000000
0.95338310 0.76684887 0.00053201 0.00000000
2.70923221 0.23749676 0.00337722 0.00000000
1.17823115 0.20658170 0.00227584 0.00000000
1.95872007 0.08138528 -0.00028504 0.00000000
3.30319249 0.25255513 0.00179134 0.00000000
1.36637998 0.59717661 -0.00246479 0.00000000
0.85295267 0.17183619 -0.00080786 0.00000000
2.70348586 0.06561421 0.00134017 0.00000000
0.30885952 1.83545571 0.00270102 0.00000000
1.90010372 0.91077870 -0.00187152 0.00000000
0.01234802 1.18304459 0.00230216 0.00000000
0.06402225 0.74329358 0.00151565 0.00000000
2.81612918 1.33025748 0.00174802 0.00000000
0.77935692 0.88294482 0.00154620 0.00000000
1.20992604 1.76512829 -0.00339504 0.00000000
1.65607608 1.29352623 -0.00083956 0.00000000
0.29800406 1.45602314 0.00097389 0.00000000
0.19505755 1.45187242 0.00068085 0.00000000
1.51840821 0.71948774 -0.00001517 0.00000000
4.07877543 1.51353624 0.00056113 0.00000000
1.63676323 1.33883509 0.00223940 0.00000000
3.90999047 1.30876488 -0.00161946 0.00000000
1.42032245 0.60564699 -0.00094199 0.00000000
0.08030604 1.34092096 0.00036661 0.00000000
3.56597734 1.12003223 0.00007294 0.00000000
2.04731293 0.61536278 0.00481230 0.00000000
0.38221262 1.72339642 -0.00237746 0.00000000
4.26943684 0.77521876 -0.00083892 0.00000000
0.70473754 0.07957346 -0.00264904 0.00000000
2.51754455 0.70924398 0.00369816 0.00000000
0.20601754 0.75059198 -0.00044494 0.00000000
2.89781130 0.03051647 0.00014265 0.00000000
0.83819494 1.14263642 0.00180669 0.00000000
2.31181561 0.19119260 -0.00130694 0.00000000
4.06997335 0.19780227 -0.00096098 0.00000000
2.30237293 0.59105555 0.00207905 0.00000000
4.39433394 1.10299323 0.00147446 0.00000000
3.22644985 1.05724412 -0.00359886 0.00000000
3.14655238 0.34254704 -0.00538358 0.00000000
3.57689500 1.84051483 -0.00333155 0.00000000
2.03291387 0.15263699 0.00366324 0.00000000
2.33716657 0.68102751 -0.00542563 0.00000000
4.27854701 1.74559813 -0.00315441 0.00000000
1.27108836 1.48736698 0.00050974 0.00000000
2.03491038 1.20836663 -0.00123288 0.00000000
0.64167234 0.29503631 -0.00042421 0.00000000
1.25372820 0.60006968 0.00450682 0.00000000
1.14004717 1.51281598 -0.00062328 0.00000000
3.10215864 0.54402168 0.00083867 0.00000000
0.21459666 0.10629409 -0.00255387 0.00000000
3.51871363 1.54716672 -0.00702494 0.00000000
2.55570242 0.48811909 -0.00361998 0.00000000
3.23600300 1.77984947 0.00331521 0.00000000
3.61071414 0.77836687 -0.00231740 0.00000000
0.43166758 0.56099384 -0.00380394 0.00000000
2.52611828 0.39657396 -0.00089702 0.00000000
2.23707141 1.74848450 -0.00178188 0.00000000
1.48367680 0.91053220 0.00160341 0.00000000
3.70331942 0.62069419 0.00103547 0.00000000
2.57736373 0.13499554 0.00217160 0.00000000
3.39224512 1.69793597 0.00236799 0.00000000
2.03610823 1.47761859 0.00341260 0.00000000
4.09660433 1.05981241 -0.00037538 0.00000000
1.03844167 1.83990187 -0.00011456 0.00000000
0.91289767 0.89955229 -0.00078855 0.00000000
0.86614470 0.29063833 0.00055047 0.00000000
0.59097542 1.08144900 -0.00317567 0.00000000
0.35731861 1.77815901 -0.00204370 0.00000000
4.30300666 1.57075090 0.00130604 0.00000000
0.17394660 1.42673860 0.00496860 0.00000000
0.92111064 0.55771860 -0.00011717 0.00000000
2.73842829 1.19184958 -0.00529910 0.00000000
2.29706721 0.54823718 -0.00110968 0.00000000
0.98337509 0.67037897 0.00107866 0.00000000
0.73011492 0.91573634 0.00537459 0.00000000
3.05647351 0.33351556 -0.00125233 0.00000000
0.08120699 1.76363861 0.00000878 0.00000000
0.32126830 0.29433049 0.00145254 0.00000000
3.94227460 0.44005209 -0.00170954 0.00000000
4.41066606 0.55487372 -0.00442793 0.00000000
4.17640069 0.19191674 0.00174331 0.00000000
4.34446858 0.27109254 -0.00023278 0.00000000
4.20726276 1.81291224 0.00154292 0.00000000
4.26176004 1.41272083 0.00025018 0.00000000
1.10379014 1.65211812 -0.00195664 0.00000000
3.19748321 0.88151099 -0.00276878 0.00000000
0.32287611 1.72187671 0.00078611 0.00000000
3.44364645 0.38068765 0.00326665 0.00000000
0.10276172 0.80700573 -0.00127585 0.00000000
1.15266920 0.37123229 0.00027874 0.00000000
1.81212376 1.16008043 -0.00128859 0.00000000
0.50396373 1.38876588 -0.00366693 0.00000000
2.64792762 1.03128582 -0.00407182 0.00000000
2.20188848 1.46880371 0.00128653 0.00000000
1.35988459 0.45404447 0.00218724 0.00000000
2.70203910 0.89941427 -0.00081065 0.00000000
2.87855967 0.62419508 -0.00690645 0.00000000
1.24994537 0.43254733 -0.00030958 0.00000000
2.54330113 0.45384517 0.00102967 0.00000000
3.64111137 0.31210700 -0.00167916 0.00000000
1.77512409 0.42698515 -0.00418783 0.00000000
3.70689165 1.11734190 -0.00219037 0.00000000
1.38293166 1.73692508 0.00711221 0.00000000
0.32106793 0.07476695 0.00055568 0.00000000
0.93939717 1.64096783 -0.00090921 0.00000000
2.58058148 1.43799949 0.00235872 0.00000000
0.83051930 0.34286635 -0.00225963 0.00000000
2.74259978 0.29662812 -0.00138576 0.00000000
3.75487007 1.38046546 -0.00419320 0.00000000
2.55026313 1.00488970 0.00302624 0.00000000
1.22050787 1.55295007 -0.00054256 0.00000000
0.26409440 1.21166549 -0.00474512 0.00000000
1.94588219 0.02668407 0.00217547 0.00000000
0.92681507 0.80774351 -0.00246532 0.00000000
2.92663930 0.86357164 -0.00012620 0.00000000
3.32885041 0.78003372 0.00075850 0.00000000
0.93719880 1.38054676 0.00238926 0.00000000
4.09497956 1.52414916 0.00305237 0.00000000
3.06653529 0.25835526 0.00094727 0.00000000
1.58945592 0.73084593 0.00255615 0.00000000
1.84396479 1.25762495 0.00031268 0.00000000
2.00424895 0.54736819 -0.00152413 0.00000000
4.25618075 1.45321194 -0.00047709 0.00000000
2.28132554 0.86603186 0.00092667 0.00000000
1.31113920 0.75741007 -0.00089336 0.00000000
1.70100106 0.81079189 -0.00237338 0.00000000
3.73719294 0.71602526 0.00418662 0.00000000
4.44100800 0.37813112 -0.00182833 0.00000000
2.19664505 0.68295571 0.00024601 0.00000000
1.89144696 1.91670854 -0.00317338 0.00000000
2.66550105 1.85498967 -0.00230316 0.00000000
3.26768732 0.77515668 0.00088414 0.00000000
3.42647502 1.67878012 -0.00355381 0.00000000
0.74626165 0.56886949 -0.00432838 0.00000000
3.38864461 0.39186437 0.00193122 0.00000000
1.71802673 1.17695176 -0.00076406 0.00000000
3.80355406 1.78057767 0.00064229 0.00000000
3.04533550 1.91086535 0.00181200 0.00000000
4.35844466 0.04645370 0.00024303 0.00000000
2.69030483 1.18539140 0.00072179 0.00000000
3.69899676 1.28811542 0.00198539 0.00000000
3.01471823 0.93240343 0.00157365 0.00000000
0.67224937 1.40089520 0.00029349 0.00000000
1.30436462 1.56984243 -0.00166860 0.00000000
2.96344995 0.65886968 -0.00167266 0.00000000
4.01841569 0.10158468 0.00243602 0.00000000
0.25666901 1.79219429 0.00245475 0.00000000
2.87024516 1.15169587 0.00165156 0.00000000
2.73489798 1.75329718 -0.00336863 0.00000000
2.67285385 1.68458333 -0.00162621 0.00000000
2.31708589 1.03892425 -0.00271775 0.00000000
3.67718104 1.34518856 -0.00064389 0.00000000
2.52402884 0.55738324 0.00138542 0.00000000
3.06538496 0.33820380 0.00104371 0.00000000
4.30335141 0.13515888 -0.00021078 0.00000000
0.65874234 0.87602034 -0.00125275 0.00000000
4.12175818 0.96041482 -0.00250190 0.00000000
1.33665464 1.39752483 0.00173783 0.00000000
0.41329727 1.69289074 -0.00338546 0.00000000
2.34968408 0.68309078 -0.00426379 0.00000000
0.59587890 0.16518564 0.00226448 0.00000000
1.01542361 1.18915305 -0.00197897 0.00000000
2.84982136 0.02806989 0.00082190 0.00000000
3.08739836 1.41288530 0.00356525 0.00000000
1.39835480 1.10196919 -0.00057044 0.00000000
3.20286329 0.77627477 0.00152369 0.00000000
1.88374910 1.37790107 -0.00270816 0.00000000
3.24651601 1.86716803 0.00158396 0.00000000
1.04162077 0.09136551 -0.00213771 0.00000000
3.75872687 0.59876239 -0.00105902 0.00000000
0.68657856 1.84290134 0.00059840 0.00000000
0.74958025 1.03717842 0.00139970 0.00000000
4.05544776 0.33169233 0.00226150 0.00000000
0.78085194 1.23635662 0.00154335 0.00000000
2.44323860 1.44554042 -0.00219535 0.00000000
0.69910521 1.12747364 0.00061961 0.00000000
2.06534607 1.12911736 0.00264697 0.00000000
1.41920353 1.56205024 -0.00230126 0.00000000
2.55132242 1.26437257 -0.00276816 0.00000000
3.43860304 1.53089051 0.00207024 0.00000000
1.87755615 0.92120225 0.00065612 0.00000000
1.52333487 1.81734277 -0.00188441 0.00000000
3.61845094 0.10655252 0.00344863 0.00000000
0.05779505 1.46935175 -0.00346826 0.00000000
0.48990741 0.82757781 -0.00272274 0.00000000
4.45817565 0.10415581 0.00201028 0.00000000
0.02661699 1.52484607 -0.00437195 0.00000000
4.24309052 1.62746374 0.00415589 0.00000000
0.65066731 0.49713862 -0.00344473 0.00000000
3.75809582 1.37677149 0.00006240 0.00000000
1.87217122 1.42392642 -0.00152030 0.00000000
3.90290675 0.82517162 0.00105847 0.00000000
2.95168146 1.27883035 -0.00056560 0.00000000
0.41675793 1.13860883 -0.00544728 0.00000000
2.36428453 0.99177642 0.00107220 0.00000000
1.30086182 1.84129832 -0.00252989 0.00000000
0.53613850 0.39939026 -0.00171027 0.00000000
4.42941188 1.86150415 -0.00123488 0.00000000
1.58810255 0.57372322 0.00167018 0.00000000
2.03043003 1.76734247 -0.00284659 0.00000000
4.18296777 0.42663963 0.00143142 0.00000000
0.95906586 0.42162425 -0.00038654 0.00000000
3.44913002 0.71771457 0.00034152 0.00000000
3.73125166 1.33094847 0.00037681 0.00000000
2.12449153 1.34918717 -0.00299133 0.00000000
2.84856899 1.67292119 -0.00204279 0.00000000
3.44893958 0.75382098 0.00117218 0.00000000
1.02366356 1.44437471 -0.00226714 0.00000000
1.15940023 0.75364541 -0.00117439 0.00000000
3.02199100 1.16035052 -0.00295687 0.00000000
3.50743094 1.14154486 -0.00004043 0.00000000
0.53688223 1.65896509 0.00138739 0.00000000
1.90617204 0.10028969 -0.00168085 0.00000000
1.45568325 0.30952535 0.00533748 0.00000000
0.85844637 0.51383675 -0.00466881 0.00000000
1.54960634 0.01898724 -0.00450432 0.00000000
1.26312582 1.08010967 0.00017884 0.00000000
1.04604629 0.17025943 -0.00406074 0.00000000
2.93601859 1.46446027 0.00287363 0.00000000
0.16661948 0.47119624 -0.00440887 0.00000000
3.41894974 1.24214778 -0.00060429 0.00000000
0.42005386 0.80267854 0.00078176 0.00000000
3.23006717 1.87833195 -0.00045250 0.00000000
1.26369251 1.49517311 -0.00133820 0.00000000
3.73981529 1.12403781 0.00190868 0.00000000
2.82763597 1.63361669 0.00293618 0.00000000
3.16436540 0.06356486 0.00317668 0.00000000
0.17586957 0.25732902 -0.00279316 0.00000000
3.50038810 0.38505137 -0.00363629 0.00000000
1.11509028 0.24832185 0.00197040 0.00000000
1.09221595 1.47018928 -0.00056193 0.00000000
0.58699612 1.16137227 -0.00226583 0.00000000
2.42313958 1.04772087 0.00211914 0.00000000
2.51671022 0.37368492 -0.00038908 0.00000000
1.44812764 0.99828327 -0.00299750 0.00000000
0.45717931 0.83644581 0.00170641 0.00000000
1.56370773 0.90763713 -0.00070876 0.00000000
