1.81783645 0.33376900 -0.00288206 0.00000000
1.54979433 1.48979476 -0.00304681 0.00000000
3.60110136 0.10534165 0.00303278 0.00000000
1.15781988 2.03833710 0.00334559 0.00000000
4.18366136 1.59568962 -0.00087217 0.00000000
0.87704859 0.36299087 -0.00332627 0.00000000
3.80712392 0.65560079 0.00434070 0.00000000
2.74282816 1.31265868 0.00196037 0.00000000
1.56628011 1.63179390 -0.00271866 0.00000000
2.24412210 1.59245478 -0.00527622 0.00000000
2.35193274 1.34393499 0.00087612 0.00000000
0.61016866 1.45337192 -0.00157097 0.00000000
1.67311331 2.16031723 0.00024304 0.00000000
1.82980634 1.12434882 0.00340052 0.00000000
2.35538899 2.09220193 -0.00061412 0.00000000
2.39741567 1.52145571 -0.00259989 0.00000000
0.36002806 0.46898060 0.00249785 0.00000000
2.31373776 0.74553281 -0.00125080 0.00000000
3.72094645 0.33829909 0.00023120 0.00000000
0.24105478 1.46321680 0.00109795 0.00000000
4.22288580 0.18015987 -0.00055614 0.00000000
0.57729325 0.94746415 -0.00323428 0.00000000
2.88080880 0.53774219 0.00150987 0.00000000
0.47291361 2.16711760 0.00070623 0.00000000
0.47859846 1.43642718 0.00030832 0.00000000
1.71485441 2.00403642 -0.00220622 0.00000000
2.86552986 0.32988441 0.00326153 0.00000000
2.53540630 0.68077938 -0.00338067 0.00000000
3.47495722 0.88852039 -0.00069112 0.00000000
1.47523622 0.21749951 -0.00381520 0.00000000
2.23581828 0.36782794 -0.00055334 0.00000000
1.69428647 0.97691114 0.00151573 0.00000000
2.53017151 2.16938917 0.00033311 0.00000000
0.13164942 1.81305233 -0.00114456 0.00000000
3.24197050 1.25597415 -0.00578736 0.00000000
3.12692866 0.02413987 -0.00039269 0.00000000
3.43401830 0.97097720 0.00329024 0.00000000
1.22905316 2.05146206 -0.00084087 0.00000000
1.47284040 1.14903520 0.00206416 0.00000000
3.22386019 1.25300872 0.00472445 0.00000000
2.73676700 1.04959761 0.00034573 0.00000000
2.19888896 2.08682405 -0.00425603 0.00000000
2.57528134 0.24740659 0.00037007 0.00000000
3.99445003 2.06151612 0.00222442 0.00000000
0.73041860 1.20983867 -0.00143770 0.00000000
0.70870984 2.15874427 -0.00478634 0.00000000
1.16292746 0.61106568 -0.00103384 0.00000000
2.46999799 0.64588317 0.00226751 0.00000000
3.75683435 2.07216759 0.00137558 0.00000000
4.12363520 1.39485449 -0.00278905 0.00000000
2.56896651 1.59352949 -0.00214439 0.00000000
1.69053388 0.42296286 0.00129431 0.00000000
4.01347234 1.70909852 0.00229081 0.00000000
4.21178388 0.31983944 0.00118515 0.00000000
2.04201531 0.94556366 -0.00128514 0.00000000
1.89406031 1.45175760 -0.00067319 0.00000000
2.76941726 0.55998409 -0.00036427 0.00000000
0.20221009 0.74642814 0.00169986 0.00000000
4.25184666 0.93123770 -0.00565620 0.00000000
3.81705772 1.12138780 0.00103555 0.00000000
3.58009590 1.65328054 -0.00326223 0.00000000
3.06484284 1.33040684 -0.00408479 0.00000000
0.98930543 0.64130364 0.00294365 0.00000000
2.65886977 2.21925361 -0.00034281 0.00000000
2.36895796 2.18828076 0.00197766 0.00000000
0.51311996 1.72631228 -0.00259155 0.00000000
0.33123551 0.55787669 0.00464117 0.00000000
2.73771783 1.86827463 -0.00387181 0.00000000
3.41217723 0.70016468 -0.00314648 0.00000000
3.92003227 1.93037094 -0.00166314 0.00000000
2.16009664 2.09066402 -0.00414170 0.00000000
3.65642098 1.86777504 0.00337485 0.00000000
2.69311430 2.16709687 -0.00051336 0.00000000
2.60208259 1.19330188 0.00043829 0.00000000
0.62299188 0.54477998 -0.00217693 0.00000000
3.48512594 1.65536101 0.00514066 0.00000000
0.06056389 0.06379974 0.00179157 0.00000000
2.42838612 1.61999607 -0.00341118 0.00000000
1.28577635 2.19724901 -0.00165586 0.00000000
1.93640278 0.43673929 0.00086510 0.00000000
3.49549146 1.24736844 0.00363433 0.00000000
0.64567073 0.23511672 -0.00157689 0.00000000
2.62833297 2.13617325 -0.00346922 0.00000000
3.35558196 0.31005120 -0.00224267 0.00000000
1.72799358 0.20939382 0.00204872 0.00000000
1.40061158 2.20129744 0.00299877 0.00000000
0.36249161 1.05785170 0.00282625 0.00000000
3.04146286 0.78400940 -0.00258137 0.00000000
3.22837910 1.63536474 -0.00320065 0.00000000
0.56748150 1.69319902 -0.00268913 0.00000000
4.32846565 0.18324550 0.00237034 0.00000000
4.24712948 1.83610357 -0.00194835 0.00000000
3.47557013 1.49577531 0.00198947 0.00000000
1.42745478 1.32571126 -0.00181810 0.00000000
3.39184853 1.40026123 -0.00535932 0.00000000
3.30019640 0.67715344 0.00324793 0.00000000
1.33289669 0.64744567 0.00090038 0.00000000
2.50827420 0.05072805 0.00138342 0.00000000
0.82553800 0.62555010 -0.00034984 0.00000000
2.97182006 1.25236364 0.00299859 0.00000000
4.08067420 2.08427692 0.00642768 0.00000000
0.13644294 1.43370231 -0.00059586 0.00000000
1.70510570 1.34424766 -0.00122640 0.00000000
2.88484723 0.86380853 -0.00440497 0.00000000
1.27267817 0.68289274 -0.00275672 0.00000000
1.88093619 1.49822285 -0.00421854 0.00000000
3.75978149 1.73006101 0.00092853 0.00000000
4.21802274 0.29352783 -0.00500855 0.00000000
3.15702215 0.14936289 0.00395903 0.00000000
2.42546694 0.27735860 -0.00564889 0.00000000
3.54924627 0.61618060 0.00225944 0.00000000
2.59663887 1.36098844 -0.00490976 0.00000000
2.61765670 1.47816784 0.00322420 0.00000000
0.25857446 1.87806694 0.00068452 0.00000000
1.89719122 1.18121520 -0.00087784 0.00000000
4.11299407 1.24626855 0.00312240 0.00000000
2.40201319 1.84555811 -0.00231381 0.00000000
1.03593038 0.14213014 -0.00273996 0.00000000
0.13032761 1.55403717 -0.00214579 0.00000000
3.35652126 0.65441348 0.00145548 0.00000000
1.71553164 1.04711370 -0.00151884 0.00000000
3.46171142 0.13992571 -0.00193670 0.00000000
2.18694164 0.53254825 0.00090200 0.00000000
1.08972477 0.64957834 0.00081868 0.00000000
2.61854548 0.85889991 -0.00166819 0.00000000
1.50566840 1.06161947 -0.00177650 0.00000000
4.15796501 0.69818955 0.00179715 0.00000000
3.12109039 1.18460429 0.00035314 0.00000000
2.75659891 1.58611953 0.00188668 0.00000000
0.43949979 1.11448999 -0.00051981 0.00000000
0.71062354 0.91312144 0.00037464 0.00000000
4.23230682 0.48099113 -0.00093319 0.00000000
1.54650629 1.05096921 0.00121957 0.00000000
0.16261415 1.66421942 -0.00314664 0.00000000
3.19439182 0.08743128 -0.00138958 0.00000000
3.27556631 0.96224594 0.00028830 0.00000000
2.64436814 0.88168992 0.00315320 0.00000000
3.97062663 1.08980213 0.00214299 0.00000000
1.95574339 0.71962074 -0.00287988 0.00000000
1.00485633 0.91520651 -0.00272161 0.00000000
3.69225066 0.47858732 -0.00044092 0.00000000
0.26340222 1.53820416 0.00254506 0.00000000
0.85282014 0.64594426 -0.00330304 0.00000000
0.55020464 1.42511960 -0.00042062 0.00000000
3.26212758 2.18704857 0.00200957 0.00000000
3.51088622 1.38528152 -0.00435562 0.00000000
1.07590225 1.72469970 -0.00129508 0.00000000
2.72159593 0.73352012 0.00231114 0.00000000
3.30245900 1.18548506 -0.00323364 0.00000000
0.35387161 1.49299908 0.00188936 0.00000000
2.01720947 0.49117975 -0.00198733 0.00000000
0.61953847 0.77102475 -0.00380599 0.00000000
2.55212514 0.91728010 -0.00316559 0.00000000
3.40244591 0.12809458 -0.00353434 0.00000000
2.47275628 1.43106031 -0.00275887 0.00000000
0.06383416 1.92961425 -0.00040273 0.00000000
4.01232738 2.05678489 0.00478606 0.00000000
3.24975836 0.72689000 0.00206966 0.00000000
2.64743073 1.23618543 0.00054782 0.00000000
2.93484377 0.90833586 0.00407104 0.00000000
3.58122654 0.64217935 0.00078601 0.00000000
2.00236392 1.84980940 -0.00037885 0.00000000
3.51732253 0.63993845 0.00365190 0.00000000
3.50146217 2.13828866 0.00566018 0.00000000
0.89494865 0.12631171 -0.00180078 0.00000000
2.08663130 1.49199433 -0.00081373 0.00000000
1.58403454 2.04281356 -0.00091081 0.00000000
1.35576931 1.35333476 -0.00167641 0.00000000
0.70356111 0.17315445 -0.00096479 0.00000000
2.63116276 1.13337836 0.00187132 0.00000000
0.22183160 0.09976418 0.00099773 0.00000000
2.88985709 0.92698724 0.00145027 0.00000000
3.19150408 2.00395379 0.00203381 0.00000000
4.29430532 1.82510492 -0.00099275 0.00000000
2.38281717 0.67834694 0.00077064 0.00000000
0.88922867 2.08351371 0.00254776 0.00000000
1.36628809 2.09988918 0.00151318 0.00000000
1.48454395 1.59903388 0.00148797 0.00000000
3.31023656 0.18196673 0.00345697 0.00000000
2.85491000 1.96940154 -0.00178832 0.00000000
2.24297970 1.16667835 -0.00271594 0.00000000
2.43891266 0.63495155 -0.00471756 0.00000000
4.06171317 2.19870126 -0.00107128 0.00000000
2.12079909 1.79928707 -0.00269164 0.00000000
3.50661009 0.99510469 0.00104925 0.00000000
2.93696251 1.68101107 -0.00147550 0.00000000
3.30860589 2.13260673 0.00066734 0.00000000
1.07574343 1.96370817 -0.00055951 0.00000000
0.42990518 1.65339955 0.00032420 0.00000000
3.38875596 2.08404668 -0.00322771 0.00000000
3.08437035 0.56728941 -0.00033468 0.00000000
2.62467093 2.17985133 0.00060171 0.00000000
0.26756945 0.11263026 -0.00001923 0.00000000
2.44530932 1.84809350 0.00137194 0.00000000
3.53482388 0.84125614 0.00220939 0.00000000
4.10580586 1.26594819 0.00061348 0.00000000
1.34659260 1.07111682 -0.00159735 0.00000000
1.69535537 0.74223628 0.00032162 0.00000000
1.72773275 0.05605184 -0.00147142 0.00000000
2.03182652 1.59850096 0.00139023 0.00000000
2.70562068 2.01172993 0.00310643 0.00000000
3.66833889 1.34917610 0.00204257 0.00000000
1.16616961 1.14602370 0.00120818 0.00000000
1.53081590 0.08762141 -0.00436206 0.00000000
2.63908336 1.12316585 0.00062414 0.00000000
4.19997654 2.12010738 0.00036250 0.00000000
1.39536945 1.51610379 0.00153289 0.00000000
2.06145987 0.43744463 -0.00003636 0.00000000
3.70072277 0.40523304 -0.00184356 0.00000000
2.94220472 0.16730545 -0.00246723 0.00000000
3.75583778 2.05832543 -0.00053620 0.00000000
3.65829031 0.64743677 0.00308495 0.00000000
2.37826837 0.70269598 0.00422857 0.00000000
0.07345746 1.37987692 -0.00636610 0.00000000
3.91695857 1.65391250 -0.00026320 0.00000000
1.46428135 0.54433582 -0.00059820 0.00000000
3.92559288 1.38005353 0.00272982 0.00000000
4.08414318 0.05996637 -0.00258524 0.00000000
0.61818740 1.44318213 -0.00102041 0.00000000
2.20351192 1.26472122 -0.00248242 0.00000000
0.21148493 1.37747365 0.00015719 0.00000000
2.03528188 1.07846027 -0.00079188 0.00000000
1.95156226 1.82248269 0.00052012 0.00000000
4.34368540 0.53118137 0.00219713 0.00000000
1.85341476 0.82300585 0.00399748 0.00000000
0.42078392 0.58988625 -0.00191372 0.00000000
0.09350359 0.41961456 -0.00213301 0.00000000
4.03272005 1.29345039 0.00142274 0.00000000
0.66980730 1.20800682 0.00018611 0.00000000
2.04565202 0.81108324 0.00064887 0.00000000
1.12337868 1.84424467 -0.00045551 0.00000000
3.79325983 0.89909457 -0.00275290 0.00000000
1.56594017 0.81345978 -0.00323514 0.00000000
4.12419626 0.64239055 -0.00255032 0.00000000
2.71221760 0.47160322 -0.00043421 0.00000000
0.99877082 0.31748166 -0.00143657 0.00000000
1.18349133 1.43248307 0.00069979 0.00000000
4.15558577 2.14902830 -0.00250921 0.00000000
1.27334631 1.44809176 0.00362926 0.00000000
2.50484425 0.27412671 0.00007343 0.00000000
2.87614381 0.25047495 -0.00475296 0.00000000
2.19276073 2.03270966 0.00217834 0.00000000
2.13332348 0.08094498 -0.00337260 0.00000000
2.18374500 0.18094907 0.00231344 0.00000000
3.86777799 1.27847854 -0.00092739 0.00000000
1.40561125 1.46258247 -0.00495884 0.00000000
3.76295671 0.57705493 0.00119622 0.00000000
1.42823411 0.43108015 -0.00041296 0.00000000
3.14790283 1.34654613 -0.00408613 0.00000000
0.51941888 0.39524032 -0.00055861 0.00000000
3.07977760 2.00059824 0.00083009 0.00000000
3.33912622 1.56272303 -0.00299153 0.00000000
1.61534941 0.31290364 -0.00201333 0.00000000
2.49633793 0.55612740 0.00404037 0.00000000
0.59642890 1.78890876 -0.00095220 0.00000000
2.53307708 0.09627645 0.00295142 0.00000000
0.57556099 2.00612389 -0.00317842 0.00000000
3.14994003 0.48408789 -0.00495242 0.00000000
2.25799793 0.25141269 0.00278509 0.00000000
0.53360435 2.05096627 0.00468713 0.00000000
2.81967891 0.19961528 -0.00279211 0.00000000
1.98446897 1.30803140 -0.00201660 0.00000000
0.86851276 0.03393223 -0.00140699 0.00000000
1.57077454 1.25849934 -0.00114389 0.00000000
0.73339456 0.17941697 -0.00186089 0.00000000
2.53815844 0.30799897 -0.00026569 0.00000000
1.40532311 0.55199340 -0.00377400 0.00000000
1.15174762 1.69955528 0.00403206 0.00000000
0.40727148 0.03573013 -0.00209140 0.00000000
3.31050571 1.63323024 -0.00296953 0.00000000
1.42608691 1.43681997 0.00493364 0.00000000
4.18474330 2.10541423 -0.00108602 0.00000000
1.82973249 1.18231787 -0.00030021 0.00000000
1.56842865 1.94304635 0.00065463 0.00000000
2.89300641 1.98353418 -0.00282035 0.00000000
1.62940213 0.76114290 -0.00010751 0.00000000
1.99223308 1.23855189 0.00031517 0.00000000
1.98571103 1.27470789 -0.00433963 0.00000000
1.30410095 0.98514065 0.00299423 0.00000000
0.71048767 1.59996028 0.00271410 0.00000000
2.17605607 0.34816431 0.00032958 0.00000000
2.57526140 0.63265616 0.00249024 0.00000000
3.62675282 2.15784334 0.00256373 0.00000000
4.23610160 0.59583185 0.00143108 0.00000000
3.49664065 0.43912415 -0.00137114 0.00000000
3.48910554 0.53459180 0.00114882 0.00000000
2.58499011 0.43336044 0.00849402 0.00000000
2.76149772 0.31411504 0.00043237 0.00000000
1.18424002 2.02290317 0.00219005 0.00000000
0.12507014 0.62935676 0.00336373 0.00000000
0.10969816 0.26446646 -0.00141000 0.00000000
4.21248129 0.77318722 -0.00248250 0.00000000
1.04675590 0.76640021 -0.00044079 0.00000000
3.98756016 1.76700668 0.00057120 0.00000000
0.50183981 0.24643042 -0.00530736 0.00000000
3.85433152 0.43964579 -0.00261981 0.00000000
3.20472705 0.01299519 -0.00472495 0.00000000
0.19715775 0.60736992 -0.00570545 0.00000000
1.46740966 1.68067965 0.00111618 0.00000000
4.07649245 1.98098049 0.00027751 0.00000000
1.40916857 2.04028727 0.00117964 0.00000000
2.72740833 0.17629023 -0.00284431 0.00000000
4.01619087 0.44688390 0.00207165 0.00000000
0.90687856 1.50748272 -0.00174347 0.00000000
2.99490345 0.58898888 -0.00040051 0.00000000
3.33979147 0.65452227 0.00252513 0.00000000
0.84907714 0.03272925 -0.00181175 0.00000000
0.77584860 1.95747157 -0.00248407 0.00000000
1.41586730 2.21966413 0.00078248 0.00000000
0.52928564 1.58795763 0.00191562 0.00000000
0.81068213 0.05489738 0.00003642 0.00000000
0.72829413 1.18125311 0.00256935 0.00000000
1.61133824 1.98603535 0.00053943 0.00000000
2.85626533 0.68564064 -0.00353058 0.00000000
3.38036536 1.19914035 0.00113447 0.00000000
3.79445271 1.98421341 0.00196496 0.00000000
1.69903497 0.65118400 0.00188541 0.00000000
3.69808387 0.70102361 0.00244146 0.00000000
0.51925266 0.21221705 0.00012785 0.00000000
0.25769519 0.03470956 0.00261022 0.00000000
4.17908678 1.69616607 0.00079612 0.00000000
4.00305266 0.79049124 -0.00091278 0.00000000
3.62981138 1.72849361 0.00106241 0.00000000
4.27479167 0.41785019 -0.00289246 0.00000000
0.02913052 1.96919484 -0.00009406 0.00000000
0.26557716 0.24054993 -0.00023140 0.00000000
0.04739355 1.29381216 0.00163585 0.00000000
3.88951592 0.23080606 0.00014437 0.00000000
0.62653697 0.88232107 0.00393624 0.00000000
0.66905041 2.17924726 0.00099257 0.00000000
0.72953057 1.26228845 0.00068440 0.00000000
3.41461007 0.97912508 0.00650268 0.00000000
3.22423243 0.43106524 0.00113667 0.00000000
3.84595291 0.00968345 0.00258248 0.00000000
4.06791112 1.57290195 -0.00018565 0.00000000
1.78779548 1.62964143 0.00402269 0.00000000
0.88384086 2.23561780 -0.00009188 0.00000000
2.96955506 2.03625550 0.00456687 0.00000000
2.41641108 0.80518959 0.00371982 0.00000000
2.66699328 1.62396851 0.00053532 0.00000000
1.13315632 1.14593343 -0.00252684 0.00000000
2.86800868 0.58166838 0.00141133 0.00000000
0.20184082 1.68167864 0.00227996 0.00000000
4.21643164 1.42267152 0.00218119 0.00000000
4.00558384 1.35965933 -0.00256173 0.00000000
4.24955503 0.45190373 -0.00205522 0.00000000
1.86248205 2.18981271 0.00107763 0.00000000
3.58217657 0.38234987 0.00046641 0.00000000
2.09425524 0.17387761 0.00259095 0.00000000
2.66820749 1.12808139 -0.00459151 0.00000000
2.74085116 0.74766353 0.00101870 0.00000000
3.16163405 0.51098760 0.00217264 0.00000000
0.00066019 0.14280356 -0.00005633 0.00000000
4.26685653 1.60250176 0.00207077 0.00000000
3.16876645 1.38385823 0.00318310 0.00000000
1.11143317 0.89688717 0.00308440 0.00000000
0.87288827 0.84800409 0.00119834 0.00000000
2.60463568 0.85616479 0.00194588 0.00000000
1.37663585 1.74059286 0.00035046 0.00000000
0.17926169 0.60535331 0.00134591 0.00000000
0.96436696 1.83441600 0.00461769 0.00000000
4.16120821 0.66967922 0.00263059 0.00000000
2.58138822 0.20234824 -0.00120585 0.00000000
1.11683258 0.08848182 -0.00204957 0.00000000
1.74821787 1.65376991 0.00539732 0.00000000
3.93549051 1.21442671 -0.00044051 0.00000000
4.17347583 1.50175169 -0.00239839 0.00000000
3.36522051 0.93189010 -0.00295231 0.00000000
3.77831837 0.93231600 -0.00218360 0.00000000
3.50393500 1.47038665 -0.00031983 0.00000000
3.54243957 1.51089888 -0.00315388 0.00000000
1.49650813 0.52401735 -0.00356494 0.00000000
0.82778058 1.69152838 -0.00320210 0.00000000
2.18483571 1.23883702 0.00028345 0.00000000
2.11241503 1.08867209 -0.00216418 0.00000000
1.71031141 0.84344002 -0.00271884 0.00000000
0.32531805 1.81699875 0.00276942 0.00000000
3.58470553 0.70704754 0.00083508 0.00000000
2.97214978 0.20364080 0.00112215 0.00000000
1.23474743 1.66578475 0.00138847 0.00000000
0.31134248 1.71173583 -0.00277435 0.00000000
0.04113138 0.30829019 -0.00530021 0.00000000
3.08691190 0.29999329 -0.00154565 0.00000000
0.53829688 0.44012861 -0.00075618 0.00000000
4.22298408 2.06929153 -0.00156700 0.00000000
0.69101192 0.82999431 0.00208907 0.00000000
0.77748218 0.44219091 0.00142031 0.00000000
2.76706741 1.89755942 -0.00046653 0.00000000
4.35059813 1.34919250 0.00135108 0.00000000
1.01506102 2.17319672 0.00243265 0.00000000
2.40168694 1.55633400 0.00278406 0.00000000
0.26309562 1.56891575 0.00152263 0.00000000
1.24480912 1.86603844 -0.00266298 0.00000000
0.69669967 0.84918917 0.00123062 0.00000000
3.12950589 0.39907886 0.00031700 0.00000000
3.14267562 1.81649684 0.00164390 0.00000000
0.95142234 0.06905169 0.00054108 0.00000000
2.28587904 1.12628068 0.00237310 0.00000000
2.10174648 1.53221249 0.00089190 0.00000000
2.77397630 0.41910175 0.00018614 0.00000000
2.40817544 0.52640484 0.00232416 0.00000000
1.39537188 0.89963713 0.00185973 0.00000000
0.13499982 1.73332290 0.00033716 0.00000000
2.64193730 1.55489431 0.00144372 0.00000000
3.69244499 0.37136302 -0.00180682 0.00000000
3.05289565 0.42299635 -0.00087503 0.00000000
2.13986011 0.80948640 -0.00354823 0.00000000
1.72976985 0.98387203 -0.00141669 0.00000000
2.23880870 2.21466448 0.00129212 0.00000000
4.09410744 1.46145197 0.00565146 0.00000000
0.93523793 2.09643464 0.00371560 0.00000000
3.80838494 0.74747716 0.00185931 0.00000000
0.51532596 1.94061337 0.00137368 0.00000000
0.14142512 1.99576734 0.00127781 0.00000000
2.72414546 1.64229734 0.00155872 0.00000000
0.51147381 1.79565083 -0.00159223 0.00000000
1.60879813 1.70281878 -0.00325105 0.00000000
3.34284320 1.92347110 -0.00141492 0.00000000
4.17531816 0.34073717 -0.00129074 0.00000000
0.01424371 1.97988642 0.00248913 0.00000000
2.70319798 0.69283347 -0.00193864 0.00000000
0.77630875 1.42691504 0.00252498 0.00000000
0.77146784 1.23251597 -0.00146364 0.00000000
1.16071420 0.08302177 -0.00434183 0.00000000
0.12633855 0.24909017 -0.00613018 0.00000000
1.05522334 0.47808198 0.00376604 0.00000000
1.39817747 2.22610224 -0.00064360 0.00000000
3.49910854 1.30889126 -0.00027511 0.00000000
0.15980427 1.98898340 0.00378622 0.00000000
3.11983827 0.21173008 -0.00008361 0.00000000
0.36551237 0.83697101 -0.00179449 0.00000000
1.62523760 1.20326671 -0.00051895 0.00000000
3.02935239 1.29685107 0.00028050 0.00000000
0.67850292 1.47639749 0.00048524 0.00000000
2.67475932 1.35605547 -0.00050590 0.00000000
1.22798844 1.09942461 -0.00129284 0.00000000
3.64863205 1.05420150 0.00081208 0.00000000
1.82855042 1.32382317 -0.00125233 0.00000000
4.28637448 1.77552513 0.00279177 0.00000000
3.36512111 0.10934081 0.00122853 0.00000000
0.21143510 0.57892364 0.00125894 0.00000000
4.12487552 1.00243570 0.00006534 0.00000000
3.49178954 0.58175905 -0.00421567 0.00000000
1.92207367 2.11454565 0.00319524 0.00000000
0.45796679 0.95784522 0.00265799 0.00000000
3.65203787 0.71065013 0.00263116 0.00000000
2.78438667 0.35825478 -0.00401117 0.00000000
0.09620577 0.12143931 -0.00269263 0.00000000
4.19186953 1.09445517 -0.00078614 0.00000000
2.11993912 2.12484825 0.00280436 0.00000000
1.84099252 1.10458092 0.00267790 0.00000000
0.49517586 1.83982411 -0.00171272 0.00000000
1.64387317 1.06899587 0.00105905 0.00000000
1.98858551 0.81294093 0.00155972 0.00000000
1.86173429 1.50475115 0.00034328 0.00000000
1.76255927 0.55967619 -0.00284677 0.00000000
2.41209163 0.96053802 -0.00081399 0.00000000
3.77873754 1.92467302 0.00070941 0.00000000
1.79628412 1.26665010 -0.00143724 0.00000000
2.01599534 0.20038416 0.00260304 0.00000000
2.40050542 1.38624961 -0.00154944 0.00000000
3.00117839 1.82199572 0.00746273 0.00000000
2.63343428 2.14867609 0.00226463 0.00000000
4.12479296 1.29834672 0.00363324 0.00000000
3.62281312 0.40209807 0.00190358 0.00000000
3.41702629 1.14850172 0.00602457 0.00000000
0.45804931 0.07350628 -0.00117118 0.00000000
1.31764967 0.52019749 0.00011033 0.00000000
4.31244329 0.89441070 0.00533132 0.00000000
0.18649656 1.56899833 0.00041199 0.00000000
0.53792719 1.96795219 -0.00236702 0.00000000
0.94907126 0.22533934 -0.00040103 0.00000000
2.79378616 0.74661990 0.00037808 0.00000000
1.45877709 0.41976999 0.00127224 0.00000000
0.48151100 0.90791769 0.00180259 0.00000000
2.30837095 2.13918404 0.00362850 0.00000000
0.45979090 1.41126656 -0.00319247 0.00000000
2.72862363 0.48766226 -0.00019063 0.00000000
3.05769325 1.16780946 -0.00564235 0.00000000
0.70344477 0.51790585 -0.00092843 0.00000000
1.09975083 0.72716268 0.00123035 0.00000000
3.31183041 0.55587320 -0.00187599 0.00000000
0.00441602 1.32755124 -0.00240185 0.00000000
0.56612526 1.17676917 0.00462600 0.00000000
2.58308046 0.59066062 0.00100089 0.00000000
3.80717424 1.31903490 -0.00000326 0.00000000
2.94368868 0.03688028 -0.00131901 0.00000000
2.96472737 1.91305168 -0.00098194 0.00000000
0.40368264 0.69143608 0.00362932 0.00000000
2.72761964 0.57573761 0.00048338 0.00000000
0.32829105 1.41577441 -0.00017933 0.00000000
3.18958498 0.77271017 0.00068747 0.00000000
1.09758718 1.75811955 -0.00250650 0.00000000
4.17313790 0.32120265 0.00336134 0.00000000
2.69669359 1.79255863 0.00221282 0.00000000
2.88498358 1.99925245 0.00098157 0.00000000
2.50898494 0.28109153 -0.00151694 0.00000000
2.10628866 1.67521852 -0.00177217 0.00000000
2.80807356 1.06811210 0.00237996 0.00000000
1.41810327 0.31045547 -0.00105885 0.00000000
1.61036755 1.54518776 0.00267437 0.00000000
1.86075338 1.49099750 0.00006212 0.00000000
1.12678458 1.04755062 -0.00438755 0.00000000
1.46813792 1.74493965 0.00192576 0.00000000
1.02006970 0.22923050 -0.00458368 0.00000000
2.29797459 0.27905971 -0.00035898 0.00000000
2.68586552 0.35306334 0.00060513 0.00000000
3.17924884 1.29579576 0.00160923 0.00000000
0.13592208 0.93522096 0.00116771 0.00000000
2.61036991 1.64111331 0.00568750 0.00000000
2.52890465 0.53592544 -0.00001483 0.00000000
3.92180531 0.80676332 -0.00090404 0.00000000
0.63145918 1.06277934 -0.00092610 0.00000000
0.05213895 0.57147966 -0.00349645 0.00000000
0.67935290 1.82673953 0.00054335 0.00000000
2.06034462 0.92746829 0.00293179 0.00000000
3.56864397 0.43456674 -0.00241933 0.00000000
1.25213149 0.49744858 0.00127554 0.00000000
3.99486537 1.66205841 -0.00138145 0.00000000
0.27439111 1.30729024 0.00103959 0.00000000
3.64756688 2.01785420 0.00046746 0.00000000
0.99651692 1.05798047 -0.00605782 0.00000000
3.94492190 1.66622914 0.00362457 0.00000000
0.87475219 0.70386390 0.00038780 0.00000000
3.80610250 1.48846073 -0.00310249 0.00000000
2.33487888 0.92274005 0.00175223 0.00000000
3.52698358 1.98713621 0.00400294 0.00000000
2.70264391 1.08955343 -0.00263486 0.00000000
3.59205750 0.62408358 -0.00031968 0.00000000
0.37137562 0.61784077 -0.00257140 0.00000000
0.96242066 1.51511063 -0.00122564 0.00000000
3.43741895 0.72518995 -0.00021447 0.00000000
3.11292199 0.47572409 -0.00306460 0.00000000
1.22585365 0.18224957 0.00088655 0.00000000
1.91864214 0.27744729 -0.00047247 0.00000000
3.18772759 0.35855799 -0.00088036 0.00000000
4.21984605 1.10134356 0.00130471 0.00000000
3.65850332 2.20970883 -0.00029954 0.00000000
2.72830918 0.90723562 -0.00056429 0.00000000
2.53625868 1.90228753 -0.00258777 0.00000000
4.27926383 1.21416252 0.00168695 0.00000000
1.31708937 2.00163416 0.00369558 0.00000000
3.36748371 2.23030045 0.00064635 0.00000000
0.79106044 0.71728123 0.00047444 0.00000000
2.84418450 1.27950242 -0.00003341 0.00000000
2.80176139 1.61131256 0.00279875 0.00000000
2.80553389 0.69775353 -0.00164708 0.00000000
0.36192891 0.32778800 0.00521983 0.00000000
0.11591238 1.51034736 0.00349803 0.00000000
3.05068125 1.40468016 -0.00183394 0.00000000
4.33611231 0.91321969 -0.00499573 0.00000000
3.27603051 0.66655604 0.00118513 0.00000000
1.61492588 1.28425202 0.00265580 0.00000000
3.01022197 0.39862506 -0.00028359 0.00000000
0.84465132 0.83570532 0.00029166 0.00000000
3.92568702 1.01734368 -0.00555836 0.00000000
1.07930764 0.89915648 0.00041483 0.00000000
3.75535198 1.72399010 0.00039172 0.00000000
0.70533818 1.74320413 0.00003096 0.00000000
1.96595954 0.24819153 -0.00147285 0.00000000
2.87731625 1.20580619 0.00388598 0.00000000
2.86151846 0.15082931 -0.00184946 0.00000000
1.24766040 2.23416409 0.00337712 0.00000000
1.99705629 1.29396235 0.00102964 0.00000000
0.81895217 1.07765815 0.00020834 0.00000000
2.42934384 1.73102888 0.00351544 0.00000000
1.81192225 0.50006608 0.00038046 0.00000000
4.03040197 0.50691161 -0.00420921 0.00000000
3.90952494 1.56048055 0.00610277 0.00000000
0.73686779 1.97025005 -0.00500554 0.00000000
2.23758305 1.93050796 -0.00349785 0.00000000
0.39975435 0.58617529 -0.00221687 0.00000000
0.26503237 0.02232872 0.00120779 0.00000000
3.98635773 1.60992699 -0.00001419 0.00000000
2.15041178 1.87481596 0.00196154 0.00000000
2.70766449 1.96834540 -0.00055911 0.00000000
3.18819100 1.84532056 0.00262602 0.00000000
1.80281180 0.25626730 0.00179293 0.00000000
2.40845072 2.00767932 0.00604706 0.00000000
2.43675637 1.09279033 0.00048375 0.00000000
0.91888818 0.22679116 -0.00003495 0.00000000
1.24115575 0.15212535 -0.00021863 0.00000000
2.89405511 1.06798400 -0.00232700 0.00000000
2.88442734 0.43866953 -0.00136841 0.00000000
0.89586572 1.69101261 0.00047416 0.00000000
3.01258218 0.86447780 0.00108496 0.00000000
4.09795315 0.02397001 0.00225432 0.00000000
0.57268213 1.29983130 0.00132259 0.00000000
3.40188374 0.44202019 -0.00289458 0.00000000
3.94587339 1.74021598 0.00683597 0.00000000
1.38447951 1.83924062 -0.00028711 0.00000000
0.76709097 0.26507819 0.00000363 0.00000000
1.23755755 1.56674483 0.00151409 0.00000000
4.12933887 2.12299775 -0.00062765 0.00000000
3.85273734 0.87683823 0.00249598 0.00000000
4.24902003 0.10869553 -0.00213025 0.00000000
0.81279399 0.70198988 0.00110492 0.00000000
0.03017116 1.44099669 -0.00270778 0.00000000
3.01694669 1.47819054 -0.00100540 0.00000000
3.66811174 0.43099010 -0.00077799 0.00000000
0.89074126 1.42031212 0.00452150 0.00000000
1.43637151 0.88402047 0.00375410 0.00000000
1.58361511 2.00325820 0.00113017 0.00000000
2.65679322 1.89578788 0.00236466 0.00000000
1.46426128 0.84391861 -0.00081056 0.00000000
3.20301641 2.03812325 0.00356820 0.00000000
3.40445518 0.74193295 -0.00383623 0.00000000
4.05878733 0.49842302 -0.00270126 0.00000000
4.11853402 0.17235442 -0.00305478 0.00000000
0.20356155 1.21894398 -0.00001327 0.00000000
3.47992931 1.15323865 -0.00439749 0.00000000
0.94869137 1.16258259 -0.00175166 0.00000000
0.25235021 0.26373984 0.00097850 0.00000000
2.06934866 1.92636499 0.00322759 0.00000000
2.29357779 0.36620128 -0.00249201 0.00000000
2.15894934 0.75231978 -0.00247327 0.00000000
2.64480212 0.72341120 -0.00026417 0.00000000
1.03164078 1.51293158 -0.00024793 0.00000000
0.56062639 0.65371598 0.00073917 0.00000000
4.22875520 1.00081078 -0.00281015 0.00000000
2.15769197 1.55216438 -0.00121726 0.00000000
3.85893111 1.18283406 0.00035404 0.00000000
2.24202211 2.05437266 0.00264031 0.00000000
1.12341647 0.05865018 0.00026386 0.00000000
4.11607642 0.65885038 -0.00049395 0.00000000
3.65996232 1.84062731 -0.00144676 0.00000000
4.25229152 1.36236533 0.00310486 0.00000000
2.44456895 0.22771892 -0.00275163 0.00000000
1.60470302 0.63112565 -0.00052085 0.00000000
4.04773400 1.41145045 -0.00246542 0.00000000
0.14470830 1.71454569 0.00293608 0.00000000
3.36769168 0.23058655 -0.00198059 0.00000000
1.92466373 1.89509654 0.00246691 0.00000000
2.27922824 2.14297821 0.00037325 0.00000000
2.77784920 2.02464782 0.00022485 0.00000000
1.92890874 1.54379521 0.00345244 0.00000000
0.42681802 1.73570448 0.00514346 0.00000000
3.06959867 0.90547851 0.00191263 0.00000000
3.21847870 1.46079360 0.00173365 0.00000000
4.14986619 0.16852529 0.00041838 0.00000000
1.57784472 0.14242633 0.00571272 0.00000000
0.29847643 0.95127016 0.00057124 0.00000000
4.34419819 0.35655897 -0.00349606 0.00000000
3.51444661 1.59410693 0.00009414 0.00000000
1.25330987 0.72695692 -0.00277641 0.00000000
1.09909377 1.65456133 -0.00253468 0.00000000
0.69413981 1.54721567 0.00129156 0.00000000
3.82468182 1.24368904 0.00078619 0.00000000
3.58421703 0.75919491 -0.00278116 0.00000000
3.99208508 1.28905817 0.00274692 0.00000000
2.30728145 2.13257065 0.00303384 0.00000000
1.35572707 0.72569742 0.00266138 0.00000000
3.47467113 1.57504105 -0.00291031 0.00000000
1.10398167 1.56883387 -0.00402468 0.00000000
2.02396312 1.15935920 0.00212601 0.00000000
4.00661321 1.13092041 -0.00064085 0.00000000
2.88694403 0.78392764 0.00379165 0.00000000
0.92434555 2.02634345 -0.00390940 0.00000000
0.58506759 0.66570479 -0.00087113 0.00000000
3.77300034 2.15560815 0.00177232 0.00000000
4.33406772 0.41409779 0.00294591 0.00000000
3.54479529 1.19642400 -0.00162122 0.00000000
4.27828946 0.29835449 0.00018413 0.00000000
4.30155474 0.49525329 0.00054330 0.00000000
3.75493316 1.71714646 0.00241031 0.00000000
4.34998897 1.19537522 -0.00131597 0.00000000
1.91884299 0.52233708 0.00352507 0.00000000
1.38396418 1.27192186 0.00242714 0.00000000
2.12901616 0.72144988 0.00067803 0.00000000
1.18840481 0.32441446 0.00090432 0.00000000
0.55153250 0.67790064 -0.00473076 0.00000000
1.65940109 0.69679002 -0.00330849 0.00000000
3.90643455 1.61066398 -0.00209355 0.00000000
1.88747048 0.54250697 -0.00173819 0.00000000
0.89294581 1.76820775 -0.00098929 0.00000000
2.47289703 2.12178589 0.00170626 0.00000000
2.44321586 0.49150239 0.00204293 0.00000000
0.96687466 2.21967898 -0.00249122 0.00000000
1.43005800 0.42071271 -0.00189458 0.00000000
0.92317129 1.59660918 -0.00217353 0.00000000
1.63538659 1.52155444 0.00045915 0.00000000
2.78088181 0.23541228 0.00137712 0.00000000
2.23016698 2.21371796 -0.00048033 0.00000000
0.74090630 0.72472153 0.00056386 0.00000000
4.00122635 0.27959190 -0.00531656 0.00000000
1.20831316 2.03468579 -0.00346986 0.00000000
3.57214552 1.17019819 0.00372700 0.00000000
0.19576781 0.82380064 -0.00280123 0.00000000
1.82770864 0.10287201 0.00287517 0.00000000
2.73689040 1.67020258 0.00147943 0.00000000
1.55734234 1.26892960 0.00272149 0.00000000
0.64378831 0.33486103 0.00484096 0.00000000
0.46350672 0.51846028 0.00285463 0.00000000
0.21905237 0.42475871 0.00006008 0.00000000
0.13331537 1.82479924 -0.00048673 0.00000000
4.33006711 0.19032481 0.00090957 0.00000000
2.79966986 0.31895983 0.00034636 0.00000000
3.05176310 0.01978123 0.00413107 0.00000000
1.35607062 2.03866831 -0.00008031 0.00000000
3.96588364 2.18247977 -0.00476556 0.00000000
2.53346034 1.29736774 -0.00192239 0.00000000
3.46120467 0.83528784 0.00121479 0.00000000
1.07664002 1.71271989 -0.00149230 0.00000000
0.31236742 1.95479659 -0.00335817 0.00000000
1.37806917 0.53925580 -0.00188273 0.00000000
1.72307978 0.70110582 0.00575685 0.00000000
0.45442876 1.35614417 -0.00279080 0.00000000
0.59693326 0.40820744 -0.00196413 0.00000000
0.76988542 0.66477650 0.00155321 0.00000000
3.96462103 1.79736065 -0.00025597 0.00000000
0.50211717 2.21055889 -0.00305522 0.00000000
2.71305887 1.45537305 -0.00063659 0.00000000
1.70266154 0.38793006 0.00190042 0.00000000
2.51617110 0.62030256 -0.00387708 0.00000000
3.05963603 1.83849709 0.00335851 0.00000000
0.35295935 0.53248822 -0.00120051 0.00000000
2.02945988 0.24532165 0.00152583 0.00000000
3.24961831 0.97953854 -0.00026207 0.00000000
1.04872764 1.04559176 0.00273373 0.00000000
1.88467442 0.77918534 -0.00152604 0.00000000
2.68195098 0.35219331 0.00011607 0.00000000
0.01882432 0.02283135 -0.00306209 0.00000000
0.57694094 0.01571806 0.00383729 0.00000000
3.43675840 0.73474055 0.00188149 0.00000000
3.06766272 1.80188712 0.00601502 0.00000000
4.09007768 1.83065697 0.00030601 0.00000000
1.54398511 0.31458658 0.00015128 0.00000000
1.25758405 1.01812753 -0.00167665 0.00000000
3.52670085 1.95011340 0.00269127 0.00000000
4.27984075 1.78892324 -0.00009097 0.00000000
0.71707505 0.34636301 0.00157217 0.00000000
1.36214357 0.35060859 -0.00298386 0.00000000
0.37617042 0.26807101 -0.00311198 0.00000000
0.09165723 1.35268814 -0.00264620 0.00000000
2.83313452 0.31147559 0.00255065 0.00000000
0.16613031 0.91407743 -0.00414562 0.00000000
2.27021067 1.46885034 0.00032683 0.00000000
2.77670488 1.52056871 -0.00082834 0.00000000
2.41092723 0.69826160 0.00171156 0.00000000
2.58564128 0.08948650 0.00178906 0.00000000
3.37975437 1.40932824 0.00095270 0.00000000
0.23589184 1.69507527 0.00048643 0.00000000
3.80350920 1.71963234 -0.00108538 0.00000000
4.00683628 0.57499934 0.00187809 0.00000000
2.04608621 1.30993674 0.00049552 0.00000000
1.97978603 0.29934615 0.00207352 0.00000000
3.83842049 0.32317490 -0.00096183 0.00000000
2.11412396 1.95125987 -0.00420322 0.00000000
0.27665121 0.16569720 -0.00188425 0.00000000
4.18147993 0.87306550 0.00104131 0.00000000
1.62393951 1.72043399 -0.00183851 0.00000000
4.02428488 0.04048961 0.00117474 0.00000000
4.09675139 0.85563157 0.00178977 0.00000000
1.04466327 0.98719383 -0.00438862 0.00000000
1.52239854 1.55575391 -0.00115814 0.00000000
2.26367350 0.03364523 0.00394767 0.00000000
3.04401897 0.15865939 0.00585021 0.00000000
0.34999911 0.75171056 0.00447212 0.00000000
2.45354766 0.89863395 -0.00157874 0.00000000
3.02605574 0.70016713 -0.00099950 0.00000000
0.30022099 0.08652649 -0.00033769 0.00000000
0.18363442 2.19283088 0.00016774 0.00000000
2.59470554 1.32210300 0.00028397 0.00000000
1.85854407 2.20760780 0.00394124 0.00000000
3.87480776 1.91402956 0.00131664 0.00000000
0.23352523 0.51571295 -0.00376807 0.00000000
4.25250520 1.38097643 -0.00284445 0.00000000
0.58301562 0.95649814 0.00157807 0.00000000
2.39581092 1.89269190 -0.00550929 0.00000000
0.56959900 0.65800042 0.00173634 0.00000000
1.96292443 0.20946098 0.00036080 0.00000000
2.30123786 0.84721174 0.00374033 0.00000000
3.91912684 0.72170090 0.00223200 0.00000000
4.33169501 2.12273613 -0.00181353 0.00000000
1.47433611 1.96029618 -0.00032076 0.00000000
2.68374246 0.33672001 -0.00454141 0.00000000
3.26648134 1.34294993 -0.00103156 0.00000000
0.20280652 1.04916815 -0.00155644 0.00000000
0.56284605 0.23158168 -0.00195015 0.00000000
0.09341308 1.85839932 -0.00493133 0.00000000
4.22923210 0.38791312 -0.00661077 0.00000000
2.95897562 0.73088967 -0.00034818 0.00000000
4.34008165 1.15693139 -0.00099199 0.00000000
0.57835371 1.98928332 -0.00376538 0.00000000
1.61251533 1.81851993 -0.00009971 0.00000000
3.71412851 0.42838973 0.00390123 0.00000000
0.46415744 1.33939190 0.00127331 0.00000000
1.34147315 0.09128449 0.00224805 0.00000000
0.38596874 1.45944777 -0.00291615 0.00000000
1.93665982 0.47151749 0.00412808 0.00000000
3.10583546 0.85916015 0.00147963 0.00000000
0.61132890 0.42555039 0.00104383 0.00000000
2.10386060 2.04823023 0.00538969 0.00000000
1.26706059 0.00459713 0.00119696 0.00000000
2.03159024 0.19094120 0.00255982 0.00000000
1.91800075 1.39503594 0.00245540 0.00000000
1.28124611 0.04881573 -0.00071723 0.00000000
3.52377543 0.84493244 0.00026304 0.00000000
1.39259823 0.48163154 -0.00327767 0.00000000
0.55167979 0.12739336 -0.00307643 0.00000000
0.18465452 1.47861829 -0.00160638 0.00000000
0.93133058 1.98883101 -0.00187293 0.00000000
0.83261372 1.57936432 -0.00863226 0.00000000
0.82384691 0.90727527 -0.00109784 0.00000000
2.69298364 0.89843674 0.00059468 0.00000000
0.64701257 1.42100744 -0.00124816 0.00000000
0.70260695 0.08140931 0.00180300 0.00000000
3.83106114 0.74029827 0.00176601 0.00000000
2.56791483 1.09747072 0.00016981 0.00000000
1.83250361 2.17219203 -0.00412630 0.00000000
0.40464714 0.34858806 -0.00065889 0.00000000
1.34569518 0.19301510 0.00090812 0.00000000
3.79276615 1.94259405 0.00077260 0.00000000
3.73127194 0.42347683 -0.00188267 0.00000000
2.71149041 0.63721823 -0.00083336 0.00000000
0.49965126 0.75613630 -0.00036280 0.00000000
0.63813768 1.59828069 0.00260814 0.00000000
0.79963927 2.22348429 -0.00059046 0.00000000
0.64537167 0.39420290 0.00264422 0.00000000
3.73581940 1.27180576 -0.00140121 0.00000000
0.01859104 0.89127215 0.00250826 0.00000000
2.80458273 2.14985023 0.00071487 0.00000000
1.67100552 1.13422426 0.00163193 0.00000000
1.14960111 1.54653130 0.00290783 0.00000000
4.22666854 1.21696715 0.00106462 0.00000000
2.08144291 0.56119129 -0.00221518 0.00000000
1.75187549 0.33703423 -0.00463772 0.00000000
2.32110138 1.82200694 -0.00088211 0.00000000
0.59868474 0.00601902 -0.00031147 0.00000000
2.96367641 2.20114784 0.00078165 0.00000000
2.36668121 1.28172701 0.00007669 0.00000000
1.92343304 0.87931491 -0.00050240 0.00000000
3.49515116 0.05291064 -0.00404809 0.00000000
0.03764995 1.70131018 -0.00238351 0.00000000
0.72995586 0.26526287 -0.00328984 0.00000000
0.57477373 1.38584096 0.00109267 0.00000000
0.90898170 1.29384064 -0.00112143 0.00000000
0.63779737 0.00498671 -0.00097756 0.00000000
4.33600236 0.96077086 0.00074181 0.00000000
2.11016352 0.86855159 -0.00083200 0.00000000
1.82175047 0.21780370 -0.00117091 0.00000000
3.02531644 1.98122226 -0.00156478 0.00000000
1.71665341 1.48400974 -0.00167118 0.00000000
4.03467299 0.33356519 -0.00490077 0.00000000
1.48546314 0.61321120 0.00063368 0.00000000
0.46867431 0.86353763 0.00004129 0.00000000
2.34619509 1.87505250 -0.00223819 0.00000000
2.68279985 0.69665688 0.00113323 0.00000000
1.90271039 2.02564060 -0.00301913 0.00000000
3.24487693 1.32242421 -0.00100788 0.00000000
1.29732980 0.18896129 -0.00107567 0.00000000
2.51468869 0.06724867 0.00221910 0.00000000
0.30246121 0.81515070 -0.00223857 0.00000000
2.76934509 1.53284017 0.00092442 0.00000000
2.36389024 1.44965177 0.00151808 0.00000000
4.01555111 0.61890144 -0.00197793 0.00000000
3.33918926 0.29932094 -0.00039159 0.00000000
2.13380114 2.23217106 0.00248589 0.00000000
2.04555107 0.65709496 0.00308763 0.00000000
3.25171277 1.92969071 0.00188282 0.00000000
1.94358867 1.12453995 0.00074287 0.00000000
1.21142231 1.79479661 0.00194861 0.00000000
3.08004512 0.94343414 -0.00451730 0.00000000
1.01783269 0.23349121 0.00375791 0.00000000
1.53406558 0.62916377 -0.00397719 0.00000000
4.24191088 1.03586565 0.00073812 0.00000000
2.80698962 0.57093048 -0.00380886 0.00000000
1.95817324 0.29340786 0.00127752 0.00000000
3.40929174 0.98521059 -0.00586928 0.00000000
3.95263966 0.05604369 0.00089310 0.00000000
1.96350902 1.47150377 0.00248041 0.00000000
1.62239870 1.25780597 -0.00066384 0.00000000
3.39981784 0.16015371 -0.00060578 0.00000000
3.40921402 1.53423728 0.00411239 0.00000000
2.88920102 1.95573296 -0.00009475 0.00000000
0.81859858 1.27653238 -0.00178795 0.00000000
2.35189933 1.69145548 -0.00012234 0.00000000
0.66940824 0.64909600 -0.00220872 0.00000000
3.61482634 2.10622936 0.00120868 0.00000000
2.78129144 1.36830603 0.00303075 0.00000000
1.86228101 1.45465973 0.00109591 0.00000000
3.44231153 1.44618784 0.00112006 0.00000000
2.04825082 1.03121498 -0.00417629 0.00000000
0.87737054 1.10578137 0.00149563 0.00000000
0.17534913 0.20848658 0.00577940 0.00000000
1.59984839 0.44966057 0.00118496 0.00000000
2.37228138 1.17382655 0.00144324 0.00000000
4.13782373 0.03487363 0.00074294 0.00000000
0.39640415 0.97679065 0.00188417 0.00000000
1.49738309 1.56338219 0.00081920 0.00000000
3.40452708 1.50011158 -0.00151981 0.00000000
1.20581132 1.30556841 -0.00688781 0.00000000
4.20629286 1.95199194 -0.00542359 0.00000000
2.09927722 1.99153805 0.00202639 0.00000000
4.22007528 0.99864385 -0.00399561 0.00000000
3.57592770 2.17286418 0.00160208 0.00000000
2.05159706 0.79677158 -0.00036599 0.00000000
0.16688484 0.61767713 0.00130132 0.00000000
2.64577673 0.80151049 -0.00510560 0.00000000
2.65845827 2.07077577 -0.00455826 0.00000000
4.21125831 2.20426254 -0.00216664 0.00000000
3.75320280 1.86575381 0.00461886 0.00000000
1.42609054 1.67633214 0.00193520 0.00000000
2.04361055 0.90264331 -0.00138241 0.00000000
3.97843845 2.01920721 -0.00545104 0.00000000
2.40323019 0.43878961 0.00450459 0.00000000
1.93550339 1.87469808 0.00004690 0.00000000
0.80843901 1.35900129 0.00332881 0.00000000
3.43962545 0.51002916 -0.00247927 0.00000000
4.30432995 1.84062850 -0.00011890 0.00000000
1.92238362 0.44414799 0.00375696 0.00000000
0.32834918 1.27660632 -0.00214373 0.00000000
3.53136004 0.55710105 0.00042178 0.00000000
2.73361538 1.98968731 0.00287698 0.00000000
2.97347559 0.81430831 -0.00180955 0.00000000
4.28897523 1.64181932 -0.00099432 0.00000000
4.14897281 1.66713261 0.00044084 0.00000000
2.11747200 0.17003353 0.00154287 0.00000000
3.14243270 1.12559049 -0.00215228 0.00000000
1.93594921 2.03273234 -0.00463782 0.00000000
3.62066466 0.79442895 -0.00177659 0.00000000
4.26969711 0.97644224 0.00009076 0.00000000
0.67308197 0.69917708 0.00122418 0.00000000
1.74396905 0.48048959 0.00610222 0.00000000
2.29876003 0.18426386 -0.00924889 0.00000000
2.19243784 0.89597952 -0.00072254 0.00000000
2.52503575 2.15980834 0.00221681 0.00000000
2.80019395 2.08974085 -0.00242454 0.00000000
3.42333568 0.79811970 0.00222092 0.00000000
3.81575249 1.54430487 0.00134026 0.00000000
3.86399897 1.56034876 0.00354341 0.00000000
3.58004584 1.60653673 -0.00124999 0.00000000
1.53751800 0.23880402 -0.00146386 0.00000000
1.25453485 1.30718810 0.00326894 0.00000000
3.96775077 1.71108219 0.00212706 0.00000000
3.68802625 1.41443335 -0.00209514 0.00000000
3.26105299 0.30907121 -0.00283969 0.00000000
1.45406672 1.97482469 -0.00098651 0.00000000
0.32815242 0.00295992 0.00304386 0.00000000
1.07907234 0.65065169 -0.00214556 0.00000000
0.90684142 0.92995978 -0.00183337 0.00000000
3.16354289 1.95713001 0.00347526 0.00000000
0.03800129 0.08235499 0.00105352 0.00000000
4.18485624 1.56854708 -0.00207231 0.00000000
1.23542888 1.87766823 0.00233981 0.00000000
1.12635558 0.64346294 0.00296134 0.00000000
0.05330007 1.65874402 -0.00293527 0.00000000
3.76786801 1.76590472 -0.00451542 0.00000000
1.39740051 0.52251159 0.00351530 0.00000000
2.04474218 0.64451658 0.00305071 0.00000000
0.36318220 1.15958653 0.00050964 0.00000000
2.10593461 0.63199661 -0.00101215 0.00000000
1.35349191 0.53247426 0.00038284 0.00000000
1.99230380 0.05834382 0.00013419 0.00000000
2.01777778 2.06055355 0.00188759 0.00000000
2.98422002 2.17399188 -0.00126852 0.00000000
1.19306370 0.59439984 0.00234902 0.00000000
0.82562679 0.36352203 -0.00365513 0.00000000
0.92923607 1.95837174 -0.00034531 0.00000000
1.68382981 1.40989687 0.00373256 0.00000000
0.66156364 2.01629279 0.00127745 0.00000000
2.17284375 0.91883100 -0.00020782 0.00000000
3.25230597 0.59943680 0.00453987 0.00000000
2.57068940 1.00988888 0.00091312 0.00000000
1.44996473 1.20417920 -0.00326345 0.00000000
0.55430200 1.75917853 -0.00468854 0.00000000
2.12809857 1.92581801 -0.00061727 0.00000000
1.71598455 0.65117748 -0.00208821 0.00000000
1.03933047 1.64650248 -0.00085857 0.00000000
2.47407739 1.30182064 -0.00169539 0.00000000
3.74074193 2.16183371 0.00070066 0.00000000
1.80900469 1.82082880 -0.00256278 0.00000000
1.96980942 0.50878638 -0.00187326 0.00000000
0.26240081 1.07476643 -0.00056393 0.00000000
2.79098693 0.95865670 -0.00190098 0.00000000
0.74988026 0.27913952 -0.00014767 0.00000000
0.67516235 0.45997876 0.00267526 0.00000000
1.16329942 2.02152936 0.00055099 0.00000000
2.07220866 1.26128023 -0.00391083 0.00000000
0.84727562 1.04158152 0.00031427 0.00000000
3.82112112 1.24793669 -0.00253699 0.00000000
0.34888614 1.61452540 -0.00047480 0.00000000
2.93086969 1.71099778 -0.00295247 0.00000000
0.94055634 0.13838808 0.00019315 0.00000000
2.69987916 2.18433535 0.00184448 0.00000000
4.12634775 2.10941243 0.00451198 0.00000000
2.07528068 0.24807062 0.00218086 0.00000000
3.65432558 0.37405650 0.00711871 0.00000000
3.87847598 1.55970620 0.00186982 0.00000000
2.80384486 1.74393463 -0.00442205 0.00000000
4.07419319 0.96389105 0.00072747 0.00000000
4.25744983 1.27259120 -0.00148979 0.00000000
3.99274682 1.11291612 -0.00019824 0.00000000
1.53605975 1.72424476 0.00422120 0.00000000
0.20675268 1.56977663 0.00218713 0.00000000
2.32020792 1.20954778 0.00007907 0.00000000
0.82357999 1.83438298 0.00298719 0.00000000
2.90401856 1.75317612 -0.00232667 0.00000000
4.25561602 1.71574163 0.00106807 0.00000000
0.86039866 2.08212129 0.00021388 0.00000000
4.06754672 1.79720494 -0.00651729 0.00000000
1.43031395 1.11291286 -0.00032374 0.00000000
2.56731943 0.06244619 0.00325628 0.00000000
2.96843732 0.40928624 0.00128513 0.00000000
4.28719810 0.48772337 -0.00340962 0.00000000
2.89113276 0.18141850 -0.00264591 0.00000000
1.88435860 0.44248741 -0.00018168 0.00000000
0.18020397 0.43705747 0.00301329 0.00000000
4.19780514 2.12448547 0.00281965 0.00000000
3.51366965 0.53620232 0.00382776 0.00000000
4.09182432 0.94474394 -0.00066780 0.00000000
2.21778092 1.10836851 -0.00341958 0.00000000
0.16923694 1.84528189 -0.00091340 0.00000000
1.49915897 1.65805952 0.00037512 0.00000000
3.56455171 1.16719070 0.00210737 0.00000000
0.04512446 1.95077315 0.00011886 0.00000000
4.25402404 2.20476078 0.00218117 0.00000000
2.08415447 1.57549393 -0.00190552 0.00000000
1.96640805 0.81034768 0.00003110 0.00000000
4.32477451 1.57864627 0.00217898 0.00000000
3.33030824 2.17110816 0.00103722 0.00000000
0.55850693 0.89075546 0.00185682 0.00000000
3.51245212 0.90905382 0.00038828 0.00000000
0.21420997 2.14716470 -0.00090495 0.00000000
0.73393094 1.42430345 -0.00179371 0.00000000
1.48440792 0.85713536 0.00247199 0.00000000
1.15863877 1.44216337 0.00012839 0.00000000
2.53125122 1.61822199 -0.00184467 0.00000000
3.47942023 0.43362396 0.00192525 0.00000000
3.91565375 0.53764195 0.00036341 0.00000000
4.21984358 2.14033659 -0.00053462 0.00000000
3.70871093 1.66606961 -0.00097306 0.00000000
2.84424571 1.99187122 -0.00348058 0.00000000
0.09375824 0.49139597 0.00490618 0.00000000
1.72350018 1.00518210 0.00186275 0.00000000
0.32624418 1.37707313 0.00272669 0.00000000
2.89243093 1.89239647 -0.00027746 0.00000000
2.99206707 0.82255978 -0.00111528 0.00000000
1.81347728 1.82398881 0.00037748 0.00000000
2.86192460 1.31072141 0.00229231 0.00000000
3.40487346 2.05589833 -0.00119229 0.00000000
2.11625580 1.69390796 -0.00126160 0.00000000
2.65822508 1.45870844 0.00345959 0.00000000
2.50454411 0.91742405 -0.00135807 0.00000000
3.63303379 0.66216030 0.00036941 0.00000000
0.00174756 1.43079856 -0.00081004 0.00000000
0.74933484 1.23190166 -0.00063758 0.00000000
1.33929076 1.65606241 -0.00316132 0.00000000
0.53351096 0.00996695 -0.00171865 0.00000000
1.82963927 0.70459067 0.00135104 0.00000000
1.28876908 1.79029511 -0.00224562 0.00000000
1.65870238 1.36530353 0.00323488 0.00000000
1.65358819 2.16852927 0.00459999 0.00000000
0.25102308 0.52249193 -0.00163846 0.00000000
3.12485122 2.06873687 -0.00031914 0.00000000
0.29312487 1.61750391 -0.00082508 0.00000000
1.01710106 1.50321243 -0.00300937 0.00000000
2.84175026 1.91273852 0.00049845 0.00000000
0.06334557 1.17108120 0.00464158 0.00000000
0.92961101 2.01281005 0.00061180 0.00000000
1.51109257 0.40244934 0.00625044 0.00000000
4.19916081 0.71657509 0.00013914 0.00000000
3.36314457 1.80154735 -0.00351847 0.00000000
3.15214873 1.21760573 0.00008040 0.00000000
0.44612049 0.29935700 0.00140447 0.00000000
2.80882054 0.66311562 -0.00076905 0.00000000
3.02533018 2.08815796 -0.00035448 0.00000000
3.28731751 0.80478110 0.00281323 0.00000000
0.40501071 1.05105258 0.00129304 0.00000000
0.59238292 1.83895739 -0.00170147 0.00000000
1.15196489 0.50825600 0.00068572 0.00000000
3.17954145 0.53012536 -0.00052670 0.00000000
3.55095286 1.52582761 0.00037316 0.00000000
1.18419412 0.75654477 0.00034857 0.00000000
1.26039879 0.72866492 0.00184484 0.00000000
3.65415949 2.08585322 0.00042073 0.00000000
0.29509256 1.43065692 -0.00044614 0.00000000
3.73989366 0.75462585 -0.00425283 0.00000000
1.50324853 0.67890349 -0.00129895 0.00000000
