4.669355 0.416237 0.000796 0.0
2.853864 0.804097 0.001428 0.0
1.899216 2.264777 -0.001722 0.0
1.265487 2.267644 0.000181 0.0
4.071959 0.612019 0.002847 0.0
2.763257 1.629242 -0.000821 0.0
2.863491 0.303518 0.001011 0.0
1.502161 1.809386 0.000880 0.0
1.061070 0.055912 0.003925 0.0
1.852578 0.759858 -0.002178 0.0
1.394632 2.159903 -0.002954 0.0
3.248735 0.678147 0.006059 0.0
3.656177 1.425026 -0.001770 0.0
4.567328 1.701285 0.000886 0.0
4.688557 1.948352 0.001778 0.0
0.663068 1.777990 -0.000760 0.0
1.064393 0.044668 0.000068 0.0
2.078340 2.100213 0.000397 0.0
4.110111 0.786911 -0.001382 0.0
0.212588 0.548887 -0.000020 0.0
2.231320 1.087454 -0.000806 0.0
3.239786 2.108640 -0.002706 0.0
1.234641 1.035744 0.000330 0.0
4.437007 0.132750 0.001253 0.0
0.987945 0.543177 -0.004701 0.0
0.668639 1.213957 -0.001005 0.0
1.252781 1.640919 0.002949 0.0
2.679322 0.092066 0.000753 0.0
2.588370 0.439086 -0.000476 0.0
1.556922 1.067725 -0.000199 0.0
2.641682 1.918808 -0.000153 0.0
1.844830 0.533413 0.000426 0.0
1.458332 1.482784 0.003008 0.0
4.335500 1.592988 -0.000188 0.0
2.151450 2.273064 0.002012 0.0
3.529034 2.243771 -0.002057 0.0
0.493249 0.075785 0.006190 0.0
3.623088 1.270482 -0.001004 0.0
3.815949 0.200866 -0.003384 0.0
0.981373 1.489354 0.001978 0.0
2.849997 1.678645 -0.000023 0.0
3.190451 1.457382 0.000901 0.0
4.271984 0.279851 0.001560 0.0
3.558733 0.642914 0.003228 0.0
0.474616 1.185527 0.003438 0.0
0.729924 1.123466 -0.002944 0.0
3.043627 0.786278 0.000578 0.0
2.295878 0.631438 -0.000670 0.0
1.321979 1.030142 -0.005086 0.0
1.716604 1.546714 -0.000243 0.0
1.667232 1.585755 0.001440 0.0
2.055350 0.558175 0.001409 0.0
3.132964 0.523290 -0.001332 0.0
4.337828 1.171230 -0.001249 0.0
2.935395 0.374298 0.003522 0.0
4.337852 1.077272 0.000878 0.0
4.124777 0.183429 0.000063 0.0
0.700689 0.043859 -0.003116 0.0
1.196967 2.057682 0.001456 0.0
0.207845 0.456408 -0.003212 0.0
1.175572 0.008429 -0.002293 0.0
3.264858 0.803149 -0.000289 0.0
0.226040 0.296224 -0.001107 0.0
3.404192 0.674382 0.003377 0.0
3.694440 2.034288 -0.002353 0.0
2.643528 1.562371 0.002887 0.0
0.260005 1.364318 0.003898 0.0
3.720541 0.076737 -0.001825 0.0
2.826115 0.102386 -0.001728 0.0
1.326735 2.212024 0.000469 0.0
2.898337 0.896415 0.000647 0.0
3.086540 0.177280 -0.003131 0.0
1.218246 1.444572 -0.001023 0.0
1.847743 0.115665 0.001601 0.0
0.978096 0.708564 0.003625 0.0
1.679905 1.601953 -0.005748 0.0
1.737563 1.044493 0.001404 0.0
3.392389 0.819798 -0.000058 0.0
2.167948 0.602588 -0.001168 0.0
2.334541 1.284133 0.006041 0.0
0.630587 0.037435 -0.001991 0.0
3.619726 1.943237 0.000104 0.0
0.516073 0.898921 0.003462 0.0
4.037337 1.583208 0.001926 0.0
4.549857 1.884390 0.001085 0.0
1.905307 2.070730 -0.003443 0.0
4.576591 0.529727 0.003030 0.0
0.681402 1.783657 0.004361 0.0
1.923430 0.671073 -0.004715 0.0
1.506511 2.169258 -0.000279 0.0
3.067064 1.775881 0.003952 0.0
1.188111 0.332752 0.001131 0.0
0.088793 0.494981 -0.001361 0.0
0.886702 1.312354 0.001837 0.0
0.871150 0.569930 0.001149 0.0
0.309674 2.232808 -0.001192 0.0
4.570465 0.157731 -0.002756 0.0
1.892983 0.696728 -0.000362 0.0
3.929941 0.997008 0.001677 0.0
0.386741 1.015619 0.001030 0.0
4.130204 1.068057 -0.003469 0.0
2.199993 0.589763 0.000582 0.0
0.035140 0.477234 -0.001611 0.0
2.596321 2.166600 -0.003653 0.0
1.378059 1.140633 0.000540 0.0
3.703675 0.857966 -0.001825 0.0
3.865109 0.062050 -0.000371 0.0
0.707149 1.707801 -0.001420 0.0
4.087232 2.218235 0.000445 0.0
4.250392 0.331427 0.001767 0.0
0.974354 2.121861 -0.004802 0.0
1.476652 2.165348 -0.000253 0.0
4.136889 1.545872 0.002564 0.0
3.820832 0.412218 0.001197 0.0
3.808456 1.268130 -0.001916 0.0
3.803288 1.651850 -0.000880 0.0
2.153053 0.715987 -0.000617 0.0
1.236037 0.717648 0.002127 0.0
3.881186 0.742536 0.001270 0.0
2.186952 1.783628 -0.002595 0.0
3.888440 0.187704 -0.002108 0.0
3.553762 1.652001 -0.001545 0.0
3.458705 1.338402 -0.000476 0.0
1.300376 1.726036 0.000904 0.0
1.631010 0.943155 -0.000308 0.0
1.724990 0.304536 -0.000279 0.0
3.305822 1.545129 0.000103 0.0
0.502366 0.315101 -0.001807 0.0
0.080414 1.964401 0.000363 0.0
1.557741 1.704859 -0.004444 0.0
0.749771 1.915947 0.002129 0.0
1.528663 0.007367 0.004049 0.0
2.402315 2.067269 -0.001832 0.0
1.353854 1.066526 0.001029 0.0
0.300450 0.300875 0.005500 0.0
4.399130 1.304878 0.001393 0.0
3.140131 0.769709 -0.002782 0.0
3.147762 0.027571 0.001324 0.0
0.498227 1.794231 -0.004429 0.0
2.143497 1.865631 -0.000608 0.0
0.293486 2.089078 0.004814 0.0
2.288423 0.559018 0.001164 0.0
0.376264 1.033189 -0.000167 0.0
1.708163 2.223648 0.003612 0.0
2.857181 1.597966 -0.002400 0.0
4.455716 0.871996 -0.001992 0.0
2.299189 2.237273 0.003635 0.0
3.317156 1.171669 0.004440 0.0
2.103244 0.028879 0.002023 0.0
4.409701 1.475871 -0.000717 0.0
1.030856 1.820285 0.003079 0.0
3.008391 0.305785 0.001765 0.0
4.316771 1.525191 -0.001002 0.0
2.340340 0.517726 -0.000675 0.0
0.025662 1.793950 0.003685 0.0
3.982117 1.991377 -0.001415 0.0
3.567567 0.074661 -0.002790 0.0
2.517672 0.246426 -0.005597 0.0
4.615220 0.022191 -0.002030 0.0
3.464529 2.125085 -0.006642 0.0
0.915730 1.254905 0.001678 0.0
1.379073 0.838557 0.001887 0.0
3.680022 0.618010 0.001788 0.0
2.505113 2.255754 -0.000106 0.0
3.071389 2.030679 0.001032 0.0
3.388402 1.114477 -0.001571 0.0
1.085072 1.463662 0.000871 0.0
0.990180 1.331475 0.001876 0.0
0.929456 0.729075 -0.002777 0.0
0.292999 0.982027 -0.003744 0.0
1.531973 0.367648 0.001298 0.0
1.492754 0.404702 -0.000687 0.0
4.070866 1.995599 -0.000705 0.0
1.418866 0.682918 0.001565 0.0
1.769211 1.382384 -0.001016 0.0
3.530123 1.166970 -0.000964 0.0
3.958059 0.527153 0.001082 0.0
0.220766 1.263340 0.002753 0.0
3.271833 0.983036 0.002423 0.0
3.289059 2.119473 0.003123 0.0
0.131667 0.802685 0.000535 0.0
2.805282 1.626068 -0.001510 0.0
3.135117 0.644677 0.000870 0.0
0.081636 0.033258 -0.002510 0.0
2.915475 1.303616 0.004480 0.0
0.290431 0.699561 0.000929 0.0
1.587928 1.343078 -0.002389 0.0
3.246113 1.335684 -0.000956 0.0
0.648947 0.577940 -0.005367 0.0
0.151192 0.931462 0.001248 0.0
2.739256 1.552392 -0.000092 0.0
3.079554 1.076067 -0.002235 0.0
1.140314 1.710699 -0.002594 0.0
3.231837 1.390630 0.003870 0.0
2.797549 2.173270 -0.002626 0.0
4.124093 0.738747 0.001704 0.0
4.105607 1.941705 -0.000607 0.0
1.454339 1.275623 -0.006589 0.0
1.566515 0.805291 0.002638 0.0
4.703787 0.295993 0.003052 0.0
0.393654 0.579165 -0.003402 0.0
1.806736 1.906164 -0.000682 0.0
3.747830 0.369926 0.003388 0.0
1.987236 2.043075 -0.001711 0.0
3.254706 1.396885 -0.001483 0.0
3.828093 0.094540 0.001755 0.0
0.582619 0.739199 -0.002258 0.0
0.395477 1.835336 0.003077 0.0
2.486717 0.749057 -0.001994 0.0
2.755170 1.860990 -0.002995 0.0
4.312643 1.765981 0.004646 0.0
2.567895 2.286626 -0.001115 0.0
0.640462 0.408100 0.001806 0.0
3.521813 1.503443 -0.000424 0.0
2.187530 1.917661 0.000168 0.0
3.052270 0.305130 0.000532 0.0
2.539707 1.525509 0.003576 0.0
3.553682 0.583861 -0.001038 0.0
4.417018 0.029577 0.004818 0.0
2.590702 2.237208 -0.000536 0.0
0.148459 0.186483 0.000192 0.0
3.102496 1.155195 -0.000930 0.0
3.394473 0.111054 0.001887 0.0
1.976732 1.484740 0.001678 0.0
0.027725 1.181790 0.001685 0.0
4.226378 1.934799 0.000692 0.0
0.150744 0.858392 0.001448 0.0
3.218731 1.792640 0.001023 0.0
2.141882 0.636284 -0.002761 0.0
1.065396 0.939733 0.001212 0.0
2.228333 0.325612 0.001721 0.0
3.789582 1.881044 0.002855 0.0
1.419261 1.676084 0.000871 0.0
2.860837 2.274219 -0.001914 0.0
1.613794 1.027011 -0.001607 0.0
2.724864 1.513736 -0.001191 0.0
2.703147 2.181413 -0.002088 0.0
2.714678 1.798850 -0.000304 0.0
2.473043 0.183319 -0.001775 0.0
0.023140 0.732379 -0.003607 0.0
0.837734 0.527161 -0.000995 0.0
2.995256 1.943769 -0.002256 0.0
0.898044 1.853217 0.003530 0.0
4.497133 0.936748 -0.000736 0.0
3.798488 1.984270 -0.002409 0.0
1.988213 0.938502 -0.002111 0.0
2.071275 0.165651 -0.001066 0.0
2.406951 0.877932 0.001391 0.0
3.378214 1.108979 0.004116 0.0
3.467081 1.836793 -0.000953 0.0
0.587402 0.080345 -0.000391 0.0
3.057445 2.197251 0.003972 0.0
4.637436 2.080063 -0.000194 0.0
3.045879 0.397326 0.006445 0.0
1.475079 2.170352 0.004181 0.0
1.779786 1.891649 -0.004600 0.0
2.720407 1.061541 0.001689 0.0
3.546769 1.264832 0.003960 0.0
3.952468 0.416455 0.002047 0.0
3.543209 0.418297 -0.002476 0.0
3.251732 0.610001 0.002229 0.0
1.660554 0.660861 -0.000883 0.0
1.536205 0.665792 0.000638 0.0
1.253604 1.015930 -0.001333 0.0
1.054451 1.319822 0.001184 0.0
2.952593 0.765795 0.001801 0.0
0.656582 0.682252 0.001341 0.0
2.413575 0.608414 0.000215 0.0
2.046675 0.294335 0.001179 0.0
4.505366 1.251095 -0.003444 0.0
3.535783 0.721102 0.000358 0.0
3.054933 0.448355 -0.001743 0.0
3.828725 2.155256 -0.001356 0.0
4.124387 0.251519 -0.003075 0.0
4.064353 1.907813 -0.000614 0.0
0.499197 0.712411 -0.001236 0.0
0.954402 2.007516 -0.001151 0.0
0.702822 1.264195 0.002648 0.0
2.036754 1.923080 0.003227 0.0
1.045554 0.584485 0.001887 0.0
4.003062 1.830395 0.002848 0.0
4.449083 0.049297 0.001729 0.0
2.888432 1.857990 0.000926 0.0
2.114463 2.068277 0.002391 0.0
3.851464 1.648751 -0.001938 0.0
0.513757 1.078569 -0.000511 0.0
1.549463 1.080290 -0.000587 0.0
2.765923 0.087064 -0.000962 0.0
2.063547 1.975662 0.001086 0.0
1.835281 0.640500 -0.006837 0.0
0.224180 1.797442 0.000399 0.0
0.310124 0.687867 -0.000983 0.0
4.367029 1.948476 0.000350 0.0
0.975828 2.175683 0.000116 0.0
4.194379 0.096317 0.000685 0.0
2.231313 1.579035 -0.000714 0.0
1.136851 2.060744 0.001883 0.0
3.205504 1.710263 -0.002838 0.0
4.409949 0.174655 0.000414 0.0
1.661583 1.909884 -0.000264 0.0
4.550203 1.673103 0.003732 0.0
3.980601 1.142504 -0.003368 0.0
0.263033 1.941942 -0.000236 0.0
3.833234 1.270044 -0.001407 0.0
3.479569 2.122798 0.000662 0.0
3.349927 0.319272 0.002830 0.0
1.849683 1.590877 0.000284 0.0
1.623272 2.001302 -0.001919 0.0
3.549612 0.173572 -0.001810 0.0
0.703699 0.876733 0.001625 0.0
3.915463 1.907800 0.000732 0.0
3.825019 0.467601 0.000170 0.0
4.357360 0.710364 -0.001963 0.0
1.325376 2.051455 -0.001356 0.0
1.215346 0.693819 -0.000494 0.0
4.701435 1.576227 -0.001684 0.0
4.212708 1.151994 0.003317 0.0
1.422305 0.736077 -0.001748 0.0
1.571106 1.377272 -0.003556 0.0
2.837696 0.212242 0.000954 0.0
2.000203 1.563287 -0.004276 0.0
0.886668 1.651690 -0.004153 0.0
3.954296 1.151288 -0.003928 0.0
2.104678 1.346545 0.000398 0.0
0.493155 1.120225 -0.000139 0.0
3.880164 1.689210 0.002782 0.0
1.064088 0.512103 -0.000358 0.0
1.289947 0.129743 -0.000608 0.0
2.706685 1.131090 0.006525 0.0
0.480198 0.221715 0.001733 0.0
0.929179 1.643036 0.004340 0.0
1.364944 0.776787 0.002034 0.0
3.776337 0.282834 -0.000059 0.0
3.923728 0.412863 -0.004307 0.0
2.984112 2.125985 -0.002286 0.0
2.876581 1.426787 -0.001405 0.0
3.224505 1.798953 0.003524 0.0
3.297479 2.124071 0.002818 0.0
2.784636 2.206342 -0.000784 0.0
0.011027 0.242558 -0.004366 0.0
4.114892 0.187915 -0.002109 0.0
0.813621 2.157152 -0.003588 0.0
2.840659 1.706049 0.000908 0.0
0.895754 0.230260 0.003374 0.0
2.555267 1.027128 -0.003434 0.0
3.174290 0.331715 0.001172 0.0
0.954784 1.845301 0.000081 0.0
2.977331 0.726093 0.002348 0.0
3.652059 2.280791 -0.000219 0.0
2.593609 2.204873 0.003901 0.0
1.138973 0.339821 0.002897 0.0
1.479496 1.058649 0.001814 0.0
3.820421 1.348913 -0.001195 0.0
0.116413 1.392052 -0.003082 0.0
1.050784 0.936085 0.002827 0.0
2.797844 2.235663 -0.000201 0.0
0.031448 0.514544 0.002495 0.0
0.156943 0.916774 -0.002081 0.0
1.227939 0.471248 -0.000262 0.0
2.454105 2.105767 0.000826 0.0
4.268112 0.671275 -0.002054 0.0
4.079316 1.056886 -0.002393 0.0
2.982476 0.296520 0.004107 0.0
1.081270 1.359236 0.000113 0.0
0.307131 0.156649 -0.000503 0.0
3.824123 1.208695 -0.005127 0.0
4.245871 0.339827 -0.000995 0.0
2.455491 1.103497 0.000015 0.0
0.040272 2.141891 0.000049 0.0
4.396336 0.242425 0.002510 0.0
1.347651 0.924805 0.002560 0.0
3.411428 0.861604 -0.006388 0.0
4.303147 1.384184 0.001950 0.0
4.449650 0.723106 -0.004830 0.0
1.992324 1.910268 -0.000693 0.0
2.282396 0.733578 0.003966 0.0
3.255536 0.286626 -0.000768 0.0
1.155077 0.045224 0.001289 0.0
0.431019 0.618563 -0.000102 0.0
2.460931 1.161239 -0.000193 0.0
0.139698 0.175964 0.000508 0.0
2.709878 0.641627 -0.003396 0.0
2.640939 1.536042 0.003030 0.0
2.882031 0.003385 -0.008022 0.0
0.255421 1.777565 -0.005438 0.0
2.258187 0.681786 -0.000234 0.0
0.330661 1.533052 0.004137 0.0
0.596689 0.647776 0.001939 0.0
2.476230 1.466349 0.002461 0.0
4.395744 1.927664 0.001915 0.0
2.599229 0.047899 0.000340 0.0
0.203737 2.283773 -0.005295 0.0
3.093787 1.403927 0.003998 0.0
0.922351 1.741172 -0.001223 0.0
2.484418 0.640320 0.001312 0.0
0.164362 1.584546 -0.001837 0.0
2.595922 0.950423 0.000573 0.0
1.355350 1.865387 0.004246 0.0
2.264881 2.072197 -0.001403 0.0
4.331594 1.177024 -0.003359 0.0
4.440158 1.867292 -0.004257 0.0
2.310467 1.059122 0.000503 0.0
2.207922 0.240209 -0.000061 0.0
0.352214 0.713692 0.002242 0.0
2.718065 0.716714 -0.002559 0.0
3.033505 2.188951 0.002938 0.0
0.006079 0.736971 0.001403 0.0
4.089823 0.431842 0.001090 0.0
1.173699 1.162336 0.000304 0.0
1.320819 2.061447 -0.005629 0.0
1.583937 1.043966 -0.001956 0.0
0.063865 1.499601 0.001866 0.0
3.386476 0.891688 -0.001219 0.0
1.482291 2.093528 -0.000551 0.0
2.476017 1.897456 0.001903 0.0
2.176080 1.241158 0.000070 0.0
0.787948 2.052836 0.000514 0.0
1.735071 1.493485 0.004401 0.0
2.589840 1.060000 0.002088 0.0
1.838812 0.331876 -0.000391 0.0
2.597748 0.185714 0.002646 0.0
2.145122 1.425154 0.000197 0.0
2.336253 0.066427 -0.002546 0.0
2.801080 1.065869 0.003666 0.0
2.127044 1.820897 0.000191 0.0
2.459915 2.144280 0.002460 0.0
4.046343 1.378730 -0.001245 0.0
2.620628 1.173481 -0.002020 0.0
4.465487 2.196320 0.002019 0.0
2.416270 1.767021 -0.001669 0.0
0.575554 0.120464 0.000544 0.0
0.381357 1.742524 0.004077 0.0
1.089362 2.039767 0.001261 0.0
3.560722 2.264594 -0.006537 0.0
1.663279 1.507529 0.003368 0.0
4.591278 0.419156 0.000731 0.0
4.003456 1.729819 -0.001456 0.0
0.724940 0.281963 0.000916 0.0
2.088794 1.767459 0.000704 0.0
2.485155 1.629253 -0.001965 0.0
1.937555 1.258225 0.000271 0.0
1.866617 0.204852 -0.002661 0.0
3.898737 0.722407 -0.006507 0.0
1.257524 1.362911 0.001147 0.0
0.622987 0.229575 -0.002984 0.0
1.620561 0.975459 -0.000281 0.0
1.973042 2.056410 0.004247 0.0
3.593072 0.621738 0.001391 0.0
4.614190 1.306012 -0.000887 0.0
1.699436 0.832852 0.001342 0.0
4.507047 1.040769 0.001997 0.0
3.459162 0.827204 -0.002440 0.0
1.315674 1.256305 -0.002196 0.0
3.760648 1.320356 -0.000865 0.0
3.742878 0.994057 -0.001401 0.0
3.183443 1.683188 -0.000693 0.0
3.020343 0.057443 0.001437 0.0
0.304804 0.294898 -0.003288 0.0
0.747669 1.626447 -0.001074 0.0
1.941469 1.159699 0.001562 0.0
1.625772 2.091279 -0.000338 0.0
0.356860 1.912133 -0.002804 0.0
0.132744 0.634094 -0.001249 0.0
2.779080 0.972931 -0.000481 0.0
1.450026 0.695349 -0.001657 0.0
2.273699 1.542479 0.003099 0.0
1.160251 1.921946 0.003456 0.0
1.582552 0.844438 0.006866 0.0
0.528736 2.263597 -0.000977 0.0
2.334161 0.634059 -0.001726 0.0
0.386583 1.679714 -0.001761 0.0
0.734092 0.388814 -0.003837 0.0
0.193635 0.663848 -0.003051 0.0
4.377466 1.575649 -0.002756 0.0
2.926281 1.236905 0.003026 0.0
2.180995 0.886492 -0.000620 0.0
2.622974 0.993273 0.001919 0.0
4.134158 0.196786 -0.001534 0.0
1.778021 1.001457 0.001322 0.0
3.752449 2.026664 -0.004349 0.0
3.415884 0.316221 -0.002339 0.0
3.268724 2.039718 -0.002427 0.0
2.951739 1.515942 -0.002389 0.0
0.343275 1.378625 0.006916 0.0
1.324322 0.801982 -0.002268 0.0
0.585721 1.066813 0.005532 0.0
1.903646 1.415347 0.000415 0.0
1.833954 0.748980 0.001931 0.0
1.840191 1.081797 0.000997 0.0
4.133812 2.291536 -0.002201 0.0
4.663662 1.141525 0.001421 0.0
2.476465 0.456073 0.004082 0.0
4.036623 1.233970 -0.002905 0.0
1.427119 1.688189 -0.004418 0.0
3.989831 0.102867 0.002131 0.0
3.160534 1.403093 0.000258 0.0
2.145107 0.763023 -0.001221 0.0
1.368416 0.781428 -0.008215 0.0
2.681191 1.764499 0.001018 0.0
4.126403 1.156006 0.003066 0.0
0.450140 1.298387 -0.000297 0.0
1.367346 0.527449 0.000731 0.0
2.436562 0.807523 0.003141 0.0
3.900833 0.186000 -0.000639 0.0
3.085292 0.145041 -0.000687 0.0
3.414319 1.941916 0.003280 0.0
1.662802 0.389863 -0.001664 0.0
2.725229 1.190669 0.000835 0.0
2.529566 0.545339 0.002363 0.0
1.474374 0.778517 -0.001449 0.0
3.562110 0.713450 0.003267 0.0
3.376088 1.586476 -0.004720 0.0
1.450349 0.355854 -0.001257 0.0
0.065057 1.677658 -0.000845 0.0
3.757647 2.037335 -0.000513 0.0
0.005778 1.894648 -0.001591 0.0
2.789704 1.739653 0.000441 0.0
0.600983 1.527590 -0.000949 0.0
4.181961 1.793966 0.001748 0.0
0.942476 1.958811 -0.002152 0.0
3.843049 2.142529 -0.003266 0.0
3.861346 2.185003 -0.001588 0.0
2.489795 1.095309 -0.001605 0.0
1.499104 0.900902 0.001258 0.0
0.592363 0.592073 0.000325 0.0
3.005972 1.488150 -0.002328 0.0
2.261349 1.701407 -0.001743 0.0
1.169714 0.032387 -0.001680 0.0
2.912633 0.537237 0.004424 0.0
2.945036 1.060223 -0.005051 0.0
2.384720 0.023663 0.002188 0.0
0.991846 1.961825 0.005664 0.0
3.380860 1.721063 -0.003253 0.0
4.673710 1.368965 -0.000656 0.0
2.026266 1.519595 0.000363 0.0
1.171098 0.331384 0.000771 0.0
1.991644 0.842357 -0.000489 0.0
0.796264 1.867192 -0.003151 0.0
2.864429 0.533261 -0.000306 0.0
3.569724 2.084594 -0.000012 0.0
3.962103 1.326577 -0.001997 0.0
4.549393 2.060288 0.000270 0.0
1.907047 1.464958 0.002639 0.0
1.395802 2.074119 -0.000147 0.0
2.815037 0.097769 0.002843 0.0
0.208725 2.047964 -0.000308 0.0
0.142140 1.807785 0.000850 0.0
0.195790 0.089886 -0.000130 0.0
1.657121 1.213422 -0.003808 0.0
3.245553 0.286331 -0.001540 0.0
4.481689 1.127796 0.002571 0.0
4.539980 0.988004 -0.000674 0.0
2.453450 1.458845 0.003176 0.0
4.382291 1.652237 -0.002398 0.0
0.207691 0.738428 -0.003118 0.0
4.459534 1.072515 0.000008 0.0
2.017054 0.711677 0.000638 0.0
0.438417 1.326166 0.002710 0.0
2.337880 1.296805 -0.001775 0.0
3.717583 1.609061 0.000465 0.0
1.631480 0.556889 -0.002519 0.0
3.444109 1.600579 -0.003220 0.0
2.833545 2.293775 0.000652 0.0
4.662665 0.294747 -0.000885 0.0
0.184572 0.134971 -0.003414 0.0
1.674282 2.198272 0.002782 0.0
2.419227 2.215409 -0.001249 0.0
4.163911 2.276951 0.001129 0.0
3.152321 0.628209 0.001267 0.0
3.298786 2.128956 -0.002188 0.0
0.345649 0.636161 -0.002485 0.0
3.399686 0.792853 0.001484 0.0
3.987889 1.811465 -0.001469 0.0
1.889890 2.142522 -0.003332 0.0
0.947287 1.765398 -0.000086 0.0
4.211408 2.270268 -0.001469 0.0
2.531387 0.472673 -0.002920 0.0
2.667376 1.709497 0.000376 0.0
0.049223 1.214026 0.002629 0.0
4.511532 0.799847 0.000029 0.0
3.591061 0.145649 0.001671 0.0
1.806386 1.660827 -0.002023 0.0
1.947843 0.033478 0.001370 0.0
3.329195 2.074862 0.002381 0.0
2.538925 1.520305 -0.003524 0.0
1.462016 0.316167 -0.001272 0.0
2.271275 1.566455 0.001795 0.0
2.091883 0.349708 0.000301 0.0
1.572553 1.425775 -0.001119 0.0
1.236165 1.615241 0.002551 0.0
2.437988 0.632109 -0.000878 0.0
4.709285 1.924935 -0.001634 0.0
4.055334 0.704033 -0.001299 0.0
0.040004 0.621039 -0.000088 0.0
4.101667 1.476104 -0.006188 0.0
1.081146 0.438104 -0.003353 0.0
2.686213 0.422766 -0.000953 0.0
2.510083 0.483208 -0.002137 0.0
0.608544 1.496464 0.002572 0.0
2.922532 1.105029 0.001096 0.0
1.592447 0.105038 -0.000123 0.0
4.020363 0.385006 0.002247 0.0
1.366299 1.379491 -0.004073 0.0
2.369879 0.819980 0.001494 0.0
0.825009 1.561826 0.001822 0.0
2.884628 1.218034 0.001695 0.0
4.130275 1.428429 -0.000049 0.0
4.464377 0.398846 0.000733 0.0
0.935435 1.834867 0.000536 0.0
2.431856 1.937762 0.002245 0.0
2.170285 1.219319 -0.001217 0.0
3.269697 1.537194 0.002459 0.0
1.678586 0.851119 -0.000836 0.0
1.235074 0.888882 -0.002493 0.0
2.922287 1.598726 -0.000131 0.0
2.453013 0.542549 -0.000913 0.0
1.481753 2.049739 0.001814 0.0
2.112322 0.718743 0.001709 0.0
4.441862 0.904752 0.000093 0.0
3.908029 1.780727 -0.004026 0.0
4.455348 0.605980 0.003695 0.0
1.342350 0.215391 -0.001882 0.0
1.322130 1.703947 0.000996 0.0
3.377392 1.657400 -0.000395 0.0
3.218913 1.236840 -0.001988 0.0
0.505582 0.873303 -0.001865 0.0
1.027629 2.003664 0.001531 0.0
0.174178 1.047233 -0.002810 0.0
2.314455 0.387026 -0.002064 0.0
3.952071 0.753600 0.002351 0.0
1.870145 1.157478 -0.003512 0.0
4.451985 1.095003 0.001929 0.0
2.524702 2.235876 -0.001295 0.0
1.009201 1.913328 -0.001930 0.0
1.458039 1.431767 0.006124 0.0
3.384548 0.952689 0.001716 0.0
3.093409 1.623621 0.000782 0.0
1.608623 1.856096 -0.003395 0.0
3.517922 1.663189 0.002524 0.0
1.011849 0.057538 -0.000142 0.0
3.859477 0.584410 -0.000631 0.0
3.293518 2.173253 0.001093 0.0
4.415277 0.185950 -0.002939 0.0
2.575198 0.439623 0.001172 0.0
2.510175 0.359475 0.004858 0.0
1.640250 1.189183 0.002237 0.0
0.495551 1.712701 -0.000427 0.0
0.798731 0.868437 -0.001043 0.0
1.935475 0.838433 0.000127 0.0
0.389738 0.904749 0.002847 0.0
3.330820 0.463600 0.001994 0.0
0.015402 0.600827 -0.002303 0.0
1.577988 0.457605 0.000649 0.0
0.034491 1.867629 0.003794 0.0
1.837202 0.603966 0.000065 0.0
1.734644 1.023915 0.000034 0.0
1.141307 0.201031 0.004229 0.0
1.415660 1.095206 -0.003829 0.0
3.285253 0.587442 -0.001652 0.0
4.530712 1.389988 0.000361 0.0
0.600891 0.916292 -0.001648 0.0
2.942284 2.230427 -0.005554 0.0
3.618175 1.937766 0.001200 0.0
0.846218 2.011415 -0.002059 0.0
3.429386 0.673603 -0.000266 0.0
4.644456 0.470341 -0.003203 0.0
0.112374 0.963546 -0.003284 0.0
1.922585 1.586256 0.000553 0.0
1.199571 0.357738 0.003272 0.0
2.916858 1.634430 -0.001724 0.0
0.930267 1.406172 -0.002388 0.0
1.457828 1.864627 0.000779 0.0
4.000233 1.200457 0.000775 0.0
1.378739 2.080780 -0.003721 0.0
3.672927 1.488980 0.001425 0.0
1.330706 1.593899 -0.002138 0.0
0.591780 0.870953 -0.004325 0.0
1.907808 0.827766 0.000154 0.0
3.502274 1.379216 -0.001331 0.0
2.728116 2.065429 0.002772 0.0
2.909765 2.142214 -0.002997 0.0
2.882985 1.192138 -0.000598 0.0
1.729790 0.824148 0.004897 0.0
2.308138 1.479287 0.003595 0.0
2.378569 1.384970 0.000952 0.0
2.894668 2.062240 -0.005468 0.0
3.534879 1.629399 0.000003 0.0
1.399451 0.299573 -0.001336 0.0
0.436057 1.882702 -0.000114 0.0
4.096882 0.233663 0.000130 0.0
3.004265 1.484121 0.000082 0.0
2.027812 1.039678 0.005732 0.0
1.046496 1.801187 -0.000836 0.0
2.871557 2.151049 0.000499 0.0
2.600420 0.115718 -0.001966 0.0
1.657213 1.303729 0.004179 0.0
0.922266 0.855807 -0.003063 0.0
0.451786 1.517100 0.001277 0.0
2.374190 1.846246 -0.000759 0.0
0.010891 0.227300 0.004446 0.0
3.234937 1.891957 -0.001250 0.0
1.112862 1.872695 0.002609 0.0
3.616822 1.223574 -0.001319 0.0
1.617007 0.928894 -0.001942 0.0
0.377421 0.487665 0.001239 0.0
2.382694 1.162980 -0.001201 0.0
3.852590 2.225034 -0.000125 0.0
2.109518 1.809699 -0.001050 0.0
2.858990 0.003474 -0.002095 0.0
2.209911 0.319211 -0.000842 0.0
2.605727 1.912996 -0.000502 0.0
1.151200 0.945371 -0.000833 0.0
1.725049 2.080611 -0.002402 0.0
1.496110 2.155029 -0.003421 0.0
0.823968 0.642322 0.000653 0.0
4.035575 0.141525 -0.001134 0.0
1.528982 1.957513 -0.000415 0.0
2.887918 0.640235 -0.003649 0.0
3.099947 0.634583 0.000721 0.0
4.672274 0.814224 0.006906 0.0
0.087992 1.758299 0.001420 0.0
2.140339 1.724515 0.004974 0.0
0.497350 0.490881 -0.000126 0.0
0.455041 0.640788 0.000531 0.0
4.644979 1.169876 0.001881 0.0
2.518798 1.664555 0.000080 0.0
2.422883 2.088994 0.001402 0.0
3.699572 0.139411 -0.001791 0.0
2.508471 2.083932 0.002265 0.0
2.458614 1.400451 0.003548 0.0
0.057813 0.964028 0.000329 0.0
1.738842 2.158907 -0.002047 0.0
2.894587 2.147031 0.008274 0.0
1.141061 1.591735 0.000204 0.0
2.264959 1.843215 0.004026 0.0
3.006081 0.150612 0.001612 0.0
4.258946 1.797172 -0.003344 0.0
1.888820 2.163784 -0.002038 0.0
2.340778 1.545211 0.000591 0.0
4.534559 1.395968 -0.000574 0.0
3.968187 2.129733 0.000289 0.0
0.067405 0.038235 -0.000795 0.0
0.340927 1.025431 0.002392 0.0
0.106185 1.034917 -0.000341 0.0
1.173310 2.258132 0.006270 0.0
2.333034 0.705473 -0.000261 0.0
0.462402 1.884792 0.002340 0.0
2.318069 1.836084 -0.000556 0.0
0.745219 1.304045 0.004496 0.0
3.963937 0.412264 -0.002633 0.0
3.705659 0.817312 -0.001362 0.0
0.629568 1.458966 0.003072 0.0
0.367702 1.503722 0.002339 0.0
3.030298 1.707726 -0.005475 0.0
3.064049 1.769371 0.000724 0.0
2.847643 0.930448 -0.000602 0.0
2.117894 1.760495 0.000830 0.0
0.150978 1.789100 0.000306 0.0
4.070375 0.610982 -0.001089 0.0
1.696377 1.079574 0.001383 0.0
3.083246 1.784552 -0.002117 0.0
4.023368 0.184126 -0.003796 0.0
0.323451 1.631416 0.000767 0.0
1.015596 0.694512 0.005947 0.0
0.093676 1.195465 0.000131 0.0
3.222099 1.886259 -0.003367 0.0
4.153075 0.387199 0.001954 0.0
3.868743 1.148683 -0.005630 0.0
2.782617 1.374882 -0.003022 0.0
4.206124 0.897680 -0.001132 0.0
3.548184 1.735491 -0.001689 0.0
3.810982 0.740518 0.004853 0.0
0.629165 2.193225 -0.002809 0.0
1.375191 1.827619 0.003964 0.0
2.097759 0.689453 -0.001742 0.0
0.340340 2.064798 -0.001266 0.0
4.689016 0.126965 0.003034 0.0
1.073716 1.407061 0.003183 0.0
4.638595 0.675521 -0.000901 0.0
4.722239 0.548452 0.001398 0.0
2.452284 0.503977 0.002452 0.0
4.612320 1.181076 0.001576 0.0
0.070597 0.975007 0.002150 0.0
1.867006 0.562389 -0.002682 0.0
2.652429 1.008810 0.004679 0.0
1.114018 0.618919 -0.000889 0.0
1.441047 2.044344 0.002890 0.0
3.791253 1.459554 -0.001353 0.0
4.235085 0.646953 0.000050 0.0
1.875359 0.911205 -0.003332 0.0
0.493237 1.992540 -0.002516 0.0
3.730721 0.733460 0.001347 0.0
0.651005 2.004005 -0.002158 0.0
3.435476 0.219112 -0.000971 0.0
1.849917 1.433701 -0.000723 0.0
2.701549 0.981310 -0.001849 0.0
0.693859 2.052565 0.001017 0.0
2.257167 1.873891 -0.000994 0.0
1.947330 0.552270 -0.004535 0.0
4.470901 0.520205 -0.004723 0.0
3.032412 2.007458 -0.001312 0.0
1.186943 0.628337 -0.001402 0.0
1.494720 0.155174 0.000057 0.0
0.283581 0.232936 -0.000236 0.0
3.775722 0.305995 0.001202 0.0
3.260957 1.993849 -0.001448 0.0
4.204566 0.789817 -0.002671 0.0
3.149231 2.284758 0.002163 0.0
3.589583 1.561225 -0.000083 0.0
3.471820 1.667745 -0.001339 0.0
3.939702 2.088017 -0.000447 0.0
4.511467 2.014695 -0.001667 0.0
2.645175 0.980324 -0.000319 0.0
2.014800 0.857757 0.000252 0.0
1.031780 1.300664 -0.005751 0.0
1.859354 1.493270 0.002608 0.0
1.278783 0.191507 0.003278 0.0
1.339551 1.091788 0.000335 0.0
0.715546 0.963603 0.000347 0.0
0.038157 1.464554 0.002150 0.0
3.670520 0.153447 -0.002141 0.0
4.116932 1.061371 -0.002989 0.0
2.534657 1.087180 -0.000007 0.0
2.369027 1.200427 -0.002581 0.0
1.413352 1.260344 0.003492 0.0
3.611527 1.346570 0.005213 0.0
4.265593 1.532945 0.001522 0.0
3.823413 1.062818 -0.001506 0.0
2.264098 0.403905 -0.000778 0.0
0.191281 0.391678 0.000567 0.0
1.860995 2.022634 -0.001682 0.0
3.313707 1.796197 -0.002561 0.0
1.138380 0.734102 0.002906 0.0
2.617416 0.677983 -0.000852 0.0
0.804622 0.745140 -0.001525 0.0
2.147952 1.524903 0.003833 0.0
1.683225 1.857848 0.001974 0.0
3.858301 0.334023 -0.004303 0.0
2.166745 0.422556 0.004255 0.0
2.846599 1.356493 0.003792 0.0
1.628348 1.744900 -0.003673 0.0
1.403767 0.363716 0.000794 0.0
4.016484 0.054215 0.000072 0.0
2.470305 1.249749 0.002480 0.0
4.549647 1.883001 -0.001552 0.0
4.475908 1.329702 -0.000073 0.0
2.575464 1.019055 -0.002239 0.0
4.004447 0.877745 -0.001613 0.0
2.751735 0.073452 -0.002789 0.0
3.184037 0.961887 0.002553 0.0
3.209171 1.231023 -0.002143 0.0
2.149729 0.854793 -0.002449 0.0
1.074152 1.539388 0.004169 0.0
0.291210 1.471875 0.003340 0.0
4.196132 1.985238 -0.004343 0.0
2.213232 1.293984 0.003901 0.0
1.448521 0.276636 0.002686 0.0
1.306494 0.038212 0.001017 0.0
4.127053 1.498288 0.004527 0.0
0.176245 1.776463 -0.000394 0.0
0.264574 0.754251 0.000296 0.0
1.997684 0.246435 -0.001159 0.0
0.670163 0.428284 -0.004211 0.0
2.239288 0.348371 -0.003979 0.0
2.187194 1.594082 -0.001644 0.0
2.848715 1.622122 0.000023 0.0
3.145455 1.364188 0.000838 0.0
0.451393 1.450422 -0.000416 0.0
4.410527 1.759620 -0.004465 0.0
2.917493 1.132681 0.000781 0.0
3.916628 0.115868 0.001662 0.0
0.444107 2.127007 0.001787 0.0
2.222551 0.097173 -0.000264 0.0
3.769852 0.153558 0.001100 0.0
3.172489 0.573479 0.000476 0.0
2.963329 0.641294 0.000859 0.0
3.160370 1.114188 -0.001662 0.0
0.476877 0.241751 -0.001250 0.0
4.668646 1.791648 -0.000030 0.0
1.670018 2.185827 -0.003573 0.0
2.998167 1.899829 -0.002805 0.0
3.349491 1.978203 -0.002077 0.0
0.296180 0.729177 0.003245 0.0
4.331006 1.662920 -0.003832 0.0
3.597316 1.831325 0.000896 0.0
4.716200 1.666895 -0.000188 0.0
1.877907 1.827456 -0.002530 0.0
3.985290 0.356150 0.001609 0.0
0.888723 2.116698 -0.002883 0.0
3.237071 1.309332 0.000170 0.0
4.346523 1.424391 0.002059 0.0
2.756825 0.300286 -0.003491 0.0
0.599135 0.081100 0.001920 0.0
0.918843 2.175497 -0.001100 0.0
2.887847 1.225827 -0.002549 0.0
2.885594 0.530974 -0.000011 0.0
1.796582 2.194331 0.000003 0.0
0.571414 1.129169 -0.000888 0.0
3.696759 0.904483 0.001548 0.0
0.646648 1.513908 -0.001069 0.0
4.271000 0.878411 -0.001467 0.0
3.940340 1.146708 -0.003365 0.0
1.644430 0.595223 0.002427 0.0
2.445149 1.427807 -0.004302 0.0
0.132065 2.095878 0.006332 0.0
3.962723 0.989176 0.001714 0.0
1.099398 1.186629 -0.001049 0.0
3.227177 1.660752 -0.005104 0.0
0.212336 1.962887 0.000621 0.0
3.701371 0.844921 0.001088 0.0
2.345156 0.012681 0.000049 0.0
2.724996 0.777728 0.001870 0.0
3.737767 0.005609 -0.001636 0.0
1.394069 0.287418 -0.002610 0.0
1.807046 1.964119 0.004809 0.0
0.410586 2.296818 0.000866 0.0
1.824165 0.958149 0.003057 0.0
1.776389 0.408139 -0.002305 0.0
3.335196 0.973404 0.002216 0.0
0.473464 0.717222 0.000859 0.0
0.165202 1.215604 -0.001260 0.0
1.470177 1.100716 0.002607 0.0
3.901197 0.484188 0.002360 0.0
3.292507 0.335743 0.005885 0.0
2.121203 0.577639 0.002783 0.0
1.842824 2.088707 -0.000303 0.0
1.353510 1.511389 -0.007648 0.0
2.130297 2.229788 -0.002983 0.0
0.650159 1.365461 -0.002716 0.0
4.126493 2.012379 -0.001051 0.0
3.698098 0.278001 0.002213 0.0
4.031558 1.304803 0.001050 0.0
2.671166 1.448963 -0.002417 0.0
4.708225 0.617114 0.001820 0.0
0.570834 1.423803 0.002163 0.0
3.597322 0.978356 -0.001213 0.0
2.556804 0.917568 -0.000706 0.0
1.138253 1.551993 0.002259 0.0
0.015732 0.442055 -0.000410 0.0
4.556106 1.982220 0.002599 0.0
1.330652 1.770404 0.002433 0.0
2.158012 2.248885 0.000292 0.0
3.156881 1.441605 0.005571 0.0
4.394167 1.689644 -0.003558 0.0
0.869447 2.063621 0.001451 0.0
2.416107 0.266217 -0.002542 0.0
0.977299 1.940864 0.002068 0.0
4.087138 1.658649 0.001380 0.0
2.087059 1.462755 -0.000738 0.0
3.694726 1.764870 -0.002729 0.0
4.680566 1.178679 0.000683 0.0
3.797796 0.663719 -0.001197 0.0
3.217503 1.647259 0.003731 0.0
3.434430 2.291080 0.001721 0.0
0.746085 0.332141 -0.000519 0.0
4.176747 2.274818 0.000050 0.0
1.937294 1.897339 -0.003556 0.0
3.719490 1.126718 -0.002576 0.0
2.834616 1.089751 0.001189 0.0
0.093799 0.399258 -0.003277 0.0
1.830139 0.878304 0.001576 0.0
2.111094 1.271832 -0.004711 0.0
2.419460 2.211405 0.004650 0.0
3.750357 1.179264 0.002350 0.0
1.307691 2.214135 0.001620 0.0
0.990278 1.829533 0.002508 0.0
3.633990 1.059177 0.001197 0.0
3.114457 2.062527 0.000450 0.0
1.876489 1.159306 -0.004491 0.0
4.551141 0.638795 0.003147 0.0
3.767188 1.116878 0.002169 0.0
3.425510 0.183876 -0.003483 0.0
1.246529 0.620237 -0.001902 0.0
0.091131 1.316559 -0.000501 0.0
4.385362 0.024521 0.002741 0.0
4.196609 1.338876 -0.002568 0.0
2.677547 1.045489 -0.002910 0.0
1.419732 1.622860 0.002056 0.0
3.028032 1.617371 -0.003630 0.0
3.213244 1.714535 -0.001796 0.0
3.097583 1.267533 0.002187 0.0
1.276399 0.357595 -0.003317 0.0
2.703195 1.029221 0.002098 0.0
2.413340 1.883694 -0.003112 0.0
2.863747 0.008619 0.000178 0.0
0.405150 1.406861 0.000324 0.0
3.091442 0.361324 0.001366 0.0
4.684977 0.974781 -0.001271 0.0
0.320057 0.755503 0.004225 0.0
0.146310 0.712465 -0.000148 0.0
2.613892 0.891224 -0.000856 0.0
2.664222 1.302726 -0.001989 0.0
0.642648 0.823876 -0.002742 0.0
0.547884 1.161618 -0.002446 0.0
1.798786 0.229017 0.002153 0.0
4.201065 0.431781 -0.003378 0.0
4.346232 0.044176 -0.002813 0.0
2.546062 1.126963 0.000356 0.0
2.067418 0.676803 -0.000187 0.0
1.100868 0.305468 0.001783 0.0
4.404700 1.747106 0.001893 0.0
2.418014 1.077924 0.005435 0.0
0.321707 0.813987 -0.001647 0.0
1.411024 0.629018 -0.002807 0.0
3.889115 1.734490 -0.000163 0.0
2.105128 0.160539 -0.002397 0.0
3.218824 0.747113 0.002719 0.0
2.922963 1.540762 0.000864 0.0
2.748571 1.289276 -0.000811 0.0
0.626041 0.898008 -0.000154 0.0
0.176127 0.045157 0.003280 0.0
1.488764 0.141999 -0.000612 0.0
2.362710 1.554551 -0.003548 0.0
2.516529 -0.000063 0.000918 0.0
2.120416 1.053361 -0.000646 0.0
0.703486 0.905047 0.000743 0.0
0.630728 0.642650 -0.006293 0.0
3.083741 1.666945 -0.001358 0.0
3.537162 1.774898 0.001279 0.0
4.442536 1.630337 0.003499 0.0
2.604248 0.023590 0.004787 0.0
0.264492 1.360752 0.002156 0.0
3.278016 1.117698 -0.004198 0.0
1.814291 0.323025 0.000735 0.0
4.071889 0.486624 -0.000545 0.0
3.160447 0.104029 -0.000195 0.0
0.626574 0.856184 -0.004915 0.0
3.049831 2.089448 0.002674 0.0
1.192431 0.595407 -0.002454 0.0
1.624602 1.469132 -0.001693 0.0
3.886415 0.321404 -0.000493 0.0
1.293186 2.000188 -0.002587 0.0
2.373566 0.947959 -0.001222 0.0
3.419294 2.048193 -0.001261 0.0
2.266941 0.556574 -0.001532 0.0
3.825158 1.210692 -0.004071 0.0
3.165553 1.819024 0.003321 0.0
0.614523 1.079899 0.001267 0.0
3.950889 1.894204 0.005103 0.0
3.366253 0.188302 -0.001339 0.0
1.240993 1.340148 -0.000514 0.0
2.287109 0.598198 0.000608 0.0
0.791355 0.454924 -0.002145 0.0
1.117397 2.222611 0.000071 0.0
1.028018 2.264857 0.002403 0.0
3.277646 1.647225 -0.002018 0.0
2.855328 0.727226 0.000070 0.0
0.084735 0.692881 -0.000216 0.0
1.441470 2.267480 0.003703 0.0
0.516495 0.465573 0.001530 0.0
1.588387 2.102237 -0.003513 0.0
0.847735 1.667451 -0.003795 0.0
0.773218 2.212001 0.002623 0.0
0.636317 0.553076 -0.001705 0.0
4.559853 0.245825 0.004534 0.0
1.942671 0.103202 -0.002464 0.0
1.177124 0.994919 -0.000358 0.0
4.604579 2.226336 -0.002867 0.0
3.275144 0.883680 0.006979 0.0
4.641281 0.904457 -0.003038 0.0
3.408569 0.893664 0.001667 0.0
2.959483 1.978150 -0.001321 0.0
3.249352 0.150015 0.000037 0.0
1.484502 2.095067 0.002302 0.0
3.271960 0.023701 -0.003123 0.0
0.503626 0.352504 -0.000293 0.0
0.453583 0.442545 0.005980 0.0
1.402338 2.175611 -0.000545 0.0
3.128293 1.265911 0.002698 0.0
4.209491 1.063562 0.001253 0.0
2.119005 0.323664 -0.005399 0.0
4.612354 1.374135 0.004319 0.0
2.859353 1.163763 -0.000481 0.0
0.754300 1.824271 0.001063 0.0
4.014508 1.907080 0.001404 0.0
1.018869 1.965035 -0.001117 0.0
4.286647 1.818426 0.000249 0.0
3.993784 1.584320 -0.000451 0.0
2.553253 0.772018 -0.001514 0.0
3.237887 0.939054 0.000185 0.0
2.564233 0.176840 0.000165 0.0
3.443895 1.074622 0.001681 0.0
1.992596 1.452189 -0.000309 0.0
3.807819 0.334303 0.001098 0.0
2.249834 0.139611 -0.000746 0.0
0.563673 0.647473 -0.000651 0.0
3.450352 1.450835 0.003598 0.0
0.295967 0.941036 0.000660 0.0
0.588217 0.612872 0.001380 0.0
3.298091 2.184558 0.001492 0.0
0.215157 2.082254 -0.002721 0.0
1.743223 0.704318 -0.001367 0.0
0.100438 1.528945 0.000738 0.0
2.379618 1.625326 0.002038 0.0
2.360090 1.532979 -0.001727 0.0
2.875673 1.394941 0.003287 0.0
1.478042 0.277136 -0.001379 0.0
3.018128 1.407472 0.003271 0.0
0.397325 0.919938 0.001836 0.0
2.071772 1.817895 0.004604 0.0
0.312869 1.324869 -0.005649 0.0
1.429057 1.049814 0.000339 0.0
0.096226 1.706758 -0.001518 0.0
2.660216 1.843737 -0.002104 0.0
0.234393 1.519617 0.003281 0.0
0.176356 1.005235 -0.001151 0.0
0.236831 0.644433 0.000625 0.0
0.761264 1.222412 -0.002985 0.0
3.275686 1.771529 -0.003290 0.0
0.698697 1.661889 0.001143 0.0
3.445411 1.944576 0.000882 0.0
2.925332 0.438291 -0.001831 0.0
0.693052 0.294412 0.004256 0.0
2.375450 0.243118 0.002751 0.0
4.160938 1.306508 0.002380 0.0
4.441263 0.631703 0.000894 0.0
0.747335 1.845807 -0.003549 0.0
3.745710 2.260853 0.004554 0.0
4.446030 1.983262 0.000599 0.0
1.788701 0.209383 0.001178 0.0
1.651784 0.314444 0.001146 0.0
4.598414 1.967886 0.003876 0.0
1.868095 0.342250 -0.002627 0.0
0.144445 0.427529 -0.001290 0.0
3.687474 0.746658 -0.000763 0.0
2.807412 2.148399 0.000984 0.0
2.439218 0.055270 -0.001231 0.0
0.425076 1.757381 0.003970 0.0
2.878776 0.298186 -0.001417 0.0
1.219988 0.396273 -0.000113 0.0
2.542695 1.031478 -0.002054 0.0
2.553660 1.432676 0.003958 0.0
3.886679 1.975928 -0.004877 0.0
0.281711 0.582986 -0.002159 0.0
2.255988 1.992213 -0.000219 0.0
0.670852 1.339208 -0.000350 0.0
3.916600 1.954086 0.002030 0.0
3.375301 1.994807 0.001607 0.0
3.354812 0.360358 0.003272 0.0
4.023084 1.022596 0.004561 0.0
4.589992 1.482455 0.002976 0.0
2.581144 1.371814 0.002700 0.0
4.041142 1.950758 -0.000248 0.0
2.744219 1.833045 0.000928 0.0
4.535804 0.475668 0.002881 0.0
2.989000 0.107764 -0.000411 0.0
1.745464 0.520062 0.002910 0.0
2.271189 0.584790 0.000900 0.0
3.784641 1.296527 0.000076 0.0
1.593876 1.725352 -0.002148 0.0
1.728444 1.387678 0.000052 0.0
2.770003 0.796745 0.000153 0.0
3.874054 1.416305 0.001860 0.0
1.486243 0.166800 -0.001371 0.0
0.381795 2.216468 0.001623 0.0
4.694840 1.837555 -0.004224 0.0
1.630079 1.377890 0.006604 0.0
3.675612 1.869017 0.000929 0.0
4.098959 1.282373 0.000982 0.0
3.175726 1.073862 -0.000271 0.0
1.569864 2.010892 0.001750 0.0
2.715880 1.987701 -0.001408 0.0
1.111006 0.691559 -0.001333 0.0
4.688993 0.787263 -0.000227 0.0
1.924762 0.853871 -0.005572 0.0
0.364242 2.076588 -0.006059 0.0
0.657255 0.494512 -0.000938 0.0
2.828733 2.027999 0.002981 0.0
4.675783 0.261630 -0.002540 0.0
2.963784 0.901351 0.002239 0.0
3.260742 0.811866 -0.004326 0.0
1.415901 0.433723 -0.002434 0.0
3.418135 0.164293 -0.000614 0.0
1.832453 0.939195 -0.000329 0.0
2.319485 0.763401 0.001662 0.0
4.512478 1.987554 -0.000303 0.0
3.314092 1.284741 -0.001684 0.0
1.258725 1.897956 -0.002244 0.0
2.626066 0.190753 0.000708 0.0
4.651610 0.099729 -0.003445 0.0
1.907693 0.529043 0.000972 0.0
1.397628 0.943195 -0.001542 0.0
3.949115 1.578374 0.001726 0.0
3.124138 2.151812 -0.000524 0.0
2.009997 1.158223 -0.001709 0.0
0.679637 0.484448 0.002875 0.0
1.075028 1.277154 -0.000059 0.0
1.856767 0.078859 0.000932 0.0
1.096535 1.648298 -0.004565 0.0
3.270601 0.120923 0.001059 0.0
2.022159 1.113397 0.000402 0.0
4.470499 0.271350 0.000876 0.0
2.103018 1.539622 -0.005372 0.0
1.605738 0.149395 0.000814 0.0
1.883103 0.664418 0.000284 0.0
3.861924 2.229283 -0.004746 0.0
0.737596 0.287661 -0.002200 0.0
3.738098 0.734020 -0.003828 0.0
3.998427 1.260444 -0.000867 0.0
0.944522 0.703277 0.001227 0.0
0.593248 1.898526 0.001881 0.0
3.479378 1.907066 0.000943 0.0
1.221999 1.401167 -0.000401 0.0
0.769226 1.342635 0.000086 0.0
0.940324 1.435676 -0.000673 0.0
2.981264 1.861930 -0.004906 0.0
0.995171 2.083301 -0.004004 0.0
1.165748 0.743682 0.002989 0.0
1.858955 1.207969 -0.000354 0.0
2.380256 0.979200 -0.002184 0.0
4.735487 1.112841 0.000858 0.0
1.836180 0.466863 0.001154 0.0
3.662735 0.521651 0.000419 0.0
3.946319 0.898954 -0.001104 0.0
3.291596 1.062764 0.005427 0.0
1.342866 1.631350 -0.001905 0.0
2.707944 1.850450 -0.001512 0.0
2.500457 0.304885 -0.000997 0.0
0.188740 0.121328 -0.001048 0.0
0.269309 1.309521 -0.001650 0.0
1.007361 1.906546 -0.002118 0.0
1.171957 2.281027 0.002353 0.0
3.482694 1.862206 -0.000209 0.0
0.308719 0.915156 0.000650 0.0
4.571054 2.299156 0.004451 0.0
2.759098 2.215016 0.003957 0.0
1.584480 1.094492 -0.000252 0.0
3.153879 1.135753 -0.001858 0.0
2.195162 0.828954 0.001076 0.0
4.658869 1.425208 -0.002700 0.0
4.504398 1.141836 0.002654 0.0
1.222961 1.053504 0.003073 0.0
1.994121 2.213519 0.001350 0.0
0.089003 0.116985 -0.000657 0.0
1.315091 1.272410 -0.000512 0.0
0.578030 1.752373 -0.000784 0.0
0.571931 1.266459 -0.005651 0.0
0.073351 1.716968 0.003790 0.0
2.653424 0.590233 0.002180 0.0
4.431732 1.005457 0.001605 0.0
2.992302 2.287027 0.002608 0.0
4.318421 0.596387 -0.004875 0.0
3.900355 1.551813 0.003746 0.0
3.143385 0.169458 0.002117 0.0
1.602763 1.060947 -0.000359 0.0
1.970844 0.660947 0.000740 0.0
3.160994 0.642490 0.000430 0.0
0.524817 0.802472 0.002861 0.0
3.201401 2.042817 0.003376 0.0
0.771192 0.277290 -0.000163 0.0
0.640076 2.241084 -0.000827 0.0
3.942896 0.875798 0.002310 0.0
1.026295 2.186833 -0.000291 0.0
2.625800 0.214097 0.002126 0.0
2.421416 2.269984 -0.000807 0.0
2.546159 2.097013 -0.002802 0.0
3.855496 1.983952 -0.003011 0.0
1.747344 0.197320 0.001321 0.0
1.682605 1.261513 -0.004569 0.0
2.761508 0.229603 -0.000845 0.0
3.106725 0.726477 0.001276 0.0
4.323325 0.439561 0.000837 0.0
1.738984 1.935415 0.002772 0.0
4.546066 2.155157 0.001166 0.0
0.823793 1.013402 -0.000507 0.0
0.420501 1.224309 -0.002632 0.0
2.643519 1.159980 -0.002426 0.0
4.074551 0.919725 0.001499 0.0
3.977624 2.280319 -0.002528 0.0
3.497257 0.107612 0.002198 0.0
2.396702 1.715136 -0.000331 0.0
3.807175 1.852837 -0.001469 0.0
4.451930 0.780018 0.002729 0.0
4.582487 1.886241 0.003093 0.0
3.580563 1.689033 -0.003404 0.0
1.137559 0.599637 -0.002190 0.0
0.620556 1.302953 -0.001318 0.0
4.088502 2.070165 0.001298 0.0
1.296029 0.146929 0.000402 0.0
0.763685 0.390857 0.000701 0.0
1.952625 0.362010 -0.001384 0.0
0.764482 1.687458 -0.000756 0.0
0.379729 0.990117 -0.001166 0.0
1.678425 0.954437 -0.000236 0.0
4.446857 1.053897 0.003048 0.0
0.848024 2.024562 0.003264 0.0
2.668828 0.020633 0.001188 0.0
0.623222 1.765917 -0.000085 0.0
4.358026 0.318229 0.005099 0.0
2.100543 2.154132 -0.001496 0.0
4.588966 1.406086 0.002029 0.0
2.492228 1.426644 -0.000099 0.0
2.513807 0.524751 0.003383 0.0
2.533931 1.042207 -0.002714 0.0
0.641534 0.223906 0.000186 0.0
1.799596 -0.001301 0.023493 0.0
4.554144 -0.003182 0.001293 0.0
3.201253 0.003140 0.028475 0.0
4.681539 0.000412 0.120766 0.0
2.992089 -0.000394 0.039670 0.0
3.137627 0.000573 0.156302 0.0
2.876648 0.006846 0.171025 0.0
2.236477 0.000703 0.055158 0.0
3.217966 0.000099 0.111743 0.0
3.974687 -0.002563 0.006619 0.0
3.924665 0.002970 0.155154 0.0
3.844218 0.001354 0.158501 0.0
4.334561 0.002992 0.081345 0.0
3.603746 -0.000782 0.033971 0.0
2.268942 0.000929 0.140912 0.0
4.204852 0.003431 0.037436 0.0
2.499866 0.001218 0.027688 0.0
3.974875 -0.003236 0.012218 0.0
1.863034 -0.001309 0.019921 0.0
2.583194 0.004721 0.163265 0.0
2.987156 -0.001472 0.148421 0.0
3.937520 0.001217 0.067823 0.0
3.990535 0.000630 0.055383 0.0
3.006066 -0.000187 0.140489 0.0
2.434299 0.002510 0.124568 0.0
0.534789 0.003934 0.051779 0.0
1.594109 0.004704 0.100463 0.0
0.867296 0.002098 0.064854 0.0
2.822520 -0.001975 0.116008 0.0
3.854917 0.002644 0.062726 0.0
4.005767 0.000822 0.012951 0.0
2.917537 0.004808 0.151688 0.0
0.149844 0.005062 0.112190 0.0
2.644907 0.003095 0.149006 0.0
2.995662 0.001109 0.124771 0.0
1.332804 0.001456 0.041562 0.0
2.579315 -0.002373 0.116872 0.0
1.749330 0.000372 0.041996 0.0
2.874150 0.004035 0.140746 0.0
1.246869 0.003157 0.171498 0.0
0.959351 -0.001118 0.090746 0.0
2.674444 0.001089 0.110492 0.0
4.087413 -0.000335 0.014238 0.0
3.334019 -0.000597 0.050357 0.0
3.795003 -0.002291 0.058873 0.0
2.912559 -0.000174 0.072535 0.0
1.246196 0.000616 0.094075 0.0
1.169455 0.003037 0.138089 0.0
2.498579 0.002451 0.021575 0.0
0.982387 0.000732 0.153494 0.0
3.652223 -0.000659 0.082909 0.0
3.833255 0.002992 0.084671 0.0
3.941762 0.001208 0.016564 0.0
4.513783 0.002963 0.047338 0.0
2.200782 0.001080 0.021795 0.0
0.794779 0.003335 0.041193 0.0
2.283660 -0.000639 0.007988 0.0
3.734221 0.001473 0.106332 0.0
4.406573 -0.001297 0.064230 0.0
0.030694 0.004180 0.158912 0.0
3.700280 -0.000157 0.085351 0.0
2.917624 -0.000435 0.015537 0.0
3.090228 0.001745 0.004961 0.0
1.389851 -0.003230 0.001842 0.0
3.988925 0.003091 0.168098 0.0
3.729900 -0.000794 0.159981 0.0
3.571209 0.001204 0.125578 0.0
4.095462 0.003312 0.110972 0.0
0.216435 0.002029 0.112916 0.0
0.171519 -0.002517 0.039097 0.0
3.849630 0.004737 0.181309 0.0
2.022246 0.001201 0.098718 0.0
2.149606 -0.002486 0.021944 0.0
3.563657 0.003516 0.033319 0.0
1.321373 0.000295 0.029048 0.0
1.131181 -0.001332 0.049379 0.0
1.292448 0.002280 0.102228 0.0
3.575420 0.000902 0.038225 0.0
2.654993 0.000637 0.005173 0.0
1.485277 0.001954 0.120774 0.0
4.024102 -0.004080 0.011892 0.0
1.897605 0.004203 0.008306 0.0
4.469894 0.002811 0.012554 0.0
4.649995 0.001747 0.168879 0.0
2.565441 0.004971 0.147711 0.0
2.753252 0.003435 0.176166 0.0
1.000627 0.001530 0.067993 0.0
0.204064 0.003998 0.120549 0.0
3.922404 0.005826 0.149303 0.0
1.661611 0.000732 0.068469 0.0
2.058199 0.003397 0.113529 0.0
0.310532 0.002317 0.104903 0.0
3.118095 0.002156 0.074930 0.0
4.229890 -0.000466 0.069355 0.0
4.497045 0.000148 0.075445 0.0
2.102284 0.000435 0.133184 0.0
0.425038 0.003146 0.167220 0.0
1.202221 0.002252 -0.000846 0.0
3.527794 0.000845 0.041266 0.0
4.143912 0.000624 0.010446 0.0
0.736626 -0.003125 0.028266 0.0
1.029434 -0.000734 0.099889 0.0
4.001703 -0.002513 0.023499 0.0
2.907107 0.005029 0.117277 0.0
4.536977 -0.001213 0.004945 0.0
1.708843 0.003611 0.148669 0.0
0.300156 -0.003220 0.051979 0.0
2.714492 -0.000567 0.005513 0.0
3.148068 0.002407 0.081711 0.0
0.497013 0.002886 0.023965 0.0
2.915183 0.003204 0.148231 0.0
0.620691 0.001260 0.014750 0.0
4.657390 0.000127 0.032948 0.0
1.609220 0.003017 0.071759 0.0
0.400657 -0.000247 0.149414 0.0
0.182786 0.004201 0.169315 0.0
0.785452 0.002861 0.143610 0.0
4.556987 -0.001688 0.047701 0.0
4.007003 -0.001525 0.013080 0.0
0.657411 0.000344 0.151803 0.0
4.343083 0.000427 0.049056 0.0
1.975315 0.003194 0.065545 0.0
1.886782 0.002446 0.176231 0.0
3.358157 0.003125 0.147373 0.0
2.267779 -0.004614 0.146448 0.0
2.439694 -0.001091 0.036620 0.0
4.320253 0.005419 0.057622 0.0
0.036317 0.006397 0.136666 0.0
3.588518 -0.001739 0.009374 0.0
3.812447 0.002126 0.082721 0.0
2.704048 -0.000091 0.056188 0.0
3.050271 0.002380 0.088920 0.0
3.712398 0.005615 0.144323 0.0
3.803743 0.001656 0.107676 0.0
0.223340 0.001716 0.161542 0.0
1.713830 0.000274 0.089817 0.0
0.872639 0.002482 0.174041 0.0
0.978797 -0.001914 0.171104 0.0
3.035966 0.003314 0.097523 0.0
3.287578 -0.001538 0.147663 0.0
1.951553 0.002604 0.098100 0.0
3.994604 0.001524 0.059063 0.0
3.389952 0.003709 0.112973 0.0
2.826830 0.002103 0.139789 0.0
3.782230 -0.001818 0.071318 0.0
4.712787 -0.000141 0.171575 0.0
3.068655 0.002149 0.070735 0.0
1.836136 0.002812 0.162854 0.0
3.149065 -0.004122 0.014100 0.0
4.268761 0.000609 0.127329 0.0
3.269436 0.001942 0.143697 0.0
0.979967 0.002196 0.046041 0.0
0.464585 0.004775 0.167949 0.0
1.990112 0.003117 0.147959 0.0
0.317616 -0.004381 0.072923 0.0
1.769258 -0.003695 0.025233 0.0
0.503482 0.003621 0.060368 0.0
1.105808 0.004918 0.005697 0.0
3.061457 0.004177 0.030297 0.0
4.511736 0.006352 0.127264 0.0
2.729417 0.002109 0.056032 0.0
3.104655 -0.001202 0.064183 0.0
0.687095 0.004710 0.171859 0.0
2.213666 0.001043 0.150537 0.0
0.603666 -0.005196 0.008776 0.0
3.079641 0.001073 0.080499 0.0
3.934293 0.003561 0.068995 0.0
2.662607 -0.002058 0.064069 0.0
0.855875 -0.000487 0.117054 0.0
0.230842 -0.001388 0.052953 0.0
4.523346 0.001929 0.014098 0.0
3.241036 0.000512 0.096477 0.0
2.490276 -0.000196 0.173213 0.0
4.338088 0.001047 0.032017 0.0
4.512272 0.003891 0.124886 0.0
2.552779 0.005598 0.173395 0.0
0.901847 -0.000001 0.017886 0.0
2.618543 0.008931 0.154215 0.0
2.695146 0.003768 0.158651 0.0
1.895246 0.001653 0.092405 0.0
0.734653 0.004951 0.153921 0.0
1.015709 0.002097 0.097383 0.0
0.036370 0.001845 0.002391 0.0
1.805627 0.000863 0.050937 0.0
4.392070 0.004620 0.119269 0.0
1.601702 0.003315 0.045474 0.0
2.041603 -0.000085 0.088014 0.0
3.184303 0.003764 0.124390 0.0
3.334029 0.002033 0.119726 0.0
0.817207 0.000149 0.180430 0.0
0.313653 0.001850 0.062164 0.0
0.308159 0.002816 0.174061 0.0
3.926876 -0.002074 0.167410 0.0
0.403050 -0.001050 0.067981 0.0
4.110845 0.007266 0.139744 0.0
1.890133 0.002594 0.097802 0.0
2.062663 0.001175 0.015052 0.0
3.130392 0.002094 0.049952 0.0
1.619354 -0.002681 0.025592 0.0
2.876265 0.001743 0.149650 0.0
2.885160 0.002883 0.045055 0.0
1.779509 -0.000338 0.014805 0.0
2.791374 0.003180 0.128644 0.0
0.838532 0.003282 0.145791 0.0
0.061391 0.001666 0.121408 0.0
3.604911 -0.001783 0.154428 0.0
4.634104 0.002223 0.050535 0.0
3.643818 -0.000274 0.062590 0.0
1.950072 0.001261 0.182603 0.0
1.907949 0.001731 0.086793 0.0
4.702169 0.000479 0.124649 0.0
1.569956 0.002266 0.130752 0.0
0.348326 0.000881 0.031252 0.0
3.245687 0.002234 0.121415 0.0
1.601441 0.002137 0.002047 0.0
1.529780 0.004652 0.102333 0.0
2.297846 0.001713 0.155427 0.0
3.687704 -0.000811 0.164716 0.0
0.928048 0.001714 0.015515 0.0
4.286224 -0.001416 0.091225 0.0
2.578951 0.003160 0.123530 0.0
4.064121 0.000804 0.006312 0.0
4.541348 -0.002716 0.053184 0.0
0.086848 -0.002962 0.006333 0.0
0.069839 -0.001608 0.140072 0.0
0.064916 0.000677 0.028811 0.0
0.761506 0.003555 0.040829 0.0
3.259187 0.002342 0.137638 0.0
2.838049 0.004234 0.075251 0.0
