0.997958 1.733877 -0.000413 0.0
0.083906 0.584006 -0.002543 0.0
1.843994 1.517538 0.000375 0.0
1.992652 0.725236 0.003513 0.0
1.231405 0.377279 -0.000231 0.0
0.800613 1.479568 0.001393 0.0
3.105865 1.467336 0.000340 0.0
0.342900 0.223370 -0.001586 0.0
2.201540 0.927135 0.000493 0.0
0.834978 1.995017 -0.001284 0.0
1.120438 0.197881 -0.002288 0.0
0.609174 0.458853 -0.001421 0.0
0.109613 1.824558 0.000610 0.0
3.069269 0.313856 0.002008 0.0
4.348528 1.906901 -0.000726 0.0
3.148218 0.727813 -0.000891 0.0
3.248654 0.018739 -0.003010 0.0
0.383077 1.463277 0.000216 0.0
0.442113 2.019200 -0.001630 0.0
2.858807 1.933053 -0.000897 0.0
2.094647 0.124753 -0.003157 0.0
2.062047 1.160827 -0.002006 0.0
4.004147 0.731042 -0.002214 0.0
4.207614 1.729368 0.001374 0.0
2.781895 0.973643 0.000358 0.0
2.183785 1.267692 -0.003883 0.0
3.313859 0.607868 -0.001075 0.0
0.595497 0.972163 0.001547 0.0
2.311858 1.302883 -0.001894 0.0
3.225540 0.107628 0.001897 0.0
1.789012 0.688024 0.004603 0.0
1.247000 0.311612 -0.002091 0.0
1.629067 0.896855 -0.002626 0.0
1.639702 0.930658 -0.001371 0.0
2.122423 1.529363 -0.002105 0.0
1.589496 1.563664 -0.001435 0.0
1.945933 1.696945 -0.003800 0.0
1.969590 1.173684 0.000047 0.0
3.835734 1.710205 -0.000340 0.0
2.676782 0.686753 -0.000419 0.0
4.237862 0.859772 -0.003696 0.0
0.163224 0.847048 0.003951 0.0
2.211780 0.242365 0.000016 0.0
0.329347 1.608181 -0.002464 0.0
0.787664 2.057318 -0.005923 0.0
3.058055 0.687901 0.002787 0.0
0.919679 1.308932 0.001763 0.0
2.974392 2.019081 0.001293 0.0
0.990897 0.582356 0.002268 0.0
0.925080 0.101844 0.004901 0.0
4.047934 0.042682 0.001423 0.0
3.593943 0.940441 -0.006811 0.0
1.352623 1.980984 -0.000020 0.0
0.479886 2.005315 0.001313 0.0
0.933458 1.679092 0.004330 0.0
0.192472 1.250606 0.002936 0.0
1.083972 1.802040 -0.001934 0.0
3.840214 0.673711 0.000576 0.0
2.830176 1.435197 0.001857 0.0
2.471646 0.525875 0.001087 0.0
0.097792 0.723873 -0.004001 0.0
2.900412 0.297462 0.002152 0.0
0.803002 0.142934 -0.004507 0.0
1.265521 0.566157 -0.005777 0.0
0.747890 0.101049 -0.001035 0.0
3.874717 0.200540 0.001390 0.0
2.746594 0.741613 -0.006383 0.0
4.055361 1.082207 0.001542 0.0
3.346576 1.025699 0.003811 0.0
4.180784 0.179495 0.000326 0.0
3.963798 0.121372 0.003445 0.0
3.767785 1.231290 0.002154 0.0
4.245272 1.859341 -0.002453 0.0
2.800910 0.639219 -0.001865 0.0
1.596610 1.639793 0.003836 0.0
2.525761 1.931957 -0.001687 0.0
3.333977 1.376473 -0.002787 0.0
3.483918 0.113269 0.001314 0.0
0.226521 0.846424 0.001401 0.0
0.142908 1.253070 -0.000889 0.0
4.368146 1.438423 0.002057 0.0
1.395775 1.486857 -0.001276 0.0
0.877355 0.928054 -0.001743 0.0
0.178251 1.079423 0.003320 0.0
2.006149 0.210492 -0.000258 0.0
1.188266 1.309341 -0.000766 0.0
0.660876 0.386410 -0.000477 0.0
1.028464 0.761692 0.001207 0.0
4.188257 0.591879 0.002224 0.0
0.429954 0.116704 0.002525 0.0
3.196600 0.968855 -0.002288 0.0
3.874490 0.291871 -0.000798 0.0
0.049551 0.635185 0.002151 0.0
3.500375 0.366396 0.001318 0.0
1.577471 0.783012 -0.006359 0.0
3.223853 1.244078 0.001629 0.0
4.310407 1.963563 -0.001459 0.0
4.231612 2.067060 -0.001436 0.0
2.837148 0.279545 -0.002360 0.0
1.490329 1.915468 -0.001781 0.0
1.212559 0.886364 0.001014 0.0
3.094558 1.555002 -0.004107 0.0
2.092576 1.543062 0.000782 0.0
2.003608 1.588142 -0.002815 0.0
0.115661 0.361987 0.002298 0.0
0.138821 0.588464 -0.000182 0.0
1.279818 1.345048 0.000621 0.0
1.573422 2.030114 0.004145 0.0
4.220217 1.504420 0.002199 0.0
2.067354 1.067745 -0.000836 0.0
0.348411 0.507520 0.004325 0.0
1.492301 1.153281 0.002188 0.0
1.509636 0.965632 0.000833 0.0
2.699884 1.871500 -0.002811 0.0
3.767292 0.386974 0.003332 0.0
3.935128 1.691361 -0.001923 0.0
0.070630 0.888762 0.002608 0.0
0.016057 0.058981 -0.002047 0.0
2.607815 1.556623 0.001220 0.0
4.122602 0.416821 -0.000004 0.0
4.217011 1.322331 0.001957 0.0
0.414469 1.380023 0.003797 0.0
3.339494 1.397464 -0.001655 0.0
1.758547 1.277252 0.002626 0.0
2.335514 0.494086 -0.003313 0.0
2.693475 0.688992 -0.003140 0.0
1.568119 1.097197 -0.002683 0.0
1.878702 1.804936 0.000650 0.0
2.500450 1.964464 -0.001279 0.0
3.171248 1.208563 -0.003416 0.0
2.024117 0.163469 -0.001382 0.0
3.375323 0.767844 -0.001664 0.0
4.113912 1.003839 -0.007226 0.0
2.500686 1.483657 -0.002117 0.0
4.378409 0.132137 0.000753 0.0
1.803662 1.627727 -0.000914 0.0
4.086541 1.439932 0.001357 0.0
4.308203 1.231536 -0.003814 0.0
2.649982 1.008634 -0.000199 0.0
0.328225 0.105297 0.001799 0.0
0.196508 1.647163 0.001339 0.0
3.906613 0.942927 -0.000980 0.0
3.796701 1.005387 -0.000319 0.0
0.458980 0.823233 -0.003548 0.0
2.208603 0.032247 0.001216 0.0
2.005982 1.595983 0.000234 0.0
0.957806 0.171924 -0.000439 0.0
3.034184 0.945033 -0.002655 0.0
3.041549 0.885321 0.001436 0.0
0.381779 0.358008 -0.001270 0.0
1.603760 0.449776 -0.004157 0.0
2.697146 0.624353 -0.002076 0.0
0.641854 0.056276 0.004334 0.0
0.822072 0.331211 -0.000983 0.0
0.649954 0.108871 0.001814 0.0
0.244248 1.311591 -0.002392 0.0
1.107513 0.200042 0.000232 0.0
0.734168 0.057904 -0.001497 0.0
4.118498 0.343910 0.001885 0.0
2.792848 0.148984 0.002698 0.0
2.208978 1.118602 -0.005509 0.0
2.844299 0.035960 -0.001478 0.0
0.995982 1.655710 0.001616 0.0
3.015311 0.344241 0.001455 0.0
2.924384 1.023063 0.000975 0.0
3.277689 1.805210 -0.002206 0.0
2.226110 1.140830 -0.000881 0.0
1.058716 0.582142 0.004133 0.0
3.159340 1.407577 -0.004816 0.0
1.447248 1.002743 -0.002456 0.0
3.108693 1.520728 -0.000861 0.0
3.338735 1.950774 0.000528 0.0
2.336468 0.506751 0.003689 0.0
3.271582 0.023577 -0.001057 0.0
3.245988 0.149641 0.002673 0.0
3.173299 1.444208 0.002218 0.0
2.221818 1.813348 0.001957 0.0
3.356138 1.829803 0.000008 0.0
1.046079 0.843937 0.002456 0.0
1.073573 1.022094 0.000540 0.0
4.021589 0.387957 0.003130 0.0
0.858654 1.280748 -0.000389 0.0
1.280335 1.131268 -0.000503 0.0
4.238766 1.246449 -0.002644 0.0
1.523593 1.742582 -0.002324 0.0
1.803549 1.300353 0.000395 0.0
1.841331 1.778583 0.000551 0.0
1.821544 1.287245 0.000522 0.0
2.859583 0.386265 0.002175 0.0
0.033098 1.249416 0.003011 0.0
3.300413 0.302664 -0.003289 0.0
3.298061 0.577911 -0.004779 0.0
2.767186 1.040939 -0.000796 0.0
3.688136 0.517456 -0.001214 0.0
1.089451 0.338213 -0.003082 0.0
1.995097 0.488348 0.000556 0.0
0.760473 1.549772 -0.002402 0.0
4.162369 0.796886 0.003632 0.0
1.599381 1.245441 0.000112 0.0
3.861007 0.263151 0.002306 0.0
1.953539 0.906624 0.000155 0.0
1.098234 1.875818 0.002981 0.0
3.893081 0.673045 -0.001729 0.0
3.701961 0.725107 0.003539 0.0
1.310640 1.701633 -0.002063 0.0
2.389295 1.174942 0.002170 0.0
2.266359 1.880280 -0.000900 0.0
2.910630 0.216177 -0.004960 0.0
0.984096 1.421061 -0.001022 0.0
0.741358 1.900332 -0.001593 0.0
1.927137 0.656948 0.004740 0.0
2.151571 0.549427 0.003087 0.0
1.011224 0.081694 0.004911 0.0
3.763800 1.704751 0.000362 0.0
0.473342 1.812403 0.000171 0.0
2.138567 1.539860 -0.001064 0.0
3.701771 1.753440 0.002021 0.0
1.315524 1.868133 -0.001490 0.0
0.006944 1.274152 0.003718 0.0
0.362615 0.992113 -0.001213 0.0
0.116524 0.800215 -0.000253 0.0
1.609961 0.512496 0.001839 0.0
2.362622 0.979157 -0.000948 0.0
3.583693 0.507231 -0.002582 0.0
3.064954 1.970102 0.003760 0.0
0.571660 1.815278 0.000788 0.0
0.124859 1.906039 -0.001876 0.0
1.266001 2.028999 0.002077 0.0
1.658204 1.303676 -0.003127 0.0
4.335500 1.251465 -0.001176 0.0
0.728276 1.081463 0.002295 0.0
2.119856 0.944424 -0.001363 0.0
2.603729 1.384843 0.006588 0.0
1.143734 0.186144 -0.001839 0.0
0.283730 1.730088 -0.001183 0.0
0.675966 0.128544 -0.003455 0.0
2.655000 0.959201 -0.002571 0.0
2.894952 1.956465 0.000213 0.0
0.082732 0.649647 -0.000554 0.0
0.783280 1.021366 -0.000452 0.0
2.650228 1.415291 0.004280 0.0
1.446633 0.016451 0.002144 0.0
0.481581 1.234192 -0.004697 0.0
1.126937 0.656517 -0.005810 0.0
1.127608 1.637415 -0.002626 0.0
2.160967 1.177147 -0.004231 0.0
1.704091 0.839661 -0.003179 0.0
2.989042 1.643704 -0.002592 0.0
4.179259 0.169599 0.003410 0.0
2.663887 0.949195 0.003929 0.0
2.950719 1.314458 -0.001393 0.0
1.019615 1.763831 -0.000288 0.0
2.425639 0.558078 -0.000089 0.0
3.298412 1.815626 -0.000277 0.0
4.110783 1.664493 0.001404 0.0
2.939265 1.000288 0.003395 0.0
0.577071 1.620382 -0.001344 0.0
2.641937 0.703201 -0.002879 0.0
2.540998 0.893911 0.000884 0.0
2.144877 1.085064 0.001030 0.0
0.667937 1.462058 0.000090 0.0
1.979523 1.553617 -0.000535 0.0
2.447476 1.262118 -0.002726 0.0
1.012014 0.450380 -0.001610 0.0
1.363307 1.965975 0.002147 0.0
3.877522 1.649408 -0.003504 0.0
2.583640 1.651177 -0.005090 0.0
3.845619 0.918927 0.000042 0.0
2.070607 0.958508 0.000179 0.0
1.475356 1.993799 -0.001899 0.0
1.106018 0.904981 0.006141 0.0
3.161021 0.139190 -0.002027 0.0
3.426334 1.919959 0.001304 0.0
2.330968 1.730548 -0.003008 0.0
0.825052 1.353499 -0.003691 0.0
0.361063 2.008992 -0.001076 0.0
0.452868 0.114992 0.001762 0.0
3.976185 0.999192 -0.000163 0.0
2.915743 0.941642 -0.000662 0.0
3.782327 1.617512 -0.002337 0.0
3.951737 1.093196 0.000963 0.0
1.482978 0.997452 0.001552 0.0
2.011122 0.898144 -0.001841 0.0
3.760236 1.214056 -0.000006 0.0
4.360770 1.605361 -0.004825 0.0
3.664884 1.775743 0.001407 0.0
0.150182 1.808484 0.000996 0.0
3.362897 1.479548 -0.003775 0.0
0.285088 1.121120 0.000040 0.0
2.448353 0.390212 0.002246 0.0
4.060275 0.387360 -0.003894 0.0
0.600384 1.443289 -0.001350 0.0
2.666059 1.864651 0.001138 0.0
2.034782 0.237259 -0.000846 0.0
0.517823 1.277625 -0.001352 0.0
1.964208 2.036943 0.002812 0.0
1.834985 1.999806 -0.001079 0.0
4.330019 1.053892 -0.000542 0.0
2.582422 0.999933 -0.004487 0.0
1.093079 0.185956 0.002003 0.0
3.280830 0.617879 0.002083 0.0
2.417884 0.111250 0.000540 0.0
1.728413 1.263894 -0.003152 0.0
2.753972 1.248157 0.000097 0.0
2.416025 0.466816 -0.004555 0.0
0.976038 0.013769 0.005628 0.0
3.022710 0.405592 -0.001042 0.0
0.351024 0.144931 0.000787 0.0
0.255091 1.467294 -0.000238 0.0
0.225896 0.510675 -0.000388 0.0
1.757143 0.514313 0.000304 0.0
1.431970 0.231627 0.003137 0.0
2.384020 1.625874 -0.000658 0.0
3.221072 1.791691 0.001222 0.0
1.106712 0.880354 -0.001315 0.0
4.167409 1.431790 -0.000413 0.0
2.330866 1.105054 0.001597 0.0
2.319614 1.038697 0.002790 0.0
1.826118 2.038493 0.003983 0.0
4.107516 1.682820 0.001514 0.0
2.668080 1.557049 -0.000831 0.0
0.594128 1.641592 0.000707 0.0
1.416006 1.763152 -0.000265 0.0
4.321777 0.519995 -0.001047 0.0
1.928111 0.953182 0.001371 0.0
3.231294 1.928571 0.003041 0.0
4.275792 0.770751 -0.001275 0.0
3.409219 0.866593 0.000166 0.0
0.359550 1.373498 0.003378 0.0
4.239698 0.135048 0.002548 0.0
2.973346 1.107619 -0.005266 0.0
2.358813 1.731373 0.001802 0.0
4.097127 2.062410 -0.002320 0.0
1.595428 2.047358 0.001552 0.0
1.137671 1.746794 0.001677 0.0
3.025263 0.464489 -0.001230 0.0
3.958183 0.988302 -0.001010 0.0
2.748180 1.906351 -0.001784 0.0
1.787381 1.327998 0.001021 0.0
0.974707 0.297663 0.000312 0.0
1.782478 1.331222 0.001107 0.0
2.146015 0.965395 -0.001573 0.0
0.525117 1.377984 0.001773 0.0
2.391748 0.459990 0.002557 0.0
1.543716 1.687853 -0.000867 0.0
1.754667 0.995952 -0.000349 0.0
1.935125 1.722742 0.000988 0.0
1.246469 0.283717 0.001500 0.0
2.182075 1.058520 0.002085 0.0
0.157936 0.198622 -0.001438 0.0
1.512936 1.685709 -0.001582 0.0
0.473295 1.922041 0.001147 0.0
0.240223 1.122976 -0.003598 0.0
4.210701 0.183791 -0.002081 0.0
2.080802 1.738368 -0.003445 0.0
1.801885 0.825958 0.000935 0.0
0.574873 2.048110 -0.001449 0.0
3.988573 1.806819 -0.000536 0.0
0.378932 0.327614 -0.000177 0.0
2.869101 1.403597 0.000513 0.0
3.302940 1.920513 0.002183 0.0
3.922935 0.437838 0.000453 0.0
1.730881 1.053811 0.002561 0.0
3.171496 1.175418 -0.001975 0.0
2.340850 1.221269 0.000628 0.0
2.401498 0.647321 0.006325 0.0
0.555969 0.481676 0.001695 0.0
2.488246 1.191387 -0.003844 0.0
4.224225 0.351324 0.003339 0.0
1.388760 1.779612 -0.002908 0.0
1.730930 2.023439 0.000118 0.0
3.882950 1.773959 0.002272 0.0
2.452109 0.220961 -0.001479 0.0
2.600493 0.417558 0.000479 0.0
1.527225 0.317936 -0.002695 0.0
1.560427 1.317615 0.001776 0.0
3.790761 1.596842 0.001298 0.0
3.411060 0.531009 0.000520 0.0
2.636889 0.465508 0.002434 0.0
3.855792 1.038372 0.000273 0.0
1.867013 0.453161 0.002365 0.0
3.551582 1.434841 0.000685 0.0
2.654693 0.230743 -0.001637 0.0
4.184276 0.543072 0.008272 0.0
0.073884 1.009764 -0.003919 0.0
3.575933 0.369681 -0.000369 0.0
3.495944 0.275359 0.001877 0.0
2.558321 0.912999 -0.002974 0.0
1.677159 1.142584 0.005437 0.0
2.317523 1.358931 -0.001980 0.0
1.972285 0.923048 -0.002110 0.0
0.762063 1.221813 -0.001335 0.0
2.916850 1.552933 -0.000622 0.0
4.179822 0.387102 0.004896 0.0
0.739630 0.212746 -0.001810 0.0
1.093265 0.764642 -0.002498 0.0
1.925251 1.397963 -0.005016 0.0
4.205201 0.236928 -0.000718 0.0
0.418768 0.666178 0.001422 0.0
1.222144 1.526451 -0.003918 0.0
0.976366 0.151515 0.000665 0.0
1.962741 1.255493 -0.000757 0.0
2.569509 0.862725 0.002077 0.0
0.034845 0.981832 -0.000721 0.0
2.784562 1.046086 -0.003775 0.0
4.163992 1.402611 -0.000187 0.0
0.955553 0.057563 -0.000481 0.0
1.616618 1.143433 0.006413 0.0
1.699404 0.168177 -0.000198 0.0
2.530259 1.130983 0.000042 0.0
2.556048 0.576471 0.001252 0.0
1.830443 0.814943 0.000482 0.0
1.778074 1.397756 0.001451 0.0
0.589922 1.833869 -0.002294 0.0
2.528540 0.428078 -0.001610 0.0
3.818680 1.010935 -0.003717 0.0
1.704488 1.519022 0.002025 0.0
3.599282 0.275112 -0.001431 0.0
0.754573 0.537736 -0.000810 0.0
0.193776 1.013787 -0.001261 0.0
3.137730 0.093283 0.004837 0.0
3.221262 0.596501 -0.000046 0.0
1.835237 1.708968 -0.003871 0.0
0.093327 1.528516 -0.003363 0.0
3.377621 0.237688 0.002613 0.0
0.026261 1.560042 0.000206 0.0
0.681660 0.356039 0.003321 0.0
2.018280 0.448269 -0.000508 0.0
1.426316 1.656392 -0.000663 0.0
2.575796 1.754107 -0.000284 0.0
4.286119 0.148441 0.001076 0.0
4.009400 0.009945 0.003191 0.0
4.257181 1.140658 0.000008 0.0
2.454614 1.427312 0.001148 0.0
1.697231 0.383078 -0.000299 0.0
0.043847 0.389726 0.001834 0.0
2.562810 1.479631 -0.004170 0.0
0.292842 0.099891 -0.002022 0.0
1.032978 0.840464 -0.003362 0.0
1.058281 0.576415 0.001437 0.0
2.637939 0.163910 -0.002558 0.0
0.638389 1.041233 -0.000097 0.0
1.579993 1.754419 -0.002501 0.0
3.212043 0.955560 0.000163 0.0
3.361086 1.527816 -0.002517 0.0
2.366312 0.366935 -0.000893 0.0
4.324607 0.042330 0.004077 0.0
1.760561 1.096190 0.000862 0.0
1.906527 0.740771 -0.000324 0.0
0.675837 0.970389 -0.001668 0.0
1.516426 1.671437 0.000162 0.0
3.850189 1.065008 0.001480 0.0
4.304296 0.904320 -0.001148 0.0
3.263618 0.695518 0.000109 0.0
4.200985 0.067824 -0.001556 0.0
0.928790 0.216913 -0.000187 0.0
2.693851 0.385817 -0.003403 0.0
3.869076 0.622062 -0.002319 0.0
0.447093 1.571182 -0.001373 0.0
3.272324 2.001950 0.003730 0.0
0.019363 1.794132 -0.000164 0.0
1.973104 0.092181 -0.002536 0.0
2.653659 0.139297 0.001430 0.0
3.375746 0.431269 -0.001737 0.0
2.430532 1.493465 0.003712 0.0
1.007537 1.094312 0.004795 0.0
3.191885 1.713199 0.000555 0.0
0.220044 1.641744 0.000361 0.0
2.102806 0.346954 0.003356 0.0
2.416874 0.025741 -0.000927 0.0
2.549948 1.732114 0.002891 0.0
0.775120 1.229643 0.000925 0.0
3.281116 0.470612 0.002218 0.0
3.192620 1.185192 0.002945 0.0
0.317492 1.308502 -0.001230 0.0
1.687092 1.212807 -0.002538 0.0
0.828850 1.586798 0.001857 0.0
0.883923 0.712288 0.003570 0.0
1.241714 0.138611 -0.003294 0.0
3.145811 0.535793 0.001135 0.0
0.850607 1.135755 -0.003727 0.0
2.727443 0.542158 -0.000011 0.0
2.321912 0.929353 0.000173 0.0
1.622232 1.050365 -0.001365 0.0
2.601685 1.457404 0.001189 0.0
0.665861 1.586119 -0.005123 0.0
1.294003 1.742460 0.001017 0.0
3.723110 1.726448 -0.001203 0.0
0.463308 1.019353 0.004902 0.0
1.714929 0.150703 -0.001593 0.0
2.266624 0.375878 -0.000390 0.0
1.556123 0.056440 -0.001634 0.0
4.284649 1.242768 -0.001182 0.0
3.583718 1.056808 -0.000787 0.0
1.862696 1.669994 0.000804 0.0
2.520202 0.167619 0.001869 0.0
3.181848 0.017941 -0.000931 0.0
4.390874 0.457037 0.003001 0.0
0.518570 1.407509 0.003818 0.0
3.346219 1.289501 -0.000042 0.0
4.050431 1.025710 -0.000309 0.0
1.008296 1.877467 0.000977 0.0
1.814592 0.459012 0.004081 0.0
0.682846 1.011234 0.004689 0.0
0.114307 1.760991 -0.004717 0.0
0.374467 0.813803 0.000333 0.0
1.867272 1.139247 0.002658 0.0
3.394981 1.123030 0.003122 0.0
1.271633 0.141388 0.000338 0.0
2.330538 0.383346 -0.001546 0.0
0.782307 1.661903 -0.000587 0.0
2.025211 0.326561 0.004076 0.0
0.821411 0.284582 -0.004143 0.0
1.122940 0.706776 -0.003322 0.0
2.978546 0.202909 0.000628 0.0
1.171222 0.362992 0.002023 0.0
3.165789 1.022630 0.002609 0.0
1.459356 1.427376 0.007809 0.0
3.270387 1.576379 0.005359 0.0
0.080284 0.075003 0.002699 0.0
2.648766 2.038306 0.001013 0.0
3.813603 0.354218 0.000886 0.0
0.930192 1.136407 0.001322 0.0
3.605963 1.089330 -0.001165 0.0
0.113244 0.488085 0.003253 0.0
2.606724 1.911496 0.005441 0.0
2.144159 1.418847 -0.004163 0.0
1.635002 1.302317 -0.004470 0.0
1.810079 0.376049 0.000830 0.0
2.937534 1.563512 -0.000958 0.0
3.001469 0.802928 -0.000819 0.0
1.533484 1.422247 0.006625 0.0
3.478343 1.508308 -0.001326 0.0
0.537387 0.194248 0.002765 0.0
1.066366 0.278135 -0.002636 0.0
3.550181 1.971391 -0.004219 0.0
0.424663 1.345255 0.001398 0.0
2.142065 1.104828 -0.001022 0.0
4.087581 0.427101 -0.001601 0.0
0.937778 0.311162 -0.003268 0.0
3.238202 0.569127 0.003803 0.0
2.444075 1.567027 0.003972 0.0
2.948561 1.259446 0.000144 0.0
0.974030 0.276948 0.000846 0.0
1.684251 1.722083 0.000386 0.0
1.272280 0.105135 0.002049 0.0
3.466805 1.212734 -0.002136 0.0
0.407997 0.122914 0.001728 0.0
1.879701 1.886211 -0.000849 0.0
1.577369 1.597835 0.000863 0.0
4.191662 1.741747 -0.001107 0.0
0.602110 1.837974 -0.003764 0.0
3.136707 0.856486 0.003875 0.0
1.165802 0.048625 -0.002721 0.0
2.761688 0.299246 -0.001728 0.0
2.757796 0.560121 -0.004738 0.0
1.624484 1.578342 -0.001925 0.0
3.648603 0.110338 0.000413 0.0
3.460836 1.658343 0.004258 0.0
2.675432 1.746513 0.005637 0.0
0.858176 1.606004 -0.002407 0.0
3.997395 1.648090 -0.005413 0.0
1.319026 1.594421 0.002193 0.0
1.203807 0.327010 -0.000471 0.0
0.942262 0.238989 -0.002046 0.0
3.366460 1.311262 0.004553 0.0
3.647091 1.191372 -0.003723 0.0
0.665663 1.079841 -0.003046 0.0
0.546822 1.983786 0.000764 0.0
1.292395 0.991135 0.000038 0.0
3.015583 1.296235 0.000472 0.0
2.870767 1.239012 0.000169 0.0
1.518956 2.032434 0.006704 0.0
0.653937 0.796762 0.003499 0.0
1.540424 0.053344 -0.003292 0.0
1.105244 2.014310 0.004142 0.0
1.344150 0.169204 0.002074 0.0
1.463925 0.058678 0.000771 0.0
0.943735 1.133868 -0.000419 0.0
1.845466 1.457377 0.000867 0.0
0.210396 0.728555 0.003346 0.0
3.357437 1.241081 -0.004291 0.0
0.195413 0.743711 0.001262 0.0
1.569850 0.767870 0.003795 0.0
3.216380 1.215627 0.000288 0.0
3.911252 0.948300 -0.002013 0.0
0.991197 1.030116 -0.001412 0.0
2.711901 0.643517 0.000209 0.0
3.163716 1.375410 -0.001651 0.0
2.548780 1.248714 0.000098 0.0
2.624451 0.195837 0.004799 0.0
0.221539 0.956962 0.000177 0.0
4.052200 0.610397 0.000049 0.0
0.023538 1.185921 0.000381 0.0
2.108544 1.361148 0.000153 0.0
3.086502 0.583836 -0.001604 0.0
2.345474 1.133095 0.004391 0.0
1.383139 0.203748 0.003561 0.0
0.938438 0.489492 0.000935 0.0
1.997205 0.089155 0.001954 0.0
1.659539 2.063415 -0.002592 0.0
0.762244 1.820281 -0.000760 0.0
3.732492 0.351533 -0.002787 0.0
2.617268 1.676069 -0.001472 0.0
1.117356 0.679900 0.003072 0.0
0.864777 1.902585 -0.001366 0.0
0.310205 0.444149 -0.003499 0.0
1.925660 1.666600 0.002953 0.0
1.697924 0.838711 -0.002155 0.0
0.315392 0.764368 -0.000378 0.0
1.723819 1.052177 0.001086 0.0
1.082390 0.637118 0.002308 0.0
0.487803 1.419011 -0.001398 0.0
3.723856 0.499674 0.005367 0.0
0.295608 0.163816 -0.003992 0.0
4.031789 0.029181 -0.001022 0.0
2.693510 1.397216 0.001387 0.0
0.612377 1.779577 0.006376 0.0
0.205827 1.756994 0.002043 0.0
1.047723 1.785491 0.002649 0.0
0.557246 1.747298 -0.001711 0.0
4.225890 1.527224 -0.004820 0.0
3.696081 0.609561 0.000877 0.0
1.906884 0.767043 -0.001792 0.0
0.015555 0.869943 0.002073 0.0
3.939832 0.378814 -0.002381 0.0
0.923600 1.964005 0.005008 0.0
4.315013 1.930858 -0.001445 0.0
1.009687 0.715847 -0.002658 0.0
2.038369 1.410036 0.001080 0.0
2.255508 0.565290 -0.005073 0.0
3.580497 0.552769 -0.001957 0.0
4.181277 1.755675 0.000510 0.0
3.494031 0.614009 -0.000348 0.0
4.246669 1.301417 -0.000888 0.0
1.095113 0.918617 -0.003489 0.0
2.050565 0.253378 0.001812 0.0
3.308776 0.198729 -0.003656 0.0
0.525878 0.635203 0.001721 0.0
0.867475 1.371559 0.003264 0.0
1.477280 0.489724 -0.003160 0.0
0.817445 0.014885 0.000034 0.0
0.541758 0.768088 -0.002393 0.0
1.900401 1.774947 0.003914 0.0
2.756820 0.952667 -0.001411 0.0
2.983181 0.108895 0.000904 0.0
0.366938 0.675229 -0.000375 0.0
0.699248 1.379152 -0.000849 0.0
0.823755 1.532920 -0.002806 0.0
1.811294 1.862701 0.000707 0.0
3.191577 0.281273 0.004644 0.0
0.086134 1.301270 -0.001341 0.0
3.822922 0.075912 0.002461 0.0
1.370882 0.968074 0.001409 0.0
2.671441 1.007282 -0.001181 0.0
0.315792 1.872642 -0.003665 0.0
1.853748 0.633425 0.003718 0.0
2.395819 1.000106 -0.001078 0.0
1.345318 1.868787 0.000247 0.0
1.009369 2.031405 -0.004202 0.0
2.816459 0.787303 0.002518 0.0
0.361095 0.446576 -0.003058 0.0
1.163416 1.068281 -0.002284 0.0
3.169013 0.604662 0.000827 0.0
1.750970 0.508878 -0.000986 0.0
1.773143 1.956856 -0.002732 0.0
0.771203 1.913240 -0.002054 0.0
3.724202 0.522758 0.000387 0.0
0.087945 1.695738 -0.000508 0.0
1.378423 0.324608 0.001120 0.0
1.954614 0.448446 -0.002614 0.0
3.149903 0.299517 0.005488 0.0
2.325148 0.363257 -0.000086 0.0
1.068436 0.486502 0.000649 0.0
3.727332 1.247552 -0.000644 0.0
3.883043 0.437507 -0.002122 0.0
3.320283 0.101186 -0.004586 0.0
3.351716 1.085322 0.002982 0.0
1.011443 1.924067 0.003089 0.0
1.998609 0.538729 -0.001453 0.0
1.900986 0.806070 0.001140 0.0
0.857406 1.370148 -0.003523 0.0
1.314231 0.658847 -0.000639 0.0
3.613849 1.659401 -0.002374 0.0
2.168749 1.693124 -0.001904 0.0
2.846772 1.209693 -0.002187 0.0
2.141323 1.520449 -0.000001 0.0
3.115441 1.611623 -0.000260 0.0
1.786235 0.032608 -0.001396 0.0
4.373190 0.133695 -0.000836 0.0
2.695623 1.842208 0.000408 0.0
1.500798 0.889608 -0.002884 0.0
0.289571 0.748991 0.000196 0.0
2.535026 1.277467 -0.001584 0.0
1.591871 0.567967 -0.000732 0.0
2.106084 0.234749 -0.001420 0.0
4.044417 1.300276 -0.001409 0.0
2.437132 1.078869 0.000529 0.0
1.453704 1.169604 0.000679 0.0
2.312853 1.687557 -0.006675 0.0
2.341728 1.579442 -0.001768 0.0
2.557757 0.547553 0.002295 0.0
2.718618 1.567321 -0.000955 0.0
1.683217 0.773148 -0.001974 0.0
0.055406 0.501372 -0.001843 0.0
4.394700 2.038666 0.000778 0.0
0.554006 1.896850 -0.002159 0.0
3.817218 0.051370 -0.001088 0.0
2.703165 1.146825 -0.000104 0.0
0.445869 1.106769 0.000345 0.0
1.604126 1.603385 0.001186 0.0
1.603140 0.712331 -0.001304 0.0
2.433090 0.848447 -0.000700 0.0
0.241803 0.705025 -0.002714 0.0
0.102631 0.390661 -0.000560 0.0
2.428660 1.077488 0.000060 0.0
2.113905 1.433879 0.000133 0.0
0.958162 2.031655 -0.004116 0.0
2.889599 0.999656 0.004326 0.0
3.766711 1.107896 0.003125 0.0
3.174520 1.304255 -0.000185 0.0
2.036563 0.663776 -0.000215 0.0
2.200254 2.018759 0.002258 0.0
1.017033 0.256430 0.000205 0.0
2.257152 0.413554 0.002312 0.0
0.516049 0.812658 -0.002657 0.0
1.035892 1.297568 0.003386 0.0
1.982610 0.463660 -0.002870 0.0
3.715627 1.334182 0.005318 0.0
0.007576 0.529736 -0.001560 0.0
2.928560 0.504616 0.000410 0.0
3.944383 0.470893 0.001725 0.0
1.399872 1.219844 0.005477 0.0
3.674155 1.010417 0.002592 0.0
4.363007 1.381974 -0.001274 0.0
1.430988 1.230668 -0.000311 0.0
1.395476 1.250209 -0.000851 0.0
0.309379 1.701743 0.000445 0.0
0.311546 1.787572 0.004854 0.0
1.315827 0.290998 -0.000669 0.0
0.755265 1.112403 -0.002550 0.0
0.004467 0.005536 -0.002069 0.0
0.744590 1.974041 -0.005825 0.0
0.779361 0.470968 0.001842 0.0
2.790137 1.632551 -0.002474 0.0
1.656730 0.606063 0.004174 0.0
3.723800 0.010862 0.000947 0.0
1.706339 0.968300 -0.002655 0.0
0.944241 1.499856 -0.000483 0.0
0.771617 0.152508 0.001496 0.0
1.100025 1.773540 -0.000091 0.0
1.295037 1.146308 -0.002486 0.0
1.809812 1.672045 -0.002197 0.0
0.242696 1.429384 0.003367 0.0
2.158649 1.854036 -0.000691 0.0
1.035958 0.952941 -0.002336 0.0
2.573149 0.379825 0.001487 0.0
1.116751 0.048621 0.002250 0.0
2.415388 2.053097 0.001598 0.0
2.100889 0.613077 0.002571 0.0
2.162064 0.130993 0.000690 0.0
3.808896 0.016220 -0.002372 0.0
1.226820 0.853699 0.000452 0.0
2.081406 0.222977 0.002836 0.0
3.752182 1.354759 0.001884 0.0
0.436224 0.756846 -0.001311 0.0
3.618324 1.605954 0.001648 0.0
2.449703 0.269960 0.002449 0.0
0.044366 1.755066 0.001480 0.0
4.010637 0.681776 0.000102 0.0
1.438385 1.213431 -0.001017 0.0
0.066270 0.548887 0.000610 0.0
2.404256 1.180305 0.005767 0.0
2.701412 1.562956 0.002448 0.0
0.687329 1.364715 -0.000223 0.0
3.379521 0.797478 -0.002267 0.0
1.025379 0.962800 0.003054 0.0
1.477978 0.943716 0.000996 0.0
0.007730 0.095970 0.000227 0.0
1.093737 0.738210 0.000709 0.0
3.643209 0.433060 -0.001805 0.0
0.527253 1.598622 -0.005538 0.0
0.528367 0.164658 0.000767 0.0
3.155606 0.062341 -0.002547 0.0
3.484123 1.346885 -0.000870 0.0
3.726714 1.868526 0.000290 0.0
1.478268 0.008755 -0.003505 0.0
3.940635 1.663186 0.000806 0.0
3.005714 0.081516 -0.004191 0.0
2.704729 1.613709 -0.000114 0.0
0.459486 0.843056 0.002549 0.0
3.309654 1.808849 0.000581 0.0
1.299231 1.803709 0.000224 0.0
3.194158 1.418296 0.000250 0.0
0.438305 1.226215 -0.000930 0.0
2.946505 0.737236 0.002958 0.0
3.756631 1.922303 0.004229 0.0
0.147706 0.594460 -0.000865 0.0
2.108463 1.412781 -0.002979 0.0
2.200151 0.873375 -0.003355 0.0
3.995379 0.913027 -0.003904 0.0
3.299947 0.676512 -0.002601 0.0
1.946203 1.692608 -0.003086 0.0
2.708599 0.031601 0.002465 0.0
0.585973 0.315828 0.005343 0.0
2.726801 1.107020 -0.000172 0.0
0.707445 0.251917 -0.003450 0.0
2.882182 1.690805 0.000202 0.0
3.583753 1.020718 -0.002517 0.0
2.419590 0.345978 -0.004685 0.0
3.040455 0.916468 -0.002295 0.0
1.425355 0.782139 0.000199 0.0
2.746669 0.825251 0.002553 0.0
1.268724 0.076113 -0.000091 0.0
1.685191 0.242257 0.000127 0.0
3.917096 0.576635 -0.002754 0.0
0.431320 1.232564 -0.003504 0.0
4.110918 1.584746 0.000263 0.0
0.702442 2.064263 -0.001858 0.0
1.321357 1.566618 0.004858 0.0
0.485750 1.028768 -0.002107 0.0
2.907444 1.218673 0.002259 0.0
1.952853 0.366682 -0.001750 0.0
2.206087 1.375093 0.005112 0.0
0.479909 0.652280 -0.003456 0.0
3.690380 1.937843 0.003005 0.0
4.305346 0.443230 0.001905 0.0
1.008694 0.842476 -0.001812 0.0
0.386727 0.721619 0.001472 0.0
2.549866 0.295226 0.000366 0.0
1.435911 0.704184 -0.000678 0.0
2.471756 0.673197 0.001500 0.0
4.070832 1.090446 -0.000069 0.0
2.273103 0.247523 -0.003902 0.0
2.918207 1.759026 0.001106 0.0
2.468936 1.562155 -0.002412 0.0
4.046745 0.807670 -0.001669 0.0
3.508671 0.717907 -0.003327 0.0
1.789198 0.099077 -0.000215 0.0
1.168541 0.318006 0.001483 0.0
2.731835 1.677518 -0.004858 0.0
1.681286 1.451904 -0.002977 0.0
1.431233 1.945810 0.000967 0.0
3.390106 1.957362 -0.000750 0.0
2.601724 1.918693 -0.001858 0.0
0.389665 0.214050 0.003476 0.0
0.207738 0.628512 -0.002431 0.0
1.529439 0.172166 -0.000084 0.0
0.807889 0.204906 0.003079 0.0
4.069236 1.807979 0.003893 0.0
3.087706 0.183579 -0.004849 0.0
2.978896 1.260097 0.000410 0.0
0.533204 1.804493 0.002625 0.0
1.569218 0.605056 -0.002829 0.0
2.368393 0.934209 -0.002169 0.0
2.003285 0.022645 0.000260 0.0
4.345620 1.097176 0.000646 0.0
0.038124 0.598813 0.003741 0.0
0.875473 1.972442 0.001189 0.0
3.533963 0.451329 -0.000131 0.0
1.260527 0.238390 0.001737 0.0
2.382563 0.348429 -0.001000 0.0
2.072652 0.244099 0.002833 0.0
0.483118 1.585900 -0.001767 0.0
1.304786 1.845784 -0.000994 0.0
1.904253 1.711175 -0.002140 0.0
2.226681 2.025639 0.002128 0.0
2.256471 1.875159 -0.002278 0.0
1.045156 0.397923 0.000163 0.0
1.257987 0.271754 -0.001811 0.0
0.789148 1.684154 -0.000023 0.0
2.013362 0.402558 -0.002335 0.0
3.522321 1.753859 0.000173 0.0
2.599566 1.952470 0.000579 0.0
1.791135 1.281704 -0.004701 0.0
1.965186 1.518817 -0.001494 0.0
1.971113 2.036356 -0.003745 0.0
3.966192 1.881486 0.003413 0.0
3.032244 1.620601 -0.003403 0.0
2.278458 0.887854 -0.000296 0.0
1.756382 1.488817 0.000094 0.0
2.352830 0.395411 0.001084 0.0
3.456184 1.797460 -0.001586 0.0
1.835070 1.564167 0.002002 0.0
2.212192 1.564909 0.004061 0.0
3.049975 1.443988 0.004856 0.0
3.491628 1.885666 -0.001000 0.0
0.003980 1.254608 -0.001317 0.0
3.214543 0.012346 0.001766 0.0
2.930215 1.475804 0.000936 0.0
2.260056 0.515280 -0.003547 0.0
1.366020 1.268368 -0.004205 0.0
3.787454 1.178607 0.000722 0.0
4.132276 0.112525 -0.000298 0.0
1.503215 1.897276 0.001976 0.0
3.762209 0.539198 -0.002707 0.0
4.059991 0.626680 0.003190 0.0
2.879810 0.198119 0.000116 0.0
0.352568 1.894844 0.001049 0.0
3.194439 0.839494 -0.001944 0.0
1.383193 0.767918 0.002792 0.0
1.704868 1.380764 -0.002503 0.0
0.656044 1.172924 -0.000590 0.0
2.675644 1.551658 0.000709 0.0
0.028705 0.623758 -0.000145 0.0
3.887420 0.048045 -0.001844 0.0
2.849808 1.826639 0.001574 0.0
2.322275 1.332269 0.003308 0.0
3.947227 1.541133 -0.001550 0.0
1.398809 1.369757 -0.002619 0.0
0.898479 0.835928 -0.004509 0.0
3.169194 0.828367 0.002680 0.0
2.793236 1.875703 0.001677 0.0
3.742174 1.334477 -0.000035 0.0
0.443672 0.815672 -0.002057 0.0
2.138962 1.962700 -0.001340 0.0
2.039980 0.580614 -0.001932 0.0
0.672252 0.243608 -0.004426 0.0
2.460842 0.637924 -0.002474 0.0
0.926865 0.236728 0.002444 0.0
2.386197 1.939020 -0.007269 0.0
1.430229 0.775890 -0.002962 0.0
1.507826 1.020828 -0.000419 0.0
2.206979 1.828526 0.000738 0.0
4.128213 0.583223 0.000082 0.0
0.899348 0.059556 -0.000162 0.0
2.735288 1.294441 -0.003565 0.0
4.096201 1.948979 0.001249 0.0
3.479744 1.182190 -0.001208 0.0
0.642450 1.100042 0.002295 0.0
1.087465 1.876307 0.000720 0.0
0.484117 0.379363 -0.004156 0.0
3.667238 0.900425 -0.000211 0.0
0.440799 0.144317 -0.001057 0.0
3.824274 0.022909 0.001495 0.0
3.481287 0.033613 0.002410 0.0
3.563680 1.798021 -0.003069 0.0
0.279733 2.018381 -0.001338 0.0
3.952143 1.005117 0.000430 0.0
1.313909 1.105930 0.002076 0.0
1.875738 1.705182 -0.000328 0.0
3.706112 0.898548 -0.001920 0.0
3.455995 1.612613 0.002264 0.0
0.583082 1.371086 0.001759 0.0
1.563518 0.757137 0.003145 0.0
4.241831 0.693846 -0.002526 0.0
0.366599 0.144678 -0.000097 0.0
0.332014 1.207194 0.001765 0.0
2.124467 1.941679 0.004003 0.0
0.035805 1.023917 -0.006388 0.0
1.014902 1.829697 0.001895 0.0
3.384744 0.862550 -0.002383 0.0
2.547119 1.329138 -0.000909 0.0
2.195001 2.006598 -0.000066 0.0
2.862122 0.357274 -0.003947 0.0
2.308444 1.466229 -0.001407 0.0
0.333130 0.179969 -0.003038 0.0
2.626324 0.244560 -0.004128 0.0
1.656482 1.136857 -0.002830 0.0
0.654405 0.669909 0.002190 0.0
2.118386 1.886885 0.002642 0.0
3.316768 0.059352 -0.008200 0.0
1.915910 0.934198 0.001259 0.0
2.276314 0.540959 0.003391 0.0
0.432315 1.986498 -0.000543 0.0
1.491086 1.355128 0.003122 0.0
4.090559 1.555957 0.003861 0.0
3.753963 1.467103 -0.003485 0.0
3.449539 1.573234 -0.003083 0.0
1.572302 1.374226 -0.005342 0.0
2.493146 0.937292 0.000351 0.0
3.030455 0.251718 -0.002717 0.0
3.230212 1.376905 0.003597 0.0
4.343925 1.533419 0.001732 0.0
1.028075 0.582840 0.003362 0.0
0.349489 0.437059 -0.002898 0.0
4.357655 1.168245 -0.000828 0.0
1.293049 1.666437 -0.002525 0.0
0.870182 1.957133 0.000046 0.0
3.445056 0.007892 0.000085 0.0
2.996770 0.093283 -0.000801 0.0
0.351533 0.774363 -0.001398 0.0
3.165783 0.744995 -0.001461 0.0
2.725934 1.238887 0.004379 0.0
1.797041 0.565763 -0.001435 0.0
2.931529 1.389193 0.001896 0.0
0.956398 1.791033 -0.002066 0.0
2.830677 1.885995 0.001389 0.0
1.370564 0.816278 -0.001818 0.0
3.046317 0.868820 0.000382 0.0
1.599860 0.334181 -0.001432 0.0
2.701281 0.255638 0.000761 0.0
3.820208 0.170108 0.002277 0.0
1.786211 0.391748 0.004266 0.0
2.796023 1.668407 -0.000392 0.0
1.901507 0.589923 0.000618 0.0
2.765841 1.541042 0.003015 0.0
1.052156 0.497320 0.000920 0.0
0.112544 1.316791 -0.000916 0.0
3.583625 1.090569 -0.000889 0.0
1.850115 1.420213 0.002987 0.0
4.259900 0.808592 -0.002404 0.0
0.818612 1.974348 -0.002613 0.0
0.433726 1.675910 -0.001011 0.0
2.543373 0.956041 -0.001273 0.0
1.024174 1.573347 -0.004253 0.0
3.874724 0.923203 -0.000772 0.0
0.238502 1.746395 -0.006085 0.0
2.012029 0.984504 -0.000398 0.0
3.622013 1.174091 0.001770 0.0
0.067452 1.194442 -0.000446 0.0
3.576288 0.241584 -0.004062 0.0
4.100987 0.895856 0.000557 0.0
1.205435 0.880385 0.006035 0.0
1.051129 0.555981 -0.000788 0.0
1.753438 0.188787 0.000060 0.0
2.270280 1.084483 -0.002726 0.0
0.962904 2.063430 0.001925 0.0
0.495366 0.339988 0.001490 0.0
3.459226 1.969607 -0.002761 0.0
1.158602 1.492527 0.001217 0.0
4.102959 1.559134 -0.003460 0.0
2.236263 1.660484 -0.001839 0.0
0.971792 1.291097 -0.002667 0.0
1.441830 0.179908 0.000499 0.0
2.302768 0.337716 0.001867 0.0
2.577287 1.455374 -0.000224 0.0
2.258015 1.803170 0.000063 0.0
1.487725 0.605422 0.002519 0.0
1.017281 0.946240 0.001504 0.0
1.193446 1.432169 0.003863 0.0
1.555340 1.279247 0.000771 0.0
2.053109 1.186853 0.000977 0.0
0.543341 1.726512 -0.003081 0.0
0.379174 0.476828 0.002090 0.0
1.675951 1.764562 0.003102 0.0
1.718676 1.781741 -0.001644 0.0
0.068553 2.028517 0.000920 0.0
0.781488 0.507168 -0.000944 0.0
1.358763 0.595211 0.003432 0.0
2.327609 0.027847 -0.001150 0.0
1.139229 0.842583 -0.003010 0.0
1.656121 0.491555 0.003306 0.0
1.279854 0.978822 -0.004457 0.0
1.872463 0.967905 0.001009 0.0
1.109340 1.814875 -0.001459 0.0
3.206592 1.452964 0.002462 0.0
2.467024 0.527128 -0.002011 0.0
0.113255 0.337297 0.000735 0.0
0.332008 0.381004 0.001339 0.0
2.546957 2.060100 0.000420 0.0
0.092967 1.420004 -0.000084 0.0
0.887399 1.510223 0.001931 0.0
0.798189 0.341351 -0.001052 0.0
2.177961 1.541913 -0.001628 0.0
3.132731 1.425131 0.001146 0.0
1.389075 1.281346 0.003670 0.0
1.903926 1.378764 -0.000332 0.0
3.009936 1.568883 0.003933 0.0
3.270041 0.546876 -0.004244 0.0
2.754143 1.987715 -0.003177 0.0
2.218712 1.922955 -0.001044 0.0
4.303052 1.960604 0.002173 0.0
0.668884 1.974181 0.001952 0.0
3.729211 1.129161 0.005224 0.0
0.476621 1.167988 0.000766 0.0
4.216058 1.588615 0.001382 0.0
2.587637 1.441378 0.002190 0.0
1.694892 0.677693 -0.002753 0.0
0.063953 0.640121 -0.003645 0.0
3.625908 0.811896 0.006548 0.0
2.270088 1.355071 0.001564 0.0
4.264235 1.896453 -0.003431 0.0
1.930694 1.103794 0.000062 0.0
2.135712 0.482454 -0.000539 0.0
1.799248 1.172125 0.000232 0.0
0.272005 0.441630 -0.000006 0.0
2.086821 1.903759 -0.001640 0.0
2.816350 0.959452 0.000055 0.0
1.966561 0.804517 -0.002363 0.0
1.932876 1.182479 -0.001231 0.0
1.067169 0.848974 0.002693 0.0
0.013918 1.237555 -0.001323 0.0
2.760257 1.532604 -0.002693 0.0
2.816593 1.449089 -0.000395 0.0
1.361252 1.303821 0.003740 0.0
3.005453 0.709757 0.003493 0.0
3.651103 1.563043 -0.000366 0.0
0.475954 1.711640 -0.000336 0.0
0.991081 0.633319 -0.001652 0.0
2.120446 0.384824 -0.000078 0.0
1.515233 1.769536 0.000545 0.0
1.580510 0.748635 -0.002313 0.0
0.706530 0.367510 -0.001656 0.0
0.558224 1.117198 0.002805 0.0
1.006492 0.386266 -0.001694 0.0
0.620253 0.180207 0.000392 0.0
1.242319 1.159992 -0.005180 0.0
1.450330 1.286985 0.000599 0.0
2.452663 2.004136 -0.000566 0.0
1.871216 1.776032 0.002040 0.0
3.962181 1.319488 -0.002617 0.0
3.883313 1.293846 -0.000445 0.0
1.089742 1.328827 -0.003092 0.0
0.507347 0.193260 -0.002657 0.0
0.568884 0.071762 0.000868 0.0
1.005919 0.456494 0.000105 0.0
0.185506 0.250718 -0.002335 0.0
3.655674 1.419622 -0.000495 0.0
2.099013 1.406405 0.002619 0.0
3.498420 0.040254 0.000720 0.0
4.017068 0.540737 0.001832 0.0
3.979058 1.085904 0.002641 0.0
1.494290 1.346794 -0.000790 0.0
3.018995 1.413498 0.000387 0.0
1.830245 1.206859 0.000354 0.0
1.848468 0.399946 -0.003009 0.0
4.133999 0.979243 -0.001318 0.0
1.566114 1.223985 -0.002530 0.0
2.459803 1.925711 -0.001217 0.0
0.271200 1.255041 0.002167 0.0
0.745655 0.103056 -0.001601 0.0
1.310687 1.894549 -0.000548 0.0
0.475716 0.187230 -0.003233 0.0
2.038868 1.475432 0.002613 0.0
1.230140 2.012011 -0.003986 0.0
2.783276 0.243820 0.004468 0.0
1.040467 0.972234 0.002020 0.0
2.643944 0.035230 0.004342 0.0
3.371852 1.352830 -0.002322 0.0
1.926093 0.089240 0.001095 0.0
0.882087 1.948802 -0.002347 0.0
1.081813 0.036194 -0.000925 0.0
1.291179 0.528071 0.000177 0.0
0.214223 1.363454 0.004986 0.0
2.901603 1.491820 -0.003730 0.0
1.425590 0.019134 0.001713 0.0
1.613592 0.054877 -0.002345 0.0
3.625434 1.172828 0.003547 0.0
0.217555 0.690996 0.002358 0.0
0.032133 1.482881 0.000250 0.0
3.367818 0.176246 0.000229 0.0
1.788892 1.092007 0.000045 0.0
1.710364 0.160928 -0.002580 0.0
0.572432 1.899823 -0.000419 0.0
2.717340 1.312102 0.000000 0.0
3.939452 1.061809 -0.002699 0.0
0.102679 1.462597 -0.001077 0.0
0.843197 0.010900 -0.000882 0.0
1.344200 1.065486 -0.001206 0.0
2.957838 0.744485 -0.000378 0.0
2.595024 1.390104 -0.002489 0.0
1.953220 0.943906 0.001509 0.0
2.120791 1.223748 -0.002079 0.0
2.414486 0.237088 0.002163 0.0
0.144803 1.761419 -0.000896 0.0
0.275941 0.689602 -0.002201 0.0
3.551633 0.680703 0.003571 0.0
2.070697 1.747230 0.000195 0.0
3.932481 1.382792 0.005510 0.0
0.758548 1.071783 0.001929 0.0
3.101822 0.876513 0.001813 0.0
3.333354 1.297158 0.000392 0.0
4.367026 0.838986 0.007126 0.0
1.456883 1.103311 0.000695 0.0
2.406671 1.938298 -0.002626 0.0
0.800030 0.067212 0.001830 0.0
4.100148 1.881415 -0.001906 0.0
3.154053 1.958796 0.001387 0.0
3.556205 0.542599 -0.003611 0.0
2.552316 1.365582 -0.002396 0.0
0.781599 1.315495 -0.000959 0.0
3.188832 0.768158 0.000227 0.0
3.894755 1.188215 0.000434 0.0
2.343936 0.730116 -0.002432 0.0
2.908751 0.320885 0.001529 0.0
2.324443 0.395142 0.001357 0.0
4.146286 1.517327 0.002202 0.0
0.641004 0.659594 0.000458 0.0
3.783830 1.564841 0.000893 0.0
3.371652 1.256008 -0.000225 0.0
3.847418 1.842732 0.003399 0.0
1.559804 1.671759 0.000624 0.0
3.473998 1.755228 -0.003377 0.0
0.614367 0.077757 0.003718 0.0
1.016066 0.416194 -0.000927 0.0
0.198986 0.683485 -0.002057 0.0
0.822644 0.660440 -0.000624 0.0
0.364478 0.967500 0.004368 0.0
3.281250 0.482595 0.000785 0.0
2.160925 0.458314 -0.000373 0.0
0.723438 0.253162 0.005699 0.0
0.325008 1.302333 -0.002350 0.0
1.086936 1.376728 0.000097 0.0
0.555346 1.859076 0.000594 0.0
2.216020 1.921572 -0.001364 0.0
4.315647 1.209308 0.000625 0.0
2.087608 1.342489 -0.002425 0.0
2.312055 1.879322 0.004241 0.0
1.849624 0.567217 -0.001457 0.0
2.973029 1.730424 -0.000977 0.0
1.211990 1.998871 -0.002856 0.0
2.693210 0.380734 -0.003905 0.0
4.083049 1.642116 0.002138 0.0
0.547847 1.750638 0.000822 0.0
2.481419 0.260275 -0.000785 0.0
4.276291 1.331355 -0.000805 0.0
3.032328 0.423999 0.000383 0.0
1.292865 0.377363 -0.000987 0.0
3.077725 0.535297 -0.000992 0.0
0.869384 1.672614 -0.001775 0.0
0.889485 1.427580 -0.003876 0.0
3.123726 1.431732 0.000864 0.0
0.386233 0.522888 0.002456 0.0
1.650880 0.965013 0.000757 0.0
3.186731 0.926647 0.001377 0.0
3.120495 0.263846 -0.000223 0.0
4.336547 1.459908 0.000922 0.0
1.170329 1.626156 -0.001075 0.0
3.981523 0.799064 -0.001381 0.0
3.067675 1.089318 0.000308 0.0
0.010602 0.133261 0.000794 0.0
2.905924 1.047234 0.004274 0.0
2.211843 2.020820 0.000689 0.0
2.575042 0.846921 -0.001482 0.0
4.202514 0.507702 0.003360 0.0
3.260966 0.336105 0.002584 0.0
0.455923 1.535331 -0.002446 0.0
4.024934 2.044413 -0.002442 0.0
2.612190 1.323842 -0.001822 0.0
2.812514 0.639259 -0.004349 0.0
2.650741 0.141448 0.002841 0.0
2.189192 0.502740 -0.000768 0.0
0.558880 0.075320 0.003768 0.0
2.670393 0.177224 -0.003056 0.0
2.821306 0.954260 0.002136 0.0
4.362660 1.139346 -0.001826 0.0
3.397454 0.290876 -0.001458 0.0
2.562257 1.520987 0.001377 0.0
3.093349 1.022760 0.000051 0.0
0.384553 0.781306 0.000851 0.0
2.613043 1.917963 0.000929 0.0
4.394260 1.761497 0.003440 0.0
3.862205 1.377936 0.002364 0.0
3.672916 1.315811 -0.000616 0.0
0.492498 0.961429 0.000178 0.0
0.383987 1.776455 -0.005575 0.0
1.189517 1.376399 0.001772 0.0
0.462515 0.259815 -0.001655 0.0
2.345746 0.845642 -0.000802 0.0
3.958125 1.029541 0.003114 0.0
3.888727 0.600305 0.002547 0.0
1.942281 1.235791 -0.002004 0.0
3.867903 1.550636 0.002934 0.0
4.188872 1.710211 -0.001292 0.0
1.205344 0.361968 0.004134 0.0
1.129233 0.461910 0.001581 0.0
0.654794 0.064736 0.001944 0.0
0.945472 1.627000 -0.001914 0.0
3.020382 1.833326 0.000779 0.0
0.237899 1.761243 -0.000997 0.0
3.602796 1.733185 0.000309 0.0
0.193924 0.439393 -0.002556 0.0
3.437407 0.189634 0.000368 0.0
4.025608 1.777779 -0.007684 0.0
0.214860 1.229353 0.003764 0.0
3.918882 1.509628 0.000788 0.0
4.360568 0.272579 0.000021 0.0
1.466586 0.713427 0.002477 0.0
2.112164 1.987740 0.001919 0.0
2.313287 0.391432 -0.000777 0.0
1.211704 0.313672 0.001468 0.0
4.005673 1.891372 -0.002133 0.0
3.040643 1.836131 0.001405 0.0
1.544465 0.038388 0.002642 0.0
1.670981 0.778606 0.000407 0.0
3.615880 0.882423 0.000193 0.0
1.184945 1.628819 -0.002084 0.0
2.679076 0.119897 -0.001770 0.0
3.510665 0.715455 0.001626 0.0
0.483807 1.935746 0.002538 0.0
0.456699 1.048627 -0.000163 0.0
1.077432 1.052382 0.001934 0.0
3.087655 0.857085 0.001047 0.0
0.493338 0.670662 0.000710 0.0
4.261514 1.650052 -0.006181 0.0
3.903858 1.821637 0.000158 0.0
3.077152 0.108158 0.000147 0.0
3.658256 0.121726 -0.002928 0.0
2.015327 1.377034 0.001336 0.0
0.697602 1.311342 0.002023 0.0
1.369942 0.208241 -0.003031 0.0
1.627289 0.176560 -0.001006 0.0
3.965637 1.602987 0.001086 0.0
0.987990 0.871172 0.002339 0.0
1.809561 1.093340 -0.002024 0.0
0.143545 1.588871 -0.001968 0.0
3.357336 0.655447 -0.002029 0.0
1.860630 0.666665 -0.000762 0.0
2.222583 1.848793 -0.003654 0.0
0.162242 1.872581 0.001400 0.0
0.389154 0.221239 0.002777 0.0
3.723768 0.108615 -0.001464 0.0
4.329255 0.144007 0.000681 0.0
1.566639 0.245542 -0.003927 0.0
0.432199 1.122670 -0.003193 0.0
3.012298 1.231331 0.001783 0.0
0.334916 1.479422 -0.001968 0.0
4.354657 1.606399 0.001075 0.0
3.831195 1.165564 0.000943 0.0
4.048821 1.415936 0.000708 0.0
2.620662 0.450552 0.000507 0.0
3.649326 0.676725 0.002349 0.0
2.399554 1.569248 -0.001018 0.0
3.627194 0.266172 -0.003516 0.0
2.010843 1.771668 -0.001115 0.0
1.891156 1.375254 -0.003954 0.0
0.484170 0.412737 0.002261 0.0
3.708550 1.385732 -0.000463 0.0
0.028227 0.128027 0.001268 0.0
3.888285 2.040159 -0.003841 0.0
1.056687 2.032709 -0.001424 0.0
0.233625 0.670970 -0.002455 0.0
3.488859 0.672295 0.001506 0.0
1.808759 0.715662 0.000087 0.0
2.081757 1.754489 -0.001507 0.0
0.519766 1.986515 -0.001868 0.0
2.807663 1.641975 -0.004265 0.0
1.247003 0.397345 0.001945 0.0
4.395001 1.821850 0.002369 0.0
4.236360 1.876735 0.000782 0.0
1.233735 0.865238 0.001345 0.0
4.201082 1.898497 -0.003717 0.0
2.090601 0.307018 0.002378 0.0
3.611327 0.217036 0.002669 0.0
2.813956 1.047136 -0.001490 0.0
0.486339 1.013625 -0.005924 0.0
0.470676 1.183129 -0.000427 0.0
3.083822 1.527983 0.000053 0.0
2.079939 1.130457 0.001795 0.0
3.004443 0.732904 -0.002069 0.0
1.176441 1.066728 -0.000811 0.0
1.498510 1.691695 0.001021 0.0
1.218779 2.057880 0.001219 0.0
3.871161 0.869972 0.002886 0.0
4.001625 0.091030 0.004066 0.0
3.021300 1.048816 0.000620 0.0
2.451942 0.929997 0.003895 0.0
4.171031 -0.001036 0.002131 0.0
3.665157 2.063034 -0.000595 0.0
3.127591 0.993755 0.002753 0.0
3.084666 0.829348 0.001091 0.0
0.766334 1.251827 -0.001333 0.0
1.062006 0.748220 0.001200 0.0
3.615059 0.163909 -0.002921 0.0
3.147810 1.230661 0.004074 0.0
1.481877 1.902047 0.000906 0.0
0.282198 1.889861 -0.002804 0.0
1.597486 0.523891 0.000558 0.0
1.710276 0.246942 0.001777 0.0
1.635197 0.413963 0.004284 0.0
0.523407 0.090244 0.001754 0.0
0.523072 2.033961 0.002578 0.0
1.145937 0.863632 0.000995 0.0
2.268011 0.444335 0.003645 0.0
3.654931 1.032826 0.001364 0.0
2.789877 1.079885 0.000696 0.0
3.087989 0.228879 -0.002120 0.0
1.112133 0.694518 0.005810 0.0
2.073931 1.116916 0.000953 0.0
2.994974 1.227612 0.002818 0.0
1.356365 0.621480 -0.002148 0.0
0.965507 0.310819 0.005220 0.0
1.087097 0.080409 0.001234 0.0
2.069545 0.552288 -0.005319 0.0
2.212470 0.685954 0.005128 0.0
0.124584 1.054365 0.006336 0.0
2.614607 0.168643 -0.003839 0.0
3.841497 0.944770 -0.000695 0.0
2.030238 0.938075 0.001057 0.0
4.149840 0.260780 -0.003800 0.0
2.478436 0.831710 -0.000306 0.0
0.633184 0.969141 0.002263 0.0
0.033710 1.258140 0.002812 0.0
1.285977 1.433600 0.000497 0.0
1.183652 2.016224 0.001351 0.0
2.393665 1.961938 0.004817 0.0
1.962110 1.507325 0.001439 0.0
0.423708 0.175971 0.000412 0.0
1.176139 0.455402 0.002979 0.0
3.821797 1.161935 -0.003993 0.0
4.213440 2.026435 -0.003326 0.0
4.318732 0.881137 0.001808 0.0
2.108864 0.646061 -0.005074 0.0
3.416100 0.359647 -0.001247 0.0
3.411447 0.365676 -0.000484 0.0
4.310045 1.975586 -0.003156 0.0
0.486187 0.420977 0.001013 0.0
2.485377 1.613303 -0.002227 0.0
1.054952 1.449308 0.002824 0.0
1.760888 0.353602 -0.000936 0.0
3.601794 1.539436 -0.001845 0.0
1.746935 0.736711 0.000796 0.0
4.158917 1.058776 -0.000918 0.0
3.335637 1.921528 -0.000576 0.0
3.400976 0.500221 0.000855 0.0
1.860908 1.052645 0.000256 0.0
3.727600 2.006421 -0.000985 0.0
3.466144 0.998616 -0.000962 0.0
0.932802 0.835166 0.001836 0.0
2.787292 1.669460 -0.000727 0.0
1.049066 1.858019 -0.000115 0.0
3.543600 0.745054 -0.004251 0.0
3.539648 0.910286 0.002357 0.0
3.148055 1.958339 0.005444 0.0
2.461666 1.693093 0.000848 0.0
0.684831 0.965772 0.000138 0.0
0.576331 0.559842 -0.000558 0.0
4.143652 1.282177 -0.000919 0.0
0.535946 1.278982 -0.001542 0.0
3.333706 0.299187 -0.001708 0.0
2.267314 1.390524 -0.004134 0.0
2.504638 1.675195 0.001956 0.0
2.247068 0.151803 -0.000479 0.0
0.699776 0.844648 -0.000571 0.0
1.735531 1.757100 -0.002285 0.0
0.064704 0.898761 0.002759 0.0
0.801052 0.423321 0.001471 0.0
3.998167 0.251900 0.001390 0.0
0.494500 1.413297 -0.002136 0.0
3.890349 0.669551 -0.002573 0.0
4.138678 0.650443 -0.004138 0.0
3.493038 1.304117 0.000986 0.0
3.523738 1.347957 -0.000214 0.0
3.093377 0.885306 -0.004635 0.0
4.386689 2.061989 -0.005541 0.0
0.812674 1.750158 -0.001730 0.0
2.127752 0.378182 0.000594 0.0
3.678837 0.243425 0.001623 0.0
1.407478 0.066754 0.000352 0.0
4.171475 1.958910 0.001835 0.0
2.945864 0.011279 -0.002170 0.0
3.464707 1.991259 -0.000891 0.0
4.241177 1.326860 -0.000259 0.0
0.473101 0.417074 0.004422 0.0
0.444284 1.269713 0.001540 0.0
4.214786 0.321117 0.000781 0.0
2.765403 0.860552 0.002760 0.0
3.309962 0.440751 -0.000987 0.0
1.785318 0.369332 -0.001528 0.0
0.442969 1.578166 -0.000943 0.0
1.964080 0.587339 -0.002136 0.0
2.411147 0.160739 0.001740 0.0
3.401672 0.669431 -0.002200 0.0
0.524529 1.778573 -0.000464 0.0
2.879132 1.336381 -0.000578 0.0
3.188303 1.599997 0.003174 0.0
3.735270 0.228107 -0.000784 0.0
3.837756 1.984772 -0.001152 0.0
3.313862 1.032562 -0.000189 0.0
2.727503 0.271261 -0.001820 0.0
3.161145 0.033540 -0.001265 0.0
3.509198 1.869089 0.000564 0.0
3.882888 1.343221 0.003475 0.0
2.042720 0.099050 0.002697 0.0
1.328023 1.879474 -0.000474 0.0
2.361904 0.416283 -0.001337 0.0
0.474018 0.759025 0.000346 0.0
0.364032 1.092568 0.002709 0.0
0.482804 0.872205 -0.000082 0.0
1.160726 1.509028 -0.006322 0.0
0.048702 1.264845 -0.002715 0.0
1.178663 1.663269 -0.000912 0.0
3.912909 1.446787 -0.001598 0.0
0.465976 0.480224 0.001029 0.0
3.343434 2.055302 -0.003578 0.0
1.836263 1.682045 0.003429 0.0
0.030634 0.024550 -0.001814 0.0
2.675667 1.594790 -0.000309 0.0
0.726818 1.399221 0.001911 0.0
4.035223 0.897877 0.000010 0.0
3.078792 0.137530 -0.001361 0.0
3.677791 0.172620 0.001902 0.0
3.397152 1.868605 -0.003710 0.0
3.968733 0.259125 0.000249 0.0
2.547686 1.309889 0.002584 0.0
3.694969 1.498442 0.004712 0.0
2.123463 1.062211 -0.005134 0.0
1.218252 0.668352 -0.005811 0.0
1.739822 2.037381 -0.001798 0.0
0.040268 1.582390 -0.003751 0.0
1.586955 0.667813 0.002852 0.0
3.080272 0.331328 -0.002313 0.0
3.734510 1.337561 -0.002384 0.0
1.560263 0.438636 -0.002723 0.0
0.567169 0.035356 0.001413 0.0
3.309826 0.489180 0.002475 0.0
0.712669 0.747268 0.004438 0.0
3.066014 0.185202 -0.003376 0.0
2.835390 1.757607 -0.001857 0.0
1.436587 0.092904 0.000088 0.0
1.575952 1.874309 0.000974 0.0
3.752542 1.099265 0.000489 0.0
2.402596 1.591936 0.002042 0.0
0.760995 0.580360 0.001085 0.0
4.333509 0.529644 0.001037 0.0
1.304912 1.610450 -0.001992 0.0
2.252776 1.196692 -0.001225 0.0
0.330821 2.033247 -0.001497 0.0
0.941514 0.828950 0.002203 0.0
1.985606 1.295577 0.000780 0.0
2.837123 0.651378 -0.004453 0.0
4.119765 1.649053 0.001328 0.0
0.417303 0.388748 0.003254 0.0
2.117394 0.861660 0.002953 0.0
0.141679 0.331717 -0.002818 0.0
0.434669 0.971567 -0.001861 0.0
4.074688 0.526012 0.001470 0.0
2.446260 1.092495 0.001504 0.0
4.255547 0.751535 -0.003914 0.0
4.207726 0.258456 0.001259 0.0
0.747745 1.530975 -0.002517 0.0
2.433912 0.051834 -0.001374 0.0
