1.48660590 0.87926439 0.00108641 0.00000000
1.52341788 0.40058130 0.00019238 0.00000000
1.30215016 0.78219583 -0.00075823 0.00000000
1.29501010 1.10837442 -0.00400440 0.00000000
2.89508058 0.57021593 -0.00106996 0.00000000
0.50811302 1.24775516 0.00146214 0.00000000
1.14204888 0.37872858 -0.00324423 0.00000000
3.63669412 0.93574898 -0.00057685 0.00000000
2.59709884 1.24386400 0.00001129 0.00000000
4.14526310 1.11552356 -0.00285745 0.00000000
0.22210088 0.36730242 0.00225794 0.00000000
2.54285501 0.94744089 -0.00087467 0.00000000
2.14517179 0.21391905 0.00125285 0.00000000
0.54621932 0.02899412 -0.00307921 0.00000000
2.21571976 0.11656709 0.00160557 0.00000000
0.49986328 1.03377153 -0.00024302 0.00000000
1.65115238 1.06856752 0.00094539 0.00000000
0.04824025 1.69091109 -0.00565681 0.00000000
1.25495021 1.59493632 -0.00277660 0.00000000
2.21544412 0.34852040 -0.00047482 0.00000000
1.04781953 0.43687399 -0.00071452 0.00000000
2.12742944 0.60662208 0.00010815 0.00000000
4.13060353 0.36767787 0.00100907 0.00000000
1.19876466 0.98356350 -0.00069976 0.00000000
0.28836835 1.61660256 -0.00212253 0.00000000
3.04119194 1.31448643 0.00097300 0.00000000
3.07888843 1.14086197 -0.00024679 0.00000000
3.91359440 0.70994385 -0.00223285 0.00000000
3.17099633 1.11492485 -0.00203495 0.00000000
2.73832004 0.92786114 -0.00394103 0.00000000
2.74275474 0.82797747 0.00196144 0.00000000
0.23187585 0.46805260 0.00314845 0.00000000
1.82917294 0.93692282 -0.00018319 0.00000000
0.95685042 0.37525987 0.00282459 0.00000000
1.25281031 1.58837600 -0.00043529 0.00000000
2.45818256 1.03011079 -0.00142100 0.00000000
3.28535718 1.10948769 -0.00414946 0.00000000
4.38210746 1.54557778 -0.00196980 0.00000000
3.90564945 0.80568903 0.00190146 0.00000000
3.79331173 0.29163198 0.00023333 0.00000000
0.77355710 0.95022447 -0.00430550 0.00000000
2.61052713 1.57794127 0.00012360 0.00000000
4.36578102 0.08655477 0.00282499 0.00000000
4.50333856 1.09268215 -0.00189725 0.00000000
3.17820744 1.09495101 -0.00326526 0.00000000
3.64183532 0.72986483 0.00107099 0.00000000
3.93409618 0.19005797 -0.00278613 0.00000000
4.19695167 0.48425267 -0.00034626 0.00000000
1.76656579 1.01242335 -0.00134125 0.00000000
2.69837485 1.44608688 -0.00203337 0.00000000
3.11418549 0.47057774 0.00033753 0.00000000
0.31431282 1.28745873 0.00054641 0.00000000
2.07935325 0.40980460 0.00232858 0.00000000
3.83808424 1.56856009 0.00077036 0.00000000
2.96343034 0.92687569 -0.00368358 0.00000000
4.50482924 0.30838312 0.00340085 0.00000000
0.44606683 0.02902800 -0.00178321 0.00000000
2.41291173 1.10438956 0.00079357 0.00000000
0.62062597 0.18215044 0.00020620 0.00000000
1.93185699 0.83165040 0.00172648 0.00000000
4.20304900 1.29506352 -0.00295972 0.00000000
3.58426466 1.05637538 0.00073702 0.00000000
1.21187381 0.62439667 -0.00020602 0.00000000
1.22035191 0.80226173 0.00115475 0.00000000
0.14211236 1.29637382 -0.00476912 0.00000000
0.13904077 0.25616331 -0.00259169 0.00000000
0.68043955 1.33977485 -0.00022983 0.00000000
2.80668405 1.50098462 0.00498357 0.00000000
1.89316256 0.19456144 0.00055096 0.00000000
3.89568713 1.64761269 -0.00224983 0.00000000
1.72106857 1.61412929 0.00019772 0.00000000
1.64834742 0.02207124 -0.00083600 0.00000000
0.96651979 0.62545252 0.00000231 0.00000000
4.48616951 0.28031998 0.00014681 0.00000000
3.55660717 1.43980009 -0.00014436 0.00000000
4.43077978 0.11242218 -0.00369990 0.00000000
1.82204006 0.96258688 -0.00269706 0.00000000
3.02748715 1.30865153 0.00136347 0.00000000
1.35324174 0.74891796 -0.00158067 0.00000000
4.02730496 0.72206957 -0.00327151 0.00000000
3.21827571 0.31340437 -0.00095542 0.00000000
2.55638726 0.97130236 -0.00088397 0.00000000
0.07569807 1.62148395 -0.00445722 0.00000000
2.06646190 0.98219530 0.00040761 0.00000000
4.42280330 0.92586615 -0.00241958 0.00000000
3.38487340 1.61879397 -0.00030853 0.00000000
3.26185389 1.51841030 0.00190474 0.00000000
2.75483229 0.46589626 0.00427668 0.00000000
2.14596667 0.29195848 0.00157512 0.00000000
0.54402499 0.46481518 -0.00568805 0.00000000
2.24067418 0.32416544 -0.00345944 0.00000000
1.53613602 1.08077670 0.00259292 0.00000000
1.40683681 0.14218366 0.00192325 0.00000000
4.42711209 0.83427819 0.00247031 0.00000000
3.46008586 0.71189555 -0.00001359 0.00000000
3.63509080 0.72678868 -0.00083832 0.00000000
1.03201265 0.18656474 -0.00316818 0.00000000
1.79240664 1.47132496 0.00555682 0.00000000
2.70821375 1.07058807 -0.00305160 0.00000000
2.60279727 1.17787540 0.00214891 0.00000000
3.82463802 0.18454278 -0.00211598 0.00000000
0.17206052 0.43703442 0.00278201 0.00000000
3.09217180 1.38733342 0.00291694 0.00000000
2.25917929 0.09090947 -0.00043252 0.00000000
0.96461117 0.77199194 -0.00212557 0.00000000
2.30759216 0.01006047 0.00555586 0.00000000
0.20588913 0.18729763 0.00002759 0.00000000
3.71630054 0.44921836 0.00032792 0.00000000
4.53827017 0.57334789 0.00429326 0.00000000
2.05907493 0.97200486 0.00001474 0.00000000
3.59995740 0.82959707 0.00144453 0.00000000
2.13235343 1.43896757 0.00021808 0.00000000
3.24390425 0.92405569 -0.00004442 0.00000000
1.76048834 0.18094267 -0.00302626 0.00000000
4.24290147 1.32424461 -0.00055907 0.00000000
4.63585907 0.04885587 0.00148341 0.00000000
1.89241512 0.71136100 -0.00053449 0.00000000
4.17614296 1.49938892 -0.00119480 0.00000000
4.41850838 1.11210524 0.00502544 0.00000000
1.67424215 0.28958010 0.00253901 0.00000000
0.09934292 0.78015852 -0.00071152 0.00000000
2.35473714 0.54089968 -0.00467885 0.00000000
2.81425538 0.94888459 -0.00277439 0.00000000
1.68311738 1.66530784 -0.00139079 0.00000000
3.36287700 0.31341089 -0.00018373 0.00000000
2.25954882 0.75890456 -0.00195518 0.00000000
2.30945092 1.26636024 0.00072504 0.00000000
2.73986871 0.28240644 0.00063498 0.00000000
1.45678538 1.09847535 0.00045194 0.00000000
1.06373144 0.50633540 -0.00163958 0.00000000
2.02610008 1.34976910 -0.00452265 0.00000000
1.53869097 0.79867083 -0.00121768 0.00000000
0.08598808 0.79893234 0.00016409 0.00000000
0.73511217 0.29135273 -0.00089738 0.00000000
0.62932783 0.37594269 -0.00053876 0.00000000
2.13402291 0.65242913 -0.00018539 0.00000000
1.47257935 0.93935147 -0.00341674 0.00000000
4.13794522 1.55784499 0.00163424 0.00000000
0.15595824 1.67575557 -0.00117457 0.00000000
1.40273152 0.48449306 0.00393873 0.00000000
4.06312493 0.63864831 0.00417297 0.00000000
2.83886492 1.68561326 0.00139728 0.00000000
2.71284966 1.10400368 -0.00068369 0.00000000
2.43403541 0.22620913 0.00307724 0.00000000
4.16162919 0.38361601 0.00085688 0.00000000
0.38750673 1.55654807 0.00107207 0.00000000
4.42846269 0.90585774 0.00518420 0.00000000
3.21480566 1.23379205 -0.00325173 0.00000000
2.73450763 0.82518566 -0.00131375 0.00000000
0.15954763 1.62828098 0.00344899 0.00000000
0.92486095 1.05706696 -0.00212021 0.00000000
4.21581867 0.26902679 0.00193192 0.00000000
0.61232635 0.82599059 0.00166254 0.00000000
1.76861533 1.05676645 -0.00026465 0.00000000
3.91999276 1.21476266 -0.00218585 0.00000000
2.95445559 0.59183482 -0.00022403 0.00000000
4.52070126 1.10992967 -0.00013106 0.00000000
0.46327500 1.62588447 0.00325418 0.00000000
2.25985421 0.18930968 -0.00235345 0.00000000
1.30013892 1.31591851 -0.00209473 0.00000000
0.85454698 0.96547766 -0.00250136 0.00000000
4.52866301 0.17434266 -0.00039863 0.00000000
3.90287419 1.16383412 0.00044135 0.00000000
1.51324045 1.35196683 -0.00313182 0.00000000
4.23637727 1.45809787 0.00244813 0.00000000
1.55171142 0.71526958 0.00253342 0.00000000
2.28039681 0.44618769 -0.00145595 0.00000000
2.28065857 1.19681684 -0.00018917 0.00000000
3.06502197 0.42067318 -0.00033537 0.00000000
3.35273029 0.19748416 0.00195774 0.00000000
4.37749972 0.07686184 -0.00111772 0.00000000
4.33849636 1.53139736 0.00518696 0.00000000
0.82782801 1.64000698 -0.00509544 0.00000000
2.20357474 0.72093436 0.00188114 0.00000000
1.10942000 0.93692662 -0.00560072 0.00000000
3.99716649 1.13530213 0.00178784 0.00000000
4.45116182 0.95162126 -0.00262923 0.00000000
2.32498783 0.18853676 -0.00145637 0.00000000
3.98248982 0.18157462 0.00509750 0.00000000
4.09139115 0.23177380 0.00136479 0.00000000
4.40737065 0.99379083 0.00051626 0.00000000
1.95398960 1.23017508 0.00383785 0.00000000
4.43029801 0.01047353 -0.00072109 0.00000000
1.15903408 0.29961872 -0.00036183 0.00000000
2.29523573 1.48083277 -0.00051720 0.00000000
1.60313897 0.81353700 0.00062401 0.00000000
4.63729868 1.57174808 -0.00247817 0.00000000
4.21253080 1.33700553 0.00027352 0.00000000
3.12203279 0.13976390 0.00845354 0.00000000
2.31228238 0.36905895 -0.00045040 0.00000000
0.21867310 1.20108302 -0.00359591 0.00000000
1.35606657 0.97340404 -0.00253815 0.00000000
2.09782410 0.70063598 -0.00092376 0.00000000
0.95039796 1.62684273 -0.00233476 0.00000000
3.25304059 0.78539336 -0.00208311 0.00000000
2.24883018 0.88275092 -0.00155482 0.00000000
0.08211924 1.26023869 0.00350811 0.00000000
1.64663311 1.23804606 0.00118444 0.00000000
2.37473522 0.63183075 -0.00396535 0.00000000
3.04310580 1.00674796 0.00152071 0.00000000
1.22257889 0.70181633 -0.00188344 0.00000000
2.54644196 1.18586332 0.00063090 0.00000000
3.04877974 1.67118979 -0.00181986 0.00000000
2.97593927 1.10641224 -0.00043659 0.00000000
0.25290198 0.06826583 -0.00510237 0.00000000
0.94937651 0.69001062 -0.00112644 0.00000000
3.56032113 0.26472304 0.00300143 0.00000000
2.92142677 0.71217860 -0.00118961 0.00000000
3.51653078 1.07657372 0.00252847 0.00000000
0.94408305 1.21403789 -0.00046080 0.00000000
1.97600968 0.14806339 0.00088786 0.00000000
4.08850549 1.48151576 -0.00069530 0.00000000
1.34721423 0.01435420 0.00505231 0.00000000
2.47475693 1.42003800 -0.00308143 0.00000000
3.67471313 1.67226044 0.00188604 0.00000000
0.12655871 0.75728485 0.00227728 0.00000000
0.87980443 0.12461204 -0.00011607 0.00000000
2.69950488 0.49059631 -0.00135120 0.00000000
1.78830011 0.78977235 -0.00373469 0.00000000
1.72642653 1.21363272 0.00242289 0.00000000
1.48576572 1.25737302 0.00056657 0.00000000
1.79232910 0.86971225 0.00537023 0.00000000
1.80236521 0.08790881 0.00496518 0.00000000
4.33424847 1.61109772 0.00258986 0.00000000
3.40937021 1.21826847 -0.00204988 0.00000000
1.39672818 0.00683662 0.00326978 0.00000000
2.06629590 0.24696816 0.00210195 0.00000000
1.64396199 1.26482005 -0.00198211 0.00000000
4.40232064 0.05675166 -0.00381722 0.00000000
3.72287494 1.08060284 0.00101006 0.00000000
4.18476954 0.09187893 0.00126852 0.00000000
1.05619324 1.43718960 0.00040795 0.00000000
2.64198006 1.55506990 -0.00305795 0.00000000
1.87678135 1.16492142 0.00006438 0.00000000
4.20260781 0.65319010 -0.00263660 0.00000000
1.58072695 1.07734493 0.00131115 0.00000000
4.57018903 1.52893438 -0.00032225 0.00000000
1.20192794 1.37312765 -0.00159288 0.00000000
2.75968816 0.96707784 0.00427866 0.00000000
4.56416774 1.34225060 0.00221615 0.00000000
2.79728314 1.53960195 -0.00211530 0.00000000
3.72957533 1.44353039 0.00189248 0.00000000
4.54471943 0.20433643 -0.00063982 0.00000000
3.20345405 1.18861901 0.00034586 0.00000000
3.13897668 0.26562189 0.00243582 0.00000000
1.00426392 1.23354829 -0.00028959 0.00000000
4.19678337 0.08386241 0.00504972 0.00000000
1.87134024 0.12893504 -0.00218400 0.00000000
0.18054834 0.97359063 -0.00103932 0.00000000
4.12486708 0.46394750 0.00154400 0.00000000
0.08418814 0.26539712 -0.00203848 0.00000000
1.92110589 0.90409542 0.00340005 0.00000000
1.65312406 0.96752902 -0.00140770 0.00000000
3.18481249 0.99476919 -0.00015743 0.00000000
0.73347882 1.51228067 -0.00283810 0.00000000
0.33192027 1.56098448 0.00139425 0.00000000
2.63937837 0.24951400 -0.00103397 0.00000000
1.84848361 1.09415840 -0.00321331 0.00000000
1.61618123 0.04627976 0.00184959 0.00000000
2.52853829 0.18575640 0.00220320 0.00000000
3.74785740 0.51373932 0.00452383 0.00000000
0.29214373 1.47498226 -0.00256182 0.00000000
2.30815674 1.57804766 0.00180025 0.00000000
1.60500754 1.12541940 0.00049100 0.00000000
3.27525924 1.30290235 0.00014648 0.00000000
0.47338099 1.65246677 -0.00083557 0.00000000
3.23092403 0.56208610 -0.00135910 0.00000000
4.25368578 1.35188765 0.00360831 0.00000000
2.46643242 0.96408032 0.00298641 0.00000000
2.01116552 1.28854625 -0.00213749 0.00000000
4.35613223 1.18633195 0.00228075 0.00000000
3.04022213 1.39684111 0.00239752 0.00000000
1.60406032 1.29402627 0.00106562 0.00000000
0.20040004 0.18764406 -0.00104610 0.00000000
4.31806412 1.09601423 -0.00118387 0.00000000
1.25825652 0.43041144 0.00018684 0.00000000
1.01652324 0.23264911 -0.00043436 0.00000000
4.40709059 0.39777844 0.00203626 0.00000000
0.37339897 0.61923882 0.00207561 0.00000000
3.67674393 1.10843135 0.00131613 0.00000000
2.43442067 1.54247103 -0.00064740 0.00000000
0.87987347 1.41458125 -0.00227488 0.00000000
1.87428772 1.12290113 -0.00011205 0.00000000
1.05675157 1.60919374 -0.00129280 0.00000000
1.98184534 1.13218188 -0.00204389 0.00000000
1.27437984 0.06774881 0.00081149 0.00000000
3.14033807 1.58045908 0.00248108 0.00000000
4.26484910 1.34029300 -0.00070169 0.00000000
2.64720133 0.48584075 0.00035546 0.00000000
3.17626810 0.14810607 0.00041327 0.00000000
2.95706294 0.09774607 -0.00171289 0.00000000
2.42184947 1.10767333 0.00152319 0.00000000
2.92429118 1.24867631 0.00254417 0.00000000
0.47670598 1.44863472 -0.00268150 0.00000000
0.79553375 1.02297312 -0.00175973 0.00000000
1.01244330 0.73611029 0.00068465 0.00000000
4.37139855 0.28790058 -0.00063750 0.00000000
3.60799450 0.83388431 0.00186422 0.00000000
1.14120647 1.26175036 -0.00011156 0.00000000
4.55106281 0.87710429 -0.00278444 0.00000000
0.96763615 1.63499049 -0.00178528 0.00000000
0.64863863 1.15425048 0.00160553 0.00000000
1.91426904 0.74513985 0.00179742 0.00000000
1.43405001 0.35101481 -0.00113571 0.00000000
0.05840001 0.90533677 0.00155982 0.00000000
2.13896654 0.05743002 0.00303199 0.00000000
2.84528153 1.49778296 0.00664716 0.00000000
0.57523118 0.07616796 0.00203549 0.00000000
1.81176072 1.00934421 -0.00321120 0.00000000
1.57201276 1.42478480 0.00085215 0.00000000
2.30391580 0.52238226 -0.00161162 0.00000000
0.44360333 1.11247559 -0.00265506 0.00000000
3.33722880 1.42761339 0.00141179 0.00000000
1.94793865 0.23724173 0.00333052 0.00000000
4.56299944 0.15451641 0.00040928 0.00000000
3.13399927 1.54204407 -0.00582205 0.00000000
1.78352462 0.07690281 -0.00014345 0.00000000
2.90572725 1.45383693 -0.00253510 0.00000000
3.25987945 0.36583033 -0.00101734 0.00000000
1.96807522 1.08700134 -0.00247433 0.00000000
0.20885004 0.43694139 0.00486834 0.00000000
4.49531424 1.12221611 -0.00149092 0.00000000
4.63603303 0.04515792 0.00478290 0.00000000
0.64173616 0.17237723 -0.00050312 0.00000000
4.46564787 1.30250007 0.00207574 0.00000000
2.12259939 0.70143811 -0.00052590 0.00000000
4.06746873 1.44585367 -0.00069485 0.00000000
1.95560034 1.04102446 -0.00016491 0.00000000
1.46506609 0.07906003 -0.00368353 0.00000000
1.23111634 0.31008708 -0.00211022 0.00000000
0.46590764 0.18884649 -0.00245751 0.00000000
2.69443897 0.67089466 -0.00134298 0.00000000
1.36795284 1.65150416 -0.00450882 0.00000000
3.69280894 0.30952261 0.00388855 0.00000000
0.20695560 0.36909990 0.00030192 0.00000000
2.06108566 1.49315738 0.00776093 0.00000000
4.24410961 1.34316316 -0.00020204 0.00000000
1.98610285 0.34095492 0.00315254 0.00000000
1.58349614 0.86045516 -0.00498641 0.00000000
1.59406498 0.12880755 0.00332915 0.00000000
0.66609441 1.42684980 -0.00047036 0.00000000
2.64029466 1.18663716 -0.00082751 0.00000000
1.72156896 0.72094753 0.00156458 0.00000000
1.14323350 1.12787649 0.00088821 0.00000000
4.28706784 0.02283433 -0.00282403 0.00000000
2.10604235 0.71907779 -0.00002348 0.00000000
1.66087650 1.53989298 0.00324111 0.00000000
0.10093158 1.10510911 -0.00265941 0.00000000
3.00058705 1.62307747 -0.00061676 0.00000000
1.01626056 1.09300931 -0.00308235 0.00000000
2.37895812 1.42687663 0.00021698 0.00000000
2.90584710 0.83259701 -0.00044683 0.00000000
4.33561300 1.65550175 0.00290794 0.00000000
1.62508748 1.09489476 -0.00451475 0.00000000
0.09780761 0.99927158 0.00098585 0.00000000
0.92324788 0.16375325 0.00333235 0.00000000
3.81930902 0.87182378 -0.00007524 0.00000000
4.60599070 0.04231976 0.00195053 0.00000000
3.93277330 1.63238439 -0.00179674 0.00000000
1.28427876 0.65398394 0.00023759 0.00000000
0.67257382 0.85659200 -0.00013808 0.00000000
4.45962203 1.51668204 -0.00275573 0.00000000
1.02324862 0.16398599 -0.00311301 0.00000000
0.08728459 1.58073701 -0.00090076 0.00000000
2.94756566 0.89947716 0.00150406 0.00000000
0.98791110 0.09786215 0.00195332 0.00000000
1.32768016 0.01659392 -0.00242764 0.00000000
1.94844828 1.22722861 -0.00150538 0.00000000
0.74832086 1.34233441 -0.00125254 0.00000000
3.30829416 0.29653936 -0.00254737 0.00000000
3.58581028 1.52630186 0.00256119 0.00000000
1.52033869 0.06295668 0.00024460 0.00000000
1.21094230 0.61677949 0.00078053 0.00000000
1.72144771 0.99746953 -0.00294751 0.00000000
1.71435062 1.50330515 0.00103601 0.00000000
0.62164803 1.06203631 -0.00110167 0.00000000
2.52027740 0.00625664 -0.00028518 0.00000000
3.13758967 0.65022417 0.00395378 0.00000000
1.72614809 0.84100077 -0.00031472 0.00000000
0.36487601 1.02585903 -0.00394560 0.00000000
3.62163812 1.68388465 0.00262776 0.00000000
0.42842052 0.46991845 -0.00118003 0.00000000
2.69671638 0.10268207 -0.00383211 0.00000000
1.31463504 1.63364113 0.00551390 0.00000000
2.55531998 1.41374719 0.00104220 0.00000000
3.07392610 0.55839179 0.00258355 0.00000000
3.38504691 1.63593137 0.00110631 0.00000000
2.65897780 1.53774374 -0.00178116 0.00000000
3.61200941 1.17113998 0.00196770 0.00000000
4.27007341 0.09789458 -0.00245724 0.00000000
2.68311220 0.66086477 -0.00297182 0.00000000
1.99556326 1.31239926 -0.00389941 0.00000000
2.96183974 0.77148773 0.00336699 0.00000000
1.04090328 0.48466946 0.00336204 0.00000000
0.74390682 1.29299313 -0.00002883 0.00000000
3.16831772 0.73028874 0.00421068 0.00000000
1.79195317 0.97101296 -0.00335031 0.00000000
1.70510577 0.83321037 0.00184233 0.00000000
4.14221670 0.55208648 0.00489422 0.00000000
2.36584422 1.46756629 0.00116070 0.00000000
4.62545264 1.39674697 -0.00387237 0.00000000
4.16953470 0.44447382 -0.00092620 0.00000000
2.71188474 0.83211379 -0.00155007 0.00000000
3.33710275 0.64248966 -0.00006925 0.00000000
1.31218152 0.62386679 -0.00208180 0.00000000
2.40289945 1.28348088 -0.00176046 0.00000000
0.97114188 1.07152300 0.00281190 0.00000000
2.49327854 1.64223352 0.00489329 0.00000000
4.44844870 1.33513821 0.00411505 0.00000000
0.61526139 1.25637750 0.00302553 0.00000000
1.88545759 1.50223291 -0.00114809 0.00000000
3.84780867 0.37634459 -0.00005869 0.00000000
1.52231827 0.51413990 0.00089558 0.00000000
3.85772677 1.30463289 0.00214937 0.00000000
3.83128409 1.08840419 -0.00047873 0.00000000
1.74341186 0.80267967 0.00064361 0.00000000
2.51974197 0.01241137 -0.00035547 0.00000000
1.64341134 1.43939805 0.00081854 0.00000000
3.71171062 0.84708400 -0.00028253 0.00000000
1.54433616 1.08822067 0.00334131 0.00000000
0.11873959 1.65157548 0.00264170 0.00000000
0.18958936 0.78737946 -0.00189080 0.00000000
4.09803594 0.07998108 -0.00543742 0.00000000
2.88095593 0.48344270 0.00278711 0.00000000
0.68729000 0.92823657 0.00212336 0.00000000
4.17842250 1.10744738 -0.00439023 0.00000000
4.26310317 1.36556993 -0.00024409 0.00000000
1.29291512 1.00980648 -0.00453969 0.00000000
1.85441569 1.33681599 0.00245349 0.00000000
1.39082986 0.44007206 0.00057926 0.00000000
2.08712560 1.21308668 0.00206182 0.00000000
2.51597291 1.48808040 0.00084117 0.00000000
0.30599142 0.17037383 0.00130943 0.00000000
4.36117346 0.04033266 0.00359984 0.00000000
0.09001353 0.93811097 -0.00064783 0.00000000
4.34122834 0.49524347 0.00061374 0.00000000
2.61749936 0.05123417 0.00186126 0.00000000
3.56869654 0.55262091 0.00391883 0.00000000
1.71503045 0.22653737 0.00188944 0.00000000
4.00375216 0.10178450 0.00247499 0.00000000
1.35225719 0.47031288 0.00086362 0.00000000
1.08695247 1.17385515 -0.00643338 0.00000000
4.63429688 1.36739375 -0.00114880 0.00000000
3.13083898 0.22399265 0.00298726 0.00000000
3.93994431 0.14150083 -0.00066454 0.00000000
2.05843637 0.63088239 0.00201526 0.00000000
2.22436133 0.33230813 0.00333995 0.00000000
4.00933269 0.78416129 0.00533831 0.00000000
4.53176262 0.11666404 -0.00118204 0.00000000
4.05643713 0.96140797 -0.00019454 0.00000000
4.32430054 1.55882225 0.00037432 0.00000000
1.91720345 1.24978995 -0.00309578 0.00000000
1.65178340 0.34195226 0.00250150 0.00000000
2.02601238 1.43785422 -0.00076634 0.00000000
4.47908310 0.94145835 -0.00306576 0.00000000
0.16482398 0.88507692 0.00217444 0.00000000
4.61803010 1.57757808 -0.00051259 0.00000000
2.98188268 0.16218824 -0.00101132 0.00000000
1.31900885 1.32541928 0.00054151 0.00000000
1.20249117 0.32081483 -0.00059800 0.00000000
0.59185827 0.03522913 -0.00643706 0.00000000
4.58764429 1.35349516 -0.00035729 0.00000000
2.18322708 1.02304391 0.00125841 0.00000000
4.00965716 1.08203675 -0.00609474 0.00000000
3.39845136 1.33036695 0.00050945 0.00000000
4.23815052 1.06761614 -0.00111761 0.00000000
3.44232411 0.94925296 0.00191190 0.00000000
2.34651080 1.10955209 -0.00225991 0.00000000
0.03017446 0.04766124 0.00168284 0.00000000
1.66312618 1.40930959 0.00013610 0.00000000
2.96456643 1.45636119 -0.00095250 0.00000000
1.86512664 1.15270768 -0.00165863 0.00000000
1.56114747 1.36051001 0.00181361 0.00000000
2.15522850 1.50924038 0.00428328 0.00000000
4.22119319 1.36300149 -0.00185074 0.00000000
3.32960745 0.20342325 0.00209518 0.00000000
0.19676446 1.38014605 -0.00317168 0.00000000
0.56779785 0.73497516 0.00480337 0.00000000
4.45008365 1.00313397 -0.00094279 0.00000000
3.78705029 0.46784084 0.00255305 0.00000000
3.54240906 0.66318169 -0.00176410 0.00000000
4.54106532 0.32716775 -0.00484191 0.00000000
0.27124206 0.82527037 -0.00123250 0.00000000
0.87385167 0.78962983 0.00126852 0.00000000
2.71476159 0.65476782 0.00050375 0.00000000
4.58177646 0.94698900 -0.00244610 0.00000000
3.04550935 1.08678911 0.00050349 0.00000000
3.75579359 1.13933093 0.00167736 0.00000000
2.56987772 1.65110825 -0.00123095 0.00000000
0.28230486 1.22296449 -0.00095190 0.00000000
1.19681081 0.92295267 0.00087593 0.00000000
3.58689290 1.54961158 -0.00276078 0.00000000
2.29153036 1.62707112 0.00037380 0.00000000
0.85977916 0.01445273 -0.00038121 0.00000000
0.43187973 1.58605228 -0.00172201 0.00000000
1.40042638 1.02239387 -0.00274962 0.00000000
2.19833099 1.35050970 0.00016520 0.00000000
4.18018562 0.18535243 -0.00152526 0.00000000
3.28158339 0.99405662 0.00132158 0.00000000
2.55916040 1.66638841 -0.00268765 0.00000000
4.30728722 0.62241715 0.00560630 0.00000000
2.03731122 1.39182984 0.00071916 0.00000000
3.10411578 0.72338171 -0.00195251 0.00000000
3.00146414 1.08630982 0.00402215 0.00000000
1.37803360 0.65992270 0.00196220 0.00000000
3.73580147 1.48924008 -0.00077722 0.00000000
0.09796727 1.08011037 -0.00156659 0.00000000
3.70804916 1.58225785 0.00591807 0.00000000
4.13314698 0.68686492 0.00104244 0.00000000
0.86869229 0.11932706 -0.00015462 0.00000000
0.56890500 0.77288062 -0.00167840 0.00000000
0.24678654 0.29403681 0.00044230 0.00000000
1.14574688 0.67154959 0.00321928 0.00000000
0.96879964 1.15782157 0.00153641 0.00000000
2.07451870 0.39940178 0.00455001 0.00000000
0.12604869 1.18494661 -0.00020621 0.00000000
3.60714087 1.28859452 0.00032421 0.00000000
4.51341298 0.54217125 0.00082756 0.00000000
3.10514250 0.66911035 -0.00032023 0.00000000
1.94218432 1.60023725 -0.00051634 0.00000000
1.42288020 0.36812565 0.00464441 0.00000000
1.57560841 0.75581608 -0.00539738 0.00000000
3.43546804 0.19091235 0.00130671 0.00000000
4.52084382 1.42271206 0.00189153 0.00000000
0.01570687 1.52813145 0.00522199 0.00000000
2.25320904 1.11181720 0.00097465 0.00000000
2.17569629 0.82257747 -0.00389662 0.00000000
0.89127621 0.67646360 0.00086019 0.00000000
0.45237997 0.72012726 -0.00071688 0.00000000
0.12734569 0.01611077 0.00068124 0.00000000
2.90345624 0.71016765 0.00034294 0.00000000
3.30141111 0.65844746 -0.00017567 0.00000000
4.03068791 1.21954688 0.00128363 0.00000000
4.37913552 0.47205415 -0.00185135 0.00000000
4.07027478 1.41941072 0.00225459 0.00000000
0.35428687 0.92750076 -0.00095449 0.00000000
3.47801860 0.31378610 -0.00207259 0.00000000
3.36160629 1.20822563 0.00014559 0.00000000
0.59342611 1.17362173 0.00166998 0.00000000
2.28642389 0.98931455 0.00134142 0.00000000
3.27778614 0.00667564 0.00073854 0.00000000
2.52992311 0.28906922 -0.00380178 0.00000000
0.35874968 0.67364573 -0.00081566 0.00000000
0.88600288 1.45703532 -0.00440211 0.00000000
3.00385358 0.90527783 -0.00147737 0.00000000
0.02729060 0.87746581 -0.00106979 0.00000000
1.08083594 0.54161430 -0.00337203 0.00000000
3.21838182 1.30678806 -0.00023946 0.00000000
0.49158807 0.86395918 -0.00261917 0.00000000
0.93523190 1.51500434 -0.00436397 0.00000000
1.59656642 0.28803711 0.00091371 0.00000000
0.38361671 1.40712517 -0.00061916 0.00000000
4.57841911 1.09610410 0.00146538 0.00000000
4.01275247 0.72094593 -0.00273792 0.00000000
1.84662573 0.08310027 0.00254954 0.00000000
1.43935099 0.38775460 0.00216832 0.00000000
2.24660804 0.82349194 -0.00260024 0.00000000
3.81194236 1.41468646 -0.00432546 0.00000000
2.63770294 1.18354365 -0.00291458 0.00000000
0.73294733 0.48085368 -0.00515699 0.00000000
1.85211687 0.40517763 0.00465144 0.00000000
0.64442304 1.04160992 0.00568476 0.00000000
2.76334321 0.22979401 -0.00499110 0.00000000
2.89889703 1.37020599 0.00132099 0.00000000
1.25717517 1.19669427 -0.00271108 0.00000000
0.36372417 1.24721531 0.00043619 0.00000000
4.42552468 0.47581779 0.00648635 0.00000000
2.94819933 0.90260451 0.00499351 0.00000000
1.57245218 0.43263057 -0.00093282 0.00000000
4.44732578 0.09052674 -0.00113244 0.00000000
0.48405604 1.25638674 0.00230292 0.00000000
3.38249301 1.25135612 -0.00327068 0.00000000
2.66868690 0.13205637 -0.00162597 0.00000000
0.81620812 1.65545896 -0.00067862 0.00000000
0.80643571 1.00004765 -0.00265388 0.00000000
3.49056910 0.73767143 0.00030254 0.00000000
4.23887148 0.83047349 0.00503848 0.00000000
1.41073677 0.59559642 -0.00000399 0.00000000
3.70011732 0.86503056 -0.00332045 0.00000000
2.41534040 1.25908714 0.00032002 0.00000000
1.91369810 0.80850911 0.00101931 0.00000000
0.08866344 1.21168889 -0.00030622 0.00000000
4.42315471 1.47440663 -0.00046551 0.00000000
4.20821102 0.55710444 -0.00080558 0.00000000
0.53585850 1.22292073 -0.00169723 0.00000000
3.68721790 0.93799522 0.00184085 0.00000000
1.63433466 0.59715891 -0.00588937 0.00000000
4.64943618 0.99454853 0.00317378 0.00000000
3.78051539 1.21390466 -0.00092945 0.00000000
3.09800600 0.92450388 0.00508984 0.00000000
3.84558164 1.57529256 -0.00296341 0.00000000
4.61110287 1.21419732 0.00339557 0.00000000
1.71204398 1.39463201 0.00058713 0.00000000
3.10392121 0.45377615 0.00385561 0.00000000
1.38051782 0.54418504 0.00251087 0.00000000
3.87209701 0.70792853 -0.00478178 0.00000000
4.44996043 0.30354782 -0.00262040 0.00000000
3.34028632 0.76991072 0.00356976 0.00000000
3.25647010 0.22706258 -0.00237774 0.00000000
4.59478617 0.36316281 0.00466694 0.00000000
1.46169048 1.69103248 0.00189381 0.00000000
2.74634046 0.54760367 0.00073979 0.00000000
4.23240880 0.58281194 -0.00075073 0.00000000
0.86880691 1.00991850 -0.00228415 0.00000000
0.42202126 0.18388153 -0.00033389 0.00000000
1.56702641 1.39201351 -0.00130471 0.00000000
1.72894910 1.51171859 0.00015441 0.00000000
3.17672303 1.61671788 -0.00125670 0.00000000
0.71537590 0.32966713 0.00321887 0.00000000
1.44231776 1.39460290 0.00469840 0.00000000
3.26044911 0.51855597 0.00132261 0.00000000
2.92647871 1.07109304 0.00422293 0.00000000
4.59221079 1.64148789 -0.00119952 0.00000000
4.05052111 1.31031436 -0.00156541 0.00000000
0.51470928 1.07102071 -0.00361654 0.00000000
2.93890578 0.85201527 -0.00485520 0.00000000
3.53581287 1.22715050 -0.00067506 0.00000000
2.92259928 1.37806268 -0.00097738 0.00000000
3.01855291 1.42521769 0.00147999 0.00000000
1.66691285 1.15883060 0.00262181 0.00000000
4.53860227 0.46833847 0.00112463 0.00000000
2.09230287 1.01898118 0.00205600 0.00000000
4.31410844 0.39946221 -0.00222950 0.00000000
2.40317988 0.02402635 0.00116445 0.00000000
2.66667132 1.30020317 -0.00031569 0.00000000
3.88196807 1.28505267 -0.00077866 0.00000000
3.80272493 0.03247041 -0.00064290 0.00000000
2.05389852 1.60061187 0.00068622 0.00000000
2.83920438 0.74621011 0.00487665 0.00000000
0.03629018 0.42017575 0.00245203 0.00000000
2.51984294 0.85916737 -0.00206712 0.00000000
3.33462026 1.05534768 0.00323936 0.00000000
1.41372514 0.26952917 0.00221167 0.00000000
1.05017395 0.20751060 -0.00441700 0.00000000
2.09725647 0.56014139 -0.00022519 0.00000000
3.96412106 0.97610491 0.00173231 0.00000000
1.99395252 0.22914861 -0.00359966 0.00000000
1.17460786 0.81189295 0.00207460 0.00000000
4.47357447 0.81187312 0.00004537 0.00000000
4.61391214 0.14663612 0.00412097 0.00000000
2.82048875 1.22517699 -0.00207676 0.00000000
0.93728769 1.20080181 -0.00105542 0.00000000
0.23461140 1.43951061 -0.00013726 0.00000000
0.86272188 0.73016713 -0.00400453 0.00000000
1.99418774 0.74723959 -0.00054858 0.00000000
1.22564122 1.63717055 0.00031033 0.00000000
3.82721555 1.51787667 -0.00469407 0.00000000
2.65050829 0.98615868 0.00134337 0.00000000
2.08332327 1.20541816 0.00201941 0.00000000
2.89167130 1.02831094 -0.00432869 0.00000000
1.89068607 0.50139180 0.00303495 0.00000000
3.27514486 0.47138025 0.00208505 0.00000000
2.16966007 1.18696480 0.00232843 0.00000000
0.20180226 0.48681582 -0.00060402 0.00000000
1.26565220 0.28982769 -0.00082706 0.00000000
1.54330166 1.52845887 0.00052473 0.00000000
3.62533390 0.85774028 -0.00307690 0.00000000
2.28016700 0.63827209 0.00101313 0.00000000
3.93422823 0.20132933 -0.00143077 0.00000000
2.85110476 0.44913129 0.00297994 0.00000000
3.22545251 1.08286344 0.00280436 0.00000000
1.93298762 0.22875149 -0.00637998 0.00000000
2.21287336 0.18620823 0.00024615 0.00000000
0.72994513 0.09040225 0.00313060 0.00000000
2.09489503 0.53638506 -0.00434805 0.00000000
1.20408149 1.43783124 -0.00319887 0.00000000
2.34090656 0.47473017 -0.00297285 0.00000000
1.35732309 0.37522087 0.00009178 0.00000000
4.06822056 0.86793578 -0.00159039 0.00000000
2.05324162 0.12384134 -0.00024604 0.00000000
3.44641411 1.01319307 -0.00310815 0.00000000
3.52103928 1.43039689 -0.00176728 0.00000000
0.12267991 1.43861135 0.00407694 0.00000000
0.69565912 1.19582951 0.00483374 0.00000000
3.54503231 0.59975727 -0.00087538 0.00000000
3.33405882 1.24215931 0.00298879 0.00000000
0.68427555 0.88076005 0.00229615 0.00000000
1.96012145 0.13472135 0.00149285 0.00000000
2.18713380 1.35632241 -0.00259201 0.00000000
2.87438751 1.50834131 -0.00007310 0.00000000
1.70254279 0.89176463 -0.00120150 0.00000000
1.38348579 1.04935148 0.00246656 0.00000000
1.67635534 0.39417641 0.00306870 0.00000000
1.53384001 0.13035646 0.00213785 0.00000000
0.18141377 1.41061099 -0.00079308 0.00000000
3.08628783 0.74798253 0.00073516 0.00000000
3.15317628 1.40322734 0.00402532 0.00000000
3.05121986 1.55944210 -0.00080882 0.00000000
3.58462737 1.20103372 0.00101757 0.00000000
1.15215549 1.44607695 0.00026199 0.00000000
2.91494731 1.33697015 -0.00073145 0.00000000
1.90412736 0.48512434 0.00129601 0.00000000
3.20222289 1.29783186 -0.00160697 0.00000000
4.10301443 0.49532818 0.00009666 0.00000000
0.30515062 0.90819674 0.00326031 0.00000000
0.09995347 1.36233580 0.00101949 0.00000000
2.56330901 0.77151361 0.00099970 0.00000000
1.30806068 1.67746654 -0.00070047 0.00000000
3.93443497 1.29541615 -0.00273331 0.00000000
0.80841784 0.62387389 -0.00096584 0.00000000
0.25219156 1.48881460 0.00033235 0.00000000
4.46004008 0.81944949 0.00070690 0.00000000
2.39863415 0.05966012 -0.00014320 0.00000000
3.42523386 1.43722022 -0.00063776 0.00000000
1.18889597 0.37685678 -0.00142055 0.00000000
1.55151006 1.15559027 0.00164922 0.00000000
0.51747517 1.33486720 -0.00049624 0.00000000
3.00726373 0.07522599 -0.00176768 0.00000000
0.81833582 1.25909746 0.00157183 0.00000000
2.65705379 0.17339299 0.00238342 0.00000000
0.82114084 0.87491533 -0.00342167 0.00000000
2.64011098 0.73602644 0.00360299 0.00000000
0.42694130 0.72041184 -0.00936426 0.00000000
1.81717375 0.85643658 -0.00240655 0.00000000
3.58865282 1.45173247 -0.00296816 0.00000000
4.35397333 0.28033877 -0.00265546 0.00000000
1.51573112 0.97326675 -0.00080212 0.00000000
0.94672595 1.19842843 -0.00082616 0.00000000
1.47695493 1.55886137 0.00119106 0.00000000
1.85785089 0.36642248 0.00076554 0.00000000
3.13011029 1.45296840 0.00105403 0.00000000
4.04807222 1.10414918 -0.00136247 0.00000000
2.91524008 0.41434086 -0.00225675 0.00000000
2.22341313 1.23045018 -0.00410202 0.00000000
4.33203952 0.79156859 -0.00130610 0.00000000
3.52897461 1.47130758 0.00254840 0.00000000
3.92804226 0.76205597 -0.00081260 0.00000000
3.63445582 1.37282368 -0.00133224 0.00000000
0.81145824 0.82967918 0.00009202 0.00000000
1.45440655 1.68763609 0.00121703 0.00000000
2.31319563 0.68195750 0.00053470 0.00000000
0.06403712 0.36254277 -0.00292048 0.00000000
2.03554832 1.54660811 0.00046874 0.00000000
2.83769866 1.61200585 0.00036430 0.00000000
2.61412783 0.78396591 -0.00137793 0.00000000
2.74373471 1.08494660 -0.00229551 0.00000000
1.89859215 0.10696958 -0.00377062 0.00000000
2.61816935 0.73604181 0.00011619 0.00000000
0.74949584 1.64015607 0.00037883 0.00000000
3.39367634 0.01152634 0.00256562 0.00000000
2.40861888 0.10030843 -0.00147628 0.00000000
3.29227617 0.58065734 0.00451002 0.00000000
0.71021058 1.68487846 0.00121908 0.00000000
3.10871814 0.14656064 -0.00045068 0.00000000
4.00067196 0.77485031 0.00108466 0.00000000
3.72993006 1.62809547 -0.00055550 0.00000000
0.13094415 1.54411573 -0.00136935 0.00000000
2.17803204 1.54508193 -0.00490076 0.00000000
3.55870898 1.00299338 0.00195422 0.00000000
2.56509427 0.45811104 0.00254090 0.00000000
3.69222484 1.20641964 -0.00446156 0.00000000
3.23398790 1.57852351 0.00224986 0.00000000
3.43088742 0.45469781 0.00073059 0.00000000
2.18353233 0.03084334 -0.00175755 0.00000000
0.90913188 0.56590842 -0.00306597 0.00000000
4.17325890 1.03752971 -0.00047323 0.00000000
2.95436312 0.52315789 0.00370352 0.00000000
2.67356007 1.56814918 -0.00080539 0.00000000
3.43879005 0.72073077 -0.00314375 0.00000000
2.28865133 0.48980063 -0.00191634 0.00000000
1.92353207 0.44596299 0.00008625 0.00000000
2.74846770 0.81197764 -0.00212680 0.00000000
3.86834033 0.61711859 0.00460672 0.00000000
4.33003940 0.45622066 0.00117162 0.00000000
1.44313812 0.91105961 -0.00009884 0.00000000
1.89136458 0.57998811 -0.00034078 0.00000000
1.68806192 1.36572960 -0.00140255 0.00000000
3.69757528 0.00660302 0.00177947 0.00000000
2.05894161 1.40455049 0.00487537 0.00000000
2.27243557 1.19232419 0.00160286 0.00000000
1.90320008 0.13178189 0.00050123 0.00000000
3.56047232 1.52775596 -0.00000850 0.00000000
4.58076255 0.89597081 -0.00228918 0.00000000
0.70160772 1.24613437 0.00119129 0.00000000
2.85810349 1.61485957 0.00012843 0.00000000
3.09758575 0.68624952 -0.00176189 0.00000000
4.39718768 0.13237014 0.00536459 0.00000000
3.82125703 1.56663951 0.00066100 0.00000000
0.44038887 0.39042748 0.00057274 0.00000000
4.00187168 0.87610956 0.00074286 0.00000000
0.18991779 1.03192291 -0.00458452 0.00000000
3.77453284 1.42091681 -0.00143334 0.00000000
1.37116114 1.43821065 0.00422828 0.00000000
4.29660650 1.35526067 0.00017912 0.00000000
2.39606355 1.39059510 -0.00411281 0.00000000
1.53021733 0.00239127 0.00178901 0.00000000
1.15250058 0.26347160 0.00046627 0.00000000
3.39176699 0.83970667 -0.00078840 0.00000000
1.19508370 1.11060952 0.00198221 0.00000000
3.45458251 0.21403381 -0.00204009 0.00000000
4.21959302 1.54026669 -0.00197821 0.00000000
3.11380100 1.67745847 -0.00021899 0.00000000
4.14530890 0.36615127 0.00310606 0.00000000
3.00301449 1.26984689 0.00001945 0.00000000
3.75130210 1.35188206 0.00071847 0.00000000
0.93641561 0.39117155 0.00114134 0.00000000
2.23512304 0.56628402 -0.00246241 0.00000000
3.64769524 0.56090038 -0.00519888 0.00000000
0.05923816 0.44493485 0.00253713 0.00000000
0.71157478 0.46666222 -0.00205546 0.00000000
0.49746016 0.24241717 0.00458101 0.00000000
4.63898886 1.22887738 -0.00093049 0.00000000
3.41186914 1.54845537 0.00238532 0.00000000
3.33868309 1.48949009 -0.00297560 0.00000000
2.94175683 1.64228516 0.00499285 0.00000000
0.66469694 0.16294230 0.00162930 0.00000000
3.07904677 1.13713600 -0.00043398 0.00000000
3.19900704 0.49639859 0.00393411 0.00000000
2.87634339 0.73199946 0.00161672 0.00000000
1.46368328 0.85837030 0.00029120 0.00000000
1.89020084 0.39617974 -0.00187093 0.00000000
3.11328696 0.44216935 -0.00449221 0.00000000
0.19727010 0.44879961 -0.00137664 0.00000000
0.74102377 1.25754480 -0.00131881 0.00000000
0.79739862 0.98788135 -0.00035483 0.00000000
0.62858312 0.74157053 -0.00038475 0.00000000
2.41847037 1.13384729 0.00145312 0.00000000
4.08506530 1.64936942 0.00036751 0.00000000
0.78109152 1.25869679 -0.00106635 0.00000000
0.53561827 0.46309687 -0.00642922 0.00000000
4.06171431 1.33512825 -0.00097883 0.00000000
2.44948964 0.28096550 -0.00249432 0.00000000
3.08766144 0.72027241 0.00063666 0.00000000
2.99253500 1.59781910 -0.00012991 0.00000000
3.47642849 0.76700952 -0.00304668 0.00000000
4.52066503 1.15480099 -0.00336786 0.00000000
2.81032889 1.18461968 -0.00222492 0.00000000
4.30400584 0.57745062 0.00097069 0.00000000
0.81264231 1.23385450 -0.00033639 0.00000000
4.63543586 0.18856017 0.00015032 0.00000000
3.90918219 1.12624541 -0.00025699 0.00000000
4.51003413 0.86351306 -0.00236985 0.00000000
3.52276974 1.33891871 -0.00417676 0.00000000
3.78055074 1.15813997 0.00017458 0.00000000
2.05013916 1.38408009 -0.00194099 0.00000000
2.40993559 1.26793383 -0.00532811 0.00000000
2.36715089 0.08988458 -0.00273274 0.00000000
1.69262470 0.43775266 0.01003589 0.00000000
2.83908592 0.61094130 0.00321569 0.00000000
0.31324568 1.28633461 0.00446204 0.00000000
4.46611779 1.25950925 -0.00126692 0.00000000
0.81456277 1.53976721 0.00065132 0.00000000
4.41452605 1.38202410 -0.00330895 0.00000000
4.22216392 1.00392131 0.00425193 0.00000000
0.33891149 1.23032076 0.00409975 0.00000000
0.60165894 0.10851167 -0.00129155 0.00000000
2.79691083 1.26268936 -0.00143897 0.00000000
2.70406249 0.63213364 0.00138413 0.00000000
3.75162865 1.63351427 0.00168509 0.00000000
3.84887623 0.80140628 0.00181434 0.00000000
0.70919027 1.61115157 -0.00148152 0.00000000
2.27901612 0.93131585 0.00220241 0.00000000
1.85063543 1.20290119 0.00009816 0.00000000
2.30409288 0.81092681 0.00268517 0.00000000
3.92827362 1.23659080 -0.00027218 0.00000000
2.91608938 0.80248529 0.00007253 0.00000000
0.18615176 1.12102237 0.00126445 0.00000000
0.85795972 1.33012495 -0.00034893 0.00000000
3.49391521 0.54637091 0.00292987 0.00000000
0.34571910 0.14118699 -0.00201580 0.00000000
4.65054728 1.32744454 -0.00217550 0.00000000
3.41687274 0.52920852 -0.00272074 0.00000000
1.51051399 0.00858066 0.00334337 0.00000000
3.32076050 1.25351684 0.00179773 0.00000000
0.02745094 1.04762982 0.00090085 0.00000000
2.01706496 0.66046439 0.00243910 0.00000000
4.42190744 0.15050855 -0.00189506 0.00000000
3.11600860 1.17636959 -0.00227199 0.00000000
0.07853038 1.04847303 -0.00209100 0.00000000
1.41218952 0.49767633 0.00110683 0.00000000
4.09654130 1.53091475 0.00404851 0.00000000
1.92559514 0.71447252 -0.00169595 0.00000000
4.30468342 0.12691766 0.00203769 0.00000000
3.44153546 0.25282638 -0.00146474 0.00000000
2.76582181 1.54121316 0.00048169 0.00000000
0.78404305 1.07867657 -0.00232747 0.00000000
1.73597710 0.25883984 0.00008276 0.00000000
0.95630403 0.89682473 0.00079614 0.00000000
1.88740636 1.37709612 -0.00207355 0.00000000
2.23036057 1.13669186 0.00271785 0.00000000
3.29169268 0.35921417 0.00101567 0.00000000
2.25664860 1.19552263 0.00061123 0.00000000
3.71785598 1.20248590 -0.00073811 0.00000000
0.31849779 0.26801361 -0.00024937 0.00000000
4.08692047 0.03662489 -0.00269905 0.00000000
2.49738345 0.75503293 0.00135004 0.00000000
3.03329434 1.51723391 0.00121223 0.00000000
1.60551904 1.29543336 -0.00169199 0.00000000
2.78012595 0.84822276 0.00219305 0.00000000
0.83001894 1.68417649 -0.00343037 0.00000000
3.36540243 1.54525661 -0.00325558 0.00000000
2.86922122 1.14616862 -0.00122844 0.00000000
2.12359902 0.96996576 -0.00080900 0.00000000
4.59611316 1.59174842 0.00360330 0.00000000
4.37970747 1.64287100 0.00118561 0.00000000
1.04584189 0.68885233 0.00339353 0.00000000
1.14883777 0.58869384 0.00129547 0.00000000
0.22504223 0.77749877 -0.00296801 0.00000000
2.58682713 1.61440156 -0.00043096 0.00000000
4.06184361 0.97038813 0.00332720 0.00000000
0.64475905 1.06723351 0.00176523 0.00000000
0.89667108 1.09186776 0.00245805 0.00000000
3.30013249 1.31073315 -0.00055874 0.00000000
3.19928226 1.46669825 0.00152968 0.00000000
3.10604624 0.50912859 0.00165329 0.00000000
1.60975695 0.27237990 0.00040244 0.00000000
4.54252525 0.15620638 0.00031014 0.00000000
2.54289863 0.53949055 0.00059020 0.00000000
0.60697549 0.50125934 -0.00351644 0.00000000
0.35788180 0.61225995 0.00287173 0.00000000
3.27763076 0.44907533 0.00465367 0.00000000
2.25031479 1.48052897 -0.00066432 0.00000000
1.10528770 0.12080838 -0.00051895 0.00000000
2.67201888 1.25771721 0.00140790 0.00000000
1.62867846 1.58733426 0.00179450 0.00000000
2.55574711 1.08489503 0.00453084 0.00000000
3.29778839 0.06147617 -0.00494961 0.00000000
4.59703836 1.48604613 0.00195948 0.00000000
3.03098932 1.57057119 0.00095470 0.00000000
2.48513397 1.59802650 0.00288706 0.00000000
2.09588733 0.17946664 -0.00034648 0.00000000
0.36305255 1.05650988 -0.00052758 0.00000000
3.12145855 1.20915725 -0.00474896 0.00000000
3.57525684 0.40582615 -0.00196283 0.00000000
1.95139795 0.53624376 0.00035623 0.00000000
1.19012471 1.22908237 0.00101938 0.00000000
1.99186518 0.45249129 0.00422760 0.00000000
3.44616970 1.60461066 -0.00007578 0.00000000
2.47242504 0.10884530 0.00448178 0.00000000
3.34121500 0.38898523 -0.00417515 0.00000000
3.23492471 0.86263549 0.00243535 0.00000000
3.07047500 0.43506029 -0.00009042 0.00000000
0.29297088 0.10755940 0.00270083 0.00000000
4.02865749 0.74053155 -0.00327600 0.00000000
1.01888356 0.05716522 0.00388207 0.00000000
2.58267932 1.32320498 -0.00573314 0.00000000
4.21766836 0.12491187 0.00092752 0.00000000
2.85504231 1.01215184 -0.00178062 0.00000000
3.67316957 0.39641145 0.00117182 0.00000000
3.33375792 1.52609258 0.00125297 0.00000000
1.14722486 1.38950438 0.00096617 0.00000000
3.86317555 0.23539490 0.00378574 0.00000000
3.08628171 0.46984153 0.00120955 0.00000000
3.19612277 0.71960011 -0.00544512 0.00000000
1.54813725 0.56692402 0.00372105 0.00000000
4.38241028 0.24500285 -0.00342872 0.00000000
0.04850989 0.21735898 -0.00059700 0.00000000
2.46141184 1.64584790 -0.00089235 0.00000000
0.55991093 0.78702163 0.00179518 0.00000000
0.09466979 0.45457539 0.00219990 0.00000000
0.95254236 0.44475516 -0.00092511 0.00000000
4.54332248 0.61143886 0.00134831 0.00000000
4.50330312 0.59440923 0.00071903 0.00000000
2.84806509 1.48068812 0.00337088 0.00000000
3.84225134 0.06555394 0.00017666 0.00000000
1.59451185 0.45054868 -0.00084505 0.00000000
0.83380066 0.42352241 0.00006452 0.00000000
1.13191430 1.21123145 0.00207266 0.00000000
2.91293971 0.03798349 -0.00088736 0.00000000
4.66993307 0.62864018 0.00449087 0.00000000
2.53060406 1.03521179 -0.00403656 0.00000000
1.80982994 0.35038840 -0.00186230 0.00000000
4.53967612 0.50083129 0.00293751 0.00000000
4.48430587 0.84248068 0.00155806 0.00000000
2.96144320 0.32057224 0.00078597 0.00000000
4.13502654 1.60981949 0.00054252 0.00000000
2.89706192 1.47538223 -0.00556851 0.00000000
3.95592402 0.85788580 -0.00049449 0.00000000
1.79466833 0.97840113 -0.00338110 0.00000000
3.43833845 1.39848206 0.00253842 0.00000000
3.20071312 0.75109694 0.00002217 0.00000000
0.41849718 0.82772816 0.00047060 0.00000000
2.74689403 1.15801805 -0.00164690 0.00000000
3.26239650 0.13924582 0.00158581 0.00000000
3.86261788 1.62599460 -0.00267892 0.00000000
4.33637391 0.34122044 -0.00058761 0.00000000
1.85239543 0.24102614 0.00283271 0.00000000
3.85027525 0.84424227 0.00182749 0.00000000
4.48428080 1.32301824 0.00286978 0.00000000
0.16927898 1.46209482 0.00274471 0.00000000
1.00726939 0.29590123 0.00040276 0.00000000
3.84471233 0.48475334 -0.00046411 0.00000000
2.00363039 0.89200212 -0.00457725 0.00000000
0.98452567 0.22238791 -0.00338617 0.00000000
4.48996475 0.87958062 0.00085134 0.00000000
2.36863632 0.73816911 -0.00119912 0.00000000
3.13160231 0.80866621 0.00184176 0.00000000
2.56116343 1.68452121 0.00002406 0.00000000
3.77718323 0.53765251 0.00154304 0.00000000
0.28716578 0.51042782 0.00544174 0.00000000
3.93811127 1.21227938 -0.00064637 0.00000000
0.06805654 0.80337246 0.00528971 0.00000000
0.96644882 1.52208823 0.00341178 0.00000000
4.57141548 1.36950363 -0.00251310 0.00000000
1.53444758 0.25892318 0.00108352 0.00000000
0.43744989 0.09574141 -0.00106300 0.00000000
4.36823908 0.41237282 0.00108028 0.00000000
4.60947594 0.80207229 -0.00099113 0.00000000
2.27210528 1.57635864 0.00002238 0.00000000
1.14577125 1.65628838 -0.00206384 0.00000000
3.92849048 1.32680204 0.00065679 0.00000000
0.78542412 1.28170628 0.00330549 0.00000000
0.32567991 0.21689533 -0.00290332 0.00000000
1.40380762 0.89580684 0.00457607 0.00000000
0.53077672 1.47043406 0.00125946 0.00000000
1.15873471 0.91268920 0.00117996 0.00000000
2.09461516 0.38133690 -0.00112969 0.00000000
1.85793848 0.17368996 0.00190019 0.00000000
1.00508555 0.85640760 -0.00537430 0.00000000
4.17011834 0.72363478 0.00344369 0.00000000
3.88263337 1.08470509 -0.00125593 0.00000000
1.39622719 1.16205754 0.00010545 0.00000000
2.28731871 0.30789762 -0.00438574 0.00000000
3.64604185 0.33913875 0.00557643 0.00000000
4.62053335 1.42707281 -0.00375590 0.00000000
1.09160485 1.22949055 0.00111953 0.00000000
1.31885685 0.44769174 -0.00039861 0.00000000
4.58893226 0.39419491 -0.00524100 0.00000000
2.03613913 0.34491477 -0.00470322 0.00000000
4.08822267 0.14751622 -0.00086286 0.00000000
1.87660818 0.39555814 -0.00122708 0.00000000
0.54164621 1.29753465 0.00140185 0.00000000
4.34308785 1.30550826 0.00172452 0.00000000
0.40973875 1.48591470 -0.00582357 0.00000000
0.04497133 1.60027238 -0.00185639 0.00000000
2.11345320 0.16185700 0.00424926 0.00000000
4.37868520 1.14288475 0.00045326 0.00000000
1.89745444 0.21764861 0.00550777 0.00000000
2.13948144 0.44147229 -0.00277897 0.00000000
0.78236876 1.40118300 0.00288927 0.00000000
4.37310542 0.49872960 0.00652376 0.00000000
3.96365865 0.14194993 0.00302039 0.00000000
4.38029950 1.27076049 -0.00097001 0.00000000
1.43820100 0.86385631 -0.00073909 0.00000000
3.66507968 0.64371878 0.00228919 0.00000000
3.35989128 0.85324921 0.00360934 0.00000000
4.46697400 0.48809479 0.00256074 0.00000000
1.87393765 1.32384187 -0.00457924 0.00000000
3.01670145 0.86232066 0.00463752 0.00000000
0.62911453 0.17288551 0.00213287 0.00000000
1.65041606 0.43168145 0.00010555 0.00000000
4.61127358 0.83578701 -0.00045145 0.00000000
0.08625680 1.46119135 -0.00267059 0.00000000
1.48338908 0.31562759 0.00086451 0.00000000
0.68607436 0.32655615 -0.00037682 0.00000000
2.80466967 0.08524041 0.00339001 0.00000000
0.33126494 1.64978472 -0.00118257 0.00000000
0.14585591 1.13671284 0.00374452 0.00000000
2.69184450 1.11955606 -0.00034355 0.00000000
0.14853790 1.43946079 0.00011362 0.00000000
2.52451050 1.04962482 -0.00043079 0.00000000
4.19532929 0.04606299 -0.00290386 0.00000000
2.85532388 0.52013665 -0.00056136 0.00000000
3.26935189 1.22098768 0.00213266 0.00000000
0.02179897 0.85366570 0.00534469 0.00000000
3.38973747 0.58910399 -0.00013503 0.00000000
3.36865628 1.14288687 -0.00377302 0.00000000
0.55939021 0.19688954 -0.00288000 0.00000000
1.89738960 1.33291464 -0.00011240 0.00000000
1.09120291 1.02505119 -0.00200824 0.00000000
2.29835191 0.91237481 0.00721651 0.00000000
1.68114990 0.50691940 -0.00398264 0.00000000
1.76434149 0.03258664 -0.00003260 0.00000000
1.47916722 1.27106816 -0.00421871 0.00000000
2.94083439 0.45709315 -0.00339482 0.00000000
0.32830347 1.40829365 0.00302572 0.00000000
3.43042141 0.07801063 -0.00225794 0.00000000
2.21199247 0.88395726 0.00155584 0.00000000
4.23111379 0.94519984 -0.00001570 0.00000000
4.54473239 0.00275429 -0.00160486 0.00000000
3.08794377 1.13685965 -0.00181214 0.00000000
0.10361878 0.80764874 0.00094267 0.00000000
2.98735190 0.72391922 0.00268990 0.00000000
0.19837597 0.11171295 -0.00114873 0.00000000
0.36782479 1.53960370 -0.00269162 0.00000000
1.36770396 1.58628174 -0.00162226 0.00000000
1.70576315 1.39774989 -0.00585018 0.00000000
2.23869121 1.00831340 -0.00166930 0.00000000
