2.65352651 1.81603911 -0.00089245 0.00000000
4.42462249 1.91730036 -0.00237828 0.00000000
2.14767382 0.81766369 0.00140478 0.00000000
1.17284237 0.49671766 0.00033503 0.00000000
2.34206326 0.51150089 0.00051128 0.00000000
0.32437755 1.89214043 -0.00063130 0.00000000
2.74430655 1.54242118 -0.00386559 0.00000000
4.19607643 1.87434517 -0.00132517 0.00000000
1.84241133 1.30269868 -0.00021345 0.00000000
1.04945422 0.63366584 0.00129215 0.00000000
1.92687682 0.50099374 0.00005117 0.00000000
0.03210681 1.09145990 0.00187135 0.00000000
0.62352492 0.27142533 0.00195311 0.00000000
0.08850169 1.41317842 0.00457810 0.00000000
2.30730917 1.00601803 0.00203932 0.00000000
2.46324818 0.55268395 -0.00291812 0.00000000
1.09080085 0.16440407 0.00505292 0.00000000
1.11852288 0.45985817 -0.00325108 0.00000000
3.39647456 1.23054296 -0.00175973 0.00000000
1.52269347 0.43335640 0.00087015 0.00000000
3.57011297 0.19111155 0.00003200 0.00000000
0.00340736 0.69801614 -0.00571893 0.00000000
3.85523418 1.24777900 0.00077696 0.00000000
1.49512815 0.48859900 0.00275577 0.00000000
1.49626498 1.86817668 -0.00439231 0.00000000
3.28425918 0.95548473 0.00405589 0.00000000
4.48462297 1.83101301 0.00128275 0.00000000
1.72175506 0.59093164 -0.00004175 0.00000000
1.12403823 0.26158804 0.00274948 0.00000000
4.43783583 1.91414078 0.00330686 0.00000000
1.93226754 0.03483697 0.00228543 0.00000000
4.36252923 0.15030818 0.00399377 0.00000000
4.31154992 1.59993937 -0.00107888 0.00000000
0.39527533 0.62168190 0.00006392 0.00000000
1.47400774 0.14623656 0.00035760 0.00000000
4.33579638 1.14617708 -0.00099346 0.00000000
4.20319741 0.89453627 0.00099973 0.00000000
3.49496171 1.96552852 -0.00092154 0.00000000
1.10259920 1.36539128 0.00125221 0.00000000
3.30190890 0.32753759 0.00080011 0.00000000
1.80616960 1.89816884 0.00127602 0.00000000
4.46021459 0.84820145 -0.00190059 0.00000000
2.30656445 1.15982752 0.00698701 0.00000000
2.93252191 0.58752375 -0.00118711 0.00000000
1.26657100 1.72367103 -0.00023836 0.00000000
1.84849686 1.24184694 -0.00359681 0.00000000
4.17442926 0.20657066 0.00614906 0.00000000
3.97525757 0.58306657 -0.00367950 0.00000000
3.09893219 1.63645772 0.00086740 0.00000000
0.89985889 0.03929517 -0.00142806 0.00000000
0.05563064 1.37693198 -0.00255926 0.00000000
2.22388498 0.76729251 -0.00161404 0.00000000
2.17063597 0.85303028 0.00295087 0.00000000
1.38551214 1.29704444 -0.00255850 0.00000000
1.35688946 1.98599412 -0.00405186 0.00000000
2.63505485 1.74366354 0.00561622 0.00000000
3.01542038 0.95482523 0.00263038 0.00000000
0.19079053 0.44117924 -0.00416029 0.00000000
2.13564136 0.34626844 0.00193447 0.00000000
1.12614010 0.94524959 -0.00139969 0.00000000
4.16609531 0.57329083 -0.00040315 0.00000000
0.66329964 0.83515365 -0.00319990 0.00000000
2.21873228 1.33964717 -0.00089816 0.00000000
2.97334381 1.34003439 0.00196002 0.00000000
0.11977036 1.61234411 -0.00478583 0.00000000
3.57016802 1.30550719 -0.00144587 0.00000000
0.09035542 0.73776288 -0.00144488 0.00000000
2.45511547 1.23253506 0.00023619 0.00000000
2.30098047 0.68401603 0.00422338 0.00000000
1.85147712 0.21713422 -0.00201459 0.00000000
1.68158595 0.91872787 0.00109775 0.00000000
0.58996009 0.83125219 -0.00075695 0.00000000
0.08029740 0.45640872 -0.00112806 0.00000000
3.26164065 1.11810544 -0.00096046 0.00000000
4.13597333 0.60462718 -0.00308677 0.00000000
2.53301264 0.86571806 -0.00122039 0.00000000
2.11569785 1.99873380 0.00356428 0.00000000
0.09531469 0.19112119 0.00216354 0.00000000
3.22184364 1.61781456 -0.00446850 0.00000000
2.44887154 1.67111037 0.00107109 0.00000000
4.38757728 0.67498994 -0.00201368 0.00000000
3.95635312 1.14954486 -0.00077235 0.00000000
3.61949405 1.59791939 -0.00088404 0.00000000
4.10790455 1.40927041 -0.00156520 0.00000000
0.37483571 0.65742308 0.00282637 0.00000000
3.63713071 0.66223555 -0.00217749 0.00000000
1.48811811 1.35010330 -0.00420397 0.00000000
3.69143814 1.03860442 0.00125734 0.00000000
4.53676951 0.73452240 -0.00018259 0.00000000
2.99705395 1.06837178 -0.00035898 0.00000000
0.26848731 1.02819060 -0.00004976 0.00000000
3.83821197 1.35609553 -0.00014291 0.00000000
4.09153629 1.35672985 -0.00004141 0.00000000
3.19166871 1.63331683 -0.00543779 0.00000000
0.91283904 0.99877462 -0.00232933 0.00000000
4.22105487 0.68601555 -0.00489800 0.00000000
1.19419405 0.34200234 -0.00328185 0.00000000
1.52246506 1.14169013 0.00156463 0.00000000
0.09715119 0.35867685 0.00185661 0.00000000
4.48906590 1.57730329 0.00256660 0.00000000
4.20682906 1.61795682 0.00579920 0.00000000
4.34392315 1.82429504 0.00011899 0.00000000
3.36124801 1.05507989 0.00073911 0.00000000
3.68911618 0.81687232 -0.00357577 0.00000000
3.49525450 1.30715067 0.00506270 0.00000000
1.74154811 0.63285462 -0.00016923 0.00000000
4.33310019 1.64406934 -0.00041712 0.00000000
1.77552841 0.52116403 0.00047401 0.00000000
1.64632833 0.20402584 -0.00505358 0.00000000
1.42515163 0.33027192 0.00069751 0.00000000
2.59959839 0.51005056 -0.00021146 0.00000000
4.16820135 0.71037957 -0.00159182 0.00000000
1.94046578 0.14129188 -0.00024087 0.00000000
1.53935075 1.70777061 -0.00058190 0.00000000
3.41201578 1.50835421 0.00000489 0.00000000
3.64581285 1.12857856 0.00123695 0.00000000
2.70139044 1.55250070 -0.00050699 0.00000000
3.19497986 1.06675915 -0.00324389 0.00000000
2.22493256 0.50435233 -0.00080098 0.00000000
1.02767920 1.51038271 -0.00154139 0.00000000
1.53016823 1.67635331 -0.00148658 0.00000000
3.44452232 1.19535472 -0.00303082 0.00000000
0.98985026 1.63983855 0.00205427 0.00000000
1.44646021 0.63636641 0.00331022 0.00000000
1.05096248 1.97007664 0.00136908 0.00000000
3.24049400 1.80309070 -0.00140712 0.00000000
3.97752330 1.73752099 0.00067115 0.00000000
3.73368025 0.91608172 -0.00130298 0.00000000
2.24910272 1.60628179 0.00128613 0.00000000
2.36605912 0.60095176 0.00284716 0.00000000
0.65937248 1.46449854 -0.00189673 0.00000000
2.26802113 0.36978771 -0.00319616 0.00000000
2.89565049 0.21131331 0.00092089 0.00000000
0.02401994 0.92718304 -0.00120619 0.00000000
2.52084366 0.42876752 0.00102357 0.00000000
0.91979629 0.08501855 0.00028648 0.00000000
1.66837557 0.92499141 -0.00370511 0.00000000
0.54926144 0.53061295 -0.00153604 0.00000000
1.44459421 0.78782338 -0.00149816 0.00000000
0.03762961 1.43324002 0.00062481 0.00000000
2.43866976 0.35057183 0.00079057 0.00000000
2.00823139 1.97175999 0.00162330 0.00000000
3.44465188 1.31892900 0.00061740 0.00000000
4.20881798 1.64440161 -0.00146995 0.00000000
3.42797023 0.16456248 -0.00288661 0.00000000
0.00219673 1.58037272 0.00345213 0.00000000
0.46200459 1.62281377 -0.00152488 0.00000000
1.71894599 0.63324580 -0.00076141 0.00000000
1.51125204 1.86384857 -0.00152162 0.00000000
3.81684376 0.03555284 0.00138900 0.00000000
1.06459780 0.27923028 -0.00030541 0.00000000
1.76439952 0.44277402 0.00051793 0.00000000
0.46850801 0.95143154 0.00093396 0.00000000
3.16219451 1.03770980 -0.00191235 0.00000000
0.40191190 1.30717730 -0.00094546 0.00000000
3.22329899 0.90412040 -0.00156849 0.00000000
1.54718571 0.39164764 0.00378719 0.00000000
1.77778441 1.27294443 -0.00087611 0.00000000
0.27805336 0.83953863 0.00146826 0.00000000
1.72407578 1.68294564 -0.00113963 0.00000000
1.86053769 0.05949814 -0.00411262 0.00000000
1.07000830 0.80594276 0.00133856 0.00000000
0.08879683 1.00560289 -0.00044304 0.00000000
0.33843800 1.22398980 0.00097848 0.00000000
1.59868219 0.37273431 0.00591689 0.00000000
0.01364784 1.00534610 0.00219531 0.00000000
0.24517245 1.72560989 0.00048911 0.00000000
1.47571503 1.50886785 -0.00347012 0.00000000
2.44470260 1.63622609 -0.00450875 0.00000000
1.92403751 1.56045659 -0.00008519 0.00000000
0.30959835 0.20253086 -0.00100148 0.00000000
1.36819149 1.31196322 -0.00159010 0.00000000
4.34144353 0.10276461 0.00107573 0.00000000
2.79730029 1.18923604 -0.00307270 0.00000000
0.91689692 0.57002086 0.00261858 0.00000000
2.99684991 0.41745862 0.00115800 0.00000000
2.67813543 0.45665393 0.00130800 0.00000000
2.22031499 0.67039730 -0.00011488 0.00000000
1.72840051 0.12702285 -0.00020627 0.00000000
2.25748782 1.46201333 0.00260612 0.00000000
4.06396580 1.60195366 -0.00375602 0.00000000
0.34521670 0.24586937 -0.00099635 0.00000000
3.47378720 1.01386632 -0.00052404 0.00000000
2.59943588 1.17445298 -0.00220193 0.00000000
1.21581634 0.02761605 -0.00065858 0.00000000
4.09289398 0.25317850 0.00240932 0.00000000
1.58868680 0.47129202 0.00126651 0.00000000
1.10897745 1.82199626 0.00391177 0.00000000
1.38077671 1.71397594 -0.00213373 0.00000000
0.58007800 0.64754514 0.00210442 0.00000000
2.77381395 0.44465020 -0.00167629 0.00000000
0.63781009 1.30561693 -0.00271264 0.00000000
3.32426116 0.83421480 0.00241595 0.00000000
1.42061588 1.53688755 0.00077542 0.00000000
2.83085911 1.68295621 -0.00555978 0.00000000
3.20140864 1.29037171 0.00114858 0.00000000
1.25504387 1.93259709 0.00166788 0.00000000
1.28607862 1.36017161 0.00029794 0.00000000
2.37671554 0.89948057 0.00027091 0.00000000
1.33831302 0.66235792 -0.00218395 0.00000000
4.10288545 1.88780395 -0.00172187 0.00000000
2.01273878 2.00030422 -0.00341977 0.00000000
1.11782058 1.23994602 0.00122647 0.00000000
3.64235885 0.73876230 -0.00190156 0.00000000
3.58320829 0.75498411 -0.00272111 0.00000000
3.08761781 0.02880541 0.00012485 0.00000000
3.46190607 0.00144856 -0.00065295 0.00000000
1.68264984 0.41880068 -0.00013349 0.00000000
2.36730345 0.08245747 0.00287798 0.00000000
2.53028607 0.74950263 0.00053531 0.00000000
3.71654329 1.16611571 0.00098878 0.00000000
1.58081581 0.35994109 0.00278178 0.00000000
4.55314176 1.93674966 -0.00059347 0.00000000
1.91469738 0.83819877 0.00149135 0.00000000
0.71824037 0.89255579 0.00188920 0.00000000
2.13742211 1.74048619 0.00174881 0.00000000
0.79152195 1.06017223 0.00106970 0.00000000
1.75257755 1.88561054 0.00281743 0.00000000
1.60660650 0.06337942 0.00148468 0.00000000
4.29999584 0.21725004 0.00089719 0.00000000
3.22355296 1.42804544 -0.00227805 0.00000000
1.14506556 0.90837732 0.00284138 0.00000000
2.81542954 1.28192888 -0.00176142 0.00000000
3.43962377 0.99366848 -0.00108745 0.00000000
3.42287983 1.98930054 0.00764671 0.00000000
3.60994815 0.04439010 0.00232962 0.00000000
2.61969974 1.13094626 0.00081778 0.00000000
3.33876139 1.83073830 -0.00543346 0.00000000
0.58231120 1.26140869 -0.00071181 0.00000000
3.05623763 0.87852950 0.00161145 0.00000000
4.39233831 1.49219545 0.00174545 0.00000000
4.29506551 0.24699102 0.00062654 0.00000000
0.72468195 1.54618654 -0.00320455 0.00000000
3.00154188 0.73050792 0.00288195 0.00000000
3.18593770 0.26631863 0.00380154 0.00000000
0.26155632 0.56188045 0.00375815 0.00000000
3.42106846 0.23008161 0.00134349 0.00000000
2.73550801 1.69267184 0.00099917 0.00000000
3.07036201 0.43387244 0.00110885 0.00000000
2.49760375 1.33593812 0.00188518 0.00000000
3.93918228 1.79792618 -0.00139312 0.00000000
1.47005631 0.58805052 -0.00317864 0.00000000
4.49251375 0.47677565 0.00202271 0.00000000
3.31065669 1.97241312 -0.00351116 0.00000000
1.61462246 0.15211391 0.00496405 0.00000000
1.27941426 0.03817256 -0.00147467 0.00000000
1.28183191 0.37516311 0.00038263 0.00000000
3.54499423 1.75333306 -0.00082186 0.00000000
1.25569895 1.96223555 -0.00454019 0.00000000
1.98901693 1.24251022 0.00213475 0.00000000
2.07039366 0.75701094 -0.00139819 0.00000000
1.70220775 0.09737023 -0.00220461 0.00000000
0.88728250 0.16198910 0.00169458 0.00000000
2.68969791 1.03023941 0.00246959 0.00000000
1.18025898 2.00096539 -0.00158749 0.00000000
4.20533484 0.28629677 -0.00473877 0.00000000
2.58891996 1.03729631 -0.00501557 0.00000000
1.71036483 1.84532201 -0.00404383 0.00000000
3.17399614 1.59348400 0.00255304 0.00000000
0.88534480 1.65809331 -0.00112991 0.00000000
3.99804720 0.06220269 -0.00290219 0.00000000
3.13484482 0.37708530 0.00006600 0.00000000
2.11778191 1.98078685 0.00133716 0.00000000
0.66064540 0.38035758 -0.00082977 0.00000000
0.10244930 1.48897116 0.00488242 0.00000000
2.55390805 0.38644830 -0.00094504 0.00000000
4.02234103 0.91899209 0.00154633 0.00000000
2.52959976 0.80753052 -0.00049090 0.00000000
3.62686335 0.04700595 0.00111000 0.00000000
4.07750293 0.24020133 0.00062318 0.00000000
2.59832645 2.01291939 0.00101868 0.00000000
1.57929516 0.37021140 -0.00097571 0.00000000
3.87206829 0.41765206 0.00186407 0.00000000
2.14864056 1.93862933 -0.00054569 0.00000000
0.78638953 0.14339837 -0.00022024 0.00000000
1.64216763 0.18837868 -0.00283174 0.00000000
2.57523713 1.94936026 -0.00106502 0.00000000
1.06600388 1.01618531 -0.00133139 0.00000000
3.05595668 0.71408291 0.00230274 0.00000000
3.35528024 0.41143974 0.00482611 0.00000000
4.07474856 2.00643330 0.00434097 0.00000000
4.39560260 1.80872761 -0.00051903 0.00000000
2.33741202 1.50991097 -0.00057868 0.00000000
3.96530852 1.98813304 0.00383092 0.00000000
0.97249285 0.41397766 0.00315385 0.00000000
3.61527058 0.52646724 -0.00353139 0.00000000
4.36656164 1.85036155 -0.00167434 0.00000000
2.95274731 0.82960546 0.00158703 0.00000000
3.16479069 0.75482658 0.00022611 0.00000000
4.09381152 0.19237605 -0.00062345 0.00000000
2.20198183 0.08801826 0.00140060 0.00000000
1.00995686 0.55723347 -0.00207358 0.00000000
0.13500992 0.73742520 -0.00167241 0.00000000
0.84675294 0.48625210 0.00039466 0.00000000
4.09039625 2.00603944 0.00074200 0.00000000
3.13534254 0.45857588 -0.00149331 0.00000000
3.03171258 0.63674338 -0.00354174 0.00000000
1.23101220 1.41704637 0.00229965 0.00000000
0.87345886 0.93991529 0.00188435 0.00000000
2.61441254 0.51183535 -0.00322662 0.00000000
0.85731227 1.16861644 0.00394299 0.00000000
3.11434707 1.57396389 0.00253683 0.00000000
3.19486469 1.80868465 -0.00096357 0.00000000
2.00895843 0.00647938 0.00293885 0.00000000
4.43295023 0.81671086 -0.00051139 0.00000000
1.83433453 1.23076750 0.00348639 0.00000000
3.23744080 1.48992910 -0.00317325 0.00000000
4.32159847 0.87364897 -0.00101986 0.00000000
3.90459068 1.74121640 -0.00272557 0.00000000
3.12541813 1.30618225 0.00227157 0.00000000
3.40567385 1.67507064 -0.00122006 0.00000000
3.58272310 1.67261162 0.00153081 0.00000000
4.34067039 1.15271643 0.00054369 0.00000000
1.50773476 1.76451810 0.00090378 0.00000000
1.65502121 0.77555923 0.00057101 0.00000000
1.64409802 0.82756783 -0.00198443 0.00000000
2.45748961 0.34804918 -0.00267354 0.00000000
0.58524932 0.51501560 0.00117941 0.00000000
3.32434336 0.25025531 -0.00246571 0.00000000
2.05113944 0.65231514 0.00531621 0.00000000
2.68102176 0.08478268 0.00033692 0.00000000
4.35705212 0.91887952 0.00166159 0.00000000
3.68332042 1.69036177 0.00145746 0.00000000
1.44770024 1.66344574 0.00032195 0.00000000
1.80123347 0.63130260 0.00046449 0.00000000
2.19657918 1.10801325 -0.00316892 0.00000000
1.55051797 1.01581574 -0.00231429 0.00000000
4.47653719 1.54911702 0.00117716 0.00000000
3.05154052 1.49635105 -0.00331775 0.00000000
1.15497807 0.05544501 -0.00356582 0.00000000
4.16130249 0.22003995 -0.00354635 0.00000000
1.67243464 1.90229800 -0.00150299 0.00000000
0.14802017 1.95318973 0.00061023 0.00000000
3.06609697 1.03008858 -0.00522692 0.00000000
1.40467769 1.79584407 -0.00070459 0.00000000
0.81746451 1.45667774 0.00059858 0.00000000
1.77161838 1.67413632 -0.00063349 0.00000000
2.84640107 1.12992460 -0.00016921 0.00000000
0.92869070 0.26605107 -0.00041286 0.00000000
4.47121850 1.25655416 0.00453866 0.00000000
0.27970617 0.41070861 0.00392726 0.00000000
1.98233055 1.56769845 0.00113978 0.00000000
1.40146784 1.99735892 0.00120819 0.00000000
0.76509930 1.56267503 -0.00226039 0.00000000
3.27958153 0.55867257 -0.00415737 0.00000000
4.06549178 2.01239650 -0.00181487 0.00000000
0.75139445 0.32045710 -0.00245551 0.00000000
2.72351583 1.93351397 0.00514269 0.00000000
2.58894918 1.67533841 0.00309343 0.00000000
1.22848541 1.09941776 0.00193835 0.00000000
0.08466070 0.39843204 -0.00257130 0.00000000
4.06095728 1.87062296 0.00256808 0.00000000
2.67513473 0.41762790 -0.00107887 0.00000000
4.50813013 0.48303924 -0.00195720 0.00000000
3.52681179 1.64316490 0.00197331 0.00000000
0.70553777 1.27155947 -0.00109229 0.00000000
3.68369165 0.37638638 -0.00577577 0.00000000
4.05285330 0.84340482 -0.00539096 0.00000000
3.09905306 0.13913570 -0.00127510 0.00000000
2.49729499 0.10104458 -0.00302004 0.00000000
0.73861452 0.69446625 0.00426817 0.00000000
0.03416520 1.15183337 -0.00198758 0.00000000
3.14497136 0.20068584 -0.00000394 0.00000000
1.65861878 1.06728494 -0.00375512 0.00000000
4.07150473 0.48464993 0.00428939 0.00000000
0.81362003 1.79411151 -0.00094927 0.00000000
3.80836800 1.47064074 0.00338312 0.00000000
1.73261228 1.44460727 -0.00251636 0.00000000
2.96856256 1.28116934 -0.00026197 0.00000000
4.55640990 1.82154384 0.00007093 0.00000000
3.77470200 1.68525123 -0.00044300 0.00000000
1.88863473 1.56432305 -0.00131525 0.00000000
4.58871127 0.34761942 -0.00128581 0.00000000
3.79343587 1.31626604 0.00408142 0.00000000
0.69743613 0.50091159 -0.00012302 0.00000000
2.07703270 0.92637851 0.00091413 0.00000000
2.63533406 1.28240262 -0.00383438 0.00000000
4.32368108 1.60177620 -0.00045419 0.00000000
2.92743581 0.24837377 -0.00533718 0.00000000
0.61128140 1.06384559 0.00098019 0.00000000
2.48605809 0.68723462 -0.00027939 0.00000000
2.14620732 1.01789291 -0.00116506 0.00000000
1.69773848 1.83155890 0.00053321 0.00000000
2.38749655 1.01490962 0.00284285 0.00000000
3.14808899 1.72275068 0.00172688 0.00000000
3.93526834 1.80913970 0.00015952 0.00000000
4.24140728 1.83812879 -0.00262624 0.00000000
3.53136193 0.34259245 -0.00570942 0.00000000
0.97737955 0.56403462 -0.00368659 0.00000000
1.17828157 0.47713018 -0.00019105 0.00000000
3.92691521 0.78595219 -0.00288238 0.00000000
2.04432205 1.72474338 -0.00011224 0.00000000
2.97371337 0.86552996 -0.00131313 0.00000000
3.34958959 0.72852431 0.00133434 0.00000000
0.38885416 1.98338398 0.00098286 0.00000000
2.30145437 1.72941971 -0.00276046 0.00000000
0.76520844 1.88360228 -0.00444637 0.00000000
1.41541491 0.69994321 -0.00074522 0.00000000
0.00528947 0.30716255 0.00125091 0.00000000
2.18024149 0.03811243 0.00233717 0.00000000
1.96322808 1.62969211 -0.00163484 0.00000000
1.78191939 0.43813170 -0.00175064 0.00000000
1.57335886 0.07672617 -0.00118856 0.00000000
4.20617179 0.45133773 0.00251745 0.00000000
1.33408998 0.49246694 -0.00326381 0.00000000
1.37554115 1.38576892 0.00147507 0.00000000
3.08353033 0.75887097 -0.00189224 0.00000000
2.71839010 0.28361706 -0.00228261 0.00000000
4.18488750 0.87984168 -0.00002035 0.00000000
1.46199503 0.13051922 0.00078288 0.00000000
1.45845420 1.73915822 0.00115732 0.00000000
0.92973935 1.14121049 -0.00362094 0.00000000
3.00267677 0.89375120 -0.00045224 0.00000000
1.95062444 1.71960034 -0.00111632 0.00000000
4.26990878 0.03168228 0.00197392 0.00000000
4.12930563 0.11900554 -0.00010907 0.00000000
1.16665395 0.81075440 0.00153344 0.00000000
0.84102338 0.71713292 0.00328461 0.00000000
1.96611007 0.58585265 0.00231974 0.00000000
1.17391142 1.34737274 -0.00483047 0.00000000
2.74395070 0.47340555 0.00851522 0.00000000
0.77234222 1.51675359 0.00317527 0.00000000
1.54652601 0.14903331 -0.00214298 0.00000000
2.89460582 1.03531140 0.00321035 0.00000000
1.36710639 0.55787920 -0.00174796 0.00000000
1.76413032 0.07194314 -0.00321801 0.00000000
2.37262951 1.29661147 0.00311725 0.00000000
2.78118384 0.62559340 0.00044933 0.00000000
3.36080001 0.11286101 0.00038887 0.00000000
2.24510869 0.35188040 0.00143341 0.00000000
0.23660309 1.92573817 -0.00170944 0.00000000
0.68608296 1.66702432 0.00155975 0.00000000
2.24751740 1.61527200 0.00189649 0.00000000
1.81663492 1.95696761 -0.00189340 0.00000000
2.89948709 1.55442851 0.00488873 0.00000000
1.14162298 0.60487445 -0.00030949 0.00000000
3.86662627 1.16203109 0.00079218 0.00000000
1.08540321 0.59835730 -0.00011544 0.00000000
0.64108618 1.39953803 0.00129613 0.00000000
3.90745450 1.92330101 -0.00094375 0.00000000
3.72200669 1.26518429 0.00131951 0.00000000
2.22806162 0.13694643 -0.00123237 0.00000000
1.26334058 0.20926931 -0.00143580 0.00000000
1.04944167 0.13405551 0.00084491 0.00000000
0.42703015 1.59319219 0.00246764 0.00000000
2.28523936 1.93431986 0.00290289 0.00000000
4.12212335 0.78105153 -0.00154845 0.00000000
2.51396616 2.01354375 -0.00209256 0.00000000
0.45300802 0.93491564 -0.00124981 0.00000000
2.12730376 1.23666338 -0.00393767 0.00000000
4.38500788 0.32202619 -0.00035759 0.00000000
1.54738174 0.53340453 0.00038982 0.00000000
1.23964486 0.22686862 0.00112489 0.00000000
0.96089580 0.60522515 0.00050605 0.00000000
4.03236337 1.76114665 -0.00307691 0.00000000
0.26054405 0.17964976 0.00392227 0.00000000
0.59214158 1.11630134 0.00228998 0.00000000
1.58603720 1.44659420 0.00249486 0.00000000
2.94295211 1.02012493 -0.00021457 0.00000000
3.10481011 0.88382957 -0.00144586 0.00000000
2.53325784 0.91953901 -0.00219303 0.00000000
0.12940878 0.52207798 0.00105678 0.00000000
0.80402514 0.89804226 -0.00181743 0.00000000
3.78033972 0.91579963 -0.00028121 0.00000000
0.99365969 1.62762893 0.00126389 0.00000000
2.45733632 0.89879894 0.00099029 0.00000000
4.07082928 0.01582320 0.00095588 0.00000000
2.81358566 1.05530799 0.00016190 0.00000000
2.32601482 0.39521707 -0.00200324 0.00000000
2.17279993 1.27524872 0.00577632 0.00000000
3.10563176 0.64713240 0.00488890 0.00000000
3.21168899 0.98885398 0.00213134 0.00000000
4.04822941 0.65997117 -0.00103739 0.00000000
2.43739351 1.88484296 0.00145905 0.00000000
3.44838628 0.52345788 -0.00270008 0.00000000
1.57299283 0.68186863 0.00385289 0.00000000
3.75263992 0.40914700 -0.00388065 0.00000000
4.38322797 0.01734155 0.00189424 0.00000000
4.36878590 0.79841381 0.00107451 0.00000000
1.75765521 0.69994445 0.00021677 0.00000000
0.93564081 0.74410035 0.00263538 0.00000000
3.61469761 1.36599833 -0.00098669 0.00000000
3.48007493 1.63909239 0.00241193 0.00000000
2.08190277 1.79973297 -0.00039769 0.00000000
1.55043024 0.01727941 -0.00022947 0.00000000
0.29218999 1.91429032 0.00078467 0.00000000
1.36791190 0.59771645 -0.00114378 0.00000000
3.26747750 1.70056009 -0.00442448 0.00000000
4.03839354 0.01190277 0.00128726 0.00000000
2.74336657 0.75937140 0.00271368 0.00000000
1.34131734 1.29131413 0.00276399 0.00000000
4.44525646 0.90277101 -0.00046034 0.00000000
1.84251891 1.80595920 0.00007003 0.00000000
2.97902341 0.60745383 0.00098348 0.00000000
1.67126931 1.48134362 -0.00209146 0.00000000
1.67671789 1.23680418 -0.00558246 0.00000000
1.05591486 1.81468396 0.00036921 0.00000000
3.24777324 0.40712707 0.00298076 0.00000000
4.14525228 0.28959079 -0.00064420 0.00000000
1.35138364 1.69210683 0.00310472 0.00000000
3.98547609 1.37222556 0.00321942 0.00000000
0.50548842 1.51918327 0.00022463 0.00000000
3.40068713 0.14136399 -0.00090336 0.00000000
2.06080225 0.18113681 -0.00380907 0.00000000
2.75903584 1.59002286 -0.00506582 0.00000000
0.15616346 1.68699426 0.00220863 0.00000000
2.72794428 0.29341633 0.00233866 0.00000000
1.91467857 0.55353836 -0.00140114 0.00000000
4.55230354 0.38130067 0.00208880 0.00000000
0.77799076 1.10719158 -0.00012840 0.00000000
4.32056344 0.27131363 -0.00145053 0.00000000
3.91537987 1.86417020 -0.00152424 0.00000000
1.84722367 1.43538947 -0.00367812 0.00000000
1.13339792 0.56929859 -0.00434267 0.00000000
2.32669424 0.80886812 -0.00021928 0.00000000
4.04185125 1.81748439 -0.00220396 0.00000000
3.74240081 1.18236455 0.00349913 0.00000000
1.52707883 1.76947021 -0.00015845 0.00000000
4.22928766 0.36148223 0.00169974 0.00000000
0.88093030 1.69823321 -0.00265044 0.00000000
1.17483587 0.46382022 -0.00097060 0.00000000
2.70713473 1.02780190 -0.00107474 0.00000000
3.50633047 1.54238267 0.00090191 0.00000000
1.76510267 1.68644096 0.00346580 0.00000000
3.63965265 1.17409631 0.00558816 0.00000000
1.72698456 0.84944573 0.00444360 0.00000000
3.29209321 1.70482832 0.00231645 0.00000000
1.46830999 0.38052993 0.00142708 0.00000000
1.76707620 1.49669220 0.00137066 0.00000000
3.74367451 0.80366833 -0.00066278 0.00000000
2.61995578 2.01514137 0.00055789 0.00000000
2.22600024 1.66294585 -0.00382883 0.00000000
0.37842039 1.96669596 0.00015023 0.00000000
4.21997292 1.33494773 0.00034715 0.00000000
4.58595121 0.26881351 0.00307277 0.00000000
1.27134637 0.59820239 0.00007915 0.00000000
0.20534036 0.51176214 0.00015519 0.00000000
1.31852784 2.00309687 -0.00224908 0.00000000
3.27542938 1.25197789 0.00258211 0.00000000
0.41080031 1.28503632 0.00000824 0.00000000
1.76899674 0.92523184 -0.00252402 0.00000000
1.92121357 0.26952028 -0.00148093 0.00000000
3.61747858 1.67692199 0.00400344 0.00000000
2.48138494 0.36009624 0.00267676 0.00000000
3.24068572 0.44677654 -0.00454613 0.00000000
2.34188670 1.71376373 -0.00220202 0.00000000
2.11209769 0.05945203 0.00282545 0.00000000
3.23654138 0.77709486 0.00212699 0.00000000
4.08342153 0.69162256 -0.00236556 0.00000000
1.93982494 1.63048711 0.00077513 0.00000000
0.76487409 1.25507304 0.00300797 0.00000000
1.61726738 1.62150188 -0.00466839 0.00000000
0.44280100 1.77751278 -0.00093285 0.00000000
1.47375515 1.15231898 0.00074010 0.00000000
2.04743960 1.51317679 -0.00305433 0.00000000
3.37491690 0.09998403 0.00102276 0.00000000
2.59214872 1.05947821 -0.00412624 0.00000000
2.63946734 0.37039281 -0.00196212 0.00000000
4.47441963 1.13026217 0.00066700 0.00000000
0.12610680 0.16956666 0.00198232 0.00000000
0.20465978 0.08688967 -0.00121207 0.00000000
1.98496289 0.39391214 -0.00040279 0.00000000
1.44138056 0.56275449 0.00139307 0.00000000
1.31195813 1.44757294 -0.00056544 0.00000000
3.90983542 1.37209057 -0.00173254 0.00000000
0.82883365 0.48310389 -0.00019381 0.00000000
1.77530530 0.95519907 0.00316766 0.00000000
2.37879954 1.48805057 0.00262762 0.00000000
2.46814663 1.93728857 0.00185625 0.00000000
0.07291960 1.57191576 -0.00009998 0.00000000
3.00392799 1.76033334 -0.00186907 0.00000000
2.36390008 0.12983057 -0.00303967 0.00000000
1.96016101 0.68731901 0.00300759 0.00000000
2.53141768 0.72822093 0.00430534 0.00000000
2.12822967 1.09832903 -0.00310517 0.00000000
2.88653073 0.76403129 0.00691791 0.00000000
3.90582895 1.69178184 0.00093819 0.00000000
0.61777979 0.01033967 0.00486009 0.00000000
0.37778461 1.69068374 0.00693343 0.00000000
4.33764015 1.89058332 0.00155619 0.00000000
2.98731493 1.78890998 0.00164301 0.00000000
2.87045479 0.59715644 -0.00096737 0.00000000
2.94968941 0.39074559 -0.00008743 0.00000000
3.47785746 1.75594819 0.00491505 0.00000000
4.40667003 1.98854431 -0.00017722 0.00000000
0.26011162 0.55575931 0.00442249 0.00000000
2.89398890 0.58527852 -0.00407434 0.00000000
4.13765725 1.88268431 0.00022350 0.00000000
0.95893454 1.75799177 -0.00031643 0.00000000
3.27549716 0.11327437 -0.00261873 0.00000000
3.92603014 1.10537832 -0.00296245 0.00000000
2.85224844 1.90168349 -0.00466542 0.00000000
0.12275616 0.83548135 -0.00193185 0.00000000
0.34229342 0.60711371 0.00132699 0.00000000
0.70081023 0.36952185 -0.00454911 0.00000000
2.34644942 0.79075452 -0.00196867 0.00000000
2.18034482 1.64855649 -0.00542001 0.00000000
3.80957420 0.16147076 0.00043819 0.00000000
3.76538225 1.29283857 -0.00128619 0.00000000
1.92687403 1.74899168 0.00140894 0.00000000
1.72002106 1.91378935 0.00041075 0.00000000
2.59445203 1.05330141 0.00434418 0.00000000
3.89760140 0.71665089 0.00007532 0.00000000
3.87484609 1.76903510 -0.00067155 0.00000000
3.12613174 0.24215001 -0.00220354 0.00000000
2.93120893 1.17345772 0.00286475 0.00000000
1.15376873 1.58273517 -0.00185813 0.00000000
2.67669551 1.62565509 0.00069011 0.00000000
0.96178083 0.57033809 -0.00158764 0.00000000
3.88654647 0.58018208 0.00293212 0.00000000
0.16914159 0.01067532 0.00277323 0.00000000
2.93401922 0.12072486 -0.00086105 0.00000000
0.25754865 0.48549086 0.00005146 0.00000000
2.22275767 1.92573252 0.00218846 0.00000000
3.25600845 0.05058650 0.00265231 0.00000000
2.74182317 0.63322332 0.00038242 0.00000000
4.06670014 1.41587305 -0.00104184 0.00000000
3.62590720 1.66107793 0.00141162 0.00000000
0.59993624 0.78988949 -0.00270331 0.00000000
0.49308604 1.58734543 -0.00025619 0.00000000
4.28126512 0.10045673 -0.00215319 0.00000000
2.73505865 0.78511015 -0.00129256 0.00000000
3.39675266 1.30562655 -0.00162860 0.00000000
4.21016261 0.20211600 0.00165185 0.00000000
0.43198229 0.23104779 0.00201790 0.00000000
3.94497565 0.30201291 0.00234219 0.00000000
3.84768969 0.92266358 -0.00170079 0.00000000
2.93309366 0.81421293 0.00422814 0.00000000
0.39215291 2.01025824 0.00308202 0.00000000
1.87353095 0.44762915 0.00249059 0.00000000
3.82095081 0.74823612 0.00120331 0.00000000
2.14753847 0.43459477 -0.00313091 0.00000000
0.24392425 1.75013321 0.00032406 0.00000000
1.72678382 0.56415783 0.00067783 0.00000000
1.69702031 1.55167911 -0.00067248 0.00000000
0.19929131 0.22000343 0.00189429 0.00000000
3.39854155 0.94422349 0.00049751 0.00000000
0.16295953 0.01152759 0.00327132 0.00000000
2.24953942 0.95853486 -0.00064553 0.00000000
4.43024648 1.97200932 -0.00220087 0.00000000
3.72149355 0.88769129 0.00447469 0.00000000
2.86408681 0.73801660 -0.00008590 0.00000000
2.25826167 0.89969996 -0.00001706 0.00000000
0.22137523 1.95427635 -0.00112328 0.00000000
0.52759842 0.01711441 -0.00106545 0.00000000
2.82318959 0.91596518 0.00304511 0.00000000
4.53680093 0.80673817 -0.00005376 0.00000000
4.09089693 0.48069861 0.00117287 0.00000000
1.05800100 1.76892628 0.00390162 0.00000000
0.83864916 0.55811191 0.00312416 0.00000000
2.12105273 0.87245953 0.00333687 0.00000000
3.49146339 0.26720922 -0.00078741 0.00000000
0.05246274 0.16265524 0.00200207 0.00000000
4.01892646 1.71163315 -0.00060140 0.00000000
2.89148183 0.08035198 -0.00056683 0.00000000
0.58220711 2.00279308 0.00045605 0.00000000
2.99733969 1.22662325 -0.00133296 0.00000000
3.92208406 0.38500082 0.00124833 0.00000000
4.24751172 1.94529167 -0.00718382 0.00000000
1.00095695 1.71498982 -0.00383835 0.00000000
3.42188720 0.31303187 0.00439419 0.00000000
0.45029486 1.59499727 -0.00321454 0.00000000
3.29321037 0.46264260 -0.00423768 0.00000000
1.54258350 0.08097861 -0.00458114 0.00000000
3.05075309 1.01465012 0.00358536 0.00000000
1.29476224 0.36360462 -0.00175903 0.00000000
1.91448148 1.94102786 -0.00326896 0.00000000
2.41405544 1.55462465 0.00474388 0.00000000
0.69349578 0.69763392 -0.00362170 0.00000000
4.37742243 1.08864549 0.00031693 0.00000000
4.33368886 0.01976620 -0.00202809 0.00000000
1.54419334 1.82459596 -0.00294497 0.00000000
2.58007779 0.95349159 -0.00112832 0.00000000
0.57307196 0.42691268 0.00245748 0.00000000
1.72902856 1.79217411 0.00248586 0.00000000
3.97851569 1.02388420 -0.00147221 0.00000000
1.47987006 0.70646552 -0.00195527 0.00000000
1.09416348 0.39225097 -0.00227858 0.00000000
3.26010172 0.18305039 0.00265927 0.00000000
4.33378930 0.80962775 -0.00264096 0.00000000
3.76873667 0.12765178 0.00689936 0.00000000
2.82181375 1.38069346 -0.00189941 0.00000000
0.56233086 1.56146333 0.00197629 0.00000000
1.65321389 0.10863285 -0.00647534 0.00000000
2.60662702 0.92446598 -0.00302800 0.00000000
3.52476995 1.25840460 -0.00041303 0.00000000
3.48845606 1.90104896 0.00033717 0.00000000
0.51067324 0.05229979 -0.00104259 0.00000000
2.19580767 0.01736931 -0.00114233 0.00000000
4.55382177 0.24665067 0.00129101 0.00000000
2.94376755 0.38300227 -0.00158687 0.00000000
1.24802215 0.05370594 -0.00102871 0.00000000
1.49544580 0.55735350 0.00009822 0.00000000
2.65825214 0.02042580 -0.00009671 0.00000000
2.92150425 1.20122786 -0.00743989 0.00000000
3.96395120 0.11151961 0.00024863 0.00000000
2.95702787 1.76918793 0.00220293 0.00000000
0.23153481 1.04673867 0.00213206 0.00000000
1.78793878 1.64443201 0.00354729 0.00000000
2.63891811 1.62724932 0.00179744 0.00000000
1.69996531 0.28192348 -0.00201472 0.00000000
2.70264528 1.31391068 -0.00148109 0.00000000
2.23813977 1.66535709 -0.00429135 0.00000000
0.45085985 0.34682734 0.00061422 0.00000000
4.06889039 1.13786881 0.00020344 0.00000000
2.99005183 1.25479284 0.00273536 0.00000000
2.82950708 1.61014093 -0.00095698 0.00000000
3.56635848 0.36911419 0.00470391 0.00000000
0.67547350 0.11764897 0.00115799 0.00000000
1.49517882 1.39657719 -0.00259702 0.00000000
0.48121216 1.41175334 0.00090444 0.00000000
3.04362795 0.37256375 0.00102131 0.00000000
4.56902713 1.11152901 -0.00155321 0.00000000
3.73091927 0.95420700 -0.00422135 0.00000000
1.88487782 0.49971540 0.00154586 0.00000000
0.00089550 0.50786828 0.00167110 0.00000000
1.64790736 1.76161733 -0.00129758 0.00000000
3.46970030 0.50634573 0.00218228 0.00000000
0.05136812 0.48413795 -0.00044984 0.00000000
2.58473781 0.03464910 0.00271290 0.00000000
3.88174134 0.86170132 0.00279469 0.00000000
0.53612782 0.98441798 -0.00352899 0.00000000
2.31851261 0.65820726 0.00078697 0.00000000
2.30923876 1.34745198 -0.00183276 0.00000000
0.23637983 0.93758707 -0.00379153 0.00000000
0.12970195 0.87388284 0.00134209 0.00000000
1.39217616 1.05036671 -0.00432230 0.00000000
0.36714364 1.40288278 -0.00382126 0.00000000
0.69849081 1.65018148 0.00074118 0.00000000
0.94741511 0.15736552 -0.00129084 0.00000000
2.21043529 1.28113874 -0.00240891 0.00000000
0.26781488 0.84663761 -0.00185246 0.00000000
0.61753850 1.91174060 -0.00044380 0.00000000
0.23182949 0.09427443 0.00456306 0.00000000
1.99927822 2.01465965 0.00021150 0.00000000
1.24212754 2.01066985 0.00140502 0.00000000
3.45875394 1.67682987 -0.00610603 0.00000000
2.43176933 1.96664996 0.00166677 0.00000000
1.89236652 0.44555470 0.00229460 0.00000000
4.53117484 0.81606462 0.00446184 0.00000000
0.38681225 0.37138542 0.00075279 0.00000000
4.06498311 1.35960696 -0.00104559 0.00000000
2.73880736 1.98060695 0.00003451 0.00000000
1.31451976 0.94338230 -0.00142611 0.00000000
4.41911498 1.57715173 -0.00204826 0.00000000
3.30618681 1.38530207 -0.00360059 0.00000000
3.21742217 0.74192166 -0.00088699 0.00000000
2.97242782 0.90797311 0.00049715 0.00000000
0.26554423 2.00725866 -0.00086551 0.00000000
1.39252395 1.46310944 0.00030739 0.00000000
1.70417633 0.33863654 -0.00210448 0.00000000
2.29459847 0.25651272 -0.00241186 0.00000000
4.04396926 1.87414834 0.00258381 0.00000000
2.44184408 0.39653044 -0.00186136 0.00000000
0.45007649 0.39672433 0.00027253 0.00000000
0.94036575 1.63016612 0.00293616 0.00000000
0.23674860 1.47008959 0.00301475 0.00000000
0.98067200 1.65573751 0.00029036 0.00000000
0.45798073 1.47917139 -0.00127293 0.00000000
3.00466458 0.32997002 -0.00053819 0.00000000
3.13282325 0.71104986 -0.00425006 0.00000000
1.69093324 0.41299626 -0.00180425 0.00000000
0.77185660 1.42419224 -0.00250847 0.00000000
0.21649232 0.93025242 -0.00126959 0.00000000
4.46153606 1.77363409 -0.00015109 0.00000000
1.54617235 1.53337453 -0.00184901 0.00000000
1.40209413 1.44441291 0.00120590 0.00000000
1.39461654 0.60279260 0.00158432 0.00000000
1.38819416 0.94257501 -0.00048755 0.00000000
0.47772331 0.96797550 0.00329263 0.00000000
4.31862761 1.24410264 -0.00228567 0.00000000
2.24693553 1.72894811 0.00019926 0.00000000
3.18569083 0.84157082 -0.00018980 0.00000000
1.34732572 1.28640438 0.00157800 0.00000000
1.16832219 0.09275149 0.00393830 0.00000000
2.37010948 1.06555798 -0.00145963 0.00000000
0.03982051 1.68686444 -0.00290594 0.00000000
2.06272072 1.95336709 -0.00114237 0.00000000
4.21118113 0.90403474 0.00148467 0.00000000
4.25730390 0.34042834 0.00016220 0.00000000
1.44320747 0.51995956 -0.00139922 0.00000000
3.98749963 1.80110608 0.00096343 0.00000000
0.21091086 0.38618421 -0.00053269 0.00000000
2.29561718 0.50422390 -0.00016554 0.00000000
3.76389470 1.76512693 0.00462331 0.00000000
2.17796751 0.59141188 0.00288472 0.00000000
2.37572988 0.16156896 -0.00246149 0.00000000
0.18633332 1.68359138 -0.00219161 0.00000000
0.38933036 1.12735812 0.00198009 0.00000000
1.71152018 0.78248460 -0.00028697 0.00000000
3.41328833 0.10898522 0.00269347 0.00000000
0.15266980 1.91075121 -0.00297895 0.00000000
4.43055898 1.26027786 0.00469801 0.00000000
0.01947109 1.81208199 0.00043085 0.00000000
2.69492696 1.98580615 -0.00087148 0.00000000
4.46741312 1.17178031 -0.00241668 0.00000000
0.86518639 0.16303457 0.00238898 0.00000000
3.08210079 0.69709126 -0.00218578 0.00000000
0.26062551 0.21823889 -0.00263868 0.00000000
3.74453452 0.51865413 0.00102170 0.00000000
4.50165095 0.20546447 -0.00202348 0.00000000
2.14059429 0.08757381 -0.00094605 0.00000000
2.96423206 1.60599133 -0.00403005 0.00000000
3.62522584 1.38757059 -0.00081975 0.00000000
4.15867027 0.51952337 0.00017466 0.00000000
3.69554429 0.58199283 0.00245365 0.00000000
1.54152322 0.66009268 0.00083602 0.00000000
2.58265441 0.35981465 -0.00307975 0.00000000
2.75418863 0.49921261 -0.00209062 0.00000000
1.01791815 1.65791338 -0.00432335 0.00000000
1.37220091 0.30502383 -0.00268093 0.00000000
3.80711133 1.34875034 0.00353886 0.00000000
3.62650560 0.57530149 -0.00393039 0.00000000
4.58566860 1.33911076 -0.00089617 0.00000000
1.05134342 0.48168194 -0.00044111 0.00000000
4.27611167 1.83918210 -0.00078178 0.00000000
0.50970172 1.05406313 -0.00228274 0.00000000
2.73527757 0.92636479 0.00179089 0.00000000
3.41390591 0.17149326 -0.00199939 0.00000000
1.57567223 0.75789790 -0.00011493 0.00000000
2.41977788 1.59498598 -0.00496909 0.00000000
3.70842099 0.53788131 0.00441677 0.00000000
1.64729669 1.68341302 0.00016732 0.00000000
2.04582488 1.60543323 0.00165247 0.00000000
1.06917669 1.33011602 0.00106621 0.00000000
4.00743619 1.54273414 -0.00023440 0.00000000
2.73015826 0.03278001 0.00295715 0.00000000
1.87831755 0.37791842 0.00338216 0.00000000
4.58591750 0.49494927 0.00200117 0.00000000
0.71887267 1.95270690 0.00213465 0.00000000
1.24220327 0.63957647 0.00089759 0.00000000
1.56791445 1.95104142 0.00412862 0.00000000
0.79982605 1.06322808 -0.00014737 0.00000000
1.66796686 1.05732505 -0.00084337 0.00000000
0.45365456 1.06052648 0.00054566 0.00000000
4.29892209 0.10091214 -0.00439150 0.00000000
2.12775029 1.02995525 0.00167413 0.00000000
1.64359626 1.42861731 0.00320869 0.00000000
4.58042592 0.07869379 0.00430018 0.00000000
0.34724729 1.70429148 0.00048154 0.00000000
2.52690077 1.09602757 -0.00011033 0.00000000
0.04408543 0.48708662 -0.00233763 0.00000000
2.67986763 1.67779472 -0.00049911 0.00000000
4.10094585 1.26176795 0.00011100 0.00000000
2.09578910 0.03200323 -0.00021360 0.00000000
3.45322493 1.80101986 -0.00019351 0.00000000
2.22496396 1.06310974 -0.00203034 0.00000000
2.19799334 1.42454029 0.00242162 0.00000000
3.80140466 0.96703519 -0.00328174 0.00000000
3.17348196 1.62573480 -0.00138775 0.00000000
4.23533662 1.06742431 0.00010592 0.00000000
3.17051475 0.92896078 -0.00190305 0.00000000
0.25030232 1.42067564 -0.00016997 0.00000000
2.30409425 1.23193358 -0.00137106 0.00000000
4.17349101 0.19858948 -0.00007353 0.00000000
1.61013887 0.79711754 0.00178091 0.00000000
3.80439655 1.56418483 -0.00201070 0.00000000
0.22411614 0.07146200 0.00115402 0.00000000
1.86056937 1.91291780 0.00105398 0.00000000
3.48254459 1.11885474 -0.00073670 0.00000000
2.36788573 1.23130530 -0.00240181 0.00000000
2.94238992 0.93469848 -0.00401041 0.00000000
2.32854563 1.75097385 0.00114814 0.00000000
0.50985638 1.92604657 0.00127454 0.00000000
1.13460237 1.24930434 -0.00486198 0.00000000
4.09168244 0.56697840 0.00385465 0.00000000
4.27116156 0.62384876 0.00358822 0.00000000
3.23079980 0.86738813 0.00053610 0.00000000
3.65665559 0.09913343 -0.00005700 0.00000000
2.01640512 0.64489928 -0.00215617 0.00000000
4.10874356 1.36974223 -0.00368535 0.00000000
4.35021906 0.63391625 -0.00426562 0.00000000
2.59892980 1.13681009 -0.00314770 0.00000000
4.49530293 0.26213820 0.00053116 0.00000000
2.82252586 1.80726582 0.00154077 0.00000000
2.71139028 0.07873192 0.00181931 0.00000000
2.45766535 1.38213285 0.00412466 0.00000000
4.36828150 1.16081594 0.00315444 0.00000000
0.46795037 0.08381804 0.00465162 0.00000000
0.35245714 1.27910270 0.00095136 0.00000000
2.71589982 0.41824823 -0.00001468 0.00000000
3.49347154 1.13820814 -0.00026109 0.00000000
4.53397395 1.96768543 0.00184684 0.00000000
3.65213949 0.07500611 0.00036515 0.00000000
3.10042268 0.45005270 -0.00267480 0.00000000
4.08156394 1.01092829 0.00514524 0.00000000
1.78257102 1.37776834 0.00335974 0.00000000
2.96507706 1.64486453 0.00124509 0.00000000
3.63753367 0.46531051 0.00294421 0.00000000
3.93177159 0.96962374 -0.00094846 0.00000000
3.30139164 1.65975821 0.00190629 0.00000000
0.69256271 0.74163789 -0.00425305 0.00000000
3.29503770 1.67721174 -0.00118995 0.00000000
0.84285970 0.70865120 0.00146224 0.00000000
3.90562250 0.91323048 -0.00156427 0.00000000
1.63854088 0.05600891 0.00028513 0.00000000
1.52155561 1.94595496 -0.00176686 0.00000000
2.28305326 1.05274505 -0.00141742 0.00000000
1.89994256 0.05072068 0.00201367 0.00000000
3.64270277 0.28515739 -0.00315361 0.00000000
0.02617454 1.41313594 -0.00272510 0.00000000
4.20405797 1.74940206 0.00354025 0.00000000
0.39758533 1.40133570 -0.00415501 0.00000000
2.98131768 0.76858774 0.00123066 0.00000000
2.76134378 0.49639795 -0.00442426 0.00000000
1.38233532 0.81232854 0.00151776 0.00000000
0.33643199 0.70207472 -0.00233151 0.00000000
4.52670837 1.72542405 -0.00109229 0.00000000
3.54504350 0.97717223 -0.00255284 0.00000000
3.13181343 0.15715602 0.00091245 0.00000000
2.00900123 1.04388263 0.00002854 0.00000000
3.72065387 0.70533561 -0.00326023 0.00000000
4.49879832 0.78722312 -0.00394878 0.00000000
0.08296713 0.93911291 -0.00064095 0.00000000
3.01462633 1.13066115 0.00245953 0.00000000
3.48909099 0.40904389 0.00361032 0.00000000
1.51827871 1.79143932 0.00114360 0.00000000
3.24175362 1.20795664 -0.00053980 0.00000000
3.90988991 1.41598950 -0.00106383 0.00000000
2.40441786 0.75740551 0.00112625 0.00000000
3.22346490 0.91972248 0.00014024 0.00000000
1.47817611 0.34549811 0.00001190 0.00000000
2.61748919 1.92237125 -0.00157976 0.00000000
3.84945959 1.91788311 0.00084112 0.00000000
3.38834607 1.03695654 -0.00226172 0.00000000
2.22043233 1.33543451 -0.00114504 0.00000000
2.59572231 0.81084265 0.00251648 0.00000000
4.19554227 1.74467006 -0.00001278 0.00000000
3.08242524 1.08524002 -0.00289093 0.00000000
3.63574689 1.93630874 -0.00283545 0.00000000
2.96366163 0.54248322 0.00423100 0.00000000
0.40627861 1.13350175 -0.00098570 0.00000000
2.54370065 1.53051806 -0.00306054 0.00000000
1.50015536 1.65123539 0.00007288 0.00000000
1.77453000 1.95128610 -0.00170161 0.00000000
1.29664578 0.23313137 0.00042239 0.00000000
1.15213467 1.48426751 0.00020961 0.00000000
1.70341360 1.67297919 -0.00198304 0.00000000
0.82134103 0.51334188 0.00246226 0.00000000
0.56829866 0.34535131 0.00105169 0.00000000
3.61345574 1.98397645 0.00353786 0.00000000
4.30359969 1.17568372 -0.00027924 0.00000000
1.78682434 0.09678867 0.00092893 0.00000000
2.94026895 0.36192419 -0.00406459 0.00000000
4.31256742 1.00949453 -0.00392213 0.00000000
0.63444097 1.79794502 0.00340746 0.00000000
3.94078221 1.00468579 0.00641569 0.00000000
1.44630757 0.55686202 -0.00038493 0.00000000
1.48116997 0.92989474 0.00306013 0.00000000
3.81170430 0.21783134 -0.00000790 0.00000000
1.16432733 1.06833387 0.00194043 0.00000000
2.31045638 0.66128781 -0.00054266 0.00000000
2.95325767 1.22937791 0.00038985 0.00000000
2.13708237 0.45839996 -0.00115587 0.00000000
0.12672458 0.62941019 0.00471832 0.00000000
1.61371450 0.96003818 -0.00494230 0.00000000
0.75667711 0.25036005 0.00263274 0.00000000
1.92777898 0.03824732 0.00302217 0.00000000
4.09148052 1.14484125 0.00167978 0.00000000
0.57851306 1.66183571 0.00065593 0.00000000
0.91721638 1.62472386 0.00378005 0.00000000
3.60349945 1.64163321 0.00236070 0.00000000
0.35688402 0.44741341 0.00608475 0.00000000
4.11638617 1.61073111 0.00093253 0.00000000
0.28901728 0.55630756 0.00339881 0.00000000
2.64002512 0.19905184 0.00213690 0.00000000
4.41887372 0.68036843 -0.00027819 0.00000000
0.13623259 1.87758996 0.00215470 0.00000000
2.12421982 0.07247771 -0.00154820 0.00000000
1.92541547 0.23204717 -0.00357923 0.00000000
1.45308554 1.84103370 0.00228460 0.00000000
2.68250901 0.25006124 -0.00180485 0.00000000
0.62757807 0.06308598 0.00495714 0.00000000
2.65078720 0.32331423 -0.00168588 0.00000000
0.84660994 0.86741284 -0.00301297 0.00000000
0.51228448 1.39902054 0.00012215 0.00000000
2.24755549 1.73051119 0.00235887 0.00000000
1.25446103 0.96871735 -0.00101002 0.00000000
1.20710281 0.85116412 -0.00431207 0.00000000
2.36681503 1.99256275 -0.00185802 0.00000000
0.14669346 1.49993491 0.00597900 0.00000000
0.48972391 0.00731185 0.00093759 0.00000000
3.42580937 0.82500171 0.00698706 0.00000000
0.66947860 0.77546468 0.00040973 0.00000000
2.07478808 1.22434572 -0.00396098 0.00000000
2.26175162 0.29469318 0.00379405 0.00000000
1.68245778 0.61939288 -0.00128521 0.00000000
2.28331689 0.49010830 -0.00400581 0.00000000
1.65767788 0.23580721 -0.00125253 0.00000000
0.11394395 1.41691837 0.00249272 0.00000000
1.92935359 0.17287517 0.00169303 0.00000000
0.20792836 1.88882980 -0.00519244 0.00000000
1.94942164 0.98592969 0.00078068 0.00000000
0.72258914 0.03744727 -0.00249654 0.00000000
4.56238704 0.79611229 -0.00177525 0.00000000
0.69924626 0.12941190 -0.00480625 0.00000000
2.23928823 0.36224089 0.00373880 0.00000000
2.40029584 0.14340327 0.00078223 0.00000000
1.33772243 0.98605456 0.00027248 0.00000000
0.96006140 1.97414981 0.00035346 0.00000000
3.49794208 1.14243726 -0.00274967 0.00000000
1.25185629 0.55093950 0.00609149 0.00000000
1.58481082 0.33761696 -0.00191986 0.00000000
0.91923624 0.22348088 -0.00169905 0.00000000
4.42296359 0.61726858 -0.00236631 0.00000000
3.72942472 1.93022012 0.00225587 0.00000000
1.79530965 1.03883118 -0.00229130 0.00000000
1.75611222 1.82603788 -0.00160658 0.00000000
3.52974959 0.51329195 0.00091956 0.00000000
1.08690917 1.11380603 -0.00227028 0.00000000
3.15803252 0.09872168 0.00112334 0.00000000
2.73715989 1.84935609 0.00031962 0.00000000
2.85600446 1.97082195 0.00109664 0.00000000
3.94655815 1.56567344 -0.00103104 0.00000000
0.47305500 0.08825554 0.00018879 0.00000000
3.33849518 0.37398783 0.00197998 0.00000000
3.79296043 0.50110423 -0.00262712 0.00000000
1.74535964 0.84888682 0.00090375 0.00000000
0.02158577 0.82192576 0.00289456 0.00000000
1.54975477 0.72852147 -0.00288905 0.00000000
0.17072550 0.53713177 -0.00230043 0.00000000
1.33459703 1.86710235 0.00209449 0.00000000
3.56217977 0.04745598 -0.00068811 0.00000000
0.40819859 1.77746991 -0.00309427 0.00000000
2.12891142 1.37080353 -0.00076990 0.00000000
1.32561335 0.32876323 -0.00183907 0.00000000
0.78834598 1.44032739 -0.00002468 0.00000000
3.46694785 1.08523830 0.00107864 0.00000000
2.37354108 1.88842236 -0.00210075 0.00000000
4.24448259 1.31358412 -0.00282379 0.00000000
2.98396905 0.02105692 0.00050933 0.00000000
3.70325869 0.74685609 -0.00281109 0.00000000
0.42627428 0.75875670 -0.00012656 0.00000000
4.23160027 0.94371610 0.00495086 0.00000000
2.24721270 0.57879288 -0.00160416 0.00000000
0.66417490 1.85036011 0.00056730 0.00000000
4.48351756 1.01691071 0.00168702 0.00000000
2.90796081 1.67434430 -0.00397548 0.00000000
1.57033887 0.01376842 0.00241727 0.00000000
0.72098476 0.00407232 0.00097851 0.00000000
0.63240290 0.83692427 0.00137756 0.00000000
4.35483911 1.30407054 0.00130292 0.00000000
2.59731260 1.80658193 0.00148296 0.00000000
2.41978371 1.54782915 -0.00047196 0.00000000
0.05723474 0.07862932 -0.00129304 0.00000000
2.19123055 0.15181680 0.00107888 0.00000000
0.63714532 0.91129489 -0.00150593 0.00000000
2.08108317 1.58424671 -0.00012612 0.00000000
2.45883902 0.94985316 -0.00058822 0.00000000
0.21937673 1.75122995 0.00174320 0.00000000
3.58186274 1.76285334 0.00303852 0.00000000
1.67863774 0.71880187 0.00030410 0.00000000
0.33332563 0.28444128 0.00515655 0.00000000
1.23561295 0.82317530 -0.00096797 0.00000000
2.16750068 0.98709617 0.00242754 0.00000000
1.30838188 0.65480967 -0.00325680 0.00000000
1.97457051 2.00090717 0.00126882 0.00000000
0.04572165 1.57512176 -0.00205377 0.00000000
3.55609386 0.10616300 0.00014967 0.00000000
1.39385996 0.28261453 0.00121634 0.00000000
1.32391258 0.00113045 0.00267218 1.00000000
1.23297384 0.00270388 -0.00225090 1.00000000
1.63077237 0.00609202 0.00105523 1.00000000
2.08944228 -0.00032573 0.00106866 1.00000000
0.45660302 0.00089224 0.00150619 1.00000000
4.01490108 0.00655666 -0.00254314 1.00000000
0.82413832 0.00068313 -0.00095970 1.00000000
2.00368811 -0.00134414 -0.00182695 1.00000000
2.87853084 0.00270936 0.00206814 1.00000000
3.01890474 0.00005938 0.00102830 1.00000000
4.13812851 -0.00085556 0.00341980 1.00000000
0.72526652 -0.00365420 0.00036312 1.00000000
0.21158183 0.00167320 -0.00278462 1.00000000
4.29869189 -0.00136147 -0.00019862 1.00000000
4.37544371 -0.00064837 -0.00083985 1.00000000
0.36123726 -0.00004995 -0.00128400 1.00000000
0.04872662 -0.00244136 0.00190944 1.00000000
3.83612494 0.00274858 0.00247333 1.00000000
