1.17972561 1.05084618 -0.00569368 0.00000000
4.24050879 0.71386653 0.00099135 0.00000000
0.14925807 0.52698667 0.00211376 0.00000000
2.37319144 0.55323002 0.00375150 0.00000000
4.84142973 0.01493170 0.00428879 0.00000000
1.31497224 0.76144525 -0.00044020 0.00000000
4.01190623 1.02945192 0.00231240 0.00000000
0.03573755 0.93764262 -0.00300790 0.00000000
4.37008540 1.18465729 -0.00214369 0.00000000
2.82754400 1.40128399 0.00145609 0.00000000
2.47712588 0.08042100 -0.00154613 0.00000000
0.32114292 0.12688821 -0.00060850 0.00000000
2.78053566 0.64753412 -0.00050560 0.00000000
0.41148058 0.00289313 -0.00043233 0.00000000
3.07279363 1.63452766 0.00181363 0.00000000
1.10579166 1.52117975 -0.00083017 0.00000000
2.83192230 0.31714628 -0.00246377 0.00000000
4.86023178 0.49473909 -0.00472088 0.00000000
0.84015686 1.14582791 0.00457451 0.00000000
4.46480212 0.74132878 0.00120106 0.00000000
0.72797061 0.53853656 -0.00061516 0.00000000
1.94216700 0.67685520 0.00050893 0.00000000
3.52295563 0.05285458 0.00561091 0.00000000
1.88707295 0.50768593 -0.00108094 0.00000000
1.42691033 1.53741876 0.00342766 0.00000000
2.38332037 0.41480528 -0.00309408 0.00000000
1.98031512 0.29005550 -0.00399742 0.00000000
0.07339314 1.54263067 -0.00134037 0.00000000
3.00086864 0.15023284 -0.00105995 0.00000000
1.16302837 0.06344221 0.00106014 0.00000000
4.53631456 0.71367923 -0.00159322 0.00000000
2.70813297 0.11539381 0.00094941 0.00000000
3.77791121 0.05063289 -0.00051562 0.00000000
1.53437304 0.55054343 -0.00208656 0.00000000
1.51699536 0.60400405 0.00233499 0.00000000
1.99547026 0.46367674 0.00195930 0.00000000
1.41941908 1.45626850 0.00168027 0.00000000
4.83533213 1.25209660 0.00584074 0.00000000
2.11953005 1.45233720 0.00109882 0.00000000
0.83715413 0.44959543 0.00138782 0.00000000
3.48682715 1.44376033 -0.00096887 0.00000000
4.29930429 1.42709905 -0.00099627 0.00000000
0.83978328 0.88729636 -0.00080421 0.00000000
3.90238962 1.35888868 0.00310777 0.00000000
1.21057624 0.82989225 0.00406014 0.00000000
2.36416941 0.53880470 0.00515862 0.00000000
0.46733409 0.20390838 -0.00031597 0.00000000
1.41526918 1.08909308 -0.00264882 0.00000000
4.24095146 1.05316489 0.00161734 0.00000000
4.86057748 1.54761865 0.00345295 0.00000000
1.97217430 0.43365970 0.00453003 0.00000000
4.57704899 1.11800183 -0.00135181 0.00000000
3.29342267 0.39466741 0.00055988 0.00000000
1.56414062 1.08865289 -0.00261540 0.00000000
1.76204160 0.56776125 0.00107639 0.00000000
3.66159948 1.03024609 0.00043828 0.00000000
4.83479085 0.35160889 -0.00304416 0.00000000
2.69058860 0.39670526 0.00020792 0.00000000
3.14151438 1.11320226 -0.00290806 0.00000000
0.12223719 0.99705171 -0.00153270 0.00000000
3.64583462 0.64808830 0.00004686 0.00000000
3.14568294 0.63618909 -0.00076829 0.00000000
3.33458855 0.34651672 0.00247700 0.00000000
0.26579026 0.66729609 0.00090651 0.00000000
4.13870735 1.59930351 -0.00400309 0.00000000
1.33247108 1.06849538 -0.00173368 0.00000000
4.74128122 0.24768408 -0.00617026 0.00000000
2.32713731 1.65359718 -0.00087551 0.00000000
3.43385166 1.47173171 0.00357739 0.00000000
4.85712209 1.03147951 -0.00055735 0.00000000
3.63432850 1.29159009 0.00024604 0.00000000
1.98379744 0.45268792 0.00300493 0.00000000
3.01520634 1.34484556 -0.00198271 0.00000000
4.75529900 0.08809473 -0.00008464 0.00000000
0.34587363 0.79688880 -0.00204725 0.00000000
2.63932990 0.75115112 0.00186181 0.00000000
0.27238820 0.78900278 -0.00007482 0.00000000
1.63450276 0.37716928 0.00102954 0.00000000
2.02345798 0.02829016 0.00108757 0.00000000
2.51031349 0.19722444 0.00254087 0.00000000
1.69700788 1.46035810 0.00146829 0.00000000
4.17966585 1.48432040 0.00467083 0.00000000
4.85904714 0.82026721 0.00404540 0.00000000
2.71798905 1.08455032 0.00036150 0.00000000
4.06660593 0.40750272 -0.00483688 0.00000000
1.79349615 0.68658993 0.00093395 0.00000000
3.50467134 1.25404326 -0.00571813 0.00000000
4.59722617 0.10748739 0.00204342 0.00000000
1.99502035 0.68599440 -0.00294183 0.00000000
3.01924412 0.94399402 0.00485480 0.00000000
1.06490527 0.59462110 0.00083994 0.00000000
2.66454649 1.18324602 0.00347934 0.00000000
0.21009926 1.17119929 0.00167459 0.00000000
0.19687598 0.73867935 0.00008159 0.00000000
2.12518137 1.04808607 -0.00401804 0.00000000
4.27874551 0.94042513 0.00214212 0.00000000
4.10609996 1.04438128 0.00058721 0.00000000
0.82054277 0.71852564 0.00103412 0.00000000
3.94872739 0.01449243 0.00334512 0.00000000
0.40469162 0.03490387 0.00071078 0.00000000
1.73155702 0.39615458 0.00070456 0.00000000
1.23225760 1.45358770 -0.00061923 0.00000000
1.48817270 1.49996541 -0.00216927 0.00000000
2.37371915 0.61079922 0.00003721 0.00000000
2.94462732 0.46875000 -0.00199978 0.00000000
2.44284913 0.01860912 0.00402991 0.00000000
1.46414112 0.53681633 -0.00407765 0.00000000
4.17876262 1.02810609 0.00094606 0.00000000
3.31608335 0.03479538 -0.00021285 0.00000000
0.38760605 0.07809557 -0.00291144 0.00000000
4.78533761 0.23337125 0.00175370 0.00000000
4.37109427 1.30144307 0.00194056 0.00000000
3.13518589 0.20604004 0.00021088 0.00000000
0.58936652 1.59825851 -0.00202031 0.00000000
4.21153607 1.61993618 -0.00344563 0.00000000
1.62666970 1.06574443 0.00365202 0.00000000
3.61648751 1.11491669 -0.00215290 0.00000000
4.28408269 1.19893339 0.00267765 0.00000000
3.79745924 0.41101690 0.00195240 0.00000000
3.94874062 1.08326593 -0.00279826 0.00000000
4.34171116 1.57800557 -0.00072762 0.00000000
0.79147976 1.46531934 -0.00091899 0.00000000
0.54960229 1.16703233 -0.00228291 0.00000000
3.41082779 0.95734702 0.00594055 0.00000000
2.13518335 1.05582334 0.00192417 0.00000000
1.72876290 0.43345906 0.00665930 0.00000000
3.99103576 0.34726196 -0.00062885 0.00000000
3.11697957 1.42644427 0.00165009 0.00000000
2.60212938 0.48225032 0.00046954 0.00000000
3.41012633 0.89555854 -0.00028587 0.00000000
3.18006384 0.37091720 0.00230873 0.00000000
1.89142742 0.48695389 -0.00328843 0.00000000
0.61670038 1.04168029 0.00255859 0.00000000
2.91001340 0.61913164 -0.00487082 0.00000000
3.70905083 1.28662455 -0.00375911 0.00000000
1.37360335 0.33281776 0.00523485 0.00000000
0.56288472 0.29595696 0.00242130 0.00000000
3.53224614 0.59678508 -0.00117958 0.00000000
2.07924135 0.74102919 -0.00076586 0.00000000
4.44638300 0.50385438 0.00179745 0.00000000
1.15428252 1.26472899 -0.00297347 0.00000000
4.40476789 1.62594674 0.00249312 0.00000000
4.12844506 1.34816907 0.00228863 0.00000000
3.72071490 1.59922000 -0.00139247 0.00000000
2.57016517 1.38739842 -0.00127181 0.00000000
4.85789848 1.07072737 -0.00294929 0.00000000
1.47542449 1.07508342 0.00208050 0.00000000
4.63616751 0.48275303 0.00094277 0.00000000
1.84899540 0.52096571 -0.00600032 0.00000000
1.31651807 0.09111799 -0.00313166 0.00000000
2.10969487 0.47479473 -0.00188308 0.00000000
3.30243122 1.27307072 0.00052038 0.00000000
2.65335394 0.89958135 -0.00018209 0.00000000
2.45344443 1.62923782 -0.00341371 0.00000000
1.97790508 0.32553000 0.00166122 0.00000000
3.53782519 0.45218418 -0.00219977 0.00000000
2.76482603 1.23277921 0.00316313 0.00000000
1.11592495 0.04235778 -0.00330678 0.00000000
3.98924921 1.23100204 0.00144954 0.00000000
0.09952978 0.25016681 -0.00094381 0.00000000
2.17113684 1.38421781 0.00187017 0.00000000
1.44704993 0.96830826 -0.00188338 0.00000000
4.35191801 0.48271369 0.00017644 0.00000000
4.57786304 1.63060518 -0.00628252 0.00000000
4.15730763 0.55132531 -0.00071867 0.00000000
2.40913343 0.11136035 0.00497903 0.00000000
3.97446814 0.67378216 0.00043389 0.00000000
4.27666307 0.56498705 -0.00005829 0.00000000
0.45801325 1.06959967 0.00485102 0.00000000
3.26887994 0.71352527 0.00219285 0.00000000
1.86520815 1.02395003 -0.00345931 0.00000000
3.90189978 0.57021925 -0.00152968 0.00000000
4.04302382 0.32494299 -0.00048217 0.00000000
0.84115748 1.37636097 0.00128050 0.00000000
4.52814717 0.94655268 0.00236840 0.00000000
4.87101973 0.95419752 -0.00347356 0.00000000
3.84641474 1.43862045 -0.00155812 0.00000000
4.15076863 1.50638573 -0.00148363 0.00000000
3.51421716 0.38737572 0.00112043 0.00000000
1.97852239 1.37342921 0.00080359 0.00000000
3.17238875 0.85157432 -0.00443491 0.00000000
1.20465650 1.46340613 0.00368139 0.00000000
3.05287571 0.67734167 -0.00225633 0.00000000
0.08845460 0.82015749 -0.00637871 0.00000000
4.65160252 1.00472605 -0.00033879 0.00000000
2.27043027 0.52845770 0.00372058 0.00000000
4.02777663 0.92080662 0.00286485 0.00000000
2.62959406 0.12404731 0.00379482 0.00000000
2.59987480 1.39009865 -0.00257609 0.00000000
0.89263928 0.61351089 -0.00035687 0.00000000
1.38961533 0.44943583 -0.00040269 0.00000000
3.51832487 0.56811870 0.00064353 0.00000000
1.98992805 1.07984897 0.00199064 0.00000000
1.48345267 1.11965054 -0.00089402 0.00000000
3.80693736 0.43887490 0.00328724 0.00000000
1.46192691 0.25835281 0.00090953 0.00000000
3.40664146 0.66087386 0.00179193 0.00000000
0.89545413 0.35682853 0.00193933 0.00000000
1.86232291 1.13756308 0.00113805 0.00000000
0.36690292 1.34203911 0.00110886 0.00000000
4.61844733 0.59457690 -0.00178766 0.00000000
3.59454142 1.22574130 0.00140858 0.00000000
2.31420751 1.18547250 0.00182488 0.00000000
1.30446842 1.36806406 -0.00080527 0.00000000
4.74856015 0.43083402 0.00300531 0.00000000
0.84560612 1.64255214 -0.00160797 0.00000000
1.09490288 0.20974641 -0.00218596 0.00000000
1.90788405 1.17837026 0.00042793 0.00000000
0.39830077 1.01865400 -0.00098029 0.00000000
0.69050934 0.33764053 -0.00186303 0.00000000
2.27787820 0.38159896 -0.00136170 0.00000000
0.38966929 0.71156270 -0.00136708 0.00000000
0.99792023 0.78031264 -0.00162430 0.00000000
0.85751544 0.03627254 0.00092790 0.00000000
0.93087398 1.52189556 0.00348237 0.00000000
3.49009236 0.71157827 -0.00111786 0.00000000
3.30459574 0.09667080 0.00098617 0.00000000
4.64201417 0.76178868 0.00138761 0.00000000
3.63043992 0.61551281 -0.00149647 0.00000000
0.22296208 1.59772414 -0.00015378 0.00000000
1.61654343 1.37828951 0.00081144 0.00000000
4.20663096 0.65661918 0.00347487 0.00000000
4.13362939 1.28036504 0.00234651 0.00000000
1.57084746 0.95439170 0.00407616 0.00000000
4.40644043 0.22360300 -0.00093193 0.00000000
1.91586142 1.21037399 -0.00034019 0.00000000
4.56088582 0.41546482 0.00044999 0.00000000
1.69476236 1.62310770 0.00068418 0.00000000
1.41247511 0.07882971 -0.00123188 0.00000000
4.10835272 0.24166764 0.00056387 0.00000000
0.93350983 0.82631191 -0.00107947 0.00000000
1.61173718 0.79460193 -0.00101829 0.00000000
3.52719027 0.25294209 -0.00014020 0.00000000
0.84119934 0.86924934 -0.00102130 0.00000000
2.47594761 0.40105570 0.00237867 0.00000000
4.72368106 1.65192574 -0.00295380 0.00000000
1.88728958 0.28810098 0.00324964 0.00000000
0.24854007 0.71940829 0.00150170 0.00000000
1.77958143 1.02314048 -0.00221083 0.00000000
2.32328784 1.42876529 -0.00331968 0.00000000
2.52589782 0.86069124 0.00172910 0.00000000
4.18917828 0.37253842 -0.00204342 0.00000000
2.98330092 1.09146397 0.00268097 0.00000000
2.03565211 1.58632857 -0.00020206 0.00000000
2.71712689 1.25655805 -0.00007057 0.00000000
0.45975649 1.56670363 -0.00180739 0.00000000
2.30993503 0.20313725 0.00212006 0.00000000
0.55116535 1.46368212 -0.00050671 0.00000000
0.35413935 1.63002347 0.00072902 0.00000000
3.65221442 0.03051208 -0.00138375 0.00000000
1.86315858 1.32836561 -0.00308834 0.00000000
2.97559451 0.69192941 0.00294949 0.00000000
4.52140821 1.37670770 -0.00009626 0.00000000
1.45248634 1.37106813 -0.00206195 0.00000000
2.66052492 1.18920043 -0.00469158 0.00000000
3.54980202 0.29483638 -0.00156974 0.00000000
0.35020651 0.27034975 0.00097937 0.00000000
0.89976892 0.44132347 -0.00040190 0.00000000
3.01474677 1.25649962 0.00063620 0.00000000
2.07300340 0.62188256 0.00175069 0.00000000
1.95690882 1.14633655 -0.00026904 0.00000000
4.07393174 0.62902653 -0.00334479 0.00000000
0.03061608 0.63245214 -0.00044995 0.00000000
1.09821288 0.86728463 -0.00003021 0.00000000
4.21981851 0.21997849 0.00279479 0.00000000
2.02706183 0.84431799 -0.00224299 0.00000000
3.78236641 0.46994229 0.00327956 0.00000000
0.77773026 0.09002059 -0.00324689 0.00000000
0.05497969 0.18278518 -0.00124687 0.00000000
1.92778531 1.02758909 0.00375017 0.00000000
1.68957896 0.88453344 -0.00082621 0.00000000
2.59566064 0.95874771 -0.00011789 0.00000000
0.91614428 0.96894963 -0.00118561 0.00000000
0.17596382 0.04692713 -0.00157552 0.00000000
3.68460235 0.61784177 -0.00323594 0.00000000
2.01014872 0.36262117 0.00238706 0.00000000
3.34477368 0.44736011 0.00125232 0.00000000
4.35408870 0.39044242 0.00091542 0.00000000
4.46375463 0.39884277 -0.00122787 0.00000000
3.39494190 1.63871666 0.00234835 0.00000000
1.29989491 1.63918854 0.00103931 0.00000000
3.00713684 0.94752041 -0.00098608 0.00000000
0.41437569 0.54558846 -0.00253032 0.00000000
0.79817637 0.81946929 0.00206308 0.00000000
1.82616810 0.73094158 0.00129487 0.00000000
4.31301916 1.27254587 -0.00717523 0.00000000
4.66284028 1.60395074 -0.00160994 0.00000000
3.69253002 0.94854227 0.00363617 0.00000000
2.31922178 0.94193209 0.00006458 0.00000000
2.53426493 1.30706086 -0.00577800 0.00000000
1.12868133 0.75256515 -0.00075240 0.00000000
2.87666309 0.56949181 -0.00111657 0.00000000
4.85533481 1.12814799 0.00053724 0.00000000
2.09966810 0.83965150 0.00112371 0.00000000
2.31476274 0.55305769 0.00310260 0.00000000
3.85234094 0.71425662 0.00181527 0.00000000
0.21223367 0.34977267 0.00051432 0.00000000
1.79641261 1.25360194 0.00166608 0.00000000
3.06827874 0.15601534 0.00039276 0.00000000
2.02077294 0.69822116 -0.00092283 0.00000000
2.79871666 0.25749387 0.00187980 0.00000000
0.77951478 0.18133280 0.00142161 0.00000000
0.07996792 1.11132015 -0.00092308 0.00000000
0.79978182 0.27210580 0.00594415 0.00000000
2.60451671 0.09742039 -0.00181048 0.00000000
0.17888756 1.65420324 0.00229253 0.00000000
2.99992730 1.50476372 -0.00016246 0.00000000
2.39497020 0.31555585 0.00135468 0.00000000
2.68613170 1.55273416 0.00327195 0.00000000
3.27906340 0.64601286 -0.00161076 0.00000000
0.18295717 0.02051397 0.00059042 0.00000000
0.94606663 0.13250531 0.00182002 0.00000000
2.43062433 1.09224430 -0.00486231 0.00000000
2.50745331 1.35072982 -0.00092584 0.00000000
2.08335650 0.99932776 0.00212389 0.00000000
2.67564426 0.33723630 0.00282904 0.00000000
3.17661798 1.65129561 0.00417052 0.00000000
3.74908606 0.22048855 0.00209314 0.00000000
1.59984797 0.34314065 -0.00209141 0.00000000
4.38881955 1.25407358 -0.00380993 0.00000000
0.33039706 0.08588494 -0.00167172 0.00000000
4.09806012 1.63749984 -0.00139625 0.00000000
0.36335409 1.62098164 0.00221612 0.00000000
3.99849997 0.57280519 0.00451951 0.00000000
0.04325759 0.80909325 0.00026606 0.00000000
1.37289873 1.56687287 -0.00077605 0.00000000
0.39832050 1.26697585 -0.00450526 0.00000000
3.93173436 0.14764487 0.00191374 0.00000000
3.27498254 0.04944144 0.00134791 0.00000000
3.46229305 0.80837159 -0.00156854 0.00000000
2.14982999 1.41982486 -0.00297994 0.00000000
4.79696253 0.99915970 0.00039391 0.00000000
4.25667640 1.37086413 0.00105571 0.00000000
0.81552495 1.48906853 0.00029266 0.00000000
4.90215573 1.22089933 0.00298480 0.00000000
2.85934960 1.21456159 0.00252033 0.00000000
4.17878852 1.36391783 0.00054202 0.00000000
1.58706810 1.57088751 -0.00150809 0.00000000
2.46409782 0.05554045 0.00479533 0.00000000
2.52525722 0.90775326 -0.00180625 0.00000000
0.71896667 0.40019005 -0.00192898 0.00000000
2.01265518 1.57840554 0.00087558 0.00000000
2.69527723 0.71424259 -0.00231215 0.00000000
0.18045509 1.65403160 -0.00058981 0.00000000
2.21546824 0.56759903 0.00195871 0.00000000
3.58344890 1.14895544 0.00321846 0.00000000
2.65909503 0.73459738 -0.00075958 0.00000000
0.00198169 0.01396367 -0.00125409 0.00000000
3.24714570 0.49409229 -0.00244902 0.00000000
0.17636357 1.42282530 -0.00111633 0.00000000
1.14123977 0.17448193 0.00257035 0.00000000
0.54295931 1.40435194 0.00380874 0.00000000
0.01206883 0.15440994 -0.00165017 0.00000000
1.44792607 0.75024728 0.00064784 0.00000000
4.38027067 0.49414258 -0.00194525 0.00000000
2.53718210 1.56071665 0.00075805 0.00000000
2.58025281 0.05957916 0.00233767 0.00000000
2.61902405 0.92137502 0.00013533 0.00000000
0.03002604 0.21992164 0.00481949 0.00000000
3.88994160 1.39233681 -0.00092873 0.00000000
3.17583605 0.15531816 0.00146994 0.00000000
1.60221185 1.19347287 0.00094796 0.00000000
2.16847002 1.50300224 -0.00146438 0.00000000
3.27663688 1.35890069 -0.00022560 0.00000000
2.45350344 0.39624306 -0.00199166 0.00000000
1.13534438 1.41097929 0.00254064 0.00000000
0.94465385 1.19864080 -0.00298816 0.00000000
2.57032656 1.04894844 -0.00017243 0.00000000
2.95353386 0.13325664 0.00401645 0.00000000
3.20702927 0.58742439 -0.00336017 0.00000000
0.38889196 1.17446100 0.00071824 0.00000000
0.93907389 1.28383042 -0.00242823 0.00000000
0.42258294 0.72025314 -0.00122864 0.00000000
3.98216218 0.08960099 -0.00032265 0.00000000
0.78349059 1.22214598 0.00119611 0.00000000
3.29469370 1.45271846 0.00552940 0.00000000
1.85714478 0.90771755 0.00018576 0.00000000
4.55159902 0.29673714 0.00076870 0.00000000
3.01548801 1.10205666 0.00357817 0.00000000
1.57586336 0.27810147 0.00145220 0.00000000
4.82484110 0.99134409 0.00415633 0.00000000
0.00890870 1.61236551 0.00033606 0.00000000
3.40933838 0.79537227 -0.00065509 0.00000000
0.92233622 0.74617930 -0.00220522 0.00000000
0.27154211 0.15174422 0.00092197 0.00000000
0.19196045 0.66311178 -0.00104346 0.00000000
4.58376889 0.70356664 0.00234537 0.00000000
1.94739145 0.78769051 0.00005956 0.00000000
1.47535880 1.59856331 -0.00298361 0.00000000
0.57879959 1.17410273 0.00490112 0.00000000
0.95220515 1.24746936 0.00223192 0.00000000
2.36853113 0.03479444 -0.00001970 0.00000000
0.38399256 1.36373427 0.00498868 0.00000000
2.80912173 1.15409409 0.00173369 0.00000000
2.53910785 0.26398433 -0.00110712 0.00000000
4.51402512 0.47638039 0.00073799 0.00000000
3.77356268 1.26969248 0.00063690 0.00000000
4.69097566 0.74507319 -0.00090820 0.00000000
4.83525454 1.62563132 0.00038893 0.00000000
0.66615092 1.58880424 -0.00032087 0.00000000
2.61529201 1.32054332 -0.00072895 0.00000000
1.57039471 0.01729360 -0.00052766 0.00000000
0.16702014 1.55584201 0.00221241 0.00000000
0.09997781 0.98230084 -0.00175738 0.00000000
2.28659436 0.31626731 0.00524345 0.00000000
3.24433583 0.87324606 0.00291492 0.00000000
0.49731903 1.56703159 0.00026296 0.00000000
4.44330793 0.72744200 0.00466293 0.00000000
4.82253739 1.10228529 0.00052435 0.00000000
1.23510841 1.18252341 -0.00231803 0.00000000
2.78555382 1.15877428 0.00037155 0.00000000
0.52831936 1.19458788 0.00478059 0.00000000
1.64102996 0.12235108 0.00189273 0.00000000
3.36141332 0.53177471 0.00201365 0.00000000
3.43751666 0.33842025 -0.00114583 0.00000000
4.34565170 0.04012783 0.00005901 0.00000000
4.02220124 0.41785992 -0.00384898 0.00000000
2.16730271 0.26195148 -0.00065693 0.00000000
3.63664734 0.97580350 0.00103086 0.00000000
0.39673752 0.47994017 -0.00047114 0.00000000
4.80195977 0.88031747 -0.00240047 0.00000000
0.04816812 0.58568537 0.00231642 0.00000000
3.26345873 0.11309766 0.00371212 0.00000000
3.29095470 1.29029504 -0.00210382 0.00000000
4.00803237 0.55405173 -0.00029989 0.00000000
3.05763002 0.87968277 -0.00283385 0.00000000
1.53174600 1.30697130 0.00136775 0.00000000
2.41959370 0.63744260 -0.00209011 0.00000000
3.61725144 1.49026877 -0.00315866 0.00000000
0.93395903 1.63781328 -0.00039001 0.00000000
2.80620920 0.88799961 0.00414686 0.00000000
0.94174481 0.83517877 0.00112318 0.00000000
3.77109622 0.65476447 0.00275455 0.00000000
2.27945688 1.23352492 -0.00571290 0.00000000
3.28598305 0.55221438 0.00327553 0.00000000
4.68446025 1.62176829 0.00389438 0.00000000
3.91480885 0.04263755 0.00085218 0.00000000
1.78676959 0.43219099 -0.00105618 0.00000000
0.51378070 0.24110120 -0.00055956 0.00000000
3.51681156 1.42140549 -0.00139381 0.00000000
3.89678228 1.22984893 0.00284940 0.00000000
4.23149512 0.29653267 -0.00051797 0.00000000
2.49470438 1.02759071 -0.00141180 0.00000000
3.91135310 1.35934490 0.00156281 0.00000000
1.21220004 1.52355532 0.00138448 0.00000000
2.58238520 0.16462489 0.00166508 0.00000000
3.19185144 0.07407582 0.00040725 0.00000000
1.63040505 1.02745335 -0.00133511 0.00000000
1.23561610 0.11018421 -0.00394252 0.00000000
0.67440319 1.55912299 -0.00091720 0.00000000
4.15476688 0.59457222 -0.00115826 0.00000000
3.23597444 1.55162236 0.00035621 0.00000000
4.30053428 0.68889806 -0.00454343 0.00000000
1.14543029 0.41567139 -0.00095934 0.00000000
4.51739609 0.09395251 0.00364863 0.00000000
1.67972245 0.73153745 -0.00181035 0.00000000
3.92109380 0.99509836 0.00214896 0.00000000
1.96310899 0.10496011 0.00337808 0.00000000
3.57859914 0.07308395 -0.00156487 0.00000000
2.85470311 1.34277438 -0.00125875 0.00000000
4.80518076 0.92140876 0.00550294 0.00000000
0.74221503 1.53393772 0.00252890 0.00000000
4.75387050 0.84940802 0.00100287 0.00000000
0.57659346 0.20680195 -0.00012152 0.00000000
4.51755521 0.16810823 0.00270546 0.00000000
2.46659955 0.59446234 -0.00185104 0.00000000
0.91390767 0.98034907 -0.00354248 0.00000000
2.45419870 0.43578924 0.00018083 0.00000000
2.72703507 0.16950961 0.00186444 0.00000000
2.37562592 0.24322348 0.00207860 0.00000000
3.92031929 0.72261269 0.00247244 0.00000000
2.81708140 0.29988052 0.00075912 0.00000000
2.81637176 0.69766838 -0.00487174 0.00000000
0.75367028 0.03793995 0.00057967 0.00000000
4.58539220 0.59164055 -0.00474805 0.00000000
4.10890576 1.25136025 0.00460989 0.00000000
4.13935062 0.05723288 0.00196493 0.00000000
4.43307843 0.74217327 -0.00203175 0.00000000
0.44969875 1.25506792 -0.00509046 0.00000000
0.48523203 0.05769265 0.00120514 0.00000000
3.72268435 0.34233961 -0.00429039 0.00000000
2.32823342 0.35406612 -0.00027885 0.00000000
2.91651593 1.36839052 -0.00350234 0.00000000
3.70824476 0.47607983 -0.00132941 0.00000000
2.61833648 1.00575109 0.00027190 0.00000000
2.87909356 1.03034520 -0.00479513 0.00000000
4.57119484 0.95000763 0.00151967 0.00000000
2.50719563 1.25269591 0.00487403 0.00000000
0.39260325 0.49619506 0.00189658 0.00000000
4.07699222 1.51103074 0.00129419 0.00000000
3.78839864 1.24097378 -0.00313752 0.00000000
3.68931950 1.04710478 -0.00355110 0.00000000
4.86917570 1.22565425 0.00333583 0.00000000
3.91623509 0.72333466 -0.00171107 0.00000000
4.50932587 1.25443084 -0.00342013 0.00000000
1.95922107 0.79383238 0.00346646 0.00000000
1.77528415 1.15825457 -0.00409130 0.00000000
3.90680279 1.06497438 0.00428947 0.00000000
0.70959294 0.64554797 0.00061324 0.00000000
2.70235109 0.75507752 -0.00193162 0.00000000
3.19514934 0.72479363 0.00403171 0.00000000
4.29504545 1.29451819 0.00044459 0.00000000
0.25984515 1.13868447 0.00078197 0.00000000
4.49743625 0.33835030 0.00326402 0.00000000
1.42123606 0.70065686 0.00304488 0.00000000
1.71265701 1.62865582 0.00269563 0.00000000
0.08948230 0.72973756 0.00238793 0.00000000
2.33684613 0.52046922 -0.00143186 0.00000000
0.32288159 0.51922700 -0.00053697 0.00000000
4.83022487 0.41261423 0.00347878 0.00000000
3.69388932 0.26575772 -0.00136089 0.00000000
2.37372697 1.35505890 0.00429852 0.00000000
0.29556973 0.97615349 0.00399181 0.00000000
1.51142889 0.16974358 0.00008332 0.00000000
1.27659033 0.92762538 0.00025457 0.00000000
3.09596644 0.52044078 -0.00121693 0.00000000
3.78258766 1.52703378 -0.00113773 0.00000000
2.06740415 0.49767234 0.00145857 0.00000000
3.13793839 0.01567004 -0.00002570 0.00000000
3.95209160 0.62889950 -0.00163827 0.00000000
3.41012134 1.31633191 -0.00147450 0.00000000
3.97049558 0.71000742 0.00099373 0.00000000
0.52171380 1.23690434 -0.00391997 0.00000000
1.39001878 0.37247691 0.00076752 0.00000000
0.36323168 1.57875411 0.00044398 0.00000000
2.43103116 0.83600189 -0.00409478 0.00000000
4.18884365 0.86374251 -0.00558900 0.00000000
4.81861785 0.20944927 -0.00506681 0.00000000
1.99112424 0.96626097 0.00411482 0.00000000
4.77322633 1.45623603 0.00288759 0.00000000
4.27677848 0.22300911 -0.00238212 0.00000000
3.60197792 1.39281246 -0.00040345 0.00000000
4.60879581 1.19108864 -0.00547291 0.00000000
0.13420135 1.59701471 0.00134946 0.00000000
0.99360519 1.61791379 0.00089432 0.00000000
4.74601455 1.53214825 -0.00139092 0.00000000
4.11353004 1.63181431 -0.00125992 0.00000000
0.69055276 0.70331335 -0.00112442 0.00000000
3.15549088 1.24474221 0.00106887 0.00000000
1.87407720 0.90531054 0.00176847 0.00000000
3.58748187 1.04235622 0.00051108 0.00000000
4.14692607 1.07242168 0.00045101 0.00000000
4.76841495 0.93936678 -0.00078119 0.00000000
4.13060116 1.40597452 0.00283056 0.00000000
4.35668925 0.30894859 0.00161876 0.00000000
0.20576493 0.68686633 -0.00238116 0.00000000
4.87843529 0.14488524 0.00234929 0.00000000
4.73195593 0.06451479 0.00116312 0.00000000
1.04804640 1.46846488 0.00017773 0.00000000
1.30892542 1.41725600 0.00071063 0.00000000
4.89669920 1.28206433 -0.00151885 0.00000000
2.77651436 0.53475295 -0.00082971 0.00000000
0.56647826 1.09984469 0.00270781 0.00000000
1.21072093 0.96314269 0.00088202 0.00000000
3.92914523 1.26016936 -0.00031254 0.00000000
2.26206639 1.15062304 0.00113885 0.00000000
0.14983329 1.19602359 0.00096926 0.00000000
2.39515291 1.52999044 -0.00307848 0.00000000
3.56806074 0.05276939 0.00282366 0.00000000
3.72423037 0.98626008 0.00011157 0.00000000
4.27745868 1.65089074 0.00128548 0.00000000
0.67733789 0.50429965 -0.00309080 0.00000000
3.33332370 0.10669474 0.00074883 0.00000000
1.03957801 0.60231819 0.00014701 0.00000000
4.48259655 1.15494519 -0.00011038 0.00000000
2.09292977 0.08128241 0.00194464 0.00000000
1.72150378 1.19485974 0.00087434 0.00000000
4.49137694 0.62854898 -0.00037199 0.00000000
3.49435565 0.56033733 0.00006591 0.00000000
2.45478956 1.49957795 0.00120835 0.00000000
1.47353865 0.59107436 0.00074779 0.00000000
1.87908208 0.34443128 -0.00294421 0.00000000
2.39796334 0.32824825 -0.00304442 0.00000000
2.99672925 0.17287048 0.00071969 0.00000000
1.93827744 0.13493670 -0.00214910 0.00000000
4.72181786 0.83561541 0.00291626 0.00000000
4.64152367 0.26304482 -0.00047887 0.00000000
0.21481758 1.61266452 0.00656158 0.00000000
1.51735948 1.16343596 0.00280795 0.00000000
4.19616256 0.95235372 0.00140637 0.00000000
0.98262720 0.12657153 -0.00047883 0.00000000
3.79608455 1.00887753 -0.00171629 0.00000000
0.62829473 1.05588299 -0.00110626 0.00000000
3.71278872 0.01282179 -0.00193101 0.00000000
2.99635504 0.25348082 0.00413985 0.00000000
2.93132080 0.34870399 -0.00002575 0.00000000
2.44451717 0.03089457 -0.00060570 0.00000000
3.89876035 1.23201765 -0.00283986 0.00000000
4.09479257 0.50476871 -0.00094246 0.00000000
3.38551070 1.00566943 -0.00471450 0.00000000
1.42670629 1.37446057 0.00371741 0.00000000
0.13422521 1.39979005 -0.00002393 0.00000000
1.83940826 1.52140331 -0.00262499 0.00000000
2.12039693 0.31707293 0.00400391 0.00000000
2.81927119 0.67424874 0.00156369 0.00000000
3.79461966 1.20543122 -0.00196090 0.00000000
1.32659679 0.19191915 0.00026896 0.00000000
0.34629761 1.55184055 -0.00074093 0.00000000
0.04774879 1.14596025 0.00352885 0.00000000
1.53835323 1.64180217 0.00024899 0.00000000
0.21915131 1.25735084 0.00083079 0.00000000
0.96728256 0.86793875 -0.00241307 0.00000000
3.82532326 0.21956237 0.00428717 0.00000000
0.82163998 1.16404904 -0.00153768 0.00000000
3.29683398 0.35779510 0.00192436 0.00000000
1.31288521 0.94805286 0.00110630 0.00000000
1.93151963 0.39449958 0.00590967 0.00000000
1.92418603 0.68375662 -0.00170625 0.00000000
0.14165919 0.56134085 0.00154355 0.00000000
2.26407501 0.39221216 -0.00029567 0.00000000
2.02304428 1.20092163 -0.00180137 0.00000000
0.78984508 1.63596111 0.00242478 0.00000000
3.81435366 1.26101032 -0.00132468 0.00000000
2.82110070 0.17417902 0.00365776 0.00000000
2.77444586 1.33874212 -0.00187645 0.00000000
2.68914262 0.39617380 -0.00015838 0.00000000
2.29356086 0.54566768 0.00134329 0.00000000
4.75104262 1.25286477 0.00262740 0.00000000
4.32560791 0.18253381 -0.00152070 0.00000000
3.55513730 0.06534407 -0.00212701 0.00000000
1.93441552 0.37705700 0.00124261 0.00000000
4.47161288 0.80696366 0.00116284 0.00000000
1.95419546 1.39187601 -0.00040984 0.00000000
0.52226066 1.23081195 -0.00294462 0.00000000
3.43674668 0.83829302 -0.00001884 0.00000000
4.74120116 1.65241076 -0.00060911 0.00000000
3.14145602 0.54597239 -0.00109140 0.00000000
0.45308746 0.64619306 -0.00418392 0.00000000
0.79345464 0.19438461 0.00275607 0.00000000
0.76996298 0.51706758 -0.00126471 0.00000000
2.01316216 1.60368437 -0.00164705 0.00000000
3.07103695 1.65016946 -0.00292064 0.00000000
2.69789253 0.75576304 0.00049104 0.00000000
0.87866044 1.32051150 -0.00062288 0.00000000
0.65864434 1.64535283 0.00466057 0.00000000
0.14718870 0.21288172 -0.00462978 0.00000000
4.15874037 0.47124907 -0.00352844 0.00000000
3.91021319 0.89280661 0.00367125 0.00000000
4.74908614 0.13056571 0.00122355 0.00000000
4.86161068 0.24988920 0.00190700 0.00000000
2.81119123 0.78875285 -0.00067741 0.00000000
2.56603196 0.41298400 0.00041900 0.00000000
0.60285536 0.31819189 -0.00157906 0.00000000
3.45679429 1.10495500 -0.00099445 0.00000000
1.67192956 1.62238928 -0.00080628 0.00000000
3.19290440 1.16363326 0.00332170 0.00000000
1.62887693 0.13573723 0.00085935 0.00000000
4.54790425 0.04967311 -0.00286454 0.00000000
3.54639027 0.86832709 0.00270043 0.00000000
4.30811120 0.41327156 -0.00518512 0.00000000
0.24672820 1.23201322 0.00241957 0.00000000
4.03841369 0.15654440 -0.00340214 0.00000000
1.50325915 0.40771353 0.00085766 0.00000000
1.04702107 0.78460957 -0.00527643 0.00000000
4.06650409 1.04522522 -0.00264843 0.00000000
4.65108057 0.87117117 -0.00078385 0.00000000
4.28938366 1.18441443 -0.00270947 0.00000000
3.11674486 0.69737919 -0.00175436 0.00000000
4.41410764 0.94835258 0.00145961 0.00000000
2.17131526 1.44616706 0.00223546 0.00000000
1.82376611 1.28167045 -0.00263669 0.00000000
2.14411237 1.43674127 -0.00020665 0.00000000
4.54755172 0.20097094 0.00106963 0.00000000
4.38738429 1.07203175 -0.00611496 0.00000000
4.11303163 0.68987166 -0.00009859 0.00000000
1.19880299 0.65434662 -0.00381138 0.00000000
4.19758557 1.46702590 -0.00055784 0.00000000
1.73656036 1.12889346 -0.00063947 0.00000000
2.03100793 1.42799329 0.00020311 0.00000000
0.41480265 1.49575560 0.00246200 0.00000000
0.32537090 0.51638388 0.00193124 0.00000000
2.30228509 1.09546121 -0.00583437 0.00000000
2.61109103 1.35294605 -0.00136058 0.00000000
4.09039873 1.01849755 0.00235638 0.00000000
4.72931678 0.07458482 -0.00083791 0.00000000
3.62741097 0.61202622 -0.00331157 0.00000000
2.10398444 0.36504594 -0.00183004 0.00000000
2.67441200 0.53319846 0.00135654 0.00000000
2.35457231 1.12686017 -0.00046579 0.00000000
1.42787501 1.45179650 0.00122938 0.00000000
1.67669802 0.26764810 -0.00157074 0.00000000
3.71390919 0.50482214 -0.00055138 0.00000000
4.90379957 1.35124901 0.00473734 0.00000000
1.17538269 0.59895903 0.00067023 0.00000000
3.48066594 0.98176545 -0.00423072 0.00000000
3.96282002 1.51917676 -0.00149059 0.00000000
3.87113368 1.56365967 -0.00115615 0.00000000
1.07970158 1.10952742 0.00075249 0.00000000
3.50095155 0.98186662 -0.00456754 0.00000000
3.51736034 0.68438385 0.00142467 0.00000000
0.37204286 1.38654834 0.00078920 0.00000000
3.39223800 1.04024950 0.00115212 0.00000000
0.50214780 0.59755339 -0.00056551 0.00000000
0.17382843 1.53262635 0.00587062 0.00000000
4.37892110 0.25061701 -0.00788778 0.00000000
3.92748076 0.73897568 0.00438884 0.00000000
3.43701645 1.43310000 0.00505199 0.00000000
0.34134832 0.84741276 -0.00132423 0.00000000
2.33840420 0.89269803 0.00195778 0.00000000
0.85524980 0.87320809 0.00244755 0.00000000
4.78388482 1.50717181 -0.00028693 0.00000000
3.91788255 0.65577569 -0.00291210 0.00000000
2.82951453 0.14127953 -0.00224181 0.00000000
4.48404134 0.76587683 0.00164880 0.00000000
4.10511081 1.59766595 -0.00661032 0.00000000
3.76871526 1.19119544 0.00392785 0.00000000
1.49067264 0.31959487 0.00206445 0.00000000
1.91729261 0.32433705 -0.00078010 0.00000000
1.90966879 0.32216466 -0.00425404 0.00000000
1.28149494 0.88896678 0.00224862 0.00000000
3.60908038 1.22117763 0.00099416 0.00000000
4.32704384 0.01730436 -0.00097906 0.00000000
0.72883156 1.23744285 -0.00126914 0.00000000
0.84216112 0.05471405 0.00287209 0.00000000
2.35901533 0.93771691 -0.00291522 0.00000000
4.43580888 1.41328081 0.00090221 0.00000000
4.48170090 1.08549496 -0.00296733 0.00000000
3.74187935 0.92999711 -0.00144818 0.00000000
3.26086121 0.81383841 -0.00276359 0.00000000
3.67689067 0.15947695 0.00135992 0.00000000
0.03677988 0.72513382 -0.00147367 0.00000000
4.07365693 0.80565055 0.00049113 0.00000000
3.75684335 0.65904874 0.00262285 0.00000000
2.91540074 1.43334808 -0.00125004 0.00000000
2.91265802 0.69215365 -0.00224433 0.00000000
2.03974808 0.97047351 0.00589396 0.00000000
2.56025982 1.07696427 0.00025602 0.00000000
3.56852686 0.60074945 -0.00052475 0.00000000
1.91352984 0.15012490 -0.00048804 0.00000000
2.70237351 0.67346026 -0.00519059 0.00000000
2.39100131 1.57135412 -0.00181211 0.00000000
0.92697290 0.00334072 -0.00090340 0.00000000
2.03382881 0.16388127 0.00069015 0.00000000
2.59086576 0.42180454 0.00299568 0.00000000
4.61618738 0.91249043 0.00480598 0.00000000
3.41700555 0.64129036 -0.00228476 0.00000000
4.69280368 1.04981728 0.00175365 0.00000000
2.78900418 0.64835724 0.00102345 0.00000000
1.00964340 0.07410914 0.00189854 0.00000000
0.93149976 0.33547172 0.00101369 0.00000000
3.38657750 1.36293651 -0.00339822 0.00000000
3.09086713 0.44624363 -0.00079472 0.00000000
2.12246897 1.23095651 0.00089424 0.00000000
2.43329453 1.08361658 -0.00079832 0.00000000
0.39749591 0.74032425 0.00437859 0.00000000
0.16666416 0.74502228 -0.00206422 0.00000000
0.34792444 0.44767768 0.00281714 0.00000000
2.66594701 1.51072129 -0.00051936 0.00000000
3.37548105 1.39744314 0.00004666 0.00000000
4.15426194 0.67301723 -0.00375504 0.00000000
3.39761348 0.17816249 0.00174351 0.00000000
4.05314355 0.92605172 -0.00087496 0.00000000
0.14176264 0.34555453 -0.00020419 0.00000000
1.83390339 1.11239868 0.00064734 0.00000000
1.67267881 1.65069011 -0.00073697 0.00000000
3.59847023 1.48679610 -0.00352406 0.00000000
4.04220661 1.22526899 -0.00164939 0.00000000
4.48480391 0.91782401 0.00009186 0.00000000
4.48733897 1.62628710 -0.00182051 0.00000000
1.09512925 0.84490663 -0.00090605 0.00000000
3.40764915 0.50895467 -0.00367144 0.00000000
3.34510727 0.91222907 0.00111167 0.00000000
2.17455380 0.72981661 -0.00042000 0.00000000
0.73399864 1.04632425 -0.00256862 0.00000000
4.35996371 1.39026192 0.00182257 0.00000000
2.66270306 0.42477200 -0.00095871 0.00000000
2.33186598 0.99533054 -0.00258581 0.00000000
3.70143664 1.40524302 0.00411569 0.00000000
1.20886020 0.01262734 0.00016910 0.00000000
4.01599195 0.00206626 0.00317130 0.00000000
3.94841132 0.84414151 0.00219849 0.00000000
2.39205272 0.20210702 -0.00167163 0.00000000
1.46252132 0.48381523 0.00174923 0.00000000
0.86270471 1.60453012 -0.00343244 0.00000000
1.34573552 1.14426800 -0.00123603 0.00000000
3.10634693 0.40787451 -0.00376026 0.00000000
3.18264310 0.48059928 -0.00156680 0.00000000
3.45428778 0.17446505 -0.00023702 0.00000000
1.82658930 0.31135913 0.00445602 0.00000000
4.06156010 0.71280016 -0.00452073 0.00000000
2.10991124 1.54497016 0.00051511 0.00000000
1.48406998 1.06803736 -0.00045663 0.00000000
4.50474384 0.87128077 -0.00312286 0.00000000
1.90899242 0.32993687 -0.00081932 0.00000000
4.42135072 0.03468009 -0.00118795 0.00000000
4.59389824 0.43999281 -0.00327040 0.00000000
3.39976518 0.17240381 0.00392426 0.00000000
1.36795137 0.55244845 0.00493989 0.00000000
3.37137745 0.26312865 -0.00225765 0.00000000
4.86417770 1.32327837 -0.00180175 0.00000000
2.26359832 1.26916780 -0.00143166 0.00000000
3.23241276 0.47423919 -0.00177387 0.00000000
2.76502617 0.09923106 -0.00189105 0.00000000
2.28713051 0.62121209 -0.00050163 0.00000000
4.54135246 0.29890718 0.00023603 0.00000000
1.18925658 1.61242393 -0.00078727 0.00000000
2.31761014 1.33307642 -0.00234853 0.00000000
2.33367069 1.32816884 -0.00186006 0.00000000
0.69014208 0.72653735 -0.00046257 0.00000000
1.92319702 0.51549227 -0.00072967 0.00000000
0.69358064 0.53764673 -0.00018437 0.00000000
1.87167159 0.35874291 0.00597667 0.00000000
2.97235621 1.26368930 0.00515759 0.00000000
1.18617664 0.31773065 -0.00273028 0.00000000
4.88374615 1.03760670 0.00731787 0.00000000
4.52566401 0.07596637 0.00099209 0.00000000
3.17311846 1.64597852 0.00207659 0.00000000
1.38861144 1.31956482 0.00119421 0.00000000
0.52168695 0.48044775 0.00577164 0.00000000
2.95156532 0.46144086 0.00371171 0.00000000
2.56311932 0.30024731 -0.00376414 0.00000000
2.16470750 1.16037336 -0.00236747 0.00000000
4.33543526 1.63441700 -0.00293741 0.00000000
3.02279741 1.43426733 -0.00005938 0.00000000
3.95241017 1.35615175 -0.00306536 0.00000000
0.82759434 0.64074922 0.00519399 0.00000000
3.50735307 1.54786606 -0.00314894 0.00000000
2.00064306 0.61679917 -0.00207811 0.00000000
3.72354675 0.13924756 -0.00204103 0.00000000
0.86409099 0.88721040 -0.00264160 0.00000000
3.48614113 0.93625393 -0.00494818 0.00000000
2.97746296 0.34397997 0.00185988 0.00000000
4.06002241 1.53629290 0.00050725 0.00000000
3.42924878 0.00610772 0.00361956 0.00000000
0.78999110 0.25492388 -0.00155655 0.00000000
1.55545251 1.13612131 -0.00327469 0.00000000
1.84599002 0.76912324 -0.00105930 0.00000000
3.78158414 1.24922457 0.00039983 0.00000000
0.55763441 1.51441816 -0.00025905 0.00000000
3.80769170 0.94545365 -0.00246058 0.00000000
1.53803390 0.76160655 -0.00189810 0.00000000
4.75047541 0.79126977 0.00216035 0.00000000
0.11166367 0.45960522 0.00126896 0.00000000
2.77488808 1.56472240 -0.00366443 0.00000000
0.27937930 0.34168205 0.00245394 0.00000000
4.55919105 0.16559728 0.00116138 0.00000000
4.14222675 0.83930227 0.00038725 0.00000000
2.04142599 0.06759665 -0.00148446 0.00000000
4.15513342 1.14071865 -0.00306331 0.00000000
0.35070950 0.34458766 -0.00046492 0.00000000
3.31523493 0.51041857 0.00490896 0.00000000
3.22389659 0.28226147 -0.00486110 0.00000000
0.57238266 1.45767533 0.00135976 0.00000000
2.53789947 1.31930772 -0.00495138 0.00000000
1.48754578 0.64492964 -0.00059312 0.00000000
4.80197284 0.52615837 0.00238100 0.00000000
4.72784769 1.50400885 -0.00387980 0.00000000
3.69250074 1.36855498 -0.00060540 0.00000000
1.04741399 1.16530737 0.00198526 0.00000000
2.39284838 0.80150140 -0.00206264 0.00000000
1.44137260 0.76573354 0.00159269 0.00000000
2.99441820 1.53877107 0.00048425 0.00000000
0.55295512 0.95315315 -0.00208474 0.00000000
4.52148562 1.32192491 0.00194924 0.00000000
2.70769037 0.97210440 0.00152569 0.00000000
3.28779070 0.62390368 -0.00403851 0.00000000
1.38954987 1.24047567 0.00100690 0.00000000
2.91776083 1.21944128 0.00184330 0.00000000
3.22179810 0.14463347 -0.00419713 0.00000000
4.61948228 0.10824174 -0.00217337 0.00000000
0.51614798 0.51123584 0.00167115 0.00000000
3.59243162 0.19486736 0.00344446 0.00000000
0.35742733 1.03748632 -0.00068682 0.00000000
3.15277503 1.01792353 -0.00500682 0.00000000
3.30108137 0.96133408 0.00089241 0.00000000
0.00082064 0.16755826 -0.00041456 0.00000000
3.22357296 0.79856153 0.00083159 0.00000000
0.04289823 1.15090861 0.00334684 0.00000000
3.20671673 1.23120687 0.00005255 0.00000000
2.49557919 0.17554692 -0.00039750 0.00000000
1.21907230 0.99232053 -0.00421382 0.00000000
4.23095163 1.07638323 0.00027000 0.00000000
4.65988517 0.19482668 -0.00116908 0.00000000
3.90862733 1.63696063 0.00077718 0.00000000
3.21499088 1.49251470 -0.00242291 0.00000000
1.11465826 1.44096771 -0.00015029 0.00000000
0.66297957 0.43082505 -0.00030687 0.00000000
2.79162325 1.00849755 -0.00087642 0.00000000
2.45053877 0.03677384 0.00062392 0.00000000
2.96975117 1.46764709 -0.00496496 0.00000000
0.52352667 0.97504102 -0.00377034 0.00000000
3.44979977 1.30694592 0.00193945 0.00000000
0.42676548 0.88899036 0.00413989 0.00000000
2.31652869 0.61463848 0.00097016 0.00000000
2.69810057 1.39893750 -0.00239084 0.00000000
0.34746952 1.12660335 0.00498995 0.00000000
2.49845401 1.27559782 0.00180410 0.00000000
4.84003204 1.10305192 0.00016954 0.00000000
0.38136650 0.33828004 0.00405965 0.00000000
3.75669043 0.44811586 0.00373731 0.00000000
1.05335014 0.00950782 0.00050645 0.00000000
0.05840277 1.61726349 0.00372420 0.00000000
3.33520533 0.21001451 -0.00173182 0.00000000
2.45319853 0.67783896 -0.00009973 0.00000000
2.69680214 0.67667671 0.00130876 0.00000000
0.15204140 0.14090935 0.00127771 0.00000000
3.68325736 0.33738706 0.00074418 0.00000000
2.20506463 1.39381590 0.00237772 0.00000000
0.08651635 0.74483272 0.00231758 0.00000000
1.99437182 0.20828995 -0.00064646 0.00000000
3.57218783 0.24593269 -0.00013100 0.00000000
1.05259754 0.00192426 0.00327846 0.00000000
1.73820803 1.27295589 0.00094956 0.00000000
0.66489298 0.37662983 -0.00189764 0.00000000
0.19658802 0.53174530 0.00164912 0.00000000
0.71249230 1.01843286 -0.00270088 0.00000000
2.80573629 1.47004517 0.00140342 0.00000000
4.20494978 1.16902484 -0.00114179 0.00000000
4.57308509 0.12554541 -0.00284731 0.00000000
1.12368115 1.53029844 0.00015609 0.00000000
0.21571566 1.64120374 0.00069214 0.00000000
0.64120250 1.63243745 0.00184315 0.00000000
4.49600499 0.21606791 -0.00187231 0.00000000
1.89840379 0.30802701 0.00567206 0.00000000
2.35581155 0.73758949 -0.00111718 0.00000000
4.86883708 0.27097087 0.00113885 0.00000000
2.98240111 0.60190268 0.00164970 0.00000000
4.88799691 0.87517988 0.00263256 0.00000000
0.66829379 0.21366423 -0.00374148 0.00000000
4.87604133 0.68457721 0.00062653 0.00000000
2.39076302 0.08587327 -0.00246449 0.00000000
2.58331323 0.68880205 0.00485454 0.00000000
3.07495623 0.77916219 -0.00029981 0.00000000
4.12491779 0.47654670 -0.00274102 0.00000000
4.49465394 0.47084910 -0.00668777 0.00000000
0.31477642 0.94052944 -0.00143187 0.00000000
4.33581066 1.00769733 -0.00220911 0.00000000
1.79413176 1.48499894 0.00240594 0.00000000
1.66348450 0.16399776 -0.00535699 0.00000000
0.06521637 0.80240785 0.00111372 0.00000000
4.67635638 0.06210354 -0.00056759 0.00000000
1.51468328 0.65490764 -0.00222735 0.00000000
0.29672147 1.18379800 0.00108200 0.00000000
1.85447561 0.68513625 -0.00025599 0.00000000
1.06218871 0.80121106 -0.00018464 0.00000000
2.38012233 0.10812547 0.00506038 0.00000000
1.52986716 1.46220473 -0.00392662 0.00000000
1.33960669 0.65822537 -0.00035701 0.00000000
2.25120258 0.78077399 0.00021727 0.00000000
4.01426381 1.16050963 -0.00064622 0.00000000
0.35149602 0.11854948 0.00147650 0.00000000
4.89810297 1.06595415 0.00295102 0.00000000
2.11354719 0.75746861 0.00436468 0.00000000
0.05870578 1.58310970 -0.00145302 0.00000000
0.14258018 0.05973941 0.00246376 0.00000000
1.89245149 1.60966582 0.00006759 0.00000000
1.97708683 0.60066652 -0.00494381 0.00000000
4.83955083 1.63520434 0.00469804 0.00000000
0.15863649 0.88125380 0.00319212 0.00000000
0.65907645 1.35832696 -0.00048058 0.00000000
0.41142479 0.54242753 0.00009440 0.00000000
2.23003474 0.36142729 0.00492636 0.00000000
4.87224817 1.45284882 -0.00172310 0.00000000
1.30462608 1.00048998 -0.00213683 0.00000000
3.87677662 1.65606157 0.00137485 0.00000000
4.62238807 1.62323918 -0.00012323 0.00000000
0.10363339 1.45984264 -0.00263236 0.00000000
2.72732726 1.05871965 -0.00152560 0.00000000
4.22511859 0.59262031 -0.00426564 0.00000000
3.44121527 0.59376873 -0.00092614 0.00000000
0.09960598 0.57532117 0.00084121 0.00000000
4.90496959 1.16435248 0.00044372 0.00000000
0.98012671 1.45219979 -0.00133685 0.00000000
4.55403731 0.88983692 0.00187618 0.00000000
2.21692832 1.09896093 0.00128917 0.00000000
0.51836796 0.35429015 0.00538473 0.00000000
4.48891681 0.01969116 0.00135523 0.00000000
4.17822618 0.43844862 -0.00105142 0.00000000
3.29936950 1.32007613 0.00720244 0.00000000
2.04645273 1.21587380 -0.00169312 0.00000000
4.81670883 1.40342515 -0.00139734 0.00000000
2.35606355 0.53327802 0.00021699 0.00000000
2.35239562 1.30121191 -0.00198350 0.00000000
2.18010280 0.31499169 0.00053227 0.00000000
0.17759809 0.57236973 -0.00032541 0.00000000
1.89356292 0.65969718 -0.00351329 0.00000000
1.87077979 1.08454742 0.00319420 0.00000000
3.74463832 0.93072464 -0.00598442 0.00000000
4.05544116 1.40789502 -0.00085319 0.00000000
2.47142864 1.13251702 -0.00164994 0.00000000
3.23308403 1.33134976 0.00314802 0.00000000
4.86069806 0.65968808 -0.00130566 0.00000000
3.63497388 0.56969824 0.00039719 0.00000000
2.14647385 0.18793723 0.00069240 0.00000000
4.03252882 0.51178189 0.00207544 0.00000000
1.58194509 0.22446208 0.00509168 0.00000000
3.01079379 0.01945945 -0.00067935 0.00000000
0.34674339 0.13777187 -0.00302366 0.00000000
4.11099435 0.60235159 0.00324572 0.00000000
0.75065683 0.18383215 0.00226649 0.00000000
2.69296634 1.26202444 -0.00168964 0.00000000
3.40817041 0.86736514 -0.00204200 0.00000000
4.34690053 1.22785211 0.00248858 0.00000000
2.54855359 0.54400611 -0.00045203 0.00000000
4.79290681 1.25430312 -0.00037806 0.00000000
2.45365854 0.68090749 0.00205615 0.00000000
2.14091767 0.10416501 0.00416273 0.00000000
3.08544520 0.29477237 0.00084207 0.00000000
4.21412501 0.71125960 0.00587674 0.00000000
0.96896402 0.79737750 -0.00025647 0.00000000
4.22385319 0.28088769 0.00038186 0.00000000
4.25942478 1.22993709 0.00149452 0.00000000
0.90536780 1.31618420 0.00030539 0.00000000
1.11358111 0.15502284 0.00104089 0.00000000
2.12924624 0.19207954 0.00032412 0.00000000
0.33695767 1.09606752 -0.00070547 0.00000000
1.39818525 0.91354971 0.00277796 0.00000000
3.50287732 0.40916978 0.00166343 0.00000000
0.25137287 0.75144060 -0.00323649 0.00000000
4.87064796 1.28740043 0.00101936 0.00000000
0.70078121 0.67958348 0.00140277 0.00000000
2.79902692 1.41411510 0.00840546 0.00000000
0.81310361 1.16701225 -0.00175829 0.00000000
1.34238899 0.92188975 0.00647292 0.00000000
3.75970984 0.09155743 0.00146487 0.00000000
1.03788581 1.22286412 0.00060398 0.00000000
2.34254010 0.92664030 0.00239063 0.00000000
3.37584575 1.65509689 0.00009595 0.00000000
3.65610555 1.16911926 0.00123844 0.00000000
2.23720864 1.23992870 -0.00094406 0.00000000
4.31623592 0.16937845 0.00107357 0.00000000
4.60299525 1.19895120 -0.00110505 0.00000000
3.28823188 0.52975609 -0.00162318 0.00000000
2.72233475 0.78635246 0.00474804 0.00000000
1.77060565 0.53806267 -0.00043848 0.00000000
1.13272170 0.79689749 0.00464277 0.00000000
1.94760279 0.45378271 0.00177157 0.00000000
3.45893451 0.97184980 -0.00222611 0.00000000
1.67881391 0.81194620 -0.00306519 0.00000000
0.89442715 1.38605286 -0.00085709 0.00000000
2.23875676 1.45406931 -0.00513452 0.00000000
0.01761749 1.48865283 0.00225184 0.00000000
1.53412661 0.42771287 -0.00127122 0.00000000
4.68882371 0.02691753 0.00092576 0.00000000
0.47984111 0.97780749 -0.00311525 0.00000000
0.01581723 1.14569824 -0.00039527 0.00000000
1.12904039 1.48738411 0.00138781 0.00000000
4.24035536 0.50131929 -0.00387019 0.00000000
2.62371810 0.65550450 -0.00243354 0.00000000
4.89528793 0.23845912 -0.00141067 0.00000000
0.17599835 0.14707691 0.00168857 0.00000000
2.74682116 1.56075049 -0.00052147 0.00000000
3.47923722 0.93264125 0.00025150 0.00000000
0.18188277 0.17572956 -0.00160499 0.00000000
3.92039421 0.94391381 -0.00447993 0.00000000
3.29624989 1.62430978 0.00208364 0.00000000
1.57696634 1.33647865 -0.00518647 0.00000000
1.07248340 1.61459973 -0.00015109 0.00000000
0.75214542 1.15078404 0.00097746 0.00000000
3.09292222 0.57101880 -0.00288008 0.00000000
4.79447874 0.73080975 0.00031732 0.00000000
2.01506756 1.27163590 0.00071880 0.00000000
4.90513305 0.07352805 -0.00132645 0.00000000
4.00578833 0.03638635 0.00681802 0.00000000
2.54484734 0.95264471 0.00352986 0.00000000
3.15438497 0.51072599 -0.00067205 0.00000000
1.19464310 0.72592586 0.00399623 0.00000000
4.87334048 1.22131236 -0.00141138 0.00000000
4.37265233 0.02470197 -0.00151570 0.00000000
0.44536508 0.71672190 0.00377751 0.00000000
0.80364519 0.39806907 -0.00202788 0.00000000
4.65175860 1.56708127 0.00218376 0.00000000
1.89328243 0.16388631 -0.00205369 0.00000000
3.89789306 0.01361527 0.00507007 0.00000000
0.79580580 0.26072251 0.00031743 0.00000000
1.69856161 0.91279742 0.00404015 0.00000000
1.42426200 0.93683987 0.00143674 0.00000000
2.48504986 1.41283406 -0.00504832 0.00000000
0.31844150 1.41645767 0.00340411 0.00000000
3.40229450 0.26010111 -0.00050354 0.00000000
4.53108669 0.10237401 0.00068069 0.00000000
0.51048548 1.26464079 0.00436837 0.00000000
4.68938623 0.67040572 -0.00005122 0.00000000
3.65641464 0.18503481 -0.00186697 0.00000000
3.07652741 1.45387432 -0.00104752 0.00000000
1.58436237 1.32323189 -0.00137918 0.00000000
1.42275214 1.33869641 0.00067949 0.00000000
3.19562461 1.15945489 0.00284500 0.00000000
