1.963677 1.895617 0.000418 0.0
3.337068 1.726057 0.001030 0.0
1.120698 0.968070 -0.001569 0.0
2.107425 0.689335 0.000919 0.0
0.091115 0.825813 -0.001840 0.0
2.785799 0.773356 0.000376 0.0
2.525995 2.022676 -0.001679 0.0
3.756870 1.994730 -0.000243 0.0
0.671130 0.246725 0.000124 0.0
1.390613 0.158193 -0.000982 0.0
3.309089 0.568533 -0.004893 0.0
2.730343 1.964657 -0.002168 0.0
3.179287 0.896687 0.001968 0.0
3.755062 1.829633 -0.002550 0.0
2.019790 0.931030 -0.002289 0.0
2.504083 0.455469 -0.000912 0.0
1.883608 1.750122 0.004261 0.0
1.624596 1.341290 0.002612 0.0
0.526977 0.552261 0.003466 0.0
2.186051 0.362861 0.003660 0.0
3.118519 2.083054 -0.000265 0.0
1.064239 1.384452 0.002057 0.0
2.188526 1.045816 -0.001660 0.0
2.044866 0.475927 0.001594 0.0
0.246007 2.023406 -0.001687 0.0
2.910287 2.100959 0.001283 0.0
3.694930 1.150023 -0.000258 0.0
1.229134 1.975248 0.003527 0.0
3.826176 1.351516 -0.001604 0.0
3.317327 1.784765 0.000259 0.0
4.011159 1.501113 0.001161 0.0
2.540015 1.696076 0.001334 0.0
2.716959 1.069406 -0.000085 0.0
0.277133 0.925274 0.002669 0.0
3.783221 0.681056 -0.002739 0.0
2.532062 1.028469 0.000167 0.0
0.016508 0.452087 -0.000445 0.0
1.302726 0.364477 -0.001128 0.0
0.105806 2.054000 0.004562 0.0
0.691947 0.406186 0.002656 0.0
2.086660 0.744316 -0.000536 0.0
0.066020 0.813888 -0.001261 0.0
2.310607 1.474848 0.003627 0.0
0.102914 0.413352 0.002084 0.0
0.304884 0.776330 0.001208 0.0
1.634087 0.511593 -0.000657 0.0
4.032446 0.347745 -0.001405 0.0
3.163621 0.964955 0.000107 0.0
0.007208 1.762080 -0.000426 0.0
2.463227 0.593154 -0.005668 0.0
0.325669 2.129745 0.005396 0.0
1.547823 0.330835 0.004423 0.0
3.706836 1.198820 -0.000067 0.0
3.411456 1.556042 0.000864 0.0
2.352416 1.544735 0.002915 0.0
1.960804 1.366711 0.001963 0.0
3.929442 1.146459 -0.000712 0.0
1.436663 0.127678 -0.000471 0.0
2.527680 0.479122 -0.000348 0.0
1.960538 1.532120 0.000439 0.0
2.905487 0.805466 0.001073 0.0
4.044014 0.814381 -0.003664 0.0
4.063822 2.052282 -0.001375 0.0
0.971018 1.297443 0.003950 0.0
4.013015 0.313169 0.001351 0.0
0.402802 0.441395 -0.000291 0.0
2.024695 1.422946 0.000986 0.0
2.868445 0.034909 -0.002402 0.0
2.325239 0.974011 -0.000161 0.0
1.809040 0.945974 -0.000267 0.0
2.235828 0.167936 -0.004995 0.0
0.844712 1.212749 -0.000563 0.0
2.637273 0.067157 -0.000888 0.0
0.248094 0.077428 0.002630 0.0
1.536696 1.291791 -0.000020 0.0
3.023361 1.036357 -0.003717 0.0
3.607889 0.993603 -0.003791 0.0
1.020493 1.621920 -0.001804 0.0
1.194323 1.855438 0.001781 0.0
3.417550 1.564354 -0.000024 0.0
2.307774 1.830533 0.001511 0.0
3.489238 1.769114 -0.003381 0.0
1.551180 1.258555 0.000480 0.0
4.061981 2.099829 0.001156 0.0
1.102337 1.622016 0.004441 0.0
2.761720 0.030069 0.001632 0.0
0.293883 0.710397 -0.000358 0.0
3.359546 1.314309 0.000537 0.0
0.796234 1.420338 -0.004862 0.0
0.541038 0.238243 -0.001344 0.0
2.706470 0.515367 -0.005253 0.0
3.622562 0.617820 0.003571 0.0
2.516691 1.240183 0.001998 0.0
1.017181 1.874240 0.004220 0.0
0.882669 1.189482 0.000636 0.0
2.041120 1.864615 -0.000121 0.0
0.500222 0.664460 -0.000857 0.0
0.742720 1.271825 -0.000310 0.0
2.372171 1.914465 -0.001218 0.0
3.337149 0.314835 -0.002516 0.0
0.258139 1.669051 -0.005754 0.0
0.482905 1.789526 0.000065 0.0
3.361397 1.660711 -0.000732 0.0
3.298084 0.778715 -0.001655 0.0
3.448263 0.490174 -0.000254 0.0
1.937140 1.001682 0.000219 0.0
2.598368 1.136119 0.003331 0.0
3.811851 1.898825 0.000762 0.0
1.469393 0.692952 0.000467 0.0
3.163335 0.486123 -0.000788 0.0
4.068269 1.160496 0.002642 0.0
0.175390 1.814824 -0.003251 0.0
1.048588 0.084089 0.001778 0.0
1.975224 0.142875 0.002346 0.0
3.518298 0.944598 0.000513 0.0
3.407834 0.949172 0.001419 0.0
0.134500 0.027800 -0.001448 0.0
2.792446 0.101433 0.002164 0.0
1.571061 0.877361 -0.001793 0.0
2.458708 0.353497 -0.005778 0.0
0.148397 0.006966 0.003202 0.0
2.265389 1.650498 -0.002209 0.0
1.259686 0.691818 -0.004263 0.0
2.851197 1.688151 0.002259 0.0
1.216859 0.200289 0.002078 0.0
0.387311 0.487380 -0.003861 0.0
3.452427 1.828419 0.001242 0.0
3.324418 0.135610 -0.001461 0.0
2.867064 0.388452 0.000780 0.0
1.052740 0.677116 -0.002542 0.0
1.737029 1.859115 -0.002291 0.0
3.665815 2.079615 -0.004715 0.0
2.953052 1.245295 -0.001026 0.0
1.612068 0.100886 -0.003438 0.0
4.037299 1.503649 -0.000765 0.0
0.438609 0.706577 0.000632 0.0
3.327536 0.252289 -0.003268 0.0
1.397546 1.512129 -0.003142 0.0
0.622977 0.453871 0.000627 0.0
2.954456 0.710459 -0.001317 0.0
1.832533 1.030004 -0.001776 0.0
3.976905 1.125215 0.001725 0.0
0.676431 1.767778 -0.000573 0.0
3.653662 1.657093 -0.002889 0.0
2.508912 1.012707 0.003549 0.0
3.735109 0.382733 -0.000660 0.0
0.947737 1.068469 -0.003169 0.0
3.325031 1.502483 -0.008060 0.0
2.736075 1.879932 0.000705 0.0
0.907058 2.044612 0.001616 0.0
1.090662 0.690383 -0.001469 0.0
2.248864 0.970701 -0.000067 0.0
0.708454 2.068871 0.000568 0.0
2.487147 1.240821 -0.000290 0.0
0.243093 1.391702 0.003556 0.0
0.262508 0.781406 -0.009910 0.0
3.578665 0.560654 -0.004206 0.0
2.883592 0.201155 -0.001643 0.0
1.673870 0.724003 0.002019 0.0
2.159823 0.532185 -0.001810 0.0
0.957321 0.608149 -0.000654 0.0
1.109406 1.537673 0.001061 0.0
0.974562 1.045511 -0.000957 0.0
3.664612 1.798931 -0.004880 0.0
1.079130 0.087758 0.001900 0.0
0.157861 1.908226 -0.003411 0.0
1.319579 1.316332 -0.002116 0.0
2.185284 0.656427 -0.000732 0.0
2.631517 0.313754 -0.000887 0.0
1.845848 0.570892 0.002415 0.0
2.015799 1.382423 0.001927 0.0
3.476431 0.716707 -0.005551 0.0
2.229784 2.007567 0.001952 0.0
1.474132 0.018006 0.003543 0.0
0.184164 0.838221 -0.002067 0.0
0.597036 1.501370 0.000292 0.0
3.106713 1.072374 -0.001026 0.0
0.047698 0.197964 -0.000283 0.0
3.498367 1.127468 -0.000815 0.0
1.249313 1.060598 0.001190 0.0
3.968677 1.893787 -0.004808 0.0
2.194798 1.303730 0.001980 0.0
3.541413 1.785479 0.000564 0.0
0.274217 0.814407 -0.002007 0.0
2.952714 0.464926 0.002557 0.0
1.109091 0.725104 0.005245 0.0
2.273353 0.658529 0.001403 0.0
2.371021 0.690882 0.004833 0.0
2.676505 0.957112 0.002813 0.0
3.120822 1.068503 0.001737 0.0
0.088757 1.754018 0.000900 0.0
2.100654 0.917526 -0.002488 0.0
1.904974 1.570573 -0.001243 0.0
0.953053 1.156148 -0.003362 0.0
3.321869 0.335135 0.003769 0.0
0.390921 1.672463 -0.001184 0.0
2.451887 1.157006 -0.001233 0.0
1.620055 1.798135 -0.000333 0.0
1.348111 2.051139 -0.000420 0.0
0.856568 1.300754 0.005133 0.0
3.427945 1.001272 0.002901 0.0
3.098762 0.527233 0.001490 0.0
0.575343 0.080181 -0.001820 0.0
1.447096 1.406693 -0.002400 0.0
3.894578 1.208681 0.004561 0.0
3.230458 0.797090 0.000182 0.0
0.502485 0.947453 0.001098 0.0
1.447195 0.216388 -0.004110 0.0
1.289821 1.214766 -0.000585 0.0
2.433118 0.406751 0.000228 0.0
1.279738 0.563105 -0.000584 0.0
1.338380 1.312792 0.002370 0.0
2.355181 0.740773 0.002972 0.0
3.271190 0.258018 0.002344 0.0
3.617598 0.480978 -0.005638 0.0
0.156695 1.549182 0.005582 0.0
1.012433 0.748875 0.004116 0.0
0.193469 2.034407 0.000846 0.0
1.427902 0.137832 0.002578 0.0
0.024717 0.578397 0.003768 0.0
0.581216 1.794849 -0.002458 0.0
3.085683 1.153669 0.001199 0.0
2.248327 1.808399 -0.003048 0.0
3.849468 1.514102 -0.002114 0.0
2.011295 1.651403 0.000906 0.0
1.615932 0.570552 -0.002016 0.0
1.467955 0.462461 -0.002561 0.0
3.733426 1.267753 -0.000603 0.0
1.440266 0.237357 -0.002171 0.0
3.798275 0.554272 -0.001433 0.0
3.877176 0.570930 0.002386 0.0
3.976017 0.481269 -0.000991 0.0
2.466356 0.821705 0.002022 0.0
0.225093 1.306379 0.000896 0.0
2.058414 0.446596 -0.000146 0.0
1.766764 1.994543 -0.001895 0.0
2.968207 1.818783 0.002320 0.0
3.997040 0.423131 -0.001035 0.0
1.178450 2.011971 0.000894 0.0
0.866032 1.182151 -0.002855 0.0
1.581245 0.654089 0.001780 0.0
1.904500 0.664926 -0.000871 0.0
3.018249 0.644142 -0.000768 0.0
0.017435 1.411707 0.001842 0.0
3.803585 0.929516 -0.005135 0.0
3.184243 0.655730 0.000308 0.0
1.024106 0.368868 -0.002001 0.0
3.036127 1.281863 0.003834 0.0
2.121066 1.827423 0.002878 0.0
0.923681 0.436789 0.000570 0.0
4.057032 0.470166 -0.001391 0.0
1.138455 1.039272 0.001936 0.0
2.178302 1.642577 -0.000971 0.0
1.215951 1.045192 0.006464 0.0
2.371889 1.342358 -0.004334 0.0
2.181974 0.688034 0.001112 0.0
0.348324 0.549448 0.001771 0.0
3.939761 2.026316 -0.000248 0.0
1.905467 0.422092 -0.001676 0.0
3.093809 0.670058 -0.003716 0.0
3.983874 1.570448 0.001805 0.0
2.328714 1.566876 -0.000103 0.0
1.454271 0.835865 -0.004453 0.0
1.977517 1.432113 0.001842 0.0
3.352795 2.071278 0.000364 0.0
1.276968 0.369855 0.000145 0.0
3.142032 1.301780 -0.002149 0.0
3.410321 1.850204 0.005465 0.0
3.414589 1.300226 0.000083 0.0
1.387805 0.021414 -0.004192 0.0
3.394222 0.534306 -0.002352 0.0
2.925814 1.610459 0.001034 0.0
1.442299 1.249362 0.002232 0.0
1.745774 1.531738 0.000309 0.0
1.886422 0.217050 0.001245 0.0
1.003177 0.587500 0.000651 0.0
3.786396 1.256565 0.003496 0.0
0.010954 2.054091 -0.001015 0.0
2.126481 0.476559 0.000103 0.0
2.160419 2.024311 -0.001752 0.0
3.843608 1.789248 -0.005071 0.0
1.943623 1.945874 0.000027 0.0
2.068159 0.380115 0.000037 0.0
1.281082 0.073933 0.003154 0.0
3.168816 0.922159 0.004203 0.0
0.861096 1.456239 0.000102 0.0
1.495007 0.340215 0.000516 0.0
3.294077 0.091791 0.000387 0.0
0.789383 1.741501 0.004591 0.0
2.347901 0.895267 0.002791 0.0
1.154756 1.751317 -0.001678 0.0
0.672682 0.179553 0.002050 0.0
3.620902 0.371503 0.000106 0.0
1.679460 0.083569 0.005482 0.0
3.583795 1.358606 0.001877 0.0
2.386795 1.420117 -0.004342 0.0
1.815004 1.619645 -0.001327 0.0
3.321611 1.906975 0.001670 0.0
3.840621 0.291742 -0.003433 0.0
0.307809 1.090816 0.000593 0.0
3.314969 0.807357 0.001730 0.0
2.028514 0.140791 -0.002127 0.0
2.727161 1.635739 0.002441 0.0
2.508245 1.505968 0.000054 0.0
0.591295 1.483705 -0.002180 0.0
0.592539 0.913423 0.002100 0.0
2.983809 0.186824 -0.001139 0.0
1.230049 1.216190 0.001546 0.0
0.340486 1.572546 0.002988 0.0
0.867420 0.538339 0.002545 0.0
1.574569 1.360453 0.001853 0.0
1.102633 0.043654 -0.000680 0.0
2.185804 0.934601 -0.004490 0.0
3.221893 0.548497 -0.002371 0.0
3.173737 2.138933 -0.003711 0.0
1.410910 0.344483 0.000398 0.0
3.150449 0.503701 -0.000438 0.0
0.746514 0.020475 0.002629 0.0
1.897148 1.830154 -0.001062 0.0
2.453346 1.410809 -0.000556 0.0
1.577787 0.986755 -0.001388 0.0
2.378160 0.354882 0.004336 0.0
2.520462 1.093599 0.001532 0.0
0.727548 0.639033 -0.003176 0.0
2.158593 0.610626 -0.001300 0.0
1.689783 0.777591 -0.001732 0.0
4.015446 0.937892 -0.000787 0.0
1.266557 0.932577 -0.001086 0.0
1.565553 0.344802 0.000450 0.0
0.512597 2.019182 -0.004132 0.0
2.061367 1.817797 -0.001479 0.0
0.889021 0.350733 0.000838 0.0
3.319635 0.102508 -0.001807 0.0
0.680366 0.371672 -0.000034 0.0
0.100695 1.457718 0.000255 0.0
1.101628 0.067539 0.000952 0.0
0.062902 0.269920 -0.000090 0.0
0.275980 0.068166 0.001661 0.0
0.745108 1.233040 0.000644 0.0
2.790116 0.216174 0.006668 0.0
3.817953 1.898972 -0.000273 0.0
1.164527 0.139090 0.000515 0.0
2.706100 2.023448 0.001966 0.0
3.919356 0.374393 0.002882 0.0
0.987973 1.969357 -0.002190 0.0
2.046008 1.414551 -0.002000 0.0
1.341169 1.101019 -0.000834 0.0
1.364203 1.386891 0.003255 0.0
3.422980 0.596649 0.003832 0.0
3.432153 1.448809 0.001588 0.0
2.877610 0.784996 0.001989 0.0
0.588016 0.458843 0.003378 0.0
2.391029 0.819702 -0.001166 0.0
3.654689 0.344313 0.002017 0.0
0.746758 0.016141 -0.001548 0.0
2.140024 0.452182 -0.005361 0.0
3.405943 0.394866 0.000679 0.0
3.282907 2.014261 0.002769 0.0
0.101755 2.043617 -0.001856 0.0
1.653450 0.837758 0.000217 0.0
0.858102 1.691359 -0.002076 0.0
3.959558 2.123449 -0.001308 0.0
2.273896 1.686600 0.000144 0.0
1.886092 1.630718 0.002750 0.0
2.688182 1.454936 0.002753 0.0
0.274260 1.569616 -0.001692 0.0
0.731041 1.486825 -0.002176 0.0
2.422401 1.992006 0.000598 0.0
1.492308 0.623834 -0.001725 0.0
1.544178 0.384697 0.000685 0.0
0.539511 1.189390 -0.001011 0.0
0.613375 1.889263 0.000238 0.0
0.898733 0.121938 -0.001623 0.0
1.418218 1.924616 0.002589 0.0
1.982585 1.443236 0.000515 0.0
2.733259 0.148187 -0.002480 0.0
0.222224 1.305642 0.001132 0.0
1.869067 2.040405 0.001855 0.0
3.296525 0.232793 -0.001079 0.0
0.259630 1.884858 -0.002752 0.0
1.266234 1.399708 0.001503 0.0
0.466163 1.210125 -0.001927 0.0
1.892653 1.760699 -0.000089 0.0
2.127894 0.146199 0.000664 0.0
0.100118 1.686524 -0.001507 0.0
1.593530 0.165041 -0.002160 0.0
1.238023 0.005347 0.001976 0.0
3.158574 1.036204 -0.002531 0.0
2.040100 1.721066 -0.000520 0.0
0.933450 1.412015 0.002874 0.0
1.398595 0.468356 -0.000833 0.0
3.391108 0.517862 -0.003848 0.0
1.357221 1.988983 -0.003039 0.0
1.248155 0.373331 -0.003341 0.0
2.749191 1.263100 -0.001668 0.0
2.475182 0.800690 0.000536 0.0
0.328821 0.500036 -0.001343 0.0
0.560731 1.949296 0.001997 0.0
3.223903 1.938402 0.002746 0.0
2.524515 0.739735 -0.003097 0.0
2.899774 0.148433 -0.004275 0.0
3.476723 1.355264 -0.000734 0.0
3.139842 0.733574 0.003457 0.0
0.911808 0.199712 -0.000731 0.0
1.340110 0.092731 -0.000234 0.0
0.092955 0.421315 -0.003016 0.0
2.603917 2.019829 -0.002744 0.0
0.024524 1.004465 0.000422 0.0
2.302058 0.086301 -0.001770 0.0
1.204829 1.621324 -0.001985 0.0
1.250111 0.159705 0.000102 0.0
2.739064 1.346704 0.000012 0.0
0.389216 1.008786 0.001733 0.0
2.272924 0.420863 -0.000360 0.0
0.851254 1.324799 -0.004387 0.0
0.769687 1.609120 -0.001814 0.0
1.926425 2.050735 0.002129 0.0
4.031723 1.735871 0.002590 0.0
3.377085 0.400228 -0.001828 0.0
2.222523 0.818872 0.002032 0.0
0.997794 1.389514 -0.001575 0.0
0.917042 0.936133 -0.000824 0.0
2.855350 0.063029 -0.001568 0.0
2.439474 0.890923 -0.001575 0.0
0.892692 1.517481 0.000997 0.0
2.861396 0.938230 -0.001444 0.0
2.536592 0.864158 -0.001395 0.0
2.742647 0.366197 -0.003057 0.0
2.471170 1.593453 0.003627 0.0
1.958833 1.465436 -0.001756 0.0
3.871782 0.885457 -0.000655 0.0
0.033983 0.031260 0.002390 0.0
1.134226 0.218868 0.000836 0.0
0.199690 0.445902 0.002929 0.0
4.053802 0.962347 -0.004137 0.0
3.608859 0.441526 -0.001734 0.0
2.775183 2.064817 -0.004315 0.0
1.523698 1.603925 -0.000799 0.0
2.793380 1.971162 -0.000569 0.0
1.125009 0.570171 -0.001306 0.0
0.636647 1.045618 0.002697 0.0
0.321686 0.258489 0.002764 0.0
1.614888 1.241567 0.001040 0.0
0.550190 0.516024 -0.004129 0.0
4.052762 1.876737 -0.001484 0.0
0.153745 1.867708 0.001309 0.0
3.017988 1.476006 0.002529 0.0
2.377090 0.537615 0.002018 0.0
2.451551 0.233932 0.003724 0.0
0.581575 0.718218 0.000724 0.0
1.655398 1.232506 0.002072 0.0
2.809584 0.765161 0.004456 0.0
3.256975 0.223289 0.000652 0.0
2.995099 1.318171 -0.001469 0.0
0.582546 0.606648 -0.003028 0.0
1.986194 1.549441 0.003083 0.0
2.875921 1.578093 -0.002636 0.0
3.546107 0.118955 -0.000382 0.0
1.849630 2.056938 -0.005381 0.0
2.850108 0.221852 0.003418 0.0
0.690635 1.257209 0.003734 0.0
1.125065 0.514937 -0.000737 0.0
2.045699 0.535936 0.001103 0.0
1.157167 0.371496 0.003257 0.0
0.468661 1.044579 -0.000752 0.0
3.647865 0.545825 0.001714 0.0
0.654298 1.305422 -0.001847 0.0
3.365914 0.163503 0.001984 0.0
2.816212 0.608297 -0.001506 0.0
3.117121 0.989367 -0.001155 0.0
1.665997 1.636208 -0.001016 0.0
0.337495 1.032836 -0.000627 0.0
0.245428 1.380838 0.002646 0.0
1.215060 1.765243 0.004666 0.0
0.360617 1.508287 0.002206 0.0
3.243842 1.435136 0.000385 0.0
0.654955 0.875085 0.000158 0.0
3.956563 1.910945 -0.005804 0.0
1.334370 0.023569 0.001999 0.0
3.634675 1.777404 0.000359 0.0
0.488932 1.541353 -0.001083 0.0
1.229854 0.460783 0.004322 0.0
2.826334 1.629989 0.001121 0.0
0.333891 1.019669 0.000487 0.0
3.774150 0.693616 -0.004024 0.0
1.593704 0.525646 0.001033 0.0
1.826704 1.327013 0.004266 0.0
2.340057 1.001995 -0.001234 0.0
2.052381 1.696417 -0.004629 0.0
0.556880 1.601274 0.003076 0.0
2.647274 1.360493 0.001288 0.0
0.705129 0.488910 0.000184 0.0
1.856202 0.491236 0.003655 0.0
0.198190 0.091289 -0.002840 0.0
1.323848 1.798011 -0.001640 0.0
0.324409 2.084272 -0.003406 0.0
1.927094 1.949489 -0.003095 0.0
3.515086 1.705710 0.000236 0.0
2.170709 1.779275 0.001785 0.0
2.132206 1.398179 0.001993 0.0
2.939441 1.871038 0.001843 0.0
2.863453 0.560439 -0.001298 0.0
3.411428 0.150558 -0.000628 0.0
2.520608 1.073507 0.003786 0.0
1.877849 0.475725 -0.002251 0.0
3.226952 1.850644 -0.002474 0.0
1.422678 1.286815 -0.000450 0.0
1.788708 0.816107 0.004043 0.0
2.138384 1.755301 0.000245 0.0
3.849513 0.434470 0.002863 0.0
2.380371 2.064506 -0.002487 0.0
3.525094 1.844179 0.000123 0.0
2.925166 2.080980 0.002169 0.0
3.232655 0.609133 0.004140 0.0
0.518593 0.386661 0.000279 0.0
2.885453 0.616538 -0.002250 0.0
2.176885 0.409233 -0.000025 0.0
0.011016 1.192605 -0.002734 0.0
0.418002 0.780215 0.003251 0.0
3.910689 0.662131 -0.000082 0.0
0.918132 1.027736 0.000847 0.0
2.248308 0.416843 -0.005083 0.0
1.110995 1.288867 -0.000666 0.0
1.523634 0.083995 -0.002153 0.0
0.671129 0.678657 0.004611 0.0
2.244132 0.299942 0.002132 0.0
3.305075 1.348947 0.003317 0.0
1.702115 0.982623 -0.004107 0.0
1.869329 2.053407 0.004227 0.0
1.466196 1.164524 -0.000552 0.0
0.822107 1.533014 0.005514 0.0
0.310846 0.364466 -0.000324 0.0
2.473491 1.293007 0.002505 0.0
3.613804 0.909909 0.001790 0.0
2.139587 1.349270 0.001368 0.0
3.395641 1.043672 -0.000710 0.0
0.424762 0.286714 0.000753 0.0
2.633898 1.744259 0.000986 0.0
3.862548 1.026473 -0.002925 0.0
3.674996 0.509124 0.001609 0.0
3.337684 1.235631 0.000334 0.0
3.382511 1.748763 -0.005634 0.0
2.765924 1.616303 0.000179 0.0
2.262305 2.082327 -0.004386 0.0
1.163791 1.696296 -0.001945 0.0
3.443785 1.320984 0.000832 0.0
3.387758 0.433564 -0.005434 0.0
4.001080 1.295126 -0.001144 0.0
2.884259 0.380424 -0.003933 0.0
2.680530 1.904050 0.002295 0.0
2.402399 0.029229 -0.000595 0.0
0.315154 0.237884 -0.001948 0.0
3.025952 0.409172 0.001776 0.0
0.879883 1.996257 -0.000991 0.0
2.854345 1.118845 0.000640 0.0
2.878778 0.962609 -0.002503 0.0
2.506980 0.173744 -0.000765 0.0
0.353573 2.062907 0.001341 0.0
1.049226 1.582948 0.001386 0.0
0.561312 1.560231 0.002368 0.0
0.287319 0.543980 -0.005534 0.0
1.052344 0.013912 0.001658 0.0
4.009018 0.645051 -0.001757 0.0
3.756206 0.432895 0.002237 0.0
3.562923 2.024069 0.002794 0.0
0.792174 1.735321 0.003757 0.0
0.850898 1.109256 0.003107 0.0
0.674941 1.488476 0.005324 0.0
0.081725 2.137224 0.001671 0.0
0.230671 0.240441 -0.001051 0.0
0.761259 1.881135 -0.004622 0.0
3.077763 1.249392 -0.000624 0.0
0.261348 1.821506 -0.000269 0.0
2.010167 1.444413 -0.004837 0.0
3.873628 0.763926 -0.002384 0.0
0.463243 1.290000 -0.000672 0.0
0.931374 0.802073 -0.001200 0.0
0.793474 0.778475 0.003787 0.0
2.237080 0.196282 -0.003454 0.0
0.829803 0.067450 0.001455 0.0
1.053455 1.532840 -0.000127 0.0
2.018120 1.664500 0.000912 0.0
0.827041 0.922004 -0.000176 0.0
0.537695 0.769590 0.004555 0.0
3.963486 0.837629 0.002083 0.0
1.225662 1.270467 -0.001183 0.0
0.436970 2.055876 -0.000636 0.0
1.065817 0.017349 0.001551 0.0
3.260453 1.340722 0.003555 0.0
2.114637 1.640019 0.001068 0.0
0.333983 1.629104 0.003185 0.0
0.689820 1.550901 0.000301 0.0
3.933015 1.143201 0.007701 0.0
2.895140 1.679914 0.002418 0.0
1.537263 2.059430 -0.001961 0.0
2.259383 0.497628 0.001368 0.0
0.877473 0.433106 -0.003095 0.0
4.021543 0.222254 -0.000760 0.0
1.964677 2.093258 0.001640 0.0
0.601926 1.036552 -0.003564 0.0
0.541916 0.060696 0.001767 0.0
3.208474 1.930626 -0.000431 0.0
2.316112 0.701213 -0.004056 0.0
2.079262 1.209654 0.000978 0.0
1.949003 0.725995 -0.002406 0.0
3.882709 1.701930 0.001479 0.0
3.308501 0.945892 -0.002274 0.0
2.663941 0.249736 0.000986 0.0
0.629167 1.745490 0.000592 0.0
2.982540 0.559532 -0.001198 0.0
1.180769 1.267172 0.001991 0.0
3.599501 1.073347 0.003206 0.0
0.593676 0.012858 0.004047 0.0
0.785481 0.107946 0.000846 0.0
0.419212 1.137163 -0.000624 0.0
0.827435 0.108878 0.002538 0.0
0.826536 0.560696 0.001188 0.0
3.970295 0.982415 -0.002855 0.0
3.048796 1.811662 0.000302 0.0
1.976049 0.154418 0.003697 0.0
3.467174 0.797069 0.000381 0.0
0.072968 0.769077 0.000484 0.0
3.375308 0.255886 -0.003265 0.0
0.951836 2.028721 0.002489 0.0
3.584756 0.165029 -0.000673 0.0
2.634750 1.186614 -0.001722 0.0
0.074296 2.088306 -0.005934 0.0
0.840999 0.107317 -0.000991 0.0
1.726641 0.672635 -0.001361 0.0
1.589680 0.167538 0.002075 0.0
2.541490 0.534744 -0.002184 0.0
1.959986 0.197215 0.001668 0.0
2.602585 1.967044 -0.002732 0.0
1.694120 1.829521 0.003055 0.0
0.867320 0.227175 0.003026 0.0
0.017697 0.264403 0.000481 0.0
1.847472 0.163233 -0.002674 0.0
3.797366 1.036554 0.001029 0.0
0.243012 1.024787 0.004193 0.0
4.012826 0.179288 0.001161 0.0
2.816907 1.270449 -0.001794 0.0
0.474853 0.835164 -0.001364 0.0
0.625345 0.678299 0.003214 0.0
0.197696 0.307606 0.000042 0.0
1.843117 1.266658 0.000776 0.0
0.931736 1.749809 -0.005723 0.0
2.081152 0.586221 -0.002268 0.0
0.006761 0.799727 -0.002171 0.0
0.114203 0.557281 -0.006953 0.0
2.022274 0.492304 -0.003117 0.0
0.257816 0.211753 -0.000485 0.0
1.963802 1.434112 0.001680 0.0
2.773215 0.262715 0.000286 0.0
2.195436 1.393862 0.004422 0.0
2.009101 1.479960 -0.000921 0.0
2.553534 0.848180 0.001119 0.0
1.050956 0.481732 0.000789 0.0
0.268821 2.077704 0.005595 0.0
1.531030 1.215409 0.000092 0.0
2.743018 0.742045 -0.001218 0.0
0.318099 1.720119 -0.001204 0.0
0.968530 0.516320 -0.001356 0.0
1.959412 1.814421 -0.002452 0.0
0.628604 0.801062 -0.001544 0.0
1.584155 1.058275 -0.000231 0.0
1.391090 0.454282 -0.004197 0.0
3.681117 1.399476 -0.004235 0.0
0.913054 1.988189 0.005418 0.0
3.575412 0.372665 0.002268 0.0
3.256573 0.717331 0.000726 0.0
0.462422 1.028268 0.003808 0.0
3.981903 1.520101 0.000353 0.0
3.291886 1.533809 -0.002289 0.0
0.704453 1.120536 -0.002613 0.0
1.649786 1.639267 0.001109 0.0
1.886230 1.297952 0.002740 0.0
1.708284 1.060957 0.000076 0.0
2.810449 1.190051 0.001027 0.0
2.225190 1.944859 0.001272 0.0
0.645888 0.157091 -0.002239 0.0
2.521257 1.876770 0.001913 0.0
0.653842 1.324375 -0.003396 0.0
0.218832 1.693706 0.001783 0.0
4.060949 0.485179 0.002555 0.0
1.061558 0.091352 0.001883 0.0
0.881574 0.406341 -0.000423 0.0
2.277559 1.342185 -0.002705 0.0
3.282464 1.801998 0.000553 0.0
1.951466 1.852544 -0.004684 0.0
2.119672 0.345382 0.002037 0.0
3.023617 1.973326 -0.000416 0.0
0.567072 0.637981 -0.002057 0.0
1.503469 2.119476 0.002175 0.0
1.726733 2.141922 0.000331 0.0
3.321200 0.231038 -0.000391 0.0
0.221167 0.377121 -0.002024 0.0
2.901272 0.636027 -0.000886 0.0
0.318766 1.648737 0.001725 0.0
2.678031 0.167875 -0.000673 0.0
2.639807 0.523825 0.000339 0.0
0.110554 0.048485 -0.001642 0.0
3.075948 2.113944 0.002134 0.0
0.869230 1.522759 -0.002344 0.0
0.825253 0.657653 -0.002085 0.0
0.961758 1.458875 0.000837 0.0
0.059297 0.399597 0.000608 0.0
1.016676 0.628090 0.003760 0.0
1.746480 1.554315 -0.000706 0.0
3.315023 0.195290 -0.000138 0.0
2.643790 0.275774 -0.004878 0.0
3.323723 1.502051 -0.001828 0.0
3.390390 0.902328 -0.000515 0.0
3.394948 0.811930 -0.004238 0.0
1.926483 1.823190 0.001237 0.0
3.453127 0.075956 0.000932 0.0
2.757456 2.107153 -0.001270 0.0
0.711455 1.122603 0.001526 0.0
3.946456 0.190845 -0.001963 0.0
1.398231 0.282970 -0.003790 0.0
2.124426 2.033251 -0.001086 0.0
2.178831 0.277946 0.001892 0.0
3.540319 0.695036 -0.003630 0.0
0.679077 0.516938 -0.000351 0.0
2.996756 0.948436 0.001095 0.0
2.103472 0.035164 -0.004093 0.0
3.197424 1.109234 -0.002883 0.0
2.911337 0.814628 -0.000249 0.0
3.339233 0.202305 -0.004256 0.0
1.420323 0.296599 -0.003063 0.0
0.794836 1.340098 0.000479 0.0
3.710706 1.806881 0.000887 0.0
2.999600 1.476733 0.002117 0.0
3.976499 0.770120 0.004538 0.0
0.710981 1.460064 -0.000788 0.0
1.812623 1.664056 -0.001764 0.0
1.663713 0.033211 0.000236 0.0
3.417956 1.985673 -0.000645 0.0
2.397083 0.943410 -0.000720 0.0
1.370240 2.040130 0.000775 0.0
1.384214 1.263601 -0.001630 0.0
3.357901 0.737843 0.000994 0.0
3.975523 0.294486 -0.001567 0.0
4.057298 0.033496 -0.001788 0.0
2.464447 1.445543 0.000233 0.0
0.605583 1.164274 0.002700 0.0
3.006155 0.758544 -0.006068 0.0
2.558988 0.879712 0.003285 0.0
1.061020 1.720715 -0.003470 0.0
2.591428 0.745423 0.002787 0.0
2.843384 0.060145 -0.004375 0.0
3.683883 2.099535 -0.002488 0.0
0.638650 1.750759 0.000804 0.0
3.059983 1.535588 -0.001823 0.0
0.437804 1.330791 -0.000592 0.0
0.102773 2.139373 0.000109 0.0
3.556533 1.924133 -0.003155 0.0
2.679737 0.696437 0.000111 0.0
2.373424 0.714499 0.001369 0.0
0.785916 0.644545 -0.003272 0.0
3.392285 1.507221 -0.001024 0.0
3.141083 1.974253 -0.001007 0.0
0.316506 2.094322 0.000785 0.0
0.786895 0.583928 0.001928 0.0
1.697730 0.915537 -0.002180 0.0
0.367274 0.573797 0.004350 0.0
2.878568 0.942051 -0.001720 0.0
0.038160 1.694849 -0.004228 0.0
0.223689 1.495536 -0.000456 0.0
2.484046 0.978356 -0.002950 0.0
1.854500 0.132438 0.001154 0.0
0.297973 0.625624 -0.000972 0.0
1.567015 1.262868 0.005033 0.0
0.034819 0.092060 -0.000976 0.0
2.730278 1.667392 -0.000694 0.0
0.498343 1.791133 -0.003757 0.0
1.697721 0.726479 -0.007288 0.0
0.232334 2.053537 -0.001214 0.0
0.422831 1.747001 -0.001409 0.0
0.455506 0.199389 0.001549 0.0
0.258687 0.742861 -0.001332 0.0
2.154041 1.911368 0.000665 0.0
2.681318 1.767205 0.000008 0.0
3.656689 0.474367 0.000174 0.0
2.728909 1.483065 -0.003566 0.0
3.280521 0.038041 -0.002873 0.0
3.712331 1.268165 -0.000041 0.0
3.634077 2.130915 -0.001925 0.0
1.336300 1.394095 -0.000043 0.0
3.332073 1.208193 -0.001884 0.0
1.065140 0.746810 0.004525 0.0
2.452843 1.823235 0.000723 0.0
2.936110 2.150793 0.001906 0.0
2.677310 0.198999 -0.000682 0.0
1.909967 1.571252 0.000663 0.0
3.069522 0.568150 -0.004571 0.0
2.837087 1.410648 0.000104 0.0
2.881342 1.332690 -0.003225 0.0
2.365794 0.153586 0.003230 0.0
0.300821 0.348709 0.001263 0.0
2.406052 1.533466 0.000633 0.0
2.182548 0.013681 0.003139 0.0
1.370639 0.574477 -0.002207 0.0
2.752893 0.037701 0.002738 0.0
1.049714 0.080256 -0.002328 0.0
2.265517 0.779762 0.000734 0.0
3.009014 1.882123 0.001841 0.0
3.743879 1.620749 0.003544 0.0
3.507765 1.593918 0.002034 0.0
3.731747 0.698255 0.000779 0.0
0.192013 0.694131 -0.003476 0.0
3.950593 1.168947 0.001272 0.0
1.811594 0.369804 -0.002567 0.0
0.161642 1.218079 0.001039 0.0
0.752945 1.518647 -0.003667 0.0
1.290492 0.163461 -0.004185 0.0
0.222244 1.072585 0.001213 0.0
0.270628 1.172040 0.001919 0.0
1.445162 0.536297 -0.000353 0.0
0.755546 1.013578 -0.001993 0.0
1.216454 1.093842 0.005702 0.0
0.914980 2.018024 0.001508 0.0
3.006129 0.250184 -0.001137 0.0
0.472765 1.072246 0.000039 0.0
0.304530 1.566966 0.003119 0.0
3.641026 1.917182 -0.000648 0.0
3.392496 0.093097 -0.001328 0.0
1.446942 1.401357 0.002873 0.0
2.688586 0.533713 -0.004485 0.0
1.333731 1.816142 0.001108 0.0
2.791537 1.405481 0.002301 0.0
0.816731 1.800893 -0.002191 0.0
3.999150 0.509041 -0.002451 0.0
1.251476 1.078366 0.002749 0.0
3.932636 0.661741 -0.002340 0.0
1.687828 1.939744 0.000584 0.0
3.097046 2.043208 -0.001953 0.0
0.935021 0.981121 0.004473 0.0
3.368714 1.462930 0.002015 0.0
3.675352 0.398071 -0.003532 0.0
2.781939 1.337252 -0.000966 0.0
1.382585 1.782722 0.000979 0.0
0.723923 0.566182 0.002957 0.0
0.393993 0.443761 -0.002829 0.0
1.383273 2.064409 0.000464 0.0
2.778557 1.360397 0.003373 0.0
3.249715 1.376672 0.000187 0.0
3.361703 1.194163 -0.000317 0.0
0.213682 0.928540 -0.001523 0.0
2.493711 1.267562 -0.002129 0.0
2.796079 1.176601 -0.001280 0.0
2.421280 1.828050 -0.000530 0.0
3.358742 1.126366 -0.003463 0.0
0.369027 1.849743 0.001737 0.0
2.844760 2.073778 0.000942 0.0
2.962735 1.614079 -0.004100 0.0
3.668017 1.717375 -0.008205 0.0
2.515121 0.728420 0.000068 0.0
3.571124 0.399453 -0.000854 0.0
1.401983 1.996072 0.000039 0.0
2.827684 1.525762 0.001054 0.0
0.389662 0.110866 -0.001429 0.0
2.540276 2.033660 0.000251 0.0
3.104002 1.607720 0.001545 0.0
2.906286 0.157297 -0.001685 0.0
1.591297 0.908955 0.002512 0.0
1.846844 0.260379 -0.000646 0.0
0.263258 2.063217 0.000700 0.0
1.312931 0.278048 -0.000328 0.0
1.454733 1.055022 -0.001343 0.0
3.445585 1.421219 -0.000493 0.0
2.358582 0.877098 0.002948 0.0
0.919719 1.254199 0.002217 0.0
1.947067 1.301275 0.003026 0.0
2.279716 0.936369 -0.001830 0.0
1.701205 0.356174 -0.001530 0.0
0.020570 1.355751 0.000904 0.0
1.648402 0.338926 0.001774 0.0
3.240282 2.116200 0.003050 0.0
1.391869 0.616740 0.001924 0.0
2.326364 1.589285 -0.001844 0.0
2.980454 1.497020 0.000054 0.0
3.409274 0.315315 -0.003366 0.0
3.169069 1.148037 -0.001773 0.0
1.545751 0.658439 -0.004075 0.0
1.459794 0.346188 -0.000254 0.0
0.595776 0.157144 -0.001198 0.0
0.022202 0.168988 -0.000845 0.0
0.715301 1.233054 -0.001919 0.0
0.230697 1.027863 0.003010 0.0
1.246934 1.125226 -0.001182 0.0
2.608719 1.379359 0.004569 0.0
3.668174 0.035841 -0.001355 0.0
3.516743 0.500562 0.001519 0.0
2.074999 1.610834 0.000987 0.0
1.364404 1.308020 0.002458 0.0
0.386428 0.989503 0.004340 0.0
2.276804 1.855282 -0.003621 0.0
0.400137 1.081669 -0.002379 0.0
1.215341 1.750037 0.003559 0.0
1.272141 1.853597 0.001732 0.0
2.444365 1.969850 -0.006172 0.0
2.645232 0.980069 -0.001755 0.0
3.598941 0.551014 -0.001541 0.0
2.661737 1.466661 0.000875 0.0
1.680388 0.403020 -0.000017 0.0
0.233902 0.944904 -0.002412 0.0
2.629046 1.380615 -0.000365 0.0
3.946929 1.540653 -0.002642 0.0
2.969126 0.401695 -0.000652 0.0
3.135290 1.241238 -0.000946 0.0
0.193915 1.041779 0.000103 0.0
2.101870 1.044397 -0.002002 0.0
2.443204 0.063556 -0.003770 0.0
0.168776 0.440531 -0.001224 0.0
3.281878 1.055118 0.002591 0.0
2.943495 1.514407 -0.000277 0.0
2.704281 1.586675 -0.007183 0.0
0.115106 1.393838 0.000348 0.0
3.302394 1.637573 0.000906 0.0
2.110117 0.737989 0.001639 0.0
2.706713 0.792811 0.000141 0.0
1.986835 0.567258 -0.003469 0.0
2.433663 1.777471 -0.000741 0.0
1.550596 1.665127 -0.000150 0.0
2.356710 1.922434 -0.003321 0.0
2.630318 0.525141 0.002274 0.0
2.091217 0.100962 -0.000119 0.0
1.026838 2.050400 -0.006607 0.0
2.522897 2.104224 0.004122 0.0
0.417386 0.653372 -0.001818 0.0
3.298029 2.086688 -0.004372 0.0
3.686530 1.672301 -0.000072 0.0
3.353422 1.754698 0.000218 0.0
2.387815 0.735334 0.004164 0.0
3.831214 1.584544 -0.000273 0.0
1.838169 0.424846 0.004194 0.0
1.853257 2.114332 0.001458 0.0
2.282535 1.075888 -0.004260 0.0
2.812129 1.963322 -0.002539 0.0
0.632985 0.622681 -0.001403 0.0
3.039358 0.654012 0.000668 0.0
1.798499 0.530957 0.002915 0.0
1.900897 0.225258 0.001861 0.0
4.066300 0.339728 0.000901 0.0
3.598415 1.918557 -0.002014 0.0
3.884288 1.169282 -0.001593 0.0
1.365097 0.968739 -0.000659 0.0
0.306023 0.636421 -0.003063 0.0
1.569928 0.936462 -0.001093 0.0
0.092164 0.880699 -0.003732 0.0
3.746023 1.596630 0.000313 0.0
3.497219 0.230300 0.002531 0.0
2.123832 1.518399 -0.002473 0.0
1.315966 1.339153 -0.002287 0.0
1.461455 1.835136 0.000183 0.0
3.788756 1.048208 0.002525 0.0
2.339763 1.308384 -0.000621 0.0
2.224135 1.037989 -0.002262 0.0
0.870165 0.266621 -0.001147 0.0
2.478027 2.141814 -0.001878 0.0
2.859228 0.957971 -0.002243 0.0
1.019986 0.885486 0.000421 0.0
2.337042 1.244944 -0.001039 0.0
3.172447 0.690615 -0.004286 0.0
3.092170 0.366440 -0.000680 0.0
3.534456 1.124685 0.002088 0.0
1.321420 0.099283 0.002166 0.0
3.018764 1.758773 -0.003182 0.0
1.524218 0.628449 0.002312 0.0
1.801909 1.946991 -0.005220 0.0
3.271525 0.350004 -0.000187 0.0
0.377517 0.346721 0.000355 0.0
1.593839 0.807965 0.001258 0.0
1.307299 1.505178 -0.001367 0.0
2.985954 0.611319 0.000806 0.0
1.328649 0.681078 0.000461 0.0
0.413127 1.222846 0.003674 0.0
3.624190 0.166363 -0.002552 0.0
0.512831 1.606644 -0.001742 0.0
3.445356 0.785517 -0.003679 0.0
4.038186 1.169277 -0.004904 0.0
0.564229 1.086555 -0.001126 0.0
2.761654 1.933174 -0.000094 0.0
3.524072 0.636106 -0.000876 0.0
2.874455 0.672206 -0.000134 0.0
1.357321 1.154664 0.001334 0.0
1.072051 1.248931 -0.001592 0.0
3.843066 0.097481 -0.003911 0.0
1.775092 0.264627 0.000776 0.0
0.809170 0.771054 -0.001720 0.0
1.547151 1.266929 0.000100 0.0
2.264510 1.377705 0.004337 0.0
3.431871 0.914813 0.002668 0.0
3.835938 0.226789 -0.000601 0.0
4.028806 1.615599 0.001951 0.0
0.854820 0.958986 0.001892 0.0
2.632200 0.208723 0.001288 0.0
0.547163 0.214811 0.000029 0.0
2.642456 0.367891 -0.003771 0.0
1.500572 2.125527 0.000211 0.0
2.868185 0.557084 -0.002235 0.0
1.180710 0.394355 -0.002292 0.0
2.740250 0.816778 0.000326 0.0
2.489271 1.534357 -0.001514 0.0
1.496199 1.577403 -0.005037 0.0
3.909966 0.451996 0.000196 0.0
3.478968 1.536678 0.002227 0.0
0.096174 1.182732 0.001839 0.0
2.595324 0.392217 0.000522 0.0
0.481000 0.636446 0.002373 0.0
2.824532 1.659433 -0.001082 0.0
3.974044 1.122896 0.000506 0.0
1.454456 0.366085 -0.002164 0.0
2.886266 0.332774 -0.002705 0.0
3.060253 1.130100 0.003305 0.0
1.563490 1.390226 -0.000156 0.0
2.295177 1.596964 -0.000456 0.0
1.709828 1.046182 -0.001705 0.0
0.885835 1.915831 0.002272 0.0
0.720720 1.937140 -0.001527 0.0
2.521237 0.497409 0.001890 0.0
0.212829 0.092679 -0.004083 0.0
3.047163 2.093259 0.001043 0.0
3.467690 0.068127 0.002805 0.0
3.538286 1.563541 -0.000873 0.0
0.167667 0.864233 0.002572 0.0
1.172259 0.228931 -0.000310 0.0
3.527266 0.605006 0.000521 0.0
3.774976 0.130685 0.000312 0.0
0.803583 1.281661 0.001256 0.0
3.576582 0.813275 0.001440 0.0
0.567105 1.842530 0.002298 0.0
3.975378 1.704639 0.004868 0.0
1.212900 0.065491 -0.001629 0.0
0.841643 0.598577 0.004402 0.0
3.969738 1.189287 -0.002458 0.0
2.682228 0.994113 0.002070 0.0
0.576900 2.037369 0.005209 0.0
2.347726 2.070179 -0.001927 0.0
3.286052 1.447642 -0.000319 0.0
0.517197 0.737680 0.001596 0.0
3.412121 0.749618 -0.001930 0.0
3.314718 0.460306 -0.000704 0.0
1.838424 0.274626 0.000854 0.0
0.417595 0.290814 0.003512 0.0
0.425891 0.076984 0.002669 0.0
0.462314 1.117220 0.001665 0.0
0.177979 0.211830 0.004194 0.0
1.020253 0.343733 0.004739 0.0
3.966636 0.987916 0.001679 0.0
2.956534 0.688866 0.001499 0.0
3.038385 0.712878 0.000384 0.0
0.059336 1.868878 -0.005848 0.0
1.983838 1.711809 -0.004372 0.0
0.571287 0.826700 0.002804 0.0
4.052248 1.650246 0.000552 0.0
0.510599 1.123725 -0.002701 0.0
1.610701 1.194878 -0.002874 0.0
0.549622 1.448312 0.001013 0.0
1.788094 2.095376 -0.002936 0.0
1.002600 1.440234 -0.002454 0.0
3.654571 0.893483 -0.002510 0.0
1.186651 0.540717 0.002304 0.0
0.684292 1.643965 0.002573 0.0
3.476991 0.992065 -0.001125 0.0
0.897667 0.838362 0.001279 0.0
3.499138 1.596827 0.002751 0.0
2.146122 1.735560 -0.005594 0.0
1.936307 2.089532 0.000551 0.0
1.421243 2.094844 -0.000069 0.0
2.654244 1.296196 -0.001443 0.0
3.723540 1.632654 -0.001942 0.0
1.922297 2.021396 -0.001390 0.0
2.603549 0.439761 -0.000545 0.0
0.781608 1.969650 0.000231 0.0
1.276719 0.331357 0.002757 0.0
1.195167 0.472320 0.002935 0.0
2.277746 0.545227 -0.000893 0.0
3.318242 1.553528 0.000339 0.0
3.366063 0.923969 -0.000661 0.0
2.942285 1.994406 0.003694 0.0
3.584144 1.985486 0.002451 0.0
2.357359 0.138800 -0.000258 0.0
1.910941 0.784878 -0.001274 0.0
2.112371 2.084780 -0.000810 0.0
3.875051 1.121635 0.000290 0.0
1.367330 0.337736 -0.003590 0.0
0.257089 0.844463 0.000322 0.0
1.662556 1.601169 0.001689 0.0
2.495479 0.854000 0.000916 0.0
3.855550 2.135263 -0.003519 0.0
1.067475 0.799687 -0.002281 0.0
3.557569 1.347527 -0.001448 0.0
0.489622 1.870011 -0.001148 0.0
2.817943 1.000502 0.005180 0.0
2.971828 1.822738 -0.004087 0.0
2.281618 0.719923 0.000576 0.0
1.127205 0.079248 -0.003388 0.0
2.921099 0.802599 0.000865 0.0
2.129414 0.369535 0.003872 0.0
2.148093 0.239240 -0.002305 0.0
2.957036 0.962548 -0.001949 0.0
1.821154 1.176996 0.000666 0.0
3.007575 2.090694 -0.003330 0.0
2.754491 0.337045 0.004422 0.0
3.964090 0.931454 0.000547 0.0
1.933883 0.672087 -0.001948 0.0
3.414879 1.728662 -0.000836 0.0
0.773489 0.464932 0.002219 0.0
2.375480 1.105203 -0.000897 0.0
1.313453 1.716563 0.001641 0.0
0.488768 2.117756 0.000238 0.0
1.754223 1.150145 -0.003698 0.0
1.760618 2.036137 -0.001367 0.0
0.794091 0.378053 -0.003305 0.0
1.065133 1.711989 -0.002381 0.0
3.233857 0.268101 -0.001606 0.0
0.594082 1.818432 0.000334 0.0
0.290505 0.841983 -0.000454 0.0
0.421731 0.553278 -0.003734 0.0
1.142515 0.280159 -0.002531 0.0
1.429434 1.291693 0.003326 0.0
0.623454 1.284401 0.001821 0.0
4.013668 1.174331 -0.006831 0.0
1.319139 0.665877 -0.000800 0.0
2.824398 1.256323 0.004493 0.0
0.424073 0.421713 0.003285 0.0
2.928844 1.543381 -0.001769 0.0
1.841638 1.192642 -0.002457 0.0
3.901221 1.886459 0.004033 0.0
1.256627 1.406047 0.004910 0.0
3.495240 1.669660 0.000759 0.0
2.694137 1.425805 -0.000814 0.0
0.167134 1.474930 -0.006834 0.0
2.068855 0.316319 -0.001069 0.0
2.130537 1.896214 0.000280 0.0
1.791819 1.793640 -0.001415 0.0
2.322082 0.012338 0.002555 0.0
2.539885 1.574132 -0.001914 0.0
4.021083 0.079564 -0.002967 0.0
3.118186 1.047223 -0.001371 0.0
2.237918 1.767905 -0.002831 0.0
1.493253 1.227483 0.002669 0.0
2.637442 0.316456 0.002923 0.0
2.884874 0.704596 0.003956 0.0
1.592917 1.628391 -0.002053 0.0
1.874663 0.386385 -0.001660 0.0
0.798439 1.741055 -0.005331 0.0
2.929881 0.087200 0.004050 0.0
1.084882 0.190411 0.001892 0.0
0.213487 0.480279 -0.000695 0.0
2.447450 1.377227 0.000650 0.0
0.066638 2.061556 0.001289 0.0
0.436578 0.392986 0.001739 0.0
0.302777 1.290726 0.000820 0.0
3.529441 1.699880 -0.000254 0.0
1.164862 1.268937 0.000561 0.0
3.887894 1.911688 -0.000525 0.0
2.681678 1.246188 -0.000745 0.0
3.019622 0.439411 0.001706 0.0
0.105293 1.213297 -0.006924 0.0
3.083938 1.304238 0.001128 0.0
1.762560 2.045148 -0.001570 0.0
3.713233 1.555030 0.001289 0.0
3.337186 0.658828 0.001339 0.0
0.738405 0.772159 0.007209 0.0
2.251781 1.161936 -0.000122 0.0
2.449418 1.055389 -0.000184 0.0
0.925054 1.914860 -0.000714 0.0
0.942840 1.051795 0.000678 0.0
1.114098 0.593994 0.000528 0.0
1.495196 0.191895 -0.003776 0.0
1.959484 1.748061 -0.000267 0.0
0.151613 0.881157 -0.000959 0.0
1.054582 0.070581 0.001122 0.0
1.022823 0.045995 -0.000128 0.0
1.056308 0.517460 -0.007280 0.0
0.041736 2.027400 -0.001407 0.0
3.849081 1.660333 -0.003075 0.0
3.100802 1.195195 0.000931 0.0
1.804325 0.377647 0.000118 0.0
2.992921 0.768267 0.003609 0.0
2.670139 0.629838 -0.001570 0.0
0.866416 2.102114 -0.000551 0.0
3.379483 1.403553 0.000983 0.0
2.644613 1.661980 -0.000777 0.0
1.795333 1.425061 -0.002302 0.0
2.073945 0.062015 -0.003236 0.0
2.072604 0.099352 0.000648 0.0
3.649383 0.238477 0.000015 0.0
1.213550 1.171461 0.002310 0.0
1.788026 0.120320 0.002597 0.0
1.434804 1.017572 0.000014 0.0
2.337196 0.545863 0.001389 0.0
2.453868 1.425837 0.000292 0.0
2.056417 0.470002 -0.000650 0.0
3.964144 1.492384 -0.002019 0.0
1.631899 0.234799 0.001665 0.0
2.794649 0.428796 0.001120 0.0
2.230726 0.577052 -0.002083 0.0
3.629399 1.895136 -0.000339 0.0
2.262513 0.464617 -0.000609 0.0
3.172643 0.129938 0.001071 0.0
3.787785 1.297254 -0.000945 0.0
0.825767 1.752057 -0.000185 0.0
0.680758 1.482349 0.002686 0.0
2.476943 0.265033 -0.001660 0.0
1.040813 0.830244 0.000182 0.0
0.894568 1.555437 0.001919 0.0
1.295556 1.142742 -0.001198 0.0
0.697012 2.060521 -0.005075 0.0
0.782078 0.075694 0.001690 0.0
1.567143 0.642270 0.000016 0.0
0.716848 1.959743 -0.001685 0.0
3.738223 1.822835 -0.003370 0.0
0.144026 1.928624 0.004226 0.0
1.563802 0.537365 -0.001434 0.0
2.452826 0.313646 0.002113 0.0
0.143731 0.714539 -0.001564 0.0
1.086424 0.118819 0.002079 0.0
0.372659 0.485699 0.001361 0.0
2.182693 0.794349 0.000549 0.0
0.595550 2.020976 0.001715 0.0
1.694041 0.115600 0.003559 0.0
1.677867 0.517177 0.002250 0.0
1.591024 0.369057 0.000274 0.0
0.587657 1.394375 -0.003012 0.0
2.550714 1.208201 0.002270 0.0
3.806417 1.569125 -0.003461 0.0
2.104486 0.465395 0.003628 0.0
1.432290 0.079950 -0.002913 0.0
3.169525 1.471491 -0.004756 0.0
1.112137 1.895176 0.003065 0.0
2.445002 0.737167 0.004813 0.0
1.472346 0.689724 0.000739 0.0
3.833737 1.618558 0.002865 0.0
2.304550 1.071927 0.003897 0.0
3.009427 0.075768 -0.000071 0.0
1.475019 1.240177 -0.003051 0.0
1.598359 1.849467 -0.001674 0.0
1.396752 0.123621 -0.001418 0.0
2.955067 0.618061 0.000332 0.0
0.539466 1.363408 -0.003125 0.0
0.255116 0.103799 0.001858 0.0
2.129383 1.513083 0.000409 0.0
2.159813 1.881141 0.002069 0.0
2.887342 1.081347 0.000872 0.0
2.349878 0.667508 -0.002766 0.0
3.138559 0.898699 -0.001286 0.0
1.459150 1.524255 0.002955 0.0
2.871446 1.003473 -0.002309 0.0
2.626653 1.364890 -0.002239 0.0
2.089823 0.816037 0.002923 0.0
2.389424 0.942236 0.003371 0.0
3.009859 1.194288 -0.002862 0.0
2.333728 1.842452 -0.004603 0.0
2.099604 1.856909 -0.001569 0.0
2.811807 1.578740 -0.000579 0.0
4.035664 0.308127 -0.000574 0.0
0.072701 1.935414 0.000966 0.0
1.023261 1.453335 0.004211 0.0
3.636159 0.671567 -0.000086 0.0
2.756644 0.577157 -0.001586 0.0
1.395069 1.116342 -0.000267 0.0
0.134775 1.357030 -0.000511 0.0
2.784522 2.054156 0.000752 0.0
1.967773 1.214294 0.000329 0.0
3.086567 0.205431 0.006187 0.0
0.740969 0.649163 0.000273 0.0
0.377020 1.714361 0.002141 0.0
3.152610 2.103229 -0.000301 0.0
0.483979 1.998216 0.002352 0.0
3.036660 1.299574 0.005537 0.0
1.499454 0.331625 -0.004067 0.0
1.466679 1.098614 -0.000541 0.0
3.276367 1.471507 0.002117 0.0
1.413719 1.875902 0.000884 0.0
1.042383 0.818627 -0.000564 0.0
2.702782 0.050577 0.000712 0.0
3.772201 1.499280 -0.005290 0.0
1.724407 2.067410 -0.003258 0.0
3.160076 0.287945 0.000813 0.0
0.330452 1.862188 0.002449 0.0
3.251901 0.325230 0.000382 0.0
1.635740 1.869423 0.000030 0.0
3.764581 1.923958 -0.003184 0.0
0.317556 1.153266 -0.002994 0.0
0.869667 0.528893 -0.001049 0.0
2.538924 1.354054 0.003750 0.0
1.520590 0.708537 0.001367 0.0
0.687949 1.291232 -0.002187 0.0
1.704577 1.774617 -0.005578 0.0
0.838369 0.521674 -0.004267 0.0
1.511966 1.592926 -0.000657 0.0
3.213770 1.105312 0.005163 0.0
2.425917 1.695186 0.003365 0.0
2.265197 0.679296 -0.000083 0.0
2.944843 0.136820 0.001560 0.0
0.552598 1.629229 -0.001405 0.0
1.952269 1.634091 -0.004943 0.0
3.695933 0.588235 -0.000607 0.0
1.123522 1.829570 -0.000852 0.0
3.165348 0.721395 -0.004391 0.0
3.387281 0.137311 0.000788 0.0
3.628128 0.449461 -0.003905 0.0
1.529670 0.542135 0.004025 0.0
2.523540 1.484383 0.000079 0.0
1.530146 0.136987 -0.001356 0.0
1.093627 2.014765 0.001915 0.0
1.437154 0.942223 -0.000318 0.0
3.031667 2.033929 0.000020 0.0
3.837814 1.096251 -0.003215 0.0
1.843755 1.367028 0.000771 0.0
2.728584 0.184958 -0.000901 0.0
0.077729 1.999655 0.000242 0.0
3.903245 1.560666 0.001559 0.0
1.082849 0.428205 -0.007541 0.0
4.048834 1.458825 -0.004680 0.0
2.856953 1.516268 0.001841 0.0
3.285290 0.984727 0.001603 0.0
3.097584 0.934167 0.001601 0.0
0.339184 0.926750 -0.000299 0.0
3.812548 1.088340 -0.001113 0.0
3.502016 1.176023 0.000187 0.0
1.887436 1.659582 0.001827 0.0
1.942540 1.893946 0.000014 0.0
1.025905 0.590158 -0.001955 0.0
1.345799 2.093713 0.000327 0.0
0.825651 1.762105 -0.004298 0.0
3.261535 0.064346 0.001676 0.0
3.183214 0.064221 0.002252 0.0
2.843079 1.805540 0.001237 0.0
1.064595 0.973575 -0.002586 0.0
1.740775 1.453147 -0.001211 0.0
1.705324 1.239717 0.001032 0.0
1.500339 1.943073 -0.001725 0.0
1.084086 0.334320 0.001352 0.0
0.576564 1.318555 0.001367 0.0
2.868007 0.987729 0.005499 0.0
1.958143 0.447279 0.001706 0.0
0.930043 1.949381 0.003278 0.0
2.614277 1.716650 0.001305 0.0
3.637134 0.899889 0.000568 0.0
2.376164 0.020898 -0.000524 0.0
3.316353 0.328758 0.001535 0.0
2.256009 0.274917 -0.002983 0.0
3.803594 1.841723 -0.001550 0.0
2.282554 1.503889 -0.004844 0.0
0.211911 1.714693 0.000041 0.0
1.478231 1.701127 -0.000403 0.0
1.408276 0.411324 0.002237 0.0
1.844346 0.829608 0.000412 0.0
0.782956 1.380153 -0.000221 0.0
0.030402 1.938985 -0.000967 0.0
1.735529 0.860477 0.006445 0.0
3.763502 1.412467 0.001570 0.0
1.239061 0.534639 -0.000233 0.0
0.417659 1.376972 -0.000240 0.0
3.590054 1.270193 -0.000736 0.0
2.578787 0.082701 0.000727 0.0
0.777926 2.128634 -0.000224 0.0
2.923280 1.620291 -0.002322 0.0
0.469381 1.381139 0.001371 0.0
3.155233 2.050841 0.000296 0.0
3.418052 1.171112 -0.002377 0.0
2.033270 2.032658 -0.001829 0.0
0.038795 1.415627 -0.000053 0.0
3.422067 0.596339 -0.002126 0.0
2.674214 1.913525 -0.002747 0.0
1.873196 0.121310 0.000667 0.0
0.426699 0.497093 0.000266 0.0
3.258152 0.929538 -0.003612 0.0
4.010750 1.021233 -0.002701 0.0
2.407843 0.918100 0.000019 0.0
1.597537 1.192064 0.002064 0.0
2.897421 0.441799 -0.000354 0.0
0.733644 1.319888 0.000791 0.0
0.283310 0.492677 -0.000702 0.0
0.352205 2.034700 -0.002885 0.0
3.200383 1.585009 -0.001391 0.0
3.564928 0.095898 0.000174 0.0
0.292914 0.096586 0.002100 0.0
3.891267 0.133198 0.003970 0.0
2.988316 0.685464 0.001664 0.0
0.784220 0.931169 0.001280 0.0
3.579872 0.868089 -0.001836 0.0
0.935001 1.557535 -0.001992 0.0
1.419862 0.260634 0.004557 0.0
0.755768 0.382516 -0.002788 0.0
3.512151 1.504025 -0.001363 0.0
2.660769 1.086868 0.002911 0.0
1.239821 0.898726 -0.000356 0.0
1.141387 0.651941 0.000610 0.0
1.409853 0.413840 -0.001062 0.0
0.544221 0.477530 0.001282 0.0
0.941364 1.430199 0.002851 0.0
3.288691 0.013406 -0.000434 0.0
0.222941 0.008852 0.003082 0.0
3.803028 1.348462 -0.001816 0.0
0.129115 2.129166 0.003834 0.0
1.346659 0.878162 0.001231 0.0
3.886772 0.578420 -0.001052 0.0
1.643053 0.212022 -0.003358 0.0
0.191324 1.930232 0.003851 0.0
0.215383 1.705196 0.000317 0.0
1.920149 1.489728 0.000707 0.0
0.879792 0.904584 -0.002508 0.0
0.596280 0.318867 -0.000056 0.0
2.170787 1.752875 -0.001309 0.0
2.368545 0.947028 0.000953 0.0
1.382980 1.844456 -0.002047 0.0
2.536386 2.002749 -0.004972 0.0
1.009001 0.587506 0.003608 0.0
1.240348 1.516459 0.002597 0.0
2.227090 0.389983 0.000274 0.0
1.869620 1.625464 -0.001317 0.0
3.529720 1.355899 -0.001200 0.0
3.898321 1.517111 -0.002880 0.0
1.097481 0.914430 -0.003068 0.0
3.606252 0.852533 0.004072 0.0
3.343989 0.559066 -0.000844 0.0
2.275775 1.819532 -0.001443 0.0
2.358587 1.582987 0.000163 0.0
2.545032 0.047351 0.005922 0.0
0.659510 0.055678 0.002029 0.0
0.217064 0.257502 0.003312 0.0
0.259405 0.179515 -0.001635 0.0
3.423553 1.574550 -0.001537 0.0
2.993721 1.903250 0.001242 0.0
3.533714 2.080513 0.002568 0.0
2.036275 0.484445 0.005041 0.0
3.656999 0.445527 0.001861 0.0
1.730451 0.153803 -0.001928 0.0
1.454765 1.909128 0.000154 0.0
3.887818 1.187432 0.000046 0.0
1.118301 1.569295 0.003453 0.0
3.582559 0.598428 -0.000139 0.0
3.531977 0.175288 -0.001644 0.0
2.549201 0.944821 -0.000522 0.0
0.623029 1.279962 0.001096 0.0
3.605559 1.520206 0.003486 0.0
3.117912 1.089614 -0.001978 0.0
3.771495 0.089528 -0.002787 0.0
3.333904 2.123736 0.002060 0.0
0.863034 0.312199 0.000092 0.0
2.072801 0.490897 0.000068 0.0
0.995581 1.372493 0.002062 0.0
2.320109 0.693079 -0.001357 0.0
3.724120 1.412675 -0.001122 0.0
2.344933 1.501552 0.004017 0.0
0.328795 1.299750 0.004117 0.0
1.927035 0.689073 0.001755 0.0
1.662110 0.338173 0.002067 0.0
1.409178 1.399212 -0.001945 0.0
2.176220 1.409327 0.001448 0.0
2.285835 1.909257 0.004406 0.0
3.444148 1.267981 -0.001282 0.0
0.692609 1.200371 -0.003132 0.0
1.405992 1.760469 0.000879 0.0
2.833838 1.510056 0.001558 0.0
3.676782 0.351108 0.000253 0.0
3.707168 0.258877 0.000327 0.0
2.861864 0.496456 0.001834 0.0
2.380361 1.687542 -0.002802 0.0
1.399264 1.566987 0.000363 0.0
3.987251 0.247519 0.004654 0.0
3.932599 0.396582 0.001842 0.0
0.115407 1.559728 0.002269 0.0
0.799854 0.668600 0.001804 0.0
0.471280 1.200347 -0.004576 0.0
3.331405 0.965266 0.000115 0.0
0.498777 1.607454 0.000185 0.0
0.760215 2.044689 -0.000019 0.0
3.533538 1.198578 -0.000123 0.0
1.256951 0.570596 0.004189 0.0
1.001101 2.063695 -0.000949 0.0
0.526892 1.451514 0.002033 0.0
1.579530 1.454503 -0.004487 0.0
0.473458 1.132404 -0.000663 0.0
2.367598 1.848178 0.000935 0.0
0.239574 0.210455 -0.002498 0.0
1.456436 1.401821 -0.000833 0.0
0.388655 1.083900 0.002792 0.0
0.811795 1.279591 0.001616 0.0
3.488706 0.233145 -0.003298 0.0
0.994300 1.019460 -0.000411 0.0
1.932784 0.288185 -0.001097 0.0
2.227997 2.023962 0.003992 0.0
0.481669 0.581408 0.000073 0.0
2.288856 1.235702 0.001730 0.0
3.255071 0.104688 0.002864 0.0
3.243057 0.649099 -0.000094 0.0
1.234409 2.026529 -0.002880 0.0
1.541709 0.405525 -0.001550 0.0
1.108452 0.238457 -0.004645 0.0
2.013943 1.987597 0.005407 0.0
0.814994 1.296170 -0.002860 0.0
0.282384 1.458356 -0.000123 0.0
2.257383 2.029936 0.000832 0.0
2.988621 0.710333 0.001794 0.0
2.804246 0.969773 0.001333 0.0
4.029049 1.887876 0.001278 0.0
3.186419 1.632666 0.004315 0.0
2.741097 0.408531 0.002443 0.0
3.729994 0.525138 0.000761 0.0
2.803746 0.775697 0.000989 0.0
0.178975 0.810295 -0.001073 0.0
2.538721 1.403576 0.003519 0.0
1.215127 0.558727 -0.002953 0.0
3.090504 0.358375 -0.000070 0.0
1.039978 1.679963 0.001545 0.0
0.969799 1.336441 -0.003975 0.0
2.091181 1.065226 0.002050 0.0
1.045746 0.152618 -0.000415 0.0
4.015335 1.527792 -0.001849 0.0
0.734834 1.623942 0.002032 0.0
1.623569 0.259306 -0.000805 0.0
0.238697 1.789244 -0.000998 0.0
3.018080 1.035743 -0.006138 0.0
1.150940 0.001422 0.003054 0.0
1.943101 1.771586 -0.000554 0.0
1.447524 1.034643 0.001477 0.0
0.125763 1.031542 -0.002451 0.0
