2.16670623 0.54588167 0.00153924 0.00000000
1.35666223 1.35692656 0.00233063 0.00000000
4.23302322 0.78602091 -0.00094765 0.00000000
4.29564160 1.13682458 0.00039693 0.00000000
3.99351292 1.49564859 -0.00203364 0.00000000
1.22226793 1.45435954 -0.00132786 0.00000000
2.01701574 1.15021882 0.00055860 0.00000000
2.50815369 0.75178138 0.00298777 0.00000000
1.49331890 0.65313674 -0.00411701 0.00000000
2.79358958 0.64915257 -0.00140122 0.00000000
2.55916193 0.71401465 -0.00351496 0.00000000
1.98668358 0.76960489 0.00017907 0.00000000
2.07554100 1.37608731 -0.00113119 0.00000000
1.18322904 1.07411157 -0.00023073 0.00000000
3.68985629 0.54874585 -0.00180238 0.00000000
4.43002923 0.92012320 0.00297468 0.00000000
3.67184503 1.32299061 0.00042531 0.00000000
2.08094331 0.85778242 -0.00361706 0.00000000
0.55544416 1.08338557 0.00099238 0.00000000
2.06003066 1.63588450 -0.00085526 0.00000000
2.12188797 0.46949360 0.00031631 0.00000000
3.85416861 0.06715088 0.00427410 0.00000000
3.59093908 0.41378854 0.00205321 0.00000000
0.19799628 1.00478616 -0.00691930 0.00000000
4.33521307 1.20564855 0.00752039 0.00000000
4.35351729 1.06152274 0.00234002 0.00000000
0.68778456 0.42859048 -0.00228898 0.00000000
0.01494025 0.70714801 0.00190163 0.00000000
4.38721112 0.11843250 0.00110957 0.00000000
2.89694264 1.28858350 0.00144333 0.00000000
0.25259776 0.92263644 -0.00077442 0.00000000
2.89569410 0.12653228 0.00198554 0.00000000
1.91382274 0.59082055 -0.00021876 0.00000000
3.77734258 1.09068475 -0.00087386 0.00000000
2.87816033 0.95125562 -0.00420762 0.00000000
4.19205536 1.10316974 -0.00354082 0.00000000
1.41931712 0.25872564 -0.00158184 0.00000000
4.06451280 1.03675618 0.00076827 0.00000000
4.19788310 1.25206190 0.00427678 0.00000000
1.44432550 0.07807974 0.00022088 0.00000000
3.56756638 0.66616111 -0.00001049 0.00000000
2.61802661 0.78363264 0.00006549 0.00000000
1.74932653 0.93041649 0.00005701 0.00000000
3.95570480 1.52722517 0.00399825 0.00000000
0.78713594 1.27879221 -0.00068784 0.00000000
3.47795840 0.23908460 -0.00477892 0.00000000
4.47800983 0.70222992 -0.00018566 0.00000000
3.03506055 0.22886924 0.00608825 0.00000000
0.56382382 0.91921121 -0.00141169 0.00000000
2.71085302 1.64591657 -0.00085540 0.00000000
4.05290957 0.66385710 -0.00129153 0.00000000
3.64409123 1.34993027 -0.00120500 0.00000000
3.03059185 0.81132516 -0.00060697 0.00000000
1.46727481 0.83152948 -0.00054953 0.00000000
4.07099529 0.81166433 -0.00256519 0.00000000
3.78431555 1.00647873 0.00144977 0.00000000
1.71217719 1.45716162 0.00474699 0.00000000
2.85903367 1.06815156 -0.00088856 0.00000000
3.46595539 1.49924753 0.00430565 0.00000000
1.40511409 1.10306786 0.00445163 0.00000000
1.47361739 1.36190068 -0.00463931 0.00000000
2.31624995 1.64130463 -0.00118612 0.00000000
4.04354312 1.24381433 -0.00304160 0.00000000
3.49699644 1.62380410 0.00074941 0.00000000
1.70472092 0.44094723 0.00018678 0.00000000
0.78478377 0.30191086 0.00104140 0.00000000
1.99832354 1.05080152 -0.00192337 0.00000000
0.37470819 0.68241229 0.00044086 0.00000000
2.37729515 0.94009473 -0.00498767 0.00000000
1.28453545 0.10826550 -0.00283910 0.00000000
2.28695455 0.04543734 -0.00023054 0.00000000
2.07690364 1.18579810 0.00096004 0.00000000
3.34651475 1.26895824 -0.00119093 0.00000000
0.68523731 0.53580612 0.00000654 0.00000000
0.27760730 0.24868847 0.00034625 0.00000000
2.21556601 0.34650378 0.00165464 0.00000000
2.74481753 0.79637222 -0.00860714 0.00000000
3.36565943 1.51542536 -0.00168797 0.00000000
4.08276017 1.34424917 -0.00385673 0.00000000
2.64613823 1.17009780 -0.00139076 0.00000000
2.28163154 0.03705204 0.00183771 0.00000000
2.60448462 0.44024607 -0.00197954 0.00000000
3.00049337 1.14866587 0.00679965 0.00000000
0.03241461 1.40700017 -0.00354783 0.00000000
1.59965684 0.45409652 -0.00283342 0.00000000
1.65611775 0.97792126 -0.00461423 0.00000000
2.08952670 1.13275903 -0.00096596 0.00000000
3.05541356 0.82017318 0.00240580 0.00000000
4.06939060 1.36502653 -0.00130620 0.00000000
2.75401381 0.26597601 -0.00113883 0.00000000
4.06238087 1.47164344 0.00060827 0.00000000
2.51230213 0.35757700 0.00233028 0.00000000
0.99413699 1.14790002 0.00412370 0.00000000
1.90459880 1.09528531 -0.00104102 0.00000000
3.31993464 0.82334381 0.00379146 0.00000000
0.14644954 0.40340264 0.00275758 0.00000000
4.25625300 1.60436727 0.00039643 0.00000000
1.61596007 0.52385969 0.00066077 0.00000000
0.90310521 1.16202945 -0.00211646 0.00000000
2.15643303 1.19279885 0.00020725 0.00000000
1.05421482 0.06467858 0.00437601 0.00000000
3.04037550 1.14143486 0.00159209 0.00000000
0.76542547 1.28451233 0.00367152 0.00000000
3.94794679 1.01777699 0.00051987 0.00000000
3.96805101 1.50959501 -0.00272174 0.00000000
0.67695966 0.33843827 -0.00264665 0.00000000
1.45698090 0.18681370 0.00045777 0.00000000
0.99407810 1.62853097 0.00170971 0.00000000
1.00964674 0.88517106 -0.00040926 0.00000000
2.66416407 0.89046003 -0.00249867 0.00000000
3.87278697 0.60964380 0.00114808 0.00000000
2.35072886 0.15163810 0.00485113 0.00000000
3.08465723 1.27048910 0.00449601 0.00000000
2.27085598 1.22371042 -0.00031686 0.00000000
3.00173722 0.67971120 0.00018911 0.00000000
1.05007000 0.66400316 0.00066421 0.00000000
2.84872055 0.19803037 0.00189748 0.00000000
2.75393373 0.97776620 0.00037059 0.00000000
4.16619042 0.82852672 -0.00038272 0.00000000
3.67363348 0.55575797 -0.00358785 0.00000000
4.09151983 0.84376737 0.00303096 0.00000000
3.33472732 1.38271677 0.00045389 0.00000000
4.19541292 0.13402449 -0.00003375 0.00000000
3.89090672 0.31141633 -0.00013059 0.00000000
4.32206348 0.43189362 -0.00351187 0.00000000
2.68725253 1.48572994 -0.00021689 0.00000000
1.50308711 1.03361872 -0.00406505 0.00000000
0.95305471 0.57854142 -0.00012999 0.00000000
2.31760819 0.32614711 -0.00026339 0.00000000
3.08701848 0.80086795 -0.00234326 0.00000000
1.33563771 0.96862776 0.00077465 0.00000000
1.82523018 0.32044619 0.00007328 0.00000000
4.10383152 0.41983433 0.00007202 0.00000000
1.37651851 0.82200092 -0.00013099 0.00000000
1.67986128 0.70993314 0.00014712 0.00000000
3.00718757 0.48311199 -0.00175617 0.00000000
1.67491422 1.28510911 -0.00108526 0.00000000
3.09586696 0.73405276 -0.00028334 0.00000000
1.26579222 1.03682970 -0.00115370 0.00000000
0.18871418 0.31974901 -0.00216452 0.00000000
2.02962208 1.58461613 0.00461880 0.00000000
2.68747415 0.70363207 0.00251821 0.00000000
2.35135094 0.11608316 0.00332257 0.00000000
3.17700639 0.65426912 -0.00192695 0.00000000
2.15292781 0.86807867 0.00013532 0.00000000
1.78234881 1.50211723 -0.00103388 0.00000000
0.63998103 1.03892836 0.00211686 0.00000000
0.15036731 0.23478023 -0.00002965 0.00000000
1.86267701 1.14774914 0.00148713 0.00000000
1.98244880 0.54060309 0.00052797 0.00000000
4.32395666 0.48293423 -0.00059352 0.00000000
1.01768883 1.64315487 0.00270884 0.00000000
3.81359453 0.58456433 -0.00162096 0.00000000
1.61191980 1.01765555 -0.00060394 0.00000000
1.23922275 0.83598871 0.00177965 0.00000000
1.08280226 0.76977187 0.00471159 0.00000000
3.66956027 1.45558026 -0.00322812 0.00000000
0.55752020 1.21733554 0.00009403 0.00000000
3.00570336 1.30929237 0.00038777 0.00000000
2.27383376 0.56292972 -0.00079145 0.00000000
3.95618330 0.94155530 -0.00137495 0.00000000
2.61836629 0.71861076 -0.00283798 0.00000000
0.46068485 0.59183623 0.00194518 0.00000000
3.39694809 1.32254346 0.00068492 0.00000000
0.87473806 0.84083857 0.00090330 0.00000000
0.72824274 1.47787576 0.00151913 0.00000000
3.36443432 1.56754109 -0.00103122 0.00000000
2.68430739 0.51260160 0.00391803 0.00000000
0.34953282 0.08026588 -0.00464208 0.00000000
0.43223269 0.62971339 -0.00121591 0.00000000
1.14679853 0.99135141 -0.00223993 0.00000000
1.78123605 1.22821413 -0.00081771 0.00000000
2.96632584 1.00301749 0.00054135 0.00000000
3.29767188 0.38215523 0.00003049 0.00000000
0.67649760 1.58343078 -0.00093390 0.00000000
2.89323302 0.78575042 0.00404413 0.00000000
1.07743848 1.48539157 0.00015229 0.00000000
3.46091553 1.56831108 0.00353119 0.00000000
2.30116878 0.51426468 0.00050614 0.00000000
1.25186519 1.39323047 0.00043906 0.00000000
1.91033090 0.54920060 -0.00254658 0.00000000
2.83930903 1.26002056 -0.00435293 0.00000000
1.71633358 0.61303647 0.00383661 0.00000000
3.99528003 1.18702686 0.00278376 0.00000000
3.49212651 1.34940856 0.00268863 0.00000000
3.83302222 1.23050590 0.00367422 0.00000000
1.02020488 0.60694177 0.00040569 0.00000000
3.93807957 1.50201448 -0.00131023 0.00000000
3.94556911 0.65598521 -0.00461305 0.00000000
3.37042536 1.15943849 -0.00322443 0.00000000
2.27626981 0.61088554 0.00084768 0.00000000
2.20099517 0.08773119 0.00440261 0.00000000
0.24243813 0.50519830 -0.00337511 0.00000000
4.12438596 0.91966154 0.00204029 0.00000000
3.36033767 1.42793062 0.00187965 0.00000000
2.42403945 0.04731254 0.00035965 0.00000000
0.68619361 1.51235981 0.00013612 0.00000000
0.27392845 0.16638910 -0.00212771 0.00000000
4.46073718 1.09075482 -0.00064624 0.00000000
1.12435041 0.41626089 0.00374302 0.00000000
2.76839533 0.29074407 -0.00200121 0.00000000
3.89689914 0.80344833 -0.00109802 0.00000000
3.74429924 1.15691797 -0.00065149 0.00000000
3.69444378 1.32998165 0.00068587 0.00000000
2.72130743 0.65668496 0.00008299 0.00000000
3.14876504 1.53966619 -0.00092854 0.00000000
2.22317554 1.63498152 -0.00232899 0.00000000
0.75636030 0.48722682 -0.00242292 0.00000000
3.83894511 0.92749992 -0.00149636 0.00000000
1.61214841 1.49580066 0.00169706 0.00000000
3.30308062 1.47742295 0.00054643 0.00000000
1.18035763 0.88920854 0.00237796 0.00000000
2.68222538 0.88657667 -0.00080413 0.00000000
1.24802801 0.80154872 -0.00353051 0.00000000
0.26692585 1.39564191 -0.00003556 0.00000000
3.35859707 0.24155382 -0.00441037 0.00000000
4.35067843 1.56637904 0.00077014 0.00000000
2.07715210 0.95483409 -0.00272760 0.00000000
0.20125707 0.63335184 -0.00160936 0.00000000
2.45734476 0.61700937 -0.00089735 0.00000000
2.63092531 1.43423670 -0.00118832 0.00000000
3.30292848 0.65623213 0.00234234 0.00000000
2.78137810 1.05875514 -0.00358559 0.00000000
2.54449708 0.80096583 -0.00018314 0.00000000
3.92693848 0.39672268 0.00197945 0.00000000
4.17264063 0.00250867 0.00006167 0.00000000
3.46042618 1.32544551 0.00010824 0.00000000
2.11687860 1.16821264 -0.00124054 0.00000000
1.49271265 0.75045871 -0.00173823 0.00000000
4.02922566 0.38314537 0.00389377 0.00000000
4.31615147 0.61500579 -0.00192656 0.00000000
0.33533636 0.61446008 0.00082343 0.00000000
4.39779403 0.40079160 -0.00367890 0.00000000
1.91808663 0.02018540 0.00381938 0.00000000
3.75269469 0.89818944 -0.00044276 0.00000000
2.31983661 1.17130557 -0.00001730 0.00000000
0.17344583 1.03738375 0.00342040 0.00000000
3.55283335 0.19498479 0.00172371 0.00000000
4.49696987 1.22759943 -0.00175672 0.00000000
3.91615620 1.06951927 0.00044204 0.00000000
0.74246437 0.47111608 -0.00146369 0.00000000
3.25405358 0.13204437 0.00243291 0.00000000
3.05327987 0.27313611 0.00275807 0.00000000
4.09026343 0.23703335 0.00512914 0.00000000
1.68535972 0.17261491 0.00495443 0.00000000
1.47247920 1.02935442 0.00114345 0.00000000
0.43166193 1.45492842 0.00300639 0.00000000
0.11636527 0.53968036 0.00300716 0.00000000
2.52402129 1.07674000 -0.00011279 0.00000000
0.07936384 0.73843406 0.00306562 0.00000000
3.92925472 1.19131196 0.00331479 0.00000000
4.05230147 0.92198576 -0.00654863 0.00000000
0.37317179 0.12139962 -0.00297125 0.00000000
2.97619069 0.62537798 -0.00093755 0.00000000
4.48820341 0.98099350 -0.00209298 0.00000000
2.25076945 1.49498545 0.00281267 0.00000000
0.08498553 1.18330505 -0.00278036 0.00000000
2.04767108 1.18010832 -0.00166072 0.00000000
2.83725033 0.22377325 -0.00218423 0.00000000
2.09099066 1.12060589 -0.00164858 0.00000000
3.19382289 1.31853230 0.00277468 0.00000000
0.03712749 1.23181430 -0.00197042 0.00000000
2.86324823 0.95531335 -0.00132751 0.00000000
1.77145112 0.12593136 0.00342297 0.00000000
4.17114373 1.33858317 -0.00090739 0.00000000
3.38598625 1.42370518 -0.00282095 0.00000000
2.19049847 0.24065030 0.00174065 0.00000000
1.40280477 0.08351990 -0.00326067 0.00000000
3.86618025 0.06542464 -0.00090327 0.00000000
4.11947516 0.24674479 -0.00448525 0.00000000
1.54291694 1.34689387 -0.00005415 0.00000000
4.12556991 1.10269719 0.00247595 0.00000000
1.12632270 1.09452548 -0.00145632 0.00000000
3.25276915 1.37818928 0.00483834 0.00000000
2.16540469 0.56228377 0.00171092 0.00000000
0.87007600 1.29353723 0.00483982 0.00000000
0.45437806 0.20461504 0.00307307 0.00000000
1.99553372 0.69302088 0.00129427 0.00000000
3.29700588 0.09259396 0.00250746 0.00000000
1.13865238 1.48034219 -0.00366588 0.00000000
3.42111075 1.50814877 0.00135894 0.00000000
1.47251127 1.58469815 -0.00085204 0.00000000
1.92266655 1.28134090 0.00082883 0.00000000
3.07478442 0.65224053 0.00325361 0.00000000
4.33711464 1.19115790 0.00058153 0.00000000
0.64281602 0.03071258 -0.00414553 0.00000000
2.08066685 1.27969508 -0.00072260 0.00000000
1.30688803 0.23102576 0.00710345 0.00000000
4.20881771 1.60737013 0.00405955 0.00000000
0.21777836 1.46087925 -0.00563295 0.00000000
1.04201158 1.18882510 0.00391172 0.00000000
2.02038085 1.50829767 -0.00107414 0.00000000
0.41793827 0.85510734 0.00075272 0.00000000
3.34573804 1.25315824 0.00120860 0.00000000
1.87453461 0.44900200 0.00161950 0.00000000
2.54200349 0.08093325 0.00129717 0.00000000
0.65245801 1.32107589 0.00696493 0.00000000
2.85114473 0.27964665 0.00378001 0.00000000
4.42364148 0.30989849 0.00081593 0.00000000
3.51209599 0.55776537 -0.00446823 0.00000000
0.55616192 0.64835606 -0.00311504 0.00000000
1.50473906 0.16948951 0.00274374 0.00000000
2.61528459 0.21605292 0.00078380 0.00000000
1.52445024 0.25993135 0.00588080 0.00000000
2.83364445 1.57215509 0.00325484 0.00000000
0.76061503 1.13807070 -0.00252780 0.00000000
0.03866755 0.71347740 0.00161417 0.00000000
4.50454551 1.35721184 -0.00307433 0.00000000
1.24974971 1.41365099 -0.00463199 0.00000000
3.90625265 0.73087323 0.00327506 0.00000000
3.47701518 0.98048952 0.00221056 0.00000000
3.18960091 1.20321926 0.00014361 0.00000000
0.90346048 1.04944847 0.00379926 0.00000000
3.49970184 0.13837215 0.00186800 0.00000000
0.93511425 0.98944455 0.00229740 0.00000000
0.95042948 0.39166776 -0.00139735 0.00000000
1.43092997 0.95035505 -0.00025392 0.00000000
3.15988923 1.26519489 0.00280379 0.00000000
3.35793076 1.40508042 -0.00076274 0.00000000
3.77475353 0.64504922 0.00246540 0.00000000
4.44036953 0.61502873 -0.00340420 0.00000000
3.04658923 0.59862565 0.00144315 0.00000000
0.85143502 0.36796301 -0.00224186 0.00000000
2.88098701 0.94349072 0.00022930 0.00000000
4.39624608 0.58923654 0.00278080 0.00000000
4.20436063 1.36489910 -0.00019750 0.00000000
1.76028558 1.13751359 0.00078136 0.00000000
3.83378531 0.46519474 -0.00189937 0.00000000
3.45991858 1.18740139 -0.00070924 0.00000000
1.78041917 0.35377364 -0.00129111 0.00000000
0.64727384 1.25448849 -0.00561240 0.00000000
2.56253616 0.18293105 -0.00038343 0.00000000
0.06402098 0.57212292 -0.00586281 0.00000000
1.77823361 1.42687388 -0.00140997 0.00000000
3.80125595 0.68493907 -0.00048045 0.00000000
3.58307073 0.53959658 0.00061964 0.00000000
3.52422171 0.54852109 -0.00314304 0.00000000
3.41839457 1.52502669 -0.00249714 0.00000000
0.64204760 1.44512738 0.00080303 0.00000000
1.25304698 0.57237788 -0.00149218 0.00000000
2.26166822 0.06356155 0.00388068 0.00000000
2.37190126 0.93510082 -0.00093228 0.00000000
4.10446964 0.67850264 0.00484792 0.00000000
2.13991105 0.27981054 -0.00363171 0.00000000
1.03814149 1.47518159 0.00213872 0.00000000
2.71913334 0.81515187 0.00036365 0.00000000
2.69922810 0.31042598 -0.00051268 0.00000000
2.87433234 0.55491323 -0.00219838 0.00000000
0.77879028 1.07886784 -0.00009192 0.00000000
1.96144553 0.91809251 -0.00460744 0.00000000
1.87124269 0.00245132 0.00122869 0.00000000
3.67101592 0.09905604 -0.00120577 0.00000000
2.38323403 1.27614772 0.00270704 0.00000000
4.33594711 0.70988719 0.00215409 0.00000000
3.79560131 1.55458527 0.00378957 0.00000000
2.64240213 0.24865280 0.00243753 0.00000000
1.92358913 0.74414751 0.00542196 0.00000000
0.17509664 0.95427072 0.00016797 0.00000000
3.31113487 1.48600391 -0.00311741 0.00000000
4.51165837 1.29690330 -0.00197330 0.00000000
0.40701777 1.34279180 -0.00499991 0.00000000
0.84698329 0.45719225 -0.00272869 0.00000000
1.92250849 0.04771802 -0.00005246 0.00000000
1.14285735 1.22899965 0.00225527 0.00000000
1.89010560 1.56881397 -0.00204401 0.00000000
2.42874982 0.31909124 0.00317974 0.00000000
1.66129775 1.33975614 0.00263884 0.00000000
0.10096212 1.00470617 -0.00398421 0.00000000
3.54966758 1.30681075 -0.00296678 0.00000000
0.13039005 1.14659367 0.00105584 0.00000000
3.49265809 0.52649428 -0.00098212 0.00000000
1.22496521 0.45032473 0.00105918 0.00000000
3.71999185 0.87421792 0.00521925 0.00000000
2.34077187 1.07760963 -0.00011164 0.00000000
0.44483956 1.02240755 -0.00030737 0.00000000
3.38300984 1.24097410 -0.00137824 0.00000000
2.26077749 1.27915022 0.00056515 0.00000000
0.60800526 1.06242058 0.00345866 0.00000000
0.05535140 0.78388226 0.00125713 0.00000000
0.48256143 0.60431951 -0.00223721 0.00000000
3.77074862 1.35851078 -0.00595366 0.00000000
2.12139362 1.29239554 -0.00211005 0.00000000
0.46377804 1.40610075 -0.00349545 0.00000000
2.18882280 1.13570047 0.00076886 0.00000000
1.22343555 0.12976999 -0.00326338 0.00000000
0.11545980 0.08988175 -0.00335939 0.00000000
0.65992791 0.44374368 -0.00005235 0.00000000
0.90324254 1.29495546 -0.00011593 0.00000000
0.29229152 1.46810942 0.00324036 0.00000000
1.50674470 0.72747617 0.00504982 0.00000000
3.99360795 0.25850110 -0.00130303 0.00000000
4.24820995 0.79081093 -0.00322815 0.00000000
1.29491230 0.89270706 -0.00134852 0.00000000
0.52258236 1.52222107 0.00432195 0.00000000
1.26144778 0.77336303 -0.00184700 0.00000000
1.57306977 0.84559498 -0.00151961 0.00000000
3.90150633 0.40609158 0.00035774 0.00000000
1.56444387 1.59616021 0.00111307 0.00000000
0.93088159 1.59744146 -0.00251941 0.00000000
2.44545624 1.45352803 0.00172536 0.00000000
2.85244667 1.15570340 0.00576424 0.00000000
2.75075247 0.18341583 -0.00146928 0.00000000
2.63209505 0.96380229 0.00451516 0.00000000
0.58196036 1.54518168 -0.00125960 0.00000000
3.55430099 0.89958199 0.00395339 0.00000000
1.00236715 0.99462466 0.00175629 0.00000000
3.93791763 0.77197866 0.00302413 0.00000000
0.65986205 0.30254763 0.00652303 0.00000000
2.42524880 0.65400817 -0.00471536 0.00000000
1.82118939 0.38023468 -0.00109828 0.00000000
2.66665825 1.28876104 0.00488979 0.00000000
2.76946033 0.65933646 0.00179431 0.00000000
3.13207107 0.01749104 0.00162571 0.00000000
0.22851412 1.52198493 -0.00217035 0.00000000
1.82301999 1.64018826 0.00108506 0.00000000
2.80691088 1.48036900 0.00428851 0.00000000
1.11459477 0.08284852 0.00061075 0.00000000
0.75035757 0.70579293 0.00244593 0.00000000
4.50410895 1.05273442 -0.00025596 0.00000000
1.61443389 0.54821270 -0.00079316 0.00000000
4.38865873 0.43692265 -0.00184907 0.00000000
2.34044455 0.75614384 0.00211368 0.00000000
1.87206977 1.15545782 0.00056045 0.00000000
1.53046760 1.41181968 0.00053230 0.00000000
2.94223021 1.31544706 -0.00166623 0.00000000
1.24343839 0.58271008 0.00354615 0.00000000
4.28485520 0.70005819 -0.00072076 0.00000000
0.06965707 1.35318202 -0.00562210 0.00000000
0.25669271 0.48484743 0.00274313 0.00000000
1.20455528 0.23912045 0.00450045 0.00000000
0.61943909 0.65676514 -0.00817473 0.00000000
0.27558941 0.45726133 -0.00077851 0.00000000
1.10318001 0.23136137 -0.00332409 0.00000000
3.72661907 0.79374224 0.00332497 0.00000000
3.94784939 1.58869393 0.00298910 0.00000000
3.31559141 1.01037231 0.00166532 0.00000000
2.60241604 1.60416206 -0.00266007 0.00000000
1.70405706 1.58002626 -0.00382071 0.00000000
1.40532533 1.14235673 -0.00056619 0.00000000
1.19469954 0.56834510 0.00254592 0.00000000
0.06706814 1.57717549 0.00196638 0.00000000
3.73903281 1.19387966 -0.00092858 0.00000000
3.48792296 0.24392328 -0.00187768 0.00000000
2.58958045 0.65454796 0.00119156 0.00000000
1.99919678 1.09678039 0.00009539 0.00000000
2.43758726 0.26418349 0.00153664 0.00000000
0.83034385 1.43641387 -0.00308639 0.00000000
2.74285731 1.57627591 -0.00296793 0.00000000
0.53951546 1.43684904 -0.00042945 0.00000000
3.56718235 1.55455740 0.00077614 0.00000000
2.20885980 1.15890458 0.00164219 0.00000000
4.38079476 1.28448677 -0.00037477 0.00000000
0.41825023 1.56726799 -0.00191280 0.00000000
0.92647458 0.18349828 -0.00184749 0.00000000
2.59606621 0.98246423 -0.00422796 0.00000000
4.44837807 1.08385571 0.00261661 0.00000000
2.16331533 1.50742305 0.00018661 0.00000000
2.88548016 0.09929196 0.00009175 0.00000000
2.38075796 0.05841128 -0.00327722 0.00000000
4.40089777 1.01901401 -0.00073897 0.00000000
3.55749423 1.18434057 0.00356962 0.00000000
0.34221709 0.43677009 0.00307685 0.00000000
1.61687683 0.51863462 -0.00022628 0.00000000
0.36369792 0.75565396 -0.00274224 0.00000000
1.59170754 1.44443799 0.00125825 0.00000000
0.63000405 0.64346293 0.00157810 0.00000000
2.36283301 1.29830230 0.00375851 0.00000000
4.04729155 1.51366118 -0.00122976 0.00000000
2.29125301 1.62402469 -0.00089385 0.00000000
3.47236760 1.31282660 -0.00384696 0.00000000
3.46628094 1.20330924 0.00401421 0.00000000
1.23061003 0.24932574 0.00254732 0.00000000
4.47368764 0.62434399 0.00059204 0.00000000
2.50355844 1.51401281 0.00037439 0.00000000
1.38249529 0.55633612 -0.00369398 0.00000000
4.29284500 0.68126070 0.00200068 0.00000000
0.81165458 1.16755281 0.00173052 0.00000000
2.94268408 0.90631547 0.00207073 0.00000000
2.78573828 0.64095188 -0.00385993 0.00000000
0.38448138 0.40301043 0.00318311 0.00000000
1.70460014 1.48351166 -0.00249457 0.00000000
3.52152900 1.22589667 0.00054459 0.00000000
4.39094806 0.64308128 -0.00209572 0.00000000
2.01525253 1.07367473 -0.00188538 0.00000000
1.27251240 1.22632035 -0.00015469 0.00000000
1.42709801 1.07165257 -0.00147911 0.00000000
1.63540068 1.57806397 0.00259756 0.00000000
2.73646778 0.76484157 -0.00045244 0.00000000
1.65012674 0.87052340 0.00213813 0.00000000
2.83695809 1.19121938 0.00385787 0.00000000
4.19915227 0.35905551 0.00616379 0.00000000
0.42294898 1.37224588 0.00332968 0.00000000
3.81978784 1.57659696 -0.00679478 0.00000000
4.44104267 1.57299945 -0.00292853 0.00000000
3.86492288 0.40763594 -0.00055278 0.00000000
3.34693890 0.38428850 0.00064568 0.00000000
4.39042476 0.80588389 -0.00026371 0.00000000
0.88085516 0.80475787 0.00050169 0.00000000
1.51999655 1.34323885 0.00217671 0.00000000
2.81929561 0.93489809 0.00129982 0.00000000
1.40690613 1.62766099 0.00275113 0.00000000
1.60965597 0.84315216 0.00502298 0.00000000
1.51240903 0.55814073 -0.00230280 0.00000000
3.13683683 0.91889292 -0.00300028 0.00000000
3.63016285 1.14168719 -0.00364404 0.00000000
4.20831940 0.23170371 0.00433013 0.00000000
0.80845428 0.34851146 -0.00608822 0.00000000
3.86229106 0.17743275 0.00262302 0.00000000
2.42818151 0.51832095 0.00075079 0.00000000
0.03942748 1.37756997 -0.00211981 0.00000000
2.94332034 0.82467717 0.00140024 0.00000000
3.43201733 1.46801748 -0.00441303 0.00000000
2.56989592 1.41116648 0.00468228 0.00000000
0.06168587 1.48139196 -0.00441581 0.00000000
2.05819800 0.46597702 0.00236421 0.00000000
4.08771626 1.12548390 -0.00119289 0.00000000
3.95958482 0.28451235 0.00125868 0.00000000
2.24373655 1.62772496 0.00509869 0.00000000
1.04951046 0.20311740 0.00174183 0.00000000
3.35275815 0.24508162 0.00011776 0.00000000
2.95224449 0.58722021 0.00318766 0.00000000
3.94572939 1.40910417 -0.00161814 0.00000000
2.40696451 1.12265196 -0.00051675 0.00000000
3.21020634 0.76350632 0.00342872 0.00000000
3.74388142 0.85768326 -0.00107735 0.00000000
1.29064663 0.18393429 0.00152496 0.00000000
1.44467110 1.04555819 -0.00320060 0.00000000
2.27248078 1.14008380 0.00191458 0.00000000
0.56701563 0.14047709 -0.00284495 0.00000000
3.67130413 1.10785809 0.00237856 0.00000000
0.33768323 0.02912046 0.00017414 0.00000000
0.61293092 1.61500137 -0.00175871 0.00000000
3.93864716 0.87026173 0.00207255 0.00000000
2.61701544 0.97889516 -0.00215958 0.00000000
3.92607505 0.11232227 -0.00601141 0.00000000
3.51915274 0.28044950 0.00141276 0.00000000
1.87553365 0.82401057 -0.00211001 0.00000000
3.54806258 0.00215465 -0.00155513 0.00000000
3.76896377 0.87132250 -0.00048222 0.00000000
3.63912163 0.97310980 0.00250151 0.00000000
0.04000226 0.91171378 -0.00111408 0.00000000
1.53375822 1.56937956 0.00287354 0.00000000
0.07651394 0.39176125 -0.00238658 0.00000000
0.21064644 1.13617563 -0.00274113 0.00000000
2.47953806 0.53384220 0.00313185 0.00000000
1.31902833 1.54549832 -0.00025490 0.00000000
3.21340404 1.04027776 0.00221591 0.00000000
0.31646972 0.40054922 0.00488946 0.00000000
2.61995127 0.03458951 -0.00517563 0.00000000
1.75648899 0.47455202 -0.00372259 0.00000000
0.34039800 0.14901457 0.00060195 0.00000000
1.52092637 0.66981654 -0.00036941 0.00000000
3.10984505 1.37972922 -0.00449567 0.00000000
3.08656341 1.46013994 -0.00064334 0.00000000
3.60492575 0.39369276 -0.00128535 0.00000000
1.86681460 1.04352388 0.00590853 0.00000000
4.25453893 0.26735786 0.00118397 0.00000000
3.32091816 1.63158813 0.00384555 0.00000000
2.17292400 1.41190355 0.00072014 0.00000000
1.10820270 1.40102621 -0.00000638 0.00000000
0.52198143 0.68368982 -0.00182320 0.00000000
1.38859736 1.33801852 0.00051544 0.00000000
2.77181013 0.29169363 0.00006422 0.00000000
3.66007540 1.45879487 -0.00071896 0.00000000
1.53941095 0.69889765 -0.00031405 0.00000000
0.72823102 0.75912923 -0.00361380 0.00000000
4.03353916 1.13526769 -0.00627060 0.00000000
0.77012163 0.13337527 -0.00072843 0.00000000
2.78443192 1.38891610 -0.00154924 0.00000000
1.98053683 1.41599087 0.00174497 0.00000000
1.16939682 0.27154129 0.00142331 0.00000000
3.46089175 0.34905948 0.00182600 0.00000000
0.12064596 1.15486880 0.00183691 0.00000000
1.23040376 0.52619960 0.00238204 0.00000000
1.88936929 1.53209042 0.00257040 0.00000000
4.21790379 1.31362657 0.00264709 0.00000000
1.10445056 0.10040423 -0.00039094 0.00000000
0.44336205 1.62741608 -0.00245795 0.00000000
3.08573642 1.28891277 0.00239618 0.00000000
2.27239352 0.69275869 -0.00482544 0.00000000
2.01812254 0.41350844 0.00207810 0.00000000
0.55327479 0.21907888 -0.00178547 0.00000000
2.88378151 1.60854857 0.00045671 0.00000000
2.24182210 0.49667196 0.00168006 0.00000000
3.48031977 1.01039130 0.00201510 0.00000000
2.88729767 1.23797308 0.00581034 0.00000000
2.29630988 0.51503995 -0.00304777 0.00000000
2.81052176 0.03463232 -0.00455426 0.00000000
4.31652934 0.58491085 0.00282080 0.00000000
0.92522575 0.83450775 -0.00439622 0.00000000
3.05613033 0.54135647 -0.00370015 0.00000000
1.50721932 1.38703483 -0.00217753 0.00000000
3.32152373 0.16332329 0.00485373 0.00000000
4.11035589 0.16524330 0.00169268 0.00000000
0.63387975 0.46495765 -0.00235424 0.00000000
2.35044705 0.80599926 0.00235534 0.00000000
2.27388466 1.28022683 0.00185370 0.00000000
3.49569420 1.13248364 0.00031688 0.00000000
0.59474065 0.10077227 -0.00047175 0.00000000
3.09262374 0.05249445 0.00403461 0.00000000
1.14683425 0.35325955 0.00076155 0.00000000
3.80187436 0.15055667 0.00088641 0.00000000
0.70854926 0.63031843 0.00130645 0.00000000
2.09474892 0.26878760 -0.00238083 0.00000000
1.35342158 1.02760993 0.00040517 0.00000000
3.59253071 0.68059829 0.00053274 0.00000000
3.23233800 0.73413060 -0.00162846 0.00000000
0.43636406 0.49322262 0.00810849 0.00000000
2.94144391 1.60719917 0.00106843 0.00000000
0.17803907 1.29669153 -0.00314622 0.00000000
2.84406018 0.26390529 -0.00745390 0.00000000
4.27783785 0.75945253 0.00075409 0.00000000
3.87862979 0.37482283 0.00008499 0.00000000
1.09350057 1.06519733 -0.00052912 0.00000000
0.20803923 0.86803360 -0.00058771 0.00000000
1.38064478 1.07442765 -0.00250326 0.00000000
3.61806526 0.26118617 -0.00146974 0.00000000
1.16948245 1.21124470 0.00128565 0.00000000
1.17377572 0.71900218 0.00365450 0.00000000
1.22912063 1.15947011 -0.00340224 0.00000000
1.74026163 0.74226380 0.00178888 0.00000000
0.32437627 1.26133091 0.00016640 0.00000000
2.36426617 0.91975138 -0.00082416 0.00000000
0.00355865 0.77886430 -0.00631430 0.00000000
3.52893950 0.34656696 0.00233471 0.00000000
3.41552978 0.85969156 0.00201454 0.00000000
2.46063574 1.48190066 0.00453016 0.00000000
0.18104619 0.35316126 0.00136538 0.00000000
3.40894400 0.05242553 0.00080829 0.00000000
3.39262581 0.94646774 -0.00278723 0.00000000
4.11924511 0.51288152 0.00015794 0.00000000
4.14347202 0.53911226 -0.00049151 0.00000000
1.55538079 0.39818545 0.00098420 0.00000000
3.28811254 0.38081940 -0.00232479 0.00000000
2.95507085 0.98510647 0.00372679 0.00000000
2.39203008 0.71655152 -0.00319765 0.00000000
2.92471048 1.03779363 -0.00346444 0.00000000
3.70521477 0.28628504 -0.00500922 0.00000000
2.77937838 1.11680102 -0.00042622 0.00000000
2.27430550 1.62323541 0.00051476 0.00000000
2.65988251 0.08632768 0.00527558 0.00000000
1.97630657 0.72440966 -0.00119461 0.00000000
0.15373088 1.48721003 0.00102875 0.00000000
0.65807685 0.27511452 -0.00004977 0.00000000
2.54345117 1.61617078 0.00484945 0.00000000
1.58172157 1.63333466 -0.00146854 0.00000000
4.41323210 1.02577271 0.00426242 0.00000000
0.78291040 0.55205556 -0.00135517 0.00000000
4.44002880 0.67904644 0.00101529 0.00000000
1.80171850 0.21885032 0.00256220 0.00000000
1.54197102 0.26550732 -0.00407590 0.00000000
2.83075846 0.81012595 -0.00050194 0.00000000
3.82513798 0.69869478 -0.00202320 0.00000000
1.94468835 1.59168533 0.00642867 0.00000000
0.39576880 1.31906755 0.00311973 0.00000000
4.04666451 1.36667029 0.00245025 0.00000000
0.39136324 0.65140323 0.00315826 0.00000000
2.33458387 0.91471258 0.00054167 0.00000000
2.96397417 1.27987901 -0.00221859 0.00000000
2.63097516 1.16048716 0.00096240 0.00000000
2.35807807 0.04200721 -0.00051527 0.00000000
0.40361703 1.15156961 -0.00151204 0.00000000
1.22901244 1.09985990 0.00341700 0.00000000
2.03993359 0.41668984 -0.00356247 0.00000000
2.80072504 0.25794606 -0.00036601 0.00000000
3.79466651 1.64659006 0.00254828 0.00000000
1.34476200 0.87835868 0.00099093 0.00000000
2.37490742 1.64677199 -0.00155213 0.00000000
2.27403624 1.26006210 0.00293568 0.00000000
3.11664665 0.04331862 -0.00780646 0.00000000
1.49797027 1.40292465 0.00192517 0.00000000
2.96607305 0.87407854 0.00164678 0.00000000
1.21390797 0.86515830 -0.00678605 0.00000000
0.14774537 1.18681072 -0.00146253 0.00000000
0.98151998 1.22337131 0.00166770 0.00000000
3.80893228 1.53239010 -0.00067501 0.00000000
3.68002923 0.19011299 0.00103178 0.00000000
0.33754777 0.16364834 -0.00005948 0.00000000
2.10483494 1.43776367 -0.00102744 0.00000000
0.46054566 1.51913372 0.00127407 0.00000000
2.27109986 1.18579583 -0.00269424 0.00000000
1.40103909 0.74511324 -0.00018662 0.00000000
3.06656765 0.10246454 -0.00150468 0.00000000
3.60856185 1.03634510 0.00170368 0.00000000
0.58578302 0.89699482 0.00002970 0.00000000
3.98158896 0.15524745 -0.00014005 0.00000000
0.63540179 0.76288174 0.00433805 0.00000000
2.17577607 0.89031505 -0.00186057 0.00000000
2.86060053 1.57027044 0.00022252 0.00000000
1.54560399 1.43689998 -0.00098244 0.00000000
0.58849647 1.45394199 -0.00246096 0.00000000
0.76680534 1.32844660 0.00003436 0.00000000
3.16976064 0.71145705 0.00260674 0.00000000
4.42494429 0.01848472 0.00169487 0.00000000
4.36641701 0.18103286 -0.00072070 0.00000000
3.53174905 0.07430335 -0.00184963 0.00000000
2.19092423 0.67272582 -0.00078653 0.00000000
0.07732363 0.74127214 -0.00257176 0.00000000
2.08987931 0.19213496 -0.00390537 0.00000000
2.52136263 0.36754249 0.00009379 0.00000000
2.04054088 1.18819691 0.00242520 0.00000000
2.27582700 0.87940439 -0.00151323 0.00000000
3.62314364 0.99966945 0.00131251 0.00000000
1.12022350 1.57854554 -0.00208258 0.00000000
1.81742808 1.56080983 0.00241486 0.00000000
3.22445599 1.23180615 -0.00224231 0.00000000
1.58505277 1.48067400 -0.00179046 0.00000000
1.05779132 0.07674537 -0.00304526 0.00000000
1.14502414 1.51210466 -0.00216672 0.00000000
3.76228295 0.16335635 -0.00111713 0.00000000
1.74283747 0.17092086 0.00226978 0.00000000
3.68093506 1.40733880 0.00002237 0.00000000
2.21046770 0.10494521 -0.00019350 0.00000000
1.55444543 0.05415401 0.00430575 0.00000000
3.18886327 0.54636469 -0.00389491 0.00000000
1.40754136 1.56549155 0.00073512 0.00000000
3.91109753 0.68455312 0.00107216 0.00000000
2.52982537 1.26817068 -0.00137570 0.00000000
2.39106959 0.95329288 -0.00512545 0.00000000
0.09683452 1.26315600 0.00169887 0.00000000
3.31445575 1.03530451 -0.00092595 0.00000000
2.29600766 1.14252587 0.00286364 0.00000000
2.64953762 0.70683942 -0.00309799 0.00000000
2.64099573 0.16742104 0.00035538 0.00000000
0.83446424 1.03337360 -0.00084156 0.00000000
1.37012757 1.00242834 -0.00074501 0.00000000
2.44614787 1.45304874 0.00005775 0.00000000
1.24843839 1.17797330 0.00101140 0.00000000
1.13814248 0.41869601 0.00434786 0.00000000
3.69227294 1.15630842 -0.00140668 0.00000000
2.72809961 0.55348964 0.00253702 0.00000000
4.18792926 1.40994067 -0.00345267 0.00000000
0.64742894 0.33060154 -0.00084101 0.00000000
1.64819317 0.35522408 -0.00068429 0.00000000
3.53599454 0.37844707 -0.00171878 0.00000000
2.87420915 1.23698844 -0.00024103 0.00000000
1.81977928 1.21169182 -0.00106159 0.00000000
4.50802199 1.54611695 -0.00034615 0.00000000
4.20460255 1.41568393 0.00043615 0.00000000
3.01542929 1.62916136 -0.00362343 0.00000000
3.38063477 1.33435578 0.00071405 0.00000000
3.70850033 0.36249539 0.00080007 0.00000000
4.40134573 0.81095833 0.00040503 0.00000000
0.01328171 0.91491858 0.00449064 0.00000000
0.14909123 1.34173189 -0.00263561 0.00000000
0.20361858 0.42071662 0.00011654 0.00000000
2.51655408 1.59013812 -0.00246759 0.00000000
2.78434139 1.48713436 0.00206876 0.00000000
0.36841391 1.05123663 0.00509312 0.00000000
0.08351493 0.41458309 -0.00036688 0.00000000
2.73215592 0.28844670 -0.00075399 0.00000000
2.35681771 0.80689406 0.00021711 0.00000000
2.43898741 0.21951769 0.00418255 0.00000000
0.38810414 1.63658284 -0.00238457 0.00000000
0.59922800 1.47277746 0.00154324 0.00000000
0.39197510 1.11782455 -0.00114745 0.00000000
0.53283550 0.83585048 0.00157208 0.00000000
0.81981095 0.89891351 -0.00360703 0.00000000
3.51084615 1.08083999 -0.00241980 0.00000000
2.70468214 0.08684122 -0.00203297 0.00000000
2.66858175 0.31061868 0.00208786 0.00000000
1.29914616 0.57991245 -0.00167245 0.00000000
1.20954016 0.62825279 -0.00122430 0.00000000
3.12632927 1.22409937 0.00120608 0.00000000
3.70600792 1.46694815 -0.00607393 0.00000000
3.52192458 0.20286145 0.00076316 0.00000000
3.60732431 1.53937147 0.00420204 0.00000000
0.01725314 0.23322919 0.00076191 0.00000000
0.32110213 0.90229242 -0.00060388 0.00000000
2.44814291 0.40479377 -0.00170968 0.00000000
1.62643689 1.20585974 -0.00400440 0.00000000
0.08975480 1.26655454 0.00323601 0.00000000
0.45505997 1.38454157 -0.00086083 0.00000000
2.28570727 0.02974531 -0.00139083 0.00000000
3.91429416 0.15097195 -0.00068524 0.00000000
4.15694846 1.17298621 -0.00106143 0.00000000
0.58035743 1.64037338 0.00475510 0.00000000
2.58185613 0.28386462 0.00365693 0.00000000
3.58991300 0.04866977 -0.00596640 0.00000000
3.76767113 1.05366071 0.00007766 0.00000000
3.58547409 1.26987558 0.00102035 0.00000000
2.46552963 1.49231543 0.00047007 0.00000000
0.37647414 0.34417884 0.00357241 0.00000000
2.45485537 1.03471107 0.00150288 0.00000000
2.16420033 0.94945504 -0.00348085 0.00000000
0.46738798 0.48907876 -0.00324672 0.00000000
1.78208987 1.31839684 0.00287497 0.00000000
2.85870335 0.88256665 0.00158170 0.00000000
1.99700863 0.43442838 0.00119432 0.00000000
2.56841255 1.08630163 -0.00171200 0.00000000
3.86573982 0.63324950 0.00112252 0.00000000
4.20533384 0.88836456 0.00103915 0.00000000
2.56908193 1.25412545 -0.00310360 0.00000000
2.10529201 1.55671013 0.00394101 0.00000000
2.82600944 1.50848740 -0.00027049 0.00000000
1.71952262 1.28270924 -0.00156149 0.00000000
3.52350489 0.75936163 -0.00094006 0.00000000
2.93377320 1.09758842 -0.00118616 0.00000000
4.40514297 0.06398871 -0.00037298 0.00000000
0.82660786 0.99810183 0.00006035 0.00000000
3.73872863 0.42413957 0.00279506 0.00000000
4.02979026 0.30228848 0.00267973 0.00000000
4.39204822 1.11239931 -0.00144547 0.00000000
0.22316899 0.40957999 -0.00213616 0.00000000
1.93340452 0.47825534 0.00384329 0.00000000
3.43601876 1.52531100 0.00095772 0.00000000
2.72233401 1.56076231 -0.00491871 0.00000000
1.83624181 0.40674656 -0.00047267 0.00000000
1.41438057 0.00214324 0.00010019 0.00000000
4.01861609 1.33313842 -0.00408406 0.00000000
2.18862891 1.15339747 -0.00112023 0.00000000
1.87995129 0.96384266 -0.00048804 0.00000000
3.00372840 0.30690335 -0.00017562 0.00000000
2.53577975 0.66335830 0.00069428 0.00000000
0.31550351 1.52850766 -0.00213712 0.00000000
1.17929162 0.96263997 0.00624207 0.00000000
2.01317484 1.42094149 0.00078123 0.00000000
2.51462882 1.30717088 0.00113554 0.00000000
4.29312445 1.62008592 -0.00198322 0.00000000
1.85359695 0.62506025 0.00622921 0.00000000
0.12907200 0.60595635 -0.00381932 0.00000000
0.53902529 0.46011033 -0.00097464 0.00000000
4.33883872 1.55793864 -0.00321157 0.00000000
4.38793965 0.84751220 0.00050880 0.00000000
2.07754738 0.81895792 0.00188362 0.00000000
0.90141545 1.58876781 0.00065107 0.00000000
1.34922597 0.34248325 -0.00281718 0.00000000
1.36180591 0.97351461 0.00365033 0.00000000
3.75676096 0.04231617 0.00104125 0.00000000
0.75178137 0.58372569 0.00186639 0.00000000
1.02129739 1.05413692 0.00047563 0.00000000
2.23663988 0.22924556 -0.00067097 0.00000000
2.08883393 0.40668874 -0.00089044 0.00000000
4.04705526 0.58523710 0.00047501 0.00000000
0.77367133 1.43052123 -0.00107562 0.00000000
0.08653877 0.50007813 0.00259655 0.00000000
3.78864962 0.67888424 -0.00076733 0.00000000
4.42875169 1.46382117 -0.00078532 0.00000000
0.19026491 1.52718186 -0.00081819 0.00000000
1.51647996 0.81194419 0.00378332 0.00000000
0.91441102 0.37288248 -0.00139250 0.00000000
2.69149307 0.11443299 -0.00044402 0.00000000
0.28009191 0.53610090 0.00626920 0.00000000
2.41856172 1.58475027 -0.00303678 0.00000000
1.67039727 0.89794617 0.00381569 0.00000000
4.11207008 0.80723299 -0.00205896 0.00000000
4.38238855 0.94633030 0.00030965 0.00000000
0.04117245 0.41576755 0.00201979 0.00000000
2.94261555 1.57415497 0.00267979 0.00000000
0.49228358 1.17842319 -0.00249328 0.00000000
2.28376251 0.58991198 -0.00080455 0.00000000
4.46571269 0.76612287 0.00113855 0.00000000
1.97021225 0.37939251 -0.00041457 0.00000000
3.11133231 1.37416893 -0.00006332 0.00000000
2.82233768 0.35860093 0.00244415 0.00000000
0.96090231 0.38293149 -0.00030722 0.00000000
3.82512457 0.96493484 0.00139663 0.00000000
1.79503963 1.13454014 0.00248988 0.00000000
2.08146127 0.31556608 0.00051211 0.00000000
3.88975547 0.75933058 0.00347725 0.00000000
4.31661025 0.87892257 -0.00068501 0.00000000
2.01521002 1.39414235 0.00139126 0.00000000
3.91792494 0.49295164 -0.00426794 0.00000000
4.41609344 1.05252166 0.00504629 0.00000000
3.43148207 1.30419176 0.00217193 0.00000000
4.08517133 1.27920733 0.00040287 0.00000000
2.36065558 1.43285859 0.00296682 0.00000000
3.47652009 1.07156715 0.00033455 0.00000000
2.60119819 0.34380427 -0.00138463 0.00000000
4.27758270 0.68964136 -0.00023347 0.00000000
2.50130445 1.43153454 -0.00175508 0.00000000
0.26356358 1.51263705 0.00345311 0.00000000
1.39806279 0.73517557 -0.00157249 0.00000000
3.55512042 1.43645005 0.00042773 0.00000000
1.53023750 1.59199317 0.00351936 0.00000000
0.91798379 1.42751472 0.00245714 0.00000000
0.02019834 1.22119871 0.00419468 0.00000000
3.30684504 0.89158410 0.00232694 0.00000000
0.36354530 0.64517177 -0.00165180 0.00000000
2.56360917 1.56614412 0.00296905 0.00000000
1.32403190 1.41963912 0.00218799 0.00000000
2.41605095 0.45648089 0.00253925 0.00000000
0.84089108 0.83811533 -0.00150445 0.00000000
1.82610791 0.00220806 0.00273478 0.00000000
2.13531725 1.39298776 -0.00169823 0.00000000
2.79403090 1.38779054 -0.00152862 0.00000000
2.83049532 1.09341188 0.00082413 0.00000000
0.24822536 1.62371276 0.00269067 0.00000000
2.75215557 0.74863169 0.00156244 0.00000000
1.07982701 0.10911074 0.00359700 0.00000000
4.09764284 0.90076466 0.00125194 0.00000000
0.54649362 1.53761662 -0.00023220 0.00000000
0.85538426 0.38512476 0.00133625 0.00000000
3.24372717 0.75805826 -0.00059213 0.00000000
1.37410030 0.12029859 -0.00122300 0.00000000
3.60153596 1.56839385 0.00151474 0.00000000
1.68524635 1.63940692 -0.00105318 0.00000000
1.29347808 0.06852916 0.00012174 0.00000000
1.88234991 0.59058072 -0.00261738 0.00000000
0.30967732 1.59808066 -0.00247859 0.00000000
3.65210799 0.70181499 0.00212355 0.00000000
2.18091284 0.23409456 0.00560715 0.00000000
2.06452739 1.24741006 -0.00033135 0.00000000
3.13082466 0.54752815 0.00137317 0.00000000
0.36889319 0.22628541 -0.00131178 0.00000000
1.67539726 0.52879874 -0.00147594 0.00000000
2.82585474 0.34440584 -0.00007892 0.00000000
2.82734025 1.43191595 -0.00004749 0.00000000
0.44250823 1.17292857 -0.00156184 0.00000000
0.19406452 1.40761012 -0.00409259 0.00000000
1.33403539 1.10778109 -0.00212599 0.00000000
1.07564163 0.60531685 0.00004405 0.00000000
2.07805694 0.50810025 -0.00095304 0.00000000
1.55755979 0.52909250 0.00365587 0.00000000
1.91893333 1.23098167 0.00120492 0.00000000
3.51793631 1.02811187 0.00144874 0.00000000
3.31018946 1.40818233 -0.00081534 0.00000000
2.48400182 1.40266433 0.00000030 0.00000000
2.67470831 1.21569496 -0.00068647 0.00000000
0.27254318 1.30123507 0.00603623 0.00000000
0.04815441 0.47441114 -0.00091352 0.00000000
3.23146889 1.52425186 -0.00250956 0.00000000
3.96216681 1.07087146 0.00001622 0.00000000
3.35349160 0.05103571 -0.00446881 0.00000000
0.65154937 1.15022841 0.00247587 0.00000000
2.53661508 1.30704376 0.00064121 0.00000000
4.12686263 0.33383806 0.00033431 0.00000000
4.04167991 1.21037286 -0.00365696 0.00000000
3.37262854 1.30381332 0.00328679 0.00000000
1.61963977 1.45606863 0.00472668 0.00000000
2.60279198 0.85024132 0.00248336 0.00000000
2.35161678 0.16852961 0.00086752 0.00000000
1.88680515 0.71324787 0.00063347 0.00000000
3.01528289 1.11908034 -0.00183752 0.00000000
2.09819297 1.62677873 0.00238283 0.00000000
1.45140395 0.75815957 0.00049256 0.00000000
4.06442452 0.82525605 0.00033785 0.00000000
2.11714656 1.23891449 -0.00123505 0.00000000
2.17866953 0.90870584 -0.00080367 0.00000000
2.85166290 0.10395894 -0.00107235 0.00000000
0.49013277 1.15837309 -0.00035224 0.00000000
1.58089277 0.72487598 0.00431744 0.00000000
2.76881494 0.42485931 -0.00036235 0.00000000
2.61768725 0.54494254 0.00309549 0.00000000
2.50430253 0.76327214 0.00121077 0.00000000
4.26444265 0.96268130 0.00407872 0.00000000
3.63734060 1.07165583 0.00083325 0.00000000
4.43360691 0.70576158 -0.00100244 0.00000000
4.07076405 0.15870145 -0.00003521 0.00000000
1.19269397 0.75323137 0.00169337 0.00000000
3.34210937 0.72579779 -0.00186144 0.00000000
2.67334976 0.93551727 0.00087864 0.00000000
0.38892492 0.07356671 -0.00203784 0.00000000
1.48145203 1.15202772 0.00242186 0.00000000
1.38564155 1.64094808 -0.00123817 0.00000000
0.02159457 0.55704334 -0.00017590 0.00000000
2.73038374 0.73926427 0.00274995 0.00000000
1.90754021 1.13213275 -0.00154940 0.00000000
2.50035034 0.58768915 0.00533775 0.00000000
3.29355572 0.31140158 -0.00342264 0.00000000
3.24796570 0.45945416 -0.00083699 0.00000000
2.94274890 0.73339042 -0.00013772 0.00000000
1.21314803 0.91155311 -0.00132478 0.00000000
2.65328214 0.04607542 -0.00243778 0.00000000
4.14178017 1.31957409 -0.00280406 0.00000000
0.77518828 1.50699431 -0.00055851 0.00000000
3.33619744 1.24243125 -0.00637041 0.00000000
2.46628663 0.87752366 0.00296983 0.00000000
4.29583341 1.25626658 -0.00071442 0.00000000
0.82338262 0.90070434 0.00065559 0.00000000
2.81578373 0.14925536 0.00017726 0.00000000
0.26729837 0.72740641 0.00159936 0.00000000
2.75481497 0.13674790 -0.00258655 0.00000000
0.48111594 1.36671158 -0.00234730 0.00000000
4.07872117 0.19939857 -0.00059743 0.00000000
1.22091627 0.40221808 0.00205199 0.00000000
1.77892011 1.29263843 0.00140331 0.00000000
1.81455166 0.50679410 -0.00186599 0.00000000
4.42232522 0.01988439 0.00007682 0.00000000
1.84497346 1.29694975 0.00311504 0.00000000
2.67504113 0.51395785 -0.00045182 0.00000000
3.12379107 1.03614255 0.00280898 0.00000000
3.06860230 1.56429172 0.00199644 0.00000000
3.63511193 0.51366870 0.00439145 0.00000000
1.37926194 0.13430585 -0.00106193 0.00000000
1.58257128 0.63737664 -0.00121118 0.00000000
1.50637499 1.58420275 0.00006537 0.00000000
3.82509795 0.79044866 0.00215363 0.00000000
2.81871251 1.61599338 -0.00159518 0.00000000
3.52849047 0.68576126 -0.00110963 0.00000000
2.70818590 0.14713980 0.00225050 0.00000000
4.12805525 0.11614025 0.00151502 0.00000000
2.36066666 1.35207574 0.00003095 0.00000000
2.18192024 0.42486364 -0.00280507 0.00000000
2.88942018 0.92833195 0.00365180 0.00000000
4.39697630 0.12521909 -0.00128285 0.00000000
0.53733820 0.27422645 -0.00199359 0.00000000
1.79920613 1.24603778 -0.00226002 0.00000000
2.60602439 1.00510884 -0.00084808 0.00000000
0.67676225 1.22272000 0.00135959 0.00000000
1.01328662 1.33253812 0.00002344 0.00000000
3.80245250 1.16932939 -0.00089107 0.00000000
2.13853582 1.25850659 0.00311910 0.00000000
1.69452936 0.02977737 0.00293524 0.00000000
2.27636232 0.94471898 0.00311763 0.00000000
1.18441953 1.06416374 0.00166836 0.00000000
1.46988373 0.81689109 -0.00246243 0.00000000
4.30515410 0.57606188 -0.00023575 0.00000000
0.80237446 0.53318131 0.00114445 0.00000000
0.63600665 0.13103034 -0.00171433 0.00000000
1.52114666 1.07261186 -0.00430168 0.00000000
3.87896100 1.55338515 0.00100025 0.00000000
3.28602413 0.64831491 0.00012871 0.00000000
3.46656241 0.57350801 -0.00368442 0.00000000
3.68275895 0.39522065 0.00071567 0.00000000
0.66453863 1.22741485 0.00229202 0.00000000
3.22799033 0.07909505 0.00340718 0.00000000
1.62838644 0.40948920 0.00188646 0.00000000
2.96580688 0.61146450 -0.00101267 0.00000000
2.00961538 0.73986585 -0.00525253 0.00000000
3.56169821 0.04370474 -0.00489489 0.00000000
0.82742769 0.13905284 0.00044855 0.00000000
1.96978069 1.59049996 -0.00390620 0.00000000
0.72387170 0.60325562 -0.00344100 0.00000000
2.06433538 1.38604734 -0.00187933 0.00000000
1.27462853 1.02573587 0.00197764 0.00000000
2.69015571 1.02098525 -0.00256579 0.00000000
0.34763730 1.63085759 0.00102315 0.00000000
2.52106769 0.04926829 -0.00389859 0.00000000
3.08374672 0.57184248 0.00138809 0.00000000
2.74362220 1.00187852 0.00178533 0.00000000
1.55822515 0.04681608 0.00070803 0.00000000
2.03664578 0.20901406 0.00083995 0.00000000
2.04471012 1.40535824 -0.00257875 0.00000000
2.16704448 0.24243546 0.00222138 0.00000000
3.29431171 0.24597188 -0.00199904 0.00000000
1.68621468 1.12113295 0.00328652 0.00000000
0.21792427 0.93824582 0.00030866 0.00000000
0.38091163 1.30733825 0.00284710 0.00000000
2.81065970 1.20169572 -0.00325223 0.00000000
3.50132662 0.09048991 0.00072743 0.00000000
2.08461227 0.60131823 -0.00255058 0.00000000
3.07340955 0.14892463 -0.00353194 0.00000000
4.22440486 0.09717600 -0.00248751 0.00000000
1.32093744 0.54575472 0.00091002 0.00000000
2.52878328 1.33300645 0.00208155 0.00000000
0.19031587 0.82537804 0.00491712 0.00000000
2.06274164 0.99627226 0.00211976 0.00000000
0.01268230 0.66526313 0.00221533 0.00000000
4.48037466 1.24556953 -0.00234222 0.00000000
4.28985561 0.12910983 0.00581544 0.00000000
2.58462242 1.47177844 -0.00131462 0.00000000
2.11479440 0.76019684 -0.00112586 0.00000000
1.65898398 1.49826710 -0.00221207 0.00000000
1.30912589 0.54301916 -0.00293337 0.00000000
3.94434152 1.58074163 0.00146418 0.00000000
0.18458677 1.43617508 -0.00381185 0.00000000
1.69165612 1.18292658 0.00150512 0.00000000
0.06352194 0.00209801 0.00483589 0.00000000
3.45435828 1.38596200 -0.00139796 0.00000000
1.43230274 0.73254171 0.00103664 0.00000000
2.92154674 1.36710314 -0.00212275 0.00000000
0.37088782 0.27863022 -0.00296290 0.00000000
3.77468113 0.15015639 -0.00015576 0.00000000
2.98653685 1.59662810 -0.00219592 0.00000000
3.73913054 1.28787660 0.00384431 0.00000000
3.91046943 1.28956655 -0.00043586 0.00000000
0.44552162 0.45899490 0.00253845 0.00000000
3.63386701 0.89166706 0.00124992 0.00000000
0.46387872 0.80350478 0.00016054 0.00000000
4.37741425 1.35243702 -0.00067527 0.00000000
1.15310905 0.87758244 0.00047185 0.00000000
1.65367055 0.56358862 0.00146441 0.00000000
3.76777520 0.90561257 0.00270205 0.00000000
3.63293303 1.21932033 0.00143605 0.00000000
1.92594698 1.25266009 0.00226178 0.00000000
1.45470810 1.39508373 -0.00198017 0.00000000
3.88210337 1.13669127 0.00054717 0.00000000
