2.27903073 2.19429790 0.00076964 0.00000000
3.96488805 1.11737075 0.00046502 0.00000000
0.14725698 0.26137735 0.00135804 0.00000000
1.80362258 2.05709428 -0.00225087 0.00000000
3.24745605 0.19683172 -0.00271463 0.00000000
3.76813589 1.14236171 0.00030366 0.00000000
0.20951995 2.23425415 0.00311453 0.00000000
1.31993333 1.87485174 0.00178313 0.00000000
3.31611593 0.73801981 0.00077402 0.00000000
4.03391105 2.16935124 -0.00121492 0.00000000
2.82977109 0.45877498 -0.00150504 0.00000000
0.27695309 0.94158565 -0.00193537 0.00000000
1.45893323 0.98014337 -0.00197473 0.00000000
1.60109437 1.15667285 0.00392325 0.00000000
3.26172231 0.30481892 -0.00309010 0.00000000
0.15916214 0.70620430 0.00149612 0.00000000
0.10320275 1.18335952 0.00204466 0.00000000
1.00865234 1.01043476 0.00326158 0.00000000
3.19405491 0.53371831 0.00199771 0.00000000
1.65547845 2.01685678 0.00188958 0.00000000
4.34436246 0.46050989 -0.00077834 0.00000000
0.87096392 2.17679405 0.00199690 0.00000000
1.10337555 1.25231677 -0.00670614 0.00000000
2.95717614 0.14382578 -0.00046871 0.00000000
2.92760784 0.30723037 -0.00201976 0.00000000
3.33274014 1.46917582 0.00140707 0.00000000
0.67173062 1.12912076 0.00325355 0.00000000
2.21904968 0.21513783 -0.00155209 0.00000000
0.56651529 0.53182452 -0.00455642 0.00000000
3.88198281 1.18138614 0.00614579 0.00000000
0.24637052 1.20599200 0.00217406 0.00000000
3.95669670 0.03882131 -0.00201954 0.00000000
1.23031766 1.61675130 -0.00295230 0.00000000
2.70460265 0.13951649 0.00143946 0.00000000
3.33380852 0.94444712 -0.00083854 0.00000000
2.84765506 0.71571067 -0.00142752 0.00000000
3.38205386 0.43197590 0.00200320 0.00000000
4.22130688 0.36965628 0.00380909 0.00000000
2.90000632 1.55790189 -0.00072317 0.00000000
0.55254519 1.92887695 0.00270368 0.00000000
0.50817994 0.88322610 -0.00076568 0.00000000
2.37061365 0.79372462 -0.00269289 0.00000000
3.10969388 1.44258327 0.00751952 0.00000000
3.41584398 1.92188900 -0.00320546 0.00000000
4.15387618 1.42553909 0.00464919 0.00000000
1.66589108 2.09715411 -0.00719254 0.00000000
3.63766438 1.54266562 -0.00229568 0.00000000
0.96758008 0.59422572 -0.00020645 0.00000000
3.36210029 1.20899850 -0.00119608 0.00000000
3.00053293 1.92366210 -0.00164135 0.00000000
0.84113501 1.48472244 0.00053025 0.00000000
1.59216591 0.44396665 -0.00192073 0.00000000
0.03053448 0.22931991 0.00341132 0.00000000
0.24173723 2.27097468 0.00046321 0.00000000
3.39395643 1.21041718 -0.00113867 0.00000000
0.94486440 0.13954695 -0.00180068 0.00000000
3.08403826 0.13560945 -0.00212094 0.00000000
2.73238629 1.94146116 -0.00282729 0.00000000
1.01634801 0.47538327 0.00078391 0.00000000
2.49016432 1.58656861 -0.00402329 0.00000000
0.91429659 2.28557543 0.00135897 0.00000000
0.42018999 1.63318024 0.00147389 0.00000000
3.83901388 0.52285857 -0.00285995 0.00000000
0.45210281 1.81192126 0.00094662 0.00000000
0.24777721 0.76089084 0.00048194 0.00000000
2.77645673 0.09350809 0.00097850 0.00000000
0.09889997 0.28341360 0.00204249 0.00000000
1.14395832 0.11673593 0.00172637 0.00000000
3.87206665 0.46763259 -0.00073380 0.00000000
0.45986778 0.15414526 0.00180848 0.00000000
2.93023032 0.33133680 0.00192355 0.00000000
2.56164781 1.67956867 -0.00089771 0.00000000
2.75470662 0.83570658 0.00428779 0.00000000
0.42728278 1.13137401 -0.00310479 0.00000000
0.76921014 2.29729068 -0.00396164 0.00000000
3.98552644 0.42885226 -0.00186009 0.00000000
3.96824219 0.25470135 -0.00102851 0.00000000
4.28186895 0.03746629 0.00224223 0.00000000
4.03703760 0.56230060 0.00221640 0.00000000
0.46478569 1.23614320 0.00293338 0.00000000
1.45665633 0.35157379 0.00367719 0.00000000
1.23968897 0.33768339 -0.00232311 0.00000000
2.57874329 0.69033745 0.00071319 0.00000000
4.43265262 2.07357751 -0.00229001 0.00000000
2.92749452 1.61281151 -0.00214279 0.00000000
4.44587291 0.68950628 -0.00113063 0.00000000
4.36227196 2.27922244 -0.00101597 0.00000000
1.29582593 1.54194940 -0.00174101 0.00000000
2.06249557 0.60291958 -0.00137534 0.00000000
1.20762828 2.26986655 -0.00095126 0.00000000
4.06389584 0.87195915 -0.00358019 0.00000000
3.94075096 0.39599558 0.00121219 0.00000000
1.48640966 1.77821844 -0.00144422 0.00000000
3.12229050 1.48729016 -0.00344520 0.00000000
2.47302119 0.36995459 -0.00125483 0.00000000
3.96809679 0.29172056 0.00545337 0.00000000
3.44896498 2.17205696 -0.00258816 0.00000000
3.83623216 0.05992433 0.00253651 0.00000000
4.14102589 0.71340447 -0.00131735 0.00000000
1.19896180 1.55022195 0.00023819 0.00000000
0.02815299 1.67038343 -0.00319885 0.00000000
0.94483654 1.51422473 0.00151340 0.00000000
0.02196469 2.30586342 -0.00010758 0.00000000
1.21694347 0.63473536 -0.00394539 0.00000000
4.04010848 1.14586310 0.00461180 0.00000000
0.24858234 0.88494693 0.00202523 0.00000000
3.11096704 1.79737079 -0.00274760 0.00000000
1.13570908 2.06018020 0.00013470 0.00000000
0.46094820 0.67222962 0.00097141 0.00000000
3.56468141 0.69208505 -0.00025328 0.00000000
2.23985797 1.46673948 0.00044034 0.00000000
0.38942977 0.21891301 0.00307613 0.00000000
1.46745865 1.68879802 0.00179533 0.00000000
3.11246547 0.89854575 0.00094262 0.00000000
1.53047614 1.39072627 -0.00183339 0.00000000
3.15820904 1.26978121 -0.00050356 0.00000000
0.12090127 0.17808153 0.00253721 0.00000000
1.45493298 0.41102031 -0.00082975 0.00000000
0.15455347 2.13366615 0.00175690 0.00000000
3.10701203 0.32547840 -0.00196161 0.00000000
1.73239486 1.90518031 0.00273665 0.00000000
2.53482229 1.90395932 0.00077140 0.00000000
0.17170172 1.19862066 -0.00027538 0.00000000
3.60428834 0.97134650 0.00361346 0.00000000
2.10131910 0.12097877 0.00118169 0.00000000
3.97994888 1.47594698 -0.00373563 0.00000000
2.67708777 0.80228496 -0.00107207 0.00000000
3.96343332 1.05613288 -0.00263886 0.00000000
0.46496827 0.57060030 0.00658381 0.00000000
3.01499556 0.38337980 0.00116803 0.00000000
1.38709496 1.68572239 0.00375026 0.00000000
2.48293132 0.27020853 -0.00192434 0.00000000
3.99073919 1.12481497 -0.00099909 0.00000000
0.22191494 0.40654564 -0.00374837 0.00000000
1.54688060 0.51663285 -0.00021068 0.00000000
1.37139171 0.26300260 -0.00062166 0.00000000
1.91872138 1.37632514 0.00427482 0.00000000
4.39748160 0.27768624 0.00199708 0.00000000
4.38056001 2.17071002 -0.00003978 0.00000000
2.57438895 1.31133195 0.00413895 0.00000000
3.51518567 0.79466493 0.00270334 0.00000000
2.58459155 1.95773553 0.00361689 0.00000000
3.99288929 1.76440187 -0.00222238 0.00000000
3.38855153 1.68069317 0.00156877 0.00000000
3.96701424 2.30165104 -0.00084373 0.00000000
0.98128159 0.19620886 -0.00055600 0.00000000
1.72588621 1.45133789 0.00284503 0.00000000
0.26189740 1.62876728 0.00049484 0.00000000
3.27249554 2.18630326 0.00245269 0.00000000
3.81992974 1.90799397 0.00130366 0.00000000
3.35107386 0.37036698 -0.00372322 0.00000000
2.48973083 0.20290818 0.00122480 0.00000000
4.19500563 1.98000845 0.00029120 0.00000000
2.27787516 1.14396867 -0.00225686 0.00000000
2.96468618 1.76022233 0.00433442 0.00000000
1.99628343 0.75121796 -0.00180661 0.00000000
2.56812882 0.93823878 0.00091899 0.00000000
3.10523813 1.90916298 0.00684440 0.00000000
0.49620835 1.69163283 -0.00107228 0.00000000
1.70010862 2.14181580 -0.00206781 0.00000000
3.01352757 2.00714016 -0.00305845 0.00000000
0.87115924 0.60421134 0.00299791 0.00000000
2.73067882 1.52748952 -0.00262817 0.00000000
1.38967562 2.24010367 -0.00362944 0.00000000
1.08634997 1.14846552 -0.00336241 0.00000000
0.11473032 2.18016106 -0.00140037 0.00000000
1.05559745 0.69863755 -0.00606865 0.00000000
0.30394444 1.96116124 0.00020563 0.00000000
2.00950555 1.98098525 0.00043520 0.00000000
1.64921368 0.54007297 -0.00118459 0.00000000
0.84168967 1.10221135 -0.00421511 0.00000000
3.35634079 2.14937310 0.00056128 0.00000000
2.71748597 1.73607205 -0.00006165 0.00000000
2.03800025 1.76682648 -0.00184394 0.00000000
2.40756190 2.30512824 -0.00110451 0.00000000
3.07760574 2.25065661 0.00017864 0.00000000
3.07142026 1.26076871 -0.00232328 0.00000000
1.12143422 0.77099145 0.00245505 0.00000000
1.71191813 1.67563160 0.00061698 0.00000000
0.27731317 1.88900134 -0.00317406 0.00000000
1.69797738 0.55797192 -0.00093884 0.00000000
2.82003293 0.13820960 -0.00147147 0.00000000
1.17178677 0.59951358 0.00076859 0.00000000
1.74496323 1.14442776 0.00096436 0.00000000
3.11055209 1.41943503 -0.00564462 0.00000000
3.37199801 2.04061162 0.00126302 0.00000000
2.00882861 0.25031596 -0.00126324 0.00000000
0.31633415 1.68208882 -0.00112875 0.00000000
1.62651682 0.79162824 0.00194840 0.00000000
1.21607199 2.06123090 -0.00317148 0.00000000
2.60019405 0.77421076 -0.00136907 0.00000000
0.10027764 0.35741492 0.00476778 0.00000000
3.64969552 0.54994654 0.00171667 0.00000000
1.14629062 0.00962233 0.00092891 0.00000000
2.54323665 1.75046446 -0.00280937 0.00000000
3.72089047 2.07237240 -0.00064213 0.00000000
4.04302377 1.68185593 -0.00291396 0.00000000
2.18881952 0.39774792 -0.00207713 0.00000000
2.26032678 2.25399352 0.00127461 0.00000000
2.39181999 0.44907646 0.00273209 0.00000000
2.97509248 1.34797521 -0.00108789 0.00000000
3.67182382 1.75689212 0.00278444 0.00000000
2.76593019 1.17342404 -0.00312848 0.00000000
1.55395894 0.97226458 0.00222229 0.00000000
2.74230260 1.20344319 -0.00089486 0.00000000
2.20923485 0.30386476 -0.00399244 0.00000000
3.37743864 1.96822366 0.00607590 0.00000000
3.18151058 2.05688215 0.00086962 0.00000000
0.94881384 0.67957048 0.00076771 0.00000000
0.89113515 0.96905868 0.00072610 0.00000000
1.02447720 1.94500958 0.00317986 0.00000000
3.66921413 1.47685938 0.00229011 0.00000000
4.36254521 1.92522044 0.00319739 0.00000000
2.47398329 0.57960096 0.00117104 0.00000000
0.63423331 1.25506982 0.00193263 0.00000000
3.94724197 0.29907233 -0.00128062 0.00000000
3.84339519 0.65626791 -0.00341494 0.00000000
4.14134532 2.12865264 -0.00010424 0.00000000
1.92479194 2.23846611 0.00131195 0.00000000
2.23763271 1.60861365 0.00176726 0.00000000
1.26547764 1.94466095 -0.00268310 0.00000000
4.15625769 0.19857714 -0.00340906 0.00000000
1.13869222 0.90567461 -0.00217422 0.00000000
2.44976395 0.13841353 0.00347071 0.00000000
0.16182374 1.20210129 -0.00103208 0.00000000
1.94259241 0.78902339 0.00201198 0.00000000
1.81965067 2.22446740 0.00241215 0.00000000
0.45649193 0.36066894 -0.00013271 0.00000000
0.04726192 1.46484757 0.00470335 0.00000000
2.99594399 0.37237882 -0.00132660 0.00000000
1.43206928 0.00046443 -0.00256888 0.00000000
0.44483851 1.99507343 0.00104724 0.00000000
3.12484542 0.03194084 0.00315619 0.00000000
1.33034077 2.01761912 0.00536497 0.00000000
0.27961665 1.33699583 0.00157126 0.00000000
4.18407328 0.08621373 0.00410860 0.00000000
2.28168851 1.38917419 -0.00009619 0.00000000
1.88801114 0.36053211 -0.00051048 0.00000000
1.38055380 0.60015949 -0.00036866 0.00000000
2.42948463 0.19833241 0.00223709 0.00000000
1.41190019 0.43233704 -0.00038517 0.00000000
0.45172329 0.57653933 0.00071109 0.00000000
2.47523716 0.09604978 0.00023875 0.00000000
0.94357561 1.87644501 0.00761818 0.00000000
3.00262729 1.31268225 0.00030722 0.00000000
3.48540961 1.90106588 0.00191715 0.00000000
1.84032662 1.80522804 -0.00106463 0.00000000
2.29304497 0.90299171 -0.00197645 0.00000000
1.07605354 0.04813857 -0.00447748 0.00000000
1.73399216 1.00071158 -0.00123966 0.00000000
1.48697417 2.31604323 -0.00144532 0.00000000
3.11518379 1.22626495 0.00090145 0.00000000
0.73505044 2.10803714 -0.00085947 0.00000000
2.75805942 0.94788021 0.00012264 0.00000000
1.21020456 2.20801929 0.00109084 0.00000000
2.27469955 2.13713297 0.00014989 0.00000000
0.62237359 1.65911105 0.00107209 0.00000000
3.71353650 0.01650045 -0.00348533 0.00000000
3.01752887 2.24462402 -0.00132511 0.00000000
2.47648486 0.78126628 0.00081131 0.00000000
3.14053151 1.74151976 0.00051009 0.00000000
3.18744124 1.92811019 -0.00369942 0.00000000
3.86175635 2.25518224 -0.00010379 0.00000000
1.91706111 0.25995605 0.00056737 0.00000000
2.01625339 1.81798616 -0.00350303 0.00000000
4.11212068 1.28900403 -0.00204990 0.00000000
3.87882394 0.96729539 0.00094965 0.00000000
2.44624143 0.68731580 0.00063090 0.00000000
1.25266239 0.98589236 0.00279056 0.00000000
1.11398758 0.90553411 0.00182833 0.00000000
0.91365497 2.01978013 -0.00544992 0.00000000
3.46760663 0.29739588 0.00544387 0.00000000
3.85751843 1.01467377 -0.00023772 0.00000000
1.93057181 2.18990968 0.00080372 0.00000000
1.09747783 1.33661011 0.00583737 0.00000000
2.89949170 1.70703981 0.00136078 0.00000000
0.41771672 0.40194530 0.00355631 0.00000000
4.33540200 1.58234892 -0.00545864 0.00000000
1.23793123 2.28432154 0.00191282 0.00000000
3.89771552 0.32265632 0.00137538 0.00000000
1.33385413 1.93784376 -0.00104054 0.00000000
0.07842668 0.35188946 0.00391448 0.00000000
2.56191245 0.11163514 0.00348750 0.00000000
4.41961389 0.43365422 -0.00089453 0.00000000
3.36116062 0.58220746 0.00143396 0.00000000
0.77332463 0.50266110 0.00185961 0.00000000
1.98177338 1.32769699 -0.00267364 0.00000000
1.65378431 2.07672401 0.00166810 0.00000000
3.68721596 1.07252380 0.00224527 0.00000000
1.33681960 1.62157927 -0.00013144 0.00000000
4.11630757 0.89964076 0.00052075 0.00000000
2.17571476 0.89360619 0.00481955 0.00000000
0.99254299 1.07593934 -0.00117034 0.00000000
4.22258324 0.39768470 -0.00136756 0.00000000
3.45355063 1.63901567 0.00204134 0.00000000
2.07819414 0.40825444 0.00101795 0.00000000
0.35065456 0.61251254 -0.00022699 0.00000000
3.66657453 0.38281962 0.00354840 0.00000000
3.74712881 1.05772743 0.00047954 0.00000000
3.14553768 0.16142233 -0.00220325 0.00000000
1.88659226 2.24812577 0.00077765 0.00000000
1.35664812 1.69362259 -0.00038468 0.00000000
3.85203187 0.19878786 -0.00046786 0.00000000
1.51721160 0.58820237 -0.00062712 0.00000000
1.43329767 1.60246404 -0.00127471 0.00000000
3.60647157 0.06868237 0.00140686 0.00000000
2.40019274 2.19033763 0.00061027 0.00000000
4.08848184 0.45388707 0.00150110 0.00000000
4.43575073 0.87000107 -0.00047280 0.00000000
3.63436605 1.33847061 -0.00366254 0.00000000
3.02078045 0.02219264 -0.00584529 0.00000000
3.24941178 0.97749294 -0.00199308 0.00000000
0.09317635 1.91006187 -0.00134900 0.00000000
1.46128097 1.71887969 0.00131215 0.00000000
3.68400092 1.35700130 0.00039139 0.00000000
1.11801940 0.54904995 0.00283461 0.00000000
1.25570124 0.73678330 0.00311471 0.00000000
1.06402252 0.34139559 0.00467687 0.00000000
3.43754628 1.74086834 0.00003809 0.00000000
2.06046652 0.19640721 -0.00116849 0.00000000
3.92827957 0.86108237 0.00068591 0.00000000
4.24808847 1.66110035 0.00093719 0.00000000
3.24187771 1.08466885 -0.00136105 0.00000000
2.28328709 1.59513335 -0.00018627 0.00000000
3.40823611 0.96672254 0.00131425 0.00000000
3.44086982 1.51242481 0.00153643 0.00000000
0.04231609 0.29821837 -0.00004184 0.00000000
0.60206742 1.78246455 0.00630033 0.00000000
1.13324126 1.07724191 0.00204999 0.00000000
0.27714591 1.91098837 0.00284788 0.00000000
1.96978164 1.82857999 -0.00188579 0.00000000
0.87974664 0.54489171 0.00134819 0.00000000
3.55087936 0.84851790 0.00356848 0.00000000
2.94015319 0.39718070 0.00061480 0.00000000
0.97233191 0.64318705 -0.00020682 0.00000000
0.72063553 0.38128758 -0.00063166 0.00000000
2.07184057 1.98936003 -0.00065949 0.00000000
2.91987169 0.33636836 0.00272786 0.00000000
3.15871759 0.37058520 0.00202847 0.00000000
2.23583741 1.20800972 -0.00370263 0.00000000
2.93521802 0.76173783 -0.00026382 0.00000000
3.50347621 2.01572237 -0.00043335 0.00000000
1.36180703 1.08485973 0.00015839 0.00000000
0.46586312 1.59709972 -0.00452392 0.00000000
1.79383554 0.50755914 0.00121247 0.00000000
3.19455391 2.07247503 -0.00155135 0.00000000
0.55473059 1.52200007 -0.00169726 0.00000000
0.09169584 0.28539774 -0.00068955 0.00000000
0.79462672 1.11609409 -0.00072139 0.00000000
0.88580687 1.60519975 -0.00168498 0.00000000
4.23931650 1.50726149 0.00084605 0.00000000
0.45447574 2.06927316 0.00335597 0.00000000
3.71034049 0.06762929 -0.00086728 0.00000000
1.25888793 1.57761231 -0.00111196 0.00000000
0.24610446 0.66043052 -0.00068881 0.00000000
2.71829069 2.26891824 -0.00104406 0.00000000
2.31318854 0.68694528 0.00040789 0.00000000
1.59715582 1.22041338 -0.00265816 0.00000000
2.25447811 1.29964510 -0.00119984 0.00000000
4.42453814 0.19503693 0.00087706 0.00000000
3.72979644 0.46580857 -0.00003234 0.00000000
0.05080663 1.35116288 0.00201041 0.00000000
0.04944042 1.19734241 0.00087136 0.00000000
0.76319769 0.42843052 0.00149540 0.00000000
1.01382979 0.50837056 -0.00124588 0.00000000
0.39630800 0.27464263 0.00154016 0.00000000
1.68560540 2.10091104 -0.00190333 0.00000000
1.83809550 2.05506458 0.00032908 0.00000000
2.56417710 0.68009160 -0.00383773 0.00000000
1.14776454 0.74332450 -0.00041361 0.00000000
2.20027863 0.12843296 -0.00170792 0.00000000
0.63895720 2.09936607 -0.00045795 0.00000000
1.23946821 2.07984905 0.00248868 0.00000000
0.92930828 2.02295949 -0.00010644 0.00000000
0.18644638 1.18934720 0.00392984 0.00000000
1.74312496 0.25071381 0.00411086 0.00000000
2.91949519 0.86047801 -0.00367252 0.00000000
2.53433001 1.61426419 -0.00351170 0.00000000
1.48904778 1.67831584 -0.00288099 0.00000000
3.72727574 1.11370850 -0.00162003 0.00000000
2.21025468 1.73385034 -0.00046326 0.00000000
0.91984420 1.04246237 0.00199605 0.00000000
4.31345468 0.87910921 0.00427680 0.00000000
3.34230856 0.33167264 0.00095925 0.00000000
1.30424936 2.24248078 0.00106003 0.00000000
2.15539891 2.07879507 -0.00148496 0.00000000
1.12325866 1.35904575 -0.00035747 0.00000000
2.00953288 1.84334746 -0.00189464 0.00000000
3.73702345 0.58085731 0.00115182 0.00000000
3.06290751 0.25732135 -0.00120310 0.00000000
2.91347848 0.34095711 -0.00514671 0.00000000
2.34623746 0.48343182 0.00213469 0.00000000
4.39109131 1.22056387 0.00251887 0.00000000
0.68063226 0.53399204 -0.00009333 0.00000000
1.26598283 1.17826965 0.00265887 0.00000000
2.19947688 1.70737082 0.00316879 0.00000000
1.62605199 0.26406240 0.00414725 0.00000000
2.09147529 1.25122056 0.00338298 0.00000000
0.14406932 2.27415630 -0.00025298 0.00000000
3.81862514 2.24063306 0.00068032 0.00000000
2.19760812 1.32679415 0.00168355 0.00000000
2.72594367 1.91257434 0.00031568 0.00000000
4.27893134 1.94374403 0.00003562 0.00000000
2.35387977 1.51893803 0.00184374 0.00000000
2.98865117 1.68758190 -0.00198777 0.00000000
3.31688453 0.12446278 0.00072662 0.00000000
0.45038155 0.95300328 -0.00178194 0.00000000
1.06660990 1.66851767 -0.00072901 0.00000000
3.41483566 0.07410568 -0.00183691 0.00000000
0.91975411 1.99947063 0.00137192 0.00000000
0.15815048 0.25202275 0.00129486 0.00000000
3.64351758 0.97353598 -0.00155488 0.00000000
1.15303820 0.19959822 -0.00044446 0.00000000
3.66866359 0.77491087 0.00330987 0.00000000
4.33299671 0.86453759 0.00176675 0.00000000
3.14279144 0.66293136 -0.00463436 0.00000000
2.58527126 1.33554434 -0.00181397 0.00000000
3.37266612 0.50162169 -0.00038071 0.00000000
0.01150580 0.08243590 -0.00154664 0.00000000
2.28249491 1.57456776 0.00094921 0.00000000
1.15017835 0.42080260 0.00092901 0.00000000
2.51417492 1.85219613 0.00158820 0.00000000
2.10341467 2.32324705 0.00336395 0.00000000
0.08739539 2.20369318 -0.00115367 0.00000000
0.28246359 1.75233274 0.00136968 0.00000000
1.44156514 1.65326064 -0.00138775 0.00000000
0.40931182 1.68314833 0.00267706 0.00000000
2.90218728 1.17366375 -0.00111874 0.00000000
0.15857482 1.05570097 -0.00103804 0.00000000
1.62881170 1.72264901 -0.00229299 0.00000000
2.48882011 0.79201100 -0.00007333 0.00000000
1.61725747 1.75309397 0.00147043 0.00000000
4.26400872 0.67203804 -0.00180746 0.00000000
0.35274870 2.31230887 -0.00005603 0.00000000
2.60438331 1.17102033 -0.00568928 0.00000000
4.27282994 1.37460471 -0.00167931 0.00000000
0.97846302 1.55857413 -0.00053522 0.00000000
0.34976187 0.65582655 0.00033165 0.00000000
3.20567271 1.29344249 0.00423299 0.00000000
2.48474341 1.53205974 0.00650208 0.00000000
3.69757225 1.91307117 -0.00142274 0.00000000
0.06144421 0.10331122 -0.00077784 0.00000000
1.07209636 1.09675960 0.00229601 0.00000000
2.22260045 1.31842842 0.00102181 0.00000000
1.10270241 1.17840352 -0.00351062 0.00000000
4.42943443 1.28362929 -0.00613974 0.00000000
3.53690419 0.04698483 0.00185738 0.00000000
2.81854013 0.79447439 0.00509639 0.00000000
2.63082038 1.79701688 0.00044279 0.00000000
4.26226584 0.60887503 0.00201293 0.00000000
1.54369303 1.60378439 -0.00037910 0.00000000
1.01708633 2.03611223 -0.00109676 0.00000000
1.49692533 0.35939342 0.00004441 0.00000000
3.48664171 0.60310742 -0.00324491 0.00000000
4.19380522 0.45062295 0.00078541 0.00000000
3.16826587 0.45065857 -0.00108975 0.00000000
2.07429542 2.28575883 -0.00065064 0.00000000
1.31572239 2.16694203 0.00089361 0.00000000
1.15452311 2.33194705 0.00185743 0.00000000
2.05516888 2.27006704 -0.00032489 0.00000000
2.99151840 1.95969562 0.00265391 0.00000000
2.76258264 0.18129779 0.00165888 0.00000000
2.13231677 1.35432234 -0.00118006 0.00000000
4.17836962 0.19777716 -0.00269003 0.00000000
2.85402485 1.21057561 -0.00227323 0.00000000
0.84498196 1.94074451 -0.00018112 0.00000000
0.97159744 0.73771583 -0.00189835 0.00000000
2.89237697 0.59376686 0.00392923 0.00000000
3.38769675 0.76422940 0.00011610 0.00000000
2.00536973 1.95343599 -0.00344483 0.00000000
0.94810772 0.43975921 -0.00176046 0.00000000
1.64752485 2.22166098 0.00197154 0.00000000
1.19108293 2.06347877 -0.00310507 0.00000000
4.36987849 0.31354050 0.00188448 0.00000000
4.35902372 0.19231306 -0.00240419 0.00000000
2.05485046 1.39585388 0.00264859 0.00000000
1.63066093 0.09157436 -0.00089813 0.00000000
2.47878195 0.48693688 0.00497999 0.00000000
3.71434198 1.85032380 0.00095409 0.00000000
2.46466356 0.82807626 0.00154372 0.00000000
4.39824897 1.73879250 -0.00063417 0.00000000
1.98140933 0.41814228 -0.00427997 0.00000000
2.24630456 2.25288066 0.00100061 0.00000000
1.19797061 0.86161331 0.00073332 0.00000000
0.94914476 0.17043717 -0.00139848 0.00000000
4.32412020 0.19592929 0.00027896 0.00000000
1.36248054 1.01372724 -0.00327711 0.00000000
0.31873369 1.79454869 0.00223506 0.00000000
0.65028066 0.65548844 -0.00338474 0.00000000
1.34401440 1.26900824 -0.00020217 0.00000000
3.30619346 0.00622159 -0.00014389 0.00000000
3.22125252 1.39904361 0.00568416 0.00000000
0.99189657 0.82511646 0.00057735 0.00000000
3.46181585 1.95944989 0.00197595 0.00000000
0.61077209 2.03044820 0.00199179 0.00000000
3.52105338 0.56675837 -0.00138311 0.00000000
4.16619647 1.26129665 -0.00232337 0.00000000
3.06219502 1.90985123 -0.00081194 0.00000000
4.11386701 1.63916192 -0.00005056 0.00000000
2.54631583 1.34525051 0.00201297 0.00000000
2.32704187 0.51347978 0.00247429 0.00000000
1.46283330 2.14490573 -0.00145742 0.00000000
2.38819752 0.42601774 -0.00034515 0.00000000
2.54393053 0.71747665 0.00025513 0.00000000
1.36125820 1.12305773 -0.00181948 0.00000000
0.18924697 1.07905204 -0.00410352 0.00000000
0.11412109 2.07640735 0.00017679 0.00000000
0.17738341 0.18340569 -0.00215907 0.00000000
4.39928599 0.27832223 0.00718815 0.00000000
2.07555220 0.44199873 -0.00243759 0.00000000
1.20461168 0.96358175 0.00125195 0.00000000
1.55057538 0.58036616 0.00324427 0.00000000
0.27159366 1.00910656 -0.00071096 0.00000000
0.39862101 0.10730831 -0.00148322 0.00000000
4.01898578 2.07031985 -0.00552212 0.00000000
1.91264694 0.71940899 0.00157383 0.00000000
0.05474982 1.51744490 -0.00450263 0.00000000
2.56949093 0.25715856 -0.00193538 0.00000000
2.00776013 1.48213071 0.00016668 0.00000000
4.42521805 0.06546353 0.00006609 0.00000000
4.13239258 2.12559691 -0.00253795 0.00000000
1.99080571 1.77592243 -0.00026536 0.00000000
1.52681859 0.69844391 0.00025858 0.00000000
1.97120845 1.97586598 0.00227014 0.00000000
4.17702712 0.07232787 -0.00213054 0.00000000
2.14516455 1.52386096 -0.00595269 0.00000000
1.69549073 0.40957689 -0.00318004 0.00000000
0.73813867 0.17902733 0.00268250 0.00000000
2.20168222 1.31535672 0.00188567 0.00000000
2.02141570 1.89668415 0.00300610 0.00000000
0.20629612 0.76372580 0.00037881 0.00000000
1.75687587 0.40027043 -0.00005715 0.00000000
2.32444328 1.84981969 -0.00405407 0.00000000
1.79201153 1.81601941 -0.00049360 0.00000000
0.49838653 1.99101456 0.00214680 0.00000000
0.16363164 1.06176401 0.00088195 0.00000000
2.23948224 2.32044056 0.00272833 0.00000000
0.68236084 0.00942763 0.00245011 0.00000000
4.00099730 1.94493687 0.00280446 0.00000000
2.19974544 0.44785854 -0.00108303 0.00000000
2.98821369 0.34847291 0.00047260 0.00000000
1.75947478 0.06873025 -0.00309351 0.00000000
2.16710844 2.13296221 0.00025529 0.00000000
0.76977045 2.18817046 -0.00125094 0.00000000
1.49024517 1.96079185 -0.00235681 0.00000000
1.34175054 1.66178912 -0.00170704 0.00000000
0.24233248 0.32521405 0.00224267 0.00000000
3.06114461 0.71352080 0.00181434 0.00000000
3.23341739 0.02888018 -0.00300390 0.00000000
2.71794649 0.84689200 -0.00117880 0.00000000
0.01428866 0.80415929 0.00196985 0.00000000
4.04579043 2.02870182 -0.00104547 0.00000000
0.45873250 1.52666339 -0.00132935 0.00000000
2.33886002 1.62969392 -0.00116875 0.00000000
1.47854217 1.46200207 -0.00124185 0.00000000
1.73905361 1.70818814 -0.00154222 0.00000000
1.43678083 1.20082683 -0.00448627 0.00000000
3.75756071 2.29534482 0.00315213 0.00000000
3.14412474 1.46997021 -0.00380844 0.00000000
0.74745667 0.47611020 0.00063207 0.00000000
1.51388285 0.20650201 -0.00025539 0.00000000
0.67774875 0.60278152 0.00042795 0.00000000
0.21778611 0.86898026 0.00107495 0.00000000
0.80467665 2.12491278 -0.00199830 0.00000000
1.35420200 2.19965878 -0.00046159 0.00000000
3.25749562 0.08124355 0.00205587 0.00000000
2.46266353 1.03315403 -0.00149258 0.00000000
2.63578493 0.51103041 0.00237219 0.00000000
3.46555778 0.86540284 0.00013597 0.00000000
3.44550099 1.52885383 -0.00117345 0.00000000
2.41973404 2.14167274 0.00210994 0.00000000
0.65082100 1.14055085 -0.00336467 0.00000000
3.60064172 0.09404301 -0.00148315 0.00000000
0.06806254 1.78151293 0.00540751 0.00000000
2.64715622 0.63071200 -0.00277954 0.00000000
1.98896226 0.87534400 0.00014965 0.00000000
1.29546341 0.41450518 0.00163591 0.00000000
1.35060868 0.32748256 0.00017330 0.00000000
1.83395025 1.66258117 -0.00473201 0.00000000
1.67462254 2.31949146 -0.00345696 0.00000000
1.80458721 1.70295896 0.00005541 0.00000000
4.07202287 1.20458790 -0.00027360 0.00000000
0.92750146 1.86295981 0.00115554 0.00000000
3.78198624 0.66620305 -0.00174526 0.00000000
1.21088489 1.06016681 -0.00020567 0.00000000
0.02359490 1.23166558 -0.00181711 0.00000000
2.48080004 0.96219398 0.00047575 0.00000000
0.91581106 2.04054552 0.00008045 0.00000000
0.16971913 1.74377887 -0.00341519 0.00000000
4.30873688 1.27950919 -0.00585048 0.00000000
0.59979757 1.30098031 -0.00144657 0.00000000
0.68593330 0.06186302 -0.00133273 0.00000000
0.19066273 0.86988866 0.00244820 0.00000000
2.03552559 0.57812439 0.00302116 0.00000000
0.35409952 2.27323455 0.00125558 0.00000000
0.63695071 1.95309297 0.00264019 0.00000000
0.83016709 0.44204327 -0.00158552 0.00000000
2.20350375 1.56030513 -0.00340368 0.00000000
0.15369461 1.64056735 -0.00213172 0.00000000
1.22045116 1.49887674 -0.00105371 0.00000000
1.63048140 1.09581020 -0.00210221 0.00000000
3.14411721 0.96189975 -0.00225880 0.00000000
1.99957550 1.53704076 -0.00071724 0.00000000
4.01028790 1.56680440 0.00255023 0.00000000
0.16684410 1.04033062 -0.00149196 0.00000000
3.67567070 0.69999733 -0.00356082 0.00000000
1.99976749 2.10917254 0.00057039 0.00000000
3.38188557 1.53351918 -0.00206009 0.00000000
1.53226261 2.03372843 -0.00017838 0.00000000
2.57017798 0.88755458 0.00330252 0.00000000
2.02371741 1.15146850 -0.00147157 0.00000000
2.19148703 1.43370257 0.00339597 0.00000000
0.48052386 2.02071865 -0.00260099 0.00000000
4.12607378 2.19803476 -0.00267984 0.00000000
1.75557824 0.08742837 0.00236344 0.00000000
0.00631038 1.78898727 -0.00285933 0.00000000
0.55499675 2.24768097 0.00771226 0.00000000
1.47889881 0.35267412 0.00026483 0.00000000
3.71010492 1.97661160 -0.00530575 0.00000000
2.53134920 0.22227499 0.00427312 0.00000000
2.68356662 0.13781692 0.00202410 0.00000000
0.73286588 1.54582387 -0.00039857 0.00000000
3.24127112 1.30014192 0.00089344 0.00000000
2.30917045 1.17104663 -0.00505549 0.00000000
4.10290099 1.27433616 0.00111902 0.00000000
0.83802673 0.67707592 0.00180556 0.00000000
1.85656623 2.02634111 -0.00294712 0.00000000
1.81374907 1.46125878 0.00301484 0.00000000
3.70203273 1.59115963 0.00247095 0.00000000
0.90358991 1.56229498 -0.00124545 0.00000000
3.30635051 1.56042037 -0.00162057 0.00000000
3.87219036 1.43567162 0.00137139 0.00000000
0.73165177 0.36899709 0.00039042 0.00000000
2.99631653 0.08589050 0.00121938 0.00000000
0.62285694 1.29595445 -0.00239180 0.00000000
1.26089810 1.78175716 0.00130431 0.00000000
2.04245603 0.77484325 0.00096911 0.00000000
3.83649288 1.73907998 -0.00162528 0.00000000
4.34917265 1.75702887 0.00559523 0.00000000
2.87961645 1.03259542 -0.00325062 0.00000000
4.43387650 0.53571200 -0.00343637 0.00000000
3.91888913 0.11218521 -0.00327422 0.00000000
2.58501881 1.82574388 0.00092826 0.00000000
3.27338665 1.69735151 -0.00004019 0.00000000
2.21858183 1.08981945 0.00057944 0.00000000
1.39377666 0.33002118 -0.00192347 0.00000000
0.30285101 2.10281820 -0.00194488 0.00000000
4.15673479 0.71634246 -0.00259674 0.00000000
2.53046217 2.23934124 0.00588713 0.00000000
1.90380908 1.45846113 0.00141296 0.00000000
2.02097572 1.57760045 0.00089499 0.00000000
1.75005347 1.01765058 0.00288233 0.00000000
0.59475549 0.05133144 -0.00388646 0.00000000
3.93183557 0.96222196 0.00502657 0.00000000
1.45628492 0.95447014 -0.00070071 0.00000000
2.54099613 1.63611110 0.00034927 0.00000000
0.67126426 1.95920077 0.00170359 0.00000000
1.45251674 0.99483723 -0.00005712 0.00000000
2.87280503 0.82596968 0.00097122 0.00000000
2.24169109 0.64905842 0.00341231 0.00000000
1.85077513 0.35145971 -0.00045971 0.00000000
2.42681050 2.19457449 -0.00374242 0.00000000
3.25548947 1.48494788 -0.00150223 0.00000000
2.49088804 0.65924901 0.00197499 0.00000000
4.42785906 1.91670202 -0.00037704 0.00000000
0.82107391 0.43291929 -0.00034012 0.00000000
1.62927088 1.93805153 0.00518795 0.00000000
3.25208320 2.08509654 0.00289310 0.00000000
3.08876428 1.22766254 0.00173121 0.00000000
0.01377531 0.50550252 0.00335148 0.00000000
0.19469673 0.95336903 0.00082386 0.00000000
3.20783282 1.91616942 0.00150186 0.00000000
1.88641760 2.19333832 -0.00168433 0.00000000
2.49338631 0.21157495 0.00356857 0.00000000
1.41810065 0.23832116 0.00292726 0.00000000
2.27682017 0.10677030 0.00573725 0.00000000
1.37022993 0.45786990 0.00188740 0.00000000
0.24476663 0.09212702 0.00548955 0.00000000
4.25086311 2.20193501 0.00356051 0.00000000
3.19432965 1.56730654 -0.00063437 0.00000000
1.94271752 0.79410301 -0.00123801 0.00000000
1.99700368 1.99774553 0.00111830 0.00000000
1.29091900 0.35939526 -0.00022759 0.00000000
0.33433704 0.74684873 -0.00040696 0.00000000
4.30127152 0.39958586 0.00327428 0.00000000
1.04772847 1.99194079 -0.00318476 0.00000000
0.80265814 0.11960447 -0.00715932 0.00000000
0.32349927 0.94346265 0.00106953 0.00000000
0.50784434 0.68645923 0.00223113 0.00000000
4.31975807 0.14159086 0.00358525 0.00000000
3.59246307 1.53263613 -0.00692620 0.00000000
3.05576977 1.40173675 -0.00050619 0.00000000
0.85581701 2.00515949 0.00157927 0.00000000
3.75803787 1.03239633 -0.00091374 0.00000000
3.99520008 0.97188442 -0.00401831 0.00000000
1.56231091 1.28518844 -0.00008106 0.00000000
0.43425932 0.05284821 -0.00035165 0.00000000
0.59366528 0.57337498 -0.00188624 0.00000000
3.35683173 0.04177190 0.00080527 0.00000000
0.71710498 1.38579087 -0.00217067 0.00000000
0.94994719 0.67317234 0.00042005 0.00000000
4.11069386 0.06383025 0.00347898 0.00000000
2.46507197 0.02914370 0.00285808 0.00000000
4.42766728 0.27171554 0.00078654 0.00000000
4.12718887 1.98821652 0.00184784 0.00000000
3.62766453 0.42399291 0.00169774 0.00000000
3.30357589 1.71576178 -0.00255414 0.00000000
2.64478180 2.31105782 -0.00011369 0.00000000
2.59037977 1.70199173 -0.00157493 0.00000000
0.64700835 0.12285372 -0.00582976 0.00000000
1.65950889 1.82899728 -0.00105467 0.00000000
3.18981998 0.73788211 0.00371076 0.00000000
1.60059325 1.85092266 0.00010869 0.00000000
3.85201215 0.58161143 -0.00157140 0.00000000
2.11974171 0.93630936 -0.00369480 0.00000000
3.33063356 0.66836206 0.00136871 0.00000000
2.38560644 0.75139749 0.00013656 0.00000000
4.27194939 0.69156989 0.00026007 0.00000000
3.28528678 1.88058106 0.00106748 0.00000000
3.21568270 0.23086917 -0.00149275 0.00000000
2.31692955 0.60077517 -0.00076334 0.00000000
0.70803931 0.13608968 -0.00085562 0.00000000
0.48040504 0.71588072 0.00230887 0.00000000
1.60729991 0.60950082 0.00221758 0.00000000
3.95507553 2.12994883 -0.00377428 0.00000000
3.19657924 1.64074767 -0.00150969 0.00000000
0.50510060 0.97653396 -0.00350003 0.00000000
2.01457020 2.25429710 -0.00050110 0.00000000
2.21532593 2.07320692 0.00088082 0.00000000
4.23235745 0.91148905 0.00009072 0.00000000
2.17532869 1.58132098 -0.00218675 0.00000000
1.58011931 0.22074960 0.00078173 0.00000000
2.16845213 0.25811219 -0.00186672 0.00000000
0.78205032 1.27223556 -0.00075492 0.00000000
0.63433339 0.25737190 -0.00013671 0.00000000
1.76860102 1.85999101 -0.00066373 0.00000000
0.18854722 2.13416034 0.00102073 0.00000000
3.20423121 0.95071800 0.00275306 0.00000000
2.15978691 0.86465470 -0.00028610 0.00000000
1.81811621 1.48897185 0.00009512 0.00000000
3.08344920 0.75327139 0.00188698 0.00000000
3.74688726 1.78475786 -0.00003846 0.00000000
1.37715972 0.24961707 -0.00076153 0.00000000
1.95870020 2.20999882 -0.00274482 0.00000000
2.01210029 0.02662776 0.00072507 0.00000000
0.49278512 0.34452404 -0.00322288 0.00000000
4.34740666 0.42153811 0.00041430 0.00000000
3.93081818 2.13022199 0.00284968 0.00000000
0.59815557 0.95869222 0.00477506 0.00000000
3.74582948 1.57487838 0.00290464 0.00000000
4.42626449 1.62000599 -0.00367725 0.00000000
0.49061229 1.21620914 -0.00019999 0.00000000
0.52375762 1.65750489 0.00012320 0.00000000
2.66327196 1.59174416 -0.00130560 0.00000000
4.07159866 0.32137040 -0.00268884 0.00000000
1.98694554 1.04014748 0.00307796 0.00000000
2.31032851 1.36503852 -0.00073565 0.00000000
2.63724517 2.13069936 -0.00161515 0.00000000
1.21972914 0.34262409 0.00139171 0.00000000
0.61792206 1.31205782 -0.00400277 0.00000000
1.00186789 1.16182330 -0.00025185 0.00000000
1.86100517 1.41835268 -0.00234087 0.00000000
0.54085139 1.45447416 -0.00083710 0.00000000
2.83457135 0.53068495 -0.00155994 0.00000000
1.86905079 0.25465058 -0.00547567 0.00000000
2.40955811 2.25899926 -0.00473927 0.00000000
2.98164800 1.91558759 0.00238600 0.00000000
0.02353258 1.82708028 0.00011032 0.00000000
1.49822165 1.97179638 0.00515581 0.00000000
1.33020429 0.80583708 0.00286596 0.00000000
3.03082779 1.05060643 0.00441586 0.00000000
0.56448294 0.52662985 -0.00200074 0.00000000
2.82582615 0.13150984 -0.00183682 0.00000000
3.92943515 1.96732100 -0.00453931 0.00000000
1.04441703 0.68286529 0.00249821 0.00000000
0.91990147 1.84032788 0.00812959 0.00000000
2.07744413 1.92901838 -0.00050753 0.00000000
2.47744747 1.43850978 0.00115795 0.00000000
0.70911142 0.70025498 0.00105472 0.00000000
2.50071109 0.15246983 -0.00167911 0.00000000
1.95947320 0.58767972 0.00022070 0.00000000
0.32789217 1.52837581 -0.00162895 0.00000000
3.66057975 1.95549751 0.00204849 0.00000000
4.29890681 1.22255426 -0.00156415 0.00000000
0.14942530 2.32910348 0.00068168 0.00000000
0.45638240 0.58436163 0.00118853 0.00000000
2.05408460 1.20758063 0.00006886 0.00000000
1.43747995 1.73274842 0.00117695 0.00000000
0.96224313 1.41052796 0.00110280 0.00000000
1.06966054 1.04818707 -0.00214771 0.00000000
2.36534723 1.59596665 0.00226687 0.00000000
2.24256712 0.75699908 0.00359720 0.00000000
3.36475012 2.20127997 -0.00162145 0.00000000
0.37270298 0.63121881 -0.00189201 0.00000000
1.03611884 0.47113096 0.00003719 0.00000000
3.18776969 0.11056356 -0.00445157 0.00000000
3.02570251 1.38121227 -0.00180250 0.00000000
0.23294457 1.63045529 -0.00079285 0.00000000
4.40210230 2.09857354 -0.00263301 0.00000000
2.70911036 0.25287422 0.00321471 0.00000000
1.40761632 0.86934478 -0.00163862 0.00000000
4.20028506 1.31268434 0.00285499 0.00000000
0.72371093 0.52962407 0.00625607 0.00000000
1.96626912 1.87068192 0.00187351 0.00000000
3.09005958 1.12153088 -0.00158462 0.00000000
1.13943214 1.28240776 0.00080017 0.00000000
3.05165781 0.82568692 -0.00305219 0.00000000
4.26560361 1.62934794 0.00226732 0.00000000
4.36682253 1.19990105 0.00614899 0.00000000
0.62543571 1.44565847 -0.00297707 0.00000000
3.53429544 0.03482016 0.00236953 0.00000000
0.84405181 0.83743138 0.00203291 0.00000000
1.33432213 1.92630153 -0.00240675 0.00000000
3.92835270 1.39633057 -0.00040546 0.00000000
0.25448182 2.04981660 -0.00045123 0.00000000
3.25174292 0.47797334 -0.00289331 0.00000000
0.21138067 1.51016545 0.00160574 0.00000000
1.60272392 1.40626357 0.00159453 0.00000000
2.50803960 1.88428158 -0.00086309 0.00000000
2.19679721 1.82761943 0.00213412 0.00000000
4.09481828 1.62162032 0.00183539 0.00000000
2.40818649 0.33129073 -0.00374831 0.00000000
0.25957452 1.55923304 0.00280637 0.00000000
0.42314521 0.75303260 0.00094894 0.00000000
0.88283052 1.76271337 0.00045960 0.00000000
1.52761877 0.71141190 -0.00460177 0.00000000
4.25623904 1.04275021 -0.00032114 0.00000000
0.87776621 0.56032150 0.00030379 0.00000000
3.15609799 1.07113042 -0.00098829 0.00000000
1.63414727 0.16276295 -0.00241814 0.00000000
1.09256054 1.63935009 -0.00056223 0.00000000
0.25647348 0.50362260 0.00417434 0.00000000
2.98889766 0.31444105 0.00381267 0.00000000
2.72058570 0.55944566 0.00649707 0.00000000
1.43874862 1.02448971 -0.00334887 0.00000000
0.81074975 1.65470899 -0.00000283 0.00000000
0.25342699 0.66984318 -0.00102614 0.00000000
1.75512266 1.42687775 -0.00190808 0.00000000
4.11485057 1.96717708 0.00147740 0.00000000
0.70818844 2.10406994 0.00038450 0.00000000
4.40457470 1.95962498 0.00041546 0.00000000
3.63782919 0.95134046 0.00198764 0.00000000
2.88171901 1.58285217 0.00455177 0.00000000
1.84816352 2.09735602 -0.00000112 0.00000000
2.10169344 1.61043705 0.00347049 0.00000000
0.64545967 1.99124225 0.00075411 0.00000000
4.21770654 0.30484015 0.00443800 0.00000000
0.17736615 1.99208960 -0.00095268 0.00000000
0.80356268 1.96324881 -0.00316912 0.00000000
1.64978905 1.69262446 -0.00072330 0.00000000
1.91986508 2.31229281 -0.00433284 0.00000000
2.10992679 1.48654486 -0.00067335 0.00000000
4.08216470 1.10949672 0.00443555 0.00000000
0.01329943 0.94709947 0.00162968 0.00000000
0.34927438 2.21639793 -0.00317215 0.00000000
0.83490434 0.03803371 0.00484878 0.00000000
0.70716073 0.91887340 0.00025109 0.00000000
2.47039400 0.12856129 -0.00026740 0.00000000
3.26468333 0.81376182 -0.00120496 0.00000000
0.84122526 1.35332337 0.00211458 0.00000000
2.28826378 1.86805862 -0.00005278 0.00000000
3.12011914 0.07513469 0.00233962 0.00000000
4.20703036 1.61104374 0.00074253 0.00000000
0.05957952 1.24893307 0.00145303 0.00000000
1.75479928 0.26105264 0.00147987 0.00000000
3.79253841 1.03680543 0.00122437 0.00000000
2.95091578 0.47870291 -0.00071440 0.00000000
2.80010117 2.24404425 0.00229594 0.00000000
0.51205577 1.12449648 0.00228559 0.00000000
2.35624435 2.22146495 0.00138552 0.00000000
1.33196068 1.36502399 -0.00134813 0.00000000
2.36604424 0.33355737 0.00274407 0.00000000
2.57861766 2.03401548 -0.00111300 0.00000000
1.01362165 0.32963339 -0.00344849 0.00000000
2.17013144 0.65067665 0.00045196 0.00000000
4.34856002 1.52552849 -0.00095337 0.00000000
0.03336787 0.47031191 -0.00228473 0.00000000
0.01475068 1.68290119 -0.00125489 0.00000000
2.48127922 1.58873610 0.00734620 0.00000000
3.63791496 2.26627611 0.00149259 0.00000000
4.16047026 0.19413808 0.00063579 0.00000000
3.33119270 0.69071084 0.00202008 0.00000000
4.27182446 2.22715624 -0.00395297 0.00000000
3.07452254 1.07571276 -0.00084350 0.00000000
3.62587658 0.45101228 -0.00026493 0.00000000
2.00185069 1.93343094 0.00144818 0.00000000
1.36428921 2.29126883 0.00287873 0.00000000
2.19085547 0.76849480 0.00024694 0.00000000
0.78172414 0.29860911 -0.00111154 0.00000000
3.81058802 1.74372145 0.00001838 0.00000000
0.23226778 0.86065161 -0.00135978 0.00000000
4.25941383 0.26740035 0.00308504 0.00000000
0.85538710 1.56958109 -0.00147140 0.00000000
1.99381096 1.45683723 0.00204553 0.00000000
1.95364773 1.70660117 0.00073716 0.00000000
3.68439813 1.34583832 -0.00409471 0.00000000
2.23840364 0.30769830 0.00206403 0.00000000
2.72410925 2.08164605 -0.00153109 0.00000000
0.10629196 0.36291124 0.00110705 0.00000000
3.69674288 0.65352488 0.00085963 0.00000000
3.72098213 1.42126582 0.00341961 0.00000000
3.36331283 1.92994763 0.00165531 0.00000000
2.47243594 0.21278001 0.00135807 0.00000000
3.20288092 0.39454236 0.00130799 0.00000000
2.85267445 0.92824944 -0.00029293 0.00000000
0.95368273 2.11805388 -0.00176402 0.00000000
0.94331527 1.35402297 0.00091827 0.00000000
1.02527857 1.20959477 0.00144252 0.00000000
2.43922674 1.84367332 -0.00245477 0.00000000
0.01580877 0.99430686 0.00039316 0.00000000
3.55539541 1.63368869 0.00119266 0.00000000
3.79550485 0.72575835 -0.00438824 0.00000000
4.17379234 1.38376467 0.00438321 0.00000000
0.26330743 2.16933518 0.00180732 0.00000000
2.29870524 0.58429091 0.00122717 0.00000000
4.24144432 1.50093316 0.00077395 0.00000000
2.84431808 0.12251214 0.00241789 0.00000000
3.13140882 0.45700368 0.00128571 0.00000000
1.70666637 1.34533218 -0.00323744 0.00000000
0.76787078 2.14644136 0.00038940 0.00000000
2.54442555 1.72254301 0.00326094 0.00000000
0.82817400 2.10307226 0.00005610 0.00000000
3.64915932 1.99824228 -0.00007757 0.00000000
0.68575136 0.69055205 0.00089956 0.00000000
3.39541689 1.46640822 -0.00128033 0.00000000
0.39075230 2.25423026 -0.00100892 0.00000000
4.29929736 0.53422009 0.00019682 0.00000000
2.35504901 1.08182080 0.00265329 0.00000000
1.44089294 0.55910881 0.00119594 0.00000000
3.62065345 1.12264899 -0.00533455 0.00000000
1.03427961 1.40004665 0.00204563 0.00000000
3.71430196 2.08563248 0.00371283 0.00000000
0.61322793 0.72732278 0.00173989 0.00000000
4.42827595 1.34719846 0.00447019 0.00000000
1.16375669 0.85829456 -0.00170836 0.00000000
0.04552310 1.07280791 0.00064880 0.00000000
1.68940777 1.46334971 0.00271392 0.00000000
1.29714932 0.20663399 -0.00004852 0.00000000
0.42583704 2.25458232 -0.00137525 0.00000000
2.66238941 1.61232650 0.00293181 0.00000000
1.23762905 2.10921790 0.00270981 0.00000000
3.26379049 1.23163586 -0.00568215 0.00000000
2.91932605 0.71950826 0.00222653 0.00000000
1.00895854 0.59005335 -0.00072255 0.00000000
3.75452298 1.92979331 -0.00091281 0.00000000
4.10338614 2.11282048 -0.00017512 0.00000000
1.81243058 1.87784392 -0.00177668 0.00000000
3.90401021 1.53155494 -0.00021162 0.00000000
2.34904555 1.24591271 0.00113268 0.00000000
1.09762746 2.06904493 -0.00269104 0.00000000
4.44799245 1.56282759 -0.00338884 0.00000000
2.63496982 1.43672944 -0.00269330 0.00000000
3.72896088 1.52420537 0.00205544 0.00000000
1.70887882 1.82250877 -0.00274440 0.00000000
2.81126910 0.60419287 -0.00617156 0.00000000
0.43488803 1.39008787 0.00033146 0.00000000
3.21578265 0.81003534 0.00458471 0.00000000
2.46083668 1.87278129 -0.00196628 0.00000000
1.45887252 1.05257266 0.00153963 0.00000000
0.88187257 1.25031842 -0.00047683 0.00000000
1.47920818 0.39919525 -0.00018372 0.00000000
0.74343347 1.80318225 0.00056853 0.00000000
1.01370100 0.35246819 -0.00255401 0.00000000
1.90761504 0.80582166 -0.00064443 0.00000000
3.52798308 1.16394337 0.00076517 0.00000000
3.53034315 1.40887889 -0.00126816 0.00000000
0.51524326 0.28593005 -0.00153737 0.00000000
1.41433973 0.44648478 0.00103082 0.00000000
3.64600201 2.00827829 0.00144692 0.00000000
1.94773430 0.42553758 0.00052446 0.00000000
2.91892541 0.03107478 -0.00150924 0.00000000
1.34726128 1.49201630 -0.00205981 0.00000000
3.47240220 0.06916620 0.00103635 0.00000000
0.88962069 2.22401993 0.00039796 0.00000000
1.06955049 0.35969985 -0.00162001 0.00000000
1.82829965 2.14008975 0.00086667 0.00000000
3.68994906 1.96085360 0.00220129 0.00000000
4.29232639 1.68571230 -0.00516609 0.00000000
3.98328952 0.01634997 -0.00131609 0.00000000
2.49379472 1.02773095 0.00067729 0.00000000
3.76896260 1.96585836 0.00191677 0.00000000
0.03537897 1.18292764 -0.00156154 0.00000000
3.70161366 1.78300724 0.00145799 0.00000000
3.41616719 0.03722903 0.00124503 0.00000000
0.98512691 0.58774506 0.00130426 0.00000000
0.20709236 0.64912657 -0.00571389 0.00000000
3.53907850 1.83900385 0.00131237 0.00000000
3.36215055 2.27381391 0.00037168 0.00000000
4.31891439 2.04580275 0.00196537 0.00000000
0.96500823 2.02584238 0.00264478 0.00000000
0.66676000 1.57908538 -0.00134576 0.00000000
0.02631140 2.09396987 -0.00119747 0.00000000
3.69786137 0.06657367 0.00033458 0.00000000
1.79315001 1.06456414 0.00044547 0.00000000
4.05043296 0.66681442 0.00304226 0.00000000
1.50884505 1.38128787 -0.00136491 0.00000000
1.47741665 2.00399296 -0.00022758 0.00000000
2.31041587 0.56717720 -0.00160394 0.00000000
0.64730973 1.75074632 0.00102563 0.00000000
1.41986944 0.94897766 0.00287414 0.00000000
0.43771184 1.42946147 -0.00014269 0.00000000
0.40918796 1.17108893 -0.00016424 0.00000000
3.86208389 0.81227705 0.00241153 0.00000000
3.86375698 2.07391364 0.00541453 0.00000000
4.43156650 2.01983789 -0.00361851 0.00000000
2.97475155 2.03796991 -0.00214377 0.00000000
3.49680243 1.76385868 0.00201351 0.00000000
3.04171196 1.90974067 -0.00003078 0.00000000
3.52170693 1.64040536 0.00143393 0.00000000
0.06388548 1.23251182 -0.00112830 0.00000000
3.87961375 0.69678071 -0.00244661 0.00000000
1.19766740 1.66288583 0.00141557 0.00000000
1.03315381 0.23959343 0.00083946 0.00000000
2.22874845 0.25103329 -0.00538540 0.00000000
1.85919764 0.40736892 0.00368557 0.00000000
1.81191637 1.40511216 -0.00273376 0.00000000
0.47220560 0.11648438 0.00287119 0.00000000
3.96351157 2.29337583 0.00187703 0.00000000
2.32460169 1.35236283 0.00087676 0.00000000
3.97333942 0.36870627 0.00044765 0.00000000
2.36155608 0.64166200 -0.00678815 0.00000000
1.99950184 1.87271081 -0.00031158 0.00000000
2.08028580 1.93816210 -0.00088856 0.00000000
1.56485793 0.04942696 -0.00076431 0.00000000
1.17234269 0.00249764 0.00056537 0.00000000
0.28202635 0.39156748 -0.00139056 0.00000000
1.09559815 1.20403976 0.00028141 0.00000000
1.86785442 1.56943833 0.00008892 0.00000000
4.18159936 0.29443209 0.00046900 0.00000000
0.44585609 0.41491705 -0.00017521 0.00000000
0.96423702 0.11389773 -0.00097433 0.00000000
1.71122189 0.52118839 0.00183282 0.00000000
0.46637019 1.68701773 0.00114468 0.00000000
4.00457001 0.20213516 0.00092105 0.00000000
0.60895677 1.36664670 0.00212911 0.00000000
3.21210477 0.14968643 -0.00038793 0.00000000
2.96087467 2.21452548 -0.00102117 0.00000000
0.76644855 1.87750178 0.00277332 0.00000000
2.85395614 1.67805668 -0.00009721 0.00000000
1.11087142 2.29474027 -0.00003506 0.00000000
2.57108162 1.53478062 0.00163290 0.00000000
0.34891453 1.95174968 0.00076223 0.00000000
0.71516214 2.15069620 0.00010139 0.00000000
4.04232628 1.38719241 0.00195626 0.00000000
3.63440177 1.09822072 -0.00102782 0.00000000
1.07891393 0.75235249 -0.00224331 0.00000000
0.20957191 1.29484384 0.00298697 0.00000000
0.94475217 1.04771277 0.00409928 0.00000000
3.76371630 0.52723696 0.00259487 0.00000000
0.11522453 1.90337363 -0.00001758 0.00000000
4.36188186 1.55331377 -0.00008678 0.00000000
3.80015371 1.26689967 0.00152943 0.00000000
0.51385255 2.27622550 -0.00243840 0.00000000
4.11401467 1.92913766 0.00079241 0.00000000
1.81480633 1.53035424 0.00077806 0.00000000
2.67860622 0.74628247 -0.00313561 0.00000000
3.55841525 0.72167588 -0.00324442 0.00000000
2.65852746 0.25029660 0.00158060 0.00000000
3.28755674 0.83905668 -0.00028125 0.00000000
3.70788994 0.38646424 0.00361716 0.00000000
4.39735462 1.84919956 0.00141012 0.00000000
0.51059367 1.23526812 0.00170595 0.00000000
0.33420237 2.24468882 0.00141312 0.00000000
1.12097350 0.23820039 0.00087172 0.00000000
1.28913953 0.89668938 0.00291660 0.00000000
3.60410204 1.56922358 -0.00597027 0.00000000
2.35898863 2.12449935 0.00014368 0.00000000
3.50068806 1.61668402 -0.00394514 0.00000000
3.36444453 0.96721539 0.00238469 0.00000000
0.75588313 1.96136878 0.00228287 0.00000000
3.91369996 2.19679424 -0.00099154 0.00000000
3.58778668 1.57594516 0.00085157 0.00000000
1.85358459 1.84429469 0.00058297 0.00000000
0.04950152 0.76576531 0.00201353 0.00000000
1.80463589 0.51777982 0.00452778 0.00000000
2.48835696 0.62394923 -0.00492006 0.00000000
1.65446523 0.20847524 -0.00029973 0.00000000
4.09426468 0.87666317 0.00022286 0.00000000
3.97674064 1.18259464 0.00102080 0.00000000
