1.75562571 0.63292744 0.00144501 0.00000000
1.10084432 0.35578161 -0.00123884 0.00000000
3.08850853 1.11799754 -0.00035061 0.00000000
2.01820716 1.39476532 0.00130383 0.00000000
2.89993259 0.34559545 -0.00042330 0.00000000
1.95233138 0.74078978 0.00426200 0.00000000
1.16228976 1.16823417 -0.00552293 0.00000000
1.27002634 1.55041491 0.00408161 0.00000000
3.94638491 1.30708014 0.00227568 0.00000000
0.41767006 1.00345620 0.00066580 0.00000000
0.89103012 1.55784242 0.00140441 0.00000000
1.87587397 0.44469203 -0.00331025 0.00000000
2.83778285 0.05846432 0.00179466 0.00000000
1.73047430 1.49586535 -0.00026354 0.00000000
0.12924309 0.51672032 0.00303072 0.00000000
3.40826676 0.46714212 -0.00177272 0.00000000
3.81013000 1.18341895 0.00222618 0.00000000
0.88365973 0.42337442 0.00118997 0.00000000
3.45822680 0.95145257 0.00210334 0.00000000
2.67163566 0.18820587 0.00258421 0.00000000
1.62235411 1.11637737 -0.00232571 0.00000000
2.62789973 1.57494642 0.00345871 0.00000000
3.11718617 1.33375043 -0.00081903 0.00000000
0.72843618 0.79633057 0.00457881 0.00000000
2.73129739 0.74887416 -0.00060294 0.00000000
2.88161232 0.10586444 -0.00174892 0.00000000
3.55658535 1.52135138 0.00254299 0.00000000
2.43923314 1.45049814 0.00359451 0.00000000
3.30660619 0.18645049 -0.00254078 0.00000000
3.31576972 0.23521788 -0.00029606 0.00000000
2.99023909 1.15595311 0.00279956 0.00000000
4.01189448 0.21637717 -0.00481390 0.00000000
1.64458802 0.31525079 -0.00222512 0.00000000
3.32297414 1.07673968 -0.00061209 0.00000000
1.66190964 1.43065322 0.00180224 0.00000000
1.19303708 0.20725325 -0.00034389 0.00000000
2.44340192 1.43343535 0.00182046 0.00000000
3.33785923 0.38991085 -0.00172851 0.00000000
2.22949889 0.65827744 0.00135587 0.00000000
3.36869836 0.69600200 -0.00016334 0.00000000
2.35856207 0.67098107 -0.00204154 0.00000000
2.18810678 0.49408425 -0.00161583 0.00000000
3.24740454 0.01029670 -0.00062098 0.00000000
1.33433685 1.26388707 0.00028259 0.00000000
2.60263814 0.46212061 0.00366892 0.00000000
3.02931538 1.22132185 0.00243816 0.00000000
2.06727488 0.66811344 -0.00211162 0.00000000
0.12379751 1.39939499 0.00473956 0.00000000
0.86025347 0.72574525 0.00118338 0.00000000
1.58637033 1.28111200 -0.00046805 0.00000000
1.51659037 1.56972061 0.00059372 0.00000000
1.57962648 0.19617175 -0.00795320 0.00000000
4.09798329 0.14691192 -0.00100208 0.00000000
2.22769601 0.54354789 -0.00030066 0.00000000
1.33639844 1.50677447 0.00058732 0.00000000
2.37453822 0.41896750 0.00051844 0.00000000
3.60927420 0.64592443 0.00095349 0.00000000
2.34275461 1.18690569 -0.00167296 0.00000000
0.69390128 0.78471078 -0.00038483 0.00000000
4.01593381 0.18460661 -0.00099874 0.00000000
0.22534523 0.36885981 -0.00445931 0.00000000
2.55180203 0.61464644 0.00098778 0.00000000
3.44608543 1.48403967 -0.00160333 0.00000000
0.49083699 0.23429615 -0.00086141 0.00000000
3.71918662 0.45659335 0.00144445 0.00000000
1.81532963 0.08468636 0.00052920 0.00000000
1.44169391 1.21343265 -0.00073706 0.00000000
2.50373790 0.45378570 -0.00344377 0.00000000
3.11443547 1.16579131 0.00106848 0.00000000
2.06304085 1.05595990 -0.00269961 0.00000000
2.14613794 1.15056598 0.00023019 0.00000000
1.96651616 0.97962093 -0.00177867 0.00000000
0.53434299 0.48727871 -0.00349647 0.00000000
0.07938725 1.16444664 -0.00261677 0.00000000
1.43009493 1.34920643 0.00008797 0.00000000
1.43731009 1.27502790 0.00345140 0.00000000
3.76533940 1.20794037 -0.00101210 0.00000000
3.80298187 0.48767661 0.00130579 0.00000000
1.13628559 1.54377426 -0.00310366 0.00000000
3.54183292 0.05461146 -0.00006246 0.00000000
3.73898750 0.39470733 0.00063845 0.00000000
2.72156439 0.31816245 0.00662873 0.00000000
0.07284076 0.09393976 0.00144523 0.00000000
3.57250025 0.52094569 -0.00212616 0.00000000
1.61618819 1.37353886 0.00034278 0.00000000
3.00472602 0.76476226 0.00251701 0.00000000
3.26566651 0.46068171 0.00277991 0.00000000
0.64604765 1.56991577 0.00167751 0.00000000
2.99283290 0.37482776 0.00174950 0.00000000
0.69486293 0.51737199 0.00143073 0.00000000
1.99445651 1.09546637 0.00050280 0.00000000
2.65779817 0.63361052 -0.00158860 0.00000000
3.72111906 1.21505395 -0.00022247 0.00000000
0.94264917 1.07874897 -0.00016768 0.00000000
2.79283949 0.20035945 0.00226836 0.00000000
0.24730298 1.17748747 0.00083958 0.00000000
2.92800926 0.42264952 -0.00870631 0.00000000
0.64996989 1.46487815 0.00171483 0.00000000
3.07736604 0.34558517 -0.00235740 0.00000000
3.67134409 0.52055259 -0.00175500 0.00000000
3.16154382 0.22783634 -0.00117841 0.00000000
2.36602906 1.21181921 0.00307923 0.00000000
0.33427575 0.52370791 -0.00098271 0.00000000
0.17504281 0.47274865 -0.00145951 0.00000000
1.17229990 0.09210779 -0.00260658 0.00000000
3.98792859 1.55546088 0.00028365 0.00000000
3.89996009 0.25319750 -0.00403063 0.00000000
0.55199902 0.36118768 0.00480809 0.00000000
4.03272588 1.48435871 -0.00085852 0.00000000
0.23869054 1.51956078 -0.00039835 0.00000000
2.89446561 1.50560693 -0.00178111 0.00000000
3.44494023 1.07221170 0.00328906 0.00000000
3.99729278 0.33669759 0.00187195 0.00000000
1.58128430 0.58799228 0.00128691 0.00000000
0.15849955 0.85565274 0.00089882 0.00000000
2.22322467 0.83538583 0.00173728 0.00000000
2.04753155 0.22147943 0.00195419 0.00000000
1.18725154 0.25570364 -0.00263742 0.00000000
3.60510119 0.50144996 0.00110807 0.00000000
2.32258437 0.38400931 -0.00261006 0.00000000
0.31733691 0.31220509 0.00152354 0.00000000
3.14601293 1.25233787 -0.00067897 0.00000000
3.45771380 0.80320077 0.00121689 0.00000000
2.46365930 0.45704513 -0.00006301 0.00000000
0.07111214 0.85041513 -0.00047149 0.00000000
0.93406372 0.17263995 -0.00328673 0.00000000
1.04903843 0.11235810 -0.00393325 0.00000000
0.72711373 1.57376262 0.00316827 0.00000000
1.73568454 0.77413485 0.00093833 0.00000000
1.79572469 1.18296448 0.00283736 0.00000000
1.12837711 0.79428852 0.00105118 0.00000000
1.63861927 0.17446822 -0.00144180 0.00000000
3.42804951 1.04846951 -0.00204695 0.00000000
1.85353050 0.17450785 0.00246924 0.00000000
1.91986151 1.24443609 -0.00267016 0.00000000
1.51701646 1.32669167 0.00168709 0.00000000
0.84161673 1.51630153 -0.00377010 0.00000000
0.57012912 0.48938664 0.00000246 0.00000000
3.19862543 1.33299510 0.00203224 0.00000000
1.23978377 1.02969085 -0.00172585 0.00000000
4.03868364 0.17790659 0.00373211 0.00000000
2.78842143 1.57005296 0.00175139 0.00000000
2.25164064 0.91993840 0.00224547 0.00000000
2.08849995 0.19392246 0.00139943 0.00000000
1.49168890 0.39196203 -0.00157402 0.00000000
3.05139480 0.41060315 0.00276747 0.00000000
2.18092806 1.25048874 0.00393408 0.00000000
3.34816515 1.43559584 0.00006329 0.00000000
1.48536305 0.39452995 0.00650883 0.00000000
1.09581968 0.31322403 -0.00172763 0.00000000
3.63022664 0.43639790 -0.00054740 0.00000000
3.48026714 0.49196638 0.00034158 0.00000000
3.45294475 0.82273007 0.00231851 0.00000000
2.85381702 1.39309662 0.00129116 0.00000000
1.58841055 1.51523096 -0.00080527 0.00000000
2.54178362 1.02814107 -0.00114749 0.00000000
0.35468901 0.60577461 0.00181743 0.00000000
1.96315087 0.73660817 0.00285289 0.00000000
3.79447155 1.01254268 -0.00224259 0.00000000
1.52389944 0.71810849 0.00080067 0.00000000
0.05474558 0.48554832 0.00012436 0.00000000
0.59099648 0.29235869 -0.00190208 0.00000000
2.84710952 1.56211909 0.00344289 0.00000000
2.37151736 0.68151358 -0.00016672 0.00000000
2.73889563 0.69125466 -0.00635497 0.00000000
4.11488670 0.08302159 -0.00227460 0.00000000
0.27478317 0.00207438 0.00220911 0.00000000
2.59638386 0.25428822 -0.00332443 0.00000000
0.01125733 1.10699940 -0.00279524 0.00000000
0.68627465 0.36288977 -0.00229159 0.00000000
3.68156614 0.33889206 -0.00376117 0.00000000
1.24098841 0.14547841 -0.00228124 0.00000000
0.85766284 1.57651484 0.00085974 0.00000000
3.07237984 0.07774698 0.00156287 0.00000000
3.37252169 1.42141085 -0.00049275 0.00000000
2.92059016 0.30607895 0.00366670 0.00000000
3.06111971 0.54632700 -0.00394780 0.00000000
2.76212279 0.12411435 0.00035874 0.00000000
0.47875167 0.42581988 -0.00242247 0.00000000
4.01711583 0.71342116 0.00530104 0.00000000
0.10633933 0.21356096 0.00206942 0.00000000
2.11079328 0.56459239 0.00159263 0.00000000
2.43415233 0.24471997 -0.00024376 0.00000000
3.99779720 0.46603163 0.00044479 0.00000000
2.15814318 1.29188636 0.00139081 0.00000000
3.05071284 0.53985103 0.00032692 0.00000000
1.77848754 0.13315120 0.00005331 0.00000000
0.89933989 0.08165847 -0.00408370 0.00000000
0.97895601 0.75513500 0.00050685 0.00000000
1.62666727 0.88160351 0.00003124 0.00000000
2.24345595 1.21266197 0.00041358 0.00000000
3.77807370 1.48887164 -0.00147420 0.00000000
4.03053573 0.12939203 -0.00331414 0.00000000
0.58357144 0.02735444 -0.00260719 0.00000000
2.71467285 0.47409257 -0.00257338 0.00000000
1.98672171 0.69496734 -0.00177030 0.00000000
2.91043567 1.39348993 -0.00180893 0.00000000
1.78337483 1.25292502 0.00059785 0.00000000
4.03619328 0.26299731 -0.00133209 0.00000000
0.32626827 0.26254452 -0.00495608 0.00000000
2.46610787 0.50419597 0.00216714 0.00000000
0.67420491 1.16514847 -0.00019382 0.00000000
3.13495951 1.02677042 0.00015731 0.00000000
3.35521130 1.50245365 -0.00575258 0.00000000
3.00379695 1.57780214 -0.00158662 0.00000000
1.49473635 1.52676800 -0.00478056 0.00000000
1.02112932 0.58777554 0.00142452 0.00000000
3.84465978 1.19224328 0.00287402 0.00000000
4.13956422 0.85467892 -0.00212422 0.00000000
1.02801100 1.36156429 0.00077085 0.00000000
1.55844772 0.42867845 -0.00122339 0.00000000
0.72725957 0.45564725 -0.00255019 0.00000000
0.89031630 0.05138828 -0.00001844 0.00000000
2.47116875 0.82746602 -0.00237512 0.00000000
3.01902753 1.36988033 0.00132986 0.00000000
3.68279900 1.24028456 0.00213441 0.00000000
1.17435990 0.49084695 0.00410512 0.00000000
2.61639020 0.58148557 0.00199472 0.00000000
2.72902069 1.22389563 -0.00258566 0.00000000
0.50257909 0.03460554 -0.00352528 0.00000000
0.45849925 1.50739961 -0.00244173 0.00000000
1.12770242 1.33409718 -0.00258657 0.00000000
3.93307437 0.19931886 -0.00090160 0.00000000
4.15061736 0.08022227 -0.00036154 0.00000000
3.96140796 1.54307082 -0.00393942 0.00000000
4.12120778 1.45776326 0.00453331 0.00000000
4.05486128 0.36626951 -0.00024610 0.00000000
4.03964111 0.63610138 0.00041613 0.00000000
4.07230792 1.49427837 -0.00368306 0.00000000
0.42326553 0.44902789 0.00035868 0.00000000
1.41118487 0.80520869 0.00150213 0.00000000
1.18385670 0.39632096 -0.00281807 0.00000000
3.43494149 0.87958546 0.00176784 0.00000000
3.43140135 0.09680497 0.00112258 0.00000000
2.14122200 1.02911259 0.00194477 0.00000000
0.53639132 1.27878557 -0.00074700 0.00000000
2.19377277 1.11793289 -0.00158317 0.00000000
2.20273403 0.94533941 -0.00193235 0.00000000
0.39212841 0.11828760 0.00117246 0.00000000
2.72207680 0.02044065 -0.00027450 0.00000000
1.93056333 0.17766243 0.00153632 0.00000000
0.63107917 0.50026459 0.00136333 0.00000000
0.24654516 0.86774970 0.00220443 0.00000000
1.53176013 0.59045871 -0.00063739 0.00000000
4.04109031 0.02295290 -0.00208299 0.00000000
2.06080102 1.00489291 -0.00109488 0.00000000
1.16620543 0.68454390 0.00080900 0.00000000
0.73996579 0.64229607 -0.00440843 0.00000000
3.18913502 0.24505206 0.00088160 0.00000000
2.99645602 0.76417912 -0.00272171 0.00000000
2.26890585 1.35483202 0.00088351 0.00000000
1.65643650 0.34432350 -0.00216830 0.00000000
0.77004098 1.15666418 -0.00044725 0.00000000
2.57081058 0.36431461 0.00039277 0.00000000
1.20123395 0.76514561 0.00046744 0.00000000
3.93050791 0.09916249 -0.00193372 0.00000000
4.06409445 0.89558531 0.00118260 0.00000000
1.98863944 0.22694977 -0.00197600 0.00000000
2.10799565 1.24025952 -0.00192957 0.00000000
2.21149598 0.80049950 0.00455774 0.00000000
3.95311215 0.33712288 -0.00218302 0.00000000
1.06707312 0.04100823 0.00231352 0.00000000
3.96003930 0.89255291 0.00133306 0.00000000
1.38619900 0.15123729 -0.00049442 0.00000000
1.73231113 1.26243392 -0.00067807 0.00000000
4.11652013 0.99821226 -0.00103262 0.00000000
3.47264212 0.67744827 -0.00000768 0.00000000
0.21367022 1.49827044 0.00044500 0.00000000
3.85051415 1.06386726 -0.00431534 0.00000000
1.39384463 0.00824994 -0.00249674 0.00000000
1.56080275 1.08990311 -0.00204044 0.00000000
1.33414546 1.44121340 0.00019239 0.00000000
3.27442099 0.20544857 0.00024768 0.00000000
3.71612556 0.83287468 0.00130454 0.00000000
1.15419734 0.74618651 0.00270090 0.00000000
3.45993264 0.12673725 0.00111328 0.00000000
1.75085446 0.92783461 -0.00124104 0.00000000
0.88334038 0.17512014 0.00070112 0.00000000
3.77437518 0.63121099 -0.00114102 0.00000000
2.90156077 0.11071470 0.00086316 0.00000000
1.41752642 0.09989066 -0.00092951 0.00000000
2.06777840 0.65634691 0.00398219 0.00000000
2.93390893 0.81639329 0.00129501 0.00000000
3.74467621 0.29357906 0.00780281 0.00000000
1.11753904 0.79911668 -0.00324638 0.00000000
1.68354432 0.55004778 -0.00056666 0.00000000
0.84025392 0.80837940 0.00158718 0.00000000
1.15860612 0.75638654 -0.00225331 0.00000000
3.36543437 0.20237912 -0.00368761 0.00000000
3.58551160 0.36746001 0.00261136 0.00000000
0.31353054 1.20080556 -0.00158811 0.00000000
3.93574016 1.09943664 0.00012599 0.00000000
2.71623183 1.17954434 -0.00249906 0.00000000
1.66984398 0.01925091 0.00277502 0.00000000
2.29279420 1.26459351 -0.00262284 0.00000000
4.05824332 1.52077717 0.00059901 0.00000000
2.83708083 0.97665173 0.00441680 0.00000000
2.53771526 0.42618445 0.00111867 0.00000000
2.91590881 1.26081134 -0.00526514 0.00000000
1.95693224 0.67070883 -0.00240124 0.00000000
1.42265155 1.09532891 -0.00191432 0.00000000
1.91245713 0.71168176 -0.00536156 0.00000000
2.49484949 1.02453062 -0.00356700 0.00000000
1.69421213 0.15454652 -0.00013001 0.00000000
3.87444234 0.31040786 -0.00054424 0.00000000
3.77149778 1.27864672 0.00285830 0.00000000
3.16610766 1.28973735 0.00237899 0.00000000
1.33542370 0.77084895 -0.00186125 0.00000000
2.00620602 1.31943058 -0.00459985 0.00000000
3.16962077 1.49719555 -0.00154895 0.00000000
2.57925804 1.34128991 -0.00059000 0.00000000
0.86048253 1.34655004 0.00119616 0.00000000
2.30807133 1.47874325 0.00203522 0.00000000
3.94162483 0.90914317 0.00159824 0.00000000
3.40776388 0.20271688 -0.00365458 0.00000000
1.38722765 0.02806596 -0.00161424 0.00000000
3.75675905 0.47156592 0.00300322 0.00000000
3.52897306 1.00218519 0.00092986 0.00000000
1.55372267 1.44753290 -0.00671418 0.00000000
1.53928338 1.20844384 0.00128413 0.00000000
0.76593817 0.63753867 0.00041147 0.00000000
3.39077919 0.92110342 -0.00022272 0.00000000
1.49202516 0.71390113 -0.00312292 0.00000000
0.29789717 0.86748443 -0.00036265 0.00000000
3.06290726 1.39870181 -0.00071548 0.00000000
0.09009679 0.07017131 -0.00129459 0.00000000
3.62114106 1.08929995 0.00121809 0.00000000
2.49935558 0.28522798 -0.00265830 0.00000000
3.95653053 0.70000165 0.00211476 0.00000000
2.07778024 1.01136381 0.00158859 0.00000000
1.87836455 0.97615868 0.00353085 0.00000000
2.42867849 0.88167129 -0.00319946 0.00000000
3.70475458 1.21991266 0.00178221 0.00000000
1.41387191 1.21448559 -0.00307607 0.00000000
0.63589962 1.20278220 -0.00190799 0.00000000
0.73023248 0.61369689 0.00068745 0.00000000
3.86910192 1.11043746 -0.00109646 0.00000000
0.30844462 1.04847538 0.00127660 0.00000000
1.53259573 0.15922879 0.00411795 0.00000000
0.03695059 0.64423216 -0.00482002 0.00000000
1.70678604 1.13857589 0.00078606 0.00000000
1.18669833 1.26023708 -0.00477569 0.00000000
2.36172814 0.76295157 -0.00223426 0.00000000
0.36212781 1.28776155 0.00383845 0.00000000
3.24537229 0.22465418 0.00145513 0.00000000
3.05691273 1.11236642 -0.00170998 0.00000000
0.28434403 1.28328364 0.00305372 0.00000000
0.20338423 1.10626569 -0.00373718 0.00000000
2.62726732 1.52726176 0.00127788 0.00000000
3.15602615 0.51512330 0.00137598 0.00000000
2.36125622 0.77832958 0.00301667 0.00000000
3.51610328 0.62037744 0.00028827 0.00000000
0.20374885 0.51026456 0.00033836 0.00000000
1.33909387 0.95816181 0.00273111 0.00000000
2.95547307 0.35844227 0.00146224 0.00000000
0.21243181 0.38452595 0.00165219 0.00000000
0.50441304 1.32321302 -0.00157670 0.00000000
3.59519773 0.21736822 -0.00112496 0.00000000
0.13411045 0.84233243 -0.00241067 0.00000000
0.49281118 1.24767496 -0.00099175 0.00000000
2.84091422 0.21838070 -0.00301448 0.00000000
2.71361465 1.25818016 -0.00321746 0.00000000
4.01613396 0.13571625 -0.00164817 0.00000000
1.95242524 0.58065789 0.00432695 0.00000000
3.37059956 0.57369540 0.00094943 0.00000000
1.23186185 0.06967450 0.00279589 0.00000000
0.45180458 0.00033319 0.00069420 0.00000000
1.12491925 0.35225198 0.00012856 0.00000000
0.33571120 1.18551173 -0.00144319 0.00000000
2.18168817 1.50205264 -0.00068823 0.00000000
3.59706615 0.16533553 0.00224465 0.00000000
1.44181552 0.43855339 -0.00290229 0.00000000
2.84883896 0.73225650 -0.00009210 0.00000000
3.87111602 1.11799162 -0.00173926 0.00000000
0.57663430 1.28850071 0.00067523 0.00000000
1.32854872 1.14931839 0.00453105 0.00000000
4.10926737 0.65903145 0.00074561 0.00000000
3.95112923 1.18296761 0.00086162 0.00000000
1.00424635 0.78878582 -0.00029120 0.00000000
2.98611965 0.89300493 0.00198109 0.00000000
3.04795235 1.27436751 0.00121204 0.00000000
0.98241984 0.08253432 0.00545965 0.00000000
2.80191142 0.45341567 0.00071395 0.00000000
1.50991691 0.11976836 0.00376759 0.00000000
2.07508039 1.39183277 -0.00237240 0.00000000
0.86627718 0.60637321 -0.00206886 0.00000000
2.85215653 0.56066735 0.00503068 0.00000000
3.67479867 0.64250358 0.00055582 0.00000000
0.88259202 0.74147425 0.00104580 0.00000000
0.22454072 0.39845611 -0.00238842 0.00000000
0.56631630 0.53345336 0.00140108 0.00000000
0.45273565 0.48559374 -0.00081091 0.00000000
2.33539803 1.11235489 -0.00115828 0.00000000
0.37462130 0.95877047 0.00027388 0.00000000
3.69884787 0.04239016 -0.00124653 0.00000000
0.84164325 0.94979059 0.00343072 0.00000000
3.38464469 0.61775317 0.00093046 0.00000000
3.30919172 0.31159579 -0.00028734 0.00000000
0.24586336 0.01031704 0.00384051 0.00000000
3.27409247 0.25688064 -0.00392282 0.00000000
2.58084530 0.90962153 0.00269196 0.00000000
3.27826187 0.98492901 0.00186751 0.00000000
1.51297379 1.36059097 -0.00107138 0.00000000
3.60452831 0.33362530 0.00604230 0.00000000
2.57621140 0.82630371 -0.00028017 0.00000000
2.95010622 0.64236475 0.00063763 0.00000000
0.21543590 0.62317275 -0.00166078 0.00000000
0.66940764 0.73186464 -0.00175374 0.00000000
2.72393832 0.96381886 -0.00106413 0.00000000
2.14893058 0.38080136 -0.00473438 0.00000000
3.66320333 0.50363042 0.00290116 0.00000000
0.80503651 0.11718107 -0.00278195 0.00000000
1.09655157 1.26909519 -0.00550023 0.00000000
1.51173801 1.14257286 0.00107198 0.00000000
3.70762911 1.52756301 -0.00157221 0.00000000
2.49628517 0.62798449 -0.00017443 0.00000000
1.64549078 0.65560569 0.00106920 0.00000000
2.57724509 0.81420587 -0.00311234 0.00000000
0.10165407 0.52482280 0.00098168 0.00000000
0.11814548 0.80793986 0.00035238 0.00000000
4.00210637 0.01236168 -0.00091754 0.00000000
2.98891961 0.65681340 0.00024477 0.00000000
1.69849059 0.02125279 -0.00032503 0.00000000
3.25239103 0.92419719 0.00202419 0.00000000
0.33889545 0.49208311 0.00303178 0.00000000
0.52501264 0.16276063 0.00156465 0.00000000
0.05619669 0.51084533 0.00090692 0.00000000
1.66172477 1.30421660 -0.00222582 0.00000000
0.24895592 1.02909392 0.00180507 0.00000000
0.67116418 0.94456851 -0.00411642 0.00000000
1.24133380 1.53423115 -0.00012902 0.00000000
2.57580071 0.07823304 0.00264348 0.00000000
0.13800371 1.47439862 -0.00122981 0.00000000
2.99362967 0.02622182 0.00015446 0.00000000
1.36149135 1.15318545 -0.00340134 0.00000000
2.69259304 0.94670182 -0.00084741 0.00000000
1.88158760 0.09399772 0.00337728 0.00000000
3.05733219 0.73958043 0.00029331 0.00000000
2.54453118 0.03949126 0.00249371 0.00000000
0.04963962 0.63696460 0.00195201 0.00000000
3.91063746 0.67744417 0.00149515 0.00000000
1.28350994 1.30507925 -0.00172936 0.00000000
3.16528779 1.35611067 0.00018938 0.00000000
2.79513630 1.19351303 -0.00019543 0.00000000
2.05487876 0.26052199 0.00771040 0.00000000
3.02030464 0.27875507 0.00190926 0.00000000
4.05688208 0.01061172 -0.00007483 0.00000000
0.65089141 1.53020511 0.00069350 0.00000000
1.88633667 1.28213298 -0.00338392 0.00000000
2.91155152 0.85678592 -0.00283505 0.00000000
3.56443630 1.21491324 -0.00155452 0.00000000
2.93252680 1.26590336 0.00183254 0.00000000
3.42869393 1.26222310 0.00200856 0.00000000
0.44232551 0.62971128 0.00393519 0.00000000
2.99656357 0.00076020 -0.00779218 0.00000000
3.56129111 0.51925918 -0.00000082 0.00000000
2.77901101 0.70839758 0.00347857 0.00000000
2.16181700 0.58159803 0.00121846 0.00000000
4.14333287 1.33637331 0.00005289 0.00000000
1.29712068 0.51510295 0.00439857 0.00000000
1.05210734 0.17339231 0.00315953 0.00000000
2.13595220 1.41488559 0.00199586 0.00000000
2.59529084 1.57718669 -0.00011770 0.00000000
0.82529188 1.06169592 0.00633706 0.00000000
0.45385097 0.12401009 0.00094238 0.00000000
1.85696832 1.09020322 -0.00396957 0.00000000
2.80428346 1.10431806 0.00018460 0.00000000
0.93416413 0.64000258 0.00261543 0.00000000
0.63600190 0.56510599 0.00206472 0.00000000
1.62212405 0.19672139 0.00306020 0.00000000
0.79739637 1.48278416 0.00476652 0.00000000
0.73918216 1.24094487 -0.00256613 0.00000000
4.04965922 0.16240060 0.00575348 0.00000000
2.85333138 0.15626302 0.00259314 0.00000000
0.21190140 0.27712904 -0.00118300 0.00000000
2.40485522 0.01622902 0.00241121 0.00000000
0.15452911 1.16183299 -0.00071151 0.00000000
0.19599067 0.93528524 0.00151737 0.00000000
0.60114106 0.01505614 -0.00116705 0.00000000
3.70616034 0.74982854 -0.00022477 0.00000000
1.77375595 1.40981240 0.00362861 0.00000000
1.19548725 0.26688251 0.00321137 0.00000000
2.77493192 0.21838253 0.00152118 0.00000000
3.57549208 0.32828228 0.00281918 0.00000000
0.05311382 1.31930420 -0.00173635 0.00000000
1.36493625 0.08321751 -0.00073456 0.00000000
2.79804855 0.03420614 -0.00471267 0.00000000
0.47481665 0.28767592 0.00189699 0.00000000
3.69254129 0.36467387 0.00015314 0.00000000
1.50746015 0.64965091 -0.00123992 0.00000000
0.21187025 1.26818556 0.00082234 0.00000000
3.17646271 0.02688015 0.00160498 0.00000000
0.79750647 0.96275633 -0.00490154 0.00000000
1.91836143 0.35420015 0.00163831 0.00000000
3.66536433 0.22392593 0.00557503 0.00000000
2.94005650 1.06646152 -0.00227287 0.00000000
1.09742145 0.08840930 0.00214835 0.00000000
2.33094766 0.62441374 0.00064970 0.00000000
1.48936599 0.18681785 -0.00455909 0.00000000
0.85133866 0.83268173 -0.00136982 0.00000000
3.80958301 0.79169749 -0.00291642 0.00000000
0.99089374 1.03824872 -0.00099743 0.00000000
1.47354367 1.16602795 0.00232181 0.00000000
0.41252299 1.12211774 0.00302418 0.00000000
2.34975008 0.90037412 -0.00165089 0.00000000
2.31264196 1.05695938 -0.00106389 0.00000000
4.09962119 0.06261753 0.00115734 0.00000000
3.43970765 0.71273680 -0.00003824 0.00000000
0.52486383 1.52192558 0.00061919 0.00000000
1.79851889 1.18400884 -0.00229530 0.00000000
0.88629900 1.06494175 -0.00305811 0.00000000
3.23585098 0.06674433 -0.00035303 0.00000000
1.99170056 0.57538371 0.00276801 0.00000000
1.18410664 0.04288375 -0.00047371 0.00000000
2.49759413 1.20358871 -0.00063236 0.00000000
0.37371033 0.43694033 0.00177373 0.00000000
1.21374223 1.35972836 0.00204304 0.00000000
1.62659026 0.34023597 0.00001802 0.00000000
0.44920217 0.02080011 0.00002546 0.00000000
2.56392826 1.32009690 0.00202240 0.00000000
0.05307591 0.94794797 -0.00151225 0.00000000
0.53063034 0.11637509 0.00429901 0.00000000
0.89231085 0.77016057 -0.00422899 0.00000000
3.16595333 0.43023284 -0.00013698 0.00000000
2.62807766 0.74043153 0.00286315 0.00000000
2.38353559 1.02648056 -0.00231619 0.00000000
1.65971097 0.77498986 0.00115082 0.00000000
1.43470902 0.29209353 -0.00250456 0.00000000
2.69793196 0.36312061 0.00193332 0.00000000
2.97755960 0.11769704 0.00048312 0.00000000
2.77265737 1.53776809 -0.00087110 0.00000000
3.99128902 1.47258683 0.00030790 0.00000000
3.18708389 1.45692290 -0.00279519 0.00000000
0.77862918 1.16278233 0.00311642 0.00000000
0.46667857 1.19121748 -0.00171172 0.00000000
2.34306908 0.63854764 0.00057546 0.00000000
3.07458042 0.56294271 0.00727781 0.00000000
2.47159200 1.50345546 0.00152895 0.00000000
1.21742736 0.60014059 -0.00232608 0.00000000
2.04309915 0.41805543 0.00102796 0.00000000
1.58686298 0.53393442 0.00043019 0.00000000
0.22049947 0.94821661 -0.00357727 0.00000000
2.17980232 0.32544723 0.00343405 0.00000000
2.45378806 0.57180779 -0.00250425 0.00000000
3.99188628 1.41358219 0.00233953 0.00000000
4.06267433 0.67020333 -0.00150726 0.00000000
0.13054248 1.42526112 0.00284255 0.00000000
0.62544511 0.54627612 -0.00092279 0.00000000
2.46034134 0.95765718 0.00194986 0.00000000
2.99213849 0.61640864 0.00233964 0.00000000
0.22896020 1.29409566 0.00338563 0.00000000
0.34246061 0.14888082 0.00461187 0.00000000
3.94676206 1.25289530 0.00227455 0.00000000
2.20261549 1.29971626 0.00331698 0.00000000
1.28081585 1.54283743 0.00134702 0.00000000
2.12808128 1.46173638 0.00224695 0.00000000
2.38516871 0.59205995 0.00036171 0.00000000
3.03709351 1.36726486 0.00116457 0.00000000
0.96164686 0.17456348 0.00174136 0.00000000
2.87626928 1.53693565 0.00130381 0.00000000
2.75146093 0.90725579 0.00040355 0.00000000
0.67810614 1.32895211 -0.00217745 0.00000000
0.87907508 1.32304534 -0.00009273 0.00000000
1.39991006 0.02914753 -0.00140285 0.00000000
3.13591476 0.46733274 -0.00348021 0.00000000
3.38954988 0.79611920 -0.00290984 0.00000000
0.90269124 0.97084672 0.00094915 0.00000000
2.66304504 1.53236328 0.00077613 0.00000000
2.42753510 0.03486164 -0.00190435 0.00000000
2.49925469 1.05816847 0.00115786 0.00000000
2.59880701 1.07370812 -0.00641477 0.00000000
0.31455312 0.21739175 -0.00160449 0.00000000
2.38734090 1.06212480 -0.00110000 0.00000000
0.66439079 0.59308052 0.00005466 0.00000000
3.18927082 0.93726015 -0.00126543 0.00000000
1.22964755 0.04424824 -0.00084259 0.00000000
3.61500671 0.09575038 0.00205542 0.00000000
3.08987446 0.31864122 -0.00105713 0.00000000
0.29422675 1.11638849 0.00035009 0.00000000
1.30583931 1.09077339 -0.00070236 0.00000000
2.94717048 0.06242435 -0.00295979 0.00000000
1.06111358 0.26800802 -0.00054123 0.00000000
0.62949206 0.52659053 0.00199903 0.00000000
1.04131794 0.87652368 0.00659850 0.00000000
2.10725581 1.21245809 -0.00334148 0.00000000
2.20591375 0.98547580 0.00307196 0.00000000
0.08414992 1.04024342 -0.00289801 0.00000000
1.57212414 1.37013244 0.00087973 0.00000000
1.31045259 0.96136367 -0.00064544 0.00000000
0.50356633 0.38372106 0.00243000 0.00000000
1.05989306 0.26128594 0.00060107 0.00000000
3.07192232 0.79058865 0.00190643 0.00000000
3.54504033 0.51710426 0.00009447 0.00000000
1.66427170 1.25685034 -0.00104826 0.00000000
1.83754198 0.51858231 -0.00098604 0.00000000
1.32359321 0.35641712 -0.00331427 0.00000000
1.14406017 0.86762722 0.00120482 0.00000000
1.86541399 0.46348263 0.00001487 0.00000000
2.62143691 0.96598433 -0.00150298 0.00000000
2.28611098 0.97900983 0.00101087 0.00000000
4.09533377 0.25100962 0.00191095 0.00000000
1.74792797 1.19188638 0.00129023 0.00000000
4.00971167 1.08875203 0.00175764 0.00000000
4.13478317 0.82125534 0.00041784 0.00000000
0.48733720 0.34462797 -0.00304977 0.00000000
2.61692447 1.14805495 0.00290671 0.00000000
1.24568268 0.71268703 0.00058077 0.00000000
2.01386294 0.77950239 0.00477381 0.00000000
0.35492105 1.54279541 0.00054968 0.00000000
0.00430719 1.13187134 -0.00096429 0.00000000
2.41717110 1.40567536 -0.00035636 0.00000000
0.43068084 0.13139391 0.00232469 0.00000000
3.41385827 0.08223921 -0.00205159 0.00000000
1.38643120 0.65374924 0.00160368 0.00000000
1.82149229 0.66843771 0.00139819 0.00000000
2.89755022 0.50792489 -0.00221876 0.00000000
1.62528003 0.29977724 0.00057506 0.00000000
2.68480388 1.27593624 0.00094485 0.00000000
0.68593676 1.51549237 -0.00024732 0.00000000
2.86337661 0.58593471 0.00052252 0.00000000
0.11668234 1.27469966 0.00334818 0.00000000
2.95028019 1.51259104 0.00084389 0.00000000
0.42912477 0.39752025 0.00334329 0.00000000
0.43090993 0.09003298 -0.00086829 0.00000000
2.73343291 0.41037651 0.00154926 0.00000000
0.59619527 1.30125843 -0.00346282 0.00000000
2.40009394 0.12349456 -0.00297951 0.00000000
1.61598779 0.19634224 0.00129867 0.00000000
2.30022416 1.55163435 0.00065649 0.00000000
3.22591526 0.80196383 0.00035095 0.00000000
0.32883800 0.17868232 0.00074001 0.00000000
3.78964459 1.57311394 0.00022205 0.00000000
2.15509958 0.13536631 0.00054391 0.00000000
3.93416270 1.31376565 0.00027278 0.00000000
2.38155452 0.99384237 0.00298926 0.00000000
1.49728029 0.70589614 0.00005316 0.00000000
3.16765073 0.56626849 0.00013068 0.00000000
0.80776319 1.16972149 -0.00261741 0.00000000
3.22137268 0.28646295 -0.00250143 0.00000000
0.83776440 0.89018179 0.00055524 0.00000000
1.98243722 0.01626316 0.00238606 0.00000000
2.63071603 0.24906220 0.00165249 0.00000000
3.50806943 1.57775305 0.00041479 0.00000000
0.46859382 0.05495019 0.00064838 0.00000000
2.60695105 0.20910662 0.00194191 0.00000000
1.32702185 0.83774769 -0.00073778 0.00000000
3.05431476 0.43118738 0.00079443 0.00000000
3.87041803 1.20100889 -0.00280142 0.00000000
2.01996530 0.68764429 -0.00288657 0.00000000
3.67273324 0.25565145 0.00005803 0.00000000
4.00920541 1.51616935 -0.00187118 0.00000000
1.20845053 1.04389471 0.00226755 0.00000000
2.39802306 1.29785672 -0.00440561 0.00000000
2.89659807 1.22759769 -0.00283763 0.00000000
1.26604121 0.58988084 0.00364580 0.00000000
1.69768275 0.47663740 -0.00299224 0.00000000
1.98484349 0.60991205 0.00297561 0.00000000
1.67364775 0.50263358 -0.00102478 0.00000000
0.31349955 0.93223343 -0.00302957 0.00000000
0.85078641 0.78532668 -0.00431452 0.00000000
4.14577612 1.54121130 0.00169369 0.00000000
3.24297915 0.23245531 0.00131108 0.00000000
3.53745614 1.50533060 0.00116174 0.00000000
1.90515882 1.42925193 -0.00003191 0.00000000
0.83850051 0.61989608 -0.00248309 0.00000000
1.55527279 1.14695151 0.00213526 0.00000000
2.73936232 0.42439118 -0.00201311 0.00000000
1.97342509 0.75851640 -0.00200766 0.00000000
1.44834043 1.12698623 -0.00228102 0.00000000
1.62310039 0.81479863 0.00080918 0.00000000
3.01606736 1.36841866 -0.00098646 0.00000000
3.45956930 0.71442634 -0.00141441 0.00000000
0.09957564 0.33234907 -0.00402985 0.00000000
1.05894214 0.49635610 -0.00080660 0.00000000
1.26825772 1.42488599 -0.00264721 0.00000000
3.51296145 0.65331742 0.00046556 0.00000000
4.05372321 1.37827535 0.00392511 0.00000000
3.93406309 0.88283296 0.00136793 0.00000000
3.89397412 1.38498243 0.00310968 0.00000000
0.46853417 0.76861015 0.00115787 0.00000000
1.37655740 0.05690532 0.00073724 0.00000000
3.21371155 1.47463986 -0.00105241 0.00000000
0.24299960 1.23613297 0.00023465 0.00000000
4.09075132 1.40370454 0.00011188 0.00000000
0.88069497 1.44571099 -0.00316067 0.00000000
2.93954953 0.84410497 0.00451889 0.00000000
4.08782625 0.58860506 0.00159278 0.00000000
1.56347280 0.03443450 -0.00063340 0.00000000
3.63984812 1.51262634 0.00001560 0.00000000
1.05490952 1.54783466 0.00083195 0.00000000
0.10297930 0.22814118 -0.00048394 0.00000000
4.03795791 0.17018502 0.00370465 0.00000000
4.09989086 0.98948885 0.00375091 0.00000000
3.03533520 0.68043929 -0.00073743 0.00000000
3.45246495 0.69561466 -0.00181460 0.00000000
3.11464828 0.74363520 -0.00027406 0.00000000
0.79078665 0.89242408 -0.00449055 0.00000000
0.10187868 0.41251837 -0.00527041 0.00000000
0.79539180 0.40301219 -0.00144696 0.00000000
1.23434732 0.49957097 -0.00424906 0.00000000
0.13541659 0.71226547 0.00096200 0.00000000
3.02424319 1.36256183 -0.00048604 0.00000000
1.81304526 1.36900428 0.00457478 0.00000000
3.35945820 0.96761479 0.00270550 0.00000000
1.68614367 0.23119227 0.00005753 0.00000000
2.23230196 1.06654395 -0.00051116 0.00000000
3.81075161 1.43712457 0.00044293 0.00000000
2.72753747 1.36235099 0.00146985 0.00000000
2.10473425 0.42181027 -0.00052926 0.00000000
3.53488389 0.67473256 -0.00029161 0.00000000
0.51506192 1.51687884 -0.00358171 0.00000000
1.34837573 0.15184078 -0.00316641 0.00000000
2.50298173 0.03139475 0.00084574 0.00000000
3.63004595 0.18360238 0.00334783 0.00000000
1.43321789 0.85258946 -0.00226738 0.00000000
0.40124686 0.54664147 -0.00167550 0.00000000
0.73381165 1.11826268 0.00102351 0.00000000
1.32711526 0.28051661 -0.00107518 0.00000000
1.81657797 1.13708638 0.00323958 0.00000000
1.43597020 0.92190948 0.00396243 0.00000000
4.03384041 1.24054326 -0.00388382 0.00000000
3.14174153 1.16344849 0.00262009 0.00000000
1.56212318 1.08838044 -0.00049902 0.00000000
0.16794386 0.07658577 0.00092067 0.00000000
1.03313910 1.26021789 0.00295360 0.00000000
2.81540439 1.02547535 -0.00258788 0.00000000
2.25146945 1.37241893 -0.00529620 0.00000000
3.45796885 0.11000049 -0.00366466 0.00000000
0.61400037 1.12354889 0.00227409 0.00000000
1.97374230 0.12889962 0.00664610 0.00000000
3.86874080 0.43576402 0.00086955 0.00000000
3.30521977 1.05313626 0.00098110 0.00000000
0.68155365 0.99618274 -0.00244272 0.00000000
1.31335316 1.33835932 0.00033828 0.00000000
1.09966428 0.08407448 0.00185290 0.00000000
1.89022217 0.27819019 -0.00065389 0.00000000
2.64764609 1.25766855 -0.00401290 0.00000000
1.36773853 1.27938480 -0.00140520 0.00000000
0.63412116 0.95277167 0.00347905 0.00000000
0.35958494 0.02753481 0.00086704 0.00000000
1.95040301 1.06327786 -0.00144843 0.00000000
1.03537418 0.36587300 -0.00342120 0.00000000
3.23462677 0.94950640 -0.00007551 0.00000000
2.03532353 0.79571640 -0.00057719 0.00000000
0.99068578 0.10911457 -0.00031811 0.00000000
0.17619979 1.50445359 -0.00103531 0.00000000
0.92488560 1.29322213 -0.00291569 0.00000000
2.12555762 0.54488953 0.00168190 0.00000000
0.73366066 0.01084297 -0.00657327 0.00000000
3.71758222 0.26272133 -0.00375267 0.00000000
3.33406410 0.83911842 -0.00233211 0.00000000
2.12886781 0.68766856 -0.00046068 0.00000000
2.40210317 0.61549351 -0.00133751 0.00000000
2.93898128 1.39465836 -0.00186277 0.00000000
0.00746924 0.10444171 -0.00161659 0.00000000
0.52140200 1.43534694 0.00652989 0.00000000
1.93814169 0.40676838 0.00145574 0.00000000
1.92094718 1.43696191 -0.00365063 0.00000000
2.66937984 0.35324977 0.00235895 0.00000000
0.99300605 1.03520593 -0.00230876 0.00000000
2.18545282 1.24212263 0.00158365 0.00000000
1.41314191 0.66323961 0.00429130 0.00000000
1.18018227 1.54472848 -0.00009946 0.00000000
1.74581647 0.00108206 -0.00089170 0.00000000
0.01186929 0.77001604 0.00570440 0.00000000
1.36018961 1.50148044 -0.00077662 0.00000000
1.52616522 1.38903575 0.00155494 0.00000000
1.62960626 1.41790446 0.00114170 0.00000000
0.63994177 0.40093432 0.00111804 0.00000000
3.44307220 0.81219976 -0.00062967 0.00000000
0.24280075 1.08081832 -0.00472316 0.00000000
0.62357729 1.09453122 -0.00349417 0.00000000
0.49133682 0.55580251 -0.00223544 0.00000000
1.78535336 1.12795760 0.00132848 0.00000000
0.92449234 0.21121659 0.00453060 0.00000000
1.75988650 0.85658026 0.00181924 0.00000000
0.78466315 0.11623078 -0.00183148 0.00000000
1.18260591 0.30213085 -0.00054049 0.00000000
4.07239694 0.55226444 -0.00199688 0.00000000
3.76056544 1.35447539 -0.00114490 0.00000000
3.17914714 0.26865840 0.00218444 0.00000000
0.05416815 0.78337166 0.00202979 0.00000000
3.40776071 1.47938893 -0.00730735 0.00000000
4.12460156 0.94213605 -0.00108175 0.00000000
3.60847110 0.36578563 0.00288789 0.00000000
0.42922009 1.08621075 -0.00220917 0.00000000
2.15385584 0.80671976 0.00300518 0.00000000
0.13406878 0.59841647 0.00154651 0.00000000
3.91425547 1.46741250 -0.00075214 0.00000000
1.19473764 1.24887182 -0.00433730 0.00000000
1.78048752 0.21281619 -0.00251006 0.00000000
1.35740826 0.97196570 -0.00159370 0.00000000
2.87792406 0.59450155 -0.00421883 0.00000000
2.24094608 0.54015843 -0.00154295 0.00000000
1.50822201 0.87275869 -0.00329771 0.00000000
3.68803741 0.44201330 -0.00114923 0.00000000
1.36275243 1.02385154 -0.00280031 0.00000000
2.51345662 0.67664291 0.00352889 0.00000000
0.92146548 1.10224287 -0.00433273 0.00000000
4.13282206 1.29872796 -0.00047351 0.00000000
3.97397714 0.10212576 -0.00868129 0.00000000
2.60886938 0.19299227 0.00125283 0.00000000
3.81226569 0.93722707 0.00166817 0.00000000
2.85015604 0.29700939 0.00500865 0.00000000
2.01083740 1.53640430 0.00486388 0.00000000
0.56675626 0.71277754 -0.00436113 0.00000000
1.76170221 0.97565233 -0.00283085 0.00000000
2.22025999 1.32986565 0.00007056 0.00000000
1.51504931 1.33070749 -0.00134928 0.00000000
1.23177447 0.30611349 -0.00209874 0.00000000
0.62354296 0.92952064 0.00083070 0.00000000
1.52779023 1.35890562 -0.00040861 0.00000000
4.05958899 1.46303007 0.00169499 0.00000000
2.76523282 0.51310072 -0.00213072 0.00000000
2.54776330 0.28490670 -0.00232561 0.00000000
2.97787616 0.09826247 -0.00110419 0.00000000
0.89471792 0.52150859 0.00204494 0.00000000
0.00851547 0.59241315 0.00110725 0.00000000
0.75435661 1.55909853 0.00143440 0.00000000
2.92683248 0.16275690 -0.00045103 0.00000000
2.26080303 0.84862696 0.00346878 0.00000000
2.13076850 1.49995740 0.00041923 0.00000000
0.00599755 0.40818282 -0.00180109 0.00000000
0.88623604 1.04495583 0.00091405 0.00000000
1.14580187 0.66139176 -0.00270454 0.00000000
1.50538338 0.16648434 0.00034800 0.00000000
3.50504473 0.10852483 0.00304172 0.00000000
3.45660057 0.95495850 0.00179707 0.00000000
1.39780325 0.08703109 0.00140485 0.00000000
0.28342804 0.60830026 0.00053146 0.00000000
3.74992859 0.02144166 -0.00074047 0.00000000
1.85802390 0.10516136 -0.00409457 0.00000000
1.80202798 1.17498163 0.00021292 0.00000000
2.06160554 0.56173453 0.00247217 0.00000000
1.95011365 1.18246080 0.00266904 0.00000000
1.92189335 1.28596863 0.00402407 0.00000000
0.23864420 1.08335106 -0.00187814 0.00000000
3.34772737 1.39775632 -0.00107764 0.00000000
0.68286066 1.30350145 0.00096585 0.00000000
0.11145926 1.47757556 0.00044472 0.00000000
1.70315817 0.48545293 0.00430070 0.00000000
0.53437443 1.35040412 -0.00117262 0.00000000
2.19807016 1.51100447 -0.00143048 0.00000000
3.35729462 1.40351904 0.00316685 0.00000000
0.59372811 0.73354306 -0.00190598 0.00000000
2.42371274 0.75164095 0.00148176 0.00000000
0.44042251 1.13413299 0.00227419 0.00000000
1.56754453 0.19482802 -0.00198770 0.00000000
0.88267068 0.20007550 0.00398644 0.00000000
2.30057231 0.31456743 0.00066753 0.00000000
2.45413756 0.00886863 0.00198307 0.00000000
3.93504611 0.33781728 0.00124741 0.00000000
0.09023536 0.47732145 -0.00049653 0.00000000
3.69032110 0.12726862 -0.00008171 0.00000000
3.86318756 1.26278666 -0.00215608 0.00000000
3.80234847 0.06624365 -0.00236228 0.00000000
0.65303935 1.03645658 -0.00280597 0.00000000
0.78912197 0.79634203 -0.00082399 0.00000000
1.15988536 1.11137428 0.00149400 0.00000000
0.87325758 1.11426736 -0.00441419 0.00000000
3.86057491 1.18511875 -0.00393426 0.00000000
3.28057445 0.24006853 0.00313305 0.00000000
0.81386872 0.83242721 -0.00106162 0.00000000
2.59196615 1.21295256 -0.00425106 0.00000000
1.41540614 0.56249058 -0.00012104 0.00000000
2.19389094 0.74413358 0.00382141 0.00000000
0.27996680 0.25260882 -0.00414319 0.00000000
3.32797594 0.83634518 0.00247183 0.00000000
0.41571989 0.64553752 -0.00367137 0.00000000
2.29679747 0.10230811 -0.00120022 0.00000000
2.38758613 0.78034344 0.00125155 0.00000000
3.31630102 0.81102267 -0.00189260 0.00000000
0.14018794 1.12919904 -0.00200182 0.00000000
0.77327792 0.81210705 0.00476121 0.00000000
1.64432336 0.29494445 -0.00097013 0.00000000
1.17965651 1.47684596 -0.00126789 0.00000000
3.16377870 0.27218632 -0.00052361 0.00000000
0.08184232 0.30308501 0.00202799 0.00000000
1.61538717 0.15868836 -0.00626856 0.00000000
3.68537063 0.71067977 0.00146112 0.00000000
2.54946706 1.21737609 -0.00130026 0.00000000
0.74495546 1.27104887 -0.00391764 0.00000000
3.72431907 1.02658926 0.00235501 0.00000000
2.55974664 1.47294556 -0.00084463 0.00000000
3.36414726 0.65155364 0.00012217 0.00000000
1.30818205 0.32267183 0.00065242 0.00000000
0.25779538 0.43497980 -0.00099887 0.00000000
2.02935410 0.92206637 0.00138987 0.00000000
1.48069243 1.33878358 -0.00079447 0.00000000
1.49298564 0.55779509 0.00265834 0.00000000
3.05639601 0.10978716 0.00249795 0.00000000
4.00438606 0.12671270 0.00347461 0.00000000
2.93311511 0.65334514 0.00166248 0.00000000
4.11079444 0.10427959 -0.00439638 0.00000000
1.76045708 0.62742634 0.00178365 0.00000000
0.95601735 0.94059085 0.00484874 0.00000000
4.14339198 0.89174549 0.00262256 0.00000000
1.47046212 0.83200893 -0.00490828 0.00000000
2.26652635 0.19239445 0.00071586 0.00000000
2.60971949 1.51903873 -0.00072126 0.00000000
1.77927158 0.02577668 -0.00092970 0.00000000
1.62459859 0.66146993 0.00020546 0.00000000
1.36953952 1.56331468 0.00551559 0.00000000
2.70302334 0.31933220 0.00236599 0.00000000
1.26357612 1.30431577 0.00081166 0.00000000
2.13327536 0.50256414 0.00145045 0.00000000
3.45623537 1.49999741 0.00245262 0.00000000
2.37830433 0.81324640 -0.00431800 0.00000000
0.83145985 0.17080946 0.00522773 0.00000000
3.91706883 1.33180140 -0.00027809 0.00000000
3.98168952 1.39571909 -0.00099026 0.00000000
3.06763188 0.89873662 0.00089298 0.00000000
3.57775846 0.60766924 -0.00118825 0.00000000
2.13750609 0.67690954 0.00001765 0.00000000
0.86536730 0.67415636 -0.00403392 0.00000000
3.43398267 0.82123100 -0.00076565 0.00000000
1.71437377 1.51973334 0.00035400 0.00000000
0.84487999 0.51009656 0.00336255 0.00000000
3.14804953 0.32414125 0.00054714 0.00000000
0.04799180 0.33477882 0.00129808 0.00000000
3.90217388 1.47560965 0.00079259 0.00000000
0.77161505 0.73968107 0.00348187 0.00000000
3.40640582 0.65869354 0.00122316 0.00000000
3.74884458 0.56180619 0.00169063 0.00000000
3.04260623 0.84990903 0.00115115 0.00000000
0.88842726 0.78784345 0.00360811 0.00000000
2.58636336 1.22145958 0.00091246 0.00000000
1.94666504 0.39299161 -0.00161306 0.00000000
3.65902604 0.39679097 -0.00272802 0.00000000
0.18870632 0.05284000 -0.00105421 0.00000000
4.04290471 0.16497611 0.00130603 0.00000000
1.23687576 0.54705290 0.00269435 0.00000000
2.26079472 0.69359677 0.00527711 0.00000000
1.90335079 1.50222822 -0.00098152 0.00000000
2.50176283 1.34464341 0.00128848 0.00000000
0.23579433 0.79740887 -0.00273554 0.00000000
3.84213543 0.98137075 0.00244295 0.00000000
3.76891511 0.95891087 0.00345734 0.00000000
0.44445284 0.88078807 -0.00068796 0.00000000
2.07935474 0.87162527 -0.00060919 0.00000000
1.44859110 0.55861445 0.00529607 0.00000000
4.13227645 1.46111870 -0.00070710 0.00000000
1.08138797 1.45174065 0.00146627 0.00000000
3.57939935 0.40271451 0.00219381 0.00000000
3.26469405 0.60538896 0.00038286 0.00000000
3.99778261 0.56184730 0.00443673 0.00000000
1.33945027 0.19806499 -0.00110816 0.00000000
3.06404830 1.40346752 -0.00129240 0.00000000
3.08997783 0.04779579 0.00014459 0.00000000
0.80926127 1.00280796 -0.00226155 0.00000000
3.83652781 1.10349739 -0.00103373 0.00000000
3.67682653 0.72101991 0.00459347 0.00000000
2.22746001 1.09063622 0.00270944 0.00000000
1.99642515 1.39659705 0.00322520 0.00000000
0.56653649 0.40353034 -0.00288749 0.00000000
0.38171224 1.49359894 -0.00013415 0.00000000
2.54355292 0.50414439 -0.00430892 0.00000000
3.31147510 0.40661860 0.00191077 0.00000000
2.34817885 1.48005532 0.00139101 0.00000000
1.38168492 0.16314955 0.00065584 0.00000000
0.84119877 0.31898556 0.00640244 0.00000000
0.64758242 0.36759376 0.00002685 0.00000000
2.26658367 0.66540883 0.00252120 0.00000000
3.46203564 0.18710017 -0.00061648 0.00000000
0.95904084 0.18657539 -0.00188613 0.00000000
1.76834427 0.88535582 0.00084841 0.00000000
3.93845831 1.25083240 0.00124287 0.00000000
3.83170326 0.21417496 0.00035307 0.00000000
2.73587667 1.32356666 0.00300050 0.00000000
3.50304524 0.23335191 0.00217403 0.00000000
3.72335869 1.33681029 0.00207101 0.00000000
3.28607287 1.21383763 0.00103685 0.00000000
2.42143240 1.35690479 0.00282507 0.00000000
2.43658293 1.39669042 0.00068894 0.00000000
1.81189601 0.05140721 0.00267257 0.00000000
0.57054237 0.93765423 0.00196888 0.00000000
3.30737421 0.73666791 -0.00183560 0.00000000
0.25883640 0.89072954 0.00011798 0.00000000
1.26191903 1.01421931 -0.00395625 0.00000000
0.76272877 0.02456850 -0.00341576 0.00000000
3.29436427 1.33563316 0.00333376 0.00000000
3.10925262 0.50359620 0.00640872 0.00000000
3.13161724 0.84415509 0.00425244 0.00000000
3.76189640 0.65715271 0.00093233 0.00000000
3.11366168 0.99024620 0.00191422 0.00000000
0.42022681 0.39179182 0.00003028 0.00000000
1.49140709 0.62870715 0.00218071 0.00000000
2.71715296 0.73163607 -0.00133007 0.00000000
2.45930723 0.56543537 0.00086483 0.00000000
1.92539833 1.05322499 -0.00229025 0.00000000
0.46621270 1.37410100 -0.00183536 0.00000000
1.35381007 1.54904863 0.00463191 0.00000000
2.60694297 0.28266943 -0.00138313 0.00000000
2.83607296 1.52141487 -0.00159666 0.00000000
3.59985558 1.05688117 -0.00024946 0.00000000
1.60408807 1.16585908 -0.00217805 0.00000000
1.73123398 0.92063879 -0.00129206 0.00000000
0.58787188 0.48670442 -0.00431535 0.00000000
1.35419943 0.10035715 -0.00125649 0.00000000
0.69266708 0.61434815 0.00098809 0.00000000
1.84781885 0.50477368 0.00083579 0.00000000
0.90803115 1.12326001 0.00206607 0.00000000
2.85678773 0.58009300 0.00033944 0.00000000
2.66929543 0.45153682 -0.00289600 0.00000000
0.14764356 0.54044233 0.00388997 0.00000000
0.66023069 1.45158887 0.00076828 0.00000000
3.13919483 0.66013580 -0.00236685 0.00000000
2.47556155 0.19274673 -0.00285542 0.00000000
3.59529198 0.88404608 0.00082232 0.00000000
3.53294980 1.20773678 -0.00453502 0.00000000
2.99960050 1.38535063 -0.00332799 0.00000000
0.75584505 0.58408583 -0.00409225 0.00000000
1.32882041 1.21555900 -0.00102769 0.00000000
2.06505660 0.58110684 -0.00030444 0.00000000
0.80878202 0.05021170 0.00284442 0.00000000
2.03103764 0.49072998 0.00204375 0.00000000
2.71508637 0.09366310 -0.00415775 0.00000000
3.11198984 0.24696722 -0.00364947 0.00000000
2.23126799 0.52067146 0.00300501 0.00000000
0.88710777 0.56138522 -0.00211894 0.00000000
1.88323601 1.02227222 -0.00010203 0.00000000
3.83823019 1.22927442 0.00018777 0.00000000
0.92358403 1.28835155 -0.00035021 0.00000000
3.43321958 0.92380556 -0.00208940 0.00000000
2.64782865 1.37649100 -0.00192192 0.00000000
2.15266438 0.84379513 0.00119358 0.00000000
2.09612568 0.58082650 -0.00178475 0.00000000
2.88898548 1.33565821 -0.00096349 0.00000000
2.66661000 0.86896091 0.00200176 0.00000000
0.52769986 0.23432973 0.00036094 0.00000000
2.20681421 0.58729234 0.00077185 0.00000000
2.05317552 1.48083669 -0.00032400 0.00000000
2.93094279 1.42620564 0.00081797 0.00000000
1.61351757 1.50303844 0.00235821 0.00000000
1.68483503 1.17529083 -0.00131600 0.00000000
1.73243544 0.42455974 -0.00028756 0.00000000
3.92540578 1.55566402 0.00063066 0.00000000
0.93713829 1.26005573 0.00090702 0.00000000
0.73479915 0.71192076 -0.00063293 0.00000000
1.10014020 1.57519163 0.00097007 0.00000000
2.76998990 0.87174136 -0.00127767 0.00000000
0.31128919 1.02271888 -0.00326362 0.00000000
3.50689890 0.90029450 0.00134829 0.00000000
2.48864593 1.27551908 0.00323211 0.00000000
0.94300502 0.92077938 0.00036751 0.00000000
2.74728926 0.55271513 0.00125042 0.00000000
0.74761492 0.95087625 -0.00082039 0.00000000
1.29535165 1.35168587 0.00001385 0.00000000
1.52055511 0.86319562 -0.00010812 0.00000000
0.67577966 1.12866306 -0.00478990 0.00000000
1.82405754 1.31138310 -0.00008225 0.00000000
2.06549114 1.56792908 0.00258995 0.00000000
3.24642566 1.11238642 0.00159773 0.00000000
1.98345744 0.66398814 -0.00391333 0.00000000
1.40296952 0.93955595 0.00325796 0.00000000
1.15390135 0.62528925 0.00425105 0.00000000
1.11175722 1.05944627 -0.00425084 0.00000000
3.13157435 0.31842378 0.00116721 0.00000000
3.93392617 0.93106713 -0.00007519 0.00000000
1.57493870 0.83386654 0.00011820 0.00000000
1.92171115 1.50117012 0.00408939 0.00000000
0.00080239 0.22361906 0.00389573 0.00000000
1.22118216 1.55242341 -0.00301532 0.00000000
0.73039510 0.90005766 -0.00047113 0.00000000
3.87305720 0.51250062 -0.00178145 0.00000000
1.16276583 1.00135017 0.00046135 0.00000000
0.34069917 0.38133699 0.00018315 0.00000000
2.19335678 1.35807580 0.00016835 0.00000000
0.10570717 0.89991302 0.00494892 0.00000000
1.62732010 0.80547354 -0.00054363 0.00000000
1.47090698 1.09045100 0.00184809 0.00000000
1.67703689 1.31018148 0.00224032 0.00000000
0.59770608 1.49412924 -0.00266859 0.00000000
3.70821603 0.99904447 0.00387979 0.00000000
2.56132889 1.06157466 -0.00309622 0.00000000
2.85313244 1.14816330 -0.00114814 0.00000000
1.96126350 1.56272361 -0.00200816 0.00000000
3.95399725 0.70710198 -0.00126196 0.00000000
4.12891890 1.54607299 -0.00066369 0.00000000
