1.252585 1.815270 -0.004810 0.0
4.102905 1.109125 0.001951 0.0
4.014267 0.086101 -0.002398 0.0
0.403710 1.817297 -0.000007 0.0
3.865529 0.943754 -0.005009 0.0
3.048392 1.235028 -0.001132 0.0
3.608435 0.612875 -0.002526 0.0
4.022423 1.208661 0.001840 0.0
2.135649 1.787222 -0.001148 0.0
0.036077 0.494943 0.002626 0.0
0.125223 1.986571 -0.001014 0.0
3.701371 0.973980 0.003841 0.0
1.110832 1.970405 0.000110 0.0
0.763170 0.022590 -0.002549 0.0
0.412532 1.390371 -0.000603 0.0
3.801377 0.563247 -0.000965 0.0
2.638236 1.096987 0.001177 0.0
2.941191 1.071669 -0.000687 0.0
2.348198 0.142243 -0.002521 0.0
4.530050 1.979981 0.000724 0.0
1.826516 0.101840 -0.003292 0.0
0.874580 0.942373 -0.001016 0.0
0.201180 0.176670 -0.000198 0.0
0.684392 0.561176 0.003046 0.0
0.272608 1.387573 -0.001906 0.0
1.996852 0.877085 0.002270 0.0
4.079833 1.896449 -0.001604 0.0
2.181368 0.206686 -0.001138 0.0
0.376791 0.652604 -0.000652 0.0
1.514278 1.584311 0.004002 0.0
3.707447 1.818259 -0.002738 0.0
3.709510 0.964230 -0.002285 0.0
2.270068 0.937259 0.001156 0.0
3.801824 1.200547 0.000795 0.0
4.493959 1.957702 0.004084 0.0
3.253356 1.944934 0.004380 0.0
2.109527 1.994219 0.003299 0.0
1.785326 1.469140 0.002784 0.0
2.431376 1.157010 0.001146 0.0
0.424383 0.152969 0.001649 0.0
3.654426 1.177471 -0.002594 0.0
0.972651 0.900973 -0.001640 0.0
0.336413 1.213824 -0.005215 0.0
0.865005 0.289975 -0.000446 0.0
2.645062 1.792336 -0.001443 0.0
4.192662 1.393979 0.002657 0.0
2.526118 1.589127 0.003475 0.0
2.975835 0.062822 0.002018 0.0
1.531228 1.805476 -0.001686 0.0
0.754504 0.861489 -0.002062 0.0
0.885346 0.291257 0.002313 0.0
0.938593 0.075088 0.005013 0.0
2.124744 1.655737 -0.001542 0.0
3.650424 1.794200 -0.001562 0.0
0.827194 1.798482 0.001496 0.0
3.881181 1.899931 -0.000397 0.0
0.037425 1.769455 0.000246 0.0
3.230681 0.569258 0.001030 0.0
2.529871 1.735855 -0.000404 0.0
3.855227 0.749860 0.002449 0.0
0.243858 1.843298 -0.000450 0.0
0.720560 1.526479 -0.004101 0.0
4.196928 1.125647 -0.000145 0.0
1.903443 0.377541 -0.001463 0.0
1.366934 1.601944 0.000244 0.0
3.466423 0.273863 -0.000238 0.0
3.136014 0.176702 0.002320 0.0
4.244152 0.808920 -0.001860 0.0
1.796802 1.050793 0.001443 0.0
0.519831 1.503424 0.002133 0.0
1.174492 1.917965 -0.001141 0.0
4.227668 1.244695 0.003328 0.0
0.858419 1.757402 0.001261 0.0
2.120047 1.815690 -0.002535 0.0
0.957024 1.851720 0.002560 0.0
3.913337 1.703560 -0.000795 0.0
2.126058 1.230162 -0.001814 0.0
0.834354 1.766195 0.002121 0.0
0.938691 1.431983 0.004201 0.0
0.384630 1.166341 -0.003246 0.0
0.177307 1.091030 -0.003530 0.0
0.777072 1.381108 -0.001278 0.0
1.839536 1.045420 -0.000775 0.0
0.128636 1.790084 0.001889 0.0
1.456110 1.271891 -0.002364 0.0
3.521260 1.971997 0.003087 0.0
3.714246 0.792017 -0.001162 0.0
3.078154 1.005075 -0.001680 0.0
1.208777 1.194175 0.000878 0.0
1.488186 0.854171 0.005598 0.0
1.651990 0.008534 0.001425 0.0
3.049557 1.572869 0.000556 0.0
0.189182 0.643303 0.000307 0.0
3.290069 0.147446 -0.004224 0.0
3.519211 0.487157 0.003228 0.0
3.596535 0.942595 0.000970 0.0
4.205376 1.134796 0.001350 0.0
3.696079 0.980714 -0.005171 0.0
1.995845 1.208418 0.001951 0.0
1.452672 0.398643 0.003419 0.0
0.149604 0.976429 0.002302 0.0
1.741529 0.994777 0.001395 0.0
0.383381 1.902743 -0.001818 0.0
3.038250 1.447003 0.000831 0.0
1.837245 0.431337 -0.002590 0.0
1.534707 0.260567 -0.003707 0.0
0.041189 1.966572 -0.004861 0.0
0.206712 0.511009 0.000930 0.0
1.027239 0.309003 0.002806 0.0
0.140535 1.917105 0.001297 0.0
3.823955 1.385378 -0.001253 0.0
0.178095 1.373015 -0.002861 0.0
1.413694 1.974652 0.003058 0.0
2.492968 1.194866 -0.001358 0.0
2.542572 0.286422 -0.003351 0.0
1.341172 1.938930 0.004066 0.0
0.934669 1.958853 0.000642 0.0
1.626791 1.064713 -0.002036 0.0
1.736929 0.148838 0.000135 0.0
0.608290 1.467848 0.002690 0.0
3.102188 0.889994 -0.002323 0.0
0.552623 0.601940 0.000815 0.0
4.302424 1.303303 -0.000579 0.0
1.867805 0.729330 0.005059 0.0
1.548876 1.175226 -0.000611 0.0
0.414937 0.965797 0.000355 0.0
2.710514 0.740292 -0.001904 0.0
3.880214 1.446961 -0.000084 0.0
2.064307 1.199365 -0.002514 0.0
2.367969 1.879591 -0.001529 0.0
1.462135 1.748348 -0.004474 0.0
4.277234 0.951008 0.000703 0.0
3.070943 1.048521 -0.001484 0.0
0.283096 0.312552 -0.000821 0.0
2.179440 1.168534 0.000255 0.0
2.946998 0.094385 0.000896 0.0
0.327872 0.689437 0.000701 0.0
3.037493 0.329167 -0.002433 0.0
3.197124 1.603145 0.001263 0.0
3.722631 0.164033 -0.001414 0.0
3.557301 1.242541 0.003556 0.0
4.314671 1.459379 0.003428 0.0
3.068941 0.561694 -0.001472 0.0
1.240748 1.315603 -0.000371 0.0
0.023462 1.498178 -0.000999 0.0
1.833844 1.887181 0.001633 0.0
3.536853 1.711041 -0.000390 0.0
3.985165 1.690346 -0.001684 0.0
0.324904 0.719607 0.005551 0.0
1.348686 1.937204 0.001004 0.0
4.295394 0.234467 0.000341 0.0
0.870615 0.765028 0.000862 0.0
0.743900 1.085932 0.002167 0.0
4.343673 0.720198 0.000047 0.0
1.768584 0.456792 -0.005959 0.0
3.287875 0.805075 -0.001872 0.0
0.228674 0.294610 0.001273 0.0
1.432834 1.067170 -0.000855 0.0
0.705169 1.359090 0.001135 0.0
4.479506 0.308229 0.000051 0.0
0.421644 0.331517 -0.001721 0.0
2.639256 0.858227 -0.001629 0.0
2.149935 0.508948 -0.002581 0.0
1.028934 1.163923 0.003338 0.0
3.937718 0.904635 -0.002606 0.0
2.855741 0.138620 0.002164 0.0
3.273238 0.669806 -0.000230 0.0
0.658236 1.966655 -0.005381 0.0
1.718307 0.461480 -0.001859 0.0
3.921902 0.788608 -0.002785 0.0
2.085656 0.718087 -0.004186 0.0
2.220435 0.991301 0.000083 0.0
2.535127 1.062587 -0.000472 0.0
2.895421 0.877043 0.001736 0.0
0.350825 0.816684 0.003513 0.0
0.318757 1.975200 0.000127 0.0
3.730271 1.414280 0.001175 0.0
2.104973 1.904589 -0.005289 0.0
2.714078 0.157757 -0.002195 0.0
4.431688 0.585913 0.000959 0.0
0.026345 0.525385 0.001865 0.0
0.592329 1.634426 -0.004868 0.0
2.813948 1.220413 -0.002868 0.0
1.277849 0.101950 -0.001140 0.0
2.413230 1.610466 0.000059 0.0
3.152125 0.696154 -0.001707 0.0
3.902057 1.799457 -0.001243 0.0
3.111777 0.505307 -0.001155 0.0
4.421077 0.377939 0.000585 0.0
3.739678 1.881741 0.003408 0.0
4.298710 1.966385 -0.000697 0.0
3.082888 0.912555 0.003524 0.0
2.761488 0.596827 0.002561 0.0
2.960365 0.107000 0.001741 0.0
0.177922 0.703300 -0.002069 0.0
2.841965 0.491831 -0.002683 0.0
4.015288 0.978733 0.001586 0.0
2.161151 0.781184 -0.000873 0.0
3.181609 0.644457 -0.002943 0.0
0.857273 0.526752 -0.000312 0.0
1.800674 1.366489 0.000691 0.0
0.372731 1.397091 0.000412 0.0
2.009576 1.689138 0.000512 0.0
2.922742 0.031363 0.001738 0.0
0.487943 0.972382 0.000151 0.0
1.810069 1.388303 0.001074 0.0
3.511354 0.192227 -0.001546 0.0
3.908214 1.794879 0.001742 0.0
2.279593 1.757810 0.000176 0.0
2.768936 1.395167 -0.002953 0.0
1.736195 1.263369 -0.000839 0.0
0.372351 1.422399 0.001612 0.0
0.022461 0.896204 0.001633 0.0
0.372097 1.945619 0.002120 0.0
3.115714 1.709203 -0.001301 0.0
1.380247 0.125501 0.004729 0.0
0.957572 1.239891 0.000857 0.0
0.064391 0.289159 -0.001844 0.0
1.295689 1.622153 -0.003563 0.0
1.876525 0.446708 0.000332 0.0
1.551558 1.851711 -0.001300 0.0
4.354449 0.131244 -0.000242 0.0
2.311465 0.063465 0.002720 0.0
3.968946 0.557871 -0.001451 0.0
1.264349 1.965643 0.003093 0.0
3.453914 0.641213 -0.004573 0.0
2.311106 0.534620 0.002202 0.0
0.408686 1.734284 -0.001231 0.0
2.254701 0.395535 0.000098 0.0
3.207532 0.077940 0.002011 0.0
2.757050 0.253436 -0.001826 0.0
1.404331 0.104553 -0.004054 0.0
2.452966 1.570188 -0.002405 0.0
1.134511 1.748356 0.002391 0.0
4.435416 1.029314 0.001672 0.0
1.817080 1.928154 0.000395 0.0
1.519856 0.413278 0.000842 0.0
3.879403 0.512231 0.001242 0.0
3.580196 1.651460 -0.000546 0.0
2.192080 0.775547 0.000722 0.0
2.864699 0.295101 -0.000234 0.0
1.991594 0.109405 -0.003115 0.0
3.407099 0.964701 -0.000359 0.0
3.302498 0.032179 -0.001739 0.0
2.109640 0.693775 0.000837 0.0
3.797389 0.544111 -0.001463 0.0
1.324768 0.741324 -0.000900 0.0
4.209753 1.254348 0.000523 0.0
4.135113 1.068070 0.003007 0.0
1.114534 1.280250 -0.000495 0.0
3.233985 0.514106 0.001847 0.0
1.747050 1.759842 0.001745 0.0
3.607503 0.417124 0.001174 0.0
2.533237 0.728161 -0.003098 0.0
1.438546 0.886945 -0.001050 0.0
1.731901 1.741430 -0.003569 0.0
3.009364 0.623727 -0.000442 0.0
4.356350 1.262272 0.000161 0.0
4.152710 1.600716 0.000256 0.0
3.863669 1.996665 -0.001272 0.0
3.880624 0.373477 -0.003658 0.0
2.505475 1.677989 0.001494 0.0
1.630831 1.733832 -0.002848 0.0
2.976518 1.012725 0.000084 0.0
3.668395 0.318602 -0.001847 0.0
2.579982 0.886456 -0.000693 0.0
0.950122 0.956115 0.003401 0.0
1.135308 1.595020 0.002432 0.0
1.681563 0.879935 0.004100 0.0
4.493539 1.087792 0.002393 0.0
3.840141 1.982123 0.002278 0.0
0.029087 0.328782 0.001320 0.0
0.834295 1.233160 -0.006028 0.0
3.803721 0.600053 0.000358 0.0
3.121001 0.554116 -0.006145 0.0
1.413555 1.184020 -0.001321 0.0
3.876524 1.252358 0.002304 0.0
3.592382 0.556178 0.002021 0.0
2.780872 0.469416 0.001194 0.0
2.714976 0.437161 -0.000223 0.0
4.076756 1.491997 -0.001713 0.0
3.720043 0.635835 -0.000059 0.0
4.380623 0.785698 -0.002609 0.0
1.841093 1.090784 0.000795 0.0
4.334411 0.572119 -0.000993 0.0
0.753345 0.502243 -0.003687 0.0
3.482532 1.617092 -0.002087 0.0
3.247382 1.454325 -0.001419 0.0
3.069526 0.210723 -0.004213 0.0
2.937479 0.313204 -0.002769 0.0
3.484971 0.719498 0.000666 0.0
2.431998 1.120134 -0.002369 0.0
3.982679 1.568888 0.000391 0.0
0.204752 0.792585 -0.000661 0.0
1.044905 1.182247 -0.001033 0.0
2.980014 0.312650 0.001798 0.0
2.447538 0.545200 -0.001059 0.0
0.875215 0.581057 0.001469 0.0
2.138055 0.955031 0.003825 0.0
1.451408 0.342010 -0.002136 0.0
2.351636 1.208027 -0.001081 0.0
2.221476 1.670703 0.001926 0.0
2.727204 0.616187 -0.005870 0.0
2.734407 1.803327 0.003502 0.0
2.853433 0.378361 0.002844 0.0
1.428508 0.325805 0.003711 0.0
4.393455 1.171843 -0.002838 0.0
0.090790 0.072355 -0.003596 0.0
1.543138 0.339382 -0.002769 0.0
3.291474 0.189217 0.001794 0.0
0.372973 0.752570 0.002930 0.0
1.906482 0.957474 0.000950 0.0
3.801696 0.194279 -0.001274 0.0
4.493768 0.455779 0.001267 0.0
2.344198 0.125289 0.001714 0.0
1.953653 0.836436 -0.002602 0.0
1.555176 0.696676 0.006697 0.0
1.196559 1.015190 -0.001932 0.0
3.616234 0.707198 0.002247 0.0
1.381668 0.898323 -0.002147 0.0
3.732883 0.398043 -0.001528 0.0
2.107464 0.593342 0.000075 0.0
3.910395 1.521797 0.001034 0.0
1.558956 1.509513 -0.002308 0.0
1.835609 0.081167 -0.001963 0.0
1.562870 0.091687 0.001679 0.0
2.627926 1.995573 -0.000581 0.0
2.254668 0.952780 0.002606 0.0
2.249104 1.482891 -0.002161 0.0
1.099384 1.455512 0.002839 0.0
3.822646 0.133873 0.001089 0.0
2.854350 0.219320 0.000398 0.0
1.541535 1.489566 0.002966 0.0
3.736304 0.450336 -0.001995 0.0
2.406936 1.489164 -0.004686 0.0
0.518820 1.933186 0.001080 0.0
0.718391 1.701156 -0.000025 0.0
3.810113 0.274158 -0.003615 0.0
1.988023 1.402521 -0.000643 0.0
0.418785 0.362083 -0.000078 0.0
2.329864 1.328159 0.000584 0.0
3.010625 0.200299 0.000400 0.0
0.783286 0.802402 -0.003481 0.0
1.590647 1.253869 -0.000248 0.0
4.178550 0.220894 -0.003699 0.0
3.243762 0.177996 -0.006590 0.0
3.672825 1.917094 -0.003263 0.0
0.657759 0.033486 -0.001932 0.0
2.723366 1.243724 0.004023 0.0
0.683590 0.418379 -0.001940 0.0
1.801167 0.023607 0.005520 0.0
1.990288 0.960556 0.003261 0.0
0.420544 0.811453 -0.000653 0.0
2.983591 0.328981 -0.000015 0.0
0.630757 1.121133 -0.000697 0.0
3.824439 0.564148 0.000371 0.0
2.067170 1.483825 -0.001577 0.0
3.258902 1.756264 -0.000394 0.0
4.333726 1.530304 0.002742 0.0
4.127690 0.035488 0.000389 0.0
3.193977 0.131098 -0.003318 0.0
0.708313 0.332311 -0.003110 0.0
4.510259 0.246107 -0.001182 0.0
3.546602 1.699447 -0.001866 0.0
3.810881 1.660988 -0.001442 0.0
1.145767 1.188729 0.002921 0.0
2.568339 1.020303 0.002134 0.0
3.273362 0.504710 0.003769 0.0
1.781494 1.680651 0.002001 0.0
1.024501 0.101526 0.001089 0.0
2.778989 0.007545 -0.001959 0.0
0.578867 0.851820 0.002982 0.0
2.148444 0.852844 0.004100 0.0
0.793520 1.640955 0.002906 0.0
1.355670 1.286992 -0.001194 0.0
1.904534 1.761275 -0.003733 0.0
2.346826 0.277159 -0.000451 0.0
1.666216 1.784545 -0.001514 0.0
0.321243 1.946733 0.000902 0.0
0.600908 0.735808 -0.000024 0.0
1.502848 0.059338 -0.000921 0.0
0.251775 0.795139 0.002577 0.0
1.137282 1.461215 0.000019 0.0
2.774057 1.745677 -0.004108 0.0
1.579175 1.851314 -0.000790 0.0
0.401564 0.357418 0.000383 0.0
3.157785 1.772132 -0.001019 0.0
4.315139 1.353728 0.000055 0.0
2.003425 0.812641 -0.002141 0.0
0.172915 0.841098 -0.001906 0.0
2.128048 0.061555 -0.000055 0.0
1.160198 1.154399 0.004179 0.0
0.050874 1.758512 0.001516 0.0
0.046644 0.260412 -0.003028 0.0
3.346131 0.079684 0.001227 0.0
1.968553 1.113236 -0.001449 0.0
3.403626 0.230420 0.006831 0.0
3.708211 0.421720 0.001000 0.0
2.040153 1.459707 0.001407 0.0
1.810298 1.379052 0.001843 0.0
0.904069 0.151591 0.000260 0.0
4.027796 0.346807 0.000460 0.0
1.949146 1.022982 0.002565 0.0
2.708245 0.807762 0.003405 0.0
2.161759 1.587689 -0.002520 0.0
1.402498 0.879662 -0.001928 0.0
0.220840 0.752829 0.005950 0.0
1.784407 1.778524 -0.004510 0.0
0.398774 1.158168 0.001858 0.0
1.477049 1.430897 0.001387 0.0
1.634005 1.093837 -0.004580 0.0
1.653481 1.082521 -0.001560 0.0
0.927473 0.397772 -0.001488 0.0
0.426825 0.811148 -0.004275 0.0
2.041083 0.294342 -0.001421 0.0
2.535374 1.691996 0.007047 0.0
3.142831 1.183520 0.000033 0.0
3.904427 1.176590 0.003524 0.0
0.613424 0.532653 -0.001366 0.0
3.216533 0.476233 -0.001651 0.0
4.238291 1.536449 -0.003074 0.0
0.808426 0.023426 -0.002932 0.0
4.429689 1.160532 0.001684 0.0
1.865631 0.480848 -0.000785 0.0
4.457503 1.071163 -0.001284 0.0
1.150975 0.224018 0.001273 0.0
4.180355 0.050509 -0.002653 0.0
0.742805 1.597794 -0.001028 0.0
1.428388 1.249830 -0.003376 0.0
3.736098 1.939995 -0.001361 0.0
0.575234 1.266477 -0.002550 0.0
3.242597 0.893931 0.004936 0.0
2.231534 1.341111 -0.002530 0.0
3.464102 1.189153 -0.004333 0.0
4.500901 1.064722 0.002518 0.0
4.291846 0.113872 -0.003492 0.0
4.266037 0.240987 0.000409 0.0
1.022438 1.977604 -0.000427 0.0
0.402094 0.514679 0.002277 0.0
2.687673 1.072257 -0.000785 0.0
1.522312 0.231643 -0.001367 0.0
1.254590 1.040117 -0.000628 0.0
3.234746 1.355672 -0.000194 0.0
2.741403 0.011726 -0.000737 0.0
3.115255 0.610313 -0.000948 0.0
0.458233 0.171892 -0.003016 0.0
2.440882 0.665407 0.000341 0.0
1.514777 0.715470 0.002749 0.0
2.604590 1.990392 -0.001125 0.0
1.981900 0.693186 0.002509 0.0
2.244472 0.979642 -0.001971 0.0
0.773190 0.712339 -0.001127 0.0
4.193436 1.502759 -0.005139 0.0
1.034293 0.932681 0.002323 0.0
1.914950 1.227194 -0.001705 0.0
3.098594 1.047454 0.004997 0.0
1.505209 1.365385 0.000705 0.0
1.269096 1.517396 0.000909 0.0
2.413823 1.117285 -0.000797 0.0
1.780853 1.565098 -0.000673 0.0
0.701256 1.427153 -0.001578 0.0
4.424433 1.889815 -0.002185 0.0
0.778597 1.663427 -0.000098 0.0
1.501314 0.642040 -0.003227 0.0
4.197611 0.108505 -0.003138 0.0
1.650452 1.736802 -0.004460 0.0
2.690374 1.446293 -0.003539 0.0
3.074811 0.556414 0.000740 0.0
2.533649 0.289343 -0.002554 0.0
4.305186 0.194655 -0.002726 0.0
0.256542 1.782672 0.002094 0.0
0.574260 1.791928 -0.006126 0.0
1.071340 0.347078 0.001812 0.0
0.483370 0.481798 -0.000737 0.0
2.650505 0.166277 0.000127 0.0
1.300570 1.158535 -0.000096 0.0
3.788941 1.785416 -0.001199 0.0
0.929617 1.842200 -0.000215 0.0
3.234950 0.272505 0.001334 0.0
3.058919 1.906982 0.000193 0.0
2.440343 1.043143 -0.001902 0.0
1.066883 0.986008 0.000430 0.0
0.051737 0.014012 0.003646 0.0
1.654151 0.144211 -0.000739 0.0
3.395772 0.070097 0.006936 0.0
1.500060 0.435944 -0.002766 0.0
0.291885 1.852608 0.000012 0.0
3.067796 1.540570 -0.003240 0.0
2.897888 1.301878 -0.001011 0.0
1.952429 0.639192 0.008325 0.0
4.160159 0.723775 0.000272 0.0
4.120388 1.354421 -0.006570 0.0
3.695608 0.459600 -0.001423 0.0
3.375433 1.988984 0.001847 0.0
2.619081 0.522595 0.001074 0.0
3.884006 0.329825 0.001853 0.0
2.347876 1.677009 -0.001353 0.0
2.055857 0.367786 0.003440 0.0
3.889568 1.671477 -0.000533 0.0
4.042060 0.321230 -0.000254 0.0
3.609480 0.636386 -0.002941 0.0
1.702697 1.634224 -0.001290 0.0
0.296507 0.352188 0.003315 0.0
0.820236 1.114910 0.001562 0.0
2.533107 1.159634 -0.004578 0.0
4.067992 1.923928 0.003303 0.0
0.496028 1.025181 0.001721 0.0
1.293077 1.757466 -0.002993 0.0
0.815698 1.403650 0.001225 0.0
4.287220 1.932470 -0.001715 0.0
0.903340 0.521871 -0.000808 0.0
3.483869 0.584066 0.000510 0.0
2.057958 1.858921 0.002577 0.0
1.583128 0.459914 0.002419 0.0
3.978388 1.159162 0.001970 0.0
2.268110 0.004029 0.001954 0.0
2.766175 0.766262 -0.001599 0.0
2.971533 0.680580 -0.003006 0.0
4.169817 0.509157 0.000999 0.0
4.479654 1.279777 -0.007161 0.0
4.297407 1.908539 -0.000494 0.0
3.457599 1.336990 -0.001129 0.0
4.513945 1.259265 0.000724 0.0
0.977883 1.301922 -0.000468 0.0
1.694491 0.926395 -0.000435 0.0
1.672532 1.352538 0.000932 0.0
2.294738 0.975012 0.002053 0.0
0.449602 1.688212 -0.000046 0.0
3.855090 1.357973 0.005712 0.0
1.664341 1.108588 -0.002216 0.0
3.233468 0.927551 0.000961 0.0
3.294356 0.205376 -0.002841 0.0
2.419831 1.986277 0.001748 0.0
3.113185 0.259907 -0.001231 0.0
3.806770 1.191992 0.000201 0.0
4.098479 0.998501 -0.000557 0.0
1.607956 0.181883 0.001667 0.0
1.810229 1.216972 -0.002588 0.0
4.490626 1.449466 0.003356 0.0
0.331046 1.837245 -0.000243 0.0
1.205240 0.814003 -0.000055 0.0
4.070354 1.691501 -0.001502 0.0
3.233311 0.886483 -0.005094 0.0
2.312691 0.735883 -0.001757 0.0
1.317048 1.789777 0.002573 0.0
3.105974 1.271232 0.001976 0.0
3.272586 1.577786 -0.003714 0.0
2.139448 1.295326 -0.000726 0.0
3.109545 0.578697 -0.000616 0.0
0.088855 0.373480 0.001624 0.0
3.719603 1.161986 -0.000738 0.0
2.364736 1.669017 -0.003566 0.0
0.477720 1.215996 -0.002351 0.0
2.177510 1.381062 -0.001025 0.0
1.461785 0.977091 -0.000580 0.0
3.072194 0.788637 -0.000222 0.0
4.118514 0.729262 0.001154 0.0
1.222175 0.866684 -0.004174 0.0
1.250008 0.716804 0.000891 0.0
3.225947 0.712681 0.000505 0.0
1.536073 0.796954 0.001272 0.0
3.369880 0.150067 0.004345 0.0
0.769849 0.033499 0.003480 0.0
1.102463 0.845155 -0.001420 0.0
2.834191 0.154992 0.003512 0.0
1.163125 0.238415 -0.003961 0.0
2.633467 0.696846 0.003696 0.0
0.319191 0.205604 0.001376 0.0
4.233377 0.111772 -0.000372 0.0
3.533052 0.984987 0.000636 0.0
2.808330 0.417092 -0.002080 0.0
1.598007 0.635416 0.002470 0.0
1.948560 0.289273 -0.003113 0.0
2.505319 0.743479 0.001194 0.0
1.307953 0.940912 0.000549 0.0
1.219910 0.149214 0.003028 0.0
1.068738 1.717482 -0.001798 0.0
1.051787 0.251081 0.001874 0.0
4.192604 0.717356 0.001665 0.0
4.286286 0.834407 -0.000794 0.0
3.588477 1.923170 0.000085 0.0
3.725027 0.327243 0.001034 0.0
2.654160 0.208144 -0.001499 0.0
4.065319 0.195100 -0.001518 0.0
2.887211 1.523483 -0.000838 0.0
2.355152 1.554899 0.001600 0.0
4.109213 1.346911 -0.000207 0.0
0.573918 0.344381 -0.001329 0.0
2.190902 0.311417 0.001507 0.0
3.155630 0.033373 -0.001263 0.0
3.803583 1.369518 -0.001757 0.0
2.540008 1.910482 -0.004111 0.0
1.283493 0.514637 -0.001039 0.0
3.529697 0.284748 0.002554 0.0
3.863048 0.609005 0.003020 0.0
2.342198 1.305517 0.001662 0.0
1.177440 1.002004 0.000823 0.0
4.067360 0.348541 0.005345 0.0
4.522018 1.196837 0.001270 0.0
1.290133 1.164123 -0.000208 0.0
2.993142 0.265003 0.001867 0.0
3.522613 0.510092 -0.002148 0.0
3.151123 1.448247 0.000789 0.0
1.573044 1.400398 -0.002598 0.0
1.103778 0.538111 0.002496 0.0
1.620546 0.151506 0.005775 0.0
0.603386 1.734676 -0.006793 0.0
3.008815 0.218856 0.002808 0.0
2.746708 0.767108 -0.002105 0.0
1.675327 1.658217 -0.001790 0.0
3.118470 0.389419 0.003073 0.0
3.251794 2.001647 0.001300 0.0
2.162370 0.856626 0.001145 0.0
4.232315 1.726550 -0.003681 0.0
1.561392 1.018983 0.001710 0.0
1.999803 0.345443 -0.005006 0.0
2.395029 0.980166 -0.003350 0.0
1.655498 0.626261 -0.002429 0.0
3.498846 1.832768 -0.001154 0.0
1.201665 0.962277 -0.003298 0.0
3.103743 1.400831 0.002663 0.0
2.603568 1.973066 -0.003014 0.0
2.716140 1.771713 0.000719 0.0
4.055973 1.536524 -0.000215 0.0
2.520627 1.449750 0.006314 0.0
0.530455 0.149022 0.001489 0.0
0.024413 0.931027 0.001153 0.0
3.759991 1.825811 0.000071 0.0
3.785401 0.858874 0.002121 0.0
2.915347 0.092117 0.004374 0.0
4.320592 0.780137 -0.001218 0.0
3.802788 0.832102 0.001493 0.0
1.185149 0.402070 -0.002507 0.0
2.416832 1.614032 -0.000271 0.0
1.972355 0.816088 -0.001378 0.0
0.722951 1.451683 0.000020 0.0
3.111605 1.923595 0.000750 0.0
4.092642 1.895671 0.003809 0.0
1.753525 1.995166 0.000399 0.0
3.249419 0.823737 -0.000103 0.0
4.454392 0.739034 0.002665 0.0
1.101151 1.981209 -0.002846 0.0
2.353737 0.680802 0.001207 0.0
2.089753 0.503824 0.002213 0.0
2.966910 1.352486 -0.000455 0.0
0.109813 0.776129 0.003572 0.0
2.767959 0.482784 -0.000633 0.0
0.988557 1.799898 0.000019 0.0
0.201121 1.779347 -0.002136 0.0
1.419020 1.708174 0.001221 0.0
0.307269 0.784012 0.005870 0.0
4.303843 1.700934 0.003668 0.0
2.913601 0.849982 0.002209 0.0
4.175879 0.741492 0.000341 0.0
3.480756 1.996997 -0.003816 0.0
2.863957 0.756626 0.003550 0.0
0.580450 0.116835 -0.000115 0.0
2.173842 0.942037 0.002211 0.0
2.334775 0.399395 0.000332 0.0
0.503846 1.081221 0.000980 0.0
3.614355 0.734567 -0.001271 0.0
2.659962 0.737725 -0.001512 0.0
0.323715 1.298545 0.001778 0.0
0.222570 1.300739 -0.003322 0.0
0.608575 0.123144 0.004602 0.0
0.061462 0.702341 0.000312 0.0
3.913827 1.366435 -0.004116 0.0
2.222045 1.292632 0.002525 0.0
3.442658 0.479519 0.002786 0.0
2.596185 0.449643 -0.001850 0.0
3.928691 0.241947 0.002898 0.0
3.899430 1.788201 -0.006332 0.0
0.801100 1.420844 -0.002182 0.0
0.583124 0.918420 -0.001359 0.0
3.535141 0.500516 -0.001658 0.0
2.769728 1.075054 0.000176 0.0
1.028658 1.289144 0.004945 0.0
0.703224 0.076143 -0.000804 0.0
1.442609 0.486093 -0.000897 0.0
3.365354 1.218618 0.003208 0.0
1.614773 0.080322 0.000861 0.0
2.912609 0.369994 -0.001216 0.0
2.716834 1.066863 -0.003701 0.0
0.387601 1.036028 0.000673 0.0
1.296231 0.545863 0.002549 0.0
3.595581 1.271828 -0.000302 0.0
4.331599 0.057958 -0.001560 0.0
3.793099 1.036916 0.003106 0.0
2.195580 0.519306 -0.001609 0.0
4.473034 1.601939 0.002175 0.0
0.389209 0.066486 0.002338 0.0
0.378031 0.533131 -0.001405 0.0
0.105989 1.522503 0.001251 0.0
0.930859 0.227042 -0.003199 0.0
1.566727 0.443142 -0.002910 0.0
3.413829 0.740189 0.004220 0.0
1.640408 0.628680 0.004465 0.0
2.150880 1.543645 0.001987 0.0
1.902949 1.692481 0.003797 0.0
3.793760 1.075787 0.003301 0.0
2.828133 0.218791 0.005495 0.0
1.554602 1.001516 0.001024 0.0
2.576683 0.372868 0.001086 0.0
1.284309 1.213558 -0.003651 0.0
3.701010 0.617616 0.001729 0.0
0.170304 0.023517 0.000157 0.0
3.904281 0.918452 0.002240 0.0
0.781890 1.211668 0.002522 0.0
3.407788 0.865090 -0.001819 0.0
2.838619 0.609467 0.000744 0.0
2.653570 1.972356 0.002011 0.0
1.465806 0.857120 0.001144 0.0
3.250619 0.833844 -0.003647 0.0
0.034828 1.759159 -0.001763 0.0
1.727530 1.313827 -0.002632 0.0
1.643603 1.045286 -0.001372 0.0
2.328682 0.507158 0.005833 0.0
3.514970 0.489735 0.002017 0.0
2.538268 0.445344 0.005228 0.0
3.665372 1.813717 0.004754 0.0
3.833101 1.116244 0.003058 0.0
3.692189 0.058840 -0.000274 0.0
2.800715 0.408452 0.003610 0.0
2.377275 1.345924 0.001302 0.0
2.539763 1.664954 -0.000692 0.0
1.471772 0.214089 0.001703 0.0
4.362533 1.993960 -0.000568 0.0
3.300578 1.552976 -0.003158 0.0
3.817379 0.406564 0.001608 0.0
0.102196 0.562653 0.002027 0.0
1.931926 1.076732 -0.004167 0.0
1.903407 1.670943 -0.002388 0.0
1.350450 1.744634 -0.001863 0.0
0.265983 1.828088 0.000550 0.0
1.123160 0.076364 0.003928 0.0
2.207334 0.445043 -0.001699 0.0
3.455746 1.123245 -0.001323 0.0
1.155780 1.312559 -0.000925 0.0
0.137136 1.642250 0.001847 0.0
2.169773 1.198150 -0.001993 0.0
4.079463 1.678268 0.002636 0.0
1.302257 1.157597 -0.004900 0.0
0.075707 0.093063 0.003809 0.0
0.204332 0.522692 0.002387 0.0
1.696086 0.610164 -0.003636 0.0
3.687492 0.893346 -0.001413 0.0
1.236883 1.477609 0.001771 0.0
2.261722 0.316053 -0.003514 0.0
1.380083 0.691276 -0.000265 0.0
1.237135 0.819487 -0.001992 0.0
3.908604 0.136531 -0.001376 0.0
3.996450 1.894829 0.001405 0.0
0.168003 0.400549 0.002069 0.0
0.657338 0.100519 -0.000888 0.0
1.912986 0.283702 0.002373 0.0
1.295697 0.843675 -0.001005 0.0
0.561027 1.866574 -0.001975 0.0
1.327158 0.054218 -0.003463 0.0
0.756542 1.424588 -0.001345 0.0
3.607266 1.596881 -0.003790 0.0
4.125653 0.308226 -0.000878 0.0
0.414192 0.401758 0.001183 0.0
1.602356 1.693555 -0.004523 0.0
0.158621 0.007384 -0.003541 0.0
2.649552 0.980702 -0.001177 0.0
0.634262 0.063099 -0.000628 0.0
4.029182 0.677545 0.000764 0.0
2.642020 0.403444 -0.000782 0.0
1.629174 1.457078 0.000117 0.0
1.623620 0.171470 -0.001313 0.0
2.335563 1.477777 -0.001428 0.0
2.682965 1.693091 -0.001450 0.0
4.271797 1.960327 -0.002964 0.0
1.750252 1.169563 0.000003 0.0
3.653947 1.501175 -0.000072 0.0
3.045958 0.304402 0.002328 0.0
1.607627 1.671338 0.003535 0.0
0.956176 0.088091 -0.000476 0.0
1.739897 1.251455 -0.000815 0.0
1.173591 1.290640 -0.001954 0.0
3.253158 1.399873 -0.001150 0.0
2.563128 0.374118 -0.000785 0.0
2.455369 1.253495 0.000773 0.0
3.705858 1.512675 -0.002310 0.0
2.538583 0.006734 -0.002829 0.0
3.211344 1.365085 0.002628 0.0
2.496013 1.151513 0.002610 0.0
2.643401 1.078198 -0.000090 0.0
0.186511 0.070533 -0.002960 0.0
3.331161 1.381796 -0.000903 0.0
1.524814 1.381369 0.000076 0.0
4.190673 0.313860 0.002932 0.0
2.018923 0.390098 -0.003583 0.0
2.497701 1.682149 -0.000810 0.0
0.620964 1.809730 -0.001919 0.0
2.977696 1.380413 -0.003711 0.0
1.641752 0.069388 0.002950 0.0
4.083693 0.251755 0.000601 0.0
3.706323 0.273507 0.002537 0.0
1.155490 0.666264 0.001732 0.0
4.237076 1.093418 0.001382 0.0
0.914838 0.309074 0.001556 0.0
3.990293 1.849937 -0.003109 0.0
3.449104 0.162622 -0.001013 0.0
1.848362 0.776890 0.000072 0.0
3.099302 1.290632 0.003213 0.0
3.852821 0.924934 -0.000337 0.0
1.533518 1.890083 0.004001 0.0
1.196085 1.360398 -0.004753 0.0
0.504772 1.793716 -0.002378 0.0
1.996533 0.335981 0.003980 0.0
3.061819 1.511303 -0.004095 0.0
4.294687 0.263635 0.000693 0.0
2.340589 1.060371 0.003728 0.0
3.601124 0.291423 -0.000789 0.0
3.007116 1.764790 0.001036 0.0
2.071353 0.194916 0.001371 0.0
1.309237 1.067360 -0.002331 0.0
0.557766 0.659962 -0.002996 0.0
2.753325 0.746046 0.000082 0.0
2.361732 0.958145 -0.000186 0.0
3.302431 0.734950 0.000397 0.0
4.354361 1.979186 -0.004735 0.0
3.194852 0.912431 0.001536 0.0
3.930548 0.626986 -0.000734 0.0
1.095808 0.334215 -0.001365 0.0
3.545293 0.643174 -0.001568 0.0
3.333992 1.613612 -0.001688 0.0
0.612990 0.097643 0.001595 0.0
1.352408 0.386665 -0.000933 0.0
0.806654 0.778426 0.001207 0.0
3.122026 1.087319 -0.000473 0.0
0.537461 0.048411 -0.003342 0.0
4.060712 1.066881 0.002587 0.0
1.009801 1.895087 0.001132 0.0
1.625870 0.290537 0.003555 0.0
3.513518 0.133964 -0.001475 0.0
3.974319 1.502204 -0.002876 0.0
4.242134 1.856359 0.002322 0.0
4.055612 1.426090 0.000850 0.0
3.673573 0.058122 0.001561 0.0
1.387441 0.076108 -0.003105 0.0
2.841988 0.994095 -0.002729 0.0
2.915191 0.337770 0.003721 0.0
4.303321 0.251225 -0.000426 0.0
1.259655 0.557719 0.002214 0.0
3.299126 1.198674 0.003358 0.0
1.726245 0.850382 0.002259 0.0
1.477562 1.465875 -0.001596 0.0
4.084775 0.878053 -0.001380 0.0
3.818803 0.123611 0.006930 0.0
1.788203 1.663049 -0.000941 0.0
2.784434 1.243235 -0.004201 0.0
4.159293 0.748999 0.002058 0.0
3.238572 0.357083 -0.000265 0.0
0.939398 0.607155 0.000708 0.0
1.670291 1.900193 0.002841 0.0
0.563462 1.049271 0.003907 0.0
1.227520 1.250037 -0.003060 0.0
1.480984 1.423583 -0.001570 0.0
3.709406 1.865984 -0.008040 0.0
0.236437 1.419758 0.004144 0.0
1.124403 1.750740 -0.005129 0.0
0.000261 1.991784 0.005337 0.0
2.230174 0.748862 -0.000803 0.0
3.720400 0.970803 -0.002738 0.0
1.959925 0.007371 0.002579 0.0
2.575786 1.469488 -0.001510 0.0
1.650140 0.460298 0.000165 0.0
1.049559 0.478837 -0.002360 0.0
1.575098 1.721478 -0.002611 0.0
4.133403 1.470374 -0.001285 0.0
0.959372 0.297990 0.001516 0.0
0.748473 0.190838 0.001417 0.0
0.340611 0.997370 -0.002407 0.0
4.208153 1.506665 -0.001637 0.0
3.418130 0.780481 -0.001811 0.0
0.779388 0.871308 -0.000281 0.0
0.546930 1.376145 -0.002364 0.0
0.137358 0.909404 0.003384 0.0
4.144067 1.749751 -0.003003 0.0
0.999184 1.542968 -0.004983 0.0
2.505331 0.963701 -0.001868 0.0
3.885280 0.503615 0.004328 0.0
3.423213 1.941635 -0.001942 0.0
2.663151 0.226767 -0.000225 0.0
1.362456 0.663303 -0.001921 0.0
4.424873 0.114856 -0.001874 0.0
4.126906 1.425200 0.000035 0.0
1.814619 1.088867 -0.004740 0.0
3.164610 0.295036 0.003146 0.0
0.718825 1.155745 -0.001464 0.0
1.528520 0.000943 -0.001009 0.0
0.416380 0.434249 -0.002487 0.0
2.923465 1.347056 0.004129 0.0
0.237730 1.139830 0.004170 0.0
4.120856 0.817354 -0.000890 0.0
3.673132 0.545992 -0.001180 0.0
1.400114 1.815801 0.001481 0.0
0.822663 0.705654 0.001642 0.0
1.082661 1.724244 -0.002754 0.0
1.890432 0.233648 0.000750 0.0
1.798529 0.712726 -0.001379 0.0
0.692547 0.617766 -0.004019 0.0
2.426635 0.414477 -0.000235 0.0
1.402127 1.664012 -0.003266 0.0
1.434672 0.188959 -0.000276 0.0
0.171083 0.366958 -0.000183 0.0
2.389288 0.059626 -0.001560 0.0
3.784186 1.610037 -0.000172 0.0
2.387204 0.970683 -0.001356 0.0
3.487182 0.483206 0.002800 0.0
3.646607 0.239829 -0.001535 0.0
1.255261 1.386532 -0.003219 0.0
1.687879 1.898984 0.003820 0.0
2.667207 0.188855 -0.002570 0.0
3.066681 1.039183 0.000379 0.0
2.639163 1.845650 0.002393 0.0
3.071141 0.622461 0.001783 0.0
0.629038 0.387941 -0.001158 0.0
4.039650 1.678751 -0.000001 0.0
2.640236 1.260168 0.003490 0.0
4.470408 1.405782 0.000184 0.0
3.906243 0.956178 0.000363 0.0
4.230973 1.484917 0.003200 0.0
1.236607 1.428266 -0.004210 0.0
1.463636 1.451828 0.004092 0.0
3.632099 0.241363 0.000180 0.0
0.943939 0.214614 0.005645 0.0
3.926693 1.039498 0.001731 0.0
3.538809 1.586587 0.000700 0.0
1.136679 0.805304 -0.001038 0.0
3.221873 1.938917 -0.003448 0.0
3.466520 1.829831 0.002573 0.0
2.329845 1.040096 0.001645 0.0
2.375117 0.468400 0.001116 0.0
0.205457 1.234030 0.001084 0.0
2.932969 1.709613 -0.001652 0.0
1.926508 1.885340 0.003737 0.0
3.715433 0.365827 -0.000554 0.0
2.872972 0.732609 0.003049 0.0
3.501354 1.950308 -0.004499 0.0
0.720593 1.515501 0.001060 0.0
0.329201 1.075467 -0.001271 0.0
2.027214 1.915882 -0.004747 0.0
1.968538 0.049937 -0.003882 0.0
2.086685 0.970387 0.004612 0.0
4.161382 1.881237 -0.000780 0.0
2.433373 0.198399 0.003079 0.0
4.149048 0.756167 -0.001725 0.0
4.098771 0.211513 -0.005705 0.0
3.971504 1.724924 -0.002866 0.0
1.068164 0.510993 0.002546 0.0
0.113032 0.631917 0.001350 0.0
3.456874 0.073068 -0.001082 0.0
4.437614 0.735316 0.000968 0.0
2.143007 0.941344 0.001211 0.0
1.858670 0.852228 0.002028 0.0
1.255957 1.386093 -0.000773 0.0
2.958513 1.106010 -0.006729 0.0
0.616460 1.218615 -0.004854 0.0
0.722468 1.633455 0.001151 0.0
1.907666 0.338123 -0.004123 0.0
1.295639 0.601014 0.001457 0.0
2.125721 0.889658 -0.003296 0.0
3.512788 1.752421 0.000783 0.0
4.463469 0.068324 0.003182 0.0
2.925163 1.166328 -0.002407 0.0
2.172980 0.087662 -0.003168 0.0
3.103693 0.341105 -0.000640 0.0
4.411258 0.723916 -0.000862 0.0
4.282937 1.643077 -0.001934 0.0
0.704703 0.277628 0.000370 0.0
0.605107 0.787679 0.000898 0.0
2.823676 1.386058 -0.000651 0.0
0.853085 0.081071 -0.005224 0.0
2.452585 0.073891 0.002066 0.0
1.310076 0.158291 -0.000662 0.0
3.978543 0.870192 -0.006549 0.0
4.107680 0.044917 -0.004594 0.0
1.727528 0.472966 -0.002811 0.0
3.456410 1.381418 0.005430 0.0
2.502952 0.021310 -0.002043 0.0
0.303029 0.729282 -0.001684 0.0
1.737093 0.553736 0.000457 0.0
0.600981 0.444088 0.000882 0.0
1.885707 1.783743 -0.001678 0.0
3.993487 1.599920 -0.003860 0.0
4.455149 0.430325 0.004056 0.0
2.443845 1.663382 0.001886 0.0
3.946436 0.190013 0.004299 0.0
3.492293 1.240102 -0.000116 0.0
0.412231 0.500692 -0.003390 0.0
2.810612 0.014174 0.000422 0.0
3.729930 0.948802 0.000173 0.0
2.322825 0.691117 0.000358 0.0
1.262950 1.203900 0.001643 0.0
2.701504 0.906925 0.000712 0.0
2.140590 1.588562 0.000314 0.0
2.296220 0.419821 0.003995 0.0
1.866939 1.747686 -0.000668 0.0
0.750747 1.585174 0.000166 0.0
2.241347 1.674659 0.003313 0.0
0.584467 0.547028 -0.001173 0.0
0.011829 1.127626 -0.003049 0.0
1.655329 0.853619 0.000053 0.0
0.907161 0.625953 -0.002433 0.0
0.238421 1.708083 -0.001787 0.0
4.499930 1.418757 0.002030 0.0
2.818734 0.087445 0.002792 0.0
3.172617 0.056389 -0.001166 0.0
2.074013 0.926119 0.000676 0.0
1.172106 0.065042 0.000418 0.0
0.936408 0.052002 -0.000168 0.0
2.466614 1.789068 0.000249 0.0
0.295504 1.540478 -0.003379 0.0
2.852727 1.332712 0.003742 0.0
0.432807 1.353165 -0.000385 0.0
1.802906 0.932354 0.005549 0.0
2.049594 1.669446 0.002378 0.0
1.323836 0.649034 -0.003245 0.0
1.401688 1.888908 0.005569 0.0
0.762153 0.251325 0.000900 0.0
1.908934 1.290790 -0.002880 0.0
2.662344 0.753300 -0.004355 0.0
1.425177 0.896054 -0.003365 0.0
1.323031 1.768971 0.000179 0.0
2.020301 0.262112 0.004350 0.0
3.162323 1.214880 0.001516 0.0
1.483724 0.833616 -0.001231 0.0
4.227526 1.487257 0.000143 0.0
0.532568 1.009064 -0.002554 0.0
0.131888 1.328380 -0.000549 0.0
2.918842 1.648243 -0.000894 0.0
0.396776 1.421040 -0.001787 0.0
3.587015 1.473300 0.000800 0.0
2.755743 0.319380 -0.001190 0.0
0.261211 0.329654 0.000148 0.0
0.536166 0.413646 0.002097 0.0
3.020757 0.970456 0.001335 0.0
4.165301 1.918291 -0.003213 0.0
1.404520 0.029687 0.000276 0.0
0.834847 1.423068 0.001259 0.0
3.871951 0.011121 0.000753 0.0
4.221863 1.942003 -0.002651 0.0
1.015057 0.756841 0.001502 0.0
0.074179 1.563820 0.000821 0.0
4.529739 0.766021 0.000660 0.0
0.774347 1.500970 -0.000464 0.0
3.433652 0.699516 0.002693 0.0
3.475593 0.524054 0.003967 0.0
1.971456 1.336823 -0.000220 0.0
1.062947 0.290641 0.001206 0.0
2.869079 1.896202 -0.000767 0.0
2.625950 0.892994 -0.002687 0.0
2.521691 0.226305 -0.003638 0.0
4.305470 0.386687 -0.000278 0.0
0.654816 1.212777 -0.003004 0.0
2.382012 0.448023 -0.001328 0.0
3.070574 1.606968 0.003127 0.0
1.824948 0.644619 -0.001064 0.0
2.479845 0.962399 -0.003868 0.0
1.868610 1.939429 -0.003482 0.0
1.748464 0.269374 0.002778 0.0
0.863423 0.078015 0.004055 0.0
1.278911 0.776911 -0.003081 0.0
1.409593 0.691441 0.000417 0.0
4.500472 1.809856 0.001506 0.0
0.907981 0.212940 0.003554 0.0
1.357381 0.963531 0.001211 0.0
1.106304 1.284911 -0.010087 0.0
3.657001 0.990925 0.000732 0.0
0.196546 1.399919 0.002792 0.0
2.282646 0.548260 -0.001174 0.0
3.750516 0.387101 0.003755 0.0
4.033975 0.018592 0.004894 0.0
2.622062 1.972701 0.001925 0.0
2.135870 0.887713 0.000473 0.0
2.775187 1.746281 0.001090 0.0
0.439720 1.372438 0.000675 0.0
2.195220 1.384182 0.003794 0.0
3.658905 0.116755 -0.000916 0.0
1.153811 1.980973 0.002850 0.0
4.056455 1.056191 0.000765 0.0
0.121789 1.135843 -0.001436 0.0
1.037598 0.836389 -0.004454 0.0
0.832307 0.855269 0.001782 0.0
4.289237 0.056724 -0.002490 0.0
1.741233 0.572891 -0.000024 0.0
2.149483 1.175691 0.002162 0.0
4.458399 1.267867 -0.001876 0.0
3.762808 0.897364 -0.001073 0.0
4.318953 1.137792 -0.003674 0.0
2.536002 2.002918 0.003240 0.0
3.972653 1.416347 -0.002180 0.0
2.543179 1.725831 -0.000858 0.0
0.403946 1.391531 0.001761 0.0
0.760244 1.540147 -0.001847 0.0
4.457139 1.747615 -0.001841 0.0
0.321006 0.272561 0.001348 0.0
4.201208 1.467153 -0.005993 0.0
0.291965 0.034920 0.002109 0.0
0.002152 0.040502 0.000785 0.0
2.225818 0.563111 0.002294 0.0
0.195573 1.245769 0.000263 0.0
2.811193 1.667522 0.002633 0.0
3.464332 0.285670 -0.000224 0.0
2.229422 1.768300 0.000822 0.0
1.701785 0.172653 0.003710 0.0
2.056657 1.373297 0.001394 0.0
0.380907 1.080235 0.001236 0.0
0.270862 1.371489 0.001006 0.0
0.955833 1.697836 -0.001128 0.0
3.501590 0.232860 0.002567 0.0
4.320969 1.462625 -0.002531 0.0
-0.001441 0.269649 0.002938 0.0
3.372818 1.527734 -0.001382 0.0
2.630424 0.583375 0.001727 0.0
2.208855 1.001405 -0.003788 0.0
0.344069 1.754772 0.000865 0.0
2.021271 1.267049 0.001761 0.0
3.849033 1.238688 -0.006454 0.0
1.200987 1.203155 -0.002923 0.0
4.483146 1.578832 -0.004693 0.0
0.140687 0.490157 0.004683 0.0
3.487752 1.971402 0.002239 0.0
2.186505 1.004753 -0.005299 0.0
1.616778 1.264000 -0.002242 0.0
3.349981 1.776385 0.003007 0.0
4.089549 0.754969 -0.001176 0.0
1.366683 1.684713 -0.000067 0.0
0.204639 0.985258 -0.000490 0.0
0.392307 0.104527 0.000469 0.0
4.415364 0.752050 0.005725 0.0
2.544806 1.356806 -0.000976 0.0
0.040802 0.563999 0.004993 0.0
3.214375 0.556415 0.001147 0.0
0.709922 0.067715 0.001834 0.0
2.827852 0.079987 0.001858 0.0
0.009601 1.612651 0.000480 0.0
3.640195 0.506830 0.002749 0.0
2.137841 1.229404 -0.001244 0.0
1.604319 1.957053 0.001553 0.0
2.713753 0.818334 0.002343 0.0
0.210505 0.533063 -0.000296 0.0
0.876326 0.902412 -0.001010 0.0
0.370210 0.138543 0.000171 0.0
2.962258 0.984297 -0.001802 0.0
0.795561 0.110638 0.003604 0.0
1.404596 1.225971 0.001548 0.0
3.779354 1.293366 0.001251 0.0
3.129201 0.218952 0.000363 0.0
1.131552 0.297387 0.004471 0.0
0.063379 1.286940 0.002963 0.0
0.920212 1.295951 -0.003080 0.0
3.656031 1.116664 0.000853 0.0
2.250526 1.981189 0.001850 0.0
3.276815 0.003677 0.000386 0.0
1.291568 0.510415 0.003179 0.0
0.758726 1.223075 0.002555 0.0
0.342604 1.711542 0.001377 0.0
0.141943 0.757186 0.001614 0.0
0.816503 0.790888 0.000938 0.0
3.852461 1.326066 -0.003637 0.0
2.997940 1.057171 0.001803 0.0
2.791927 1.966382 -0.003003 0.0
0.531776 1.289958 0.002194 0.0
1.215496 1.685515 -0.001920 0.0
1.257407 1.862919 0.002887 0.0
3.158986 1.898863 0.000626 0.0
2.631864 1.257087 0.004327 0.0
3.822957 0.088417 0.003914 0.0
0.442911 0.897066 -0.003652 0.0
2.001203 1.129628 0.003048 0.0
4.105783 0.542862 0.000586 0.0
1.686790 0.434684 0.002014 0.0
4.125379 1.193346 -0.000306 0.0
0.242697 0.172780 -0.000502 0.0
3.354762 1.375204 0.001649 0.0
0.618589 0.553161 0.002679 0.0
2.470783 1.266655 -0.000427 0.0
4.434383 1.621867 0.001599 0.0
1.681630 1.577140 0.001669 0.0
0.439059 1.739463 0.002044 0.0
1.295287 0.119432 -0.000301 0.0
2.089865 0.809528 -0.003654 0.0
0.459506 1.266670 -0.002597 0.0
1.402117 0.198404 0.004090 0.0
3.991114 1.845283 0.002091 0.0
2.549134 1.575811 0.000703 0.0
2.126160 1.272697 0.001401 0.0
0.383993 0.507101 0.001573 0.0
4.519213 0.994647 0.000522 0.0
0.678540 1.163989 0.001091 0.0
3.505341 0.587480 -0.003638 0.0
1.172805 0.660813 0.000948 0.0
2.382691 0.711380 0.001758 0.0
4.508800 0.755213 -0.000600 0.0
4.384890 1.983527 -0.002016 0.0
1.099774 1.041375 -0.001496 0.0
2.824368 0.879933 0.002129 0.0
2.942471 0.013213 0.002840 0.0
3.910136 1.078780 -0.001599 0.0
4.274809 1.752585 -0.002662 0.0
2.431198 0.009564 -0.005299 0.0
3.701991 0.753932 0.003956 0.0
4.356187 0.695055 -0.004383 0.0
1.310796 0.761167 -0.000750 0.0
1.795725 1.520382 0.000015 0.0
4.428579 1.038396 -0.000044 0.0
4.047492 0.754354 -0.001742 0.0
2.043674 0.740139 -0.002440 0.0
1.467655 0.925323 -0.001621 0.0
1.358170 1.099128 -0.000548 0.0
1.694520 0.954076 -0.000534 0.0
1.766104 1.740882 0.000586 0.0
3.231867 1.123226 0.002715 0.0
3.709090 0.791130 0.001057 0.0
0.294767 1.182798 -0.000383 0.0
3.962924 0.045072 -0.004031 0.0
3.055350 1.272161 -0.002098 0.0
0.468261 1.789366 0.002221 0.0
3.847878 0.147614 -0.004357 0.0
0.359505 1.008896 0.000488 0.0
3.045391 0.640862 -0.001679 0.0
4.256377 1.939077 -0.001890 0.0
3.192068 1.526121 0.002285 0.0
2.995693 0.061647 0.001593 0.0
3.819911 1.494931 0.001724 0.0
0.106816 2.005902 0.001759 0.0
0.995464 1.249466 0.000321 0.0
0.990149 1.553282 -0.000368 0.0
3.229848 1.550221 0.005084 0.0
0.214342 1.104716 0.002256 0.0
0.740883 1.328729 -0.003583 0.0
1.656425 1.533147 -0.003041 0.0
3.084640 0.642481 0.003623 0.0
1.450754 0.151305 -0.002109 0.0
3.091371 0.883066 0.001216 0.0
4.193833 1.426665 0.002525 0.0
2.650034 1.994408 -0.001159 0.0
1.943638 0.246210 0.001164 0.0
3.860061 0.242642 -0.000750 0.0
3.863149 1.075528 -0.002474 0.0
1.518802 1.577883 0.002098 0.0
2.965191 0.724134 0.001659 0.0
1.724135 1.675914 0.004737 0.0
4.337182 1.592452 -0.001711 0.0
0.093408 0.299147 -0.000471 0.0
3.920694 1.853746 0.000532 0.0
2.515160 1.055097 0.000627 0.0
3.151745 0.020524 0.002499 0.0
3.430149 0.435202 -0.001789 0.0
3.613370 0.672498 0.000130 0.0
1.729858 1.925808 -0.002901 0.0
2.841900 1.064896 -0.000057 0.0
1.493655 0.987822 -0.002704 0.0
4.392694 0.890187 -0.000014 0.0
0.071950 1.805276 0.000599 0.0
4.249620 1.894409 0.007347 0.0
1.105843 0.678600 -0.003879 0.0
1.120589 1.643589 -0.000492 0.0
0.184795 0.990400 0.000722 0.0
2.872123 1.634041 0.001584 0.0
3.474023 0.788882 0.001565 0.0
3.051928 0.467108 -0.000821 0.0
2.369059 0.330397 0.000857 0.0
2.513499 1.100382 -0.002760 0.0
0.790915 0.378991 -0.001991 0.0
3.383546 0.939504 -0.005294 0.0
3.103686 1.929186 -0.001378 0.0
1.116538 0.521878 0.001674 0.0
3.184677 0.089284 0.000013 0.0
1.090470 1.344530 0.001990 0.0
3.593960 0.222741 0.000939 0.0
3.644783 1.173495 0.000937 0.0
3.703005 1.288649 0.000678 0.0
1.275083 0.246479 -0.003179 0.0
1.277734 0.461361 -0.000367 0.0
4.416710 0.992036 -0.000007 0.0
0.040412 0.561464 0.005178 0.0
2.593536 1.425767 -0.001935 0.0
3.458106 0.728031 -0.000646 0.0
2.845314 1.402648 0.002063 0.0
0.859882 0.481911 0.001516 0.0
4.308378 1.291244 -0.000648 0.0
3.065418 1.398395 0.001092 0.0
3.546311 1.746556 0.001480 0.0
0.965388 0.510692 -0.000103 0.0
3.594369 0.474263 0.001260 0.0
1.535684 0.973349 0.001518 0.0
2.408842 1.474915 -0.003391 0.0
1.210334 1.596865 0.001863 0.0
2.854750 0.048572 -0.000027 0.0
3.851095 1.422899 -0.000082 0.0
3.666522 0.094706 0.000532 0.0
2.147670 1.240023 -0.005139 0.0
2.428854 1.767859 -0.000812 0.0
0.872036 0.728414 -0.000779 0.0
4.406782 0.010145 -0.001797 0.0
1.964845 0.229573 0.001983 0.0
3.119423 1.533417 0.001496 0.0
0.330354 0.801842 -0.003209 0.0
1.262807 0.306414 0.001020 0.0
1.491065 0.643079 0.003033 0.0
1.048759 1.414211 0.001161 0.0
1.247395 0.522340 0.000150 0.0
3.067697 0.429340 -0.001043 0.0
2.762400 1.014357 0.004770 0.0
0.825734 1.496530 0.000541 0.0
4.164222 1.586818 0.002862 0.0
3.365319 0.829936 0.000832 0.0
0.862324 1.232964 -0.002416 0.0
1.024900 1.438273 -0.001087 0.0
2.910070 0.761105 -0.000018 0.0
2.148602 0.404906 0.004335 0.0
3.424035 1.175523 0.002655 0.0
3.345618 0.380172 0.000991 0.0
1.232349 1.353300 -0.002472 0.0
0.571777 0.419918 0.000406 0.0
2.115986 1.652050 0.002586 0.0
1.792914 0.676166 0.002351 0.0
2.525218 0.935430 0.000968 0.0
2.758817 1.634993 -0.000067 0.0
3.616398 1.515426 -0.000681 0.0
3.738979 0.291670 -0.004558 0.0
4.441541 0.043310 -0.000436 0.0
4.351031 0.785019 0.004621 0.0
2.677694 0.009977 -0.000582 0.0
4.201663 1.015594 -0.000216 0.0
0.652648 0.044498 0.000232 0.0
2.954502 1.550537 -0.002679 0.0
1.965123 0.897551 0.007062 0.0
0.155504 0.702266 0.000836 0.0
0.616291 1.984248 0.000759 0.0
2.178835 1.902823 0.002556 0.0
3.095241 0.141812 -0.002531 0.0
1.181664 0.308614 -0.004896 0.0
0.950238 1.639890 -0.004998 0.0
3.154874 1.172970 0.000607 0.0
2.931441 0.980202 -0.001486 0.0
4.191226 1.326094 -0.001160 0.0
0.713768 0.250920 0.000070 0.0
3.094438 0.886666 -0.001542 0.0
3.954346 0.048004 0.001429 0.0
4.009177 1.020739 -0.000269 0.0
1.844166 0.905467 -0.001843 0.0
0.055615 1.353447 -0.003051 0.0
1.261833 1.825976 -0.000706 0.0
4.043176 1.296446 0.005083 0.0
0.056420 1.577224 0.004175 0.0
1.055914 1.745983 -0.002806 0.0
0.291137 1.151492 -0.004963 0.0
2.447407 1.564235 -0.001191 0.0
0.753147 0.621384 -0.003646 0.0
2.181901 1.824015 -0.000524 0.0
2.120487 0.307620 -0.004116 0.0
4.464217 1.865688 0.002713 0.0
0.703820 1.597031 0.004297 0.0
1.068616 0.435839 0.005389 0.0
1.998115 0.882978 -0.001107 0.0
2.970339 1.501489 -0.004449 0.0
2.294816 1.878726 0.001249 0.0
2.364308 0.710546 -0.000388 0.0
1.249069 0.515327 0.000178 0.0
2.724382 0.239561 -0.003973 0.0
1.687481 1.630424 0.002462 0.0
0.871706 1.792136 0.002112 0.0
3.199290 1.632978 -0.001700 0.0
0.895672 1.978245 0.003159 0.0
0.932500 0.433194 -0.001406 0.0
1.083145 0.590098 0.000329 0.0
4.096206 0.891460 0.002245 0.0
0.567230 0.719764 -0.000055 0.0
2.378091 1.984056 -0.001522 0.0
2.948689 1.501438 -0.000014 0.0
3.237183 0.903289 -0.001562 0.0
2.830404 0.905914 0.003461 0.0
0.556418 1.735289 0.000624 0.0
4.454187 1.779822 -0.000522 0.0
0.278099 0.137337 0.003753 0.0
3.892380 0.229856 0.005432 0.0
2.678257 1.815794 -0.000713 0.0
2.919110 0.918922 0.003613 0.0
3.186174 1.070568 0.001922 0.0
4.412323 0.969177 -0.000574 0.0
1.844070 0.434629 -0.000518 0.0
2.063169 1.775272 -0.000432 0.0
2.192627 0.947228 -0.001573 0.0
4.081350 1.905859 0.000833 0.0
0.444332 0.741861 0.001096 0.0
2.706140 0.865421 0.001500 0.0
4.245444 1.406052 -0.001818 0.0
3.221454 1.485649 -0.001921 0.0
0.126677 0.367617 0.000861 0.0
1.460140 0.081477 -0.000183 0.0
2.598771 1.674205 0.003774 0.0
2.950087 1.946598 0.000604 0.0
0.365668 0.636766 0.000936 0.0
4.538212 1.903087 0.003314 0.0
0.679726 1.274775 -0.000691 0.0
3.353445 1.484163 0.003092 0.0
2.561911 0.573799 -0.001799 0.0
0.620056 0.811105 -0.000088 0.0
0.295230 1.653024 0.002139 0.0
3.291310 1.738817 -0.000835 0.0
0.060337 0.418227 -0.001248 0.0
4.400570 1.841653 0.000355 0.0
0.588570 0.506190 0.000496 0.0
4.474933 1.929318 0.002476 0.0
1.924153 1.846213 0.000395 0.0
2.717212 1.354223 0.000424 0.0
0.221590 0.547739 -0.004318 0.0
1.757803 0.952028 -0.001290 0.0
1.952934 0.862651 -0.001185 0.0
2.731405 1.680549 -0.000426 0.0
3.321097 0.398847 -0.001661 0.0
3.560630 1.231557 0.003942 0.0
0.510258 1.391835 -0.003014 0.0
3.030515 0.105419 -0.000282 0.0
0.282739 1.171453 0.000001 0.0
3.801945 1.034605 -0.001690 0.0
1.110356 0.014586 -0.000864 0.0
1.534925 1.959842 -0.001662 0.0
1.012640 0.354966 -0.001116 0.0
0.378239 1.930654 -0.005058 0.0
0.594133 1.084369 -0.001154 0.0
0.675684 0.103816 -0.002244 0.0
0.561793 0.797178 0.006311 0.0
0.193716 1.005559 0.000493 0.0
2.423544 0.961264 0.000270 0.0
0.916645 0.090310 -0.000147 0.0
0.872917 1.428798 0.002990 0.0
2.700055 0.847092 -0.003041 0.0
0.232916 0.716518 -0.000218 0.0
4.114247 0.797540 0.004582 0.0
3.553899 0.739873 0.002431 0.0
4.158509 1.117639 -0.004425 0.0
0.252410 1.984008 0.001028 0.0
0.872606 1.798176 -0.001833 0.0
1.789308 0.954431 0.000115 0.0
1.712506 1.155419 -0.001717 0.0
1.344283 1.745414 0.002025 0.0
1.680934 0.058958 -0.002087 0.0
4.101759 0.273353 -0.005340 0.0
1.218986 0.430551 0.001707 0.0
2.351053 0.373866 -0.002203 0.0
3.400326 0.408687 0.001830 0.0
1.166388 1.255964 -0.001649 0.0
0.844487 0.338340 -0.001233 0.0
1.343848 0.333696 -0.002644 0.0
3.461003 1.180643 -0.001365 0.0
4.113485 1.815985 0.002145 0.0
1.736494 0.405281 0.004993 0.0
0.564268 1.120055 0.001613 0.0
2.478263 0.458150 -0.000109 0.0
3.520028 0.345597 -0.003408 0.0
2.561741 1.318293 0.003195 0.0
3.094960 1.306155 0.002980 0.0
0.625823 0.260612 0.002191 0.0
1.324958 0.109846 -0.001688 0.0
3.327243 0.494673 0.009226 0.0
3.738456 1.699729 0.003693 0.0
0.540337 1.967199 -0.000408 0.0
1.234876 0.542219 0.001301 0.0
3.966939 0.657373 -0.001014 0.0
2.132934 1.697143 -0.000252 0.0
0.351636 1.941038 0.001381 0.0
2.109657 0.458358 0.000039 0.0
4.498231 1.529490 0.001525 0.0
1.733931 0.637643 -0.002149 0.0
2.808145 0.599845 -0.000583 0.0
0.714187 1.270034 0.000126 0.0
1.846190 1.215194 0.003381 0.0
3.417052 0.748714 0.001463 0.0
0.826898 0.752942 -0.001143 0.0
2.938155 1.931188 0.003317 0.0
1.620286 0.487327 -0.002169 0.0
1.081565 1.663649 -0.004560 0.0
0.725352 0.775305 0.001356 0.0
1.181454 1.996110 -0.001418 0.0
2.062580 1.669318 -0.001367 0.0
3.015391 0.990326 -0.004615 0.0
4.457104 1.672154 -0.000431 0.0
3.173493 0.847283 0.005966 0.0
3.262352 1.474526 0.000579 0.0
0.248704 0.502665 0.003754 0.0
2.798909 1.961277 -0.000364 0.0
2.191994 1.312873 -0.003680 0.0
0.215847 0.217009 0.002452 0.0
2.850944 0.885151 0.000871 0.0
3.825519 1.324947 -0.000637 0.0
2.577691 0.794479 0.000528 0.0
0.585039 1.139314 -0.001771 0.0
3.516588 0.397881 0.000275 0.0
0.402997 1.001227 0.000569 0.0
4.047348 1.823585 -0.001046 0.0
0.927553 0.304590 -0.001166 0.0
1.006691 1.443174 -0.001058 0.0
0.034760 0.301790 0.001674 0.0
1.301325 0.348790 0.001699 0.0
0.969366 0.481924 -0.000115 0.0
0.192213 1.342752 -0.004252 0.0
1.479868 1.676231 -0.002414 0.0
0.698695 0.999832 -0.005861 0.0
1.911507 1.230178 -0.000621 0.0
1.669037 1.551189 0.001650 0.0
1.901691 0.366189 0.001418 0.0
1.852973 1.203717 0.000806 0.0
3.823978 1.123153 0.001470 0.0
2.008953 1.315550 0.000950 0.0
4.356187 0.666488 -0.002285 0.0
4.222393 1.088253 0.000387 0.0
3.416859 1.711033 -0.002526 0.0
1.771167 0.139999 0.000952 0.0
3.607374 0.561814 0.004241 0.0
4.261725 1.406599 0.001491 0.0
2.878823 0.953477 -0.001376 0.0
0.441864 0.482624 0.001177 0.0
3.047473 1.201398 0.002743 0.0
2.510413 0.279972 -0.003306 0.0
2.504261 1.517810 -0.002166 0.0
4.002050 1.782602 0.002258 0.0
