2.08508464 0.16030077 -0.00166433 0.00000000
0.26886282 0.60216426 -0.00065323 0.00000000
4.34138567 0.96760736 -0.00282190 0.00000000
1.72150998 1.00012786 -0.00447775 0.00000000
3.51026026 0.56419675 -0.00528629 0.00000000
2.68369623 0.59617939 0.00257243 0.00000000
2.37702205 1.35077840 -0.00281887 0.00000000
2.16981914 1.20940364 0.00103347 0.00000000
3.76215192 0.85518743 0.00256588 0.00000000
0.82567224 0.56310391 -0.00404125 0.00000000
0.87331370 0.34962509 -0.00137962 0.00000000
3.40487973 0.80844612 -0.00135543 0.00000000
2.01373141 0.47927038 -0.00038126 0.00000000
0.26565330 1.35947594 -0.00294868 0.00000000
4.04131340 0.91988301 0.00261834 0.00000000
0.43201361 0.70283306 0.00068497 0.00000000
4.43462229 0.85534619 0.00159860 0.00000000
4.18325348 1.31711713 0.00535709 0.00000000
2.61155133 1.13039832 0.00299010 0.00000000
2.34901551 0.99871605 0.00304398 0.00000000
3.85226778 1.24352486 -0.00176133 0.00000000
2.72674268 0.11978733 0.00034538 0.00000000
0.47170142 1.34919737 0.00095789 0.00000000
3.61303106 1.18347378 -0.00034823 0.00000000
1.29181200 0.05993041 0.00359561 0.00000000
1.43338465 1.34895032 0.00005068 0.00000000
2.89503851 0.40402007 0.00006034 0.00000000
2.58519971 0.87069418 0.00213472 0.00000000
0.58661868 0.46220363 -0.00457485 0.00000000
0.57547527 0.64553420 0.00045694 0.00000000
4.03567058 0.36000492 0.00001498 0.00000000
3.18666849 0.38944482 0.00392015 0.00000000
3.10276888 0.07211897 -0.00015270 0.00000000
0.37810927 1.09049392 0.00330421 0.00000000
2.31036796 1.49258984 -0.00227254 0.00000000
3.36487202 0.35509297 0.00092038 0.00000000
2.28289089 0.95936295 -0.00303044 0.00000000
3.64981306 0.35184850 -0.00248073 0.00000000
1.46390481 0.43504222 -0.00135653 0.00000000
0.37065274 0.04623111 0.00198593 0.00000000
3.69933844 0.51030765 -0.00150823 0.00000000
3.37679975 0.71074979 -0.00031903 0.00000000
2.39969761 1.34322150 0.00488300 0.00000000
4.27431583 0.55479237 -0.00109861 0.00000000
2.07641447 0.29892607 -0.00363826 0.00000000
2.08751156 1.16888711 0.00335437 0.00000000
1.21338207 0.65307035 0.00027420 0.00000000
0.08500213 1.12331254 -0.00074264 0.00000000
1.99389536 0.70885037 -0.00254814 0.00000000
0.87628940 0.30759021 -0.00242516 0.00000000
0.08507982 0.08961476 -0.00012407 0.00000000
1.75073752 0.69133479 -0.00125653 0.00000000
0.65713075 1.31237229 -0.00467868 0.00000000
3.64220772 0.23000324 -0.00189696 0.00000000
2.94208463 0.42309600 -0.00000619 0.00000000
2.54518947 1.39934053 -0.00189029 0.00000000
4.06317633 1.13177594 -0.00299543 0.00000000
0.95156105 0.02521858 -0.00374775 0.00000000
4.11088582 0.39206436 0.00208013 0.00000000
3.85523098 0.56986553 0.00208442 0.00000000
3.75929924 1.16574410 0.00093163 0.00000000
2.54351707 1.12122741 -0.00531313 0.00000000
1.05787697 1.50936150 0.00249212 0.00000000
0.55892579 1.27722599 0.00283351 0.00000000
2.34966220 0.42003174 0.00072489 0.00000000
2.91839243 0.95960513 0.00049370 0.00000000
0.10423393 0.75277726 -0.00099190 0.00000000
1.94263967 0.06205862 0.00267251 0.00000000
0.12150843 0.00953730 0.00005678 0.00000000
1.88266849 0.26919854 0.00292211 0.00000000
0.54523982 0.40456669 -0.00043464 0.00000000
2.45475774 0.63309885 -0.00140970 0.00000000
3.01395741 0.71798839 -0.00066462 0.00000000
2.50921374 1.39617128 -0.00039351 0.00000000
4.06048655 0.51633923 0.00187872 0.00000000
3.51311933 0.23563762 -0.00345420 0.00000000
4.50166265 0.40172417 -0.00006765 0.00000000
0.60160692 0.99017568 0.00108078 0.00000000
0.90178874 0.42649632 -0.00189719 0.00000000
2.85850669 0.82467864 -0.00597617 0.00000000
3.00845870 0.73021961 -0.00069218 0.00000000
1.15133302 0.42674137 -0.00587022 0.00000000
0.78948802 0.69189770 0.00307239 0.00000000
3.26763243 1.43779127 -0.00394284 0.00000000
3.77809267 1.45489718 0.00346198 0.00000000
3.70029076 1.30177739 0.00105957 0.00000000
0.10173552 0.58526201 -0.00031977 0.00000000
2.62733028 0.89667955 0.00202881 0.00000000
2.13543065 0.70988256 -0.00251571 0.00000000
0.09333415 0.44686478 0.00020053 0.00000000
0.29171235 0.82962632 -0.00116657 0.00000000
1.96120553 0.47309593 -0.00194724 0.00000000
0.18774450 0.05181459 0.00024987 0.00000000
2.38736609 1.04654788 0.00159934 0.00000000
1.24632806 0.41388547 -0.00391446 0.00000000
3.74456295 0.06642877 0.00192010 0.00000000
1.43711217 1.07996510 0.00157433 0.00000000
1.75313724 1.21743562 0.00348572 0.00000000
0.27656960 0.30312841 -0.00215642 0.00000000
1.39724683 0.19559505 -0.00233042 0.00000000
0.51390191 1.27418801 -0.00475017 0.00000000
4.21103132 1.01807637 0.00145392 0.00000000
2.58628301 1.36344710 0.00172363 0.00000000
1.47665112 0.90309316 -0.00348312 0.00000000
2.29299288 0.06430614 0.00235427 0.00000000
2.53197563 1.31892865 -0.00541463 0.00000000
1.77431682 0.94869230 -0.00120782 0.00000000
0.86076447 0.60617519 0.00140345 0.00000000
1.55904797 0.52071075 0.00233944 0.00000000
2.66624135 0.44030020 0.00288395 0.00000000
0.90147288 0.73055321 0.00054370 0.00000000
3.28514563 1.15134658 0.00259033 0.00000000
3.67020539 0.66621180 0.00067099 0.00000000
1.83920420 0.83874046 -0.00448751 0.00000000
3.29863321 1.48615597 -0.00003271 0.00000000
2.65872962 1.45045962 -0.00115711 0.00000000
3.48586483 1.05620602 -0.00032145 0.00000000
3.11287071 0.67644164 -0.00174618 0.00000000
0.11025453 0.24583542 -0.00209569 0.00000000
2.78605229 0.72424221 0.00146374 0.00000000
1.27113126 1.05326478 -0.00461573 0.00000000
3.30472747 1.17092063 0.00193254 0.00000000
3.22027377 0.24925451 -0.00035277 0.00000000
2.89205406 0.58003062 -0.00031309 0.00000000
3.92043637 0.01775242 -0.00093106 0.00000000
0.65963054 0.40496380 0.00026871 0.00000000
3.67036492 0.74507750 -0.00347616 0.00000000
2.64657902 0.65970718 0.00167043 0.00000000
3.74130406 0.57391643 -0.00101252 0.00000000
3.10597570 0.80952410 -0.00015152 0.00000000
3.60946449 0.25894562 0.00089868 0.00000000
1.48757836 0.94422682 0.00506294 0.00000000
2.93983800 0.47107379 0.00411336 0.00000000
3.32729852 0.99578435 -0.00156791 0.00000000
3.62047867 0.21918358 -0.00060456 0.00000000
2.36680691 0.28852497 0.00306604 0.00000000
2.20360333 0.89284129 -0.00426664 0.00000000
1.45698355 1.30766734 0.00326373 0.00000000
0.58893482 1.23066464 -0.00048802 0.00000000
2.68980973 0.89614757 0.00210992 0.00000000
2.58057092 0.88886615 0.00003418 0.00000000
2.06962714 0.48304595 0.00025912 0.00000000
3.30025427 0.30920217 0.00198224 0.00000000
3.18102504 1.13230513 0.00046756 0.00000000
4.40857872 0.86255472 0.00468113 0.00000000
3.23025152 1.48986156 0.00272513 0.00000000
1.12785782 0.89980868 0.00457092 0.00000000
2.18948760 0.60513878 -0.00562409 0.00000000
1.07786620 1.04953395 -0.00356350 0.00000000
4.08776866 0.11224828 0.00072863 0.00000000
1.20475276 1.15511013 0.00152091 0.00000000
4.33794806 0.70589632 0.00255784 0.00000000
1.86509715 0.21768567 -0.00039490 0.00000000
2.80835182 0.85929136 0.00214897 0.00000000
3.99524197 1.09122010 0.00379908 0.00000000
1.98432709 1.07561985 0.00235776 0.00000000
1.74577533 0.03101166 0.00215017 0.00000000
2.09516561 0.17518795 -0.00180330 0.00000000
2.06649895 1.01865615 0.00227379 0.00000000
0.48207254 1.28597879 -0.00125457 0.00000000
0.63432959 0.98438404 -0.00076717 0.00000000
3.27518190 0.21167811 0.00512303 0.00000000
2.38549235 0.33278066 0.00056461 0.00000000
0.54128321 0.90392789 0.00412355 0.00000000
1.21146116 1.24196207 0.00109263 0.00000000
0.83421211 0.15387871 -0.00374917 0.00000000
0.77879713 1.43730954 -0.00229687 0.00000000
2.00173987 0.72920303 0.00171159 0.00000000
4.03998384 1.32819766 0.00063615 0.00000000
0.67231541 1.01386479 -0.00014874 0.00000000
3.33888483 0.90873010 0.00448362 0.00000000
4.24758233 0.00181639 0.00073738 0.00000000
2.76382778 1.23974817 -0.00225951 0.00000000
3.61487257 0.73153115 -0.00196159 0.00000000
1.94218696 0.20553146 -0.00201755 0.00000000
2.85897912 0.05710448 0.00371849 0.00000000
2.47823386 0.52988194 0.00423839 0.00000000
4.36597211 0.17675793 0.00063094 0.00000000
3.42725522 1.22938678 -0.00044695 0.00000000
1.64764929 0.67862669 0.00162681 0.00000000
3.10795984 1.22654350 -0.00188832 0.00000000
3.78202468 0.03868539 0.00203498 0.00000000
2.66929084 0.23402228 -0.00432580 0.00000000
0.61637518 1.42492044 0.00552171 0.00000000
0.43964218 0.87993921 0.00236102 0.00000000
4.05214425 1.05252857 0.00085955 0.00000000
0.44971448 1.29562051 -0.00288328 0.00000000
3.04868824 0.97401115 0.00177205 0.00000000
0.24512833 0.62419498 0.00166539 0.00000000
0.48658879 1.03039983 0.00036821 0.00000000
1.35112558 0.36793329 -0.00169729 0.00000000
0.08058990 1.39195603 -0.00446396 0.00000000
2.15491467 0.15667591 -0.00232157 0.00000000
3.73125595 0.87153581 0.00175438 0.00000000
4.49980138 0.83981856 -0.00157580 0.00000000
1.06847484 0.62905466 -0.00207233 0.00000000
2.27860655 0.80565956 -0.00282147 0.00000000
4.48139653 0.86207976 -0.00218084 0.00000000
1.33222168 1.01017152 -0.00456782 0.00000000
4.26402036 0.73749955 0.00002487 0.00000000
0.05051594 0.67372004 0.00369140 0.00000000
2.99867252 0.27212313 -0.00387735 0.00000000
0.98582274 0.74738993 -0.00528964 0.00000000
3.23501401 1.15323794 0.00021405 0.00000000
1.96239314 0.68817318 -0.00601824 0.00000000
0.66255056 0.91785961 -0.00133208 0.00000000
1.13687959 0.13991393 0.00094697 0.00000000
2.03706138 1.32749355 -0.00115772 0.00000000
4.04650628 1.08253542 -0.00021411 0.00000000
0.45360440 0.53695208 -0.00051601 0.00000000
3.92614101 0.22611310 -0.00048078 0.00000000
3.72800237 0.62345243 0.00419023 0.00000000
3.28154005 0.13124660 -0.00399086 0.00000000
1.76629138 0.92670371 0.00366960 0.00000000
4.46875076 0.84020026 0.00210751 0.00000000
1.34900263 1.30959585 -0.00100880 0.00000000
4.32417850 0.65490659 -0.00584769 0.00000000
3.35200104 0.69355202 -0.00108078 0.00000000
1.87782616 1.02204542 0.00008607 0.00000000
3.47524178 0.62160017 -0.00488549 0.00000000
2.66298890 0.56430844 -0.00300749 0.00000000
3.35396592 1.43252346 0.00104894 0.00000000
3.57158637 0.66804481 0.00257760 0.00000000
4.19115474 0.47152648 0.00099698 0.00000000
2.67218497 0.83900192 -0.00243414 0.00000000
4.26633936 0.15580986 -0.00079972 0.00000000
0.79029559 0.39595089 -0.00169007 0.00000000
4.05926781 1.23676740 -0.00350169 0.00000000
3.00869211 0.19873831 0.00203444 0.00000000
1.79802110 1.04333387 0.00153530 0.00000000
2.23598821 0.31024377 -0.00072243 0.00000000
0.35079103 1.20575920 -0.00201414 0.00000000
1.88676114 0.16550001 -0.00230536 0.00000000
3.59514475 0.47164358 0.00110147 0.00000000
1.48170713 0.02319778 -0.00414768 0.00000000
4.47762987 0.41899002 -0.00196652 0.00000000
3.08043692 0.62952852 -0.00027822 0.00000000
3.41282408 0.81427687 0.00229781 0.00000000
4.03652179 1.25641348 -0.00169658 0.00000000
2.06882432 0.66158985 -0.00235259 0.00000000
3.71658087 0.75265145 -0.00224011 0.00000000
2.76392264 0.39779056 -0.00334472 0.00000000
0.70676016 0.61414059 -0.00229033 0.00000000
0.24692580 1.25820399 0.00399764 0.00000000
2.43419476 0.40690338 -0.00286726 0.00000000
1.03390478 1.31094927 0.00056675 0.00000000
4.33175518 1.24775584 0.00042594 0.00000000
2.17995791 0.80926126 0.00402873 0.00000000
0.21753710 0.90789907 -0.00191012 0.00000000
0.77324453 0.91655101 -0.00197059 0.00000000
4.41969492 0.55778237 -0.00064812 0.00000000
2.87782670 0.52857077 0.00308761 0.00000000
4.02092263 0.03389945 -0.00196660 0.00000000
1.75917977 0.59093485 0.00058867 0.00000000
0.68178174 0.59092787 0.00170284 0.00000000
0.89599695 0.78028390 -0.00177034 0.00000000
0.32639443 0.73170837 -0.00011089 0.00000000
0.53901715 0.08319958 -0.00188334 0.00000000
2.23885129 0.02307734 0.00090383 0.00000000
0.62447319 0.16939575 -0.00174685 0.00000000
4.31918008 0.48483857 0.00018595 0.00000000
0.04295437 0.77355939 0.00375683 0.00000000
1.33476978 1.16180943 0.00004910 0.00000000
4.06521504 1.40904322 -0.00367547 0.00000000
3.09197700 1.47798822 0.00440083 0.00000000
3.71257964 0.01132414 0.00499233 0.00000000
0.04857126 0.81680653 0.00221805 0.00000000
2.18602720 1.08459322 -0.00077775 0.00000000
3.96440255 1.29262944 -0.00265694 0.00000000
4.28859430 0.09801184 0.00291701 0.00000000
2.34466526 0.54039484 -0.00243310 0.00000000
0.90907368 0.07537722 0.00074868 0.00000000
2.24572498 1.39642854 0.00201365 0.00000000
2.78463924 0.19631235 0.00041739 0.00000000
0.17914977 1.24214717 -0.00121706 0.00000000
4.28299457 0.34357239 0.00141282 0.00000000
1.59517695 0.37449780 -0.00182394 0.00000000
1.03956204 1.35399486 -0.00043390 0.00000000
2.06439627 1.10332461 -0.00073047 0.00000000
1.67426615 0.56478568 -0.00124630 0.00000000
0.77697555 0.89304245 -0.00200026 0.00000000
3.86797041 1.14641407 0.00260480 0.00000000
1.46304320 0.71302367 0.00006417 0.00000000
3.76997515 0.06664905 0.00251533 0.00000000
2.48795016 0.30978163 -0.00093927 0.00000000
0.29861060 0.49130153 0.00082731 0.00000000
2.32605335 0.71613252 0.00074604 0.00000000
3.14596997 0.20463333 0.00337787 0.00000000
2.45559348 0.53154877 0.00220167 0.00000000
0.37932813 0.94225701 -0.00292734 0.00000000
3.41046376 1.25320136 -0.00624163 0.00000000
3.57466558 1.38218504 0.00494895 0.00000000
1.97978472 1.10462840 -0.00027827 0.00000000
0.90492624 0.13562232 0.00097976 0.00000000
0.34463143 1.43911006 -0.00173133 0.00000000
3.45039530 0.65074186 -0.00038506 0.00000000
3.99695763 0.35987030 0.00170878 0.00000000
2.47423695 0.93612188 -0.00151141 0.00000000
0.08109880 0.16517188 0.00040467 0.00000000
2.35390606 0.32124838 0.00036114 0.00000000
3.64793324 0.39204357 0.00289346 0.00000000
1.90614403 0.56729301 0.00377671 0.00000000
3.68222716 0.26318017 -0.00221327 0.00000000
0.45180688 1.11198459 -0.00205096 0.00000000
2.80788152 1.10794011 -0.00250698 0.00000000
1.32771542 0.24505765 -0.00061607 0.00000000
2.63169127 1.18281701 -0.00138685 0.00000000
4.21855456 0.06885374 -0.00169122 0.00000000
2.55396704 0.46709598 -0.00124920 0.00000000
1.99780990 0.66070104 -0.00370905 0.00000000
3.53284970 0.49872683 0.00224976 0.00000000
3.65847485 0.51333873 -0.00145763 0.00000000
3.16496911 0.02184369 -0.00180989 0.00000000
1.32501244 1.30238334 -0.00481589 0.00000000
4.21440747 0.34349521 -0.00197372 0.00000000
3.85100824 0.60525797 0.00288783 0.00000000
0.61475179 0.82397008 0.00017024 0.00000000
2.00622928 0.74859217 -0.00064035 0.00000000
2.62553916 0.26155397 -0.00053843 0.00000000
3.74508182 1.45857929 0.00132943 0.00000000
2.24556069 0.84769318 -0.00175417 0.00000000
1.71828754 0.38456597 0.00043249 0.00000000
3.91100673 1.16920824 0.00085689 0.00000000
0.55918212 0.61047042 -0.00257173 0.00000000
2.34783773 0.31525593 0.00065531 0.00000000
0.45132545 0.11877438 0.00066451 0.00000000
4.49227877 1.19757545 0.00434694 0.00000000
0.68702445 1.34463604 0.00085026 0.00000000
0.72109607 0.98208232 0.00347833 0.00000000
3.56920065 0.06534247 0.00095417 0.00000000
3.55036032 0.66895520 0.00108456 0.00000000
3.19400237 0.61953606 0.00185846 0.00000000
0.23927067 0.92884087 0.00049367 0.00000000
2.65757821 0.59009442 0.00435345 0.00000000
0.08386612 0.31096794 -0.00074571 0.00000000
4.12672319 0.62743731 0.00017230 0.00000000
0.95659181 0.37894211 -0.00299145 0.00000000
0.43408576 1.41623174 -0.00045273 0.00000000
1.76049181 1.09364384 0.00042015 0.00000000
0.01663850 0.61017421 0.00153409 0.00000000
0.97064822 0.90620785 -0.00128857 0.00000000
0.64062735 0.71592833 0.00089111 0.00000000
0.83318014 0.18231890 0.00043022 0.00000000
1.13649324 1.15624434 0.00308322 0.00000000
0.96248848 0.31686328 0.00382966 0.00000000
1.92598980 0.96901824 -0.00294075 0.00000000
1.50991774 0.39399041 0.00094397 0.00000000
4.10887652 1.19218598 0.00037610 0.00000000
3.59432599 0.91359746 -0.00365374 0.00000000
3.39122507 1.06113112 -0.00077256 0.00000000
2.92049832 0.89359306 0.00183911 0.00000000
2.38180721 0.54830223 0.00108690 0.00000000
4.00261291 1.41128555 0.00408842 0.00000000
1.16551764 0.01278632 -0.00173960 0.00000000
1.02369738 1.29061840 0.00112411 0.00000000
1.25097982 1.02058260 -0.00020655 0.00000000
2.42988169 0.23953547 -0.00413127 0.00000000
1.74023183 0.83928773 -0.00141613 0.00000000
1.68978543 0.29175658 0.00163486 0.00000000
3.00118378 1.01763495 -0.00039271 0.00000000
1.01835122 0.37727950 0.00220647 0.00000000
2.12907834 0.20288662 0.00120283 0.00000000
1.99517760 1.47172835 -0.00090937 0.00000000
4.11293517 0.41719923 0.00108528 0.00000000
0.38734952 1.08200492 0.00167305 0.00000000
4.35087337 0.72211464 -0.00027047 0.00000000
1.20309945 1.00681599 -0.00281453 0.00000000
1.52878706 0.77772487 -0.00189069 0.00000000
0.93246302 1.14586533 -0.00054360 0.00000000
2.32979672 0.06402655 0.00003422 0.00000000
0.56204346 1.28683938 0.00050512 0.00000000
4.29864831 0.69757529 0.00231507 0.00000000
0.01071645 0.95924142 -0.00094152 0.00000000
1.47576030 0.71961460 -0.00050342 0.00000000
2.60960764 1.28972759 -0.00106655 0.00000000
3.67794542 0.09733767 0.00354997 0.00000000
1.94734284 0.53567661 -0.00266055 0.00000000
2.38146565 0.63404750 0.00057019 0.00000000
2.44467144 1.42909260 0.00046201 0.00000000
1.52340847 0.51386582 0.00097215 0.00000000
1.18549551 1.25970839 -0.00229777 0.00000000
2.34784792 0.41857594 -0.00182084 0.00000000
2.40845085 0.41356920 0.00287298 0.00000000
1.20516466 0.24725728 -0.00036998 0.00000000
2.61385641 1.12694349 0.00313496 0.00000000
1.63098808 0.56058549 0.00243944 0.00000000
3.39984531 0.03033174 -0.00108534 0.00000000
2.51175008 0.59871001 -0.00291661 0.00000000
1.07551125 0.89214814 0.00002048 0.00000000
4.40240768 0.42607216 0.00120804 0.00000000
0.19024598 1.27072554 0.00226189 0.00000000
2.22053823 1.16633200 -0.00294251 0.00000000
0.57483661 0.94478875 0.00304962 0.00000000
3.96793865 1.48956798 0.00109271 0.00000000
3.53645092 1.33778839 -0.00033930 0.00000000
4.35124282 0.51525347 -0.00045716 0.00000000
0.23572629 0.87656732 0.00093533 0.00000000
3.18285409 1.09640181 0.00136719 0.00000000
0.95466212 0.87896768 -0.00577620 0.00000000
0.11950851 1.26629259 0.00045078 0.00000000
0.53880106 1.44568413 0.00037703 0.00000000
4.29976738 1.20624562 -0.00186607 0.00000000
0.20361485 0.57690128 -0.00173868 0.00000000
1.04759003 0.34699720 -0.00137108 0.00000000
0.96011443 0.49766040 -0.00263062 0.00000000
1.97905411 1.09082476 0.00344145 0.00000000
0.73972374 0.58546101 0.00033092 0.00000000
1.13445688 1.18392950 -0.00266528 0.00000000
1.83975935 0.87963861 0.00034611 0.00000000
2.71643916 0.30094419 -0.00193304 0.00000000
1.41818479 0.13070903 0.00292138 0.00000000
1.17126225 0.75270646 -0.00090790 0.00000000
0.10157286 0.68602603 -0.00063718 0.00000000
4.35840549 0.69707476 0.00321991 0.00000000
0.12662762 0.01429018 -0.00156690 0.00000000
3.26233147 0.02146588 -0.00028013 0.00000000
2.59061646 1.20534011 -0.00459419 0.00000000
0.66994724 0.76032139 -0.00032648 0.00000000
1.18476267 0.74974284 -0.00308941 0.00000000
4.48147498 1.03784801 0.00296610 0.00000000
0.00156994 0.64716035 -0.00492798 0.00000000
2.91204205 0.35625079 0.00198844 0.00000000
0.70346109 1.04945073 0.00386011 0.00000000
2.37199688 1.41227852 0.00089109 0.00000000
3.88118807 0.21438892 0.00473302 0.00000000
4.49237666 0.36006782 -0.00169593 0.00000000
0.89512312 0.73088016 -0.00102406 0.00000000
3.93450844 1.36619044 0.00209648 0.00000000
2.90575723 0.66735892 -0.00223670 0.00000000
1.46539221 1.41907648 -0.00196540 0.00000000
4.34907909 0.24343199 0.00184495 0.00000000
2.29718492 0.40810276 0.00084777 0.00000000
2.85854101 0.45239667 0.00012577 0.00000000
2.79769264 1.26374218 0.00577574 0.00000000
4.05463725 0.76293920 0.00615083 0.00000000
3.12605768 0.90216530 0.00083515 0.00000000
4.10154874 0.00249659 -0.00141847 0.00000000
0.45390166 0.23589427 -0.00025670 0.00000000
3.14642135 0.54026308 -0.00422493 0.00000000
4.39207131 0.21846779 0.00158591 0.00000000
0.19051539 0.88877377 0.00141212 0.00000000
1.30507040 1.40106171 0.00164319 0.00000000
1.19473533 0.21693111 -0.00451137 0.00000000
4.25072990 0.89042921 0.00148241 0.00000000
0.23254283 0.70411860 -0.00027170 0.00000000
2.34554405 0.06239330 0.00601686 0.00000000
3.49684827 1.22122165 0.00358402 0.00000000
3.46426162 0.64478618 0.00015161 0.00000000
2.40582218 1.12258732 -0.00170320 0.00000000
0.90829939 0.67645398 0.00288783 0.00000000
3.85098334 0.96519884 0.00196025 0.00000000
1.66439946 0.44095666 -0.00176036 0.00000000
3.34527886 0.60059562 -0.00085483 0.00000000
1.19631698 1.09307878 -0.00384728 0.00000000
2.68087899 1.20298588 -0.00165934 0.00000000
0.49451453 1.33845250 0.00699166 0.00000000
2.62439250 1.30773473 0.00086008 0.00000000
4.11139575 0.86670450 0.00240041 0.00000000
3.23482823 1.45037752 -0.00036806 0.00000000
2.83896548 0.42641223 0.00020368 0.00000000
0.87741538 0.42631204 -0.00360152 0.00000000
2.96324291 0.92514711 -0.00187562 0.00000000
4.44390809 0.17142434 0.00209052 0.00000000
3.14343405 0.75622842 0.00027879 0.00000000
2.82967243 0.23303145 0.00177111 0.00000000
0.16336474 0.76991608 0.00171619 0.00000000
1.18283719 0.28134941 -0.00596006 0.00000000
2.59539132 0.51293798 0.00078427 0.00000000
2.83738931 0.16011182 -0.00317665 0.00000000
0.75072945 0.23600678 0.00063862 0.00000000
4.12761496 1.24705783 0.00446547 0.00000000
3.70053780 0.18998752 0.00376243 0.00000000
3.62188715 1.12048114 0.00211460 0.00000000
1.00807639 1.35517894 -0.00168992 0.00000000
3.03367530 1.29795830 -0.00299746 0.00000000
2.37189873 0.24612366 0.00097115 0.00000000
4.19368901 0.35869399 -0.00044954 0.00000000
2.41030162 0.35821783 0.00064540 0.00000000
0.87080541 1.28069753 0.00046587 0.00000000
1.43687799 1.32722174 -0.00587544 0.00000000
3.46808466 0.79108695 0.00289744 0.00000000
4.49370387 0.87095420 -0.00238917 0.00000000
4.24375583 0.70864153 0.00212905 0.00000000
2.96385958 0.10043727 0.00023191 0.00000000
1.21078621 0.50593927 -0.00096751 0.00000000
0.93888479 0.34672376 -0.00154464 0.00000000
2.28303167 0.07428875 0.00101720 0.00000000
3.88033488 0.88721421 -0.00111986 0.00000000
3.20324817 0.00074697 0.00002578 1.00000000
2.23407232 0.00300750 -0.00176126 1.00000000
2.43863157 0.00124389 0.00459529 1.00000000
1.54285590 -0.00411760 0.00253618 1.00000000
1.22944305 -0.00031558 0.00276280 1.00000000
0.80207284 0.00379261 0.00191180 1.00000000
3.32986807 -0.00316643 0.00312626 1.00000000
0.33479203 0.00008573 -0.00207428 1.00000000
3.75728360 -0.00240800 -0.00028378 1.00000000
2.04021978 -0.00096374 0.00031568 1.00000000
0.31384283 0.00059495 -0.00004829 1.00000000
1.76166980 -0.00272680 -0.00126741 1.00000000
1.29075918 -0.00257711 0.00211219 1.00000000
0.08131018 0.00142642 0.00294244 1.00000000
1.26074482 -0.00033047 0.00066290 1.00000000
3.03053471 -0.00103107 0.00019742 1.00000000
2.84399749 0.00064099 0.00179164 1.00000000
2.25641815 -0.00136515 -0.00093811 1.00000000
3.16425728 -0.00196614 0.00079172 1.00000000
0.42023289 -0.00163001 -0.00266484 1.00000000
2.30059591 0.00056894 0.00368670 1.00000000
4.31725909 -0.00149874 -0.00196921 1.00000000
1.47614721 -0.00278143 0.00323443 1.00000000
1.93160021 0.00178948 0.00033274 1.00000000
2.81038961 -0.00276995 -0.00491731 1.00000000
0.99258562 0.00204455 0.00057496 1.00000000
3.58233668 -0.00145063 -0.00358761 1.00000000
0.59268254 0.00273090 -0.00408772 1.00000000
3.30848991 -0.00101915 0.00190260 1.00000000
2.76725578 0.00378671 -0.00058390 1.00000000
3.04736701 -0.00300211 -0.00538368 1.00000000
4.39641479 0.00668308 0.00014332 1.00000000
4.41397054 -0.00287936 -0.00076175 1.00000000
4.29513362 -0.00752244 -0.00071367 1.00000000
0.36716001 -0.00003724 -0.00043407 1.00000000
0.58968776 -0.00110896 -0.00364000 1.00000000
4.16874436 0.00563081 -0.00060720 1.00000000
4.27198257 -0.00192976 -0.00600402 1.00000000
0.53014679 0.00461826 0.00270937 1.00000000
0.26951173 -0.00394859 -0.00433769 1.00000000
1.31983623 0.00259268 -0.00216585 1.00000000
0.94480026 0.00115760 0.00009231 1.00000000
4.34163215 -0.00003172 0.00147749 1.00000000
0.57500809 -0.00022274 0.00028040 1.00000000
2.86022032 -0.00304723 -0.00078420 1.00000000
3.83009449 0.00081873 -0.00368239 1.00000000
1.57021191 0.00032393 -0.00157792 1.00000000
3.66521055 -0.00046407 0.00249987 1.00000000
2.21921600 -0.00494050 0.00060750 1.00000000
0.06209564 -0.00327920 0.00090107 1.00000000
3.33006336 -0.00046064 0.00113837 1.00000000
1.24508466 -0.00293503 -0.00115633 1.00000000
2.31828933 -0.00059587 0.00237920 1.00000000
0.15753774 0.00048933 0.00307284 1.00000000
2.43055547 0.00402633 -0.00088504 1.00000000
0.36534628 0.00160406 0.00299307 1.00000000
2.12197056 -0.00088254 -0.00034287 1.00000000
0.95974201 0.00314761 -0.00190056 1.00000000
1.57609791 -0.00042937 -0.00035192 1.00000000
0.15098281 -0.00238419 -0.00073803 1.00000000
4.32102070 0.00250984 -0.00092136 1.00000000
4.43726580 0.00092676 0.00417782 1.00000000
1.08564729 -0.00327168 -0.00390922 1.00000000
2.27421561 -0.00206230 -0.00037763 1.00000000
1.60721497 -0.00121328 -0.00397222 1.00000000
0.44734084 0.00121029 0.00159221 1.00000000
4.47657950 0.00333074 -0.00161165 1.00000000
0.20677024 -0.00303096 -0.00020203 1.00000000
2.96524936 0.00146683 -0.00257274 1.00000000
2.78912556 -0.00243308 0.00671828 1.00000000
1.81240612 -0.00118615 0.00223905 1.00000000
1.93730317 -0.00129699 0.00163826 1.00000000
2.33830363 -0.00331492 0.00293584 1.00000000
1.27380670 -0.00143019 -0.00161972 1.00000000
1.86769243 0.00023981 0.00017319 1.00000000
3.59996130 0.00078997 -0.00048582 1.00000000
1.34595419 0.00366447 -0.00539578 1.00000000
1.14320046 0.00025827 -0.00180421 1.00000000
1.68452169 -0.00442221 -0.00063875 1.00000000
3.35472952 -0.00323652 -0.00120721 1.00000000
3.90874831 -0.00232687 0.00022400 1.00000000
3.00419486 0.00189081 0.00147410 1.00000000
0.34879357 0.00239580 -0.00061412 1.00000000
0.41603540 -0.00237228 0.00028072 1.00000000
2.42398702 0.00590817 0.00016201 1.00000000
0.65937214 -0.00150748 -0.00135627 1.00000000
3.78500615 -0.00298199 0.00535701 1.00000000
2.78926956 -0.00592842 0.00250219 1.00000000
2.92780335 -0.00350241 0.00238995 1.00000000
2.90398178 0.00047102 0.00129872 1.00000000
3.28599285 -0.00052957 -0.00072228 1.00000000
0.63029538 -0.00015271 0.00194364 1.00000000
4.36573003 0.00366965 -0.00034297 1.00000000
1.87585374 -0.00172740 -0.00090640 1.00000000
3.19750448 0.00004499 0.00050092 1.00000000
3.30591945 -0.00357226 -0.00088027 1.00000000
1.83808769 0.00344363 -0.00067992 1.00000000
1.50270243 0.00134840 0.00145232 1.00000000
3.75978654 -0.00123525 -0.00489939 1.00000000
1.01302156 0.00294543 -0.00052012 1.00000000
1.72142153 -0.00208581 0.00267515 1.00000000
2.63587317 0.00004365 -0.00030433 1.00000000
4.38006141 0.00196141 0.00214926 1.00000000
0.98696353 0.00483734 -0.00205935 1.00000000
2.09317262 0.00405616 -0.00562128 1.00000000
1.87671500 -0.00296583 -0.00301779 1.00000000
2.60267898 -0.00380682 -0.00301693 1.00000000
4.08611303 0.00150364 -0.00394047 1.00000000
0.64551190 -0.00289518 0.00733076 1.00000000
3.20876948 -0.00194924 0.00005088 1.00000000
3.16337250 0.00272738 0.00227510 1.00000000
0.46212149 0.00061660 -0.00636920 1.00000000
0.19172425 0.00029680 -0.00131945 1.00000000
3.04625336 0.00008396 0.00423466 1.00000000
3.68909000 -0.00073664 0.00108147 1.00000000
2.00435755 -0.00236138 -0.00016730 1.00000000
3.56527905 -0.00058302 0.00279177 1.00000000
2.39222524 -0.00063000 -0.00396324 1.00000000
1.00611918 0.00601442 0.00020221 1.00000000
2.02469038 0.00506722 -0.00070375 1.00000000
0.74724895 0.00207567 0.00198957 1.00000000
3.85485761 0.00375918 0.00187684 1.00000000
3.51519712 -0.00158551 0.00311596 1.00000000
4.16047735 -0.00209372 0.00053257 1.00000000
1.13107413 0.00145672 0.00206801 1.00000000
0.25396226 -0.00099735 0.00104575 1.00000000
4.16717705 -0.00130610 0.00341614 1.00000000
0.36329846 0.00281635 -0.00404832 1.00000000
1.33077669 -0.00058109 -0.00019784 1.00000000
0.25275581 0.00225852 0.00368281 1.00000000
4.06473230 -0.00296211 0.00221610 1.00000000
0.12754458 -0.00062960 -0.00589531 1.00000000
4.25041198 -0.00056721 -0.00113760 1.00000000
1.00139706 0.00000298 -0.00038905 1.00000000
0.57356045 -0.00088420 0.00259273 1.00000000
4.35017002 0.00278425 -0.21294989 0.00000000
1.84684506 0.00254184 -0.16865246 0.00000000
0.26034824 -0.00279405 -0.01017831 0.00000000
2.03637128 0.00447555 -0.19033315 0.00000000
2.12476640 -0.00300251 -0.10492798 0.00000000
3.01900203 0.00174996 -0.16400455 0.00000000
2.37649196 0.00169394 -0.20785629 0.00000000
1.01218853 -0.00151779 -0.23130101 0.00000000
3.76310406 0.00124341 -0.16889739 0.00000000
0.19406443 0.00133320 -0.05172498 0.00000000
3.81101628 0.00332601 -0.07571946 0.00000000
0.60490948 0.00667819 -0.05415409 0.00000000
2.84662329 -0.00125421 -0.21455728 0.00000000
1.29409554 0.00280935 -0.06893077 0.00000000
0.72630617 0.00180850 -0.25975149 0.00000000
2.38213425 0.00234024 -0.15350871 0.00000000
0.05900987 0.00549914 -0.11485639 0.00000000
4.47287184 0.00163531 -0.19412272 0.00000000
0.78187652 0.00279112 -0.01204341 0.00000000
3.61462790 0.00098229 -0.10066853 0.00000000
2.02280497 0.00187639 -0.03835491 0.00000000
1.94605608 0.00336165 -0.28371605 0.00000000
3.16500943 0.00122634 -0.09832905 0.00000000
4.02743298 0.00106707 -0.19932820 0.00000000
3.20756491 0.00243565 -0.09674267 0.00000000
3.34059868 -0.00053131 -0.01577289 0.00000000
1.93831130 0.00478416 -0.23934230 0.00000000
0.39162381 0.00532716 -0.10548177 0.00000000
1.41740969 0.00410201 -0.20434571 0.00000000
0.46952330 0.00366051 -0.28092479 0.00000000
3.21181653 -0.00101691 -0.05458630 0.00000000
3.87862877 0.00411343 -0.26277771 0.00000000
3.08982895 -0.00248523 -0.08401030 0.00000000
0.05986438 0.00318274 -0.18931746 0.00000000
2.99189466 0.00124428 -0.11751901 0.00000000
2.39395188 0.00607422 -0.25800543 0.00000000
3.34225729 -0.00061812 -0.23631713 0.00000000
3.33050507 0.00342700 -0.25265750 0.00000000
2.28907504 0.00053950 -0.22815025 0.00000000
1.40322640 0.00061131 -0.20706391 0.00000000
0.61529322 0.00643803 -0.26448955 0.00000000
0.19788275 0.00782695 -0.20833535 0.00000000
3.95198614 0.00467501 -0.26724595 0.00000000
2.16733794 -0.00381394 -0.15361563 0.00000000
3.32736587 0.00199545 -0.04613329 0.00000000
0.76630775 -0.00052591 -0.09951002 0.00000000
0.30716873 0.00016086 -0.25523804 0.00000000
3.91644746 0.00279908 -0.13384171 0.00000000
2.33008534 0.00526086 -0.20904794 0.00000000
2.85003889 -0.00037120 -0.02115045 0.00000000
0.36794487 0.00589889 -0.05561170 0.00000000
0.10781321 0.00387202 -0.17913219 0.00000000
0.53579162 -0.00229772 -0.08943726 0.00000000
0.71355910 -0.00117280 -0.27296374 0.00000000
2.65721801 0.00272240 -0.12427203 0.00000000
3.86234486 0.00243512 -0.10854191 0.00000000
2.75173867 -0.00187935 -0.27053378 0.00000000
2.77816212 0.00371735 -0.28007824 0.00000000
1.82325444 -0.00145183 -0.27765477 0.00000000
2.55762261 0.00259123 -0.25251432 0.00000000
3.61950170 -0.00023706 -0.01758056 0.00000000
0.14982308 -0.00166798 -0.06957433 0.00000000
0.05399476 0.00110172 -0.01663028 0.00000000
3.14217302 0.00297098 -0.09276683 0.00000000
0.14869417 0.00041640 -0.07990796 0.00000000
3.29627816 0.00484565 -0.08445844 0.00000000
3.46308226 -0.00149097 -0.00985806 0.00000000
2.57567754 0.00086217 -0.17803658 0.00000000
1.60890657 -0.00216736 -0.03916057 0.00000000
2.12959344 0.00287725 -0.23620948 0.00000000
2.12023413 0.00107056 -0.14526558 0.00000000
4.47300300 0.00433610 -0.27817582 0.00000000
3.14973626 0.00285279 -0.23052497 0.00000000
4.20767051 -0.00012492 -0.02757681 0.00000000
3.30862842 0.00403423 -0.15009615 0.00000000
3.71634945 -0.00147064 -0.07466797 0.00000000
3.40645103 0.00186360 -0.26870904 0.00000000
2.40815077 0.00173223 -0.17772897 0.00000000
2.42286397 0.00161074 -0.10920633 0.00000000
2.09917546 0.00243669 -0.17557996 0.00000000
3.55613914 0.00061545 -0.16622986 0.00000000
1.40333103 0.00522730 -0.11658679 0.00000000
3.79222027 0.00232089 -0.18744018 0.00000000
1.05989932 0.00396416 -0.10662608 0.00000000
0.63462244 0.00090612 -0.05929404 0.00000000
2.90777839 0.00334093 -0.19122506 0.00000000
2.39456827 0.00120476 -0.23413494 0.00000000
2.71046769 0.00085263 -0.15039973 0.00000000
3.28171322 0.00101944 -0.24795804 0.00000000
1.44829071 0.00082145 -0.13232931 0.00000000
2.90648521 0.00532546 -0.23026760 0.00000000
1.62613944 0.00088089 -0.27850332 0.00000000
2.22515835 -0.00271013 -0.08898028 0.00000000
3.64183781 0.00441330 -0.16908759 0.00000000
1.73676453 0.00147248 -0.21378330 0.00000000
0.34354386 0.00264038 -0.16237884 0.00000000
3.65509181 0.00376537 -0.16518924 0.00000000
3.27638450 -0.00074910 -0.07957865 0.00000000
1.50984790 -0.00216286 -0.01478261 0.00000000
1.83720654 0.00450899 -0.21582098 0.00000000
1.24202312 0.00327344 -0.12586425 0.00000000
0.91839116 0.00466061 -0.25388325 0.00000000
0.02305994 0.00033239 -0.02562486 0.00000000
1.00611241 0.00621295 -0.16295148 0.00000000
2.65197993 0.00417720 -0.17556588 0.00000000
2.37493944 0.00374065 -0.24029082 0.00000000
0.70119941 0.00401775 -0.25324611 0.00000000
0.91355462 0.00210417 -0.21200507 0.00000000
1.84528303 0.00282955 -0.14407364 0.00000000
2.44546039 0.00589535 -0.27053111 0.00000000
0.42069013 0.00615415 -0.26647162 0.00000000
3.16849348 0.00505785 -0.28590600 0.00000000
0.51000829 0.00175642 -0.01433839 0.00000000
2.30483710 0.00231621 -0.27587674 0.00000000
3.21837149 0.00188957 -0.25968855 0.00000000
4.00263386 0.00039106 -0.07438442 0.00000000
3.31390873 0.00422123 -0.14556575 0.00000000
3.91384772 0.00329425 -0.08864598 0.00000000
3.09953157 0.00203487 -0.08058656 0.00000000
1.47596263 0.00196019 -0.15964592 0.00000000
0.42725934 0.00062792 -0.23410620 0.00000000
4.06285906 -0.00131900 -0.03114606 0.00000000
2.38023314 0.00052678 -0.05133868 0.00000000
0.20818060 0.00268932 -0.12117179 0.00000000
1.44106749 0.00311332 -0.14843258 0.00000000
4.31788601 -0.00420784 -0.13168908 0.00000000
2.50010239 0.00406359 -0.01819823 0.00000000
4.48546394 0.00224207 -0.26592674 0.00000000
0.62658494 -0.00058988 -0.14769648 0.00000000
4.17186151 0.00046970 -0.06708593 0.00000000
3.17245034 0.00380931 -0.27085846 0.00000000
0.78110127 0.00445531 -0.18697446 0.00000000
3.56396380 0.00244784 -0.24684016 0.00000000
1.82583649 0.00086873 -0.07118432 0.00000000
4.17862280 0.00799033 -0.18213788 0.00000000
2.98436432 0.00084297 -0.23485776 0.00000000
2.94433526 -0.00247012 -0.16171619 0.00000000
4.45140631 0.00459804 -0.10324896 0.00000000
1.69533836 0.00222893 -0.20590284 0.00000000
1.23485991 -0.00157915 -0.15241039 0.00000000
4.14638814 0.00143598 -0.01652616 0.00000000
2.02743759 0.00005351 -0.17860706 0.00000000
1.59084081 -0.00389696 -0.00679948 0.00000000
4.42358336 0.00357662 -0.25723587 0.00000000
2.10342402 0.00357222 -0.26254644 0.00000000
2.71758327 0.00137699 -0.04877461 0.00000000
2.24558531 0.00415016 -0.10754553 0.00000000
1.54780737 -0.00115338 -0.04714759 0.00000000
1.82797931 0.00326950 -0.20351068 0.00000000
3.96886292 0.00358551 -0.26427340 0.00000000
3.75951218 -0.00216081 -0.13386333 0.00000000
3.52233762 0.00540538 -0.23519141 0.00000000
1.74581597 0.00185305 -0.01381271 0.00000000
1.58034339 0.00332187 -0.18486856 0.00000000
0.77149407 0.00444026 -0.19192515 0.00000000
3.59767020 0.00432070 -0.18185677 0.00000000
0.33977573 0.00045403 -0.17442276 0.00000000
0.30496618 0.00109274 -0.09814246 0.00000000
3.81604838 0.00068888 -0.24591663 0.00000000
1.20584594 0.00246258 -0.00738102 0.00000000
3.45616162 0.00092205 -0.22674675 0.00000000
3.71320272 0.00303838 -0.08955099 0.00000000
0.51374809 -0.00126888 -0.15600722 0.00000000
0.71826453 0.00561722 -0.21906426 0.00000000
2.32827461 0.00260220 -0.11524646 0.00000000
4.47732226 0.00384173 -0.17194993 0.00000000
1.50561368 0.00586509 -0.17293643 0.00000000
3.69577889 0.00316986 -0.15464742 0.00000000
0.65618397 0.00646466 -0.18767341 0.00000000
0.99764351 0.00240932 -0.07495677 0.00000000
0.90111857 0.00659288 -0.11670572 0.00000000
0.77350899 -0.00164487 -0.07806255 0.00000000
0.46039458 -0.00297341 -0.12348940 0.00000000
3.83165125 -0.00168325 -0.24763074 0.00000000
2.99054714 0.00166376 -0.07847187 0.00000000
1.83996021 0.00094814 -0.07520768 0.00000000
4.35825221 0.00309577 -0.22430641 0.00000000
0.48266279 0.00192965 -0.13046970 0.00000000
0.31186714 -0.00622423 -0.01569998 0.00000000
1.50038269 0.00378701 -0.11496487 0.00000000
1.89935850 0.00127702 -0.25511331 0.00000000
2.89582505 0.00171549 -0.16588347 0.00000000
3.78573745 -0.00055965 -0.14869653 0.00000000
3.62177116 -0.00047975 -0.18944980 0.00000000
2.32738426 0.00828070 -0.25630269 0.00000000
1.74943590 0.00269804 -0.01455406 0.00000000
3.45568508 0.00573671 -0.24050052 0.00000000
1.34560989 0.00004966 -0.05212128 0.00000000
2.56057615 0.00493285 -0.03069233 0.00000000
0.05675826 -0.00625541 -0.05682443 0.00000000
0.15578833 -0.00061041 -0.12055647 0.00000000
3.40080322 0.00858774 -0.18948324 0.00000000
2.45750270 -0.00173349 -0.08233179 0.00000000
3.16729830 0.00430817 -0.08975356 0.00000000
0.62260556 -0.00207395 -0.20102579 0.00000000
3.36714724 0.00217540 -0.23673951 0.00000000
1.11559845 0.00284944 -0.06279075 0.00000000
1.27587489 -0.00152770 -0.13089050 0.00000000
2.38110491 0.00023905 -0.17733583 0.00000000
3.83206945 0.00167673 -0.02349414 0.00000000
0.30180170 0.00548990 -0.13276684 0.00000000
2.20919548 -0.00234445 -0.18638209 0.00000000
4.49540806 0.00321010 -0.09445225 0.00000000
0.25595201 0.00120375 -0.00914564 0.00000000
3.99318957 0.00073400 -0.18903558 0.00000000
2.37968409 -0.00351923 -0.11349064 0.00000000
0.36313875 0.00355245 -0.19333266 0.00000000
0.76452255 0.00554988 -0.12868762 0.00000000
1.40739408 0.00281051 -0.08492644 0.00000000
0.54417795 -0.00016297 -0.14727029 0.00000000
3.88620242 0.00047525 -0.22668406 0.00000000
2.91024858 -0.00240418 -0.09581293 0.00000000
0.87155813 0.00653203 -0.19679125 0.00000000
3.65243645 0.00382371 -0.23059429 0.00000000
0.10638740 0.00238802 -0.25542440 0.00000000
1.17848847 0.00420541 -0.26916336 0.00000000
0.46189551 0.00282646 -0.21258988 0.00000000
0.82533645 0.00467825 -0.18908088 0.00000000
2.58562891 -0.00152261 -0.09275175 0.00000000
0.99795005 0.00501433 -0.22457466 0.00000000
3.00206230 0.00450420 -0.21756593 0.00000000
1.28048722 0.00252887 -0.03441675 0.00000000
1.96157374 0.00481587 -0.16221925 0.00000000
1.70269057 0.00139947 -0.13393197 0.00000000
1.61543253 -0.00217997 -0.10502775 0.00000000
2.51121112 0.00065230 -0.09696412 0.00000000
3.49374530 0.00416270 -0.21012999 0.00000000
1.53988107 0.00242129 -0.22299648 0.00000000
2.96813880 0.00096482 -0.25172584 0.00000000
2.49410211 0.00077025 -0.07922321 0.00000000
3.73684232 0.00476808 -0.17944742 0.00000000
2.63433164 0.00001855 -0.19379759 0.00000000
2.86860245 -0.00175534 -0.20738825 0.00000000
4.15885872 0.00107208 -0.14938511 0.00000000
1.50772477 0.00332691 -0.16641863 0.00000000
0.92902728 0.00164778 -0.28149863 0.00000000
3.33337063 0.00398715 -0.27540071 0.00000000
1.82166038 0.00060028 -0.12755053 0.00000000
4.17337789 -0.00147606 -0.00849490 0.00000000
0.22135023 0.00260213 -0.17743216 0.00000000
0.30695412 0.00351887 -0.01977797 0.00000000
1.58247538 0.00332447 -0.28158364 0.00000000
2.83507130 -0.00155828 -0.28390773 0.00000000
1.70767435 0.00107407 -0.01830672 0.00000000
4.22131036 -0.00111379 -0.15589277 0.00000000
2.68534337 0.00293704 -0.26332730 0.00000000
1.38537229 0.00211733 -0.16777294 0.00000000
2.93098752 0.00352629 -0.02702244 0.00000000
3.65658414 0.00155758 -0.05626885 0.00000000
1.35733797 0.00011117 -0.18508479 0.00000000
1.24430089 0.00206670 -0.06571521 0.00000000
2.75149052 0.00347479 -0.14404550 0.00000000
1.14208352 0.00540924 -0.21448875 0.00000000
0.47108274 0.00277589 -0.01076937 0.00000000
1.15748412 0.00475288 -0.09631912 0.00000000
3.38276781 -0.00245467 -0.05748638 0.00000000
0.39778781 -0.00213552 -0.01932029 0.00000000
0.02020064 0.00367140 -0.25273108 0.00000000
3.21866691 0.00541542 -0.01202739 0.00000000
2.28227015 -0.00324460 -0.00338449 0.00000000
2.84398342 -0.00161122 -0.11126964 0.00000000
3.84628821 -0.00068680 -0.17671769 0.00000000
4.00146089 0.00106390 -0.25499414 0.00000000
4.12186473 0.00408128 -0.22285698 0.00000000
4.42965048 0.00062101 -0.21672593 0.00000000
3.59404855 0.00302660 -0.22444858 0.00000000
0.59039298 0.00561345 -0.27317618 0.00000000
2.12301794 -0.00055683 -0.00787285 0.00000000
3.18755809 -0.00044069 -0.00681869 0.00000000
0.72795342 0.00251485 -0.25942878 0.00000000
2.35271072 -0.00360280 -0.07646816 0.00000000
2.40622465 0.00440475 -0.21306549 0.00000000
2.71812113 0.00041600 -0.04502728 0.00000000
1.16031765 0.00327036 -0.12418310 0.00000000
1.18908858 0.00361429 -0.28098882 0.00000000
2.90290149 0.00026949 -0.18744077 0.00000000
0.40111815 -0.00043531 -0.11272792 0.00000000
4.22937963 0.00458352 -0.19166085 0.00000000
1.25864542 0.00299384 -0.27211427 0.00000000
2.35668693 0.00439938 -0.18639362 0.00000000
1.38760418 0.00494790 -0.17391066 0.00000000
2.93621078 0.00273130 -0.21404789 0.00000000
3.86620916 0.00233747 -0.07533461 0.00000000
3.84390815 0.00058292 -0.16568478 0.00000000
4.15184262 0.00408449 -0.13550362 0.00000000
4.17155705 0.00117784 -0.15658837 0.00000000
0.75725028 0.00618734 -0.20598642 0.00000000
2.73582124 0.00206749 -0.26687880 0.00000000
1.87989201 0.00075862 -0.17959488 0.00000000
1.56388874 0.00308434 -0.01773958 0.00000000
0.91048224 0.00024862 -0.00778030 0.00000000
4.44959016 -0.00115501 -0.08738280 0.00000000
3.00731728 -0.00468791 -0.01670958 0.00000000
3.86916784 -0.00065867 -0.07852832 0.00000000
0.08643948 0.00475270 -0.22875765 0.00000000
1.21905907 -0.00025870 -0.23363255 0.00000000
1.83245413 0.00088210 -0.17443305 0.00000000
1.87875487 0.00153391 -0.08488253 0.00000000
4.48852869 0.00548032 -0.25110608 0.00000000
4.29642293 0.00199489 -0.10739279 0.00000000
0.22074327 0.00084540 -0.15244757 0.00000000
1.46871918 0.00302659 -0.05873989 0.00000000
0.35725811 -0.00025449 -0.09730713 0.00000000
2.53882793 0.00182674 -0.20038402 0.00000000
3.80577748 0.00159440 -0.09787344 0.00000000
0.85270639 0.00026785 -0.01832002 0.00000000
2.46807799 -0.00044057 -0.17870315 0.00000000
1.16282705 0.00311954 -0.22202702 0.00000000
3.27673117 -0.00214070 -0.02744239 0.00000000
3.07561379 0.00763087 -0.13250786 0.00000000
2.97084956 -0.00058355 -0.05711434 0.00000000
2.66870541 0.00203710 -0.25224511 0.00000000
3.50638960 0.00457639 -0.16416902 0.00000000
3.66226173 -0.00062939 -0.10562021 0.00000000
0.42437086 -0.00092923 -0.02297123 0.00000000
0.19951021 0.00016023 -0.18690314 0.00000000
0.81954163 -0.00112778 -0.24104886 0.00000000
2.92838031 0.00067785 -0.07025687 0.00000000
1.31173248 -0.00023524 -0.05981047 0.00000000
1.01985838 0.00157408 -0.16661980 0.00000000
2.23767421 0.00462311 -0.20425976 0.00000000
0.34532564 0.00106287 -0.14671982 0.00000000
2.07615399 0.00263368 -0.12812921 0.00000000
2.89237424 0.00300448 -0.26094383 0.00000000
0.21880316 -0.00169437 -0.12471888 0.00000000
1.37151850 0.00770846 -0.23246360 0.00000000
0.79276260 0.00559678 -0.04521427 0.00000000
1.99490390 0.00119958 -0.23441334 0.00000000
1.99167341 0.00035008 -0.09171180 0.00000000
2.50590747 0.00829832 -0.21240308 0.00000000
0.59255566 0.00263606 -0.17728401 0.00000000
1.14756695 0.00354581 -0.09057597 0.00000000
3.55105544 -0.00110919 -0.09398484 0.00000000
4.13132251 0.00079047 -0.22716606 0.00000000
1.71859445 0.00094435 -0.23288353 0.00000000
3.96676664 0.00135147 -0.21591261 0.00000000
1.38011604 -0.00073127 -0.28577350 0.00000000
4.36127842 -0.00112271 -0.08055804 0.00000000
2.92177936 0.00048732 -0.09064107 0.00000000
1.90464847 0.00421932 -0.21052807 0.00000000
1.64142578 0.00159780 -0.00387545 0.00000000
1.33819148 0.00323046 -0.13647199 0.00000000
1.33117689 0.00689608 -0.27957399 0.00000000
0.88237508 0.00122814 -0.19298119 0.00000000
3.07363695 0.00243639 -0.28167599 0.00000000
1.60747196 0.00215988 -0.06135227 0.00000000
3.23329178 -0.00109831 -0.09348499 0.00000000
2.99429058 -0.00288103 -0.13021479 0.00000000
0.78005811 0.00087088 -0.13138477 0.00000000
2.36600934 -0.00128940 -0.01882480 0.00000000
2.33130249 0.00265203 -0.13829998 0.00000000
0.33574347 0.00133353 -0.12227282 0.00000000
1.16576451 -0.00252659 -0.13273518 0.00000000
3.43660071 0.00217653 -0.22863522 0.00000000
0.04513958 0.00046106 -0.22898085 0.00000000
1.31696930 0.00235468 -0.03427932 0.00000000
2.85795382 0.00097710 -0.21890806 0.00000000
2.18087394 0.00012305 -0.15864748 0.00000000
1.39177891 -0.00048378 -0.11804115 0.00000000
0.96006108 0.00661040 -0.19119511 0.00000000
4.06486617 0.00200597 -0.00329526 0.00000000
3.34796148 0.00494182 -0.20133828 0.00000000
2.65114196 -0.00172842 -0.15625932 0.00000000
0.24372067 -0.00012603 -0.09511589 0.00000000
2.09715698 0.00325374 -0.18704909 0.00000000
2.49125489 0.00256893 -0.27775556 0.00000000
0.99392348 -0.00064596 -0.14077865 0.00000000
3.68579466 0.00120271 -0.05358169 0.00000000
2.09229981 -0.00320632 -0.10328324 0.00000000
4.16065450 -0.00436678 -0.01190103 0.00000000
1.55404593 0.00455168 -0.01425620 0.00000000
0.00017856 0.00233594 -0.12832417 0.00000000
3.33676573 0.00399870 -0.10301664 0.00000000
4.36449765 0.00277492 -0.17880229 0.00000000
3.07403639 -0.00347435 -0.06183375 0.00000000
2.91572233 0.00184309 -0.10425446 0.00000000
2.21726864 0.00496833 -0.23544743 0.00000000
2.03429322 0.00264739 -0.11487818 0.00000000
0.06291224 0.00124980 -0.13733354 0.00000000
1.34250366 0.00653914 -0.28689464 0.00000000
3.47124223 0.00192785 -0.04061869 0.00000000
4.28241778 0.00288787 -0.03416302 0.00000000
0.97195502 0.00288539 -0.01008704 0.00000000
0.45647661 0.00280557 -0.17475807 0.00000000
0.21754055 0.00229696 -0.26286293 0.00000000
3.87528920 -0.00076066 -0.05156677 0.00000000
2.10151043 0.00705528 -0.20053955 0.00000000
3.06478157 0.00213411 -0.22703643 0.00000000
4.26567480 0.00346193 -0.22650576 0.00000000
1.74137408 -0.00120799 -0.08463220 0.00000000
1.74547259 0.00001353 -0.12419897 0.00000000
2.42135910 0.00239620 -0.00174339 0.00000000
1.78746202 -0.00487284 -0.18155252 0.00000000
3.34195719 0.00190559 -0.14466392 0.00000000
3.76762013 0.00264801 -0.24202374 0.00000000
2.04526833 0.00182088 -0.07554395 0.00000000
3.77967921 -0.00472134 -0.22752474 0.00000000
3.01885478 0.00231811 -0.21002668 0.00000000
4.37756729 0.00576982 -0.19105378 0.00000000
0.81570703 0.00482310 -0.23580610 0.00000000
0.98569885 0.00157075 -0.25166431 0.00000000
2.33624289 0.00502575 -0.19951969 0.00000000
0.16348077 0.00384378 -0.24607800 0.00000000
3.45717643 0.00362646 -0.26333089 0.00000000
0.35710085 0.00870114 -0.25168111 0.00000000
4.32468686 0.00594463 -0.17262993 0.00000000
3.06629773 -0.00185128 -0.17866663 0.00000000
2.01670119 0.00423883 -0.25116045 0.00000000
4.10002671 0.00299967 -0.17281626 0.00000000
1.39447654 0.00312669 -0.24628338 0.00000000
3.90594322 0.00207501 -0.25555638 0.00000000
1.37169489 -0.00028134 -0.12935899 0.00000000
2.19268327 -0.00190572 -0.08996371 0.00000000
1.29613782 0.00250687 -0.16947363 0.00000000
2.86612192 0.00352140 -0.23312136 0.00000000
0.76777941 0.00137759 -0.11761470 0.00000000
2.07507488 0.00761229 -0.24567479 0.00000000
0.99364604 -0.00042652 -0.15674119 0.00000000
3.61315035 0.00165429 -0.00698068 0.00000000
0.70908669 0.00158636 -0.02330228 0.00000000
3.91653908 -0.00048721 -0.00039248 0.00000000
2.99097239 0.00054435 -0.18613068 0.00000000
3.58290058 -0.00027943 -0.15930743 0.00000000
2.72895506 -0.00246602 -0.09052391 0.00000000
2.43910169 0.00062381 -0.09749956 0.00000000
1.06956349 0.00196785 -0.01111317 0.00000000
0.19139092 -0.00198459 -0.06700548 0.00000000
4.07989622 0.00363178 -0.16185110 0.00000000
3.18645708 -0.00223140 -0.28667872 0.00000000
0.04946904 -0.00009240 -0.19208281 0.00000000
4.47582414 -0.00074169 -0.03126558 0.00000000
4.45984196 0.00366913 -0.16898770 0.00000000
3.36946854 -0.00098515 -0.01749921 0.00000000
1.91293182 0.00632967 -0.18532279 0.00000000
4.33463586 -0.00131983 -0.07032294 0.00000000
2.55668514 -0.00111118 -0.16387535 0.00000000
0.14182224 0.00607021 -0.25996263 0.00000000
2.37961182 0.00261886 -0.16905711 0.00000000
0.49591867 0.00640906 -0.14832889 0.00000000
3.61135769 0.00563573 -0.13097303 0.00000000
3.91242918 0.00360749 -0.17325473 0.00000000
1.58834517 -0.00034587 -0.10272120 0.00000000
3.25320529 0.00254227 -0.05092271 0.00000000
3.92746336 -0.00184709 -0.08132292 0.00000000
2.12559410 0.00214757 -0.06456788 0.00000000
1.72293209 0.00159515 -0.11554240 0.00000000
