1.42918996 1.83672937 0.00147228 0.00000000
3.70068123 1.86285623 -0.00085251 0.00000000
1.62174020 1.53265244 -0.00085721 0.00000000
1.11028622 1.04386072 0.00161884 0.00000000
3.98756973 1.51058012 -0.00282560 0.00000000
3.73837808 0.71536006 0.00047252 0.00000000
1.81812655 1.40327549 0.00231505 0.00000000
3.34691799 0.92209040 0.00173819 0.00000000
2.52787758 0.13748243 -0.00085162 0.00000000
0.14746775 1.99603658 0.00108612 0.00000000
0.74284336 1.49727295 0.00099471 0.00000000
1.26734528 0.43363673 0.00615978 0.00000000
3.34679326 1.38989155 -0.00235891 0.00000000
1.66488378 0.79023400 -0.00148588 0.00000000
0.71658117 0.18299185 -0.00105744 0.00000000
2.55595614 1.18823320 -0.00231285 0.00000000
1.44344800 0.46257079 0.00269274 0.00000000
2.14829907 1.31405229 -0.00102223 0.00000000
2.19303213 0.20192837 -0.00120682 0.00000000
2.24425563 0.98180420 -0.00368767 0.00000000
3.80708624 1.45689553 -0.00002754 0.00000000
2.40464654 1.91092984 -0.00059717 0.00000000
2.17213072 0.49826029 -0.00221348 0.00000000
0.56460375 0.98907924 -0.00024449 0.00000000
3.91567128 0.12440779 -0.00202987 0.00000000
1.49128917 0.98069173 -0.00415380 0.00000000
1.70857219 0.43727907 0.00038770 0.00000000
1.96886503 0.29807207 -0.00098694 0.00000000
0.50654788 1.36734039 0.00310517 0.00000000
1.73071121 0.69245572 -0.00138927 0.00000000
1.44079098 0.89796609 0.00379419 0.00000000
2.85702047 0.98094862 -0.00353429 0.00000000
0.37157138 0.77001708 -0.00178259 0.00000000
1.71718380 1.53030057 -0.00203048 0.00000000
2.12573855 0.71146545 -0.00124463 0.00000000
2.63958450 1.72135859 -0.00350500 0.00000000
1.39024165 0.79773102 0.00059995 0.00000000
2.42260146 0.20528158 0.00166267 0.00000000
2.11142519 1.08685842 0.00241888 0.00000000
0.15958671 1.47233383 -0.00225847 0.00000000
3.03734941 0.36159366 -0.00065053 0.00000000
3.85808741 1.50438797 -0.00119000 0.00000000
2.40573995 1.95961522 0.00026026 0.00000000
1.70214062 0.12227962 -0.00049105 0.00000000
2.82625733 0.44025809 0.00022357 0.00000000
1.46099547 1.39316334 -0.00104363 0.00000000
2.96746476 1.17584367 0.00314811 0.00000000
2.47523673 0.61948691 0.00311633 0.00000000
1.98285068 1.11571002 -0.00085823 0.00000000
2.52255433 1.29146952 0.00281948 0.00000000
2.90068001 0.90157898 0.00493174 0.00000000
3.09369511 1.14091596 0.00371383 0.00000000
1.01618449 1.87979768 0.00060675 0.00000000
0.60188445 1.04159163 0.00156247 0.00000000
3.98385312 0.71015531 0.00067399 0.00000000
3.40669098 1.49046373 0.00040491 0.00000000
0.57390256 1.18613523 0.00129344 0.00000000
2.02416733 1.08892837 0.00196160 0.00000000
3.33330984 1.85781050 -0.00117922 0.00000000
1.61237225 0.87411002 -0.00061854 0.00000000
3.48012436 1.91882731 -0.00102490 0.00000000
3.64696900 0.43513616 -0.00115547 0.00000000
2.08923516 0.30911938 -0.00083363 0.00000000
0.04173207 1.22200356 0.00275624 0.00000000
1.21564512 1.69202470 -0.00080291 0.00000000
1.22394294 0.07311013 -0.00086130 0.00000000
0.52257999 1.93205461 -0.00164701 0.00000000
3.69364525 0.36325341 -0.00444497 0.00000000
3.28823215 0.18055591 -0.00375577 0.00000000
0.54820337 0.34798035 -0.00040913 0.00000000
0.93868865 1.23405566 0.00418360 0.00000000
1.95387144 0.91495361 -0.00121934 0.00000000
0.19285284 1.33635891 0.00281968 0.00000000
1.78815149 0.88045543 0.00074570 0.00000000
1.47565736 1.87147352 -0.00005249 0.00000000
0.22216679 0.00006297 0.00482677 0.00000000
2.16115544 1.82343444 0.00483842 0.00000000
1.24506961 1.89831808 -0.00015054 0.00000000
0.53552084 1.39113186 -0.00654138 0.00000000
0.24819959 0.84851372 0.00201799 0.00000000
2.36455146 1.32822986 -0.00194033 0.00000000
3.77741893 1.26907071 -0.00019540 0.00000000
1.97847257 1.38643065 -0.00214576 0.00000000
1.61335611 0.63908495 0.00002432 0.00000000
2.29266090 0.47336398 0.00099776 0.00000000
0.10267611 0.96076465 0.00308215 0.00000000
3.72639253 0.55322560 -0.00357672 0.00000000
0.96889430 1.01736127 0.00046005 0.00000000
0.47199777 1.39819494 0.00113853 0.00000000
3.28417607 0.80855834 -0.00449694 0.00000000
1.86820189 0.95058403 0.00089327 0.00000000
1.35350924 0.93699063 0.00121854 0.00000000
1.17012082 0.49710391 -0.00419115 0.00000000
1.02835584 1.74756447 -0.00111361 0.00000000
1.26746407 1.36598645 -0.00310243 0.00000000
2.53752941 1.77049239 0.00240952 0.00000000
3.02479940 1.98255309 -0.00059821 0.00000000
0.54055118 1.49810948 0.00032255 0.00000000
1.18388709 2.00909544 -0.00060901 0.00000000
0.33747169 1.61422256 -0.00264304 0.00000000
3.88305785 0.41167945 0.00147273 0.00000000
2.04268015 1.77657629 -0.00034397 0.00000000
0.28137173 0.44115040 0.00273433 0.00000000
3.82113477 1.09196997 -0.00014144 0.00000000
3.56445590 0.26845758 0.00275561 0.00000000
2.52005016 0.08618671 -0.00233731 0.00000000
2.20113476 0.81976027 -0.00310407 0.00000000
0.18960513 1.65567617 -0.00043423 0.00000000
1.81248184 0.12259497 -0.00084651 0.00000000
1.66703843 1.68843009 0.00011315 0.00000000
1.53859958 0.37058885 0.00280221 0.00000000
3.83984811 0.05764551 -0.00588517 0.00000000
2.55517725 1.64813784 0.00124153 0.00000000
1.68647193 0.56954942 -0.00145780 0.00000000
1.61838476 0.11791407 -0.00121390 0.00000000
1.78106643 0.42396500 -0.00451336 0.00000000
2.93781004 0.61231001 -0.00499887 0.00000000
1.61006690 1.05451427 0.00191009 0.00000000
1.07482764 0.52738006 -0.00106363 0.00000000
1.67908235 0.14052277 0.00172637 0.00000000
3.52409437 1.74665397 -0.00491612 0.00000000
1.53762713 1.50201592 -0.00092794 0.00000000
1.35562826 0.00560284 -0.00366665 0.00000000
1.79214003 0.58989530 -0.00098684 0.00000000
0.83841317 0.65947873 -0.00052752 0.00000000
2.05510299 0.93739707 0.00002259 0.00000000
2.65361011 0.66258990 -0.00126389 0.00000000
0.77237500 1.51658866 -0.00297980 0.00000000
3.07534225 1.53399956 -0.00013984 0.00000000
3.35238979 0.72190470 -0.00247253 0.00000000
0.12015246 0.05483521 -0.00019475 0.00000000
3.28873063 0.76956268 0.00156068 0.00000000
0.13636753 0.27734084 0.00047025 0.00000000
3.71373483 1.40949870 -0.00036357 0.00000000
2.33866480 0.90637853 -0.00581144 0.00000000
1.15625088 0.55003155 0.00037573 0.00000000
1.19331840 1.05146214 0.00142550 0.00000000
1.95895564 1.96748837 -0.00205226 0.00000000
2.06473986 0.45918377 -0.00160308 0.00000000
1.18200386 0.53727922 0.00104314 0.00000000
0.54232105 1.09823055 -0.00040658 0.00000000
0.53603920 1.85216831 -0.00022781 0.00000000
0.17974500 1.71581991 0.00302459 0.00000000
0.61054972 0.53377430 0.00167091 0.00000000
2.06082671 1.82406344 -0.00061519 0.00000000
0.16551727 0.76632946 0.00464335 0.00000000
2.42629752 1.97852605 0.00043301 0.00000000
0.21603867 0.20950850 0.00086687 0.00000000
3.05393069 0.05047793 -0.00129345 0.00000000
1.30047395 0.94890288 -0.00018073 0.00000000
3.09424241 0.90786045 0.00177749 0.00000000
0.19033595 1.66402001 -0.00018436 0.00000000
3.71470001 1.87664249 0.00314443 0.00000000
0.86528519 1.55375229 -0.00195565 0.00000000
2.38519171 0.90653819 -0.00140599 0.00000000
1.03160718 0.82346847 0.00057278 0.00000000
2.92151079 0.37394657 -0.00221193 0.00000000
1.98441293 0.13546388 0.00326318 0.00000000
1.67462505 1.32693772 0.00128693 0.00000000
0.37241975 0.10517224 0.00091172 0.00000000
3.05546756 0.09091112 -0.00218422 0.00000000
0.91933557 0.93008889 -0.00218306 0.00000000
2.77845841 1.69320023 -0.00019059 0.00000000
1.25408601 0.70044979 -0.00210792 0.00000000
3.59324481 0.05755488 -0.00093929 0.00000000
3.08170153 1.98885409 0.00250369 0.00000000
1.70016133 1.94002392 -0.00166740 0.00000000
0.56359494 0.80782034 -0.00166514 0.00000000
1.76645837 0.44623613 0.00100147 0.00000000
3.23072246 1.24621044 0.00018570 0.00000000
2.24491855 1.90218924 -0.00045735 0.00000000
1.96323530 1.25831986 -0.00167913 0.00000000
0.21165942 1.13016508 -0.00091030 0.00000000
1.89817929 1.58155336 0.00330791 0.00000000
3.65628759 1.77537230 0.00111296 0.00000000
2.12862690 0.08017524 0.00100865 0.00000000
2.04332837 1.30188619 0.00142873 0.00000000
1.88879682 0.58349290 0.00010258 0.00000000
1.04050410 1.96101008 -0.00227388 0.00000000
1.70816649 0.61880878 0.00237207 0.00000000
0.78796182 1.07131624 -0.00099989 0.00000000
0.90048213 1.51992735 0.00500590 0.00000000
2.09192065 1.15428532 -0.00002321 0.00000000
1.54923968 0.90381954 -0.00578968 0.00000000
1.51657299 0.03847907 0.00081480 0.00000000
2.10146054 1.55027595 -0.00356922 0.00000000
0.42612070 1.54396664 0.00115973 0.00000000
2.84360070 1.73375679 0.00277303 0.00000000
3.97182172 1.56260878 0.00068867 0.00000000
1.67545670 1.46939246 0.00265672 0.00000000
3.93589678 0.43835481 0.00060338 0.00000000
0.70964120 1.40447479 0.00272485 0.00000000
0.06464046 1.99599463 -0.00159086 0.00000000
3.97688192 0.78630029 0.00070965 0.00000000
0.47590316 1.50048159 -0.00475238 0.00000000
1.76298561 0.93962338 -0.00155664 0.00000000
2.82392210 0.53529930 0.00122478 0.00000000
1.51666870 0.02069734 -0.00200880 0.00000000
0.06326884 0.41107671 0.00287593 0.00000000
2.02018633 0.89312743 -0.00161196 0.00000000
2.28759736 0.22736921 -0.00203886 0.00000000
0.36056323 0.40665793 -0.00109636 0.00000000
1.19379593 0.65847522 -0.00085785 0.00000000
3.01341584 0.28132207 -0.00160391 0.00000000
1.13155987 0.86204059 -0.00543614 0.00000000
0.01394634 1.83645686 -0.00145011 0.00000000
2.89062990 0.00467054 -0.00214647 0.00000000
2.70157750 1.74930633 -0.00123828 0.00000000
3.87128087 0.88520970 -0.00241591 0.00000000
2.69246507 1.35709019 0.00081797 0.00000000
3.79479003 1.10765564 0.00242800 0.00000000
3.96147408 1.77022343 0.00204987 0.00000000
1.62497155 1.64654187 0.00395500 0.00000000
3.33256537 0.61397440 -0.00039538 0.00000000
0.26212455 0.34930392 -0.00200594 0.00000000
0.11379610 0.09382603 0.00004934 0.00000000
1.12510601 1.09324356 0.00349514 0.00000000
0.09683296 0.35132209 -0.00024637 0.00000000
0.76875178 0.07772084 0.00005197 0.00000000
1.16714112 0.60844141 0.00798135 0.00000000
0.57377793 1.56245724 -0.00140543 0.00000000
0.25103608 1.80552535 -0.00087954 0.00000000
0.11388339 0.62646781 -0.00050912 0.00000000
2.90739380 0.04250265 0.00003145 0.00000000
0.46445013 1.99129534 0.00090654 0.00000000
2.56045534 0.04781874 0.00078291 0.00000000
1.22805578 1.10983752 0.00279015 0.00000000
1.41185333 0.47678553 0.00143170 0.00000000
3.39116656 1.08386328 -0.00198129 0.00000000
0.64891776 0.90125477 -0.00060799 0.00000000
1.81925348 1.58066461 -0.00552435 0.00000000
2.07228146 0.13848532 -0.00280867 0.00000000
0.87621715 0.28452320 0.00149707 0.00000000
1.19538725 1.18522475 -0.00150514 0.00000000
1.08062942 1.79751734 0.00526179 0.00000000
1.79516978 1.65417298 -0.00310516 0.00000000
2.17627243 0.71837965 -0.00190599 0.00000000
1.04925231 1.84375144 -0.00189737 0.00000000
2.44663928 1.49647730 -0.00563830 0.00000000
3.99461441 1.12907418 -0.00425414 0.00000000
2.34371509 0.14022520 0.00291928 0.00000000
1.44722442 0.05889396 -0.00093773 0.00000000
2.98122214 0.95538021 -0.00195324 0.00000000
1.02527105 0.96669161 -0.00119737 0.00000000
0.15538299 0.31098072 -0.00125250 0.00000000
2.58953622 0.32558709 -0.00209734 0.00000000
0.71016067 0.59743087 0.00046835 0.00000000
0.07621159 0.12501940 -0.00249465 0.00000000
2.28128234 1.62387989 -0.00338085 0.00000000
3.40011833 1.03634941 -0.00516000 0.00000000
2.70400548 0.70431285 0.00149439 0.00000000
2.79065387 1.45997237 0.00401102 0.00000000
3.05464777 1.40962682 -0.00400517 0.00000000
1.57029867 1.02917531 -0.00647445 0.00000000
0.68567763 0.14054866 -0.00351688 0.00000000
1.71880149 0.59122030 -0.00159528 0.00000000
3.21369883 0.34230773 0.00232830 0.00000000
2.84357916 1.12744340 -0.00365963 0.00000000
1.98083839 0.92757213 0.00124266 0.00000000
0.17280757 1.55706094 0.00177603 0.00000000
0.31215379 0.73046578 0.00288410 0.00000000
0.48523386 1.61079162 -0.00294433 0.00000000
1.01390016 1.90165653 0.00117532 0.00000000
3.56063143 0.38377902 0.00078049 0.00000000
2.30430627 1.91028433 -0.00354778 0.00000000
1.20222708 0.55391718 0.00453417 0.00000000
1.85268522 1.86919172 0.00179496 0.00000000
3.67886122 0.99794965 -0.00022334 0.00000000
1.48645653 0.26464769 -0.00583826 0.00000000
0.21265567 1.28152889 -0.00127274 0.00000000
3.71580941 1.39529931 -0.00062115 0.00000000
2.95115680 1.60936591 0.00663586 0.00000000
0.89086452 1.89150584 -0.00374208 0.00000000
1.83655343 1.75617485 -0.00348339 0.00000000
1.82119095 0.99791422 0.00147077 0.00000000
3.31505407 1.62277475 0.00169291 0.00000000
1.25458985 1.89383120 -0.00444856 0.00000000
1.09354605 0.15279599 0.00063015 0.00000000
1.39462284 0.15391151 0.00346165 0.00000000
0.47668635 1.99128531 0.00355678 0.00000000
1.84518383 0.20922505 -0.00135444 0.00000000
3.78823916 0.67387343 -0.00345810 0.00000000
3.94988597 0.54533608 0.00120259 0.00000000
2.85041643 0.19869360 -0.00347229 0.00000000
0.97544822 0.58287636 -0.00144936 0.00000000
3.92465596 1.73304499 0.00002056 0.00000000
3.52937110 1.96650277 -0.00046823 0.00000000
0.92526103 1.04834354 -0.00058802 0.00000000
2.88512795 0.56235084 0.00018351 0.00000000
1.92362970 0.30820069 -0.00261948 0.00000000
2.65139386 1.25027517 0.00041596 0.00000000
3.15143809 0.82717130 -0.00430464 0.00000000
0.98196222 0.69329248 -0.00092910 0.00000000
1.83724240 1.70242125 0.00019242 0.00000000
3.88117728 1.52581471 -0.00389713 0.00000000
2.25479482 0.13899955 -0.00032426 0.00000000
1.02755009 1.89020220 -0.00071353 0.00000000
0.26376649 1.17662562 -0.00049035 0.00000000
3.68102796 0.17678838 -0.00139022 0.00000000
0.53596780 0.22308751 -0.00002765 0.00000000
3.38599871 0.28976154 -0.00019281 0.00000000
2.05234622 1.16983309 -0.00093581 0.00000000
0.88572184 1.18739614 0.00102725 0.00000000
2.66441486 1.20273919 -0.00328104 0.00000000
2.27440454 0.34559899 -0.00226782 0.00000000
3.06024814 2.00077381 0.00063664 0.00000000
1.75846961 1.47524825 -0.00429770 0.00000000
0.15280680 0.70889562 -0.00182846 0.00000000
0.66101919 0.78186166 -0.00082846 0.00000000
1.36423400 1.05906845 -0.00278577 0.00000000
3.08719566 0.73609151 -0.00943808 0.00000000
3.97860180 0.65237764 -0.00086935 0.00000000
2.91587005 1.87559083 -0.00150301 0.00000000
2.67730391 1.89078737 0.00317982 0.00000000
2.48180618 0.57970199 0.00231072 0.00000000
1.50480887 1.79044799 0.00498548 0.00000000
2.30529861 2.01249754 -0.00198199 0.00000000
2.74953459 1.42346711 0.00146823 0.00000000
0.01917629 1.93172421 0.00102992 0.00000000
0.16037161 1.38678590 0.00462004 0.00000000
3.12262749 1.18088753 0.00142139 0.00000000
3.69503388 0.86458334 0.00026450 0.00000000
1.48830940 0.10652755 0.00203058 0.00000000
1.37676337 1.94607520 0.00430438 0.00000000
2.25884373 0.53957696 0.00337777 0.00000000
1.64371477 1.47068149 0.00648199 0.00000000
2.11553143 0.85717180 0.00028644 0.00000000
0.55101202 1.08123438 0.00264231 0.00000000
1.41718003 0.79109405 0.00193714 0.00000000
2.84188101 1.91693582 0.00128234 0.00000000
1.94358992 0.77684715 -0.00041948 0.00000000
3.23949742 0.85916410 -0.00113737 0.00000000
2.81439820 0.87406007 -0.00411975 0.00000000
3.05494830 0.40255560 0.00137265 0.00000000
2.82684748 1.15629955 -0.00016046 0.00000000
0.76466301 1.10603349 0.00474131 0.00000000
3.74385360 0.70540109 0.00632795 0.00000000
3.60194146 1.22468170 -0.00005150 0.00000000
1.05368789 0.48252924 -0.00223983 0.00000000
3.12131675 0.48682005 0.00344065 0.00000000
1.90621070 1.20965432 -0.00133565 0.00000000
0.10468525 1.91281606 -0.00112793 0.00000000
2.96448318 1.21587298 -0.00384264 0.00000000
3.43149636 0.68749423 0.00169737 0.00000000
3.30346768 0.72863883 -0.00551369 0.00000000
3.73783266 0.57290207 0.00248705 0.00000000
3.60521966 1.56157028 0.00357823 0.00000000
3.28787161 1.40723228 -0.00329397 0.00000000
3.79538915 1.67627590 -0.00499460 0.00000000
2.27524703 1.59560623 0.00028233 0.00000000
3.21576003 1.55085778 -0.00260042 0.00000000
0.95436164 0.50315470 0.00120524 0.00000000
3.04096928 0.85428688 0.00427725 0.00000000
0.22541785 1.22824999 0.00323620 0.00000000
2.96389274 0.20850422 0.00126493 0.00000000
2.81535363 1.63743789 0.00319774 0.00000000
3.81111233 1.64476292 -0.00102930 0.00000000
1.87005712 0.97459646 -0.00303680 0.00000000
1.39039105 1.27912582 -0.00608498 0.00000000
2.04522117 2.01080477 -0.00036795 0.00000000
1.86738250 0.21853144 -0.00211286 0.00000000
1.31669040 0.28491124 -0.00211353 0.00000000
2.00492504 1.48476641 0.00103432 0.00000000
1.43518372 0.75980855 -0.00239028 0.00000000
3.07365620 1.42985535 -0.00457318 0.00000000
0.35628274 0.19250433 0.00014388 0.00000000
1.21749234 0.76585119 0.00098088 0.00000000
0.40877920 0.10029627 0.00121406 0.00000000
0.54310499 1.83766234 -0.00247148 0.00000000
3.77314744 0.12392048 -0.00054494 0.00000000
1.86472174 1.53153734 -0.00237645 0.00000000
1.57171002 0.14083685 0.00065397 0.00000000
0.59761725 1.75644649 0.00039756 0.00000000
0.68874953 1.84125004 -0.00210395 0.00000000
0.62438675 1.21546392 0.00024302 0.00000000
1.34594051 1.90447453 0.00314085 0.00000000
1.82136492 1.10906961 0.00147278 0.00000000
1.65367910 0.30071957 -0.00020374 0.00000000
2.98794368 0.58322090 -0.00186239 0.00000000
3.77020915 1.48857953 -0.00248619 0.00000000
3.36695441 1.49037686 0.00206221 0.00000000
0.25237221 1.38185767 0.00252874 0.00000000
1.96583881 1.93298855 -0.00257425 0.00000000
1.58377253 0.89454775 -0.00182254 0.00000000
2.97711747 1.84501435 -0.00331442 0.00000000
3.70489204 0.75150969 -0.00079379 0.00000000
3.84660852 0.94062602 0.00066308 0.00000000
1.90795419 1.99714873 0.00323490 0.00000000
2.67713401 1.79493741 0.00254273 0.00000000
1.11806898 1.14300678 0.00431328 0.00000000
3.03017123 0.68415809 -0.00103240 0.00000000
3.66759296 0.76533767 0.00268546 0.00000000
0.25032745 0.59755692 0.00018501 0.00000000
2.25452245 0.02724618 0.00025989 0.00000000
3.76530693 1.69730885 -0.00092023 0.00000000
3.29492057 1.51793130 -0.00112068 0.00000000
3.75462295 0.12918738 -0.00114391 0.00000000
3.36295052 0.74684525 0.00117530 0.00000000
1.32317475 0.80782643 -0.00041206 0.00000000
2.13771053 1.79439818 -0.00090545 0.00000000
1.08430957 1.34749689 -0.00249784 0.00000000
0.42631858 1.95820455 -0.00299232 0.00000000
1.62297401 1.26896982 -0.00170545 0.00000000
2.00071122 0.33783640 -0.00177511 0.00000000
4.00228815 0.07494318 -0.00178599 0.00000000
2.39267271 0.60103601 0.00038133 0.00000000
1.11667619 1.34226316 -0.00300794 0.00000000
3.62668973 1.43667637 -0.00105986 0.00000000
0.57175696 0.86730975 -0.00447886 0.00000000
2.69608221 0.91460630 -0.00004325 0.00000000
0.57945828 0.62240997 0.00097874 0.00000000
2.08885921 1.04506973 -0.00295289 0.00000000
3.32916367 0.50163874 0.00343216 0.00000000
0.62349758 0.25667259 -0.00319467 0.00000000
3.05601006 0.30070725 0.00067503 0.00000000
3.83644895 0.30743469 -0.00308684 0.00000000
0.69753821 1.34916541 0.00051831 0.00000000
2.15902061 0.10335537 -0.00485145 0.00000000
0.79576709 0.73820202 0.00596450 0.00000000
2.57312081 1.64134011 0.00518358 0.00000000
0.97835822 0.83270973 -0.00289324 0.00000000
2.02978896 1.84254323 0.00014681 0.00000000
1.27962996 0.23980846 -0.00279342 0.00000000
3.04904642 0.19509980 -0.00108363 0.00000000
0.37377740 0.09661744 0.00038523 0.00000000
3.99425400 0.52699919 0.00057353 0.00000000
0.84961422 1.91368683 0.00105430 0.00000000
1.09138232 0.35800679 -0.00021136 0.00000000
2.18310985 0.12290652 0.00023323 0.00000000
3.54627412 0.01288540 0.00197920 0.00000000
2.49449953 1.59137054 -0.00144082 0.00000000
3.53446318 1.90177844 -0.00187985 0.00000000
1.35980424 0.16894332 0.00098004 0.00000000
2.79092260 0.17478159 0.00138836 0.00000000
3.82393787 0.68372879 0.00083786 0.00000000
0.93724077 0.45882858 0.00003912 0.00000000
0.08028937 0.88995700 -0.00265294 0.00000000
4.00864841 1.00931071 0.00359256 0.00000000
2.44149913 1.42485707 0.00012679 0.00000000
3.46477080 0.21221343 0.00040140 0.00000000
1.14378769 0.29436174 -0.00144639 0.00000000
2.80459805 0.91749751 -0.00017746 0.00000000
3.78511254 0.95477856 0.00148958 0.00000000
1.42597417 1.47416657 0.00053867 0.00000000
2.34038837 1.83763121 0.00117102 0.00000000
3.01363735 0.69447967 -0.00284396 0.00000000
2.39073481 0.76354543 -0.00066430 0.00000000
2.45282369 0.54443413 -0.00102179 0.00000000
1.07277513 0.50013270 -0.00521710 0.00000000
0.09196260 1.63953341 0.00387572 0.00000000
2.42457709 0.35525245 -0.00136292 0.00000000
1.71700767 0.34617628 -0.00357010 0.00000000
3.67639610 0.15172851 -0.00199784 0.00000000
3.55783382 0.64026772 -0.00028696 0.00000000
0.06041658 1.41718373 -0.00082378 0.00000000
2.72439627 1.48184832 0.00449839 0.00000000
2.38389222 0.38309423 -0.00177168 0.00000000
2.64510841 0.01744472 0.00132981 0.00000000
0.13982147 0.33164220 -0.00143287 0.00000000
2.05834209 0.73904285 0.00295875 0.00000000
2.17342220 0.70115835 -0.00092060 0.00000000
0.99976255 1.93876102 -0.00063942 0.00000000
2.74744883 1.65536549 0.00032766 0.00000000
1.52492294 1.44110190 -0.00123237 0.00000000
1.12987125 1.88638883 0.00146176 0.00000000
0.42650323 0.93441995 0.00615065 0.00000000
1.73501037 1.57281762 0.00096394 0.00000000
1.35367112 0.27106174 -0.00324090 0.00000000
1.26622017 0.37701579 0.00066680 0.00000000
0.35918720 0.04535290 -0.00228877 0.00000000
0.57350523 0.29140621 0.00048513 0.00000000
2.03749157 1.45792528 0.00123742 0.00000000
3.97639899 1.23334408 0.00208242 0.00000000
1.57171272 0.49402661 0.00093364 0.00000000
3.40128005 0.91471772 -0.00148300 0.00000000
3.38756913 0.24918409 -0.00615434 0.00000000
3.05782090 1.86215674 -0.00038785 0.00000000
2.39337985 1.85209991 0.00152512 0.00000000
1.07496775 1.79384759 -0.00236956 0.00000000
0.05485629 0.88867040 -0.00285725 0.00000000
0.76471723 1.08047774 0.00160847 0.00000000
3.53928919 0.49538068 0.00150897 0.00000000
1.06919009 1.96861290 0.00094413 0.00000000
0.14233223 1.29911428 -0.00256505 0.00000000
3.67577590 1.02590085 -0.00279662 0.00000000
1.71302708 0.30042160 0.00591258 0.00000000
1.99766847 1.73908287 0.00093072 0.00000000
1.63461142 1.30379888 -0.00173294 0.00000000
0.17872743 0.59660171 -0.00181151 0.00000000
2.21223991 1.40114765 0.00192082 0.00000000
0.85826569 1.60634340 -0.00467494 0.00000000
0.35379264 1.71275460 -0.00636992 0.00000000
1.51305775 1.16069793 -0.00352240 0.00000000
3.88072612 1.37574077 0.00048811 0.00000000
0.06760469 1.55139588 -0.00060332 0.00000000
3.81513366 1.26329403 0.00279576 0.00000000
3.79599913 0.55941437 0.00024252 0.00000000
1.35384617 0.96767505 -0.00337304 0.00000000
4.03012407 0.84019827 0.00249594 0.00000000
0.95795998 0.40957505 0.00172286 0.00000000
1.65887042 1.07995539 0.00056226 0.00000000
0.36568832 1.25963317 -0.00149328 0.00000000
2.32850994 1.96362326 0.00493837 0.00000000
1.33898183 1.74926317 0.00376813 0.00000000
3.48616091 1.91385324 0.00365700 0.00000000
0.14123841 1.55672449 -0.00157648 0.00000000
1.94992033 1.73438926 -0.00262442 0.00000000
1.49120460 0.95442319 0.00255131 0.00000000
2.84167650 1.20096158 -0.00073821 0.00000000
1.68077505 1.93907834 0.00248488 0.00000000
2.89013772 1.25159641 0.00006535 0.00000000
1.90703466 1.78290686 0.00066408 0.00000000
1.60589525 1.15317225 0.00302585 0.00000000
2.37883432 1.88369876 -0.00127682 0.00000000
1.32465973 1.32863586 0.00041441 0.00000000
0.82670482 0.21380001 0.00176486 0.00000000
3.18403063 0.07675941 0.00450323 0.00000000
2.46136409 0.79490161 -0.00173605 0.00000000
0.48201078 0.53013022 -0.00033480 0.00000000
3.24803329 0.44863079 0.00189041 0.00000000
0.10485173 1.11666040 -0.00042778 0.00000000
2.64242225 0.86804698 0.00037805 0.00000000
0.00380472 1.34931315 0.00286608 0.00000000
1.18556432 1.17856486 0.00105115 0.00000000
2.02799281 1.74637742 0.00123018 0.00000000
3.70282896 1.47940019 -0.00123409 0.00000000
1.41878974 1.78187103 0.00086654 0.00000000
4.02270881 1.22115932 -0.00139502 0.00000000
1.36748294 1.53947045 -0.00123410 0.00000000
0.18701907 0.27376780 0.00064418 0.00000000
1.93813002 0.08232751 -0.00115967 0.00000000
1.44440821 0.91933852 -0.00218053 0.00000000
2.65301262 0.92394914 -0.00034861 0.00000000
1.50355714 0.79416278 0.00680926 0.00000000
2.43821992 0.35274647 -0.00162321 0.00000000
2.25551993 1.57433550 -0.00189499 0.00000000
1.12231251 1.40644568 0.00007115 0.00000000
1.25648679 0.23873746 -0.00282712 0.00000000
2.66495410 1.21132552 0.00125222 0.00000000
3.72980088 0.30111277 -0.00321766 0.00000000
2.75888228 0.41472847 -0.00198304 0.00000000
1.70887108 1.74467235 0.00201782 0.00000000
0.55639267 0.54869451 0.00365175 0.00000000
2.63422369 0.45339939 -0.00000487 0.00000000
3.88638677 0.76879445 0.00376201 0.00000000
0.99921229 1.61544325 0.00194729 0.00000000
0.58792975 1.30527661 0.00382475 0.00000000
1.20342902 1.30863014 0.00292798 0.00000000
1.20219542 1.86735753 -0.00233072 0.00000000
2.85321498 0.54857112 0.00216087 0.00000000
1.83950336 1.43206033 0.00188375 0.00000000
2.54248908 0.89617160 -0.00361112 0.00000000
3.75943410 0.73535774 0.00008384 0.00000000
3.25726103 1.72271050 -0.00470572 0.00000000
0.33289158 0.98340678 -0.00152918 0.00000000
3.18371033 1.67183067 0.00395505 0.00000000
1.54197335 1.74075898 0.00185196 0.00000000
2.19692430 1.21141692 0.00159330 0.00000000
2.20618398 1.27973041 0.00504510 0.00000000
1.72251952 0.30620200 0.00261925 0.00000000
0.12740470 0.88089067 -0.00050747 0.00000000
0.94592773 0.23872547 -0.00086732 0.00000000
3.49299838 0.52696268 0.00080616 0.00000000
3.16808175 0.02749457 0.00277671 0.00000000
2.95379198 0.65267952 -0.00191463 0.00000000
1.98928439 1.23521328 -0.00054021 0.00000000
1.22124140 1.11679230 -0.00299373 0.00000000
1.12276931 0.94418648 0.00341494 0.00000000
0.10008569 1.17143498 0.00255955 0.00000000
1.95932706 1.22443673 -0.00049002 0.00000000
0.23124917 0.97942296 -0.00030764 0.00000000
1.48425345 0.97977812 0.00159922 0.00000000
0.96704573 1.02139686 0.00098434 0.00000000
2.38937017 0.35961044 0.00091833 0.00000000
1.13672929 0.54339258 -0.00216238 0.00000000
0.94220419 1.75731152 0.00108133 0.00000000
0.27461066 1.05468416 -0.00370178 0.00000000
0.95612402 1.14980709 0.00080015 0.00000000
0.62386421 0.83936062 0.00075759 0.00000000
1.62478861 0.91670931 0.00149156 0.00000000
2.49774541 1.04144329 0.00043556 0.00000000
2.60371632 0.88290273 0.00122546 0.00000000
3.61391598 1.49843840 0.00291590 0.00000000
3.00527531 1.73256019 0.00033332 0.00000000
0.45099618 1.69106049 0.00151745 0.00000000
3.34201320 1.36876207 -0.00216175 0.00000000
1.13728036 0.67083749 -0.00086203 0.00000000
1.63566559 0.71399552 0.00313677 0.00000000
2.71556349 0.27762537 -0.00384903 0.00000000
0.29823440 0.40786337 -0.00266008 0.00000000
0.05956491 0.89876743 -0.00233143 0.00000000
1.76758844 0.92051655 0.00118085 0.00000000
3.51571126 1.33446129 -0.00046113 0.00000000
3.32250168 1.30513471 -0.00200339 0.00000000
1.33607290 0.51982389 -0.00315775 0.00000000
3.40787897 1.04702216 -0.00128623 0.00000000
0.29056967 1.88991439 0.00017066 0.00000000
3.56171080 0.64309159 -0.00128567 0.00000000
0.32608517 0.22185603 0.00358119 0.00000000
1.23054532 1.74548494 0.00210641 0.00000000
3.02229912 0.66470895 0.00021807 0.00000000
1.54295124 0.50540115 0.00125034 0.00000000
2.36589619 1.36313619 -0.00139894 0.00000000
3.39455002 1.61129611 -0.00485620 0.00000000
1.75417748 1.93078919 -0.00136667 0.00000000
1.03852179 0.24137780 -0.00006817 0.00000000
2.09857520 0.07756723 0.00157351 0.00000000
3.50026469 1.18186961 0.00243644 0.00000000
3.41556182 0.02896873 -0.00074914 0.00000000
1.03114067 1.61336270 -0.00168313 0.00000000
3.29747195 1.18004633 -0.00038641 0.00000000
3.75382661 1.70051891 -0.00399866 0.00000000
3.86615925 1.15113095 0.00695512 0.00000000
2.09788802 0.95767392 0.00114432 0.00000000
1.27518244 1.73783463 0.00120905 0.00000000
1.58312563 0.68084273 -0.00266892 0.00000000
2.20731308 1.34419985 -0.00340925 0.00000000
3.88582340 1.21998901 -0.00079080 0.00000000
2.87866076 0.02652994 -0.00228682 0.00000000
0.28257407 1.57217195 -0.00018046 0.00000000
2.87160054 0.76692612 -0.00171559 0.00000000
0.53975914 1.47866106 0.00513787 0.00000000
0.76863644 1.02859610 -0.00014153 0.00000000
1.70552494 1.01933225 -0.00371381 0.00000000
3.55791268 0.69098784 0.00269337 0.00000000
0.25934041 1.17428197 -0.00182490 0.00000000
3.68758808 1.28162550 -0.00064063 0.00000000
3.00144577 0.13662695 -0.00082277 0.00000000
2.78100707 0.75257079 -0.00111909 0.00000000
2.06251747 1.35967930 0.00139089 0.00000000
0.12047661 0.21914775 -0.00157181 0.00000000
1.84753605 0.76979585 0.00099040 0.00000000
1.16986120 1.66863158 0.00190989 0.00000000
3.81332112 1.52081138 -0.00081971 0.00000000
3.70688930 0.14937650 -0.00054206 0.00000000
2.39349823 1.39851209 0.00011993 0.00000000
3.66223502 1.50802301 0.00143554 0.00000000
0.17610708 1.16797959 0.00379532 0.00000000
2.68834905 0.61107643 -0.00198857 0.00000000
1.23980584 1.10321658 0.00225846 0.00000000
2.74496737 0.66830118 0.00132960 0.00000000
0.66044570 1.66924328 -0.00166048 0.00000000
1.01194322 0.93291726 0.00237409 0.00000000
1.68814531 1.31660967 0.00520588 0.00000000
0.47791624 0.74728798 -0.00134289 0.00000000
2.02542638 1.70575381 0.00169979 0.00000000
2.09988599 1.69316758 -0.00404172 0.00000000
1.40059360 1.80143107 -0.00346156 0.00000000
2.87523394 0.08952924 0.00013978 0.00000000
0.69682548 0.71047954 0.00131786 0.00000000
1.57337701 1.91800150 0.00519082 0.00000000
4.01628475 1.70703092 -0.00267201 0.00000000
2.51080170 0.26188059 -0.00012594 0.00000000
3.72315167 0.00945836 0.00336622 0.00000000
2.15213503 1.83250403 -0.00036099 0.00000000
0.01048392 1.39861348 0.00474233 0.00000000
3.35196550 0.51472335 0.00095290 0.00000000
0.75342378 0.04199358 0.00053584 0.00000000
3.98470192 1.19944910 0.00055375 0.00000000
3.11098857 1.28411560 -0.00205903 0.00000000
3.56146058 0.65657915 0.00347959 0.00000000
3.09859113 1.75091144 -0.00384463 0.00000000
2.71797353 0.46495986 -0.00167744 0.00000000
3.31489178 1.27781330 -0.00088487 0.00000000
1.70570132 1.86529383 0.00168498 0.00000000
0.56187856 1.47216212 -0.00113789 0.00000000
3.53312224 1.57602553 -0.00225540 0.00000000
0.68667092 1.81919932 -0.00446190 0.00000000
0.44202015 0.99257311 -0.00152392 0.00000000
0.54788025 0.08887311 -0.00511940 0.00000000
0.63781000 0.59272963 0.00320907 0.00000000
3.43665080 1.23157224 -0.00143409 0.00000000
2.13917134 1.99999545 0.00117590 0.00000000
1.51131932 1.14401920 -0.00039346 0.00000000
3.91797613 0.57330784 0.00175682 0.00000000
2.37827504 1.90987509 0.00163880 0.00000000
3.50353265 1.27751332 -0.00023113 0.00000000
0.50738822 1.16891726 -0.00071827 0.00000000
0.99897649 0.53549339 -0.00054972 0.00000000
1.99971092 1.87731954 0.00224150 0.00000000
2.26766825 0.69344043 0.00156003 0.00000000
3.08803342 0.58708430 -0.00097278 0.00000000
0.94886320 0.52076735 -0.00133468 0.00000000
3.29651517 1.58502003 -0.00160330 0.00000000
0.24085280 1.32589565 -0.00103256 0.00000000
3.66886509 0.03470673 -0.00051289 0.00000000
2.30322854 0.49647469 0.00188061 0.00000000
1.99133084 1.85576985 0.00121031 0.00000000
1.29723063 0.09567574 -0.00039496 0.00000000
0.17971147 0.03540673 0.00135368 0.00000000
0.80044972 1.44349003 -0.00179869 0.00000000
2.73342148 0.88167777 -0.00406248 0.00000000
2.77248536 1.82909085 -0.00349284 0.00000000
3.48542673 1.79629758 0.00312887 0.00000000
2.34870704 0.00833552 0.00207060 0.00000000
0.68622937 1.75436560 0.00226698 0.00000000
2.75253354 0.96240921 0.00468753 0.00000000
0.54375916 0.31101434 -0.00341156 0.00000000
3.96789398 0.90819330 -0.00031715 0.00000000
3.62527763 0.02001997 0.00410164 0.00000000
0.74883487 1.54495440 -0.00080361 0.00000000
2.51646671 1.41018783 -0.00057119 0.00000000
1.66509962 1.45817473 -0.00619639 0.00000000
3.06568784 1.36552187 -0.00050959 0.00000000
0.38017918 0.82952671 0.00185632 0.00000000
1.70655935 0.38681216 -0.00177668 0.00000000
3.93422112 1.11946922 0.00239277 0.00000000
1.48262589 1.00468927 -0.00416416 0.00000000
0.30143357 1.23707100 -0.00203820 0.00000000
0.42164345 0.49857810 -0.00055824 0.00000000
1.47988720 0.33028570 -0.00127392 0.00000000
1.21223195 0.02891436 -0.00185303 0.00000000
1.27296692 0.23718596 -0.00740641 0.00000000
0.16257676 1.98016865 0.00207061 0.00000000
2.43166848 1.66845980 0.00126686 0.00000000
3.70725978 1.17234529 -0.00045794 0.00000000
1.43427265 0.15776738 0.00532105 0.00000000
3.45965989 1.03031947 -0.00046288 0.00000000
1.55041078 1.15177263 -0.00200772 0.00000000
1.66028327 1.95823695 -0.00039468 0.00000000
1.38140755 1.33905749 0.00017430 0.00000000
0.13622294 0.29896884 -0.00152755 0.00000000
0.93097454 0.24117399 -0.00011006 0.00000000
0.98180923 0.04491219 0.00251537 0.00000000
3.67255560 0.35516289 0.00081430 0.00000000
2.29584278 1.97353672 -0.00411594 0.00000000
1.03735937 0.29577552 -0.00304133 0.00000000
2.36036472 1.48138497 0.00202869 0.00000000
1.94579836 1.13872586 0.00109622 0.00000000
0.50990088 1.29205622 -0.00287957 0.00000000
1.47240703 0.48905776 -0.00047283 0.00000000
1.03625858 0.06569757 -0.00069214 0.00000000
3.66004362 0.21580269 0.00164546 0.00000000
1.40533600 1.34862015 0.00196575 0.00000000
3.11622400 1.27266615 0.00302398 0.00000000
1.64402268 0.43376550 -0.00035126 0.00000000
0.93513578 1.05856915 -0.00461200 0.00000000
1.01419611 1.86618086 -0.00277531 0.00000000
1.08374779 1.90293239 -0.00047911 0.00000000
0.65386068 0.48115679 -0.00193135 0.00000000
1.61339632 0.88015843 -0.00427138 0.00000000
0.32055008 1.00925431 0.00275544 0.00000000
1.78417028 1.43472447 0.00197373 0.00000000
3.41497233 1.48029486 0.00218323 0.00000000
2.38417096 1.29728706 0.00370203 0.00000000
0.54145549 0.77741143 -0.00075395 0.00000000
0.89536019 0.04399442 -0.00194566 0.00000000
3.97007585 0.55211881 -0.00150238 0.00000000
1.12890453 1.32794712 0.00367028 0.00000000
3.52725130 1.02630455 -0.00157008 0.00000000
1.45286477 0.43593710 0.00374822 0.00000000
2.72019184 0.63768314 -0.00115081 0.00000000
1.81410084 1.67695954 0.00051393 0.00000000
1.81246807 0.65189222 0.00216053 0.00000000
3.57367485 1.18882330 -0.00253098 0.00000000
1.00104449 0.75607283 -0.00143048 0.00000000
0.94458366 1.95886105 0.00000261 0.00000000
0.31892766 1.20477547 0.00398931 0.00000000
0.28299921 0.54273075 0.00322927 0.00000000
4.02229889 0.26464745 0.00232080 0.00000000
1.27168784 2.00079042 -0.00420600 0.00000000
1.15704133 2.00550990 -0.00122300 0.00000000
2.91296875 1.53855529 0.00165250 0.00000000
3.71485349 1.05276071 0.00050158 0.00000000
0.88086064 1.78478034 -0.00102645 0.00000000
3.11648167 1.23315716 0.00173670 0.00000000
2.52916080 0.85072014 0.00069668 0.00000000
3.42310182 1.31256202 -0.00139004 0.00000000
2.64482610 0.34747460 0.00214476 0.00000000
0.79792801 1.23209196 0.00395994 0.00000000
3.11835194 0.93852234 0.00199721 0.00000000
0.89792866 0.94767803 0.00416343 0.00000000
0.49593927 1.19986373 0.00089924 0.00000000
2.12955597 0.90454001 0.00235665 0.00000000
0.83874952 1.12068873 0.00169113 0.00000000
2.52491448 1.09410373 0.00024671 0.00000000
2.73469851 1.58189779 -0.00435300 0.00000000
1.91686597 0.90818674 -0.00299910 0.00000000
2.70392947 0.48417454 -0.00367106 0.00000000
0.84271001 0.57908598 -0.00723247 0.00000000
0.11723985 1.70669264 0.00147570 0.00000000
1.81904517 1.65592207 -0.00286690 0.00000000
2.62996979 0.21530927 0.00236054 0.00000000
3.46918285 1.49054647 0.00043322 0.00000000
1.62567889 0.35309554 0.00245516 0.00000000
2.65206136 1.97932508 0.00107386 0.00000000
3.51907434 0.43863354 0.00062114 0.00000000
2.90530931 0.70478070 -0.00422315 0.00000000
3.34353172 1.86390041 0.00100743 0.00000000
3.44859013 1.73400693 0.00476569 0.00000000
0.46603384 0.13258814 -0.00254712 0.00000000
3.14775497 1.42620902 0.00348065 0.00000000
2.02996999 1.21724195 0.00038020 0.00000000
0.64296950 0.84633798 -0.00287024 0.00000000
0.53488996 0.64070537 -0.00025372 0.00000000
3.86291787 1.77694337 0.00060891 0.00000000
0.62551829 0.15771397 0.00098696 0.00000000
3.65205519 0.27035290 0.00315624 0.00000000
0.57295382 0.05552246 0.00187776 0.00000000
2.86257466 1.94293865 0.00126013 0.00000000
3.58837598 1.81329376 0.00182917 0.00000000
3.70084160 1.87718877 0.00255212 0.00000000
0.44896291 0.79869252 0.00011064 0.00000000
2.73799652 1.62298115 -0.00035741 0.00000000
2.61559701 0.50442323 0.00384305 0.00000000
3.74695738 1.22569543 -0.00285137 0.00000000
2.90456518 0.61989176 -0.00113104 0.00000000
2.89302803 0.18282514 0.00036895 0.00000000
0.41785922 1.47731539 -0.00171024 0.00000000
3.51796917 0.69689751 0.00609778 0.00000000
1.59583237 1.02297221 0.00346149 0.00000000
3.90491205 1.24673361 0.00270067 0.00000000
1.63007059 1.78162657 0.00200855 0.00000000
1.12926264 1.03391925 0.00127566 0.00000000
0.36040017 0.79286591 -0.00233581 0.00000000
3.94652404 0.74814846 -0.00034065 0.00000000
2.36034509 1.02739105 -0.00326265 0.00000000
0.62512859 1.01373782 0.00206955 0.00000000
0.36968484 1.86188740 0.00193671 0.00000000
2.59263103 1.23003364 -0.00072127 0.00000000
2.86387883 0.61230507 -0.00063275 0.00000000
0.61312675 1.75882077 -0.00047098 0.00000000
1.00112813 0.78350161 -0.00111531 0.00000000
1.77496815 1.23135072 -0.00152494 0.00000000
1.78850658 0.36093259 0.00069461 0.00000000
3.46199896 0.11949939 0.00018969 0.00000000
1.67219268 0.27000765 0.00061951 0.00000000
3.21917034 1.25250117 -0.00012149 0.00000000
3.28926119 0.75672558 0.00005990 0.00000000
3.93723103 1.06784364 0.00195655 0.00000000
1.94616675 0.71287998 -0.00394306 0.00000000
1.41290673 1.39313171 -0.00034699 0.00000000
3.44605130 0.10655961 0.00180576 0.00000000
1.22468225 0.73045532 0.00040756 0.00000000
0.06006312 1.85510198 0.00067791 0.00000000
0.68709107 1.00837771 0.00120753 0.00000000
2.14145294 1.90683418 0.00272202 0.00000000
3.37697162 0.88208514 0.00116628 0.00000000
2.57692736 0.75662202 -0.00144757 0.00000000
1.18319356 0.52046948 0.00194625 0.00000000
1.92098487 0.43293351 -0.00069089 0.00000000
0.55896807 1.42687425 -0.00050060 0.00000000
0.13992962 1.17115125 0.00011344 0.00000000
0.19673303 0.64108823 0.00267320 0.00000000
2.93051698 1.10646033 -0.00047779 0.00000000
3.69338488 0.34619210 -0.00255453 0.00000000
3.74051643 0.73078239 -0.00387616 0.00000000
0.09090499 0.18759709 0.00178458 0.00000000
2.79931453 1.28983392 0.00074024 0.00000000
2.34887458 0.22250715 0.00218487 0.00000000
3.38834266 0.22634375 -0.00103647 0.00000000
0.46163455 1.08056930 -0.00204640 0.00000000
0.84140307 1.07401408 0.00048690 0.00000000
0.17095819 1.45869555 -0.00062866 0.00000000
1.55718061 1.91529346 -0.00045278 0.00000000
2.25382746 1.31810339 -0.00101824 0.00000000
3.36044608 0.07794062 -0.00265966 0.00000000
0.71560915 0.36061857 -0.00052502 0.00000000
2.53968957 1.48469128 0.00035017 0.00000000
2.89857384 1.75792133 -0.00115645 0.00000000
1.32123533 0.12310219 -0.00310721 0.00000000
2.89521555 1.91589049 -0.00154141 0.00000000
1.78016367 0.17926941 0.00238534 0.00000000
0.61686632 2.00486400 -0.00005302 0.00000000
0.37261311 2.00145663 -0.00164511 0.00000000
3.42783979 1.98358398 0.00516504 0.00000000
0.39817258 1.54285691 -0.00141579 0.00000000
1.89744958 1.39043411 0.00083725 0.00000000
1.87355552 1.90546785 -0.00141613 0.00000000
2.24286272 1.26433382 0.00278266 0.00000000
2.10642976 0.86207192 -0.00455234 0.00000000
0.93432634 0.43852261 -0.00376454 0.00000000
3.48243613 1.85144058 0.00164264 0.00000000
3.05132675 1.67527833 -0.00584580 0.00000000
1.92325061 0.21591846 0.00175675 0.00000000
0.64365149 0.59951215 -0.00443582 0.00000000
3.06076892 0.05152127 -0.00243713 0.00000000
0.85509648 1.33286290 -0.00057303 0.00000000
3.31621961 0.27220305 0.00210401 0.00000000
0.61457386 0.06247244 0.00463987 0.00000000
1.43395743 1.01431886 0.00010462 0.00000000
0.17293583 0.88897128 0.00253581 0.00000000
0.33261853 1.50084982 0.00308051 0.00000000
3.83643972 1.69567205 0.00321195 0.00000000
0.35121760 1.23255002 -0.00094684 0.00000000
1.53935547 1.37746986 0.00426163 0.00000000
2.65599940 1.95976487 -0.00060945 0.00000000
2.86970776 0.66927226 -0.00013890 0.00000000
3.05722067 1.83395561 -0.00166974 0.00000000
0.07947643 0.46847405 -0.00057778 0.00000000
3.66439708 0.58471739 -0.00080101 0.00000000
1.60401325 1.57925433 -0.00296558 0.00000000
1.81487013 0.37417480 -0.00163197 0.00000000
3.30759926 0.20591577 0.00064078 0.00000000
2.00333957 0.11782822 -0.00061256 0.00000000
1.57401745 0.33739564 0.00202812 0.00000000
0.97655825 0.65918686 -0.00313714 0.00000000
0.03749295 0.94562710 -0.00117805 0.00000000
1.13536357 1.08088255 -0.00026830 0.00000000
2.16669797 1.37937655 0.00304955 0.00000000
2.96408860 1.81343854 0.00055458 0.00000000
2.82902852 0.34403984 0.00152000 0.00000000
3.70737707 1.58333862 0.00365902 0.00000000
1.99993048 2.01536523 -0.00041862 0.00000000
1.84806941 0.04304282 0.00148817 0.00000000
0.88469403 1.18127672 -0.00156515 0.00000000
2.75164242 1.92991825 0.00309373 0.00000000
0.00554299 0.59231170 -0.00881038 0.00000000
0.15961484 1.87305645 -0.00380863 0.00000000
2.53525278 0.74846135 0.00000082 0.00000000
0.43111884 0.98440391 -0.00325247 0.00000000
2.87675358 0.76008443 -0.00163484 0.00000000
3.89807658 0.51708299 -0.00045049 0.00000000
1.68709094 1.30570003 0.00105667 0.00000000
1.55753190 0.83390783 0.00295497 0.00000000
1.28831140 0.07824404 0.00035876 0.00000000
3.69800595 0.45077463 0.00189565 0.00000000
0.41353435 1.72999224 0.00190705 0.00000000
0.80557871 0.36697970 -0.00160833 0.00000000
0.89522563 0.50923837 -0.00176778 0.00000000
0.50500855 0.79959980 -0.00108367 0.00000000
3.83058546 1.68019852 -0.00269766 0.00000000
0.65996831 1.94907793 -0.00406819 0.00000000
0.47362727 0.96000127 0.00046110 0.00000000
1.83660127 0.26855321 -0.00275482 0.00000000
2.37071441 2.00102070 -0.00287134 0.00000000
2.18481993 0.26637055 -0.00079438 0.00000000
3.76553689 1.00888614 -0.00195835 0.00000000
2.66076866 0.37167014 -0.01007358 0.00000000
1.29579142 0.20665514 0.00585309 0.00000000
2.79693748 0.75455854 0.00120600 0.00000000
1.03824285 1.32247795 0.00237833 0.00000000
2.52279442 1.97823678 -0.00011567 0.00000000
1.84017525 0.17670906 0.00066080 0.00000000
1.15587337 0.01146038 -0.00388750 0.00000000
1.64937281 1.80986162 -0.00027162 0.00000000
0.52424830 0.14983671 -0.00411808 0.00000000
2.29641059 0.45251931 -0.00084295 0.00000000
2.11999792 1.71875631 0.00053508 0.00000000
3.31843897 1.25425406 0.00269732 0.00000000
1.89119299 0.15158786 0.00258216 0.00000000
0.53177159 0.94517977 0.00278079 0.00000000
1.78020768 0.34649725 0.00365927 0.00000000
0.90444449 0.04832341 -0.00175675 0.00000000
1.84337654 1.90640094 -0.00083683 0.00000000
2.97672946 1.51473229 -0.00251699 0.00000000
2.51833340 0.79994629 -0.00134888 0.00000000
2.95923306 0.71580392 0.00301035 0.00000000
1.75943303 1.70992171 0.00410454 0.00000000
3.15152172 1.49369411 -0.00241857 0.00000000
2.38482108 1.44222602 -0.00222290 0.00000000
1.76010433 0.90043557 -0.00188071 0.00000000
0.27108622 0.56550226 -0.00029896 0.00000000
1.72104422 0.96857508 -0.00286388 0.00000000
0.36618157 1.81982080 -0.00252012 0.00000000
1.68570332 1.92294687 -0.00118004 0.00000000
0.65734141 1.48148195 0.00085590 0.00000000
1.00581237 0.11181400 -0.00470701 0.00000000
1.17246404 1.91255629 0.00094027 0.00000000
1.46298670 1.54924326 0.00000082 0.00000000
1.04986474 1.53822658 -0.00021012 0.00000000
3.16112389 0.53049837 0.00142335 0.00000000
0.50252161 1.30836134 0.00185272 0.00000000
3.63851375 1.54856653 0.00288888 0.00000000
0.23622458 1.73051344 -0.00026841 0.00000000
3.36626075 1.31948735 0.00002680 0.00000000
2.32271714 0.27956384 -0.00643378 0.00000000
3.64201330 1.90174402 0.00173939 0.00000000
3.68776095 0.86816651 0.00211179 0.00000000
1.89179143 0.20372112 -0.00074587 0.00000000
2.63169744 1.35768668 -0.00052306 0.00000000
1.78639814 1.05270367 -0.00021737 0.00000000
3.60068047 1.32991780 0.00021665 0.00000000
0.42562648 0.92324769 -0.00157684 0.00000000
1.28929645 0.39022335 -0.00139321 0.00000000
0.75051257 1.37686604 -0.00019243 0.00000000
3.01061422 0.50475570 -0.00201594 0.00000000
0.83626775 0.24414848 -0.00056551 0.00000000
3.96847201 1.20593549 -0.00583688 0.00000000
3.30507463 0.44533901 0.00146089 0.00000000
1.51653526 0.27869104 -0.00216006 0.00000000
4.01465140 1.85121326 0.00210387 0.00000000
0.25751038 0.91454747 -0.00571229 0.00000000
0.81097601 0.12279943 -0.00019881 0.00000000
3.74587181 1.13256120 -0.00779857 0.00000000
2.76076048 0.14218290 0.00259428 0.00000000
1.87069090 1.99665310 0.00118710 0.00000000
3.22300933 1.89364438 -0.00292814 0.00000000
3.04793018 1.07754589 0.00277879 0.00000000
2.26875915 1.76804721 -0.00202555 0.00000000
3.94726777 1.45157415 0.00012172 0.00000000
2.66538062 0.54905448 -0.00100237 0.00000000
3.01390954 0.32101046 0.00061769 0.00000000
0.42171090 0.88944431 0.00187019 0.00000000
2.36237384 1.49702623 -0.00333389 0.00000000
1.81751233 0.55892524 -0.00514647 0.00000000
2.17320810 0.77481416 -0.00180002 0.00000000
2.56680868 0.00908617 -0.00235536 0.00000000
2.71733573 1.07191608 -0.00286939 0.00000000
2.47603962 1.15342028 -0.00019780 0.00000000
1.40457253 1.11943554 0.00286603 0.00000000
3.26876166 0.88371334 -0.00562104 0.00000000
1.54325513 1.72464292 0.00228285 0.00000000
3.12494945 0.60543348 -0.00044946 0.00000000
2.02010834 1.12024140 0.00183985 0.00000000
3.35561580 0.67364121 0.00236758 0.00000000
3.72582052 0.78519443 -0.00246835 0.00000000
0.45481825 0.17395283 0.00075888 0.00000000
3.16045886 0.11077159 -0.00399594 0.00000000
3.23416534 0.07640472 0.00228000 0.00000000
3.63703006 1.84779295 -0.00353381 0.00000000
3.12830101 1.97150825 0.00017388 0.00000000
0.97342947 0.21444303 -0.00286821 0.00000000
2.08420719 0.61164766 0.00328956 0.00000000
0.83974197 1.31003950 -0.00539958 0.00000000
0.59365551 1.82902135 0.00109726 0.00000000
3.98438621 0.62889778 0.00249381 0.00000000
1.83892983 1.96267265 -0.00102396 0.00000000
1.20227075 0.59071313 -0.00018734 0.00000000
3.93092656 1.44345292 0.00068246 0.00000000
0.51114866 0.75775906 0.00115474 0.00000000
1.85326659 1.37509406 0.00002496 0.00000000
3.30128257 0.57786228 -0.00287537 0.00000000
2.27142034 1.47949622 -0.00144124 0.00000000
0.30851887 1.71979150 -0.00075467 0.00000000
3.60701921 1.92894371 0.00323634 0.00000000
3.99745040 1.11274679 0.00033034 0.00000000
2.85743962 0.38561111 0.00065568 0.00000000
0.43599275 0.52227010 -0.00309552 0.00000000
0.78050277 1.86146993 -0.00175601 0.00000000
3.27686502 0.78305140 -0.00031907 0.00000000
0.74799665 0.46749919 0.00048041 0.00000000
2.75244345 0.42307461 -0.00128456 0.00000000
0.33485007 0.61407767 0.00054504 0.00000000
2.26222726 1.59702852 -0.00161068 0.00000000
3.33073356 1.29824576 0.00035011 0.00000000
0.94211000 0.45558398 0.00350667 0.00000000
0.28802362 0.36132785 0.00397116 0.00000000
3.54424870 0.40688091 0.00168112 0.00000000
1.21680522 1.02384030 0.00029854 0.00000000
0.85790132 0.11669503 0.00060338 0.00000000
2.78049104 0.79275555 0.00055025 0.00000000
1.51667525 0.86731752 -0.00019706 0.00000000
2.65338004 1.84171667 -0.00179998 0.00000000
1.32816085 1.00556969 0.00023382 0.00000000
1.98547265 1.01563812 0.00020371 0.00000000
3.28848229 0.99855534 -0.00271891 0.00000000
0.03848971 1.47006023 -0.00002968 0.00000000
0.59220233 0.39815033 -0.00279882 0.00000000
2.55835879 0.25265238 0.00004304 0.00000000
1.77293916 1.33082230 0.00133949 0.00000000
2.26996046 1.59821404 0.00078683 0.00000000
0.14501737 1.85146450 -0.00258626 0.00000000
3.87495267 1.39372275 0.00598934 0.00000000
0.08428725 0.46818512 -0.00249494 0.00000000
2.90065357 1.75737572 0.00050487 0.00000000
2.98780413 1.69473803 -0.00115276 0.00000000
1.01031476 0.41600734 0.00168580 0.00000000
2.65080285 0.07512167 0.00110757 0.00000000
1.42980098 0.47511579 -0.00547642 0.00000000
0.12009978 1.75190887 0.00208999 0.00000000
3.67464223 1.38137389 -0.00011235 0.00000000
3.38563626 0.97277849 0.00387181 0.00000000
1.14675083 0.37098801 0.00163929 0.00000000
2.65689769 0.24843423 -0.00284473 0.00000000
2.56266214 1.73278084 0.00465435 0.00000000
1.84824041 1.65230603 0.00206889 0.00000000
3.66504546 1.73346194 0.00337622 0.00000000
0.82056639 0.82079798 -0.00287386 0.00000000
1.55979075 1.68621392 0.00600613 0.00000000
1.29652816 0.57153857 0.00506391 0.00000000
2.77601099 1.64371293 -0.00293416 0.00000000
0.99009809 1.23235517 0.00017193 0.00000000
1.25855456 1.58713498 -0.00242224 0.00000000
2.49044112 1.66855749 0.00159607 0.00000000
3.94757685 1.45981479 -0.00125034 0.00000000
1.50106250 0.18178437 0.00237288 0.00000000
0.12730877 1.37154028 0.00035352 0.00000000
