1.222569 0.753173 0.005126 0.0
0.455360 0.383196 -0.000111 0.0
0.928908 1.390866 0.002254 0.0
0.899153 0.415601 0.000807 0.0
1.244471 0.841965 -0.000081 0.0
0.646899 0.218282 -0.001210 0.0
2.411362 0.363531 -0.003476 0.0
3.493058 1.175115 -0.001261 0.0
1.212376 0.442334 -0.006771 0.0
3.568716 1.075209 0.002769 0.0
4.406912 0.923536 0.002044 0.0
1.696833 1.378196 -0.003595 0.0
3.288130 0.780507 0.001309 0.0
3.795839 0.389458 0.001605 0.0
1.192770 1.265883 -0.000640 0.0
2.360614 0.095980 -0.003580 0.0
3.901006 0.911817 -0.001706 0.0
0.870206 0.188691 -0.002474 0.0
2.113273 1.229233 -0.006982 0.0
1.570810 0.543699 -0.001269 0.0
4.066036 0.037525 0.000158 0.0
1.055557 0.439435 0.002862 0.0
1.799613 0.667047 -0.001846 0.0
2.925231 0.786714 0.001931 0.0
3.956405 0.389261 -0.000877 0.0
3.814783 0.165261 -0.004118 0.0
0.237250 0.659948 0.000493 0.0
1.425369 0.323863 -0.001602 0.0
1.719807 1.493745 -0.004608 0.0
3.226484 0.050022 0.005099 0.0
2.747753 1.108190 0.000213 0.0
0.670972 0.833938 -0.004069 0.0
0.138938 0.334737 -0.000273 0.0
0.651132 1.071381 0.000114 0.0
2.353550 0.680493 -0.000759 0.0
1.838566 0.499758 -0.004553 0.0
1.407783 1.268150 -0.000400 0.0
2.855648 0.456622 0.000480 0.0
0.179151 0.155897 0.000362 0.0
4.086230 1.433158 -0.001252 0.0
2.108087 1.457282 -0.002940 0.0
1.590406 0.288536 -0.001554 0.0
1.700660 0.062363 0.002121 0.0
3.108834 0.902052 -0.002505 0.0
3.002476 0.632219 -0.003218 0.0
2.093339 0.872766 -0.002611 0.0
3.246583 0.535786 -0.004304 0.0
4.288710 0.762900 0.000859 0.0
3.995520 1.360571 0.006990 0.0
2.284947 0.516630 -0.000101 0.0
4.343362 0.615231 -0.002768 0.0
2.537090 0.035937 -0.000810 0.0
1.520512 0.185382 -0.000228 0.0
3.518687 0.486592 0.001003 0.0
0.563878 1.371390 -0.002643 0.0
2.347625 0.825775 -0.007731 0.0
3.364453 0.171297 0.002666 0.0
2.401212 0.062761 -0.003282 0.0
4.068447 1.502873 0.001083 0.0
1.480771 0.155583 0.002183 0.0
0.494820 0.778832 -0.000850 0.0
0.904450 0.817813 0.000333 0.0
3.931572 0.760548 -0.001636 0.0
0.180395 1.417088 -0.003340 0.0
3.236771 0.464663 -0.004933 0.0
3.242738 0.011700 -0.004243 0.0
3.035854 1.171793 0.000241 0.0
2.644827 1.099909 0.003381 0.0
3.032562 0.392923 -0.002075 0.0
1.569135 0.101165 0.000117 0.0
0.036825 0.115464 -0.001163 0.0
3.992093 0.112240 -0.002163 0.0
3.742994 1.301914 0.000018 0.0
0.868542 0.958971 -0.002339 0.0
3.500423 0.572022 -0.000135 0.0
0.608768 1.173877 0.000293 0.0
1.746597 0.809323 0.001064 0.0
2.485011 0.126347 -0.000053 0.0
4.197633 1.454330 0.000070 0.0
1.581861 0.851634 -0.002644 0.0
1.181895 0.336565 0.002916 0.0
2.348491 0.409577 0.001258 0.0
0.115072 0.899519 0.001770 0.0
2.451466 0.859321 -0.001225 0.0
1.829780 0.445524 0.002711 0.0
1.698968 0.669088 0.001999 0.0
2.439203 0.018291 -0.003527 0.0
1.508508 0.401543 -0.001169 0.0
1.035645 0.590855 0.001194 0.0
1.367720 1.123000 -0.001941 0.0
1.113417 0.819187 0.001845 0.0
0.196456 0.238492 0.000241 0.0
2.800457 1.491352 -0.002863 0.0
2.291837 1.487563 0.003301 0.0
3.404954 0.970118 0.002002 0.0
2.250767 0.223987 -0.004602 0.0
3.954384 0.609000 0.002467 0.0
1.537880 0.904953 0.000738 0.0
4.365099 1.028378 0.002307 0.0
3.551261 0.127663 -0.002511 0.0
3.051846 0.125668 0.000572 0.0
0.321878 0.547551 0.001477 0.0
4.406066 1.130758 0.002436 0.0
3.301327 1.069469 0.001474 0.0
3.240695 0.708610 -0.000534 0.0
1.101527 0.431826 0.005482 0.0
0.856821 0.109103 -0.001931 0.0
3.269101 0.735995 0.001943 0.0
2.329552 0.500159 0.000560 0.0
2.265404 0.234833 0.002344 0.0
3.926892 0.341189 0.000393 0.0
3.185353 0.159045 -0.001732 0.0
3.601955 0.032143 -0.000711 0.0
3.180821 0.360764 0.003777 0.0
0.562561 0.567398 -0.000868 0.0
3.159926 0.224487 0.000089 0.0
4.399067 0.758664 -0.001397 0.0
1.299056 0.734323 0.001041 0.0
0.916356 0.655694 -0.000021 0.0
1.005168 0.070566 0.001237 0.0
3.394103 1.079097 -0.004250 0.0
2.490456 1.086544 -0.001311 0.0
4.206134 1.475864 0.000809 0.0
1.406737 1.092367 -0.002241 0.0
3.522676 0.508987 -0.000444 0.0
1.616628 0.629747 0.001085 0.0
0.081104 0.569303 0.001398 0.0
4.394415 0.161861 0.001337 0.0
3.160835 0.064157 -0.003087 0.0
3.922629 0.349300 0.003042 0.0
2.121248 0.916494 -0.002849 0.0
3.600338 1.513485 -0.003029 0.0
1.026769 1.398835 0.000055 0.0
1.773620 0.923141 -0.001761 0.0
0.730838 0.397725 0.001679 0.0
0.797447 0.752129 0.001968 0.0
3.507938 1.145916 0.002054 0.0
0.116236 0.760025 0.005468 0.0
0.436434 0.666960 -0.002005 0.0
2.233931 1.055124 -0.007033 0.0
2.182549 1.316289 0.001566 0.0
0.346789 0.809727 0.002663 0.0
3.556229 0.114899 -0.001973 0.0
2.402559 0.197217 -0.000553 0.0
0.085533 0.575474 0.003727 0.0
0.032459 0.311199 0.002591 0.0
3.370674 0.106126 -0.002091 0.0
4.143387 0.301849 0.004125 0.0
0.071652 0.853158 0.000190 0.0
3.070762 1.477905 0.000240 0.0
3.265451 0.771479 -0.000972 0.0
3.845090 0.509145 0.001188 0.0
2.874297 1.092773 0.003271 0.0
3.182766 1.306663 -0.002731 0.0
3.880770 0.461177 -0.002596 0.0
2.161068 0.344654 -0.002293 0.0
1.646500 0.314757 0.002363 0.0
2.785111 1.031585 -0.001028 0.0
4.328667 0.931076 0.003781 0.0
3.305031 0.243127 -0.002349 0.0
3.712301 1.403258 0.000942 0.0
2.317195 1.054700 -0.001739 0.0
4.304542 0.317592 0.004740 0.0
0.715531 0.742073 0.003141 0.0
3.915216 1.176237 -0.001004 0.0
4.268252 1.296322 -0.001538 0.0
2.157833 1.393605 -0.000115 0.0
3.852521 0.052683 0.001914 0.0
0.598631 1.358408 -0.000390 0.0
3.569557 0.961742 -0.000697 0.0
1.996018 1.160752 -0.001695 0.0
0.762483 1.423212 -0.000478 0.0
1.735600 1.266915 -0.002184 0.0
2.761482 0.958637 0.000175 0.0
1.793042 0.697434 -0.001775 0.0
3.080229 1.418937 -0.002786 0.0
0.126816 0.295731 0.005083 0.0
0.667755 1.071946 -0.001731 0.0
1.054979 0.155585 0.001671 0.0
0.622294 1.335643 0.005522 0.0
0.453122 0.025494 -0.001433 0.0
3.853676 0.461280 -0.000966 0.0
3.236574 0.011183 -0.002524 0.0
0.695538 1.265322 0.001293 0.0
3.148175 0.603748 0.002965 0.0
0.843414 0.928029 -0.000944 0.0
1.339166 0.963742 0.001502 0.0
1.582610 1.219117 0.002132 0.0
3.572842 0.841366 -0.000010 0.0
0.307771 1.414902 0.000384 0.0
0.371196 1.251238 0.001628 0.0
1.913685 0.591474 -0.003139 0.0
2.570892 0.114637 -0.001014 0.0
2.347082 0.706246 0.000997 0.0
0.836429 1.102933 0.004579 0.0
1.845302 1.238534 0.004105 0.0
2.321912 1.166025 0.000972 0.0
0.191567 0.474873 0.004062 0.0
3.786242 1.360621 -0.000181 0.0
1.138259 0.264999 -0.000329 0.0
1.903851 0.681319 -0.001848 0.0
1.788049 0.563479 -0.002188 0.0
1.928051 1.024888 0.000607 0.0
2.822763 0.809305 0.000296 0.0
2.013659 1.434159 0.000445 0.0
1.442912 0.632049 0.000402 0.0
0.807388 1.125347 0.002687 0.0
0.123138 1.056180 0.000207 0.0
0.517446 0.128916 0.000263 0.0
4.192731 1.395579 -0.000894 0.0
2.897272 0.668709 0.000058 0.0
2.851631 0.497890 -0.002040 0.0
3.883347 1.267050 -0.000314 0.0
0.201800 0.031809 0.000083 0.0
0.625326 0.007073 -0.002763 0.0
0.500979 1.470708 0.000097 0.0
3.030375 0.007049 0.001706 0.0
1.726686 0.358663 -0.001053 0.0
4.255116 0.849277 -0.000786 0.0
1.902840 1.034259 0.000186 0.0
2.831781 0.712249 0.002644 0.0
1.832749 1.091948 0.000812 0.0
3.301168 0.988339 -0.000252 0.0
2.830743 1.336411 -0.000236 0.0
1.364578 0.081796 0.003018 0.0
2.724915 0.650355 0.002376 0.0
0.477880 0.193775 -0.002130 0.0
4.245986 0.805216 0.002199 0.0
2.144184 0.765366 -0.004076 0.0
4.220780 0.041924 -0.002992 0.0
2.557331 0.383380 0.003177 0.0
2.340212 1.277826 -0.001340 0.0
0.857206 0.268945 -0.001349 0.0
2.601377 0.051640 0.000673 0.0
1.631086 0.089499 -0.006067 0.0
1.688518 1.379580 0.001378 0.0
4.093083 0.524682 0.003187 0.0
0.800474 1.191174 -0.004127 0.0
4.263352 0.398086 0.002362 0.0
2.489285 0.405478 0.003153 0.0
3.715121 0.855617 0.002043 0.0
1.459861 0.729045 -0.002497 0.0
2.495649 0.126028 0.000361 0.0
1.912542 0.272754 0.001158 0.0
2.155131 0.575002 0.001300 0.0
2.669023 1.106948 0.001957 0.0
0.958714 0.453820 -0.001265 0.0
2.654342 0.087573 0.006218 0.0
2.093931 1.328957 0.001061 0.0
4.180508 0.343944 0.000674 0.0
1.920793 0.994327 0.001325 0.0
3.930524 1.439749 -0.000050 0.0
0.908588 1.117792 -0.001959 0.0
0.427877 0.947003 0.000261 0.0
1.002201 0.662219 -0.000437 0.0
0.835966 1.409084 -0.001603 0.0
2.248648 0.490009 0.001362 0.0
0.988186 1.423835 -0.004410 0.0
1.644695 1.198029 -0.001551 0.0
0.944939 1.065023 -0.000359 0.0
3.828271 1.110556 -0.000842 0.0
4.428163 1.135395 0.004002 0.0
2.518577 0.589815 0.000639 0.0
2.114038 1.122852 -0.001117 0.0
1.310608 0.788326 -0.001752 0.0
0.503796 1.136738 -0.001567 0.0
3.380972 0.902066 -0.002714 0.0
0.118970 0.680522 0.000907 0.0
2.071475 0.879975 -0.000183 0.0
3.902474 0.409654 -0.005235 0.0
1.193508 1.504852 -0.006605 0.0
1.830696 0.513167 -0.002586 0.0
3.305995 1.099873 0.001749 0.0
3.398584 0.587579 -0.001370 0.0
0.749906 0.517391 -0.000426 0.0
2.445966 0.145460 -0.001651 0.0
1.711953 0.879251 -0.000788 0.0
2.748253 0.542430 0.002893 0.0
0.296427 0.530892 -0.002365 0.0
1.656053 0.758326 -0.001485 0.0
3.878662 0.413969 -0.004020 0.0
0.080892 0.921190 0.001584 0.0
2.401732 0.888443 0.003896 0.0
3.746844 0.447447 -0.001899 0.0
3.618208 0.177402 0.003798 0.0
2.166900 0.217425 -0.001742 0.0
0.469625 0.993885 0.000259 0.0
3.283778 1.084265 0.001429 0.0
2.460114 1.440738 -0.000030 0.0
0.627580 1.279012 0.005377 0.0
2.690806 0.745844 -0.000026 0.0
2.387870 0.222277 -0.001387 0.0
2.593568 1.375104 0.001633 0.0
1.293958 0.712664 -0.001624 0.0
3.312577 0.555136 -0.001371 0.0
1.353747 0.028174 0.000525 0.0
2.838793 0.045021 -0.000135 0.0
3.846100 1.045297 -0.000717 0.0
3.408732 1.432362 0.001727 0.0
0.052749 1.259820 -0.000937 0.0
2.752241 0.205496 -0.002001 0.0
3.885979 0.588823 -0.001144 0.0
2.419657 0.657018 0.001645 0.0
1.365233 0.724813 0.000709 0.0
4.283683 1.216585 0.002092 0.0
0.307682 1.169738 -0.001361 0.0
2.432435 0.067299 -0.003998 0.0
1.577000 1.515451 -0.000640 0.0
2.125891 1.267896 -0.002002 0.0
1.328599 1.378620 -0.001530 0.0
3.693670 1.334074 0.000741 0.0
1.342916 0.533734 -0.000649 0.0
3.185498 0.102984 -0.002366 0.0
2.163679 0.443624 -0.000582 0.0
0.716605 1.322509 -0.004407 0.0
0.866429 0.124603 0.002873 0.0
2.238795 0.381259 -0.001787 0.0
4.427888 0.628837 -0.001570 0.0
1.094654 0.112162 -0.000307 0.0
1.194395 0.233365 0.001653 0.0
2.302677 0.979119 0.002999 0.0
1.817537 0.083214 0.005292 0.0
3.318383 1.306695 0.001917 0.0
3.232056 0.193439 -0.000357 0.0
1.384553 1.437455 0.003828 0.0
2.928262 1.185843 -0.002813 0.0
1.285119 1.329904 0.001147 0.0
0.102455 1.092684 -0.002650 0.0
4.250136 1.476289 -0.001655 0.0
2.109177 0.585404 -0.003893 0.0
4.063486 0.775548 -0.001956 0.0
3.037278 0.599437 -0.001071 0.0
3.816822 0.159870 0.001238 0.0
1.764428 0.774288 -0.001266 0.0
0.392898 1.323936 -0.000048 0.0
0.124900 1.475658 0.001979 0.0
0.596027 1.237936 0.002499 0.0
3.858543 1.203123 -0.003070 0.0
4.252551 0.544914 -0.006317 0.0
2.239543 0.084278 0.003781 0.0
3.937239 0.087944 -0.002138 0.0
0.004921 0.094101 0.003059 0.0
3.661702 0.122236 0.002228 0.0
2.978214 0.766704 0.000373 0.0
1.970751 1.148112 0.000753 0.0
1.403473 1.054132 0.001428 0.0
1.749853 0.113552 0.001014 0.0
0.077372 0.863627 -0.001929 0.0
1.798991 0.055467 -0.003948 0.0
3.036275 0.751228 0.004790 0.0
3.483395 0.149626 -0.001449 0.0
1.644028 0.821977 -0.001708 0.0
3.360433 0.321935 0.000712 0.0
2.582520 1.282734 0.003048 0.0
0.762165 1.207961 -0.001661 0.0
3.927045 0.560848 0.001392 0.0
1.085830 0.854882 0.000188 0.0
1.370449 0.650820 0.000019 0.0
2.221746 1.298263 0.001026 0.0
0.231504 1.462083 0.000971 0.0
1.276540 0.058417 -0.000857 0.0
4.236622 0.514702 0.000319 0.0
3.355258 0.236535 0.000955 0.0
2.460253 1.057148 0.002153 0.0
4.072695 0.444072 0.005032 0.0
1.063781 0.580369 0.001751 0.0
2.225582 1.184656 0.001733 0.0
1.564201 1.070114 0.000691 0.0
1.095809 1.368744 0.000138 0.0
4.367919 0.620383 0.000149 0.0
2.107575 1.125907 -0.001067 0.0
3.691878 1.231497 -0.002228 0.0
0.647552 1.043739 0.000494 0.0
0.996324 0.441563 -0.000077 0.0
3.392498 0.353373 0.001859 0.0
3.078942 1.439826 0.003668 0.0
2.634462 0.927107 -0.004611 0.0
3.161329 0.204375 -0.001147 0.0
2.086987 0.047942 -0.001355 0.0
1.216675 1.019895 0.004480 0.0
2.832581 0.651784 0.003619 0.0
2.782672 0.661206 -0.000714 0.0
0.649482 1.347663 -0.001347 0.0
3.003663 0.107121 0.000037 0.0
1.796493 0.134896 -0.000126 0.0
0.378179 1.149861 -0.003186 0.0
3.120982 1.395310 0.003054 0.0
0.263567 0.609343 0.001314 0.0
2.756886 0.906145 -0.001924 0.0
2.415754 1.169939 0.000766 0.0
1.263991 0.739666 0.001799 0.0
3.142549 0.945733 0.000769 0.0
3.693479 0.229961 0.000194 0.0
3.652624 0.487086 0.000343 0.0
3.982957 1.193712 0.001142 0.0
3.232299 1.367749 -0.001265 0.0
1.451405 0.310235 -0.000607 0.0
2.869242 1.007167 -0.006295 0.0
4.163724 0.168126 -0.000094 0.0
4.127972 1.072995 0.001993 0.0
4.348202 0.214724 0.003160 0.0
4.275958 1.419515 -0.003007 0.0
1.102138 0.989816 -0.003612 0.0
1.692583 1.111350 0.004434 0.0
0.117857 1.099774 0.003145 0.0
2.795797 0.370962 0.003816 0.0
0.730131 1.126402 -0.002371 0.0
3.826475 0.499572 0.003013 0.0
3.732176 1.475149 0.002500 0.0
0.050216 0.068670 -0.000459 0.0
3.766696 0.173370 0.001639 0.0
4.143663 1.386819 0.003467 0.0
3.057967 1.053376 -0.001882 0.0
2.681527 0.697246 0.003145 0.0
3.746505 0.200780 -0.002019 0.0
3.174297 1.401305 0.002131 0.0
2.738491 1.157802 -0.004359 0.0
4.265892 0.832441 0.000243 0.0
0.532434 0.499981 0.001085 0.0
4.222450 1.255223 0.005914 0.0
2.258389 0.635828 0.000822 0.0
2.883495 0.807371 0.003341 0.0
3.781746 1.197226 0.000581 0.0
2.717259 0.698694 0.000036 0.0
3.957828 0.666741 0.000010 0.0
3.703862 0.258282 -0.001907 0.0
0.177921 0.214407 0.001262 0.0
3.216444 0.149729 -0.004913 0.0
0.178887 1.304952 -0.001409 0.0
2.522785 0.086478 0.001584 0.0
0.761420 0.090860 -0.002515 0.0
3.938761 0.314193 -0.002866 0.0
1.791863 1.229708 0.002426 0.0
0.445893 1.018344 -0.004110 0.0
0.324049 0.407079 -0.002838 0.0
2.089613 0.091547 0.004209 0.0
0.960931 0.015097 0.000744 0.0
2.315146 0.123673 0.000011 0.0
4.213460 0.273607 -0.000813 0.0
2.586033 0.860591 -0.000984 0.0
0.402359 0.187123 0.000433 0.0
2.384755 0.891733 0.000419 0.0
3.947759 0.701072 0.004120 0.0
4.341368 1.259986 0.003014 0.0
2.834911 0.350734 -0.002111 0.0
0.899424 0.459706 -0.001786 0.0
1.774974 0.294820 -0.000829 0.0
1.042398 1.400968 0.002890 0.0
0.683916 1.504521 -0.001301 0.0
1.489852 1.495209 0.002211 0.0
0.409418 0.273370 -0.004773 0.0
0.641520 0.948610 0.000103 0.0
0.242773 1.460450 -0.003596 0.0
2.933459 0.069758 0.000254 0.0
3.125105 0.949873 -0.000365 0.0
4.104081 0.267935 0.000659 0.0
3.813175 0.915516 -0.001675 0.0
1.820116 0.648145 0.001880 0.0
1.636706 1.459417 -0.002500 0.0
3.694819 0.763201 0.000894 0.0
1.247426 0.307277 -0.002494 0.0
3.492817 0.062010 0.002003 0.0
0.508137 0.279524 -0.003194 0.0
3.584088 1.308593 0.000116 0.0
0.890450 1.394520 -0.001317 0.0
3.543787 0.547797 -0.002112 0.0
3.073836 0.274129 -0.000743 0.0
3.297949 1.050848 0.000934 0.0
3.625757 0.162324 -0.001224 0.0
0.493249 0.926947 0.002069 0.0
4.286585 1.114352 -0.003926 0.0
1.677717 0.176409 0.002946 0.0
0.815233 0.071312 -0.002998 0.0
1.864197 0.666689 -0.000082 0.0
1.357472 1.102009 0.000175 0.0
2.224279 1.442409 0.001953 0.0
1.669302 1.288552 0.000935 0.0
3.634632 1.071441 0.003215 0.0
1.747553 0.838432 -0.001106 0.0
4.010795 1.173724 -0.005103 0.0
3.136960 1.432375 0.001014 0.0
4.132337 0.620210 0.002983 0.0
0.812473 1.120648 -0.003422 0.0
3.352692 0.138585 -0.001634 0.0
3.891430 1.234199 0.002312 0.0
2.193828 0.291128 0.001204 0.0
3.560464 0.396065 0.001324 0.0
4.145632 1.091378 0.001541 0.0
4.331135 1.218360 0.000088 0.0
2.008625 0.403232 0.000662 0.0
1.722558 0.015334 -0.001587 0.0
3.354819 0.744865 -0.005885 0.0
0.557270 0.256208 0.002219 0.0
3.732329 0.407910 -0.000798 0.0
2.990877 1.091278 0.001468 0.0
2.187275 0.224762 -0.006543 0.0
2.634846 0.297806 0.001454 0.0
4.207684 0.316120 -0.000977 0.0
0.059416 0.862340 0.000395 0.0
0.652113 0.824623 0.002252 0.0
0.599649 1.050581 -0.002956 0.0
2.206371 0.668024 0.001048 0.0
3.008404 0.567376 0.006725 0.0
3.630236 0.015785 -0.000076 0.0
0.118658 1.251353 0.003060 0.0
1.343789 1.087481 0.000725 0.0
2.932341 0.082929 0.000064 0.0
2.709724 0.581734 -0.004324 0.0
2.173445 1.345308 -0.002221 0.0
3.468426 0.067314 0.001032 0.0
0.753533 0.500920 0.001928 0.0
2.168961 0.274421 -0.002068 0.0
2.723356 0.362850 -0.000116 0.0
1.349310 0.653770 0.004515 0.0
1.233662 1.493668 -0.004367 0.0
2.170357 0.494008 0.000003 0.0
2.863403 0.081004 0.003757 0.0
1.562420 0.664643 0.000324 0.0
1.349698 1.282892 -0.000037 0.0
3.865867 0.222056 0.001817 0.0
3.889502 1.145279 0.001968 0.0
4.037399 0.722493 -0.000162 0.0
3.269094 0.771614 0.000659 0.0
3.060916 1.076124 0.001851 0.0
3.221088 0.297557 -0.002987 0.0
3.760877 0.971353 0.003693 0.0
0.972446 0.589942 0.000039 0.0
3.483680 0.263501 0.001921 0.0
3.917447 0.760424 -0.002594 0.0
3.926376 1.107161 0.001260 0.0
0.854924 1.281244 -0.000402 0.0
4.001054 1.114192 -0.004666 0.0
2.471570 1.457152 -0.001457 0.0
2.098706 0.816941 0.000363 0.0
3.183800 0.405337 0.003065 0.0
0.957753 0.110167 -0.000077 0.0
1.586339 1.124704 -0.001501 0.0
3.456230 0.520602 0.001629 0.0
3.928998 0.807015 -0.000184 0.0
0.198222 1.362371 0.001507 0.0
2.702615 1.076355 -0.000948 0.0
4.217032 0.078310 0.002725 0.0
2.952774 0.510867 0.001429 0.0
2.623783 1.286490 0.000886 0.0
3.323924 0.524161 0.004225 0.0
0.785926 0.510093 0.002270 0.0
3.754858 0.042908 -0.001324 0.0
3.609014 0.986131 0.001198 0.0
2.921111 1.464253 0.000219 0.0
0.070214 0.979466 -0.001047 0.0
3.557459 1.360996 0.001075 0.0
0.425340 1.153356 -0.001197 0.0
3.424556 0.789080 -0.000503 0.0
0.291182 1.174510 -0.003791 0.0
3.651158 1.318157 0.002893 0.0
0.926068 0.301678 -0.000377 0.0
0.917917 1.061167 0.004884 0.0
0.856662 0.336160 -0.001565 0.0
3.701232 0.050708 0.001773 0.0
3.247778 0.542093 0.000187 0.0
2.703249 0.131162 -0.000033 0.0
1.783943 0.184969 0.000052 0.0
2.376164 0.547319 0.000104 0.0
1.329301 1.176561 0.001529 0.0
3.648288 0.420400 0.002156 0.0
4.375210 1.478751 0.000677 0.0
1.707039 0.457094 0.001145 0.0
3.594385 0.911256 0.003552 0.0
2.716322 0.341528 0.000888 0.0
0.865482 0.164501 -0.001042 0.0
0.316704 0.551790 0.000895 0.0
1.845341 0.465627 0.004185 0.0
0.984030 0.603053 0.001042 0.0
3.485684 1.510345 -0.002173 0.0
1.273496 1.170977 0.003359 0.0
0.272482 1.354969 -0.002334 0.0
4.378219 0.179539 -0.001194 0.0
4.344987 1.050469 0.002647 0.0
2.381498 0.358663 -0.000776 0.0
2.476367 1.076664 0.000843 0.0
1.320850 0.523833 0.001040 0.0
3.744825 0.689093 0.005701 0.0
3.413034 0.364047 -0.000931 0.0
1.387136 0.106140 -0.001168 0.0
3.202731 0.199353 -0.001060 0.0
2.841836 0.840781 -0.000504 0.0
1.432133 0.427400 -0.001998 0.0
3.768692 0.925869 0.005506 0.0
1.716479 1.073689 0.002733 0.0
0.295978 1.060989 -0.002017 0.0
3.737734 1.238950 -0.000422 0.0
1.331242 0.614629 0.005219 0.0
0.417152 0.076331 -0.000870 0.0
1.580413 0.529272 -0.003009 0.0
4.222703 0.431760 0.000411 0.0
0.073726 1.013148 -0.002609 0.0
1.795745 1.049257 0.000109 0.0
1.945381 1.332800 0.000395 0.0
3.987225 0.487939 0.003637 0.0
1.577673 0.867707 0.000208 0.0
0.900607 0.406369 -0.000027 0.0
4.381166 0.308039 0.005876 0.0
4.297055 0.463765 0.002541 0.0
3.848601 0.312651 0.002159 0.0
0.484661 0.957045 0.004163 0.0
0.978883 0.136118 0.006243 0.0
2.912942 0.316386 -0.001955 0.0
4.016117 1.130735 -0.000703 0.0
3.007150 0.489276 -0.001189 0.0
0.289410 0.091289 -0.000945 0.0
2.728215 0.145424 0.000636 0.0
1.188502 0.688211 -0.003584 0.0
4.343474 1.258663 -0.002059 0.0
0.140821 1.239836 0.004388 0.0
0.438565 0.639689 -0.001892 0.0
2.907017 1.053489 0.000546 0.0
2.824562 0.743114 -0.000651 0.0
2.697018 0.987974 -0.001221 0.0
2.081014 0.261649 -0.000345 0.0
1.013245 0.153440 0.000877 0.0
4.247450 0.301709 -0.002301 0.0
4.056143 0.516605 -0.001914 0.0
0.249038 0.947527 -0.001067 0.0
1.350621 1.399927 0.001131 0.0
2.506183 0.791082 0.004390 0.0
2.636194 1.147989 0.000485 0.0
2.251403 1.001099 0.002335 0.0
3.970734 1.421779 -0.002480 0.0
2.022440 0.646965 0.000058 0.0
3.569704 0.535583 0.001075 0.0
0.023706 1.341151 -0.000414 0.0
0.794576 0.536262 -0.000692 0.0
3.450985 0.597554 0.000283 0.0
3.386902 0.071792 -0.002690 0.0
2.516104 0.708919 0.000955 0.0
2.306658 1.098972 0.002664 0.0
2.555997 0.184728 0.004254 0.0
3.518493 0.930211 0.003575 0.0
3.818004 0.402921 0.000776 0.0
0.224615 0.399428 0.000110 0.0
4.406426 0.380726 0.001746 0.0
0.692810 0.051188 0.000858 0.0
2.261023 1.358082 0.002468 0.0
2.238203 1.410249 0.001151 0.0
2.544694 1.118235 0.003086 0.0
1.242673 0.283343 -0.001469 0.0
3.770608 0.932178 -0.001277 0.0
0.316864 0.412476 0.003300 0.0
4.379578 0.200691 0.000597 0.0
3.514820 1.366782 -0.002936 0.0
3.833580 1.055000 -0.000879 0.0
2.153734 0.629898 -0.002430 0.0
1.362727 0.260634 -0.001562 0.0
1.081311 0.611094 0.003356 0.0
1.019139 0.231161 -0.000495 0.0
2.752234 1.287121 -0.000592 0.0
1.996964 0.160164 -0.003203 0.0
2.933719 0.387588 -0.001215 0.0
2.133452 0.940527 0.004295 0.0
1.621441 0.622431 -0.000803 0.0
3.211536 0.392310 0.000231 0.0
1.483354 0.011481 0.001130 0.0
1.752369 1.173002 0.000554 0.0
2.314211 0.598050 0.005057 0.0
3.598108 0.940164 -0.001110 0.0
1.156991 0.533143 -0.001575 0.0
2.869355 0.182059 -0.001580 0.0
3.566313 0.715099 0.001817 0.0
1.635644 1.348139 -0.001181 0.0
1.230446 1.406334 -0.001073 0.0
0.224582 0.190378 -0.001092 0.0
1.541948 0.896887 -0.000156 0.0
0.834284 0.803285 -0.000406 0.0
1.998132 0.678649 -0.001561 0.0
2.479763 0.890587 0.002047 0.0
3.940472 0.708533 -0.003988 0.0
3.277548 1.139757 -0.001481 0.0
0.192026 0.639567 -0.001513 0.0
3.586873 1.456556 -0.000829 0.0
3.652128 0.884147 0.001326 0.0
0.416585 0.792062 -0.000965 0.0
0.765608 0.151364 0.000106 0.0
3.563625 0.100050 0.000378 0.0
0.984744 0.830894 0.001104 0.0
2.298789 1.217794 -0.001285 0.0
0.480676 1.406994 0.003850 0.0
1.592066 0.724149 -0.000470 0.0
1.724765 1.413423 0.000439 0.0
0.224952 0.783676 0.003311 0.0
2.099172 1.035927 0.003617 0.0
4.346861 0.552150 0.004330 0.0
3.086192 0.748739 0.000776 0.0
2.742607 0.165434 0.003874 0.0
4.329235 0.042686 0.000191 0.0
3.006277 0.879314 0.000762 0.0
2.750407 0.362168 -0.002354 0.0
2.582215 0.511268 -0.003167 0.0
2.915169 0.938175 -0.002396 0.0
0.297757 0.426739 0.000889 0.0
3.237538 1.242057 0.001175 0.0
2.135943 0.887523 0.000603 0.0
1.585303 0.558185 0.000549 0.0
2.394023 1.138845 -0.000321 0.0
1.631309 0.242841 0.002048 0.0
4.096139 0.401903 0.000369 0.0
4.089569 0.331673 -0.001949 0.0
1.835828 0.041168 0.001335 0.0
1.567484 1.515344 0.001758 0.0
1.981508 1.002600 0.002129 0.0
0.304678 0.717618 0.000639 0.0
3.180237 0.448501 0.001918 0.0
2.590411 0.160959 0.003494 0.0
0.180693 1.094055 0.000724 0.0
4.328225 0.868993 0.000257 0.0
2.145964 0.443076 0.000903 0.0
4.282375 0.482516 0.003840 0.0
2.527430 0.311071 -0.000284 0.0
2.021706 0.357848 0.004203 0.0
0.049898 0.229602 -0.003608 0.0
2.600889 1.381471 -0.002243 0.0
2.214825 0.542032 -0.003475 0.0
1.315704 1.501519 0.002441 0.0
3.383252 0.131256 0.000232 0.0
3.025260 0.444527 -0.000699 0.0
1.148109 0.397789 -0.001821 0.0
3.896023 0.714569 0.002270 0.0
0.172969 1.240551 0.001203 0.0
3.307525 1.206748 -0.000240 0.0
2.550263 1.340662 0.000729 0.0
2.485623 1.437760 -0.000290 0.0
3.162971 1.214460 -0.000294 0.0
1.408291 0.502313 -0.001233 0.0
3.890284 1.151945 0.002698 0.0
3.981471 0.199594 -0.000219 0.0
3.465648 0.942484 0.003084 0.0
2.764647 0.626358 -0.002261 0.0
3.922040 0.957562 -0.000781 0.0
0.462365 1.471117 0.000197 0.0
3.125401 1.452910 -0.004678 0.0
2.287191 0.409364 0.003654 0.0
3.957377 0.862704 -0.005319 0.0
0.950451 0.923730 0.000448 0.0
1.995454 1.197288 0.003396 0.0
0.742476 0.310628 0.002515 0.0
4.068543 1.264273 0.000408 0.0
1.742760 0.910440 0.002461 0.0
0.837781 1.335285 0.000650 0.0
0.525728 1.141460 0.001854 0.0
0.035164 1.131020 0.003021 0.0
1.922672 0.693781 -0.000207 0.0
0.399997 1.488619 -0.003313 0.0
2.166658 0.201472 -0.002812 0.0
3.666912 0.423370 0.004835 0.0
0.327356 0.112484 0.001211 0.0
2.365229 1.360151 -0.001935 0.0
2.901688 0.912860 0.006890 0.0
3.899142 1.475086 -0.000837 0.0
1.217777 1.239788 -0.003820 0.0
1.626221 0.939680 -0.000130 0.0
2.017535 0.742762 -0.000367 0.0
1.136682 0.877825 -0.002700 0.0
1.223248 0.252758 -0.001842 0.0
3.721915 0.363998 -0.001680 0.0
3.987195 1.303965 -0.001038 0.0
2.024960 0.790724 0.000603 0.0
2.429123 1.467451 0.000230 0.0
3.268464 0.737791 -0.003089 0.0
3.814709 0.030198 0.000044 0.0
2.098264 1.103051 0.000443 0.0
1.746575 0.946425 0.000505 0.0
2.699772 0.694189 0.000351 0.0
4.359507 0.218177 0.000659 0.0
3.914090 0.700319 -0.000845 0.0
0.534879 1.222708 0.000981 0.0
0.925622 0.127547 -0.002203 0.0
0.830885 0.812886 0.002598 0.0
4.118475 1.462950 0.000385 0.0
0.011410 0.853378 0.002336 0.0
2.011652 1.188707 -0.001966 0.0
1.634302 0.810979 0.000447 0.0
2.270858 1.394846 0.001131 0.0
2.330239 1.478685 0.000483 0.0
3.887541 0.928150 -0.001513 0.0
2.450373 1.114223 0.003347 0.0
3.715145 1.304083 0.003837 0.0
0.753288 0.817241 -0.001711 0.0
2.281209 1.228794 0.001532 0.0
0.146453 1.035237 0.000580 0.0
3.805295 1.371071 -0.002531 0.0
0.495144 0.154862 0.002034 0.0
3.274322 1.352765 -0.002506 0.0
3.219512 0.507768 -0.004253 0.0
4.126174 0.676277 0.001356 0.0
2.109361 1.508842 0.001688 0.0
1.603270 0.501288 -0.000873 0.0
0.844445 0.559842 -0.001304 0.0
1.641071 0.976622 -0.000344 0.0
1.730687 1.333531 0.000311 0.0
2.505653 1.217174 0.000352 0.0
2.040006 0.393548 -0.000684 0.0
1.183445 1.159270 0.001884 0.0
4.289505 1.409397 0.000492 0.0
4.130819 0.998849 -0.003447 0.0
3.699379 0.602593 0.001293 0.0
2.507504 0.464467 0.000393 0.0
2.672847 0.192007 0.001837 0.0
1.073037 0.871647 0.001044 0.0
0.352489 0.268360 -0.001910 0.0
0.800711 0.587912 0.002825 0.0
1.527166 0.699102 0.004858 0.0
0.248469 0.235838 0.000453 0.0
0.957657 0.270580 0.000985 0.0
1.739993 0.092693 0.002165 0.0
2.640470 0.968472 0.002406 0.0
3.439406 0.850090 0.000307 0.0
4.112734 0.461223 0.000616 0.0
3.663733 1.337797 0.000971 0.0
0.795613 0.450607 -0.002965 0.0
0.243947 1.101281 -0.001593 0.0
0.395745 1.253394 -0.001702 0.0
0.158293 0.727414 -0.000707 0.0
1.095629 0.408265 0.005005 0.0
4.060245 0.111852 0.000622 0.0
0.714724 0.579707 0.005635 0.0
2.806768 0.104771 -0.001484 0.0
3.819878 0.644436 0.001525 0.0
3.078953 0.330115 -0.003591 0.0
3.622411 0.195663 -0.002775 0.0
3.259496 1.028040 -0.001552 0.0
2.555915 0.719885 0.001062 0.0
4.326345 0.615421 -0.000886 0.0
2.994830 0.918421 -0.002236 0.0
1.892306 1.464702 -0.003014 0.0
1.628126 0.674394 0.001628 0.0
0.932801 0.662863 0.000872 0.0
1.429128 0.296379 0.005947 0.0
3.034245 1.120777 0.001760 0.0
1.057634 0.650070 -0.005165 0.0
1.585508 1.200778 0.002827 0.0
3.737195 1.164524 -0.001437 0.0
3.358696 1.022855 -0.001845 0.0
2.418572 1.163288 0.002105 0.0
3.120846 1.082772 -0.000301 0.0
1.083477 0.112703 -0.003821 0.0
4.420258 1.306274 -0.000603 0.0
2.754960 0.049674 0.002472 0.0
4.237918 1.157324 -0.003332 0.0
2.935454 0.075421 0.001528 0.0
0.199781 0.138067 0.003408 0.0
2.695797 0.123997 0.002569 0.0
1.877219 1.378623 -0.000363 0.0
2.559024 1.147512 0.002476 0.0
1.148460 1.005578 -0.000940 0.0
1.570699 0.737471 -0.002649 0.0
2.101249 1.374839 0.003065 0.0
4.296926 0.242981 -0.000649 0.0
1.204406 0.018871 0.004056 0.0
3.852282 0.485394 0.001455 0.0
3.453619 1.466637 -0.001373 0.0
3.594953 0.859541 0.003819 0.0
3.552068 1.322938 -0.001523 0.0
3.099257 0.444102 0.002846 0.0
1.611148 1.361367 0.001671 0.0
1.074663 0.435545 0.000793 0.0
0.429576 1.487733 0.000881 0.0
3.303983 0.282173 -0.001068 0.0
2.501502 1.094329 0.003658 0.0
1.841211 0.251447 -0.003819 0.0
2.882277 0.354667 0.002156 0.0
1.421000 0.554069 0.001747 0.0
3.438426 0.850511 0.000622 0.0
4.133100 0.786545 -0.001439 0.0
1.289159 0.768932 0.000685 0.0
1.698355 1.042881 0.003599 0.0
0.398309 1.168526 -0.003282 0.0
1.672790 0.461837 0.003033 0.0
1.632858 1.357513 0.003108 0.0
4.255066 0.197584 0.001695 0.0
1.141651 0.687066 -0.000898 0.0
4.384424 1.001880 0.003316 0.0
1.520349 1.032279 0.001391 0.0
3.715732 0.304171 -0.001689 0.0
0.628275 0.176644 -0.000626 0.0
1.813305 0.705489 0.000552 0.0
4.400816 0.516120 0.001173 0.0
3.645912 0.048420 0.003455 0.0
3.672057 1.021999 0.001600 0.0
2.976675 0.160497 -0.002864 0.0
2.762965 1.296215 -0.001621 0.0
0.793428 0.503532 -0.000175 0.0
1.778920 0.502757 -0.004671 0.0
0.106501 1.485303 0.000118 0.0
1.284782 0.798470 -0.001494 0.0
1.784150 1.512109 0.007447 0.0
3.563382 0.697617 -0.000097 0.0
3.514663 0.326538 0.002982 0.0
3.300180 0.254097 0.003979 0.0
3.442894 1.079822 0.001377 0.0
1.268000 0.622382 -0.000057 0.0
1.508576 1.092576 0.000658 0.0
0.502671 0.188013 -0.000488 0.0
4.099189 0.728100 0.000282 0.0
1.524805 0.425941 -0.000578 0.0
0.266265 0.406047 -0.004886 0.0
3.920340 1.299937 0.006442 0.0
3.434335 0.614420 0.002868 0.0
2.435332 1.031394 -0.001353 0.0
1.770046 0.263459 -0.001499 0.0
2.100626 1.400835 -0.000799 0.0
3.149512 0.101809 0.000740 0.0
4.354188 0.055736 -0.000107 0.0
0.172745 1.115503 0.000876 0.0
2.707495 0.735656 -0.004019 0.0
2.257321 0.195350 0.000811 0.0
4.032091 0.215309 -0.000729 0.0
0.145451 0.131017 0.005695 0.0
3.960882 0.363123 -0.000105 0.0
3.488528 1.195111 0.000111 0.0
1.232571 1.308510 -0.003240 0.0
2.900425 0.931522 -0.001201 0.0
2.520163 0.676074 -0.005211 0.0
0.157631 0.852744 -0.000800 0.0
0.941187 0.274280 0.001379 0.0
1.179266 0.857988 -0.001294 0.0
1.615571 1.052070 -0.000215 0.0
3.404748 1.364272 -0.000621 0.0
1.286656 1.349047 -0.002471 0.0
0.102908 0.403958 -0.001843 0.0
4.165156 1.475999 0.003830 0.0
0.968413 1.232193 -0.002766 0.0
3.200915 0.785658 0.002188 0.0
2.857056 0.297756 0.002856 0.0
3.134398 0.519487 -0.002251 0.0
1.013218 0.732938 -0.001327 0.0
3.413499 1.208493 0.001715 0.0
2.673379 0.446895 0.001797 0.0
1.858679 0.454815 -0.000138 0.0
0.506747 0.260666 -0.001431 0.0
1.054625 0.169763 -0.002347 0.0
3.351563 1.138744 -0.002038 0.0
2.630566 1.299754 -0.000403 0.0
2.011673 0.341305 0.001841 0.0
1.190998 0.705482 0.002262 0.0
0.433264 1.092919 0.003553 0.0
1.830840 0.347495 -0.002471 0.0
0.675979 0.722818 0.002507 0.0
0.095140 1.148392 -0.002787 0.0
2.062978 0.865848 -0.001043 0.0
2.665466 1.254280 -0.000722 0.0
2.682840 0.259310 0.002293 0.0
0.465695 1.215977 0.008656 0.0
1.547410 0.930837 0.001571 0.0
1.825875 1.253163 -0.004022 0.0
3.170872 0.463935 0.001023 0.0
3.750531 1.001174 0.000063 0.0
1.885653 1.132463 -0.000985 0.0
0.983534 0.054941 -0.002987 0.0
2.213788 0.100812 0.004011 0.0
0.498495 0.926292 -0.004153 0.0
0.030027 0.767670 -0.000315 0.0
1.737538 1.408343 0.002334 0.0
1.411075 0.853257 0.002360 0.0
0.538372 1.311997 -0.000435 0.0
1.124096 0.503664 -0.001250 0.0
0.137166 0.848720 -0.001959 0.0
2.645554 0.349668 -0.004131 0.0
1.966518 1.145429 0.000460 0.0
0.436623 0.896723 -0.000226 0.0
2.265361 0.560167 -0.000652 0.0
1.553129 0.883497 0.001193 0.0
0.014878 1.176869 -0.003125 0.0
3.437222 0.942508 -0.002639 0.0
2.803996 1.512504 -0.001154 0.0
2.068786 0.127519 0.001101 0.0
1.179366 1.129708 0.001840 0.0
0.633397 0.799755 0.000308 0.0
1.595476 1.371702 -0.000534 0.0
2.295438 0.422403 0.003222 0.0
0.203919 1.087500 0.001741 0.0
4.301745 1.154649 -0.002100 0.0
2.763317 0.213304 -0.000369 0.0
3.112029 0.155528 -0.000981 0.0
0.035732 1.102532 -0.000675 0.0
1.079580 0.788169 -0.002416 0.0
1.911850 0.643088 0.002874 0.0
0.768630 0.235316 -0.002923 0.0
3.985983 0.179639 -0.002946 0.0
3.752135 0.865347 0.001179 0.0
4.060398 1.083986 0.000716 0.0
1.347561 0.211666 0.001809 0.0
0.714066 0.832296 -0.000990 0.0
1.505555 0.364374 0.002137 0.0
2.440968 1.039958 -0.002996 0.0
3.087288 0.482740 0.004967 0.0
0.391810 1.147476 -0.001616 0.0
0.945619 0.772073 -0.002120 0.0
2.981997 1.305933 0.000560 0.0
0.321902 1.060334 -0.003288 0.0
3.500954 0.969738 0.003951 0.0
1.353947 1.436938 -0.000418 0.0
3.256233 0.343272 -0.003604 0.0
1.577375 0.711310 0.001226 0.0
0.825475 1.215055 0.002750 0.0
3.955506 1.180832 -0.000135 0.0
3.715637 0.232171 0.001260 0.0
0.630643 0.785114 0.000895 0.0
1.174368 0.211945 0.002333 0.0
3.341638 1.032754 0.007635 0.0
1.519272 0.356731 0.001066 0.0
4.052090 1.256056 0.003043 0.0
3.542900 0.013041 -0.002432 0.0
4.003171 1.492869 0.003273 0.0
4.396762 1.105361 -0.000194 0.0
1.805270 0.631968 -0.002432 0.0
3.250156 0.379900 -0.000622 0.0
1.292045 1.312189 0.003137 0.0
2.829733 1.494721 0.000402 0.0
3.215099 0.147743 -0.000975 0.0
0.701185 0.608949 -0.000663 0.0
1.076934 0.478040 0.000408 0.0
3.795998 0.934541 0.002010 0.0
4.000305 1.363942 -0.000334 0.0
0.427843 0.610092 -0.001072 0.0
3.678702 0.373321 -0.000088 0.0
2.928237 0.633204 0.001752 0.0
0.161621 0.147223 -0.005687 0.0
3.831454 0.007981 0.000502 0.0
0.670359 0.332020 0.002215 0.0
2.260551 1.052290 -0.000068 0.0
2.894170 0.941630 -0.000524 0.0
1.370631 1.012153 0.002766 0.0
2.766993 0.183342 -0.002853 0.0
2.196672 0.041497 -0.000663 0.0
4.038978 0.881352 -0.003721 0.0
2.683140 0.174428 0.000053 0.0
2.139541 1.235599 0.001200 0.0
2.762550 1.067918 0.000856 0.0
3.259739 0.885473 0.000389 0.0
1.564981 0.043131 0.000278 0.0
0.322586 0.340922 0.001874 0.0
1.458955 0.627560 0.004026 0.0
0.476432 0.917369 -0.004152 0.0
4.189048 0.686100 0.002595 0.0
0.933515 1.338254 0.001289 0.0
1.629492 0.882311 0.002110 0.0
4.176945 0.191930 -0.002674 0.0
1.807614 1.051628 -0.000365 0.0
1.203832 1.034070 0.001183 0.0
2.632107 0.963891 0.002158 0.0
3.081358 1.298234 -0.002403 0.0
2.925702 0.191264 0.002512 0.0
1.705309 0.660209 -0.001980 0.0
1.858229 0.149486 0.000869 0.0
3.221448 1.347826 0.002586 0.0
3.571439 0.467149 -0.003290 0.0
3.959329 0.245244 -0.006414 0.0
1.019794 0.266728 0.000804 0.0
3.307643 1.152315 0.001860 0.0
4.418816 0.103182 0.001173 0.0
1.476128 0.100368 0.000743 0.0
3.376219 0.483427 -0.000207 0.0
3.509257 1.120591 0.002352 0.0
2.568043 0.738945 -0.002377 0.0
3.140763 1.218065 -0.001350 0.0
3.294325 0.244512 -0.000329 0.0
2.185033 0.423650 0.001389 0.0
3.774045 1.327952 0.001691 0.0
1.424339 1.128713 0.000052 0.0
3.797927 1.437809 -0.000336 0.0
4.013416 1.484378 -0.000437 0.0
2.578690 0.672023 -0.001860 0.0
0.269642 0.641981 0.001955 0.0
3.124116 0.535297 0.003663 0.0
3.557468 1.461074 -0.002579 0.0
2.822825 0.875442 0.001897 0.0
0.115894 0.938198 0.000385 0.0
1.832549 0.527918 0.000474 0.0
1.453039 1.096009 0.001432 0.0
1.696685 1.104972 0.001885 0.0
3.538556 1.305856 0.001654 0.0
1.700613 0.588798 0.000244 0.0
3.036392 1.395678 0.000246 0.0
2.996999 0.862182 0.001917 0.0
1.342659 0.097291 -0.000252 0.0
3.783415 0.792698 0.002588 0.0
3.781470 -0.004367 0.090164 0.0
0.967875 0.001045 0.068272 0.0
1.594179 0.003787 0.041428 0.0
0.206779 0.001076 0.056234 0.0
2.701636 -0.001768 0.076841 0.0
3.207793 0.001032 0.094816 0.0
1.249437 0.005917 0.034533 0.0
1.234658 -0.000933 0.069021 0.0
1.300947 0.001378 0.118185 0.0
4.195361 -0.002002 0.000738 0.0
1.187702 0.000543 0.017896 0.0
3.185903 0.001132 0.114321 0.0
1.467118 0.000308 0.021012 0.0
0.488513 0.002141 0.077034 0.0
2.994992 -0.003393 0.001131 0.0
2.105559 -0.003362 0.043499 0.0
1.851971 -0.000934 0.095245 0.0
3.217967 0.001643 0.016949 0.0
0.196729 0.003495 0.103259 0.0
2.901899 -0.001521 0.066963 0.0
3.575234 0.001169 0.100011 0.0
0.038381 0.003278 0.090025 0.0
1.856792 -0.000212 0.084928 0.0
3.042698 -0.004104 0.022321 0.0
3.398085 -0.000501 0.084500 0.0
0.145723 -0.000129 -0.000091 0.0
3.466238 -0.000716 0.092511 0.0
1.507958 0.000963 0.023058 0.0
4.141124 0.000543 0.033518 0.0
3.998354 -0.003208 0.001979 0.0
3.283339 -0.000801 0.064687 0.0
2.199858 -0.000910 0.032560 0.0
0.830216 0.001882 0.093243 0.0
3.946370 -0.000619 0.066022 0.0
1.596775 -0.000791 0.011441 0.0
0.301393 0.001513 0.103337 0.0
2.986068 0.002848 0.113567 0.0
2.863754 -0.002860 0.090442 0.0
3.576351 -0.003354 0.093536 0.0
2.572041 -0.001897 0.083783 0.0
0.744827 -0.001931 0.051160 0.0
2.841045 -0.002735 0.105169 0.0
1.713418 0.003038 0.109664 0.0
1.374277 0.001298 0.099474 0.0
2.792187 0.003021 0.084515 0.0
2.665948 0.000884 0.080515 0.0
4.113072 -0.002329 0.041866 0.0
2.488308 0.000632 0.014819 0.0
4.152513 0.002552 0.007873 0.0
3.339463 0.000030 0.065736 0.0
1.254480 -0.000529 0.014619 0.0
3.954056 0.003192 0.098961 0.0
3.466883 0.000642 0.076300 0.0
2.737651 -0.000735 0.022871 0.0
0.809626 0.003646 0.044357 0.0
1.145579 0.001241 0.101875 0.0
2.130274 -0.001771 0.008428 0.0
2.577790 -0.001572 0.065227 0.0
2.014526 0.001986 0.063380 0.0
2.071710 0.001780 0.013984 0.0
3.128741 -0.000452 0.011817 0.0
4.225831 0.000951 0.074093 0.0
2.811792 0.000240 0.082688 0.0
2.080569 -0.000812 0.043891 0.0
2.922550 -0.000173 0.089388 0.0
2.365987 -0.001954 0.084083 0.0
1.563840 -0.001109 0.063882 0.0
1.290693 -0.002427 0.104821 0.0
0.203713 -0.000721 0.059876 0.0
1.467437 -0.001000 0.110225 0.0
1.476775 -0.000467 0.024058 0.0
1.042323 0.000271 0.041668 0.0
3.708125 -0.000190 0.121023 0.0
2.404075 0.001895 0.026105 0.0
2.707465 -0.002293 0.010496 0.0
2.399880 0.001751 0.056510 0.0
2.549126 -0.000293 0.048583 0.0
2.299355 0.000194 0.012786 0.0
0.074587 0.001545 0.016876 0.0
1.698691 -0.007696 0.008617 0.0
3.167861 0.002304 0.078597 0.0
4.284879 0.002308 0.008854 0.0
0.359088 0.000117 0.039679 0.0
3.948179 0.001713 0.063165 0.0
0.019110 -0.001070 0.027510 0.0
2.155651 0.000144 0.115243 0.0
0.331207 0.003506 0.067304 0.0
2.756270 -0.000736 0.091604 0.0
0.725415 -0.003331 0.109143 0.0
0.321896 -0.006251 0.031952 0.0
2.243030 -0.000612 0.031766 0.0
1.666814 -0.000105 0.069978 0.0
1.289813 0.001047 0.038091 0.0
2.016882 -0.002296 0.017507 0.0
0.775222 -0.003823 0.091302 0.0
4.014666 0.001125 0.061959 0.0
3.575163 0.001253 0.090179 0.0
1.893811 -0.000489 0.035370 0.0
2.907515 0.006702 0.097057 0.0
3.106619 -0.002188 0.011158 0.0
0.703711 -0.001748 0.097515 0.0
0.917545 -0.000213 0.072972 0.0
1.252411 0.002076 0.024723 0.0
0.132561 -0.006296 0.011585 0.0
0.215139 -0.003133 0.022952 0.0
0.530503 -0.000383 0.061949 0.0
0.828365 0.000490 0.090676 0.0
2.760603 -0.004688 0.117802 0.0
3.604708 0.000250 0.064014 0.0
1.680088 -0.003760 0.023064 0.0
2.862224 -0.004687 0.090510 0.0
1.353755 -0.001080 0.097355 0.0
1.146717 -0.002813 0.108473 0.0
2.382019 -0.003005 0.088454 0.0
0.774601 -0.001114 0.056626 0.0
3.235314 -0.000354 0.074403 0.0
2.091124 -0.000528 0.018635 0.0
3.747285 0.000632 0.002333 0.0
0.023578 -0.000316 0.049703 0.0
2.090415 0.006001 0.032391 0.0
2.076350 -0.002163 0.033029 0.0
4.290407 -0.000582 0.062277 0.0
2.598380 0.001396 0.096545 0.0
1.040808 -0.000004 0.081981 0.0
2.631606 -0.000825 0.062008 0.0
4.050800 -0.000157 0.064449 0.0
1.540893 0.005548 0.061647 0.0
4.021946 0.001452 0.070524 0.0
2.062594 0.002251 0.025153 0.0
0.685883 0.000197 0.044444 0.0
1.473997 -0.001725 0.105916 0.0
2.952343 -0.001745 0.043645 0.0
0.548975 -0.001943 0.055573 0.0
3.787337 0.000082 0.031650 0.0
1.419271 0.006069 0.027063 0.0
0.128313 -0.002069 0.039759 0.0
3.565924 -0.000755 0.119603 0.0
1.382406 0.003091 0.101459 0.0
1.923561 0.002055 0.007487 0.0
0.918342 -0.004301 0.050511 0.0
1.959275 -0.001953 0.015389 0.0
1.437830 -0.004943 0.005882 0.0
0.615891 0.000699 0.100321 0.0
3.510657 0.005946 0.105041 0.0
1.558084 0.000822 0.116026 0.0
1.379696 0.004971 0.054153 0.0
3.980332 0.002283 0.036953 0.0
0.180524 -0.003616 0.040777 0.0
0.416353 -0.002126 0.093525 0.0
2.159070 -0.001067 0.107117 0.0
1.269617 0.001416 0.089815 0.0
1.971743 -0.000038 0.048723 0.0
1.517850 0.002581 0.116781 0.0
1.069987 0.002316 0.070670 0.0
2.143697 0.000748 0.003841 0.0
0.961909 0.001087 0.020742 0.0
1.963441 -0.001612 0.028572 0.0
1.408842 -0.000544 0.037014 0.0
4.000853 -0.002350 0.056118 0.0
0.464379 -0.003313 0.004211 0.0
1.065235 0.000649 0.087231 0.0
2.784422 0.001857 0.061022 0.0
0.206258 -0.003428 0.013688 0.0
2.304599 0.001144 0.003597 0.0
0.402066 -0.001734 0.024880 0.0
3.239052 -0.000050 0.047970 0.0
3.630016 0.000389 0.067066 0.0
1.854242 -0.000878 0.016859 0.0
2.980098 -0.003633 0.052490 0.0
2.304055 0.001810 0.101369 0.0
3.048427 0.001534 0.057545 0.0
2.681729 -0.003873 0.066217 0.0
3.217326 0.000005 0.056566 0.0
4.111412 0.001646 0.022323 0.0
0.274804 0.000008 0.091789 0.0
2.785147 -0.000274 0.073463 0.0
0.918851 -0.000872 0.060375 0.0
4.373583 0.002728 0.011004 0.0
3.394681 0.001923 0.116778 0.0
2.877892 0.001722 0.030498 0.0
0.122181 -0.001594 0.098335 0.0
2.806761 0.001442 0.012996 0.0
4.419052 0.002648 0.036623 0.0
1.329484 0.003522 0.038325 0.0
3.857295 -0.003277 0.113018 0.0
2.368104 -0.000114 0.115690 0.0
1.512590 0.002294 0.121193 0.0
0.109460 0.001370 0.043456 0.0
4.034911 -0.002941 0.031877 0.0
2.336817 0.005178 0.063023 0.0
2.618969 -0.000481 0.116224 0.0
2.240206 0.000408 0.110717 0.0
0.142872 -0.001451 0.113731 0.0
0.466616 0.002566 0.057816 0.0
0.452211 -0.000889 0.076517 0.0
2.474947 0.003793 0.070942 0.0
2.697016 0.000992 0.004796 0.0
2.005100 0.005531 0.059744 0.0
2.441619 -0.001329 0.042056 0.0
2.466548 -0.001186 0.011602 0.0
2.004935 -0.003371 0.049866 0.0
1.660563 -0.000643 0.110239 0.0
1.915416 0.001346 0.016141 0.0
1.821870 0.001427 0.055428 0.0
2.326881 -0.001517 0.090843 0.0
3.945024 -0.002900 0.090051 0.0
1.678646 0.002000 0.124000 0.0
2.935287 0.000612 -0.002071 0.0
1.541137 0.000803 0.111969 0.0
2.569959 -0.002154 0.082959 0.0
3.909692 -0.003533 0.007421 0.0
3.727234 -0.002461 0.116275 0.0
2.084394 0.000060 0.050475 0.0
0.429905 0.002522 0.113831 0.0
1.893217 0.005136 0.078935 0.0
3.623102 0.000009 0.103871 0.0
0.771797 -0.000734 0.083317 0.0
0.554749 -0.000810 0.076988 0.0
1.665799 -0.003789 0.070569 0.0
3.610991 -0.002992 0.040733 0.0
1.140561 -0.000390 0.011132 0.0
1.463286 -0.000122 0.009524 0.0
3.912925 -0.003610 0.115485 0.0
1.741617 0.004423 0.023396 0.0
2.538575 0.002680 0.102414 0.0
3.651984 0.000908 0.093791 0.0
3.564489 0.001476 0.003479 0.0
1.856734 -0.004453 0.088171 0.0
4.406825 -0.002631 0.118577 0.0
2.253498 0.000155 0.018410 0.0
0.846825 0.003717 0.017160 0.0
3.650461 -0.000360 0.065230 0.0
0.551066 -0.002275 0.048527 0.0
2.514604 0.002366 0.079281 0.0
4.283267 -0.002064 0.100509 0.0
0.429022 -0.002181 0.101984 0.0
1.543113 -0.000639 0.081791 0.0
0.525452 0.001196 0.005776 0.0
0.720696 -0.005316 0.103663 0.0
1.629392 0.001185 0.031901 0.0
4.407814 0.004935 0.106647 0.0
0.695769 -0.001844 0.104214 0.0
3.919111 0.004282 0.100081 0.0
3.224897 -0.007840 0.067400 0.0
0.756072 -0.004087 0.115452 0.0
0.225692 -0.003441 0.078964 0.0
4.098024 -0.003288 0.068920 0.0
0.741803 -0.001961 0.061605 0.0
3.293411 0.002400 0.108388 0.0
1.691277 0.003746 0.008775 0.0
3.607055 -0.003866 0.020123 0.0
1.542377 0.003930 0.016550 0.0
0.627525 -0.003926 0.106407 0.0
0.954464 -0.002746 0.063598 0.0
3.949559 -0.000942 0.064726 0.0
3.707125 -0.000312 0.062090 0.0
4.144282 -0.000795 0.048472 0.0
3.087443 0.001767 0.033836 0.0
3.210332 -0.001289 0.093542 0.0
1.342030 -0.000024 0.087831 0.0
1.724927 -0.000537 0.027329 0.0
0.060027 -0.003961 -0.001183 0.0
1.355998 -0.002219 0.050919 0.0
1.600727 -0.002762 0.000853 0.0
3.780147 -0.000974 0.076056 0.0
0.644025 0.001023 0.048102 0.0
1.157376 0.000104 0.002867 0.0
1.930308 0.000287 0.117163 0.0
3.211504 0.001163 0.013353 0.0
1.212187 -0.000479 0.056334 0.0
1.283447 -0.005082 0.000319 0.0
2.340071 -0.001047 0.006419 0.0
2.493254 -0.002040 0.071217 0.0
0.389374 -0.001179 0.083164 0.0
3.874240 -0.000785 0.016987 0.0
0.705271 0.001219 0.029422 0.0
4.023615 -0.003309 0.046894 0.0
3.324486 -0.000099 0.042094 0.0
2.709106 -0.000682 0.054949 0.0
4.281310 -0.001704 0.041295 0.0
1.596837 -0.003830 0.047491 0.0
4.173291 -0.001644 0.118175 0.0
1.577081 0.005755 0.017399 0.0
3.993308 -0.001176 0.080718 0.0
1.520231 -0.002268 0.100027 0.0
1.275867 -0.000080 0.093918 0.0
0.587680 -0.000365 0.039965 0.0
0.468636 -0.004135 0.068875 0.0
0.647360 0.002363 0.017664 0.0
3.101679 -0.000409 0.090780 0.0
0.358470 0.003046 0.036711 0.0
2.495302 0.000618 0.111946 0.0
3.051504 -0.000034 0.084143 0.0
2.403823 -0.002230 0.095519 0.0
0.339810 -0.003775 0.062762 0.0
2.696846 -0.001095 0.016756 0.0
0.086756 0.000456 0.116110 0.0
3.694982 -0.000703 0.064067 0.0
0.499406 -0.001779 0.078589 0.0
4.353967 0.003037 0.057020 0.0
0.113184 -0.001859 0.020266 0.0
2.571252 -0.001853 0.118679 0.0
2.473294 -0.001335 0.039384 0.0
2.579077 -0.003141 0.054791 0.0
1.700314 -0.000583 0.055171 0.0
2.760054 0.002855 0.059516 0.0
2.527555 -0.006017 0.108830 0.0
2.209259 0.001276 0.031294 0.0
3.815639 -0.001755 0.105067 0.0
1.651204 -0.000742 0.042259 0.0
2.817230 0.000388 0.031492 0.0
2.654691 -0.007237 0.121489 0.0
3.521327 -0.001789 0.073118 0.0
3.957035 0.004792 0.056630 0.0
1.526132 0.000256 0.024602 0.0
2.886188 0.001065 0.085012 0.0
0.397191 0.001551 0.052228 0.0
1.487930 -0.005763 0.023605 0.0
0.479737 -0.000725 0.017900 0.0
0.036156 0.003390 0.030053 0.0
0.151940 -0.004229 0.073254 0.0
1.276737 -0.005915 0.031119 0.0
0.474631 0.003384 0.090257 0.0
3.590022 -0.000702 0.077034 0.0
1.892065 -0.000083 0.059984 0.0
1.003400 -0.000378 0.056928 0.0
2.709133 0.001888 0.004545 0.0
0.706166 0.000456 0.076002 0.0
0.414238 -0.003923 0.004307 0.0
1.310543 0.002885 0.043607 0.0
1.154837 -0.002905 0.056656 0.0
3.144655 0.001932 0.018318 0.0
3.871144 0.004002 0.035216 0.0
2.399101 0.001309 0.043296 0.0
0.942792 -0.001184 0.066072 0.0
2.621439 0.003103 0.091782 0.0
3.404959 0.001243 0.108759 0.0
0.722878 -0.002814 0.041155 0.0
1.256764 0.000189 0.076049 0.0
1.577415 -0.001909 0.111032 0.0
0.736270 0.003824 0.047382 0.0
4.129364 0.002418 0.075422 0.0
2.482776 -0.003406 0.045652 0.0
0.447269 -0.000709 0.033769 0.0
4.366940 -0.003611 0.071023 0.0
1.818000 -0.004588 0.016877 0.0
1.943450 0.001546 0.098698 0.0
2.683436 -0.002148 0.005366 0.0
1.936338 0.002706 0.043021 0.0
0.655087 0.003041 0.024449 0.0
2.268224 -0.000164 0.113590 0.0
3.464643 0.000069 0.067517 0.0
2.440989 0.006198 0.071004 0.0
0.357227 -0.002094 0.095522 0.0
1.940820 -0.001348 0.093819 0.0
3.081044 -0.001728 0.023263 0.0
0.050818 -0.000648 0.035560 0.0
3.309162 0.001274 0.088966 0.0
4.330520 0.001673 0.098090 0.0
3.938420 0.000771 0.075085 0.0
3.540661 0.003222 0.018462 0.0
2.749329 -0.000893 0.010443 0.0
1.046990 -0.001257 0.118071 0.0
1.403267 -0.006271 0.095525 0.0
3.869519 -0.001215 0.060795 0.0
3.051414 0.000607 0.040127 0.0
0.030540 -0.000587 0.087079 0.0
4.044378 -0.000026 0.030191 0.0
0.209569 0.000200 0.077700 0.0
1.795969 -0.001029 0.071978 0.0
1.899524 -0.000331 0.118432 0.0
1.939458 -0.001553 0.067915 0.0
2.690318 -0.000327 0.013778 0.0
0.973167 -0.001662 0.080578 0.0
2.594444 -0.003222 0.003061 0.0
4.296055 -0.001817 0.009713 0.0
1.670494 0.002488 0.039084 0.0
2.788498 0.001124 0.019645 0.0
0.895543 0.000272 0.108317 0.0
3.949432 -0.003217 0.003248 0.0
2.757152 -0.004119 0.014199 0.0
0.424010 0.002895 0.059363 0.0
4.116786 -0.001434 0.086114 0.0
1.517059 -0.000305 0.115890 0.0
2.866797 -0.001777 0.025652 0.0
0.928450 -0.000240 0.098530 0.0
2.501179 0.003462 0.054965 0.0
3.217386 -0.003549 0.084120 0.0
0.228692 0.000671 0.116810 0.0
0.276495 0.001891 0.003371 0.0
0.403631 0.000540 0.018220 0.0
0.172632 -0.004050 0.104063 0.0
3.308155 -0.001532 0.051327 0.0
3.503957 -0.002414 0.035178 0.0
0.797351 -0.001697 0.023436 0.0
4.423005 -0.007470 0.077784 0.0
1.779368 -0.000548 0.016590 0.0
0.972441 0.002270 0.058354 0.0
0.658265 -0.000564 0.094280 0.0
0.219255 0.002177 0.098779 0.0
3.632822 -0.005208 0.005337 0.0
1.026815 -0.000245 0.049105 0.0
2.828272 -0.004924 0.053613 0.0
3.084703 0.004082 0.098265 0.0
2.213541 -0.004661 0.008442 0.0
4.268955 0.001363 0.004276 0.0
1.848855 -0.004879 0.047744 0.0
4.159264 0.001874 0.044876 0.0
0.082325 0.001627 0.035126 0.0
1.151235 -0.000600 0.123035 0.0
0.860639 -0.002111 0.067587 0.0
4.199079 -0.003580 0.048882 0.0
0.884252 -0.000648 0.059287 0.0
1.123458 0.000050 0.041456 0.0
4.081484 -0.006199 0.007621 0.0
0.888247 0.000610 0.030304 0.0
1.797276 -0.001909 0.053101 0.0
1.162875 0.000011 0.066264 0.0
2.789107 0.000527 0.093672 0.0
3.859629 0.002776 0.066110 0.0
3.568837 -0.000370 0.115251 0.0
1.632161 -0.004303 0.055256 0.0
3.615819 0.002491 0.064899 0.0
1.206814 0.000803 0.113160 0.0
3.702253 -0.003725 0.046301 0.0
2.684837 -0.007430 0.003009 0.0
4.384381 -0.004643 0.101427 0.0
3.480651 0.006242 0.023303 0.0
2.064936 0.001785 0.061575 0.0
3.378995 -0.002299 0.022637 0.0
0.904323 -0.001989 0.116500 0.0
2.501147 0.002722 0.037499 0.0
3.244985 -0.000314 0.103357 0.0
3.833628 0.003495 0.044899 0.0
0.514772 0.002203 0.021331 0.0
2.729922 0.001561 0.098835 0.0
4.068833 -0.004272 0.062150 0.0
2.358137 -0.003432 0.105363 0.0
