0.47588902 0.63718727 -0.00157821 0.00000000
3.93425389 0.35521009 -0.00086164 0.00000000
0.78115652 1.52371790 0.00650789 0.00000000
2.06800049 1.57083230 -0.00106047 0.00000000
0.66428680 0.82024053 -0.00270924 0.00000000
2.64690640 1.56803144 0.00055630 0.00000000
4.01734643 1.08898747 -0.00130300 0.00000000
3.44454039 0.85883599 0.00101071 0.00000000
1.01600278 0.82123470 -0.00357917 0.00000000
1.20569331 0.72300986 -0.00099304 0.00000000
0.59852316 0.33942345 -0.00434016 0.00000000
2.20299288 1.02748073 0.00033628 0.00000000
0.50801768 0.82763564 0.00148556 0.00000000
1.02991828 0.38654353 -0.00188853 0.00000000
4.27941046 0.91672278 -0.00035523 0.00000000
0.51563023 0.55397403 0.00233383 0.00000000
3.76603672 0.35687268 0.00089536 0.00000000
3.64566172 0.63680245 0.00243383 0.00000000
1.44731033 0.12886066 0.00105308 0.00000000
0.34852032 1.32353333 0.00152253 0.00000000
1.40897919 0.36015749 -0.00214630 0.00000000
3.37126627 1.03648127 0.00270603 0.00000000
3.29187521 1.07273489 0.00179603 0.00000000
1.80753684 1.41621895 0.00111378 0.00000000
4.24382387 0.13152933 -0.00382121 0.00000000
1.08459234 0.26146915 0.00360792 0.00000000
3.47051123 1.41036732 0.00390379 0.00000000
0.41660605 0.60076329 0.00055547 0.00000000
4.21568222 1.66808219 -0.00223975 0.00000000
3.31798251 1.58641658 0.00141113 0.00000000
1.56035917 1.02509514 -0.00679084 0.00000000
3.29287941 0.09528851 0.00286620 0.00000000
0.28177260 1.61419565 0.00016579 0.00000000
2.35520812 0.08745063 -0.00285036 0.00000000
3.30666631 0.30972358 -0.00027903 0.00000000
1.67469162 0.49414220 -0.00397213 0.00000000
0.67787584 1.44179471 0.00094564 0.00000000
1.07127657 1.02057393 -0.00110328 0.00000000
3.35876801 1.46898274 0.00021765 0.00000000
3.63537943 0.99060554 0.00303279 0.00000000
0.79638716 0.87895835 0.00294811 0.00000000
3.23862250 0.94697747 -0.00288767 0.00000000
3.96067370 1.15769143 0.00054544 0.00000000
1.61594277 1.12767190 0.00027849 0.00000000
4.48011228 1.12223710 0.00176320 0.00000000
2.20724376 0.38774612 0.00161750 0.00000000
3.17512005 1.40855366 0.00186165 0.00000000
2.36434734 0.32817174 0.00225845 0.00000000
1.89984367 0.76432656 -0.00513924 0.00000000
1.31440999 1.35855523 0.00333315 0.00000000
2.84045485 1.59996654 -0.00332013 0.00000000
3.37937052 0.43377605 0.00062499 0.00000000
0.74618571 0.96315202 -0.00026237 0.00000000
2.96169828 0.43056383 -0.00263938 0.00000000
1.79602804 1.20078769 -0.00263583 0.00000000
1.99242453 0.59091710 -0.00393992 0.00000000
0.23028619 1.18333404 0.00040426 0.00000000
0.31506677 1.12469571 0.00233850 0.00000000
2.66437244 0.80334983 0.00061276 0.00000000
3.34558314 1.40253768 0.00205587 0.00000000
0.23960108 0.70805527 0.00191007 0.00000000
3.86098833 1.12949765 0.00021966 0.00000000
3.92549054 1.23212673 -0.00176997 0.00000000
3.32276931 0.35046627 0.00513750 0.00000000
1.97675259 0.40735605 -0.00029110 0.00000000
2.45378705 1.20452747 -0.00003375 0.00000000
0.82333118 1.02219903 0.00185585 0.00000000
1.32438670 1.18363315 0.00119436 0.00000000
0.60456065 0.19200587 -0.00022506 0.00000000
3.95427701 0.04853116 0.00060257 0.00000000
1.77106324 0.41310517 0.00090407 0.00000000
2.19032839 0.32705241 -0.00266960 0.00000000
4.12771969 0.72586991 -0.00158778 0.00000000
4.37220220 0.94665742 0.00019636 0.00000000
1.85921937 0.06273811 -0.00118770 0.00000000
2.59033780 0.82375014 0.00166537 0.00000000
0.23291091 0.01363889 -0.00243442 0.00000000
0.44597829 0.80619875 -0.00043708 0.00000000
1.19931997 0.30858253 -0.00014570 0.00000000
3.52813144 0.98242636 0.00090562 0.00000000
3.66735278 1.50888776 -0.00185400 0.00000000
0.47500785 1.15742915 -0.00235214 0.00000000
0.22276011 1.61638312 -0.00189966 0.00000000
2.26864021 1.61365423 -0.00042121 0.00000000
1.84340898 0.16156908 0.00193828 0.00000000
1.35428592 1.39568305 -0.00245101 0.00000000
3.23923453 1.28065969 0.00037423 0.00000000
3.29529174 0.54868227 -0.00015866 0.00000000
1.05853011 0.89065785 0.00048585 0.00000000
0.42484041 0.97150290 0.00389698 0.00000000
3.95140018 0.96888103 0.00039320 0.00000000
0.56793978 0.98674962 -0.00314560 0.00000000
0.58430713 0.82583202 -0.00385063 0.00000000
1.65666733 1.61494089 0.00083627 0.00000000
3.85424054 1.36136936 0.00639305 0.00000000
3.30819449 0.58254776 0.00253011 0.00000000
0.45052938 0.43067842 -0.00297738 0.00000000
1.34776358 0.59503076 0.00053133 0.00000000
3.81865891 1.03381998 0.00017469 0.00000000
4.02675896 0.51473834 -0.00424758 0.00000000
2.43239931 0.75309064 0.00193587 0.00000000
2.69337645 1.21185959 0.00442613 0.00000000
4.34956825 1.05235277 -0.00293603 0.00000000
2.23273307 1.56885847 0.00377967 0.00000000
3.93265423 0.37506365 0.00060982 0.00000000
3.32797946 1.27226912 0.00053902 0.00000000
2.21917633 1.27089945 -0.00108787 0.00000000
3.34773272 0.20908080 -0.00160593 0.00000000
2.14137068 0.36033443 -0.00389110 0.00000000
1.53216490 1.27932949 0.00064768 0.00000000
2.25572594 0.40430692 0.00113109 0.00000000
0.66048858 0.26186684 0.00073215 0.00000000
1.96652176 1.19160701 -0.00293007 0.00000000
2.46266928 0.13325541 -0.00190593 0.00000000
2.87354173 0.12583040 -0.00185210 0.00000000
0.46332177 0.26844355 -0.00440432 0.00000000
1.81024641 0.18764327 -0.00000770 0.00000000
4.00739571 0.28447240 0.00536034 0.00000000
0.34875168 0.28959048 0.00143874 0.00000000
2.68130171 1.40940477 -0.00739185 0.00000000
1.58840327 1.50761236 -0.00073271 0.00000000
2.20711348 0.22314563 0.00136075 0.00000000
1.09355775 1.61318119 -0.00033728 0.00000000
0.46492628 0.93554836 -0.00227237 0.00000000
3.41859178 0.21428659 -0.00353835 0.00000000
3.82686735 0.90002362 0.00267468 0.00000000
3.12361713 0.86775573 0.00147407 0.00000000
4.13228228 0.20499668 0.00469762 0.00000000
2.52858669 0.71042256 0.00195136 0.00000000
0.71540550 1.58337128 0.00165246 0.00000000
2.31771477 0.76816774 -0.00133576 0.00000000
2.73170583 1.66455851 -0.00396180 0.00000000
1.25068748 1.21980133 -0.00376108 0.00000000
1.19556249 1.64876933 0.00011818 0.00000000
3.49987306 1.45100193 -0.00033566 0.00000000
1.76940581 0.31455500 -0.00017956 0.00000000
0.68465516 1.06959945 -0.00140364 0.00000000
0.90289870 0.74857492 0.00026717 0.00000000
4.03574897 1.62328214 0.00386701 0.00000000
0.17443110 1.10856183 -0.00146694 0.00000000
1.35617290 0.04358223 0.00219039 0.00000000
2.21850490 0.70839044 0.00295247 0.00000000
1.00559130 1.51866114 -0.00015121 0.00000000
3.40322625 0.47438118 -0.00044881 0.00000000
3.80320631 1.57547339 -0.00358104 0.00000000
1.70988450 0.53365042 -0.00778889 0.00000000
3.32799736 0.54808247 0.00007579 0.00000000
0.46283674 0.19037564 -0.00423962 0.00000000
2.25508558 1.07228671 -0.00095971 0.00000000
2.95734805 1.44544306 -0.00130188 0.00000000
3.06412719 1.02984613 0.00336016 0.00000000
0.18137132 1.67686341 0.00296450 0.00000000
2.58492010 0.20094956 -0.00204401 0.00000000
3.90499745 1.35344631 0.00067050 0.00000000
1.72555011 0.20969309 -0.00237434 0.00000000
1.29468262 0.17046061 -0.00091206 0.00000000
0.26996141 1.22501371 -0.00229942 0.00000000
3.15564877 1.42215048 -0.00003875 0.00000000
1.31545707 0.39566042 -0.00217397 0.00000000
3.30397961 0.90995070 0.00033169 0.00000000
3.31853857 0.48798308 0.00316771 0.00000000
2.99071591 1.57951837 0.00270480 0.00000000
0.32242345 0.32096646 0.00056843 0.00000000
3.34219714 0.94756123 0.00091701 0.00000000
0.11582691 0.57829655 0.00259126 0.00000000
3.93468807 0.24254934 -0.00246716 0.00000000
3.53768655 0.24056651 -0.00051610 0.00000000
1.28984352 0.29334855 0.00293700 0.00000000
3.24964717 0.04284629 -0.00010163 0.00000000
1.09040519 0.10245654 0.00083510 0.00000000
3.71988134 0.59656845 -0.00057139 0.00000000
0.35916689 0.40509325 0.00159218 0.00000000
3.53479081 1.01034693 0.00285986 0.00000000
0.90729708 0.64888686 0.00313028 0.00000000
0.47088645 0.35333492 0.00119838 0.00000000
4.26119817 1.31463183 0.00254624 0.00000000
4.33232757 1.08903087 0.00511995 0.00000000
1.72259281 0.37636169 0.00160072 0.00000000
2.42677005 0.31327626 -0.00101165 0.00000000
3.86362408 1.26850887 -0.00032625 0.00000000
1.00096303 0.06370762 -0.00423678 0.00000000
3.90891142 1.05170985 0.00136926 0.00000000
0.77886722 0.49758825 0.00109960 0.00000000
3.15039522 1.53277353 -0.00154216 0.00000000
2.04459004 1.20734487 -0.00409371 0.00000000
3.65130737 0.60054776 0.00223494 0.00000000
1.85509335 0.89800281 -0.00299544 0.00000000
3.97451001 1.29712692 0.00005394 0.00000000
0.91681591 0.46788235 0.00271204 0.00000000
3.48327725 1.53895336 0.00256428 0.00000000
2.65005692 0.39380371 -0.00155330 0.00000000
3.81487552 0.29798763 0.00054723 0.00000000
4.15255426 1.13961217 0.00092258 0.00000000
1.70406637 1.17683056 0.00075064 0.00000000
1.83775638 1.64799054 -0.00009783 0.00000000
2.92172052 0.38649957 0.00178092 0.00000000
3.84399093 0.86696826 -0.00558153 0.00000000
2.22052431 0.81595544 0.00306281 0.00000000
1.66334482 0.63331628 0.00108719 0.00000000
4.38971324 0.42284308 0.00192396 0.00000000
4.33664397 0.52732781 0.00012644 0.00000000
0.89138139 1.07352976 0.00112272 0.00000000
0.24952893 0.76861721 0.00354510 0.00000000
3.65076576 0.81375144 -0.00156267 0.00000000
3.59826114 1.32013579 0.00126521 0.00000000
1.29051732 0.82513189 -0.00273321 0.00000000
3.43193843 1.48018719 0.00085891 0.00000000
3.64100645 0.89798773 -0.00162980 0.00000000
0.16458301 1.36602973 -0.00149188 0.00000000
2.64145961 1.18056789 0.00290515 0.00000000
1.25283966 0.59012027 -0.00293903 0.00000000
3.08889077 0.95012628 -0.00286576 0.00000000
0.42949782 0.24434368 0.00307064 0.00000000
2.58458536 0.87557940 -0.00297283 0.00000000
1.39087881 1.10123848 0.00354070 0.00000000
1.73473433 0.13341680 -0.00215243 0.00000000
0.06872182 0.32676153 0.00110481 0.00000000
0.68308318 1.56576201 0.00687751 0.00000000
0.31799205 1.54310648 0.00226737 0.00000000
2.57337026 0.58573060 0.00135000 0.00000000
1.16819576 0.43617454 -0.00407970 0.00000000
3.83096988 0.02426043 -0.00076933 0.00000000
3.77475922 1.19327481 -0.00362523 0.00000000
2.74182220 1.03073528 0.00294804 0.00000000
0.61051096 1.51977661 0.00100433 0.00000000
2.52429305 0.12593087 0.00153326 0.00000000
3.79655374 1.13856562 -0.00276943 0.00000000
1.78837275 1.23977395 -0.00087250 0.00000000
3.43677281 0.32254122 -0.00067924 0.00000000
1.52422022 0.36215465 0.00026018 0.00000000
2.09324828 0.03718401 0.00201037 0.00000000
0.96198555 0.39409297 0.00152339 0.00000000
2.81785986 0.00272550 0.00326836 0.00000000
2.88667894 0.48194383 0.00204228 0.00000000
2.64869077 0.69196273 0.00120367 0.00000000
3.07346333 0.63900777 -0.00695641 0.00000000
0.11762276 1.41427587 0.00422444 0.00000000
4.01991324 0.91221448 0.00314961 0.00000000
3.77793005 0.66128881 -0.00152366 0.00000000
3.87038246 0.09598718 -0.00300917 0.00000000
0.02055104 0.42702611 0.00015067 0.00000000
2.19678141 1.33545416 -0.00264313 0.00000000
2.04295219 0.37062221 -0.00085454 0.00000000
0.40019178 0.82572087 0.00166193 0.00000000
3.73274117 0.84813042 -0.00157694 0.00000000
2.32369603 0.85931220 0.00276601 0.00000000
3.18409309 1.37771793 -0.00180113 0.00000000
0.20969458 0.65657508 -0.00016689 0.00000000
2.88857236 0.18666432 0.00298841 0.00000000
2.75457658 1.69376490 0.00082620 0.00000000
4.34301052 1.25706461 0.00191893 0.00000000
2.05994652 0.33796267 -0.00008382 0.00000000
1.73253994 1.20282384 0.00096426 0.00000000
0.09690526 0.14060654 0.00608216 0.00000000
2.29586346 1.55597819 -0.00280156 0.00000000
3.43499780 0.15575952 -0.00115030 0.00000000
0.08735650 1.22999177 0.00361369 0.00000000
1.98287326 0.63284213 0.00301712 0.00000000
4.00326666 0.22862133 -0.00164755 0.00000000
2.80724591 0.88669882 -0.00081229 0.00000000
4.18733951 1.08848239 -0.00006379 0.00000000
0.40086468 1.28783680 0.00338922 0.00000000
4.01977530 0.21289452 0.00123403 0.00000000
3.71466413 0.86496132 0.00158151 0.00000000
3.82712284 0.50219592 0.00191560 0.00000000
2.49161511 0.27371203 -0.00443916 0.00000000
0.53668230 0.04711109 -0.00225702 0.00000000
3.34714676 1.50677386 0.00024892 0.00000000
4.24401475 0.45840971 -0.00241797 0.00000000
2.26766726 0.03830359 -0.00403040 0.00000000
0.22461896 0.37511204 -0.00754827 0.00000000
2.70162985 1.02806029 0.00528787 0.00000000
1.68379210 0.92119509 0.00131872 0.00000000
0.03988429 1.16956251 0.00309375 0.00000000
1.79240967 1.29593617 0.00155491 0.00000000
4.00281710 0.87323949 0.00135153 0.00000000
0.08860146 0.27831450 -0.00061115 0.00000000
3.03703275 0.60974119 0.00179347 0.00000000
4.02670941 0.02115919 0.00212309 0.00000000
2.41850637 1.64062252 -0.00480847 0.00000000
1.04172869 0.65769295 -0.00172137 0.00000000
3.20598282 1.37497214 -0.00009290 0.00000000
4.15430837 0.51913031 -0.00320239 0.00000000
0.63975167 0.87516843 -0.00015363 0.00000000
2.60251053 1.42109165 0.00066831 0.00000000
3.99769442 0.48449541 0.00243028 0.00000000
4.17385285 0.73472688 0.00027059 0.00000000
1.74263741 1.69224610 -0.00092676 0.00000000
3.73383271 0.46598751 0.00211099 0.00000000
1.97784418 1.36229701 0.00022748 0.00000000
3.20658184 0.06334236 0.00431950 0.00000000
1.05774686 1.28833357 -0.00296141 0.00000000
2.84431213 1.26672489 0.00256194 0.00000000
0.83118612 1.18557453 0.00043601 0.00000000
2.26833654 1.25120487 -0.00023533 0.00000000
1.94593738 0.78373639 -0.00352160 0.00000000
1.89283979 0.49220744 0.00107744 0.00000000
2.42356073 0.33043124 0.00172322 0.00000000
1.62878765 1.58943465 -0.00089588 0.00000000
0.33901132 0.00007003 0.00193499 0.00000000
0.09101952 1.14024000 0.00202647 0.00000000
4.46483374 0.02281954 -0.00011741 0.00000000
2.15912075 0.29707489 -0.00077896 0.00000000
2.42094800 0.79473772 0.00118084 0.00000000
2.17953866 0.55251357 -0.00211420 0.00000000
3.84282878 1.17378315 0.00117755 0.00000000
1.01998003 1.46356230 -0.00039814 0.00000000
2.00353782 0.88155469 0.00078524 0.00000000
3.00114992 1.14724151 0.00178184 0.00000000
0.33590280 1.30012017 -0.00052848 0.00000000
1.57754765 1.58683575 -0.00141947 0.00000000
0.37793245 1.10151394 0.00154151 0.00000000
2.49847360 0.56515363 -0.00365729 0.00000000
3.72801083 0.20201466 0.00025602 0.00000000
0.56739921 0.62951811 -0.00000869 0.00000000
4.18998998 0.00598040 -0.00153202 0.00000000
4.10971461 0.77331946 -0.00215790 0.00000000
3.70073419 0.29555990 -0.00076762 0.00000000
4.35662925 0.92255875 -0.00081668 0.00000000
0.64528319 0.19293695 -0.00284978 0.00000000
2.17620133 1.65914103 -0.00148230 0.00000000
3.56077451 0.14953466 -0.00107912 0.00000000
4.36656118 1.66342827 -0.00237708 0.00000000
1.83737921 0.87836462 0.00051291 0.00000000
0.64639428 1.37460478 0.00006564 0.00000000
2.83372245 0.73910545 0.00015774 0.00000000
0.52027945 0.31530454 0.00068499 0.00000000
1.15346937 0.04343477 0.00187615 0.00000000
0.40814581 0.94410698 -0.00248152 0.00000000
3.92188155 1.06432654 -0.00088028 0.00000000
0.27957428 1.31311300 0.00362090 0.00000000
1.53308158 1.52041667 -0.00202805 0.00000000
0.73049950 0.75358460 -0.00098738 0.00000000
0.73316778 0.46386549 -0.00625698 0.00000000
3.17873367 0.23720235 0.00005577 0.00000000
2.83554566 0.40602748 -0.00215107 0.00000000
3.15968728 0.54781115 0.00268361 0.00000000
3.63047973 0.66651157 0.00067730 0.00000000
4.19780007 0.99926965 -0.00379462 0.00000000
2.10884625 0.58762053 0.00018499 0.00000000
4.20556385 1.06716325 -0.00151498 0.00000000
4.45320333 0.74521338 -0.00153118 0.00000000
2.48570318 0.89281827 -0.00011829 0.00000000
2.73049150 0.59293512 -0.00245732 0.00000000
1.64750280 1.48573937 -0.00034097 0.00000000
0.11658408 0.52758008 0.00037608 0.00000000
2.26541773 1.58230450 -0.00108870 0.00000000
3.56744515 0.38462797 -0.00150848 0.00000000
4.42392358 1.11507305 0.00222253 0.00000000
1.64064889 0.57551610 0.00047228 0.00000000
4.29457908 0.42686102 0.00020192 0.00000000
2.82289550 0.29923524 -0.00171319 0.00000000
3.38780869 0.40351854 0.00081691 0.00000000
1.30576198 0.96677553 0.00062118 0.00000000
1.07041018 0.12743234 0.00214541 0.00000000
3.12019317 0.72988777 -0.00578901 0.00000000
3.00906814 0.90910567 0.00256943 0.00000000
0.38856842 0.40163296 -0.00165263 0.00000000
0.57339491 1.18334895 -0.00686828 0.00000000
4.02138680 0.45704577 0.00079411 0.00000000
0.90873109 1.66368466 0.00641911 0.00000000
2.90869153 1.18965494 -0.00005935 0.00000000
0.61725902 0.90114436 -0.00102174 0.00000000
1.88942102 0.81293837 0.00013253 0.00000000
2.56804237 0.98377333 -0.00021673 0.00000000
3.25019743 0.97236528 -0.00102320 0.00000000
0.86009224 1.55578847 -0.00312996 0.00000000
4.44851406 0.41652125 0.00276309 0.00000000
2.46970647 1.58344579 0.00159151 0.00000000
4.02797845 0.17202525 0.00123578 0.00000000
4.46547860 0.36282801 0.00213035 0.00000000
2.94942717 1.53761960 -0.00191636 0.00000000
1.12855237 0.04816630 0.00359015 0.00000000
2.35664051 1.06093045 0.00313944 0.00000000
2.87716771 0.02439712 0.00194341 0.00000000
1.47167960 0.17701729 0.00011154 0.00000000
2.52448224 0.38178038 -0.00070703 0.00000000
0.39285495 1.12779226 -0.00071482 0.00000000
0.79668255 1.36806742 -0.00230222 0.00000000
3.42741952 0.13305227 -0.00015880 0.00000000
1.16701209 0.46845937 0.00142338 0.00000000
0.12602265 1.21401940 0.00434919 0.00000000
3.57720284 1.41802297 -0.00026514 0.00000000
2.16216472 0.51236721 0.00295276 0.00000000
1.94756731 0.67670630 -0.00329478 0.00000000
0.65458997 1.13510213 -0.00056071 0.00000000
3.17103500 0.30509478 -0.00396967 0.00000000
0.90003983 0.98190227 -0.00120753 0.00000000
0.74765501 1.22257041 0.00045308 0.00000000
2.62477503 1.03318958 0.00539641 0.00000000
2.72514508 1.61928883 0.00109609 0.00000000
3.62717421 0.21391412 0.00336638 0.00000000
1.56431808 0.18459413 0.00140709 0.00000000
3.44071194 1.56361314 -0.00057732 0.00000000
4.25919634 1.46280556 0.00060589 0.00000000
3.97186434 1.45072568 -0.00365880 0.00000000
2.54799056 0.28248695 -0.00156272 0.00000000
0.91086007 0.68148154 0.00607922 0.00000000
3.72123299 1.20150315 0.00234542 0.00000000
3.19162301 1.53762717 0.00290676 0.00000000
1.40982352 1.57532573 -0.00352720 0.00000000
0.74000639 1.11203201 0.00267401 0.00000000
1.79905309 0.05581895 0.00225170 0.00000000
0.49121888 0.36888592 0.00234551 0.00000000
1.38751707 0.00797593 0.00125180 0.00000000
3.35402180 1.01343892 -0.00157919 0.00000000
1.31439365 0.04623259 -0.00479697 0.00000000
3.42864257 1.57119053 0.00180483 0.00000000
2.75413934 1.13395049 0.00027649 0.00000000
3.20806340 0.01839542 0.00018065 0.00000000
4.34761816 0.38213433 0.00182085 0.00000000
3.83389959 0.75350839 -0.00116901 0.00000000
4.25400379 1.36943216 0.00018551 0.00000000
3.32752964 1.68649945 0.00082756 0.00000000
3.19429021 0.22479177 0.00263962 0.00000000
1.16072872 0.49919413 0.00096666 0.00000000
1.74787760 1.64962378 -0.00243327 0.00000000
1.21498893 1.17483624 0.00073923 0.00000000
3.46690188 1.64861160 -0.00054239 0.00000000
0.52159580 0.08441081 0.00044505 0.00000000
3.23730170 1.38925285 0.00325654 0.00000000
0.26037977 1.07939911 0.00099445 0.00000000
4.24510388 0.05961293 0.00173552 0.00000000
1.68375763 0.34542274 -0.00069428 0.00000000
3.20181662 1.36102378 0.00352434 0.00000000
2.87412896 0.63925082 0.00595010 0.00000000
3.37541748 0.89035564 0.00174041 0.00000000
1.01270212 1.18397165 0.00121329 0.00000000
3.06734533 0.22063708 -0.00114296 0.00000000
0.02523114 0.89113311 -0.00101975 0.00000000
3.79050259 0.58744107 0.00347993 0.00000000
1.96160060 1.28355844 0.00108121 0.00000000
2.89703067 0.91345295 -0.00330033 0.00000000
1.83581608 0.59576403 -0.00040933 0.00000000
4.16255554 1.16048819 0.00146431 0.00000000
1.71511853 0.41465799 -0.00207266 0.00000000
0.08583417 1.47071586 -0.00220370 0.00000000
0.31015740 1.38226129 0.00182077 0.00000000
3.58255815 0.39537707 0.00060192 0.00000000
2.96675205 0.96240816 -0.00396299 0.00000000
1.31814089 0.78845964 -0.00264838 0.00000000
2.56897796 0.38661358 -0.00174479 0.00000000
0.90735773 0.36748766 -0.00095217 0.00000000
2.36536887 0.47031096 0.00019822 0.00000000
1.43580344 0.00352167 -0.00062987 0.00000000
2.17357534 1.01181559 -0.00239684 0.00000000
4.37284014 1.32839672 0.00204700 0.00000000
0.87913536 0.77452958 -0.00309503 0.00000000
2.77036834 0.65560493 -0.00057627 0.00000000
2.69417353 0.41808731 -0.00107541 0.00000000
3.34621789 0.30649685 0.00162909 0.00000000
2.76445651 0.42173095 0.00175933 0.00000000
3.34904366 0.73076459 -0.00204721 0.00000000
3.61569070 0.65447979 0.00125750 0.00000000
2.27987666 0.70093263 -0.00045004 0.00000000
2.07250934 1.38110712 -0.00282704 0.00000000
0.11263666 0.81883059 -0.00255656 0.00000000
4.04482345 1.68217266 -0.00209312 0.00000000
1.27954483 0.49951638 -0.00183331 0.00000000
3.70318769 1.00498147 0.00388304 0.00000000
3.13108291 0.56438857 -0.00180915 0.00000000
3.67726026 0.47926460 0.00034106 0.00000000
4.21211557 0.83823785 -0.00120855 0.00000000
0.83056754 0.18024902 0.00007079 0.00000000
1.98258648 1.68278897 0.00111496 0.00000000
3.91809404 0.20543001 0.00285652 0.00000000
1.09412427 0.12622495 -0.00258901 0.00000000
1.74532265 0.22430038 0.00003640 0.00000000
3.83765963 0.27515467 -0.00357886 0.00000000
0.40567431 1.04374155 0.00573775 0.00000000
2.24561841 0.72336277 0.00166088 0.00000000
3.97663361 0.30419111 0.00093161 0.00000000
1.34197676 0.39673149 -0.00217941 0.00000000
2.70884645 1.07632048 0.00050227 0.00000000
1.71977240 1.47486208 -0.00054537 0.00000000
0.99430317 1.19727263 -0.00145510 0.00000000
0.58441119 1.17355488 -0.00004971 0.00000000
1.11122042 0.93743055 -0.00193392 0.00000000
2.34207750 1.24442380 0.00064558 0.00000000
0.76706996 0.10855881 -0.00620218 0.00000000
2.31982080 1.43514095 -0.00245438 0.00000000
3.07291270 1.58479621 -0.00369302 0.00000000
2.62938401 0.92854283 0.00128622 0.00000000
2.55481738 1.25007797 0.00082210 0.00000000
1.39355835 1.63495882 -0.00191400 0.00000000
1.29831990 1.09961332 -0.00128067 0.00000000
1.94040061 1.39665289 0.00450642 0.00000000
3.77452601 0.32363409 0.00332834 0.00000000
4.25866700 1.08575925 0.00062503 0.00000000
0.22580395 0.37807607 -0.00353379 0.00000000
1.80574153 1.51379764 -0.00398415 0.00000000
1.18894334 0.06174274 0.00009470 0.00000000
1.24031813 0.26789345 0.00260618 0.00000000
1.65261575 0.10828820 0.00028137 0.00000000
0.40590649 0.37441850 0.00154347 0.00000000
1.65533027 1.28621766 -0.00289651 0.00000000
2.86999823 0.17494945 -0.00186620 0.00000000
0.23067780 0.87827881 -0.00256225 0.00000000
2.77743789 1.15853317 0.00052475 0.00000000
0.05752387 1.45052613 0.00331621 0.00000000
0.90000925 0.46412774 0.00298902 0.00000000
4.33230896 1.43116773 -0.00296907 0.00000000
4.10902945 1.06239141 -0.00284533 0.00000000
2.57980444 0.60280116 -0.00009550 0.00000000
4.47555607 1.25344200 -0.00145213 0.00000000
0.07474989 1.18290729 0.00123869 0.00000000
3.96594134 1.01492819 0.00376737 0.00000000
3.28144625 0.23891353 -0.00007780 0.00000000
0.06395383 0.52163811 0.00275292 0.00000000
3.69923714 1.66634015 0.00246328 0.00000000
0.13009357 0.85695933 0.00112972 0.00000000
2.08049669 0.78780984 -0.00535472 0.00000000
2.98839297 0.94691148 -0.00102137 0.00000000
0.52047112 0.80090386 -0.00150143 0.00000000
1.28517242 0.85649061 -0.00076793 0.00000000
4.27379496 0.64651357 -0.00199936 0.00000000
1.03656864 0.91456095 0.00122241 0.00000000
3.79230948 1.41028273 -0.00145548 0.00000000
0.62691136 1.66999178 -0.00042003 0.00000000
2.67177565 1.50420383 -0.00005855 0.00000000
3.65046383 0.52505568 -0.00113118 0.00000000
2.85285282 1.06415497 -0.00166649 0.00000000
2.35588522 0.44392868 -0.00460954 0.00000000
0.94662734 0.57079637 0.00123161 0.00000000
3.92921930 1.47518484 0.00141209 0.00000000
1.12783593 1.00257741 0.00037586 0.00000000
0.28324370 0.89467373 -0.00201914 0.00000000
2.94875749 0.28034573 0.00220622 0.00000000
1.70537756 0.64868943 0.00344490 0.00000000
1.95289397 0.81005115 0.00087149 0.00000000
2.74368991 1.34060464 -0.00012169 0.00000000
2.72533313 0.05283541 0.00006696 0.00000000
2.94164449 0.35262234 0.00254868 0.00000000
1.28471586 1.42366518 -0.00111554 0.00000000
0.10381200 1.39499801 -0.00210511 0.00000000
4.03273008 1.34823627 0.00475137 0.00000000
2.59032257 1.25232321 0.00073308 0.00000000
2.73252564 0.90876449 0.00570515 0.00000000
3.73007294 0.13989426 0.00066742 0.00000000
2.98996106 0.53603541 0.00085970 0.00000000
3.58454209 1.08568851 0.00005786 0.00000000
4.48051560 0.67707626 -0.00205816 0.00000000
4.10353071 0.76166287 -0.00174322 0.00000000
0.53640123 0.54081364 0.00460589 0.00000000
0.24433715 0.46231598 0.00268154 0.00000000
4.17374031 0.21477126 0.00158084 0.00000000
1.51434232 0.04413120 -0.00132709 0.00000000
0.36406690 1.46265909 0.00010260 0.00000000
2.85539688 0.20426049 -0.00237964 0.00000000
3.63079890 0.07483571 0.00112073 0.00000000
0.97033481 0.93393094 0.00254148 0.00000000
2.35639810 1.26734956 -0.00318836 0.00000000
3.45296969 0.48981778 -0.00364760 0.00000000
2.25720565 0.01033926 0.00041461 0.00000000
4.43108628 0.32152617 0.00239531 0.00000000
1.99418579 0.73242087 -0.00014231 0.00000000
0.63447205 0.29492487 0.00097990 0.00000000
1.38374837 1.49923709 0.00110900 0.00000000
1.46280495 0.49545590 0.00269902 0.00000000
4.45068995 0.43545629 0.00069695 0.00000000
2.69082544 0.88812470 0.00078214 0.00000000
2.40019871 0.84839941 0.00292738 0.00000000
2.40991451 0.17867704 -0.00293086 0.00000000
3.06164642 0.38225475 -0.00049219 0.00000000
1.68094186 0.59092282 0.00349898 0.00000000
3.02043997 0.08362249 -0.00129385 0.00000000
2.26062668 0.91263982 0.00053435 0.00000000
1.09561455 0.95895489 -0.00130963 0.00000000
3.08547333 1.61012417 0.00255064 0.00000000
0.93106779 0.14445714 0.00337265 0.00000000
1.96953477 1.64528650 0.00025737 0.00000000
0.88237576 1.42557909 0.00328757 0.00000000
2.55613360 1.41588792 -0.00245652 0.00000000
4.18432642 0.68171395 -0.00527473 0.00000000
2.90845026 1.64324856 0.00289346 0.00000000
4.41069899 1.23671019 0.00234291 0.00000000
3.05115382 1.39954865 0.00099699 0.00000000
2.74274711 0.50993684 0.00021441 0.00000000
1.41263719 0.41386722 -0.00158844 0.00000000
1.75657448 0.44939264 -0.00266434 0.00000000
2.68208494 1.63208908 -0.00273659 0.00000000
1.34030622 0.05782932 0.00203339 0.00000000
1.57000756 0.77758615 0.00130985 0.00000000
4.44071848 1.04088944 0.00180370 0.00000000
0.33421228 0.19541544 0.00045840 0.00000000
1.42683477 0.25273364 -0.00014946 0.00000000
3.29935372 1.44616038 -0.00288276 0.00000000
0.34689433 1.66964578 -0.00055328 0.00000000
2.27091095 0.49848760 -0.00104472 0.00000000
0.84720329 0.75859439 0.00172973 0.00000000
1.89222462 0.12860468 -0.00275218 0.00000000
2.35807823 1.66547734 0.00007472 0.00000000
3.43036582 0.39538453 -0.00093654 0.00000000
0.60940981 0.92326825 0.00187878 0.00000000
2.44463869 0.09612654 -0.00279074 0.00000000
1.14663893 0.96968673 -0.00261202 0.00000000
4.38556915 0.20099977 0.00149112 0.00000000
1.95552874 0.00962603 0.00031435 0.00000000
0.63760920 1.32125641 -0.00201867 0.00000000
1.44297033 0.32776617 0.00015934 0.00000000
1.73152347 0.64858422 0.00280414 0.00000000
1.65780786 1.26572466 0.00149546 0.00000000
0.47048663 0.74749719 -0.00533575 0.00000000
0.82971850 1.15457508 -0.00143136 0.00000000
2.71812607 1.18241161 0.00076834 0.00000000
3.45644372 0.28042002 -0.00422059 0.00000000
3.76916374 1.47278092 0.00273393 0.00000000
4.31717800 0.80435504 -0.00309717 0.00000000
2.62781438 0.07570812 0.00328701 0.00000000
3.29523436 1.24382235 0.00408613 0.00000000
4.02866841 1.52094852 0.00325238 0.00000000
3.01310521 1.65722865 -0.00202132 0.00000000
2.15301915 0.11243273 0.00100927 0.00000000
3.89031525 0.35883077 -0.00452905 0.00000000
4.26154957 1.55737888 -0.00061613 0.00000000
2.27295400 0.85707459 0.00422810 0.00000000
1.07135556 0.29109356 -0.00478354 0.00000000
1.70620700 0.35418288 -0.00248339 0.00000000
1.98632299 0.69195288 -0.00370261 0.00000000
4.00792630 0.55931332 0.00445078 0.00000000
1.81617145 1.22864218 -0.00030481 0.00000000
2.26814689 0.56254604 0.00050632 0.00000000
1.74389276 1.59394913 -0.00127535 0.00000000
2.88845135 0.23388250 -0.00077835 0.00000000
3.99782445 1.26217657 0.00078549 0.00000000
2.15977278 0.47403377 -0.00376120 0.00000000
3.82966767 1.12032883 -0.00011724 0.00000000
0.34966534 1.05804531 0.00024738 0.00000000
2.12848965 0.41018388 0.00079740 0.00000000
3.69743288 0.67525048 0.00088415 0.00000000
3.44815254 1.56828403 0.00139270 0.00000000
1.63021733 0.42309958 0.00035441 0.00000000
2.66679886 1.34898392 -0.00257132 0.00000000
4.34071938 0.35984191 0.00159303 0.00000000
2.64725479 1.55160162 -0.00511007 0.00000000
0.10394011 1.22623239 0.00076319 0.00000000
1.44558453 1.51027865 0.00114531 0.00000000
1.88050588 1.44970138 -0.00145698 0.00000000
2.38505931 1.40822691 -0.00053965 0.00000000
0.48386156 1.26258755 -0.00175349 0.00000000
3.96712835 0.74051480 -0.00221463 0.00000000
1.92572561 0.03525135 -0.00182957 0.00000000
1.22050937 0.46321105 -0.00015359 0.00000000
2.58931596 1.00963579 -0.00298782 0.00000000
3.01432387 1.02798600 -0.00049314 0.00000000
4.37307706 0.30648221 -0.00163980 0.00000000
1.75901059 0.72398235 -0.00456299 0.00000000
4.03288946 0.84942308 0.00032408 0.00000000
2.05190317 1.66313246 -0.00332712 0.00000000
0.34908196 1.27858735 -0.00291215 0.00000000
0.35314704 0.73146612 0.00225520 0.00000000
1.87267792 0.22173735 0.00148049 0.00000000
1.48176957 0.83833794 -0.00091375 0.00000000
1.96310009 0.77874158 -0.00004680 0.00000000
3.57536338 1.05460665 -0.00117612 0.00000000
4.30922299 0.07015104 -0.00287385 0.00000000
0.72896730 0.17424586 -0.00019584 0.00000000
4.32165081 0.68595653 -0.00347427 0.00000000
2.00885877 1.52485488 -0.00088725 0.00000000
0.01610355 0.15995785 -0.00390823 0.00000000
4.17837716 1.38365439 0.00312209 0.00000000
1.24994260 0.02411411 0.00204157 0.00000000
3.83714612 1.37488215 0.00088973 0.00000000
2.12121311 0.52217584 0.00237496 0.00000000
2.70474432 1.56883032 -0.00730219 0.00000000
1.80339545 0.07324590 -0.00382873 0.00000000
1.30840375 1.02217108 -0.00282921 0.00000000
2.40428721 0.11889398 0.00145012 0.00000000
3.31741439 1.56539539 0.00048820 0.00000000
1.92770487 0.26012330 -0.00093650 0.00000000
3.08586583 1.27963755 0.00561208 0.00000000
0.73009836 0.94214004 -0.00119736 0.00000000
1.79219440 0.34455052 0.00100493 0.00000000
0.78371745 0.94567201 -0.00182377 0.00000000
3.49123188 0.31235742 0.00150061 0.00000000
3.43307633 1.34839401 0.00063192 0.00000000
1.85685601 0.95334642 0.00197788 0.00000000
1.22155969 0.88484472 0.00284896 0.00000000
0.83032331 1.66337840 0.00282764 0.00000000
0.46405709 0.71776030 -0.00042193 0.00000000
3.90306060 0.76653932 0.00000046 0.00000000
0.61739005 1.20612972 0.00116025 0.00000000
2.53872065 0.64590423 0.00234858 0.00000000
1.38988593 1.54876291 0.00255932 0.00000000
4.29952116 1.38425801 0.00036349 0.00000000
0.46721031 1.01169213 -0.00119777 0.00000000
3.34737923 0.14978709 -0.00247685 0.00000000
3.83959589 0.15905282 0.00038708 0.00000000
1.51537860 0.97887474 -0.00087349 0.00000000
2.40632468 1.49680419 -0.00102069 0.00000000
0.17961818 0.12050125 0.00054931 0.00000000
0.51959880 1.35760908 0.00090552 0.00000000
4.25391195 1.50537589 0.00143745 0.00000000
1.05305362 0.91630845 -0.00195531 0.00000000
1.09804372 0.14449738 0.00296547 0.00000000
4.14772921 1.54843866 -0.00500035 0.00000000
2.57592095 1.09694921 -0.00384223 0.00000000
0.84581030 0.01194497 0.00296446 0.00000000
2.88876699 0.59912025 -0.00353278 0.00000000
2.94672557 1.21883895 0.00262547 0.00000000
2.08744201 1.35690344 0.00006570 0.00000000
3.12604971 0.18735684 0.00409204 0.00000000
1.66344492 0.36661840 0.00328069 0.00000000
0.79527943 0.10933846 0.00030785 0.00000000
4.12034888 1.52299441 -0.00185903 0.00000000
3.80776185 1.09438611 -0.00175182 0.00000000
0.22802070 1.24012844 0.00200548 0.00000000
4.09248734 0.31271905 -0.00032449 0.00000000
4.34637905 0.13502362 -0.00096295 0.00000000
3.89883484 0.84499249 -0.00251981 0.00000000
3.29119048 0.61876416 0.00291819 0.00000000
0.89285363 1.67763670 0.00275305 0.00000000
2.34997347 0.26625720 -0.00077551 0.00000000
1.76087438 1.11936306 -0.00285815 0.00000000
4.06073618 0.23279918 -0.00234958 0.00000000
0.81937838 0.90150042 0.00024463 0.00000000
1.96975342 1.34706407 -0.00464817 0.00000000
0.75422923 0.15150683 -0.00176859 0.00000000
3.63745195 0.63334225 0.00053652 0.00000000
2.65941411 1.13370509 0.00147171 0.00000000
4.37004047 1.23947331 -0.00238300 0.00000000
1.35278224 0.69052795 -0.00139052 0.00000000
0.81652273 0.55686142 -0.00151516 0.00000000
3.52629312 1.01684583 -0.00082662 0.00000000
2.75745831 0.60932157 0.00086676 0.00000000
3.53309099 0.01020468 0.00366683 0.00000000
3.69324269 1.00691216 -0.00276469 0.00000000
2.98785477 1.60450555 -0.00226227 0.00000000
0.83145278 0.74654393 -0.00427743 0.00000000
2.47541331 1.58645018 0.00176142 0.00000000
1.11743548 0.47081130 0.00066524 0.00000000
1.30805256 1.28463309 0.00042663 0.00000000
4.26863964 1.64509898 -0.00008681 0.00000000
0.97447187 1.28993628 0.00030281 0.00000000
0.03757921 1.42118683 0.00323971 0.00000000
3.17955635 0.34864464 -0.00161603 0.00000000
4.12635330 0.22671100 0.00202666 0.00000000
1.34507990 0.90724113 -0.00204890 0.00000000
4.20519395 0.57391829 0.00022344 0.00000000
2.67977201 1.31538845 -0.00362783 0.00000000
4.02805013 1.53227617 -0.00454851 0.00000000
1.61993385 0.30200095 -0.00256903 0.00000000
4.30534866 1.42228387 0.00028994 0.00000000
1.31362820 0.87409285 -0.00057921 0.00000000
2.32230141 1.54990611 0.00040111 0.00000000
3.31623837 0.49502417 0.00283640 0.00000000
0.45695126 1.68685252 0.00131534 0.00000000
3.09982152 1.58179289 -0.00191348 0.00000000
0.93812858 0.55662470 0.00500963 0.00000000
2.20692854 1.35766182 0.00411351 0.00000000
3.18787656 0.22456757 -0.00131185 0.00000000
4.30743043 0.03344784 0.00443072 0.00000000
4.05912976 1.30021578 -0.00332546 0.00000000
0.51940998 1.68976390 0.00196863 0.00000000
0.17617474 1.03674899 0.00439527 0.00000000
2.21614165 0.37577337 0.00391634 0.00000000
3.35896726 0.02076532 0.00046267 0.00000000
0.84505510 1.52566007 -0.00388149 0.00000000
0.09324745 1.40623442 0.00196740 0.00000000
2.97681665 0.03770267 -0.00346766 0.00000000
4.36144969 0.45631189 -0.00025893 0.00000000
4.25205708 0.38427698 -0.00068860 0.00000000
2.64005074 1.40095511 -0.00155839 0.00000000
3.08249875 1.15090656 -0.00405401 0.00000000
2.15840056 0.70989989 0.00055472 0.00000000
3.47716147 1.41080009 0.00065608 0.00000000
3.40826141 0.51854312 0.00503051 0.00000000
4.26765135 0.05418324 0.00467520 0.00000000
1.59245516 0.08688158 -0.00087302 0.00000000
1.68084188 0.14959515 0.00231956 0.00000000
0.74069840 0.20470079 -0.00076077 0.00000000
0.25737613 0.77035357 0.00179680 0.00000000
1.03997215 1.61179725 -0.00348347 0.00000000
3.94718019 0.21159219 0.00064841 0.00000000
2.09366551 0.93129811 -0.00107198 0.00000000
1.99958103 0.21201686 0.00102869 0.00000000
3.26376972 0.36470191 0.00465942 0.00000000
2.18292556 0.12064612 -0.00562359 0.00000000
0.71853990 1.35334180 -0.00147625 0.00000000
4.39309119 0.17335608 -0.00404426 0.00000000
3.45351251 0.82681472 -0.00295410 0.00000000
1.43600351 1.20192396 0.00240364 0.00000000
3.17333023 0.88493764 0.00362553 0.00000000
1.00938213 1.03274883 0.00069204 0.00000000
4.28482134 0.22272343 0.00142947 0.00000000
1.44435409 1.64798871 -0.00112070 0.00000000
3.19412439 0.52487276 0.00472179 0.00000000
1.26459611 1.42670896 -0.00247317 0.00000000
2.97548934 0.83526265 0.00234820 0.00000000
0.61002978 0.44197330 -0.00058508 0.00000000
0.87144589 1.01791803 -0.00209912 0.00000000
1.15014170 0.01369842 -0.00071502 0.00000000
0.25846398 0.77977293 0.00291787 0.00000000
0.61349470 0.85501544 -0.00174799 0.00000000
0.47059092 1.35427471 -0.00390827 0.00000000
0.57033740 1.20903505 -0.00121098 0.00000000
0.85088703 0.92037483 -0.00056177 0.00000000
4.06831091 0.45532953 0.00157593 0.00000000
1.86502685 0.81031183 0.00636288 0.00000000
2.60707410 0.33594597 -0.00162190 0.00000000
4.46220769 1.01114359 0.00279599 0.00000000
1.20651105 0.93972887 0.00294366 0.00000000
1.71839110 0.53051536 0.00151793 0.00000000
1.65335123 0.98716280 -0.00145277 0.00000000
1.53494408 0.00091454 0.00139601 1.00000000
1.76569921 -0.00125476 -0.00169482 1.00000000
3.27547019 -0.00247891 -0.00189388 1.00000000
4.15027546 -0.00266140 -0.00017175 1.00000000
3.64923802 0.00175546 0.00272924 1.00000000
0.64992842 -0.00587595 0.00144918 1.00000000
2.17948856 -0.00425515 0.00322978 1.00000000
1.12128606 -0.00189304 -0.00404031 1.00000000
3.78781733 0.00476965 0.00007096 1.00000000
0.19041167 -0.00289728 0.00213544 1.00000000
1.45988938 -0.00045653 0.00191213 1.00000000
1.18497192 -0.00071045 -0.00386499 1.00000000
0.21551251 -0.00103451 0.00028161 1.00000000
1.84238119 -0.00140942 -0.00134553 1.00000000
4.20330949 -0.00342489 0.00159786 1.00000000
1.97070900 0.00298976 -0.00263084 1.00000000
3.54884607 0.00302978 -0.00166301 1.00000000
1.35698532 -0.00295131 -0.00077344 1.00000000
2.31776807 0.00023728 0.00415679 1.00000000
3.19862717 -0.00055641 0.00053570 1.00000000
0.60929856 -0.00156588 -0.00013914 1.00000000
0.70281156 0.00386908 -0.00201050 1.00000000
0.20367590 -0.00100583 0.00353973 1.00000000
0.96964060 -0.00008471 -0.00020340 1.00000000
0.53580892 -0.00066471 -0.00108546 1.00000000
4.21979025 0.00243818 0.00145740 1.00000000
3.03471146 0.00212273 -0.00208343 1.00000000
2.94606690 -0.00160427 -0.00022052 1.00000000
0.64940904 -0.00156526 0.00143752 1.00000000
3.73833244 0.00122120 0.00059240 1.00000000
0.84155430 -0.00309781 0.00338641 1.00000000
2.24257496 0.00256873 0.00269833 1.00000000
2.51731968 -0.00121805 0.00369939 1.00000000
0.57873990 -0.00007300 0.00110064 1.00000000
3.55826366 -0.00220831 0.00299365 1.00000000
4.11897678 -0.00083913 -0.00278168 1.00000000
3.15491736 -0.00149627 0.00295544 1.00000000
0.74249239 -0.00391461 -0.00040605 1.00000000
0.96194040 -0.00155281 0.00039204 1.00000000
2.93002156 -0.00338029 -0.00258956 1.00000000
2.63572669 0.00262602 0.00181208 1.00000000
2.26833557 -0.00231559 0.00184316 1.00000000
3.22355627 -0.00054750 0.00082604 1.00000000
4.43280603 -0.00001324 0.00177753 1.00000000
2.93214202 -0.00095830 0.00027511 1.00000000
4.14971203 0.00337328 0.00468866 1.00000000
3.93610432 -0.00230499 0.00403993 1.00000000
4.25172957 0.00035132 -0.00524110 1.00000000
4.43693237 -0.00104095 0.00427514 1.00000000
1.17373519 -0.00310489 0.00189883 1.00000000
1.16217685 -0.00011856 -0.00479582 1.00000000
1.08909722 -0.00139950 0.00026707 1.00000000
4.25921121 0.00033936 0.00184618 1.00000000
4.15637106 0.00314504 0.00022716 1.00000000
0.25641890 -0.00166433 -0.00027730 1.00000000
4.29506492 -0.00171892 0.00222084 1.00000000
3.54775547 0.00114476 -0.00000426 1.00000000
2.64689246 0.00713788 0.00156615 1.00000000
0.60406718 -0.00287776 0.00068774 1.00000000
2.58570303 -0.00216694 -0.00307055 1.00000000
0.83840482 0.00190899 -0.00085945 1.00000000
2.71619205 0.00032472 0.00604540 1.00000000
0.61353016 -0.00253081 0.00263503 1.00000000
4.46813866 0.00082950 0.00532510 1.00000000
4.30183131 0.00050475 0.00310056 1.00000000
2.08818398 0.00116561 -0.00064158 1.00000000
1.32288614 -0.00171790 0.00091515 1.00000000
1.61732184 -0.00128367 0.00417157 1.00000000
2.51142539 0.00188256 -0.00356205 1.00000000
0.22570387 -0.00144120 -0.00060554 1.00000000
2.56794574 -0.00203143 -0.00298514 1.00000000
2.60078115 0.00069909 -0.00165044 1.00000000
3.77669137 0.00367005 0.00162772 1.00000000
1.48097216 0.00505391 -0.00220881 1.00000000
4.46130121 -0.00270208 0.00487646 1.00000000
0.42383338 -0.00293490 0.00151995 1.00000000
1.16856507 0.00120121 -0.00269779 1.00000000
2.72237718 -0.00045841 -0.00267771 1.00000000
2.84678631 0.00421028 0.00411650 1.00000000
2.36536866 0.00239000 0.00196416 1.00000000
4.11051959 -0.00113870 -0.00059960 1.00000000
4.05583153 -0.00402406 0.00206620 1.00000000
4.10993859 0.00160677 -0.00170242 1.00000000
0.37846239 0.00106862 0.00005823 1.00000000
2.63150280 -0.00259495 -0.00166747 1.00000000
2.77686897 0.00592380 0.00013167 1.00000000
1.27053761 0.00124400 -0.00037628 1.00000000
3.86468194 -0.00119109 -0.00009301 1.00000000
2.60699569 0.00156194 0.00130642 1.00000000
4.19521899 0.00314981 -0.00199905 1.00000000
2.52239224 -0.00163141 0.00217767 1.00000000
0.50142293 -0.00150865 0.00252498 1.00000000
2.24025967 0.00021075 0.00138511 1.00000000
0.40620018 0.00013645 -0.00060699 1.00000000
1.67116231 -0.00042289 0.00164834 1.00000000
0.11155364 0.00215165 0.00175655 1.00000000
0.14242307 -0.00038990 -0.00170602 1.00000000
3.29212640 -0.00387238 0.00616309 1.00000000
2.64121283 0.00337817 -0.00415756 1.00000000
2.83746458 0.00126374 -0.00167020 1.00000000
1.40323243 -0.00015995 -0.00280814 1.00000000
1.67639472 0.00136106 -0.00368106 1.00000000
2.55708490 0.00190885 0.00221034 1.00000000
3.73743947 -0.00169876 0.00075232 1.00000000
1.35515145 0.00204405 0.00500541 1.00000000
0.96769306 0.00025381 -0.00173661 1.00000000
0.51155507 0.00138550 0.00444946 1.00000000
3.12118691 0.00005259 -0.00431853 1.00000000
2.04185501 -0.00072064 0.00124399 1.00000000
3.78983543 -0.00220932 -0.00392240 1.00000000
0.19943273 -0.00494593 0.00121373 1.00000000
1.57128317 -0.00432217 -0.00189402 1.00000000
1.84270929 -0.00512716 0.00126877 1.00000000
0.04412188 -0.00236328 0.00165643 1.00000000
4.18424244 0.00295895 -0.00104237 1.00000000
2.00299463 -0.00059639 -0.00125297 1.00000000
1.94764460 -0.00361363 0.00144548 1.00000000
0.97615831 0.00112233 0.00182081 1.00000000
3.42588390 -0.00049055 -0.00493974 1.00000000
3.36657298 0.00212745 -0.00083684 1.00000000
1.42855501 0.00021800 -0.00276789 1.00000000
2.62544620 0.00011028 -0.00168607 1.00000000
2.03908449 -0.00038291 -0.00077688 1.00000000
1.63246964 0.00097883 0.00432317 1.00000000
2.64037168 -0.00111455 0.00112518 1.00000000
3.15761094 0.00015618 -0.00047823 1.00000000
2.78065737 -0.00068303 -0.00482611 1.00000000
3.29011474 -0.00293009 0.00139808 1.00000000
2.00082569 -0.00434597 0.00165787 1.00000000
2.01789544 0.00148273 -0.00115832 1.00000000
1.23856815 -0.00375936 -0.00039334 1.00000000
0.54631370 -0.00109924 -0.00315365 1.00000000
1.39512890 0.00027924 0.00624530 1.00000000
1.29684223 -0.00082266 -0.00106660 1.00000000
3.65453789 -0.00100880 0.00449782 1.00000000
1.54749359 -0.00328137 -0.00105712 1.00000000
4.19600634 -0.00084368 0.00147374 1.00000000
1.86537331 0.00028729 -0.00231145 1.00000000
0.08342835 -0.00023879 0.00120619 1.00000000
2.38314265 -0.00292579 0.00048376 1.00000000
4.04721659 0.00324836 0.00093277 1.00000000
0.74950438 0.00011871 -0.00190632 1.00000000
2.26834193 -0.00095660 0.00272559 1.00000000
2.01049153 -0.00253502 0.00061877 1.00000000
2.57936222 0.00152876 0.00072842 1.00000000
2.95534969 -0.00592155 0.00337158 1.00000000
2.82878236 -0.00144479 0.00053001 1.00000000
1.56548349 0.00300330 0.00097597 1.00000000
3.23071968 0.00021914 -0.00100382 1.00000000
0.92620599 0.00152754 0.00415130 1.00000000
1.18136738 0.00081955 0.00148983 1.00000000
1.97278005 -0.00192470 -0.00032239 1.00000000
3.33464851 0.00438464 -0.00142150 1.00000000
3.00674586 -0.00021046 0.00616491 1.00000000
3.75997513 -0.00246216 0.00266869 1.00000000
1.86751132 0.00026779 -0.00176150 1.00000000
1.10014169 0.00124309 -0.00422779 1.00000000
0.74947379 -0.00374900 0.00110670 1.00000000
0.20883981 0.00232672 0.00073315 1.00000000
3.41121191 0.00222314 0.00118292 1.00000000
0.08622566 0.00147100 -0.00126873 1.00000000
3.31347761 -0.00164288 0.00156041 1.00000000
0.82134995 -0.00204315 0.00152673 1.00000000
4.36008622 -0.00183587 0.00349290 1.00000000
0.83677965 -0.00079001 -0.00163197 1.00000000
3.85215712 0.00069437 -0.00370780 1.00000000
0.19678573 0.00048083 0.00129759 1.00000000
0.34948080 -0.00140466 -0.00152024 1.00000000
0.37712073 -0.00093201 0.00161952 1.00000000
1.90841475 -0.00212375 0.00026534 1.00000000
2.56399939 0.00256155 -0.00291341 1.00000000
2.68713498 0.00125794 0.00120974 1.00000000
0.28843937 -0.00178576 -0.00245818 1.00000000
0.38230817 0.00112237 -0.00117659 1.00000000
2.03176731 -0.00010288 0.00006643 1.00000000
1.95946191 -0.00035894 -0.00377988 1.00000000
4.00964884 -0.00208305 -0.00103687 1.00000000
3.66431120 -0.00183224 -0.00165167 1.00000000
2.88019773 -0.00384632 0.00106909 1.00000000
0.86154786 -0.00123501 0.00006663 1.00000000
1.38819414 -0.00232776 -0.00132249 1.00000000
0.66125572 0.00060130 0.00184989 1.00000000
2.50170606 0.00112311 0.00008661 1.00000000
2.29696283 0.00160818 -0.00017332 1.00000000
1.57613432 -0.00022767 -0.00324441 1.00000000
3.07494463 -0.00361821 -0.00167616 1.00000000
1.80180568 0.00089557 -0.00060716 1.00000000
2.14621929 0.00259753 0.00002262 1.00000000
1.10215696 -0.00169021 -0.00040061 1.00000000
2.10245285 -0.00049649 -0.00613761 1.00000000
0.19424128 -0.00092783 0.00212719 1.00000000
0.76871840 -0.00176830 0.00035418 1.00000000
1.75745116 0.00300620 0.00236325 1.00000000
1.77416805 -0.00681262 0.00220408 1.00000000
1.86528859 -0.00165583 0.00309233 1.00000000
2.65782424 -0.00200466 0.00537259 1.00000000
2.39012144 0.00219618 0.00276540 1.00000000
2.01504492 0.00004314 -0.00157562 1.00000000
4.27253001 -0.00382500 -0.00245338 1.00000000
1.92723670 0.00298581 -0.00118904 1.00000000
4.13490438 0.00066755 0.00133944 1.00000000
1.57998877 -0.00175055 0.00383178 1.00000000
3.41713622 0.00203599 0.00325163 1.00000000
0.62198058 0.00156826 -0.00191790 1.00000000
2.05257684 -0.00173791 0.00116943 1.00000000
3.76284445 -0.00267923 -0.00113918 1.00000000
4.28093079 -0.00562031 0.00351038 1.00000000
0.90136820 -0.00360023 -0.00218008 1.00000000
4.00550696 -0.00302111 0.00080151 1.00000000
3.79399958 -0.00121718 -0.00296393 1.00000000
2.77187442 0.00438935 0.00498025 1.00000000
1.66649078 -0.00305725 0.00152768 1.00000000
0.71279024 -0.00262090 -0.00119436 1.00000000
3.57978413 0.00316323 -0.00025473 1.00000000
0.22055494 0.00319715 0.00192622 1.00000000
4.13663004 0.00084229 0.00384362 1.00000000
1.58693271 0.00123816 0.00059538 1.00000000
1.65092118 0.00218045 -0.00306941 1.00000000
1.61310912 -0.00221383 -0.00255921 1.00000000
3.99263691 -0.00082804 -0.00068471 1.00000000
3.85506979 -0.00227899 -0.00110212 1.00000000
2.02315419 0.00065920 0.00335244 1.00000000
0.49887282 -0.00411611 0.00042943 1.00000000
1.65590127 0.00271832 0.00134474 1.00000000
1.64518047 0.00373585 0.00250979 1.00000000
1.25163271 -0.00597068 -0.00160232 1.00000000
0.69695775 0.00503656 -0.00363154 1.00000000
1.96530170 -0.00044997 0.00074082 1.00000000
4.28377786 0.00381339 0.00221137 1.00000000
2.97953282 -0.00106289 -0.00100839 1.00000000
0.23713293 -0.00210020 -0.00162110 1.00000000
3.64717887 -0.00082863 -0.00329600 1.00000000
3.25043766 -0.00412286 -0.00542139 1.00000000
1.09424435 0.00030992 -0.00082334 1.00000000
3.11983505 -0.00145758 -0.00079983 1.00000000
3.71290361 -0.00105458 -0.00538363 1.00000000
0.53915727 -0.00412162 -0.00232501 1.00000000
2.15616146 -0.00006562 0.00171915 1.00000000
3.87434088 -0.00122791 -0.00189451 1.00000000
2.94111247 0.00553845 -0.00374420 1.00000000
4.07539841 0.00616212 0.00332464 1.00000000
0.87027462 -0.00197264 0.00181547 1.00000000
1.04666427 0.00221895 -0.00280368 1.00000000
1.29670051 -0.00209751 -0.00009633 1.00000000
1.10686179 0.00050627 0.00303685 1.00000000
2.04260578 0.00342717 -0.00164213 1.00000000
0.93445743 -0.00195968 0.00474510 1.00000000
2.56812671 -0.00492887 0.00150728 1.00000000
3.34190226 -0.00046366 0.00397909 1.00000000
0.08047976 0.00061261 0.00244860 1.00000000
3.57950994 -0.00071930 0.00347876 1.00000000
2.57455166 0.00065086 -0.00088685 1.00000000
1.72142079 0.00347139 -0.00108140 1.00000000
0.75273374 0.00114401 0.00048687 1.00000000
0.52338375 -0.00147992 0.00003620 1.00000000
1.92478577 0.00150585 0.00430683 1.00000000
4.47786073 -0.00017446 -0.00270457 1.00000000
0.98100446 -0.00135606 -0.00166909 1.00000000
0.87705890 0.00118179 -0.00372724 1.00000000
4.10235273 0.00427711 -0.00298082 1.00000000
3.29310049 -0.00115435 0.00000858 1.00000000
0.04807478 0.00270738 0.00130662 1.00000000
1.33728145 0.00010025 -0.00127697 1.00000000
1.98633957 -0.00144194 -0.00217031 1.00000000
2.87703672 -0.00236228 -0.00084996 1.00000000
4.02400152 -0.00257354 -0.00349973 1.00000000
0.13731719 -0.00352625 -0.00201407 1.00000000
0.24741332 -0.00131657 -0.00191317 1.00000000
0.19898445 -0.00186759 -0.00173241 1.00000000
0.94627303 -0.00051369 0.00019502 1.00000000
4.43394186 -0.00340287 0.00438080 1.00000000
