2.010419 0.677852 -0.001227 0.0
3.932589 0.625933 -0.001916 0.0
0.344233 0.041496 0.004022 0.0
1.394956 0.654663 0.003926 0.0
4.476136 0.134443 -0.000502 0.0
4.739658 0.917944 0.004258 0.0
3.548111 0.519471 0.002732 0.0
3.989186 1.352451 0.001978 0.0
1.071926 0.666645 0.005348 0.0
1.514409 0.438662 -0.002109 0.0
2.422753 0.290671 0.003300 0.0
3.483400 1.447928 0.001848 0.0
4.695362 0.894757 0.001326 0.0
0.921420 1.421363 0.000991 0.0
3.079922 0.492483 0.000589 0.0
0.670464 0.358387 -0.001101 0.0
3.187556 1.297852 0.000410 0.0
3.867043 1.538550 -0.000639 0.0
4.669704 1.527579 -0.000648 0.0
0.991665 1.518740 0.001001 0.0
3.148859 0.052204 -0.000970 0.0
4.477182 0.742442 -0.000406 0.0
1.406551 1.363886 -0.007642 0.0
3.052015 0.222472 -0.005024 0.0
2.880532 1.183578 0.006111 0.0
2.124162 0.348525 0.001952 0.0
2.806722 0.127662 0.002946 0.0
2.128254 0.331790 -0.000104 0.0
3.423746 1.147830 -0.001870 0.0
2.276179 1.370233 -0.000966 0.0
3.622834 0.719997 -0.000922 0.0
0.146229 0.364382 0.002794 0.0
3.338426 1.095268 -0.001131 0.0
1.052284 1.077241 -0.000201 0.0
3.958172 0.167072 0.002269 0.0
0.104941 0.799296 -0.000552 0.0
3.050826 1.035393 -0.000385 0.0
4.343976 0.237899 0.001513 0.0
0.356390 0.448625 -0.000908 0.0
3.199060 1.395164 0.001003 0.0
3.190613 1.039172 0.002170 0.0
3.043993 1.046988 0.001664 0.0
0.676925 0.541206 -0.002056 0.0
3.347306 0.673726 0.000037 0.0
2.186747 0.928013 0.001152 0.0
4.080227 0.487804 -0.003759 0.0
2.021257 0.083125 0.000780 0.0
2.778029 0.555071 0.001113 0.0
2.607170 1.066655 0.000425 0.0
4.661197 1.161274 0.005045 0.0
1.353282 0.679188 0.003025 0.0
3.941700 0.654875 -0.000301 0.0
2.253979 0.417706 -0.002556 0.0
0.722808 1.294755 -0.001096 0.0
4.208472 1.432329 -0.005371 0.0
3.196784 1.037666 -0.000050 0.0
3.606967 0.204839 0.000982 0.0
2.951074 0.660487 0.003217 0.0
4.742917 0.195350 0.002617 0.0
2.124245 0.125765 0.002642 0.0
3.495043 0.213626 -0.000022 0.0
1.037200 0.429998 0.002725 0.0
2.527495 1.440199 -0.004615 0.0
2.363851 0.837028 -0.003242 0.0
3.951401 1.081215 -0.004333 0.0
4.296066 1.068074 -0.001959 0.0
3.137522 0.757776 -0.001700 0.0
2.049509 0.093745 0.004845 0.0
2.868995 0.685286 0.004769 0.0
1.165302 1.566006 -0.001170 0.0
3.977249 0.365524 -0.000718 0.0
3.396341 0.235268 -0.002761 0.0
1.250660 1.122449 -0.000867 0.0
4.295654 1.395450 0.001084 0.0
1.231520 0.109141 -0.000189 0.0
1.223733 0.862340 0.002709 0.0
0.728059 0.884123 -0.000414 0.0
3.044655 0.580533 0.003534 0.0
2.261973 1.482415 0.000652 0.0
2.498803 1.044131 0.001563 0.0
1.308593 0.715081 0.004298 0.0
0.024984 1.360329 -0.004110 0.0
2.765189 0.776140 -0.002346 0.0
3.472972 1.004491 -0.001896 0.0
1.430413 1.094678 0.001241 0.0
2.951175 1.423730 0.001594 0.0
4.634338 0.786107 -0.000213 0.0
3.529808 1.274048 -0.001291 0.0
2.700504 0.535801 0.000947 0.0
4.403259 0.710858 0.000388 0.0
1.201239 0.586752 -0.001226 0.0
2.640908 1.417639 -0.002306 0.0
4.203241 0.440858 -0.001511 0.0
1.551347 0.028302 0.001431 0.0
2.352639 1.502392 -0.001723 0.0
1.034484 0.507776 -0.000169 0.0
3.287424 0.258749 0.000835 0.0
0.513853 0.549746 0.002937 0.0
0.587600 1.377271 0.003170 0.0
3.264595 0.629136 -0.003319 0.0
4.702973 1.208438 -0.000658 0.0
2.733100 1.359558 -0.000258 0.0
1.228130 0.141079 0.000659 0.0
2.746273 1.279152 -0.002172 0.0
3.316845 1.353696 -0.000722 0.0
4.758457 0.881031 -0.002965 0.0
0.651848 0.101960 -0.002173 0.0
1.418850 0.997332 -0.004467 0.0
2.101755 1.374976 -0.005347 0.0
0.002676 0.131175 -0.002387 0.0
4.666672 0.225347 -0.001812 0.0
2.036188 1.462713 -0.002556 0.0
2.235588 0.204817 -0.002252 0.0
4.408499 0.232429 -0.002370 0.0
2.809298 0.887722 0.001286 0.0
1.557495 0.915133 -0.001893 0.0
4.192437 0.460886 0.001459 0.0
2.992623 0.570525 0.002496 0.0
4.291598 0.316234 0.003290 0.0
4.427310 0.212205 -0.002295 0.0
3.529847 0.979110 -0.000297 0.0
4.415129 0.577835 -0.001528 0.0
2.589000 0.121148 -0.003244 0.0
0.630062 0.826518 0.002369 0.0
2.002042 0.290977 0.002531 0.0
0.777379 1.282118 -0.000158 0.0
1.614554 0.419940 -0.000504 0.0
1.460682 0.805926 0.001248 0.0
4.112571 0.477699 -0.002922 0.0
3.828286 1.106343 -0.001925 0.0
0.774694 0.315516 -0.000785 0.0
0.777727 1.505939 -0.002878 0.0
0.978323 0.604617 -0.004541 0.0
0.724418 1.343388 -0.001561 0.0
3.896605 1.435459 -0.002146 0.0
1.324555 0.612615 -0.000820 0.0
4.477437 0.768134 0.001896 0.0
3.256047 0.747511 0.000322 0.0
0.183273 1.336356 0.001299 0.0
0.734132 1.008569 0.002496 0.0
0.086341 0.577062 -0.000958 0.0
0.553006 0.767896 -0.000954 0.0
3.846387 0.395195 0.000210 0.0
3.114789 1.242633 0.004640 0.0
4.456374 0.272124 0.001212 0.0
2.623507 0.984872 0.001750 0.0
4.698453 1.181737 0.001055 0.0
3.684869 0.448113 0.003356 0.0
1.679798 0.356181 0.001369 0.0
1.379933 0.401423 0.001097 0.0
1.606468 1.522566 0.002157 0.0
0.140455 0.530832 -0.001127 0.0
2.476774 1.152144 -0.000201 0.0
0.634956 0.468205 -0.000352 0.0
4.401464 1.199541 0.003250 0.0
2.780142 1.223670 -0.001606 0.0
4.613980 0.528981 -0.001234 0.0
1.219962 0.139047 0.000367 0.0
1.868621 0.631100 -0.002293 0.0
1.849914 0.567668 0.000885 0.0
1.967152 1.133081 -0.001942 0.0
0.742648 1.117330 -0.000163 0.0
1.136882 0.542049 0.001016 0.0
0.197047 0.868199 -0.003066 0.0
0.706036 0.616265 0.000177 0.0
1.701927 0.198912 -0.001409 0.0
2.477903 0.687936 -0.003310 0.0
0.350733 0.495097 0.002194 0.0
2.283798 0.858024 -0.002823 0.0
1.119841 0.175265 -0.001508 0.0
0.070061 1.405951 0.000830 0.0
0.800477 1.581488 -0.005586 0.0
0.130526 0.107158 -0.002138 0.0
2.475766 0.883054 -0.004300 0.0
1.952520 0.139678 0.000900 0.0
1.640663 0.629169 -0.001138 0.0
3.504906 0.302643 0.001272 0.0
4.127580 0.615215 -0.000413 0.0
2.717762 1.260099 0.003219 0.0
0.227440 0.984016 0.004504 0.0
1.919370 1.310870 -0.002052 0.0
3.151726 0.643552 -0.001790 0.0
2.964052 1.465011 -0.001336 0.0
2.585753 1.340226 0.001761 0.0
0.044671 0.831527 -0.002508 0.0
1.861452 1.347629 0.000896 0.0
3.229216 0.526181 0.000338 0.0
0.694746 0.351519 -0.001050 0.0
1.204279 0.417639 0.005191 0.0
4.656149 0.909311 -0.000597 0.0
0.008166 1.313001 0.000177 0.0
3.753273 0.528179 0.004734 0.0
3.669515 1.367515 0.000274 0.0
2.666421 1.281661 -0.004237 0.0
3.510194 0.509004 0.000106 0.0
1.687946 1.131917 0.000828 0.0
2.458845 0.507940 -0.003283 0.0
0.611897 0.193775 0.001007 0.0
2.499012 0.002064 -0.002880 0.0
0.825409 1.090378 0.000866 0.0
3.099401 1.057355 0.003032 0.0
0.337868 0.041897 0.002145 0.0
2.412122 0.028894 -0.000878 0.0
3.332830 1.273757 0.000728 0.0
2.673076 0.612029 -0.002598 0.0
0.094614 1.312969 0.001638 0.0
0.579938 1.412322 0.000613 0.0
2.252321 0.406749 -0.001602 0.0
3.929432 0.640292 -0.002208 0.0
3.596387 1.022529 -0.001771 0.0
1.637060 1.376756 -0.004369 0.0
1.441187 1.193074 0.000012 0.0
3.880969 0.374223 0.001182 0.0
0.525128 0.051322 -0.000447 0.0
3.218861 0.271659 0.002474 0.0
1.897763 1.381772 0.000928 0.0
0.429610 0.436398 0.000286 0.0
3.970894 0.128003 -0.002680 0.0
1.289583 1.115024 0.002826 0.0
4.515337 1.250412 0.003762 0.0
3.273081 1.208715 0.006108 0.0
1.450560 0.774383 -0.001009 0.0
0.839736 1.076106 -0.000363 0.0
1.142054 1.292007 0.001091 0.0
3.750003 0.645402 -0.000215 0.0
1.135009 0.650290 -0.000164 0.0
1.674771 1.378319 0.003323 0.0
3.367154 0.884763 -0.000243 0.0
0.653061 1.513994 0.000573 0.0
0.709134 0.008905 -0.002466 0.0
2.346626 0.384901 -0.002250 0.0
2.322070 0.103874 -0.001450 0.0
0.515770 0.125224 -0.005144 0.0
0.453924 1.317428 0.001583 0.0
2.284781 0.098780 -0.000316 0.0
4.060934 0.205246 -0.001515 0.0
4.684212 1.350965 -0.000893 0.0
1.035418 0.670194 -0.005889 0.0
1.362762 0.204966 -0.002599 0.0
3.894841 0.447380 0.000778 0.0
4.227731 1.320827 -0.000142 0.0
3.141217 0.206410 -0.001823 0.0
2.913862 0.098242 -0.000151 0.0
3.523622 0.666935 0.001496 0.0
3.323765 1.364022 0.002324 0.0
0.185077 0.669840 -0.002721 0.0
0.156307 1.257342 0.004356 0.0
2.834808 1.196452 0.000075 0.0
3.154205 1.058938 0.001707 0.0
4.220277 0.773953 -0.000908 0.0
2.134124 0.091689 0.000299 0.0
0.570411 0.896721 -0.000595 0.0
1.664379 1.185456 -0.001603 0.0
0.435252 0.497696 0.001787 0.0
1.707709 0.160852 -0.003934 0.0
3.675400 1.029196 0.003092 0.0
2.960333 0.687162 0.001830 0.0
3.884877 0.443368 0.001055 0.0
3.099630 0.995283 0.000570 0.0
0.713001 0.014028 0.000963 0.0
4.708646 0.665142 -0.001362 0.0
0.558386 0.829320 0.000056 0.0
3.546906 0.803926 0.000572 0.0
2.920450 1.260489 -0.000652 0.0
1.941574 0.793510 -0.001031 0.0
2.892649 0.197259 0.003382 0.0
1.951796 0.113434 0.000578 0.0
3.244314 1.410273 0.000783 0.0
3.199537 1.434287 0.001192 0.0
0.916423 0.349182 -0.005531 0.0
1.170800 1.073112 -0.002128 0.0
2.639981 0.017648 0.002016 0.0
0.501432 1.404439 -0.001670 0.0
1.299826 0.344479 0.000391 0.0
3.639409 1.534852 -0.002928 0.0
3.149105 0.295144 -0.001968 0.0
2.054860 0.186332 0.000330 0.0
4.139787 0.789694 -0.002216 0.0
2.066734 0.978449 -0.003170 0.0
0.384638 1.041632 0.000570 0.0
1.920006 0.500274 0.000312 0.0
2.242513 1.150657 0.001468 0.0
4.526667 0.322614 -0.001763 0.0
1.873443 0.576337 0.002149 0.0
1.199223 0.311974 0.003325 0.0
2.594305 1.166237 0.000265 0.0
2.628364 0.621494 -0.003830 0.0
0.699588 0.843459 0.000869 0.0
0.937253 1.338649 0.002370 0.0
2.406233 1.272739 -0.000836 0.0
2.253854 0.077258 0.002510 0.0
2.397587 0.735332 -0.002807 0.0
3.020033 1.370823 -0.000185 0.0
0.713436 1.441853 -0.001739 0.0
1.349453 1.414649 -0.002463 0.0
2.971480 1.530373 0.000424 0.0
3.992675 0.866756 -0.003743 0.0
2.419163 0.957659 -0.002026 0.0
4.064626 1.199582 -0.001757 0.0
4.454452 1.436787 0.002387 0.0
1.411380 1.355820 0.005570 0.0
2.610156 1.144889 0.000882 0.0
1.059904 0.713734 0.002428 0.0
0.382941 1.086636 -0.000969 0.0
3.173088 1.005607 0.001955 0.0
0.730485 0.497388 -0.000698 0.0
0.714448 0.569485 -0.001561 0.0
0.301206 0.827642 0.002379 0.0
4.178553 1.095473 -0.003920 0.0
4.305864 1.381758 -0.000434 0.0
4.077998 0.426465 0.003571 0.0
3.029650 0.869994 -0.003255 0.0
4.101265 1.523360 -0.000403 0.0
1.467116 1.509971 0.001247 0.0
0.314116 1.501634 0.000952 0.0
0.766991 0.573597 0.004213 0.0
1.753720 1.495325 -0.001757 0.0
0.229529 0.227319 -0.000914 0.0
2.088957 0.037297 0.000787 0.0
1.092530 1.587389 -0.000164 0.0
0.451116 1.197829 -0.001695 0.0
3.228778 0.567501 -0.003377 0.0
4.111691 1.322782 -0.001707 0.0
0.209042 0.552460 -0.004115 0.0
3.741237 0.625032 -0.001746 0.0
4.721092 0.184585 0.001293 0.0
0.442146 1.541247 -0.003267 0.0
1.359252 0.608259 0.003901 0.0
2.347200 0.634321 0.000819 0.0
1.105918 0.618576 0.001878 0.0
2.347013 1.449843 -0.001809 0.0
0.330251 0.327683 -0.002169 0.0
4.173001 1.380778 0.001129 0.0
0.457908 0.873862 0.000933 0.0
3.282339 1.566425 -0.001986 0.0
2.758503 1.268158 0.001776 0.0
2.636678 0.566861 0.003264 0.0
2.234710 0.654773 0.001696 0.0
2.942176 1.259524 0.002037 0.0
3.362160 0.147500 -0.003346 0.0
4.424372 0.324208 0.000688 0.0
4.656294 1.248791 0.003391 0.0
4.430920 0.014857 0.002817 0.0
1.040480 1.247795 -0.005084 0.0
2.767720 0.045547 -0.003504 0.0
3.319213 0.043805 -0.001208 0.0
0.059702 0.873016 0.003611 0.0
3.291025 0.743461 0.000819 0.0
2.998727 0.056051 0.000770 0.0
0.864358 0.106447 -0.002930 0.0
3.724845 0.191308 -0.000386 0.0
3.814860 0.686129 0.000341 0.0
2.921107 0.113247 -0.007784 0.0
2.854506 1.484862 0.004549 0.0
2.468904 1.436078 0.002995 0.0
3.395492 0.478141 0.002015 0.0
0.040598 0.972637 -0.003231 0.0
3.802680 1.505424 -0.001469 0.0
2.125692 0.994745 0.000916 0.0
4.739680 0.930178 0.001425 0.0
1.245269 1.211498 -0.004432 0.0
4.049755 0.291559 -0.001636 0.0
0.189158 0.656977 0.001219 0.0
3.551200 1.034913 -0.000061 0.0
3.047066 0.505220 -0.000880 0.0
0.950055 1.098377 0.000220 0.0
3.981138 0.143715 0.001839 0.0
3.886098 1.409979 -0.004402 0.0
0.551272 1.174116 -0.002996 0.0
2.701175 0.927876 0.005181 0.0
0.018061 1.395953 -0.004079 0.0
3.153731 0.312855 0.000677 0.0
2.429415 0.041096 -0.002414 0.0
1.648604 0.495348 -0.002207 0.0
3.073613 1.015160 0.002408 0.0
3.772203 0.386186 -0.003402 0.0
0.394472 0.909704 0.000741 0.0
1.610257 1.001052 0.001209 0.0
0.636960 1.250631 0.001438 0.0
3.215649 0.526579 -0.003334 0.0
2.615645 0.684195 -0.005050 0.0
1.192044 0.721029 -0.000101 0.0
3.172543 1.371832 0.002829 0.0
0.493470 0.394739 -0.002395 0.0
3.172214 0.946691 0.003895 0.0
1.454063 0.355407 -0.000373 0.0
0.567380 0.858369 0.000214 0.0
0.284959 0.588174 0.001776 0.0
2.612455 1.297640 -0.009729 0.0
3.241163 1.280165 -0.000775 0.0
4.035155 0.409145 0.000610 0.0
3.954915 0.586344 0.000797 0.0
0.159725 0.457364 0.000168 0.0
2.144878 1.303701 0.002367 0.0
3.010791 0.781137 -0.001280 0.0
1.639969 0.045565 0.000578 0.0
0.742942 0.780990 0.000411 0.0
2.620393 0.124143 0.001454 0.0
1.389392 0.034113 0.000789 0.0
1.880674 1.536449 0.000365 0.0
4.366857 1.182545 0.000671 0.0
1.136761 1.357618 0.002605 0.0
4.065810 0.701843 -0.003426 0.0
3.085920 1.479966 0.001807 0.0
4.740940 1.427234 -0.002391 0.0
2.397861 1.375053 -0.002707 0.0
0.427537 0.361483 0.001639 0.0
1.190894 0.875769 0.000844 0.0
4.040023 0.143189 -0.004565 0.0
4.541337 1.143137 0.001228 0.0
0.783954 0.532645 -0.000875 0.0
3.717972 1.099116 0.000831 0.0
1.754692 1.002678 -0.000007 0.0
3.321392 0.307735 0.001629 0.0
1.897259 1.043271 -0.003358 0.0
0.997564 0.529094 0.000650 0.0
3.071991 1.456418 0.001632 0.0
4.173751 0.455926 0.000199 0.0
1.425006 0.907473 0.003433 0.0
4.568788 0.077141 0.000128 0.0
4.450546 0.474776 0.000274 0.0
3.302500 1.520347 0.001851 0.0
0.908007 1.194669 -0.000549 0.0
0.726522 0.094474 0.003835 0.0
2.643050 1.472559 0.003628 0.0
0.708234 1.122458 0.000405 0.0
3.119619 1.076764 0.004137 0.0
4.288875 1.545129 -0.000416 0.0
4.645939 0.537236 0.003608 0.0
0.991572 0.970353 -0.003346 0.0
2.467007 1.489565 0.000786 0.0
3.094661 0.606275 0.001237 0.0
2.081779 0.584604 -0.001425 0.0
4.305334 0.189661 -0.001523 0.0
2.705837 1.240087 0.005208 0.0
3.310951 1.105495 -0.000352 0.0
4.756813 0.519507 0.005067 0.0
1.880505 1.030899 -0.003652 0.0
3.991266 0.723726 0.003676 0.0
0.200087 0.736635 -0.002347 0.0
3.577445 0.137255 0.001807 0.0
1.093016 0.200380 -0.001482 0.0
4.112458 0.141000 -0.003928 0.0
0.777350 1.029510 -0.002095 0.0
3.158141 1.429809 -0.002633 0.0
3.713322 1.241553 -0.002358 0.0
0.595161 0.185534 -0.000334 0.0
1.933762 0.734783 -0.003385 0.0
1.807179 0.800226 0.002019 0.0
0.974456 0.734004 -0.000131 0.0
2.465830 0.547108 -0.004177 0.0
3.708433 1.308668 -0.001862 0.0
1.851769 0.462822 0.000490 0.0
3.530301 0.891409 -0.002049 0.0
0.296894 0.247672 0.002593 0.0
3.984521 1.250516 0.000736 0.0
3.980092 1.584870 -0.001225 0.0
2.788790 1.082679 -0.003869 0.0
3.552008 1.320421 -0.003940 0.0
1.883925 1.448384 -0.002535 0.0
2.583015 1.252178 -0.001763 0.0
3.276292 1.328062 -0.000414 0.0
3.802164 1.248356 -0.000129 0.0
3.736335 1.298867 -0.002310 0.0
0.286370 0.449716 -0.001761 0.0
2.581049 0.418313 -0.001711 0.0
0.619830 1.543352 -0.000603 0.0
3.859530 0.165772 -0.000224 0.0
0.890205 0.338369 0.003953 0.0
2.514632 1.061990 -0.002039 0.0
0.505926 1.569309 0.000492 0.0
1.237905 1.484567 0.000796 0.0
2.530656 1.070184 0.000662 0.0
3.767398 0.184025 0.001307 0.0
0.584251 1.221749 -0.003085 0.0
3.021426 1.131281 -0.002670 0.0
0.747994 0.784325 0.001153 0.0
3.466015 0.289168 -0.000459 0.0
3.799631 1.077438 0.002860 0.0
0.164473 1.081535 -0.001468 0.0
3.617124 0.522576 0.000084 0.0
4.341068 0.342970 -0.003026 0.0
4.208561 0.868293 0.000803 0.0
1.741833 0.126721 -0.003067 0.0
2.896474 0.899830 0.000696 0.0
0.137727 0.335738 0.000475 0.0
0.111871 0.079281 -0.001251 0.0
0.640882 0.596260 0.001459 0.0
4.380108 0.076736 0.000646 0.0
0.576409 1.379300 0.000337 0.0
0.853267 0.419831 -0.002158 0.0
1.537202 0.074725 -0.002931 0.0
0.024971 1.057178 -0.000653 0.0
3.036550 0.297307 -0.002841 0.0
2.310290 0.044951 -0.004954 0.0
1.841497 0.808532 -0.002143 0.0
3.280054 0.790598 -0.004152 0.0
1.971327 0.132185 -0.000517 0.0
2.465849 0.244032 0.001001 0.0
4.164829 0.986586 -0.002229 0.0
0.501442 0.541392 -0.001358 0.0
1.050043 1.085083 -0.000564 0.0
2.741358 0.806352 -0.000507 0.0
1.118521 0.217018 0.000610 0.0
2.304379 1.176584 0.004023 0.0
3.434225 0.828286 -0.002629 0.0
3.722386 0.832033 0.003252 0.0
1.721339 0.212712 0.001461 0.0
3.002931 1.551626 0.000305 0.0
2.653301 1.490162 0.003573 0.0
3.779022 0.524433 -0.000739 0.0
2.858308 0.938078 -0.003943 0.0
2.202674 1.157916 0.000772 0.0
3.714425 0.672784 -0.003094 0.0
1.558459 0.619387 0.002100 0.0
1.227739 0.824415 -0.000932 0.0
2.809239 0.519765 0.003634 0.0
4.565366 0.935176 0.001876 0.0
3.944380 0.172052 0.003340 0.0
3.808022 0.639086 0.000783 0.0
0.245326 0.414325 -0.004892 0.0
4.126018 1.277586 -0.000558 0.0
4.083777 1.031872 -0.005645 0.0
3.388167 0.176138 -0.000106 0.0
3.795115 1.277963 0.002562 0.0
3.520728 1.179597 0.000873 0.0
1.790644 0.091369 -0.002165 0.0
1.581111 1.142679 -0.000957 0.0
0.490265 0.740266 0.001788 0.0
3.085552 1.361112 0.000215 0.0
1.222386 1.168221 -0.001295 0.0
1.225792 1.498039 -0.000551 0.0
1.942243 1.052011 0.001394 0.0
2.612810 0.864221 0.001234 0.0
2.353246 1.168707 -0.002542 0.0
2.825460 1.461205 -0.002518 0.0
4.761290 1.057163 0.003552 0.0
3.504162 1.172856 -0.002398 0.0
0.861972 1.481801 0.002882 0.0
1.248849 0.825903 0.002327 0.0
2.613777 1.026708 -0.003151 0.0
1.869785 0.928396 0.006207 0.0
4.543652 0.121607 0.004752 0.0
1.056322 1.078112 -0.003008 0.0
3.822169 0.471627 -0.001925 0.0
2.124021 1.081661 -0.000703 0.0
1.816205 0.467096 -0.003534 0.0
3.267832 0.105065 -0.000818 0.0
2.875165 0.731761 -0.000182 0.0
0.383091 0.640083 0.001525 0.0
0.516655 1.066684 0.001517 0.0
3.860802 0.314655 -0.006544 0.0
4.296536 0.407490 0.003811 0.0
4.750847 1.349247 0.004482 0.0
2.341831 1.182705 0.000553 0.0
1.426032 0.506245 0.000018 0.0
0.667165 1.471378 0.000339 0.0
1.499482 0.180887 -0.004193 0.0
1.934069 1.388249 -0.000527 0.0
3.445690 0.782135 -0.000158 0.0
3.680376 1.243828 0.001395 0.0
3.414581 1.524118 -0.000945 0.0
1.855909 1.197869 0.002917 0.0
4.621828 1.493263 0.000458 0.0
1.887645 0.180140 -0.001607 0.0
1.835387 0.901994 0.001253 0.0
4.351919 0.408351 0.003692 0.0
0.203969 1.086099 -0.001350 0.0
0.064839 0.566906 -0.001650 0.0
1.911329 0.096384 0.000059 0.0
3.924236 0.704732 0.002388 0.0
0.905917 1.049451 0.003502 0.0
3.615967 0.852105 -0.002032 0.0
0.860719 0.134053 -0.000395 0.0
4.261115 1.496017 0.002004 0.0
2.191707 1.393760 -0.001632 0.0
2.217669 0.144183 -0.002311 0.0
4.020204 0.753566 -0.002831 0.0
4.064454 1.225654 0.004801 0.0
2.574663 0.417814 -0.003124 0.0
3.762555 1.005619 0.000802 0.0
0.397858 0.639243 0.005905 0.0
0.731532 1.102170 -0.003456 0.0
1.629389 0.748816 -0.001030 0.0
2.346937 1.426087 -0.000427 0.0
4.598193 0.520566 0.003753 0.0
2.682923 0.668239 -0.004262 0.0
2.651699 1.501604 0.000243 0.0
3.724992 0.523432 -0.002173 0.0
1.616234 0.881392 -0.000403 0.0
4.173583 0.561807 -0.002134 0.0
0.260285 1.335385 0.000621 0.0
2.243751 0.089861 0.001969 0.0
1.285255 0.733146 -0.000838 0.0
3.013783 0.124792 0.005705 0.0
1.437195 0.873595 0.001570 0.0
0.159524 0.625158 -0.002704 0.0
4.283189 0.749920 -0.002999 0.0
3.641326 0.324774 0.000744 0.0
2.602983 1.298842 0.001042 0.0
1.357760 0.273824 0.001088 0.0
1.082017 0.434570 -0.002659 0.0
4.430702 0.695902 0.002183 0.0
1.124923 1.322284 -0.003355 0.0
4.465185 1.068894 -0.002019 0.0
1.098826 0.490272 -0.000897 0.0
1.337028 0.524172 -0.001196 0.0
0.808527 0.616138 0.002298 0.0
3.427715 1.072727 -0.000140 0.0
4.611913 1.246102 -0.000114 0.0
1.080524 0.243349 0.005962 0.0
3.777217 1.100120 -0.000858 0.0
3.393053 1.385692 -0.002576 0.0
0.422365 1.365328 -0.001485 0.0
4.009202 0.519486 -0.002980 0.0
4.154329 1.432408 0.000555 0.0
2.781049 0.800851 -0.001242 0.0
2.340788 1.309433 -0.000566 0.0
4.242904 1.435162 -0.003084 0.0
4.499165 0.728453 -0.000991 0.0
0.781099 0.899627 0.000682 0.0
2.498981 0.334184 -0.001004 0.0
2.126696 1.476567 -0.000866 0.0
1.523378 1.098572 0.000537 0.0
4.635159 1.116802 -0.004283 0.0
1.877679 0.558256 0.000313 0.0
2.019638 0.865171 0.002013 0.0
2.700644 0.770524 -0.000304 0.0
2.590611 0.725548 0.001216 0.0
2.780723 1.059406 -0.001048 0.0
3.070543 1.360135 -0.000768 0.0
0.068836 1.443806 0.004911 0.0
3.126961 0.952183 0.002678 0.0
1.809097 0.536067 -0.002853 0.0
2.413462 0.151682 0.000889 0.0
4.735043 0.350134 -0.001899 0.0
0.776164 0.063376 -0.000421 0.0
0.177605 0.887115 0.005224 0.0
4.159829 0.097093 0.000255 0.0
4.310740 1.493251 0.002429 0.0
0.591074 0.665219 -0.001449 0.0
3.890679 0.384087 0.003141 0.0
1.244098 1.215282 -0.002455 0.0
0.383967 1.001554 -0.000018 0.0
1.733029 0.096204 -0.003473 0.0
3.714592 0.445869 -0.002051 0.0
3.688366 1.365328 -0.002162 0.0
2.798486 0.844130 -0.002564 0.0
0.212106 0.455617 -0.000420 0.0
2.833695 0.054633 -0.001192 0.0
-0.000700 1.129458 -0.004509 0.0
2.332582 1.399676 -0.003882 0.0
1.714478 0.947921 0.000705 0.0
2.685393 0.578332 -0.001570 0.0
2.582515 1.081516 -0.000397 0.0
2.339880 1.015908 0.001399 0.0
0.075766 1.162128 0.003636 0.0
0.796222 0.872608 -0.004440 0.0
2.538630 1.024921 -0.001335 0.0
0.403391 1.120551 0.003208 0.0
2.351668 1.450407 -0.001309 0.0
3.947176 1.485980 -0.000030 0.0
2.178498 0.586002 0.000879 0.0
0.814706 0.663925 0.000216 0.0
2.551215 1.010174 0.003966 0.0
0.858517 0.619886 0.000581 0.0
3.304253 0.276571 0.000028 0.0
3.607390 0.908199 -0.000116 0.0
1.141914 1.041423 0.002194 0.0
3.161325 1.094408 0.004235 0.0
2.684476 1.082645 0.002518 0.0
2.699784 0.476423 0.001607 0.0
1.398151 0.965871 -0.000170 0.0
3.337288 1.586366 -0.000687 0.0
2.430629 1.206216 -0.000542 0.0
1.288630 0.866382 0.000467 0.0
1.134546 0.444492 -0.000120 0.0
0.925401 1.286420 0.000818 0.0
1.666908 0.605081 0.003539 0.0
2.785190 1.220488 -0.000208 0.0
0.715624 0.456013 0.002554 0.0
1.493807 0.987714 -0.002545 0.0
0.630308 0.423512 -0.001755 0.0
0.127488 0.657868 -0.004550 0.0
4.151131 0.293065 0.001471 0.0
4.556890 1.049385 -0.000787 0.0
0.985176 1.250079 -0.005974 0.0
2.618187 0.222493 -0.002166 0.0
1.683914 1.470538 -0.000607 0.0
1.385816 0.863912 -0.001621 0.0
3.775038 1.405538 0.003118 0.0
1.471071 1.435266 0.000699 0.0
2.539188 0.039613 -0.000408 0.0
2.912101 0.276408 0.001480 0.0
2.149945 1.384548 -0.002535 0.0
0.480872 1.131689 -0.001586 0.0
0.386989 1.238670 -0.005697 0.0
2.091154 1.164185 0.000984 0.0
0.119089 0.290821 0.001853 0.0
3.064487 0.990334 0.000466 0.0
3.355205 1.535120 -0.002057 0.0
2.576098 1.404569 0.001708 0.0
1.802658 1.078652 0.001930 0.0
2.266568 1.111194 0.001617 0.0
2.442407 0.416563 0.001390 0.0
1.952288 0.700338 -0.002091 0.0
2.109749 1.473678 0.004045 0.0
2.727991 0.011722 0.000819 0.0
1.482323 0.088555 0.000266 0.0
2.156357 0.161063 -0.002368 0.0
4.468788 0.639548 -0.000463 0.0
0.563884 1.152060 -0.002809 0.0
3.018239 0.144207 0.001618 0.0
1.765503 1.019864 0.000312 0.0
3.322095 0.274837 -0.004718 0.0
0.428302 0.235490 -0.002643 0.0
3.639255 1.192981 -0.003595 0.0
2.985507 1.295449 0.003556 0.0
1.215517 0.199617 0.004418 0.0
1.850942 0.383715 0.000216 0.0
0.925730 0.353022 -0.000907 0.0
4.052585 1.398568 -0.000777 0.0
3.957023 0.244447 0.000021 0.0
0.539952 0.813034 -0.001177 0.0
2.222357 0.074540 0.002132 0.0
0.874266 0.758275 -0.000008 0.0
3.567667 1.089844 -0.003846 0.0
2.126399 0.501086 0.000872 0.0
0.644343 1.055868 0.001569 0.0
2.960334 0.482430 -0.001465 0.0
4.109080 0.737978 -0.000894 0.0
3.080191 1.001951 -0.002018 0.0
0.036198 0.524204 -0.002845 0.0
4.548194 0.703007 0.005427 0.0
2.047898 0.114181 0.001955 0.0
2.997035 1.147383 0.000795 0.0
2.411903 1.217935 0.002599 0.0
4.654981 0.844296 -0.001006 0.0
2.543777 0.957827 -0.002183 0.0
3.579647 1.030897 -0.002776 0.0
1.419328 0.593314 -0.008802 0.0
1.600828 0.047750 0.000602 0.0
3.885247 0.032943 0.000374 0.0
2.615613 0.789348 0.001381 0.0
3.338609 0.439251 -0.000324 0.0
1.687153 0.077817 -0.000460 0.0
0.971897 0.513335 0.005211 0.0
2.611528 0.098264 -0.002592 0.0
2.889209 0.833319 -0.000572 0.0
2.764868 0.298740 0.003215 0.0
1.586137 0.097162 -0.000458 0.0
4.171085 1.305014 -0.000983 0.0
2.974205 1.187055 0.002365 0.0
3.887651 0.130795 0.000416 0.0
4.645909 0.888269 0.001701 0.0
2.578945 0.802301 0.001734 0.0
0.589365 0.356957 -0.002216 0.0
0.291458 0.290759 0.002224 0.0
3.185278 1.168073 0.003934 0.0
1.669641 0.506830 -0.000580 0.0
4.199052 0.208836 -0.003078 0.0
4.114111 0.281242 -0.004483 0.0
1.689116 0.197510 0.001594 0.0
0.874845 0.600321 0.003020 0.0
1.372418 0.716772 -0.001661 0.0
0.371409 0.845272 0.001221 0.0
1.279414 1.142700 -0.002488 0.0
0.706878 0.839991 -0.002035 0.0
1.343987 0.260526 -0.000617 0.0
2.877575 0.135972 0.000288 0.0
2.393366 0.669080 -0.004364 0.0
0.932284 0.589633 -0.000085 0.0
0.914257 0.269111 -0.003571 0.0
4.137363 0.734293 -0.004809 0.0
3.937961 1.457129 0.001049 0.0
0.501972 1.405804 -0.002319 0.0
3.467665 0.877827 0.003757 0.0
2.687631 0.778404 -0.000232 0.0
3.905880 1.150902 0.001152 0.0
4.354157 1.084570 -0.001588 0.0
2.349474 0.617460 -0.000747 0.0
0.999936 1.529494 -0.000083 0.0
2.528147 1.257773 0.003415 0.0
4.009883 1.419641 0.000846 0.0
4.415682 0.841429 0.000971 0.0
2.745177 1.562419 -0.000565 0.0
4.125312 1.395697 0.002229 0.0
3.832834 0.864504 0.002712 0.0
4.511998 1.526314 -0.001049 0.0
0.701404 0.291938 -0.002218 0.0
3.305827 1.054699 -0.003016 0.0
3.443985 0.690415 -0.000485 0.0
0.415174 0.116764 -0.001980 0.0
4.348814 1.434287 0.001199 0.0
0.162441 0.545800 -0.001073 0.0
2.375693 1.083008 0.001133 0.0
2.394095 1.128569 0.000711 0.0
1.661295 0.118372 -0.001190 0.0
1.288385 1.281414 0.000440 0.0
1.037671 0.073111 0.005338 0.0
3.753654 0.912748 -0.003080 0.0
2.406619 0.935408 -0.002060 0.0
0.970290 0.018103 -0.000103 0.0
3.192534 0.204624 -0.002846 0.0
2.031783 1.188515 -0.003528 0.0
0.980805 1.052000 -0.003159 0.0
3.966449 0.436569 -0.000562 0.0
0.592403 0.503239 -0.003427 0.0
3.346360 1.192704 -0.003521 0.0
4.305457 1.040169 -0.000816 0.0
2.630825 1.210674 0.000236 0.0
0.697422 1.121915 -0.000856 0.0
4.422318 0.172089 -0.000056 0.0
3.143271 1.540893 -0.001175 0.0
1.432845 0.844404 -0.001111 0.0
0.370229 0.911486 0.001157 0.0
1.158510 0.153979 -0.001076 0.0
2.492447 1.102788 0.001579 0.0
2.200055 0.929705 -0.005139 0.0
4.050949 1.378491 -0.001975 0.0
4.484583 0.183596 -0.003046 0.0
2.511274 0.207678 -0.001718 0.0
2.780368 0.515740 -0.001547 0.0
4.577802 1.352431 -0.000412 0.0
2.560521 1.022584 0.000367 0.0
3.751161 0.908458 -0.000067 0.0
2.003432 1.566967 0.000402 0.0
3.581799 0.427321 0.004042 0.0
1.512325 1.151069 0.001850 0.0
3.278438 0.911960 0.001371 0.0
3.602443 1.333703 -0.000070 0.0
0.155130 0.601628 0.004515 0.0
0.918980 1.496705 -0.004390 0.0
4.207882 1.014424 -0.004629 0.0
3.598908 0.077066 -0.001682 0.0
3.398909 1.098077 0.000135 0.0
2.726884 0.855981 -0.000546 0.0
3.845827 0.257015 0.002234 0.0
4.491369 1.115537 -0.000143 0.0
4.570814 0.961536 -0.000323 0.0
3.531307 0.074127 -0.000599 0.0
2.924661 1.056781 0.000984 0.0
0.221486 0.853089 0.002192 0.0
0.818639 1.258157 0.001786 0.0
4.065424 0.017933 0.000950 0.0
3.982044 0.589110 0.004097 0.0
0.479798 0.015985 0.000845 0.0
1.944425 0.451701 -0.000697 0.0
4.678808 0.578048 -0.001168 0.0
4.237560 0.238860 0.002392 0.0
2.102931 0.572117 -0.002247 0.0
1.657919 1.069168 -0.002162 0.0
1.814422 0.705607 -0.005235 0.0
3.749780 1.159566 -0.000618 0.0
4.233674 0.621371 -0.001041 0.0
1.735930 0.429699 0.007412 0.0
4.496512 1.432595 -0.002116 0.0
1.068995 0.530317 -0.000955 0.0
2.447649 1.162837 0.000137 0.0
4.287696 0.526712 0.002630 0.0
3.325397 0.138255 -0.000414 0.0
3.740759 0.140009 -0.000072 0.0
1.307424 0.453047 0.004799 0.0
3.253819 0.765293 -0.001474 0.0
2.617261 0.575671 -0.001721 0.0
3.341221 0.528338 0.000990 0.0
2.172216 0.663415 0.002719 0.0
1.095539 0.307606 0.002326 0.0
2.835500 1.573847 -0.004724 0.0
2.313056 0.418653 0.003555 0.0
0.284721 1.587497 -0.001158 0.0
3.960874 0.540659 0.003401 0.0
0.181741 0.999068 -0.001278 0.0
3.031896 0.820002 -0.001821 0.0
0.291830 0.253620 0.000277 0.0
3.854606 0.600731 0.002925 0.0
1.286427 0.739524 -0.000918 0.0
4.362250 0.830405 -0.002361 0.0
0.942224 0.747279 -0.002240 0.0
1.605354 0.326470 0.002115 0.0
3.939453 1.377118 -0.004752 0.0
1.978080 0.961109 0.001986 0.0
0.570836 0.056218 -0.000422 0.0
2.150772 1.562532 0.000655 0.0
3.667959 0.315001 -0.002286 0.0
1.957949 0.193227 0.000624 0.0
3.262751 0.970824 -0.000607 0.0
1.839425 0.507925 0.007410 0.0
3.395707 0.989497 0.003000 0.0
1.247377 0.912186 -0.001942 0.0
1.797219 0.433701 0.002065 0.0
1.874060 1.209979 -0.001160 0.0
1.386283 0.928810 -0.001041 0.0
2.341871 0.160393 -0.000189 0.0
2.694999 0.163360 -0.001587 0.0
2.865692 0.515338 0.001197 0.0
1.972553 0.428571 -0.000434 0.0
0.021880 0.750638 0.000375 0.0
1.209785 0.430751 0.000527 0.0
1.601419 0.425139 -0.000359 0.0
1.323002 1.536535 -0.000735 0.0
4.622847 1.283970 -0.001998 0.0
4.743939 1.532347 0.000436 0.0
1.266590 0.435709 -0.002143 0.0
3.003633 0.178035 -0.002450 0.0
0.193277 1.079674 0.001575 0.0
4.330241 0.731293 0.002528 0.0
4.682774 0.358568 0.001836 0.0
0.678616 0.467797 0.007001 0.0
0.921753 0.810033 -0.001481 0.0
0.944038 1.253880 -0.000520 0.0
2.040585 0.787126 -0.001791 0.0
0.363600 1.171784 0.002388 0.0
2.036564 0.817102 -0.003870 0.0
4.064343 0.300732 0.003920 0.0
3.972182 0.452149 -0.004517 0.0
4.660965 0.274532 0.002115 0.0
1.909896 0.189315 -0.000885 0.0
2.558674 0.867654 0.003269 0.0
2.172091 0.853141 -0.000156 0.0
1.646110 1.405519 0.001723 0.0
1.920969 1.587452 -0.002002 0.0
0.534694 0.847293 -0.000137 0.0
0.576876 0.061418 0.003224 0.0
0.981329 0.182775 -0.001687 0.0
0.879761 0.764075 -0.001062 0.0
1.915120 0.526111 -0.001449 0.0
1.585536 1.224564 0.001092 0.0
0.379043 1.052589 -0.004097 0.0
2.473891 0.938828 0.003022 0.0
3.084483 1.135117 -0.001907 0.0
0.367833 0.551935 0.001527 0.0
3.591620 1.455813 0.000104 0.0
2.724092 1.197493 0.001670 0.0
3.121606 1.570733 -0.001457 0.0
1.339665 0.006853 -0.000351 0.0
3.472369 0.980490 0.004072 0.0
3.790872 0.264111 0.001272 0.0
3.293318 0.091692 0.002607 0.0
1.073641 0.335970 -0.001440 0.0
3.794561 1.569862 0.000338 0.0
2.437960 0.455012 -0.002239 0.0
2.181453 0.282861 -0.004230 0.0
0.326866 1.542038 0.001178 0.0
3.646957 0.399740 -0.002000 0.0
1.029531 1.344676 0.002524 0.0
2.529089 0.954201 0.000199 0.0
3.838940 0.971226 0.000356 0.0
3.258697 0.178518 0.001102 0.0
4.350457 1.088033 -0.002843 0.0
4.507973 0.758252 -0.000860 0.0
2.700328 1.353997 0.002093 0.0
2.934274 0.313772 -0.000332 0.0
2.389923 1.449006 -0.001323 0.0
0.871453 0.363078 0.000212 0.0
0.322851 0.547646 0.000376 0.0
1.407832 0.777764 -0.003370 0.0
3.936143 0.990342 0.002533 0.0
3.698653 0.563455 -0.000487 0.0
0.946165 1.456057 0.003682 0.0
4.379109 1.520795 0.001289 0.0
1.740707 0.975782 -0.000874 0.0
1.830641 0.198920 -0.002635 0.0
0.597408 0.291598 0.003113 0.0
2.123640 1.001213 -0.002607 0.0
2.766504 1.222336 -0.000741 0.0
2.810181 0.360350 0.001533 0.0
4.469874 0.047507 0.001606 0.0
2.289174 0.640803 0.002845 0.0
3.872915 0.812220 -0.002372 0.0
3.256053 0.598455 -0.000406 0.0
2.909557 1.350396 0.001850 0.0
2.335869 1.534148 -0.003376 0.0
3.567363 0.426814 -0.002547 0.0
0.017736 0.358525 -0.002451 0.0
1.178925 1.011600 0.000956 0.0
3.231202 0.018518 0.001409 0.0
3.704693 0.872558 -0.006830 0.0
2.270127 0.623846 0.002273 0.0
1.790015 0.390335 0.000063 0.0
4.571453 1.177703 0.004168 0.0
2.307905 0.171738 0.000694 0.0
3.005377 0.354012 -0.001808 0.0
0.008594 0.288293 -0.003551 0.0
3.636363 0.812728 -0.000883 0.0
4.219497 1.579291 0.003056 0.0
3.256767 0.267266 -0.006994 0.0
2.370331 1.143333 -0.001451 0.0
0.367100 1.514201 -0.000361 0.0
0.879172 1.131451 0.001009 0.0
1.323704 0.342251 -0.000606 0.0
2.646533 0.314503 0.003344 0.0
3.380709 1.444448 0.004283 0.0
0.521962 0.939217 -0.003838 0.0
4.750829 0.987683 0.003660 0.0
1.395617 0.350629 0.001797 0.0
1.355427 0.695763 -0.002018 0.0
0.908678 1.163170 -0.000017 0.0
4.228043 0.200459 -0.000410 0.0
0.270766 0.275874 0.002328 0.0
3.415635 0.104499 -0.000642 0.0
3.217312 0.693096 0.003248 0.0
4.249285 0.671818 -0.000999 0.0
4.480957 0.001639 -0.000324 0.0
3.515314 0.293940 0.003268 0.0
3.559301 0.699934 -0.002357 0.0
0.013843 1.456189 -0.000542 0.0
1.027094 1.155740 -0.000997 0.0
0.845676 0.004711 -0.000733 0.0
1.131863 1.070364 0.002592 0.0
2.953458 1.282228 -0.002285 0.0
2.247812 1.413009 0.000298 0.0
0.580982 1.341678 0.000887 0.0
3.749585 0.483293 0.000144 0.0
0.863656 1.518766 -0.000734 0.0
0.596592 0.410223 -0.006134 0.0
4.269582 0.646845 -0.000247 0.0
1.314111 1.199179 0.003537 0.0
0.812704 1.338433 -0.002945 0.0
2.209790 0.231649 0.000612 0.0
3.902814 0.540193 0.001950 0.0
4.668918 0.310276 0.001993 0.0
4.455923 1.388049 -0.000286 0.0
1.409138 1.210221 0.000557 0.0
4.078267 0.813289 -0.004380 0.0
0.165322 0.190882 -0.000058 0.0
0.007648 0.746215 -0.007073 0.0
2.310080 1.405964 -0.004110 0.0
2.780888 1.323979 -0.000060 0.0
2.715417 0.333231 0.000086 0.0
1.420117 0.780087 -0.000783 0.0
1.277269 0.920454 -0.000531 0.0
1.391645 0.880934 -0.004329 0.0
3.941314 0.058710 0.000478 0.0
1.988145 0.536983 0.002592 0.0
0.858074 0.808028 0.000906 0.0
3.611963 0.614316 0.000275 0.0
0.225210 1.139317 -0.002333 0.0
3.436128 1.487548 -0.001320 0.0
3.134168 1.525449 -0.000261 0.0
3.802322 0.436789 -0.001805 0.0
2.511179 0.561229 0.001738 0.0
3.963804 0.880341 -0.002775 0.0
4.647447 1.232656 0.001885 0.0
4.460332 0.461719 -0.001355 0.0
1.857415 0.076011 -0.003783 0.0
2.017580 0.057795 -0.000128 0.0
1.474724 1.139467 -0.000236 0.0
4.432352 0.270097 -0.001406 0.0
3.675809 0.556452 0.001069 0.0
4.736571 0.336518 0.000142 0.0
0.654659 0.630700 0.002866 0.0
3.428371 0.251240 -0.001829 0.0
4.031319 0.998596 -0.003563 0.0
2.940530 1.282890 0.002289 0.0
3.892252 1.008545 -0.000970 0.0
0.210698 0.805124 0.000467 0.0
3.460471 1.217796 0.001320 0.0
0.274025 1.578803 0.002686 0.0
0.133619 0.389309 -0.000603 0.0
2.469564 0.066488 -0.004156 0.0
0.208358 0.004245 0.002362 0.0
1.918605 0.568180 0.001390 0.0
2.916881 0.856379 0.003032 0.0
1.746492 0.145328 0.000144 0.0
3.471178 0.945747 0.001572 0.0
0.793837 1.129023 -0.001551 0.0
1.403844 0.665963 -0.000389 0.0
1.258520 1.442886 -0.000405 0.0
4.521149 0.422239 0.003685 0.0
2.156145 1.156035 -0.004739 0.0
3.828664 1.259399 -0.000070 0.0
1.415885 0.395558 0.001246 0.0
1.215134 1.029528 -0.001211 0.0
2.176439 0.677909 -0.001279 0.0
1.025246 1.509970 -0.000949 0.0
2.602057 0.085458 0.000728 0.0
1.821956 1.292875 0.000172 0.0
1.250437 1.203711 0.000726 0.0
1.879928 1.199453 -0.003036 0.0
0.114425 1.469116 -0.001384 0.0
1.155382 0.886375 -0.001071 0.0
0.986081 0.085038 0.000190 0.0
1.998186 1.064935 0.003936 0.0
1.576636 0.901030 -0.001692 0.0
1.313301 0.985824 -0.002173 0.0
4.647863 0.214053 -0.000661 0.0
1.430114 0.571667 -0.005283 0.0
2.984269 1.078872 0.000540 0.0
0.956421 1.403015 0.001942 0.0
4.264485 1.561370 0.000705 0.0
0.067340 0.921477 -0.000849 0.0
0.241289 0.730888 0.000085 0.0
0.802642 0.451167 0.003168 0.0
1.181806 0.598551 -0.002447 0.0
1.598570 1.523162 -0.000037 0.0
0.738683 0.775263 0.000685 0.0
2.454128 0.830036 0.004078 0.0
3.125759 0.323653 -0.002067 0.0
4.250948 0.043344 0.003901 0.0
3.877338 0.650286 -0.001665 0.0
2.789589 1.396637 0.004083 0.0
0.759198 1.494797 -0.000283 0.0
1.128586 1.142540 -0.000070 0.0
1.809265 1.224830 0.001994 0.0
2.906048 1.463831 -0.002278 0.0
4.406639 1.146180 0.001314 0.0
2.958915 0.787796 0.000165 0.0
1.287227 1.367606 0.001434 0.0
4.040038 1.323354 0.000151 0.0
3.654150 0.331038 -0.004660 0.0
0.569535 0.565700 0.000613 0.0
2.489356 1.270757 -0.003744 0.0
4.033596 1.533355 -0.001504 0.0
4.468897 0.138217 -0.002821 0.0
3.297869 1.384965 0.004301 0.0
4.602055 0.923070 0.001748 0.0
1.215848 0.725932 -0.000573 0.0
4.265498 0.853779 0.002712 0.0
2.459887 1.238912 -0.001218 0.0
0.780488 0.840169 0.003209 0.0
0.075054 1.196534 0.003830 0.0
2.434033 1.413459 -0.000461 0.0
2.012192 0.585207 -0.000721 0.0
4.183656 0.084582 -0.001283 0.0
2.493020 0.265147 -0.003506 0.0
2.169943 0.698859 -0.002144 0.0
2.878329 1.170392 -0.003256 0.0
3.758572 1.436487 0.003420 0.0
4.225496 1.280582 -0.001815 0.0
1.676439 0.561059 0.002668 0.0
3.873342 1.311421 -0.000353 0.0
2.088834 0.748287 0.001157 0.0
1.087752 0.240864 0.000349 0.0
2.086859 1.571122 0.002025 0.0
1.828557 1.409670 0.003183 0.0
0.101131 1.481834 -0.003253 0.0
3.406474 1.091806 -0.000441 0.0
1.612821 0.638471 0.002603 0.0
4.347601 1.409348 0.000806 0.0
0.267504 1.322018 -0.000976 0.0
2.563935 0.073180 -0.002047 0.0
1.094556 0.068460 0.002036 0.0
0.254318 0.255653 0.003163 0.0
3.170075 1.022156 -0.003350 0.0
4.110607 1.183261 0.000581 0.0
1.299167 0.783305 -0.002330 0.0
4.054348 0.781361 -0.001290 0.0
0.154164 0.658082 -0.002853 0.0
1.151863 1.073372 -0.003461 0.0
1.674516 0.278629 -0.000149 0.0
3.572399 0.460734 -0.001478 0.0
1.534426 0.675852 0.000441 0.0
0.823976 1.275789 0.001989 0.0
1.379850 0.147086 -0.003455 0.0
3.184081 1.169896 0.000417 0.0
4.530321 1.347197 -0.002772 0.0
0.318064 0.130502 0.000021 0.0
3.361591 0.830939 0.000715 0.0
4.427993 0.810086 0.000942 0.0
2.240887 1.374806 -0.000903 0.0
3.649646 1.416627 -0.002951 0.0
3.823822 1.152361 -0.001112 0.0
3.607970 1.252473 -0.001674 0.0
4.283216 1.264412 0.003908 0.0
0.850521 0.866992 0.001453 0.0
3.111108 0.691812 0.001593 0.0
0.297369 0.467562 -0.002122 0.0
3.299069 0.487499 -0.000079 0.0
4.685571 1.263829 0.002178 0.0
0.270776 0.057524 0.004233 0.0
1.161643 0.496062 0.001749 0.0
0.701614 1.270448 -0.003778 0.0
4.295329 0.329264 0.001182 0.0
1.334547 0.830373 -0.003900 0.0
4.579789 1.470753 0.000072 0.0
0.360337 1.195098 -0.003057 0.0
3.367843 0.071830 -0.003687 0.0
1.307216 1.311216 -0.005341 0.0
2.741143 0.884810 0.003944 0.0
2.110583 1.207547 0.002791 0.0
4.119963 0.074538 0.001606 0.0
0.834617 0.477338 -0.001934 0.0
3.608487 1.463625 0.000072 0.0
2.833655 0.396666 0.003392 0.0
3.046095 1.343938 0.000328 0.0
1.814191 0.235750 -0.000250 0.0
1.499923 1.363609 -0.006198 0.0
1.835805 0.899011 0.002335 0.0
4.433777 1.013421 0.002091 0.0
0.624842 1.102531 -0.000762 0.0
4.092141 0.605297 -0.000068 0.0
3.618583 0.442318 -0.000079 0.0
2.660075 0.300379 -0.000930 0.0
2.251194 0.647398 0.004170 0.0
3.645419 1.250192 -0.001716 0.0
2.234573 0.480873 -0.004382 0.0
3.968009 1.426322 -0.002864 0.0
2.969597 0.006399 -0.003877 0.0
3.282070 1.160330 0.001033 0.0
1.158647 0.272700 -0.000003 0.0
0.011523 1.129495 0.002133 0.0
2.754662 0.222806 0.002476 0.0
0.691059 1.385692 -0.004416 0.0
3.337702 0.234430 -0.001195 0.0
3.522166 0.673844 -0.000986 0.0
1.116053 1.092068 0.003563 0.0
1.569324 0.554398 -0.003362 0.0
1.335287 0.830948 0.000732 0.0
0.554548 0.511807 0.000370 0.0
2.748280 0.093540 -0.000871 0.0
0.297601 0.844891 -0.001052 0.0
1.347196 0.411179 -0.002105 0.0
1.348721 1.110669 0.000013 0.0
0.572948 0.977073 0.001530 0.0
3.182282 0.299356 0.000328 0.0
4.612838 0.412506 0.000260 0.0
1.480343 0.925621 -0.001031 0.0
2.477188 1.017958 0.001925 0.0
3.175791 0.754766 -0.000900 0.0
2.197527 0.526557 -0.004373 0.0
3.734688 1.457298 -0.001291 0.0
2.388217 1.342152 0.003538 0.0
2.374059 1.145327 0.000539 0.0
1.890144 1.446750 0.000340 0.0
2.558878 0.329841 0.004431 0.0
2.856854 0.906559 0.003249 0.0
4.717148 0.544675 -0.003404 0.0
0.688447 0.096765 -0.001145 0.0
1.919165 0.618897 0.005081 0.0
3.626169 0.567870 0.002950 0.0
0.271981 0.330638 -0.003775 0.0
2.453156 1.142775 -0.002897 0.0
2.400445 1.056842 -0.001408 0.0
4.543894 0.736972 -0.001002 0.0
3.408219 1.461916 -0.003831 0.0
1.614157 1.092658 -0.000024 0.0
4.445701 1.546221 -0.000891 0.0
3.264635 0.599149 0.001528 0.0
0.197214 1.423313 -0.000266 0.0
4.112590 1.037826 0.001253 0.0
2.311128 0.184091 -0.002429 0.0
4.631704 0.871378 0.001447 0.0
3.893771 1.425439 -0.001992 0.0
3.452407 0.713801 -0.003026 0.0
4.685054 1.370022 0.000185 0.0
3.817590 0.528807 -0.000793 0.0
0.735972 1.383773 -0.003634 0.0
3.182454 0.413717 -0.002597 0.0
1.663708 0.102353 0.000868 0.0
1.534140 0.528342 0.001619 0.0
4.735794 1.340333 0.000542 0.0
0.113350 1.259872 -0.001950 0.0
0.524373 1.211520 -0.003972 0.0
2.147847 0.510331 -0.001413 0.0
4.658293 0.291321 -0.001111 0.0
3.046077 0.801159 -0.002551 0.0
4.502147 1.235246 -0.001991 0.0
0.243024 0.432398 0.000387 0.0
1.177436 1.001020 -0.000705 0.0
3.649432 0.185491 0.001986 0.0
0.008694 0.205999 -0.002352 0.0
3.167034 0.092172 -0.001033 0.0
0.139449 0.449081 0.003634 0.0
4.435884 0.525903 0.001254 0.0
0.462580 1.008122 -0.003431 0.0
2.113146 0.809617 0.000991 0.0
2.889433 0.686165 0.000438 0.0
4.756225 1.405919 0.003375 0.0
1.397968 1.237932 -0.004596 0.0
2.819666 0.470532 -0.001474 0.0
3.847328 1.165250 -0.000769 0.0
4.426436 0.737628 0.001472 0.0
0.589745 0.996676 -0.001255 0.0
0.040045 0.822727 -0.000106 0.0
4.488877 1.031577 0.005910 0.0
3.889713 0.429402 -0.003998 0.0
1.091865 1.159139 0.000296 0.0
3.893097 0.172111 -0.000449 0.0
0.332494 1.299246 -0.003560 0.0
0.138547 0.487280 0.000598 0.0
2.847976 0.699365 0.002047 0.0
3.078911 0.828060 0.002979 0.0
3.814467 0.736629 -0.000824 0.0
2.831599 0.095560 -0.001921 0.0
4.469413 0.269201 0.001901 0.0
3.853388 0.663006 -0.000196 0.0
3.554229 0.136173 -0.001324 0.0
1.456061 1.295060 -0.003508 0.0
0.346120 0.107519 0.002594 0.0
1.744625 0.834576 0.001770 0.0
4.451791 0.058974 -0.000261 0.0
0.616998 0.830363 -0.000072 0.0
3.340011 0.321050 0.001997 0.0
2.625058 0.783502 -0.001199 0.0
0.554423 1.354267 -0.000265 0.0
0.378129 0.849838 -0.002796 0.0
0.807174 1.519891 -0.000173 0.0
3.490984 1.314764 0.002833 0.0
0.137460 1.534316 -0.000380 0.0
4.484075 1.372433 0.000553 0.0
1.323511 1.532925 -0.000798 0.0
0.294906 0.685261 0.002196 0.0
3.975869 0.915051 -0.002306 0.0
3.260092 0.959098 0.002921 0.0
2.996157 0.652597 0.000004 0.0
0.857521 0.515655 0.001273 0.0
0.694653 0.550997 0.004131 0.0
1.515452 1.560823 0.000930 0.0
3.189684 0.047536 -0.000163 0.0
3.153412 1.182427 -0.000190 0.0
2.090761 0.191288 0.000557 0.0
3.385243 0.320352 -0.000773 0.0
2.334941 0.633195 -0.003251 0.0
1.452841 1.373120 0.000164 0.0
2.131650 0.135159 -0.002090 0.0
2.604003 0.273951 -0.007594 0.0
3.457729 0.269763 0.000729 0.0
3.578738 1.479795 0.003849 0.0
4.724867 0.742097 -0.001056 0.0
0.873378 1.293350 0.002038 0.0
1.258026 0.699555 -0.004648 0.0
0.136108 0.906911 0.003753 0.0
1.974437 0.323819 0.003303 0.0
1.738345 0.879160 0.001640 0.0
3.701709 1.472300 0.000515 0.0
3.079426 1.090283 -0.000796 0.0
2.049643 0.808147 -0.004932 0.0
0.599639 0.886802 0.003038 0.0
0.709139 0.088432 0.006857 0.0
3.462704 0.283118 -0.003850 0.0
4.389834 0.154468 0.003527 0.0
4.552770 1.387006 0.003109 0.0
1.687801 1.129568 0.001222 0.0
1.217042 0.367244 -0.000879 0.0
4.548879 0.456539 0.000252 0.0
4.702816 1.539146 -0.000486 0.0
1.008960 0.129478 0.002305 0.0
4.338304 0.601207 0.001938 0.0
2.385891 1.115358 -0.000719 0.0
0.541728 0.029463 -0.000257 0.0
4.705224 1.325865 -0.007031 0.0
3.922422 1.512253 0.000240 0.0
0.050008 0.638338 -0.000401 0.0
1.972873 0.854257 0.004901 0.0
2.679998 0.843095 -0.001708 0.0
3.598874 0.212136 -0.001128 0.0
1.919509 0.837573 0.001169 0.0
3.589289 1.441351 -0.000803 0.0
0.953648 1.478050 0.000981 0.0
4.198963 0.458911 -0.000081 0.0
3.097193 1.214153 0.003369 0.0
1.526891 0.029848 -0.001330 0.0
1.933409 0.421741 0.000463 0.0
3.988413 0.877763 -0.000192 0.0
1.408415 0.194940 0.002163 0.0
1.103552 1.048733 -0.001572 0.0
3.668691 1.431458 -0.005579 0.0
2.916739 1.479238 0.002702 0.0
2.706749 0.500970 0.002429 0.0
0.210880 0.233122 -0.002319 0.0
1.479339 1.493936 -0.000975 0.0
1.462220 0.849451 -0.003297 0.0
2.295936 0.981760 -0.003992 0.0
0.814752 0.150516 0.004375 0.0
3.958887 0.727623 0.004648 0.0
4.104865 0.241274 -0.001349 0.0
0.710234 1.346929 0.005408 0.0
0.830116 1.271467 -0.001068 0.0
3.192243 0.180301 -0.000248 0.0
4.142732 0.558083 0.001277 0.0
0.719479 1.105001 0.000448 0.0
0.986438 1.073737 0.003092 0.0
3.560630 0.915691 -0.001534 0.0
2.405197 1.351010 0.000966 0.0
1.026904 0.916438 0.000368 0.0
3.390965 0.399100 0.002084 0.0
1.357403 0.041213 0.006461 0.0
3.196340 0.046677 0.001485 0.0
0.309283 1.097402 0.001094 0.0
3.729151 1.079380 0.003228 0.0
0.711676 0.343014 0.001370 0.0
3.029852 0.314358 -0.002202 0.0
2.549112 0.772336 -0.003635 0.0
2.446717 0.004779 -0.002085 0.0
4.197757 1.046990 0.003375 0.0
0.212401 0.348694 0.005592 0.0
4.112019 0.420983 0.001420 0.0
4.177041 0.617927 0.001070 0.0
1.491187 0.397431 -0.000223 0.0
0.461089 0.486605 -0.003754 0.0
3.085814 0.298856 -0.003043 0.0
3.492465 0.115664 -0.000427 0.0
2.786580 0.913474 0.004497 0.0
0.540864 0.335372 -0.002310 0.0
1.294606 0.291547 -0.000446 0.0
3.225206 0.729449 -0.000567 0.0
0.068792 0.055714 -0.002748 0.0
3.709402 0.819128 0.000579 0.0
4.594966 1.483425 0.000157 0.0
2.461037 1.416355 -0.000697 0.0
3.899928 1.281040 0.000085 0.0
0.432131 0.751395 0.004032 0.0
3.280367 0.031505 0.002944 0.0
2.261101 1.218802 0.000075 0.0
0.326678 1.194847 0.000871 0.0
0.693821 0.147259 0.000677 0.0
1.375102 1.103306 0.001616 0.0
0.557141 0.252489 -0.000326 0.0
3.575525 0.791532 0.003132 0.0
3.605143 1.151743 -0.000870 0.0
0.767583 1.288784 -0.001068 0.0
4.390174 0.160057 -0.004405 0.0
1.251779 0.748842 0.003285 0.0
2.508413 1.151261 -0.000994 0.0
0.835690 0.486726 -0.000062 0.0
1.169030 0.898414 -0.000331 0.0
2.540390 0.842876 -0.003185 0.0
3.583926 1.328787 -0.001050 0.0
0.945472 0.027858 0.002507 0.0
3.744377 0.552890 -0.001139 0.0
0.346514 0.608424 0.000570 0.0
0.009461 0.127767 -0.002466 0.0
1.795044 0.913088 0.001700 0.0
3.076639 1.125654 0.005306 0.0
2.124084 1.522434 0.004960 0.0
3.076845 1.106987 0.000390 0.0
0.873461 0.538551 -0.002388 0.0
3.666765 0.639997 0.002401 0.0
0.887673 0.430666 -0.002457 0.0
4.647853 1.199956 0.000553 0.0
1.749524 0.412482 0.000444 0.0
1.285032 0.687576 -0.006458 0.0
1.232895 1.065401 -0.005620 0.0
3.367437 1.103250 0.006837 0.0
3.324222 1.170239 0.002928 0.0
3.520996 0.559429 -0.004475 0.0
1.781333 0.522804 0.002025 0.0
1.535651 1.301363 -0.002237 0.0
0.075043 0.775616 -0.002285 0.0
0.026696 0.419936 0.001383 0.0
2.846550 0.835521 -0.001378 0.0
4.210028 1.109116 0.004070 0.0
2.541676 0.950725 0.000000 0.0
0.076395 1.014465 0.002295 0.0
2.157295 0.997333 0.001744 0.0
3.934874 1.416893 -0.004486 0.0
1.447578 0.090633 -0.001713 0.0
2.490324 0.183527 0.002592 0.0
3.671097 0.220609 0.003304 0.0
3.250730 0.602450 -0.002379 0.0
4.175062 0.498007 -0.003757 0.0
1.216501 0.653370 -0.001377 0.0
1.947368 0.038669 0.003506 0.0
0.704171 0.580320 0.002168 0.0
0.960368 1.252490 0.003686 0.0
0.825525 0.012423 0.001950 0.0
1.582997 0.306339 0.001374 0.0
2.626557 0.443506 0.000734 0.0
0.817004 0.762867 0.002033 0.0
3.794668 0.781752 0.002402 0.0
0.363909 0.508795 0.001595 0.0
3.745845 0.906468 0.001327 0.0
2.997608 0.880329 0.001743 0.0
3.057908 0.377451 0.002109 0.0
0.907421 0.874791 0.002021 0.0
1.399423 1.320240 0.001035 0.0
0.482574 0.794799 -0.000236 0.0
0.583892 1.430524 -0.002819 0.0
3.153781 1.198639 -0.000837 0.0
0.697599 0.435796 -0.004630 0.0
4.173896 0.667680 -0.002059 0.0
4.440231 1.358918 0.000089 0.0
3.823453 1.253835 0.001338 0.0
2.910859 0.027383 0.001236 0.0
2.592809 0.634212 -0.002198 0.0
0.422826 0.765198 -0.000663 0.0
3.564055 0.753448 -0.002650 0.0
4.335334 1.217097 0.000487 0.0
1.278515 0.920914 0.000214 0.0
1.767899 0.036862 -0.002506 0.0
4.049900 0.357106 -0.000771 0.0
0.920759 0.033971 0.002849 0.0
2.308369 0.910670 -0.000178 0.0
2.271169 0.681938 0.000764 0.0
0.369722 0.342085 0.001255 0.0
0.892816 1.401070 -0.002975 0.0
4.267221 0.103847 0.003129 0.0
3.089043 1.381495 -0.001021 0.0
4.428878 1.428818 0.000527 0.0
3.602364 0.043392 0.001234 0.0
3.188381 0.190132 -0.006593 0.0
4.144305 1.028513 -0.000913 0.0
3.259162 1.032228 0.002393 0.0
4.756236 0.794662 0.001466 0.0
0.032048 1.050470 0.001589 0.0
0.605104 1.096294 0.003483 0.0
1.734763 0.716274 0.002007 0.0
3.272271 0.859565 -0.006187 0.0
1.061784 1.045802 -0.001026 0.0
2.092686 1.279792 0.002718 0.0
2.259124 0.540750 -0.001456 0.0
1.191355 0.351733 -0.002752 0.0
1.573672 0.651985 -0.002903 0.0
1.261934 0.207513 -0.002301 0.0
1.284612 1.091513 0.003916 0.0
0.998064 1.423460 0.002021 0.0
0.303617 0.976341 0.001038 0.0
4.530838 1.160925 -0.000499 0.0
4.508208 0.380921 0.000302 0.0
3.810405 1.264966 -0.000765 0.0
4.401407 0.831529 0.003345 0.0
2.972758 0.691606 -0.001178 0.0
1.265958 1.209846 -0.000782 0.0
2.707903 1.583693 0.001155 0.0
4.166546 0.731468 0.003871 0.0
2.626541 1.240723 0.001099 0.0
1.513243 1.174610 0.001452 0.0
1.897890 0.453471 -0.003821 0.0
0.227112 1.424843 0.003822 0.0
0.522698 0.310580 -0.001556 0.0
1.442280 0.933396 0.000075 0.0
