0.771950 0.412224 -0.003566 0.0
4.618480 1.642085 0.001449 0.0
2.427017 1.585659 -0.002872 0.0
0.447953 0.395348 -0.005467 0.0
2.934382 0.166591 0.001063 0.0
3.105169 0.236029 0.002708 0.0
1.277726 1.690472 -0.000748 0.0
1.277854 0.128729 0.001998 0.0
2.746545 0.079132 -0.003463 0.0
4.629070 0.623609 0.003350 0.0
2.179243 0.961208 0.000608 0.0
2.117856 0.807933 -0.002034 0.0
2.114943 1.566378 -0.000760 0.0
1.295816 0.474127 -0.000172 0.0
0.733143 0.868480 -0.000445 0.0
0.014166 1.596631 0.004615 0.0
3.549524 1.164624 0.002693 0.0
0.797098 1.538301 0.001575 0.0
0.530055 0.904885 -0.003345 0.0
1.976051 0.416426 0.003100 0.0
0.894241 1.317412 -0.002170 0.0
3.667190 0.585285 -0.002193 0.0
1.209597 0.095871 -0.002163 0.0
0.419799 0.040033 0.001888 0.0
3.780266 0.990322 0.005142 0.0
4.113803 1.156797 -0.003387 0.0
1.412664 0.193704 -0.002047 0.0
1.369251 0.394350 0.003276 0.0
3.933084 0.390210 -0.001903 0.0
0.140016 1.468834 -0.002836 0.0
2.436321 1.690532 0.002088 0.0
2.315172 0.558299 0.002622 0.0
3.890036 0.950143 -0.003275 0.0
1.516823 1.323128 -0.001226 0.0
1.926599 0.707579 0.001677 0.0
2.752147 1.366781 0.001087 0.0
4.418027 1.505501 -0.002523 0.0
4.039419 1.039286 0.002470 0.0
1.181720 0.078578 -0.000722 0.0
1.310061 0.643797 0.000554 0.0
4.392712 0.586510 0.002718 0.0
3.365665 0.024580 -0.001674 0.0
2.742344 1.556197 0.001205 0.0
0.540425 1.068057 -0.006118 0.0
4.270263 1.056724 -0.001987 0.0
2.234991 0.161360 -0.001247 0.0
4.373993 0.514708 -0.000880 0.0
1.916566 0.392158 -0.000690 0.0
2.910593 0.630653 -0.002062 0.0
4.409579 0.013666 0.000494 0.0
3.954275 0.902796 0.002520 0.0
2.075130 0.398173 0.001044 0.0
0.431196 1.039502 0.000239 0.0
2.787815 0.503176 0.000741 0.0
0.391829 0.454819 0.001773 0.0
2.226490 1.623689 0.000681 0.0
3.616946 0.512477 -0.000796 0.0
3.704322 0.595061 0.005196 0.0
1.191891 1.644970 0.001389 0.0
0.150756 0.061855 -0.002832 0.0
0.990639 0.066128 0.000280 0.0
3.019634 1.157216 -0.003763 0.0
1.288936 0.539438 0.000519 0.0
1.051313 0.308505 -0.003129 0.0
1.099569 1.247739 0.000802 0.0
3.814532 1.073850 0.000362 0.0
2.509809 1.265593 -0.002236 0.0
2.010887 0.277583 -0.000156 0.0
0.021746 1.510785 0.000908 0.0
2.747310 0.950293 -0.001769 0.0
3.484148 0.084117 0.003422 0.0
3.870128 1.158010 0.000862 0.0
3.436666 0.238701 -0.000825 0.0
0.175561 1.650705 -0.003165 0.0
1.124841 1.108735 0.002788 0.0
3.356474 1.327635 -0.003148 0.0
0.055128 0.809064 0.001031 0.0
2.392108 0.277836 -0.000020 0.0
1.545358 1.212980 -0.001342 0.0
4.550377 1.283852 -0.001888 0.0
2.663856 1.157818 0.001264 0.0
1.765561 1.455710 -0.002950 0.0
3.487522 1.281932 0.003207 0.0
3.641749 1.091579 -0.001994 0.0
2.635615 1.245724 -0.002044 0.0
3.302576 0.492704 0.000474 0.0
1.849855 1.288438 0.001039 0.0
0.059909 1.333619 0.000909 0.0
3.134252 0.343893 0.002040 0.0
3.912322 1.381866 -0.001398 0.0
3.374744 1.366595 0.000411 0.0
2.363758 0.221006 -0.005251 0.0
3.316498 1.003293 -0.000517 0.0
2.558894 0.309058 -0.000638 0.0
4.058940 0.775287 -0.002368 0.0
4.319840 1.224403 0.000359 0.0
4.402420 0.581990 0.000753 0.0
0.866876 0.373379 -0.001655 0.0
0.521525 0.853094 -0.000078 0.0
0.138176 0.961967 -0.001155 0.0
3.495167 1.149452 -0.000849 0.0
2.496946 0.952916 0.000435 0.0
1.662516 0.805975 0.001954 0.0
1.516567 0.412410 0.001255 0.0
0.079636 1.199376 0.000943 0.0
4.323791 1.500867 -0.000990 0.0
3.266403 0.744085 -0.002339 0.0
0.932939 1.193330 0.001523 0.0
0.353180 1.552813 -0.003554 0.0
2.893632 0.330848 -0.003397 0.0
4.143310 1.695969 -0.007353 0.0
0.760242 1.295770 0.002653 0.0
2.652922 1.063737 -0.001692 0.0
0.069291 1.368530 -0.002548 0.0
0.845912 0.822086 -0.000858 0.0
4.063956 0.654458 0.004458 0.0
2.691085 0.484605 -0.000023 0.0
4.173477 0.607724 0.000531 0.0
0.296526 1.290933 -0.001202 0.0
0.130143 1.400180 0.003549 0.0
3.163095 0.639260 -0.003430 0.0
0.638639 1.584053 -0.002458 0.0
2.166938 1.378208 -0.001835 0.0
0.145146 0.242567 -0.003140 0.0
4.185978 0.791074 -0.000858 0.0
3.898328 0.125881 0.002866 0.0
0.290304 0.094677 0.000597 0.0
4.082830 0.257605 -0.000211 0.0
4.648811 0.677733 0.003270 0.0
1.722382 1.369099 -0.001221 0.0
1.100267 0.453035 -0.000272 0.0
0.794472 1.165756 -0.000923 0.0
1.535310 0.652449 -0.002083 0.0
1.881664 1.330804 0.002724 0.0
0.806664 1.671796 -0.000311 0.0
1.200934 1.510983 0.002404 0.0
4.634084 0.876852 -0.003438 0.0
0.088529 0.569449 0.001877 0.0
2.283828 0.096984 0.000776 0.0
0.379591 0.005777 0.000478 0.0
1.414534 0.280868 -0.002095 0.0
2.245573 1.497028 0.002845 0.0
1.930480 0.371328 -0.000062 0.0
1.052250 1.455636 -0.000473 0.0
3.244694 0.081054 -0.001538 0.0
1.924787 0.618021 -0.000457 0.0
3.749316 0.862845 -0.002158 0.0
2.610871 0.627527 -0.001777 0.0
3.849866 1.306319 0.000102 0.0
1.473159 0.227548 0.002574 0.0
2.339058 1.229863 0.001126 0.0
4.076945 1.058838 -0.000079 0.0
1.039472 0.565484 -0.001767 0.0
0.445337 1.646975 0.004245 0.0
4.491439 0.322632 -0.000457 0.0
0.512886 1.672719 -0.003160 0.0
0.208516 0.518380 0.002999 0.0
4.446972 1.565030 0.005770 0.0
1.565741 0.060817 -0.000093 0.0
2.776976 0.270563 -0.001362 0.0
1.750445 0.308072 -0.000183 0.0
0.561532 0.494579 -0.000826 0.0
0.320518 0.326171 0.000635 0.0
4.211047 0.252374 0.003013 0.0
1.737184 1.691735 0.001770 0.0
1.340825 0.395171 0.002012 0.0
1.558252 0.917345 0.001582 0.0
2.873186 0.374990 0.000982 0.0
3.702004 1.221647 0.005118 0.0
1.588404 0.800878 -0.000653 0.0
4.320317 1.642777 -0.001571 0.0
4.083719 0.769829 0.002390 0.0
3.802317 1.286246 -0.004000 0.0
2.889692 0.086661 -0.001654 0.0
2.398681 1.122210 -0.000965 0.0
2.334023 0.077245 0.001098 0.0
1.586127 0.578221 -0.001944 0.0
4.498314 0.334084 0.001163 0.0
1.515843 0.735460 0.000613 0.0
0.726558 1.412498 0.001079 0.0
0.732649 1.673293 0.001450 0.0
1.945065 0.894373 0.001126 0.0
0.009193 0.910229 -0.001526 0.0
1.582906 0.987894 0.003744 0.0
0.892216 1.485616 0.001385 0.0
1.063994 1.407350 -0.000466 0.0
3.322355 0.245373 -0.004042 0.0
4.521494 0.848127 0.002074 0.0
1.985038 0.837459 0.001766 0.0
0.712888 0.379138 0.004470 0.0
4.064320 0.408049 0.001954 0.0
2.522353 1.339750 -0.002274 0.0
1.932465 0.042005 0.002518 0.0
4.213753 1.126508 -0.002203 0.0
0.859557 1.420204 -0.001030 0.0
1.137477 0.986448 -0.003043 0.0
0.873126 0.228076 -0.001402 0.0
1.957536 0.489269 0.004929 0.0
0.675961 1.569642 0.000790 0.0
0.104788 0.682863 0.000206 0.0
3.989904 0.447244 -0.001933 0.0
0.150118 1.277751 0.000681 0.0
0.183376 1.454834 0.003188 0.0
0.326121 1.344926 -0.000248 0.0
2.491503 0.239809 0.002677 0.0
0.039472 1.381811 0.000167 0.0
4.107552 1.181254 -0.002868 0.0
3.651772 0.424543 -0.001965 0.0
2.651312 1.479692 -0.001139 0.0
2.814274 0.362678 0.001737 0.0
3.575446 0.978296 0.001852 0.0
2.374210 0.370051 -0.000147 0.0
3.182988 1.103285 0.000577 0.0
3.572007 1.273504 0.001676 0.0
3.567035 0.285833 -0.001468 0.0
3.485551 0.565168 -0.000392 0.0
4.335708 0.207989 0.002722 0.0
3.283944 0.372017 0.001915 0.0
3.658552 1.549712 0.001506 0.0
1.806793 0.980880 -0.001926 0.0
4.602415 0.889154 -0.004562 0.0
0.536856 0.987008 0.003538 0.0
1.988802 0.174397 -0.003314 0.0
1.796740 0.432644 0.001669 0.0
0.892515 0.732217 -0.000422 0.0
1.218904 1.228635 0.002186 0.0
3.157184 0.137498 -0.000355 0.0
1.061151 1.287879 0.000578 0.0
0.017067 0.101561 0.000468 0.0
2.352911 0.629170 0.002931 0.0
0.859832 1.497167 -0.001525 0.0
0.437255 1.443556 -0.001234 0.0
0.896218 0.398357 -0.002471 0.0
4.233238 1.456478 0.001574 0.0
0.750138 1.265256 0.002186 0.0
3.051805 0.420756 -0.001054 0.0
0.240225 0.638870 0.002041 0.0
1.053803 1.305185 0.004146 0.0
3.446908 1.014231 0.001833 0.0
4.531969 1.131185 0.000006 0.0
0.595090 1.552461 0.001107 0.0
3.431724 1.180261 0.000007 0.0
1.712047 0.534657 0.002379 0.0
4.539780 0.105869 0.006096 0.0
4.530921 0.834245 -0.000917 0.0
1.032161 0.807901 -0.000843 0.0
3.424939 0.504534 -0.000713 0.0
0.918440 1.128353 0.001456 0.0
0.590712 1.560470 0.002256 0.0
3.638219 1.088606 0.000019 0.0
2.357446 0.277635 -0.005900 0.0
2.389041 0.875488 -0.003493 0.0
3.673468 1.071368 0.003685 0.0
1.827604 1.593285 -0.002126 0.0
2.204599 1.517181 0.002331 0.0
2.120235 0.008341 -0.000045 0.0
0.452021 0.345807 -0.001026 0.0
2.653228 0.179938 -0.002119 0.0
3.109735 0.489276 -0.002949 0.0
4.112707 0.753145 -0.001061 0.0
4.441743 0.905204 -0.003994 0.0
3.876518 0.739460 0.003965 0.0
2.094938 0.265105 0.002531 0.0
2.347791 0.022852 -0.001569 0.0
3.731336 1.523531 -0.001999 0.0
3.623152 0.317941 0.002144 0.0
0.524119 0.156849 0.003419 0.0
3.985927 0.301483 -0.001382 0.0
1.865124 0.815692 0.000301 0.0
3.942178 0.608572 0.001373 0.0
2.152192 0.410819 -0.000621 0.0
1.327059 0.353680 -0.001356 0.0
0.883726 0.642194 -0.000472 0.0
0.389152 0.327846 -0.002359 0.0
0.176415 1.688110 -0.000659 0.0
4.170117 0.931537 -0.000928 0.0
0.880603 1.200456 0.001889 0.0
0.767797 0.578644 0.002609 0.0
3.720695 0.629933 -0.002982 0.0
4.067960 0.993470 0.001991 0.0
1.480024 0.842910 0.002290 0.0
3.900812 1.117579 0.005637 0.0
3.344622 1.164472 0.002069 0.0
3.896273 0.873151 0.001599 0.0
2.764694 0.111452 0.000613 0.0
4.388350 1.472604 0.003430 0.0
4.565240 1.149338 0.000606 0.0
3.019894 0.987820 0.003248 0.0
1.992829 0.069131 -0.003472 0.0
3.021551 0.412209 -0.002855 0.0
1.118509 0.521307 0.005901 0.0
4.266029 0.873946 -0.000044 0.0
1.671970 0.418645 -0.000028 0.0
0.490160 0.523716 -0.001313 0.0
2.450857 1.285534 0.000394 0.0
1.100773 0.560873 0.000010 0.0
2.553353 0.030775 -0.001649 0.0
1.277000 0.970952 -0.000461 0.0
0.756033 1.074063 -0.001029 0.0
1.783731 1.289871 -0.000549 0.0
2.534267 1.107724 -0.001280 0.0
0.016239 0.809439 -0.006916 0.0
4.235241 1.339887 -0.002824 0.0
0.631415 1.209866 0.001629 0.0
3.963702 1.151223 0.000205 0.0
3.097609 0.186053 0.004528 0.0
0.332082 1.217714 -0.005143 0.0
4.112764 1.150076 -0.001384 0.0
2.625683 1.462850 -0.000021 0.0
3.324070 0.276220 -0.002809 0.0
2.431026 1.546617 0.001347 0.0
2.160538 0.822440 -0.002139 0.0
0.058233 1.441785 0.000390 0.0
1.621177 1.114541 0.000593 0.0
0.465647 0.153559 -0.001884 0.0
4.376878 0.228790 -0.000781 0.0
2.653844 1.666106 0.000946 0.0
3.068985 0.288591 -0.001393 0.0
3.379562 0.397639 -0.003437 0.0
2.874952 1.160806 0.003495 0.0
0.996819 1.166060 0.003602 0.0
0.465092 1.017448 0.000808 0.0
2.143191 0.276506 -0.002250 0.0
0.103300 1.153770 -0.000092 0.0
1.071411 0.040919 -0.002998 0.0
2.951568 1.134136 -0.003447 0.0
0.083274 1.692158 -0.002067 0.0
1.704524 1.155905 -0.003873 0.0
3.107953 1.536417 -0.001446 0.0
2.191689 0.956083 0.000614 0.0
1.474876 1.044723 -0.002319 0.0
1.638373 0.642185 -0.004040 0.0
2.358818 0.420672 -0.001420 0.0
3.600500 0.958900 0.002160 0.0
0.581122 0.943345 0.000110 0.0
4.410659 0.520124 0.002872 0.0
0.987573 1.491359 0.002463 0.0
1.487155 1.393742 0.002178 0.0
2.439477 1.250158 0.002263 0.0
4.443816 1.220883 0.000687 0.0
2.552747 0.649730 0.001307 0.0
2.814444 1.295062 0.004163 0.0
2.349820 0.356911 0.003641 0.0
2.843770 0.441068 0.005827 0.0
1.979738 0.887923 -0.004632 0.0
2.115842 0.171252 0.001611 0.0
3.875348 1.564716 -0.002141 0.0
2.761354 0.032922 -0.001592 0.0
2.803671 0.602098 0.002563 0.0
4.315412 0.727139 0.001348 0.0
0.407851 0.217894 0.002344 0.0
0.007056 1.434102 0.003150 0.0
3.714228 1.035854 -0.003939 0.0
1.446233 0.454090 -0.000111 0.0
0.553060 1.084758 -0.004661 0.0
4.602629 1.619298 0.002278 0.0
2.358327 0.724156 0.002120 0.0
1.299578 1.321588 0.001113 0.0
3.494544 1.490302 -0.002068 0.0
2.597214 1.213874 -0.000489 0.0
4.430260 0.493621 -0.000772 0.0
4.526515 0.557890 -0.000824 0.0
1.240076 0.599798 0.001232 0.0
3.310610 0.092088 0.002864 0.0
1.730011 0.987513 -0.001840 0.0
3.863988 0.905781 0.001605 0.0
4.176728 1.282285 -0.000094 0.0
0.295372 1.348543 -0.000653 0.0
1.268975 1.582327 -0.000336 0.0
4.100328 0.021982 0.000119 0.0
0.895885 1.599303 0.001044 0.0
1.256023 1.494038 -0.000854 0.0
2.297670 0.319115 0.003926 0.0
0.467496 0.056845 -0.002661 0.0
1.949863 1.259542 0.000258 0.0
3.778206 0.674736 -0.000590 0.0
3.978015 0.176910 -0.003842 0.0
1.321468 0.042388 0.002782 0.0
0.716255 1.016817 0.003361 0.0
1.925820 0.297027 0.002942 0.0
1.811405 1.126362 0.002223 0.0
4.416655 1.377437 -0.004529 0.0
2.350825 0.592100 -0.003498 0.0
1.488226 0.332204 -0.000492 0.0
3.002575 1.077589 0.003419 0.0
1.772767 1.486828 -0.003573 0.0
0.166511 1.492777 -0.001095 0.0
4.467554 1.277411 -0.001576 0.0
2.032304 1.695066 -0.000131 0.0
4.008194 1.612596 0.000815 0.0
3.563820 1.567160 -0.003617 0.0
4.268862 1.462666 -0.000529 0.0
3.434984 0.017269 0.004089 0.0
3.518631 1.511656 0.002298 0.0
1.713093 0.399735 -0.000950 0.0
0.949417 0.564500 0.002427 0.0
3.245025 0.592425 0.002955 0.0
2.235455 0.256278 -0.001561 0.0
1.993982 0.067010 0.004163 0.0
4.040977 1.021283 -0.003048 0.0
2.759453 1.613063 -0.005202 0.0
1.866310 1.051251 0.004839 0.0
3.048794 0.421080 0.002027 0.0
1.252177 1.535474 0.004520 0.0
4.439732 1.215296 -0.000341 0.0
3.855908 0.306238 0.004314 0.0
1.174388 0.747874 -0.000529 0.0
2.742120 1.108390 0.000953 0.0
4.540019 0.983067 0.002602 0.0
4.057047 1.416485 0.001073 0.0
3.789746 0.452362 0.000498 0.0
4.381085 1.146177 0.000988 0.0
3.892023 1.102113 -0.002014 0.0
0.228286 0.517627 -0.001248 0.0
2.468425 0.331059 -0.001651 0.0
0.397855 1.036248 -0.002285 0.0
1.059841 0.373336 -0.002184 0.0
3.153226 0.465379 0.002715 0.0
3.794139 0.433036 0.000017 0.0
3.541177 0.811920 0.001657 0.0
3.872068 0.285074 0.002769 0.0
1.134288 0.298042 -0.000747 0.0
0.749620 0.189230 0.005651 0.0
3.298837 0.503985 -0.002469 0.0
2.701901 0.184097 0.000931 0.0
2.741791 0.419160 -0.003573 0.0
2.240102 0.402916 0.002095 0.0
2.483414 1.564442 -0.002321 0.0
2.755503 0.398288 -0.001001 0.0
1.604715 0.115897 0.004047 0.0
2.055834 0.954811 -0.000039 0.0
3.299677 1.363747 -0.000649 0.0
3.156872 1.112168 -0.000025 0.0
2.528984 0.119280 0.001320 0.0
4.641084 0.169829 0.002080 0.0
3.871767 1.545424 0.002757 0.0
0.700409 0.205530 -0.001857 0.0
0.959267 0.280112 -0.000785 0.0
3.244584 1.066037 -0.001506 0.0
1.276550 1.231388 0.000908 0.0
4.164628 0.709541 -0.003202 0.0
3.016947 1.233230 -0.000586 0.0
2.684129 0.680093 0.001703 0.0
4.058745 1.117687 0.000117 0.0
0.803936 0.045844 -0.004653 0.0
3.733593 1.047838 -0.005688 0.0
0.768812 0.087797 -0.002131 0.0
3.012466 1.659899 0.002767 0.0
4.288415 0.607824 -0.002533 0.0
2.279277 1.077868 -0.002595 0.0
2.355047 0.576579 0.001194 0.0
2.648332 1.207123 0.000586 0.0
3.373179 1.068076 0.002285 0.0
3.203119 0.023681 0.000422 0.0
1.917563 1.426838 -0.001311 0.0
3.347978 1.247911 -0.001522 0.0
0.107589 1.087224 0.003521 0.0
1.630662 1.276522 -0.003814 0.0
2.381785 0.421705 -0.000033 0.0
1.268288 0.926808 0.002911 0.0
2.641264 0.768811 -0.002245 0.0
2.785050 0.979151 0.002468 0.0
4.553597 0.940890 0.001524 0.0
2.435393 1.202693 -0.000583 0.0
0.239240 1.202861 -0.003864 0.0
0.519392 0.229004 -0.002055 0.0
1.296276 0.667487 0.001860 0.0
3.292924 0.274807 0.000240 0.0
1.720249 0.761670 -0.003969 0.0
4.598784 0.752946 -0.003908 0.0
0.274926 0.715214 0.002471 0.0
2.233612 0.254750 0.000156 0.0
0.761818 1.240788 -0.000302 0.0
1.977601 0.182742 0.003190 0.0
4.240900 0.312792 0.001938 0.0
0.505386 0.207920 -0.000116 0.0
4.009601 1.581991 0.004092 0.0
0.454753 0.801845 0.000341 0.0
0.582771 0.846832 0.000542 0.0
1.862841 0.769699 0.000666 0.0
0.317984 0.015328 -0.003682 0.0
4.645919 1.257391 0.003142 0.0
4.344887 1.014302 0.001824 0.0
2.986516 0.634845 -0.001690 0.0
0.768810 0.011452 0.001966 0.0
2.460639 0.561562 -0.000010 0.0
2.206050 0.994634 -0.000038 0.0
1.918032 0.290736 0.002907 0.0
1.118183 0.898357 0.002313 0.0
3.649437 1.573055 -0.003405 0.0
1.380361 1.188712 0.001239 0.0
1.213485 1.392886 0.002923 0.0
0.925775 1.067881 -0.001777 0.0
1.605941 1.380128 -0.004244 0.0
3.079724 0.145154 0.000052 0.0
0.179359 0.976375 0.003430 0.0
2.976833 1.105975 0.002972 0.0
0.056906 0.983487 -0.001889 0.0
3.467106 0.543964 0.004564 0.0
1.003016 1.056181 0.001696 0.0
4.113049 1.502632 0.000760 0.0
1.975044 1.597001 -0.002630 0.0
4.167764 1.365227 0.001484 0.0
0.751048 0.926117 0.001157 0.0
1.649078 0.228304 -0.005254 0.0
2.733873 0.312681 0.000080 0.0
4.491564 1.243805 0.000411 0.0
3.651737 0.066177 0.001595 0.0
2.705363 0.592771 -0.001116 0.0
4.479424 0.646614 0.004927 0.0
0.717199 1.511539 -0.004211 0.0
4.229637 1.268645 -0.001786 0.0
1.016822 1.603958 -0.001414 0.0
1.682537 0.163221 0.000395 0.0
4.093730 0.976554 -0.000054 0.0
4.135703 1.619816 0.000431 0.0
3.752897 0.787044 0.001653 0.0
3.413427 1.261211 -0.000171 0.0
2.387433 0.555662 0.002193 0.0
0.390663 0.153733 -0.001463 0.0
4.619493 0.185421 0.001965 0.0
4.600766 1.428366 -0.001254 0.0
1.466927 0.021754 -0.002016 0.0
0.262726 0.291949 -0.002121 0.0
1.848550 0.938540 -0.001498 0.0
3.479094 0.344666 -0.001811 0.0
3.530484 1.232282 0.002549 0.0
4.557437 1.556067 -0.000253 0.0
4.484452 1.477342 0.003300 0.0
1.923720 1.170943 -0.003677 0.0
4.448682 1.331153 -0.003227 0.0
1.447419 0.519387 0.002015 0.0
3.009068 0.784863 -0.002370 0.0
4.094484 0.036828 -0.004327 0.0
3.028467 1.127719 -0.002361 0.0
2.728184 0.233975 -0.002046 0.0
1.895244 1.032721 0.000171 0.0
3.793802 0.845902 0.002307 0.0
1.819096 0.480528 0.001440 0.0
4.524793 0.801497 -0.002099 0.0
3.588347 1.224547 0.000747 0.0
4.224605 1.225729 -0.000413 0.0
3.006386 0.476455 -0.002723 0.0
1.926900 0.633510 -0.006246 0.0
3.157627 0.740900 0.003897 0.0
2.668444 0.953927 0.000779 0.0
2.104821 1.025490 0.002249 0.0
2.013498 1.574164 0.000096 0.0
2.031331 1.173041 -0.000305 0.0
3.597490 0.327069 0.001089 0.0
4.510197 1.361708 -0.002450 0.0
3.826116 0.863199 0.000515 0.0
2.570857 0.049998 -0.000085 0.0
3.237613 0.855154 0.000232 0.0
3.832926 0.139701 -0.000263 0.0
2.390676 0.438592 -0.000785 0.0
3.981490 1.308358 -0.001599 0.0
3.356030 0.760505 0.002791 0.0
3.604291 1.177532 0.004255 0.0
0.145904 1.412041 0.001465 0.0
0.586943 1.638479 0.001020 0.0
3.236211 0.007898 0.000351 0.0
0.344703 0.942297 0.001531 0.0
3.350624 0.482955 0.000799 0.0
3.128622 1.376627 -0.001831 0.0
3.687801 1.057737 -0.003580 0.0
0.023409 1.011118 -0.000650 0.0
1.045668 0.525666 -0.002056 0.0
2.879968 1.239024 -0.000413 0.0
1.504986 1.502356 0.001884 0.0
3.231110 0.518359 -0.002081 0.0
2.623203 1.384217 0.000760 0.0
3.569882 0.223458 -0.001760 0.0
3.944715 1.327087 -0.001334 0.0
3.040598 0.739600 0.002965 0.0
0.281918 0.249724 -0.002766 0.0
3.228256 1.353152 -0.001331 0.0
3.825344 1.584697 0.004238 0.0
2.224828 0.353518 -0.002966 0.0
4.558054 0.182631 0.000028 0.0
0.810196 0.438817 -0.003969 0.0
1.304520 0.519222 -0.003319 0.0
4.540532 0.684228 0.000134 0.0
0.552245 0.941423 -0.003288 0.0
0.024770 1.503930 -0.000444 0.0
4.000861 1.434579 0.002602 0.0
3.260037 0.143111 -0.002179 0.0
1.164655 0.604301 -0.000503 0.0
3.265907 1.619447 -0.004586 0.0
0.835350 1.211157 -0.004479 0.0
0.586550 0.191784 -0.000712 0.0
1.567609 0.776180 -0.000752 0.0
3.681514 0.916338 -0.002380 0.0
3.666729 1.599067 -0.002392 0.0
3.116331 0.172795 0.000625 0.0
1.528508 0.147256 0.002145 0.0
0.862435 0.423247 -0.000014 0.0
1.670579 1.341744 0.000375 0.0
3.465834 1.201993 0.002448 0.0
1.026012 1.331330 0.001449 0.0
0.954174 1.273694 0.001852 0.0
0.845156 0.542239 -0.000278 0.0
3.641897 0.977100 0.002788 0.0
2.188850 0.202170 0.005065 0.0
1.126332 0.869904 0.002173 0.0
4.314650 1.513203 0.001390 0.0
1.618951 0.633796 -0.001348 0.0
2.297233 0.995112 -0.003876 0.0
3.469552 0.382899 0.003210 0.0
0.118104 1.603298 0.004804 0.0
1.524988 0.949112 0.001771 0.0
0.339960 1.589859 0.001877 0.0
4.410957 0.259045 -0.000215 0.0
1.888115 0.842471 0.000046 0.0
1.948112 1.032653 -0.003974 0.0
3.580967 0.307662 -0.002248 0.0
2.234047 1.644853 -0.000468 0.0
0.970925 0.454426 -0.003984 0.0
0.862204 0.307486 0.001945 0.0
1.441441 1.344667 -0.001141 0.0
2.695578 1.035940 -0.001155 0.0
3.281207 0.398341 -0.002666 0.0
3.618838 0.559850 0.004204 0.0
1.413200 0.621277 -0.000794 0.0
1.312508 0.347945 -0.003880 0.0
1.117781 0.903169 -0.002277 0.0
2.997554 1.002188 -0.001247 0.0
3.981241 1.141474 0.000001 0.0
3.324765 0.180734 0.003669 0.0
1.593493 0.547263 0.004716 0.0
3.793472 1.093765 -0.001776 0.0
0.078917 0.979896 -0.002403 0.0
3.071573 0.019849 0.001261 0.0
3.614502 0.845071 -0.001729 0.0
2.770550 1.294375 0.003051 0.0
1.914382 0.327417 -0.001368 0.0
0.009198 0.793170 -0.001297 0.0
3.243053 0.614331 -0.002071 0.0
1.459484 0.511094 -0.001398 0.0
1.760220 0.156252 -0.002352 0.0
3.643314 0.390454 0.002306 0.0
4.599969 0.441653 -0.001433 0.0
1.337643 1.553917 -0.002520 0.0
0.380694 1.446518 -0.000940 0.0
0.951159 0.905129 0.003256 0.0
0.581457 0.479276 -0.000871 0.0
2.617566 0.033751 0.001534 0.0
0.711290 0.073881 -0.004117 0.0
3.012966 0.741328 0.001567 0.0
4.167427 1.581109 -0.001364 0.0
2.793519 1.050471 -0.001080 0.0
3.793074 0.359021 0.000287 0.0
0.643941 1.286999 -0.001345 0.0
1.153107 1.021356 0.002964 0.0
2.905797 1.464733 -0.001274 0.0
0.396816 0.290978 -0.004849 0.0
1.003547 0.700584 -0.000236 0.0
2.671957 1.664954 0.002248 0.0
4.067140 0.817787 -0.001282 0.0
1.711379 0.430763 0.000692 0.0
3.943963 0.301621 -0.000850 0.0
1.199538 1.443274 -0.001708 0.0
2.658554 1.410142 -0.004110 0.0
4.381009 0.081301 0.001965 0.0
0.210659 0.019884 0.002483 0.0
1.633880 1.600010 -0.000165 0.0
2.148923 1.681461 0.004390 0.0
0.620340 0.988660 0.003840 0.0
1.228494 1.684878 0.000504 0.0
0.533875 0.164531 -0.000111 0.0
1.374591 1.080141 -0.003148 0.0
1.627716 1.169114 -0.002452 0.0
1.900274 0.492681 -0.000357 0.0
4.098447 0.228924 0.002240 0.0
0.340723 0.581929 -0.002150 0.0
1.994056 1.513608 0.000870 0.0
4.321085 1.367378 -0.000300 0.0
3.325536 0.095556 -0.000623 0.0
2.822644 0.593073 -0.001123 0.0
3.695268 0.178290 0.003547 0.0
1.750597 0.841394 0.001273 0.0
1.888281 0.529794 -0.000219 0.0
0.843437 1.040582 -0.000993 0.0
3.667276 0.340320 -0.001462 0.0
0.721888 1.259028 0.000407 0.0
3.407620 0.355196 0.000464 0.0
1.806713 1.240076 0.001103 0.0
2.146997 0.136385 0.002331 0.0
3.539145 1.020395 -0.002604 0.0
4.502753 0.011663 -0.003703 0.0
0.035238 1.687835 -0.001889 0.0
2.766886 1.356836 0.001481 0.0
2.798509 0.592249 -0.001834 0.0
4.223598 1.471750 0.003154 0.0
1.879744 0.138750 0.003566 0.0
3.642219 0.444726 -0.000172 0.0
1.217392 0.385609 0.002130 0.0
2.868426 1.233552 -0.001533 0.0
0.116269 0.054736 -0.000280 0.0
2.633791 0.679369 -0.000721 0.0
4.579314 1.372104 0.001109 0.0
2.327984 0.411843 0.007869 0.0
4.447252 0.910531 0.002349 0.0
0.591783 1.559189 -0.000796 0.0
3.817872 1.426539 0.003269 0.0
2.764064 0.931469 0.003375 0.0
2.849182 1.560623 -0.000412 0.0
3.920588 0.868079 0.004863 0.0
1.496582 0.945138 0.005776 0.0
2.527533 1.139773 -0.000839 0.0
2.889407 0.836189 0.002221 0.0
4.047159 1.484260 -0.004309 0.0
1.372169 0.980263 0.003508 0.0
2.285978 1.579540 -0.005617 0.0
1.021445 0.781184 -0.002263 0.0
1.096629 0.987753 0.002098 0.0
2.392269 1.564108 -0.003687 0.0
0.201448 0.902891 -0.000756 0.0
0.050972 0.806873 0.001325 0.0
4.313406 1.266363 -0.000740 0.0
1.047196 0.436997 -0.003242 0.0
0.119156 1.268635 0.000607 0.0
0.274338 0.857250 0.001620 0.0
2.414132 0.090154 -0.003792 0.0
3.189804 1.402997 -0.002548 0.0
1.037376 0.026687 0.001448 0.0
3.536682 0.181910 -0.001272 0.0
3.315922 1.023867 -0.000297 0.0
2.932827 0.930144 -0.000374 0.0
4.359724 1.266850 0.000748 0.0
4.195013 1.322456 -0.001497 0.0
3.588659 1.388570 -0.003342 0.0
0.145564 1.058085 -0.002076 0.0
3.242153 0.021363 0.006012 0.0
2.724102 0.099194 -0.004840 0.0
1.034206 0.800742 -0.005233 0.0
4.187646 0.589829 -0.002709 0.0
4.547526 0.021373 0.003277 0.0
1.367673 1.146946 -0.003740 0.0
3.234817 1.379376 -0.001783 0.0
3.349802 0.230955 -0.005479 0.0
2.839127 1.335582 0.001013 0.0
2.260794 0.351831 -0.001837 0.0
3.664538 1.582538 -0.000193 0.0
0.361523 0.035066 -0.001263 0.0
0.232272 0.366617 -0.001966 0.0
0.852927 0.835142 0.000137 0.0
4.641397 0.326796 -0.000871 0.0
2.733119 1.563741 -0.001874 0.0
1.498207 1.110730 -0.004680 0.0
0.438631 1.683703 0.002779 0.0
0.629740 1.376906 -0.003141 0.0
0.287264 0.186606 0.001586 0.0
3.883276 1.386155 0.004708 0.0
4.249900 0.582572 0.000341 0.0
1.692325 0.057242 -0.002617 0.0
3.673385 1.189399 0.004857 0.0
4.163426 1.042665 0.004718 0.0
3.604039 0.790326 0.000887 0.0
0.057886 1.081385 0.000987 0.0
0.763407 1.057749 0.003136 0.0
0.022439 0.900335 0.000183 0.0
2.511600 1.083628 -0.002584 0.0
0.890541 0.097084 0.001247 0.0
4.285411 1.462934 0.001089 0.0
0.117056 0.027739 -0.001953 0.0
2.026691 0.222120 0.000839 0.0
0.033496 0.069777 -0.002684 0.0
0.634355 1.451931 -0.001403 0.0
2.984900 1.248103 0.000065 0.0
3.030655 1.576394 -0.002000 0.0
2.385268 0.120306 0.000054 0.0
1.917712 0.176761 -0.002567 0.0
1.924757 0.243797 -0.002748 0.0
4.616450 0.781306 -0.004906 0.0
2.308800 0.808815 0.001942 0.0
3.725776 0.905449 -0.001073 0.0
3.915600 1.381082 -0.000628 0.0
3.794132 1.527213 -0.001830 0.0
2.662465 0.320839 0.001917 0.0
0.905093 0.060007 -0.000847 0.0
0.758993 1.082774 -0.001150 0.0
4.338327 1.459924 0.001590 0.0
3.038817 0.014268 0.006120 0.0
4.043743 1.352624 -0.001984 0.0
3.353464 1.250246 -0.005135 0.0
3.447340 0.007906 -0.001442 0.0
0.540214 1.077525 -0.000797 0.0
3.075239 1.160673 -0.000940 0.0
1.729860 0.953251 -0.000361 0.0
1.309828 1.145958 -0.004874 0.0
4.601152 0.201299 0.000022 0.0
0.282743 0.918614 0.001805 0.0
3.557257 1.278190 0.003267 0.0
0.691868 0.326403 -0.004443 0.0
1.879139 1.556166 -0.001605 0.0
3.005121 0.865633 -0.000579 0.0
4.332293 1.007107 -0.000448 0.0
0.720863 0.054739 0.000810 0.0
2.479428 0.589709 -0.001857 0.0
0.403568 0.805443 -0.000323 0.0
1.429244 1.260190 -0.000284 0.0
2.491308 1.218058 -0.001915 0.0
0.818282 0.048406 -0.003360 0.0
1.205122 1.132126 0.005147 0.0
3.422056 0.170467 -0.001627 0.0
3.151823 1.216725 0.001297 0.0
3.845417 1.218400 -0.000441 0.0
1.741993 1.120334 0.001237 0.0
2.853179 1.466540 -0.002445 0.0
4.356687 0.654448 0.000881 0.0
3.449130 0.218519 0.000074 0.0
0.396793 0.275457 0.005257 0.0
1.858025 0.225370 -0.002628 0.0
0.680833 1.671458 -0.001062 0.0
1.255120 0.538013 -0.003794 0.0
2.459120 1.027168 -0.002716 0.0
3.177280 0.761639 0.001130 0.0
2.537577 1.392857 0.001458 0.0
0.217114 0.014798 0.002596 0.0
0.579690 1.004015 0.002935 0.0
2.623975 0.076103 0.000243 0.0
0.515202 1.378655 0.002716 0.0
4.090249 0.499486 0.001230 0.0
0.514461 1.518745 -0.001266 0.0
2.283532 1.600836 -0.002186 0.0
4.179704 1.437567 -0.001178 0.0
4.361197 0.708516 -0.001498 0.0
3.378173 0.084560 0.001504 0.0
2.503364 1.620409 -0.003783 0.0
0.551106 1.054925 0.000467 0.0
2.338004 0.783455 -0.000750 0.0
3.591349 0.465285 0.000621 0.0
1.534386 0.160954 0.001991 0.0
1.233571 0.047046 -0.002296 0.0
4.611221 0.791122 0.003210 0.0
3.322544 0.403094 0.002303 0.0
2.395530 1.536358 0.002841 0.0
0.820563 1.077852 0.001779 0.0
4.346265 0.842325 -0.000385 0.0
0.598914 0.298163 -0.001171 0.0
4.227654 1.275845 0.000292 0.0
3.983973 1.169386 0.001990 0.0
2.576033 0.850311 0.002341 0.0
4.441939 0.465840 -0.002110 0.0
3.298223 0.098323 0.003068 0.0
2.931992 1.506243 0.001001 0.0
3.207671 1.265610 -0.003300 0.0
2.063249 1.132398 -0.000369 0.0
2.267964 0.831496 0.000488 0.0
3.501130 1.526219 0.000075 0.0
3.936057 0.187487 0.001560 0.0
1.279526 1.598508 -0.000985 0.0
2.710915 0.232424 0.003082 0.0
3.643421 0.135222 -0.000425 0.0
1.356640 0.645191 0.000996 0.0
4.274182 1.415219 -0.002833 0.0
0.437797 0.878808 -0.003873 0.0
3.114883 0.453700 0.002746 0.0
1.326318 1.598088 -0.000172 0.0
3.213030 0.501501 0.001605 0.0
4.648136 1.583754 0.001703 0.0
0.233743 1.177148 0.002555 0.0
0.947440 0.851408 -0.003363 0.0
0.323426 0.276134 -0.002004 0.0
4.360959 0.696608 0.000248 0.0
0.919890 0.068124 0.002577 0.0
1.857477 0.628266 -0.001511 0.0
2.508641 0.095718 -0.000200 0.0
0.152271 0.509560 -0.000616 0.0
0.526364 1.018550 -0.002513 0.0
4.351631 0.141230 -0.003297 0.0
4.420952 1.371810 -0.003604 0.0
3.857558 1.494270 -0.000271 0.0
0.541863 1.313846 0.000307 0.0
2.283442 1.202190 -0.002063 0.0
3.905777 0.510464 -0.001204 0.0
2.285385 0.958345 -0.000803 0.0
1.682795 0.139160 -0.002825 0.0
2.402442 0.629456 -0.003224 0.0
0.439991 0.540159 -0.001296 0.0
4.430309 0.032258 -0.002019 0.0
3.723065 1.242890 -0.002056 0.0
1.779352 0.277565 -0.002607 0.0
3.133723 0.140963 0.003921 0.0
1.376129 1.445716 0.002466 0.0
0.839535 0.722195 -0.002309 0.0
4.508062 1.232074 -0.000126 0.0
1.811795 0.905897 -0.002782 0.0
2.514890 0.483015 -0.000012 0.0
2.506888 0.642734 0.001562 0.0
0.582549 1.045185 0.000840 0.0
2.258984 0.127053 -0.002384 0.0
3.121715 1.368248 0.002137 0.0
3.501417 0.054324 -0.000092 0.0
3.186209 0.955250 0.003578 0.0
0.038824 0.850626 -0.000341 0.0
1.033747 1.509486 -0.001100 0.0
0.887472 0.096906 -0.003790 0.0
3.248021 1.070611 -0.000598 0.0
2.556149 0.690040 -0.000423 0.0
2.804967 0.912052 0.002665 0.0
2.289071 0.036676 0.003712 0.0
1.702830 0.406725 0.000015 0.0
3.938667 1.172172 0.002291 0.0
1.606328 0.854047 0.000040 0.0
2.803498 1.000231 -0.000181 0.0
2.171858 1.221183 0.001524 0.0
4.013014 1.627480 -0.001702 0.0
2.316509 0.138357 0.004098 0.0
2.841705 0.854800 -0.000372 0.0
1.398277 1.434926 0.000199 0.0
1.556991 0.254396 0.000501 0.0
1.014728 0.611880 0.003344 0.0
4.026996 1.555645 0.001113 0.0
4.611190 0.886961 -0.003979 0.0
1.894123 0.797623 0.002285 0.0
1.701460 0.805076 -0.005936 0.0
0.792216 0.380748 0.004146 0.0
0.778676 0.597393 0.002979 0.0
1.642734 0.841946 -0.000572 0.0
3.907345 0.288310 0.002724 0.0
1.240515 1.192062 0.004768 0.0
3.140269 0.531906 -0.000059 0.0
4.463045 1.373447 -0.003669 0.0
1.643423 0.589806 0.001346 0.0
0.083638 0.320083 -0.003464 0.0
3.843052 0.346646 0.000397 0.0
3.801951 0.988607 -0.001837 0.0
4.637290 0.962966 -0.000307 0.0
2.595710 0.997508 0.005064 0.0
4.284458 1.014841 -0.002102 0.0
1.446619 0.176853 -0.003588 0.0
4.526422 0.525224 0.000598 0.0
3.524858 0.855861 0.004547 0.0
2.402905 0.851907 0.002293 0.0
1.810874 0.850178 0.000713 0.0
3.634544 0.260822 -0.000579 0.0
1.526354 0.693640 -0.002763 0.0
0.777865 0.538401 -0.000876 0.0
2.038820 0.044676 0.000968 0.0
3.517917 0.439136 0.000982 0.0
1.985633 1.074423 -0.000674 0.0
1.881663 1.452071 -0.002479 0.0
1.642113 1.013508 -0.004481 0.0
3.372704 0.903711 0.004958 0.0
3.564441 0.098626 -0.002437 0.0
4.369755 1.513458 0.001507 0.0
1.882438 1.523150 -0.001883 0.0
0.315600 0.216144 -0.001488 0.0
1.263434 0.781392 0.004354 0.0
3.863268 0.540561 0.001069 0.0
0.108864 0.475355 0.000075 0.0
0.856881 0.164661 0.006575 0.0
1.122794 0.522993 -0.003985 0.0
0.944618 0.878726 0.003486 0.0
3.288930 0.588768 0.000956 0.0
3.536958 0.059163 0.000070 0.0
0.458290 1.360428 -0.000657 0.0
2.568203 0.252996 -0.003866 0.0
0.241893 1.633698 -0.001773 0.0
0.850193 1.493120 0.002235 0.0
2.457446 1.479993 -0.003337 0.0
2.990580 0.548917 -0.004557 0.0
3.081289 0.450389 -0.002398 0.0
3.194648 1.528540 0.000077 0.0
1.155266 0.846662 0.001096 0.0
1.262175 0.056542 0.001048 0.0
0.053136 1.248659 -0.001864 0.0
2.421215 0.623657 -0.002460 0.0
0.637398 1.518481 -0.000048 0.0
3.029384 0.978089 0.004223 0.0
2.578083 0.649222 -0.000498 0.0
2.795426 1.509269 -0.002700 0.0
3.622888 1.008916 0.002208 0.0
1.497482 0.777458 -0.000280 0.0
0.272244 0.646254 -0.003182 0.0
1.291201 1.070811 -0.000474 0.0
4.597275 0.720995 0.003107 0.0
0.718257 1.471594 -0.002620 0.0
2.082452 1.316985 0.000112 0.0
3.532355 0.033248 -0.003861 0.0
2.241341 0.777342 0.003076 0.0
3.380289 1.006416 -0.001965 0.0
3.810367 0.380045 0.001168 0.0
1.979383 1.607336 -0.004790 0.0
3.325298 0.553739 0.001860 0.0
0.037385 1.370183 0.000247 0.0
3.358938 1.621518 -0.000566 0.0
4.341670 0.130856 -0.001242 0.0
1.244035 0.263070 0.002281 0.0
3.814647 0.322709 0.000854 0.0
0.252386 0.801952 0.002055 0.0
3.775766 1.338871 0.003425 0.0
3.466740 0.841714 0.000891 0.0
2.019794 0.414179 -0.001641 0.0
2.573154 0.383504 -0.000551 0.0
1.314490 1.380574 -0.000116 0.0
1.426610 1.519282 -0.000732 0.0
4.614149 1.414323 -0.001636 0.0
0.024241 0.318187 0.001682 0.0
1.451626 0.073663 -0.000540 0.0
2.064360 0.332545 0.001944 0.0
2.649983 0.893337 0.000405 0.0
0.184363 0.126351 0.000878 0.0
1.445694 1.068908 0.002740 0.0
1.468787 0.465357 0.002476 0.0
2.062222 0.874351 0.004489 0.0
3.034900 0.717221 -0.002788 0.0
0.611950 1.540249 -0.001935 0.0
2.101821 0.561760 0.000928 0.0
3.430129 0.766716 0.000083 0.0
0.347804 0.336787 0.002327 0.0
2.988408 0.818982 0.001510 0.0
2.466436 0.746122 -0.002548 0.0
0.969490 0.869167 -0.000697 0.0
2.571248 1.578282 -0.001551 0.0
1.543336 1.185131 -0.001323 0.0
3.065824 0.802331 -0.005481 0.0
0.842455 0.536264 -0.002517 0.0
3.948701 0.904891 -0.000980 0.0
2.931654 0.340517 -0.000183 0.0
0.015298 0.107572 -0.001700 0.0
3.255137 1.266567 -0.000804 0.0
0.099446 0.791848 -0.000156 0.0
1.450893 0.912457 -0.000281 0.0
0.387108 0.395616 0.000944 0.0
4.058519 1.074756 0.000970 0.0
1.408025 0.856558 -0.004630 0.0
3.591753 0.777113 0.002101 0.0
1.550464 1.377706 0.003461 0.0
2.534751 0.290781 -0.004973 0.0
0.903489 0.209880 0.000042 0.0
2.876050 0.955377 0.003214 0.0
1.108058 0.137123 -0.002035 0.0
1.953900 0.214887 0.002999 0.0
4.470239 0.148077 -0.002309 0.0
3.809413 1.193055 0.001217 0.0
3.992498 1.118947 0.001292 0.0
2.810130 0.058990 -0.002046 0.0
3.011903 1.064805 0.000996 0.0
2.806188 0.226658 -0.003324 0.0
1.646255 1.124229 0.001393 0.0
1.436129 0.313771 0.000197 0.0
2.073054 0.082284 0.004148 0.0
2.726047 0.955468 -0.001268 0.0
2.240602 0.215195 -0.001557 0.0
1.808617 1.573314 0.007925 0.0
4.427946 1.413754 -0.004775 0.0
4.112725 1.126883 0.000899 0.0
2.325776 0.585857 -0.002734 0.0
4.307398 1.110184 -0.000789 0.0
0.271657 0.718827 0.003414 0.0
2.044858 0.010382 -0.001249 0.0
1.613590 1.457428 -0.000164 0.0
2.016790 1.062702 -0.000455 0.0
1.781007 0.721054 0.000049 0.0
1.719049 1.110258 0.001128 0.0
1.456191 1.187723 0.003795 0.0
0.200096 1.444497 0.005003 0.0
2.519519 0.845348 0.004134 0.0
0.902134 0.199855 0.002491 0.0
0.364015 0.293168 -0.002115 0.0
3.745127 0.793831 0.000569 0.0
0.640599 0.121111 0.001140 0.0
4.109408 0.193167 0.001908 0.0
3.272397 0.031734 -0.000029 0.0
1.531919 1.478809 -0.002016 0.0
4.502258 1.648694 -0.000248 0.0
1.341979 1.395252 0.003265 0.0
1.091046 0.195612 -0.002524 0.0
2.994878 1.567562 0.001187 0.0
3.022743 1.412013 -0.001848 0.0
0.183535 0.019319 -0.004745 0.0
3.717760 0.460694 -0.000307 0.0
0.894066 0.574353 -0.002425 0.0
4.318472 0.466278 -0.000683 0.0
3.312349 1.183486 0.001249 0.0
4.321815 0.787280 -0.000360 0.0
3.685305 0.057630 -0.001755 0.0
4.644801 1.135671 0.004175 0.0
1.634592 1.163827 -0.002567 0.0
0.084061 0.000994 -0.004217 0.0
3.047846 0.112728 0.002537 0.0
3.111536 0.140589 0.001073 0.0
3.360868 1.394789 -0.003128 0.0
2.378701 1.067869 0.001248 0.0
0.638268 0.202278 -0.001220 0.0
1.080984 1.189831 0.004501 0.0
4.612688 0.551417 0.001328 0.0
0.073617 1.346029 -0.002803 0.0
4.586626 0.778873 -0.000261 0.0
4.652765 0.849294 -0.000937 0.0
2.365710 1.403978 0.002979 0.0
1.969914 1.143724 0.000107 0.0
1.081581 0.808145 0.002567 0.0
0.227750 1.629733 -0.008372 0.0
3.757118 1.025117 -0.001456 0.0
1.357265 0.442940 0.000956 0.0
2.334137 0.231891 0.000323 0.0
3.561607 1.043234 0.002429 0.0
0.072845 0.693373 0.002251 0.0
4.040723 1.097218 0.000695 0.0
4.189316 1.326096 -0.000599 0.0
3.625937 1.533231 0.002213 0.0
1.059605 1.188267 0.000676 0.0
3.978092 1.005031 -0.002389 0.0
0.990815 0.410597 -0.002982 0.0
3.486635 0.085716 -0.000081 0.0
3.389161 0.108734 0.002854 0.0
1.786336 0.075377 0.001450 0.0
1.715725 0.264010 -0.002272 0.0
1.953806 0.781050 0.001572 0.0
3.863907 0.955196 0.002214 0.0
3.008334 0.428043 0.005744 0.0
4.075019 0.718368 0.002552 0.0
2.181669 0.388747 -0.001759 0.0
3.472923 0.858904 -0.006725 0.0
1.698024 1.675922 0.000585 0.0
1.877476 0.398146 0.000105 0.0
1.198604 0.968586 -0.000534 0.0
3.334825 0.531699 0.001841 0.0
1.802488 0.731627 -0.000657 0.0
1.987398 0.940616 0.005692 0.0
0.563128 1.513544 0.000395 0.0
3.978572 0.720959 -0.000547 0.0
0.718026 1.291142 0.000888 0.0
1.667546 0.528122 -0.005231 0.0
2.386968 0.583351 -0.006412 0.0
1.681050 0.998491 -0.000408 0.0
1.741439 1.060722 0.004433 0.0
3.511762 1.326185 -0.002862 0.0
3.214577 0.747525 -0.000888 0.0
1.347234 1.565020 0.003759 0.0
3.391100 1.578126 0.003110 0.0
2.880505 0.214878 0.002265 0.0
3.462570 0.851635 -0.000454 0.0
4.344628 0.779254 -0.002628 0.0
1.459184 1.124809 0.005893 0.0
1.037889 1.416721 0.000944 0.0
2.917956 1.503486 0.001742 0.0
3.613810 0.059161 0.001285 0.0
0.757389 0.431648 0.000754 0.0
4.438777 1.189008 -0.000628 0.0
3.047837 1.230971 -0.002815 0.0
4.391632 1.234920 -0.000125 0.0
1.045679 1.191769 -0.001756 0.0
3.963264 0.061204 0.001774 0.0
1.964627 0.915028 0.002761 0.0
1.535826 0.947116 0.002794 0.0
0.890146 0.278909 0.002362 0.0
3.397925 0.460350 0.000102 0.0
3.965014 0.066205 0.001572 0.0
2.797340 0.223629 0.002803 0.0
3.293853 0.975584 0.001437 0.0
0.600983 0.221438 0.004551 0.0
4.071990 1.401264 -0.001809 0.0
2.095177 0.078537 -0.000591 0.0
2.923052 0.213185 0.001278 0.0
2.862710 0.507332 0.002728 0.0
0.598428 0.074714 0.000234 0.0
2.895040 0.372217 0.002118 0.0
1.016297 0.081046 -0.002428 0.0
0.729319 1.292479 0.000605 0.0
1.119900 0.713474 0.002645 0.0
1.628175 1.634524 0.000612 0.0
1.495225 0.957572 -0.002183 0.0
1.759075 0.746578 -0.003052 0.0
0.357590 1.632245 0.000604 0.0
0.003144 1.053487 -0.001582 0.0
4.074711 0.736778 0.000114 0.0
0.397867 0.815517 -0.002349 0.0
4.312981 1.159465 -0.002534 0.0
0.639666 0.518939 0.001511 0.0
1.244072 1.527330 -0.002329 0.0
0.850246 0.085498 0.005384 0.0
3.926957 0.857416 0.004875 0.0
3.196226 0.042715 -0.002393 0.0
3.075919 1.560019 0.000660 0.0
4.106238 1.635168 -0.000017 0.0
2.390111 1.184285 0.004705 0.0
0.538851 0.183297 0.000269 0.0
1.433699 0.684331 -0.006549 0.0
0.610479 1.566590 -0.001844 0.0
2.527868 0.629242 -0.000426 0.0
3.401054 0.543235 0.003682 0.0
3.029988 1.463033 0.005275 0.0
0.522095 0.473346 -0.002840 0.0
1.511688 0.305427 0.001909 0.0
3.980763 1.617012 0.004854 0.0
0.156487 0.589359 -0.000953 0.0
3.111136 1.339335 0.001423 0.0
0.355524 1.072870 0.001914 0.0
1.408144 1.161306 0.006524 0.0
1.589096 1.519254 -0.002643 0.0
3.876444 1.054789 -0.003403 0.0
4.615845 0.077576 0.000926 0.0
2.779710 1.519034 -0.002182 0.0
3.086650 0.562250 0.004732 0.0
1.701581 0.158532 -0.002343 0.0
2.841449 0.818387 0.000321 0.0
0.256521 1.100641 0.003539 0.0
0.530149 1.526986 -0.001775 0.0
1.191715 0.784458 -0.003122 0.0
3.015597 1.072413 0.004740 0.0
4.126872 1.399605 -0.000512 0.0
1.589499 1.651767 0.000200 0.0
0.995014 0.308062 -0.002634 0.0
3.647224 1.199584 -0.001078 0.0
1.145308 0.721320 0.000430 0.0
3.105041 0.276852 -0.000250 0.0
3.863736 0.498880 0.001509 0.0
0.569178 1.496690 0.000861 0.0
0.277712 1.442580 -0.003171 0.0
2.037897 1.128533 0.000228 0.0
1.991249 0.483314 -0.001286 0.0
0.148278 0.798565 0.003004 0.0
3.953483 0.559539 -0.002897 0.0
0.246031 0.883471 0.002839 0.0
3.739076 1.096534 -0.000161 0.0
2.145443 0.879805 -0.000049 0.0
3.189413 0.556698 -0.003981 0.0
3.846503 1.044655 0.001934 0.0
0.522917 1.541360 0.000277 0.0
1.534703 1.646212 -0.001723 0.0
4.585972 0.058025 0.003783 0.0
1.365632 1.615663 -0.001916 0.0
0.642006 0.102289 -0.002720 0.0
2.770760 0.877593 0.001738 0.0
1.048055 0.153192 0.000559 0.0
4.110113 0.276081 0.002017 0.0
4.515929 1.054224 -0.000944 0.0
3.856372 0.448385 -0.001633 0.0
4.523161 0.379727 -0.001756 0.0
3.666970 1.601071 -0.001908 0.0
2.921037 1.101740 -0.001170 0.0
1.476975 0.388924 -0.001994 0.0
1.164523 0.864366 -0.000119 0.0
0.078913 0.481165 -0.001620 0.0
3.999372 0.119372 0.001857 0.0
2.696282 0.650245 0.000713 0.0
3.379990 0.614735 0.003666 0.0
4.473504 1.133208 -0.002625 0.0
1.145538 1.466563 0.001065 0.0
3.903560 0.981861 0.004250 0.0
1.282893 1.688068 0.000855 0.0
0.811511 1.630453 -0.000076 0.0
0.443152 0.863659 -0.002899 0.0
0.663453 0.683120 0.001099 0.0
0.907440 1.020556 -0.005257 0.0
0.768772 0.800862 0.002230 0.0
1.647992 0.957593 0.000976 0.0
0.042564 1.348153 0.003217 0.0
2.939276 0.822739 -0.001102 0.0
0.486406 0.748409 0.001022 0.0
0.200968 1.630995 0.004583 0.0
4.059200 0.414960 0.000692 0.0
3.493554 0.326763 -0.001986 0.0
3.292064 0.648327 0.004267 0.0
3.900868 0.488368 -0.002088 0.0
4.049273 0.657703 0.003698 0.0
4.402419 0.348332 -0.002973 0.0
4.055545 0.707107 0.002603 0.0
4.594585 0.373617 0.001096 0.0
4.615615 0.079847 -0.000981 0.0
0.465255 0.839167 0.001723 0.0
4.358235 1.682038 0.002740 0.0
2.418026 1.182257 0.003276 0.0
3.638872 0.263394 0.002193 0.0
0.104938 1.085892 0.000901 0.0
4.437243 0.976565 -0.001572 0.0
2.145172 1.567537 -0.003337 0.0
4.049213 1.340591 0.000572 0.0
2.494191 0.354756 0.000517 0.0
3.133266 0.666022 -0.002181 0.0
3.394837 1.173657 -0.000074 0.0
1.953238 0.456021 0.002492 0.0
2.367131 1.011070 -0.006111 0.0
2.695606 0.745024 -0.000141 0.0
1.901937 0.490687 -0.000359 0.0
3.654406 0.797948 -0.001203 0.0
2.716564 1.617896 0.000707 0.0
2.380851 1.256233 -0.001104 0.0
4.643747 0.726368 0.001883 0.0
0.637510 1.533876 0.003636 0.0
4.479833 0.873438 -0.000405 0.0
3.706027 0.518708 -0.000691 0.0
0.019218 0.699238 -0.002872 0.0
2.990484 1.653515 0.002654 0.0
2.167702 0.478002 0.000020 0.0
4.283159 1.660204 0.001383 0.0
1.226398 0.362740 0.001392 0.0
4.018828 0.916492 -0.007661 0.0
1.687367 0.792676 -0.001231 0.0
1.411344 0.844900 0.004235 0.0
3.264139 0.365751 -0.003409 0.0
2.575911 1.164337 -0.000036 0.0
2.883141 0.465711 0.003176 0.0
0.323034 0.433955 0.001448 0.0
1.589426 0.373221 0.002055 0.0
2.470266 0.975266 0.000406 0.0
1.718184 1.149937 0.000005 0.0
0.144331 0.759437 0.001066 0.0
4.012860 0.287139 -0.000170 0.0
4.003086 0.456740 -0.003842 0.0
3.815038 0.747353 0.004813 0.0
0.173869 1.404291 -0.005876 0.0
2.984764 0.349972 -0.002760 0.0
3.774731 0.154513 -0.002763 0.0
0.511660 0.737630 0.000613 0.0
0.234977 0.054450 -0.000935 0.0
0.307245 1.558353 -0.002764 0.0
4.649512 0.008795 -0.000786 0.0
4.084772 1.065241 0.002564 0.0
4.401999 1.206151 0.005841 0.0
1.337305 0.171901 0.000527 0.0
1.771279 0.038891 0.000428 0.0
4.198917 0.402949 0.002901 0.0
0.118064 0.867225 -0.002415 0.0
1.158180 1.207212 0.005500 0.0
4.198905 0.375711 -0.001220 0.0
1.402926 0.404981 -0.001192 0.0
2.264814 1.121085 0.003730 0.0
2.682369 0.601470 0.002141 0.0
0.693900 0.570731 0.000436 0.0
0.189452 0.224515 0.000656 0.0
0.328271 0.677827 -0.002721 0.0
3.303394 0.088133 0.001108 0.0
0.850770 1.168471 -0.002009 0.0
2.329481 0.181165 0.001038 0.0
2.308687 0.059103 0.000331 0.0
1.879985 0.811774 -0.002689 0.0
2.962604 0.404131 -0.003796 0.0
3.535451 0.586495 -0.000101 0.0
3.586594 0.788992 0.002042 0.0
3.596197 0.265480 -0.002851 0.0
1.678271 0.413721 -0.001717 0.0
3.010589 0.916970 0.000505 0.0
2.513257 0.710156 0.001676 0.0
0.020020 0.633291 -0.002880 0.0
2.340424 0.130245 -0.002259 0.0
2.053365 0.601800 0.000910 0.0
1.779804 0.691205 0.001762 0.0
4.450743 0.108114 0.001374 0.0
3.050689 1.496547 0.003804 0.0
3.690927 0.218610 -0.005857 0.0
0.446333 0.314641 0.001719 0.0
0.990220 0.855206 0.001982 0.0
2.099274 0.837093 -0.002246 0.0
2.425794 0.985579 -0.001053 0.0
1.148817 1.033681 -0.001851 0.0
0.051909 1.692724 -0.001818 0.0
0.833269 0.887787 0.001777 0.0
0.366746 0.305973 0.001198 0.0
0.026387 1.647113 0.006821 0.0
3.206839 1.116684 -0.002748 0.0
4.468295 0.238679 0.001619 0.0
1.114010 0.226429 0.000358 0.0
2.156738 1.085281 -0.003105 0.0
4.364124 1.338141 -0.003122 0.0
1.656581 1.089158 -0.002963 0.0
0.024618 0.346095 0.000561 0.0
0.628530 1.493236 0.003302 0.0
3.562523 0.619440 0.000583 0.0
3.699730 0.462102 -0.000899 0.0
2.513476 0.817336 -0.000102 0.0
2.580165 0.037127 -0.000904 0.0
0.494310 1.054121 0.003670 0.0
2.064985 1.529713 -0.001753 0.0
1.442313 0.145280 0.000885 0.0
2.737327 0.602098 0.001149 0.0
4.154607 1.030303 0.002641 0.0
1.777835 0.171696 -0.001118 0.0
2.662721 0.387224 -0.001265 0.0
2.479799 0.821606 0.000163 0.0
0.204062 1.539727 -0.003419 0.0
0.502965 0.281938 -0.003069 0.0
2.222158 0.939981 -0.000103 0.0
4.253193 1.283754 -0.001748 0.0
2.766689 0.128579 -0.003165 0.0
1.809453 0.232895 0.000079 0.0
4.629906 1.533831 -0.002363 0.0
2.258191 0.648792 -0.000678 0.0
2.942393 0.253254 -0.000766 0.0
2.445041 0.329579 0.003046 0.0
1.682807 0.097629 -0.003601 0.0
0.719560 0.126170 0.003460 0.0
0.656641 1.071396 -0.002209 0.0
0.708956 1.459525 0.001950 0.0
3.049422 1.478026 -0.001293 0.0
1.310785 1.482893 0.000743 0.0
2.157811 0.660172 0.001813 0.0
0.215122 0.993846 -0.003273 0.0
1.288948 0.387401 -0.003084 0.0
3.756286 1.265725 -0.006006 0.0
2.454007 1.057259 0.000786 0.0
4.526118 0.281474 0.000078 0.0
3.937083 1.445084 0.003172 0.0
2.892734 1.362564 0.001263 0.0
0.326648 1.197218 0.000503 0.0
3.161181 0.014283 0.000789 0.0
2.029796 1.414360 -0.001970 0.0
4.191492 1.364535 -0.002664 0.0
0.597882 0.118749 -0.001108 0.0
1.267882 0.668081 0.001391 0.0
2.356624 0.934028 0.000276 0.0
0.166477 0.723904 -0.001838 0.0
3.351738 0.413891 0.000351 0.0
1.771463 0.133937 0.000421 0.0
1.886016 0.864008 0.000689 0.0
1.568427 0.392313 0.002045 0.0
2.771212 0.611497 -0.000920 0.0
1.161353 1.562785 0.000769 0.0
2.119828 0.619065 0.000702 0.0
2.709269 0.248926 -0.001867 0.0
1.714751 1.550016 -0.004622 0.0
0.968358 0.039397 0.001272 0.0
0.489579 0.284524 -0.005470 0.0
2.802392 1.477528 0.002595 0.0
3.621571 1.190690 -0.001490 0.0
0.090653 0.909964 -0.003520 0.0
2.128260 0.132889 0.002517 0.0
1.405009 1.078732 -0.004272 0.0
4.082713 0.712009 0.000189 0.0
4.597779 0.353960 0.001583 0.0
3.293944 1.292230 0.004543 0.0
4.411361 1.565582 -0.000648 0.0
3.806822 0.393648 -0.001606 0.0
0.417889 1.201974 0.000181 0.0
2.731040 1.155087 0.000497 0.0
0.863988 0.608694 0.001946 0.0
0.920846 0.180074 0.001571 0.0
1.623972 0.452751 0.001828 0.0
4.597801 1.241213 0.000440 0.0
2.413802 0.487259 -0.001334 0.0
3.298135 0.097450 -0.003043 0.0
2.993532 0.196049 0.002540 0.0
0.582136 1.559760 -0.004351 0.0
1.567607 1.624296 -0.000964 0.0
0.065503 1.556673 -0.000100 0.0
2.419918 1.062920 0.007529 0.0
3.222605 0.816734 0.002792 0.0
1.882106 0.816078 -0.002834 0.0
3.856923 0.015988 -0.002213 0.0
2.610417 1.395383 -0.000818 0.0
3.252800 1.486707 0.002961 0.0
1.110955 0.962617 -0.002116 0.0
0.870662 0.101042 0.002046 0.0
2.088682 0.292483 -0.001496 0.0
2.805279 1.014505 -0.001531 0.0
2.922235 1.225468 0.000976 0.0
3.238253 0.110170 0.000683 0.0
0.351310 1.689220 0.001079 0.0
0.574501 0.321742 0.001681 0.0
2.492823 0.600351 0.000360 0.0
4.282395 1.094327 -0.004424 0.0
0.197815 1.560818 0.000181 0.0
2.263115 0.099067 0.000859 0.0
3.132496 0.923342 -0.000093 0.0
3.484748 1.327964 0.001770 0.0
1.314659 0.112586 -0.000894 0.0
2.297232 0.057280 -0.001448 0.0
1.996687 0.903098 0.003431 0.0
3.876126 1.115273 -0.001126 0.0
4.329249 1.452095 0.004048 0.0
1.170713 1.443285 0.002611 0.0
4.234143 1.217146 -0.002997 0.0
2.033358 0.491403 -0.001004 0.0
1.749597 0.549529 -0.002278 0.0
0.599487 0.697169 0.004716 0.0
2.907581 0.183439 0.001669 0.0
0.105989 1.335481 -0.001084 0.0
0.467530 0.145876 -0.000107 0.0
0.674255 0.240337 0.001573 0.0
4.113305 1.411587 -0.004157 0.0
3.279222 0.041945 0.001474 0.0
1.395932 1.168604 -0.001625 0.0
2.442241 1.135032 0.003272 0.0
2.119648 0.030182 0.000042 0.0
1.282336 1.513424 -0.003159 0.0
3.904607 0.389975 0.003721 0.0
1.563883 1.423096 -0.000871 0.0
3.783611 0.895372 -0.000009 0.0
1.655666 1.227661 0.001420 0.0
2.026759 0.888638 0.000106 0.0
3.422819 0.861568 0.000462 0.0
2.437204 0.209801 -0.000338 0.0
1.042621 1.451278 0.001846 0.0
3.401399 0.744753 -0.001827 0.0
2.839978 0.333193 -0.003141 0.0
0.958458 1.676002 -0.004390 0.0
3.070667 1.049218 -0.001067 0.0
0.214817 1.023370 -0.002664 0.0
1.036829 0.476162 0.003267 0.0
3.443777 0.332938 0.001682 0.0
0.975397 0.490180 -0.002764 0.0
0.012475 0.358528 0.000735 0.0
1.405457 1.182717 -0.000733 0.0
1.985336 0.027329 -0.001261 0.0
1.877853 1.433152 0.002002 0.0
4.606357 0.084750 0.002357 0.0
0.766434 0.161709 -0.000571 0.0
4.615981 0.446267 0.002512 0.0
4.095213 0.200336 -0.005179 0.0
4.505559 1.559557 -0.005314 0.0
3.155587 0.159993 -0.000843 0.0
1.027906 0.761137 -0.000961 0.0
0.903042 0.175633 -0.000971 0.0
1.281338 0.486485 0.000135 0.0
4.151416 0.352945 -0.000056 0.0
3.331031 1.691532 -0.003145 0.0
4.322363 1.556313 0.002446 0.0
3.123673 0.549337 -0.001533 0.0
0.093885 1.506419 -0.000140 0.0
3.981044 0.590131 -0.000764 0.0
3.185866 1.555019 -0.003832 0.0
4.488512 0.430619 -0.002562 0.0
2.868531 0.742020 -0.000358 0.0
3.440723 1.264252 0.000005 0.0
0.146853 0.840320 -0.001364 0.0
3.250545 1.130878 0.001260 0.0
2.075877 0.714247 -0.000282 0.0
3.982308 0.366158 0.000155 0.0
