2.53537909 0.60818651 -0.00289878 0.00000000
0.21555651 0.29617136 0.00190985 0.00000000
2.23937273 0.03115296 -0.00092652 0.00000000
0.77891939 0.07364464 0.00324422 0.00000000
0.88132323 1.44623303 -0.00420901 0.00000000
1.18281841 0.87893198 0.00124085 0.00000000
3.20352598 0.55325355 -0.00126051 0.00000000
2.88749432 0.00598433 0.00039968 0.00000000
2.72806628 0.25317017 -0.00212527 0.00000000
0.04972776 0.71895053 0.00270214 0.00000000
2.63150499 0.92656448 -0.00077110 0.00000000
0.75010213 0.48977286 -0.00305684 0.00000000
3.67181883 1.46348740 0.00400006 0.00000000
2.12302452 0.07196176 -0.00187500 0.00000000
3.75072882 0.66696422 0.00065570 0.00000000
1.68253950 0.64435823 0.00115599 0.00000000
3.81376227 1.65010391 -0.00356092 0.00000000
1.12454090 1.29123384 0.00187704 0.00000000
1.26296545 0.15942057 -0.00130123 0.00000000
3.19714171 0.45853751 0.00122231 0.00000000
0.29291888 0.59230027 0.00235588 0.00000000
4.75180457 1.28632734 0.00004110 0.00000000
2.71369647 1.46671422 -0.00104988 0.00000000
4.45758440 1.07340090 0.00447577 0.00000000
2.69740894 0.29121518 -0.00118389 0.00000000
1.77338728 0.42830824 0.00274362 0.00000000
2.77626398 0.59772179 0.00521684 0.00000000
3.45870062 1.11469295 -0.00338544 0.00000000
4.76020724 1.57858614 -0.00065166 0.00000000
0.91812451 0.36445511 0.00188869 0.00000000
4.07887444 1.23748412 -0.00209101 0.00000000
3.95039743 1.23254406 0.00202137 0.00000000
3.34693806 1.01640833 0.00656915 0.00000000
3.97456647 0.08716204 0.00217858 0.00000000
2.96900412 1.56859095 -0.00171354 0.00000000
1.86021131 1.02169318 0.00018341 0.00000000
3.82086357 1.61770740 -0.00045939 0.00000000
2.98272571 0.70685645 0.00026766 0.00000000
2.93630408 1.31396101 -0.00221019 0.00000000
0.86282232 1.03498468 -0.00006517 0.00000000
3.94931251 1.12075332 0.00036651 0.00000000
2.27543432 1.41379234 0.00278798 0.00000000
2.09031145 1.61064800 -0.00027384 0.00000000
3.29739527 0.29200010 -0.00624340 0.00000000
1.94844606 0.34661473 -0.00222514 0.00000000
0.43201844 1.65487718 -0.00141781 0.00000000
4.73848788 0.32219064 0.00300996 0.00000000
3.78509950 1.24166508 -0.00056937 0.00000000
2.25598027 0.37012381 -0.00331653 0.00000000
4.57947624 0.59863828 0.00207721 0.00000000
1.53837480 1.31314591 0.00013378 0.00000000
4.13735508 1.58084485 0.00106736 0.00000000
0.67775974 1.31160984 -0.00017621 0.00000000
1.47400358 0.44231375 -0.00250232 0.00000000
0.56120567 1.01284636 0.00038359 0.00000000
0.95892073 0.37739410 0.00098869 0.00000000
0.57908771 0.06710129 -0.00127893 0.00000000
0.20953959 1.03692750 0.00241375 0.00000000
1.27479306 0.88245433 0.00120288 0.00000000
2.13308279 0.08615117 -0.00116718 0.00000000
0.90306970 0.97050562 0.00075954 0.00000000
4.25589188 1.25899249 -0.00639970 0.00000000
1.41040076 1.44168017 -0.00070416 0.00000000
2.62538565 1.42297824 0.00081758 0.00000000
1.70270473 0.55315293 -0.00317954 0.00000000
2.48140623 1.07159339 -0.00100506 0.00000000
3.29115105 1.47313603 0.00378670 0.00000000
3.24505207 0.60923451 -0.00440357 0.00000000
1.92608929 1.01322063 0.00042241 0.00000000
0.00747458 0.93080862 -0.00032043 0.00000000
3.29416176 0.20101951 0.00441737 0.00000000
1.69377328 1.11606424 0.00328349 0.00000000
2.74229404 1.05086645 0.00001361 0.00000000
3.06795333 0.23894587 0.00138822 0.00000000
3.08530461 0.75938234 0.00193736 0.00000000
0.00165794 0.99156338 -0.00226664 0.00000000
3.68864364 0.89893531 -0.00172329 0.00000000
1.51646386 0.29185772 0.00154824 0.00000000
2.12428343 0.30799430 0.00227880 0.00000000
2.96654846 1.15059748 -0.00378554 0.00000000
4.67050064 0.60482100 -0.00163682 0.00000000
4.23342381 0.48760335 0.00027256 0.00000000
2.51344363 1.39560774 0.00041323 0.00000000
4.00528359 0.59587646 0.00107029 0.00000000
2.32964857 0.24831769 0.00003114 0.00000000
4.19152475 1.48327220 0.00297848 0.00000000
3.68246350 1.15277842 -0.00020278 0.00000000
0.90464327 1.18838163 0.00166565 0.00000000
0.63193903 0.20037658 -0.00121506 0.00000000
1.44012316 0.14615353 -0.00108568 0.00000000
2.65584104 1.27058981 -0.00279803 0.00000000
4.65562392 0.61770362 -0.00145802 0.00000000
4.16119718 1.48851949 0.00213550 0.00000000
0.57267426 0.67623056 0.00094872 0.00000000
3.57533627 0.44286548 0.00300644 0.00000000
0.79914215 1.39422690 0.00044148 0.00000000
3.05345271 0.53506355 -0.00248757 0.00000000
1.80989010 0.73827227 -0.00409817 0.00000000
3.40305133 1.55037891 -0.00066654 0.00000000
3.35464812 0.61765424 0.00284316 0.00000000
2.27103513 0.52571700 -0.00148666 0.00000000
1.29477039 0.84949552 -0.00404945 0.00000000
4.59896144 0.34632777 -0.00559576 0.00000000
4.28556838 1.50672707 -0.00158269 0.00000000
1.25605244 1.00807775 0.00088903 0.00000000
2.79527190 1.20906551 -0.00091041 0.00000000
4.02709581 1.05464176 -0.00079388 0.00000000
4.37278349 0.06663566 -0.00217991 0.00000000
1.79833481 0.84795432 -0.00351429 0.00000000
2.59048746 1.12974215 -0.00099527 0.00000000
1.97423826 0.60208161 -0.00296491 0.00000000
2.61905127 0.48614506 0.00003828 0.00000000
3.55120697 1.56492549 -0.00508791 0.00000000
4.03892422 0.88365924 0.00265419 0.00000000
2.87981306 1.56459957 -0.00564318 0.00000000
1.43602132 0.57156810 0.00388619 0.00000000
1.30936668 0.27816576 -0.00323582 0.00000000
4.48026291 0.07613938 -0.00090003 0.00000000
1.98030461 0.60698768 -0.00040699 0.00000000
2.43306939 1.02571188 -0.00159249 0.00000000
1.84488936 0.04315496 0.00098005 0.00000000
3.81144369 1.18288766 -0.00376593 0.00000000
3.43570103 0.42155157 -0.00225478 0.00000000
3.60838015 0.77645004 -0.00216411 0.00000000
0.71989601 0.90158118 0.00082225 0.00000000
4.14963723 0.47022554 -0.00134754 0.00000000
4.22082676 0.31220645 0.00052271 0.00000000
3.80029576 1.59528287 -0.00081528 0.00000000
1.39765200 0.63248261 -0.00322533 0.00000000
2.57265124 0.66798507 0.00296091 0.00000000
0.09822113 0.53034616 -0.00227289 0.00000000
1.59003846 1.25499088 -0.00060871 0.00000000
0.98681231 1.27717979 0.00391026 0.00000000
1.50076217 1.38465517 -0.00105202 0.00000000
3.84451664 1.41624696 0.00340747 0.00000000
1.21902917 0.79185012 -0.00023479 0.00000000
0.62664330 0.68081323 -0.00157788 0.00000000
3.79360823 1.54372671 -0.00268186 0.00000000
0.37279052 1.15567117 0.00307436 0.00000000
4.15818735 0.79824802 -0.00184132 0.00000000
4.10792132 1.25153255 0.00128484 0.00000000
0.44111344 0.99079914 -0.00233769 0.00000000
4.06680300 0.67294723 -0.00232017 0.00000000
1.21376697 0.99369282 -0.00533582 0.00000000
1.03540720 1.24352087 -0.00328921 0.00000000
2.30662307 0.97969563 -0.00029576 0.00000000
1.98011937 0.06704081 0.00064116 0.00000000
2.56064818 1.50847475 0.00058937 0.00000000
4.65719578 0.71270798 -0.00282448 0.00000000
2.28705275 0.93635699 -0.00374919 0.00000000
2.77821232 0.09431214 0.00261767 0.00000000
2.61815035 0.58734380 0.00272531 0.00000000
1.25567244 0.90889747 -0.00102740 0.00000000
1.49047413 0.65225896 -0.00147230 0.00000000
4.38166555 1.43885442 -0.00025900 0.00000000
0.63653367 1.68241135 0.00171067 0.00000000
0.28104525 0.92733117 0.00030598 0.00000000
1.74814984 1.38065741 -0.00093091 0.00000000
1.80868061 0.67481340 -0.00207138 0.00000000
3.97141342 1.16274095 0.00127751 0.00000000
1.64117446 1.48648037 0.00115480 0.00000000
3.17920973 1.06584932 0.00084121 0.00000000
3.88901687 0.62901916 0.00097863 0.00000000
3.39756179 1.65788785 0.00588175 0.00000000
0.81725072 0.89267451 0.00642423 0.00000000
4.71603010 0.77550099 0.00124629 0.00000000
2.32233745 0.57966943 -0.00168756 0.00000000
0.90296481 0.07713290 0.00146524 0.00000000
1.87642081 1.18768442 0.00278985 0.00000000
0.55745282 1.26816680 -0.00514610 0.00000000
1.99577802 0.08649216 0.00012869 0.00000000
4.11416391 1.03323233 0.00119761 0.00000000
1.64587245 1.23566954 0.00047607 0.00000000
4.06990983 0.52503599 -0.00129345 0.00000000
4.59812504 0.10517563 -0.00441265 0.00000000
3.30398154 0.66617085 0.00243564 0.00000000
3.80367786 0.92749552 0.00274333 0.00000000
3.90948725 0.05499787 0.00044806 0.00000000
2.18923314 1.09456044 -0.00302540 0.00000000
3.50570970 1.64971173 -0.00020986 0.00000000
2.66011092 0.56351386 -0.00215057 0.00000000
1.00969250 1.45671863 0.00127792 0.00000000
1.06200642 0.55017224 0.00148274 0.00000000
2.05602255 1.28689484 -0.00011177 0.00000000
0.06905825 1.42216345 -0.00131351 0.00000000
1.42274944 0.51723247 -0.00179921 0.00000000
3.16981281 0.92655976 0.00438106 0.00000000
4.39122481 0.42847758 0.00501511 0.00000000
1.37630324 0.41490479 0.00304899 0.00000000
1.12548937 1.03611516 0.00142993 0.00000000
1.55575840 1.25370694 -0.00265529 0.00000000
0.23395839 1.20922054 -0.00285084 0.00000000
4.20476236 0.09762388 0.00058448 0.00000000
4.12378258 1.61224843 -0.00218635 0.00000000
1.64980567 1.63099570 0.00246590 0.00000000
4.16563080 1.44418584 -0.00181172 0.00000000
1.84838500 0.43578244 0.00044162 0.00000000
4.57134793 0.78011575 -0.00095100 0.00000000
2.48737714 1.43023265 -0.00257502 0.00000000
0.29718197 1.28146361 -0.00372411 0.00000000
1.45800166 1.48470489 -0.00282618 0.00000000
3.79062134 1.14221546 -0.00123666 0.00000000
2.13939090 0.57977417 -0.00131556 0.00000000
4.72653488 0.99999459 -0.00191364 0.00000000
0.10340157 0.96299685 0.00200247 0.00000000
4.12155143 0.84378222 0.00471769 0.00000000
1.45573975 0.38799624 -0.00129609 0.00000000
4.41373134 1.09375133 -0.00081844 0.00000000
2.75674941 0.20557767 -0.00000279 0.00000000
3.34084782 0.24667348 0.00025817 0.00000000
0.90359257 1.58294995 0.00337843 0.00000000
0.48677680 0.46785290 -0.00199880 0.00000000
2.33630873 0.51150698 -0.00143790 0.00000000
3.50600375 1.30184905 0.00391509 0.00000000
1.67662844 0.12181811 0.00058583 0.00000000
4.41100154 0.77277948 0.00183285 0.00000000
1.00011878 1.08287306 0.00066209 0.00000000
0.70214179 1.65540259 0.00560688 0.00000000
0.84114113 0.95615984 -0.00396507 0.00000000
4.19507369 0.68877401 0.00238836 0.00000000
2.21376810 0.98816029 -0.00052221 0.00000000
0.10828237 0.07850273 -0.00487697 0.00000000
2.76251706 1.30103736 -0.00169537 0.00000000
0.95960047 0.96552928 0.00192937 0.00000000
0.95019027 0.64313799 0.00252398 0.00000000
4.30769226 1.02838611 0.00138913 0.00000000
1.39526150 0.78756920 0.00219553 0.00000000
3.65543979 1.40962061 -0.00137668 0.00000000
3.66391842 0.10102765 -0.00077586 0.00000000
2.89195090 1.39643149 -0.00344183 0.00000000
3.52332245 0.19452820 0.00305746 0.00000000
0.40000025 1.44753815 -0.00155262 0.00000000
2.82605190 0.54152643 -0.00316665 0.00000000
4.12135931 1.12992598 -0.00106868 0.00000000
1.49359594 0.00906400 0.00676501 0.00000000
3.54971282 0.68724593 -0.00108929 0.00000000
3.49083888 1.28194813 -0.00299148 0.00000000
3.29202844 1.22281152 -0.00414807 0.00000000
0.29290473 0.42537868 0.00124100 0.00000000
2.92394706 0.53978209 -0.00007045 0.00000000
1.40380021 1.10400534 -0.00263629 0.00000000
3.93802106 0.61231405 0.00217165 0.00000000
0.20789632 1.54191744 -0.00195930 0.00000000
1.33557001 1.24113099 -0.00438898 0.00000000
3.88151397 1.49050963 0.00247352 0.00000000
0.61767278 1.24700201 0.00009948 0.00000000
1.67793436 0.44985203 -0.00055075 0.00000000
4.33767112 0.42524886 -0.00066849 0.00000000
0.11300963 1.32930313 0.00382272 0.00000000
0.12836363 0.21298979 0.00209345 0.00000000
1.93644122 0.68580779 0.00144587 0.00000000
2.06485541 1.37158498 0.00264256 0.00000000
4.62474943 0.79235286 -0.00147026 0.00000000
1.36653623 0.63617539 -0.00095003 0.00000000
0.81614597 1.45709297 0.00483312 0.00000000
0.75944187 0.61171774 -0.00146159 0.00000000
1.55276334 0.58659617 -0.00432895 0.00000000
1.02979377 0.33280336 -0.00340173 0.00000000
3.57162341 0.99880306 -0.00018085 0.00000000
3.37591825 0.76955653 0.00067761 0.00000000
2.91905311 0.89436770 0.00177846 0.00000000
3.55968272 1.06041863 -0.00487414 0.00000000
4.07899496 1.40986317 0.00470232 0.00000000
2.62644345 0.02531571 -0.00267612 0.00000000
1.06817438 0.76798610 0.00311021 0.00000000
0.58235264 0.36647463 0.00105970 0.00000000
0.52813153 0.47675344 -0.00133083 0.00000000
4.32832034 1.27870935 -0.00183171 0.00000000
1.01044441 1.40134366 -0.00095372 0.00000000
2.57468897 1.05378321 0.00059311 0.00000000
0.15104758 1.59543229 -0.00389262 0.00000000
3.24049830 0.09672530 0.00236685 0.00000000
2.70482714 1.00812630 -0.00050004 0.00000000
0.64203251 0.58056911 -0.00264538 0.00000000
1.27275512 1.62416272 -0.00167350 0.00000000
2.27381411 0.64034448 -0.00505427 0.00000000
3.70647282 0.25240528 0.00252311 0.00000000
1.06052016 1.17180865 0.00080026 0.00000000
2.34236593 0.51181035 -0.00006323 0.00000000
1.46310450 0.90168661 -0.00418954 0.00000000
0.75102791 0.19838800 -0.00167157 0.00000000
0.12870619 0.57588802 0.00540097 0.00000000
4.56403224 0.42337765 0.00066747 0.00000000
0.13698243 0.19976705 0.00635473 0.00000000
4.33222120 0.64588876 -0.00165172 0.00000000
2.96749779 0.87325886 -0.00033911 0.00000000
1.46516006 0.28910434 -0.00298907 0.00000000
0.45398216 0.82564156 0.00292872 0.00000000
4.38818741 1.31612422 0.00295490 0.00000000
4.58076690 0.27963073 -0.00355461 0.00000000
2.09881300 0.93995118 -0.00003990 0.00000000
3.79061599 1.20492289 0.00193439 0.00000000
1.41310467 1.57678869 -0.00447087 0.00000000
4.58796223 0.33385496 -0.00264209 0.00000000
0.29653936 1.08514087 -0.00493562 0.00000000
2.36515601 1.37063504 -0.00368645 0.00000000
2.15383806 1.11765184 0.00163981 0.00000000
1.84568681 1.41231920 0.00095709 0.00000000
2.93439676 0.22811053 -0.00060150 0.00000000
4.49650631 0.23007017 -0.00173318 0.00000000
1.65587051 0.64153139 0.00057242 0.00000000
4.32574198 0.27931455 0.00343472 0.00000000
1.23760061 1.46914894 -0.00149823 0.00000000
0.12413221 0.81849320 -0.00055879 0.00000000
3.33412066 0.34181877 0.00310180 0.00000000
3.76209482 0.65267299 0.00098521 0.00000000
0.87245063 1.16878864 -0.00056160 0.00000000
0.68351720 0.44530540 -0.00204201 0.00000000
0.99739518 0.37539492 0.00189140 0.00000000
1.82283975 0.35756281 -0.00049032 0.00000000
0.43793686 1.01567349 -0.00053760 0.00000000
1.53446974 1.68181014 0.00474411 0.00000000
4.25646558 1.64781574 -0.00623280 0.00000000
2.57091792 0.25228372 0.00317022 0.00000000
2.58868002 0.74987749 0.00066370 0.00000000
3.33911764 1.25619987 -0.00450749 0.00000000
3.59578767 0.26785354 -0.00253934 0.00000000
2.10689740 1.67672021 0.00394294 0.00000000
4.72283478 0.64112210 0.00267102 0.00000000
3.62749137 0.48245203 0.00117012 0.00000000
3.05180097 0.04999633 -0.00048113 0.00000000
4.45719002 1.29403709 0.00033790 0.00000000
3.87352102 1.13990849 0.00180942 0.00000000
1.10815312 0.30872252 -0.00008386 0.00000000
3.83162265 1.62939748 0.00003121 0.00000000
4.03000812 0.94306683 0.00066050 0.00000000
3.26948534 1.37441664 -0.00092855 0.00000000
2.68270943 0.47453237 0.00339085 0.00000000
2.46352667 1.14040642 0.00053241 0.00000000
2.81122702 0.27231040 0.00533805 0.00000000
4.48699389 1.15088632 -0.00045100 0.00000000
3.50098376 0.20474298 0.00167052 0.00000000
3.49497681 0.15627940 -0.00136357 0.00000000
4.54295209 1.67764147 -0.00393607 0.00000000
1.38449241 0.20915587 -0.00183469 0.00000000
3.23451216 1.39409721 0.00076195 0.00000000
2.47743882 0.68756870 -0.00314340 0.00000000
0.38657976 0.10478319 0.00307893 0.00000000
0.69883903 1.25042491 -0.00301201 0.00000000
0.79348377 0.58189019 -0.00054244 0.00000000
3.17276424 1.34041697 0.00069109 0.00000000
0.76469344 1.18660337 -0.00197955 0.00000000
1.91838534 0.22731562 -0.00055441 0.00000000
2.79975863 0.48720983 0.00099965 0.00000000
0.75340233 0.19531363 0.00776390 0.00000000
1.67644158 0.25428969 -0.00138006 0.00000000
1.73110176 0.65545304 -0.00222659 0.00000000
2.48669774 0.18579818 0.00143897 0.00000000
2.38598315 1.34745502 0.00088387 0.00000000
3.51182858 0.05439019 0.00488752 0.00000000
3.10490354 0.04680551 -0.00386303 0.00000000
3.92159376 0.08418941 0.00032851 0.00000000
4.00122989 1.50245159 -0.00391350 0.00000000
2.27542327 0.40458279 0.00113778 0.00000000
0.40719022 0.12779766 -0.00012792 0.00000000
2.27586688 0.82717982 -0.00101491 0.00000000
3.61710247 0.32167983 -0.00160552 0.00000000
1.31987146 0.13438492 -0.00281427 0.00000000
3.58447546 1.13513432 -0.00171197 0.00000000
2.61277438 1.04583918 -0.00300283 0.00000000
0.37746527 1.62565397 0.00047668 0.00000000
2.59781554 1.45168968 0.00046669 0.00000000
1.40739793 1.45370786 0.00162913 0.00000000
1.59422874 1.19010250 0.00253107 0.00000000
1.02640010 1.61710133 -0.00074054 0.00000000
0.50044130 0.47578251 -0.00268092 0.00000000
1.21689118 1.08113919 -0.00082969 0.00000000
2.97074859 0.59472294 0.00356167 0.00000000
3.82379064 0.65366792 0.00353942 0.00000000
4.56205902 0.98056666 0.00127927 0.00000000
2.76931284 0.13898045 0.00239386 0.00000000
1.22630900 1.23603988 0.00326511 0.00000000
1.95950012 1.46107512 0.00106452 0.00000000
1.85505538 0.68214361 -0.00032473 0.00000000
4.16478996 0.15319560 -0.00095588 0.00000000
2.00547514 0.65235459 0.00049659 0.00000000
3.47518128 0.15908829 0.00445607 0.00000000
4.22093711 0.66806796 -0.00260143 0.00000000
1.76940559 1.38339903 0.00408977 0.00000000
0.56027619 1.38499960 -0.00133158 0.00000000
3.37057087 1.61364040 0.00426868 0.00000000
0.00927984 0.41951857 0.00047645 0.00000000
1.09092074 1.18652225 0.00394581 0.00000000
3.13501924 0.04628047 0.00025894 0.00000000
3.23376754 0.83076250 0.00099964 0.00000000
3.89355692 0.03469372 -0.00543569 0.00000000
1.55876910 0.00247501 -0.00104482 0.00000000
4.11937485 0.01559602 -0.00003957 0.00000000
4.46348191 0.61432554 -0.00157417 0.00000000
0.78733324 0.14770053 0.00413272 0.00000000
2.01957366 0.35274044 0.00200172 0.00000000
0.22780871 1.39754132 0.00014580 0.00000000
3.91892699 1.06573386 -0.00338613 0.00000000
1.62218025 0.64994513 0.00068745 0.00000000
4.67873393 0.61059626 0.00259226 0.00000000
2.56178867 1.07450247 0.00179086 0.00000000
2.02101615 0.13536236 0.00123899 0.00000000
3.31002512 0.11857849 -0.00369645 0.00000000
4.40273529 0.99230275 -0.00061579 0.00000000
4.13823721 0.04390457 -0.00201885 0.00000000
0.18206985 1.32927121 0.00576428 0.00000000
2.16227451 0.47459993 0.00137994 0.00000000
4.36828202 1.43997393 0.00122202 0.00000000
4.19959410 1.22529121 0.00177364 0.00000000
2.22950492 1.55139376 -0.00286795 0.00000000
3.83679035 1.20450801 -0.00071537 0.00000000
4.33299688 1.20953290 -0.00192284 0.00000000
1.32523456 1.06000356 0.00607925 0.00000000
1.99215130 0.59656116 0.00222710 0.00000000
4.20847215 0.00846992 -0.00020116 0.00000000
2.89448606 0.46660428 0.00030748 0.00000000
3.59275568 1.26583437 -0.00357256 0.00000000
3.79322733 1.39345450 -0.00064160 0.00000000
1.08631851 0.49906611 0.00323847 0.00000000
4.59860418 0.06945799 -0.00088577 0.00000000
1.07903785 1.43599852 0.00092600 0.00000000
4.08469599 1.27574247 -0.00024241 0.00000000
4.47585795 1.38099139 -0.00240639 0.00000000
0.24952141 0.25969590 -0.00320053 0.00000000
3.58601059 1.57018181 -0.00108131 0.00000000
3.33591310 0.90216575 0.00122955 0.00000000
0.34690579 1.16260483 0.00326561 0.00000000
3.88938608 1.68000381 -0.00121075 0.00000000
0.78539648 1.65126000 0.00405196 0.00000000
4.75737872 0.65144882 -0.00180303 0.00000000
1.35716518 0.25680929 -0.00129015 0.00000000
1.86597474 1.23294411 -0.00141688 0.00000000
1.21618762 0.33550970 -0.00028270 0.00000000
2.09450373 1.23438229 -0.00020052 0.00000000
3.26120424 1.22969633 -0.00189536 0.00000000
2.35997247 1.43898317 -0.00043221 0.00000000
0.22900776 0.97982453 0.00101473 0.00000000
2.97432998 0.39582291 0.00382624 0.00000000
0.16133182 0.76032812 0.00443463 0.00000000
0.71126525 1.54092598 -0.00020345 0.00000000
3.52388502 1.12662140 0.00364522 0.00000000
3.89595293 0.37997395 0.00370369 0.00000000
1.77326698 0.57232753 0.00489955 0.00000000
2.69911113 1.08057257 0.00197721 0.00000000
2.33826674 1.52939604 -0.00122721 0.00000000
3.87011269 0.03247777 -0.00033459 0.00000000
4.07283784 1.17528167 0.00038752 0.00000000
0.16811269 1.31160235 0.00206801 0.00000000
0.74377290 0.26498656 -0.00556657 0.00000000
0.95470301 0.50308981 0.00216490 0.00000000
4.20488406 0.57732362 -0.00282173 0.00000000
2.28066852 1.14995645 -0.00258046 0.00000000
3.73354928 1.67082011 0.00081028 0.00000000
3.73669393 1.17110679 -0.00291254 0.00000000
0.69114304 0.54222472 -0.00360828 0.00000000
4.59028193 0.70947618 0.00243949 0.00000000
1.89623601 1.44648597 -0.00160227 0.00000000
4.16791471 0.71005573 0.00161503 0.00000000
2.74464353 1.30358729 0.00112785 0.00000000
0.94061635 1.14390379 0.00024006 0.00000000
2.48278791 1.25657824 0.00354648 0.00000000
3.08299953 0.50525967 -0.00503121 0.00000000
4.08385969 1.38735183 -0.00036104 0.00000000
0.06259319 0.03451557 -0.00189539 0.00000000
4.62667951 1.44563977 -0.00354472 0.00000000
2.52056980 0.42340874 -0.00217869 0.00000000
3.73586638 0.32842299 -0.00040873 0.00000000
3.95120802 0.74190161 -0.00052425 0.00000000
4.14398310 1.54734844 -0.00141919 0.00000000
0.83149262 0.43262363 -0.00075893 0.00000000
0.75124578 0.44351077 0.00120307 0.00000000
4.58725388 0.88335577 -0.00215182 0.00000000
2.04895868 0.37030331 -0.00090931 0.00000000
2.21817421 1.54439383 0.00118199 0.00000000
1.11439152 0.36294438 -0.00782351 0.00000000
0.46301117 1.08819115 -0.00280030 0.00000000
2.58351475 1.55157844 0.00157968 0.00000000
2.08707783 0.62205217 -0.00025530 0.00000000
3.86129675 0.58888517 -0.00505187 0.00000000
1.88243305 1.39408494 -0.00085908 0.00000000
2.05670113 0.90026896 0.00418527 0.00000000
3.13951346 0.56722355 -0.00228649 0.00000000
2.72083714 0.95124334 -0.00341220 0.00000000
1.72829827 0.92499432 0.00199338 0.00000000
4.76717114 0.66268505 -0.00382750 0.00000000
3.03981337 0.89204847 0.00091699 0.00000000
4.13917482 1.32544742 0.00090099 0.00000000
3.86749704 0.10825453 -0.00138532 0.00000000
4.38462395 0.42409060 0.00395751 0.00000000
2.75029507 1.15622554 -0.00057573 0.00000000
2.05906036 0.14877186 -0.00235925 0.00000000
2.35175380 0.81270171 0.00043381 0.00000000
0.43051384 0.02805863 0.00002308 0.00000000
3.36879665 0.57274310 0.00088709 0.00000000
2.86159381 0.24052886 0.00317741 0.00000000
1.67884704 0.96128018 -0.00116144 0.00000000
4.38019972 0.14643504 0.00315299 0.00000000
4.21512382 0.97817061 -0.00395289 0.00000000
0.61430427 0.00778176 -0.00393026 0.00000000
0.76494561 1.02892744 -0.00199850 0.00000000
0.71452542 1.64938827 -0.00362897 0.00000000
2.41811136 1.55221327 0.00421307 0.00000000
3.19985340 1.44100727 -0.00092218 0.00000000
0.95617458 0.38820633 -0.00305644 0.00000000
4.77632563 1.49237085 -0.00128507 0.00000000
0.62263227 0.86807539 0.00080483 0.00000000
3.45993030 1.52543019 -0.00384892 0.00000000
2.98145829 0.03906393 -0.00018280 0.00000000
1.10553233 1.21111206 0.00327349 0.00000000
0.08019767 0.63392779 -0.00071097 0.00000000
0.99708011 1.46582400 0.00299929 0.00000000
3.92556285 0.61399355 -0.00405041 0.00000000
4.34256566 0.49870257 0.00044604 0.00000000
0.71161855 0.76787305 0.00180517 0.00000000
3.93915970 0.98594495 -0.00489769 0.00000000
1.42248088 0.91389798 -0.00102299 0.00000000
3.28591091 0.01155083 -0.00131793 0.00000000
0.85988840 1.49678222 0.00340773 0.00000000
2.15422839 1.66653026 -0.00369843 0.00000000
1.62548154 0.06391452 0.00242860 0.00000000
4.42908038 0.81115836 -0.00520670 0.00000000
3.82919978 0.25215075 0.00068975 0.00000000
2.77380356 0.01186620 -0.00160863 0.00000000
3.54087187 0.06849648 -0.00055778 0.00000000
3.82488212 0.08979950 -0.00180525 0.00000000
4.62261779 0.85418440 -0.00549106 0.00000000
1.70389618 0.55359255 -0.00098492 0.00000000
4.62878507 0.35404523 0.00161241 0.00000000
3.07350855 1.56553900 0.00124339 0.00000000
0.85906384 0.39187599 -0.00300342 0.00000000
1.87192493 1.28090332 -0.00363429 0.00000000
1.87528820 0.67080319 0.00136008 0.00000000
0.91134708 1.53707499 0.00292065 0.00000000
3.77076160 1.44911393 0.00205568 0.00000000
1.48439482 0.91224062 0.00160690 0.00000000
2.47517479 0.73567931 -0.00103778 0.00000000
1.87633115 1.09877030 0.00071749 0.00000000
3.55218444 0.76726903 -0.00162020 0.00000000
0.90680981 0.34771329 0.00563409 0.00000000
2.96211666 1.32122597 0.00111799 0.00000000
3.26632009 0.14635507 -0.00002801 0.00000000
0.21035923 0.93904937 -0.00015264 0.00000000
4.23261543 1.32739746 -0.00063090 0.00000000
3.04102959 0.41601399 -0.00301631 0.00000000
1.30507552 1.35174580 0.00050733 0.00000000
1.15060829 0.74482469 0.00151921 0.00000000
1.22547428 0.58541854 0.00185573 0.00000000
1.37582711 0.24703799 0.00233424 0.00000000
1.40887661 1.14813163 0.00017688 0.00000000
1.16993149 0.69944346 0.00317758 0.00000000
0.15828028 0.68898514 0.00552084 0.00000000
0.62274789 0.33948926 0.00484658 0.00000000
2.07703496 0.61675157 0.00157247 0.00000000
3.83555107 1.49548645 -0.00383293 0.00000000
3.57869381 0.40902089 0.00286108 0.00000000
0.88810651 0.72994687 0.00372455 0.00000000
0.15959123 1.13325762 -0.00577464 0.00000000
3.13523908 0.44968172 0.00041564 0.00000000
3.42949596 0.40552180 -0.00215468 0.00000000
3.31659481 0.22602004 0.00196819 0.00000000
2.63915910 1.57895309 0.00362925 0.00000000
1.31508951 1.14524563 -0.00070019 0.00000000
2.79419572 0.21109246 -0.00113568 0.00000000
4.00753979 0.93339078 -0.00126510 0.00000000
0.36592657 0.49702044 -0.00104048 0.00000000
2.18754566 0.60910820 -0.00337893 0.00000000
4.62011542 1.58864498 0.00017877 0.00000000
1.85112324 0.53169825 -0.00118749 0.00000000
3.12158326 1.04171953 0.00134716 0.00000000
4.23137339 1.46199863 -0.00085895 0.00000000
0.32788647 0.68442914 0.00598313 0.00000000
3.32087073 0.72623867 0.00006838 0.00000000
4.35489420 0.93895553 0.00325321 0.00000000
0.36123428 0.71525194 0.00004238 0.00000000
0.52475094 0.20029740 0.00069494 0.00000000
2.30200003 1.51931366 0.00110508 0.00000000
1.79533252 1.12130918 -0.00344986 0.00000000
3.01726337 0.16508196 0.00113523 0.00000000
0.75402793 0.25159491 -0.00057105 0.00000000
1.86564130 0.16897762 0.00189514 0.00000000
2.68990338 0.06309159 -0.00249533 0.00000000
0.68578581 0.49587565 0.00511149 0.00000000
1.46460753 0.36086573 0.00048104 0.00000000
1.72607240 1.02678964 0.00227984 0.00000000
2.41426543 0.71209439 0.00359238 0.00000000
3.46660795 0.45838726 -0.00494104 0.00000000
3.94425632 0.33304460 -0.00426244 0.00000000
2.29270041 0.28554828 0.00038414 0.00000000
0.22800570 1.19262981 0.00272798 0.00000000
0.44444039 0.28918319 0.00025083 0.00000000
0.43874188 1.66795567 -0.00071384 0.00000000
3.43566322 1.23301652 0.00005564 0.00000000
1.45972443 0.85966952 0.00060257 0.00000000
1.63762382 0.84161610 0.00291577 0.00000000
0.81905406 0.11024484 0.00152766 0.00000000
1.90200181 0.84420125 -0.00087003 0.00000000
2.36237594 1.67492386 -0.00050615 0.00000000
0.15794252 0.75367650 0.00043710 0.00000000
3.76038823 1.22369302 -0.00097413 0.00000000
1.14700676 1.21157970 -0.00130437 0.00000000
3.54002620 1.23231415 0.00094018 0.00000000
0.35359175 0.86833653 0.00262906 0.00000000
0.28186396 0.66752223 0.00258058 0.00000000
1.62208252 0.66214177 0.00026599 0.00000000
1.68018667 0.19310912 0.00806909 0.00000000
0.59944260 0.33701997 -0.00153968 0.00000000
1.93084424 0.94939824 0.00354569 0.00000000
2.38934306 0.59447218 -0.00115087 0.00000000
3.85451137 1.53206216 0.00136297 0.00000000
4.12564424 1.37809828 0.00345836 0.00000000
1.93830724 1.56521116 0.00010100 0.00000000
0.29022965 0.71233710 0.00107746 0.00000000
0.17152882 0.88106222 -0.00497471 0.00000000
1.49035945 1.44647394 0.00012137 0.00000000
3.42677989 0.35714527 -0.00213924 0.00000000
1.19621032 1.55407293 -0.00102402 0.00000000
2.43392857 1.04385548 0.00015478 0.00000000
0.94706867 1.63373081 0.00055198 0.00000000
0.20002326 0.83181492 0.00476656 0.00000000
1.52637852 0.13143553 0.00027614 0.00000000
3.51428398 0.54400294 0.00106550 0.00000000
1.24323679 1.34028391 0.00214318 0.00000000
0.35601771 1.01623426 -0.00226212 0.00000000
0.85213820 0.93112066 -0.00446747 0.00000000
0.20332616 1.65742005 -0.00340012 0.00000000
0.92613911 1.23242559 0.00105353 0.00000000
2.28698623 1.39003255 0.00197508 0.00000000
2.19358494 0.54842880 -0.00000936 0.00000000
2.76855906 0.27032719 -0.00013934 0.00000000
2.69828857 0.31759445 -0.00058661 0.00000000
3.61456243 0.35245261 0.00068494 0.00000000
4.54514086 0.10201226 -0.00496742 0.00000000
4.65929891 1.23188647 0.00050442 0.00000000
4.63205374 1.45387283 -0.00439491 0.00000000
3.96468742 0.02783652 -0.00481431 0.00000000
2.60497509 0.37902952 0.00118299 0.00000000
4.09480809 0.91847723 -0.00133717 0.00000000
3.15442805 1.54942856 -0.00134687 0.00000000
3.28348341 1.66687806 0.00249686 0.00000000
2.66896153 0.73794880 0.00101085 0.00000000
1.83208252 0.20404160 -0.00031449 0.00000000
3.37061346 1.53620691 0.00295382 0.00000000
2.30337820 1.28109151 -0.00184785 0.00000000
2.18194206 1.04515499 0.00404926 0.00000000
0.12221057 0.51423917 0.00217468 0.00000000
2.25561024 1.62299020 0.00106944 0.00000000
4.62627950 1.31508190 0.00055534 0.00000000
2.01241029 0.31186026 -0.00524529 0.00000000
1.98693125 0.39204512 -0.00189619 0.00000000
1.61438013 1.64207224 0.00204410 0.00000000
3.96119799 1.50634370 -0.00037465 0.00000000
0.63776940 0.95891199 -0.00245532 0.00000000
0.92503860 1.26729535 0.00183460 0.00000000
4.06985532 0.45326945 0.00137728 0.00000000
3.58190955 1.61618773 -0.00061120 0.00000000
3.43023459 0.32001042 0.00158499 0.00000000
2.87814722 1.66913792 0.00333921 0.00000000
3.25525307 1.37960223 -0.00013543 0.00000000
1.27319566 0.43219547 0.00239831 0.00000000
3.91939050 0.51453727 0.00190529 0.00000000
0.10229328 1.60166047 -0.00087297 0.00000000
0.48328249 1.35994247 -0.00072340 0.00000000
4.66211711 0.95814894 0.00245768 0.00000000
1.16760779 1.21772043 0.00268245 0.00000000
4.11472349 0.14590105 -0.00145185 0.00000000
3.48422221 1.29068742 -0.00139685 0.00000000
0.12723234 0.05884988 -0.00049003 0.00000000
0.87117020 0.05877147 0.00396172 0.00000000
4.06035900 1.17902147 0.00249884 0.00000000
2.23499232 1.23906272 0.00293505 0.00000000
3.70974588 0.84682407 -0.00125688 0.00000000
4.72214557 0.47064958 -0.00500904 0.00000000
3.19559246 1.38510278 -0.00333569 0.00000000
2.34346284 0.11431776 0.00183992 0.00000000
3.37788454 1.07596374 0.00196324 0.00000000
2.98715038 0.58883671 -0.00055681 0.00000000
3.87297749 1.56909818 0.00098018 0.00000000
2.64665414 0.83943182 0.00087258 0.00000000
3.78149059 0.53852145 0.00018867 0.00000000
2.05400590 0.42604968 0.00021680 0.00000000
3.70489262 0.01354312 0.00075661 0.00000000
3.88425535 0.61850772 -0.00100598 0.00000000
1.76514943 1.66274901 0.00084473 0.00000000
3.02361377 0.05079045 -0.00590387 0.00000000
3.97435773 1.38506494 0.00311554 0.00000000
0.36335136 1.47002642 0.00015848 0.00000000
1.87347909 0.23051349 0.00294446 0.00000000
2.17138429 1.14866071 0.00055781 0.00000000
4.01719867 0.19424873 0.00103285 0.00000000
3.01349992 1.28477502 -0.00194928 0.00000000
0.91119163 0.92701012 0.00394216 0.00000000
3.01970162 1.32425067 0.00012817 0.00000000
3.22445347 1.24088939 -0.00874556 0.00000000
1.92287105 1.57784627 -0.00188351 0.00000000
4.17768265 0.17655997 -0.00311385 0.00000000
2.62888057 1.55819209 0.00299744 0.00000000
0.60275055 1.07106383 -0.00212493 0.00000000
4.51248351 0.31600459 -0.00345980 0.00000000
0.73270990 0.43736449 -0.00234312 0.00000000
2.77196820 0.01171939 -0.00225828 0.00000000
2.13586515 0.44490230 -0.00116785 0.00000000
4.61374629 0.62052236 0.00147158 0.00000000
3.48736191 1.43676477 -0.00098369 0.00000000
2.82295612 0.23336974 -0.00003281 0.00000000
4.78304930 1.19574846 -0.00309385 0.00000000
0.50134883 1.34561720 0.00109754 0.00000000
4.34027053 0.30112801 -0.00058075 0.00000000
4.37406256 1.27250357 0.00353972 0.00000000
2.45674237 1.41436794 0.00333242 0.00000000
1.84144141 0.38557170 -0.00130478 0.00000000
3.15619368 1.00498867 0.00222670 0.00000000
4.56748736 1.14481789 -0.00193579 0.00000000
3.58478633 1.29512855 0.00062393 0.00000000
2.48972156 0.15450285 -0.00130076 0.00000000
3.77673618 1.55890729 0.00219925 0.00000000
0.62832407 0.75026295 -0.00132874 0.00000000
1.04194454 0.57682368 0.00334630 0.00000000
1.69466915 0.58449524 0.00029105 0.00000000
1.20358824 0.13651558 0.00132684 0.00000000
0.91801035 1.12152868 -0.00083896 0.00000000
0.33332412 0.18807155 -0.00008371 0.00000000
4.53756599 0.19105521 0.00447981 0.00000000
1.49371812 1.65789708 0.00145670 0.00000000
4.59470917 1.60295588 0.00271227 0.00000000
4.28179203 0.19425752 -0.00277619 0.00000000
3.82609587 0.83556103 -0.00120788 0.00000000
0.00350075 0.30950991 0.00396844 0.00000000
3.55519390 1.39480263 -0.00075952 0.00000000
0.56022498 0.93307479 0.00166086 0.00000000
3.75205129 0.53843546 -0.00017816 0.00000000
3.59964656 0.67337434 -0.00142730 0.00000000
3.40262796 0.95703035 0.00688102 0.00000000
0.55730918 0.98617755 -0.00233783 0.00000000
0.32062230 0.20679870 0.00312055 0.00000000
1.82472441 0.18380098 0.00138066 0.00000000
1.17174470 0.64805107 0.00115115 0.00000000
2.85589908 0.04270971 0.00113833 0.00000000
1.89000713 0.98884375 -0.00153352 0.00000000
0.56342528 1.03207535 0.00178074 0.00000000
4.34512647 1.34085158 -0.00188572 0.00000000
0.75877977 0.29555602 0.00141984 0.00000000
1.26757296 1.05239910 -0.00264889 0.00000000
1.82983880 1.35739092 -0.00193967 0.00000000
0.93110861 0.48372440 0.00261649 0.00000000
0.22057095 1.35644662 -0.00310102 0.00000000
2.95867400 0.63368483 -0.00110471 0.00000000
3.53872512 0.58646750 -0.00576518 0.00000000
3.06414789 0.42566611 0.00300189 0.00000000
1.15014035 0.29526649 -0.00165641 0.00000000
1.16491130 1.51218473 -0.00155000 0.00000000
3.68138373 0.92173983 0.00056311 0.00000000
0.12737311 1.02461653 -0.00144853 0.00000000
0.28346960 1.28865421 0.00020951 0.00000000
3.96006529 0.42649947 -0.00440175 0.00000000
0.88337022 0.60382858 -0.00126599 0.00000000
3.93038966 0.72706359 0.00124504 0.00000000
3.74957619 1.62857818 0.00262021 0.00000000
2.73362458 0.01209287 -0.00290092 0.00000000
3.68903741 0.71913907 -0.00176311 0.00000000
3.46231044 0.69312945 0.00190659 0.00000000
0.75046728 0.68345733 0.00371788 0.00000000
2.30850550 1.15814021 0.00471756 0.00000000
1.98756806 1.14801154 0.00360248 0.00000000
4.58483011 1.54898715 0.00405332 0.00000000
4.23136529 0.28962572 -0.00507162 0.00000000
1.77492706 0.33683602 0.00178750 0.00000000
1.20335734 0.42637371 -0.00059653 0.00000000
1.28821277 0.00070314 0.00201613 0.00000000
1.68470103 1.12418112 0.00268810 0.00000000
1.90834068 1.05985441 0.00338100 0.00000000
3.54060531 0.70662740 -0.00201287 0.00000000
2.25095175 0.07026471 -0.00020968 0.00000000
4.47311403 1.53734907 -0.00192650 0.00000000
3.62009929 0.81610560 0.00151353 0.00000000
3.15463719 0.42092181 -0.00811832 0.00000000
2.18171942 0.90113950 -0.00108811 0.00000000
2.15602091 1.26075143 0.00211350 0.00000000
3.52127020 1.30954219 0.00341595 0.00000000
0.52626730 0.16283302 -0.00243956 0.00000000
0.37221900 0.39803909 -0.00332811 0.00000000
0.73167697 0.20116568 0.00521490 0.00000000
0.79847684 1.12775223 0.00036780 0.00000000
2.15011752 1.51622993 0.00340541 0.00000000
0.61081894 1.28263289 0.00101470 0.00000000
0.57102407 1.01646180 -0.00182774 0.00000000
0.55231640 0.08055335 0.00323054 0.00000000
4.18205326 1.17516027 -0.00100452 0.00000000
0.48313843 0.90645347 0.00071545 0.00000000
1.57124764 1.49325114 0.00039595 0.00000000
0.13815696 1.39601435 0.00077141 0.00000000
3.34654930 1.63751735 0.00112129 0.00000000
4.57119792 0.82745886 0.00323740 0.00000000
0.94573359 1.35567787 -0.00530673 0.00000000
3.08814773 0.54571372 0.00529754 0.00000000
3.10226939 0.09769229 0.00104607 0.00000000
2.51536500 1.58670505 -0.00006869 0.00000000
4.49945109 0.46913640 -0.00134576 0.00000000
1.78496733 0.70529873 0.00161334 0.00000000
3.38486050 1.26771606 0.00091725 0.00000000
1.39472432 0.19182648 -0.00059260 0.00000000
2.55248320 1.13277537 -0.00211506 0.00000000
0.00239962 0.19515580 -0.00000899 0.00000000
0.70167303 0.04633789 -0.00023587 0.00000000
1.25619210 0.67522656 0.00269435 0.00000000
0.70883379 1.31982179 0.00810385 0.00000000
2.04117504 1.55535205 0.00414123 0.00000000
3.41655766 0.34103926 0.00093204 0.00000000
2.92204516 0.40499509 0.00083325 0.00000000
4.58796861 0.59405609 -0.00268695 0.00000000
3.30587770 0.58755795 0.00003523 0.00000000
3.99045071 0.84512018 0.00021055 0.00000000
0.88119839 1.42398267 0.00140852 0.00000000
1.70060302 1.54583830 0.00397654 0.00000000
2.40219993 0.96150814 -0.00019193 0.00000000
4.66290774 0.96062396 0.00024874 0.00000000
1.31005846 0.92432723 -0.00056853 0.00000000
1.73777460 0.94041185 -0.00335613 0.00000000
0.52228185 1.26438781 0.00214523 0.00000000
0.12460051 0.02077536 -0.00176699 0.00000000
1.14903677 0.25700773 -0.00317450 0.00000000
0.25836759 0.11383505 0.00191436 0.00000000
1.31775580 0.12064161 -0.00211818 0.00000000
0.16756500 1.43346333 0.00043026 0.00000000
0.63244104 0.77468611 0.00008953 0.00000000
3.91236081 0.04341893 -0.00178204 0.00000000
2.69876393 1.52129234 -0.00074627 0.00000000
4.75646394 1.09067160 0.00348611 0.00000000
2.49294001 0.30105072 -0.00208917 0.00000000
2.82746589 1.11247003 0.00124631 0.00000000
2.73892792 1.13664439 0.00160038 0.00000000
1.63278351 0.02113135 0.00052408 0.00000000
0.02851294 0.22262505 0.00169926 0.00000000
3.12795705 0.87146790 0.00240633 0.00000000
2.64926046 1.37319198 -0.00154359 0.00000000
3.52095245 0.08996932 -0.00090435 0.00000000
4.15486835 1.07511735 0.00374359 0.00000000
0.68547868 0.77292967 -0.00054646 0.00000000
0.15856414 0.15656367 -0.00374855 0.00000000
0.57191130 0.38965600 -0.00115967 0.00000000
0.87409679 0.57487379 -0.00457265 0.00000000
4.05165624 1.59278775 0.00089882 0.00000000
0.25822259 0.24336332 0.00231937 0.00000000
4.24118127 0.34786776 0.00149994 0.00000000
2.76270107 1.32233699 0.00067284 0.00000000
2.33914590 1.47822661 0.00249673 0.00000000
2.52086123 0.23979034 -0.00128944 0.00000000
4.02778017 1.44866114 0.00323243 0.00000000
2.72015491 0.47289526 0.00200775 0.00000000
1.36915063 0.39348222 0.00006351 0.00000000
0.84542403 1.42945178 0.00255565 0.00000000
0.20717577 0.95815741 -0.00212008 0.00000000
2.52628162 0.30668218 -0.00422314 0.00000000
1.56067757 0.20659418 0.00192855 0.00000000
2.74280472 0.21871959 0.00052263 0.00000000
2.18847234 0.96114784 0.00085350 0.00000000
1.78577196 0.52247146 0.00105923 0.00000000
3.48670925 1.48119361 -0.00105370 0.00000000
4.48116975 1.43233562 -0.00119257 0.00000000
3.66084346 1.34756516 -0.00097383 0.00000000
0.83454480 1.17801971 0.00026916 0.00000000
4.24694867 0.22196929 0.00138425 0.00000000
4.00856410 1.55207143 -0.00437888 0.00000000
0.82360744 0.09702578 -0.00042097 0.00000000
4.54097669 0.50062954 -0.00219860 0.00000000
3.83371325 1.34587833 -0.00350988 0.00000000
0.69221864 0.12719418 -0.00343394 0.00000000
4.03154041 0.15423117 -0.00324215 0.00000000
1.85984054 0.58813098 0.00186628 0.00000000
3.87201517 0.81151800 0.00241249 0.00000000
3.55769798 0.84792827 0.00377236 0.00000000
1.73164795 1.25728817 0.00251486 0.00000000
4.56834375 0.75524402 -0.00227171 0.00000000
4.55022441 0.19680361 0.00240452 0.00000000
2.27647445 1.68865201 0.00106940 0.00000000
4.36992304 1.48110482 -0.00195406 0.00000000
1.80700958 0.62189413 -0.00096034 0.00000000
1.08289490 1.27737236 0.00358081 0.00000000
3.94889148 0.32188308 -0.00069930 0.00000000
2.97417323 1.03724412 0.00251480 0.00000000
4.65802258 0.72512228 0.00423052 0.00000000
1.95631631 0.45470937 0.00076660 0.00000000
0.01105302 1.10792119 0.00479132 0.00000000
3.80008488 0.76402681 -0.00131648 0.00000000
2.01729196 0.19855547 0.00102477 0.00000000
0.95221255 0.87146143 0.00050318 0.00000000
2.86659096 0.31206014 -0.00033775 0.00000000
3.74044909 0.73120331 -0.00101930 0.00000000
0.57697431 1.41760102 -0.00198759 0.00000000
2.27691399 0.82346472 -0.00223005 0.00000000
4.01726958 0.72791868 -0.00144203 0.00000000
1.69589099 0.21938313 -0.00004334 0.00000000
3.82946168 0.71614591 0.00019641 0.00000000
2.92901161 0.18907411 0.00119535 0.00000000
4.07591570 0.14296601 0.00100733 0.00000000
1.46224938 0.06791657 -0.00171869 0.00000000
3.68862762 1.15990889 0.00267255 0.00000000
3.18176659 0.60728846 0.00069131 0.00000000
2.98437416 0.78888288 -0.00315604 0.00000000
4.21241572 1.62487463 0.00180018 0.00000000
3.48212258 0.22148916 0.00134192 0.00000000
1.96995891 0.99268669 -0.00053219 0.00000000
2.64893205 0.38947711 0.00106197 0.00000000
2.51951179 1.16924667 0.00041148 0.00000000
2.46933615 1.27717681 0.00074868 0.00000000
3.66620969 0.57045869 -0.00172327 0.00000000
3.68756285 0.95675582 0.00046914 0.00000000
2.33389939 1.48746531 -0.00319934 0.00000000
1.64004066 0.49392329 -0.00022920 0.00000000
3.12656453 1.01172293 -0.00157224 0.00000000
4.23573803 0.06864471 -0.00073863 0.00000000
4.50663219 0.08002569 0.00179775 0.00000000
3.33915613 1.12783481 -0.00025124 0.00000000
0.62948341 1.16205779 0.00052105 0.00000000
4.55355285 1.56308548 0.00053594 0.00000000
3.71301055 0.39613455 -0.00100065 0.00000000
3.01982871 0.41167482 0.00092211 0.00000000
2.57397734 1.04346069 0.00253392 0.00000000
3.75861606 1.40550834 -0.00199220 0.00000000
2.94492417 1.53888291 -0.00125148 0.00000000
0.24092794 0.75701418 0.00186312 0.00000000
0.89932260 0.56272028 0.00104788 0.00000000
1.65813012 1.62475463 0.00106838 0.00000000
2.46709843 1.30833949 -0.00103168 0.00000000
0.26162622 0.02871946 -0.00328602 0.00000000
2.81889961 0.13557897 -0.00166656 0.00000000
3.20311513 1.33826379 0.00255803 0.00000000
1.98554165 1.21928081 0.00002966 0.00000000
2.81223816 1.16513244 -0.00529921 0.00000000
4.37011384 0.07407061 -0.00067453 0.00000000
2.09704693 0.85201195 -0.00176154 0.00000000
4.46409442 1.03103866 -0.00133062 0.00000000
0.38266018 1.64097740 0.00161533 0.00000000
0.05556189 1.44914909 -0.00062467 0.00000000
0.05631643 0.88115458 0.00111614 0.00000000
2.43077654 1.27607435 0.00236975 0.00000000
0.18566317 1.12911115 -0.00352956 0.00000000
4.16138370 1.06875768 -0.00121599 0.00000000
2.87855598 1.42003439 -0.00190380 0.00000000
2.13499118 0.50492881 -0.00200705 0.00000000
1.67353847 0.68263484 0.00271017 0.00000000
0.83628616 0.01786146 0.00468201 0.00000000
0.00409909 0.54535288 0.00413163 0.00000000
3.37141042 0.54933041 -0.00282534 0.00000000
4.30402262 0.27143256 -0.00037615 0.00000000
1.08891346 0.50068658 0.00214991 0.00000000
4.70348003 1.30825666 -0.00123286 0.00000000
2.44867837 0.40855702 -0.00435265 0.00000000
1.48857590 0.67927014 -0.00541465 0.00000000
4.34388400 1.54610679 -0.00064184 0.00000000
2.56249562 1.31499671 -0.00086574 0.00000000
2.82445205 1.64116132 0.00084414 0.00000000
1.37555970 1.03602727 -0.00087701 0.00000000
3.44094630 0.99148637 0.00161209 0.00000000
2.21061292 1.51310339 -0.00150784 0.00000000
0.54962597 0.53129502 -0.00243943 0.00000000
2.55807526 0.42079620 -0.00020194 0.00000000
3.81968283 0.15199250 0.00002040 0.00000000
1.37863332 1.50927019 -0.00174753 0.00000000
3.95975162 0.54556626 0.00130493 0.00000000
3.74592656 1.54236533 -0.00021166 0.00000000
0.75281427 0.17033009 -0.00625179 0.00000000
3.20303073 1.47067037 0.00012362 0.00000000
0.85653850 0.03690875 -0.00308543 0.00000000
1.21554282 0.36120235 -0.00147602 0.00000000
0.99455776 0.02391286 -0.00275939 0.00000000
0.76246358 0.47386452 0.00261635 0.00000000
3.18775511 1.06378618 0.00082884 0.00000000
0.72384681 1.25699362 -0.00232258 0.00000000
1.46250820 1.53315044 -0.00018320 0.00000000
0.81396668 0.49998485 -0.00355120 0.00000000
0.58551666 1.17741090 -0.00770654 0.00000000
4.35333917 0.80212302 0.00129006 0.00000000
2.46993639 0.42424268 0.00218787 0.00000000
0.49906879 0.20666647 -0.00160163 0.00000000
3.49529108 1.33709111 0.00111406 0.00000000
3.72333428 1.11428657 0.00083855 0.00000000
1.46530323 0.13756908 -0.00167007 0.00000000
1.58757336 1.17610613 -0.00205949 0.00000000
1.26634326 1.29051445 0.00270032 0.00000000
0.35493928 0.02282039 0.00111883 0.00000000
4.03386192 0.20478585 0.00017131 0.00000000
3.35611877 0.99822750 0.00188217 0.00000000
1.14403893 1.35960856 -0.00329413 0.00000000
1.08245049 0.30904042 0.00185962 0.00000000
0.79392646 0.86292626 0.00388503 0.00000000
3.22290299 1.37484201 -0.00030979 0.00000000
2.98699978 1.12951197 -0.00142298 0.00000000
4.56654897 0.15945878 0.00295377 0.00000000
2.65890870 0.62979734 0.00905140 0.00000000
0.29177414 0.30287545 -0.00353383 0.00000000
4.74741730 0.79782456 0.00245057 0.00000000
3.37908980 0.44955772 -0.00049182 0.00000000
0.19192304 0.40443035 -0.00112508 0.00000000
2.03691377 0.98482208 -0.00098393 0.00000000
4.66738266 0.13894862 0.00093358 0.00000000
1.67584598 1.57551916 0.00066823 0.00000000
3.20612958 0.78651059 -0.00345325 0.00000000
1.30907830 1.13119771 0.00131727 0.00000000
2.74463039 0.77834538 0.00237375 0.00000000
0.34214227 0.98651445 0.00112530 0.00000000
0.50007723 0.79987106 -0.00192636 0.00000000
0.00240286 0.29011609 0.00094171 0.00000000
4.09181584 1.00040154 0.00083106 0.00000000
0.71377225 0.42761911 0.00004156 0.00000000
1.20874061 1.13330947 -0.00240272 0.00000000
3.05185153 0.34576309 0.00152199 0.00000000
0.87807193 0.99485219 0.00054362 0.00000000
0.09450596 0.51765902 0.00067228 0.00000000
0.22954503 1.51437477 0.00053186 0.00000000
4.41779315 0.63342973 0.00192049 0.00000000
1.13784146 1.65365370 -0.00058638 0.00000000
4.26186548 0.71885198 -0.00137621 0.00000000
3.80561631 0.49991842 -0.00354965 0.00000000
0.65992549 0.19313039 -0.00188515 0.00000000
4.44786989 0.51305941 0.00022542 0.00000000
2.69036001 0.75594695 0.00126628 0.00000000
2.48494309 0.12764710 -0.00137290 0.00000000
4.46603156 0.87943772 0.00150188 0.00000000
1.67834415 1.42807066 0.00080841 0.00000000
0.93593056 0.86298376 -0.00106564 0.00000000
2.50931841 1.54292990 0.00299931 0.00000000
1.49712843 0.55199815 -0.00261690 0.00000000
2.84735433 1.06267425 -0.00305612 0.00000000
3.02798064 0.25991449 -0.00026886 0.00000000
1.62357188 1.02953425 0.00056619 0.00000000
1.45292892 1.20857275 0.00269870 0.00000000
3.26025926 0.81030897 -0.00399728 0.00000000
0.38705621 0.95422312 -0.00561047 0.00000000
2.72223107 0.45561828 0.00285182 0.00000000
1.87841639 0.31655801 0.00022873 0.00000000
4.56772394 0.14499095 0.00579855 0.00000000
1.40710259 1.31046828 -0.00018306 0.00000000
1.84057507 1.41896900 0.00066567 0.00000000
0.69461329 1.23584277 0.00415287 0.00000000
4.04505664 1.33480653 -0.00161781 0.00000000
4.04704476 1.28089979 -0.00076956 0.00000000
3.39293162 0.65228712 -0.00152834 0.00000000
2.85883927 0.20042423 0.00185108 0.00000000
2.57718020 0.83965521 -0.00072373 0.00000000
1.48553061 1.33908751 -0.00134532 0.00000000
1.86037910 0.31031387 -0.00381178 0.00000000
4.00660700 1.60380276 -0.00509231 0.00000000
3.83584609 0.29005888 -0.00079988 0.00000000
3.42699516 0.98201636 -0.00104069 0.00000000
2.55980451 1.58128236 -0.00144063 0.00000000
2.16804955 1.24759617 0.00260363 0.00000000
1.43347915 0.97925179 -0.00155096 0.00000000
1.47926350 0.28132842 -0.00286417 0.00000000
0.61152188 1.51118167 0.00199753 0.00000000
4.23873958 0.95615524 -0.00435788 0.00000000
1.35626697 1.30436003 0.00161122 0.00000000
0.96139984 0.57415773 -0.00172607 0.00000000
1.38885406 0.14453647 0.00135889 0.00000000
3.85163480 0.04001867 -0.00133061 0.00000000
2.85403705 1.30139898 0.00387039 0.00000000
4.59623148 0.61284851 -0.00090668 0.00000000
1.16921332 0.27373457 -0.00092182 0.00000000
3.63658188 0.49376612 -0.00258286 0.00000000
1.97052242 1.26117652 -0.00359432 0.00000000
2.85314936 1.49907408 -0.00242195 0.00000000
1.92771444 0.59408311 0.00385426 0.00000000
2.71071371 0.99498177 -0.00172734 0.00000000
2.60678110 0.44406480 -0.00325941 0.00000000
1.64590826 0.14322247 -0.00067902 0.00000000
2.59244967 0.75991782 -0.00329207 0.00000000
0.23729756 1.03264762 0.00047492 0.00000000
0.84198755 0.36862531 0.00354432 0.00000000
3.47600305 0.29313596 -0.00301156 0.00000000
0.10059488 1.25517469 -0.00018784 0.00000000
2.78356420 0.08819836 0.00081118 0.00000000
1.53042534 1.21649072 0.00489220 0.00000000
2.30292232 1.41899972 0.00055456 0.00000000
4.77495635 0.79914601 0.00001941 0.00000000
4.33487144 1.32002482 0.00393995 0.00000000
2.81689276 0.57205762 0.00213414 0.00000000
4.70419226 1.41771189 0.00534358 0.00000000
3.31352045 0.82373454 0.00145489 0.00000000
4.48174238 1.15390145 0.00145539 0.00000000
2.96994891 0.86755507 -0.00051274 0.00000000
3.21436236 0.66487955 -0.00179398 0.00000000
0.84612842 1.60072479 -0.00112914 0.00000000
2.14659560 0.71724546 -0.00210289 0.00000000
2.05268434 0.74547889 -0.00189572 0.00000000
