2.23125080 0.14150271 -0.00513273 0.00000000
3.98135589 2.05707021 0.00322075 0.00000000
1.23745339 0.12008332 0.00148212 0.00000000
1.87481328 0.49962971 -0.00088173 0.00000000
4.61912788 2.20305935 -0.00027265 0.00000000
1.95445059 1.28771209 -0.00254460 0.00000000
2.03881406 0.00914182 0.00245100 0.00000000
4.18308464 1.00739636 0.00147959 0.00000000
0.12651647 1.71429762 -0.00373356 0.00000000
2.12043070 0.44572605 0.00319821 0.00000000
4.65312125 0.14915604 0.00028542 0.00000000
1.61192454 1.98651537 -0.00027422 0.00000000
2.72783636 0.38939022 -0.00355429 0.00000000
3.67947356 1.63988582 0.00076450 0.00000000
0.33762824 1.26119304 0.00047477 0.00000000
1.34001078 0.47928822 -0.00069291 0.00000000
2.32660931 1.09181733 -0.00036940 0.00000000
4.54921633 0.18690277 -0.00250524 0.00000000
0.50686313 1.45161047 0.00161359 0.00000000
1.00554207 2.17218316 -0.00338181 0.00000000
1.19203008 1.05744176 -0.00255488 0.00000000
3.05460715 1.08475905 0.00404124 0.00000000
1.80325973 0.00878724 -0.00158338 0.00000000
1.05443791 2.04907324 -0.00059812 0.00000000
2.05512339 1.09510942 -0.00066832 0.00000000
0.51205156 0.36445650 0.00571164 0.00000000
3.97506685 1.22827166 0.00223961 0.00000000
1.04691807 1.31966810 0.00051271 0.00000000
2.50604302 0.35826328 -0.00212011 0.00000000
0.61821832 2.07944215 0.00144417 0.00000000
3.03449556 2.22740769 0.00261065 0.00000000
0.95836702 2.00115558 0.00010175 0.00000000
3.67717955 2.27667422 -0.00150280 0.00000000
2.91593376 2.19401774 -0.00325865 0.00000000
4.20144563 0.61961962 -0.00323948 0.00000000
2.80631863 0.94118917 -0.00218004 0.00000000
4.06031092 0.84014075 0.00185618 0.00000000
2.84399995 0.58259593 0.00088739 0.00000000
3.00660935 0.47267006 0.00282499 0.00000000
2.91363502 0.91254380 0.00267411 0.00000000
3.83842439 1.46709092 0.00200141 0.00000000
0.54953548 0.19911885 -0.00323922 0.00000000
1.56650129 1.00480835 -0.00242803 0.00000000
4.16972155 0.96716514 -0.00226041 0.00000000
0.27458752 1.81036630 -0.00244879 0.00000000
3.59772543 1.50023451 0.00351310 0.00000000
4.32974278 1.51330302 -0.00140020 0.00000000
4.10039628 2.23379723 0.00115982 0.00000000
0.67027806 0.63044790 -0.00289534 0.00000000
3.81618356 1.44954912 0.00265211 0.00000000
0.36286842 0.04125848 0.00137263 0.00000000
2.78167327 1.72542318 -0.00074058 0.00000000
2.38699970 0.65202182 0.00058489 0.00000000
4.76860018 0.33569473 -0.00391370 0.00000000
3.03089840 1.30022240 0.00022188 0.00000000
2.13045239 0.52196403 0.00027459 0.00000000
3.30547474 0.20507208 0.00082178 0.00000000
4.17789838 1.98450964 -0.00137202 0.00000000
1.51491557 1.25501024 0.00149420 0.00000000
1.01061736 1.22506982 0.00284874 0.00000000
2.41014631 1.07226523 0.00142393 0.00000000
2.14038891 0.51334152 -0.00215280 0.00000000
2.85843059 0.53047702 0.00439910 0.00000000
4.18528831 1.12851282 -0.00451701 0.00000000
1.23063283 0.30942657 -0.00036874 0.00000000
4.35110020 0.71097276 0.00283745 0.00000000
1.29204730 0.53684321 -0.00385940 0.00000000
3.93245762 0.64201524 -0.00124304 0.00000000
1.79119897 1.58404467 0.00220170 0.00000000
2.33306037 0.51345987 0.00442093 0.00000000
4.03097058 1.95032364 0.00080130 0.00000000
2.86056732 1.59958818 0.00178817 0.00000000
3.84525129 1.80341398 0.00020722 0.00000000
1.52832755 0.05720503 -0.00158075 0.00000000
2.82617076 0.39907702 0.00032143 0.00000000
1.91739452 1.09531783 0.00142132 0.00000000
4.26962852 1.78275067 -0.00146974 0.00000000
3.24340795 2.14506195 0.00194790 0.00000000
0.73870222 0.16288862 -0.00001354 0.00000000
3.84468513 1.87871488 -0.00057703 0.00000000
3.27370090 1.31197793 0.00186973 0.00000000
0.69607224 1.22270096 0.00224046 0.00000000
0.14857784 1.85293367 0.00264869 0.00000000
0.43449538 0.66890296 -0.00090420 0.00000000
0.90449129 0.82510500 0.00006426 0.00000000
2.08110507 1.23733084 -0.00490721 0.00000000
1.26240061 1.51122911 0.00199739 0.00000000
3.49396510 0.00031000 -0.00409382 1.00000000
3.32920505 -0.00384283 0.00001669 1.00000000
3.27080730 -0.00026456 -0.00593106 1.00000000
0.02640287 0.00135766 0.00109246 1.00000000
0.70149571 0.00180291 -0.00270484 1.00000000
0.07652039 0.00154049 -0.00132420 1.00000000
1.46242012 -0.00084820 0.00160063 1.00000000
3.41245910 -0.00227803 0.00148489 1.00000000
1.77598267 0.00149826 -0.00139133 1.00000000
1.95752897 0.00203807 -0.00010083 1.00000000
2.50518831 0.00113244 -0.00016061 1.00000000
3.20064808 -0.00045256 -0.00229209 1.00000000
1.42799265 -0.00028016 0.00465741 1.00000000
4.30095986 0.00030648 0.00425532 1.00000000
0.38115493 0.00005170 -0.00025330 1.00000000
1.20550907 -0.00283171 0.00026807 1.00000000
4.47218799 0.00091714 -0.00059967 1.00000000
0.14063576 -0.00200775 0.00126328 1.00000000
3.68486675 0.00355591 0.00140540 1.00000000
4.78240365 0.00527894 0.00292700 1.00000000
0.65111539 0.00131526 0.00233888 1.00000000
1.93124999 -0.00316261 -0.00238780 1.00000000
1.16691592 -0.00156410 0.00567804 1.00000000
2.21778091 -0.00150806 -0.00093463 1.00000000
0.20251360 0.00120845 0.00067581 1.00000000
0.27919681 0.00420804 -0.00082273 1.00000000
2.04597756 0.00513958 0.00547296 1.00000000
0.38432424 0.00225787 0.00202312 1.00000000
4.53632597 -0.00123240 -0.00034883 1.00000000
4.38032064 -0.00030267 0.00096174 1.00000000
3.62375305 -0.00325897 0.00007902 1.00000000
3.35733896 -0.00384453 0.00392138 1.00000000
2.16288761 0.00301838 0.00189318 1.00000000
1.34900813 0.00134107 -0.00484070 1.00000000
2.26601697 0.00347799 -0.00038008 1.00000000
3.97736094 0.00245319 0.00306887 1.00000000
1.07672481 0.00221137 -0.00099159 1.00000000
1.64236970 0.00416876 -0.00080578 1.00000000
4.00084759 0.00603079 0.00021606 1.00000000
0.25078567 0.00100374 0.00207023 1.00000000
1.61273743 -0.00068557 0.00309669 1.00000000
0.98619425 0.00031784 -0.00285343 1.00000000
2.42244534 0.00356536 -0.00040338 1.00000000
2.79837311 0.00154279 -0.00090317 1.00000000
4.56126356 0.00173033 0.00186632 1.00000000
0.69356690 -0.00090019 0.00390147 1.00000000
4.73932597 -0.00219717 -0.00184210 1.00000000
2.20516732 0.00460355 0.00135802 1.00000000
2.06071854 -0.00086641 -0.00484459 1.00000000
0.74297034 0.00227941 -0.00037729 1.00000000
0.59752103 0.00352904 -0.00199599 1.00000000
1.07743944 0.00153843 -0.00390718 1.00000000
3.01265686 0.00560374 0.00515776 1.00000000
2.21938803 0.00616579 -0.00033543 1.00000000
3.70967094 0.00002777 0.00333495 1.00000000
3.61939676 0.00272449 -0.00058925 1.00000000
2.12994843 0.00052320 -0.00103906 1.00000000
3.77859530 0.00071436 -0.00283362 1.00000000
2.98913514 0.00367886 0.00218470 1.00000000
3.17164458 0.00198578 0.00357050 1.00000000
0.72945170 -0.00006044 -0.00015103 1.00000000
0.45664064 0.00372085 0.00120932 1.00000000
4.01641078 -0.00213378 -0.00174589 1.00000000
1.03071927 0.00067242 0.00391645 1.00000000
3.57132024 0.00464004 -0.00049958 1.00000000
3.58205926 0.00156773 0.00559518 1.00000000
3.09995197 -0.00063117 -0.00131803 1.00000000
1.03961322 -0.00025550 0.00165877 1.00000000
3.79695466 -0.00360982 -0.00024345 1.00000000
1.75461004 0.00560919 -0.00067033 1.00000000
1.89928590 -0.00444220 0.00183509 1.00000000
4.60826505 0.00056533 -0.00062500 1.00000000
3.21415858 -0.00380935 -0.00492409 1.00000000
4.75680032 -0.00022991 -0.00034159 1.00000000
4.44570685 -0.00038801 0.00209367 1.00000000
1.51840284 0.00143851 -0.00104179 1.00000000
3.98214935 0.00443520 0.00628757 1.00000000
1.39014984 -0.00053356 -0.00239075 1.00000000
4.09996434 0.00061423 0.00096238 1.00000000
4.20267609 0.00274153 -0.00080420 1.00000000
1.09761455 -0.00271396 0.00140482 1.00000000
0.12290858 -0.00101098 -0.00219137 1.00000000
4.46154094 0.00370672 -0.00045420 1.00000000
3.20559533 -0.00176700 0.00260723 1.00000000
2.34348267 -0.00075340 0.00307199 1.00000000
0.63084647 0.00349291 0.00427592 1.00000000
2.09217608 0.00344271 -0.00197528 1.00000000
1.64875978 0.00193358 -0.00088645 1.00000000
0.23566918 0.00141657 -0.00311884 1.00000000
3.95344131 -0.00296174 -0.00294212 1.00000000
1.04088303 0.00125525 -0.00238953 1.00000000
0.84273081 0.00182610 -0.00117543 1.00000000
3.92018597 -0.00278945 0.00074313 1.00000000
3.39044694 -0.00351192 0.00053307 1.00000000
4.41541598 -0.00009736 -0.00046831 1.00000000
1.04497416 0.00113414 -0.00170294 1.00000000
3.46620425 -0.00183793 -0.00100447 1.00000000
1.03846928 -0.00086245 -0.00086386 1.00000000
1.77691460 -0.00231846 0.00117895 1.00000000
0.26686954 -0.00184862 -0.00490850 1.00000000
3.75245123 0.00142010 0.00379134 1.00000000
1.94327716 0.00243624 0.00470357 1.00000000
2.75247578 0.00241177 0.00006300 1.00000000
2.73116874 -0.00257508 -0.00449838 1.00000000
3.23240119 0.00125665 -0.00354854 1.00000000
0.34036572 0.00029564 0.00141383 1.00000000
4.26807871 -0.00198989 0.00087947 1.00000000
0.84732050 -0.00045808 -0.00167088 1.00000000
1.39662652 0.00075616 0.00074166 1.00000000
3.69390206 0.00004454 -0.00034117 1.00000000
0.61019263 -0.00066519 0.00172901 1.00000000
0.91377554 0.00333825 0.00364310 1.00000000
2.44251559 0.00287512 0.00550369 1.00000000
0.74670013 -0.00027543 0.00256372 1.00000000
0.14848395 -0.00269072 0.00141542 1.00000000
3.03286191 -0.00260598 0.00041497 1.00000000
3.41916163 0.00061341 0.00099334 1.00000000
1.41086368 -0.00016568 0.00025344 1.00000000
1.82429818 -0.00300760 -0.00064369 1.00000000
3.44351930 0.00022350 0.00174548 1.00000000
3.93648590 -0.00401059 -0.00123746 1.00000000
3.58516869 -0.00095633 -0.00023973 1.00000000
1.52821025 -0.00256595 0.00154867 1.00000000
0.40311196 -0.00209105 -0.00445294 1.00000000
2.20442989 -0.00047002 0.00330016 1.00000000
1.35972750 -0.00296691 0.00227136 1.00000000
1.05191006 -0.00031218 0.00184036 1.00000000
3.15605316 -0.00074520 0.00163844 1.00000000
1.81061335 -0.00233731 -0.00403660 1.00000000
1.55199580 0.00173358 -0.00065622 1.00000000
4.41099170 -0.00154127 -0.00002833 1.00000000
3.76367535 -0.00190326 0.00312781 1.00000000
2.40915970 0.00352919 -0.00519323 1.00000000
4.29725281 0.00536378 -0.00176988 1.00000000
1.13071253 -0.00075808 0.00128530 1.00000000
0.74693689 -0.00190454 -0.00178339 1.00000000
0.87822841 -0.00136972 0.00008537 1.00000000
4.46519512 -0.00205955 -0.00098481 1.00000000
0.11420257 0.00007398 0.00241593 1.00000000
0.41505575 0.00353042 -0.00394268 1.00000000
1.74259425 0.00184218 -0.00124375 1.00000000
2.93138827 -0.00181773 -0.00063097 1.00000000
2.57670453 -0.00121422 0.00019748 1.00000000
2.55831413 0.00091163 0.00690532 1.00000000
0.93708920 0.00311280 0.00242357 1.00000000
4.58721729 -0.00050590 -0.00196686 1.00000000
0.54026945 -0.00079473 0.00158211 1.00000000
2.26236195 0.00128166 -0.00292899 1.00000000
2.45015663 0.00070982 -0.00036059 1.00000000
4.15807214 0.00089595 0.00110745 1.00000000
4.13116986 0.00456533 -0.00143158 1.00000000
0.94401080 -0.00403987 -0.00150497 1.00000000
1.00258499 -0.00183350 0.00088862 1.00000000
1.14100201 0.00127368 -0.00601901 1.00000000
0.78908979 -0.00154602 -0.00103361 1.00000000
4.66335659 -0.00119592 0.00147754 1.00000000
1.13573664 -0.00300014 0.00224319 1.00000000
1.13934451 -0.00074069 0.00051537 1.00000000
3.40790985 0.00232036 0.00042968 1.00000000
0.15816244 0.00084210 0.00081162 1.00000000
1.41220963 0.00056839 0.00073781 1.00000000
3.06299926 0.00161565 -0.00382239 1.00000000
1.33479231 0.00184506 0.00141937 1.00000000
3.73824777 0.00145974 0.00139763 1.00000000
0.94078283 0.00242172 -0.00030514 1.00000000
4.65009053 0.00467921 -0.00196117 1.00000000
3.72237885 -0.00153096 0.00074333 1.00000000
3.26831624 0.00328481 -0.00413094 1.00000000
4.20364795 -0.00000190 0.00331011 1.00000000
0.52255903 0.00125783 -0.00299257 1.00000000
2.35902429 -0.00194286 0.00127118 1.00000000
4.38122641 -0.00658102 -0.00429663 1.00000000
4.45673699 -0.00109341 -0.00128612 1.00000000
3.97200056 0.00381647 0.00134467 1.00000000
3.67427697 -0.00006142 -0.00272491 1.00000000
4.65996508 -0.00071711 0.00093568 1.00000000
2.95145281 -0.00215020 -0.00306378 1.00000000
2.21768901 0.00200367 -0.00058431 1.00000000
0.84807225 -0.00265016 -0.00343388 1.00000000
2.51759144 -0.00189371 -0.00316333 1.00000000
0.08960395 0.00214308 -0.00031746 1.00000000
1.18378356 -0.00084928 0.00118779 1.00000000
4.07296429 0.00030016 0.00202861 1.00000000
0.16928589 0.00089996 0.00009704 1.00000000
1.60415239 -0.00272737 -0.00045778 1.00000000
0.20547624 -0.00001291 0.00526816 1.00000000
0.81341290 0.00314705 -0.00234490 1.00000000
3.37572780 0.00047258 -0.00194616 1.00000000
1.22521432 0.00074768 0.00081977 1.00000000
3.25989206 -0.00016176 0.00389251 1.00000000
2.59761277 0.00053491 0.00147281 1.00000000
0.31751197 -0.00015528 -0.00042179 1.00000000
1.55234681 -0.00165600 -0.00177231 1.00000000
1.46234451 0.00074217 -0.00408685 1.00000000
1.41686990 0.00089004 -0.00596075 1.00000000
1.38452247 0.00114549 0.00051756 1.00000000
0.18964169 -0.00201554 -0.00106500 1.00000000
0.32776964 0.00091428 -0.00195179 1.00000000
2.99070655 0.00043067 0.00199696 1.00000000
2.94798344 -0.00310217 -0.00225059 1.00000000
4.28974789 0.00144672 0.00130305 1.00000000
4.26679849 -0.00195882 0.00301681 1.00000000
0.02915760 -0.00325905 -0.00429346 1.00000000
1.66448031 -0.00256398 0.00053267 1.00000000
0.41415468 -0.00147741 -0.00247605 1.00000000
1.41999584 -0.00002109 -0.00187057 1.00000000
1.96839660 0.00040224 -0.00171114 1.00000000
3.36651811 -0.00248298 -0.00130205 1.00000000
2.07160375 0.00611474 0.00111780 1.00000000
0.46378118 0.00243736 -0.00440991 1.00000000
1.47580708 0.00549523 -0.00230357 1.00000000
3.40530356 -0.00158490 -0.00121205 1.00000000
2.37016888 -0.00339656 0.00336818 1.00000000
0.50090834 -0.00181146 -0.00177351 1.00000000
0.76882359 -0.00488608 -0.00068756 1.00000000
2.32520617 -0.00039914 -0.00053063 1.00000000
0.58594154 -0.00045675 0.00221156 1.00000000
4.39944094 -0.00251732 0.00315611 1.00000000
3.77542678 -0.00378495 0.00256303 1.00000000
4.54883926 -0.00071206 -0.00176895 1.00000000
1.00166803 0.00134626 0.00359248 1.00000000
4.11470365 -0.00136062 0.00102884 1.00000000
1.83086495 0.00129508 -0.00422883 1.00000000
2.87092527 0.00178149 -0.00094625 1.00000000
1.50565861 -0.00165285 -0.00390021 1.00000000
1.64396546 0.00579042 -0.00395848 1.00000000
3.56192332 0.00140163 -0.00139965 1.00000000
0.56050174 -0.00052504 -0.00438854 1.00000000
2.73656124 0.00072742 0.00206752 1.00000000
0.30482807 0.00023512 0.00350684 1.00000000
1.48696848 -0.00153104 -0.00301473 1.00000000
0.77833716 0.00425675 -0.00025170 1.00000000
4.10712479 -0.00443919 0.00046851 1.00000000
4.54753185 0.00230413 -0.00270240 1.00000000
0.83384617 -0.00169861 0.00429001 1.00000000
1.21325684 -0.00181561 -0.00135022 1.00000000
4.42402829 -0.00183347 0.00217582 1.00000000
3.97891185 0.00181003 0.00343800 1.00000000
4.67222082 -0.00101939 -0.00027920 1.00000000
3.88211514 -0.00182449 -0.00532090 1.00000000
3.86110858 -0.00084857 0.00042495 1.00000000
1.52470591 -0.00014375 -0.00260740 1.00000000
1.22072610 -0.00378539 0.00080139 1.00000000
4.69263227 0.00040586 0.00108312 1.00000000
1.10105666 -0.00316268 -0.00256773 1.00000000
4.41274720 0.00076074 -0.00451483 1.00000000
4.14710617 -0.00050083 0.00333334 1.00000000
4.21195793 -0.00008101 0.00030558 1.00000000
0.12219360 0.00384193 0.00482329 1.00000000
3.78865490 -0.00061178 0.00240076 1.00000000
0.85902647 -0.00176137 -0.00133057 1.00000000
1.61712011 0.00094134 0.00122238 1.00000000
1.78222809 0.00119475 -0.00261874 1.00000000
0.84838852 -0.00144204 -0.00164786 1.00000000
2.47877370 -0.00208594 -0.00208914 1.00000000
2.12670942 -0.00271553 0.00127444 1.00000000
1.19444649 0.00050241 -0.00048802 1.00000000
4.77178940 -0.00195165 -0.00721676 0.00000000
0.03354203 -0.00090377 -0.16119783 0.00000000
0.85680042 -0.00174721 -0.17861691 0.00000000
4.01636447 -0.00098419 -0.03365116 0.00000000
3.37190377 0.00357787 -0.00984026 0.00000000
4.23227180 -0.00361042 -0.25587325 0.00000000
3.68410836 0.00040003 -0.16135545 0.00000000
0.19552545 0.00009456 -0.15230870 0.00000000
3.02566491 -0.00228254 -0.09748494 0.00000000
2.65308549 -0.00080512 -0.08609494 0.00000000
3.96758083 0.00029412 -0.17522385 0.00000000
3.92306285 -0.00209319 -0.19122616 0.00000000
2.13706295 0.00114116 -0.20527190 0.00000000
2.23750795 -0.00434236 -0.19897863 0.00000000
0.97016871 0.00176166 -0.08216121 0.00000000
1.48978942 -0.00111178 -0.04350947 0.00000000
1.56796053 -0.00004533 -0.12123400 0.00000000
2.43340617 -0.00083176 -0.04231875 0.00000000
1.16359740 -0.00262645 -0.22357201 0.00000000
1.57394770 0.00243704 -0.13188118 0.00000000
0.18436955 0.00015703 -0.12392307 0.00000000
3.42816810 -0.00228756 -0.20799426 0.00000000
2.54564848 -0.00222516 -0.00744157 0.00000000
4.53210637 -0.00436663 -0.10698840 0.00000000
1.06045663 0.00058765 -0.24354965 0.00000000
3.28861679 0.00012996 -0.24163984 0.00000000
3.04522975 -0.00241976 -0.15634598 0.00000000
2.27937724 -0.00142446 -0.03533022 0.00000000
0.89795086 -0.00394139 -0.26111942 0.00000000
4.61078557 0.00179886 -0.00449422 0.00000000
2.27596367 -0.00381795 -0.23857258 0.00000000
2.44209719 -0.00712669 -0.21117968 0.00000000
3.58464130 -0.00476918 -0.12997092 0.00000000
3.42998716 -0.00314516 -0.23260818 0.00000000
1.40817568 -0.00112473 -0.10191374 0.00000000
2.18181523 -0.00479771 -0.08126406 0.00000000
3.42876055 -0.00718612 -0.18700836 0.00000000
0.55261629 0.00280566 -0.05426484 0.00000000
1.60007301 -0.00169256 -0.03882492 0.00000000
3.81708814 -0.00295176 -0.02321940 0.00000000
0.98567041 0.00180910 -0.21932152 0.00000000
4.76555131 -0.00066311 -0.11208880 0.00000000
0.61271871 -0.00453044 -0.11737991 0.00000000
2.77823368 -0.00424045 -0.15808409 0.00000000
2.64779845 -0.00844544 -0.14761978 0.00000000
0.72423434 -0.00362962 -0.26349619 0.00000000
0.03145608 0.00180681 -0.10751520 0.00000000
2.44136048 -0.00439670 -0.13137302 0.00000000
1.60448889 -0.00072591 -0.08328478 0.00000000
2.21747266 -0.00295943 -0.16987149 0.00000000
3.74014434 0.00234566 -0.01163880 0.00000000
1.73198419 0.00060442 -0.08805509 0.00000000
2.71399357 -0.00041372 -0.01640307 0.00000000
4.51258767 0.00273615 -0.02069858 0.00000000
3.68758999 -0.00128019 -0.21856109 0.00000000
2.85718997 -0.00046698 -0.06364522 0.00000000
3.50234180 -0.00154533 -0.07871352 0.00000000
2.15358373 0.00291553 -0.08612883 0.00000000
0.28483513 -0.00435621 -0.21635221 0.00000000
0.71004210 0.00002608 -0.22154157 0.00000000
3.92451073 0.00118158 -0.01329110 0.00000000
2.00385167 -0.00454653 -0.18610956 0.00000000
4.09354171 -0.00329038 -0.13002673 0.00000000
0.46331624 -0.00415831 -0.10036390 0.00000000
2.91822273 -0.00407414 -0.21867289 0.00000000
1.51406628 -0.00254149 -0.02030066 0.00000000
1.06995139 -0.00162921 -0.16028591 0.00000000
4.20573099 0.00366962 -0.05308453 0.00000000
2.59998445 -0.00456017 -0.09475987 0.00000000
3.68032015 0.00040969 -0.01494707 0.00000000
4.50911702 0.00190860 -0.10734679 0.00000000
2.59407711 -0.00078276 -0.12698132 0.00000000
4.75499862 0.00009205 -0.05204572 0.00000000
3.15378392 -0.00020690 -0.07189312 0.00000000
0.68568696 0.00118107 -0.07116895 0.00000000
3.38036183 -0.00187600 -0.02745015 0.00000000
0.65152292 -0.00051112 -0.02280971 0.00000000
3.82850506 -0.00234437 -0.04873876 0.00000000
2.84848212 -0.00020163 -0.08692420 0.00000000
0.78840023 -0.00287538 -0.25771084 0.00000000
3.83596480 0.00064686 -0.09493314 0.00000000
0.13316341 -0.00520436 -0.25419054 0.00000000
4.76654019 0.00035115 -0.00480538 0.00000000
2.03838666 -0.00397706 -0.12374181 0.00000000
3.75427508 -0.00385318 -0.03751170 0.00000000
4.12331073 -0.00344195 -0.26011643 0.00000000
4.53549162 -0.00675990 -0.15599832 0.00000000
3.39891559 -0.00119331 -0.15542123 0.00000000
1.68342524 -0.00083903 -0.26052979 0.00000000
4.64898735 -0.00298567 -0.05184067 0.00000000
4.34292456 -0.00196183 -0.22628225 0.00000000
1.03051191 0.00077720 -0.16310792 0.00000000
0.51321423 -0.00363687 -0.23800221 0.00000000
1.90132945 -0.00085050 -0.04456892 0.00000000
0.04083757 0.00227333 -0.05632254 0.00000000
4.44360605 -0.00597814 -0.14153722 0.00000000
0.81462887 -0.00080131 -0.16418226 0.00000000
0.19005295 -0.00194536 -0.08425479 0.00000000
0.76630126 -0.00048155 -0.00436408 0.00000000
2.29104189 -0.00323436 -0.11812856 0.00000000
3.77601968 0.00191590 -0.04937963 0.00000000
2.70166105 -0.00378019 -0.02954782 0.00000000
0.42642072 -0.00052461 -0.16931053 0.00000000
2.28275977 -0.00686785 -0.04799642 0.00000000
2.75170094 0.00066387 -0.14963170 0.00000000
3.57796522 0.00094304 -0.18811009 0.00000000
2.12502504 -0.00607872 -0.22235425 0.00000000
2.56432325 -0.00185633 -0.20594445 0.00000000
1.51550171 -0.00205529 -0.17814724 0.00000000
0.59113746 -0.00247887 -0.03939567 0.00000000
3.20524865 -0.00080602 -0.24168098 0.00000000
1.86144754 -0.00051700 -0.13624397 0.00000000
0.02333171 -0.00079382 -0.15838522 0.00000000
0.20186787 0.00289302 -0.02689530 0.00000000
1.55896238 -0.00028612 -0.04144519 0.00000000
2.64575584 -0.00125208 -0.00106896 0.00000000
2.20252816 0.00034861 -0.11382995 0.00000000
0.85449616 0.00553026 -0.11202695 0.00000000
0.59338427 -0.00495881 -0.20312992 0.00000000
4.40089708 -0.00186096 -0.20737135 0.00000000
1.80042859 0.00158785 -0.00093276 0.00000000
1.63416803 0.00733054 -0.02389483 0.00000000
0.56153482 -0.00279336 -0.04286953 0.00000000
4.04743310 0.00102542 -0.17296990 0.00000000
1.90340524 -0.00164875 -0.10928420 0.00000000
3.71409262 -0.00209422 -0.07477150 0.00000000
0.19589513 -0.00164827 -0.25543742 0.00000000
4.02366792 -0.00241795 -0.24321458 0.00000000
2.36760268 0.00075033 -0.23797860 0.00000000
3.56967543 -0.00207814 -0.02271764 0.00000000
2.90071078 0.00002792 -0.02903770 0.00000000
0.53298439 0.00256542 -0.18040863 0.00000000
1.45211237 -0.00250922 -0.23753746 0.00000000
2.57183478 -0.00015192 -0.11653264 0.00000000
3.15057264 -0.00536321 -0.13275935 0.00000000
0.35944353 -0.00101885 -0.23786856 0.00000000
4.44660504 -0.00297872 -0.04406494 0.00000000
3.40576187 -0.00015351 -0.07156299 0.00000000
1.07111147 -0.00368036 -0.07601134 0.00000000
4.59607590 0.00158258 -0.10900717 0.00000000
1.03799485 0.00346188 -0.01389157 0.00000000
3.58944823 -0.00417114 -0.17830164 0.00000000
2.18582307 0.00095168 -0.05253574 0.00000000
0.90113961 -0.00247918 -0.08911149 0.00000000
2.84692270 -0.00342080 -0.04687320 0.00000000
2.59345166 -0.00515625 -0.23193430 0.00000000
4.30433623 -0.00164141 -0.08186312 0.00000000
1.49307130 -0.00375361 -0.14849092 0.00000000
3.41770666 -0.00266473 -0.19229879 0.00000000
0.35475727 0.00051172 -0.09548462 0.00000000
4.32495223 0.00139063 -0.03812158 0.00000000
3.56193212 -0.00021483 -0.25873019 0.00000000
4.05308867 -0.00297675 -0.23993806 0.00000000
0.48428791 0.00252673 -0.06682818 0.00000000
4.48017971 0.00148664 -0.06431198 0.00000000
1.33066860 -0.00343890 -0.20676684 0.00000000
2.74930074 0.00090790 -0.11667521 0.00000000
2.34104664 0.00213942 -0.02646560 0.00000000
4.38990540 -0.00270510 -0.16798223 0.00000000
3.58100592 -0.00204101 -0.19142001 0.00000000
2.47330323 -0.00558359 -0.19259810 0.00000000
3.05034652 -0.00025671 -0.16593658 0.00000000
0.07929907 -0.00271839 -0.19860920 0.00000000
2.33490302 -0.00192118 -0.19134255 0.00000000
0.01108798 -0.00332062 -0.21799690 0.00000000
1.65832743 0.00011548 -0.26105675 0.00000000
4.54727876 -0.00188663 -0.11690587 0.00000000
0.52496212 -0.00053312 -0.04221166 0.00000000
2.56013180 -0.00128106 -0.14983602 0.00000000
0.96030103 -0.00747583 -0.10632341 0.00000000
1.48477154 -0.00125387 -0.06784599 0.00000000
4.52747867 0.00138188 -0.16052644 0.00000000
3.48033532 0.00185860 -0.07504019 0.00000000
0.39610891 -0.00348204 -0.20619070 0.00000000
2.07171750 -0.00369148 -0.21206208 0.00000000
2.73539616 -0.00458131 -0.13274166 0.00000000
1.37064675 -0.00820219 -0.24099600 0.00000000
2.83948855 0.00376700 -0.07106235 0.00000000
2.83865833 0.00303779 -0.08548210 0.00000000
0.77576134 0.00401825 -0.09696011 0.00000000
1.91151801 -0.00044407 -0.23314608 0.00000000
2.83716035 0.00026353 -0.15930262 0.00000000
3.29688156 -0.00254251 -0.07791200 0.00000000
1.07605287 -0.00008638 -0.16038082 0.00000000
3.34990237 0.00018573 -0.04615111 0.00000000
1.57914945 0.00042449 -0.18625715 0.00000000
2.22037882 -0.00366881 -0.24286655 0.00000000
0.81632247 -0.00200869 -0.17205337 0.00000000
1.05633008 -0.00536421 -0.25843394 0.00000000
1.11226858 -0.00381746 -0.17582183 0.00000000
3.52190379 -0.00017024 -0.07268238 0.00000000
4.70670382 -0.00152770 -0.26517719 0.00000000
4.62958104 -0.00006677 -0.16881141 0.00000000
1.28134183 -0.00467223 -0.13576667 0.00000000
0.48182527 -0.00248359 -0.19007853 0.00000000
3.24923026 -0.00132963 -0.00163833 0.00000000
0.48075040 -0.00614557 -0.21992468 0.00000000
0.87550022 0.00145243 -0.03369051 0.00000000
0.95060427 -0.00159867 -0.22505024 0.00000000
3.48223840 -0.00344079 -0.19765119 0.00000000
1.19333706 0.00218236 -0.12364015 0.00000000
0.47559430 0.00052269 -0.02647659 0.00000000
3.81091725 -0.00439145 -0.11110887 0.00000000
3.74485035 -0.00158115 -0.08478534 0.00000000
1.82263523 -0.00046248 -0.17779342 0.00000000
1.21447322 -0.00083558 -0.14197480 0.00000000
2.19283380 0.00007040 -0.14047669 0.00000000
2.82742319 0.00187115 -0.15590370 0.00000000
1.66907585 -0.00399552 -0.26694357 0.00000000
0.14671352 -0.00203742 -0.16089833 0.00000000
4.69261921 -0.00529051 -0.25769607 0.00000000
4.62667612 0.00011371 -0.08692594 0.00000000
1.20422316 -0.00220174 -0.23374566 0.00000000
4.46126553 0.00025165 -0.13051732 0.00000000
3.40249699 0.00023761 -0.07668628 0.00000000
4.20631121 -0.00266021 -0.11476365 0.00000000
1.90233173 -0.00334047 -0.18749031 0.00000000
1.71723152 -0.00025752 -0.02179945 0.00000000
1.58803415 -0.00063545 -0.21275451 0.00000000
2.81354029 -0.00087001 -0.04767788 0.00000000
0.72471990 0.00269057 -0.10134759 0.00000000
3.08213727 -0.00139405 -0.10644544 0.00000000
2.63215534 0.00289743 -0.05964304 0.00000000
0.32930588 -0.00289394 -0.12425757 0.00000000
2.41747866 -0.00410760 -0.14725081 0.00000000
1.91350075 -0.00303207 -0.10954049 0.00000000
1.88401521 -0.00179136 -0.17661248 0.00000000
3.33221180 0.00042877 -0.17919361 0.00000000
3.43220355 -0.00043023 -0.21253343 0.00000000
0.05190676 -0.00255031 -0.12490079 0.00000000
2.03957663 -0.00335797 -0.06050720 0.00000000
0.47871978 -0.00242872 -0.06968746 0.00000000
0.55662673 -0.00097067 -0.18929483 0.00000000
4.08321080 0.00293869 -0.02775476 0.00000000
2.46093916 -0.00393683 -0.15096498 0.00000000
3.79296878 -0.00117985 -0.10877511 0.00000000
1.87627856 -0.00230317 -0.04383823 0.00000000
3.30130686 -0.00055633 -0.08116840 0.00000000
2.53155006 0.00072120 -0.17134073 0.00000000
3.41522932 0.00455763 -0.19588715 0.00000000
1.69395294 -0.00214385 -0.14214340 0.00000000
0.83890336 -0.00219728 -0.17088531 0.00000000
2.42302716 0.00058936 -0.24306235 0.00000000
1.62524960 0.00274174 -0.03799819 0.00000000
1.12444739 -0.00280272 -0.16957999 0.00000000
0.76979280 -0.00327696 -0.01805916 0.00000000
0.50167807 -0.00277212 -0.24829568 0.00000000
4.47588345 -0.00003286 -0.04002929 0.00000000
2.39941427 -0.00374687 -0.10477226 0.00000000
2.61850877 -0.00152379 -0.03343544 0.00000000
1.05016523 -0.00094475 -0.22013047 0.00000000
1.37864921 0.00076751 -0.07197538 0.00000000
2.34520422 -0.00073598 -0.19606357 0.00000000
2.01891501 0.00249260 -0.04703615 0.00000000
1.38890536 -0.00273976 -0.18815197 0.00000000
4.64710665 -0.00001235 -0.14426295 0.00000000
0.43881079 0.00100975 -0.06901409 0.00000000
3.30405405 -0.00395562 -0.15761597 0.00000000
1.86230976 -0.00357074 -0.18046885 0.00000000
0.12243304 -0.00177799 -0.19413407 0.00000000
1.54894982 0.00261105 -0.19625440 0.00000000
3.74144425 0.00052593 -0.08423398 0.00000000
4.30442614 0.00266571 -0.24682197 0.00000000
1.80547427 -0.00035260 -0.26291893 0.00000000
3.14812662 0.00090333 -0.12061575 0.00000000
1.10309011 -0.00286243 -0.16331927 0.00000000
3.12639056 0.00126189 -0.08229670 0.00000000
3.30458123 0.00021550 -0.11705968 0.00000000
4.53734661 -0.00421927 -0.21412520 0.00000000
0.19813818 -0.00356473 -0.20848315 0.00000000
2.17810953 -0.00513613 -0.11351766 0.00000000
3.19539346 0.00091883 -0.07942553 0.00000000
3.84687548 -0.00401993 -0.13285578 0.00000000
4.27371330 -0.00105218 -0.10092450 0.00000000
1.25544162 -0.00369773 -0.01423932 0.00000000
2.08976304 -0.00027320 -0.07071236 0.00000000
3.73543365 0.00003188 -0.11345929 0.00000000
3.57613939 -0.00307013 -0.08720375 0.00000000
4.18397197 -0.00142079 -0.18353638 0.00000000
2.91885293 -0.00134239 -0.10423656 0.00000000
0.03306315 -0.00680382 -0.22851689 0.00000000
0.38912919 -0.00108821 -0.21434791 0.00000000
0.91605637 -0.00326488 -0.22308727 0.00000000
4.77218659 -0.00029864 -0.10060935 0.00000000
2.08926030 0.00098616 -0.20059689 0.00000000
3.69000318 0.00014720 -0.14659161 0.00000000
1.68805345 -0.00236965 -0.04954912 0.00000000
2.15128150 -0.00115788 -0.17960608 0.00000000
0.92132305 -0.00319043 -0.25771683 0.00000000
3.04530740 -0.00270439 -0.18787694 0.00000000
1.55407272 -0.00348097 -0.17937849 0.00000000
4.54839083 -0.00124651 -0.13100276 0.00000000
2.77226758 -0.00396350 -0.10078174 0.00000000
2.50423906 -0.00372066 -0.23945366 0.00000000
1.48010486 -0.00297190 -0.23043902 0.00000000
0.79913626 0.00297535 -0.07130691 0.00000000
4.42843776 0.00430609 -0.02251942 0.00000000
2.26816173 0.00115848 -0.04848919 0.00000000
3.75792924 -0.00026827 -0.01507222 0.00000000
1.31715862 -0.00004437 -0.16599026 0.00000000
3.21056214 -0.00415908 -0.10585489 0.00000000
2.77525581 0.00035693 -0.04951732 0.00000000
1.73859251 -0.00441364 -0.15917915 0.00000000
4.37303696 0.00161794 -0.14993684 0.00000000
1.64876698 0.00005903 -0.00854995 0.00000000
1.42180702 -0.00140922 -0.11969957 0.00000000
3.49635751 -0.00417621 -0.20762693 0.00000000
3.87800938 -0.00202914 -0.10528811 0.00000000
0.14596938 -0.00289269 -0.04311483 0.00000000
1.23722643 -0.00264494 -0.21004743 0.00000000
2.61445268 -0.00194091 -0.26369757 0.00000000
1.12337924 0.00438686 -0.04916202 0.00000000
1.03442590 -0.00355258 -0.11327883 0.00000000
1.36584783 -0.00170642 -0.24245720 0.00000000
4.33223990 -0.00260510 -0.05760166 0.00000000
3.96247225 -0.00762101 -0.17536525 0.00000000
2.19208072 -0.00546357 -0.16060433 0.00000000
0.93518884 -0.00095807 -0.11987387 0.00000000
0.83357650 -0.00040217 -0.09417309 0.00000000
0.75768507 -0.00283259 -0.18097332 0.00000000
2.23566798 -0.00511048 -0.24405649 0.00000000
4.06459889 -0.00523644 -0.16201299 0.00000000
0.87787819 -0.00157704 -0.24149906 0.00000000
3.32365318 -0.00010299 -0.16664240 0.00000000
0.99320989 -0.00523729 -0.08046685 0.00000000
4.07641976 -0.00705332 -0.15435057 0.00000000
4.13111913 0.00043111 -0.00490303 0.00000000
3.37278686 -0.00208379 -0.09224538 0.00000000
2.87260422 0.00144110 -0.06562514 0.00000000
1.32838341 -0.00148281 -0.02636264 0.00000000
2.90168779 -0.00039399 -0.08253181 0.00000000
0.86995789 0.00053968 -0.01369095 0.00000000
1.05064788 -0.00509639 -0.24193286 0.00000000
2.56068993 -0.00529354 -0.05980706 0.00000000
4.75197840 -0.00102832 -0.06229466 0.00000000
3.66817690 -0.00346066 -0.22454353 0.00000000
3.75845803 -0.00292261 -0.24480629 0.00000000
1.37762323 0.00106943 -0.02390230 0.00000000
0.33680006 -0.00699610 -0.26762890 0.00000000
0.53150682 -0.00289283 -0.05414057 0.00000000
2.76956657 -0.00004823 -0.23416810 0.00000000
4.41537421 -0.00177057 -0.11842444 0.00000000
2.15154216 0.00058869 -0.22558051 0.00000000
2.67348112 -0.00290807 -0.23674523 0.00000000
1.66292838 -0.00156979 -0.17764356 0.00000000
4.13814317 0.00015578 -0.04269056 0.00000000
3.73065202 0.00090368 -0.15004614 0.00000000
2.91760483 0.00146527 -0.03697009 0.00000000
1.06062904 -0.00589115 -0.17843260 0.00000000
2.24090009 0.00142485 -0.04347581 0.00000000
3.83865955 -0.00418643 -0.07952795 0.00000000
1.35088996 0.00024415 -0.01215519 0.00000000
2.99922934 0.00130563 -0.03607625 0.00000000
4.70539800 0.00051981 -0.04142120 0.00000000
0.94855326 -0.00430587 -0.10476599 0.00000000
0.03666283 -0.00118283 -0.21029353 0.00000000
2.32209497 -0.00414987 -0.25879485 0.00000000
1.50179566 -0.00368124 -0.15060702 0.00000000
1.74179943 -0.00654314 -0.22568475 0.00000000
0.99255581 -0.00082844 -0.12142777 0.00000000
1.32067519 0.00201562 -0.01771278 0.00000000
0.03235290 0.00106013 -0.09532918 0.00000000
3.59528276 -0.00307893 -0.01258658 0.00000000
0.17588906 -0.00509195 -0.18205279 0.00000000
3.13724263 0.00043693 -0.19859081 0.00000000
1.52691006 -0.00303925 -0.13520828 0.00000000
3.66286048 0.00233652 -0.06233168 0.00000000
0.76796329 0.00074082 -0.02996016 0.00000000
3.58856013 -0.00186897 -0.17063741 0.00000000
1.92065484 0.00084828 -0.08329737 0.00000000
4.22130795 -0.00333807 -0.25405653 0.00000000
4.15787573 0.00080911 -0.11885306 0.00000000
2.93302792 -0.00190287 -0.06152782 0.00000000
2.01772892 0.00421256 -0.05297586 0.00000000
3.01740486 -0.00101980 -0.07308350 0.00000000
3.79418085 -0.00171878 -0.08789683 0.00000000
2.10053226 -0.00205680 -0.02940118 0.00000000
1.01672205 -0.00062371 -0.26198015 0.00000000
4.12636886 -0.00052535 -0.07972070 0.00000000
4.36491263 -0.00004391 -0.13367932 0.00000000
2.73067268 -0.00796439 -0.26484991 0.00000000
4.52167447 -0.00435424 -0.25839107 0.00000000
1.91077928 -0.00235346 -0.10734221 0.00000000
2.00656570 -0.00184349 -0.05905420 0.00000000
2.63028143 -0.00098846 -0.14028295 0.00000000
3.27202639 0.00013246 -0.22855814 0.00000000
3.68515023 -0.00535697 -0.21248882 0.00000000
3.00213580 -0.00297712 -0.21400515 0.00000000
2.57312972 -0.00584381 -0.19214683 0.00000000
1.55946090 -0.00301113 -0.06335554 0.00000000
4.04951150 -0.00173616 -0.11286336 0.00000000
0.38392804 -0.00582758 -0.06556783 0.00000000
2.38935056 -0.00116524 -0.18422399 0.00000000
3.93889711 0.00122619 -0.16889168 0.00000000
1.22638407 -0.00346960 -0.09323681 0.00000000
2.61109399 0.00140896 -0.05952077 0.00000000
3.70442101 -0.00071614 -0.13800949 0.00000000
2.49505920 0.00318160 -0.10064929 0.00000000
4.61450252 -0.00445632 -0.12489731 0.00000000
3.74756534 -0.00475427 -0.19776766 0.00000000
3.33020147 -0.00220370 -0.09605252 0.00000000
0.26852579 -0.00041560 -0.13742659 0.00000000
4.11221094 -0.00428832 -0.08842576 0.00000000
1.33295151 0.00021877 -0.21759675 0.00000000
1.70900454 0.00018623 -0.19027133 0.00000000
4.52154005 -0.00787258 -0.21167816 0.00000000
1.20657172 0.00082208 -0.04161146 0.00000000
2.00446934 0.00009286 -0.13855964 0.00000000
4.63921969 0.00340322 -0.03454084 0.00000000
2.62431796 -0.00036694 -0.11368225 0.00000000
2.66457877 -0.00373746 -0.25780883 0.00000000
0.89716582 0.00052622 -0.05631451 0.00000000
4.24476472 -0.00268282 -0.23247355 0.00000000
3.20595891 0.00056973 -0.04342651 0.00000000
1.08005112 -0.00000096 -0.03575073 0.00000000
1.27726474 0.00163562 -0.12532371 0.00000000
2.31528739 -0.00372720 -0.20237090 0.00000000
0.04168892 -0.00510807 -0.13105990 0.00000000
0.26958485 -0.00307048 -0.05549639 0.00000000
0.24233030 -0.00527520 -0.19676899 0.00000000
4.01873039 -0.00409546 -0.06449014 0.00000000
2.91255000 0.00039899 -0.25677138 0.00000000
4.04208876 -0.00389109 -0.24408472 0.00000000
3.29749288 -0.00072555 -0.23851727 0.00000000
0.02615316 -0.00416387 -0.01243185 0.00000000
3.61591908 0.00081957 -0.08749620 0.00000000
1.62736664 -0.00224213 -0.25988439 0.00000000
2.22036348 -0.00026609 -0.16360747 0.00000000
1.29905784 0.00143007 -0.02461986 0.00000000
4.15438116 -0.00298486 -0.12168226 0.00000000
2.72991137 -0.00375499 -0.14679045 0.00000000
1.43042698 0.00294109 -0.14996119 0.00000000
0.70157970 -0.00564314 -0.25152893 0.00000000
1.89970623 0.00176679 -0.03745181 0.00000000
2.75675102 -0.00115048 -0.03974252 0.00000000
1.46571671 -0.00292882 -0.25368336 0.00000000
1.90175330 -0.00363040 -0.18465332 0.00000000
1.36847846 -0.00217227 -0.06443606 0.00000000
1.39112045 -0.00562511 -0.25820840 0.00000000
3.91126747 0.00400788 -0.09295231 0.00000000
1.11191045 -0.00122321 -0.01489698 0.00000000
1.58619891 -0.00192364 -0.16938216 0.00000000
4.78567584 -0.00130024 -0.18063161 0.00000000
2.59661059 -0.00226629 -0.20614877 0.00000000
1.03510924 -0.00319711 -0.25376909 0.00000000
0.61761905 -0.00068394 -0.19630349 0.00000000
3.77412523 -0.00008369 -0.10112659 0.00000000
1.57539440 0.00103786 -0.08203566 0.00000000
2.10618864 0.00055595 -0.09406714 0.00000000
2.62696537 0.00290247 -0.08536957 0.00000000
2.17525355 0.00040561 -0.07754083 0.00000000
2.60629272 -0.00334521 -0.10668669 0.00000000
1.28027658 -0.00011194 -0.03432663 0.00000000
3.01202363 -0.00230798 -0.23839780 0.00000000
0.15994645 -0.00328735 -0.24368725 0.00000000
2.37021946 0.00430597 -0.07535124 0.00000000
3.75895330 -0.00565006 -0.10633042 0.00000000
4.14488575 -0.00531965 -0.19908214 0.00000000
2.61836420 -0.00101131 -0.00216324 0.00000000
3.58064049 0.00073027 -0.07933252 0.00000000
0.91121270 -0.00333689 -0.21918781 0.00000000
0.10591978 -0.00092278 -0.12193481 0.00000000
0.84849376 0.00009874 -0.18772171 0.00000000
2.82262670 -0.00084190 -0.11060141 0.00000000
1.08734935 -0.00287152 -0.14220391 0.00000000
0.19106652 -0.00244577 -0.18119428 0.00000000
3.42774059 0.00161141 -0.04520225 0.00000000
3.34499432 -0.00163291 -0.03439086 0.00000000
4.11255593 0.00111245 -0.12269985 0.00000000
3.53324960 -0.00085714 -0.12991569 0.00000000
1.23443734 -0.00187329 -0.05423634 0.00000000
3.06060647 0.00034774 -0.15808024 0.00000000
2.81156090 -0.00080863 -0.02913016 0.00000000
0.79387335 -0.00137231 -0.13846025 0.00000000
4.71816890 -0.00186522 -0.26713328 0.00000000
1.34963439 -0.00303256 -0.19184606 0.00000000
0.72395654 0.00263296 -0.06753777 0.00000000
3.61587887 0.00006628 -0.16720880 0.00000000
1.29385831 0.00016136 -0.21226172 0.00000000
0.94148406 -0.00210526 -0.17979416 0.00000000
4.58849055 0.00138695 -0.21376198 0.00000000
2.81505665 0.00344331 -0.05296886 0.00000000
4.70919189 0.00503839 -0.08946726 0.00000000
0.64796377 -0.00066177 -0.07382357 0.00000000
2.33515656 -0.00591657 -0.15892816 0.00000000
3.96851705 -0.00305263 -0.19819739 0.00000000
2.73918552 0.00067039 -0.08443763 0.00000000
2.14727703 -0.00270989 -0.07647624 0.00000000
1.13920413 0.00052644 -0.07417439 0.00000000
3.15919270 -0.00020443 -0.04219274 0.00000000
2.76474610 -0.00042135 -0.17556914 0.00000000
3.43975897 -0.00416568 -0.02791293 0.00000000
4.03442786 -0.00654194 -0.16957416 0.00000000
3.62991045 -0.00368255 -0.21180563 0.00000000
1.80192304 -0.00290876 -0.16402853 0.00000000
2.39009719 -0.00330537 -0.21809856 0.00000000
1.46445527 -0.00077284 -0.09422552 0.00000000
3.74767999 0.00245535 -0.08621629 0.00000000
3.52845898 -0.00098804 -0.21515436 0.00000000
2.38656689 -0.00056786 -0.18704803 0.00000000
0.70380842 -0.00354470 -0.24400654 0.00000000
1.39201757 -0.00239818 -0.00999250 0.00000000
4.63155435 -0.00154444 -0.12469623 0.00000000
2.60175917 -0.00282270 -0.14061199 0.00000000
0.47870539 -0.00009803 -0.04250824 0.00000000
3.13167896 -0.00280476 -0.18289211 0.00000000
2.51736854 0.00417470 -0.14143142 0.00000000
2.79053265 -0.00362230 -0.23022586 0.00000000
1.73231123 0.00090875 -0.02660278 0.00000000
3.19699835 0.00328428 -0.02449823 0.00000000
4.07874035 0.00152847 -0.04923922 0.00000000
2.93276327 -0.00024726 -0.18612134 0.00000000
0.28270485 0.00092937 -0.15199831 0.00000000
2.24105755 -0.00242978 -0.11800525 0.00000000
0.67945079 -0.00390243 -0.19625966 0.00000000
0.86037830 0.00450855 -0.00029705 0.00000000
3.20718877 -0.00606540 -0.21816837 0.00000000
0.02587126 0.00159267 -0.04040742 0.00000000
2.00185837 0.00261825 -0.20526967 0.00000000
0.05587185 -0.00215500 -0.07167833 0.00000000
1.64667447 -0.00354088 -0.05783203 0.00000000
2.64759429 0.00001370 -0.04205039 0.00000000
0.29909971 -0.00445346 -0.11361335 0.00000000
3.56501440 -0.00616939 -0.25198102 0.00000000
2.70025098 -0.00746206 -0.14833253 0.00000000
2.03821141 0.00137372 -0.05709745 0.00000000
1.88854632 -0.00163622 -0.10027693 0.00000000
0.55999382 -0.00303266 -0.00429245 0.00000000
1.09842680 -0.00032384 -0.03508499 0.00000000
3.91022483 0.00095633 -0.06345997 0.00000000
2.71815019 -0.00298740 -0.16886980 0.00000000
0.38354108 -0.00055007 -0.26681333 0.00000000
3.10643713 -0.00121393 -0.01563930 0.00000000
2.11867313 -0.00289729 -0.05159218 0.00000000
0.51906368 -0.00547743 -0.22391719 0.00000000
2.99385649 0.00163823 -0.05336616 0.00000000
3.35308442 -0.00389116 -0.14798620 0.00000000
2.64003919 -0.00114179 -0.02139924 0.00000000
0.77886845 -0.00480128 -0.13352775 0.00000000
2.38208120 0.00044740 -0.19264852 0.00000000
0.23929101 -0.00021123 -0.03975869 0.00000000
4.05309895 -0.00566580 -0.07506787 0.00000000
3.91064859 -0.00154840 -0.16607346 0.00000000
0.33400892 -0.00333546 -0.17664158 0.00000000
1.30760143 -0.00072387 -0.12365398 0.00000000
3.80591368 -0.00149288 -0.04905254 0.00000000
1.07072871 0.00035833 -0.25439685 0.00000000
4.49321301 0.00224332 -0.13702205 0.00000000
3.18879424 0.00698996 -0.03953606 0.00000000
4.16244827 0.00193745 -0.11130614 0.00000000
1.96849814 -0.00281565 -0.21099951 0.00000000
3.03221864 0.00064952 -0.04759198 0.00000000
0.73594300 -0.00281240 -0.19482204 0.00000000
4.45780537 -0.00372333 -0.16068272 0.00000000
3.04858570 -0.00562556 -0.01692394 0.00000000
1.79901852 0.00271744 -0.08998596 0.00000000
4.12632713 -0.00105245 -0.21539014 0.00000000
2.38753213 -0.00456537 -0.19476212 0.00000000
0.22173633 -0.00387050 -0.19703130 0.00000000
0.68408408 0.00166933 -0.11658595 0.00000000
4.30355841 -0.00137436 -0.26721583 0.00000000
0.97190179 -0.00160261 -0.09147788 0.00000000
3.88833269 0.00236735 -0.15505293 0.00000000
1.45738763 -0.00160349 -0.08935744 0.00000000
4.18933717 -0.00712571 -0.18763089 0.00000000
0.52751127 0.00318868 -0.02368396 0.00000000
0.14378611 0.00147980 -0.07058898 0.00000000
3.81018571 -0.00058059 -0.22820544 0.00000000
2.44375344 0.00041250 -0.05648333 0.00000000
4.03005049 -0.00037131 -0.09675113 0.00000000
0.81322849 -0.00240727 -0.14032476 0.00000000
1.02223267 -0.00237213 -0.17219224 0.00000000
2.93696358 -0.00118923 -0.09484013 0.00000000
0.83868544 -0.00189051 -0.24102761 0.00000000
4.25033056 -0.00248797 -0.07796332 0.00000000
0.27665318 -0.00668105 -0.13010259 0.00000000
4.61697427 -0.00294821 -0.02244644 0.00000000
0.57840474 -0.00420104 -0.24453223 0.00000000
3.68832444 -0.00268484 -0.14531271 0.00000000
3.79416705 0.00014651 -0.16871086 0.00000000
0.21619071 0.00298406 -0.24265969 0.00000000
2.01126402 -0.00169861 -0.14550266 0.00000000
4.39929552 0.00021210 -0.04674282 0.00000000
2.36944014 -0.00033164 -0.02606983 0.00000000
2.82263477 -0.00460426 -0.24786863 0.00000000
3.09451173 0.00014128 -0.05441866 0.00000000
4.67335763 -0.00100444 -0.00052129 0.00000000
3.67986671 -0.00505114 -0.23613448 0.00000000
2.00606520 0.00076691 -0.03253799 0.00000000
0.85437689 -0.00083189 -0.04029740 0.00000000
2.61554902 -0.00474807 -0.14509621 0.00000000
3.32016588 0.00006579 -0.09008752 0.00000000
2.81451948 0.00100202 -0.16302787 0.00000000
0.62706346 0.00200717 -0.19491962 0.00000000
1.81310166 -0.00246853 -0.11311564 0.00000000
3.18339357 -0.00059229 -0.25873294 0.00000000
0.85566388 -0.00023691 -0.04227233 0.00000000
2.82219710 -0.00482308 -0.25913680 0.00000000
4.27441019 -0.00272822 -0.17144503 0.00000000
3.62791179 0.00236762 -0.03248330 0.00000000
1.23281238 -0.00168047 -0.04992687 0.00000000
3.67047130 -0.00363456 -0.09951427 0.00000000
2.87485115 0.00149997 -0.05285225 0.00000000
0.58382515 0.00123298 -0.10329742 0.00000000
2.09012592 -0.00478262 -0.25963927 0.00000000
2.40298190 -0.00255573 -0.02958844 0.00000000
0.64555981 0.00114757 -0.24862973 0.00000000
4.63238776 0.00050422 -0.18892103 0.00000000
2.33608440 -0.00171503 -0.20100224 0.00000000
2.84958230 -0.00136308 -0.25184948 0.00000000
4.59049949 -0.00349061 -0.21127445 0.00000000
0.55572413 -0.00154434 -0.20757854 0.00000000
3.76055838 0.00203703 -0.24583354 0.00000000
1.71126082 -0.00217602 -0.12364612 0.00000000
2.41634697 -0.00176329 -0.23241099 0.00000000
3.51438884 -0.00197878 -0.07677982 0.00000000
3.15650381 0.00074283 -0.00838281 0.00000000
3.09597571 0.00080683 -0.07119320 0.00000000
2.63716173 0.00051931 -0.17521240 0.00000000
4.33617250 -0.00372990 -0.22088286 0.00000000
3.94487484 0.00084724 -0.04978098 0.00000000
1.25034400 -0.00678915 -0.25291056 0.00000000
4.47586199 0.00158187 -0.02534778 0.00000000
2.55976634 -0.00210687 -0.17506470 0.00000000
4.37379718 -0.00012871 -0.13656165 0.00000000
3.46738250 -0.00429510 -0.24548405 0.00000000
2.56238504 -0.00322634 -0.14584862 0.00000000
2.52713979 -0.00129274 -0.03629207 0.00000000
1.81986431 -0.00493308 -0.14338370 0.00000000
4.21649939 -0.00205154 -0.07768117 0.00000000
0.74891970 -0.00077889 -0.25127375 0.00000000
0.42069082 -0.00518930 -0.15703566 0.00000000
0.39022648 0.00165352 -0.05251096 0.00000000
1.34518211 -0.00224451 -0.01004565 0.00000000
1.35429638 -0.00442052 -0.26229226 0.00000000
3.12740613 -0.00244924 -0.12504315 0.00000000
0.60356446 -0.00257559 -0.07631935 0.00000000
2.47588701 -0.00031103 -0.03726342 0.00000000
3.52539784 0.00246048 -0.20086355 0.00000000
0.62900517 -0.00245824 -0.11733242 0.00000000
2.02888011 0.00075769 -0.15597505 0.00000000
1.60142992 -0.00562894 -0.13297079 0.00000000
4.42589791 -0.00302658 -0.21579778 0.00000000
4.78261830 0.00232657 -0.17163205 0.00000000
2.26276455 0.00187812 -0.12550040 0.00000000
4.58200600 -0.00360629 -0.07246297 0.00000000
3.75083016 -0.00041042 -0.13710827 0.00000000
1.62690005 -0.00117694 -0.00274594 0.00000000
3.37451236 -0.00147464 -0.05741870 0.00000000
3.26131850 -0.00281725 -0.05822319 0.00000000
0.09174771 -0.00447084 -0.16153075 0.00000000
2.00612591 -0.00203146 -0.02983455 0.00000000
1.34876120 -0.00258886 -0.19806912 0.00000000
0.63362888 0.00173656 -0.08009233 0.00000000
1.69379860 0.00087129 -0.20320621 0.00000000
3.79894331 -0.00038881 -0.06901573 0.00000000
2.77009569 -0.00400042 -0.11839314 0.00000000
3.10751976 -0.00243891 -0.20032271 0.00000000
3.80456624 -0.00188264 -0.03182268 0.00000000
3.71766141 -0.00371431 -0.17203275 0.00000000
1.44675490 -0.00513607 -0.15717173 0.00000000
1.22335158 0.00068441 -0.02080980 0.00000000
0.77923313 0.00077087 -0.09109212 0.00000000
3.21589608 -0.00160560 -0.10843226 0.00000000
3.99778164 -0.00364563 -0.06370264 0.00000000
4.39953931 0.00081380 -0.15118964 0.00000000
0.57340047 -0.00199242 -0.14138956 0.00000000
1.99430451 -0.00004595 -0.22400812 0.00000000
4.33025135 -0.00435492 -0.14452582 0.00000000
4.64739661 0.00231670 -0.23915081 0.00000000
0.32543050 -0.00563744 -0.19289531 0.00000000
2.68850281 -0.00426091 -0.07986031 0.00000000
1.36471598 -0.00176853 -0.24414172 0.00000000
1.52262911 0.00221157 -0.23089786 0.00000000
0.21944662 -0.00294609 -0.09075298 0.00000000
4.72887159 -0.00224893 -0.23031518 0.00000000
0.60745311 -0.00255277 -0.20199869 0.00000000
2.18128783 -0.00017646 -0.04594055 0.00000000
2.19024276 -0.00639653 -0.23856675 0.00000000
3.41016680 -0.00427004 -0.25744669 0.00000000
4.00328037 0.00183026 -0.03752403 0.00000000
4.39481734 -0.00578941 -0.19287248 0.00000000
2.32371231 0.00002398 -0.17651120 0.00000000
2.67788761 -0.00175195 -0.15663293 0.00000000
3.36704719 -0.00140379 -0.14748417 0.00000000
1.26133215 -0.00210784 -0.10308710 0.00000000
3.82657686 0.00136508 -0.01634685 0.00000000
0.01356202 0.00120749 -0.01545322 0.00000000
0.58418470 -0.00008914 -0.05024977 0.00000000
2.07946032 -0.00016096 -0.08598546 0.00000000
3.04294512 -0.00691188 -0.22384174 0.00000000
0.22279373 0.00325306 -0.02116723 0.00000000
4.42030066 -0.00352777 -0.25488505 0.00000000
1.80293638 -0.00012047 -0.10915369 0.00000000
3.04078630 -0.00332705 -0.11466483 0.00000000
0.86084964 0.00282560 -0.12271128 0.00000000
0.90150290 -0.00184133 -0.22888332 0.00000000
1.16770799 -0.00019858 -0.00913138 0.00000000
0.70787763 0.00211122 -0.00581026 0.00000000
1.86551554 -0.00219315 -0.16914148 0.00000000
2.25985344 -0.00501944 -0.14785367 0.00000000
0.31834647 -0.00081952 -0.12728984 0.00000000
3.90291705 -0.00120949 -0.23706296 0.00000000
4.31787477 0.00143664 -0.07512373 0.00000000
0.08840290 0.00058078 -0.08697731 0.00000000
2.22368327 -0.00265064 -0.04828123 0.00000000
0.66620716 -0.00461922 -0.17620960 0.00000000
1.52628815 -0.00138763 -0.22378944 0.00000000
1.27101564 0.00257613 -0.01098950 0.00000000
0.82773069 -0.00417043 -0.23386013 0.00000000
1.34311414 0.00124120 -0.08454470 0.00000000
0.31156403 -0.00127229 -0.00643295 0.00000000
