1.251895 1.642984 0.000838 0.0
1.189122 0.774515 -0.001597 0.0
0.849167 1.717495 0.000310 0.0
0.165366 1.817649 -0.000146 0.0
3.638969 1.509823 -0.001758 0.0
0.185099 0.854587 -0.000321 0.0
0.170396 2.012872 0.002097 0.0
0.436717 1.260145 0.003739 0.0
2.175503 0.997082 -0.004654 0.0
3.577206 0.318452 -0.002098 0.0
1.926706 0.773892 0.002844 0.0
0.970869 0.462501 0.000849 0.0
2.025891 0.169358 0.001723 0.0
3.039087 1.970976 -0.001438 0.0
2.050982 1.829910 -0.002556 0.0
1.634549 1.438778 -0.001452 0.0
0.239861 0.589122 -0.000246 0.0
3.221863 1.116842 0.004777 0.0
4.157594 1.827227 -0.002197 0.0
2.142363 1.094287 -0.000584 0.0
3.978823 0.048131 -0.002728 0.0
1.137052 0.561949 0.000926 0.0
1.518631 1.909605 -0.000905 0.0
3.246291 0.127742 -0.007996 0.0
2.883367 1.408263 0.005169 0.0
1.297838 1.553181 -0.000973 0.0
1.044958 1.612822 -0.002828 0.0
1.530455 0.976496 0.001908 0.0
3.379172 1.460250 -0.005658 0.0
4.171656 2.069569 -0.001756 0.0
0.281739 1.922873 -0.006324 0.0
1.290949 1.831748 -0.000933 0.0
0.109307 1.232391 -0.001302 0.0
2.630989 1.708471 -0.001754 0.0
3.982213 1.774856 0.002488 0.0
0.048718 0.231167 -0.004669 0.0
0.304309 1.804497 -0.003902 0.0
1.176304 0.843849 0.006284 0.0
2.302960 1.536014 0.005285 0.0
1.499437 0.928258 0.000075 0.0
3.852826 0.378857 -0.004670 0.0
3.015538 0.014435 0.002411 0.0
0.928911 2.122586 -0.000204 0.0
2.087867 0.814747 0.003790 0.0
3.951657 1.240324 0.002730 0.0
0.345042 1.611006 -0.000890 0.0
3.660289 0.510683 -0.001544 0.0
2.976942 0.191744 0.000320 0.0
3.819742 1.739952 0.000292 0.0
4.119757 0.520563 -0.001898 0.0
2.697884 0.017807 -0.002402 0.0
2.159759 0.020081 0.000829 0.0
3.086014 1.222964 0.003410 0.0
1.521720 2.087314 0.001127 0.0
3.971822 1.241859 -0.000655 0.0
2.296985 0.255669 0.002285 0.0
3.661436 0.485022 -0.002828 0.0
3.761978 2.197036 -0.001119 0.0
3.414438 0.792275 0.000795 0.0
0.866335 1.903992 -0.000371 0.0
1.643636 1.764234 -0.000424 0.0
1.534740 1.883697 0.003770 0.0
3.298526 0.562451 -0.000168 0.0
2.452422 1.149183 0.004015 0.0
1.513035 0.537266 -0.000292 0.0
3.056181 1.250212 -0.000736 0.0
0.493783 0.042378 -0.003527 0.0
3.957376 1.423116 0.000750 0.0
1.083995 0.487218 -0.001350 0.0
3.456840 1.617439 0.002887 0.0
3.997006 1.940787 -0.005316 0.0
3.323016 0.993734 0.002075 0.0
1.617859 1.556786 0.000590 0.0
4.175845 0.956789 -0.000548 0.0
3.585159 2.069560 0.002646 0.0
0.457571 0.183207 -0.003202 0.0
2.540077 0.813136 -0.004571 0.0
1.255283 0.094152 -0.001143 0.0
3.873785 0.307274 -0.003742 0.0
1.136050 1.981447 0.003328 0.0
3.568060 2.172854 -0.002351 0.0
2.950697 0.486302 0.000580 0.0
1.292872 0.433982 0.005743 0.0
3.322248 1.256311 -0.002518 0.0
3.499340 0.733957 0.000219 0.0
1.527639 1.139849 0.001026 0.0
2.754563 1.227834 -0.001657 0.0
0.179719 0.740481 0.000252 0.0
0.100111 0.291047 0.000417 0.0
0.871888 0.842580 0.001773 0.0
0.119682 0.823277 -0.003648 0.0
3.534075 0.752002 0.000291 0.0
3.990822 0.313646 -0.000770 0.0
3.341062 0.654025 0.003880 0.0
0.347617 0.639194 -0.000102 0.0
3.292702 1.240385 -0.002169 0.0
0.159469 0.270259 -0.001083 0.0
1.331878 0.299286 -0.000826 0.0
2.267406 1.581070 -0.002538 0.0
2.395029 1.400683 -0.000744 0.0
2.138921 1.201172 0.002285 0.0
3.645332 0.625841 0.000607 0.0
4.053696 1.981558 0.001701 0.0
2.702609 1.962471 -0.000897 0.0
3.060386 1.078657 0.003245 0.0
0.350374 0.934285 0.002656 0.0
2.153750 2.008701 0.006516 0.0
2.565916 1.399628 0.001468 0.0
0.880970 1.467551 0.001901 0.0
0.800305 2.107829 -0.000877 0.0
0.585332 1.252905 -0.002890 0.0
1.477879 0.035512 0.000040 0.0
2.857139 0.314186 0.002993 0.0
3.785166 0.366218 0.000202 0.0
1.153629 1.914980 -0.000797 0.0
1.565350 1.301981 0.000134 0.0
4.182536 0.925591 -0.000076 0.0
3.528867 0.564959 0.001242 0.0
0.869976 0.593901 -0.004197 0.0
0.452724 0.567268 -0.000948 0.0
2.698039 0.406052 0.000934 0.0
3.310196 0.951254 -0.004556 0.0
0.160256 1.374390 -0.002658 0.0
0.531285 0.230343 0.000019 0.0
0.297082 1.588516 0.000768 0.0
3.913001 1.412199 -0.000301 0.0
0.869690 1.026325 -0.004150 0.0
3.350288 0.882340 -0.000243 0.0
1.237706 0.039358 -0.000056 0.0
0.225543 2.172105 0.007533 0.0
1.882510 0.597812 0.001588 0.0
0.404411 0.487777 -0.000213 0.0
1.948807 0.736995 -0.001589 0.0
1.300358 1.366040 -0.000982 0.0
1.943290 0.009403 0.004037 0.0
2.048074 1.407028 -0.002307 0.0
0.073391 0.762169 0.003811 0.0
2.688270 1.951834 -0.002474 0.0
1.270852 0.763166 -0.001956 0.0
1.527371 1.075605 -0.000494 0.0
1.550266 0.426752 0.000153 0.0
2.315546 0.535516 -0.001387 0.0
2.799097 1.185559 0.003040 0.0
2.373658 0.011552 0.002102 0.0
1.310755 0.853355 0.000609 0.0
3.477064 0.617442 -0.000603 0.0
0.211925 0.672076 -0.000173 0.0
2.222271 1.100885 -0.000796 0.0
3.840576 0.992814 -0.001259 0.0
2.025539 0.898303 0.000665 0.0
1.301761 0.327093 -0.002488 0.0
3.725731 0.126522 0.001989 0.0
1.928007 1.485834 0.002704 0.0
2.492561 0.456735 0.001899 0.0
2.104552 0.883417 -0.004299 0.0
2.289102 0.222096 -0.000502 0.0
0.559186 0.216775 -0.001011 0.0
2.357631 0.113576 -0.001421 0.0
0.031796 0.081937 0.002264 0.0
3.848178 1.537697 0.001461 0.0
1.580212 2.163944 -0.002773 0.0
2.140644 2.050933 0.004108 0.0
2.317602 0.284510 0.005325 0.0
1.817295 2.040859 -0.001441 0.0
1.532223 1.546800 -0.001120 0.0
3.968407 0.762386 0.001149 0.0
2.316042 0.181671 -0.002886 0.0
0.514334 0.328319 -0.000837 0.0
3.229964 0.569184 0.004927 0.0
3.854195 1.479314 -0.002415 0.0
1.586851 0.575938 -0.000509 0.0
3.642331 0.439641 -0.002155 0.0
0.370728 1.768069 0.003008 0.0
1.042749 1.569333 0.001646 0.0
0.567847 0.546796 0.003245 0.0
3.207258 0.167398 -0.005589 0.0
1.401309 0.202081 0.004023 0.0
2.567898 1.176152 -0.000628 0.0
1.009700 1.111838 0.000710 0.0
0.634872 1.222627 -0.000393 0.0
2.257356 0.142815 -0.001569 0.0
1.243512 0.512572 -0.000998 0.0
2.278688 0.674593 0.000157 0.0
1.954733 0.897455 0.001058 0.0
4.156464 0.237865 0.000574 0.0
2.893925 0.556840 0.000822 0.0
2.797710 0.509670 -0.002148 0.0
2.662552 0.509769 -0.002002 0.0
2.974477 0.776103 0.001849 0.0
2.055216 2.075258 -0.001111 0.0
1.076248 1.640325 0.000449 0.0
2.778962 1.925103 -0.001319 0.0
3.129975 1.809661 -0.002461 0.0
2.604641 2.122781 0.000129 0.0
2.564321 1.180341 -0.000915 0.0
1.539642 1.982445 -0.000695 0.0
2.142361 0.367832 -0.001233 0.0
1.595082 0.428672 0.002843 0.0
1.118670 1.898969 0.002356 0.0
1.995824 1.227570 -0.000207 0.0
2.701604 1.031141 -0.002855 0.0
4.000104 0.147216 0.000048 0.0
3.100604 2.079138 0.002048 0.0
3.569158 1.175493 -0.005216 0.0
1.446163 2.077636 -0.004052 0.0
1.848386 1.194641 -0.000052 0.0
0.385429 1.423509 0.000277 0.0
2.146512 1.518865 0.001139 0.0
0.629562 1.325739 0.001809 0.0
0.014837 0.933217 -0.002692 0.0
0.814038 1.618630 -0.002352 0.0
3.136397 0.441414 -0.001787 0.0
3.384602 2.063107 -0.001159 0.0
0.541264 0.372787 -0.002903 0.0
3.574479 1.938712 0.003146 0.0
1.050545 0.179900 0.001125 0.0
2.369121 1.250834 -0.000855 0.0
3.047083 0.458609 -0.000591 0.0
0.516625 0.530588 0.002452 0.0
2.451328 1.286803 -0.004833 0.0
3.174855 0.871582 0.002117 0.0
0.385207 0.540503 0.000322 0.0
3.416437 0.196805 -0.001316 0.0
0.974117 0.773087 -0.002847 0.0
1.929317 1.134821 0.000308 0.0
0.176801 1.432093 0.000046 0.0
1.481789 0.423952 0.001493 0.0
2.572975 1.431030 -0.002049 0.0
0.660276 0.659891 -0.000387 0.0
2.524804 0.194398 0.002022 0.0
2.647754 2.165995 0.001017 0.0
1.167209 0.383404 0.001667 0.0
2.615459 1.076097 0.002103 0.0
0.769288 1.568944 0.006002 0.0
2.584024 1.247205 0.002936 0.0
2.297411 1.954127 0.001767 0.0
1.557120 1.437591 -0.001040 0.0
1.210804 0.783512 0.004116 0.0
2.097522 0.023408 0.004164 0.0
0.751227 1.346801 -0.000900 0.0
2.149497 0.095728 0.002590 0.0
0.048270 1.011627 0.002123 0.0
1.188678 1.170124 -0.002479 0.0
2.744581 0.247428 -0.001502 0.0
0.037990 0.066321 0.001909 0.0
3.214954 0.435378 0.003038 0.0
4.070195 0.041282 -0.000829 0.0
1.806117 1.464158 0.003801 0.0
3.146793 0.867203 0.000606 0.0
3.138559 1.313177 0.002288 0.0
0.616004 1.031525 -0.000362 0.0
2.932711 1.493542 0.000381 0.0
3.661710 0.333895 -0.002636 0.0
0.869892 2.006242 -0.002727 0.0
1.798914 0.624356 0.002000 0.0
0.410438 0.441569 0.000909 0.0
1.832452 0.966606 0.002724 0.0
1.527364 1.639358 0.000897 0.0
1.779691 1.925134 0.001934 0.0
0.190806 0.199636 0.000814 0.0
0.148568 0.128716 -0.002885 0.0
4.169164 1.776651 0.005574 0.0
0.228002 0.777415 -0.003718 0.0
3.941559 0.105428 -0.004259 0.0
2.310170 0.912282 -0.001388 0.0
1.209404 1.819661 0.003963 0.0
2.080885 0.330214 0.004757 0.0
0.060501 0.653496 -0.001629 0.0
3.450706 0.866492 -0.001491 0.0
1.852924 0.880460 -0.001185 0.0
0.504916 1.597353 -0.002759 0.0
3.653783 0.875999 -0.000758 0.0
0.153293 0.136298 -0.004128 0.0
0.179191 1.429827 0.000007 0.0
3.445145 1.391905 -0.002891 0.0
0.899174 0.741454 0.001962 0.0
2.281189 0.098909 0.001854 0.0
2.178285 0.804382 0.000088 0.0
1.059255 0.909775 0.001977 0.0
1.601352 1.309113 0.001383 0.0
2.732162 0.235993 -0.002613 0.0
1.608985 0.433064 0.002340 0.0
3.503451 0.422416 0.000252 0.0
3.542756 1.130219 0.001096 0.0
0.792392 2.041590 0.003650 0.0
1.961570 1.824192 -0.004211 0.0
3.028543 0.946766 0.002047 0.0
0.208279 0.537880 -0.002978 0.0
0.923892 1.142538 -0.001049 0.0
3.076805 1.927340 0.001009 0.0
3.808219 1.980827 -0.003537 0.0
3.767184 0.744522 -0.003413 0.0
1.577922 1.026762 -0.000463 0.0
3.654458 2.126300 -0.002726 0.0
2.412826 1.011311 -0.000624 0.0
3.128531 1.651809 0.002829 0.0
1.562280 1.979814 0.004595 0.0
1.912357 0.205889 -0.004919 0.0
1.040658 0.622211 0.000650 0.0
2.671522 0.700683 -0.000413 0.0
1.759355 0.603351 0.000603 0.0
1.239470 1.083630 0.001893 0.0
2.890362 1.447134 0.003930 0.0
3.844189 0.140422 0.000155 0.0
3.253504 0.036723 0.002790 0.0
0.810374 1.648957 -0.001006 0.0
1.306457 1.661765 0.002550 0.0
1.588124 0.767934 -0.001742 0.0
4.153604 1.527921 0.005089 0.0
1.981618 1.949895 -0.000926 0.0
0.667686 1.679023 -0.003849 0.0
1.972999 1.892425 -0.000190 0.0
2.099427 1.118292 -0.001591 0.0
3.460939 1.881541 0.000516 0.0
3.321580 1.559098 -0.002786 0.0
1.420431 1.141490 0.001359 0.0
0.587741 1.836313 0.000674 0.0
1.553390 0.273800 0.003481 0.0
4.118315 1.735700 0.000827 0.0
2.722676 1.845405 0.004972 0.0
1.116570 1.284218 -0.000782 0.0
0.305238 2.015662 -0.002678 0.0
1.454475 0.033022 -0.001846 0.0
3.309113 1.560563 0.003672 0.0
1.677904 0.550804 -0.004942 0.0
3.721373 0.529607 -0.002068 0.0
2.214398 0.967057 0.004009 0.0
0.451892 1.386280 0.000561 0.0
0.990822 1.299743 -0.000515 0.0
0.245412 2.109353 0.001888 0.0
3.231793 0.143942 -0.000591 0.0
3.230337 2.149026 0.000869 0.0
3.328129 0.369869 0.002029 0.0
0.458885 0.213573 -0.000045 0.0
1.841481 1.387520 0.001316 0.0
1.294107 1.276904 0.004022 0.0
2.443193 0.778298 0.000849 0.0
1.113137 1.675688 0.001361 0.0
1.260442 1.252111 0.003532 0.0
4.101145 2.169976 -0.001393 0.0
0.835866 2.034596 0.000555 0.0
1.436592 1.619010 0.003364 0.0
3.369697 0.729975 0.002302 0.0
1.597901 0.492294 0.000333 0.0
3.855740 1.793245 -0.001298 0.0
1.219930 2.144099 -0.000461 0.0
1.501333 1.628768 -0.001404 0.0
3.393639 1.734578 -0.005323 0.0
2.879629 1.156318 -0.000473 0.0
1.671479 1.148647 -0.000387 0.0
0.349685 2.087455 0.003850 0.0
0.644034 0.037693 0.003330 0.0
1.142042 0.336149 -0.004306 0.0
2.973581 0.258687 -0.002855 0.0
2.604869 1.450833 -0.002893 0.0
2.629850 0.439017 0.001211 0.0
1.900100 0.202553 0.000552 0.0
1.896164 1.433253 0.002261 0.0
4.097847 2.113612 0.000703 0.0
3.272332 1.687058 -0.000043 0.0
2.203161 0.594111 0.000201 0.0
1.832769 1.964285 0.002525 0.0
0.868136 1.552206 0.002666 0.0
2.437904 0.115982 0.003574 0.0
3.186037 0.435622 0.000151 0.0
3.433205 1.853958 -0.003145 0.0
3.017158 1.792017 -0.000454 0.0
2.699629 0.517039 -0.004357 0.0
3.991972 0.811926 0.003280 0.0
3.119344 0.078407 0.000994 0.0
0.527619 0.689419 0.000186 0.0
0.636009 1.903465 0.000471 0.0
2.690383 1.138185 0.001425 0.0
2.488950 0.902978 -0.001307 0.0
0.563350 0.358854 0.000384 0.0
3.814273 1.678582 -0.001251 0.0
2.329763 0.023491 0.002919 0.0
1.292224 1.014462 0.003588 0.0
1.451930 0.605401 -0.003159 0.0
3.354226 1.138979 0.001234 0.0
2.861245 1.087465 -0.001332 0.0
1.732047 1.598483 0.005059 0.0
2.507111 1.050358 -0.002538 0.0
2.303008 1.983502 -0.001557 0.0
1.704754 1.796884 -0.002598 0.0
0.468976 1.821515 -0.002514 0.0
2.658747 2.111236 -0.001509 0.0
1.103773 1.871527 0.003425 0.0
2.574917 2.105265 -0.003167 0.0
1.761580 2.066347 0.001380 0.0
2.215324 0.995782 -0.001029 0.0
2.540341 1.234213 0.001867 0.0
3.940269 1.665538 0.000172 0.0
0.753204 0.179473 -0.001235 0.0
1.753490 0.885719 -0.002396 0.0
0.915874 0.216557 0.002973 0.0
3.455791 2.018774 0.003938 0.0
1.807627 1.351041 0.001000 0.0
1.492804 0.327041 0.000911 0.0
3.705889 0.446379 -0.002357 0.0
4.176433 1.774731 -0.003908 0.0
4.016472 0.177433 -0.002376 0.0
2.573194 1.069552 -0.003154 0.0
1.450895 1.106192 0.001166 0.0
1.181798 1.667024 0.002923 0.0
2.043203 1.201156 -0.000051 0.0
0.268917 1.401445 0.006975 0.0
0.016066 2.171592 0.002331 0.0
0.597717 0.975110 0.001296 0.0
1.446412 0.627901 -0.001624 0.0
1.569722 0.852849 -0.003094 0.0
2.533247 0.578659 -0.002477 0.0
2.609704 0.380926 0.000399 0.0
3.815008 0.285519 0.001954 0.0
1.403171 0.538125 -0.005126 0.0
2.579946 0.521346 0.003909 0.0
0.328051 0.783906 -0.000006 0.0
0.614829 1.631073 -0.000324 0.0
3.485463 0.857439 -0.000997 0.0
3.651325 0.430951 0.003799 0.0
0.794993 1.822779 -0.001119 0.0
2.386853 1.149647 0.001272 0.0
0.119822 1.816941 0.000264 0.0
1.906512 1.856700 0.002054 0.0
1.895943 0.244311 -0.001846 0.0
2.877573 1.406175 0.001371 0.0
0.735554 0.979859 0.000199 0.0
3.780194 1.379521 -0.000720 0.0
2.912984 0.490030 0.000513 0.0
0.817291 2.049550 -0.003722 0.0
1.815547 1.190177 0.005783 0.0
1.363307 1.784951 -0.002065 0.0
1.650738 2.112799 -0.001127 0.0
4.005214 0.150802 0.003235 0.0
3.681401 0.325457 -0.001872 0.0
3.227938 1.028380 -0.000710 0.0
1.854547 0.285062 0.001492 0.0
3.928898 0.160745 0.000636 0.0
2.779345 2.027814 -0.001300 0.0
4.022278 1.130389 0.000761 0.0
4.169812 0.842683 0.003417 0.0
0.816918 0.207441 -0.002167 0.0
1.332759 2.136083 -0.000375 0.0
3.195755 1.074082 0.000156 0.0
1.206900 0.845277 0.004097 0.0
0.541327 0.225119 -0.003604 0.0
3.592474 1.481313 -0.001723 0.0
1.777787 1.171342 -0.001243 0.0
1.515660 0.427088 0.008876 0.0
1.336799 1.919274 -0.000946 0.0
4.145459 0.798489 -0.002492 0.0
1.585268 0.379270 -0.002234 0.0
1.118882 0.593147 -0.001355 0.0
1.166113 0.903060 0.005646 0.0
4.098854 1.793563 -0.002694 0.0
4.188999 1.103524 0.002967 0.0
1.105046 1.596955 0.003673 0.0
1.777211 0.122343 -0.003909 0.0
0.902052 1.754366 -0.001526 0.0
0.386195 2.056147 0.002461 0.0
1.129958 1.874100 0.001442 0.0
2.413218 0.655972 0.001912 0.0
2.042144 0.765529 -0.004075 0.0
0.335788 1.714134 -0.002132 0.0
1.515113 1.316668 0.001501 0.0
2.239771 1.777294 -0.001399 0.0
3.318447 1.642447 -0.003101 0.0
1.177755 0.435465 -0.002953 0.0
1.698242 1.611431 -0.003326 0.0
2.529864 0.951980 -0.001313 0.0
4.066649 1.095825 0.000352 0.0
0.669995 0.881802 0.000256 0.0
1.444354 0.204256 0.004901 0.0
0.324223 0.121940 0.000855 0.0
3.881247 1.065295 0.003959 0.0
0.645834 0.120341 0.000920 0.0
2.816527 0.783805 -0.001083 0.0
3.216010 0.703585 -0.000454 0.0
1.377520 2.170793 0.004935 0.0
1.654776 0.951522 -0.001368 0.0
1.193923 0.500276 -0.002171 0.0
3.091033 0.674312 -0.000976 0.0
2.949737 0.350061 -0.000491 0.0
0.967350 1.277396 -0.005409 0.0
0.506329 0.584128 -0.000757 0.0
1.057755 0.610639 0.001372 0.0
1.366051 0.873943 -0.004076 0.0
3.915831 0.148984 0.000390 0.0
2.026772 0.883755 -0.000398 0.0
0.461524 1.328670 -0.003600 0.0
2.966251 1.543799 0.006801 0.0
0.940831 0.031377 -0.002710 0.0
2.822714 1.291544 0.003751 0.0
1.469007 1.333102 -0.004742 0.0
2.584569 0.754160 0.001547 0.0
0.605151 1.151470 -0.002837 0.0
0.205797 0.066762 0.000266 0.0
0.086250 1.096310 -0.002280 0.0
0.486506 0.553635 -0.000188 0.0
2.810876 0.609336 0.004741 0.0
1.039117 1.571727 -0.001049 0.0
3.283191 1.379137 -0.001560 0.0
1.421311 1.349790 0.001561 0.0
0.796871 1.325331 -0.002775 0.0
2.593120 1.311444 -0.002205 0.0
4.136020 1.418643 -0.000660 0.0
3.191824 0.679809 -0.001901 0.0
3.287765 2.055103 -0.002930 0.0
1.221740 1.445988 0.002198 0.0
3.797025 0.513482 0.000572 0.0
3.186948 0.487092 0.003258 0.0
2.537953 0.140038 0.007008 0.0
0.402933 1.038550 0.002768 0.0
2.499784 1.845078 -0.005193 0.0
0.663887 2.039323 -0.002959 0.0
1.675830 0.929456 0.002259 0.0
4.033753 0.203457 0.003115 0.0
3.684256 0.348609 0.001374 0.0
2.151609 1.853073 -0.000217 0.0
3.381844 1.163789 -0.000621 0.0
1.081967 0.314525 0.002549 0.0
1.580702 0.227572 -0.003533 0.0
2.087184 1.661633 -0.004312 0.0
0.831603 0.553965 -0.000804 0.0
1.674080 0.646129 -0.000295 0.0
0.942970 0.183839 0.004135 0.0
3.715381 1.662116 0.001512 0.0
0.115648 0.731851 0.003105 0.0
2.373249 1.378407 0.004825 0.0
2.777001 0.263362 0.000239 0.0
2.968498 1.345710 -0.003466 0.0
1.355927 1.543205 0.001925 0.0
2.193463 0.104487 -0.003289 0.0
2.022992 1.152954 0.001876 0.0
1.716814 1.096712 -0.000485 0.0
2.890410 1.078120 -0.001012 0.0
0.297535 0.254469 -0.001677 0.0
0.621959 1.127914 -0.000464 0.0
2.664529 1.798619 -0.000861 0.0
2.535986 1.336570 -0.004241 0.0
1.473001 0.891063 -0.002943 0.0
2.472152 0.910339 -0.001131 0.0
2.580609 1.223981 0.002042 0.0
1.747392 0.674988 0.001829 0.0
1.772574 0.988364 0.001291 0.0
2.195831 1.339943 -0.001688 0.0
2.733099 0.894383 0.000847 0.0
3.527384 0.920513 0.001174 0.0
0.073293 0.122071 -0.002406 0.0
3.407175 0.590457 -0.002719 0.0
1.735330 1.832055 0.000355 0.0
0.965478 1.040160 -0.000507 0.0
2.691582 0.542741 -0.000418 0.0
2.284219 0.366241 -0.001590 0.0
2.422508 1.346739 0.001976 0.0
1.027157 0.569135 -0.000418 0.0
2.946397 1.603078 0.002691 0.0
3.536491 2.136471 -0.001135 0.0
1.407182 1.284568 0.005987 0.0
0.818233 0.701580 0.001386 0.0
3.219762 0.821010 0.000389 0.0
3.568962 0.633948 0.002959 0.0
3.990659 1.511608 0.000477 0.0
3.111176 1.975397 0.002323 0.0
1.802899 2.050788 0.000047 0.0
0.060406 1.994032 -0.000976 0.0
0.802765 1.379766 -0.001943 0.0
3.478758 1.793530 0.002946 0.0
3.825817 1.744089 0.001624 0.0
0.727107 0.946633 -0.002901 0.0
2.009009 0.442653 0.002598 0.0
2.487991 1.706784 0.000206 0.0
3.748687 1.279006 0.005145 0.0
4.028816 0.036336 -0.002708 0.0
2.324313 1.934049 -0.000164 0.0
3.683297 1.635216 -0.002533 0.0
3.090559 2.114237 0.001216 0.0
1.890095 1.121244 0.002450 0.0
2.543478 0.217340 0.003247 0.0
1.491100 0.815375 -0.000531 0.0
3.907560 0.041355 0.000293 0.0
3.115244 1.233026 -0.003342 0.0
2.915025 0.935806 -0.004539 0.0
2.031644 1.361703 -0.002618 0.0
3.848043 1.445216 -0.000919 0.0
2.538350 0.519174 0.000954 0.0
2.616110 2.172594 0.002049 0.0
1.928420 1.908237 -0.005278 0.0
2.560237 1.380432 -0.005643 0.0
3.630740 0.958952 0.001489 0.0
0.078621 0.664172 0.000608 0.0
2.440451 0.978700 -0.004002 0.0
2.618414 0.926552 0.000626 0.0
0.100329 1.339994 0.001030 0.0
1.973845 1.382048 -0.000038 0.0
3.409329 0.313364 0.001267 0.0
3.844433 1.410700 0.001814 0.0
3.083584 1.781213 -0.003988 0.0
3.746140 0.315930 -0.001446 0.0
0.520656 0.416876 -0.002978 0.0
2.651664 0.574715 0.005259 0.0
2.094226 1.596125 0.002595 0.0
0.006485 1.798016 0.002381 0.0
3.146939 0.431269 0.003402 0.0
4.116837 0.175121 -0.001441 0.0
0.638501 0.115309 -0.001762 0.0
0.514635 1.641924 -0.000892 0.0
2.382207 1.111151 0.003315 0.0
3.942976 1.239877 0.003080 0.0
3.436237 1.845817 0.000675 0.0
3.786933 0.095364 -0.005049 0.0
0.435504 0.976459 0.001337 0.0
2.413217 0.668299 0.004523 0.0
2.685581 2.077609 -0.000970 0.0
2.497796 1.747672 -0.002102 0.0
3.255363 0.034836 0.001569 0.0
0.784923 1.108559 -0.000101 0.0
0.548558 1.846909 -0.003096 0.0
2.682945 0.659068 0.000231 0.0
1.875310 1.759984 -0.000559 0.0
3.347869 1.965908 0.000413 0.0
2.512506 1.518993 -0.005023 0.0
1.173849 2.023069 -0.002530 0.0
0.884086 0.003436 -0.003777 0.0
2.803114 0.106290 0.000079 0.0
2.377710 0.258551 0.005952 0.0
0.416929 0.865859 0.001978 0.0
3.727256 0.637205 0.001835 0.0
0.985261 1.329128 -0.001688 0.0
1.291067 0.449817 0.000570 0.0
3.397925 1.403222 0.005900 0.0
2.024106 0.870958 0.003315 0.0
3.268635 0.401908 0.000644 0.0
1.586733 0.763592 -0.004015 0.0
3.085980 1.975048 0.001727 0.0
1.984192 1.725179 -0.000444 0.0
1.769480 2.001591 0.001934 0.0
0.058313 1.264923 0.002508 0.0
0.189710 0.736394 -0.001049 0.0
4.172756 0.423240 0.002771 0.0
2.274935 0.446924 -0.003327 0.0
3.477216 1.087704 0.001367 0.0
3.016274 1.409350 0.000611 0.0
1.841225 0.785373 0.001800 0.0
0.196254 0.989205 -0.000555 0.0
1.055536 1.722853 -0.003506 0.0
1.340050 1.186045 0.002325 0.0
2.923241 1.377554 -0.000791 0.0
0.165562 1.896121 0.004545 0.0
1.045967 0.902668 0.001273 0.0
0.204979 0.066217 0.001212 0.0
0.863630 0.187565 0.000740 0.0
3.699516 1.813937 0.001088 0.0
3.644964 2.079841 -0.001694 0.0
1.874982 0.297381 0.001160 0.0
1.153338 0.281626 0.000819 0.0
2.704749 0.252785 -0.000392 0.0
3.419508 0.258229 -0.002599 0.0
0.963896 0.266449 -0.000237 0.0
3.013368 0.840733 -0.001672 0.0
0.373679 1.090254 0.000959 0.0
2.495497 0.923771 -0.002689 0.0
3.635613 2.123402 0.005053 0.0
2.909920 1.099055 0.003113 0.0
1.772760 0.895032 -0.001556 0.0
3.676122 0.823240 -0.002413 0.0
2.084619 0.865672 0.000328 0.0
3.441377 0.949515 -0.001148 0.0
2.362957 1.467726 -0.003419 0.0
2.609313 0.463497 0.001560 0.0
0.737109 1.823285 0.000416 0.0
3.176179 1.431076 0.000676 0.0
3.566553 0.559426 -0.001210 0.0
1.672936 0.885377 0.003538 0.0
2.309773 0.171146 0.000860 0.0
2.230762 1.565417 -0.000219 0.0
0.803733 1.804607 0.004384 0.0
2.075630 1.310174 0.002482 0.0
2.120984 0.479865 0.003147 0.0
0.207940 0.337098 0.005009 0.0
4.045569 0.143933 -0.004801 0.0
0.941417 0.088772 -0.003508 0.0
1.515293 1.466989 -0.002732 0.0
3.334891 1.218593 0.001450 0.0
1.150985 1.925242 0.002256 0.0
1.979169 1.536312 0.002163 0.0
3.843575 1.499886 0.004057 0.0
3.927370 1.021622 -0.002006 0.0
0.014111 0.429628 -0.001540 0.0
3.988658 2.104026 -0.003365 0.0
3.747396 1.140417 -0.002202 0.0
0.943734 1.193136 -0.002911 0.0
2.803078 0.334740 0.005446 0.0
2.125657 2.022763 0.002324 0.0
0.912632 2.143357 -0.002018 0.0
1.785516 0.976746 0.002481 0.0
0.142280 0.429483 0.000794 0.0
1.722532 1.271855 0.002440 0.0
2.053676 1.615745 -0.002301 0.0
3.326954 1.510297 0.002470 0.0
1.064887 0.178295 0.005546 0.0
1.660490 0.706729 0.004841 0.0
0.298754 0.134661 0.000780 0.0
1.427731 0.135347 0.001906 0.0
3.635835 0.757254 0.001154 0.0
3.516826 2.147549 -0.002264 0.0
2.750038 1.916311 0.001652 0.0
1.705977 1.301486 -0.001442 0.0
1.008624 0.817483 0.004103 0.0
2.798867 0.672619 0.001359 0.0
2.304287 0.362906 -0.001630 0.0
0.413264 0.926671 -0.001884 0.0
1.271037 1.907682 0.002741 0.0
3.297528 0.259411 0.002669 0.0
3.510353 0.119933 0.000530 0.0
2.433825 0.644799 -0.005455 0.0
1.302627 2.061981 0.003030 0.0
2.848784 2.062934 -0.000992 0.0
0.677829 0.882819 0.000106 0.0
1.336408 0.022002 -0.003325 0.0
0.136714 1.287664 -0.000200 0.0
3.904561 0.614259 -0.002043 0.0
3.867364 0.141427 0.001969 0.0
3.046934 0.574831 0.002208 0.0
0.229120 0.651553 0.001718 0.0
0.744016 0.712833 0.004862 0.0
2.216020 0.683651 0.001652 0.0
3.448577 2.153025 0.002357 0.0
1.646730 0.255086 0.003978 0.0
1.729172 0.867911 0.001125 0.0
4.133777 1.101158 0.004366 0.0
2.197540 0.262043 -0.005625 0.0
4.186074 2.167838 -0.002205 0.0
0.171121 1.820457 -0.002201 0.0
0.106314 0.538667 -0.003179 0.0
2.053219 1.666243 0.001097 0.0
2.417954 1.042509 0.001922 0.0
2.668188 0.121909 0.000161 0.0
2.150285 0.559087 0.000764 0.0
0.320421 1.871555 -0.000568 0.0
2.306782 0.206627 0.000873 0.0
1.500222 1.580769 0.002362 0.0
1.388164 1.235016 0.001062 0.0
3.442759 1.386796 0.000656 0.0
1.471850 0.245789 0.000896 0.0
2.407779 0.625488 -0.001626 0.0
3.345934 1.473661 0.003736 0.0
2.132068 1.826448 0.000830 0.0
0.655562 1.827497 0.001352 0.0
2.428137 1.340239 -0.001776 0.0
2.670673 0.559899 0.001442 0.0
0.750134 1.663443 -0.001603 0.0
1.811011 1.639265 0.001680 0.0
0.143705 1.938697 -0.004871 0.0
2.345577 1.833135 -0.000570 0.0
0.445665 1.058560 -0.003771 0.0
0.190480 1.571870 -0.001109 0.0
1.849655 1.037279 0.003422 0.0
1.291124 1.472942 0.002493 0.0
0.863208 1.062653 -0.003670 0.0
2.773985 1.687326 -0.001619 0.0
3.837222 1.697006 0.001721 0.0
3.142551 1.845787 0.001329 0.0
2.929351 0.326659 0.002807 0.0
1.328546 1.387799 -0.001750 0.0
0.823809 0.961645 -0.002086 0.0
1.748612 1.093988 -0.005383 0.0
3.933507 0.413769 0.001034 0.0
3.673047 2.031579 0.000268 0.0
3.911139 1.743839 0.001470 0.0
1.850497 1.651214 -0.001923 0.0
0.786544 1.783552 0.001814 0.0
0.121147 2.109984 0.003957 0.0
1.639549 1.871556 0.001365 0.0
0.988154 0.335388 0.000724 0.0
0.208279 0.030404 -0.004812 0.0
3.704071 0.133027 -0.000138 0.0
2.832665 0.956695 -0.002125 0.0
2.599638 0.803947 0.000052 0.0
0.308144 1.811325 -0.002463 0.0
0.292173 0.515555 -0.000089 0.0
3.664035 0.100326 0.002428 0.0
3.365493 1.465146 -0.002060 0.0
3.907944 2.183970 0.001581 0.0
4.065262 0.305294 -0.000560 0.0
2.191843 1.064100 0.003694 0.0
2.366775 0.307526 0.000092 0.0
0.153632 0.792190 0.000420 0.0
1.840057 0.786264 -0.001616 0.0
2.386689 2.097978 -0.001730 0.0
0.115724 1.202540 0.008085 0.0
3.619715 0.720800 -0.002908 0.0
3.593179 1.789003 0.001752 0.0
2.311138 0.913396 -0.001577 0.0
3.260330 0.908117 0.000375 0.0
0.027730 0.979942 0.002004 0.0
0.572782 1.995372 0.006194 0.0
1.057063 0.308111 0.003465 0.0
2.918255 1.624250 -0.002750 0.0
2.103257 1.177999 -0.000724 0.0
3.896984 1.135994 -0.001238 0.0
1.796768 2.084486 -0.002138 0.0
2.157067 0.535885 -0.003461 0.0
3.781008 0.344040 -0.001487 0.0
4.034119 0.701301 -0.001651 0.0
1.245763 1.212052 0.005970 0.0
2.617414 0.633813 -0.002520 0.0
0.315452 1.353202 -0.001248 0.0
2.655948 0.499984 0.000545 0.0
3.273799 0.238236 0.003608 0.0
0.129530 0.748896 0.002093 0.0
0.324610 0.846688 -0.000572 0.0
1.938492 1.785312 -0.002294 0.0
2.493641 0.384600 -0.001106 0.0
1.900678 1.043901 0.001380 0.0
3.053558 0.211868 0.001248 0.0
0.117441 1.176449 0.000140 0.0
0.274509 1.075596 -0.001462 0.0
1.451745 1.711729 -0.004592 0.0
2.394238 1.666628 -0.000336 0.0
2.597871 1.831916 0.002995 0.0
3.696780 1.037520 -0.001290 0.0
0.581587 0.421464 0.003862 0.0
2.858797 0.285438 0.000938 0.0
1.862821 1.061441 -0.001621 0.0
4.129779 1.568674 -0.001510 0.0
0.928996 1.824471 -0.001665 0.0
1.595612 1.232809 0.003644 0.0
3.544296 1.406414 -0.001389 0.0
2.716095 2.015045 -0.000349 0.0
1.811722 0.832158 0.000536 0.0
0.490274 0.810211 0.002976 0.0
2.737208 1.543625 -0.000686 0.0
3.931737 1.295971 -0.000030 0.0
3.629234 1.989252 -0.003587 0.0
1.340045 0.530584 -0.004826 0.0
3.024480 0.311606 0.000606 0.0
0.514301 1.941443 -0.002943 0.0
1.358934 1.367426 -0.002407 0.0
1.122891 2.179358 0.002772 0.0
0.307159 0.743962 -0.000413 0.0
0.960401 0.029176 0.001864 0.0
2.856994 1.842673 -0.000881 0.0
1.066069 1.171226 0.000959 0.0
1.113481 0.888712 -0.001157 0.0
2.209357 0.469803 0.000797 0.0
3.462831 0.889118 -0.002759 0.0
2.368124 1.914167 -0.004623 0.0
3.766227 1.054160 0.001346 0.0
3.347123 2.096366 0.002001 0.0
0.295713 2.166943 0.004256 0.0
4.043942 0.878369 0.003367 0.0
2.928095 2.161389 0.002918 0.0
0.539902 1.854713 -0.002011 0.0
4.160347 0.740472 0.001655 0.0
3.049883 1.518460 -0.002544 0.0
0.643917 1.749461 -0.001751 0.0
2.822155 1.189282 -0.001784 0.0
2.946249 0.552784 0.002377 0.0
3.973191 1.002479 0.004567 0.0
0.091015 1.876948 -0.004014 0.0
2.375898 0.358512 -0.004092 0.0
1.506266 0.362546 -0.001329 0.0
3.733172 0.741846 0.005243 0.0
1.970547 1.433694 0.003467 0.0
3.179175 1.143736 -0.000182 0.0
0.133775 1.351289 0.001946 0.0
0.826029 1.553590 -0.000109 0.0
2.451093 0.012938 0.003606 0.0
0.116490 0.221319 0.004113 0.0
1.095270 0.701104 -0.003182 0.0
3.848902 0.171041 0.000471 0.0
3.537482 2.032730 0.000506 0.0
1.114675 1.943556 0.002864 0.0
2.296456 0.467480 -0.000719 0.0
1.532489 1.247814 -0.003956 0.0
1.185466 0.785968 0.000876 0.0
2.741956 1.959629 -0.000505 0.0
1.313611 1.816974 -0.000632 0.0
1.369183 0.418920 -0.000369 0.0
4.014984 0.290586 -0.003821 0.0
3.452055 2.106427 0.002072 0.0
2.511709 0.540962 0.001240 0.0
2.743882 0.528303 -0.001142 0.0
2.251991 0.782509 -0.000165 0.0
0.122688 1.473875 0.000611 0.0
2.117704 0.581550 -0.002359 0.0
0.846038 0.514749 0.002399 0.0
3.255133 0.581684 -0.001822 0.0
1.525910 0.796677 0.004294 0.0
4.097233 2.170564 -0.000012 0.0
3.185810 0.315229 -0.002866 0.0
4.036946 0.027112 0.004459 0.0
2.305988 0.665468 -0.000031 0.0
0.716392 0.896131 -0.004531 0.0
1.640379 1.524312 -0.003220 0.0
0.246648 1.959261 -0.001097 0.0
2.314890 0.542688 0.001981 0.0
2.363225 0.621529 -0.002902 0.0
0.935837 1.756071 0.003971 0.0
2.042453 1.021033 -0.001862 0.0
3.611320 1.529090 0.000102 0.0
2.754642 1.681443 0.002554 0.0
3.724134 1.794829 -0.003678 0.0
0.856566 0.896201 0.005259 0.0
0.351895 0.200082 0.003653 0.0
0.664383 1.309998 -0.003721 0.0
2.261266 0.326578 0.003301 0.0
0.592538 0.330973 0.001569 0.0
0.625856 1.453752 -0.000170 0.0
1.182089 1.761602 -0.003386 0.0
1.477935 0.464388 0.000515 0.0
3.900594 0.914725 0.001279 0.0
0.657522 2.066634 0.004651 0.0
3.321136 1.503004 -0.000384 0.0
0.022991 0.090784 -0.000446 0.0
3.425281 2.172336 -0.003411 0.0
3.252632 1.789295 -0.003067 0.0
2.160715 0.048013 0.000962 0.0
3.552964 1.170489 -0.000249 0.0
2.617444 0.372403 0.000232 0.0
2.606902 0.250168 0.000585 0.0
0.737994 0.803967 0.002876 0.0
0.174492 1.713072 -0.000752 0.0
0.530807 0.746837 -0.004370 0.0
2.333485 2.061904 -0.001750 0.0
1.130896 1.711380 -0.003384 0.0
0.260892 1.474495 0.000868 0.0
2.297344 0.237689 -0.000113 0.0
2.511811 0.064387 0.005859 0.0
4.088746 0.182367 0.005865 0.0
1.102922 0.219373 0.000413 0.0
0.534854 1.580592 -0.002711 0.0
0.577362 0.951850 -0.000191 0.0
2.847558 1.768898 0.001544 0.0
0.465504 0.434836 0.004120 0.0
2.954290 1.267846 0.002583 0.0
2.852786 0.932786 -0.002738 0.0
1.546784 1.198906 0.000588 0.0
3.006477 0.352421 0.002491 0.0
2.831694 0.807080 -0.001264 0.0
3.342596 0.011872 0.001890 0.0
2.334285 1.155268 -0.001759 0.0
0.756666 1.879872 0.002929 0.0
3.038973 0.579518 0.000433 0.0
1.014214 1.484043 -0.000878 0.0
4.018420 0.734418 -0.000907 0.0
2.706057 1.931703 0.000758 0.0
0.274696 2.149853 0.001045 0.0
1.515938 1.571084 -0.001247 0.0
1.337489 2.059422 0.000611 0.0
2.805017 0.531133 0.005909 0.0
3.339524 1.071554 -0.001490 0.0
3.941033 0.377531 0.001009 0.0
2.851298 0.221382 -0.003421 0.0
2.187231 1.487766 -0.002786 0.0
3.579774 0.320271 0.001052 0.0
0.050880 0.313185 0.001429 0.0
0.248557 1.615901 0.002027 0.0
1.197997 2.078120 0.002166 0.0
3.837377 1.674085 -0.001457 0.0
2.914502 2.149851 0.001927 0.0
0.355481 0.478995 -0.004028 0.0
0.642852 1.633714 -0.002943 0.0
0.278477 0.967242 -0.000298 0.0
0.420414 0.806870 -0.001864 0.0
2.999579 2.170538 0.003563 0.0
1.910269 1.583922 0.001828 0.0
2.485282 0.483872 -0.001583 0.0
0.104632 1.886499 0.001706 0.0
2.937084 1.360052 0.001914 0.0
0.349816 1.866829 0.000756 0.0
2.100552 0.203898 -0.002729 0.0
2.095502 1.925473 -0.002697 0.0
1.933408 0.233616 -0.001407 0.0
1.112963 0.976167 -0.003434 0.0
2.698359 0.074940 -0.001259 0.0
1.281858 2.027158 -0.000284 0.0
0.226878 0.277939 0.002605 0.0
1.532706 0.657188 0.004684 0.0
2.123384 2.101306 0.000935 0.0
3.996386 1.748284 -0.003230 0.0
4.015480 2.110813 -0.004067 0.0
2.466028 0.518058 0.004297 0.0
3.388743 1.806344 0.004023 0.0
0.397814 1.405041 -0.003665 0.0
3.016703 0.070993 -0.004662 0.0
1.698467 1.501721 0.001838 0.0
2.481131 0.465045 0.001455 0.0
1.558766 1.546930 0.000591 0.0
3.216729 0.922301 -0.000493 0.0
3.329312 1.779233 -0.004583 0.0
1.813208 1.918958 0.003442 0.0
1.985364 0.147238 -0.000625 0.0
3.918962 1.460003 0.001222 0.0
1.689237 1.642665 0.001847 0.0
2.090169 1.867443 -0.000076 0.0
3.518949 1.502287 0.001797 0.0
2.047704 1.103368 0.004048 0.0
2.293268 0.707123 -0.000591 0.0
1.657175 1.763484 -0.000160 0.0
1.231774 0.841495 0.003905 0.0
1.526285 0.092747 -0.004552 0.0
4.174980 1.627812 -0.001044 0.0
0.083001 1.664800 -0.001897 0.0
0.176104 0.163758 0.002822 0.0
2.012039 1.115792 0.001138 0.0
3.922868 0.335801 0.000660 0.0
1.476958 1.522434 -0.002938 0.0
0.982034 0.608142 -0.000103 0.0
1.201963 0.966335 -0.001984 0.0
2.029653 0.262868 0.001295 0.0
0.916333 1.203632 -0.000423 0.0
1.146486 1.485084 0.000126 0.0
0.394080 0.704700 -0.002540 0.0
3.021690 0.342523 0.004459 0.0
3.618531 0.133640 -0.002321 0.0
3.808126 1.331048 -0.001991 0.0
2.131320 1.829966 -0.001153 0.0
1.835468 1.941477 -0.000548 0.0
1.107988 0.946396 -0.001320 0.0
2.209407 0.462519 -0.001535 0.0
3.948732 2.046942 0.002891 0.0
3.209302 0.190047 -0.000774 0.0
2.415090 0.473847 0.000957 0.0
4.101501 0.739157 -0.000428 0.0
0.072146 0.472344 -0.000927 0.0
1.697147 0.488471 0.000972 0.0
1.168721 1.664003 0.003114 0.0
1.878532 1.196521 0.002922 0.0
4.189848 2.192790 -0.003207 0.0
0.429608 1.746431 0.002715 0.0
2.171707 1.679779 -0.000483 0.0
1.454495 1.076287 -0.000535 0.0
0.900618 1.804739 -0.001853 0.0
1.712790 0.300886 0.006517 0.0
3.312477 0.076962 -0.000018 0.0
1.082638 1.779657 -0.000604 0.0
2.853610 1.359071 0.001158 0.0
2.232118 1.634194 -0.000688 0.0
0.652505 0.070593 -0.002101 0.0
2.017936 1.617438 -0.003410 0.0
2.274487 1.587865 -0.000823 0.0
3.463321 0.873251 0.001027 0.0
0.134716 0.151931 0.004348 0.0
3.595580 0.643430 -0.002067 0.0
1.187581 2.184137 -0.002383 0.0
4.186915 1.811507 0.000917 0.0
1.013306 1.140455 -0.001160 0.0
3.953981 2.179623 0.001070 0.0
0.622611 0.340501 0.001978 0.0
0.354201 2.143800 -0.001166 0.0
2.006702 0.213727 -0.000159 0.0
2.243112 1.652490 -0.003888 0.0
1.745618 1.768193 -0.000415 0.0
3.068477 0.316038 0.000528 0.0
2.076906 1.970289 0.001741 0.0
2.686224 0.806579 0.005531 0.0
0.189602 1.092411 -0.000627 0.0
3.143172 0.863804 0.003153 0.0
0.024335 0.127151 -0.003572 0.0
0.051944 1.753148 -0.001638 0.0
2.293236 1.367578 -0.002376 0.0
3.108252 0.177640 -0.004076 0.0
1.354275 0.559512 0.006635 0.0
2.399721 0.382633 -0.002568 0.0
0.862009 0.711272 -0.001636 0.0
0.777222 0.169750 -0.001078 0.0
0.656997 0.122680 0.000601 0.0
1.318195 0.264077 0.002907 0.0
1.715224 0.556580 0.003051 0.0
3.326173 0.311787 -0.000186 0.0
0.314489 0.262632 -0.002096 0.0
3.679736 0.467178 -0.002246 0.0
1.874192 1.445225 0.000208 0.0
3.671730 1.871764 0.003810 0.0
0.929376 0.586929 0.001790 0.0
3.527325 1.457760 0.003582 0.0
0.526851 0.437368 0.007045 0.0
2.246143 1.135513 -0.002867 0.0
1.027752 0.205494 0.006278 0.0
2.342154 0.624666 -0.002072 0.0
3.205151 0.486041 -0.001548 0.0
1.714553 1.283572 -0.001072 0.0
1.942124 0.314662 -0.000634 0.0
3.690509 1.178980 -0.003334 0.0
4.058343 0.266491 0.001628 0.0
2.282230 1.314131 -0.002327 0.0
2.296102 1.466148 0.003359 0.0
3.666759 1.112689 0.000341 0.0
0.538868 0.777729 0.007894 0.0
0.722782 1.329227 -0.001883 0.0
3.705583 0.789287 -0.001058 0.0
0.886142 0.793672 0.003141 0.0
3.630219 1.759955 0.000159 0.0
0.502891 0.752430 -0.001671 0.0
3.473808 1.792842 -0.000950 0.0
1.448902 1.739237 -0.005999 0.0
0.261266 0.684546 0.001756 0.0
3.749681 1.496300 -0.001967 0.0
0.499298 2.097968 -0.001558 0.0
0.718445 0.998682 -0.001875 0.0
3.213179 1.909161 -0.002542 0.0
0.980980 1.836850 0.002624 0.0
3.305595 1.267092 -0.001550 0.0
3.516589 0.742272 0.001671 0.0
1.400007 1.819599 -0.002401 0.0
2.585222 1.157684 -0.000352 0.0
0.348943 0.911806 0.002142 0.0
2.623625 1.047281 -0.002990 0.0
1.228965 1.792841 0.000910 0.0
1.847558 1.742122 -0.001390 0.0
0.174277 0.730278 -0.003024 0.0
1.783159 1.855254 0.000953 0.0
1.432791 0.364212 0.000150 0.0
0.230773 1.498682 -0.001022 0.0
1.609612 1.119577 0.002032 0.0
3.427105 1.789257 -0.002238 0.0
2.454959 1.648086 -0.000931 0.0
2.088320 1.761762 -0.003095 0.0
2.476711 2.164303 -0.001257 0.0
1.103865 1.942363 0.001322 0.0
3.139546 0.482416 -0.001356 0.0
2.061745 1.986355 0.000604 0.0
2.711908 0.446696 0.002140 0.0
2.721348 0.086912 0.000793 0.0
0.394494 1.713022 -0.002023 0.0
0.975911 0.438759 0.001344 0.0
1.395039 1.676534 0.001756 0.0
0.478605 0.415527 -0.000003 0.0
0.713535 0.391518 0.005360 0.0
0.002919 1.192838 -0.002114 0.0
3.780054 2.075911 -0.002182 0.0
2.036283 0.249658 -0.001008 0.0
3.620415 1.034650 0.003338 0.0
1.463591 2.029382 -0.000724 0.0
1.142454 1.552676 0.000394 0.0
2.954571 2.186447 -0.005375 0.0
1.947334 0.916706 -0.001904 0.0
0.483136 0.094398 -0.001872 0.0
2.640811 0.782059 0.001761 0.0
4.080046 0.019125 0.001600 0.0
1.595228 0.708569 0.000991 0.0
2.722471 1.647304 -0.000024 0.0
2.988874 1.132578 -0.002570 0.0
0.368096 0.629605 0.000764 0.0
2.744872 1.826702 -0.002531 0.0
3.531497 0.445303 0.002679 0.0
2.162218 1.284351 -0.001640 0.0
1.195869 0.539812 -0.002271 0.0
2.424091 0.031851 0.000101 0.0
1.221596 1.334955 0.002260 0.0
2.763427 0.889226 0.001856 0.0
2.931751 0.242290 0.004531 0.0
0.825866 1.103284 -0.000313 0.0
0.212099 0.682482 -0.000544 0.0
3.291797 0.165938 -0.000733 0.0
0.099781 1.172951 0.003009 0.0
1.730330 0.973077 0.000791 0.0
0.642150 1.520592 -0.001321 0.0
3.060094 2.147709 -0.004423 0.0
2.225069 0.108450 0.000337 0.0
1.405413 1.433291 0.000704 0.0
1.125470 0.639599 0.000711 0.0
2.026123 1.025793 -0.001750 0.0
0.594153 1.379117 0.000631 0.0
2.068609 1.494667 0.000181 0.0
3.586583 0.450565 -0.002082 0.0
3.128285 0.505078 -0.004298 0.0
0.464765 1.722510 0.000872 0.0
2.359529 1.903007 -0.002610 0.0
3.218885 0.154310 0.000304 0.0
2.329041 1.853110 -0.002023 0.0
3.979091 0.353360 0.003029 0.0
0.301955 2.018569 0.000937 0.0
0.151325 0.781710 -0.001075 0.0
3.872013 1.094921 0.003583 0.0
2.846008 1.808010 0.003460 0.0
1.809570 0.708931 0.002395 0.0
3.573874 1.416174 -0.002047 0.0
2.127360 1.956881 0.000857 0.0
1.213671 0.394342 0.002338 0.0
1.272189 1.998988 0.001100 0.0
3.087788 0.830269 0.002149 0.0
0.339129 1.708359 0.003541 0.0
2.401189 0.038110 0.001092 0.0
2.618547 1.928046 -0.002156 0.0
1.580059 2.171353 0.000787 0.0
3.674863 0.078123 0.001285 0.0
1.368854 0.754018 -0.004758 0.0
1.737991 0.140644 0.001286 0.0
3.526010 2.033633 -0.000146 0.0
3.770916 0.190482 0.000477 0.0
3.537963 1.590106 0.001021 0.0
2.401062 0.898739 -0.003410 0.0
1.645721 0.722633 0.001565 0.0
3.895750 0.185399 0.001290 0.0
0.080793 0.144126 0.003502 0.0
1.281268 2.133558 -0.002076 0.0
2.258936 0.370419 -0.003996 0.0
3.075911 0.493051 -0.001444 0.0
4.115119 0.636323 0.001708 0.0
3.534486 0.728889 0.000842 0.0
1.110978 2.002060 -0.000142 0.0
0.465548 1.960019 0.000074 0.0
2.512754 0.657053 -0.000104 0.0
1.516186 0.525902 -0.003434 0.0
0.296188 0.406821 -0.001440 0.0
1.357994 0.421959 0.001042 0.0
0.857908 1.738577 0.000325 0.0
0.008402 0.778070 -0.000905 0.0
3.253306 0.499886 -0.001643 0.0
0.902563 0.039299 -0.000468 0.0
3.097575 0.105175 0.001975 0.0
2.068025 0.391585 -0.001909 0.0
0.502410 1.879897 0.000944 0.0
2.708458 1.194746 -0.007433 0.0
3.735947 0.901773 0.000819 0.0
1.837185 1.984004 -0.001545 0.0
1.948240 0.415925 -0.001342 0.0
2.373678 1.220641 -0.002806 0.0
1.360548 1.544391 0.001952 0.0
0.077297 0.954239 0.001247 0.0
2.648396 0.980653 -0.000136 0.0
4.082798 0.740579 -0.001724 0.0
0.565670 1.981494 -0.004282 0.0
3.814735 2.044822 0.003141 0.0
0.821790 1.209631 -0.003044 0.0
3.296522 0.678149 -0.000934 0.0
4.087198 0.258613 -0.000958 0.0
0.334547 1.473234 -0.000952 0.0
3.523517 1.830893 0.003009 0.0
0.278962 2.196912 -0.002090 0.0
0.250943 0.722267 0.002680 0.0
3.472074 1.918016 0.000576 0.0
3.121240 0.286775 -0.003507 0.0
2.941519 2.196529 0.000817 0.0
3.283609 0.376535 -0.002051 0.0
2.570383 0.396149 -0.000209 0.0
3.604663 1.935166 0.001092 0.0
1.185075 1.996723 -0.004287 0.0
3.068753 0.634265 -0.000134 0.0
3.376151 1.555517 0.006042 0.0
2.584879 1.992464 0.003323 0.0
1.903888 0.479533 -0.001580 0.0
0.690110 0.947614 0.002632 0.0
0.138157 1.398700 0.004909 0.0
1.600294 0.653349 -0.000967 0.0
1.131306 2.073476 -0.000785 0.0
3.698151 1.681743 -0.001358 0.0
3.067336 0.172281 -0.000173 0.0
4.087885 1.853894 0.002741 0.0
0.379036 0.457086 0.001484 0.0
0.441005 0.013925 0.002177 0.0
2.480364 0.348774 0.001638 0.0
2.099051 0.439964 0.000431 0.0
0.180288 1.709693 -0.001166 0.0
2.518241 1.769882 0.002208 0.0
1.717302 1.871445 -0.008180 0.0
1.753334 0.560632 0.003288 0.0
1.171922 0.774947 0.003196 0.0
0.026231 1.035173 -0.002580 0.0
2.692875 1.463804 0.000924 0.0
0.063960 1.086874 0.000409 0.0
3.060610 1.295830 0.002084 0.0
3.564460 0.306756 0.001448 0.0
0.171838 2.035495 0.000186 0.0
1.699685 1.847665 0.000442 0.0
4.147714 1.990756 0.000394 0.0
2.902520 1.091506 -0.001164 0.0
2.895909 1.441540 0.000306 0.0
0.976983 2.027934 -0.001430 0.0
2.766695 1.301025 0.004140 0.0
1.761464 0.421250 0.000379 0.0
3.853252 1.080919 -0.001378 0.0
4.000011 0.557722 0.000435 0.0
0.846786 0.010253 -0.000037 0.0
4.023799 1.059518 0.001874 0.0
3.784248 0.983226 -0.002617 0.0
0.362862 1.418254 -0.002936 0.0
2.103506 0.200669 0.003034 0.0
2.894863 0.235026 -0.001241 0.0
3.585702 1.063883 -0.001466 0.0
2.964857 1.329702 -0.002093 0.0
0.652740 1.232371 0.001205 0.0
4.179694 1.759342 0.002800 0.0
3.293238 1.088234 -0.000773 0.0
0.100595 1.813007 -0.000253 0.0
3.933378 1.479885 -0.004270 0.0
1.352488 0.442868 0.001222 0.0
2.302671 1.162675 0.000802 0.0
3.378717 1.562421 -0.004048 0.0
0.217760 1.756357 0.000436 0.0
3.275573 1.277476 -0.001365 0.0
2.847749 0.471234 0.003249 0.0
2.093662 0.508084 -0.003849 0.0
0.088842 2.132795 0.000518 0.0
2.346953 1.221264 -0.000228 0.0
2.830314 0.433784 0.004607 0.0
3.090246 1.674765 -0.000230 0.0
3.573349 1.414097 -0.000314 0.0
2.564914 1.451259 -0.002671 0.0
1.269342 0.834550 -0.001632 0.0
0.864704 1.656138 -0.000150 0.0
1.076938 0.609574 -0.001324 0.0
3.062766 0.749862 0.001710 0.0
1.263251 1.441007 -0.001746 0.0
3.603744 1.022120 0.003038 0.0
3.795689 1.951581 -0.001575 0.0
0.863488 1.289126 0.000771 0.0
1.386449 0.438939 -0.003875 0.0
1.897135 0.892692 -0.004989 0.0
2.618483 0.445067 0.000955 0.0
1.919087 1.269980 -0.001932 0.0
1.751095 1.238321 -0.004410 0.0
0.644299 1.777903 0.004033 0.0
3.783640 0.595701 -0.004129 0.0
1.896641 0.955572 0.000958 0.0
0.355133 0.635386 -0.001280 0.0
2.097607 1.779173 0.002075 0.0
0.518651 0.656094 -0.000334 0.0
0.280637 1.550235 0.000223 0.0
0.435809 1.740503 -0.004835 0.0
2.579053 0.602220 0.003022 0.0
3.712014 2.000614 -0.002587 0.0
3.590623 0.706720 0.001019 0.0
3.726966 1.180164 0.003308 0.0
3.981051 1.655124 0.002363 0.0
0.458134 1.252526 -0.003153 0.0
1.706733 1.821500 -0.001966 0.0
3.388199 0.159842 -0.002197 0.0
0.324935 1.072650 -0.002186 0.0
2.883403 1.580398 0.001824 0.0
1.313570 1.858919 -0.003365 0.0
2.675286 2.010262 -0.004384 0.0
3.712629 1.784803 -0.000479 0.0
0.291585 0.325430 0.003407 0.0
1.321431 0.446914 -0.002631 0.0
4.168924 1.240574 -0.001153 0.0
3.940304 1.833445 -0.001190 0.0
1.434497 0.201050 0.004751 0.0
0.012794 1.962585 -0.001888 0.0
3.159971 1.035393 -0.000569 0.0
2.431578 1.324541 -0.000966 0.0
1.135556 1.519258 0.000135 0.0
1.877876 0.738596 -0.003586 0.0
2.410962 1.257270 0.000410 0.0
2.164125 1.206618 0.001011 0.0
0.951998 1.110591 -0.004864 0.0
3.092490 0.691614 -0.003874 0.0
2.628320 1.605738 -0.004195 0.0
4.162051 1.919289 0.000644 0.0
2.996757 0.492321 0.001695 0.0
1.711865 0.307323 -0.005173 0.0
2.427619 1.589459 -0.003767 0.0
0.386855 0.825250 -0.002658 0.0
3.576457 1.938421 -0.001392 0.0
2.941985 1.069847 0.001286 0.0
3.890895 1.271568 -0.001225 0.0
2.556069 1.991602 0.002398 0.0
4.186688 2.032469 -0.000618 0.0
2.916052 2.180112 0.000201 0.0
0.139042 0.469403 -0.002833 0.0
0.683380 0.289835 -0.002548 0.0
1.696702 1.397083 -0.000930 0.0
0.748666 0.415039 0.000020 0.0
2.199051 1.421095 -0.000747 0.0
2.557268 1.756986 -0.004988 0.0
0.414857 0.498033 -0.005528 0.0
0.925324 0.142636 0.001402 0.0
2.811287 0.638492 0.000592 0.0
1.674945 0.333478 -0.001471 0.0
4.033347 0.123483 0.000178 0.0
2.824070 0.721009 -0.001683 0.0
2.845193 2.005152 0.002478 0.0
1.451040 0.931886 0.002312 0.0
1.912505 1.290640 -0.005436 0.0
4.086266 2.156477 -0.000969 0.0
1.365933 0.992484 0.003011 0.0
2.033683 0.947401 0.002299 0.0
0.048170 0.768349 -0.001704 0.0
2.499146 1.011706 -0.000390 0.0
0.412689 0.493102 -0.003694 0.0
0.855724 1.460184 -0.001136 0.0
1.545476 1.369238 0.004052 0.0
0.620350 1.191443 0.001816 0.0
1.315541 0.266316 -0.001082 0.0
1.293633 1.680109 -0.001024 0.0
3.578741 1.378887 0.000622 0.0
1.561847 1.200980 0.004648 0.0
4.021396 0.114259 0.000248 0.0
0.982541 1.190715 -0.002379 0.0
3.517891 1.278663 -0.001833 0.0
1.174213 2.009621 -0.003756 0.0
2.633270 0.373584 -0.002820 0.0
1.844049 1.244004 -0.005136 0.0
0.337224 0.540361 -0.003315 0.0
0.154616 1.249354 0.001123 0.0
0.116295 1.365045 0.003337 0.0
3.458720 1.704827 0.000712 0.0
1.624395 0.277387 0.002175 0.0
1.366208 1.831978 -0.004407 0.0
1.717101 1.651251 -0.000615 0.0
3.516734 0.160589 0.000412 0.0
2.131411 0.775291 0.003703 0.0
2.381364 0.329643 0.000136 0.0
2.025091 1.657652 0.001757 0.0
1.415844 1.619474 -0.004698 0.0
2.060704 0.451286 -0.000302 0.0
0.523171 1.731177 0.001499 0.0
0.796087 1.208237 0.001028 0.0
1.033918 1.339347 0.001107 0.0
3.055616 1.725515 -0.001917 0.0
1.460554 1.189666 -0.001637 0.0
3.791608 0.705355 -0.000190 0.0
3.462370 0.520071 0.003464 0.0
2.351206 0.135398 0.003004 0.0
1.063283 1.813091 -0.000834 0.0
3.611896 1.880789 0.003096 0.0
2.135160 1.184512 0.001251 0.0
4.015289 0.848779 -0.001389 0.0
2.985539 1.821053 0.005464 0.0
0.794979 0.235322 0.000985 0.0
2.545674 1.477553 0.004543 0.0
2.776080 0.042701 0.003858 0.0
1.581332 2.089504 -0.004787 0.0
1.552792 1.365659 0.002535 0.0
1.473566 1.648461 0.000323 0.0
1.136556 0.612249 -0.000663 0.0
0.151427 0.458987 -0.003863 0.0
0.096261 0.699958 0.000731 0.0
2.297778 0.771251 0.000529 0.0
3.270530 1.983305 -0.003456 0.0
2.765397 0.903837 0.003058 0.0
0.560229 1.168858 -0.001309 0.0
2.595562 0.236187 0.002972 0.0
3.297514 1.849199 0.001405 0.0
0.960563 1.321340 -0.002814 0.0
3.939907 1.481322 -0.002659 0.0
1.233523 2.101170 0.003449 0.0
0.800357 1.484000 -0.002236 0.0
2.266814 1.941982 0.000524 0.0
3.107659 0.828222 0.001469 0.0
1.486529 1.602240 0.000398 0.0
4.156108 2.139920 0.002288 0.0
3.638130 1.891907 -0.003923 0.0
3.623874 1.519238 -0.000520 0.0
3.621013 1.952442 0.000600 0.0
0.939337 1.157082 -0.002609 0.0
1.602584 0.331996 0.000494 0.0
0.091525 1.353174 -0.000013 0.0
4.124802 1.531543 -0.003923 0.0
3.983902 2.193920 0.001025 0.0
2.943081 1.560845 0.002744 0.0
2.960506 1.826305 -0.001814 0.0
0.476950 1.669487 -0.001223 0.0
1.169653 0.422030 -0.002568 0.0
2.058743 1.271432 0.002971 0.0
2.043291 0.612352 -0.000208 0.0
0.158369 1.894601 0.000782 0.0
1.494106 1.647047 0.002094 0.0
0.804735 1.129393 -0.001449 0.0
0.332642 0.353093 0.005463 0.0
1.238547 1.469963 -0.003286 0.0
3.648231 2.141112 0.001139 0.0
3.478867 0.099703 -0.000741 0.0
2.154522 2.137690 0.000282 0.0
0.863004 0.871572 0.002327 0.0
2.450448 1.580760 0.000892 0.0
3.250685 0.966472 0.002922 0.0
3.548063 1.351613 -0.001126 0.0
1.907520 1.060120 -0.000342 0.0
1.585364 1.333579 0.001588 0.0
0.610559 0.942398 -0.003320 0.0
0.788008 0.242253 0.001425 0.0
2.947463 1.809095 -0.001701 0.0
1.933679 0.417543 0.001948 0.0
2.828100 1.811460 -0.002144 0.0
0.639076 1.678316 0.000830 0.0
0.916021 0.177117 -0.002595 0.0
2.430433 2.061865 -0.000684 0.0
0.038239 1.014569 0.000659 0.0
2.014334 0.668964 0.001804 0.0
0.270464 1.454495 -0.003147 0.0
3.597621 0.786224 0.000553 0.0
2.209945 1.061168 -0.002955 0.0
1.539039 1.466972 0.002060 0.0
3.744544 1.109616 -0.000114 0.0
3.052548 1.802008 -0.005721 0.0
3.671326 0.212535 -0.003162 0.0
3.728473 1.019104 0.002545 0.0
2.573508 1.681293 0.000310 0.0
0.015643 1.389124 -0.000620 0.0
0.087084 0.912769 -0.003482 0.0
1.081612 0.563623 0.003068 0.0
1.778499 2.022583 -0.005415 0.0
3.534609 1.441910 -0.002070 0.0
4.166538 0.842294 -0.002472 0.0
0.314868 1.856884 0.000439 0.0
2.712347 1.131592 0.002168 0.0
1.384404 0.719539 0.001230 0.0
3.131899 0.529979 -0.000026 0.0
0.692074 0.688503 -0.002210 0.0
1.385591 1.847712 -0.002221 0.0
0.545696 1.716151 -0.000055 0.0
2.733068 2.100860 0.001778 0.0
3.122649 0.949098 -0.001351 0.0
2.286557 0.101541 -0.003169 0.0
1.920645 1.720402 0.000068 0.0
3.102911 1.731169 0.000218 0.0
0.145646 0.678501 0.000046 0.0
2.374179 0.601451 -0.002565 0.0
3.979608 1.447685 0.001701 0.0
0.094812 0.016317 -0.001252 0.0
2.372961 2.042423 0.003830 0.0
1.137718 1.176178 -0.003338 0.0
1.050592 0.674735 0.002432 0.0
0.096332 0.834729 -0.001369 0.0
0.161056 0.749908 0.001923 0.0
2.080105 0.324367 -0.002480 0.0
1.314582 1.515859 0.004867 0.0
2.724784 0.928977 -0.000084 0.0
3.340790 1.994091 0.001621 0.0
