3.522489 0.154834 0.000839 0.0
3.125946 1.052023 -0.004027 0.0
2.425354 0.446655 0.004680 0.0
4.659811 0.485991 -0.000245 0.0
3.890460 2.280097 0.000542 0.0
1.318424 1.552918 -0.004083 0.0
1.490307 2.222814 -0.002479 0.0
4.531511 0.414936 -0.001029 0.0
0.441911 0.243897 0.002661 0.0
2.685120 0.011612 0.000299 0.0
3.244630 0.068708 -0.002460 0.0
4.296707 0.165716 0.004590 0.0
3.980309 0.641225 0.002394 0.0
4.281153 1.439547 -0.000838 0.0
3.064329 1.854244 0.003072 0.0
4.515317 0.091846 0.002191 0.0
3.499163 0.719152 -0.001754 0.0
0.696455 0.205991 -0.000144 0.0
1.385423 1.768120 -0.002669 0.0
0.388176 1.814723 -0.001428 0.0
4.307973 0.292093 0.000834 0.0
1.014498 0.955038 0.000188 0.0
3.879478 1.630243 0.002898 0.0
4.363281 0.993043 -0.004048 0.0
1.600653 1.804580 0.000383 0.0
3.649904 2.047874 -0.000143 0.0
3.533653 0.653803 -0.000993 0.0
0.764506 0.421792 0.002571 0.0
1.450491 2.363895 0.004167 0.0
4.686933 2.069134 0.003762 0.0
2.919959 1.923490 -0.000304 0.0
1.037314 1.722808 0.000066 0.0
1.484831 2.126762 -0.001358 0.0
1.850169 0.719140 -0.005296 0.0
4.561799 2.006245 -0.004811 0.0
4.968551 1.830562 -0.006216 0.0
0.999989 1.321663 -0.000944 0.0
2.270139 1.949491 -0.002421 0.0
4.459026 1.784765 -0.000518 0.0
0.164156 0.258337 0.006325 0.0
3.349343 1.212883 0.002727 0.0
3.722792 1.859066 0.001044 0.0
0.758412 1.792628 0.000486 0.0
4.695330 0.051324 -0.004946 0.0
0.398250 0.021349 -0.002883 0.0
1.926775 0.160272 -0.000922 0.0
2.644792 1.927196 -0.000123 0.0
2.087599 0.973703 0.000521 0.0
0.836181 0.456577 -0.000455 0.0
2.479163 0.272052 0.002214 0.0
0.094511 0.160753 -0.001151 0.0
0.272682 1.554735 -0.000693 0.0
2.231465 0.906723 0.001135 0.0
2.433675 1.376908 0.001222 0.0
0.001987 1.094631 -0.001981 0.0
1.775409 1.034764 -0.002045 0.0
3.519991 0.772282 -0.001440 0.0
1.711611 1.484939 0.000677 0.0
0.108378 2.128619 0.001168 0.0
2.326949 1.730501 -0.000203 0.0
0.271489 2.212649 -0.002136 0.0
4.847819 2.226510 -0.001223 0.0
2.165527 2.320611 0.003334 0.0
1.594320 0.672900 -0.000466 0.0
3.969949 2.261494 -0.004527 0.0
1.797260 0.883385 -0.002982 0.0
0.930608 0.764454 -0.002681 0.0
2.506509 1.724381 -0.002515 0.0
1.851711 1.155073 -0.000544 0.0
1.521463 2.091195 -0.000563 0.0
0.551081 2.351310 0.001596 0.0
0.955153 1.223067 0.002204 0.0
3.099093 0.752185 -0.001458 0.0
3.216720 1.367216 0.000200 0.0
3.574264 0.305459 -0.002134 0.0
4.109388 1.670935 -0.001717 0.0
2.066082 0.683690 -0.001804 0.0
4.570234 0.913655 -0.001210 0.0
1.760269 1.166871 -0.000617 0.0
0.635664 0.092205 0.001971 0.0
0.987937 0.993758 -0.001359 0.0
3.919208 0.883905 0.004491 0.0
4.851047 0.306811 0.001466 0.0
1.461161 0.560278 0.000607 0.0
0.950750 0.057728 0.001461 0.0
1.116540 1.510265 -0.001286 0.0
3.685334 0.869914 0.000809 0.0
3.878074 0.786674 0.001711 0.0
4.678617 2.361667 -0.001784 0.0
0.368431 1.596881 -0.004300 0.0
1.035150 1.266070 0.001453 0.0
2.928687 2.210915 -0.001738 0.0
3.581499 2.149360 0.000010 0.0
2.576630 0.990964 -0.001184 0.0
3.774527 1.942543 0.001802 0.0
3.408805 1.105084 -0.002225 0.0
1.247113 0.438825 0.000923 0.0
1.433991 1.779417 -0.001394 0.0
4.406858 1.425557 0.000885 0.0
1.474293 0.831480 -0.001989 0.0
4.901327 1.216650 0.003803 0.0
2.502434 2.099486 -0.001183 0.0
0.125858 0.522148 0.002042 0.0
4.281282 1.762457 0.002777 0.0
1.498259 1.271137 0.002665 0.0
4.237282 1.369291 -0.000722 0.0
2.993870 1.364186 0.000282 0.0
0.948047 0.878729 -0.000649 0.0
0.720694 1.105845 -0.003497 0.0
3.538188 1.673314 0.001977 0.0
4.833113 0.910043 0.002203 0.0
0.632081 2.202842 -0.000643 0.0
2.713564 1.100621 0.002324 0.0
2.985424 0.085882 -0.000370 0.0
0.712854 0.702951 -0.004308 0.0
1.755133 1.401589 0.001228 0.0
3.161425 1.794106 0.002890 0.0
3.953662 0.811141 -0.003740 0.0
4.258444 1.992872 -0.003800 0.0
3.927385 1.995999 0.001280 0.0
2.417518 1.460846 0.002599 0.0
1.124831 0.634714 -0.002091 0.0
2.448900 1.068928 0.000189 0.0
3.911529 0.948674 -0.001633 0.0
1.507007 0.557165 -0.004541 0.0
4.247442 0.111817 0.002841 0.0
1.679707 0.042814 -0.001298 0.0
0.226562 2.245209 -0.000013 0.0
1.174461 0.118953 -0.001367 0.0
2.935645 0.084449 -0.000506 0.0
4.548714 0.475815 -0.005493 0.0
1.373078 0.453209 0.001428 0.0
2.953517 1.863050 -0.001063 0.0
0.141652 1.879967 -0.002428 0.0
0.154819 0.843124 0.001398 0.0
2.969800 2.197263 0.004151 0.0
1.861241 2.180233 -0.000578 0.0
0.645952 1.512276 0.001378 0.0
4.631625 1.945061 -0.005767 0.0
1.792190 2.174592 -0.000456 0.0
0.837176 1.147416 -0.000566 0.0
1.652757 1.941575 -0.000335 0.0
0.577947 1.263892 -0.003803 0.0
0.367872 2.289647 -0.000237 0.0
0.872311 0.889507 0.000136 0.0
4.348597 1.683278 0.000369 0.0
4.891968 1.497803 0.002105 0.0
3.211265 2.351414 0.002102 0.0
3.873063 0.315847 0.000314 0.0
2.621638 1.487148 -0.000392 0.0
0.193634 1.268090 -0.001344 0.0
0.452454 1.577816 0.000510 0.0
3.539421 1.926115 -0.003265 0.0
3.842186 0.618297 0.004181 0.0
1.900197 0.211590 0.001389 0.0
0.713295 0.569549 0.003199 0.0
4.064421 0.330511 -0.002074 0.0
2.638421 0.735863 -0.000033 0.0
2.706005 0.042067 0.003334 0.0
3.040458 0.556013 0.000585 0.0
0.075964 2.235305 -0.001267 0.0
0.520794 0.382787 -0.000118 0.0
2.573088 0.289424 -0.003734 0.0
4.521225 1.205586 -0.001565 0.0
0.254706 1.533341 -0.000464 0.0
0.916699 0.325001 -0.000019 0.0
2.661748 1.328079 0.002997 0.0
4.695296 1.770475 0.004581 0.0
4.585739 0.718324 -0.001473 0.0
3.908293 1.992361 0.001337 0.0
0.641048 1.691987 0.001292 0.0
0.554787 1.961012 0.000853 0.0
4.477700 1.725735 -0.000843 0.0
2.782771 0.005256 0.002847 0.0
2.826954 2.055959 0.001327 0.0
0.379692 1.125236 -0.005271 0.0
0.978461 1.830660 0.001000 0.0
3.670900 0.107754 0.002288 0.0
0.055243 0.889718 0.005013 0.0
2.852494 2.088253 -0.001486 0.0
2.946669 2.222715 -0.000211 0.0
4.403860 2.016574 0.002897 0.0
2.758545 0.351224 -0.001974 0.0
1.974742 2.359952 -0.001707 0.0
1.908789 1.162655 -0.000529 0.0
3.512465 2.085304 -0.000507 0.0
3.936049 1.676151 0.001973 0.0
1.809270 1.964094 0.006052 0.0
1.164276 2.138569 -0.002527 0.0
0.627136 1.487190 -0.001084 0.0
3.118854 2.370699 0.003915 0.0
1.545179 2.059546 -0.001449 0.0
0.153672 2.042220 0.000813 0.0
1.308017 1.541102 -0.003214 0.0
3.698054 1.426684 0.001616 0.0
2.120746 0.939543 -0.004082 0.0
2.458473 1.049307 -0.000304 0.0
0.811077 1.775046 -0.003326 0.0
1.664031 0.944120 -0.000530 0.0
4.856248 1.859218 -0.004013 0.0
2.023198 0.811783 0.003232 0.0
3.843246 0.764784 -0.000756 0.0
3.701503 1.110027 -0.004248 0.0
4.702745 0.419893 -0.003043 0.0
3.351127 1.863721 0.000995 0.0
1.732745 2.277278 0.000207 0.0
1.916871 1.358000 -0.000540 0.0
3.349504 1.878932 0.001693 0.0
0.171682 1.144999 0.004032 0.0
0.172828 2.207577 -0.000153 0.0
3.787149 0.540833 -0.000995 0.0
4.310600 2.306532 0.001451 0.0
1.385603 0.351688 0.001477 0.0
2.597679 1.335358 -0.001266 0.0
0.984989 1.889716 -0.002663 0.0
0.566192 1.278321 0.000680 0.0
0.577498 1.253590 0.005141 0.0
4.783528 0.296235 0.000233 0.0
4.056112 2.077674 -0.001008 0.0
4.249934 1.166390 -0.000011 0.0
0.880124 2.185780 -0.002779 0.0
0.388491 1.943509 -0.001186 0.0
0.539652 1.761175 0.001633 0.0
1.430586 2.274330 -0.003299 0.0
1.312016 1.188993 -0.000564 0.0
2.254532 0.965513 -0.001792 0.0
3.976184 1.417854 -0.002057 0.0
1.832034 1.439611 0.000727 0.0
1.133331 0.028943 -0.002030 0.0
3.674186 0.596475 0.000367 0.0
4.023038 1.193258 -0.001299 0.0
0.392598 1.616754 -0.001794 0.0
4.704063 1.256137 0.003737 0.0
1.755362 0.833897 0.002748 0.0
0.384934 0.458662 0.001464 0.0
0.283796 1.143043 -0.000952 0.0
3.724047 0.035040 0.000058 0.0
3.974250 0.337363 -0.000060 0.0
4.264437 1.138691 0.001395 0.0
0.739612 1.896583 -0.003104 0.0
3.228497 1.345602 -0.000958 0.0
1.811941 2.204991 -0.003350 0.0
4.625217 0.800104 0.002482 0.0
2.399665 0.141831 0.002507 0.0
4.579671 0.058864 -0.000850 0.0
4.555712 0.511033 -0.001428 0.0
0.227981 2.054867 -0.003317 0.0
1.644487 1.611001 0.000437 0.0
3.653548 0.288689 -0.000214 0.0
0.630531 1.934305 0.003269 0.0
3.335021 1.967441 -0.000460 0.0
3.573288 0.955953 0.000999 0.0
0.336999 2.316424 -0.002313 0.0
4.765938 1.801638 -0.001637 0.0
3.362041 1.779304 0.000501 0.0
0.847471 1.884388 0.000621 0.0
4.729371 0.093204 0.000974 0.0
3.313337 0.351226 -0.002495 0.0
2.025587 2.001975 -0.000121 0.0
1.740905 0.758046 -0.001376 0.0
4.947421 2.001784 -0.000097 0.0
4.098895 1.418988 -0.002172 0.0
4.026641 1.834856 -0.001555 0.0
3.675286 2.262945 0.001884 0.0
3.298506 0.141109 -0.002002 0.0
0.102677 0.651521 -0.001819 0.0
1.749410 0.881612 0.000621 0.0
0.784786 1.701601 -0.002877 0.0
2.850192 1.561915 -0.004108 0.0
2.928159 1.802891 -0.002292 0.0
0.388617 0.230976 -0.003593 0.0
1.639720 0.275229 0.001931 0.0
4.816924 2.291018 -0.001444 0.0
3.537254 0.009511 -0.004416 0.0
4.900868 2.184806 -0.000984 0.0
4.780420 1.600086 -0.003242 0.0
4.442388 1.952713 0.000218 0.0
0.213817 0.718896 -0.003497 0.0
3.546045 0.970927 0.000058 0.0
0.263804 1.788126 0.000464 0.0
4.111104 0.817942 -0.000015 0.0
3.098964 0.964772 0.001535 0.0
1.097754 1.062486 -0.000379 0.0
0.702956 0.025565 -0.000779 0.0
0.957104 1.292561 0.001090 0.0
1.872973 1.277122 -0.000965 0.0
0.480616 1.317195 0.004646 0.0
2.130794 1.380063 -0.003936 0.0
2.984833 2.266831 0.001054 0.0
1.500335 0.633122 -0.006608 0.0
1.760786 0.731067 0.005911 0.0
0.054792 1.153695 -0.006687 0.0
1.498195 1.817241 0.001576 0.0
0.915158 1.973376 -0.001436 0.0
4.794283 1.069008 0.000826 0.0
0.720326 0.267333 0.003085 0.0
2.895796 2.215444 -0.002692 0.0
1.279377 1.353106 -0.002327 0.0
2.890496 1.782012 -0.001117 0.0
1.202433 0.195700 -0.000540 0.0
1.089429 1.437448 -0.001561 0.0
3.901839 1.879132 -0.003504 0.0
4.309614 0.341486 0.002870 0.0
3.604999 1.789884 0.000859 0.0
0.996769 0.823120 -0.000021 0.0
3.433996 1.805170 -0.001366 0.0
4.438577 0.014074 0.002408 0.0
3.132957 1.846124 -0.002614 0.0
0.136874 1.790107 0.000652 0.0
4.047734 0.506478 0.001461 0.0
0.135545 0.437463 -0.000527 0.0
0.202067 2.177015 -0.000587 0.0
3.721921 2.017456 0.001095 0.0
3.528745 0.424050 0.000577 0.0
2.051465 0.051362 -0.002116 0.0
4.412715 2.023130 0.000613 0.0
3.381737 0.541659 -0.002527 0.0
0.623238 0.738708 0.001389 0.0
2.259892 1.719495 -0.005511 0.0
2.028511 0.820168 -0.001948 0.0
3.518533 2.198562 0.001157 0.0
2.547127 1.325999 -0.000923 0.0
1.039549 0.262342 0.000762 0.0
1.652736 0.914177 0.001377 0.0
0.510622 1.287848 -0.000667 0.0
3.311736 1.207948 0.003706 0.0
3.509232 0.328007 0.002194 0.0
0.811230 0.856308 -0.003967 0.0
1.925690 0.083382 0.001682 0.0
4.348038 1.857598 0.001965 0.0
1.211419 1.456526 0.003394 0.0
2.589134 1.981994 0.003771 0.0
3.200675 1.930134 0.000637 0.0
1.109069 1.630159 -0.002844 0.0
2.420634 1.139903 -0.000605 0.0
0.574056 0.449682 -0.001374 0.0
4.491173 1.741023 0.000339 0.0
4.164833 1.025513 0.001383 0.0
1.342939 1.417198 0.001386 0.0
0.459505 0.702723 -0.002782 0.0
3.862119 0.348935 -0.000113 0.0
3.634844 1.182135 0.001239 0.0
0.413280 0.727587 0.001559 0.0
4.174645 0.845624 0.003014 0.0
0.356679 2.179743 -0.002165 0.0
3.853158 1.770770 0.001471 0.0
1.425931 1.612468 0.001761 0.0
0.630268 1.155331 0.005359 0.0
3.542421 1.215551 -0.000835 0.0
-0.000247 0.975138 0.001350 0.0
1.984257 1.969956 0.001783 0.0
4.965446 0.567716 0.000108 0.0
0.240759 1.892162 -0.001838 0.0
3.560172 2.333843 0.000246 0.0
3.706843 0.213169 0.001876 0.0
1.037153 0.227853 0.000358 0.0
3.416731 0.233961 -0.000527 0.0
3.164029 0.077577 -0.000173 0.0
1.119038 1.266495 -0.001660 0.0
4.847146 1.627475 -0.004488 0.0
0.982763 2.006066 -0.000873 0.0
4.476758 1.160588 0.000443 0.0
0.004632 1.831933 0.001234 0.0
2.485926 0.275184 0.002171 0.0
2.971946 0.387566 -0.003360 0.0
2.280796 0.121974 -0.003520 0.0
0.882775 0.244092 -0.001716 0.0
2.359495 0.473366 0.002990 0.0
3.195753 0.397462 -0.002732 0.0
0.663833 0.033708 0.001041 0.0
4.649574 0.166745 0.000293 0.0
1.185501 0.502496 0.000906 0.0
4.690212 2.230786 -0.003233 0.0
2.074638 1.526483 -0.001872 0.0
4.605380 0.036585 -0.001831 0.0
0.831262 0.114356 -0.001759 0.0
2.797346 0.711629 -0.002844 0.0
1.783666 1.446693 -0.000734 0.0
3.847215 0.183747 -0.000749 0.0
2.750405 0.616876 0.000931 0.0
4.823735 1.794331 0.001082 0.0
1.077028 1.032808 -0.001904 0.0
4.145863 1.057142 -0.003444 0.0
2.039707 1.449628 0.004777 0.0
4.624456 0.996072 0.001433 0.0
1.776781 1.456121 -0.003861 0.0
2.879064 1.298673 -0.000587 0.0
3.653105 1.065027 -0.003422 0.0
1.263625 1.667272 -0.003659 0.0
1.305002 1.116093 0.005991 0.0
4.532816 0.048988 -0.000262 0.0
3.831593 1.526501 -0.000247 0.0
2.456448 2.248095 0.002337 0.0
2.346507 2.120425 0.001631 0.0
1.989345 0.843955 -0.001488 0.0
1.840015 2.367721 -0.002760 0.0
3.454743 1.524863 0.000647 0.0
0.576830 1.718278 0.003968 0.0
0.025360 1.196846 0.000188 0.0
2.458265 2.364702 0.002887 0.0
2.852876 0.120619 -0.005163 0.0
1.359293 0.567641 0.003436 0.0
0.070910 2.233563 -0.001994 0.0
3.702223 0.157024 0.002093 0.0
4.798537 2.124055 0.002448 0.0
3.958739 2.132924 0.001900 0.0
2.554204 0.825196 -0.002400 0.0
2.533259 2.274391 -0.000077 0.0
1.113667 1.076668 -0.002697 0.0
0.248395 0.048549 -0.003016 0.0
4.496035 1.893821 0.003004 0.0
1.454870 1.913938 -0.003464 0.0
1.712979 0.243779 0.000854 0.0
2.801339 1.878251 -0.000363 0.0
4.108646 0.000731 -0.001015 0.0
2.400917 0.370920 -0.001201 0.0
4.112296 1.720371 -0.001970 0.0
2.907871 2.138490 -0.004871 0.0
1.092007 0.342897 0.002474 0.0
3.749532 0.205927 -0.000170 0.0
3.452870 0.682451 0.002890 0.0
3.583976 0.971884 -0.001356 0.0
2.681605 1.769205 -0.005859 0.0
0.351446 1.429395 -0.001248 0.0
2.897634 1.671099 0.001274 0.0
3.223472 1.476388 0.004092 0.0
0.964494 0.992200 -0.001342 0.0
2.732433 2.060775 0.000369 0.0
3.418403 1.453281 0.002792 0.0
3.036361 1.462371 -0.002327 0.0
0.669264 2.347758 0.001303 0.0
4.019478 0.398904 0.002363 0.0
0.466363 1.357687 -0.000370 0.0
3.433748 2.224871 -0.001215 0.0
1.666465 1.036170 0.004007 0.0
4.475523 0.182920 0.005264 0.0
2.830162 0.162852 0.001257 0.0
3.499894 1.692388 0.003707 0.0
0.046630 0.536898 0.005122 0.0
0.388944 1.453181 0.000902 0.0
2.728837 2.364981 0.001117 0.0
0.922235 0.597477 0.006089 0.0
1.676009 1.846930 0.000637 0.0
1.471911 0.625273 -0.002427 0.0
4.031423 0.172253 -0.000614 0.0
0.190855 1.317436 0.002371 0.0
0.099938 1.406793 -0.000991 0.0
2.925251 0.373162 -0.000426 0.0
2.527941 2.360318 -0.000608 0.0
3.681219 0.082103 0.000659 0.0
3.400610 1.123848 -0.000258 0.0
4.298267 1.654977 -0.001425 0.0
2.079857 2.072745 0.001932 0.0
3.135769 0.427002 -0.002350 0.0
3.435998 0.006844 -0.000506 0.0
1.842321 1.799133 0.000002 0.0
4.986483 2.157888 0.000136 0.0
2.068060 1.154935 0.001988 0.0
0.106075 1.935165 0.000825 0.0
3.243980 1.290209 -0.001088 0.0
4.908723 1.375321 0.000872 0.0
2.681020 2.212705 0.002525 0.0
1.818637 2.158164 -0.001883 0.0
1.776440 0.037384 -0.000122 0.0
4.799908 2.279875 -0.001251 0.0
2.137300 1.680857 0.001156 0.0
3.482928 1.245009 0.000688 0.0
1.051368 0.203734 0.002642 0.0
0.570599 1.093944 0.002449 0.0
3.110951 1.988325 -0.003036 0.0
3.634893 1.240248 -0.000926 0.0
3.653057 2.273006 0.000874 0.0
4.197273 0.130827 0.004718 0.0
2.429941 0.508034 0.004091 0.0
2.601284 0.246758 -0.003760 0.0
1.933730 1.555795 -0.002283 0.0
3.113402 1.721767 -0.000174 0.0
4.519609 0.497422 0.003111 0.0
2.550355 1.553336 0.003026 0.0
1.703645 0.042167 0.002303 0.0
4.534696 2.135153 0.002078 0.0
0.622481 0.572711 0.000050 0.0
0.782551 0.997177 0.001196 0.0
3.733824 0.111739 -0.000924 0.0
0.946821 0.002242 0.001418 0.0
2.342514 1.205981 -0.003909 0.0
0.554929 0.855121 0.002273 0.0
3.543846 1.506188 0.005292 0.0
1.874881 0.592966 0.000613 0.0
3.129910 0.516553 -0.000808 0.0
2.424871 0.264186 -0.000664 0.0
0.662757 0.058013 -0.001155 0.0
0.780797 0.848266 -0.002962 0.0
2.166159 0.251221 0.002226 0.0
4.146864 1.129612 0.002059 0.0
0.505923 1.625043 -0.004979 0.0
3.795829 1.788393 0.004117 0.0
1.133823 0.958169 0.000106 0.0
4.635236 0.911668 -0.005486 0.0
3.673966 2.074975 0.001491 0.0
0.242019 0.447865 0.001931 0.0
1.079350 0.940111 -0.003626 0.0
0.652405 1.365847 0.000265 0.0
0.233476 1.233689 0.001133 0.0
2.750056 0.558682 -0.000052 0.0
2.569024 0.334353 -0.002005 0.0
0.227384 1.538367 0.001959 0.0
1.649561 0.974903 -0.001045 0.0
3.791214 0.421553 -0.001150 0.0
3.244868 1.678990 -0.000208 0.0
4.905186 0.171103 -0.000565 0.0
1.250019 0.283789 -0.002132 0.0
1.047431 1.894551 -0.001931 0.0
2.057978 0.537854 -0.001922 0.0
2.699039 0.710765 0.001830 0.0
0.302301 1.488093 0.001368 0.0
3.296417 0.337196 0.003507 0.0
1.945397 2.236038 -0.000248 0.0
3.978199 0.200277 0.000937 0.0
3.879373 1.181886 0.005378 0.0
1.799224 0.784542 -0.002100 0.0
3.567840 0.613549 0.002539 0.0
0.265992 1.729732 -0.002041 0.0
0.427233 1.152064 0.003603 0.0
2.325750 1.157063 0.001100 0.0
3.889559 0.481528 0.002850 0.0
4.211423 2.272795 0.003345 0.0
4.539057 2.014557 -0.002832 0.0
4.122136 1.649484 -0.000786 0.0
2.370012 0.994185 0.002472 0.0
0.052219 0.572723 0.000038 0.0
2.488990 2.270327 0.003000 0.0
2.593775 1.845862 -0.003548 0.0
1.383315 2.318609 0.001052 0.0
2.775942 1.271516 0.002490 0.0
2.088246 0.591214 0.000940 0.0
0.805775 1.020356 0.000506 0.0
2.618969 1.574116 0.004525 0.0
0.938526 1.037776 0.001686 0.0
4.282872 1.491190 0.000787 0.0
1.403307 0.946783 0.001235 0.0
4.551176 1.149795 -0.002273 0.0
4.750409 1.244834 -0.000902 0.0
3.594154 0.487412 0.004838 0.0
0.861251 0.246833 0.000514 0.0
3.140345 0.735208 -0.000190 0.0
3.678273 1.743835 0.004426 0.0
0.741526 0.498440 0.001494 0.0
3.890472 0.850821 0.000291 0.0
0.593163 0.354870 0.007207 0.0
1.577673 0.808724 0.002178 0.0
1.780116 1.203571 -0.003149 0.0
0.010007 0.626222 0.003359 0.0
0.874568 1.871657 -0.000649 0.0
0.293901 2.111823 0.002266 0.0
2.546926 1.304102 -0.000282 0.0
2.480224 1.386803 0.001946 0.0
1.617965 1.340044 -0.003318 0.0
3.017643 1.740077 0.005456 0.0
3.041547 0.106525 -0.001129 0.0
0.868481 0.762824 0.000049 0.0
2.495962 0.909451 0.002112 0.0
1.188819 0.796996 -0.002825 0.0
2.771494 1.727645 0.003924 0.0
3.269971 0.710661 -0.001087 0.0
1.565347 2.176733 0.001161 0.0
2.689835 2.026844 -0.001457 0.0
3.830692 0.677494 0.002888 0.0
2.138211 0.847398 -0.001762 0.0
1.498507 1.928542 0.000139 0.0
3.482275 1.011640 0.000455 0.0
2.013556 1.516873 0.002989 0.0
4.210184 1.678538 -0.001597 0.0
4.112304 0.486259 0.002267 0.0
2.062906 0.000812 0.000271 0.0
1.074453 1.413040 0.000315 0.0
0.642475 2.128680 -0.003392 0.0
1.869734 2.349378 -0.001769 0.0
1.983431 1.451923 0.002016 0.0
3.005913 0.032986 -0.004932 0.0
2.254068 2.146252 0.000066 0.0
3.554917 1.968855 0.002187 0.0
0.780145 0.059326 -0.001521 0.0
4.954081 2.310543 -0.002066 0.0
0.648204 0.264197 0.001031 0.0
3.651701 1.213793 -0.000482 0.0
0.650423 2.146300 -0.002579 0.0
2.317763 2.294080 0.000013 0.0
0.196225 0.650943 -0.001773 0.0
0.530382 1.657989 -0.002264 0.0
0.699715 0.355133 -0.001250 0.0
1.569543 2.291188 0.003310 0.0
3.637984 1.385263 0.000356 0.0
0.233635 0.343190 0.001554 0.0
2.603996 2.277668 -0.005823 0.0
2.155407 0.659370 -0.002631 0.0
4.681736 0.145413 0.000507 0.0
0.557220 1.191021 -0.001205 0.0
3.259892 2.066223 0.001756 0.0
1.924884 1.962210 0.000459 0.0
1.514818 0.174489 -0.001295 0.0
3.000736 0.215522 0.001749 0.0
1.708088 0.542559 0.005570 0.0
3.127749 1.597166 0.000174 0.0
2.333160 2.212394 0.004070 0.0
3.485338 0.122734 -0.003642 0.0
4.007576 0.490291 -0.000319 0.0
4.634737 0.883006 0.000992 0.0
2.022959 2.092091 -0.000609 0.0
0.210110 1.446171 0.001643 0.0
3.971032 0.308082 -0.001342 0.0
2.335309 0.531573 0.002448 0.0
3.837918 1.633025 -0.000807 0.0
1.317494 1.130492 -0.000498 0.0
2.087105 2.233645 0.001159 0.0
2.787103 0.530347 -0.001758 0.0
0.278217 1.765263 -0.004299 0.0
3.191391 1.638886 0.002166 0.0
3.746029 1.610317 -0.002916 0.0
4.800103 2.240550 -0.001173 0.0
2.315176 0.599502 -0.002725 0.0
0.645130 1.403675 -0.001863 0.0
4.291109 0.443771 -0.002155 0.0
4.885264 2.239865 0.000766 0.0
0.119027 1.434711 -0.002831 0.0
2.587698 0.695481 0.002375 0.0
1.135766 0.318994 0.004406 0.0
0.156207 2.222249 -0.004858 0.0
2.082338 0.993535 0.003635 0.0
1.790991 0.851200 -0.002236 0.0
1.759585 1.058336 0.002817 0.0
3.408589 1.353709 -0.001941 0.0
1.813234 0.550165 -0.000531 0.0
4.671663 0.908456 -0.000420 0.0
3.331913 2.312625 -0.000521 0.0
3.084614 0.143833 -0.001643 0.0
0.218229 1.974422 -0.004064 0.0
1.358689 1.485550 -0.001885 0.0
4.197365 2.357967 0.000567 0.0
3.109957 1.321717 0.002432 0.0
3.831295 0.268686 0.003262 0.0
2.887966 0.629489 -0.001673 0.0
1.222413 1.701384 -0.000242 0.0
1.257827 0.437380 -0.000459 0.0
3.080341 0.150761 -0.003991 0.0
1.787138 0.123121 0.001614 0.0
3.732354 1.065340 -0.000308 0.0
4.099536 2.171344 0.001722 0.0
1.559271 0.045351 -0.000576 0.0
1.029004 0.420872 -0.000117 0.0
2.526259 0.273772 0.004120 0.0
2.999394 0.578512 0.003606 0.0
4.570319 0.297746 -0.001270 0.0
0.938285 2.168883 -0.003231 0.0
4.364987 2.380567 0.002448 0.0
0.183989 0.510356 0.000174 0.0
0.938500 0.666320 0.001896 0.0
3.719898 1.497258 0.004151 0.0
3.098274 1.829014 0.000516 0.0
1.547077 2.278555 0.001815 0.0
4.076416 2.221419 -0.003265 0.0
4.925997 0.982911 0.006693 0.0
0.274679 2.254743 0.000958 0.0
4.509683 0.197593 -0.001607 0.0
1.528427 0.922081 0.000028 0.0
2.585857 1.314026 -0.001352 0.0
4.978250 2.028923 -0.001369 0.0
4.602555 1.457368 -0.002435 0.0
1.138205 1.885301 -0.002827 0.0
2.458481 1.739580 -0.000077 0.0
3.717683 1.466609 0.003778 0.0
2.756097 1.371473 0.001010 0.0
0.834901 1.237818 -0.001270 0.0
2.435628 1.745619 -0.002916 0.0
2.755596 1.839003 0.004230 0.0
2.987871 1.185900 -0.000190 0.0
2.117854 1.184354 -0.004530 0.0
3.211339 2.363020 -0.002612 0.0
2.754568 2.176248 0.001093 0.0
3.478993 0.880083 -0.000489 0.0
3.649408 0.470103 0.000580 0.0
2.887476 0.450752 0.001408 0.0
2.161580 0.559654 -0.001466 0.0
4.032703 0.049435 -0.002560 0.0
2.522911 0.367268 -0.000360 0.0
2.636265 1.156017 0.002183 0.0
0.295742 1.134236 -0.002558 0.0
0.403560 2.321779 0.000998 0.0
1.373693 2.059004 -0.002432 0.0
2.101575 0.324651 -0.000588 0.0
1.310818 0.914959 0.001552 0.0
4.256625 1.431579 0.000760 0.0
3.147801 2.082553 0.002075 0.0
3.207741 0.642883 -0.000153 0.0
2.630047 2.093832 0.000875 0.0
0.003030 1.393353 -0.000146 0.0
0.373600 0.022256 0.001657 0.0
4.578354 0.187971 -0.007200 0.0
2.114729 0.625857 -0.000956 0.0
1.909041 1.562245 -0.001621 0.0
2.295112 0.085410 0.000728 0.0
3.023677 0.996760 -0.003073 0.0
2.504530 2.123257 0.005182 0.0
4.456132 1.825637 0.000609 0.0
2.499137 1.694038 -0.000830 0.0
2.915686 2.344517 0.003848 0.0
0.666958 0.875098 0.001429 0.0
2.231951 2.161344 0.000915 0.0
2.617291 0.336476 0.000057 0.0
2.833824 0.808634 0.000882 0.0
1.871422 1.182347 -0.002820 0.0
1.739870 1.244286 0.000555 0.0
4.195841 1.784483 -0.000318 0.0
4.763043 1.826974 -0.000020 0.0
3.154329 1.580139 -0.003056 0.0
0.359687 1.674840 -0.001946 0.0
4.363677 0.116342 -0.000060 0.0
3.968239 1.294142 0.001029 0.0
1.198077 1.532393 -0.001922 0.0
4.516548 0.547980 0.004177 0.0
1.161525 0.411711 0.002584 0.0
0.845829 1.404326 -0.002779 0.0
4.441619 0.411262 0.002770 0.0
3.488663 0.860395 -0.001800 0.0
4.545986 0.938661 -0.000676 0.0
4.520852 0.665305 0.002809 0.0
1.852119 0.121442 -0.002479 0.0
2.439559 0.258632 0.000427 0.0
0.930095 2.366686 -0.003613 0.0
3.263044 0.834195 0.001711 0.0
4.591391 2.281799 -0.005448 0.0
0.356548 2.185224 0.003976 0.0
2.549382 2.246953 0.004019 0.0
2.482379 2.339383 0.000920 0.0
0.155643 0.049634 -0.000544 0.0
4.804911 1.920361 -0.001178 0.0
0.414240 0.191161 -0.001779 0.0
4.713329 2.102040 0.004758 0.0
1.171100 0.800758 -0.002536 0.0
0.404889 0.632519 0.002806 0.0
0.995571 0.134992 -0.001349 0.0
1.582077 0.108696 0.000461 0.0
1.623279 0.898204 -0.004241 0.0
3.098547 0.722400 0.001029 0.0
3.307872 1.848128 -0.000570 0.0
3.445527 1.699949 0.003563 0.0
0.786576 1.715133 -0.000465 0.0
3.099488 1.811456 -0.002109 0.0
0.310995 1.334018 0.003393 0.0
3.976953 2.263106 -0.003156 0.0
1.507374 1.916488 0.002297 0.0
4.636305 1.018492 -0.001025 0.0
0.541162 1.045581 -0.006031 0.0
2.793847 1.447877 0.001139 0.0
0.060944 0.946433 -0.001940 0.0
4.838245 0.513748 0.002533 0.0
1.549552 1.470627 -0.003751 0.0
0.870928 1.540598 -0.001860 0.0
3.061513 0.421420 0.000866 0.0
2.117867 1.142934 -0.001938 0.0
2.361740 1.893890 -0.003554 0.0
1.174354 1.194377 0.001190 0.0
4.039253 0.151365 -0.000021 0.0
2.597716 0.163524 0.001783 0.0
2.010489 0.071043 -0.002782 0.0
1.561361 0.045789 -0.000040 0.0
2.959114 0.132806 -0.001670 0.0
0.030164 1.271000 0.003312 0.0
1.008164 0.907610 -0.002614 0.0
2.032766 0.004124 0.000382 0.0
4.521547 0.995781 0.000634 0.0
4.782533 2.015254 0.000036 0.0
4.211131 0.201112 0.001650 0.0
2.977857 2.328002 -0.001156 0.0
1.892799 0.367996 -0.001096 0.0
3.569234 1.287638 0.000923 0.0
1.471626 2.290452 -0.000753 0.0
2.167977 1.043031 0.003364 0.0
1.061604 1.091431 0.003265 0.0
2.790570 0.684946 -0.002721 0.0
4.365637 1.133138 0.006448 0.0
0.789488 1.984404 0.000101 0.0
4.897969 0.540193 0.001751 0.0
4.572724 2.337812 0.003804 0.0
2.323566 1.314911 -0.000323 0.0
1.589827 1.884322 0.001258 0.0
4.691736 0.265298 -0.001691 0.0
3.732878 2.353142 -0.001613 0.0
3.437194 0.778912 -0.001552 0.0
3.693392 1.078262 0.004864 0.0
2.627354 0.196526 -0.002572 0.0
3.366954 0.534245 -0.001159 0.0
3.878227 0.864752 0.002338 0.0
3.012175 2.199601 0.001196 0.0
0.796700 1.207169 0.003038 0.0
2.527790 0.802189 0.000681 0.0
1.834167 1.826401 0.003470 0.0
-0.000322 0.129593 -0.001544 0.0
2.267458 2.293221 0.001575 0.0
0.668700 0.727814 -0.000835 0.0
0.647687 0.701897 0.000084 0.0
1.480772 0.012363 0.000637 0.0
0.258526 0.069164 -0.000997 0.0
1.149395 0.284469 0.000059 0.0
1.356338 0.937885 -0.000759 0.0
2.106634 2.054649 0.003229 0.0
2.263818 0.028511 -0.001909 0.0
1.170164 1.819210 0.000078 0.0
2.334017 2.217388 -0.004661 0.0
3.560304 0.317210 0.001370 0.0
2.716148 1.720393 0.001207 0.0
1.706070 1.185138 0.003547 0.0
3.338935 0.084856 -0.001681 0.0
4.484192 0.427595 0.001676 0.0
3.314065 1.184622 0.003017 0.0
4.484055 0.756004 -0.004475 0.0
1.102500 0.889482 0.000121 0.0
0.860320 0.726774 0.002960 0.0
3.432041 0.021619 0.002602 0.0
0.707360 1.522457 -0.000255 0.0
1.880476 1.783162 0.000204 0.0
0.102950 1.848023 -0.003309 0.0
2.419661 1.745711 -0.002000 0.0
3.476317 0.537912 -0.003842 0.0
2.133665 1.318980 -0.001216 0.0
4.671626 0.149126 -0.000450 0.0
1.900261 1.446021 -0.004300 0.0
3.069162 1.928802 -0.000101 0.0
1.955504 0.886800 -0.000378 0.0
0.519076 0.740357 -0.000345 0.0
2.010602 0.199851 -0.005705 0.0
1.489378 0.136711 -0.004521 0.0
0.418338 1.487698 0.001281 0.0
0.357241 1.006081 0.000396 0.0
1.601991 1.491961 -0.004710 0.0
1.469649 1.154267 -0.002418 0.0
3.506794 1.881811 0.000401 0.0
0.426494 1.256093 0.000635 0.0
2.025524 1.637340 0.001082 0.0
0.339948 1.748668 0.001089 0.0
1.554187 0.864321 -0.002287 0.0
4.191269 1.932440 0.002851 0.0
4.237897 1.973368 0.002833 0.0
4.432595 0.033887 -0.002083 0.0
4.013655 1.785287 0.000216 0.0
0.367616 0.095106 -0.001342 0.0
2.442940 0.233722 0.002673 0.0
4.494551 2.068494 -0.001462 0.0
0.444057 1.020296 -0.000902 0.0
3.566774 1.034597 -0.004355 0.0
4.339798 1.046882 -0.000661 0.0
3.127356 1.067706 -0.001920 0.0
1.211750 1.964322 -0.003836 0.0
3.911052 2.002564 0.001068 0.0
4.779632 1.204015 0.001289 0.0
0.816412 1.941157 -0.001123 0.0
0.671767 0.018779 -0.000692 0.0
4.111470 0.052616 -0.001091 0.0
1.067373 0.354556 0.002695 0.0
2.741705 0.738873 0.005219 0.0
1.668130 1.213696 0.002206 0.0
3.656794 1.874775 -0.000809 0.0
3.605877 1.396110 0.004793 0.0
0.291331 1.208223 0.000734 0.0
1.342193 1.274051 -0.000898 0.0
4.363445 1.363793 0.002273 0.0
0.125195 0.491176 -0.002051 0.0
1.953807 0.721029 0.001300 0.0
2.271011 0.086279 -0.001662 0.0
2.186320 1.508594 -0.002196 0.0
2.534334 0.918421 0.004027 0.0
3.318003 0.151719 -0.000786 0.0
1.386492 1.549625 0.002851 0.0
2.766887 1.029714 0.001676 0.0
0.288469 0.120017 -0.001594 0.0
2.354776 1.289294 -0.000056 0.0
1.861374 1.058343 -0.001451 0.0
0.145276 0.657971 0.000815 0.0
1.246996 0.863991 0.000530 0.0
1.187462 1.089593 -0.002279 0.0
4.594620 1.749516 0.003900 0.0
4.258045 2.115744 -0.004128 0.0
4.510495 0.312033 -0.002108 0.0
1.900535 1.478360 0.001771 0.0
0.397841 0.744731 0.001764 0.0
3.225395 0.360391 0.002031 0.0
1.603976 1.119213 0.000482 0.0
2.569738 1.716872 0.004806 0.0
2.380540 2.067765 -0.002024 0.0
3.075125 0.695129 0.002632 0.0
1.168548 0.869981 -0.000569 0.0
3.776781 0.971006 -0.000745 0.0
2.543216 1.409676 -0.004439 0.0
2.484691 0.514564 0.001293 0.0
0.048124 1.171549 0.002289 0.0
4.933226 2.296785 -0.000789 0.0
2.419803 0.758086 -0.004601 0.0
1.867306 0.261905 0.000922 0.0
2.606288 0.746287 -0.003749 0.0
0.774582 0.664831 0.005434 0.0
1.710048 0.982909 0.000253 0.0
3.195056 0.791188 0.002062 0.0
2.665970 1.288236 -0.001008 0.0
2.457502 1.023881 0.003273 0.0
3.922470 2.041076 0.000898 0.0
1.306115 0.084670 0.001243 0.0
2.285845 1.926704 -0.002267 0.0
2.421345 0.551987 -0.003416 0.0
4.117954 1.242165 0.002254 0.0
4.771073 1.884462 -0.001681 0.0
0.248714 0.037636 0.001119 0.0
4.688133 0.804652 -0.000781 0.0
3.383842 1.001193 0.000792 0.0
3.103579 0.325087 0.002368 0.0
0.443819 2.015139 0.003082 0.0
2.280662 0.374421 -0.000278 0.0
0.785466 1.745596 -0.004822 0.0
4.118169 1.957805 -0.002115 0.0
4.890333 0.389526 -0.005258 0.0
0.610876 1.478112 0.000414 0.0
0.798700 1.216700 -0.000927 0.0
4.495739 0.147633 -0.002926 0.0
0.382974 1.895345 0.004051 0.0
3.848795 1.104895 0.000050 0.0
0.350661 2.183467 0.001357 0.0
3.780256 2.016760 -0.000907 0.0
0.632988 2.349652 -0.002510 0.0
3.312526 0.861952 0.004014 0.0
0.311063 0.619798 0.001899 0.0
0.460376 0.891385 0.002680 0.0
4.694617 0.826861 0.002450 0.0
4.633715 2.153858 -0.000427 0.0
1.743461 1.009677 -0.000868 0.0
4.550830 0.522024 -0.001316 0.0
0.988402 0.689179 0.002920 0.0
2.636945 1.499053 0.000813 0.0
0.968330 1.302557 -0.002641 0.0
3.822152 1.091021 -0.001941 0.0
2.481537 2.360729 0.000618 0.0
0.046809 0.912673 0.002414 0.0
3.145496 0.543539 0.000260 0.0
2.092661 1.669042 0.003771 0.0
0.788682 0.043198 0.000540 0.0
2.704896 0.639730 0.000585 0.0
2.218791 1.746960 0.002554 0.0
4.695989 1.456410 -0.000251 0.0
1.290894 0.945484 0.001019 0.0
0.733303 0.371832 0.004227 0.0
3.240754 1.757098 0.003728 0.0
0.944566 1.399860 -0.000554 0.0
4.509488 0.047327 -0.000061 0.0
1.696683 0.297800 0.002058 0.0
1.098179 1.388705 0.002240 0.0
3.117254 1.962302 0.001250 0.0
2.636287 1.858158 -0.003387 0.0
0.666476 1.074749 0.000783 0.0
1.435489 0.144812 -0.003951 0.0
2.888457 0.232091 -0.001167 0.0
0.010953 0.729859 -0.000685 0.0
1.037731 0.537251 -0.004530 0.0
0.287637 2.068264 -0.002274 0.0
1.366574 1.479145 -0.001573 0.0
0.154553 1.985914 0.003553 0.0
0.278381 1.219129 0.003669 0.0
3.381907 0.520057 -0.001684 0.0
1.797269 2.067656 0.000150 0.0
3.419351 1.139905 -0.001807 0.0
4.290562 0.269717 0.001190 0.0
4.662758 0.641189 -0.004648 0.0
2.733803 0.303879 0.001448 0.0
4.733833 1.208592 0.000496 0.0
3.211628 1.621869 -0.003223 0.0
0.881684 1.155592 0.002877 0.0
0.511083 0.490422 0.001506 0.0
3.402226 0.411262 0.004861 0.0
0.589768 1.262985 0.004789 0.0
0.498835 2.251327 -0.002076 0.0
1.220892 0.705803 -0.003799 0.0
1.227966 0.449661 -0.001439 0.0
1.443076 0.518275 0.004687 0.0
3.998437 1.915661 -0.001904 0.0
4.622747 0.934950 -0.001436 0.0
2.595913 0.926751 0.002412 0.0
4.615705 2.078156 0.000001 0.0
4.148268 2.292055 -0.003412 0.0
0.316544 0.577771 -0.002559 0.0
2.090899 0.732158 0.001184 0.0
3.937065 0.212018 0.000881 0.0
0.340930 1.362039 0.000702 0.0
3.159469 0.531945 -0.003108 0.0
3.226179 0.954773 0.004611 0.0
2.211228 0.513224 -0.003003 0.0
3.818474 0.934030 0.002485 0.0
1.141292 0.184601 -0.000731 0.0
1.832638 2.235161 0.000762 0.0
4.801012 2.161648 0.002866 0.0
3.478549 0.084592 -0.001606 0.0
2.818565 1.661614 -0.000867 0.0
3.107388 0.951058 0.000998 0.0
1.203752 1.305461 0.000801 0.0
0.137295 0.798708 -0.002227 0.0
0.316861 1.296218 0.001584 0.0
2.717357 1.517269 -0.005061 0.0
1.869419 2.172060 0.004603 0.0
3.125034 2.345022 -0.000327 0.0
2.180043 2.352212 -0.000178 0.0
0.054206 0.438668 -0.001061 0.0
2.677273 2.338709 -0.002916 0.0
3.606146 1.834144 0.001584 0.0
1.844852 1.235074 -0.002280 0.0
0.347435 0.299460 0.001960 0.0
2.978090 0.770401 0.001166 0.0
4.875041 2.344767 -0.000132 0.0
4.199274 0.516784 -0.001225 0.0
3.009977 2.327750 0.000214 0.0
3.773241 1.039763 -0.002481 0.0
1.962299 1.723121 0.000072 0.0
1.616253 0.803470 -0.000695 0.0
4.526609 2.255707 -0.004804 0.0
0.781301 1.902890 0.001243 0.0
0.816483 1.039517 -0.003594 0.0
0.312215 1.633641 -0.000976 0.0
2.476758 0.824890 0.003499 0.0
4.298346 0.146062 -0.000515 0.0
1.380938 0.790373 0.000002 0.0
1.045918 0.139865 0.006031 0.0
3.259317 1.832005 -0.005615 0.0
4.279708 1.171562 -0.003834 0.0
3.907263 2.155348 -0.002303 0.0
0.296086 0.280014 0.001849 0.0
0.039821 0.352855 -0.001507 0.0
4.522832 0.805049 0.002234 0.0
3.395607 0.816828 0.003767 0.0
3.304038 1.459946 -0.004252 0.0
2.338339 0.952010 0.003680 0.0
1.671514 1.414719 0.002155 0.0
2.903430 0.819652 -0.000693 0.0
4.235424 1.715855 -0.001187 0.0
1.579826 0.704396 0.005434 0.0
2.462590 0.524633 -0.002628 0.0
2.067903 0.855812 0.002476 0.0
3.817246 0.019299 -0.001989 0.0
0.202800 0.052411 0.000748 0.0
2.848670 1.293320 -0.005126 0.0
4.523515 1.626276 0.002206 0.0
1.351233 0.754020 0.001533 0.0
2.483103 1.792685 -0.000242 0.0
2.811160 1.399989 0.003052 0.0
4.117130 1.640774 -0.001464 0.0
2.003913 0.235956 0.000411 0.0
4.636346 0.690429 0.000082 0.0
0.451003 0.000386 -0.001931 0.0
0.174209 1.491999 -0.001587 0.0
1.067181 0.557353 -0.002728 0.0
3.826627 0.847432 -0.005677 0.0
1.758229 1.584368 -0.000392 0.0
0.975862 1.096273 -0.001550 0.0
4.674733 1.016669 -0.002578 0.0
1.323665 0.047203 0.000358 0.0
0.493984 0.349333 -0.001429 0.0
0.946749 0.969954 0.001659 0.0
3.299718 1.376084 -0.006137 0.0
2.484401 0.049362 -0.000585 0.0
0.291478 1.932843 0.000391 0.0
2.899798 0.776186 -0.001888 0.0
0.760779 0.794133 0.003290 0.0
0.217202 2.033982 -0.002788 0.0
3.024064 2.092953 0.002192 0.0
3.958046 0.605991 0.001908 0.0
3.952816 0.100677 0.000488 0.0
3.381485 1.906984 0.002315 0.0
2.242365 1.385675 -0.001254 0.0
2.661775 1.204317 0.002699 0.0
0.860947 0.210180 0.001966 0.0
1.863855 1.507870 -0.000744 0.0
4.309763 1.907126 -0.003510 0.0
4.681700 1.239893 -0.001174 0.0
1.752861 1.487784 0.000040 0.0
1.651923 0.429678 -0.000966 0.0
1.810332 0.111628 -0.001674 0.0
2.544103 1.793609 0.005366 0.0
4.417960 1.149073 -0.000522 0.0
1.211137 1.568552 0.001852 0.0
1.477317 0.958100 -0.001244 0.0
1.006771 1.310511 0.004390 0.0
4.775345 1.937743 0.000924 0.0
3.519114 2.105017 -0.005709 0.0
0.819671 1.256262 -0.003208 0.0
2.474760 1.806618 0.000513 0.0
2.067958 2.314792 -0.000815 0.0
2.597889 0.157517 -0.000566 0.0
0.944719 0.753025 0.002465 0.0
3.522681 0.951445 -0.000852 0.0
3.800053 1.386720 -0.000961 0.0
1.025837 0.096265 -0.000728 0.0
0.012779 1.815133 0.001608 0.0
0.383061 0.210466 0.000459 0.0
4.197465 0.995233 -0.001833 0.0
3.398672 1.860830 0.000648 0.0
0.293381 0.711737 0.000933 0.0
0.226907 1.766282 0.000022 0.0
0.598436 2.070005 0.000773 0.0
1.187313 0.126915 0.003793 0.0
4.725486 0.162612 -0.000448 0.0
3.907407 1.275735 -0.000219 0.0
1.142169 0.061834 0.000736 0.0
4.035350 1.545577 0.001276 0.0
2.178378 0.341264 0.003310 0.0
4.833060 0.495400 -0.001399 0.0
2.041684 0.770645 0.005327 0.0
4.387237 1.280854 0.000870 0.0
1.107197 1.786190 -0.001338 0.0
4.495193 1.002392 0.001627 0.0
0.315743 0.470906 -0.002097 0.0
0.100840 1.187578 0.001784 0.0
0.740480 1.240752 -0.002028 0.0
1.425282 1.458514 0.000043 0.0
4.310108 2.189880 0.003413 0.0
3.442620 0.464871 -0.000873 0.0
3.551621 0.430688 0.002765 0.0
2.513785 1.615105 0.003018 0.0
0.962855 1.072801 0.001900 0.0
4.852037 1.680511 -0.004124 0.0
0.544375 0.170646 0.001636 0.0
1.441698 1.382478 0.000882 0.0
0.439612 2.004505 -0.000040 0.0
0.658971 0.779026 0.003196 0.0
3.686276 2.215926 0.001762 0.0
0.205786 0.084140 0.004268 0.0
1.593811 0.556449 0.005227 0.0
1.581935 0.415117 -0.000826 0.0
1.378403 1.040402 0.002214 0.0
2.334317 1.506455 0.002644 0.0
3.714724 0.049401 -0.000312 0.0
2.479926 1.124486 -0.000493 0.0
4.485261 1.178217 0.003020 0.0
0.138985 1.606688 -0.001208 0.0
2.157900 0.264469 0.000451 0.0
0.359998 1.835756 0.001601 0.0
2.183301 2.288387 -0.002379 0.0
0.012862 0.860288 -0.000742 0.0
3.581155 1.432021 0.001961 0.0
3.039602 0.858111 -0.003360 0.0
3.707975 0.819468 0.001924 0.0
1.820017 0.638055 0.001508 0.0
4.199419 1.481334 0.001788 0.0
3.145552 1.460668 -0.001710 0.0
4.919372 1.064056 -0.004098 0.0
3.793503 0.958200 0.003836 0.0
4.629524 0.773311 0.000992 0.0
3.581648 2.099069 0.004844 0.0
3.426812 1.974644 -0.002626 0.0
3.100049 2.226898 0.001690 0.0
3.362122 2.214037 -0.001788 0.0
1.710689 1.478480 -0.001493 0.0
4.545235 0.589977 -0.001309 0.0
2.826124 2.141326 -0.001443 0.0
0.225131 0.098357 0.004251 0.0
0.685386 0.820488 -0.000321 0.0
1.402180 2.114084 0.003315 0.0
4.400238 1.588688 0.002847 0.0
1.348933 1.910197 -0.002729 0.0
3.907230 2.336818 0.000242 0.0
2.252424 0.362130 0.000109 0.0
2.012502 1.165863 -0.001332 0.0
2.682473 0.598794 0.000400 0.0
4.790648 1.076831 0.001522 0.0
3.038858 2.304698 -0.001696 0.0
2.261781 0.133165 0.001251 0.0
0.142230 1.872965 0.000385 0.0
0.468539 0.963504 -0.001679 0.0
2.050247 0.977481 -0.001330 0.0
4.065075 1.624038 -0.002683 0.0
2.966231 2.272008 0.005715 0.0
3.808460 2.133278 0.001690 0.0
3.931743 1.530594 -0.002536 0.0
3.132035 1.489252 -0.001429 0.0
1.639193 1.944258 -0.001770 0.0
1.319890 2.100039 0.001115 0.0
1.969044 0.168680 -0.000956 0.0
4.003948 0.228775 0.004742 0.0
4.127510 0.054726 -0.003345 0.0
1.986420 0.958161 0.000703 0.0
3.872633 0.194055 0.002346 0.0
3.838647 2.354291 0.001254 0.0
2.854718 1.455690 -0.002472 0.0
0.476737 0.720429 0.000998 0.0
1.870058 2.243483 0.000511 0.0
4.765817 2.017238 0.002390 0.0
0.785191 1.189483 0.002388 0.0
2.199921 0.836831 0.000389 0.0
2.156864 1.065953 -0.002536 0.0
0.062727 1.773403 0.003878 0.0
0.515524 1.124363 -0.003404 0.0
2.383578 1.133450 -0.001465 0.0
0.781586 0.097213 -0.005189 0.0
4.392299 1.589731 0.002545 0.0
1.496118 0.129031 -0.001705 0.0
3.580573 0.367127 -0.000615 0.0
1.485011 2.161612 0.001449 0.0
4.118258 0.373423 0.000173 0.0
3.238841 1.634406 0.001030 0.0
0.491540 0.124215 0.003795 0.0
3.610709 0.662359 -0.001510 0.0
2.129286 1.208225 -0.005045 0.0
1.517206 0.113786 0.001250 0.0
1.014243 0.519094 0.002626 0.0
1.101265 1.724833 -0.001397 0.0
2.853382 1.663691 0.002352 0.0
0.533256 0.746780 -0.004802 0.0
4.988102 1.514229 0.004522 0.0
1.201545 0.952350 0.004014 0.0
3.738578 0.526859 0.001207 0.0
2.993815 1.280392 -0.002901 0.0
4.510560 2.118521 0.002835 0.0
3.021200 1.986601 0.001691 0.0
4.464569 1.085385 0.001516 0.0
0.011227 0.118998 0.000403 0.0
3.743595 1.143506 -0.000699 0.0
1.487752 1.490667 -0.002129 0.0
0.069330 1.378664 0.000726 0.0
2.797996 0.159510 -0.003925 0.0
4.578051 0.421299 0.001404 0.0
1.971760 0.773840 0.000938 0.0
2.360191 2.049783 -0.000471 0.0
2.479287 1.051972 0.004974 0.0
2.524494 0.791088 -0.001033 0.0
1.587304 1.729292 0.000175 0.0
4.248147 0.479410 -0.000079 0.0
2.896453 1.088927 -0.001294 0.0
1.859937 0.928705 0.002490 0.0
3.325973 1.971756 -0.000822 0.0
4.565356 2.343637 -0.000114 0.0
3.227138 1.894019 0.000320 0.0
4.382176 2.288459 0.001230 0.0
2.693864 2.296478 -0.004425 0.0
3.802195 0.737641 0.001155 0.0
3.275337 0.128697 0.000627 0.0
3.257609 0.269058 -0.004726 0.0
3.168772 1.795897 -0.000918 0.0
2.395863 1.729717 0.000544 0.0
3.404230 2.282614 0.001263 0.0
4.388581 0.191847 0.001320 0.0
4.907239 1.593308 -0.000421 0.0
3.790595 0.505536 -0.005956 0.0
4.136413 1.314531 -0.001090 0.0
0.848220 1.180739 -0.004379 0.0
4.453819 2.213344 0.000729 0.0
0.411396 2.080340 -0.000900 0.0
2.499967 1.832035 -0.000215 0.0
0.005270 1.000081 -0.002469 0.0
3.666256 0.490201 0.000647 0.0
3.578550 1.931166 -0.000024 0.0
3.191184 2.002850 0.001410 0.0
0.224480 1.588499 -0.001084 0.0
1.751215 1.770558 0.004365 0.0
1.827210 0.564604 -0.001890 0.0
4.399931 2.060688 0.007401 0.0
1.944399 0.078899 0.004164 0.0
0.211060 0.818945 0.000138 0.0
3.534393 0.084343 -0.003915 0.0
1.859719 1.274598 0.000362 0.0
0.206346 0.231153 -0.001870 0.0
3.906472 1.762142 0.001803 0.0
3.817840 1.006433 0.001618 0.0
1.672070 0.791248 -0.000277 0.0
3.310622 0.509467 -0.002871 0.0
3.409944 1.530607 -0.000504 0.0
2.738828 1.185544 -0.004458 0.0
1.884086 0.792517 0.002031 0.0
2.164020 2.163551 0.003124 0.0
0.757003 0.785296 0.001228 0.0
2.611290 1.041565 0.000282 0.0
3.982082 2.097904 -0.001680 0.0
1.419222 1.661975 -0.001198 0.0
0.614558 0.812972 -0.001533 0.0
0.535674 1.534766 0.001380 0.0
2.649655 0.980920 0.000053 0.0
1.294470 0.019120 0.000065 0.0
1.395641 0.195192 -0.003527 0.0
1.377808 2.032609 0.000540 0.0
4.499694 0.030042 0.002893 0.0
2.076265 1.669372 -0.004589 0.0
3.351553 1.128192 -0.000779 0.0
4.952454 2.072284 -0.002966 0.0
1.598189 1.320159 0.001254 0.0
4.072759 2.284484 -0.001573 0.0
4.678725 0.029563 0.004236 0.0
4.139567 2.201065 -0.002017 0.0
0.547445 2.118375 -0.000404 0.0
0.003790 0.694942 0.001866 0.0
1.052251 1.023804 -0.001080 0.0
1.936261 0.968278 0.000487 0.0
4.422119 0.928999 0.003724 0.0
1.616528 1.154574 -0.003394 0.0
4.684141 2.363171 -0.002424 0.0
0.898807 1.605956 0.001699 0.0
1.032554 0.135301 0.004419 0.0
2.368842 0.319411 0.002609 0.0
4.970652 1.607821 -0.001906 0.0
4.857224 0.502344 0.002897 0.0
1.474229 1.297384 0.001650 0.0
4.694661 0.254307 -0.001397 0.0
1.113556 0.920014 0.001539 0.0
3.073569 0.694912 0.003500 0.0
0.756586 2.233962 -0.000120 0.0
0.611541 2.009105 -0.000681 0.0
1.260989 0.108111 0.003797 0.0
2.333920 1.883198 -0.000187 0.0
2.961784 0.246915 0.000018 0.0
1.047930 2.081005 0.001063 0.0
2.901784 2.328981 -0.005279 0.0
0.244080 1.255834 -0.001104 0.0
4.041455 0.734189 -0.000528 0.0
1.260532 0.638788 -0.001101 0.0
4.477993 0.305650 0.004260 0.0
4.157919 1.056040 0.002549 0.0
1.966917 1.350878 0.000433 0.0
1.268114 2.373555 0.003253 0.0
1.644949 1.652838 0.002568 0.0
2.174332 0.901008 -0.000798 0.0
1.220379 0.943361 0.001121 0.0
2.241246 0.384181 0.001692 0.0
3.350930 0.827378 -0.003272 0.0
1.818381 1.662673 -0.002625 0.0
3.576193 -0.000334 0.003068 0.0
1.729222 0.150182 0.000310 0.0
3.097524 1.536364 -0.004994 0.0
3.466550 0.260131 -0.001779 0.0
0.153673 2.197996 0.000351 0.0
4.937136 2.257158 0.001596 0.0
4.779525 1.891979 -0.002332 0.0
1.938599 0.538305 0.002677 0.0
4.123404 0.294869 0.003102 0.0
4.497300 0.478807 -0.003615 0.0
0.460107 0.580604 0.003191 0.0
1.251757 2.076592 -0.000775 0.0
4.490793 0.365361 0.003301 0.0
3.569955 0.518198 -0.001729 0.0
1.677513 1.181899 0.001850 0.0
3.781972 0.091044 -0.001750 0.0
2.521278 1.131779 0.004149 0.0
3.373628 1.272595 0.001907 0.0
1.465306 2.010220 0.001344 0.0
3.100877 1.537497 0.000142 0.0
4.317012 0.782384 -0.001601 0.0
0.207788 1.915194 -0.001641 0.0
4.769034 2.373764 -0.001476 0.0
1.236439 1.255282 0.001992 0.0
2.561397 2.311607 0.002833 0.0
3.104537 2.100282 -0.000799 0.0
0.237360 1.442982 0.003337 0.0
1.003658 0.658859 0.000552 0.0
3.870610 1.744702 -0.001882 0.0
4.849488 1.687529 0.000859 0.0
2.537938 0.518290 0.001694 0.0
2.233671 2.337628 0.000881 0.0
4.024131 0.080688 0.001368 0.0
1.115420 0.208005 0.004485 0.0
1.016144 1.012588 -0.000350 0.0
3.204017 2.334039 0.003729 0.0
1.440831 0.929588 0.002529 0.0
3.903954 0.079647 0.000849 0.0
1.395834 0.444836 -0.002697 0.0
-0.001396 2.132097 -0.000049 0.0
1.150252 2.197955 0.001211 0.0
3.457148 0.302790 0.001995 0.0
2.629303 1.446911 0.000798 0.0
4.696469 2.065814 0.002751 0.0
1.707233 1.386109 0.004300 0.0
2.053684 0.839689 0.000233 0.0
2.496918 0.379389 -0.000320 0.0
2.803285 1.090523 -0.000304 0.0
1.732733 0.784918 -0.004698 0.0
4.622583 0.416623 -0.001530 0.0
1.512208 0.806067 0.001383 0.0
0.482013 1.612370 0.000345 0.0
2.419664 1.544306 -0.003933 0.0
0.563776 0.562700 -0.000408 0.0
4.226439 1.152576 0.000961 0.0
2.136683 2.073643 -0.001088 0.0
1.566444 0.982040 0.001265 0.0
4.283168 0.327366 -0.000741 0.0
0.597026 1.449694 0.001834 0.0
0.780055 0.282986 0.002996 0.0
4.114059 0.220622 -0.000943 0.0
0.401965 0.713311 0.000528 0.0
4.789209 2.034017 0.000918 0.0
4.321050 1.965586 0.002356 0.0
2.783258 2.297009 0.000685 0.0
3.045126 1.285561 0.001658 0.0
3.532156 2.302387 -0.001598 0.0
3.465228 1.208056 -0.000414 0.0
4.867896 1.278345 -0.000516 0.0
4.389221 1.761274 0.001460 0.0
1.091799 2.334600 0.000408 0.0
1.101297 0.470632 -0.003053 0.0
2.894387 2.268979 -0.001055 0.0
4.941777 0.140947 -0.003901 0.0
4.840109 0.614154 0.005151 0.0
3.431386 1.710901 -0.004774 0.0
3.364782 0.575760 -0.001385 0.0
3.199719 0.713326 -0.004555 0.0
2.278698 0.640733 -0.000106 0.0
0.640620 0.576078 0.002494 0.0
3.753221 2.076477 0.001295 0.0
2.016224 0.283032 0.001509 0.0
0.625809 2.184053 -0.001911 0.0
1.825669 0.704091 0.000160 0.0
0.415593 0.538201 0.005292 0.0
4.477078 0.833420 0.004613 0.0
3.377081 1.585686 0.002068 0.0
2.945340 1.354427 -0.000259 0.0
3.344102 1.592688 -0.001023 0.0
1.977069 1.797960 0.004892 0.0
0.795772 1.160070 0.000718 0.0
0.128163 2.240888 0.001521 0.0
4.224244 1.648359 -0.001734 0.0
0.074979 1.549991 -0.002196 0.0
3.692181 0.755826 -0.003453 0.0
0.142225 1.654569 -0.006404 0.0
4.650118 0.726686 -0.002148 0.0
0.370391 1.494263 0.000647 0.0
2.601378 1.881430 -0.001497 0.0
4.367807 1.738149 -0.001156 0.0
2.472836 0.592782 0.003821 0.0
0.699106 0.975486 0.001005 0.0
4.373990 1.276913 -0.002838 0.0
0.400302 0.344543 -0.002104 0.0
3.356713 1.986629 -0.004456 0.0
4.085533 0.452020 0.001227 0.0
4.640713 0.702982 -0.002586 0.0
2.484531 1.720755 -0.000885 0.0
1.058473 0.767596 0.004045 0.0
1.317894 0.179843 -0.004063 0.0
4.286829 2.176310 0.001324 0.0
1.335292 1.094963 -0.001409 0.0
4.064257 0.498310 0.002835 0.0
3.921610 2.123409 -0.001651 0.0
2.013513 2.350438 -0.000295 0.0
0.555497 0.914134 -0.002398 0.0
3.449692 1.970369 -0.001891 0.0
1.436148 0.077974 0.000592 0.0
2.805403 0.695506 -0.000043 0.0
0.564021 0.873261 -0.002410 0.0
4.270174 0.995161 0.001054 0.0
0.001604 0.998259 -0.000196 0.0
4.376214 0.643687 -0.003720 0.0
1.621896 1.954208 0.001524 0.0
2.108166 1.590536 -0.000261 0.0
2.469426 1.961098 0.001466 0.0
2.221256 0.484919 -0.001279 0.0
3.054808 1.589254 -0.000252 0.0
4.188182 0.327848 -0.002612 0.0
2.960440 0.120013 0.000607 0.0
2.445555 0.656815 -0.003318 0.0
1.986402 1.809703 -0.003284 0.0
2.356973 1.618444 0.000570 0.0
0.288578 0.844285 -0.000827 0.0
0.534836 1.619391 -0.006820 0.0
3.149009 2.040637 0.002802 0.0
3.074826 2.212626 0.002038 0.0
2.924326 2.161750 -0.001152 0.0
3.724393 2.238044 -0.001792 0.0
1.223240 0.777450 -0.002813 0.0
3.175904 1.616655 -0.001130 0.0
1.903903 0.796865 -0.006938 0.0
0.994778 1.210026 0.002144 0.0
1.762123 1.388220 -0.002578 0.0
2.484252 1.380244 0.000190 0.0
1.305922 1.631913 0.000943 0.0
3.706132 1.724513 0.004617 0.0
4.897284 0.250910 0.000465 0.0
1.241299 1.690231 -0.000710 0.0
0.726294 2.193784 -0.002062 0.0
2.655436 1.827342 0.002531 0.0
3.856203 1.846033 -0.001776 0.0
2.950819 0.693860 0.001244 0.0
3.429653 1.090966 0.000619 0.0
2.410753 0.792309 0.003190 0.0
2.053417 1.773554 -0.000167 0.0
4.017558 0.371412 -0.001357 0.0
4.571865 2.241826 -0.002924 0.0
2.523292 0.761410 0.000277 0.0
1.720361 1.106090 0.004920 0.0
1.831893 0.700169 -0.001604 0.0
1.142427 1.089705 0.002452 0.0
3.929561 0.962608 -0.004036 0.0
0.961997 1.336067 -0.002898 0.0
1.282370 0.629169 -0.002129 0.0
3.399116 2.211790 -0.000749 0.0
0.432109 1.278767 0.007414 0.0
4.971649 0.133628 0.000862 0.0
2.235250 0.089095 -0.006143 0.0
0.474901 1.079319 -0.000660 0.0
2.438817 1.677168 -0.001160 0.0
3.359595 0.593463 0.001674 0.0
2.176866 1.940866 -0.003333 0.0
2.774944 2.279688 -0.002720 0.0
3.654504 2.264689 -0.000813 0.0
0.379389 0.962357 -0.001882 0.0
1.096706 1.415135 0.002226 0.0
1.230778 1.999666 0.000867 0.0
0.012745 2.041806 -0.001985 0.0
0.943343 0.815614 0.003072 0.0
4.754464 1.822455 -0.001710 0.0
1.084372 1.226690 -0.001887 0.0
2.165554 1.500268 0.001166 0.0
4.950836 0.648007 0.002115 0.0
2.136584 0.085560 0.003676 0.0
1.749880 1.870391 0.003710 0.0
1.876087 0.467896 -0.002980 0.0
4.938708 1.985264 -0.003007 0.0
1.606981 0.298246 -0.003674 0.0
0.602233 1.115260 0.001677 0.0
0.549967 0.989925 -0.001381 0.0
2.358199 0.022782 0.000614 0.0
2.386842 1.951854 -0.000631 0.0
2.485984 1.356287 -0.001624 0.0
4.378952 0.621616 0.000595 0.0
0.705235 1.525342 -0.001782 0.0
3.594847 0.354307 0.002308 0.0
2.779940 1.846620 0.002143 0.0
