2.576234 1.205964 -0.004276 0.0
1.301696 1.372844 0.000722 0.0
3.252306 1.253688 0.000646 0.0
2.955963 1.826786 0.003481 0.0
2.765977 2.230445 -0.000683 0.0
2.211328 1.037979 0.002504 0.0
0.378121 2.204388 -0.000391 0.0
1.585892 0.079440 -0.005774 0.0
0.991819 0.191302 -0.000152 0.0
1.561187 1.442007 -0.002181 0.0
2.656170 2.093150 0.000038 0.0
3.262594 0.323102 0.002238 0.0
0.309821 0.974541 0.001629 0.0
0.980020 1.823696 0.000754 0.0
1.578985 1.787834 0.000277 0.0
2.711019 1.214158 -0.000761 0.0
1.886480 2.196501 0.000348 0.0
3.100627 1.800366 0.002093 0.0
3.357715 0.463763 0.004108 0.0
0.197363 1.007533 0.000321 0.0
2.032542 0.643816 0.000759 0.0
0.828059 0.066142 0.000390 0.0
1.259211 1.350453 0.000116 0.0
2.523825 2.210640 -0.004346 0.0
0.958084 0.002504 -0.001292 0.0
3.894228 1.087580 -0.001160 0.0
3.230674 0.873391 -0.001928 0.0
3.839939 2.053750 -0.000210 0.0
3.875170 1.953881 0.003203 0.0
4.045758 0.230058 -0.001172 0.0
2.690045 1.573171 0.003142 0.0
2.610061 2.129711 0.003028 0.0
4.046613 0.323412 0.000070 0.0
2.816869 0.472965 0.000462 0.0
3.189105 1.824064 0.000654 0.0
0.378348 1.068128 -0.002356 0.0
1.912074 0.522939 0.005335 0.0
3.625907 0.082723 -0.002948 0.0
1.638199 1.007123 0.001670 0.0
3.668427 2.398827 0.003086 0.0
4.021001 1.241191 -0.004457 0.0
3.067244 1.069450 0.002872 0.0
3.331915 0.162519 -0.001767 0.0
3.904317 1.368780 0.004707 0.0
1.386025 0.025483 0.003080 0.0
4.230458 0.496610 -0.002529 0.0
0.118590 1.471937 -0.001758 0.0
0.083664 2.202622 -0.003716 0.0
0.834868 1.813923 -0.000533 0.0
4.089261 1.816027 -0.001433 0.0
3.575871 0.649324 0.005242 0.0
2.649520 1.176365 -0.001559 0.0
3.815250 0.239632 0.001026 0.0
1.605613 0.248961 0.004548 0.0
4.163737 2.411422 -0.000715 0.0
1.348902 0.299710 0.000051 0.0
2.506779 0.985703 0.003486 0.0
0.241859 0.370243 0.000090 0.0
0.580762 0.782307 0.000829 0.0
0.303982 2.114775 0.000891 0.0
1.293978 1.482257 -0.003526 0.0
3.500755 1.139292 -0.002617 0.0
3.943569 1.322125 0.001215 0.0
3.080714 1.272156 -0.001494 0.0
3.245201 2.123917 -0.002930 0.0
0.484096 2.109923 0.003861 0.0
0.124606 2.171313 -0.000595 0.0
2.294503 0.938368 0.002474 0.0
2.093398 1.903471 -0.002944 0.0
2.429991 2.243521 -0.003343 0.0
2.303564 0.452040 0.000260 0.0
1.787574 1.275060 0.003566 0.0
3.233886 1.667708 0.000589 0.0
0.414654 1.935214 -0.004954 0.0
0.746464 1.486215 0.001762 0.0
3.056666 1.803437 -0.003761 0.0
1.787019 0.733089 0.006386 0.0
0.077575 0.234840 0.004100 0.0
0.348721 0.681200 -0.002228 0.0
3.828046 1.253120 -0.001153 0.0
0.441039 1.870403 -0.000613 0.0
2.005013 0.068826 0.004107 0.0
1.235948 1.068923 -0.002357 0.0
1.294279 1.989690 -0.001665 0.0
3.367234 0.981654 -0.005361 0.0
2.102104 1.711878 0.004813 0.0
2.795232 2.102299 0.001421 0.0
3.953686 2.211232 0.004781 0.0
0.028584 1.268905 0.003122 0.0
3.309813 1.190939 0.001121 0.0
2.344923 2.399864 0.001938 0.0
0.496294 2.059700 0.000202 0.0
1.135380 0.865808 0.000959 0.0
3.101989 0.347696 0.000957 0.0
3.781827 1.799101 0.004705 0.0
1.804012 1.301504 -0.001126 0.0
0.764998 1.820477 -0.000446 0.0
3.591175 2.407813 0.003408 0.0
0.295375 0.395423 -0.000681 0.0
1.167894 2.083244 0.002987 0.0
2.775839 0.052797 0.002455 0.0
4.007095 1.191704 -0.002160 0.0
4.116415 1.955148 0.001395 0.0
3.442549 0.536885 -0.001088 0.0
0.325440 0.173364 0.006383 0.0
0.279808 1.239349 -0.002527 0.0
3.130371 1.714218 0.000656 0.0
2.050786 1.021242 0.001549 0.0
3.870758 1.900146 -0.002063 0.0
0.967298 2.249356 -0.001147 0.0
1.752625 1.345754 -0.000036 0.0
1.296615 0.331552 -0.001932 0.0
0.278200 0.007415 0.004080 0.0
3.079604 0.865181 -0.003173 0.0
2.545643 1.592311 -0.000371 0.0
0.719324 2.136240 0.000733 0.0
0.573845 1.905764 -0.001370 0.0
3.607898 0.110915 0.001897 0.0
4.039005 1.949751 -0.001049 0.0
3.367947 1.262959 -0.001932 0.0
1.428760 0.003461 -0.002426 0.0
0.377885 0.277176 -0.000663 0.0
2.181727 1.223437 -0.000350 0.0
2.293491 2.076682 0.000871 0.0
0.415474 1.894623 0.000866 0.0
0.902189 0.602219 -0.002172 0.0
3.695784 1.828085 -0.000783 0.0
3.277790 0.902147 -0.004084 0.0
0.615158 2.292434 0.002196 0.0
1.198917 1.480220 0.000049 0.0
2.160665 0.155420 0.000475 0.0
0.980448 2.341302 0.000215 0.0
0.506652 0.189956 0.000631 0.0
4.285671 1.347154 0.000449 0.0
1.816006 1.560227 -0.003789 0.0
3.624403 2.225065 0.001173 0.0
2.736411 1.617863 -0.000476 0.0
0.308809 1.554785 0.002781 0.0
2.458393 0.637996 0.003415 0.0
2.031830 2.321150 0.000309 0.0
1.428465 1.379917 -0.001425 0.0
0.269991 0.807223 -0.000827 0.0
2.210967 0.468092 0.000276 0.0
3.920510 1.340507 -0.003164 0.0
4.179875 2.230671 -0.001120 0.0
3.695155 0.580331 -0.003270 0.0
0.350587 0.274340 -0.001746 0.0
4.319342 0.905876 -0.003471 0.0
4.025982 0.728884 -0.003406 0.0
0.079239 2.132027 0.002857 0.0
1.183060 2.077859 -0.000386 0.0
0.335873 2.073008 0.004210 0.0
2.876335 1.104839 0.006199 0.0
4.095322 0.157654 -0.005362 0.0
4.266865 0.529431 -0.001098 0.0
1.960497 1.269486 -0.004887 0.0
0.380705 1.521274 0.003257 0.0
3.405538 0.158953 0.000350 0.0
0.176084 0.256371 0.001229 0.0
0.701048 2.114366 -0.000620 0.0
0.993937 1.218441 -0.002828 0.0
0.353086 0.279927 -0.003041 0.0
1.973523 1.152598 0.002755 0.0
4.296006 1.128260 -0.003983 0.0
3.586102 0.789231 0.002899 0.0
0.458543 0.390870 -0.002650 0.0
2.051102 2.008821 0.001243 0.0
1.142124 0.487651 -0.001458 0.0
0.619021 2.389682 0.001045 0.0
2.333222 2.356546 -0.001083 0.0
1.767060 1.834179 0.001157 0.0
3.398859 2.007766 0.000132 0.0
1.235910 1.378574 0.000674 0.0
1.478699 1.467372 0.003042 0.0
3.150745 0.208041 -0.001862 0.0
2.694232 2.293806 -0.001347 0.0
0.556715 0.933196 -0.000163 0.0
0.381768 2.109477 -0.004094 0.0
0.082478 1.389260 -0.000480 0.0
1.171198 2.354820 0.002556 0.0
3.500542 1.922788 0.000400 0.0
1.858681 0.533970 0.000294 0.0
1.664680 1.588385 0.001243 0.0
1.600471 0.349231 -0.002849 0.0
2.768224 2.193342 0.000184 0.0
2.585975 0.644917 0.001438 0.0
3.455099 0.530382 -0.001710 0.0
0.214109 2.065982 -0.000336 0.0
0.077606 2.021420 0.000683 0.0
4.220324 1.503504 0.000230 0.0
0.311403 0.673790 0.004266 0.0
3.406302 2.064183 -0.004823 0.0
0.330418 0.159798 0.000241 0.0
1.946178 0.471245 -0.000688 0.0
3.190183 0.340615 -0.002276 0.0
1.858567 1.776636 0.002183 0.0
2.394689 0.851383 0.000049 0.0
1.620719 1.225060 -0.001762 0.0
2.066982 1.214858 0.002909 0.0
1.980353 1.835857 -0.000597 0.0
1.165873 1.196260 0.003872 0.0
2.278913 0.062032 0.000221 0.0
4.051700 1.220025 0.000655 0.0
1.084207 1.355902 -0.003251 0.0
1.543525 0.707877 -0.002839 0.0
0.090199 0.686957 -0.003346 0.0
0.966465 1.640804 -0.000921 0.0
3.096125 0.906074 -0.003249 0.0
0.580099 0.528884 0.003227 0.0
1.477738 0.752098 0.001551 0.0
3.564801 0.622340 0.000204 0.0
1.885134 1.829763 -0.000929 0.0
1.189602 0.420442 0.003290 0.0
2.622853 2.054785 -0.002555 0.0
3.116291 0.159094 -0.002131 0.0
2.760215 0.296531 0.000141 0.0
0.586889 1.375283 0.002395 0.0
3.905727 1.502588 0.003865 0.0
4.290872 2.034944 0.000453 0.0
0.149388 1.854825 -0.003048 0.0
2.551363 0.435928 -0.004468 0.0
0.748333 1.138116 0.002745 0.0
1.689989 1.127647 0.001615 0.0
3.700718 0.961465 -0.002264 0.0
0.241763 0.863397 -0.005526 0.0
0.892871 2.155046 -0.005469 0.0
4.022747 1.360803 -0.001967 0.0
0.654081 2.061873 -0.001061 0.0
0.996961 0.835993 -0.000752 0.0
2.491187 1.942160 0.001898 0.0
4.149550 1.202573 -0.002352 0.0
0.759602 0.684645 -0.001115 0.0
1.184115 2.065355 0.002451 0.0
0.438493 0.768418 0.001902 0.0
1.450789 2.195664 -0.000661 0.0
0.573947 1.716388 0.000853 0.0
0.326056 1.966677 0.001641 0.0
0.329221 0.026522 0.002611 0.0
1.074505 0.831168 0.002615 0.0
0.284283 0.009187 -0.004157 0.0
1.759304 0.817005 -0.002447 0.0
1.919138 2.307396 0.001112 0.0
3.109769 0.434671 0.000655 0.0
1.745171 0.991171 -0.004265 0.0
1.701642 0.120126 -0.002750 0.0
3.419513 2.172718 -0.004794 0.0
1.754330 1.535322 -0.001956 0.0
1.909109 0.123594 0.000544 0.0
0.767732 0.310398 -0.000170 0.0
0.277426 1.910888 -0.003098 0.0
3.198880 0.433098 0.001794 0.0
3.169072 0.763968 -0.001425 0.0
1.320046 0.501041 0.000085 0.0
3.828337 1.478768 -0.004342 0.0
3.810198 1.197572 0.001147 0.0
3.530004 1.871239 0.004851 0.0
3.833019 2.060877 -0.001306 0.0
0.084812 1.517215 0.001863 0.0
3.120172 1.350046 -0.000981 0.0
3.481130 1.485568 0.000578 0.0
1.745256 1.144598 -0.002505 0.0
1.307843 2.018123 -0.001504 0.0
3.106304 1.526751 0.000134 0.0
0.180319 1.952834 -0.002066 0.0
3.999811 1.118771 0.000203 0.0
2.678694 0.998304 0.002702 0.0
4.123546 0.125078 -0.002430 0.0
0.580796 0.432003 0.000013 0.0
3.536426 0.782331 -0.000480 0.0
1.042360 2.041824 0.004079 0.0
0.958348 1.288238 -0.002597 0.0
0.347361 -0.000251 -0.001373 0.0
0.192337 1.807839 -0.004702 0.0
3.423103 1.322282 -0.005566 0.0
3.446720 0.483010 0.001674 0.0
4.014510 0.325707 -0.001168 0.0
3.135508 2.250178 -0.001879 0.0
3.077557 1.523541 0.000195 0.0
4.286563 2.023176 0.004240 0.0
0.707078 1.427431 0.000907 0.0
3.241753 0.168544 0.001124 0.0
3.496948 2.197023 -0.001356 0.0
2.280144 0.719026 -0.004892 0.0
2.235113 1.921360 0.001706 0.0
4.323541 0.292243 -0.005636 0.0
3.513549 1.682177 0.004371 0.0
3.230906 0.453740 0.000977 0.0
1.467162 2.040257 0.000505 0.0
3.271514 0.389915 -0.001144 0.0
3.337687 0.266971 -0.000841 0.0
3.855994 1.698635 -0.000967 0.0
3.100297 0.274814 -0.000806 0.0
2.443077 1.906380 0.003060 0.0
2.664377 1.723234 -0.003734 0.0
1.040289 0.421432 0.002947 0.0
1.248361 0.882405 -0.004277 0.0
2.090825 0.839162 0.002656 0.0
2.708852 1.719851 0.000375 0.0
3.960551 1.566844 0.003003 0.0
2.088083 1.826972 -0.003232 0.0
1.785393 0.816489 -0.002208 0.0
0.759712 2.263554 -0.001482 0.0
3.124677 0.543552 -0.003660 0.0
3.088524 1.255462 0.007163 0.0
0.705355 1.186070 -0.000163 0.0
4.089715 0.442718 -0.000843 0.0
2.204424 2.374323 0.002547 0.0
1.732320 1.462637 -0.001627 0.0
0.621825 1.234833 -0.001765 0.0
1.740567 0.628288 0.000932 0.0
0.671869 2.115163 -0.001438 0.0
4.260545 1.350760 0.002794 0.0
1.404237 1.931754 -0.000039 0.0
1.273972 2.334897 -0.000550 0.0
1.641436 2.323467 0.001704 0.0
1.435422 1.284818 0.001634 0.0
1.388005 1.566522 -0.000772 0.0
2.629940 1.193582 0.004450 0.0
2.534513 1.415198 -0.002665 0.0
1.636281 0.043239 0.002708 0.0
1.765564 1.613287 0.000254 0.0
1.305054 1.723812 -0.001347 0.0
0.104021 0.637750 0.002462 0.0
1.591429 2.377867 -0.003073 0.0
0.781581 0.130926 0.000998 0.0
2.517482 1.456185 0.000782 0.0
0.451573 0.627733 0.003766 0.0
4.080261 1.832135 -0.001479 0.0
4.124653 0.435042 -0.000038 0.0
1.223818 2.267929 -0.001848 0.0
0.164334 0.548585 -0.001782 0.0
3.563121 0.690134 -0.003355 0.0
3.348751 0.325406 -0.001843 0.0
2.393975 0.410755 -0.006538 0.0
2.549672 0.869589 0.000454 0.0
0.937564 2.001184 -0.003602 0.0
0.757965 1.648418 0.000730 0.0
3.855965 0.311315 -0.002858 0.0
2.836223 1.165392 0.001871 0.0
3.510814 0.724686 -0.000097 0.0
0.825893 2.206817 0.000185 0.0
2.666677 0.491561 0.001956 0.0
3.364866 1.446756 0.000489 0.0
4.332915 0.944861 -0.001715 0.0
2.360861 2.161714 -0.001285 0.0
2.250999 1.481404 0.004040 0.0
2.023029 0.751975 0.004168 0.0
2.446910 1.068180 -0.001169 0.0
1.641518 0.767013 0.001438 0.0
3.235691 2.123345 0.000050 0.0
1.322668 1.218107 0.005358 0.0
0.947716 1.901339 -0.004673 0.0
0.510566 1.742785 0.003419 0.0
0.766871 0.085217 -0.000728 0.0
0.973054 1.764227 0.002983 0.0
2.184507 1.613681 -0.003717 0.0
1.753951 0.120896 0.005411 0.0
3.356410 1.516846 0.002632 0.0
2.209245 2.398265 -0.001575 0.0
4.248290 1.353886 -0.001482 0.0
3.154081 0.888099 -0.001567 0.0
1.501723 2.142542 0.003838 0.0
2.381453 0.934568 0.000517 0.0
2.660644 0.882885 0.001465 0.0
0.811283 1.909937 -0.001969 0.0
2.727006 1.443386 -0.000299 0.0
0.489418 1.316501 0.001162 0.0
0.725105 0.557519 0.000782 0.0
0.575336 0.431202 0.002246 0.0
1.187715 0.860985 -0.000770 0.0
0.729210 1.072096 0.000895 0.0
0.033054 0.335850 -0.001234 0.0
1.954588 1.224496 0.001072 0.0
1.982939 1.980164 -0.000086 0.0
4.149739 1.733299 -0.001256 0.0
1.193083 2.121243 -0.001434 0.0
3.338812 1.425103 -0.003646 0.0
1.878324 1.129167 0.000267 0.0
1.618417 1.296025 -0.000942 0.0
2.034132 1.435829 0.002049 0.0
1.844457 1.513656 -0.002589 0.0
2.537733 1.333553 -0.001154 0.0
3.295808 0.838892 0.002222 0.0
0.912417 1.342781 -0.003975 0.0
1.236417 1.545590 0.002328 0.0
1.045062 1.924410 -0.004084 0.0
0.872901 1.310055 0.006667 0.0
0.285799 1.353300 0.000359 0.0
0.247594 2.375841 0.003351 0.0
2.731445 1.328998 0.000458 0.0
3.075548 2.402320 -0.003925 0.0
3.401008 0.707333 -0.001599 0.0
4.056755 2.126195 0.000381 0.0
4.066289 1.418399 0.007795 0.0
1.845017 0.303020 0.003469 0.0
3.785885 1.541761 -0.001784 0.0
1.307773 0.985210 -0.001372 0.0
4.249278 2.331120 0.002012 0.0
2.094884 1.110994 -0.003751 0.0
4.059181 0.289971 -0.001539 0.0
3.605815 0.636606 -0.002738 0.0
0.865060 2.401504 0.002004 0.0
1.151074 1.192836 -0.001325 0.0
1.536016 1.005127 0.000400 0.0
0.419513 0.445358 -0.001325 0.0
2.438064 2.376882 -0.002217 0.0
2.021171 2.258636 0.000574 0.0
0.430916 2.407544 -0.000733 0.0
2.854701 1.113903 -0.003555 0.0
3.119831 0.495129 0.000996 0.0
1.703913 0.649366 0.003503 0.0
3.476741 0.964272 -0.000355 0.0
0.604363 1.810828 -0.002128 0.0
4.308807 1.136463 0.002015 0.0
1.764462 1.827687 -0.001721 0.0
0.647931 0.720642 0.000156 0.0
0.206647 0.659801 0.000181 0.0
1.955138 1.098131 -0.002521 0.0
3.456607 0.353627 0.002389 0.0
0.037041 1.566800 0.000940 0.0
3.915857 0.812380 0.000315 0.0
2.716712 0.413616 0.000301 0.0
3.295123 0.418549 -0.004615 0.0
0.673558 0.117056 -0.000245 0.0
0.099996 1.422242 -0.001194 0.0
2.768010 0.959834 -0.000539 0.0
3.393237 0.468474 -0.000097 0.0
2.037853 2.313218 0.004084 0.0
3.262131 2.166973 -0.002917 0.0
0.407580 1.732436 0.001904 0.0
2.271889 1.761148 -0.003455 0.0
4.361078 0.317718 -0.000663 0.0
1.362254 1.197966 0.001210 0.0
3.296973 2.095456 -0.002642 0.0
1.402667 2.404367 0.001784 0.0
0.226858 1.456333 -0.000287 0.0
2.237648 1.145489 -0.002462 0.0
3.760696 1.498498 0.002198 0.0
0.142062 1.702316 0.001118 0.0
1.566299 0.085405 0.002370 0.0
1.096523 0.808945 0.003814 0.0
4.266447 2.392082 0.002595 0.0
0.267358 1.910088 -0.000923 0.0
2.099464 0.201625 0.002407 0.0
4.326591 0.757309 0.001562 0.0
0.607784 0.181400 0.001577 0.0
1.861635 1.187427 0.002977 0.0
1.189370 2.180729 0.000701 0.0
4.290778 0.315753 -0.001323 0.0
4.213022 2.028931 -0.000067 0.0
3.876545 1.767763 0.003276 0.0
3.622710 2.092202 0.002032 0.0
4.324693 1.436907 -0.000737 0.0
0.253958 0.185717 -0.000747 0.0
4.171056 1.505258 -0.003163 0.0
0.669498 1.614366 -0.002211 0.0
2.592642 1.130350 0.002765 0.0
2.917531 0.432972 0.005761 0.0
2.207491 1.078139 -0.001997 0.0
1.943782 2.375649 -0.000141 0.0
0.433352 2.344451 0.001803 0.0
0.920751 0.292636 0.003385 0.0
1.187969 1.763625 -0.000284 0.0
3.689955 1.678175 0.001979 0.0
0.287283 0.259852 -0.000770 0.0
4.086049 0.531929 0.004396 0.0
2.344693 0.332108 -0.000813 0.0
2.184586 0.210270 0.000660 0.0
2.903784 0.870914 0.000080 0.0
0.094752 0.525433 0.002414 0.0
1.995673 0.710027 0.000483 0.0
4.285854 0.835353 0.000144 0.0
1.558790 1.300075 -0.001271 0.0
0.212788 0.302511 0.002850 0.0
2.413428 0.662194 0.003007 0.0
1.518047 1.443102 -0.000682 0.0
2.807900 1.710069 0.000640 0.0
0.794448 0.257447 -0.002611 0.0
3.191696 0.711067 0.002442 0.0
3.494764 0.531634 0.000650 0.0
1.909505 0.493691 -0.000250 0.0
3.354226 0.433711 -0.000132 0.0
2.385916 0.708367 -0.000092 0.0
0.828498 1.343836 0.001595 0.0
1.637906 0.317581 -0.003987 0.0
0.735267 0.838889 -0.000903 0.0
0.131968 0.283981 -0.000108 0.0
0.132771 1.678345 -0.001282 0.0
1.413008 0.168810 0.001259 0.0
1.473207 1.858946 0.000322 0.0
1.961202 1.537624 0.002001 0.0
4.151034 0.548656 -0.006441 0.0
1.751414 1.003256 0.002653 0.0
0.837279 1.704753 -0.004203 0.0
2.852708 1.679122 -0.005009 0.0
2.290018 1.579675 -0.001127 0.0
3.254295 0.420671 0.000428 0.0
1.844284 2.076376 -0.002080 0.0
1.045428 0.256146 -0.001433 0.0
2.682482 1.141324 -0.001422 0.0
2.822572 0.906833 -0.000274 0.0
3.604144 0.433389 -0.004079 0.0
1.825323 0.682711 0.002315 0.0
0.621469 2.222021 -0.001818 0.0
0.488026 0.595897 -0.005468 0.0
3.982657 1.817972 -0.004314 0.0
0.658579 0.008859 0.000246 0.0
3.753063 0.609089 -0.004483 0.0
1.806405 0.839173 -0.000303 0.0
4.161125 0.742671 0.002002 0.0
4.296054 1.375306 -0.001628 0.0
3.382960 1.652789 0.000277 0.0
0.226439 2.148464 -0.000784 0.0
0.475211 1.833945 -0.001674 0.0
2.128278 1.508030 -0.003565 0.0
0.426600 1.388298 0.001488 0.0
2.837851 0.600517 -0.000664 0.0
3.382791 1.667949 -0.003338 0.0
1.479347 0.488697 0.001648 0.0
1.941030 1.751816 -0.007162 0.0
0.476870 1.194241 -0.000508 0.0
2.275036 0.598053 -0.000648 0.0
1.251141 2.232063 0.001401 0.0
3.790000 1.900792 0.000570 0.0
3.631647 0.296457 -0.003142 0.0
2.225803 1.875422 -0.002084 0.0
2.196413 0.908548 -0.002588 0.0
0.978661 1.859476 0.000130 0.0
0.847328 0.710328 -0.004768 0.0
3.305857 0.121654 0.002049 0.0
3.294469 1.924109 -0.003369 0.0
4.273000 0.756488 -0.002653 0.0
0.052528 1.816710 0.004130 0.0
2.591550 0.442286 -0.003408 0.0
3.283435 1.679797 -0.001160 0.0
3.780990 2.371083 -0.002606 0.0
0.625050 2.094939 -0.001569 0.0
4.271303 1.396415 -0.001181 0.0
0.658884 0.965496 -0.005640 0.0
1.043403 0.105865 -0.003222 0.0
0.701646 1.145258 0.001763 0.0
2.422976 1.173508 0.003450 0.0
1.128350 1.323871 -0.004222 0.0
1.742534 2.381427 0.001194 0.0
3.894226 2.173263 0.000811 0.0
0.684080 0.145302 -0.003529 0.0
3.489688 1.988776 -0.000968 0.0
1.310142 0.903495 -0.000333 0.0
3.842855 1.040415 0.003498 0.0
3.211135 0.522572 0.003753 0.0
3.722108 0.593961 0.002755 0.0
1.920383 2.308938 0.000689 0.0
3.330161 0.063250 0.002819 0.0
2.949239 0.471185 -0.001506 0.0
4.014572 1.343610 0.004968 0.0
4.253731 1.057220 -0.002929 0.0
1.511256 0.002206 -0.000501 0.0
3.853423 1.381850 -0.003691 0.0
0.235834 2.220624 0.001363 0.0
2.442952 2.415576 0.001627 0.0
3.405160 2.218644 0.001000 0.0
0.864097 0.755365 -0.001383 0.0
3.647418 2.255028 0.002450 0.0
2.080805 1.616568 -0.005842 0.0
1.585238 1.943112 -0.000125 0.0
0.377582 0.738004 -0.000739 0.0
1.186152 2.404139 -0.002991 0.0
3.305379 2.290879 0.000869 0.0
2.191163 1.523824 -0.002020 0.0
2.851102 0.954247 -0.000893 0.0
0.575024 1.984269 0.005774 0.0
1.926223 0.151591 -0.002466 0.0
1.584392 2.233328 0.000316 0.0
1.465143 2.281717 0.001628 0.0
2.753959 1.994324 -0.000261 0.0
3.012486 2.172208 0.003747 0.0
2.169528 2.145549 0.003805 0.0
1.833352 1.722482 0.001234 0.0
3.805686 2.364200 0.002588 0.0
4.077803 1.991033 -0.003238 0.0
1.787119 0.312203 -0.004603 0.0
1.787942 1.351326 0.001810 0.0
2.728884 0.446857 0.003719 0.0
0.645075 1.035777 -0.002635 0.0
0.700500 2.251506 -0.003668 0.0
2.259466 0.946490 -0.001945 0.0
3.117052 0.932920 -0.000427 0.0
3.176799 1.323073 0.001933 0.0
3.488570 1.993366 -0.000150 0.0
3.429256 2.012876 0.004518 0.0
0.705747 0.885222 -0.001456 0.0
3.837079 1.447783 0.001384 0.0
0.353010 0.429682 0.005794 0.0
2.082022 1.619418 -0.001151 0.0
4.206532 1.491228 0.000411 0.0
0.101039 1.247527 -0.002902 0.0
0.382234 0.272198 -0.002279 0.0
3.427861 0.849109 0.003273 0.0
3.814681 1.240588 -0.000907 0.0
0.792598 1.523120 -0.002457 0.0
0.342430 0.646611 -0.001440 0.0
0.326861 0.273295 -0.000461 0.0
2.006002 1.982772 -0.003761 0.0
0.987310 0.493091 -0.002544 0.0
1.516854 1.071184 0.002058 0.0
3.516596 0.429800 -0.000383 0.0
1.710112 0.583982 0.003558 0.0
3.778741 1.895755 -0.002746 0.0
0.471718 1.309821 -0.000557 0.0
2.055339 0.268969 0.000366 0.0
1.679524 1.474345 -0.001584 0.0
0.899550 1.577567 -0.004284 0.0
1.670811 0.216050 -0.002451 0.0
3.916166 1.636988 0.000117 0.0
1.889831 1.555926 0.001797 0.0
3.532282 0.300244 -0.000153 0.0
0.555043 1.346569 0.002574 0.0
1.626769 1.654807 0.000014 0.0
3.508920 2.224403 0.001963 0.0
0.393396 2.310486 -0.003140 0.0
2.466962 0.016362 -0.000421 0.0
0.278878 1.457219 0.000726 0.0
0.749333 0.050854 0.003342 0.0
1.076883 1.921957 0.000176 0.0
2.617199 2.114833 0.001993 0.0
0.763564 1.062972 -0.002647 0.0
3.134420 0.805194 -0.002247 0.0
4.337988 1.983552 -0.001974 0.0
4.363616 2.404670 -0.000798 0.0
0.968900 0.198695 0.001280 0.0
1.493366 0.568494 -0.000424 0.0
4.031623 1.473345 0.002009 0.0
1.753639 1.202864 -0.000165 0.0
1.706858 0.765292 0.003106 0.0
1.613254 1.292468 -0.003821 0.0
0.931273 1.419913 0.001627 0.0
0.300958 -0.001436 0.000323 0.0
2.070354 1.203281 0.002348 0.0
1.001612 0.806096 -0.001202 0.0
1.883345 0.950909 0.000563 0.0
4.212473 2.401867 -0.002292 0.0
3.653992 0.708218 -0.002238 0.0
4.185150 1.761360 -0.002199 0.0
1.851691 1.719682 -0.000478 0.0
3.102173 1.672299 0.001887 0.0
3.230655 1.033368 0.000349 0.0
0.577064 0.410436 -0.001563 0.0
0.233654 0.835446 0.000565 0.0
2.988746 1.219235 0.000782 0.0
0.632242 1.302230 -0.001270 0.0
1.047404 2.328154 -0.000989 0.0
0.791597 1.887721 -0.001961 0.0
3.172114 1.807816 -0.000620 0.0
1.198783 1.638429 -0.000726 0.0
3.676145 0.050926 -0.003761 0.0
1.923084 0.234248 -0.001859 0.0
0.503796 1.789672 -0.000163 0.0
0.886493 2.216457 -0.005505 0.0
1.496296 0.691312 0.000791 0.0
0.265995 1.955273 0.000876 0.0
2.892212 0.830486 0.001733 0.0
3.459028 2.077645 0.003327 0.0
4.051917 1.369800 -0.000263 0.0
3.595578 1.703622 -0.000631 0.0
3.602681 1.755291 0.000269 0.0
1.419277 1.691099 0.001338 0.0
0.112115 1.621322 0.004200 0.0
3.774779 0.662613 -0.001761 0.0
2.250811 1.600896 -0.000092 0.0
3.622753 1.078462 -0.000054 0.0
1.798404 0.298756 0.001809 0.0
2.712544 1.532359 0.000084 0.0
3.042650 1.685223 0.001171 0.0
1.903681 1.637259 -0.002181 0.0
0.502823 1.970751 0.000583 0.0
1.664820 1.809814 0.002546 0.0
2.944536 1.725519 0.005216 0.0
3.175654 0.687506 0.000933 0.0
3.345589 0.571126 -0.000196 0.0
0.369530 1.497528 -0.003610 0.0
3.141970 0.057343 0.000735 0.0
3.187164 1.926558 -0.001185 0.0
4.210600 0.939817 0.004669 0.0
1.273275 1.937630 0.000739 0.0
1.655475 1.219341 -0.000018 0.0
2.659343 1.064339 -0.001030 0.0
1.061882 1.440334 0.000839 0.0
1.253477 1.450499 -0.000218 0.0
1.554433 0.205926 -0.000721 0.0
0.399847 0.216920 0.002428 0.0
3.239056 0.204848 0.003347 0.0
3.992964 1.939423 0.001473 0.0
0.102183 0.001946 0.001717 0.0
1.411575 0.907186 0.004740 0.0
1.953324 0.978482 -0.002002 0.0
3.406331 0.777855 0.000599 0.0
0.746795 1.164464 0.001763 0.0
3.326072 1.541115 0.005314 0.0
2.182154 1.364870 -0.005354 0.0
0.650947 1.183630 -0.001557 0.0
0.831719 1.388299 -0.000485 0.0
3.758544 0.026097 -0.001346 0.0
3.998174 1.047165 -0.003414 0.0
0.641607 1.282986 -0.000377 0.0
4.219676 0.015344 0.000114 0.0
2.972600 2.344691 -0.001276 0.0
2.933486 0.555947 -0.001524 0.0
1.453620 0.930430 -0.001704 0.0
0.985887 2.369884 -0.002305 0.0
1.395295 0.909159 -0.002884 0.0
0.248617 1.772984 0.003159 0.0
3.493976 1.027237 0.000082 0.0
3.125899 0.097196 -0.000803 0.0
2.574333 1.994642 -0.000621 0.0
0.217503 1.675051 0.000941 0.0
0.366810 0.742734 -0.000018 0.0
4.193054 0.006172 -0.000325 0.0
0.943274 0.267478 0.004430 0.0
4.222735 0.424515 -0.001424 0.0
0.760385 0.493684 0.005326 0.0
4.218446 0.032382 -0.001757 0.0
3.937292 0.458763 -0.001646 0.0
3.769518 1.721438 -0.003142 0.0
0.566285 0.122941 0.001066 0.0
3.135226 1.537542 -0.001919 0.0
4.125948 1.157780 -0.000766 0.0
3.952007 2.084071 -0.003445 0.0
0.737088 0.305160 0.001604 0.0
0.664740 1.583009 -0.000635 0.0
1.447890 1.241516 -0.001084 0.0
3.145226 2.391398 -0.000200 0.0
0.295149 0.743829 -0.004030 0.0
0.908864 0.742364 0.002131 0.0
3.163572 1.186827 0.001481 0.0
1.230513 1.432166 -0.000078 0.0
0.180034 0.412623 0.001244 0.0
4.219436 0.908653 0.002942 0.0
4.033013 0.196845 0.000173 0.0
2.264941 0.955934 -0.002579 0.0
1.433869 2.187486 -0.000374 0.0
1.292217 2.110019 -0.001621 0.0
4.308737 2.281122 0.004444 0.0
0.089416 1.865721 -0.001212 0.0
2.165882 0.013562 0.000961 0.0
4.295161 0.163917 0.000431 0.0
3.806028 2.222866 0.002568 0.0
2.401340 0.649092 -0.000526 0.0
3.460234 0.966813 -0.000406 0.0
3.194793 1.791157 -0.003467 0.0
3.932149 2.033960 -0.000621 0.0
3.986808 2.106363 -0.001377 0.0
0.827411 1.032691 0.000048 0.0
0.297411 0.491527 -0.000096 0.0
3.152120 0.580622 0.002946 0.0
1.164876 0.076677 -0.002017 0.0
2.612028 2.374053 -0.000917 0.0
3.076729 0.801648 0.001398 0.0
0.870170 0.522964 0.003166 0.0
1.115577 1.233841 -0.000835 0.0
1.273676 1.553192 0.006338 0.0
2.067796 0.005850 -0.001435 0.0
0.963531 2.129962 -0.003838 0.0
0.875924 1.436749 0.002477 0.0
2.933081 2.340179 0.003321 0.0
3.409734 0.453215 -0.004076 0.0
2.540455 2.264123 0.003098 0.0
1.360654 1.431484 -0.001405 0.0
0.018820 1.740130 0.000901 0.0
1.183210 0.021808 -0.001510 0.0
1.828820 2.396268 0.001446 0.0
0.077159 0.180639 0.002560 0.0
3.488053 1.557977 0.002256 0.0
0.667674 1.822572 -0.000182 0.0
2.781522 0.053315 -0.001458 0.0
3.043975 2.085951 -0.003763 0.0
1.734698 1.912277 -0.000135 0.0
0.355515 2.355967 0.000557 0.0
1.529809 2.141505 -0.003768 0.0
2.766598 0.577326 0.001425 0.0
3.246132 0.898468 -0.001577 0.0
3.190218 1.927327 -0.003495 0.0
0.486364 2.049993 -0.002567 0.0
1.147590 0.025879 -0.001214 0.0
4.142749 0.813744 -0.003151 0.0
1.040973 0.270436 0.001144 0.0
2.620227 1.227298 0.001427 0.0
1.363796 2.071423 0.000186 0.0
3.989093 0.444457 0.002342 0.0
3.401205 0.758896 -0.000222 0.0
2.912142 1.671760 -0.001487 0.0
1.713906 0.656764 0.001723 0.0
0.785340 2.033469 -0.001564 0.0
2.854255 0.141610 -0.004249 0.0
4.107453 0.636795 0.001164 0.0
1.981669 2.018436 -0.000578 0.0
3.965792 2.317849 0.001811 0.0
3.030631 1.575401 0.003437 0.0
2.215744 1.102659 0.000080 0.0
2.216924 2.267531 -0.002756 0.0
0.371009 0.019166 -0.003313 0.0
3.696777 1.706621 -0.001215 0.0
2.773500 0.975372 -0.000291 0.0
0.637813 0.101831 -0.000883 0.0
1.276535 0.435734 -0.001586 0.0
3.695880 1.191477 -0.002371 0.0
3.813839 1.550506 -0.004968 0.0
4.358156 0.688201 -0.000394 0.0
1.721159 0.966660 0.000693 0.0
1.793049 2.225993 -0.004582 0.0
2.091827 0.099316 -0.000403 0.0
1.259205 1.151244 0.005271 0.0
1.052113 1.409210 -0.003301 0.0
0.993560 1.745600 -0.001890 0.0
3.528324 0.990835 -0.000301 0.0
0.662705 1.728727 -0.002505 0.0
3.290882 2.219783 0.003428 0.0
1.319598 1.560800 -0.003138 0.0
0.057272 0.079532 0.001472 0.0
2.737484 1.938289 -0.003230 0.0
2.746086 1.534917 0.000210 0.0
2.613409 1.042309 -0.000395 0.0
4.312775 0.850757 0.003139 0.0
3.635202 0.695149 -0.001868 0.0
1.115763 0.081446 -0.000648 0.0
0.836561 2.297579 -0.002610 0.0
0.374974 0.074227 -0.002768 0.0
2.689963 2.350653 -0.003701 0.0
3.167192 1.286172 0.002704 0.0
1.933442 0.887034 -0.000098 0.0
2.460044 0.971723 0.000410 0.0
2.637232 0.654512 0.001925 0.0
1.540467 1.031465 -0.001792 0.0
1.090581 2.396361 -0.001943 0.0
0.261603 1.938538 0.001616 0.0
4.020652 0.316065 0.004259 0.0
2.838223 1.012029 -0.002406 0.0
2.445149 0.182007 -0.000767 0.0
4.278108 1.886124 0.000652 0.0
1.208727 0.320235 -0.001219 0.0
0.808475 1.919646 0.001125 0.0
3.183855 2.416172 -0.000039 0.0
3.981589 0.606240 0.001083 0.0
2.576832 2.340322 0.000192 0.0
4.028223 0.556717 0.005023 0.0
4.057850 2.019263 0.003571 0.0
2.751725 1.031505 0.004839 0.0
0.536008 1.933646 0.000332 0.0
1.898137 1.128048 -0.002331 0.0
1.260769 0.943908 -0.003025 0.0
1.027844 1.543375 0.003820 0.0
3.216454 0.647537 -0.003355 0.0
0.453328 0.049040 -0.001967 0.0
1.682963 0.579745 -0.001701 0.0
3.923786 2.383686 0.000413 0.0
1.967165 2.064106 -0.000928 0.0
3.705847 1.207058 0.001266 0.0
2.426167 1.909951 -0.000581 0.0
0.093999 0.299985 -0.005806 0.0
3.204836 1.986134 -0.001877 0.0
2.327455 1.920498 -0.000806 0.0
3.106949 0.432009 0.000954 0.0
3.727202 0.966186 -0.003577 0.0
1.028217 1.851123 -0.000510 0.0
0.783826 1.731958 0.004656 0.0
0.895337 0.980781 -0.000806 0.0
0.822139 0.265885 -0.000013 0.0
2.973644 0.142981 -0.002095 0.0
2.557057 1.222968 0.000929 0.0
3.112775 2.312585 -0.004155 0.0
1.340776 1.488878 0.002477 0.0
1.921778 2.348144 0.000069 0.0
1.209380 2.189152 -0.000562 0.0
3.864235 0.231307 -0.003096 0.0
2.720008 1.819519 -0.001081 0.0
3.127731 2.080093 0.001939 0.0
3.059953 1.529498 -0.001775 0.0
3.287449 1.773073 0.002169 0.0
1.254626 0.455948 -0.001140 0.0
2.588937 2.295426 -0.000043 0.0
1.100703 -0.002574 0.001820 0.0
0.167677 1.165214 0.000645 0.0
3.640604 1.811113 -0.002655 0.0
0.528247 0.557565 0.001796 0.0
1.357382 0.249282 -0.000757 0.0
4.172600 0.254681 0.000673 0.0
1.785720 1.195211 -0.003747 0.0
1.127216 0.543971 -0.000691 0.0
2.248451 1.115313 -0.001892 0.0
3.166773 1.594443 0.001980 0.0
2.571235 1.562243 0.001214 0.0
2.636599 1.090247 0.002441 0.0
3.524040 2.403173 -0.002974 0.0
2.865926 0.595888 -0.002415 0.0
1.924300 1.647194 -0.002250 0.0
0.870612 1.604087 0.002299 0.0
0.294257 0.012683 -0.004363 0.0
1.926630 2.402174 -0.000237 0.0
3.109687 2.364995 -0.000753 0.0
0.825979 1.218193 -0.001811 0.0
3.624542 1.455333 0.003229 0.0
2.325066 2.062402 0.001329 0.0
0.918302 1.504596 0.000377 0.0
0.845005 1.206460 -0.000120 0.0
2.238685 0.058298 0.001900 0.0
1.565913 2.345094 0.000321 0.0
3.113292 0.502598 -0.003711 0.0
0.443010 0.816219 0.000402 0.0
2.747569 0.758899 0.001769 0.0
1.995503 0.740407 0.000207 0.0
3.657748 0.440000 -0.004933 0.0
1.815339 0.861957 0.001088 0.0
4.371082 0.892381 0.001307 0.0
2.229252 1.094833 -0.003199 0.0
1.114871 2.311650 0.000729 0.0
2.061163 0.652806 0.000934 0.0
4.262988 2.025633 -0.005391 0.0
0.321733 0.213479 0.002809 0.0
4.113506 0.376503 0.001004 0.0
1.346142 1.073954 -0.003625 0.0
0.282227 1.530216 0.002390 0.0
3.345657 2.392261 -0.000314 0.0
4.305730 0.611357 0.000911 0.0
1.750148 0.586438 0.004020 0.0
2.018093 1.429074 -0.007735 0.0
0.684994 2.367559 -0.004645 0.0
2.368817 0.495735 0.002252 0.0
0.715998 1.036383 0.001334 0.0
1.839624 0.280598 0.000778 0.0
4.320187 0.364273 -0.002530 0.0
3.249919 0.410435 -0.000083 0.0
0.272197 1.019790 0.003276 0.0
0.044244 1.153889 -0.001537 0.0
3.302911 1.723504 0.000788 0.0
1.077540 0.595323 -0.000516 0.0
3.091010 1.487994 0.002637 0.0
2.710109 0.177393 -0.000960 0.0
1.907591 0.943831 0.000553 0.0
0.763044 0.222921 0.002453 0.0
2.279588 1.404579 -0.001731 0.0
3.154858 1.344831 -0.000662 0.0
3.200557 1.789987 -0.004222 0.0
0.083151 0.814569 -0.000108 0.0
0.042152 1.377754 0.000378 0.0
0.334387 1.160755 0.002280 0.0
4.228223 2.383526 0.001696 0.0
1.801723 1.830027 -0.000722 0.0
2.746384 2.206315 0.004240 0.0
1.323553 1.625613 -0.001211 0.0
2.295539 1.628685 0.001770 0.0
0.317120 2.375593 0.003350 0.0
2.004771 0.964938 0.003494 0.0
3.180444 2.223906 -0.001916 0.0
2.417086 0.045328 0.001110 0.0
3.656298 1.017448 0.003036 0.0
3.227807 0.810124 -0.004238 0.0
0.855874 1.731124 -0.001394 0.0
2.162596 1.979419 -0.003095 0.0
1.573160 0.299850 -0.001785 0.0
3.164931 1.568263 -0.002419 0.0
0.415194 1.362679 -0.002407 0.0
3.248741 2.201940 -0.002819 0.0
3.819242 1.742356 0.002706 0.0
0.615496 0.613918 0.002347 0.0
1.616381 0.932412 -0.003413 0.0
2.588054 0.985596 -0.003491 0.0
2.698701 0.928312 -0.003635 0.0
0.835451 0.464309 -0.003148 0.0
2.494786 1.209691 0.000932 0.0
0.430235 0.518312 0.003278 0.0
3.339133 1.589083 0.001030 0.0
2.488799 2.128534 -0.001930 0.0
3.860054 0.196439 0.001175 0.0
3.933837 0.442745 0.000021 0.0
0.278779 2.411356 -0.003399 0.0
0.084008 1.095594 0.000237 0.0
3.294248 1.904390 0.000909 0.0
2.212329 1.338925 0.001857 0.0
4.351540 0.452229 0.002094 0.0
0.764411 1.885681 0.002201 0.0
1.418507 1.522515 -0.003139 0.0
4.071208 0.932378 0.000686 0.0
1.808343 0.345460 -0.001685 0.0
0.646743 1.527626 -0.002419 0.0
1.412883 1.530631 0.000746 0.0
3.367890 0.908917 0.002419 0.0
3.791127 0.454238 0.001931 0.0
2.931626 0.896730 -0.002120 0.0
0.531727 1.293415 -0.003323 0.0
3.270279 1.882296 0.000410 0.0
2.588986 2.259688 0.002518 0.0
0.717965 0.887943 0.001309 0.0
3.897802 0.373596 0.000884 0.0
3.720481 1.585770 -0.000151 0.0
1.555251 0.794151 0.000641 0.0
2.002344 1.000589 -0.001549 0.0
2.628444 2.251532 -0.001276 0.0
2.080050 0.785584 0.004724 0.0
0.927923 1.299295 0.004791 0.0
4.282026 0.016695 -0.002222 0.0
1.517620 0.247767 -0.001660 0.0
3.359864 0.766320 0.000070 0.0
3.083601 0.376273 0.002980 0.0
0.107382 1.437605 -0.000100 0.0
2.842981 0.972004 0.002489 0.0
0.422298 2.029522 -0.001412 0.0
0.397812 2.201789 -0.002786 0.0
3.742827 1.909062 -0.003662 0.0
1.673977 0.569469 -0.000554 0.0
3.081634 1.984207 0.003712 0.0
2.640020 0.198171 0.001619 0.0
4.303117 0.501820 0.001205 0.0
0.779048 1.588375 -0.001278 0.0
3.765686 0.451970 0.001697 0.0
2.891409 1.683183 0.000732 0.0
2.068342 0.606528 0.000572 0.0
2.130013 1.322842 0.001723 0.0
0.087174 1.693610 0.005900 0.0
0.821075 0.132511 -0.002098 0.0
1.171531 0.718681 0.001067 0.0
3.574058 0.026642 0.002202 0.0
3.544593 0.911387 0.000093 0.0
2.815841 2.136019 -0.001970 0.0
2.807997 0.990867 0.000957 0.0
4.256470 1.230012 0.002381 0.0
1.946299 1.935674 0.002329 0.0
2.605364 1.710518 -0.003037 0.0
2.150067 1.623896 0.002059 0.0
0.877616 0.575849 -0.000454 0.0
2.823421 2.172637 -0.003001 0.0
2.824148 0.033716 -0.003199 0.0
1.688119 1.681416 -0.001120 0.0
1.438371 1.240261 0.000513 0.0
3.463908 2.106517 -0.000188 0.0
3.263216 0.991967 -0.005590 0.0
0.841394 1.509475 0.000132 0.0
1.339247 2.262809 0.002675 0.0
3.516720 2.270034 -0.002994 0.0
3.271633 1.339031 0.001004 0.0
1.681032 0.466143 -0.004692 0.0
4.129638 0.919646 0.002126 0.0
0.373359 0.799069 0.002030 0.0
3.425467 0.008920 -0.002441 0.0
4.182361 1.638016 0.001778 0.0
1.673636 0.598475 0.000275 0.0
3.902753 0.651742 -0.000513 0.0
1.314865 1.008173 0.001199 0.0
3.447503 1.497594 -0.003280 0.0
0.990403 0.167018 -0.002079 0.0
1.812445 1.897929 -0.001540 0.0
0.889056 2.127266 0.002055 0.0
0.351015 0.974501 0.000614 0.0
4.024797 2.302799 0.000060 0.0
0.617617 0.294977 -0.001319 0.0
1.238720 1.880968 0.001190 0.0
0.402519 0.920850 -0.001259 0.0
2.187423 0.201000 0.000285 0.0
2.831454 0.082875 0.002309 0.0
2.390309 1.764129 0.002816 0.0
1.036892 1.436854 0.000130 0.0
2.807495 2.379965 0.002693 0.0
1.935503 1.570308 -0.001881 0.0
2.019299 1.270028 0.005866 0.0
2.681934 1.721335 0.004941 0.0
1.293925 1.535115 0.000428 0.0
0.586151 1.876889 -0.004898 0.0
1.984603 0.674397 0.000408 0.0
0.263392 1.517387 -0.000345 0.0
0.883357 1.843555 0.003591 0.0
0.273916 1.989902 -0.001042 0.0
2.717970 2.027753 0.003352 0.0
0.921996 0.932580 0.000137 0.0
3.537677 1.462910 0.003698 0.0
1.038944 0.458475 0.000078 0.0
3.089873 0.590050 -0.001498 0.0
1.709151 0.045649 -0.000225 0.0
3.518217 1.589434 0.004771 0.0
4.209085 0.060963 -0.003026 0.0
1.774742 2.103821 -0.004989 0.0
1.463281 0.980917 0.001432 0.0
0.566693 0.295990 0.004107 0.0
2.948788 1.514158 -0.002126 0.0
1.756207 1.910731 -0.000551 0.0
0.692005 1.792125 0.001267 0.0
2.275773 0.999257 -0.001350 0.0
3.585905 1.708797 0.002515 0.0
3.911982 1.838847 0.001169 0.0
3.051565 2.331395 -0.001020 0.0
2.164399 0.321091 -0.000135 0.0
3.294765 0.467317 -0.000462 0.0
3.789918 1.171254 0.000017 0.0
0.753250 0.683233 -0.003081 0.0
0.431002 0.900387 -0.000432 0.0
2.644580 2.210692 0.001450 0.0
2.733919 2.144172 0.000544 0.0
1.131296 2.342935 0.002253 0.0
0.728440 0.919397 -0.000373 0.0
4.012942 1.538878 0.000894 0.0
3.849410 0.285909 0.000602 0.0
0.007704 2.281419 0.000175 0.0
1.693560 0.234288 -0.003522 0.0
0.834004 1.173621 0.004269 0.0
2.139513 1.433574 -0.002788 0.0
1.129855 1.224896 -0.000348 0.0
2.372188 1.372648 0.002515 0.0
2.196275 1.365761 0.000178 0.0
1.027680 0.481064 0.000058 0.0
0.806567 2.168342 0.000623 0.0
4.234232 1.723783 -0.001917 0.0
3.539338 1.794045 0.007145 0.0
2.385308 1.064709 0.000219 0.0
3.947874 2.364128 0.002827 0.0
1.460484 0.523483 0.001050 0.0
3.275633 1.270163 -0.002136 0.0
1.654351 0.682986 -0.002512 0.0
2.609323 0.545007 -0.002568 0.0
3.386424 0.806496 -0.002438 0.0
2.507413 0.153813 -0.000731 0.0
0.975905 0.338643 -0.000208 0.0
2.839734 1.144751 0.001287 0.0
2.283865 2.174228 0.002507 0.0
3.405578 1.787194 0.000489 0.0
1.656638 0.501727 0.001664 0.0
1.854971 2.356222 -0.003125 0.0
3.455896 2.386514 -0.002258 0.0
1.024273 1.863890 0.000982 0.0
2.945125 1.612458 -0.001254 0.0
0.560956 0.769453 -0.003968 0.0
2.727712 1.049588 -0.001911 0.0
2.443586 0.424322 -0.001577 0.0
3.562911 0.696720 -0.001346 0.0
1.599699 0.961074 -0.003059 0.0
3.077089 1.138893 0.002163 0.0
3.110730 1.358562 -0.004082 0.0
3.306978 0.111536 -0.000321 0.0
1.408649 2.381086 -0.000271 0.0
2.056426 1.862617 0.000146 0.0
3.652113 0.679507 0.003068 0.0
0.528065 1.401500 0.003352 0.0
0.104665 0.572925 -0.001458 0.0
1.501327 0.164662 -0.000884 0.0
2.593561 0.000228 0.000985 0.0
3.011842 1.137468 -0.002217 0.0
0.142390 0.902842 0.001466 0.0
3.626165 2.263318 -0.001028 0.0
2.733200 2.082307 0.002142 0.0
4.065547 0.346785 -0.001461 0.0
4.147925 1.124728 -0.000110 0.0
0.520432 0.027449 -0.000891 0.0
3.167625 0.724900 0.006045 0.0
0.492493 1.423883 -0.001046 0.0
2.530719 2.398125 -0.003725 0.0
3.808266 2.055964 0.001332 0.0
1.923327 2.328369 0.003157 0.0
2.097450 1.094215 0.004864 0.0
0.343810 0.274061 0.003498 0.0
1.590494 1.949985 -0.001013 0.0
3.295301 1.707923 -0.001040 0.0
4.032258 1.513762 0.003743 0.0
2.247175 1.459490 -0.000594 0.0
2.232932 2.283880 -0.000344 0.0
0.206637 1.388138 -0.002216 0.0
3.984833 0.015961 0.001647 0.0
3.265900 1.300888 0.001461 0.0
2.973983 0.429502 -0.003518 0.0
3.169291 0.212518 0.004203 0.0
3.626979 2.103043 0.005184 0.0
4.365878 0.625812 0.003612 0.0
3.783372 1.092216 0.000162 0.0
0.962722 1.574552 0.004899 0.0
2.599384 2.032482 -0.000203 0.0
2.385505 1.768401 -0.000434 0.0
0.469028 0.508953 -0.001358 0.0
3.892399 1.194263 0.000244 0.0
2.221317 1.074354 0.001369 0.0
3.353512 1.228108 -0.003025 0.0
1.559174 2.222215 -0.001121 0.0
0.800513 1.852891 -0.001237 0.0
0.291785 0.321819 -0.000440 0.0
0.922484 2.006307 0.003462 0.0
0.985634 1.152636 -0.002571 0.0
4.146001 0.335881 0.002206 0.0
2.002204 1.145950 -0.003523 0.0
1.508382 1.944525 -0.000699 0.0
1.010623 2.148529 -0.000955 0.0
3.459005 0.168338 0.000452 0.0
1.066367 0.314778 0.002220 0.0
2.893219 1.269577 0.001321 0.0
3.581908 0.455295 0.002244 0.0
1.336275 1.207620 -0.003183 0.0
0.498282 2.332295 -0.000992 0.0
2.213589 0.366151 0.002588 0.0
3.809924 1.642657 -0.000649 0.0
2.407574 1.959767 0.002571 0.0
0.182070 0.172411 -0.001794 0.0
3.396143 2.261434 0.001717 0.0
3.032395 0.694881 0.003796 0.0
2.971458 1.905944 0.000195 0.0
3.477280 0.285276 0.002788 0.0
3.938920 1.554034 0.003480 0.0
0.468238 1.983449 0.004130 0.0
2.763727 0.493354 0.004508 0.0
1.369014 1.481452 0.001258 0.0
2.908870 0.929193 -0.000994 0.0
4.008422 2.068364 -0.000811 0.0
2.547743 2.096917 -0.001732 0.0
4.192470 1.377975 -0.002795 0.0
1.665400 0.738882 -0.003267 0.0
0.153799 2.140827 -0.000832 0.0
1.482798 1.195039 0.000546 0.0
2.445761 2.175993 -0.000598 0.0
0.806197 0.742927 0.000736 0.0
2.845474 1.145855 0.002242 0.0
0.519035 1.441398 0.002100 0.0
0.873146 1.871909 -0.000233 0.0
2.625156 1.357457 0.003214 0.0
1.292318 0.096919 -0.000145 0.0
2.230317 0.769984 -0.001396 0.0
2.381338 1.584740 -0.001113 0.0
3.648579 1.379453 0.002105 0.0
2.871268 1.128031 0.000214 0.0
4.066165 0.725069 0.001201 0.0
0.988047 2.132933 0.002673 0.0
1.240189 0.623485 0.001836 0.0
3.288223 0.214038 0.000992 0.0
3.732035 0.948070 -0.000975 0.0
2.923466 1.098733 0.003059 0.0
3.825711 2.247599 0.003935 0.0
4.017422 2.071954 0.005077 0.0
3.954462 0.536317 -0.000107 0.0
2.101306 0.288282 -0.000049 0.0
1.931719 0.552118 0.003654 0.0
0.402693 1.328052 0.000947 0.0
3.741320 0.919418 -0.000135 0.0
0.628597 1.459617 0.001049 0.0
2.894328 1.698807 -0.001744 0.0
2.692003 0.929749 -0.003946 0.0
2.058459 1.781547 -0.000351 0.0
3.444414 1.786307 -0.000672 0.0
0.349219 0.685945 -0.003136 0.0
3.464583 0.217118 -0.001047 0.0
0.354867 2.023716 -0.003926 0.0
3.394533 1.834982 0.000963 0.0
1.276878 2.267143 -0.004412 0.0
1.272180 2.271819 -0.002095 0.0
2.410854 2.122667 0.007283 0.0
3.205999 0.151559 -0.000302 0.0
2.619689 1.550866 -0.000190 0.0
1.439956 0.031668 0.004929 0.0
0.271802 1.099281 -0.002971 0.0
0.453667 1.544269 0.000978 0.0
2.204459 1.472796 -0.000481 0.0
2.249665 1.683479 0.000237 0.0
2.490619 2.394159 -0.000141 0.0
0.259935 1.217780 -0.001051 0.0
2.809813 1.438188 -0.001787 0.0
2.475563 1.047153 -0.004436 0.0
1.497011 1.148226 -0.002301 0.0
2.777850 0.063477 0.001127 0.0
0.612543 0.085172 -0.002212 0.0
3.865970 0.175128 -0.002892 0.0
2.563566 0.865505 0.000692 0.0
1.075803 0.665343 -0.002047 0.0
2.210743 0.191204 -0.000450 0.0
2.173311 0.625087 -0.002420 0.0
2.389075 0.187684 0.001218 0.0
2.263765 1.787485 -0.001187 0.0
2.842171 1.358232 -0.001905 0.0
1.265650 1.851682 -0.000637 0.0
3.037260 1.289438 0.000935 0.0
2.474638 0.101641 -0.003248 0.0
2.306001 1.002429 0.005437 0.0
3.321784 0.517090 0.003067 0.0
0.473741 0.860164 -0.000682 0.0
3.219586 1.604025 0.001214 0.0
2.158962 2.372697 0.001963 0.0
4.197641 1.491913 0.002491 0.0
0.005705 1.381724 0.005006 0.0
0.570907 1.201156 -0.002624 0.0
0.533862 2.414858 0.000187 0.0
0.703460 0.064139 -0.001586 0.0
3.736330 2.154784 -0.000267 0.0
0.251009 0.436109 0.000298 0.0
0.416712 1.474426 -0.003531 0.0
3.381145 1.287621 0.000442 0.0
2.062817 0.429673 -0.000327 0.0
3.769616 1.912695 0.000888 0.0
0.695414 0.299241 0.001619 0.0
1.005290 1.655525 0.001382 0.0
3.725305 0.157120 -0.001602 0.0
3.393369 1.517452 0.000537 0.0
2.612564 0.419715 0.002011 0.0
2.820961 0.034765 0.004103 0.0
0.326509 0.613157 -0.003632 0.0
3.875211 1.806438 0.007849 0.0
0.832115 0.619495 -0.000119 0.0
2.355702 1.651257 0.001721 0.0
3.159913 2.047419 -0.005115 0.0
1.336295 0.451583 -0.001045 0.0
2.827176 0.304558 0.000187 0.0
4.200120 0.115740 0.000336 0.0
3.661743 1.245213 0.001674 0.0
1.096619 1.377548 0.001072 0.0
1.025077 0.229162 -0.002985 0.0
1.118766 1.112899 0.004104 0.0
0.167140 1.861494 -0.001548 0.0
2.979908 1.525914 0.002124 0.0
1.707997 0.639651 -0.001292 0.0
1.955676 1.869534 0.003469 0.0
2.034812 2.285364 0.002409 0.0
1.813183 0.694255 -0.004324 0.0
0.681542 2.264460 -0.000226 0.0
3.626786 0.174950 -0.000207 0.0
4.209508 0.975055 -0.003177 0.0
2.279369 2.196450 -0.003883 0.0
2.356740 2.403941 -0.002534 0.0
0.185619 0.060086 0.001588 0.0
3.034413 0.638262 -0.000815 0.0
2.158295 1.694362 0.003161 0.0
2.684667 0.392971 -0.002782 0.0
4.282669 1.920906 0.002037 0.0
3.482613 1.809085 -0.000944 0.0
0.627222 2.324773 -0.002005 0.0
1.095301 2.177534 0.001204 0.0
1.091489 2.301153 0.001819 0.0
1.727013 0.018321 -0.004943 0.0
1.201608 0.444865 -0.000319 0.0
0.540911 1.834026 -0.001061 0.0
2.916411 1.390870 0.003560 0.0
1.233507 0.370822 0.002714 0.0
2.623209 0.885003 0.003268 0.0
0.465927 1.801535 -0.001317 0.0
1.791339 0.024023 0.004783 0.0
2.446936 0.092911 -0.003318 0.0
0.153222 0.219730 0.001961 0.0
3.848772 0.139319 -0.003279 0.0
1.180896 1.312227 0.003097 0.0
1.423645 1.548404 0.000245 0.0
0.842787 0.086498 0.005379 0.0
2.091283 0.549613 0.002622 0.0
2.080509 1.842709 0.000693 0.0
3.378497 0.496892 -0.002045 0.0
0.112234 0.492185 0.001052 0.0
4.262978 1.586496 -0.000335 0.0
1.892323 2.175618 -0.003055 0.0
3.272459 1.011919 0.000064 0.0
0.645567 0.077383 -0.001436 0.0
2.265398 0.903987 0.002189 0.0
2.804556 1.756988 -0.002116 0.0
0.270386 0.312973 0.000421 0.0
2.195289 1.368708 0.002374 0.0
4.323295 1.267771 -0.002240 0.0
3.051844 0.551040 -0.004840 0.0
2.132603 0.550809 -0.006880 0.0
3.282056 2.403624 -0.000170 0.0
1.352171 0.377654 -0.001245 0.0
2.702912 1.165975 -0.004956 0.0
1.873122 1.290824 0.001130 0.0
0.352223 0.933751 0.002332 0.0
3.826198 0.436708 0.000418 0.0
0.876964 2.283387 0.002766 0.0
3.156137 1.185692 -0.003853 0.0
1.173898 0.569013 -0.000223 0.0
0.469051 0.626659 0.000056 0.0
0.599458 2.375818 -0.001717 0.0
2.804344 1.771724 -0.000555 0.0
4.253055 0.844542 -0.003446 0.0
2.759173 1.690763 0.002510 0.0
0.735506 0.589424 -0.000945 0.0
0.329237 0.842099 -0.002295 0.0
1.364492 0.811786 -0.001816 0.0
0.499816 0.744369 -0.002120 0.0
0.122365 0.887360 0.001095 0.0
3.120745 0.882310 0.002120 0.0
1.089285 0.907608 0.000328 0.0
0.358487 0.017599 0.003761 0.0
1.168720 1.533035 0.001020 0.0
1.772440 2.179318 -0.000075 0.0
3.646595 1.499180 -0.002973 0.0
3.935480 1.031041 -0.001202 0.0
2.251630 2.298144 0.002897 0.0
3.500883 0.807649 -0.000036 0.0
1.644330 0.452141 0.001472 0.0
2.062415 2.166540 -0.001364 0.0
0.174964 0.104868 0.001054 0.0
4.269831 0.023280 -0.000907 0.0
1.390472 0.898334 0.003684 0.0
0.582706 1.365269 0.002535 0.0
0.585388 2.247383 -0.001180 0.0
3.821178 0.231236 -0.003571 0.0
0.585813 2.236405 -0.003073 0.0
1.329154 1.979174 0.003313 0.0
1.993802 0.041938 -0.002090 0.0
3.965334 2.354864 0.004334 0.0
2.037217 1.509701 -0.001540 0.0
0.896913 1.275225 0.002620 0.0
3.308708 1.362312 -0.000268 0.0
4.282555 1.503164 0.002698 0.0
0.313603 0.079519 -0.002738 0.0
2.771501 0.200583 -0.001267 0.0
3.885282 1.162384 -0.000309 0.0
0.382379 0.072339 -0.000476 0.0
1.210641 1.923365 -0.001679 0.0
4.345419 0.987733 0.001564 0.0
1.866817 0.246935 0.003756 0.0
1.934941 0.992087 -0.001462 0.0
0.405978 1.087707 0.000406 0.0
1.029611 2.157347 -0.000062 0.0
2.440973 2.150701 0.003092 0.0
1.758979 1.586094 -0.004263 0.0
1.730735 0.957884 -0.002810 0.0
3.717612 0.589259 0.001120 0.0
2.802976 1.444847 0.001265 0.0
0.300809 0.092240 0.002982 0.0
2.843485 1.736875 0.001767 0.0
3.395211 0.174075 -0.000770 0.0
2.555988 0.173564 0.001532 0.0
0.754676 1.984876 -0.001583 0.0
3.953386 1.823296 -0.003791 0.0
0.896982 2.222774 0.001968 0.0
1.740809 1.893832 -0.002453 0.0
2.066118 1.139249 -0.000636 0.0
3.625081 1.785295 -0.000082 0.0
3.413792 1.202072 0.000573 0.0
2.049311 2.354508 -0.000118 0.0
4.346233 1.811365 0.000229 0.0
3.074231 0.764559 -0.000471 0.0
1.759360 1.742766 0.000370 0.0
4.188877 0.047498 0.000325 0.0
1.492255 0.514760 -0.000904 0.0
2.241565 0.653594 0.000951 0.0
2.416069 1.774099 -0.003238 0.0
1.806134 2.073980 -0.005576 0.0
4.128909 1.032773 0.003239 0.0
1.817880 0.256846 0.004061 0.0
4.070120 0.234625 -0.005384 0.0
3.538729 1.963540 -0.004139 0.0
2.070383 2.276870 0.003888 0.0
0.328736 1.776859 -0.003575 0.0
0.762393 0.902300 -0.001434 0.0
3.879590 1.406062 -0.003529 0.0
2.636660 1.665217 -0.001074 0.0
1.435625 0.055406 0.002902 0.0
2.927779 2.199156 -0.001539 0.0
0.455807 1.377124 0.001278 0.0
2.305296 0.596348 0.000905 0.0
2.258842 1.749305 0.000369 0.0
2.859025 1.075739 0.000719 0.0
1.201269 2.036502 0.000170 0.0
3.633908 1.614797 0.001862 0.0
0.239120 0.355552 -0.002864 0.0
1.635665 0.159642 -0.001945 0.0
3.738031 2.074637 -0.001054 0.0
0.343034 0.744496 0.001067 0.0
3.152002 2.225372 0.003309 0.0
1.705049 2.170238 0.002784 0.0
1.669022 0.680199 0.003134 0.0
3.249981 0.843334 0.003018 0.0
3.389513 0.658834 0.003672 0.0
0.173545 2.324328 0.000820 0.0
4.057564 1.190360 0.002089 0.0
1.756742 1.295908 -0.003099 0.0
1.659596 1.393568 -0.000672 0.0
0.259711 1.661584 0.003111 0.0
3.020275 0.423582 0.000143 0.0
3.510567 0.043629 -0.005380 0.0
0.115529 1.660921 0.003188 0.0
2.475652 2.302922 0.003610 0.0
2.962756 2.347155 -0.002449 0.0
1.200404 0.002130 0.003099 0.0
0.357985 0.712023 0.003061 0.0
2.426097 2.109273 -0.000422 0.0
2.494859 1.003770 -0.000366 0.0
0.521137 1.774778 -0.002215 0.0
2.276862 0.505421 0.001732 0.0
0.550742 2.104096 0.002293 0.0
2.853484 1.410350 0.003623 0.0
0.302091 1.985142 -0.001491 0.0
2.741115 2.235064 -0.003765 0.0
0.525979 1.127962 -0.001418 0.0
3.719643 0.662838 -0.001958 0.0
3.559972 0.315399 0.000390 0.0
1.459459 0.096784 -0.000198 0.0
1.507245 1.891971 -0.001666 0.0
3.774305 0.625230 0.000284 0.0
3.993970 0.522272 0.003081 0.0
1.010970 2.243927 0.001087 0.0
2.523257 1.015762 -0.001586 0.0
4.200694 0.585673 -0.003978 0.0
2.111717 1.426334 0.001284 0.0
1.508007 1.610447 -0.001921 0.0
1.601718 1.426069 -0.002120 0.0
2.262250 1.532816 -0.003502 0.0
0.292632 0.886741 0.001601 0.0
1.065448 0.325152 -0.001012 0.0
4.334109 0.027626 0.000546 0.0
2.106582 0.876642 -0.001267 0.0
2.451459 0.376339 0.001966 0.0
0.092631 0.222873 -0.001185 0.0
4.187370 0.497759 0.002611 0.0
1.088545 0.330946 -0.001874 0.0
0.294997 0.154726 -0.001350 0.0
3.589338 1.684792 -0.002410 0.0
4.067342 0.740612 -0.002563 0.0
1.393037 0.991973 -0.006500 0.0
2.148241 1.499988 -0.000025 0.0
3.826832 2.023852 -0.002566 0.0
0.064422 0.237798 -0.001965 0.0
2.126997 0.789525 0.003190 0.0
4.259536 1.629365 0.001616 0.0
0.158794 2.404295 0.002909 0.0
2.301041 0.187270 0.005927 0.0
3.734113 1.200857 0.000979 0.0
3.566110 0.339676 -0.000107 0.0
4.087560 1.881213 -0.003091 0.0
1.748596 2.091637 -0.002375 0.0
2.510687 2.148679 -0.000557 0.0
1.818283 1.063142 0.003819 0.0
1.789050 0.577800 0.004505 0.0
4.137704 1.767434 -0.002025 0.0
1.772726 0.800442 -0.001371 0.0
0.845492 1.733807 0.001763 0.0
2.867734 1.007090 0.002154 0.0
