2.302429 0.306684 0.002025 0.0
3.426288 1.485964 0.001147 0.0
0.362937 0.560545 -0.000027 0.0
3.969825 0.640985 -0.000590 0.0
1.348891 1.959086 -0.000726 0.0
0.441665 1.644374 0.003940 0.0
1.558614 1.115058 -0.003902 0.0
3.298165 1.982987 0.000976 0.0
2.122308 0.177706 -0.001366 0.0
2.262269 1.059598 -0.000651 0.0
4.020885 1.795382 0.003725 0.0
0.007762 1.262598 0.000652 0.0
4.251690 1.850364 -0.003179 0.0
2.135368 0.402561 0.000113 0.0
2.044701 1.635705 -0.000119 0.0
2.704361 1.761674 0.000088 0.0
3.322249 0.454224 0.001070 0.0
3.993563 0.430968 0.003198 0.0
2.105807 1.164684 0.002612 0.0
0.585480 1.822708 0.000245 0.0
0.299940 1.132348 -0.001696 0.0
4.355793 0.987260 0.000417 0.0
1.557121 1.672980 0.006799 0.0
4.406386 0.514177 -0.000736 0.0
0.948197 1.900561 -0.003818 0.0
2.415181 1.833819 0.000171 0.0
3.130742 1.014834 0.000927 0.0
0.242958 1.232128 0.002059 0.0
3.240361 1.957394 0.000062 0.0
3.961910 2.079857 0.001046 0.0
3.416668 0.300067 0.002082 0.0
0.679062 0.017233 -0.000485 0.0
1.838311 0.777394 0.001532 0.0
0.923820 0.685488 -0.000312 0.0
2.043293 0.268602 -0.003365 0.0
1.329217 1.305487 -0.006431 0.0
1.912708 1.239355 0.001083 0.0
3.589409 2.148224 0.000329 0.0
0.927141 0.865629 -0.000710 0.0
3.648401 1.267009 -0.000120 0.0
1.145962 0.147751 0.006111 0.0
0.342794 1.319636 -0.000821 0.0
1.404437 2.168126 0.001996 0.0
3.523004 2.069234 0.000251 0.0
4.001788 0.541754 0.003271 0.0
3.406685 0.170102 -0.001328 0.0
0.910703 0.128534 -0.000885 0.0
1.610669 0.069830 -0.000030 0.0
3.886215 0.619994 -0.000536 0.0
0.279075 1.537158 0.000301 0.0
1.778406 0.514311 -0.001647 0.0
2.446846 1.070164 -0.003744 0.0
1.875054 0.812443 0.002745 0.0
0.417838 1.698646 0.004714 0.0
1.454012 1.072179 -0.001177 0.0
4.052051 1.073540 -0.001038 0.0
1.632581 0.295147 0.000005 0.0
0.049038 1.425294 0.003001 0.0
2.949525 0.562226 -0.004243 0.0
0.146458 0.583317 0.000130 0.0
0.100910 0.555064 0.000181 0.0
2.209215 0.456537 0.000811 0.0
4.275038 1.350846 -0.000014 0.0
1.818698 1.877217 0.003387 0.0
1.438773 0.154106 0.002566 0.0
1.493617 0.483778 -0.005420 0.0
4.224634 0.530481 0.000224 0.0
2.930171 1.697025 -0.001612 0.0
0.859241 0.668490 -0.003152 0.0
1.310245 0.740784 -0.001927 0.0
1.432000 0.754418 0.000439 0.0
1.758404 0.692071 0.004221 0.0
1.080702 1.583581 0.000756 0.0
1.929438 1.716322 -0.005207 0.0
2.305254 1.583303 -0.003769 0.0
0.783188 1.594907 -0.003731 0.0
4.106762 0.660078 0.000897 0.0
0.167151 0.670524 0.001525 0.0
2.779222 0.354900 -0.001608 0.0
1.167715 0.176571 -0.000341 0.0
2.259048 0.987482 -0.003416 0.0
0.934539 0.224460 -0.002226 0.0
1.325092 0.933971 0.001915 0.0
1.053885 0.015979 0.001800 0.0
1.808196 2.144538 0.001191 0.0
0.426725 1.511364 0.003160 0.0
3.713775 0.306362 0.001693 0.0
3.942386 0.879800 -0.003126 0.0
3.706635 0.465127 -0.002132 0.0
4.150742 0.401914 -0.002539 0.0
1.481029 1.725785 -0.000784 0.0
1.114745 0.792985 -0.000721 0.0
3.496600 0.324386 0.003095 0.0
3.600330 1.152440 -0.000736 0.0
2.968122 1.996335 -0.001390 0.0
4.436130 1.335370 0.000997 0.0
1.264445 2.033541 -0.000421 0.0
2.909084 1.893169 0.000272 0.0
2.923611 1.875467 -0.003505 0.0
1.560846 1.394350 -0.001161 0.0
1.096469 0.593238 -0.001457 0.0
2.849595 0.242935 -0.000922 0.0
3.148003 1.623823 0.002560 0.0
4.171300 1.238007 0.002144 0.0
1.665943 2.117067 0.000112 0.0
1.943526 0.675995 -0.001222 0.0
3.346505 0.525474 0.002211 0.0
0.525185 1.960555 -0.002537 0.0
1.536550 1.694012 0.005438 0.0
2.092658 0.477855 -0.002114 0.0
2.335756 0.294214 0.003445 0.0
2.328228 1.910754 0.000167 0.0
3.196160 1.637978 -0.000862 0.0
0.324456 0.772556 0.000474 0.0
0.817640 0.219113 -0.000633 0.0
3.432954 0.162297 -0.005252 0.0
4.115342 0.606443 0.002286 0.0
2.224813 0.209515 0.001002 0.0
0.480853 0.649529 -0.001492 0.0
2.340424 0.837989 0.000461 0.0
0.981621 1.338935 0.001343 0.0
0.432006 0.829386 0.001714 0.0
0.809536 0.805106 -0.001633 0.0
2.652952 1.464703 0.000466 0.0
0.084291 0.909196 0.001914 0.0
0.923417 0.390145 0.003110 0.0
1.987696 1.767328 0.003092 0.0
2.365175 0.878754 -0.002298 0.0
0.603006 0.029436 0.005134 0.0
3.513079 1.553361 0.003449 0.0
0.148920 0.780291 -0.000723 0.0
3.754375 0.498535 -0.000892 0.0
1.528911 1.806357 0.004531 0.0
2.680173 2.117836 0.002711 0.0
4.415051 0.755192 -0.000293 0.0
3.193969 0.775581 -0.003213 0.0
2.729933 1.183436 -0.001055 0.0
3.575278 1.271191 0.000338 0.0
3.129991 0.043686 -0.000736 0.0
3.717263 0.815008 0.000910 0.0
2.608828 0.522291 -0.000829 0.0
1.504746 0.801065 0.000436 0.0
3.072021 2.091121 -0.002351 0.0
3.211443 1.654606 -0.003209 0.0
1.017056 1.088134 0.002998 0.0
3.663179 1.709185 -0.002504 0.0
3.846054 1.405066 0.001808 0.0
2.705127 1.811027 -0.000398 0.0
3.654100 0.694535 -0.003146 0.0
2.371592 0.530989 -0.001785 0.0
1.762746 1.833690 0.000865 0.0
2.961838 1.012788 -0.005155 0.0
1.267599 0.139913 -0.000405 0.0
1.339632 0.933391 0.004626 0.0
4.005918 0.105697 -0.001363 0.0
1.293017 1.544088 -0.001018 0.0
3.710680 0.549868 0.004933 0.0
4.366586 1.108398 -0.002427 0.0
3.070614 1.949562 -0.001315 0.0
0.921840 0.699181 0.001885 0.0
3.714505 0.432569 0.003456 0.0
3.569154 2.163901 0.004420 0.0
0.496120 0.435882 -0.002300 0.0
4.357141 2.122015 0.001273 0.0
2.207277 0.899568 -0.003731 0.0
1.922375 0.184510 0.001871 0.0
2.965629 1.273109 0.002517 0.0
3.511628 1.415259 -0.001263 0.0
3.079578 2.044213 -0.000844 0.0
0.694922 0.800712 0.000781 0.0
2.194114 0.076929 -0.000190 0.0
4.386102 1.039267 -0.001154 0.0
1.409882 1.009573 0.002995 0.0
2.716008 2.052521 -0.002138 0.0
4.175736 1.155711 -0.002347 0.0
0.299851 0.674904 0.001007 0.0
2.819152 0.533346 -0.000155 0.0
3.110201 2.099811 0.002381 0.0
0.943822 1.829044 -0.002845 0.0
3.613927 0.005581 0.000459 0.0
1.335921 0.664081 0.000122 0.0
1.568023 1.348893 -0.000245 0.0
3.919178 1.412818 0.001524 0.0
1.978931 0.830491 0.001766 0.0
0.714903 1.138917 -0.000571 0.0
2.837637 0.892841 0.007022 0.0
3.810950 0.277503 -0.001383 0.0
4.046608 0.917757 -0.000326 0.0
1.819938 1.546013 0.000783 0.0
2.559857 0.151486 0.001561 0.0
0.697600 1.650543 0.001587 0.0
0.034067 0.101833 -0.002469 0.0
0.970683 0.620030 0.000442 0.0
4.429314 0.362758 0.005536 0.0
3.050628 1.419007 0.000414 0.0
4.219440 0.171082 0.000179 0.0
2.899857 1.100241 0.001756 0.0
4.327170 1.196662 0.000336 0.0
1.027304 2.057481 -0.001368 0.0
3.507678 0.649358 0.001083 0.0
2.523926 1.992698 -0.000317 0.0
3.032893 1.071652 -0.003435 0.0
3.552484 0.865462 -0.002762 0.0
2.390989 1.385553 -0.000022 0.0
2.562689 1.646930 -0.001278 0.0
4.250276 1.172617 0.000942 0.0
2.324041 1.146390 -0.002441 0.0
3.526802 0.469675 0.006374 0.0
3.384398 1.495088 0.004302 0.0
0.665729 0.165619 0.002543 0.0
1.950401 1.859734 -0.004631 0.0
1.259550 0.014275 -0.000190 0.0
2.597450 0.196417 -0.001241 0.0
1.889438 0.668633 -0.000754 0.0
4.065459 1.645935 -0.002485 0.0
2.799545 0.024163 0.000097 0.0
0.818577 0.075271 -0.003872 0.0
0.741032 0.897001 -0.001443 0.0
2.330209 0.672586 0.000828 0.0
1.771950 1.825921 0.002206 0.0
0.999245 1.248805 0.000438 0.0
1.922452 0.458124 -0.004257 0.0
3.245993 1.972648 0.001860 0.0
1.389667 0.130559 -0.007350 0.0
0.119886 0.286757 0.002751 0.0
2.559334 1.505756 -0.000675 0.0
1.866724 0.605493 0.001133 0.0
1.854828 0.036155 -0.003725 0.0
0.941472 1.401434 -0.001854 0.0
1.960670 0.573388 0.002503 0.0
1.727882 1.223212 0.000336 0.0
2.989886 0.521773 0.000322 0.0
2.560526 1.101792 0.002737 0.0
3.716235 0.598904 -0.000622 0.0
3.233238 0.603589 0.001125 0.0
2.312371 0.283518 0.003965 0.0
2.035217 0.581638 -0.005193 0.0
0.273813 1.914613 -0.000322 0.0
1.173955 0.209676 -0.001808 0.0
3.192732 0.528397 -0.000916 0.0
0.781648 2.046166 0.000750 0.0
3.693404 0.156592 -0.000179 0.0
1.914878 0.324382 0.004677 0.0
2.044215 1.703658 0.003595 0.0
2.393391 0.254312 0.001463 0.0
2.383756 1.575405 0.000335 0.0
2.208951 0.144114 -0.001331 0.0
1.890339 0.168419 -0.001511 0.0
1.525663 1.762346 0.000661 0.0
1.568463 1.211062 0.004470 0.0
3.638410 0.626428 -0.005406 0.0
3.297925 1.040761 0.002016 0.0
0.402812 0.044398 0.000962 0.0
3.703043 1.306491 0.001342 0.0
0.624195 0.467845 0.000904 0.0
2.783821 1.197436 -0.001875 0.0
2.597067 1.412217 -0.002232 0.0
0.190555 1.080506 -0.001788 0.0
0.048987 0.584533 -0.001416 0.0
2.650201 1.968248 -0.001490 0.0
0.307235 1.644202 -0.001831 0.0
3.461409 1.756340 0.002002 0.0
1.243284 2.082333 0.001948 0.0
3.964949 1.121067 0.002985 0.0
3.875497 1.354509 0.000701 0.0
2.664794 0.497651 -0.002285 0.0
1.341029 0.357560 -0.000328 0.0
3.580701 1.154349 0.000500 0.0
1.433287 1.963427 -0.001279 0.0
2.644603 0.302010 -0.000946 0.0
4.115275 0.467332 -0.006251 0.0
1.307120 1.261355 0.001373 0.0
2.414073 0.986085 0.000183 0.0
2.420658 0.880448 0.000570 0.0
1.681565 0.673425 0.000572 0.0
3.994759 1.474727 0.001760 0.0
1.159676 0.923437 -0.000856 0.0
1.718266 0.476295 -0.001537 0.0
4.053707 1.298293 0.000450 0.0
3.788113 0.960861 -0.000502 0.0
1.043147 1.722250 -0.003005 0.0
3.557362 1.345072 0.002848 0.0
1.882035 0.015053 -0.000697 0.0
3.626171 1.828226 -0.001434 0.0
2.301126 0.199359 -0.000356 0.0
0.399557 1.593019 0.001783 0.0
1.676674 1.931550 -0.002310 0.0
4.075630 1.654983 -0.002936 0.0
3.411418 1.035737 0.001046 0.0
3.550706 2.005508 -0.002026 0.0
2.777119 1.194485 0.001667 0.0
0.177830 1.338394 0.003431 0.0
1.019004 1.673412 -0.007963 0.0
3.905872 1.530869 0.004276 0.0
4.342721 1.199673 0.000232 0.0
4.349828 0.979390 0.002426 0.0
4.129550 0.751775 0.002955 0.0
3.804658 1.598127 -0.000126 0.0
0.649156 1.062025 -0.004564 0.0
0.320200 0.525249 -0.000775 0.0
3.684370 1.043687 0.001548 0.0
3.509425 1.703956 -0.001214 0.0
0.433823 1.558638 -0.000952 0.0
2.407960 1.719273 0.001448 0.0
1.333399 0.250865 0.000802 0.0
0.909792 1.416330 -0.001672 0.0
2.323733 0.987524 -0.003934 0.0
0.171999 1.810938 -0.003784 0.0
0.980874 2.013645 -0.004527 0.0
2.480436 1.284149 -0.004570 0.0
1.458973 0.461810 -0.001690 0.0
1.344211 1.361677 0.000083 0.0
1.258802 0.643300 0.000246 0.0
2.873192 0.454802 0.000210 0.0
4.289628 0.357018 -0.000786 0.0
3.491772 1.024862 -0.000027 0.0
2.129545 1.178435 -0.000167 0.0
0.743873 1.433411 0.000933 0.0
3.700393 0.317297 -0.001512 0.0
0.327003 0.745436 -0.002222 0.0
4.335782 0.507654 0.001504 0.0
4.154193 0.558447 -0.000468 0.0
2.657497 1.476484 -0.003888 0.0
0.715638 1.928242 -0.002258 0.0
4.346301 0.411910 0.000042 0.0
4.399595 0.918636 -0.001294 0.0
2.964757 0.548618 0.000234 0.0
3.604711 0.554241 0.002153 0.0
2.212218 0.997324 0.003525 0.0
2.830231 1.843868 -0.003791 0.0
3.788535 0.817908 -0.002126 0.0
1.303222 1.798301 -0.001988 0.0
4.467799 1.513935 0.000238 0.0
1.619229 2.074428 0.001186 0.0
1.298301 0.581882 0.000152 0.0
1.190138 0.532732 0.002854 0.0
2.796345 1.230228 0.003516 0.0
2.564782 0.078064 0.000212 0.0
3.692369 1.680872 0.005257 0.0
3.126502 0.267533 0.003964 0.0
4.266649 0.850575 0.003595 0.0
3.325689 1.582919 -0.000235 0.0
4.441705 0.780187 -0.002765 0.0
1.747274 1.074989 0.002926 0.0
0.456063 1.554443 0.000492 0.0
3.459028 0.027997 0.002500 0.0
2.094819 1.255497 -0.002210 0.0
0.668897 0.182552 0.000929 0.0
1.448539 1.762230 0.000222 0.0
2.745872 0.032992 -0.000963 0.0
3.362091 0.196217 -0.000199 0.0
2.777979 1.397273 0.004384 0.0
2.877365 1.019516 -0.001870 0.0
2.511588 1.244991 -0.000753 0.0
2.797449 0.812407 0.001202 0.0
3.505545 1.677796 0.000159 0.0
0.892504 0.629906 0.002330 0.0
1.641833 1.375000 0.000717 0.0
1.123936 0.430491 -0.002693 0.0
1.862074 0.000911 0.000875 0.0
1.220948 1.358598 0.000434 0.0
3.448960 0.006669 -0.003060 0.0
2.698729 0.322348 -0.002025 0.0
3.695008 0.523358 -0.002243 0.0
2.685743 2.096774 -0.005086 0.0
4.265549 1.349545 -0.001647 0.0
1.257255 0.129958 0.001495 0.0
2.518209 0.704282 0.001267 0.0
1.485359 0.485337 -0.002441 0.0
1.224493 0.616800 0.002671 0.0
3.606761 1.368918 -0.000205 0.0
0.790187 0.890781 -0.001921 0.0
4.037177 0.899833 -0.001086 0.0
3.110630 0.645765 -0.003082 0.0
0.918759 1.268979 0.002052 0.0
2.617336 1.257296 0.002665 0.0
4.306159 1.534227 -0.002811 0.0
0.042420 0.179181 -0.005640 0.0
1.174675 2.105484 0.000055 0.0
1.978958 1.883102 -0.006340 0.0
3.885557 0.148052 0.004616 0.0
3.232003 0.534647 -0.001618 0.0
0.813482 1.722884 0.003743 0.0
1.025643 0.328039 0.001133 0.0
1.660226 0.695473 -0.002749 0.0
3.879785 0.201771 -0.003102 0.0
3.941424 1.523335 0.001859 0.0
1.705170 1.343760 -0.000126 0.0
2.688274 0.466848 0.001832 0.0
3.644576 0.217432 0.000518 0.0
2.817927 1.693433 -0.003155 0.0
2.530433 0.916577 -0.001522 0.0
0.172622 0.422680 -0.002278 0.0
2.572443 1.768226 0.001210 0.0
1.328338 0.919424 0.000658 0.0
4.425213 2.106476 0.002128 0.0
4.250131 1.770233 0.004251 0.0
3.065022 1.756905 -0.003559 0.0
3.503006 0.148799 -0.001846 0.0
3.051024 0.256127 -0.001556 0.0
2.225726 0.587779 -0.001103 0.0
1.031513 0.507603 0.004516 0.0
2.578971 1.952619 -0.004607 0.0
0.603012 1.489697 -0.002403 0.0
3.275720 1.786513 0.002845 0.0
3.956334 1.469299 0.000073 0.0
1.510995 0.967215 0.004238 0.0
1.397505 1.874658 -0.000694 0.0
2.867065 1.627516 -0.003926 0.0
3.309037 1.060426 -0.003977 0.0
0.810290 1.535001 0.001058 0.0
2.631282 1.173897 -0.002187 0.0
3.308393 0.334785 -0.001015 0.0
0.278715 1.145218 0.001891 0.0
0.525822 2.026204 -0.000017 0.0
2.305157 0.693276 -0.000107 0.0
4.318640 1.388388 0.000647 0.0
3.287465 1.052993 0.001549 0.0
1.273081 1.033132 -0.001074 0.0
1.990404 0.088809 -0.006114 0.0
1.640380 0.043898 0.002005 0.0
1.270947 1.748942 -0.000931 0.0
3.690584 2.164215 -0.000838 0.0
4.349785 1.390886 -0.001901 0.0
0.677906 0.868153 0.003325 0.0
2.003084 1.487113 0.001323 0.0
1.958065 0.551181 -0.001806 0.0
3.214330 0.864309 -0.002802 0.0
0.571060 0.247930 -0.005435 0.0
1.399915 1.949282 0.002673 0.0
2.299203 0.412570 0.000617 0.0
1.565402 1.245340 0.003364 0.0
0.135033 0.958896 -0.001981 0.0
0.664018 0.939149 0.004763 0.0
0.100157 0.422607 0.000635 0.0
3.446314 0.781334 -0.001827 0.0
2.205442 0.437998 0.000063 0.0
4.140050 1.801759 -0.001863 0.0
0.654565 1.124078 0.003970 0.0
4.092722 0.943041 0.000865 0.0
3.309174 1.839517 -0.002851 0.0
3.942727 0.635856 -0.001937 0.0
0.620991 1.345200 0.003085 0.0
1.283221 0.904771 -0.000779 0.0
2.511580 0.106481 -0.003070 0.0
2.153577 1.133616 0.001504 0.0
4.208868 1.441980 0.000380 0.0
1.085918 1.213265 0.002293 0.0
2.811387 1.356071 -0.002909 0.0
3.925972 0.933450 0.001846 0.0
3.178779 1.070755 0.005242 0.0
3.238483 1.406554 0.001914 0.0
4.402466 1.842660 -0.001953 0.0
2.740985 0.915533 -0.001284 0.0
1.353907 1.776685 -0.000777 0.0
2.403725 1.318267 -0.001933 0.0
2.905670 1.692786 -0.001783 0.0
3.589183 1.200329 -0.001877 0.0
1.211966 0.411913 -0.000668 0.0
2.506177 1.910285 0.003319 0.0
0.101160 0.391029 -0.001778 0.0
3.761590 0.679862 -0.001398 0.0
0.116796 1.700076 -0.002923 0.0
3.003488 0.827962 -0.000948 0.0
1.255994 1.343979 -0.003530 0.0
1.045927 1.796118 -0.003535 0.0
0.960107 1.320246 0.001543 0.0
2.606927 1.147964 0.001442 0.0
0.911815 0.677405 0.002718 0.0
0.193107 0.357333 -0.002189 0.0
2.979041 0.522742 0.001705 0.0
0.550259 1.836874 -0.000161 0.0
1.824072 0.060690 0.001564 0.0
0.788329 1.923258 -0.005586 0.0
2.826387 1.649765 -0.000852 0.0
1.460185 1.541538 -0.003449 0.0
1.800581 0.824250 0.001347 0.0
3.725730 0.274292 0.002589 0.0
2.673724 2.090459 -0.002539 0.0
1.633064 0.446138 -0.000774 0.0
3.869030 2.065192 0.005595 0.0
3.214235 1.565612 -0.001666 0.0
1.439947 0.507038 0.001520 0.0
3.116275 1.217065 0.000124 0.0
2.276445 1.352686 -0.000643 0.0
2.397767 1.833670 0.002425 0.0
4.141934 1.857151 -0.001384 0.0
1.809652 1.232180 -0.000960 0.0
3.254803 1.874128 0.002940 0.0
3.430722 0.491554 -0.004157 0.0
0.918022 0.833498 0.002400 0.0
2.750920 2.058641 -0.003472 0.0
0.844695 1.901870 0.002035 0.0
1.858407 1.966608 -0.000074 0.0
3.584856 0.612931 -0.001957 0.0
0.451432 1.494539 -0.004913 0.0
0.658488 1.358992 0.001803 0.0
2.466470 1.215575 0.000547 0.0
3.160701 1.080447 -0.002659 0.0
1.926645 2.073117 0.002625 0.0
0.239674 1.920346 -0.000421 0.0
1.217571 1.619919 -0.000288 0.0
2.210878 0.440330 -0.004359 0.0
3.717533 0.964690 0.000662 0.0
1.523453 2.067849 0.001259 0.0
2.246986 2.085812 0.001199 0.0
3.708731 1.903523 0.004357 0.0
0.409387 0.214391 -0.002688 0.0
1.940108 0.829121 -0.001525 0.0
1.629343 1.410600 0.001024 0.0
2.131726 0.620410 -0.001502 0.0
2.203337 1.860065 0.004611 0.0
4.172838 0.369917 0.001412 0.0
3.880815 0.182313 0.001258 0.0
1.943876 0.569649 0.001381 0.0
3.654800 2.162192 -0.001859 0.0
1.557039 1.136407 0.000602 0.0
4.204515 0.147007 0.000270 0.0
4.126803 1.579823 -0.000261 0.0
2.641424 1.795411 0.004251 0.0
3.254570 0.111060 0.003659 0.0
1.039420 2.046860 0.002116 0.0
0.386493 1.102004 0.000679 0.0
3.030573 1.260735 0.002858 0.0
1.045354 0.441264 -0.000738 0.0
3.499092 2.053187 -0.001213 0.0
2.787293 1.993551 0.002689 0.0
1.584629 0.224789 0.003160 0.0
4.318109 1.226153 -0.001449 0.0
1.091000 0.472695 -0.002566 0.0
2.242405 1.030930 0.002939 0.0
3.986824 0.945561 -0.000660 0.0
2.534617 1.713613 0.003145 0.0
0.658370 0.826548 0.000915 0.0
0.818168 0.108015 0.001490 0.0
0.292993 0.721878 0.003713 0.0
4.332018 1.077673 0.000810 0.0
3.232977 2.107511 -0.000100 0.0
1.407486 0.350825 -0.001622 0.0
1.874027 0.265880 -0.001427 0.0
4.006647 1.376126 0.003216 0.0
4.142146 0.328488 -0.001920 0.0
3.767514 0.674821 0.001748 0.0
1.764321 2.065171 0.000482 0.0
0.280248 0.855125 0.006956 0.0
0.118003 0.021940 -0.000197 0.0
4.147807 0.702706 0.006530 0.0
3.173881 2.040973 0.000370 0.0
2.499266 1.511681 -0.000742 0.0
4.047633 2.159503 0.003237 0.0
1.170256 0.125003 0.000733 0.0
2.704891 1.982131 0.001670 0.0
0.735866 0.630245 0.002080 0.0
4.144204 1.332205 0.000797 0.0
1.120327 0.609747 -0.002603 0.0
4.118522 2.130489 -0.002941 0.0
0.657102 0.462955 -0.002762 0.0
0.741705 1.415734 0.003382 0.0
3.885617 0.086644 -0.000376 0.0
0.044179 1.268247 -0.006788 0.0
0.158343 1.391749 -0.001358 0.0
3.887721 1.982597 -0.002034 0.0
3.544339 1.447270 0.002198 0.0
4.231530 0.858203 -0.001435 0.0
2.402585 0.445609 -0.003477 0.0
3.598955 0.669144 0.002830 0.0
2.046614 1.450084 0.001006 0.0
2.249949 0.357789 0.002190 0.0
3.572307 1.501149 -0.006757 0.0
1.775636 1.189899 -0.001066 0.0
0.554068 0.473906 0.000899 0.0
2.647294 0.089530 0.001803 0.0
0.301174 1.392646 0.004113 0.0
1.570640 2.085309 -0.001072 0.0
3.774639 0.698491 -0.002554 0.0
3.705873 0.333086 -0.002774 0.0
3.474689 1.275524 -0.000900 0.0
3.641479 1.523984 -0.002583 0.0
1.799300 1.679947 -0.001937 0.0
4.083799 1.484286 -0.000289 0.0
3.910922 1.257242 -0.000137 0.0
4.115083 2.021816 -0.003837 0.0
3.328563 0.714768 -0.002697 0.0
2.247717 2.017344 0.000465 0.0
2.329382 0.060525 -0.001871 0.0
4.379435 1.570485 -0.002345 0.0
1.874160 1.724655 0.000738 0.0
0.427307 1.895428 -0.001744 0.0
3.907509 1.038840 0.000370 0.0
3.322574 1.710537 0.001526 0.0
4.048238 0.765963 0.000380 0.0
2.860150 0.174672 -0.000686 0.0
3.620496 0.189649 -0.001214 0.0
1.410911 0.950737 -0.001621 0.0
0.837307 1.950140 0.004604 0.0
0.291387 0.957113 -0.001666 0.0
1.009817 1.998214 -0.003049 0.0
2.630153 0.358711 0.001431 0.0
0.416128 0.020077 -0.000561 0.0
2.435132 1.146038 -0.001184 0.0
0.220065 1.026419 -0.004066 0.0
3.511774 0.644982 0.000198 0.0
0.128619 0.719285 0.000184 0.0
2.219513 1.165150 -0.000106 0.0
1.114775 1.993786 0.005196 0.0
0.874063 0.570942 -0.002835 0.0
3.663353 0.098889 0.004458 0.0
1.242311 1.588462 0.001946 0.0
0.924470 1.131631 -0.001691 0.0
1.636105 2.099823 -0.001156 0.0
2.535797 0.972634 0.000118 0.0
1.967219 0.123927 0.003929 0.0
0.192425 1.973452 -0.003177 0.0
2.897792 2.126704 -0.000442 0.0
2.904762 2.156096 -0.001647 0.0
3.310236 1.910400 -0.000677 0.0
2.716836 1.456695 -0.001617 0.0
0.964790 1.573194 -0.001846 0.0
1.015249 1.056357 0.003621 0.0
2.680301 1.407477 0.001508 0.0
1.976338 0.513809 0.001752 0.0
1.306421 1.144153 0.001980 0.0
0.824028 1.687557 -0.002157 0.0
3.999927 0.932223 -0.001707 0.0
1.230343 0.654282 -0.001454 0.0
2.400844 0.074909 0.004335 0.0
4.240308 1.472915 -0.002490 0.0
1.462899 0.747302 0.005232 0.0
0.298016 0.332181 0.001400 0.0
3.461780 1.808604 0.005454 0.0
0.367129 0.330196 -0.003816 0.0
0.192804 0.379548 -0.000506 0.0
3.732664 1.422848 0.001742 0.0
1.242404 1.337771 -0.003142 0.0
3.475702 1.697156 0.005022 0.0
0.501986 1.472997 -0.002594 0.0
0.695524 0.977736 0.001588 0.0
3.140668 0.812712 0.001022 0.0
3.880405 1.230714 -0.001972 0.0
0.350551 2.137664 0.001563 0.0
1.859974 0.817962 -0.000028 0.0
2.881599 1.608725 0.001349 0.0
0.058704 0.411018 0.000050 0.0
2.634875 1.332518 -0.000598 0.0
3.389653 1.554199 0.002545 0.0
4.303846 1.714242 0.001504 0.0
3.368932 1.113500 0.001105 0.0
0.307093 0.956643 0.000222 0.0
4.184033 1.160848 0.001015 0.0
1.946821 1.501640 0.007414 0.0
1.393955 1.008859 0.001595 0.0
1.710727 1.086374 -0.002623 0.0
3.774754 1.765176 0.001097 0.0
2.662198 0.988260 0.000284 0.0
3.736157 1.686589 0.001694 0.0
0.071757 1.870104 0.000084 0.0
2.213105 1.241489 -0.000189 0.0
0.222547 1.502329 0.001507 0.0
3.619977 1.233925 -0.001076 0.0
0.751907 1.913096 0.001387 0.0
1.640353 1.085461 0.001283 0.0
1.959932 2.079074 0.001196 0.0
1.148208 0.276312 0.002777 0.0
1.690508 1.586758 -0.002378 0.0
3.409137 2.094985 -0.001800 0.0
0.813722 1.520654 -0.001084 0.0
0.682157 0.668870 0.000250 0.0
3.986044 1.178775 0.000671 0.0
2.972652 1.034017 -0.000656 0.0
0.514325 0.227317 -0.001398 0.0
2.210481 1.587587 -0.000518 0.0
0.536887 1.873082 0.001521 0.0
2.038868 2.124460 0.004157 0.0
2.314825 1.789023 0.000115 0.0
2.699494 2.029393 -0.004286 0.0
0.852045 0.906350 -0.001159 0.0
2.057371 1.229235 0.002212 0.0
1.807032 0.973308 0.003303 0.0
3.143758 2.095774 0.000491 0.0
0.523754 1.967833 0.000969 0.0
4.007630 0.347976 -0.003166 0.0
3.621325 1.506065 -0.003563 0.0
2.566046 1.101154 -0.004202 0.0
3.100673 1.547433 -0.001359 0.0
2.206839 0.207265 0.000692 0.0
1.575453 0.547181 -0.004359 0.0
0.994641 0.435661 -0.000155 0.0
3.997108 1.199861 0.001278 0.0
3.841106 2.077927 0.004838 0.0
2.241364 1.637857 -0.001140 0.0
0.715265 1.406356 -0.002425 0.0
4.193727 0.363245 0.000356 0.0
3.668850 0.712116 -0.001582 0.0
0.863454 0.258120 -0.001175 0.0
3.212950 1.732579 -0.000426 0.0
1.106695 0.520454 0.002957 0.0
3.020675 0.957077 0.000391 0.0
3.656863 0.168125 0.001615 0.0
3.766420 1.979314 -0.002821 0.0
1.964942 1.040341 0.000823 0.0
2.317632 1.334607 0.001759 0.0
2.967290 2.174888 -0.000871 0.0
3.106155 0.296523 -0.002278 0.0
3.939138 0.875537 -0.000577 0.0
1.729308 2.044121 -0.001320 0.0
1.564776 2.125854 0.005278 0.0
1.418700 1.199675 0.003757 0.0
0.362316 1.274484 0.000446 0.0
0.818998 1.288233 -0.004088 0.0
1.571238 0.476717 -0.002410 0.0
1.521126 0.117768 -0.003539 0.0
0.163273 2.012837 -0.001650 0.0
1.939430 0.169481 -0.003150 0.0
3.828167 1.523067 -0.002468 0.0
2.834301 1.045993 -0.001001 0.0
0.482575 1.208013 -0.000223 0.0
4.417191 1.440565 -0.006352 0.0
1.520219 1.333418 0.001059 0.0
3.635512 0.664988 0.003884 0.0
4.033655 2.102257 -0.002986 0.0
1.630016 1.258502 0.001219 0.0
0.484306 1.456604 -0.002429 0.0
2.658687 0.058812 0.001198 0.0
3.990444 1.348452 0.003407 0.0
1.944709 0.792324 0.002894 0.0
0.733326 1.015979 0.000818 0.0
2.594532 1.806994 0.001280 0.0
1.729549 1.141622 -0.002529 0.0
3.208492 0.620392 0.004563 0.0
3.565174 1.907294 0.003673 0.0
2.841807 0.998492 0.000810 0.0
3.783190 1.894415 -0.001605 0.0
1.108632 0.966997 0.003590 0.0
3.030707 2.123918 0.002093 0.0
3.564375 0.841780 0.004632 0.0
3.356137 0.235550 -0.002251 0.0
1.798042 0.198313 -0.001683 0.0
1.024685 1.426560 0.001495 0.0
2.322746 1.431551 0.000912 0.0
4.114371 1.180669 0.000190 0.0
1.991576 0.987105 -0.001766 0.0
3.630368 1.891713 0.000293 0.0
4.306171 1.197342 -0.003378 0.0
4.290689 2.004359 0.001733 0.0
2.012842 0.315195 -0.002229 0.0
1.748833 0.896781 0.001745 0.0
4.105994 0.920898 -0.001422 0.0
3.244560 2.036470 -0.001981 0.0
1.592866 0.777002 0.002395 0.0
1.471058 0.271925 -0.001151 0.0
2.521639 0.316327 -0.003023 0.0
0.742375 0.993732 0.000810 0.0
4.086098 1.419361 -0.002907 0.0
4.268145 1.633967 0.002224 0.0
1.593846 0.623996 0.001865 0.0
0.485644 1.411118 -0.000397 0.0
1.292597 2.002174 -0.000851 0.0
2.269117 0.407232 -0.004880 0.0
4.039914 1.680955 -0.000623 0.0
3.717245 0.171734 0.003673 0.0
1.352443 0.462879 0.000098 0.0
2.098013 1.194131 0.002546 0.0
0.044621 1.514561 0.003654 0.0
3.726170 1.715302 0.000579 0.0
3.106980 1.521717 0.002787 0.0
1.059706 1.573394 0.000101 0.0
4.108805 0.207568 -0.000298 0.0
4.081087 0.809008 0.002289 0.0
2.771585 0.970225 0.002188 0.0
4.166021 1.270462 0.004561 0.0
3.870434 0.018818 -0.001037 0.0
0.595355 1.488286 0.001557 0.0
2.160286 0.428605 0.002751 0.0
3.386751 0.637453 0.001566 0.0
0.837259 0.374737 0.001629 0.0
3.117460 1.004922 0.004080 0.0
1.040900 1.207946 0.002848 0.0
0.323023 1.518554 -0.000439 0.0
1.293987 0.566785 -0.001840 0.0
0.713265 0.354636 0.002817 0.0
2.686295 1.656776 0.002027 0.0
0.855867 1.726529 -0.000615 0.0
1.813655 1.325255 0.004661 0.0
1.018507 1.823660 0.001056 0.0
4.001775 1.264045 0.002188 0.0
2.530095 2.055279 0.006562 0.0
0.722734 1.169766 0.002277 0.0
1.309579 1.297274 0.003980 0.0
0.731275 0.496731 -0.001514 0.0
3.384235 1.202734 -0.000430 0.0
2.034844 2.158301 -0.001592 0.0
1.992778 0.779820 0.003746 0.0
4.050528 1.718829 0.005363 0.0
2.970865 2.124414 -0.002832 0.0
3.306656 0.758417 -0.001310 0.0
0.295475 0.483325 -0.000052 0.0
1.834256 1.745908 0.000530 0.0
1.016286 0.779051 -0.000774 0.0
2.634345 1.251535 -0.002216 0.0
3.240746 2.047113 -0.002215 0.0
0.540859 0.660332 -0.001417 0.0
2.647765 2.010578 -0.002227 0.0
1.075354 2.112474 0.003155 0.0
2.890331 1.764743 0.000670 0.0
4.448823 1.732415 -0.000505 0.0
4.215847 1.581733 -0.001818 0.0
0.083081 1.876434 -0.000285 0.0
1.671646 0.862410 -0.000028 0.0
0.603210 1.678780 -0.000554 0.0
2.559924 0.915725 0.002541 0.0
1.579179 0.671695 -0.001206 0.0
3.938930 1.091098 -0.001518 0.0
1.754262 0.032106 0.003224 0.0
3.938758 1.361736 -0.005066 0.0
4.359427 1.550161 0.002327 0.0
2.011615 1.098462 0.001913 0.0
2.439889 1.966779 -0.003434 0.0
3.229438 0.479512 -0.002966 0.0
1.600602 0.929644 -0.000750 0.0
0.725015 0.586720 -0.002022 0.0
3.561229 0.485608 0.001199 0.0
2.688845 1.544722 0.001890 0.0
1.330914 0.976907 0.000016 0.0
1.548162 1.967351 0.001762 0.0
2.125101 0.378015 -0.003348 0.0
0.859680 0.982972 0.000863 0.0
2.009274 0.315249 0.002545 0.0
4.199297 0.278018 -0.001564 0.0
4.078681 0.662906 -0.000011 0.0
4.426889 2.165386 0.001695 0.0
3.735384 0.184379 -0.002913 0.0
2.623394 0.728612 -0.002004 0.0
1.740371 1.964430 0.002161 0.0
3.699894 1.817022 -0.001953 0.0
0.943853 1.231820 0.001473 0.0
0.913267 1.629106 -0.002779 0.0
1.447682 1.627810 0.001003 0.0
1.705855 1.693389 -0.002528 0.0
0.057237 0.969471 -0.005179 0.0
4.033253 1.363569 0.002103 0.0
4.002917 0.924748 -0.005108 0.0
1.985013 0.248178 -0.000256 0.0
0.509796 0.633950 -0.000484 0.0
1.233453 0.177579 0.000469 0.0
3.492164 0.475868 0.000320 0.0
3.990522 1.160137 -0.000820 0.0
4.113270 1.171239 0.001721 0.0
3.864149 0.365635 -0.002055 0.0
0.960098 1.109257 0.001236 0.0
2.299039 0.055557 -0.002888 0.0
0.286587 1.107737 0.004739 0.0
3.753050 1.470067 0.000430 0.0
2.928567 2.080681 0.000775 0.0
0.973284 1.049308 0.002562 0.0
1.262025 0.347270 -0.002344 0.0
4.318548 1.990864 0.003097 0.0
0.907699 0.667954 -0.004386 0.0
2.919101 1.549867 -0.000203 0.0
0.264390 1.687685 0.001374 0.0
0.527450 1.918224 -0.000585 0.0
1.193029 0.483874 -0.001668 0.0
4.287508 0.379030 0.000951 0.0
1.635840 0.082413 -0.000546 0.0
0.789857 1.653058 0.002398 0.0
3.781732 0.293208 0.000012 0.0
1.905557 1.245701 0.002520 0.0
3.430738 0.220862 0.000292 0.0
3.086052 1.321358 0.003144 0.0
0.924322 0.973183 -0.001181 0.0
2.621663 0.631041 0.002060 0.0
3.437693 1.774112 0.001940 0.0
3.622152 1.215151 -0.000741 0.0
3.914892 0.374597 -0.001986 0.0
1.690297 1.761256 -0.003068 0.0
1.849491 0.765462 -0.001998 0.0
1.033047 1.055268 0.000347 0.0
1.391384 0.965751 0.005604 0.0
1.541946 1.827587 0.000574 0.0
2.956853 2.058178 0.000223 0.0
2.841555 1.441588 0.001010 0.0
2.970857 2.059105 -0.001895 0.0
0.491269 0.104171 0.000202 0.0
0.096520 1.609342 -0.001528 0.0
3.841514 0.969353 0.001425 0.0
3.021247 1.360538 -0.001460 0.0
0.126260 0.057778 0.007005 0.0
4.460821 1.637901 0.000780 0.0
0.807769 1.568090 0.000249 0.0
1.260782 1.196984 -0.001439 0.0
2.235746 0.474783 0.000579 0.0
3.108539 0.596639 0.000680 0.0
1.449202 0.987362 -0.002027 0.0
1.453528 0.275087 -0.000514 0.0
0.121813 1.038665 0.001839 0.0
3.699784 1.007375 0.001231 0.0
3.363033 0.568728 -0.001715 0.0
2.165021 1.020976 -0.000303 0.0
4.451607 1.619164 -0.000775 0.0
1.826057 0.375828 -0.000636 0.0
0.898921 0.976010 0.005459 0.0
1.350627 1.700818 -0.000447 0.0
3.687342 0.839089 0.000882 0.0
3.740248 1.618745 0.002136 0.0
0.489998 0.699605 0.001971 0.0
3.056095 1.575630 -0.003391 0.0
0.273904 0.507945 0.000772 0.0
1.858071 1.532527 -0.001079 0.0
3.558272 0.602094 -0.001090 0.0
2.597708 1.677151 0.005885 0.0
1.945577 2.119267 0.000463 0.0
0.690533 1.023605 0.000108 0.0
0.535682 1.409165 -0.003803 0.0
2.183138 0.069700 -0.000228 0.0
1.128539 1.369011 0.000443 0.0
0.042785 0.725702 -0.002049 0.0
1.623278 0.784107 0.000510 0.0
3.862357 1.449469 0.000311 0.0
2.285372 0.205886 -0.000274 0.0
1.908700 1.465592 0.001640 0.0
1.333271 0.764455 0.000167 0.0
1.591003 1.376088 0.002893 0.0
1.076643 1.819485 0.001863 0.0
0.582532 1.514480 -0.001807 0.0
3.926316 1.868672 0.003136 0.0
3.732896 1.600383 -0.000576 0.0
4.276324 0.694246 0.000578 0.0
3.915655 1.986554 0.003533 0.0
3.727599 0.056238 -0.000089 0.0
1.673241 0.008692 -0.000265 0.0
0.470732 0.386259 -0.003033 0.0
2.551600 0.547369 0.002627 0.0
0.864767 0.391241 0.001407 0.0
2.731096 0.292763 0.000471 0.0
2.819445 0.432430 -0.000207 0.0
0.988939 0.115906 0.000476 0.0
3.008378 1.196043 0.000762 0.0
0.591033 0.426833 0.002585 0.0
2.380419 0.255539 0.005223 0.0
0.722667 0.716265 -0.004228 0.0
2.428077 1.794700 -0.004470 0.0
4.215037 0.590896 0.000224 0.0
0.721756 1.199002 -0.000256 0.0
2.628071 1.936226 0.003718 0.0
1.589496 1.815501 -0.003714 0.0
3.888347 0.202451 0.004150 0.0
4.030237 0.197481 -0.005621 0.0
0.456413 1.652358 0.003013 0.0
4.138052 0.290389 0.001185 0.0
3.517930 1.352486 -0.003274 0.0
4.493738 0.869558 -0.001685 0.0
3.133936 0.532340 0.002146 0.0
1.482716 0.995538 0.000084 0.0
2.653833 1.755581 0.001632 0.0
0.737818 1.518322 0.000870 0.0
4.279661 0.103003 0.004280 0.0
3.199547 0.292014 0.001257 0.0
2.598769 0.081213 0.001769 0.0
3.778066 0.673299 0.003631 0.0
1.791403 1.921195 -0.003115 0.0
3.624958 1.841573 -0.000997 0.0
0.844753 0.744532 0.000661 0.0
3.249009 0.260800 -0.001631 0.0
1.621972 1.268968 0.000210 0.0
3.187914 1.063465 0.001347 0.0
4.462131 0.140687 -0.001412 0.0
4.425117 1.330223 0.000057 0.0
2.371030 0.275104 -0.004353 0.0
1.781468 1.816329 -0.002375 0.0
0.852693 1.933734 -0.000554 0.0
4.251774 0.856615 -0.005909 0.0
1.732904 1.283306 0.001676 0.0
0.191813 0.750305 0.000400 0.0
3.853579 1.682881 0.000350 0.0
0.547390 1.754976 0.001030 0.0
1.101833 0.760046 0.002103 0.0
2.574758 1.451002 -0.000569 0.0
1.405418 0.932771 -0.002632 0.0
2.531558 0.101548 -0.004644 0.0
2.043489 0.762887 0.002181 0.0
3.513815 1.003156 -0.001025 0.0
0.703441 2.002737 -0.002538 0.0
3.053451 1.456806 0.000166 0.0
0.445828 2.106887 0.000521 0.0
0.715515 1.111964 -0.000833 0.0
0.340495 1.376020 -0.002128 0.0
3.005888 1.146993 0.000134 0.0
3.862389 2.103698 -0.002192 0.0
2.453306 1.264892 -0.004100 0.0
4.106870 1.460839 0.001075 0.0
1.247780 2.150833 -0.000218 0.0
0.403333 1.926533 0.001771 0.0
4.341315 1.993893 -0.004528 0.0
1.428390 1.188379 -0.000156 0.0
4.326254 0.567072 -0.000841 0.0
4.360999 0.209511 0.000614 0.0
0.733758 0.062041 0.002416 0.0
1.879249 1.937942 0.001628 0.0
0.405833 0.762471 -0.001105 0.0
4.000805 0.170134 -0.005803 0.0
3.810600 1.479313 -0.002751 0.0
3.000645 2.143609 -0.003145 0.0
3.766594 0.454213 -0.003709 0.0
4.002070 1.522222 0.001857 0.0
0.282691 0.728012 0.002021 0.0
2.360668 1.669442 0.001103 0.0
3.744179 1.037362 -0.000136 0.0
1.856197 0.440877 0.000977 0.0
3.511015 1.458109 -0.004525 0.0
0.375608 1.724107 -0.003635 0.0
1.939793 1.616408 0.001230 0.0
2.466917 1.050765 0.003098 0.0
1.065090 1.783145 -0.002002 0.0
2.409508 1.334494 0.002275 0.0
1.320151 1.144782 -0.000827 0.0
0.488026 0.106343 0.000681 0.0
2.398717 2.029776 0.000646 0.0
1.155188 1.120901 -0.001993 0.0
0.264932 0.013577 0.001124 0.0
1.150826 0.493492 -0.003907 0.0
4.016628 0.086773 0.002061 0.0
1.825159 0.778326 -0.002611 0.0
4.098652 0.887720 -0.002423 0.0
3.495943 0.428433 0.000126 0.0
1.930150 1.577063 0.004765 0.0
2.100128 2.039886 -0.000374 0.0
0.491743 1.623961 0.003824 0.0
3.704651 1.904764 -0.001168 0.0
2.480608 1.789206 0.001005 0.0
1.310361 1.613806 -0.000621 0.0
4.482415 1.184463 -0.003499 0.0
3.974229 0.418518 0.003696 0.0
2.784618 1.989044 0.002852 0.0
2.497369 0.244909 0.001833 0.0
3.958809 1.302517 -0.000389 0.0
1.043319 1.268560 0.000144 0.0
4.367126 0.978923 0.002162 0.0
2.832581 0.143958 0.000209 0.0
4.086139 2.056520 -0.001357 0.0
1.699277 0.392617 -0.001482 0.0
0.448869 0.381214 0.000818 0.0
1.091195 1.852088 0.001838 0.0
1.407455 0.047869 0.001120 0.0
2.354214 0.963666 -0.004738 0.0
0.363534 1.392881 0.003427 0.0
3.752742 1.504728 0.000650 0.0
0.262742 0.603323 -0.003703 0.0
2.500322 0.072747 -0.001767 0.0
1.903825 0.689775 -0.002726 0.0
0.584199 2.142531 -0.000623 0.0
1.008825 0.596656 -0.000889 0.0
3.296861 1.514525 0.000610 0.0
1.460426 0.807710 0.001314 0.0
0.244979 2.110790 0.001057 0.0
1.838464 0.661496 -0.000762 0.0
4.122416 1.412538 -0.003633 0.0
0.690000 0.951308 0.000637 0.0
2.066877 0.790467 0.003549 0.0
1.197525 1.557030 0.003609 0.0
1.674755 1.994504 -0.002259 0.0
1.517637 0.063043 0.004484 0.0
3.988426 1.134114 -0.001054 0.0
1.285503 1.255607 -0.002554 0.0
0.472297 2.024961 0.000131 0.0
0.829553 1.355492 0.000944 0.0
1.845591 2.088136 0.000249 0.0
2.750783 1.165265 -0.001251 0.0
1.174849 1.998669 0.002054 0.0
1.950951 0.798961 -0.000068 0.0
3.517293 0.535557 0.002927 0.0
0.587358 1.477221 0.000359 0.0
3.856435 1.645939 0.004366 0.0
3.079955 1.593950 -0.004368 0.0
3.856201 0.956647 0.000085 0.0
2.065164 0.028344 -0.000998 0.0
1.931932 0.958992 -0.002224 0.0
2.441687 1.350151 -0.003570 0.0
1.321853 0.190360 0.003755 0.0
3.274440 2.161821 0.003382 0.0
1.610393 0.056825 -0.006608 0.0
1.994133 1.363096 -0.002310 0.0
3.026674 1.914026 -0.001148 0.0
2.834497 0.445898 -0.001619 0.0
1.455004 0.524996 0.003447 0.0
2.049254 0.447057 -0.000393 0.0
0.223836 1.533394 -0.001193 0.0
2.227415 1.086737 -0.003448 0.0
2.775266 0.150970 -0.000179 0.0
0.410521 0.363838 -0.000091 0.0
3.201043 1.935547 0.001289 0.0
2.877051 1.140539 -0.000904 0.0
0.404492 1.558900 0.001349 0.0
4.485785 1.536526 -0.000969 0.0
0.501216 0.088313 0.000096 0.0
3.880691 0.447678 -0.003156 0.0
2.686258 1.714150 -0.000234 0.0
2.815452 1.587011 0.003362 0.0
3.707574 0.943190 -0.006164 0.0
2.698571 2.109752 -0.001864 0.0
4.362185 1.441605 -0.002287 0.0
0.566340 1.354617 0.001512 0.0
2.730467 1.783305 -0.003045 0.0
3.510342 0.486994 -0.003717 0.0
3.382809 0.392228 0.001208 0.0
4.012886 2.171462 -0.002383 0.0
2.058923 1.491280 -0.002040 0.0
1.242525 0.781385 0.000921 0.0
3.560781 0.316042 -0.003212 0.0
1.637371 1.749177 -0.001322 0.0
3.259552 0.685539 -0.002278 0.0
0.931832 0.780917 0.002410 0.0
3.373149 1.598055 0.003085 0.0
1.283715 0.450627 0.004593 0.0
1.980439 1.529409 -0.002495 0.0
3.849398 0.912341 -0.000071 0.0
1.296724 0.102637 0.001182 0.0
0.538799 1.858784 -0.001243 0.0
3.498504 0.942741 0.000387 0.0
2.044904 1.438634 -0.000766 0.0
3.702366 1.593193 -0.001757 0.0
2.954368 1.787397 0.001442 0.0
3.053927 0.572399 -0.002127 0.0
0.140287 0.863331 -0.000233 0.0
1.317104 1.277461 0.006298 0.0
2.173921 0.918538 -0.000104 0.0
3.278124 1.764902 -0.002292 0.0
1.293943 0.200427 0.000595 0.0
3.072397 1.854012 0.003742 0.0
3.309832 1.208228 -0.002047 0.0
1.934242 1.563690 0.001799 0.0
0.043024 0.807960 -0.002659 0.0
2.662530 0.161101 0.001509 0.0
2.603814 1.144320 -0.000658 0.0
1.597077 0.486553 0.000543 0.0
4.127249 0.775903 0.004701 0.0
0.612634 1.101084 0.003264 0.0
3.005834 0.854557 0.001402 0.0
3.773736 0.965583 0.002826 0.0
3.371901 2.172017 0.003320 0.0
3.764089 0.816139 -0.001357 0.0
3.838969 0.046711 0.001809 0.0
3.454399 0.573462 0.000123 0.0
1.860720 1.100337 -0.000528 0.0
0.607268 0.856261 -0.004280 0.0
2.194321 1.655482 0.002959 0.0
0.150878 1.379288 -0.001951 0.0
3.641618 0.897725 0.002300 0.0
0.267801 2.163792 0.001133 0.0
2.695828 0.569837 -0.002538 0.0
3.436264 0.978489 0.000260 0.0
0.189955 0.622356 0.004159 0.0
3.169338 1.413728 -0.001925 0.0
2.111604 1.522850 0.001546 0.0
2.461743 1.221313 -0.006059 0.0
1.095261 1.241345 0.001703 0.0
0.815593 0.691073 -0.001088 0.0
2.771509 1.007703 0.000538 0.0
0.630667 0.431170 0.002268 0.0
1.075928 1.521607 -0.000422 0.0
1.159061 1.761617 -0.001101 0.0
3.505390 1.367841 -0.001134 0.0
1.787797 0.367944 -0.000559 0.0
0.542865 0.011144 -0.003571 0.0
1.297762 0.088933 0.001280 0.0
1.222563 1.901197 -0.002509 0.0
1.506146 0.175766 0.002867 0.0
3.432726 1.247902 -0.004125 0.0
4.310233 1.037361 0.002932 0.0
3.639717 0.033153 0.001074 0.0
0.358369 1.950898 -0.002091 0.0
1.046342 1.060767 0.002591 0.0
3.539008 0.921210 0.000683 0.0
0.648172 1.484656 -0.003580 0.0
0.120008 1.185367 0.002730 0.0
4.390872 1.523271 -0.003860 0.0
3.969413 2.079219 -0.001456 0.0
2.434201 0.151165 -0.002324 0.0
1.571860 0.041813 -0.000630 0.0
0.151695 1.881241 -0.001889 0.0
2.816079 1.642927 0.005601 0.0
3.668826 1.942784 0.003695 0.0
0.776425 2.022366 0.001177 0.0
3.110720 0.324772 -0.001883 0.0
2.140397 1.062060 0.000157 0.0
1.782664 0.900263 0.004405 0.0
3.562632 1.430205 -0.000501 0.0
1.434582 0.540063 -0.004670 0.0
0.565771 2.168676 -0.001847 0.0
0.276522 2.008077 -0.003501 0.0
3.588642 0.422038 -0.002103 0.0
3.208252 1.707016 0.000840 0.0
1.519008 0.013148 -0.003252 0.0
0.835654 1.542731 -0.000602 0.0
0.126830 0.059153 0.001737 0.0
3.737073 1.502674 -0.000514 0.0
3.754968 1.003067 0.002230 0.0
1.498647 0.253057 0.001158 0.0
4.437374 2.036750 -0.002952 0.0
1.152823 0.307027 0.002476 0.0
1.194354 1.602969 0.001510 0.0
3.696392 1.606320 -0.000084 0.0
1.802646 1.618949 -0.000468 0.0
1.033746 1.543872 -0.000088 0.0
0.955173 0.195513 -0.001048 0.0
0.938966 2.137046 0.002889 0.0
1.165940 1.212913 -0.001378 0.0
1.685167 1.117869 -0.000003 0.0
0.527014 1.260999 0.000075 0.0
2.801825 0.764538 0.003708 0.0
3.478642 0.607441 0.000408 0.0
0.853212 1.307922 -0.003658 0.0
4.292353 1.468244 -0.000240 0.0
1.300740 0.917238 0.000844 0.0
0.214111 1.391673 -0.000884 0.0
3.247415 1.328557 0.001608 0.0
0.614969 0.963234 0.001654 0.0
2.554343 1.125042 0.000638 0.0
2.550332 1.607307 0.001489 0.0
1.491047 1.873863 -0.001541 0.0
3.353707 0.185382 -0.002127 0.0
1.610202 -0.000947 0.000910 0.0
4.122448 1.744245 0.001192 0.0
3.959039 1.781837 0.004197 0.0
0.949574 0.903528 0.000261 0.0
0.376712 1.162070 -0.002001 0.0
1.608063 1.182782 -0.003344 0.0
4.330989 0.477588 0.003430 0.0
1.267416 1.433882 -0.001606 0.0
3.512717 0.020040 -0.001385 0.0
4.425283 1.556025 0.001195 0.0
1.249874 0.527111 0.000225 0.0
1.092504 0.868203 -0.003846 0.0
3.433271 0.363670 0.001781 0.0
3.236035 0.239752 0.000112 0.0
4.302759 0.575871 -0.000716 0.0
2.631860 0.658963 0.000867 0.0
3.334028 0.928341 0.001483 0.0
0.963472 2.129409 0.003227 0.0
1.430338 1.241718 -0.002235 0.0
1.415488 0.746099 0.000996 0.0
2.038219 0.383767 -0.000386 0.0
2.696786 1.739956 0.000078 0.0
3.336682 0.009769 -0.003377 0.0
0.859917 0.054148 0.001236 0.0
0.954572 0.978172 0.002304 0.0
3.107483 0.680616 0.005136 0.0
0.638368 0.797026 0.001401 0.0
0.809415 2.104158 -0.004604 0.0
2.746055 2.169493 -0.002513 0.0
0.237419 2.139354 0.003499 0.0
4.332734 1.434459 -0.000566 0.0
0.224709 1.795345 0.000152 0.0
1.817304 0.268139 0.003406 0.0
0.730896 1.122755 0.000184 0.0
0.593976 1.663077 0.002466 0.0
1.507001 1.372935 0.003891 0.0
1.706486 0.716362 0.000782 0.0
4.368147 0.519293 0.004851 0.0
1.660535 0.696443 0.001427 0.0
4.438808 1.197377 0.000294 0.0
0.917059 1.106838 -0.002261 0.0
3.945007 1.317697 0.001910 0.0
3.070985 1.401465 0.001042 0.0
3.777394 0.903996 0.000517 0.0
2.070474 1.590996 0.002082 0.0
2.712636 0.441266 -0.000635 0.0
4.464577 0.213096 0.000344 0.0
1.054753 0.712870 -0.003265 0.0
0.264875 1.604265 -0.003290 0.0
0.164562 0.682066 -0.000033 0.0
3.758600 0.594420 -0.001134 0.0
2.818341 0.656126 -0.000566 0.0
4.084242 2.046302 -0.002407 0.0
2.755919 1.556066 0.002699 0.0
3.718125 1.002538 -0.002319 0.0
3.239814 0.221866 -0.001135 0.0
3.733951 1.972155 -0.002603 0.0
1.413808 0.336082 0.001937 0.0
0.895543 1.055816 -0.002142 0.0
2.779258 1.508565 0.005040 0.0
1.666433 1.394884 0.002969 0.0
3.783691 0.323740 -0.002343 0.0
3.607339 0.793820 0.000468 0.0
3.913889 1.022673 0.001599 0.0
3.326986 1.221227 -0.000747 0.0
1.847141 0.726582 0.001856 0.0
3.446761 2.159456 0.002449 0.0
3.282446 2.081614 0.001427 0.0
1.177814 1.963570 0.002603 0.0
2.020918 1.257516 0.002250 0.0
1.371752 0.651275 -0.003243 0.0
4.485385 0.836588 -0.002136 0.0
3.588574 0.493883 0.004729 0.0
0.716401 0.611297 0.002410 0.0
4.246681 1.878431 0.000325 0.0
2.395814 1.535726 0.004114 0.0
2.485272 0.712385 -0.000113 0.0
3.008349 0.067183 0.001583 0.0
3.582786 0.780574 0.002292 0.0
3.219055 0.432553 -0.003001 0.0
0.081150 0.563094 0.003165 0.0
3.457981 0.783531 -0.002220 0.0
0.088865 0.982784 -0.000586 0.0
4.380193 1.367883 0.002363 0.0
0.304928 0.932181 -0.000146 0.0
4.311856 1.427699 -0.001004 0.0
1.525873 1.727762 0.003520 0.0
0.397211 1.524347 0.002353 0.0
1.204884 1.903633 0.003250 0.0
0.096836 0.505457 0.001384 0.0
4.045710 1.538092 -0.002471 0.0
1.743376 0.695508 0.004157 0.0
1.339666 1.233686 -0.000370 0.0
0.743199 0.131769 -0.004446 0.0
0.868011 0.665078 -0.002945 0.0
0.824301 2.165052 -0.000275 0.0
4.096235 0.553651 0.001643 0.0
2.102879 1.833613 0.004496 0.0
2.504299 1.583686 0.001862 0.0
4.040931 1.106134 0.002302 0.0
1.041615 0.952318 0.003941 0.0
2.897820 2.047646 -0.003270 0.0
3.818114 1.916945 0.005008 0.0
4.232026 1.976872 0.002615 0.0
0.620816 0.727728 0.000768 0.0
1.287668 1.874371 0.001971 0.0
3.699328 1.104653 -0.001456 0.0
0.164011 1.717411 0.001499 0.0
2.777115 0.117303 0.000994 0.0
0.747676 0.215855 -0.003424 0.0
1.909705 1.911311 0.000387 0.0
1.750524 0.704568 -0.001397 0.0
0.866208 0.931465 0.003310 0.0
3.275490 1.420686 -0.000785 0.0
4.476821 1.289361 -0.006376 0.0
2.280625 1.034468 0.002481 0.0
2.011830 1.913531 -0.002221 0.0
3.947041 2.117242 0.002680 0.0
3.881138 1.155686 0.001361 0.0
3.806320 0.554107 -0.001152 0.0
2.207663 0.057189 0.000365 0.0
3.316831 2.015060 0.000161 0.0
3.843046 0.682080 0.000962 0.0
4.232914 2.161268 -0.000879 0.0
0.908716 0.555501 0.001739 0.0
3.418171 0.324559 -0.000612 0.0
2.275286 1.127470 0.002627 0.0
1.666260 0.436413 -0.002179 0.0
2.918153 1.080551 0.002600 0.0
1.242549 0.914213 0.000303 0.0
3.426060 0.717634 0.003800 0.0
1.472183 0.193384 0.004158 0.0
4.295417 0.712473 -0.002269 0.0
3.443139 1.995640 0.001890 0.0
3.563349 1.143954 -0.000158 0.0
2.344490 0.876620 -0.000660 0.0
0.559535 0.102411 0.001380 0.0
3.491698 0.899215 0.001079 0.0
3.070221 1.809271 0.000890 0.0
1.325616 1.743313 0.003008 0.0
1.593763 1.410378 0.000463 0.0
3.770124 2.045525 0.001696 0.0
3.908657 1.731175 -0.001925 0.0
0.433819 0.036646 -0.000508 0.0
3.530255 0.119865 0.003436 0.0
3.832028 1.844576 -0.000351 0.0
2.729013 1.172754 -0.001291 0.0
2.470629 1.930636 -0.000428 0.0
0.138452 0.023384 -0.000377 0.0
0.518977 0.447083 0.001818 0.0
1.371286 1.314605 -0.002319 0.0
4.324532 1.584759 0.004146 0.0
3.987375 1.768144 -0.001618 0.0
0.028056 1.294400 -0.000465 0.0
0.704735 0.689266 -0.004679 0.0
1.865839 0.104500 0.002034 0.0
1.591499 2.156149 -0.004408 0.0
3.538748 1.290919 0.001822 0.0
1.330959 0.182665 0.004310 0.0
1.181875 1.632719 0.002511 0.0
3.294915 1.749025 -0.008464 0.0
2.143066 0.284273 -0.003280 0.0
4.109226 1.325862 -0.000723 0.0
1.807373 1.588864 -0.001621 0.0
4.334972 1.114126 0.003348 0.0
4.296268 0.241721 -0.001433 0.0
3.937183 0.826723 0.001002 0.0
0.059604 0.190854 -0.003538 0.0
2.377944 1.489532 0.001798 0.0
3.688587 1.043525 -0.000988 0.0
4.373087 1.087277 0.000455 0.0
2.918150 0.096874 -0.000027 0.0
2.569921 0.651567 -0.001486 0.0
2.235767 2.072870 -0.002896 0.0
3.317907 0.310157 -0.000075 0.0
0.945564 1.236651 -0.000621 0.0
0.381927 1.440922 -0.003104 0.0
0.127617 1.170658 -0.000085 0.0
0.291859 1.114761 -0.003465 0.0
4.463537 1.802675 0.000471 0.0
1.436506 1.929187 0.001570 0.0
4.166943 1.674216 0.003452 0.0
0.404304 2.047292 0.002456 0.0
3.811248 0.476409 0.001965 0.0
0.332698 0.500418 -0.001166 0.0
0.507300 1.797723 0.000107 0.0
1.497173 1.178553 -0.003234 0.0
3.577134 2.002645 0.001384 0.0
1.379665 1.720403 -0.000625 0.0
2.349273 0.011872 0.002629 0.0
4.407283 0.071842 -0.004100 0.0
0.052204 0.728876 0.001782 0.0
1.919244 1.093782 -0.000296 0.0
1.679952 1.903674 0.000887 0.0
3.415102 1.127431 -0.000271 0.0
1.316016 0.926526 -0.005445 0.0
0.523671 2.066867 -0.002239 0.0
4.171769 2.132282 -0.004197 0.0
3.300930 2.148029 -0.000350 0.0
3.868191 1.714450 0.003249 0.0
0.879566 0.969511 0.003732 0.0
0.049674 1.473853 -0.001438 0.0
2.524121 0.346263 0.000161 0.0
1.875469 1.501655 -0.003637 0.0
2.813225 0.740866 0.000055 0.0
0.832632 1.736590 -0.000563 0.0
0.426678 0.210738 0.000445 0.0
1.888622 1.623802 0.000253 0.0
0.438276 1.762313 -0.002832 0.0
0.805890 1.485692 -0.001022 0.0
0.240292 1.417914 -0.002447 0.0
0.275810 0.100034 0.006639 0.0
3.797328 1.890311 0.002284 0.0
1.728582 0.791776 -0.002004 0.0
3.948859 1.353032 -0.000617 0.0
2.867252 0.711004 -0.001086 0.0
0.952168 1.570965 -0.000028 0.0
2.070630 1.911025 -0.003013 0.0
0.220451 1.188248 -0.000372 0.0
1.006763 1.713015 0.001223 0.0
1.893855 1.758313 -0.001592 0.0
3.496426 0.295992 0.003330 0.0
3.771961 1.786281 0.000863 0.0
0.743299 1.069291 0.005908 0.0
2.470385 1.580842 0.000843 0.0
3.866666 0.360326 0.000653 0.0
3.572629 2.045787 0.002235 0.0
1.462395 1.498345 -0.000075 0.0
0.874402 1.718567 0.000369 0.0
0.246893 2.034287 -0.005129 0.0
2.651420 1.925664 -0.005030 0.0
2.630352 0.017039 0.003330 0.0
0.387235 1.176977 0.000179 0.0
2.538345 1.580842 0.005592 0.0
0.190416 1.268469 -0.001116 0.0
2.992679 0.346858 0.002853 0.0
2.662307 0.743771 0.001554 0.0
2.898222 0.131273 0.000320 0.0
1.141508 1.222615 -0.002888 0.0
0.580267 0.215127 -0.001389 0.0
0.971517 0.991933 -0.003220 0.0
0.982990 0.936942 0.000211 0.0
4.417174 1.083078 0.000988 0.0
0.182118 1.961043 0.000881 0.0
0.749034 1.979762 -0.005639 0.0
0.909566 1.451730 0.001259 0.0
1.542390 0.484466 0.000166 0.0
1.484598 0.664946 0.000957 0.0
1.851234 0.820738 -0.000459 0.0
2.105450 0.117143 0.001152 0.0
0.716141 1.151795 0.000613 0.0
3.118983 0.230802 0.000772 0.0
2.076584 1.679389 0.000431 0.0
1.814886 0.202467 -0.000619 0.0
1.467079 0.525187 -0.002855 0.0
1.256158 1.596932 -0.000738 0.0
0.406913 0.045362 -0.000959 0.0
2.247500 0.408256 -0.000516 0.0
2.575444 1.658941 -0.000926 0.0
4.431506 0.716584 0.002695 0.0
3.147551 0.442936 0.001362 0.0
0.461782 1.293087 -0.000715 0.0
0.752601 1.475566 0.001906 0.0
3.721138 0.030242 -0.002387 0.0
1.895846 1.640707 -0.001140 0.0
0.529266 0.418146 0.003162 0.0
3.072558 2.067790 -0.006305 0.0
0.064843 0.706625 -0.003995 0.0
0.060726 0.187938 -0.001826 0.0
3.144852 0.393569 0.001979 0.0
3.700331 1.756460 0.001715 0.0
1.949131 1.323278 0.004303 0.0
2.131741 1.747966 0.000796 0.0
2.762566 0.435591 0.002675 0.0
0.617896 1.469395 0.003772 0.0
4.308115 1.214166 0.000310 0.0
3.792998 1.667686 0.002508 0.0
3.001766 1.940471 0.008058 0.0
3.100591 0.891532 -0.002398 0.0
3.281569 1.976003 0.000676 0.0
2.882463 0.610238 -0.003270 0.0
2.380058 0.831192 0.001326 0.0
1.165657 1.569038 0.000713 0.0
3.251207 1.380845 0.001661 0.0
2.543593 1.360319 0.000117 0.0
0.180024 0.772928 0.000079 0.0
3.366518 0.014091 -0.003144 0.0
2.365510 1.993702 -0.002470 0.0
0.790055 1.024959 0.005804 0.0
2.790262 1.967164 -0.001553 0.0
0.466994 1.417501 -0.001152 0.0
4.106026 1.168815 -0.003982 0.0
2.744208 2.127975 -0.005246 0.0
2.780532 1.311995 0.002075 0.0
2.614296 2.170319 0.003036 0.0
0.106730 1.817564 0.001122 0.0
1.922472 1.320928 -0.001249 0.0
1.288246 0.382808 0.002483 0.0
0.314385 0.812992 0.002441 0.0
4.471639 0.057411 -0.000683 0.0
0.841038 1.521309 -0.001344 0.0
0.841810 1.915560 -0.000641 0.0
2.330635 0.591898 0.001732 0.0
0.416134 1.068750 -0.002494 0.0
0.459365 0.877192 0.001017 0.0
