0.290574 0.775576 0.002340 0.0
0.701319 0.079151 0.004725 0.0
1.988441 0.170437 -0.002926 0.0
2.825225 0.613178 -0.002702 0.0
2.524494 0.624465 -0.003220 0.0
3.443979 0.214878 0.000556 0.0
0.089799 0.775417 -0.002659 0.0
0.389898 1.519933 -0.000592 0.0
1.690622 0.446632 -0.004912 0.0
3.798663 0.553062 0.003140 0.0
3.403269 0.677509 -0.000931 0.0
1.433010 1.763774 -0.000766 0.0
2.312101 1.752972 0.003236 0.0
4.312222 0.342390 -0.003760 0.0
1.316352 1.540695 0.000647 0.0
0.919259 0.259361 0.002152 0.0
2.881876 0.646886 0.001372 0.0
4.794251 0.306941 -0.004793 0.0
0.547608 1.758951 0.002263 0.0
3.505408 0.812973 -0.001447 0.0
3.828832 0.462174 -0.003844 0.0
3.767275 0.355312 -0.002091 0.0
3.788943 0.417033 -0.001811 0.0
4.437056 0.223326 -0.003809 0.0
2.987135 0.517322 0.005255 0.0
0.273018 0.743339 -0.003778 0.0
1.861293 1.108887 -0.005504 0.0
0.707244 0.885384 0.002366 0.0
2.758255 1.468951 -0.001703 0.0
1.438704 1.711922 -0.002659 0.0
2.705080 0.910077 0.000708 0.0
0.358787 0.802887 -0.005442 0.0
3.954553 0.593205 -0.002966 0.0
4.037636 0.744818 -0.000639 0.0
4.511191 1.384091 -0.001349 0.0
2.645083 0.064838 0.004358 0.0
2.899809 1.242427 0.003912 0.0
2.538638 1.094561 0.002523 0.0
2.768681 0.696087 -0.004266 0.0
4.727847 0.222540 -0.001805 0.0
3.013205 0.120205 0.002105 0.0
2.954719 1.477689 -0.004409 0.0
0.912027 0.103131 0.002833 0.0
1.481365 1.050043 0.004486 0.0
3.739932 1.339073 -0.002700 0.0
3.601945 1.546419 -0.004221 0.0
1.310636 0.303826 -0.000030 0.0
0.289991 0.344282 -0.001697 0.0
2.748570 0.658459 0.000646 0.0
4.659227 0.939845 -0.002164 0.0
0.121751 1.252001 0.003148 0.0
3.226577 0.424298 -0.000685 0.0
4.388612 1.028771 0.000774 0.0
1.354229 0.175982 -0.001168 0.0
2.823753 0.604444 0.000667 0.0
3.209879 0.203361 0.002966 0.0
3.993557 0.890963 0.002928 0.0
1.844057 1.714664 0.004156 0.0
4.540679 0.529786 0.000969 0.0
2.024263 0.430989 0.002045 0.0
2.315931 0.266957 -0.000460 0.0
3.383478 1.001468 0.000498 0.0
1.204051 1.652287 0.001428 0.0
1.958189 0.617894 -0.000231 0.0
3.954150 1.194397 0.001902 0.0
3.829862 1.664591 -0.000749 0.0
3.014879 0.590451 -0.000451 0.0
3.502741 1.455128 0.001118 0.0
1.060637 0.780573 0.002783 0.0
4.620223 1.076087 0.001310 0.0
1.672578 1.532590 0.002922 0.0
4.478433 0.461779 0.002837 0.0
2.197150 1.062785 -0.000044 0.0
1.307976 0.998794 0.005860 0.0
1.503145 1.531345 0.001366 0.0
1.285301 0.867640 -0.002731 0.0
0.789421 0.619731 0.000171 0.0
3.770833 0.552734 0.008281 0.0
1.086122 0.870926 -0.001724 0.0
2.481871 0.229492 -0.001714 0.0
2.633876 1.038052 -0.001444 0.0
1.429134 1.469678 -0.001615 0.0
3.335081 0.439875 0.001732 0.0
2.936835 0.746762 0.000747 0.0
0.227812 1.076799 -0.003455 0.0
2.412680 0.083061 0.003695 0.0
2.490070 0.923129 0.002267 0.0
0.624517 0.388644 -0.001150 0.0
2.779056 0.851427 0.001573 0.0
4.591351 0.333309 0.004472 0.0
0.238747 1.297129 -0.001080 0.0
4.215339 1.612592 0.002060 0.0
3.531382 0.675256 0.001665 0.0
1.539097 1.231833 0.000347 0.0
0.536398 0.268610 0.001753 0.0
4.594466 0.418112 0.004408 0.0
2.377947 0.409208 0.000823 0.0
3.231312 0.749534 0.001041 0.0
1.564014 0.662020 0.000797 0.0
1.198077 1.102882 -0.002939 0.0
4.369688 1.718015 -0.001935 0.0
1.335239 0.696612 -0.003735 0.0
1.968473 0.580338 -0.001100 0.0
2.484816 1.047062 0.007531 0.0
1.627763 0.936275 0.003100 0.0
3.709785 0.835359 -0.000890 0.0
3.250018 0.151722 -0.001319 0.0
3.111233 0.012367 0.001686 0.0
2.933425 0.219872 0.002857 0.0
0.809113 1.214302 -0.000757 0.0
2.563553 1.416022 0.000525 0.0
4.576924 1.017855 0.001644 0.0
0.140443 0.274040 0.000974 0.0
0.891844 1.017313 0.000441 0.0
3.055255 0.115758 -0.002605 0.0
4.406798 0.090853 -0.001680 0.0
3.249116 1.601433 -0.006422 0.0
0.584469 0.938085 0.004539 0.0
1.077397 0.902192 -0.002709 0.0
3.730790 1.334763 -0.000680 0.0
1.011467 1.643960 0.000271 0.0
3.899281 1.683646 0.001613 0.0
1.810750 0.830628 -0.003781 0.0
2.212027 0.387447 -0.002919 0.0
2.810120 1.662497 0.002005 0.0
3.379281 1.290963 0.001717 0.0
1.507943 0.391632 -0.000406 0.0
3.892261 0.220878 0.001704 0.0
4.683837 0.118076 0.001333 0.0
4.067475 1.564804 -0.000410 0.0
4.626241 0.748184 -0.004059 0.0
1.121543 1.095015 0.002098 0.0
4.492217 0.127196 0.003167 0.0
4.506376 1.426360 0.000695 0.0
1.624975 1.052961 0.002800 0.0
2.686542 0.206073 0.001019 0.0
0.611633 0.696529 -0.000066 0.0
1.480196 1.738077 -0.003372 0.0
1.857345 0.420802 -0.001334 0.0
3.908848 0.500733 0.001196 0.0
3.902306 0.702478 0.000184 0.0
3.956510 1.521965 0.001900 0.0
2.612844 0.987750 0.001052 0.0
1.552959 1.472974 0.002733 0.0
0.860355 0.864525 -0.004075 0.0
3.646287 1.394127 0.001302 0.0
2.526403 0.937744 0.001113 0.0
3.121476 1.672664 0.001188 0.0
2.485666 0.287106 -0.001964 0.0
2.544032 1.655462 -0.000047 0.0
0.210205 1.394823 -0.005673 0.0
2.352345 0.977214 0.000562 0.0
1.951422 1.767386 0.000590 0.0
1.818894 1.426350 -0.000809 0.0
4.292835 1.739557 -0.001153 0.0
3.931757 0.677070 0.001209 0.0
1.679627 1.389749 -0.000406 0.0
0.172462 0.498258 -0.002117 0.0
3.681134 1.608563 0.000417 0.0
4.742277 0.840383 0.001044 0.0
4.353085 1.109471 -0.002848 0.0
2.243429 0.005900 -0.001293 0.0
0.512556 0.042183 -0.002368 0.0
1.060682 1.771547 0.000003 0.0
4.005841 1.101160 -0.001012 0.0
4.270961 0.828021 0.001406 0.0
2.413009 1.726893 -0.001649 0.0
1.066836 0.181538 -0.003857 0.0
0.067119 0.354661 0.004438 0.0
1.393276 1.718200 -0.004563 0.0
3.968649 0.820296 -0.000037 0.0
2.591928 1.146004 -0.001952 0.0
4.797251 1.556906 -0.000821 0.0
2.870336 1.398096 0.004444 0.0
0.412653 0.154161 -0.002180 0.0
2.786018 0.472506 -0.001017 0.0
2.979920 1.067949 -0.000461 0.0
2.744549 1.720722 -0.000655 0.0
1.891418 1.410510 -0.000804 0.0
0.053364 1.194191 -0.006478 0.0
4.164331 1.270751 0.000716 0.0
4.347009 0.830536 -0.002914 0.0
0.115236 1.163134 -0.000864 0.0
1.431577 0.701860 -0.003717 0.0
0.171254 0.272611 0.000552 0.0
2.130688 1.498848 -0.001349 0.0
0.415999 0.954459 -0.004477 0.0
4.142116 0.218611 0.003751 0.0
0.379704 1.299142 -0.000961 0.0
2.532452 1.210767 0.001376 0.0
0.424258 0.704285 -0.000550 0.0
3.936383 0.072215 0.002300 0.0
0.549837 0.650466 -0.000357 0.0
3.619392 1.568482 0.001439 0.0
1.595158 0.421989 0.001690 0.0
1.072582 1.423189 -0.000329 0.0
0.714530 1.281461 -0.000085 0.0
1.872958 0.268018 0.001140 0.0
3.276773 0.377906 -0.006323 0.0
3.934240 0.535403 -0.000162 0.0
0.213541 1.683011 0.003049 0.0
4.064818 0.112766 -0.000324 0.0
3.613311 1.299476 -0.001216 0.0
4.268276 0.631341 0.001176 0.0
1.463984 0.707363 -0.001526 0.0
4.577639 1.756430 -0.002178 0.0
1.204185 0.289810 -0.002384 0.0
2.345473 1.379709 0.003091 0.0
4.132736 1.212402 -0.002251 0.0
1.525711 1.646099 0.001273 0.0
3.439889 1.043512 -0.000785 0.0
1.029607 0.331408 0.002696 0.0
1.348544 1.312886 -0.003721 0.0
3.721194 0.035023 0.004841 0.0
0.925583 1.514482 -0.000977 0.0
0.123347 0.077664 -0.000085 0.0
1.985533 0.721213 0.001954 0.0
4.696484 0.383428 -0.005568 0.0
0.106253 0.787247 -0.000813 0.0
0.289349 1.468450 0.000176 0.0
4.126356 0.948995 0.000982 0.0
1.112314 0.709303 0.000631 0.0
2.831979 1.588673 -0.000576 0.0
1.599688 1.660125 -0.000564 0.0
1.087151 0.010672 0.004752 0.0
3.153374 0.959669 0.004268 0.0
0.005342 0.795470 0.001235 0.0
3.286328 1.690947 -0.000048 0.0
4.270259 1.579400 -0.003222 0.0
4.696021 1.756227 -0.000144 0.0
0.198685 1.550731 0.001438 0.0
0.909700 1.029447 0.004422 0.0
4.779235 1.582322 0.002435 0.0
4.079199 0.975470 0.006088 0.0
4.609202 0.693467 -0.001359 0.0
3.996302 0.440312 0.001393 0.0
3.132403 1.285600 0.003377 0.0
3.038881 1.221937 0.002400 0.0
1.853925 0.171075 -0.004348 0.0
1.951015 1.680132 0.002067 0.0
4.600161 1.216385 -0.000719 0.0
4.377818 0.694399 -0.000607 0.0
2.714837 0.001139 0.003038 0.0
0.762234 1.313202 0.003406 0.0
1.111990 0.702475 0.003660 0.0
4.615507 1.426550 0.001676 0.0
1.758058 0.730482 -0.000452 0.0
2.115631 0.203771 0.003269 0.0
2.758590 0.597717 0.001524 0.0
1.677345 1.000167 0.001388 0.0
3.682205 0.190921 -0.003088 0.0
4.267139 0.137088 0.000646 0.0
1.681669 0.650327 -0.002241 0.0
1.976691 0.584356 0.001743 0.0
2.106311 0.861391 0.001100 0.0
0.377470 0.205510 -0.003728 0.0
4.037535 1.707039 -0.000485 0.0
3.155208 0.855748 0.000666 0.0
4.400752 0.057801 0.000802 0.0
2.099065 0.220640 0.003038 0.0
0.591436 0.394124 -0.000644 0.0
2.201666 1.246712 -0.001653 0.0
0.870625 1.358069 0.004212 0.0
1.429020 1.365759 -0.004342 0.0
1.855497 1.078463 -0.003584 0.0
1.207165 1.201649 0.004493 0.0
1.534405 0.042001 0.004527 0.0
4.306945 0.769312 -0.000428 0.0
2.363208 1.188503 0.002269 0.0
0.565813 1.096679 0.000039 0.0
0.982156 0.396050 0.000552 0.0
2.374595 0.499268 0.001905 0.0
2.564566 0.004741 0.001806 0.0
3.428582 0.697577 -0.002254 0.0
3.019001 1.562836 -0.001266 0.0
4.184084 1.774701 -0.001568 0.0
0.108654 0.744641 -0.002245 0.0
4.084935 0.031773 -0.000051 0.0
3.792394 0.096154 -0.001260 0.0
4.149183 0.864072 -0.002116 0.0
2.167297 0.152842 -0.006235 0.0
0.985588 1.019082 -0.000011 0.0
0.882761 0.696546 0.002139 0.0
2.173573 0.945469 0.000318 0.0
3.271958 0.868277 0.000284 0.0
3.443977 0.483018 0.000681 0.0
3.428342 1.576079 0.000928 0.0
2.282614 1.228663 -0.001643 0.0
4.052634 1.182607 -0.002741 0.0
3.460764 1.772644 0.002967 0.0
3.487476 0.586823 -0.002218 0.0
2.981374 0.759500 0.000269 0.0
1.657637 0.561498 -0.002882 0.0
3.051313 0.131110 -0.000165 0.0
1.660017 0.608938 0.004368 0.0
2.597656 0.077972 0.002035 0.0
3.925852 1.340643 0.000344 0.0
2.946695 1.633037 -0.000138 0.0
1.546548 1.098993 -0.005692 0.0
1.819548 1.042728 0.002341 0.0
4.580072 0.228675 -0.002148 0.0
2.685412 0.600987 -0.003412 0.0
3.147279 1.310684 0.002545 0.0
0.248599 1.161124 0.002743 0.0
2.675929 0.067656 0.003742 0.0
1.179008 0.556044 -0.004332 0.0
2.009399 1.775788 0.004854 0.0
3.046582 1.433549 0.001234 0.0
2.924020 1.111092 -0.003470 0.0
1.711343 1.566438 -0.000188 0.0
1.203465 1.239385 -0.000475 0.0
3.264857 1.217350 0.000570 0.0
2.076504 0.141843 -0.001852 0.0
2.423905 0.532929 -0.000756 0.0
4.321154 0.340424 0.000766 0.0
4.411480 0.688897 -0.003667 0.0
3.536769 0.178051 -0.000793 0.0
1.993442 1.188072 0.001430 0.0
1.875726 0.099331 0.001887 0.0
1.974800 1.376230 0.001004 0.0
2.327247 1.035313 0.001944 0.0
4.656248 0.507823 0.002779 0.0
0.529023 1.168303 -0.002152 0.0
3.061415 0.278592 0.001606 0.0
0.058212 1.110895 -0.000198 0.0
3.284562 1.600883 0.005820 0.0
1.759582 0.155217 0.002912 0.0
0.321829 0.553010 -0.000192 0.0
3.758574 0.072503 -0.004925 0.0
1.966140 1.494691 0.003824 0.0
1.822007 1.197114 -0.001880 0.0
3.565004 1.307489 -0.000287 0.0
3.153508 0.409566 -0.000912 0.0
0.922197 1.169725 -0.000570 0.0
0.679600 1.630339 -0.001246 0.0
3.505215 0.708083 0.002069 0.0
2.891318 1.414217 0.003414 0.0
3.735989 0.277307 -0.000934 0.0
4.264286 1.408401 0.001054 0.0
4.574037 0.131216 -0.003494 0.0
0.445049 0.062257 0.001234 0.0
1.664933 0.157044 0.002662 0.0
3.600832 1.156696 0.001985 0.0
1.130845 1.498421 0.000047 0.0
1.027337 1.652548 -0.001039 0.0
4.784469 0.976983 -0.001043 0.0
1.970748 0.922444 -0.002985 0.0
3.393517 1.489494 0.003816 0.0
2.553826 0.630447 0.001753 0.0
1.038619 0.859406 0.001029 0.0
2.441238 0.423299 0.001275 0.0
2.151666 1.425545 -0.000484 0.0
0.391185 0.510512 -0.002744 0.0
3.610782 1.585487 0.001171 0.0
3.609784 0.010112 0.001771 0.0
2.646260 0.781065 -0.000839 0.0
4.447175 0.205513 -0.000915 0.0
3.156389 0.066611 -0.003029 0.0
0.441234 1.282131 0.001200 0.0
3.264653 0.727201 0.000258 0.0
3.347724 1.444512 0.001372 0.0
1.179886 1.682192 -0.001035 0.0
2.986829 0.176519 0.004009 0.0
1.229965 0.040719 -0.002822 0.0
3.905845 0.009680 0.001439 0.0
2.488796 0.407418 -0.001541 0.0
2.794286 1.020713 -0.002018 0.0
3.020221 1.674231 -0.002360 0.0
3.197567 0.874724 0.007590 0.0
3.531756 0.735247 -0.000797 0.0
2.425990 1.297597 0.001402 0.0
2.987679 1.626565 0.002089 0.0
2.728866 0.580829 0.004849 0.0
3.230190 0.347050 -0.002489 0.0
4.133720 0.070707 0.000078 0.0
2.372819 1.471414 -0.003207 0.0
3.032623 0.816235 -0.001140 0.0
4.375778 0.360450 -0.005207 0.0
3.355173 1.047551 -0.000284 0.0
3.847590 0.397779 0.002418 0.0
4.163251 0.908114 0.002989 0.0
1.750655 1.470089 -0.001454 0.0
1.430249 0.056786 0.001244 0.0
0.679171 0.481833 -0.002461 0.0
0.119348 0.707374 0.001800 0.0
3.996662 0.222337 -0.001631 0.0
1.227998 1.013721 0.005601 0.0
1.466897 1.172286 0.000969 0.0
1.027003 0.470429 0.002840 0.0
1.128310 1.757216 -0.002824 0.0
4.317776 1.467247 0.002553 0.0
4.667013 0.617805 0.002277 0.0
1.088603 1.341888 0.002120 0.0
3.956893 1.544290 -0.000710 0.0
3.764211 0.815071 0.007110 0.0
3.186497 0.578397 -0.002264 0.0
4.522728 1.203089 -0.002007 0.0
4.120929 1.431624 0.004224 0.0
0.602015 0.340486 0.001584 0.0
2.910735 0.362234 0.001287 0.0
2.914017 1.078326 -0.005330 0.0
0.566642 1.145898 -0.003101 0.0
3.809335 1.612748 -0.001471 0.0
3.901347 1.188542 -0.003646 0.0
2.471363 1.256004 -0.000847 0.0
2.422119 1.269571 -0.002243 0.0
2.612087 1.584831 -0.000476 0.0
0.735710 0.956992 0.000759 0.0
3.656152 1.752352 0.002193 0.0
4.635032 1.146586 -0.002354 0.0
4.793898 1.394347 0.002167 0.0
2.500401 0.072234 0.002055 0.0
0.056644 1.704885 0.001008 0.0
1.901332 0.315932 -0.000732 0.0
2.223895 1.106770 0.000890 0.0
0.849909 1.394964 -0.000106 0.0
3.936378 0.446772 -0.001833 0.0
0.936768 0.653053 -0.000764 0.0
1.008518 0.704558 -0.005525 0.0
1.650500 1.050060 0.002702 0.0
3.224506 1.178584 0.001604 0.0
4.179937 1.629131 -0.001260 0.0
2.490263 0.472412 -0.002166 0.0
3.649469 1.523088 -0.002661 0.0
4.456051 1.483681 -0.002904 0.0
0.116975 0.406874 0.002031 0.0
1.546459 1.216747 -0.001970 0.0
2.680985 0.626879 -0.002528 0.0
4.125186 1.597899 -0.001348 0.0
3.869039 0.598031 -0.000652 0.0
4.259167 1.140640 0.003186 0.0
2.035739 1.007237 0.002408 0.0
4.359571 0.728423 0.001943 0.0
3.936856 1.166146 -0.003155 0.0
1.699788 1.410355 -0.003563 0.0
4.292425 0.292280 -0.001571 0.0
2.937766 1.756450 -0.003390 0.0
1.401547 0.664555 -0.000979 0.0
2.074892 0.269483 -0.001291 0.0
4.349165 0.221507 0.001625 0.0
2.436875 0.787922 -0.000326 0.0
4.422932 0.329199 -0.003105 0.0
4.421403 0.685775 0.002593 0.0
1.495233 0.143607 -0.002186 0.0
3.686297 1.672572 0.002295 0.0
3.112444 1.044833 0.003286 0.0
1.729039 1.216224 0.001137 0.0
2.247914 1.208043 0.002280 0.0
4.082058 0.556651 -0.001611 0.0
1.504653 0.210452 0.000413 0.0
4.169208 1.510766 0.000098 0.0
2.940940 1.385803 0.000223 0.0
2.305295 0.798452 0.002808 0.0
4.669723 0.230609 -0.003274 0.0
0.560164 1.480860 -0.001030 0.0
3.719602 1.332650 0.000172 0.0
1.576257 0.091367 0.003752 0.0
4.044823 0.145045 -0.000681 0.0
1.816296 0.686904 0.001139 0.0
1.237056 0.070438 0.003048 0.0
1.507751 0.977173 0.004135 0.0
4.734082 1.258297 0.002360 0.0
4.087099 0.183791 -0.002989 0.0
1.137561 0.300140 -0.001717 0.0
1.118364 0.212763 0.002893 0.0
4.719327 0.180627 0.006171 0.0
3.170928 1.561843 0.002327 0.0
4.689664 0.973456 -0.000700 0.0
1.115722 0.011568 0.003264 0.0
3.499558 1.298506 0.004126 0.0
1.516251 1.561976 -0.000836 0.0
0.131701 0.444086 -0.001987 0.0
1.753797 0.722573 0.000939 0.0
1.459597 1.214128 -0.000068 0.0
2.167033 0.350145 0.000540 0.0
3.465356 1.443509 -0.000994 0.0
1.511124 1.440749 -0.000989 0.0
1.226892 0.897906 -0.004102 0.0
1.112610 0.848881 0.000688 0.0
0.137820 0.212875 -0.002200 0.0
2.656171 0.935835 -0.003068 0.0
0.656126 0.733416 0.002507 0.0
4.566308 0.004703 -0.000033 0.0
0.148712 0.105582 -0.001158 0.0
1.065861 0.682467 0.000855 0.0
3.433875 0.017000 0.002674 0.0
1.518504 0.809976 -0.005988 0.0
4.471081 0.118808 -0.003158 0.0
1.457770 1.603713 -0.000835 0.0
0.547431 1.189677 0.000399 0.0
0.029537 1.279604 -0.000809 0.0
2.743519 0.509117 -0.002649 0.0
0.702542 0.605443 0.003384 0.0
3.576509 0.404571 0.001144 0.0
0.332963 0.510436 -0.001803 0.0
1.864358 1.563117 -0.000489 0.0
0.192279 1.220030 -0.001327 0.0
0.072042 1.426045 0.001116 0.0
1.451247 0.898318 -0.004103 0.0
0.105330 1.259962 -0.003811 0.0
1.043650 1.739208 -0.000656 0.0
0.420287 1.313379 -0.003324 0.0
1.430124 1.104480 0.000760 0.0
0.538921 0.071281 -0.000489 0.0
2.934021 0.499485 0.000695 0.0
3.294604 1.272752 0.000164 0.0
3.090142 0.705014 -0.001697 0.0
1.861027 0.135914 -0.004275 0.0
0.281245 0.360585 -0.000362 0.0
1.810919 1.193171 0.002223 0.0
4.679969 0.601068 0.000353 0.0
3.559366 0.263771 -0.000369 0.0
0.879774 1.470046 0.003116 0.0
4.172440 1.554968 0.001484 0.0
4.439698 1.065206 -0.001157 0.0
1.193066 0.075560 -0.001524 0.0
1.967968 0.520333 -0.001181 0.0
3.116188 1.269878 0.000321 0.0
4.389884 0.152579 -0.004704 0.0
4.505670 0.940511 0.001620 0.0
1.288437 0.890897 -0.002238 0.0
1.321050 1.693863 -0.001220 0.0
4.753948 1.335797 -0.000167 0.0
1.158807 1.141148 0.000669 0.0
2.192105 1.007701 -0.000050 0.0
1.224432 1.072555 -0.004198 0.0
3.124086 0.642261 -0.001702 0.0
4.012048 0.347928 0.000857 0.0
3.349657 0.338316 -0.000932 0.0
1.651344 0.170747 -0.004660 0.0
3.953806 0.670126 -0.002824 0.0
3.012449 0.299702 -0.003051 0.0
2.994896 1.222599 0.000534 0.0
3.125573 1.110913 -0.003567 0.0
3.893917 0.685167 -0.004270 0.0
3.914420 0.198969 0.001895 0.0
1.522698 0.912449 -0.002314 0.0
1.313938 0.185011 0.002728 0.0
1.407344 0.116397 0.002381 0.0
1.617021 1.631500 0.005372 0.0
3.815446 1.203261 0.001732 0.0
0.019300 0.897717 0.001427 0.0
2.849434 1.015051 0.001364 0.0
3.033821 0.179049 -0.000551 0.0
1.509417 1.756515 0.001400 0.0
3.812031 1.331627 0.001434 0.0
3.905782 0.257638 -0.002818 0.0
2.839257 1.620392 -0.000325 0.0
4.579653 1.513055 -0.002120 0.0
1.062038 1.436473 0.005531 0.0
3.303815 0.032059 -0.000010 0.0
2.150237 1.340255 -0.000377 0.0
3.999835 1.356867 0.003943 0.0
1.646404 1.001775 0.002960 0.0
2.299403 0.776032 0.001060 0.0
1.895367 0.103948 -0.000504 0.0
2.665869 0.398707 -0.000505 0.0
3.677630 0.669978 -0.001718 0.0
1.605201 0.821877 -0.004700 0.0
1.973756 1.015207 0.003321 0.0
3.904023 0.552926 0.001369 0.0
3.977271 0.013085 0.001580 0.0
2.842305 1.732682 0.003494 0.0
4.347405 1.646344 0.004943 0.0
2.405629 0.382856 -0.001650 0.0
0.460480 0.650396 -0.001263 0.0
2.821312 0.599887 0.006460 0.0
1.590167 0.614478 0.000611 0.0
3.508696 1.169814 0.001967 0.0
0.622454 0.522956 -0.000297 0.0
2.575474 0.761051 0.000722 0.0
0.067983 0.989598 0.003902 0.0
1.829760 0.819002 0.001532 0.0
1.106213 0.299023 -0.001693 0.0
4.465454 0.083419 -0.005595 0.0
4.487737 0.142224 0.000474 0.0
2.185960 0.921354 -0.002471 0.0
3.713796 0.779607 0.004534 0.0
1.178082 0.726280 -0.002163 0.0
3.463220 1.235442 0.000986 0.0
4.180255 0.462633 0.002057 0.0
1.946973 0.365965 0.004664 0.0
3.965112 1.588034 0.002055 0.0
0.025478 0.897134 -0.001055 0.0
1.465399 1.398426 -0.001661 0.0
1.756079 0.008152 -0.001300 0.0
1.506038 0.324559 0.003400 0.0
0.716977 0.883334 0.003376 0.0
4.397442 0.089227 -0.000126 0.0
4.309505 1.656365 -0.001590 0.0
4.407200 0.760490 0.000364 0.0
3.630181 1.316510 -0.002235 0.0
0.325580 1.299778 -0.005005 0.0
1.664075 0.994425 0.001968 0.0
0.480674 0.016683 0.001272 0.0
1.310848 0.311500 -0.000134 0.0
2.566105 0.301853 0.002168 0.0
2.393838 1.567483 0.001838 0.0
1.658609 1.590318 -0.003011 0.0
2.661154 0.710896 -0.000914 0.0
2.908443 1.153109 0.007578 0.0
0.812505 1.553225 -0.000950 0.0
1.133832 1.738529 -0.001508 0.0
3.956182 1.176866 0.003072 0.0
0.694999 0.623178 0.004013 0.0
2.929759 0.226723 -0.002288 0.0
1.220240 1.304268 0.000466 0.0
4.407193 1.180928 -0.003920 0.0
0.159791 0.891202 0.000765 0.0
2.960854 0.975207 -0.000787 0.0
0.111354 1.163771 0.001358 0.0
3.289947 0.156791 -0.000609 0.0
0.464647 1.603679 0.003487 0.0
3.374806 0.192825 0.002401 0.0
0.718532 0.417926 0.000081 0.0
3.643356 1.465380 -0.004087 0.0
3.276617 0.944710 -0.000149 0.0
2.659371 1.229864 0.000740 0.0
0.716474 1.343658 0.001682 0.0
3.376259 0.063736 0.001281 0.0
2.703508 0.578092 -0.006596 0.0
1.130506 1.658472 -0.002609 0.0
2.763984 0.425177 0.002039 0.0
0.709306 1.555843 -0.000112 0.0
2.002863 1.114624 0.007920 0.0
2.612107 0.437853 -0.001491 0.0
3.038684 0.247595 0.005322 0.0
1.708781 0.021769 -0.002800 0.0
4.627715 0.124934 0.003260 0.0
4.218117 0.349259 0.000013 0.0
1.827510 1.504543 -0.001341 0.0
1.549618 0.814477 -0.003769 0.0
1.431817 0.955867 -0.004704 0.0
3.821934 1.030067 0.000363 0.0
4.738289 0.703914 -0.002283 0.0
3.063803 0.389906 0.002479 0.0
1.058626 0.471955 0.000825 0.0
2.664302 1.282417 -0.001729 0.0
0.107245 0.236662 -0.001535 0.0
1.487965 1.386954 -0.001306 0.0
4.104250 0.792144 -0.005928 0.0
2.380186 1.728442 -0.001021 0.0
2.891332 0.117028 0.000191 0.0
3.588926 1.124412 0.001676 0.0
3.178624 0.425313 0.004068 0.0
4.455669 1.464147 0.002397 0.0
4.475535 1.552998 0.000904 0.0
2.476236 1.276538 -0.004317 0.0
0.015588 0.070610 -0.006072 0.0
1.251653 0.756553 -0.004270 0.0
0.840454 0.241893 -0.001300 0.0
4.105485 1.773126 0.000592 0.0
2.329287 0.615995 0.005114 0.0
2.128373 1.130068 0.001322 0.0
3.354424 0.361912 0.003529 0.0
0.821408 0.803778 -0.000225 0.0
4.755447 0.441804 -0.001743 0.0
2.156709 1.671864 -0.000863 0.0
0.527328 1.452065 0.005341 0.0
2.561778 0.157236 -0.002014 0.0
1.699824 0.400176 -0.001964 0.0
2.915047 0.399845 -0.001699 0.0
3.518153 0.890560 0.005951 0.0
4.276640 1.761081 0.001808 0.0
3.521974 1.267568 0.000905 0.0
2.290302 1.213424 -0.007465 0.0
3.888011 1.752465 -0.004455 0.0
0.046161 0.764389 0.001578 0.0
0.938587 0.163475 -0.000186 0.0
2.807730 0.560741 0.001792 0.0
3.921153 0.473057 0.003820 0.0
4.695897 1.325293 -0.003930 0.0
0.073229 1.345491 -0.000512 0.0
3.939367 0.056703 0.002521 0.0
2.200797 0.214119 0.000062 0.0
2.032682 0.813747 -0.001697 0.0
0.721382 0.238041 0.001441 0.0
0.787485 0.452057 -0.000967 0.0
1.204705 0.299105 -0.003983 0.0
4.143636 0.514441 -0.003835 0.0
4.554925 1.620696 -0.000944 0.0
2.295558 1.175762 -0.005628 0.0
2.520561 1.131528 0.000825 0.0
4.142783 0.483622 0.001841 0.0
0.009015 1.560220 0.002855 0.0
0.255904 0.513301 -0.005940 0.0
2.015915 0.810066 0.000489 0.0
2.584363 0.172499 0.001437 0.0
3.719443 0.144960 -0.002684 0.0
0.894078 1.239322 0.004470 0.0
0.089979 1.250703 -0.003273 0.0
2.752328 1.587404 0.002411 0.0
4.402820 0.036540 0.000935 0.0
1.409090 0.251315 -0.000496 0.0
3.696920 1.463157 -0.003430 0.0
0.311386 0.088934 -0.001249 0.0
1.721122 0.193494 -0.000584 0.0
4.327386 1.602612 -0.002044 0.0
1.269851 0.040707 0.001429 0.0
0.047383 1.483515 0.001919 0.0
1.960098 1.045044 -0.003755 0.0
1.779655 0.182616 0.000378 0.0
2.939356 0.680244 0.001173 0.0
3.231669 0.675737 0.001080 0.0
0.202823 1.761708 -0.000594 0.0
3.199007 0.732454 -0.005780 0.0
3.886657 0.105503 -0.001118 0.0
3.681083 0.543884 0.003794 0.0
2.481979 1.638164 0.002014 0.0
1.560210 0.283136 -0.001467 0.0
3.193913 1.420637 0.001222 0.0
4.281965 1.626626 -0.002067 0.0
1.245471 1.517281 0.002103 0.0
1.439304 0.016038 -0.003536 0.0
3.648495 1.702769 0.002834 0.0
0.235827 1.270615 0.000973 0.0
0.287621 1.673177 -0.001891 0.0
0.106268 1.750052 -0.000751 0.0
1.791746 1.734686 0.001165 0.0
2.177971 1.233059 0.003327 0.0
0.858709 0.332500 0.000340 0.0
0.166049 0.836096 -0.004556 0.0
2.813093 0.780966 0.000787 0.0
2.480408 0.045858 -0.000641 0.0
0.795701 0.229059 0.001638 0.0
2.986834 0.981791 0.001850 0.0
4.066593 0.884434 0.001440 0.0
0.688016 1.269905 0.002730 0.0
2.005398 0.378777 -0.000705 0.0
2.386265 0.445737 0.001729 0.0
1.900624 1.085308 -0.000440 0.0
4.679476 1.124505 -0.000886 0.0
2.830753 1.404796 -0.003986 0.0
3.739715 0.240616 -0.000812 0.0
1.433470 1.552390 -0.002580 0.0
0.273095 0.522162 0.000873 0.0
3.039589 1.528987 0.001274 0.0
3.615209 1.488638 -0.001775 0.0
2.234096 1.566677 0.000889 0.0
3.326664 1.316225 -0.000454 0.0
2.640062 0.472968 -0.000212 0.0
3.179378 0.048258 0.003315 0.0
2.083233 1.072656 -0.000132 0.0
1.590666 0.472134 -0.003724 0.0
1.414104 1.517484 0.002801 0.0
3.856731 0.942850 -0.002648 0.0
1.175307 1.032403 0.002784 0.0
1.171726 1.748658 0.003269 0.0
1.239047 0.162156 0.001470 0.0
2.788047 1.251435 0.001922 0.0
1.670051 0.266112 0.000141 0.0
2.003271 1.691254 0.003155 0.0
3.468235 0.165755 -0.001348 0.0
3.845464 1.058394 -0.003543 0.0
0.263236 0.857603 0.001414 0.0
1.719383 0.555677 -0.002801 0.0
2.771100 1.167013 0.002988 0.0
0.208984 0.380112 0.000380 0.0
3.045287 0.134717 -0.002052 0.0
1.493385 0.142144 -0.004089 0.0
4.057573 0.959000 -0.001649 0.0
3.781373 0.698413 0.002274 0.0
0.194469 1.559402 0.001414 0.0
0.219064 1.441182 -0.002838 0.0
4.055336 1.344504 0.002967 0.0
4.364555 0.072555 -0.006161 0.0
4.023586 0.906491 0.003062 0.0
0.830460 0.846265 -0.001335 0.0
3.301620 0.480176 -0.002458 0.0
3.670782 0.952955 -0.000475 0.0
1.374629 1.244790 -0.000656 0.0
0.031794 0.697602 -0.000226 0.0
1.279252 0.979300 0.002553 0.0
1.343068 1.448599 -0.001156 0.0
1.853717 1.084031 -0.002169 0.0
1.328765 0.985711 0.001220 0.0
0.518669 1.372456 -0.001724 0.0
2.473087 1.474783 0.001440 0.0
4.034046 1.664444 -0.002100 0.0
4.416215 1.075156 0.001988 0.0
3.659805 0.321990 -0.000699 0.0
2.239263 0.880874 0.001825 0.0
3.271547 0.763943 0.000897 0.0
3.258271 0.922128 -0.001854 0.0
3.264522 0.258736 -0.002565 0.0
3.442751 1.430364 0.005774 0.0
0.046724 0.031547 0.000560 0.0
4.765824 0.113076 0.001109 0.0
1.710545 0.602433 -0.000271 0.0
2.557299 0.878068 0.004188 0.0
2.565821 0.978613 0.003526 0.0
4.450023 1.354018 -0.001806 0.0
2.885931 1.586707 0.002113 0.0
3.295791 0.063588 0.004740 0.0
0.245385 1.463142 -0.004545 0.0
0.399423 0.324448 0.000861 0.0
0.165361 -0.000912 -0.003043 0.0
2.495597 1.696107 -0.000633 0.0
1.102369 0.336074 0.000260 0.0
3.106397 1.615106 -0.002522 0.0
0.603118 0.153922 -0.001356 0.0
3.973864 0.039834 0.000855 0.0
1.841674 1.620342 0.003251 0.0
3.703203 1.450469 0.005378 0.0
3.964497 0.598363 0.003965 0.0
3.411445 1.331036 0.003049 0.0
4.542803 1.512406 -0.002399 0.0
1.310577 1.335511 -0.003695 0.0
4.369085 1.080952 -0.000157 0.0
0.784729 0.213159 0.004950 0.0
2.149322 0.784409 0.002595 0.0
3.608736 1.608303 -0.003350 0.0
0.922926 1.638655 -0.004171 0.0
0.657074 0.301323 0.000813 0.0
2.769418 1.071573 0.001191 0.0
0.864586 0.504945 0.003226 0.0
2.534951 0.314759 -0.004949 0.0
4.152321 1.742020 0.002279 0.0
0.982749 0.914195 0.000205 0.0
0.210263 0.676510 -0.003360 0.0
0.544119 1.619298 -0.004053 0.0
4.793674 0.065900 0.000442 0.0
2.963723 1.151530 0.000828 0.0
3.837719 0.691051 0.003652 0.0
1.879082 1.231967 0.003486 0.0
2.025460 1.420731 -0.001748 0.0
3.945893 1.082630 0.003659 0.0
0.756515 1.441188 -0.003678 0.0
3.455385 0.512329 -0.002959 0.0
0.511337 1.340123 -0.000732 0.0
3.924358 1.738864 0.003231 0.0
4.173461 1.626040 0.004902 0.0
3.415283 0.875092 0.001803 0.0
1.374723 0.945653 -0.006282 0.0
3.598742 0.775419 -0.000830 0.0
0.542830 1.361030 -0.001810 0.0
4.529533 1.196379 -0.002405 0.0
3.427572 0.076438 -0.000760 0.0
3.552538 1.371722 0.001754 0.0
0.756813 0.447892 -0.000231 0.0
3.858623 0.347913 -0.003009 0.0
3.466361 1.111685 0.004078 0.0
3.251247 0.426278 0.000453 0.0
4.377248 1.049969 -0.005465 0.0
1.429361 0.212392 -0.002829 0.0
3.130349 1.767963 0.003351 0.0
1.972530 1.277043 0.002028 0.0
2.379351 1.184066 -0.002903 0.0
4.329479 0.307130 0.000753 0.0
0.791863 0.130551 0.003287 0.0
1.186367 0.363318 0.001565 0.0
0.968563 0.355570 0.000322 0.0
0.557299 0.076281 0.000218 0.0
1.818196 0.552070 0.000794 0.0
4.249136 0.557161 -0.004645 0.0
2.828399 0.343104 0.001478 0.0
1.296960 0.432386 0.000827 0.0
0.709259 0.737332 -0.002245 0.0
3.947931 0.151008 0.003491 0.0
4.240166 1.541402 -0.000864 0.0
3.936611 0.546413 -0.000718 0.0
4.348343 0.530231 0.006182 0.0
3.158433 0.731534 -0.001125 0.0
2.260145 1.324067 -0.001546 0.0
3.584204 0.800441 -0.001986 0.0
1.202685 1.107476 0.003021 0.0
1.371975 0.812311 -0.001453 0.0
3.884865 1.368974 -0.002707 0.0
0.693248 0.546791 0.001340 0.0
3.613245 0.344541 0.000301 0.0
3.995026 0.584855 0.001299 0.0
4.782392 0.495765 0.002775 0.0
0.114439 0.070265 0.001348 0.0
1.565030 0.294216 -0.001124 0.0
2.174105 1.629082 -0.003485 0.0
2.903819 0.098599 0.002823 0.0
3.544621 0.209453 -0.000652 0.0
4.736539 0.837513 0.002547 0.0
2.557693 1.571962 -0.002846 0.0
4.152842 0.450530 0.000652 0.0
2.426153 0.212863 -0.000289 0.0
3.286525 1.582938 0.002834 0.0
3.717134 0.090601 0.000008 0.0
3.373572 1.356859 -0.002930 0.0
1.910906 0.941059 0.000798 0.0
0.860045 1.568071 -0.001328 0.0
2.062966 0.889409 -0.001400 0.0
1.533642 0.240482 -0.001499 0.0
0.302339 0.299683 0.001225 0.0
1.493993 0.284059 -0.001544 0.0
0.450797 1.353105 -0.001975 0.0
2.721945 1.207079 0.001147 0.0
1.217926 0.426342 0.000241 0.0
4.094753 1.272729 0.005572 0.0
1.196141 0.150919 0.003503 0.0
0.346914 0.313022 -0.004107 0.0
2.430291 0.559205 0.002730 0.0
2.234183 0.145779 -0.002644 0.0
2.707661 0.816154 -0.001570 0.0
0.701297 0.093617 -0.003143 0.0
0.950114 0.676654 -0.003651 0.0
3.160539 1.165045 0.002968 0.0
2.497380 1.353633 0.001751 0.0
0.331518 1.353076 -0.004838 0.0
2.142357 1.430799 -0.003804 0.0
4.374564 0.556079 -0.003584 0.0
3.698752 1.687005 -0.002331 0.0
1.631208 1.007204 -0.002221 0.0
0.888372 0.884753 -0.002011 0.0
2.471023 0.428976 -0.002650 0.0
1.030237 0.606975 0.000384 0.0
1.521672 1.473357 -0.001294 0.0
3.131808 0.583640 0.002749 0.0
2.616416 0.058634 0.003199 0.0
2.327520 0.347577 -0.001138 0.0
2.432940 1.555625 -0.006284 0.0
1.216990 1.537758 -0.001722 0.0
0.354134 1.530737 0.004291 0.0
2.149283 0.604787 0.001793 0.0
2.513692 0.712982 -0.000973 0.0
3.658155 1.775612 0.003714 0.0
4.662249 1.655726 -0.000208 0.0
3.066120 0.467733 -0.002034 0.0
3.778228 0.430855 -0.005111 0.0
2.704687 1.644257 0.005231 0.0
2.961318 1.004879 -0.000241 0.0
2.253165 1.273315 -0.003338 0.0
2.375857 0.653002 0.001177 0.0
4.640671 0.894415 -0.000403 0.0
3.522820 1.584630 0.002024 0.0
0.344008 1.061413 0.001727 0.0
3.126126 0.804046 -0.000191 0.0
4.623924 1.638428 -0.000024 0.0
3.226889 1.763268 -0.000447 0.0
4.680996 0.366292 -0.002880 0.0
2.631204 0.348310 0.001230 0.0
4.252350 1.057735 0.000464 0.0
1.120441 0.308066 -0.001294 0.0
0.989418 0.948303 0.001931 0.0
1.867568 0.463601 0.000770 0.0
0.178193 0.912907 -0.000322 0.0
0.489274 1.678742 -0.003488 0.0
1.739332 1.374709 -0.000105 0.0
1.970154 0.500031 0.000173 0.0
0.321716 0.113292 -0.004986 0.0
4.230476 1.543006 -0.001356 0.0
0.197489 1.504670 -0.000735 0.0
2.531747 0.483401 0.000132 0.0
0.867358 0.589785 -0.001047 0.0
0.635144 0.992764 0.001965 0.0
3.419077 0.316282 0.000939 0.0
3.926971 1.234221 -0.003579 0.0
4.627961 1.061127 0.003869 0.0
3.246391 0.381024 -0.001380 0.0
1.672028 1.144484 -0.000481 0.0
3.660257 0.658290 0.001414 0.0
4.466016 0.393542 0.001079 0.0
0.675813 1.038913 -0.001043 0.0
1.859524 0.809548 0.002224 0.0
3.041009 0.937510 -0.000894 0.0
3.613679 0.368569 -0.002135 0.0
1.163572 1.331044 -0.006591 0.0
4.516146 0.838975 -0.001859 0.0
1.655466 1.490851 0.004071 0.0
4.499390 0.021408 0.001487 0.0
2.016589 1.721338 0.000146 0.0
3.188495 0.447714 0.003005 0.0
4.047537 0.984054 -0.001490 0.0
1.466140 1.108526 0.000155 0.0
2.547578 1.444680 -0.002881 0.0
1.643759 0.743312 0.005466 0.0
3.554513 0.290688 -0.005356 0.0
3.307252 1.031645 -0.001673 0.0
0.033947 1.265374 0.001176 0.0
0.421736 1.505875 -0.000113 0.0
4.533667 0.629885 -0.000938 0.0
0.631150 0.568690 -0.001117 0.0
3.337868 1.022039 -0.000620 0.0
1.784028 1.181965 0.001507 0.0
0.411675 0.745380 -0.002318 0.0
4.610838 0.279532 -0.002938 0.0
4.048327 1.389703 0.000758 0.0
1.023720 0.072181 0.001275 0.0
0.280455 0.009216 0.002131 0.0
0.998047 0.504246 0.000717 0.0
1.231868 0.731652 -0.004200 0.0
2.515013 0.776230 -0.000542 0.0
0.219730 1.258826 -0.001344 0.0
1.907000 1.095741 -0.004639 0.0
4.239803 0.361769 0.004066 0.0
4.019700 0.745685 0.007927 0.0
1.494636 0.956465 -0.005522 0.0
3.448188 0.471019 -0.002916 0.0
2.162539 0.633621 0.004879 0.0
4.575833 1.501208 -0.004887 0.0
3.974878 0.619603 -0.000493 0.0
0.434667 0.728944 0.000663 0.0
0.974714 1.122729 0.001059 0.0
2.481450 1.139756 -0.001222 0.0
0.829859 0.308495 -0.001120 0.0
2.386447 0.464201 0.002179 0.0
4.353594 1.425437 -0.001873 0.0
3.345025 0.529439 0.001973 0.0
0.429714 1.458986 -0.001153 0.0
0.565804 0.787038 0.003184 0.0
4.083245 0.149629 0.001121 0.0
3.272221 1.162798 -0.003221 0.0
2.893646 1.620451 -0.001579 0.0
1.599177 1.721706 -0.001800 0.0
4.273052 1.447470 0.001418 0.0
0.876734 0.939114 0.004787 0.0
2.897862 0.367364 0.005508 0.0
4.504876 1.173745 -0.001742 0.0
2.287511 1.196741 -0.000564 0.0
3.511933 0.863390 -0.000951 0.0
0.557557 1.548429 0.001822 0.0
3.457774 0.360115 0.000322 0.0
1.222653 0.622621 -0.001334 0.0
0.363790 1.429377 0.002006 0.0
2.098822 0.223716 -0.000980 0.0
4.573372 0.667201 0.004155 0.0
0.448936 0.502318 0.002585 0.0
0.423261 1.683065 -0.000633 0.0
4.412854 0.451342 0.003810 0.0
1.004692 0.657937 -0.002137 0.0
1.090056 0.942758 0.003590 0.0
4.734385 1.483967 -0.001922 0.0
0.657668 1.039175 -0.002222 0.0
1.200647 1.043425 -0.002994 0.0
1.631075 0.274649 -0.003589 0.0
0.125896 0.360590 0.000490 0.0
0.541477 1.658640 0.000140 0.0
0.699945 0.174511 0.000931 0.0
1.165740 0.748178 0.002084 0.0
2.112626 1.518716 -0.001708 0.0
0.095039 0.486416 0.000236 0.0
1.661808 1.716502 0.005090 0.0
1.385965 0.414075 0.002929 0.0
3.352760 0.525911 0.005250 0.0
1.744879 1.256589 0.000941 0.0
3.327666 0.622701 0.004669 0.0
3.391094 1.384770 -0.000268 0.0
3.239852 1.642299 -0.000591 0.0
2.583388 1.565454 0.000572 0.0
4.644664 0.131618 -0.004888 0.0
1.144200 0.882803 0.001097 0.0
3.921214 0.683736 -0.000348 0.0
2.023508 1.106202 0.001737 0.0
3.317856 0.242261 -0.002716 0.0
0.384234 0.424625 0.000945 0.0
3.898112 1.388945 -0.006128 0.0
0.367256 0.839669 0.001622 0.0
2.479860 0.421772 0.002253 0.0
3.989883 1.071952 -0.000314 0.0
1.916444 1.744133 0.003333 0.0
1.819439 0.080307 -0.002732 0.0
2.133137 0.147824 0.002620 0.0
1.342857 0.719047 -0.002242 0.0
4.321072 1.412475 0.002012 0.0
3.153363 1.491427 0.003701 0.0
4.748315 1.095761 -0.003140 0.0
3.182015 0.445332 -0.000064 0.0
3.742515 0.099469 0.001740 0.0
2.563179 1.400703 -0.002004 0.0
1.142171 0.822947 -0.000741 0.0
3.870789 0.372398 -0.001877 0.0
3.655068 0.146141 -0.000381 0.0
2.026808 0.769293 0.000587 0.0
4.158185 1.401886 0.004219 0.0
1.136153 1.186748 -0.001077 0.0
0.874989 0.541435 0.003120 0.0
0.874275 0.654341 0.000755 0.0
1.197071 1.009341 -0.000441 0.0
0.189359 0.963313 0.002643 0.0
1.312391 1.156508 -0.003952 0.0
1.203169 1.056607 -0.002345 0.0
4.289232 1.519770 -0.002723 0.0
2.567325 0.977252 -0.001149 0.0
4.561766 0.239686 -0.003961 0.0
0.933427 1.663414 0.005130 0.0
0.441110 1.713523 0.002391 0.0
1.413977 0.359076 0.000692 0.0
1.518472 0.087230 -0.003150 0.0
3.642230 1.066244 0.001944 0.0
3.793678 1.039801 0.001846 0.0
4.167724 1.626630 0.001415 0.0
1.833132 1.119342 0.000272 0.0
0.094967 1.333687 -0.002248 0.0
2.124531 0.881848 -0.001021 0.0
0.889225 0.646255 0.000981 0.0
1.427784 0.610800 0.000068 0.0
3.335379 0.826243 0.001308 0.0
3.951253 0.401288 -0.004846 0.0
3.035826 1.330612 0.001816 0.0
0.298100 0.529127 -0.000663 0.0
0.710955 1.340966 0.002057 0.0
3.000175 0.029972 0.005413 0.0
1.491541 0.541840 -0.001690 0.0
3.970579 0.446824 0.000389 0.0
4.057082 1.641871 0.001004 0.0
0.725293 0.303768 0.001758 0.0
4.432629 0.386415 -0.000816 0.0
2.041137 1.659840 -0.000618 0.0
0.594586 0.539925 0.002323 0.0
0.061121 1.743247 -0.003489 0.0
3.114213 0.054842 -0.000047 0.0
4.737255 1.636959 0.001069 0.0
3.062717 0.755043 -0.001490 0.0
0.559881 1.356807 0.002523 0.0
4.165318 0.611684 -0.000665 0.0
0.786189 1.745650 -0.001979 0.0
1.649408 1.763786 -0.002132 0.0
3.614901 1.392094 -0.000903 0.0
2.582849 0.232861 0.001158 0.0
1.230756 0.225197 0.002490 0.0
2.635934 0.794573 0.004118 0.0
3.034658 1.536650 -0.000368 0.0
0.401492 1.307313 -0.000169 0.0
3.035257 1.539548 -0.000596 0.0
3.131617 0.434685 0.001651 0.0
2.314525 0.867081 -0.001219 0.0
2.409432 0.584414 0.003475 0.0
4.467892 1.707831 0.001859 0.0
1.479684 0.365232 0.000808 0.0
3.939261 1.015503 0.001832 0.0
3.568321 0.639840 -0.000905 0.0
3.487059 1.009744 -0.001465 0.0
0.490584 1.169135 0.004327 0.0
2.866784 0.266777 0.000693 0.0
0.904336 0.683098 0.000724 0.0
4.680546 0.793729 0.000173 0.0
4.771205 0.460518 -0.002295 0.0
1.842331 0.349158 0.000909 0.0
1.696625 0.332220 0.001588 0.0
2.769950 0.909159 0.000025 0.0
4.476391 0.160305 -0.005371 0.0
1.730438 0.384414 -0.000544 0.0
2.212682 0.569045 0.001198 0.0
2.549602 0.039817 -0.000134 0.0
4.010743 1.269407 -0.003068 0.0
4.013679 0.380487 -0.002197 0.0
2.974550 1.224468 -0.000850 0.0
4.763731 0.840233 -0.000245 0.0
1.864418 0.980726 -0.000344 0.0
3.043257 0.556788 -0.004431 0.0
3.849905 0.069888 -0.002668 0.0
4.560363 0.635865 -0.001182 0.0
2.903617 0.945376 -0.001984 0.0
4.060143 0.195941 -0.001853 0.0
4.371269 0.514407 -0.001062 0.0
3.002753 0.049842 0.000225 0.0
0.683968 0.425473 0.000660 0.0
1.271948 0.892052 -0.003948 0.0
2.890368 1.260171 0.000158 0.0
1.741125 0.451441 -0.000001 0.0
2.280744 1.036908 0.004485 0.0
0.405466 0.501273 0.000635 0.0
3.395856 0.654019 -0.001292 0.0
1.900627 0.667432 0.000397 0.0
0.634003 0.008343 0.000936 0.0
3.791299 1.635924 -0.000501 0.0
3.431156 1.772248 0.001294 0.0
4.395511 0.745215 0.000198 0.0
0.090549 0.047209 0.004643 0.0
4.313585 1.553377 -0.004533 0.0
1.229099 1.281085 -0.000489 0.0
3.632133 1.255431 0.001477 0.0
1.134787 0.914487 -0.000583 0.0
2.696906 0.401818 0.001891 0.0
0.006127 0.549522 -0.000884 0.0
4.010132 0.520783 0.000319 0.0
1.515791 0.124412 0.001494 0.0
3.768343 0.524421 -0.003155 0.0
1.795935 1.694774 -0.001464 0.0
2.124734 1.544305 -0.001295 0.0
3.155437 0.183795 0.000046 0.0
3.875672 0.249363 0.000473 0.0
4.593181 0.121075 -0.003393 0.0
4.604371 0.752251 -0.006482 0.0
0.180996 0.501465 -0.005021 0.0
3.631028 0.361175 -0.000338 0.0
3.556707 1.119679 0.001962 0.0
1.102575 0.555128 -0.000538 0.0
1.843642 0.590548 -0.001145 0.0
1.023803 1.596845 0.001644 0.0
1.762662 1.432725 0.000473 0.0
2.947468 1.492816 -0.002266 0.0
4.463029 1.127282 -0.002361 0.0
3.940026 1.076544 -0.000445 0.0
0.713466 1.265562 0.000919 0.0
4.021628 1.331853 0.002022 0.0
4.141773 1.318468 0.002282 0.0
3.085779 0.202612 -0.003003 0.0
1.383008 0.195921 0.002557 0.0
4.415471 0.544857 -0.001195 0.0
4.411021 1.315173 0.005229 0.0
2.497670 0.360929 -0.001146 0.0
4.751587 0.026665 -0.000504 0.0
2.901381 0.067839 -0.005394 0.0
0.701091 0.033971 0.001470 0.0
1.117424 1.758500 -0.002458 0.0
3.653430 1.488711 0.005207 0.0
4.383256 0.014654 0.001460 0.0
2.776371 1.638959 0.001013 0.0
2.428923 0.838702 0.001452 0.0
0.724814 1.010317 -0.006045 0.0
1.303670 1.126492 0.000476 0.0
0.850593 0.349789 -0.001278 0.0
4.695616 1.647973 -0.003117 0.0
3.603181 1.430402 -0.000429 0.0
2.800886 1.335121 -0.001513 0.0
4.012253 0.983272 -0.001037 0.0
1.643120 1.185772 -0.000541 0.0
4.443370 0.219692 0.001394 0.0
3.103797 0.049012 -0.001237 0.0
4.313623 1.311004 -0.000490 0.0
0.970293 0.579476 0.001178 0.0
0.318352 0.916518 0.001194 0.0
2.484911 0.351551 0.001466 0.0
0.169533 0.293565 -0.001151 0.0
3.442795 1.473124 0.003647 0.0
4.097804 1.515091 -0.001096 0.0
3.473610 0.566672 -0.003096 0.0
3.345742 0.251157 0.000328 0.0
3.608403 0.483338 -0.002777 0.0
4.292740 0.764174 0.002733 0.0
1.722733 0.038781 0.001068 0.0
4.405183 1.442160 0.000594 0.0
1.469336 0.752682 0.004348 0.0
1.905997 1.471076 0.002961 0.0
3.449518 0.081005 0.004213 0.0
3.554180 0.076827 -0.000408 0.0
4.166870 0.256849 0.000064 0.0
0.076622 1.295264 0.002966 0.0
3.740537 0.400615 0.000567 0.0
3.382099 0.234496 0.001174 0.0
1.118049 0.650761 0.001567 0.0
2.230549 0.338339 -0.002254 0.0
0.322701 1.522292 -0.002993 0.0
2.098213 0.764477 0.003399 0.0
2.746763 0.945029 -0.003825 0.0
3.811266 0.132042 -0.003666 0.0
3.750471 0.304055 -0.003510 0.0
4.654538 1.720035 0.000768 0.0
0.636751 0.502056 -0.000420 0.0
4.155950 1.648231 0.003375 0.0
0.825340 1.039091 -0.000211 0.0
0.338416 0.318684 0.001462 0.0
0.239679 1.150004 0.002236 0.0
4.293867 0.844755 -0.001340 0.0
3.453445 1.367916 0.002234 0.0
1.504522 1.766058 -0.004012 0.0
0.990528 0.159198 -0.000384 0.0
4.576417 1.345274 0.000740 0.0
3.765119 1.350710 0.002893 0.0
2.601236 1.450415 0.000373 0.0
2.365082 1.604363 -0.002537 0.0
2.296733 1.405463 0.000037 0.0
4.607809 0.332857 -0.006370 0.0
1.838494 0.249294 -0.002616 0.0
3.456879 0.745535 0.000872 0.0
2.643768 0.755366 0.001591 0.0
0.712395 1.315322 -0.000989 0.0
4.566327 0.404018 -0.001665 0.0
3.665466 1.265817 -0.002254 0.0
1.343811 0.343021 0.000493 0.0
0.349423 0.869662 0.000767 0.0
2.129719 1.648572 0.002288 0.0
4.768747 1.023793 0.000043 0.0
1.022394 0.208101 -0.000608 0.0
2.890140 1.497478 -0.003207 0.0
0.179362 0.654356 -0.003974 0.0
2.976247 1.526392 -0.003502 0.0
4.570886 0.971794 -0.002380 0.0
0.286854 0.671853 0.001650 0.0
0.111075 1.748662 -0.002682 0.0
1.424213 1.047703 -0.002154 0.0
0.310736 1.563671 -0.000977 0.0
4.633088 0.507793 -0.001142 0.0
2.029873 1.172590 0.000664 0.0
0.003424 0.645107 -0.001600 0.0
4.797761 1.113361 0.000778 0.0
1.978344 0.312069 0.006387 0.0
3.299022 1.746327 0.001393 0.0
0.920041 1.516936 -0.002400 0.0
2.009472 0.853258 0.002631 0.0
2.207402 0.611944 -0.001642 0.0
4.770686 1.563320 -0.003443 0.0
1.254673 1.388010 -0.002959 0.0
0.469024 1.145025 -0.000028 0.0
2.299957 0.840208 -0.001318 0.0
4.184247 1.198393 -0.004002 0.0
2.759482 0.751646 -0.001870 0.0
3.145752 0.228420 -0.003120 0.0
4.554550 0.721709 -0.000727 0.0
3.102781 0.767912 0.001027 0.0
2.456749 1.108386 0.000332 0.0
2.140891 0.739512 0.000054 0.0
2.337993 0.759776 0.003106 0.0
1.690941 0.462895 -0.001480 0.0
2.772337 0.545511 0.000291 0.0
2.085883 0.923703 0.000393 0.0
2.900967 1.184863 0.000834 0.0
1.047544 0.849911 0.001488 0.0
3.977154 0.894565 0.001825 0.0
3.137491 1.600872 0.001047 0.0
1.809447 0.114610 0.004571 0.0
0.828232 0.829225 0.000311 0.0
2.260221 0.381196 -0.000415 0.0
4.319806 1.577354 -0.001906 0.0
4.604474 0.498944 -0.002242 0.0
3.319904 0.458873 0.003379 0.0
4.623041 1.143783 0.000619 0.0
2.115738 0.292977 -0.000827 0.0
1.874387 1.508775 0.001069 0.0
1.889603 0.602762 0.001815 0.0
1.514804 1.049295 0.000325 0.0
0.101848 0.607718 0.000056 0.0
1.123988 0.702212 0.002879 0.0
2.288536 1.095200 0.001047 0.0
4.113112 0.855408 0.002483 0.0
2.386400 1.369337 0.002172 0.0
4.388604 0.256467 0.001153 0.0
3.971861 0.569477 0.000801 0.0
0.110003 1.488701 -0.001985 0.0
4.475592 1.476781 0.001958 0.0
2.385054 1.087709 -0.005426 0.0
2.642783 1.290680 -0.000921 0.0
1.455918 0.916315 0.002692 0.0
0.830679 0.827236 0.000878 0.0
0.303377 0.065474 -0.001681 0.0
3.953262 0.577624 -0.001157 0.0
4.653086 1.564440 0.004335 0.0
3.502709 0.798449 0.000692 0.0
4.027864 1.166296 0.000055 0.0
3.059582 0.385513 0.002284 0.0
3.743432 1.763149 -0.001559 0.0
0.849383 1.726409 -0.003545 0.0
1.136585 0.373251 0.000330 0.0
0.240829 1.118572 -0.000024 0.0
1.971050 0.688079 -0.000399 0.0
2.451300 1.139912 0.001943 0.0
4.227751 1.193937 -0.003441 0.0
2.827344 0.518087 0.003243 0.0
1.955621 0.613094 -0.001391 0.0
1.695658 1.705577 -0.000322 0.0
0.312782 1.587011 -0.002168 0.0
1.175993 0.082649 -0.002682 0.0
0.827834 0.677387 0.003892 0.0
1.724642 0.818247 -0.003754 0.0
3.646851 1.148740 -0.000149 0.0
0.033674 0.524606 -0.000174 0.0
1.635730 1.626381 -0.001163 0.0
0.836356 0.430306 0.001696 0.0
0.268801 1.528325 0.001422 0.0
3.848937 1.202617 0.006225 0.0
1.831682 1.076582 -0.002892 0.0
1.425676 1.618190 0.002334 0.0
3.324589 0.063399 0.000450 0.0
4.004314 0.963164 0.002885 0.0
4.115461 0.011353 0.004856 0.0
3.108012 0.982485 0.001475 0.0
0.082170 1.015927 0.003988 0.0
3.929506 1.513340 0.003147 0.0
1.000618 0.115318 0.001080 0.0
1.844760 0.296352 0.001280 0.0
1.812655 1.032702 0.003653 0.0
0.814003 0.022402 -0.001058 0.0
3.808844 0.987574 -0.001610 0.0
0.680531 1.733073 -0.000303 0.0
3.229342 1.298397 0.003569 0.0
1.573852 0.881169 0.000507 0.0
0.397044 0.231128 -0.002429 0.0
4.401713 0.040899 -0.005549 0.0
0.375798 1.724820 -0.001246 0.0
1.442475 1.530992 0.000267 0.0
2.954904 1.450112 -0.004399 0.0
1.178281 0.409839 -0.001382 0.0
1.996764 0.453220 -0.001083 0.0
0.817800 0.346095 0.003881 0.0
2.259918 1.114461 -0.000098 0.0
4.051613 0.229719 -0.001821 0.0
0.823348 1.653359 -0.000145 0.0
0.561444 0.377329 -0.000114 0.0
0.597473 0.107688 0.002239 0.0
3.448074 0.355670 -0.002445 0.0
0.600037 0.187241 0.001743 0.0
3.645225 0.057638 0.002782 0.0
0.065684 0.783084 0.000090 0.0
0.359597 0.730020 -0.004622 0.0
1.746076 0.869225 0.000944 0.0
0.120216 0.033977 0.001342 0.0
0.710651 1.297484 -0.001841 0.0
1.118132 0.421111 0.001101 0.0
1.686815 1.541102 -0.000274 0.0
1.650138 1.737036 -0.000471 0.0
2.248042 0.204303 0.004619 0.0
3.542881 0.707493 -0.003782 0.0
3.071479 0.056872 -0.000303 0.0
1.088406 1.760598 -0.001211 0.0
0.884995 0.908597 0.001787 0.0
1.824629 1.624201 0.003006 0.0
3.228125 1.335851 -0.000527 0.0
0.457823 0.170558 -0.002682 0.0
0.583572 0.738703 -0.001405 0.0
2.389494 0.500209 0.000160 0.0
2.102486 1.334209 -0.000737 0.0
1.664607 1.590737 0.000751 0.0
3.968038 0.265612 -0.005062 0.0
1.108011 0.890720 -0.001140 0.0
4.658211 0.922567 -0.001746 0.0
2.703431 0.137102 0.002812 0.0
4.481544 1.077583 0.000692 0.0
4.531827 0.621848 -0.002197 0.0
4.291307 1.577829 0.002954 0.0
1.086647 1.450933 0.005957 0.0
1.906497 1.673051 0.001357 0.0
3.836398 0.936500 -0.000442 0.0
1.467562 0.747653 -0.003551 0.0
2.847286 0.978670 -0.001409 0.0
3.268003 1.010584 -0.001690 0.0
2.806427 0.136899 0.001673 0.0
3.289217 1.295365 0.003020 0.0
0.242364 1.191598 -0.002195 0.0
0.581607 0.925008 -0.001001 0.0
3.229927 0.420977 -0.003051 0.0
4.039625 0.773358 0.001869 0.0
1.878308 1.726244 0.001994 0.0
3.377726 1.196416 -0.000127 0.0
2.053476 0.666219 -0.001803 0.0
1.199811 0.777352 0.000457 0.0
4.146613 1.356994 -0.000169 0.0
3.005516 1.058939 0.000878 0.0
0.809453 0.273920 0.003522 0.0
1.742765 0.518751 -0.002603 0.0
0.558282 0.872966 0.000396 0.0
0.733028 0.619100 -0.000286 0.0
0.310388 0.854133 -0.000084 0.0
0.373245 0.664505 -0.004411 0.0
1.683931 1.763490 0.005054 0.0
0.487520 0.520432 -0.003241 0.0
0.352315 0.269071 0.004903 0.0
3.615238 0.710512 -0.002448 0.0
2.715649 1.275649 -0.003014 0.0
3.217238 1.729580 -0.004506 0.0
3.870327 0.811649 0.005310 0.0
0.438593 0.238184 -0.003313 0.0
1.411457 1.492359 -0.002689 0.0
0.451646 1.620629 -0.001800 0.0
0.119549 1.656718 -0.003294 0.0
0.845297 1.127329 0.003559 0.0
3.597569 0.938170 0.000900 0.0
4.650088 0.675373 0.003877 0.0
1.993299 0.187664 -0.001664 0.0
1.481197 0.491702 0.000431 0.0
3.992839 1.169729 -0.004350 0.0
4.146129 0.307249 0.002228 0.0
1.633038 1.609202 -0.000415 0.0
3.179150 0.661306 -0.001456 0.0
4.787306 0.850832 0.001445 0.0
0.366509 1.484558 -0.001560 0.0
1.940707 1.095784 -0.000045 0.0
3.033259 1.524991 -0.002729 0.0
1.113415 0.384757 -0.003431 0.0
2.719880 0.261801 -0.001754 0.0
3.511352 1.755191 -0.001629 0.0
1.032222 0.906649 0.002091 0.0
4.165108 0.290561 -0.005164 0.0
0.105577 0.137649 -0.000416 0.0
2.711366 1.378273 0.000652 0.0
2.751346 1.083276 0.000759 0.0
2.737755 1.657751 -0.000551 0.0
0.948289 0.731231 -0.002160 0.0
4.278192 1.608471 0.001254 0.0
2.009921 0.895868 -0.003277 0.0
3.026865 1.655404 -0.000599 0.0
4.048199 0.911678 -0.001688 0.0
1.513252 0.410050 -0.003549 0.0
4.411702 0.167236 -0.000556 0.0
0.101282 1.456713 -0.000923 0.0
1.661357 1.201897 -0.001132 0.0
3.373368 0.154250 0.000674 0.0
4.088895 1.476130 0.001831 0.0
2.789663 0.142925 0.002794 0.0
1.876177 0.178503 0.003219 0.0
0.342315 1.102104 0.003567 0.0
2.674902 0.691092 -0.004412 0.0
2.236866 0.489063 0.003043 0.0
4.290360 0.397720 -0.000312 0.0
1.386538 0.165219 0.001937 0.0
4.542718 0.331647 0.002847 0.0
3.616046 0.030845 0.000732 0.0
4.575366 1.218887 -0.000908 0.0
1.110311 1.213971 -0.001392 0.0
2.824058 0.075748 -0.002580 0.0
4.291059 0.738295 -0.003152 0.0
2.596303 0.342959 -0.001309 0.0
0.005724 1.255949 0.001662 0.0
2.004331 1.763650 0.001653 0.0
0.771878 0.051471 -0.002654 0.0
3.996493 0.454769 0.000382 0.0
4.794111 0.629469 -0.000561 0.0
0.049032 0.833410 -0.000288 0.0
0.481198 1.694287 -0.001074 0.0
3.140392 0.769615 0.000016 0.0
3.255893 1.147171 -0.001843 0.0
0.227516 0.321363 -0.002822 0.0
4.098645 0.860839 0.002757 0.0
1.473739 0.526936 -0.005317 0.0
1.123177 1.639694 0.001480 0.0
0.905310 0.166120 -0.002802 0.0
3.057412 0.641650 0.002944 0.0
2.338040 0.294783 -0.006989 0.0
1.831010 0.866089 0.000914 0.0
0.818952 0.748423 0.002647 0.0
1.176268 1.497502 0.000810 0.0
0.366738 1.619044 -0.000229 0.0
1.824798 1.375685 -0.001421 0.0
4.563487 1.642841 -0.000965 0.0
2.512839 0.032098 0.001537 0.0
0.240107 1.395358 -0.001956 0.0
4.138428 1.397961 0.001928 0.0
1.747128 0.014057 0.001990 0.0
