4.314298 0.135232 0.000191 0.0
1.895181 1.446271 0.001216 0.0
0.187598 0.775296 0.001746 0.0
1.128890 0.117486 0.002808 0.0
0.161465 0.631439 -0.002352 0.0
1.688961 1.400773 0.000460 0.0
1.572512 1.479976 0.000805 0.0
0.361844 1.286043 0.005377 0.0
1.630479 0.923491 -0.000792 0.0
3.684997 0.835521 -0.003083 0.0
3.918010 0.800364 -0.001379 0.0
1.788605 0.424335 0.000964 0.0
1.095426 0.486385 -0.000034 0.0
4.465840 0.424354 0.003164 0.0
1.957738 0.600997 0.002022 0.0
3.136806 0.751261 0.000774 0.0
4.326212 1.050262 -0.000893 0.0
3.834356 1.551643 0.000510 0.0
0.852300 0.110495 -0.002208 0.0
3.212749 0.301412 -0.001192 0.0
1.050738 0.877740 -0.000315 0.0
1.667981 0.505221 -0.003841 0.0
2.891044 1.379712 0.001826 0.0
2.585524 0.005954 0.003081 0.0
2.692594 0.030568 -0.000285 0.0
3.792142 1.058213 -0.001990 0.0
0.789172 1.299979 -0.005012 0.0
2.186547 0.497731 -0.001959 0.0
3.918591 1.006049 -0.001981 0.0
2.790821 0.635961 0.000579 0.0
0.213037 0.551040 0.001584 0.0
3.918347 1.328778 -0.006242 0.0
0.568179 0.746680 0.002460 0.0
3.603634 0.748399 -0.004230 0.0
2.665206 0.046650 -0.002460 0.0
3.533205 0.916707 0.000397 0.0
1.810688 0.179281 0.000101 0.0
0.553269 1.575339 -0.001727 0.0
0.653588 1.661989 -0.000014 0.0
1.368925 0.497658 -0.000097 0.0
1.073024 0.669627 -0.000199 0.0
3.084106 0.804439 -0.003083 0.0
3.067432 1.166231 -0.003776 0.0
1.737437 1.379751 -0.003063 0.0
0.561585 1.607788 0.005175 0.0
0.735540 0.317390 0.002238 0.0
1.493894 0.392873 0.002347 0.0
0.490458 0.979574 -0.001206 0.0
1.530451 0.833639 -0.001036 0.0
0.399288 0.773153 -0.002847 0.0
1.313942 0.678835 -0.001140 0.0
3.891534 0.248500 -0.002597 0.0
4.326025 0.614219 -0.000093 0.0
2.748809 0.880442 -0.003161 0.0
3.318395 0.648165 0.003375 0.0
2.962925 1.008006 -0.000732 0.0
0.685923 0.265547 0.002218 0.0
1.728778 0.127703 -0.003165 0.0
1.376376 0.644167 -0.000724 0.0
0.430332 1.223060 -0.000668 0.0
0.968462 1.371656 -0.000102 0.0
1.343119 1.005933 -0.001113 0.0
3.207185 1.004646 0.004093 0.0
1.603319 0.443181 0.000535 0.0
3.742489 0.897262 0.001537 0.0
2.589594 0.865644 -0.001021 0.0
1.566432 0.441235 0.002774 0.0
2.082499 1.039613 -0.002798 0.0
2.440259 1.235560 -0.002897 0.0
2.905612 0.027292 0.002139 0.0
0.401491 0.219368 -0.006587 0.0
3.089705 0.724328 -0.001076 0.0
0.131586 1.671088 -0.004726 0.0
0.243966 0.292016 0.005268 0.0
3.370666 1.608365 -0.001394 0.0
1.007214 0.892820 -0.004727 0.0
3.767751 0.639869 -0.001708 0.0
1.603530 0.093885 -0.000170 0.0
1.427540 0.483155 0.003271 0.0
2.772322 0.830195 0.002440 0.0
0.233803 0.674279 0.002868 0.0
3.085430 0.351772 -0.002230 0.0
0.420618 0.618476 0.000854 0.0
1.963559 0.334514 -0.003421 0.0
0.510901 1.226867 -0.001468 0.0
2.041254 0.296727 -0.001919 0.0
4.173336 1.683945 0.008181 0.0
2.834215 1.052027 0.004754 0.0
1.243905 1.253898 0.003712 0.0
4.389100 1.550199 -0.000623 0.0
2.855122 1.151864 -0.002331 0.0
2.237404 0.838393 -0.000289 0.0
2.914303 0.822149 -0.006449 0.0
2.050032 0.121174 0.000718 0.0
2.587736 0.731140 0.006262 0.0
0.199261 1.434705 0.000648 0.0
2.184861 0.925987 0.002066 0.0
3.377931 0.978654 0.003941 0.0
2.590468 0.890861 0.001936 0.0
0.951753 0.375738 -0.001377 0.0
3.049448 1.461646 -0.004030 0.0
4.172437 0.498992 0.000158 0.0
0.798204 1.469407 -0.007872 0.0
0.602222 1.173581 0.003729 0.0
0.005186 0.842604 -0.002047 0.0
2.204944 1.648216 -0.000461 0.0
1.547510 0.746393 -0.002504 0.0
0.758993 0.082347 -0.000772 0.0
0.351081 1.262234 -0.000488 0.0
3.668034 0.498488 -0.000872 0.0
4.356201 0.899428 0.001740 0.0
2.081911 0.199333 0.000069 0.0
2.837637 0.773944 -0.002887 0.0
4.419378 1.556060 -0.002297 0.0
3.155824 0.498088 0.001281 0.0
3.633234 1.165939 0.002769 0.0
1.937678 0.502875 0.000199 0.0
2.335473 0.235553 0.001254 0.0
3.515827 1.049547 -0.000083 0.0
3.614154 1.222141 -0.000107 0.0
4.463633 0.625521 -0.001275 0.0
2.153832 0.767087 -0.003316 0.0
3.406419 1.317988 -0.000525 0.0
3.421162 0.464438 0.002613 0.0
3.140740 0.495708 0.003706 0.0
0.154305 1.293882 0.002493 0.0
2.703659 0.563133 -0.001374 0.0
3.492069 1.418980 -0.001330 0.0
0.965168 1.667556 0.007254 0.0
3.214260 1.004444 -0.000451 0.0
0.660468 1.183330 -0.002892 0.0
0.321253 0.132794 0.000501 0.0
2.419095 0.802158 0.001733 0.0
1.352076 0.386431 -0.003566 0.0
1.865509 0.705199 -0.000813 0.0
3.516319 0.884632 -0.002995 0.0
2.246543 0.482267 0.001195 0.0
2.153488 0.021550 0.005007 0.0
3.023231 0.028210 -0.002593 0.0
2.904813 0.068131 -0.001171 0.0
3.187875 1.162293 -0.002635 0.0
2.190150 0.172722 0.000964 0.0
1.020301 1.429711 0.003175 0.0
3.135660 1.349546 0.000484 0.0
1.375715 1.368539 0.000473 0.0
2.017881 0.834732 0.003688 0.0
2.877213 1.141961 0.003121 0.0
2.409171 1.129645 -0.000291 0.0
3.857473 0.595278 -0.001327 0.0
3.729709 1.060557 0.002011 0.0
1.829201 0.177217 0.003788 0.0
1.196635 0.054322 0.000024 0.0
3.474795 0.912830 -0.001933 0.0
2.153554 0.294860 -0.001161 0.0
0.954683 0.569346 -0.001012 0.0
1.364664 0.861022 0.000795 0.0
4.008265 1.292957 0.002000 0.0
2.220850 0.963315 -0.002203 0.0
3.281539 0.207356 -0.002729 0.0
1.340380 0.233053 0.003592 0.0
1.548061 0.046047 0.000521 0.0
1.633022 0.777660 -0.000707 0.0
3.359367 1.685691 0.000884 0.0
0.730144 1.494715 0.002922 0.0
0.797563 1.313620 -0.002270 0.0
2.271831 0.797938 0.002113 0.0
1.450981 1.333017 0.002254 0.0
3.646267 0.336237 -0.000305 0.0
4.397958 0.993036 -0.003011 0.0
0.174350 1.300333 -0.002283 0.0
2.578840 1.488984 -0.000248 0.0
3.451488 0.348441 0.002620 0.0
1.231923 0.301030 0.002615 0.0
0.964938 1.031225 0.002833 0.0
0.322607 0.494383 0.001523 0.0
2.114297 1.133983 -0.006150 0.0
1.877221 1.441266 0.001743 0.0
3.817006 1.655646 0.000842 0.0
3.453194 1.232842 -0.003206 0.0
3.797620 0.235844 0.001119 0.0
2.047767 0.813388 -0.000453 0.0
1.044848 0.634561 -0.002712 0.0
3.079039 0.655409 -0.000899 0.0
3.232286 0.405650 0.000454 0.0
3.520472 0.069539 0.003456 0.0
2.608160 1.647183 0.002838 0.0
1.987090 1.176033 -0.002591 0.0
3.634185 0.543014 0.002047 0.0
1.708645 0.013390 -0.001056 0.0
2.521102 0.843180 -0.001657 0.0
0.312158 1.542334 -0.001674 0.0
1.604228 1.419138 0.000889 0.0
2.166607 0.474526 0.001321 0.0
1.339486 0.356160 -0.000653 0.0
4.494772 1.115867 0.001965 0.0
3.090834 1.223526 -0.001977 0.0
2.746351 1.193907 -0.002729 0.0
4.131749 0.971481 0.001605 0.0
4.159942 1.102470 -0.000525 0.0
3.864170 0.285310 0.001759 0.0
3.480395 0.798117 -0.000045 0.0
2.112739 0.249303 0.000092 0.0
1.913137 1.093848 0.000756 0.0
0.484699 0.279295 0.004481 0.0
2.240060 1.515855 -0.002378 0.0
2.612711 0.186070 0.003624 0.0
0.983807 0.610320 0.000855 0.0
4.124432 1.530028 0.001021 0.0
2.780763 1.518134 -0.001906 0.0
0.744542 0.182343 0.000512 0.0
1.418797 0.182480 0.003986 0.0
1.254529 0.485305 0.003888 0.0
0.688192 1.533273 0.003288 0.0
0.879002 1.140804 -0.001898 0.0
3.618664 1.142717 0.002249 0.0
2.632949 0.546150 0.000217 0.0
0.629127 0.829103 -0.001400 0.0
1.776317 0.365892 -0.002239 0.0
3.762460 1.172169 -0.000936 0.0
2.332489 0.945885 -0.000411 0.0
3.724450 0.575647 -0.001259 0.0
4.470370 0.432779 0.001236 0.0
0.962260 0.644326 0.003896 0.0
1.594570 0.022689 -0.002654 0.0
0.613774 0.177406 0.002866 0.0
3.114193 0.562256 -0.000275 0.0
2.722638 1.603045 -0.000418 0.0
1.241548 1.246979 0.000065 0.0
2.690542 0.821796 -0.001581 0.0
4.393222 0.763553 0.002566 0.0
1.343548 0.207327 0.005179 0.0
1.672524 1.544610 0.002232 0.0
1.527519 0.977430 -0.004523 0.0
0.281742 0.892719 0.004033 0.0
0.442087 0.911133 0.004392 0.0
2.037787 1.388181 0.000354 0.0
2.100549 0.255925 0.001339 0.0
1.716200 0.008658 0.002850 0.0
2.180674 1.486229 -0.002915 0.0
2.521939 0.628741 -0.003265 0.0
3.550437 0.367467 -0.000100 0.0
2.187145 0.610068 -0.000190 0.0
0.469808 1.358517 -0.000302 0.0
1.094425 1.473893 0.007552 0.0
0.429289 1.414102 -0.001894 0.0
2.971373 0.484267 0.001451 0.0
0.831265 1.269605 -0.003146 0.0
0.284295 1.651981 0.001662 0.0
2.225902 0.597501 -0.002066 0.0
3.141505 0.292865 -0.005806 0.0
2.104564 0.861150 0.004761 0.0
2.863327 0.627371 -0.002521 0.0
1.578766 1.276609 -0.002488 0.0
3.354804 1.243008 0.002939 0.0
1.889210 1.354269 0.001558 0.0
3.471650 0.993904 0.001937 0.0
1.841335 1.514652 0.001188 0.0
0.929115 1.431039 -0.006572 0.0
0.472301 1.008268 -0.003721 0.0
2.464892 0.565968 -0.001757 0.0
1.219815 0.897473 -0.003069 0.0
2.780153 0.091220 -0.000793 0.0
1.261923 1.567318 -0.003295 0.0
1.221031 0.308870 -0.004650 0.0
2.246184 1.471326 0.000270 0.0
3.535229 0.180008 -0.000217 0.0
4.473395 0.472445 -0.004000 0.0
3.328036 1.089221 0.004183 0.0
0.287407 0.614111 -0.000115 0.0
1.251857 0.530762 0.000090 0.0
3.186858 0.162491 -0.001531 0.0
1.528408 1.331169 0.001669 0.0
3.829777 0.791295 -0.002600 0.0
2.771592 1.326167 -0.002595 0.0
1.721407 1.671922 -0.000038 0.0
0.949664 0.815766 -0.000162 0.0
1.344968 1.104439 0.001200 0.0
4.027325 1.207637 0.003176 0.0
1.693922 0.572626 0.003723 0.0
0.900433 1.454391 0.001433 0.0
2.796040 1.436489 0.000021 0.0
2.722689 0.147589 0.003426 0.0
2.473163 1.544580 -0.001051 0.0
0.422495 0.973472 -0.003131 0.0
2.339469 1.462714 -0.006183 0.0
2.185318 0.117502 0.002131 0.0
1.697156 0.683275 -0.001115 0.0
1.897689 1.465107 -0.003973 0.0
2.075146 0.655489 0.003645 0.0
0.147461 0.617718 -0.000006 0.0
1.698193 0.858310 0.000951 0.0
4.281748 1.158215 0.002133 0.0
3.494393 0.197205 0.005033 0.0
2.336730 0.864094 0.003324 0.0
4.131740 1.267794 -0.001583 0.0
2.436323 0.745717 0.001248 0.0
0.364890 0.435597 0.001145 0.0
1.616671 0.962286 -0.001861 0.0
1.242937 1.299821 -0.000403 0.0
0.133960 0.879002 -0.001719 0.0
1.326759 0.768302 -0.005783 0.0
3.497908 0.316863 0.001259 0.0
0.041826 0.856063 -0.002877 0.0
0.347731 1.658969 0.003222 0.0
2.459765 1.297805 0.003316 0.0
4.052317 1.605484 -0.000661 0.0
3.828696 1.013502 -0.000721 0.0
1.994494 1.570676 -0.002028 0.0
0.761064 0.726974 0.001152 0.0
0.709235 1.400406 -0.002126 0.0
3.784380 0.549538 0.000270 0.0
4.000977 0.693761 0.001563 0.0
1.501486 0.223307 0.002163 0.0
0.022499 1.178327 -0.000002 0.0
1.992023 0.798755 0.000943 0.0
1.056580 0.180364 -0.001213 0.0
1.677848 1.483319 -0.002582 0.0
3.079102 0.941894 0.002171 0.0
0.737725 0.089915 -0.000196 0.0
3.477926 0.933932 0.003021 0.0
1.175480 0.822786 0.000183 0.0
3.899690 1.586631 -0.000219 0.0
1.930951 1.161177 0.000681 0.0
3.744733 1.072270 0.002448 0.0
3.393849 0.668216 -0.002096 0.0
4.145083 0.201637 0.002818 0.0
3.688220 0.864438 0.001001 0.0
1.211861 1.629326 0.002561 0.0
4.129894 0.614400 0.002161 0.0
0.732133 1.601747 -0.000395 0.0
1.602927 0.378092 0.003449 0.0
1.562314 0.386291 0.000912 0.0
2.313228 0.454036 0.003478 0.0
1.946004 0.831685 -0.003243 0.0
2.352769 1.209646 0.002625 0.0
1.673249 1.349997 0.000209 0.0
1.012606 0.408708 -0.003081 0.0
2.586025 1.000337 0.001787 0.0
1.114069 0.250387 0.002894 0.0
2.841973 0.397576 0.003799 0.0
2.285700 0.840018 -0.001503 0.0
3.352546 1.649239 0.003810 0.0
0.329595 1.436578 -0.003836 0.0
4.141678 0.332781 -0.000300 0.0
0.414788 0.536054 0.002089 0.0
3.655102 1.146899 -0.003694 0.0
4.343502 0.774815 -0.004995 0.0
0.816894 0.690083 -0.002959 0.0
3.112546 0.779342 0.002047 0.0
2.052009 0.338088 -0.000633 0.0
3.701690 0.430098 0.004005 0.0
0.576955 1.612849 -0.005765 0.0
1.938429 0.357536 0.002819 0.0
3.073148 1.010860 -0.000799 0.0
3.753836 0.638077 -0.001675 0.0
2.166478 1.045874 -0.001015 0.0
3.405032 1.416248 -0.000190 0.0
1.958070 0.839815 -0.000359 0.0
0.709094 0.587890 0.000130 0.0
1.088473 1.655812 0.001414 0.0
1.418525 0.474148 0.002315 0.0
0.062994 1.395215 0.000345 0.0
3.465965 0.154475 -0.000518 0.0
3.586251 0.958061 -0.002161 0.0
3.097905 1.616709 0.005362 0.0
3.584724 0.816379 -0.003408 0.0
1.799391 0.249205 -0.002272 0.0
1.613195 0.098651 0.001637 0.0
0.563753 1.103495 -0.003482 0.0
2.026489 0.984301 -0.002875 0.0
1.137184 0.435052 0.000558 0.0
3.679759 1.383499 -0.002131 0.0
3.108485 0.320077 0.001020 0.0
3.082906 0.130512 -0.000764 0.0
3.523193 1.419104 0.002422 0.0
0.026223 0.556398 0.000534 0.0
1.429193 1.042863 -0.001868 0.0
1.798771 1.647656 -0.000306 0.0
1.089815 0.412692 0.001384 0.0
2.396552 1.652246 -0.002164 0.0
2.755019 0.537008 0.002627 0.0
0.158858 0.353821 -0.000711 0.0
4.336678 1.512560 0.001385 0.0
4.398481 0.178449 -0.001457 0.0
0.923108 1.357329 0.003187 0.0
0.668953 0.943845 -0.001031 0.0
4.106469 0.157393 -0.001492 0.0
2.740794 1.245170 0.000377 0.0
2.260385 0.493701 0.000427 0.0
3.521470 0.249954 -0.004918 0.0
3.673885 1.522548 0.001517 0.0
2.944219 1.185422 -0.001579 0.0
2.848486 0.637808 -0.000682 0.0
0.285650 0.933657 -0.003292 0.0
1.821361 1.608282 0.002894 0.0
1.623306 0.404773 -0.005065 0.0
2.940084 0.505180 -0.000280 0.0
0.444833 0.967444 -0.001943 0.0
2.944440 0.502638 0.000908 0.0
4.269452 0.293608 0.001052 0.0
1.347833 0.961030 -0.000673 0.0
2.856833 1.549744 -0.000936 0.0
2.905603 0.508027 -0.000302 0.0
3.781612 1.049700 -0.001802 0.0
0.267566 0.191243 0.000824 0.0
3.264323 1.541838 0.002059 0.0
2.871810 0.436492 -0.000687 0.0
1.696558 0.470766 -0.002770 0.0
2.170795 0.151990 0.001367 0.0
0.574108 1.078296 -0.000390 0.0
1.853465 0.179474 0.002318 0.0
1.224016 0.260269 0.002521 0.0
3.018209 1.038941 0.000638 0.0
2.258120 0.528399 -0.001069 0.0
0.115568 0.250866 0.000194 0.0
1.652345 0.111077 0.001691 0.0
0.976142 0.475742 0.000507 0.0
4.119071 0.553872 -0.002333 0.0
0.922407 0.133116 0.000083 0.0
1.801543 0.026066 0.000135 0.0
1.752720 0.390636 -0.000621 0.0
0.052878 0.139772 0.002909 0.0
1.967600 0.268819 -0.001384 0.0
0.329101 1.355652 0.000624 0.0
2.113372 0.439908 -0.000661 0.0
1.423598 1.450626 0.003139 0.0
2.152653 0.349608 -0.001438 0.0
4.120469 0.418577 -0.002289 0.0
1.285293 0.159629 -0.001691 0.0
4.241643 1.157384 -0.001868 0.0
2.094501 0.285776 0.001737 0.0
3.524158 0.567726 0.004077 0.0
3.512578 0.674678 0.005095 0.0
2.394020 0.056584 0.002767 0.0
1.061459 1.040887 -0.000405 0.0
1.407691 1.561025 -0.000848 0.0
1.373634 0.738919 -0.002834 0.0
1.935093 1.641673 -0.000016 0.0
2.985165 1.085370 -0.001400 0.0
2.099392 0.661790 0.002532 0.0
3.154204 0.445353 -0.001271 0.0
2.063668 1.206849 -0.000324 0.0
2.065316 0.167435 -0.002434 0.0
1.626038 0.278487 -0.000480 0.0
2.862539 0.602791 0.001162 0.0
2.394207 1.605643 0.001221 0.0
1.690665 1.121271 -0.001366 0.0
0.693754 1.560760 0.002461 0.0
0.705026 1.102521 -0.004072 0.0
0.271976 1.396031 0.003885 0.0
3.272778 0.229331 -0.002989 0.0
3.124079 0.425044 0.001690 0.0
4.348484 1.262559 -0.002921 0.0
3.741394 1.017416 -0.000868 0.0
2.761857 0.613456 -0.003015 0.0
1.329968 1.420072 0.001839 0.0
3.475986 0.371849 0.001753 0.0
1.791552 0.092992 -0.003899 0.0
1.070117 1.342758 -0.000809 0.0
3.373163 0.815442 0.001521 0.0
4.220030 0.413428 0.000277 0.0
0.673610 1.196086 -0.000965 0.0
1.498148 0.984149 -0.003069 0.0
2.323634 0.502101 0.000972 0.0
3.953879 0.694299 -0.001954 0.0
2.407353 1.314285 0.002934 0.0
4.161712 0.074710 0.002654 0.0
2.179815 0.125905 0.002213 0.0
1.443849 0.916726 -0.000157 0.0
4.013901 0.069374 0.003118 0.0
2.221388 0.211971 0.001513 0.0
4.467686 0.224724 0.005901 0.0
0.225125 1.648609 -0.001922 0.0
2.374689 1.203003 0.000500 0.0
0.609735 0.700856 -0.000719 0.0
0.382800 0.015717 0.000531 0.0
1.756893 1.208679 -0.000015 0.0
0.946575 0.767718 -0.002093 0.0
1.072994 0.862273 -0.001614 0.0
3.492293 0.825213 -0.000439 0.0
2.063843 1.692033 -0.000777 0.0
4.132479 1.670263 0.001657 0.0
3.928652 0.570843 -0.000855 0.0
2.796395 0.677902 -0.002980 0.0
0.934220 0.262797 -0.001640 0.0
1.774672 0.721227 0.003825 0.0
3.193748 0.455603 0.000771 0.0
3.180730 0.238665 0.001924 0.0
2.976968 0.309006 0.000060 0.0
4.357106 0.647732 -0.000899 0.0
4.088280 0.919242 -0.001958 0.0
3.846477 0.548776 0.001525 0.0
1.964236 0.548749 0.000669 0.0
1.099762 0.698628 -0.002591 0.0
3.070646 0.892196 0.001337 0.0
1.198108 1.564272 -0.001443 0.0
2.297700 0.308803 -0.002142 0.0
4.158571 0.298577 0.000936 0.0
3.721824 0.877185 0.002090 0.0
0.697142 0.495932 -0.001119 0.0
3.923871 1.080425 0.000933 0.0
3.366929 0.390598 -0.000882 0.0
0.264419 1.235110 -0.001882 0.0
2.653520 0.547047 0.001411 0.0
0.009923 1.272287 0.000440 0.0
3.692658 1.660447 -0.001316 0.0
1.152604 0.916321 0.002169 0.0
1.555311 1.543857 -0.000409 0.0
1.447690 1.635387 0.000513 0.0
3.333622 1.651460 -0.000226 0.0
2.536627 0.840928 -0.001454 0.0
1.699014 1.214737 -0.001862 0.0
1.225477 0.407096 -0.004733 0.0
2.098435 1.629968 -0.000019 0.0
1.521303 0.630384 -0.002034 0.0
0.462396 0.301593 -0.003263 0.0
0.154817 0.717444 -0.002843 0.0
2.477544 0.031779 -0.001406 0.0
0.923869 1.644574 -0.001743 0.0
3.805657 1.058409 0.000189 0.0
0.104651 0.410257 -0.000514 0.0
2.717060 0.574245 0.000647 0.0
1.116302 1.204591 -0.001282 0.0
2.890846 1.268581 0.001697 0.0
3.495105 1.291244 0.003253 0.0
3.686742 1.669527 -0.002305 0.0
1.918271 0.353360 0.000927 0.0
1.273674 0.084707 -0.002129 0.0
4.385043 1.280151 0.001331 0.0
3.422999 1.652318 -0.000096 0.0
1.741867 0.866128 -0.002291 0.0
3.830154 0.002831 0.004185 0.0
4.017182 0.511430 -0.002191 0.0
4.199811 1.282199 0.000980 0.0
1.356431 0.631982 -0.002792 0.0
0.221289 0.603959 0.002061 0.0
0.125063 1.604072 0.000028 0.0
3.493509 1.137160 -0.002505 0.0
1.523465 0.384456 0.002947 0.0
0.479668 0.588097 -0.000240 0.0
0.210049 0.229239 -0.001036 0.0
0.601619 0.007771 0.000228 0.0
0.843766 0.029579 -0.002274 0.0
4.115559 0.233286 0.001531 0.0
4.292464 0.114303 -0.001712 0.0
1.356259 1.501644 -0.002797 0.0
1.948307 0.880499 -0.000569 0.0
4.134875 0.356821 -0.004662 0.0
0.012286 0.123932 0.000758 0.0
2.464607 0.431782 0.006808 0.0
1.498015 1.463750 -0.001811 0.0
2.970285 0.406757 -0.000656 0.0
3.887676 0.735777 0.001541 0.0
2.685767 0.939044 -0.000524 0.0
3.501380 0.527896 -0.006930 0.0
0.639961 0.627618 0.001512 0.0
3.507783 0.544930 0.004324 0.0
3.251943 0.980103 -0.001739 0.0
3.595153 0.119657 -0.005765 0.0
1.045336 0.169010 -0.005480 0.0
3.254134 1.542255 -0.000511 0.0
1.669582 1.335688 -0.003593 0.0
2.198462 0.108199 -0.000913 0.0
3.818843 0.228424 -0.000841 0.0
4.245154 1.389753 0.001484 0.0
3.230262 1.643258 -0.004387 0.0
4.419895 0.422379 0.003346 0.0
1.211723 0.111111 0.004804 0.0
4.026153 1.285400 -0.006699 0.0
0.152241 1.350195 0.005957 0.0
0.077732 0.645615 0.002042 0.0
1.137217 1.649464 -0.002028 0.0
3.349891 0.484551 -0.000832 0.0
3.260528 1.400010 0.006416 0.0
3.278013 0.210542 -0.003444 0.0
3.516712 1.171496 0.005800 0.0
2.667831 0.823759 0.002165 0.0
3.312633 1.640969 -0.004731 0.0
4.196151 1.397110 -0.004273 0.0
1.420630 1.529149 0.000374 0.0
2.517556 0.064052 -0.001247 0.0
1.853464 0.038557 0.002376 0.0
4.025095 0.008569 -0.001966 0.0
1.552700 1.419490 0.000276 0.0
0.326000 0.167787 -0.001134 0.0
2.123273 0.057222 -0.000930 0.0
2.781720 1.157566 0.000812 0.0
0.671793 0.610217 0.000723 0.0
4.368868 0.092367 -0.003444 0.0
0.029082 0.305662 0.002306 0.0
1.652201 0.143235 0.004140 0.0
4.098134 1.628671 -0.003993 0.0
3.433759 0.646060 0.000540 0.0
0.036564 1.589961 0.004772 0.0
3.724255 0.727277 -0.002167 0.0
3.060018 1.412436 0.002985 0.0
0.127285 1.320014 0.001963 0.0
0.848448 1.359711 0.000007 0.0
3.387419 1.661841 0.007872 0.0
0.268999 0.361806 -0.001993 0.0
3.999765 1.651867 0.000491 0.0
1.486284 0.475632 -0.000223 0.0
3.176873 0.061647 -0.000461 0.0
1.626427 0.532869 0.002130 0.0
3.659490 1.588212 -0.003050 0.0
2.357272 1.101729 -0.003485 0.0
3.657535 1.167330 -0.003652 0.0
4.133885 0.978337 0.000990 0.0
3.069973 0.268756 -0.003500 0.0
2.467536 1.337313 0.005336 0.0
1.887514 1.531925 0.000016 0.0
2.769435 1.198234 -0.001318 0.0
2.329907 0.704358 -0.003532 0.0
2.781856 0.556755 -0.004565 0.0
3.692563 0.934128 0.000509 0.0
2.965219 1.004069 -0.000859 0.0
4.031302 0.311873 -0.001281 0.0
4.325894 0.874217 0.001637 0.0
2.641468 1.138441 0.001631 0.0
0.580535 1.459291 -0.002280 0.0
1.799958 0.638358 0.002815 0.0
0.586235 0.558270 -0.000599 0.0
1.592468 1.253352 -0.004896 0.0
2.839221 1.365487 -0.000677 0.0
1.849926 0.847397 0.000463 0.0
3.199905 0.198560 0.002634 0.0
4.467388 0.445825 -0.001185 0.0
4.358147 0.350854 -0.001593 0.0
1.866985 1.196527 0.002100 0.0
3.468111 0.504130 -0.000917 0.0
2.905303 1.002907 0.001058 0.0
1.801172 1.184202 0.004118 0.0
2.078156 1.296864 0.002354 0.0
1.262603 0.986912 -0.003913 0.0
2.628866 1.050683 0.001009 0.0
2.996908 1.134066 0.002069 0.0
0.740166 1.042249 0.003946 0.0
1.997531 1.422551 -0.001258 0.0
1.358338 0.342430 -0.000241 0.0
1.733233 0.495379 0.001029 0.0
1.209861 0.787477 -0.004912 0.0
2.046921 1.088455 0.004713 0.0
1.901371 0.585162 0.002367 0.0
3.844250 1.387652 -0.002292 0.0
2.966044 1.306664 -0.001324 0.0
2.207214 0.202821 0.000756 0.0
0.802056 0.549482 0.000317 0.0
1.715382 0.453880 0.003737 0.0
0.340953 0.013431 0.001691 0.0
2.711354 1.517675 0.001693 0.0
4.477977 0.285967 -0.001134 0.0
0.592478 1.039265 0.000327 0.0
0.248845 0.908650 -0.001032 0.0
0.029305 1.295701 -0.000773 0.0
3.051866 0.271597 -0.001347 0.0
4.407562 0.051385 0.001249 0.0
0.321391 0.455698 -0.002122 0.0
2.360532 0.693686 0.004123 0.0
0.863982 1.618647 0.001453 0.0
1.405593 0.140387 -0.003203 0.0
2.507630 0.608759 0.000694 0.0
3.115323 1.228942 0.002882 0.0
2.487675 0.005851 -0.002978 0.0
1.465098 1.502840 0.001364 0.0
2.088814 1.227810 0.004477 0.0
1.766428 1.549558 -0.000957 0.0
3.846693 1.126451 0.002290 0.0
0.618798 0.204892 0.002545 0.0
2.340702 -0.002289 -0.004257 0.0
4.127259 1.153760 0.002688 0.0
3.763819 1.251093 -0.000900 0.0
2.995909 1.083394 0.001855 0.0
0.480091 1.191850 0.003121 0.0
1.538354 0.323796 -0.001842 0.0
0.004147 0.918048 -0.005165 0.0
1.537796 0.233253 0.000751 0.0
4.348108 0.441748 -0.000086 0.0
1.178664 0.728333 -0.001022 0.0
1.040556 0.988372 -0.000057 0.0
3.883861 1.154566 -0.003665 0.0
0.117746 0.292762 -0.003585 0.0
0.643136 1.227030 0.000878 0.0
2.466968 1.277467 -0.003961 0.0
3.718205 0.222882 -0.001442 0.0
0.625051 0.773509 0.004762 0.0
3.694057 0.229425 0.003431 0.0
1.580199 1.343421 0.004260 0.0
1.397639 0.362325 -0.000533 0.0
0.634389 0.975826 -0.004389 0.0
4.279903 1.559909 -0.000161 0.0
3.229440 1.097470 0.001116 0.0
1.489046 0.842844 0.001398 0.0
2.572516 1.522168 -0.000220 0.0
2.986422 0.461629 0.000213 0.0
1.147731 0.688771 0.000460 0.0
4.144241 1.528505 0.001187 0.0
4.467320 1.060013 -0.002889 0.0
0.746144 1.202358 -0.000193 0.0
4.205095 0.451128 0.002109 0.0
4.087542 0.229162 -0.001352 0.0
4.444531 1.131816 0.001385 0.0
4.026142 0.645197 0.000389 0.0
2.332646 1.354718 0.001033 0.0
3.294340 0.066251 0.004473 0.0
4.216874 0.795778 0.003119 0.0
2.250601 0.630332 -0.005163 0.0
3.606559 1.325464 0.002148 0.0
1.234325 1.609931 0.005866 0.0
2.766068 0.958638 -0.002171 0.0
3.385532 0.359124 0.002902 0.0
1.792206 0.601422 0.002922 0.0
2.347460 0.494494 -0.000086 0.0
2.292221 1.116504 -0.004002 0.0
0.604388 1.378000 -0.001845 0.0
4.365565 0.474753 0.001087 0.0
3.439520 1.494982 -0.001484 0.0
3.868925 0.468719 0.001251 0.0
1.337645 0.439498 -0.003373 0.0
3.239978 0.591994 0.001691 0.0
2.092332 0.989222 0.001815 0.0
4.229543 1.324971 -0.000316 0.0
1.921488 1.168517 0.000479 0.0
3.517796 1.572453 0.002133 0.0
3.446682 1.405005 0.002102 0.0
1.853168 0.787143 0.001573 0.0
3.088980 0.320408 -0.000155 0.0
2.212565 0.697946 -0.000204 0.0
0.320683 0.215412 0.000531 0.0
0.964645 1.284025 0.002543 0.0
2.965224 0.297548 0.001044 0.0
3.391461 1.560576 0.000312 0.0
3.335874 0.435521 0.001614 0.0
3.912543 1.303696 -0.002386 0.0
4.072058 1.214361 0.000628 0.0
0.026019 0.035335 -0.002468 0.0
4.080743 0.417753 -0.000198 0.0
1.975083 0.324711 0.002937 0.0
3.369695 0.207302 0.000256 0.0
3.109773 1.557494 0.000760 0.0
2.909588 0.189115 0.001676 0.0
2.344575 0.033590 -0.000115 0.0
1.622842 0.146917 0.000673 0.0
2.793026 1.629382 0.001522 0.0
2.113131 1.205254 0.003218 0.0
0.960460 1.270485 -0.002129 0.0
0.468275 0.289701 0.000012 0.0
3.297447 0.792934 0.004416 0.0
2.840108 1.421278 -0.005825 0.0
0.584764 1.430759 -0.001475 0.0
1.356984 0.624523 0.002572 0.0
2.301423 1.294622 -0.005039 0.0
3.177465 0.342190 -0.002647 0.0
1.227667 0.819075 -0.001796 0.0
2.896472 1.663890 -0.001338 0.0
3.069050 0.555595 -0.002729 0.0
0.898340 1.559357 0.001702 0.0
2.213957 1.423126 -0.000597 0.0
1.424766 1.344741 0.000598 0.0
1.681670 0.715668 0.001145 0.0
3.269532 0.306318 -0.002037 0.0
3.625368 0.252994 0.001068 0.0
3.598449 0.093280 -0.001497 0.0
3.384336 0.407553 0.001214 0.0
2.612483 1.342417 0.000086 0.0
4.446318 1.507093 -0.005006 0.0
3.477839 1.388797 0.003180 0.0
0.862795 1.247364 0.003576 0.0
2.232234 1.025766 0.008788 0.0
3.338504 0.385669 0.000370 0.0
0.353050 1.280504 0.001923 0.0
2.573120 1.385605 0.000945 0.0
1.389884 0.710307 -0.000652 0.0
2.023273 1.030796 0.004915 0.0
2.728908 0.100789 0.002679 0.0
1.469558 0.510310 0.005183 0.0
1.085217 0.626252 0.002451 0.0
4.443461 0.114616 -0.001609 0.0
0.341166 0.250717 0.002510 0.0
2.722297 1.431506 -0.000383 0.0
1.030771 0.475301 -0.001754 0.0
3.860156 0.232424 -0.001665 0.0
2.651347 0.894079 0.002286 0.0
1.532000 1.359364 -0.001883 0.0
3.475984 0.158690 -0.001186 0.0
0.752212 1.220492 -0.001141 0.0
3.692826 1.416864 0.001285 0.0
1.335343 1.675952 0.002445 0.0
3.646307 1.241289 0.001730 0.0
2.343315 0.361623 -0.001842 0.0
2.862829 0.360063 -0.000668 0.0
2.286185 1.365164 -0.000175 0.0
0.494539 0.218104 -0.000032 0.0
3.588839 1.034007 0.000363 0.0
3.729883 1.612799 0.001747 0.0
0.023366 0.864255 0.003183 0.0
3.667082 0.626525 -0.005255 0.0
0.825947 0.198479 0.001529 0.0
0.525650 0.702041 -0.000913 0.0
2.354150 0.768521 0.000591 0.0
1.376739 1.118371 0.000149 0.0
3.861481 1.191157 -0.004652 0.0
4.004298 1.103630 -0.001592 0.0
3.903828 1.323624 0.000616 0.0
4.430986 1.432784 0.003345 0.0
0.474300 1.360161 0.006607 0.0
0.011603 0.325905 -0.006601 0.0
4.442059 1.572812 0.000890 0.0
2.050791 0.705328 -0.002026 0.0
2.559881 0.425801 0.001233 0.0
2.686261 0.395077 -0.001789 0.0
1.577194 1.187171 0.000978 0.0
0.163762 1.262762 -0.006182 0.0
2.480625 0.671286 0.002486 0.0
1.275673 0.632406 0.003294 0.0
0.375409 1.598117 0.001258 0.0
0.275133 1.662186 0.004050 0.0
2.588713 0.158662 0.000499 0.0
1.047156 0.612270 -0.000983 0.0
0.475954 0.866083 -0.000306 0.0
1.164288 0.286836 -0.000451 0.0
1.514488 0.225376 -0.000979 0.0
0.570715 0.324870 -0.001546 0.0
0.093511 0.298111 -0.001278 0.0
3.229792 0.864150 0.004379 0.0
0.887688 0.140417 0.001076 0.0
0.998411 0.611640 0.001940 0.0
1.680743 1.481228 0.000077 0.0
2.840414 0.995724 -0.003020 0.0
1.534623 0.961693 -0.002609 0.0
1.865450 0.580618 -0.000678 0.0
3.664491 1.229622 -0.004635 0.0
0.010052 1.616847 -0.002628 0.0
4.117284 0.437821 0.001889 0.0
3.756462 1.010441 0.001194 0.0
0.533082 0.045463 -0.001193 0.0
1.137327 0.279912 -0.000144 0.0
4.321499 1.273767 -0.002960 0.0
1.993775 1.564959 -0.002320 0.0
4.286639 0.885763 -0.001303 0.0
4.288055 0.237785 0.001061 0.0
3.733504 1.383326 -0.000563 0.0
3.913507 0.144177 -0.002555 0.0
1.433483 1.682286 -0.000245 0.0
3.916629 0.380929 0.000848 0.0
4.412918 1.440941 -0.003160 0.0
2.679060 0.700014 -0.000886 0.0
1.776226 1.644366 -0.000189 0.0
4.460595 1.411862 -0.000736 0.0
1.928579 0.160782 0.000945 0.0
0.810762 0.239134 -0.001206 0.0
0.691643 0.828087 -0.004043 0.0
2.697289 0.823210 -0.000181 0.0
0.277086 1.392140 0.001262 0.0
2.956143 0.202267 0.002187 0.0
4.268133 0.214623 -0.001241 0.0
0.847126 0.308083 -0.001229 0.0
1.529449 1.667067 0.003345 0.0
0.829528 1.030881 0.000019 0.0
1.724443 1.569252 -0.001472 0.0
0.465389 0.084872 0.002409 0.0
3.064628 0.229939 -0.002122 0.0
1.490860 0.903843 0.001499 0.0
1.554484 1.396873 -0.000155 0.0
3.782071 0.802443 -0.000078 0.0
4.499130 1.281763 0.001357 0.0
1.171467 1.247989 -0.001792 0.0
0.071689 0.377125 0.003483 0.0
4.467493 1.066960 0.002789 0.0
1.342354 1.112315 -0.003858 0.0
2.932432 0.024319 0.001156 0.0
4.120227 0.155868 0.001608 0.0
1.715503 0.562776 -0.000533 0.0
2.345233 0.360761 -0.000010 0.0
1.608772 0.948505 -0.000638 0.0
0.389156 1.232319 -0.000335 0.0
3.825943 0.498822 0.000551 0.0
2.273727 1.324807 0.002540 0.0
4.142061 0.630240 -0.005523 0.0
1.648794 1.506508 -0.001070 0.0
3.712994 1.015304 0.000595 0.0
1.631019 1.051844 0.000142 0.0
4.254908 1.301068 0.000640 0.0
3.814498 0.938052 -0.001195 0.0
0.201249 0.130401 -0.005435 0.0
3.302432 0.429102 -0.000773 0.0
2.787164 0.075762 -0.001685 0.0
0.049048 0.132779 -0.001402 0.0
1.333749 1.385873 -0.001527 0.0
4.218556 0.864414 -0.001676 0.0
2.399846 1.135079 -0.001163 0.0
0.411337 1.269242 -0.000109 0.0
1.313817 1.249869 0.001620 0.0
1.072094 0.310606 -0.002338 0.0
1.626495 1.418065 -0.003922 0.0
2.414512 1.137883 -0.001975 0.0
4.447483 1.275871 -0.001506 0.0
3.280861 1.279626 0.002970 0.0
0.180830 0.743593 0.002204 0.0
2.971606 1.660578 0.002317 0.0
2.608287 1.390360 -0.004352 0.0
3.867516 1.603790 0.000161 0.0
2.213303 1.315281 0.003089 0.0
2.250373 1.168209 0.001868 0.0
1.008875 1.172072 -0.000561 0.0
0.706883 0.922342 -0.002860 0.0
3.292779 1.029605 -0.002133 0.0
1.691515 0.504340 -0.005255 0.0
3.714759 0.452952 -0.001831 0.0
0.803978 0.930029 0.001625 0.0
2.624463 0.661073 0.003572 0.0
0.970497 0.575526 -0.005763 0.0
0.722108 0.167670 -0.002202 0.0
3.980950 1.538440 0.005137 0.0
0.805318 0.968645 0.006822 0.0
2.087853 0.900308 -0.001464 0.0
0.111355 1.557705 -0.003497 0.0
3.587213 0.773643 -0.001937 0.0
1.542568 1.581499 0.002694 0.0
3.802455 1.488494 -0.001440 0.0
0.671749 1.524797 -0.000044 0.0
0.125213 0.920427 -0.000934 0.0
2.174367 1.100945 -0.003211 0.0
0.511994 1.123436 0.002033 0.0
3.017174 0.156522 -0.002097 0.0
3.963529 0.584085 -0.001498 0.0
4.496487 1.686814 0.000640 0.0
0.613242 0.280622 -0.001951 0.0
3.148912 0.103082 -0.003717 0.0
3.799426 0.721501 0.000122 0.0
1.999911 1.602444 -0.000813 0.0
3.100278 0.306969 0.000124 0.0
0.396348 0.700922 0.002766 0.0
2.290310 0.506544 -0.000379 0.0
1.450379 0.908525 0.003921 0.0
1.415411 0.334613 0.002099 0.0
1.553606 0.461540 0.000982 0.0
0.375927 1.484897 -0.000865 0.0
1.738800 0.926060 -0.001983 0.0
4.059237 1.100299 0.003953 0.0
1.755054 0.760640 -0.000717 0.0
2.934858 0.201118 -0.002051 0.0
1.566083 0.072898 0.003027 0.0
1.626883 0.972786 -0.000413 0.0
0.395344 0.414697 0.002512 0.0
0.142880 1.332520 -0.001462 0.0
0.750344 1.543488 -0.000694 0.0
2.554124 1.394334 -0.001890 0.0
1.351953 1.545118 -0.002310 0.0
2.864417 1.304795 0.002953 0.0
0.095282 0.776454 0.001554 0.0
0.320416 1.128958 -0.003129 0.0
0.392069 0.096984 -0.001031 0.0
0.652634 1.180643 0.000748 0.0
2.922424 0.236136 -0.002829 0.0
2.932018 1.483548 0.000967 0.0
1.266595 1.206297 -0.004655 0.0
3.479401 1.139855 0.003267 0.0
2.687957 1.670592 -0.004338 0.0
4.490368 0.001534 -0.002602 0.0
0.113027 0.396426 -0.001853 0.0
0.632025 1.087638 0.001944 0.0
4.077410 1.593035 0.001258 0.0
1.669222 0.307521 -0.004481 0.0
3.956989 1.185616 0.000358 0.0
2.409957 0.088395 0.000025 0.0
4.392427 0.092595 -0.000698 0.0
3.203488 0.209654 -0.001399 0.0
0.917156 1.611979 0.001455 0.0
3.502604 1.565483 -0.001684 0.0
1.540463 0.947227 0.000133 0.0
3.021575 0.931338 -0.001954 0.0
1.176008 0.781096 0.003220 0.0
0.403090 1.500288 0.003246 0.0
1.849130 1.484074 -0.008505 0.0
1.799204 -0.000475 0.003333 0.0
3.685615 1.496576 -0.000557 0.0
1.244292 0.750949 0.006285 0.0
1.822027 0.421210 -0.003847 0.0
2.629374 0.398976 -0.001782 0.0
3.327680 0.808322 -0.003412 0.0
2.304998 0.583200 -0.000647 0.0
3.144551 0.360989 -0.000290 0.0
3.571103 0.962800 -0.001631 0.0
3.571447 1.382257 0.002881 0.0
1.740081 1.126832 0.005167 0.0
2.072151 0.437189 0.004851 0.0
0.974551 0.070685 -0.001866 0.0
0.828644 1.251025 0.001880 0.0
1.983123 0.662122 0.000749 0.0
2.373507 1.660410 -0.000202 0.0
2.456168 0.141006 -0.000473 0.0
3.197275 0.977946 0.001495 0.0
1.757971 1.357071 0.004796 0.0
0.134263 0.084020 0.000987 0.0
3.044908 0.039053 -0.000144 0.0
0.564149 0.290812 -0.000851 0.0
4.302836 0.025871 0.001852 0.0
4.089554 1.468267 -0.004485 0.0
0.629689 0.835267 -0.000669 0.0
3.178874 1.257657 0.000974 0.0
0.174071 0.248658 0.003915 0.0
4.217869 0.099573 -0.000737 0.0
0.983156 0.287446 0.001569 0.0
2.103409 1.407250 -0.004165 0.0
4.017175 1.672020 -0.006724 0.0
2.584694 0.741706 -0.000102 0.0
1.145545 0.898368 0.000649 0.0
0.937267 0.935769 0.001719 0.0
4.307866 1.512630 0.001850 0.0
4.218219 0.550449 -0.000377 0.0
2.491005 0.355921 0.000877 0.0
3.824616 1.440433 -0.001814 0.0
2.771897 1.428624 0.000943 0.0
4.121039 1.262582 0.002640 0.0
2.974863 1.003177 -0.002648 0.0
0.513296 0.992443 0.003987 0.0
2.707778 0.021448 -0.002186 0.0
3.345556 1.415836 0.002322 0.0
0.748337 0.430994 -0.000825 0.0
3.051429 0.295785 -0.001824 0.0
0.176210 0.237168 0.001142 0.0
3.791016 0.022540 0.000866 0.0
0.009250 0.188186 0.000519 0.0
2.437749 1.286295 0.000075 0.0
4.333331 1.472595 -0.002979 0.0
2.239407 1.383318 -0.003730 0.0
2.703341 0.559548 0.000292 0.0
2.269397 1.626552 -0.001477 0.0
3.046287 0.533633 0.000396 0.0
3.892615 1.297318 0.001051 0.0
0.916300 1.009001 -0.001858 0.0
0.196010 0.365425 0.002112 0.0
2.745056 1.659283 0.000430 0.0
0.061335 1.459374 0.005218 0.0
3.042971 0.644322 -0.002371 0.0
1.726236 0.644811 -0.001213 0.0
4.259210 0.560833 -0.001065 0.0
0.749135 0.861274 -0.003379 0.0
1.072078 0.536226 -0.005984 0.0
4.346873 0.132360 -0.002483 0.0
4.320382 1.598448 -0.001262 0.0
0.493001 1.346273 0.002664 0.0
0.679845 0.929483 0.003351 0.0
2.286236 0.428531 -0.000443 0.0
1.271640 0.578876 0.000921 0.0
0.492598 0.668302 -0.003308 0.0
2.660527 0.490089 -0.001151 0.0
1.103799 1.592963 -0.000286 0.0
1.335750 1.080562 0.004570 0.0
1.501387 1.309479 0.002131 0.0
0.863527 1.354734 -0.000183 0.0
0.164548 1.340358 -0.001123 0.0
0.948442 0.291359 -0.000426 0.0
4.255582 0.622465 -0.003431 0.0
2.443611 1.287730 0.003076 0.0
3.212191 1.371580 0.001471 0.0
0.887470 1.572105 0.002272 0.0
0.182702 0.033867 0.000544 0.0
0.242733 0.355157 0.000889 0.0
2.944670 0.623923 0.001580 0.0
1.096445 0.690657 -0.000827 0.0
2.010820 1.055249 -0.004168 0.0
1.919450 1.450125 0.000198 0.0
0.108355 0.497842 -0.002475 0.0
1.749262 0.515849 -0.003396 0.0
4.018871 0.123575 0.000306 0.0
2.701571 1.063415 -0.000511 0.0
2.831781 0.456935 -0.003023 0.0
1.197808 0.429064 0.000969 0.0
2.222791 0.072788 -0.002216 0.0
1.177770 0.006281 -0.002212 0.0
1.578326 0.634436 0.003470 0.0
2.304935 1.046682 -0.000740 0.0
3.025607 1.257509 -0.000611 0.0
4.143045 1.238497 0.003869 0.0
0.167330 1.432349 -0.003343 0.0
0.527774 0.830775 0.000193 0.0
3.994698 1.345414 -0.000757 0.0
2.907943 0.238315 0.000084 0.0
1.480390 0.602929 -0.001046 0.0
2.538677 0.943789 -0.005047 0.0
0.763589 0.476956 -0.003660 0.0
2.421690 1.458114 0.001133 0.0
0.416734 0.331302 -0.000865 0.0
1.805665 0.333267 -0.001009 0.0
2.859426 0.680490 -0.002977 0.0
4.478376 0.622312 0.000694 0.0
1.585070 0.888474 -0.003290 0.0
2.560058 0.424326 -0.002396 0.0
0.290620 0.476556 -0.002690 0.0
0.275167 1.064817 -0.000460 0.0
0.338153 1.370660 -0.002315 0.0
3.673168 0.182444 0.000408 0.0
2.711123 0.364640 -0.002422 0.0
1.435348 1.152347 -0.005135 0.0
3.017225 0.830251 0.000438 0.0
1.086296 0.764934 0.002122 0.0
0.915793 0.211136 0.000692 0.0
3.741419 0.877703 0.002278 0.0
2.520779 1.029661 -0.001704 0.0
1.506289 1.222761 0.000692 0.0
4.259386 1.270856 0.002678 0.0
2.043057 1.045225 0.004233 0.0
4.197217 0.565615 0.001443 0.0
1.620222 0.710117 -0.004811 0.0
3.134256 1.184004 0.007805 0.0
1.580320 1.333486 0.002813 0.0
2.822541 0.562043 -0.001450 0.0
3.907392 0.650266 0.000286 0.0
4.015625 0.927000 -0.006500 0.0
1.607064 0.451000 -0.001220 0.0
2.936935 1.103714 0.002060 0.0
0.328315 0.058459 0.001176 0.0
3.092756 0.419597 -0.001939 0.0
2.914183 1.657830 -0.001431 0.0
3.001636 0.315665 -0.005718 0.0
2.925618 0.507626 0.000384 0.0
2.093356 0.037124 -0.002238 0.0
0.558111 0.873605 0.000758 0.0
0.067374 0.658180 0.003126 0.0
1.424786 0.661748 -0.003169 0.0
1.450939 1.234898 0.000728 0.0
1.905162 0.464212 -0.001412 0.0
0.778972 0.725409 -0.001765 0.0
2.373711 1.038460 -0.000539 0.0
1.854596 0.387340 0.000285 0.0
0.676775 1.673863 -0.002488 0.0
4.323839 0.385204 0.004009 0.0
4.092845 1.665553 -0.002566 0.0
4.210219 0.146623 -0.001792 0.0
2.135915 1.019106 0.000168 0.0
4.038964 1.090053 0.001636 0.0
0.396318 0.552026 -0.000153 0.0
2.344405 0.260070 0.002402 0.0
1.180225 0.270106 -0.004029 0.0
2.159194 0.157886 0.000136 0.0
3.336334 1.475311 -0.001635 0.0
3.312998 0.219060 -0.001789 0.0
0.984287 0.811347 0.004004 0.0
2.350027 1.219089 -0.000991 0.0
0.512753 0.395955 0.004626 0.0
1.188785 0.654557 0.004270 0.0
1.766675 0.891749 -0.000983 0.0
3.192320 0.345632 0.007707 0.0
3.763275 0.108110 0.000713 0.0
2.309191 1.116194 0.000072 0.0
1.368564 1.383787 0.000919 0.0
1.581703 0.736479 0.001636 0.0
1.717301 0.025030 0.002171 0.0
1.550168 0.558300 -0.000389 0.0
2.938004 1.414667 0.000268 0.0
0.494509 1.679662 -0.002283 0.0
0.967393 0.757599 0.002109 0.0
1.169683 0.344496 -0.005534 0.0
1.860400 1.638308 0.002196 0.0
0.195212 0.271949 -0.001957 0.0
2.980117 1.415624 0.002946 0.0
1.702819 0.176927 -0.000354 0.0
3.825072 0.757269 -0.003086 0.0
1.299791 0.772599 0.000072 0.0
3.444319 0.283437 -0.000880 0.0
1.469626 0.576997 0.003841 0.0
4.148713 1.267405 -0.000850 0.0
1.572467 0.687694 0.003308 0.0
3.094777 0.530046 0.001910 0.0
1.586188 1.313670 -0.005170 0.0
1.699018 0.111963 -0.000631 0.0
2.020294 1.274129 -0.002577 0.0
1.785502 1.478766 0.000221 0.0
3.558131 1.163094 -0.002480 0.0
2.223402 0.699231 -0.001213 0.0
3.826860 0.798787 -0.000817 0.0
1.242352 1.515791 0.003503 0.0
3.546962 0.527657 0.000330 0.0
3.924567 1.612776 0.000452 0.0
4.268123 0.289528 -0.000681 0.0
4.129645 0.882905 -0.001566 0.0
3.944337 0.372440 0.000502 0.0
0.188356 0.036191 -0.000052 0.0
0.303214 0.832776 -0.000349 0.0
0.292547 1.576301 0.000318 0.0
3.438299 0.453985 0.005021 0.0
3.754868 0.007223 -0.002458 0.0
3.594589 1.581503 -0.001483 0.0
1.428443 0.820936 -0.002061 0.0
2.040217 0.642700 -0.002799 0.0
3.671034 1.015650 0.002711 0.0
1.456583 0.413061 0.001074 0.0
2.163074 0.063518 -0.000061 0.0
3.530800 1.632475 0.000870 0.0
0.455601 0.899481 -0.000465 0.0
2.331162 1.030140 0.004784 0.0
1.944740 1.072176 0.003174 0.0
1.276188 0.649208 0.000920 0.0
0.992840 1.584816 -0.000310 0.0
0.987561 0.792734 -0.000219 0.0
0.108757 0.650305 -0.002531 0.0
1.905346 0.833484 0.001023 0.0
3.527095 1.210527 0.002107 0.0
2.826114 1.024952 0.001746 0.0
0.531138 1.665197 0.000864 0.0
1.166015 0.471812 0.000503 0.0
1.960507 0.930588 0.000245 0.0
3.559716 0.001092 -0.003159 0.0
0.268399 1.401619 -0.000664 0.0
1.621592 0.882672 -0.001618 0.0
4.088451 0.801430 0.001387 0.0
1.048070 0.495247 -0.000206 0.0
0.731379 0.037581 0.006934 0.0
2.223207 0.269251 0.001359 0.0
2.483598 1.463970 -0.000318 0.0
1.411680 1.091899 -0.000770 0.0
0.944675 0.005152 -0.001006 0.0
1.188721 0.234995 0.001809 0.0
3.298233 0.984225 -0.002332 0.0
2.188720 0.037158 0.004068 0.0
4.115064 1.108839 0.003508 0.0
4.409285 1.281583 0.006381 0.0
1.277167 0.583644 0.001880 0.0
4.232323 0.800084 -0.000670 0.0
2.412351 1.522971 0.000210 0.0
1.694412 0.846061 -0.001476 0.0
3.626367 0.613195 -0.002416 0.0
2.256359 0.222921 0.001384 0.0
3.400509 1.005955 0.001425 0.0
0.526271 1.595181 0.001781 0.0
0.794805 0.110066 -0.000408 0.0
2.622760 0.624380 0.002683 0.0
3.152740 1.344272 0.003428 0.0
3.428383 0.297361 0.000539 0.0
0.748709 1.689144 -0.003944 0.0
1.326656 0.986560 0.000871 0.0
2.125070 0.042125 -0.001437 0.0
4.204137 1.332918 -0.004355 0.0
3.675724 0.698124 0.002465 0.0
0.069213 1.253047 0.001627 0.0
2.280917 1.077477 0.005149 0.0
2.586126 0.748391 -0.003810 0.0
2.006247 0.518661 0.002945 0.0
1.702692 0.183675 0.001529 0.0
1.817292 1.126012 -0.001602 0.0
1.632714 0.870302 0.000036 0.0
4.035820 1.061654 0.000660 0.0
0.532204 1.317086 0.001804 0.0
3.240528 0.882885 0.000919 0.0
3.778012 1.495381 -0.001065 0.0
1.816563 0.624581 0.008615 0.0
0.328714 0.930017 0.001213 0.0
4.488893 0.503570 -0.002327 0.0
0.699372 1.108894 0.003559 0.0
0.498966 1.300471 -0.000555 0.0
4.202615 1.116787 0.005702 0.0
2.804452 1.242888 -0.000194 0.0
1.651973 1.094178 -0.002519 0.0
3.189502 1.195963 0.001111 0.0
2.933425 1.398655 0.001268 0.0
0.354280 0.998604 0.002804 0.0
2.261868 0.992203 -0.003790 0.0
3.542209 0.609062 0.002870 0.0
4.114670 1.639690 0.002871 0.0
0.616647 1.556617 0.002651 0.0
4.338609 1.252012 0.001156 0.0
1.996415 0.598916 -0.002346 0.0
1.033444 1.637110 -0.000907 0.0
0.391720 0.659643 0.000152 0.0
1.221779 0.197094 -0.003198 0.0
3.105602 0.829203 0.001598 0.0
3.956386 0.466180 0.000892 0.0
0.449184 1.027026 -0.000323 0.0
2.321937 0.978035 -0.002349 0.0
2.444728 0.832862 -0.002107 0.0
1.897836 1.559211 0.000215 0.0
4.458658 1.086230 0.000273 0.0
2.628279 1.342090 -0.004167 0.0
0.271653 0.926217 -0.000693 0.0
3.150167 0.884185 -0.002355 0.0
2.523661 0.796645 0.001595 0.0
1.419047 1.088287 -0.005140 0.0
2.997497 1.071530 -0.001577 0.0
0.827296 0.812536 0.001873 0.0
3.505994 0.217875 0.000528 0.0
0.072028 0.114999 0.000545 0.0
1.184722 1.527477 0.001308 0.0
3.325558 0.877435 0.003479 0.0
0.568443 0.843097 -0.000652 0.0
0.404820 0.018417 0.003123 0.0
0.710289 1.291594 0.000343 0.0
3.364865 0.481254 -0.002427 0.0
2.334169 0.459322 0.000628 0.0
2.502378 0.318422 -0.002367 0.0
2.549374 0.236090 0.004032 0.0
1.711801 1.271070 -0.001489 0.0
2.063406 0.936288 0.000060 0.0
2.406761 0.332772 0.003731 0.0
4.381430 1.616319 -0.005646 0.0
4.160479 1.075586 0.000074 0.0
2.772024 0.623842 0.000390 0.0
3.204942 0.302098 -0.003913 0.0
2.718465 0.721977 0.002332 0.0
0.099821 0.847979 -0.004357 0.0
1.819753 0.626601 0.002851 0.0
3.415120 0.605920 -0.001221 0.0
3.987083 0.245675 0.001213 0.0
2.274542 0.513120 -0.000828 0.0
4.105973 1.552882 0.002096 0.0
3.294219 0.126006 -0.005934 0.0
0.879964 1.436587 0.000584 0.0
3.662542 1.322931 0.005887 0.0
3.562951 0.399667 -0.001102 0.0
4.068888 0.013516 -0.000908 0.0
1.359269 0.528596 -0.002206 0.0
1.348177 0.339858 -0.000027 0.0
4.094438 0.803834 -0.002251 0.0
1.801871 1.414603 -0.001631 0.0
2.459950 1.323037 0.001816 0.0
2.955655 0.851094 0.000833 0.0
2.827480 0.338093 -0.002210 0.0
4.367957 1.095738 0.003872 0.0
2.266757 0.317563 -0.001053 0.0
2.749412 0.439237 -0.000198 0.0
1.621135 1.645055 0.001451 0.0
4.190141 1.091846 -0.002104 0.0
1.779966 1.625902 -0.003765 0.0
1.490670 1.549453 -0.001092 0.0
2.254567 0.894775 -0.002018 0.0
0.080769 0.656245 -0.001046 0.0
2.019642 1.188241 0.002587 0.0
4.361567 1.122483 0.001369 0.0
3.957443 1.675334 -0.002738 0.0
1.511860 1.064353 -0.002024 0.0
3.064750 0.362209 0.001101 0.0
1.864298 1.350026 -0.002315 0.0
1.020059 0.298117 -0.000249 0.0
0.433171 0.210830 0.003257 0.0
3.987640 0.939939 0.000473 0.0
2.297803 1.527818 0.001838 0.0
2.491089 0.098975 0.001019 0.0
1.830199 1.575004 0.000427 0.0
3.158113 0.530437 -0.000731 0.0
0.824314 0.594473 0.004477 0.0
4.252544 0.248675 -0.001832 0.0
0.617991 0.730290 -0.001976 0.0
1.538835 1.168777 -0.001871 0.0
4.270223 1.035019 -0.001015 0.0
4.063141 1.333410 0.002801 0.0
4.380287 0.746924 -0.002089 0.0
2.645101 1.033533 -0.004833 0.0
3.469572 1.534000 -0.002920 0.0
4.353216 0.667520 -0.001485 0.0
3.155194 0.322687 0.004265 0.0
4.002968 1.406486 -0.001127 0.0
2.667046 1.310254 0.001956 0.0
2.124969 1.014415 0.003245 0.0
3.108021 0.386845 0.002273 0.0
3.882253 0.484323 -0.003152 0.0
0.496922 0.541814 -0.003792 0.0
0.061751 0.721834 0.000404 0.0
0.700216 1.404182 -0.001692 0.0
4.482633 0.665020 0.002989 0.0
3.576991 0.153242 0.001632 0.0
1.232218 1.064580 -0.004035 0.0
1.506531 0.971596 0.002918 0.0
0.060143 1.568418 0.000341 0.0
1.903944 0.064567 -0.002857 0.0
2.140604 0.731343 0.000924 0.0
0.270135 0.499512 -0.000505 0.0
1.554830 1.586743 0.002274 0.0
2.429804 1.095513 0.000461 0.0
1.790579 0.029220 -0.002604 0.0
1.061072 0.609523 0.002723 0.0
1.499605 0.005555 0.002768 0.0
1.362256 0.073108 -0.001770 0.0
1.442682 0.271889 0.002513 0.0
1.204256 0.949344 0.002531 0.0
3.702822 0.849370 -0.003095 0.0
4.026905 1.367207 0.000991 0.0
0.606159 0.446959 -0.000262 0.0
2.408526 0.951276 0.000652 0.0
3.386802 0.091873 0.001864 0.0
0.567191 1.678978 0.000544 0.0
2.420381 1.437463 0.000384 0.0
3.337872 1.680568 0.002608 0.0
2.454425 0.369741 -0.000603 0.0
2.632183 0.193417 -0.001010 0.0
0.497455 1.493940 -0.001666 0.0
3.478822 1.109857 -0.000003 0.0
3.421823 1.262124 0.004817 0.0
2.421754 0.438219 -0.003327 0.0
4.271625 1.514747 -0.001306 0.0
2.954201 1.600025 0.001907 0.0
4.308770 0.920289 0.001229 0.0
3.730438 1.006542 0.000046 0.0
1.796657 0.950529 -0.001119 0.0
2.749296 0.550300 -0.001525 0.0
3.316952 0.020331 0.002521 0.0
1.353944 0.184458 -0.005465 0.0
1.446230 -0.000055 -0.000349 0.0
2.387726 0.117479 0.000035 0.0
1.480751 0.157259 -0.000400 0.0
3.013622 0.047415 0.001613 0.0
2.915402 0.419989 -0.003878 0.0
3.420252 1.362321 -0.000435 0.0
2.279533 0.253907 -0.002163 0.0
2.613793 0.048497 0.000875 0.0
0.342304 0.237768 0.003520 0.0
3.574180 0.307581 -0.004339 0.0
0.155864 0.367212 -0.000748 0.0
2.745999 1.669462 -0.001015 0.0
3.355312 0.294486 -0.001426 0.0
2.731309 0.816651 -0.000838 0.0
0.688563 0.710958 0.000488 0.0
3.269506 0.678524 -0.002666 0.0
2.639015 1.452993 -0.000683 0.0
1.179264 1.483989 0.004104 0.0
0.586782 0.235206 -0.003421 0.0
1.388683 0.627805 0.000551 0.0
3.449160 1.083936 0.000644 0.0
1.589620 1.481785 -0.001812 0.0
3.306331 0.876997 0.000426 0.0
3.485194 1.147081 -0.000559 0.0
3.213456 1.206640 0.000598 0.0
2.020204 0.857163 0.001966 0.0
1.582009 1.398474 0.003139 0.0
4.497034 0.704996 -0.001593 0.0
4.483836 0.057229 0.000171 0.0
1.235636 1.208033 0.001245 0.0
4.188418 0.787224 0.002691 0.0
1.968497 0.214113 -0.001048 0.0
2.591453 0.444056 -0.004301 0.0
2.020501 1.458467 -0.002420 0.0
1.963592 1.254294 -0.002266 0.0
4.015187 1.524507 -0.003997 0.0
3.506790 0.767459 0.002320 0.0
2.576141 1.612491 0.000049 0.0
4.121024 0.367652 0.000270 0.0
2.805509 0.388761 0.002105 0.0
1.056818 0.165457 0.001613 0.0
2.785080 0.497739 -0.000718 0.0
0.029865 1.521950 -0.001410 0.0
1.762328 1.624666 -0.002265 0.0
0.574900 1.647254 0.007461 0.0
1.167492 0.208830 0.000515 0.0
2.416345 0.387346 0.000138 0.0
1.597778 0.932022 0.003300 0.0
0.311472 0.433104 -0.001284 0.0
1.657362 0.734092 0.003977 0.0
3.914813 1.629374 -0.002839 0.0
3.382577 0.796069 0.001662 0.0
3.398868 0.355814 -0.002551 0.0
2.574889 0.387462 0.001418 0.0
1.387778 1.146478 -0.003334 0.0
2.953903 0.508797 0.000277 0.0
2.304888 1.515315 0.000383 0.0
3.969941 1.537450 -0.003132 0.0
3.442368 1.414171 0.000289 0.0
4.093267 1.423008 0.003378 0.0
4.290729 0.129444 -0.002036 0.0
2.527793 0.464549 0.001142 0.0
1.916881 0.716142 0.002730 0.0
2.578954 0.592339 -0.001532 0.0
1.569307 1.428568 0.003065 0.0
3.700431 0.094736 -0.002595 0.0
3.740522 1.189567 -0.002650 0.0
2.003487 1.659536 0.005993 0.0
2.461349 1.431617 0.002097 0.0
2.621681 1.261719 -0.001060 0.0
4.372785 0.361916 0.000763 0.0
3.247902 0.345436 -0.000281 0.0
1.723623 1.349630 -0.001370 0.0
3.035844 1.230196 0.005622 0.0
3.357293 0.810416 0.002018 0.0
4.024264 0.212210 0.002333 0.0
3.254055 0.612345 0.000668 0.0
0.456233 0.996725 0.002396 0.0
4.224649 0.214664 -0.004036 0.0
3.401311 0.375986 -0.003501 0.0
2.001074 0.824274 0.003165 0.0
3.082028 0.010590 0.003230 0.0
3.551437 1.292539 -0.000633 0.0
3.047978 1.384234 -0.002246 0.0
3.884105 0.207523 0.001589 0.0
3.242564 0.851752 0.000136 0.0
1.474545 1.679681 0.003036 0.0
3.997588 1.122832 0.001524 0.0
4.110445 0.606666 0.000145 0.0
1.335030 1.180796 -0.006446 0.0
2.283084 1.145552 -0.001822 0.0
4.017409 0.402250 0.001523 0.0
0.084446 1.124743 -0.001174 0.0
2.447691 1.385095 0.003111 0.0
0.700356 1.464262 0.002715 0.0
0.068248 1.115269 0.001237 0.0
2.954607 1.465125 0.002778 0.0
0.225375 0.867705 0.002636 0.0
1.585717 0.078853 0.004054 0.0
1.739533 1.379980 -0.003228 0.0
1.827475 1.570199 -0.001259 0.0
3.201749 0.248802 0.000984 0.0
3.810290 1.593758 0.000910 0.0
4.128290 1.533750 -0.003021 0.0
4.374317 0.028803 0.001444 0.0
4.294703 1.053700 0.001908 0.0
2.498541 0.606517 0.002518 0.0
2.304948 1.606311 0.000694 0.0
3.024859 1.645976 0.001140 0.0
1.736699 1.121339 -0.001856 0.0
0.464031 1.210122 0.003571 0.0
0.562901 1.140317 0.002970 0.0
3.713726 1.443338 -0.000478 0.0
2.040029 1.639648 0.000251 0.0
2.199997 0.100608 -0.000019 0.0
1.090919 0.656538 -0.001243 0.0
3.950007 0.471474 0.001514 0.0
1.847317 1.601945 0.001120 0.0
1.804395 0.345502 0.000063 0.0
2.540874 1.532689 0.002473 0.0
2.852154 0.015998 -0.001605 0.0
0.306270 0.982147 -0.000836 0.0
2.273092 1.574415 0.001509 0.0
2.444494 0.360578 -0.000720 0.0
1.866143 0.637664 -0.000579 0.0
1.656912 0.938218 -0.001214 0.0
0.881962 1.457538 -0.000019 0.0
