3.686096 1.156907 0.000141 0.0
1.338357 0.592049 -0.000689 0.0
3.831499 1.921365 0.001764 0.0
2.585223 1.533051 -0.000022 0.0
3.974035 1.403448 -0.000319 0.0
4.038153 0.634124 0.001586 0.0
2.027538 1.751600 -0.001616 0.0
4.485981 2.015177 0.000086 0.0
1.624852 0.886962 0.000502 0.0
1.320696 0.026728 -0.000842 0.0
4.164402 1.603210 0.000590 0.0
0.711040 0.743763 0.001571 0.0
3.355416 1.144316 -0.003007 0.0
3.210821 2.425024 0.001179 0.0
1.251712 0.810034 -0.000308 0.0
1.233197 0.238898 -0.001879 0.0
4.306753 1.616444 0.003628 0.0
0.780765 0.248524 0.000132 0.0
2.893621 1.129447 -0.001298 0.0
3.403072 1.100848 0.002863 0.0
3.585437 1.918848 0.003187 0.0
4.053448 0.455260 -0.001991 0.0
3.679772 0.335180 0.001252 0.0
2.508710 2.167403 -0.000031 0.0
3.999887 0.025057 0.002948 0.0
0.246289 0.794325 0.001029 0.0
2.150531 0.970933 -0.000796 0.0
0.963426 1.788183 -0.000970 0.0
2.264968 1.881599 -0.002516 0.0
3.730730 0.877009 0.000253 0.0
0.106344 2.129222 0.000326 0.0
4.307461 0.212691 -0.003977 0.0
1.128859 0.926573 -0.000064 0.0
0.492746 1.977052 0.002394 0.0
0.436707 1.188556 0.000533 0.0
2.780066 0.687013 -0.000507 0.0
0.426842 1.560958 -0.003171 0.0
2.570148 0.871050 0.005024 0.0
1.576994 1.242712 0.002513 0.0
4.550467 0.414222 0.001207 0.0
1.998951 0.479560 -0.003309 0.0
3.370216 1.230981 -0.000282 0.0
2.920176 0.596410 0.006007 0.0
2.872012 0.028327 -0.000997 0.0
0.145849 1.360682 -0.000305 0.0
3.565827 0.137974 -0.003231 0.0
3.054597 1.534589 -0.000522 0.0
4.332132 2.319737 0.001428 0.0
3.241463 2.436726 0.000403 0.0
4.456645 2.374101 0.001296 0.0
3.247055 1.783035 0.005157 0.0
0.827610 1.679499 0.002216 0.0
2.556627 2.413581 0.001010 0.0
4.468054 0.242652 0.002577 0.0
2.103317 0.842512 -0.003280 0.0
2.950137 0.612452 -0.001659 0.0
3.358469 2.280920 -0.000316 0.0
2.926473 1.835878 -0.001295 0.0
3.658542 1.494753 -0.000896 0.0
0.170100 0.576647 0.000559 0.0
1.650879 0.263062 -0.002480 0.0
3.385806 2.242498 0.000368 0.0
0.376097 0.838201 -0.001604 0.0
0.443969 1.338337 -0.001585 0.0
3.223560 0.698782 0.002241 0.0
0.373326 0.931278 -0.004114 0.0
4.059110 1.887106 0.001079 0.0
2.271168 1.313780 -0.001753 0.0
0.093707 2.273766 0.003495 0.0
2.639685 1.450647 -0.002751 0.0
1.676558 1.533565 0.000212 0.0
3.527328 2.366525 -0.002544 0.0
4.031219 1.978025 -0.001647 0.0
3.319223 2.096653 -0.001429 0.0
3.378503 1.740167 0.001523 0.0
2.414918 1.221943 0.005658 0.0
3.859699 1.152173 -0.000279 0.0
3.305984 2.127632 -0.001833 0.0
2.175196 2.431953 -0.002006 0.0
1.408503 1.487052 -0.000099 0.0
4.500789 1.456794 -0.003944 0.0
0.565351 2.413057 -0.000696 0.0
3.209271 2.197972 0.003741 0.0
2.962913 0.953973 -0.001605 0.0
0.479836 1.360184 0.001434 0.0
3.293079 1.380598 -0.002838 0.0
4.077918 0.255494 0.002349 0.0
3.222436 2.338830 -0.002927 0.0
0.979380 2.355798 -0.000080 0.0
3.382938 1.429267 -0.000328 0.0
3.559703 1.828569 -0.002985 0.0
2.928924 0.952970 0.004742 0.0
3.338081 1.023270 -0.003476 0.0
3.732314 1.107270 -0.000425 0.0
3.453442 1.632374 -0.002448 0.0
1.460958 1.192571 0.000728 0.0
2.542352 0.975855 0.007013 0.0
2.931227 1.867493 -0.001199 0.0
4.190342 0.696448 0.001532 0.0
3.876697 0.506677 0.000759 0.0
4.263421 0.973531 -0.000980 0.0
3.444207 2.373855 -0.001672 0.0
3.862244 0.743347 0.000006 0.0
0.564850 1.198587 -0.000563 0.0
1.104410 1.902472 0.000289 0.0
1.007289 1.334442 0.003387 0.0
0.657665 1.275945 0.000452 0.0
1.290657 0.465183 -0.000566 0.0
2.739791 1.188338 -0.002993 0.0
2.394389 2.054367 0.001596 0.0
2.976605 0.516810 -0.004444 0.0
4.109190 0.135823 0.000721 0.0
4.486222 1.003770 0.003718 0.0
1.022242 2.431251 0.004975 0.0
3.250501 2.226341 0.000541 0.0
0.775932 2.449439 -0.001988 0.0
0.245200 1.641097 0.002820 0.0
2.596302 1.401667 0.000534 0.0
1.472141 1.302422 -0.001333 0.0
3.942423 0.672213 -0.000481 0.0
0.509525 0.049911 0.000679 0.0
2.900709 0.299927 0.003124 0.0
3.893272 1.324877 -0.000169 0.0
0.354687 1.917041 -0.001138 0.0
4.113415 0.617819 -0.001899 0.0
2.286348 0.572034 -0.002802 0.0
0.825316 1.986450 -0.000539 0.0
4.538917 0.390097 -0.000649 0.0
2.573942 0.578607 0.002115 0.0
2.648686 2.112776 0.003057 0.0
3.674630 1.933554 -0.000137 0.0
2.388936 2.420398 -0.002388 0.0
3.053706 1.001181 -0.000056 0.0
3.764619 1.914576 0.001796 0.0
4.541436 0.707597 -0.004738 0.0
3.676482 1.475522 -0.002444 0.0
4.199161 2.285050 -0.000594 0.0
0.092686 1.156770 0.005968 0.0
2.464427 1.001320 -0.002786 0.0
2.285191 1.488211 0.000678 0.0
1.715311 1.820669 -0.002968 0.0
0.364527 2.120266 -0.001721 0.0
2.019667 1.557055 0.001894 0.0
1.515024 1.569729 -0.000120 0.0
3.575838 1.853047 -0.000489 0.0
1.358325 1.524586 -0.003962 0.0
1.561020 2.429006 0.003235 0.0
1.059966 2.181257 -0.002505 0.0
2.311202 0.891439 -0.001141 0.0
2.771639 1.045239 -0.001516 0.0
2.811168 0.520590 0.002944 0.0
0.987253 0.635257 -0.001014 0.0
1.001271 0.045167 -0.000610 0.0
0.112653 2.082660 -0.001998 0.0
4.156482 0.025549 -0.000660 0.0
4.391199 2.192639 -0.001523 0.0
2.385746 1.129509 -0.000816 0.0
2.115127 0.888783 -0.001215 0.0
2.295311 1.876358 -0.000363 0.0
0.884766 2.422577 -0.001910 0.0
1.702489 0.314749 0.003681 0.0
0.596367 2.430827 0.000674 0.0
1.716628 0.349815 -0.003065 0.0
4.439063 0.303461 0.001549 0.0
1.828526 1.189676 -0.002818 0.0
0.759124 1.155010 0.001685 0.0
1.986815 0.135615 -0.006220 0.0
0.320345 2.286772 -0.001402 0.0
0.811036 0.919720 -0.000419 0.0
0.246430 0.348549 0.002026 0.0
0.999351 0.603821 -0.000179 0.0
2.182577 0.137121 0.002920 0.0
3.511987 0.064072 0.000296 0.0
1.577656 0.665214 0.001488 0.0
3.513261 0.961112 0.002000 0.0
0.001566 0.958835 0.001582 0.0
0.469409 0.790388 -0.002519 0.0
2.881380 0.488185 -0.001054 0.0
2.833675 1.209296 0.002153 0.0
2.053500 0.993512 -0.002513 0.0
2.368228 1.938571 0.000042 0.0
0.051141 0.780399 0.000044 0.0
0.925261 0.467774 -0.003811 0.0
3.955891 2.455223 0.001712 0.0
2.188578 1.078837 0.001179 0.0
2.428746 0.931185 -0.000416 0.0
0.842454 1.806373 -0.002232 0.0
2.347021 2.298835 0.001479 0.0
2.669076 1.694473 -0.002016 0.0
3.660688 0.487053 0.000208 0.0
3.705981 1.440165 -0.003634 0.0
2.824846 0.268772 0.000450 0.0
0.824373 0.116401 -0.000143 0.0
2.288949 1.475630 0.002516 0.0
1.749255 2.016242 0.001275 0.0
1.298983 1.698067 0.001467 0.0
3.707279 2.130621 0.002159 0.0
2.016739 0.625516 -0.003191 0.0
4.075584 0.321244 0.003018 0.0
2.320741 0.531511 -0.002286 0.0
2.485148 2.111074 0.003918 0.0
3.609152 1.834620 -0.001771 0.0
2.139062 0.636590 -0.002055 0.0
3.460289 1.916224 -0.003146 0.0
1.720151 0.345732 -0.002175 0.0
0.838228 1.281074 0.000730 0.0
1.817796 0.636208 -0.001089 0.0
3.913843 1.291020 -0.000331 0.0
4.083792 0.488829 -0.002933 0.0
1.458668 1.090664 0.004554 0.0
0.740177 0.507106 0.000035 0.0
3.355015 2.144704 -0.001772 0.0
0.525378 0.946754 -0.001514 0.0
3.015711 1.258838 -0.002954 0.0
1.165433 2.432316 -0.001630 0.0
1.953143 0.548591 -0.002632 0.0
1.951627 2.040337 0.000270 0.0
3.372741 0.082198 -0.005174 0.0
1.888410 1.573004 -0.000549 0.0
3.816003 0.926501 0.003683 0.0
0.441790 1.444593 0.001312 0.0
0.334250 0.697866 -0.001393 0.0
0.308201 0.897479 -0.002518 0.0
0.825801 2.281491 0.001334 0.0
2.960234 1.005957 0.001741 0.0
1.556220 0.631822 -0.008312 0.0
4.453072 1.094198 0.002306 0.0
1.405830 0.082981 0.001215 0.0
4.280522 2.213029 0.001714 0.0
2.898198 2.353470 -0.003821 0.0
4.154929 2.245210 0.001061 0.0
2.012420 0.904310 0.000603 0.0
1.188038 1.643192 -0.000220 0.0
1.322317 2.387396 0.001084 0.0
4.497339 2.259454 0.004780 0.0
2.577567 1.478516 -0.000512 0.0
3.205604 2.420406 -0.003236 0.0
3.552377 2.200757 0.000182 0.0
3.973769 1.587277 -0.005173 0.0
4.321333 0.078031 -0.003528 0.0
0.906113 0.651779 -0.004136 0.0
2.048367 2.433493 -0.000808 0.0
2.049703 2.384039 0.003464 0.0
1.732351 1.743351 0.002245 0.0
2.221838 0.604428 0.003212 0.0
0.866306 1.364876 0.003761 0.0
0.180714 0.419845 -0.000466 0.0
1.924099 0.709832 0.003217 0.0
3.500813 2.470626 0.000995 0.0
3.177168 1.371762 0.003401 0.0
2.572338 0.414383 -0.001229 0.0
1.421963 1.404513 0.001952 0.0
0.291446 0.099278 -0.000829 0.0
1.198692 1.132816 -0.000782 0.0
0.638377 0.550982 -0.001303 0.0
2.586986 1.306201 -0.000009 0.0
3.995782 2.153050 -0.000046 0.0
2.953685 1.107538 -0.001297 0.0
0.669184 2.162986 0.000366 0.0
2.102460 0.588561 -0.001630 0.0
3.052649 2.403094 -0.000487 0.0
2.195388 0.093783 -0.003820 0.0
3.937901 0.021401 -0.003956 0.0
2.488133 2.245636 -0.002163 0.0
1.523100 2.186782 -0.000202 0.0
4.348285 2.255021 -0.002220 0.0
1.439190 1.866892 0.001745 0.0
4.259071 0.771541 0.000778 0.0
0.562112 1.520867 0.001031 0.0
0.871076 2.093225 -0.002234 0.0
2.859969 1.935237 0.000303 0.0
4.344640 2.203465 -0.002764 0.0
2.399253 0.487962 0.002128 0.0
0.524808 2.025637 0.000947 0.0
3.215542 2.269908 -0.001229 0.0
0.355665 1.802918 0.001922 0.0
1.035090 2.127998 0.004868 0.0
2.059328 2.062452 0.004585 0.0
2.607600 1.009469 -0.001289 0.0
1.473058 2.193856 0.001431 0.0
4.066386 1.043472 0.002144 0.0
2.718200 0.761029 0.001611 0.0
3.407769 1.230431 0.002364 0.0
4.354697 0.964968 0.001458 0.0
2.621056 0.848331 -0.003792 0.0
3.089495 1.359765 -0.000565 0.0
2.170375 0.385219 -0.001655 0.0
4.030134 1.750157 -0.003191 0.0
4.172862 1.249702 -0.002752 0.0
3.892619 2.249242 0.003155 0.0
1.776480 0.813711 0.002537 0.0
0.778190 1.567538 0.000026 0.0
1.233813 1.218987 0.000298 0.0
3.307263 2.252771 -0.002538 0.0
1.900482 0.634364 -0.002923 0.0
4.164354 1.646004 -0.004558 0.0
1.585696 2.376485 0.001627 0.0
2.040932 2.157331 0.000818 0.0
1.630082 0.365786 -0.001584 0.0
1.648728 0.065928 -0.002441 0.0
3.362991 1.664567 0.002508 0.0
3.985391 0.286214 0.000973 0.0
3.786045 2.305151 0.001062 0.0
2.661411 0.971867 0.001320 0.0
2.164335 2.193228 -0.000067 0.0
4.372741 0.510705 0.000874 0.0
2.042757 1.395237 -0.001582 0.0
2.685638 0.314254 0.001155 0.0
3.532999 0.563755 -0.000848 0.0
0.615145 1.354335 -0.003515 0.0
0.302467 2.478281 0.000366 0.0
0.523550 0.808546 0.005201 0.0
3.506617 1.365683 -0.006317 0.0
3.152273 2.031988 0.003429 0.0
1.993160 1.117342 0.000303 0.0
3.094373 1.386159 -0.001816 0.0
2.891556 1.771764 0.002890 0.0
2.677974 2.269282 0.005065 0.0
3.082055 0.947356 0.002124 0.0
1.241846 0.023354 -0.001778 0.0
4.496213 1.350567 0.003256 0.0
1.806761 0.146452 0.000173 0.0
1.376853 0.833070 -0.000730 0.0
0.968025 1.413500 -0.002981 0.0
3.441043 0.451489 0.002788 0.0
4.166810 1.674387 0.002085 0.0
0.430283 1.653830 -0.003195 0.0
2.105654 2.065214 -0.002605 0.0
1.338147 1.896442 0.003509 0.0
3.860967 1.403868 -0.000272 0.0
0.111429 1.275346 0.004552 0.0
4.258669 1.631398 -0.003963 0.0
4.020609 0.957421 0.000331 0.0
3.941344 0.132694 -0.003898 0.0
1.701954 0.973786 -0.000944 0.0
3.213939 0.939328 -0.000882 0.0
2.263107 2.481309 -0.002037 0.0
4.420526 1.730923 -0.003265 0.0
4.459803 0.101650 0.000178 0.0
1.776802 0.364479 0.001471 0.0
1.500720 0.313070 -0.002031 0.0
0.887671 0.570834 -0.001164 0.0
3.064961 2.010009 0.001393 0.0
3.848245 2.360525 -0.003172 0.0
1.418344 1.165774 0.001946 0.0
1.663801 1.645975 -0.001265 0.0
4.033950 2.090873 0.000853 0.0
1.768592 1.337928 0.002256 0.0
3.344775 1.840110 0.003187 0.0
0.610393 1.016706 0.000526 0.0
0.825858 0.495741 -0.003461 0.0
0.521773 1.045786 -0.001340 0.0
1.348979 1.356049 -0.003509 0.0
3.068083 0.185274 -0.003575 0.0
1.865835 1.443955 -0.000643 0.0
1.719175 1.029975 0.003929 0.0
1.673309 2.299439 0.001109 0.0
1.358947 1.697453 -0.002398 0.0
4.235720 1.391502 0.004668 0.0
4.151706 0.812410 0.000910 0.0
2.955492 0.039953 0.005066 0.0
3.983282 2.059757 -0.003343 0.0
3.734134 1.532170 -0.000928 0.0
4.287307 1.201920 0.004247 0.0
3.629317 2.349260 -0.002365 0.0
3.995398 0.332738 -0.000004 0.0
1.098764 1.864372 -0.002391 0.0
1.857378 1.017961 0.001600 0.0
1.521880 1.170878 0.002241 0.0
4.499879 1.582036 0.001838 0.0
4.385079 1.956057 -0.003413 0.0
4.549490 2.050891 0.002914 0.0
3.957452 1.730672 -0.004788 0.0
2.686993 2.332218 -0.004165 0.0
4.371837 0.445641 0.004765 0.0
0.440059 2.465691 0.000691 0.0
4.273844 1.718783 -0.000395 0.0
2.229117 0.578790 0.000589 0.0
2.781533 1.868314 -0.001139 0.0
0.220130 1.705022 -0.003787 0.0
2.370987 0.367295 0.000430 0.0
3.145073 1.103557 0.000229 0.0
4.408991 0.987071 -0.002191 0.0
0.674105 1.034200 0.000979 0.0
4.473187 2.060334 -0.002833 0.0
0.304314 0.976855 0.002317 0.0
1.294398 2.326528 0.003625 0.0
1.300236 0.475384 0.001551 0.0
2.754431 0.407471 -0.001433 0.0
1.038516 1.432303 -0.002291 0.0
2.885650 1.660883 0.003396 0.0
1.297242 1.616381 0.002892 0.0
4.234961 1.899397 -0.000650 0.0
3.557446 0.033809 0.002617 0.0
4.277346 1.902357 0.000838 0.0
1.574929 2.339206 -0.001403 0.0
1.538328 1.997149 0.000636 0.0
2.574575 0.298949 -0.000907 0.0
1.538172 0.770699 0.000999 0.0
0.652882 2.086398 -0.002211 0.0
0.010226 0.899112 -0.001186 0.0
2.543635 1.161543 -0.001845 0.0
2.287467 0.987756 0.002458 0.0
0.574970 2.177054 0.000117 0.0
0.361793 0.195620 -0.002516 0.0
3.098895 0.155210 0.002130 0.0
1.597637 0.115410 0.000044 0.0
0.062078 0.160237 -0.001206 0.0
1.882119 0.296643 -0.002757 0.0
3.372323 1.464023 -0.002316 0.0
4.052375 0.903550 0.000825 0.0
2.289264 1.267363 -0.002590 0.0
4.545537 1.718009 -0.003311 0.0
3.432813 2.208621 -0.003441 0.0
4.456937 2.395538 0.001444 0.0
0.968778 0.282347 0.002092 0.0
0.573640 0.205673 0.002895 0.0
3.281013 0.662758 0.003991 0.0
2.354186 1.398600 -0.000454 0.0
2.316785 0.102216 -0.000369 0.0
1.750231 2.330151 -0.002390 0.0
4.094789 2.195359 0.002302 0.0
2.179095 1.031368 -0.003777 0.0
1.547752 0.349292 -0.000149 0.0
2.173296 1.326308 -0.001451 0.0
4.186464 2.205138 0.002434 0.0
0.965850 0.277558 0.004452 0.0
2.616647 0.679104 -0.001634 0.0
4.252773 0.614916 -0.001703 0.0
2.888393 1.629806 -0.001970 0.0
4.213993 0.427075 -0.001350 0.0
3.189584 1.877590 -0.000675 0.0
1.675202 1.613681 -0.001429 0.0
0.286689 1.384454 0.001431 0.0
3.898393 0.079728 0.001951 0.0
0.923721 0.640122 -0.001287 0.0
4.005300 0.886579 -0.001852 0.0
4.535002 0.913181 0.000605 0.0
3.985109 1.793293 0.001466 0.0
2.414468 1.944462 0.001264 0.0
1.584484 2.204208 0.000474 0.0
2.472362 1.203455 -0.001585 0.0
0.083813 1.224093 -0.003239 0.0
2.838478 0.154936 0.000923 0.0
2.564116 1.141278 -0.002999 0.0
0.903802 0.810612 -0.000218 0.0
3.394171 1.114685 0.001581 0.0
3.855171 1.003170 -0.005336 0.0
2.541343 1.452179 -0.000073 0.0
3.278912 1.551209 0.001297 0.0
0.655651 1.739712 0.002105 0.0
3.320992 1.254739 -0.000260 0.0
3.679576 2.476936 -0.003499 0.0
0.071117 0.570156 -0.000531 0.0
0.366476 0.834170 0.002085 0.0
3.798692 2.123675 -0.001196 0.0
3.200878 0.330673 -0.001231 0.0
4.564529 0.033830 -0.004484 0.0
0.829330 0.613657 0.000423 0.0
0.756642 0.273373 0.003063 0.0
3.843379 2.050840 0.001695 0.0
3.792821 0.001100 0.001054 0.0
0.185142 0.983057 0.001728 0.0
2.155256 1.544424 -0.000789 0.0
2.982971 1.861181 -0.001878 0.0
0.980217 0.500643 -0.003048 0.0
2.167791 2.266551 -0.001094 0.0
1.614338 1.860439 -0.000623 0.0
2.017450 1.069240 -0.000740 0.0
1.554320 0.413585 -0.003809 0.0
0.360266 0.074119 0.001087 0.0
0.941368 2.475520 0.004530 0.0
3.300773 0.106480 -0.000253 0.0
3.898559 0.262626 0.000437 0.0
3.923987 1.778666 0.002920 0.0
3.167182 1.165318 -0.001439 0.0
0.942335 1.168659 0.002740 0.0
1.948685 2.100992 -0.001812 0.0
0.183571 0.332114 -0.004419 0.0
2.786486 1.816124 0.005122 0.0
3.670428 1.203970 -0.000436 0.0
3.579320 0.821668 0.004851 0.0
0.611361 2.316211 -0.001768 0.0
1.145321 0.611583 0.002615 0.0
4.196173 1.448722 -0.001102 0.0
0.314511 0.133464 0.003228 0.0
0.089571 1.197431 -0.006473 0.0
0.543480 0.863071 -0.001694 0.0
2.196509 1.405783 -0.002676 0.0
3.916173 1.278404 0.001871 0.0
4.004423 0.202681 0.004372 0.0
3.968534 1.009078 0.000181 0.0
1.024839 0.070327 0.002021 0.0
2.622839 1.036011 0.001751 0.0
4.021132 1.582287 0.003149 0.0
3.812857 2.328261 0.001911 0.0
2.217720 0.618511 -0.000603 0.0
3.444143 2.218438 -0.005192 0.0
1.829710 0.719983 0.004662 0.0
2.552376 2.089274 0.001101 0.0
1.983920 1.659645 0.000433 0.0
0.058089 0.296715 0.003001 0.0
1.290279 0.906488 -0.000635 0.0
0.141273 1.164731 0.001018 0.0
4.015546 2.234402 -0.006909 0.0
0.098253 0.657439 -0.002975 0.0
2.893717 0.017109 -0.000490 0.0
0.623843 1.966898 -0.003357 0.0
1.506254 0.314025 -0.001303 0.0
3.219479 0.971940 0.000615 0.0
4.195602 0.664446 -0.001240 0.0
0.443115 2.235553 0.001739 0.0
1.289136 0.388902 0.002418 0.0
4.357526 2.450422 -0.000299 0.0
1.315046 1.065265 -0.001779 0.0
2.441833 0.192829 0.004441 0.0
0.885738 1.302552 0.001493 0.0
3.339425 0.210821 -0.001692 0.0
1.216129 1.640784 -0.001031 0.0
0.732379 0.319832 -0.001520 0.0
3.446491 0.889220 0.003652 0.0
1.000445 0.067263 0.000697 0.0
3.452417 0.456620 0.003159 0.0
1.506664 1.732430 -0.000290 0.0
2.099450 0.839948 0.002923 0.0
2.235643 2.496972 0.006076 0.0
2.914210 0.405611 -0.003416 0.0
1.008752 1.939117 0.003504 0.0
2.559113 0.114947 0.002529 0.0
1.741172 0.494097 -0.004960 0.0
2.669318 1.843888 -0.001519 0.0
3.422873 1.767446 0.005171 0.0
1.412964 1.322348 0.001760 0.0
4.281008 0.302611 -0.000002 0.0
1.333003 2.236986 -0.002958 0.0
2.313253 1.149852 -0.006677 0.0
4.115932 0.208650 -0.003618 0.0
4.141761 0.371319 -0.001275 0.0
1.737489 1.361295 -0.003383 0.0
3.941658 0.662441 0.001141 0.0
2.571812 0.420519 -0.002424 0.0
3.484080 0.297707 -0.001958 0.0
4.297562 1.007862 -0.003014 0.0
2.205856 0.316869 -0.001099 0.0
3.027904 0.878605 -0.000091 0.0
1.600664 1.920535 0.002155 0.0
2.870636 0.189223 -0.000076 0.0
2.134325 1.806903 -0.000321 0.0
3.385499 1.870381 -0.003070 0.0
0.493826 0.924429 -0.001754 0.0
2.839750 0.730624 -0.000627 0.0
3.845050 2.055680 0.001793 0.0
2.861621 2.475420 0.000673 0.0
2.232846 0.793140 0.000796 0.0
2.356776 0.143215 -0.001986 0.0
0.238902 1.948980 0.002345 0.0
3.888147 0.104328 -0.000973 0.0
2.606630 2.403322 0.000602 0.0
3.219458 0.514935 0.000937 0.0
2.471540 1.565050 0.002300 0.0
0.603588 0.398411 0.000755 0.0
1.543037 1.458677 -0.002322 0.0
3.496445 0.650652 0.002454 0.0
0.626386 0.574351 0.000434 0.0
3.889206 1.247571 -0.001220 0.0
0.936877 2.001129 -0.007955 0.0
4.186717 2.403786 0.002524 0.0
0.888608 0.742069 -0.002272 0.0
2.131669 1.740059 -0.001082 0.0
3.363168 1.587240 -0.003311 0.0
1.155251 1.848490 -0.001913 0.0
0.991478 0.674473 0.002037 0.0
3.519080 0.670091 0.000176 0.0
0.025683 1.602844 0.001340 0.0
2.389071 0.037446 -0.001964 0.0
2.535348 0.917525 0.001053 0.0
3.788869 1.741294 0.002320 0.0
1.947094 1.900562 -0.000786 0.0
3.905826 0.928755 0.000340 0.0
4.348774 2.173956 0.000032 0.0
1.837516 0.328715 -0.000720 0.0
4.476870 0.460789 0.000425 0.0
3.663331 0.388220 0.002521 0.0
1.517387 1.735505 -0.005463 0.0
2.136631 1.209233 -0.003889 0.0
4.375981 2.233558 -0.002271 0.0
3.333002 1.918497 0.000499 0.0
2.407512 0.477654 0.001950 0.0
4.250961 2.010508 0.001255 0.0
0.604441 0.048206 0.000150 0.0
4.524685 0.111293 -0.003117 0.0
1.963366 0.742437 -0.000330 0.0
0.570611 1.412298 0.001312 0.0
1.385301 2.398824 0.000995 0.0
4.170492 1.731877 -0.000091 0.0
1.991625 0.344816 -0.000119 0.0
2.644877 0.397120 0.000735 0.0
3.092693 1.862703 0.001265 0.0
4.460981 1.473178 -0.003510 0.0
3.178738 0.073454 -0.002823 0.0
3.120059 1.509286 0.000649 0.0
3.333162 1.618997 -0.001146 0.0
0.343604 1.874675 0.000313 0.0
2.033229 1.257478 -0.001462 0.0
3.351454 1.862033 0.001783 0.0
3.914868 0.001318 0.002005 0.0
1.169202 1.214679 0.000515 0.0
1.444770 1.970198 -0.000921 0.0
0.326631 2.392175 0.001555 0.0
0.206715 0.656213 0.004030 0.0
1.687534 0.309458 0.002697 0.0
1.350104 1.525933 0.001137 0.0
2.289819 2.365815 0.004504 0.0
1.235501 0.679948 -0.001924 0.0
4.194292 0.035475 0.002156 0.0
3.845639 0.242398 0.000955 0.0
2.788452 1.599387 -0.000177 0.0
1.885620 1.667375 0.000218 0.0
1.020919 1.309235 -0.003328 0.0
4.440945 0.579921 0.000578 0.0
1.867133 1.748838 0.003498 0.0
0.306086 2.258139 -0.005278 0.0
4.415992 2.031529 -0.000810 0.0
4.138670 0.883976 -0.000826 0.0
3.024719 0.518404 -0.002295 0.0
3.231238 2.197526 -0.001894 0.0
3.074460 1.404979 -0.003259 0.0
0.161755 1.839238 0.001047 0.0
3.894258 0.635705 -0.000288 0.0
4.521447 0.043978 -0.003264 0.0
0.431512 1.349664 -0.003753 0.0
4.497611 1.026065 -0.001998 0.0
4.400725 1.292425 0.003282 0.0
3.608039 2.160741 0.000028 0.0
0.654350 0.279226 0.006035 0.0
0.598953 1.558950 0.001354 0.0
2.994397 1.173189 -0.003776 0.0
3.327117 1.986540 0.000571 0.0
2.593645 2.037971 -0.001227 0.0
1.822917 0.352955 -0.003216 0.0
2.146048 0.143620 0.000032 0.0
0.597199 2.427118 0.002546 0.0
2.751451 2.099641 -0.002363 0.0
0.733317 0.258690 0.004381 0.0
3.822083 2.099742 -0.001165 0.0
2.844951 2.315633 0.004846 0.0
1.168805 1.020312 0.004890 0.0
3.013338 0.468970 -0.002028 0.0
1.818169 0.455136 0.000140 0.0
1.348296 2.018050 -0.001167 0.0
0.388410 1.065280 0.005296 0.0
1.983626 1.588487 -0.000896 0.0
3.467521 1.445909 0.001735 0.0
3.235456 1.506925 0.000151 0.0
4.139902 2.417788 0.000304 0.0
3.636156 0.091626 0.001913 0.0
4.390661 1.792502 0.003015 0.0
0.541013 1.816846 0.003931 0.0
0.003038 0.955667 -0.002381 0.0
0.076935 0.597422 -0.001746 0.0
2.865221 1.178125 0.000655 0.0
2.486529 0.352423 -0.001926 0.0
4.182050 0.747441 -0.000247 0.0
2.702547 2.304995 0.001632 0.0
0.087356 1.307906 0.001359 0.0
0.464681 1.183843 0.000292 0.0
3.246539 0.153685 -0.003127 0.0
4.473605 0.965814 0.000177 0.0
2.947278 0.942109 0.002774 0.0
1.193715 1.879592 0.002884 0.0
2.676275 1.338280 -0.002120 0.0
1.314419 1.239003 0.001002 0.0
1.272373 0.640627 0.000380 0.0
3.073744 1.953774 -0.001810 0.0
3.296616 1.669223 -0.003318 0.0
2.028994 2.252935 -0.002474 0.0
4.071405 1.592380 -0.001882 0.0
2.590564 0.558265 -0.000144 0.0
4.551703 1.967461 0.000086 0.0
4.028304 0.576781 -0.000912 0.0
3.813575 0.598191 0.005439 0.0
4.192735 0.068645 0.003125 0.0
4.539024 0.309251 -0.000449 0.0
1.863298 1.519430 -0.003848 0.0
4.311476 2.198890 -0.002034 0.0
0.725958 0.066149 0.000187 0.0
0.637954 1.138781 -0.000736 0.0
3.844611 0.064714 -0.002577 0.0
1.305227 0.630320 0.001390 0.0
0.742086 2.248762 -0.004555 0.0
3.965922 0.429832 0.000160 0.0
2.534357 0.300950 0.001001 0.0
1.235549 0.924066 -0.003193 0.0
3.096310 1.473133 -0.003005 0.0
1.428201 0.665316 0.001450 0.0
3.075983 1.398879 -0.003811 0.0
1.411267 0.918253 0.000839 0.0
3.927450 1.547698 -0.001522 0.0
1.360195 0.624008 0.002256 0.0
3.555013 0.475640 -0.004043 0.0
3.714053 1.475250 0.003616 0.0
1.568718 0.016443 0.000613 0.0
1.087894 0.394304 -0.000672 0.0
4.052813 0.513158 -0.001983 0.0
0.627814 0.512167 -0.002978 0.0
2.326767 0.357151 -0.004578 0.0
2.533778 1.046610 0.004194 0.0
2.834581 0.861162 0.000124 0.0
3.878048 1.842825 0.000493 0.0
1.214924 2.323532 0.003241 0.0
4.313165 2.266251 0.002066 0.0
0.242743 0.699722 -0.000364 0.0
2.125411 2.208656 -0.000453 0.0
3.563655 0.184044 0.005469 0.0
1.529293 0.230573 0.004514 0.0
3.035672 2.386601 0.001402 0.0
2.841495 0.608295 0.002264 0.0
3.150680 1.024098 0.001481 0.0
1.835153 0.548736 -0.001469 0.0
1.666119 0.154009 -0.002465 0.0
1.534728 0.253488 -0.002140 0.0
3.775549 0.929335 -0.002997 0.0
0.153732 1.311895 -0.003057 0.0
0.391870 0.366480 0.004074 0.0
0.012397 1.523716 0.000994 0.0
3.994465 1.354808 0.004995 0.0
1.024098 1.358479 0.001359 0.0
2.585202 0.756961 0.002343 0.0
0.056979 1.046356 0.003475 0.0
2.785474 1.191233 -0.002661 0.0
1.514492 2.315491 0.002368 0.0
4.469077 2.297497 0.002229 0.0
0.647125 2.258766 0.004654 0.0
0.407295 1.284511 0.001487 0.0
4.129902 1.780036 0.001650 0.0
2.708800 1.323336 0.001900 0.0
2.319633 0.262820 -0.001020 0.0
1.821512 2.461192 -0.000361 0.0
1.968227 0.836149 0.003281 0.0
3.935432 1.758654 0.004214 0.0
2.794007 0.552865 0.001485 0.0
3.485685 1.540909 -0.002447 0.0
3.214010 0.938904 -0.002732 0.0
2.372067 0.593684 0.000582 0.0
3.044755 0.072986 0.005957 0.0
3.238056 0.324866 0.003521 0.0
2.912263 0.592417 -0.000949 0.0
4.153848 1.215722 -0.001658 0.0
1.676180 0.066702 0.001633 0.0
2.192883 0.176095 0.002482 0.0
2.799134 1.976205 -0.001163 0.0
1.154507 1.973131 -0.002393 0.0
4.296547 1.508550 0.001756 0.0
2.346461 0.254398 0.000070 0.0
3.411374 0.081244 -0.000784 0.0
0.573216 0.079476 0.004113 0.0
3.135797 0.453594 -0.000330 0.0
0.909141 0.506021 0.003184 0.0
0.709014 2.282198 -0.000280 0.0
2.524713 1.645632 0.003792 0.0
3.223411 1.240437 0.000691 0.0
1.424801 1.785793 -0.002240 0.0
3.062280 0.146161 -0.003091 0.0
3.455312 0.950787 0.000282 0.0
3.674840 0.389291 0.003107 0.0
2.093609 1.882823 -0.000103 0.0
0.402756 2.284519 -0.000375 0.0
2.384967 0.319628 0.000548 0.0
3.301411 1.434260 0.001626 0.0
0.890760 2.241790 0.000933 0.0
3.886370 0.871211 -0.005002 0.0
2.094573 2.203797 0.000310 0.0
4.415597 1.725931 -0.004386 0.0
3.414167 1.582829 0.004059 0.0
0.801729 1.596728 0.000582 0.0
1.912292 2.415402 0.000457 0.0
0.428647 2.314019 0.002495 0.0
3.051553 1.456212 -0.002432 0.0
4.202318 2.351400 0.004784 0.0
3.558878 0.812006 0.001393 0.0
0.260797 1.930465 0.001549 0.0
1.592844 2.250063 0.002827 0.0
2.083890 0.085974 -0.001273 0.0
1.434932 0.989394 -0.003357 0.0
0.731815 2.141518 0.001551 0.0
2.668679 0.096716 -0.002675 0.0
1.463155 0.523975 0.001180 0.0
4.485009 0.682444 -0.003267 0.0
3.495750 2.197735 -0.000312 0.0
3.522465 1.238896 0.000561 0.0
1.789543 1.859050 0.001217 0.0
3.699626 1.532127 0.003834 0.0
2.593746 0.813191 0.002198 0.0
2.505156 0.428206 0.001034 0.0
1.259566 0.803136 0.004944 0.0
3.685031 1.382004 0.000712 0.0
3.967002 2.225868 0.000093 0.0
1.464369 1.445656 -0.001561 0.0
0.908725 1.721971 -0.005818 0.0
0.447520 1.585155 -0.000400 0.0
2.202616 1.376510 0.000705 0.0
4.322348 0.044563 0.002518 0.0
3.011065 2.394007 0.000164 0.0
3.880105 0.356189 0.000328 0.0
2.170010 0.158810 -0.000850 0.0
2.645575 1.675872 0.000066 0.0
0.164783 2.406403 0.002036 0.0
1.677768 2.381442 -0.007666 0.0
3.678527 0.870017 -0.005876 0.0
3.907447 0.714671 0.000278 0.0
1.121995 1.911018 -0.004175 0.0
3.859699 0.717550 0.001220 0.0
3.077401 1.098103 -0.001229 0.0
3.172671 1.731348 0.003983 0.0
0.555223 2.174850 -0.000770 0.0
2.289210 0.437251 -0.002462 0.0
3.433436 0.347256 -0.000107 0.0
0.459823 1.174666 -0.001819 0.0
4.328074 0.409762 0.005519 0.0
2.261822 1.363652 0.000001 0.0
3.831296 1.992344 0.002033 0.0
4.243121 2.460692 -0.001731 0.0
2.549770 2.328815 0.000311 0.0
1.144440 2.217162 -0.000778 0.0
2.625478 1.618919 -0.004459 0.0
1.535256 0.713416 0.001913 0.0
4.131451 0.780937 -0.000636 0.0
2.075237 1.003611 -0.001216 0.0
3.885242 2.375575 -0.004048 0.0
2.987131 0.926073 -0.000286 0.0
2.121872 1.119868 -0.000977 0.0
3.668466 0.537236 0.002555 0.0
2.329556 1.391008 -0.001129 0.0
3.325164 0.866831 -0.000330 0.0
0.482988 2.209108 -0.000057 0.0
0.227488 1.684399 0.002438 0.0
3.712487 2.302604 -0.003625 0.0
1.717489 0.955181 -0.002022 0.0
0.561635 1.289099 0.001928 0.0
3.193171 0.734185 -0.001138 0.0
1.317478 2.156722 0.000465 0.0
2.953633 1.127630 0.002082 0.0
1.052507 2.180743 0.003040 0.0
4.276528 1.760188 -0.002402 0.0
4.446904 0.634480 0.001399 0.0
3.238413 1.401114 0.000321 0.0
4.340353 0.807375 0.001614 0.0
3.833888 1.214627 0.002329 0.0
0.008773 0.913536 -0.000702 0.0
1.416847 2.095377 -0.003503 0.0
0.881541 1.360974 0.000984 0.0
1.942542 2.146806 -0.001633 0.0
2.211909 2.262843 0.002705 0.0
4.082007 1.742747 0.000556 0.0
4.558782 1.476034 0.002178 0.0
3.903863 0.529639 -0.004231 0.0
2.241107 1.645679 0.001113 0.0
2.426194 0.655722 0.000686 0.0
2.622845 2.012237 -0.000016 0.0
1.827366 0.109725 0.000775 0.0
0.798895 2.048161 0.002823 0.0
0.425443 0.496413 -0.002571 0.0
4.560522 1.744994 -0.002025 0.0
3.957926 1.072811 -0.000427 0.0
1.749334 2.140456 0.002947 0.0
0.804389 1.588456 -0.007135 0.0
1.855669 0.288973 -0.001762 0.0
3.977505 2.424958 0.001215 0.0
3.061046 0.403244 0.003836 0.0
0.861866 2.334524 0.000134 0.0
4.385910 0.208763 -0.004629 0.0
2.477817 1.047153 0.001150 0.0
2.370123 0.604500 0.001445 0.0
2.097975 1.128439 -0.004675 0.0
1.600447 1.724757 -0.000366 0.0
0.970821 0.218588 -0.000950 0.0
1.804218 2.313998 0.002638 0.0
1.160183 1.135349 -0.003523 0.0
1.151865 1.190624 0.000035 0.0
2.890133 1.088630 0.002884 0.0
1.944640 0.864421 -0.003571 0.0
3.859800 0.825522 -0.002766 0.0
1.115252 0.649887 0.003628 0.0
3.753227 1.839962 -0.002089 0.0
1.260210 1.585320 0.001247 0.0
0.397944 1.473680 -0.000045 0.0
3.009098 1.048212 -0.001928 0.0
3.963373 1.797117 0.003434 0.0
4.331297 1.482034 0.001212 0.0
2.283493 1.770782 0.001678 0.0
2.285789 1.287949 0.002856 0.0
4.168417 0.618116 -0.005056 0.0
2.690805 0.119429 -0.004263 0.0
4.013679 0.026304 0.001610 0.0
4.537013 0.528117 -0.002538 0.0
3.746163 0.868719 0.005296 0.0
3.600928 1.268264 -0.005065 0.0
3.057193 2.494492 -0.002775 0.0
3.185114 0.306804 0.000477 0.0
0.487796 0.250461 0.001913 0.0
0.776263 2.299282 0.001062 0.0
0.426111 1.912563 0.001832 0.0
2.897777 1.022456 0.002562 0.0
2.808184 1.031562 0.000720 0.0
1.552586 2.137728 -0.001636 0.0
0.375661 0.440070 -0.001084 0.0
3.021786 1.204772 0.003980 0.0
3.053759 0.871470 -0.000681 0.0
1.575273 0.180998 0.005814 0.0
1.777394 0.617461 0.001442 0.0
1.827067 2.320608 -0.000809 0.0
3.532324 0.863082 -0.000425 0.0
0.609825 0.568296 0.005307 0.0
2.976925 1.366579 0.002380 0.0
0.211092 0.844117 0.000826 0.0
2.808932 1.239623 -0.000624 0.0
0.585668 1.203471 0.000067 0.0
0.309320 1.959317 -0.000386 0.0
3.923717 1.091185 -0.001791 0.0
4.510462 0.486778 0.003994 0.0
1.176562 2.453125 -0.002268 0.0
4.322347 1.674693 0.000850 0.0
3.304063 0.089795 0.000757 0.0
0.381751 0.340073 -0.004046 0.0
0.917483 2.126835 0.003073 0.0
0.760599 1.131224 0.005423 0.0
1.493053 1.298384 -0.000089 0.0
4.420019 1.465398 -0.000677 0.0
1.613170 1.791655 0.005646 0.0
3.735089 2.053613 0.003986 0.0
3.668285 1.942648 0.003686 0.0
4.045000 1.477954 0.004190 0.0
2.100558 0.285653 -0.003804 0.0
3.445446 2.093142 0.001053 0.0
3.922310 2.444124 -0.003823 0.0
3.649096 0.900499 0.002982 0.0
4.003899 2.438701 0.003566 0.0
1.163600 1.583421 0.000951 0.0
0.177960 1.724933 0.000539 0.0
0.539714 1.481610 0.000047 0.0
1.272674 2.219565 0.001949 0.0
3.831567 2.478154 -0.006822 0.0
2.704581 0.466266 -0.002628 0.0
2.157502 0.606994 -0.002776 0.0
3.930774 0.405205 -0.000826 0.0
0.930253 1.292682 0.002433 0.0
4.428542 0.630403 0.003498 0.0
3.974301 0.809177 0.000031 0.0
3.381281 1.249100 0.000391 0.0
3.498578 0.659918 0.003383 0.0
1.912743 0.472289 -0.002767 0.0
1.631277 0.592869 -0.001665 0.0
1.937815 1.366498 -0.003504 0.0
1.602202 1.408963 0.003051 0.0
3.646536 0.264813 -0.000589 0.0
3.789045 1.364064 -0.000226 0.0
2.837404 1.347015 0.000855 0.0
1.848642 0.191500 -0.001952 0.0
4.066990 1.007695 0.000169 0.0
4.115482 1.561841 0.002965 0.0
3.328567 0.639586 -0.001759 0.0
4.368159 1.990736 -0.005270 0.0
3.338250 0.827507 -0.002108 0.0
4.353463 2.423049 -0.001508 0.0
4.527933 1.612334 -0.000282 0.0
1.378786 2.362866 0.003230 0.0
0.369232 0.782472 -0.001728 0.0
1.626311 0.624318 0.000964 0.0
1.027999 1.348719 -0.001284 0.0
0.010615 0.712971 0.000219 0.0
1.334415 1.297179 -0.000433 0.0
4.276176 1.154428 -0.002875 0.0
1.924789 1.370316 -0.002149 0.0
4.055017 1.181811 0.000331 0.0
2.956008 2.111956 0.002074 0.0
2.703043 1.975915 -0.000256 0.0
4.001153 2.315109 -0.000065 0.0
2.815650 1.937797 0.000716 0.0
3.203067 0.931483 -0.001138 0.0
1.659362 0.615963 0.001314 0.0
4.452573 1.567925 -0.001008 0.0
1.924422 2.419887 -0.000036 0.0
2.666973 1.190404 -0.002195 0.0
4.221376 0.810709 0.002267 0.0
3.697365 0.929925 -0.000897 0.0
0.908887 0.677288 -0.004688 0.0
2.859363 1.227967 -0.002789 0.0
2.423125 1.195214 0.000330 0.0
4.042859 2.259621 0.004379 0.0
1.458974 2.123770 -0.000269 0.0
1.213639 2.363506 0.001345 0.0
4.229245 0.017456 -0.002122 0.0
2.865902 1.535330 -0.001826 0.0
0.384218 2.289038 0.002999 0.0
0.271061 1.316152 -0.000390 0.0
0.921499 1.626147 0.004034 0.0
2.048638 1.119989 0.004121 0.0
2.685620 1.407212 0.000181 0.0
3.869058 0.425258 0.002469 0.0
2.248692 1.475463 -0.000175 0.0
2.152762 2.277639 0.000330 0.0
1.620720 2.103536 0.001080 0.0
1.043739 0.444280 0.002052 0.0
0.905616 2.157710 0.000519 0.0
3.625503 1.216476 -0.004696 0.0
1.924394 0.211568 0.004443 0.0
4.078948 0.602004 0.000694 0.0
0.233098 1.003888 -0.002617 0.0
0.182914 0.889374 -0.003044 0.0
3.566780 0.933568 -0.002389 0.0
3.552692 0.821142 0.005924 0.0
2.978037 0.250032 0.004839 0.0
3.041340 0.888209 0.003370 0.0
1.447456 1.715258 0.000838 0.0
1.657560 0.955276 0.002216 0.0
4.000183 1.916205 -0.003310 0.0
1.484500 0.461232 0.001418 0.0
0.772432 0.085067 -0.001068 0.0
1.007100 0.618523 -0.002607 0.0
3.109986 0.542005 0.001484 0.0
2.260118 2.247541 -0.002534 0.0
0.827031 2.255182 0.000093 0.0
4.242283 2.482005 -0.003878 0.0
2.525724 0.925946 0.000796 0.0
0.495051 0.109689 0.000489 0.0
1.276781 0.001170 -0.000693 0.0
3.338049 0.312711 -0.000210 0.0
1.035035 0.857441 -0.002485 0.0
4.033765 0.165868 0.000551 0.0
2.858891 0.123632 -0.004959 0.0
0.027982 0.227959 0.005855 0.0
3.126770 0.873875 -0.000935 0.0
4.179724 0.873339 -0.002339 0.0
2.815108 0.603146 0.001756 0.0
4.383457 0.733264 0.001551 0.0
0.270798 1.534254 0.002491 0.0
3.039095 1.529671 0.001037 0.0
4.198392 2.400503 0.001474 0.0
0.385630 0.701958 -0.000992 0.0
2.400731 1.411987 0.000328 0.0
2.103775 0.078061 -0.001656 0.0
0.063028 0.067795 0.002593 0.0
0.708981 0.836969 0.002038 0.0
1.668086 2.395415 0.002986 0.0
3.783630 1.407606 0.002846 0.0
0.957943 2.103225 0.002763 0.0
3.092289 0.982809 -0.003829 0.0
2.609153 0.582479 -0.000522 0.0
3.762162 0.640028 -0.000605 0.0
3.064526 1.710954 -0.000441 0.0
3.339094 1.627033 -0.002246 0.0
1.861925 1.014486 -0.001450 0.0
3.990956 1.954513 -0.000958 0.0
2.197925 0.031017 0.000579 0.0
3.376263 0.283749 0.003504 0.0
3.668106 1.886045 0.001713 0.0
2.283198 2.235227 -0.003658 0.0
1.459465 0.190950 0.000763 0.0
1.034931 0.330781 0.001363 0.0
4.248773 0.411938 -0.000376 0.0
2.564456 2.114225 0.001457 0.0
1.721895 0.486994 0.001718 0.0
1.858769 0.680191 0.003428 0.0
1.164104 1.443110 -0.002119 0.0
1.690614 1.967965 -0.001686 0.0
4.406444 0.585446 -0.001261 0.0
3.010487 0.647806 -0.000622 0.0
1.505494 0.186922 0.002317 0.0
1.261215 2.047147 -0.002205 0.0
1.370541 1.306211 0.001972 0.0
3.440869 1.432538 -0.002878 0.0
1.161309 0.508092 0.002464 0.0
0.282668 1.188282 0.002160 0.0
0.533202 0.623330 -0.002740 0.0
3.119693 2.210797 0.001215 0.0
3.931597 2.423377 0.002735 0.0
4.479392 1.036054 -0.001403 0.0
0.762013 2.302876 0.004282 0.0
1.409269 1.494314 -0.002368 0.0
0.475854 0.098408 0.000686 0.0
0.785840 1.224396 -0.000162 0.0
1.127607 2.332329 0.001383 0.0
2.486835 0.070500 -0.000585 0.0
3.222458 0.880431 -0.003553 0.0
0.495297 0.068260 0.001820 0.0
1.886825 0.299661 -0.001404 0.0
1.106774 0.925751 -0.000966 0.0
1.671760 1.022012 0.001239 0.0
2.775961 2.305141 -0.001506 0.0
1.416799 1.841297 -0.003193 0.0
2.761709 2.338501 0.000247 0.0
3.741557 1.754886 -0.000738 0.0
3.634150 1.859426 0.002209 0.0
2.402942 1.051683 -0.003333 0.0
2.643113 0.499004 0.002959 0.0
3.484512 1.720846 -0.002198 0.0
1.929221 0.511082 0.000011 0.0
0.233599 1.038500 0.000579 0.0
1.425255 0.627578 0.004191 0.0
2.707385 1.371718 0.005009 0.0
4.297070 0.150297 0.001299 0.0
2.635775 1.140451 -0.002353 0.0
0.224680 0.311582 0.003354 0.0
4.395775 0.811456 0.003613 0.0
0.850908 0.090769 -0.000791 0.0
3.214492 1.937668 0.000360 0.0
0.807595 0.766082 -0.002036 0.0
1.860445 1.586778 0.000591 0.0
1.470883 0.714422 -0.002743 0.0
3.968391 1.679439 0.003433 0.0
1.392723 2.261983 -0.000066 0.0
3.283649 2.312045 0.001802 0.0
3.137967 0.327397 0.004872 0.0
3.487737 2.253949 0.001836 0.0
2.205008 0.232906 0.000847 0.0
0.954323 1.361534 -0.000037 0.0
3.506175 0.818197 0.000783 0.0
4.553990 1.167277 0.000178 0.0
0.927096 1.696316 -0.001168 0.0
0.789093 1.410222 -0.000458 0.0
0.616659 2.225774 0.003308 0.0
2.184124 2.144498 0.000828 0.0
2.892249 1.221719 0.000377 0.0
0.979852 0.949716 0.000229 0.0
4.292633 0.145549 0.005224 0.0
1.069059 2.199202 -0.002218 0.0
0.615719 0.260260 -0.005404 0.0
3.562039 1.546037 -0.000407 0.0
4.391116 2.051981 0.002046 0.0
0.354177 0.199029 -0.001298 0.0
2.750733 0.934692 -0.000706 0.0
2.138867 1.527381 0.004060 0.0
0.500426 1.403088 -0.000416 0.0
4.545084 0.711684 0.001689 0.0
0.850944 2.368035 -0.000593 0.0
2.123267 2.414323 0.002604 0.0
1.783561 1.674823 0.001217 0.0
0.329052 1.237789 0.003997 0.0
1.275202 0.971614 -0.002146 0.0
2.351748 1.089238 -0.004742 0.0
0.171374 1.143591 0.002005 0.0
2.531912 1.137139 -0.002890 0.0
1.550386 2.370965 -0.002460 0.0
1.558645 1.756024 -0.000361 0.0
0.805112 0.829573 0.001337 0.0
2.542058 0.055736 -0.000114 0.0
3.416489 0.012681 -0.000828 0.0
0.266989 2.309543 -0.006869 0.0
0.739495 1.573308 -0.000254 0.0
2.495102 1.320967 -0.001818 0.0
2.608313 0.971419 0.002484 0.0
1.512356 1.414466 -0.000631 0.0
2.198459 1.814754 0.003302 0.0
1.952631 1.632425 -0.000258 0.0
0.678534 0.529873 -0.001023 0.0
2.090114 1.214700 0.002349 0.0
2.849358 0.722307 -0.002031 0.0
2.980824 2.189870 0.004585 0.0
3.982032 0.879036 -0.002876 0.0
1.328781 0.029666 -0.001758 0.0
3.000783 0.835151 0.002793 0.0
4.174429 0.949521 -0.001050 0.0
0.637414 2.252365 0.000201 0.0
1.376527 1.727441 -0.000667 0.0
4.444559 1.775857 0.000892 0.0
4.183273 0.769221 -0.000833 0.0
3.939540 0.652116 0.003363 0.0
2.255164 1.557306 -0.002426 0.0
1.329771 0.783258 0.004203 0.0
1.653154 2.116317 -0.001797 0.0
4.557962 1.746935 -0.000406 0.0
3.733858 0.563348 -0.003365 0.0
1.521592 1.766782 -0.000255 0.0
3.493354 0.951427 -0.001528 0.0
0.996885 1.783814 0.000375 0.0
2.089135 1.662753 -0.005810 0.0
3.308420 1.614682 -0.001729 0.0
0.619304 0.887690 0.004139 0.0
1.298144 0.718704 0.001547 0.0
1.936143 1.826981 -0.000730 0.0
0.798795 1.045412 0.003584 0.0
0.579746 0.490500 0.001045 0.0
0.959066 1.011713 -0.000424 0.0
1.795273 1.097012 -0.003775 0.0
0.018194 0.517299 0.002795 0.0
4.243644 1.870912 -0.001363 0.0
1.858648 2.362562 -0.001447 0.0
0.394535 0.691635 -0.002023 0.0
2.107932 2.008004 -0.001058 0.0
0.226987 1.259516 0.001719 0.0
2.308546 1.142996 0.001346 0.0
2.117831 1.277865 0.001731 0.0
3.357976 1.987626 -0.004860 0.0
0.185539 1.247217 -0.001554 0.0
4.556660 2.057097 -0.001939 0.0
4.326207 0.634160 0.003466 0.0
3.999128 0.951936 0.003195 0.0
2.638415 2.085390 0.001015 0.0
0.576967 2.185430 -0.001135 0.0
3.151755 0.519646 0.002238 0.0
0.992802 2.001848 -0.003449 0.0
2.212713 2.035214 -0.005251 0.0
1.615012 1.251950 0.006477 0.0
3.388046 1.831423 -0.000217 0.0
3.372933 1.786838 -0.000433 0.0
4.089243 0.232521 -0.002081 0.0
3.977899 1.328995 0.002825 0.0
1.987983 1.918416 -0.001386 0.0
1.768515 0.835242 0.002312 0.0
3.505446 1.199546 -0.000920 0.0
1.982644 1.079220 0.001133 0.0
2.599512 2.070695 -0.001414 0.0
3.297930 1.968290 -0.002415 0.0
0.104562 0.879612 -0.001369 0.0
4.078616 0.778839 0.004252 0.0
3.964070 2.018143 0.001733 0.0
3.641585 1.539940 0.003294 0.0
2.044790 1.069678 -0.002074 0.0
3.585363 1.393987 -0.002483 0.0
1.431253 2.018325 0.005636 0.0
0.441336 2.421322 0.001536 0.0
1.554103 0.384495 -0.004194 0.0
4.189816 0.911415 0.003881 0.0
0.688426 1.042849 0.001617 0.0
1.657989 1.353647 -0.001965 0.0
0.205724 1.088495 -0.001191 0.0
3.321143 0.123452 0.002807 0.0
0.201233 1.116376 0.003096 0.0
0.820207 0.105501 0.002300 0.0
3.800619 2.486444 -0.001908 0.0
2.957292 2.064387 0.002406 0.0
1.771900 2.296056 0.006555 0.0
0.075557 0.024930 0.003724 0.0
2.869559 2.323167 -0.001153 0.0
1.822829 2.259167 -0.001365 0.0
4.533294 1.323998 -0.000313 0.0
0.144339 1.632324 0.001516 0.0
3.713438 1.186098 -0.000621 0.0
1.381961 1.037882 0.004074 0.0
0.878372 0.581183 -0.002262 0.0
3.366470 2.480983 -0.001555 0.0
3.930509 0.355286 0.000668 0.0
2.724477 2.021425 0.002557 0.0
1.629081 1.499485 -0.004083 0.0
2.405238 0.803339 -0.002053 0.0
1.173747 1.171579 0.004664 0.0
1.202211 0.069976 0.000631 0.0
2.963179 0.723028 0.002979 0.0
0.692049 1.610273 -0.001498 0.0
0.969689 1.995790 0.000720 0.0
1.255861 0.975292 -0.000333 0.0
2.849274 1.186051 0.004145 0.0
2.413147 2.072246 0.000663 0.0
0.938745 0.286207 -0.002062 0.0
0.806618 0.611813 -0.001355 0.0
2.880883 0.472216 -0.000705 0.0
3.747371 0.714861 -0.003949 0.0
3.700690 1.087591 -0.001837 0.0
3.134301 1.061673 0.000279 0.0
3.102545 2.174918 -0.002225 0.0
4.453076 0.166332 0.003217 0.0
1.160889 2.064834 0.003375 0.0
0.700990 1.492406 -0.002197 0.0
1.846233 2.491657 -0.003790 0.0
3.246842 0.620405 -0.003568 0.0
2.699528 0.886972 -0.002513 0.0
0.002928 0.574708 0.000367 0.0
2.691662 1.691342 0.000858 0.0
0.535618 1.470584 0.002266 0.0
2.003275 2.352606 0.004808 0.0
3.744784 1.659380 -0.001535 0.0
1.087024 1.343792 0.002961 0.0
1.391727 0.677490 -0.000907 0.0
1.634117 1.760305 -0.000895 0.0
0.165551 2.052083 -0.003610 0.0
2.634303 0.667822 -0.003659 0.0
0.531128 2.442255 -0.001964 0.0
2.918126 1.295969 0.003074 0.0
1.902206 1.771378 -0.002410 0.0
0.169566 2.037915 0.002619 0.0
3.269369 1.567057 -0.005733 0.0
3.047268 2.124606 -0.002333 0.0
4.151358 0.515242 -0.002709 0.0
0.374400 2.314394 0.001363 0.0
1.402052 0.471732 -0.000370 0.0
2.703088 1.996824 -0.000264 0.0
2.521975 0.170070 0.001133 0.0
3.090576 1.802715 0.001162 0.0
3.184270 0.980375 -0.000371 0.0
1.537278 2.283529 0.000047 0.0
2.871280 1.742728 0.003158 0.0
4.273987 1.434778 0.000034 0.0
2.008463 1.965322 -0.001132 0.0
1.104121 1.952824 0.003361 0.0
3.576801 1.174162 0.000744 0.0
4.088292 0.845522 -0.003604 0.0
0.575888 1.395545 -0.002453 0.0
0.531920 0.423357 -0.000833 0.0
2.099158 0.158271 0.002923 0.0
3.262958 0.177302 0.001080 0.0
0.906836 2.282189 0.002033 0.0
0.473194 1.491062 -0.000104 0.0
2.133464 0.672835 0.000852 0.0
1.334842 0.453482 0.001006 0.0
2.679976 2.272297 -0.000739 0.0
3.251894 2.299695 -0.003478 0.0
1.869908 2.376809 0.001657 0.0
2.376403 1.370151 0.002110 0.0
0.260860 0.900419 0.000226 0.0
1.684861 0.452930 0.001561 0.0
4.201090 1.767259 -0.002790 0.0
2.264465 1.516691 -0.002162 0.0
2.854019 0.757471 0.002737 0.0
2.650973 1.142480 0.001801 0.0
3.294653 2.322426 -0.003081 0.0
2.796113 1.683773 0.006875 0.0
2.896943 0.086426 0.002149 0.0
1.325522 1.076481 -0.000717 0.0
2.306112 1.478562 -0.005256 0.0
2.163958 0.802794 0.002520 0.0
2.218647 0.183122 0.001001 0.0
4.181736 1.253713 -0.001575 0.0
3.836391 0.258702 -0.000033 0.0
1.933775 0.124176 0.001790 0.0
2.588091 1.824770 0.000743 0.0
4.210472 2.206388 -0.001298 0.0
3.863615 1.451424 0.000287 0.0
4.423637 1.670119 0.002084 0.0
3.444693 2.418910 0.004332 0.0
1.518917 1.788614 0.000018 0.0
1.273922 1.550977 -0.003246 0.0
2.001575 0.251508 -0.001428 0.0
2.586094 0.589640 -0.000167 0.0
3.067700 1.101480 0.000307 0.0
3.192855 0.489549 0.001944 0.0
0.708267 0.375038 -0.001320 0.0
0.970791 0.770093 -0.003367 0.0
3.773711 2.030366 -0.003318 0.0
3.393891 0.413224 0.001332 0.0
0.442998 0.456007 0.001510 0.0
2.956357 1.007586 -0.002972 0.0
3.650996 2.325524 0.003128 0.0
4.264955 1.233859 -0.001960 0.0
2.730674 0.294266 -0.000484 0.0
0.033780 2.320838 0.002161 0.0
2.775198 1.448621 -0.001571 0.0
1.881955 1.735201 -0.001060 0.0
0.683627 2.189828 0.000261 0.0
1.808529 0.695016 -0.000283 0.0
2.023492 2.341162 0.002064 0.0
0.378159 1.420851 0.001694 0.0
1.645007 1.801875 0.002175 0.0
0.972755 1.720574 -0.001601 0.0
3.658233 1.725102 0.002781 0.0
0.543197 2.092654 0.000810 0.0
2.133579 0.432707 0.000464 0.0
3.538344 2.338002 0.002949 0.0
2.567780 0.871272 -0.006853 0.0
4.555414 1.765555 -0.000207 0.0
1.396222 0.607331 0.000664 0.0
3.441417 0.077497 -0.003028 0.0
4.353084 1.958879 0.004847 0.0
1.401149 0.942473 0.000215 0.0
1.730945 2.230546 0.001105 0.0
3.421406 1.515907 -0.006153 0.0
0.947408 1.628692 0.004042 0.0
3.425581 1.672148 0.000867 0.0
4.072176 2.253637 0.001317 0.0
2.369319 0.122149 -0.001944 0.0
1.231756 0.775411 -0.001700 0.0
0.665083 1.093754 -0.000212 0.0
1.813229 2.423747 -0.000727 0.0
2.968075 1.766063 0.001067 0.0
3.496597 0.448961 0.000042 0.0
1.297601 0.175242 0.000864 0.0
0.298544 0.629624 -0.004149 0.0
3.688469 2.047127 -0.001215 0.0
3.689712 0.995662 0.002304 0.0
0.696393 0.836516 -0.001920 0.0
0.945515 1.544144 -0.003333 0.0
4.146596 2.291938 -0.000157 0.0
1.462163 1.361485 0.003737 0.0
3.387541 0.287468 0.000789 0.0
0.009824 1.669807 -0.003175 0.0
1.404424 1.708037 -0.004800 0.0
3.524965 0.483285 0.000194 0.0
4.149849 0.658835 0.000212 0.0
2.898753 2.212819 0.002031 0.0
3.439516 0.456277 -0.001413 0.0
1.240527 0.696968 0.000007 0.0
1.088173 1.086479 0.003517 0.0
0.590230 1.576800 0.001513 0.0
4.244061 1.966221 -0.004097 0.0
0.952112 1.951706 -0.000111 0.0
4.037329 2.164380 -0.000044 0.0
0.052396 1.826458 -0.002554 0.0
2.272029 0.171405 -0.002804 0.0
3.058725 0.382921 0.002087 0.0
1.991645 1.594879 0.000656 0.0
3.621572 2.171316 0.000429 0.0
1.192864 0.313512 0.004839 0.0
4.355580 0.295503 0.002987 0.0
3.462122 1.708186 0.002366 0.0
2.040082 0.088143 -0.001469 0.0
2.081214 1.051531 -0.003090 0.0
1.182346 0.404875 0.002497 0.0
2.204569 0.572830 -0.001830 0.0
2.057054 0.985212 0.002137 0.0
0.120101 0.068525 0.002680 0.0
0.813529 1.230931 -0.001798 0.0
0.444400 1.162767 -0.002024 0.0
1.681956 0.374309 -0.001482 0.0
3.915718 0.252764 0.000315 0.0
2.156799 2.310540 -0.001649 0.0
2.055496 0.547720 -0.003603 0.0
3.341498 1.664474 0.001322 0.0
1.802608 1.931186 0.001137 0.0
1.865076 1.177480 0.004717 0.0
3.899427 0.075317 0.000006 0.0
0.092679 1.977384 -0.001333 0.0
0.080508 1.026836 -0.000292 0.0
2.600958 2.041759 -0.001731 0.0
2.009271 2.257506 -0.000874 0.0
0.845924 1.372048 -0.000732 0.0
0.661580 0.981449 0.009377 0.0
4.003838 0.614005 0.000046 0.0
1.083435 1.044706 -0.003264 0.0
1.455116 2.054252 0.000600 0.0
0.508684 0.191431 0.001020 0.0
3.702271 0.313607 0.001218 0.0
3.199137 1.774036 0.001490 0.0
1.555713 0.608863 -0.003127 0.0
0.181186 1.126385 -0.001757 0.0
2.009140 1.579324 -0.001624 0.0
0.112633 1.400918 0.002938 0.0
3.817804 1.206068 0.000425 0.0
1.822117 0.054942 -0.002359 0.0
0.931197 1.856112 0.002799 0.0
3.758890 0.769752 -0.000648 0.0
0.555202 2.226311 0.000675 0.0
1.831903 1.121953 0.001039 0.0
1.213328 1.872838 0.002741 0.0
1.936781 1.526776 -0.003969 0.0
4.121629 1.537438 0.002602 0.0
4.006545 0.561718 -0.004550 0.0
3.857770 2.407350 0.002153 0.0
1.543610 0.157841 -0.004641 0.0
2.812492 0.496547 -0.000297 0.0
3.819733 1.998491 0.005249 0.0
4.162469 1.827420 0.001562 0.0
3.956873 1.805267 0.003274 0.0
2.739520 2.347372 -0.001496 0.0
3.182006 2.132825 -0.001440 0.0
4.089138 0.830919 -0.002117 0.0
2.652594 0.061639 0.002273 0.0
3.260769 2.344448 -0.001987 0.0
3.333973 1.630310 0.000159 0.0
3.934588 1.076233 -0.000238 0.0
4.205913 0.781870 0.000935 0.0
2.195395 2.215554 0.004104 0.0
1.352211 0.811692 0.001221 0.0
4.141131 0.578461 -0.002032 0.0
0.268545 0.063366 -0.005083 0.0
1.575674 1.395644 -0.001294 0.0
2.673149 1.201701 -0.000852 0.0
0.498095 0.395979 -0.000301 0.0
3.523794 0.008015 -0.005670 0.0
1.094081 1.777877 0.000492 0.0
3.379430 0.289009 0.002149 0.0
3.840931 1.675239 -0.007024 0.0
0.748125 0.838148 -0.001089 0.0
4.128500 1.106400 0.003614 0.0
1.327443 0.546776 0.002039 0.0
0.091442 2.187283 0.000189 0.0
3.228647 0.869276 0.000537 0.0
3.992457 0.827416 0.000030 0.0
4.035850 0.699444 0.000298 0.0
2.075830 2.019616 0.000397 0.0
1.383478 0.891940 -0.000610 0.0
2.756434 0.730827 0.003266 0.0
4.172583 0.591562 -0.001073 0.0
1.262265 0.944341 0.004296 0.0
4.322482 2.313995 -0.003489 0.0
2.521409 1.391806 -0.002747 0.0
3.627402 0.130208 -0.000988 0.0
2.209558 0.296002 -0.003950 0.0
1.043160 2.045799 -0.004386 0.0
3.826010 0.619525 0.006223 0.0
3.626639 1.566413 -0.002783 0.0
1.885609 0.885107 -0.001389 0.0
2.131942 1.304920 0.006589 0.0
2.788024 0.968811 -0.001870 0.0
1.775021 1.141172 -0.000107 0.0
0.280131 1.056982 0.000020 0.0
2.198239 2.059570 0.000203 0.0
1.135960 2.361192 -0.002530 0.0
1.762640 0.659755 0.004157 0.0
2.288685 1.996729 0.001594 0.0
0.269183 0.810985 -0.000720 0.0
1.347926 1.360672 -0.003009 0.0
3.661136 2.139324 -0.000783 0.0
1.012919 0.617376 -0.002302 0.0
3.673451 2.280184 0.000478 0.0
3.873837 2.208024 0.002369 0.0
1.758999 1.874058 0.005369 0.0
3.401327 1.736495 0.001250 0.0
3.221313 2.044864 -0.000214 0.0
2.769117 0.150175 -0.002491 0.0
3.050518 0.519562 -0.002980 0.0
1.969507 0.594440 0.001933 0.0
2.025486 0.949512 0.001112 0.0
2.189338 1.534993 -0.003292 0.0
0.019738 2.038909 -0.002842 0.0
4.091321 1.696280 -0.003028 0.0
0.087714 1.866667 0.003305 0.0
1.886729 1.425170 0.000722 0.0
2.463763 1.697047 0.000225 0.0
3.798276 1.094323 -0.002379 0.0
2.535184 2.155114 -0.003169 0.0
3.499498 0.321542 0.000486 0.0
1.696038 0.075399 0.001153 0.0
4.427802 0.363505 0.001781 0.0
0.775644 2.308264 -0.001669 0.0
