0.871799 1.383657 0.000338 0.0
3.327133 1.149248 0.001397 0.0
3.451259 0.954025 0.001010 0.0
0.275003 2.274871 0.002268 0.0
0.295301 0.139430 0.001991 0.0
2.715571 0.818048 0.002558 0.0
1.649997 2.268322 -0.001067 0.0
3.869540 1.938348 0.001711 0.0
0.538510 0.839917 -0.001689 0.0
1.433933 0.997233 -0.004442 0.0
0.955214 1.025512 -0.001965 0.0
3.761064 0.777995 -0.002903 0.0
4.032617 1.250772 0.001694 0.0
0.156473 0.968101 -0.000749 0.0
1.197513 1.564877 0.004402 0.0
2.489590 1.282935 0.000233 0.0
2.922529 1.030730 -0.001064 0.0
2.367882 1.235627 0.000434 0.0
4.244409 0.192657 -0.001515 0.0
0.716761 1.794663 -0.000057 0.0
2.188306 0.089712 0.002798 0.0
1.563720 0.782068 0.001892 0.0
4.164486 1.950982 -0.000539 0.0
1.773129 1.009448 0.001222 0.0
1.314798 0.314142 -0.000512 0.0
0.090319 2.214335 -0.001269 0.0
0.521778 2.101350 0.001243 0.0
0.410556 2.185308 -0.001165 0.0
2.332709 0.743793 -0.000320 0.0
0.441972 0.541773 0.002102 0.0
3.949112 1.265221 0.001133 0.0
2.348795 0.699027 0.004838 0.0
2.353045 0.365258 0.000755 0.0
3.436815 1.287947 -0.000227 0.0
0.185306 0.405024 -0.000163 0.0
1.797719 1.094303 -0.003272 0.0
4.155959 0.194636 0.000771 0.0
0.089341 0.154259 0.003598 0.0
2.569257 2.015227 -0.001951 0.0
2.979660 1.612960 -0.004382 0.0
0.831651 2.148090 0.002371 0.0
0.288184 1.820050 0.001019 0.0
2.310408 2.098101 -0.001991 0.0
1.646757 1.611901 0.004339 0.0
3.345118 2.140158 0.001144 0.0
4.142248 0.576114 0.001649 0.0
3.373375 2.061992 -0.005374 0.0
0.567957 1.016588 -0.003490 0.0
0.768804 1.098282 0.001210 0.0
1.361588 2.041936 0.002595 0.0
1.788603 0.640679 0.000874 0.0
1.051270 1.268873 0.000090 0.0
2.743491 1.770567 0.001759 0.0
3.848760 1.045184 -0.000513 0.0
2.002066 2.100794 -0.004250 0.0
1.040531 0.290500 0.001038 0.0
0.129879 0.312962 -0.000537 0.0
2.883414 1.649772 0.004738 0.0
3.735073 0.800880 0.000720 0.0
1.812528 0.484570 -0.001123 0.0
0.687650 1.052230 -0.001483 0.0
1.826442 1.783878 0.002076 0.0
0.416697 0.082990 -0.000161 0.0
3.108219 0.343801 -0.000857 0.0
0.108392 1.511825 -0.000998 0.0
1.714504 2.294115 0.000199 0.0
1.592840 0.801037 -0.004214 0.0
1.933329 2.300802 0.003803 0.0
0.330503 2.016433 -0.000182 0.0
0.274891 1.864641 -0.000730 0.0
3.438479 2.125505 -0.000484 0.0
0.156575 0.392353 0.002521 0.0
3.090665 0.740003 0.000783 0.0
3.009168 1.597679 -0.002222 0.0
0.098359 0.475039 0.004043 0.0
0.494715 0.362608 -0.000354 0.0
3.204906 1.477874 -0.005514 0.0
1.444428 2.228807 0.001514 0.0
3.366504 1.153479 0.000823 0.0
1.413163 0.296068 0.001454 0.0
1.898080 2.137441 -0.000301 0.0
0.228452 1.242116 0.001685 0.0
0.063097 2.151888 0.002633 0.0
2.057607 0.588287 -0.001843 0.0
3.059403 1.367684 0.000026 0.0
1.664221 2.165622 0.000061 0.0
2.114753 0.817908 -0.000415 0.0
2.484680 1.842809 -0.004054 0.0
4.034245 1.442138 -0.003606 0.0
2.961880 1.417395 0.000009 0.0
1.341346 1.931859 0.003874 0.0
4.220189 0.044607 0.003179 0.0
0.545900 0.741291 0.000161 0.0
3.962074 2.145539 -0.002086 0.0
1.370433 2.268650 0.002596 0.0
0.109019 1.008139 0.000348 0.0
1.397490 1.589871 0.000128 0.0
4.144477 1.828147 -0.001960 0.0
2.635206 0.369887 -0.000651 0.0
1.513315 0.222052 0.004759 0.0
1.996865 0.571338 -0.003300 0.0
3.599996 0.498386 0.000543 0.0
1.321228 1.426074 0.001735 0.0
4.261641 0.606081 -0.007579 0.0
3.823412 1.217097 0.002345 0.0
3.757590 0.191578 0.000592 0.0
3.401744 0.742299 0.004684 0.0
0.897562 1.291918 -0.004682 0.0
3.637196 0.275772 -0.001260 0.0
2.859495 0.205671 0.000019 0.0
1.463039 1.277212 -0.000624 0.0
4.229609 0.743830 -0.001092 0.0
1.339471 0.337290 0.001720 0.0
0.591442 1.960438 0.002351 0.0
0.176319 0.251534 0.000162 0.0
4.179102 0.469059 0.001712 0.0
0.326763 2.122975 -0.000959 0.0
1.415222 2.218261 0.000547 0.0
1.697182 1.936241 -0.000725 0.0
2.171104 0.508060 0.000385 0.0
0.991941 1.870153 -0.003125 0.0
2.924236 0.849702 -0.000600 0.0
3.765777 2.191705 0.000516 0.0
2.916028 0.912209 0.004423 0.0
3.663032 1.076418 0.001141 0.0
2.754933 0.314633 0.001530 0.0
1.430654 1.380217 -0.003835 0.0
3.557656 1.757898 0.003031 0.0
0.375185 0.689710 -0.000887 0.0
0.078461 0.111166 -0.004773 0.0
2.762137 0.587561 -0.000184 0.0
3.991397 1.105624 -0.002301 0.0
0.259919 2.300292 -0.000666 0.0
2.686705 2.162208 -0.004251 0.0
1.339827 0.898998 0.001121 0.0
0.914169 1.969255 0.002853 0.0
2.276514 0.834352 -0.000408 0.0
3.279633 0.292568 -0.003765 0.0
0.064887 0.230124 -0.000150 0.0
0.901320 1.188040 0.003048 0.0
1.538588 1.017787 0.003217 0.0
0.688769 1.257563 0.000533 0.0
3.502362 0.713959 -0.002426 0.0
2.712651 1.948503 -0.003393 0.0
1.508186 1.626400 -0.000696 0.0
2.305201 0.003524 0.001987 0.0
2.454036 2.099921 -0.000786 0.0
1.398045 1.935517 0.000238 0.0
3.318687 0.905900 -0.002350 0.0
1.260603 1.706297 0.000132 0.0
3.004134 1.841883 0.003014 0.0
3.065293 0.202986 -0.000485 0.0
3.836863 1.842551 0.001386 0.0
0.746086 2.265328 0.006026 0.0
2.386003 0.716233 -0.002921 0.0
3.192083 0.034637 -0.002060 0.0
0.207498 0.398971 -0.001097 0.0
2.746684 2.238407 -0.000147 0.0
3.954820 1.583271 -0.002601 0.0
0.605683 1.330347 -0.002087 0.0
1.354743 2.139027 -0.002419 0.0
4.047804 2.296235 0.000599 0.0
4.171975 0.430651 0.007658 0.0
3.190266 1.023025 0.003514 0.0
2.922569 0.948995 0.005889 0.0
0.880786 2.041588 -0.000991 0.0
3.145905 1.593396 -0.001370 0.0
3.758074 0.975551 -0.000641 0.0
3.790978 0.599943 0.003062 0.0
3.106343 0.659381 -0.002619 0.0
3.752165 1.734619 -0.005184 0.0
0.639110 0.096306 0.002467 0.0
0.489367 1.228010 -0.003806 0.0
3.895324 0.244722 0.004901 0.0
0.104081 2.218983 -0.001192 0.0
3.995417 1.028852 -0.002177 0.0
1.864616 1.339003 0.000574 0.0
4.032047 1.329809 0.000262 0.0
0.449641 0.257081 0.002569 0.0
2.331656 1.151182 0.002331 0.0
1.707951 0.764134 -0.002045 0.0
3.196156 1.948182 -0.000588 0.0
0.344651 2.161175 0.000752 0.0
2.711343 0.157152 -0.000879 0.0
0.272889 1.237961 -0.001754 0.0
1.672876 1.500572 -0.000511 0.0
3.580431 1.403461 -0.002865 0.0
2.701827 1.974221 0.001782 0.0
1.852664 1.486480 0.005274 0.0
1.627606 1.416048 0.001712 0.0
3.594201 0.102756 0.000822 0.0
3.248601 2.279866 0.001652 0.0
3.620740 0.875858 0.001518 0.0
1.796356 1.620227 -0.002103 0.0
1.722777 0.726046 0.001292 0.0
3.835762 0.004922 0.001397 0.0
2.919882 1.671299 0.002175 0.0
0.193396 1.438873 -0.003974 0.0
1.545897 0.177311 0.001036 0.0
2.270002 0.099053 0.002548 0.0
2.787732 0.179859 -0.000284 0.0
0.812641 1.666159 -0.000229 0.0
1.208122 0.270715 0.001850 0.0
0.759658 1.765747 -0.003444 0.0
2.150169 1.277794 -0.001301 0.0
2.247103 0.508761 -0.002471 0.0
0.760434 0.192890 -0.000237 0.0
3.874760 0.178250 -0.001946 0.0
2.216487 1.755438 -0.003759 0.0
2.942519 2.021153 -0.002371 0.0
2.294898 1.350084 -0.002363 0.0
3.771826 1.116362 0.001509 0.0
2.178526 0.810528 -0.000226 0.0
0.232367 0.661360 -0.002989 0.0
2.964642 0.829180 0.000093 0.0
3.977202 1.313055 0.002483 0.0
2.072746 1.654764 -0.003955 0.0
1.557473 1.855824 -0.005359 0.0
1.006852 1.682838 -0.008087 0.0
1.750781 0.172349 -0.003522 0.0
1.471693 0.274633 0.001561 0.0
3.970743 1.627140 0.000555 0.0
3.921231 0.209407 -0.000434 0.0
0.102627 0.803699 0.002202 0.0
3.838033 1.279725 -0.000020 0.0
0.054590 0.483956 0.003533 0.0
3.131603 0.516618 0.001745 0.0
0.362557 0.423206 0.000993 0.0
1.749231 0.569664 0.001714 0.0
1.928358 1.070607 -0.004580 0.0
0.246797 1.725987 0.000340 0.0
3.187416 0.994408 0.001388 0.0
0.491044 0.620035 0.000657 0.0
4.244244 0.993653 -0.001021 0.0
0.665696 1.227288 0.001226 0.0
4.180994 2.118139 0.001656 0.0
0.892076 1.455701 -0.000218 0.0
1.418322 2.044171 0.003179 0.0
2.472040 2.298295 0.003047 0.0
2.650722 1.518612 0.003309 0.0
2.470817 2.079131 -0.002111 0.0
3.927126 0.831878 0.001431 0.0
3.699975 1.318545 0.002322 0.0
2.459672 0.275096 -0.002886 0.0
1.724233 1.518105 0.000045 0.0
2.120905 1.388717 0.000669 0.0
1.944238 1.158950 0.004841 0.0
2.387913 1.306090 0.004838 0.0
1.489976 0.160708 -0.005824 0.0
0.596179 1.771798 -0.001171 0.0
1.107124 1.609398 0.001203 0.0
0.338898 1.642790 -0.001663 0.0
4.260844 1.043144 0.002931 0.0
3.954459 1.906179 0.001512 0.0
0.530326 1.334410 0.001475 0.0
3.337656 0.920978 0.001953 0.0
3.058585 1.024640 0.002026 0.0
2.949121 0.198629 0.001377 0.0
0.956458 1.375553 0.001784 0.0
2.740475 1.762584 0.000539 0.0
0.502779 1.192055 -0.003003 0.0
2.926237 0.916052 0.004298 0.0
1.550750 0.856207 -0.003946 0.0
0.729218 2.092516 0.001959 0.0
3.973877 1.734491 -0.002152 0.0
2.510409 1.238891 -0.003358 0.0
0.523340 1.881819 -0.004431 0.0
0.490272 1.611358 0.000620 0.0
1.961435 0.252115 -0.000409 0.0
1.179396 1.927222 0.003650 0.0
2.090822 1.160903 -0.000697 0.0
3.237958 0.862004 -0.001276 0.0
1.183769 0.170168 -0.001551 0.0
3.296464 0.306530 0.002656 0.0
0.843914 0.394207 -0.002067 0.0
2.563395 0.957502 -0.001263 0.0
2.041186 0.969514 -0.000095 0.0
2.352890 0.706775 -0.001434 0.0
2.874890 1.597484 -0.003021 0.0
3.123963 0.607973 -0.000773 0.0
3.972306 0.930243 -0.002968 0.0
2.811503 0.467625 0.005362 0.0
4.061314 1.784844 0.000564 0.0
1.012419 0.186456 0.000884 0.0
1.610709 1.350413 0.000511 0.0
3.419558 0.799660 0.004132 0.0
2.305392 1.834205 -0.001277 0.0
2.752730 1.359522 -0.001074 0.0
2.780040 1.287079 0.000561 0.0
2.166043 1.704482 0.000160 0.0
1.046579 1.794493 0.001983 0.0
1.598547 1.940624 -0.004816 0.0
2.019272 2.245439 0.003288 0.0
3.059571 1.023216 0.000103 0.0
2.066209 2.030094 0.003256 0.0
2.556284 2.016767 0.002417 0.0
1.784790 0.551526 -0.001497 0.0
3.782680 1.356564 0.001899 0.0
0.233602 1.949801 -0.001128 0.0
0.996630 1.314769 -0.000181 0.0
3.870611 1.260077 -0.000050 0.0
1.567927 1.303386 0.000466 0.0
2.131897 0.876280 0.000308 0.0
2.888374 0.458947 -0.000336 0.0
2.972988 0.415911 0.003349 0.0
1.398136 1.803785 -0.000452 0.0
3.408727 0.639029 0.001558 0.0
0.485636 1.643999 -0.001219 0.0
2.112080 1.722645 0.002536 0.0
3.886939 1.567618 -0.001884 0.0
4.217065 1.973287 0.000356 0.0
3.600617 0.266217 -0.002865 0.0
0.283149 1.756246 0.003616 0.0
1.332075 0.292228 0.001615 0.0
0.497872 0.525882 0.004159 0.0
3.570489 0.096512 -0.004841 0.0
1.734065 0.539364 0.001412 0.0
3.277798 2.103069 0.002979 0.0
0.661648 0.208175 0.000490 0.0
0.130890 1.992641 0.001948 0.0
2.794870 1.228368 -0.003270 0.0
2.302626 0.971772 0.001240 0.0
3.044745 1.697479 -0.002772 0.0
2.763680 1.220673 -0.001340 0.0
4.274467 1.179632 -0.001910 0.0
1.821601 0.694455 -0.002507 0.0
2.980861 0.334865 0.006435 0.0
2.519058 0.886272 0.000071 0.0
2.934154 0.571728 0.001794 0.0
1.950184 0.706669 0.002393 0.0
3.698715 1.705604 -0.001659 0.0
1.007006 0.645771 -0.003864 0.0
2.095480 0.012163 0.002544 0.0
0.410102 0.382983 0.001985 0.0
1.620229 0.917147 -0.002232 0.0
0.995347 1.858103 -0.003034 0.0
0.176698 0.853470 -0.001133 0.0
1.079575 1.718565 -0.000902 0.0
0.992286 0.590928 -0.003433 0.0
1.813542 2.116906 0.001094 0.0
2.639675 1.593837 -0.007124 0.0
3.947606 0.175171 0.003438 0.0
0.742084 2.160212 -0.000918 0.0
0.116654 0.628869 0.002341 0.0
3.812044 1.369991 -0.000596 0.0
3.637794 1.019008 0.000820 0.0
3.013963 1.752685 -0.001514 0.0
0.336294 0.518780 -0.001253 0.0
3.339826 0.649240 -0.001130 0.0
2.141320 2.020016 -0.000046 0.0
2.474677 2.200694 0.000687 0.0
2.356825 1.534828 0.000050 0.0
3.216699 0.596859 -0.002206 0.0
1.147129 1.385119 0.000692 0.0
2.430926 1.207347 0.000027 0.0
2.935172 1.355059 0.000149 0.0
3.083889 1.228865 -0.005102 0.0
2.099385 0.719662 -0.000477 0.0
1.701078 1.261721 -0.001208 0.0
2.414713 1.258782 0.004983 0.0
0.966521 0.201913 -0.000813 0.0
1.448872 2.297605 0.000288 0.0
3.706226 1.817206 0.002474 0.0
0.958722 2.276935 -0.004408 0.0
2.621189 1.851273 -0.000784 0.0
1.461605 0.101944 -0.001099 0.0
1.551878 0.405278 -0.002706 0.0
0.006991 0.298691 -0.000826 0.0
1.119338 1.808936 0.001551 0.0
3.567313 1.101269 0.000072 0.0
2.042181 2.128971 -0.001235 0.0
2.656149 1.799905 0.003710 0.0
0.962196 1.214134 -0.001627 0.0
1.482524 2.207235 0.002147 0.0
2.045953 0.423782 -0.000375 0.0
0.061596 0.133463 -0.001424 0.0
2.305288 0.339683 -0.002529 0.0
0.839342 0.668538 -0.000802 0.0
1.167159 1.886263 -0.000533 0.0
2.000476 1.167603 0.002984 0.0
2.488419 2.072171 0.001890 0.0
2.459796 0.791295 -0.002179 0.0
3.637980 1.292138 0.001270 0.0
0.580342 0.555985 0.002185 0.0
0.545797 0.059583 -0.001449 0.0
2.703920 1.456349 -0.000023 0.0
0.404347 1.411693 0.003095 0.0
1.987795 1.805518 -0.003399 0.0
0.854182 1.147131 0.000298 0.0
3.419661 1.094199 -0.004448 0.0
0.457289 1.581830 0.000184 0.0
2.714041 0.769806 0.000899 0.0
1.021392 0.646089 0.001054 0.0
2.832156 0.686921 -0.004545 0.0
3.800644 0.324684 -0.001881 0.0
1.756938 1.702972 0.001442 0.0
2.676315 2.251391 -0.002006 0.0
2.393709 0.879035 0.002447 0.0
0.951881 0.657173 -0.001338 0.0
3.221216 2.197701 -0.002054 0.0
0.023513 2.201642 -0.003965 0.0
0.764387 2.001400 -0.002024 0.0
1.929505 1.425350 -0.000393 0.0
0.809895 0.676851 0.000089 0.0
0.060677 2.027443 -0.000238 0.0
0.485292 1.011759 -0.003522 0.0
3.242704 1.120245 -0.000009 0.0
1.722810 1.139843 0.001854 0.0
2.536976 0.201297 -0.000893 0.0
3.222163 2.254038 -0.001418 0.0
3.662136 1.300092 -0.002172 0.0
1.605122 1.155792 0.000634 0.0
1.543193 2.235785 -0.001833 0.0
1.606448 0.757809 0.003253 0.0
0.228273 1.721618 -0.000806 0.0
1.775437 0.971844 -0.003443 0.0
1.766523 0.499159 0.001746 0.0
3.887957 0.402167 -0.002900 0.0
1.050923 1.454554 0.007181 0.0
1.713212 1.290243 0.000346 0.0
1.347283 1.471549 0.002621 0.0
2.034152 0.846412 -0.002014 0.0
2.428288 1.542315 0.000451 0.0
1.124180 2.293929 -0.000936 0.0
3.908912 2.054417 0.001503 0.0
3.040566 2.148535 -0.000785 0.0
3.440424 1.317667 0.001796 0.0
1.756169 0.586938 0.006727 0.0
2.995249 2.110989 -0.001521 0.0
1.203066 2.169496 -0.002936 0.0
0.542656 0.081764 -0.002196 0.0
2.084459 1.681089 0.003079 0.0
2.392107 2.192060 0.002289 0.0
3.370182 1.709552 -0.001520 0.0
3.886816 0.443660 0.000040 0.0
3.958061 1.200138 -0.000684 0.0
3.841219 0.717120 0.001780 0.0
1.384596 0.195608 0.001595 0.0
1.564331 0.281324 -0.003150 0.0
0.250616 0.606134 0.000303 0.0
2.146751 1.268886 0.002021 0.0
4.011675 1.055171 -0.003867 0.0
3.031926 0.133109 0.004255 0.0
1.620295 1.457261 -0.001947 0.0
3.269323 0.300692 0.000314 0.0
3.003761 0.516636 0.003702 0.0
2.234046 1.184295 -0.000884 0.0
2.825805 0.356195 0.001303 0.0
0.385117 1.818391 0.001434 0.0
2.993139 0.402364 -0.001321 0.0
1.146830 1.481734 0.000123 0.0
2.707770 2.205972 0.000091 0.0
2.288486 0.558121 0.000283 0.0
2.168587 1.329754 0.000871 0.0
1.822551 1.102765 -0.004606 0.0
1.250857 1.575934 0.002487 0.0
1.912369 2.053183 0.002680 0.0
0.350161 1.925868 0.000636 0.0
0.247890 1.282231 -0.000101 0.0
3.707360 0.392050 -0.001877 0.0
2.643625 1.618808 0.004412 0.0
0.418695 0.095095 0.000604 0.0
1.617602 2.228956 -0.002684 0.0
0.959046 1.483641 0.000625 0.0
2.730664 0.759735 0.002819 0.0
1.948508 1.689056 -0.000425 0.0
0.743539 0.661273 -0.003008 0.0
4.271366 2.091553 -0.001226 0.0
0.166863 0.201355 -0.002432 0.0
3.076070 2.037574 -0.001300 0.0
4.035587 1.252695 -0.001227 0.0
1.131659 0.349685 0.000357 0.0
1.575839 0.986870 -0.001294 0.0
3.058210 0.394080 -0.001407 0.0
0.386703 1.224544 -0.000536 0.0
2.365227 0.243531 -0.002001 0.0
3.544116 1.308058 -0.002208 0.0
3.572844 0.889195 0.000598 0.0
3.310588 1.747946 0.000845 0.0
1.616518 1.776902 0.008136 0.0
1.398006 0.324065 0.006710 0.0
0.483583 0.567715 0.000779 0.0
3.212465 0.264369 -0.000299 0.0
0.790355 0.158072 -0.004563 0.0
0.469948 1.543600 -0.000926 0.0
3.710283 0.768375 -0.000254 0.0
2.057933 2.032318 0.002866 0.0
0.726101 1.178142 0.000356 0.0
0.630741 1.898443 0.002874 0.0
4.091224 1.248131 -0.000027 0.0
4.106079 0.199768 0.004807 0.0
4.225427 0.862309 -0.001027 0.0
3.669395 0.945724 0.000248 0.0
2.835999 1.410033 -0.001278 0.0
0.004055 1.709326 0.002026 0.0
2.339187 1.271007 -0.000510 0.0
1.118157 1.147549 -0.002665 0.0
0.862194 1.020499 0.003089 0.0
1.686017 0.621078 0.000964 0.0
4.244705 0.004441 -0.004186 0.0
4.251795 1.759731 0.000648 0.0
2.789911 0.586267 -0.001480 0.0
1.118875 0.806765 -0.001480 0.0
2.864893 1.046362 0.001311 0.0
3.531629 0.103057 -0.002022 0.0
0.910865 2.101317 -0.001444 0.0
2.417387 2.123882 -0.001356 0.0
4.082199 1.714635 0.002319 0.0
1.646164 0.250012 -0.004894 0.0
2.181906 0.658293 0.001938 0.0
0.095055 2.292727 -0.002667 0.0
2.939365 1.282110 0.000887 0.0
0.937003 1.252824 -0.003840 0.0
0.831637 1.334256 0.000524 0.0
2.851413 0.935232 -0.000684 0.0
2.709535 0.021227 0.000973 0.0
2.812482 0.723720 0.006870 0.0
1.251716 1.052635 0.003593 0.0
2.533008 1.965829 -0.000662 0.0
2.116877 0.382782 -0.004287 0.0
2.385999 1.507429 0.004990 0.0
3.347651 0.267416 -0.001785 0.0
1.529678 2.086642 0.001451 0.0
0.504592 0.898651 0.000786 0.0
1.486513 0.842146 -0.002026 0.0
2.155413 1.421336 -0.000141 0.0
1.913136 1.164895 -0.002684 0.0
2.252766 1.533925 0.004325 0.0
1.434648 1.331911 -0.003993 0.0
3.513762 1.136281 -0.001025 0.0
1.780756 1.350261 0.004073 0.0
1.787547 1.390946 -0.001197 0.0
2.015072 1.782138 0.000233 0.0
1.644612 2.107994 -0.002168 0.0
3.412225 1.879576 0.002949 0.0
3.576908 1.006169 0.000906 0.0
2.544733 0.332620 0.003217 0.0
4.075963 0.461966 -0.003143 0.0
1.592915 1.084818 0.005123 0.0
1.088070 1.582443 -0.002088 0.0
4.225966 1.842738 -0.003947 0.0
0.587186 0.512917 -0.003105 0.0
3.661136 2.147343 -0.000957 0.0
3.208445 1.665832 0.001197 0.0
0.291171 1.015676 -0.003293 0.0
0.655297 0.249910 0.004243 0.0
0.922660 0.902551 -0.005493 0.0
1.344367 0.705901 0.003060 0.0
0.783866 1.211933 -0.000626 0.0
2.814667 0.638390 -0.001327 0.0
1.743217 0.872968 -0.005016 0.0
3.703102 2.299522 -0.002040 0.0
1.870696 1.178593 -0.001267 0.0
1.812558 0.103368 0.003626 0.0
0.044356 0.493044 0.003213 0.0
2.139305 0.810599 -0.000752 0.0
1.653037 0.185747 -0.001300 0.0
3.556629 0.091734 -0.000884 0.0
0.842743 0.910082 0.000955 0.0
0.275658 1.114328 -0.000838 0.0
0.368218 2.072626 -0.001450 0.0
1.925710 1.019506 0.004072 0.0
1.633894 0.779057 0.002160 0.0
3.120076 2.306185 -0.000080 0.0
1.443019 1.078011 -0.000354 0.0
2.311327 1.041600 -0.003257 0.0
3.653223 0.509654 0.002626 0.0
3.499937 1.421094 0.001632 0.0
3.267250 0.559104 0.001410 0.0
0.351306 1.173419 -0.000987 0.0
3.499674 1.438539 0.000672 0.0
0.055465 0.393703 0.000581 0.0
0.839912 0.709567 -0.000240 0.0
2.516100 0.959257 0.002030 0.0
2.045896 1.519304 0.002253 0.0
0.989839 1.461349 0.000765 0.0
2.767118 2.055698 0.002803 0.0
0.148310 0.961631 0.003950 0.0
0.589121 0.073464 -0.001112 0.0
2.650924 2.051463 0.004656 0.0
3.267491 1.975762 0.000813 0.0
4.104528 0.162565 -0.000802 0.0
2.559355 0.146617 0.001869 0.0
4.204867 1.938694 0.000145 0.0
1.740873 0.200500 -0.002576 0.0
3.683009 0.521147 0.005236 0.0
1.098347 0.330229 -0.000943 0.0
3.102863 1.988979 -0.001144 0.0
0.222469 0.196322 -0.000621 0.0
2.374120 1.104644 -0.001537 0.0
2.013256 1.036624 0.000224 0.0
0.723650 1.104023 -0.003599 0.0
0.771695 0.135984 -0.002359 0.0
3.189284 1.224203 -0.001028 0.0
4.009173 1.657192 0.001339 0.0
0.931696 2.061684 -0.001387 0.0
0.834530 0.601887 -0.000070 0.0
3.432945 1.053031 0.000559 0.0
2.828828 0.224783 -0.000769 0.0
1.708700 0.674629 -0.001332 0.0
3.171269 0.658455 0.000631 0.0
0.501187 0.847773 -0.000716 0.0
3.520954 1.294088 -0.002128 0.0
0.670931 1.320427 0.003554 0.0
3.961077 0.697419 0.001147 0.0
0.516024 0.150851 -0.001938 0.0
0.260623 1.083520 0.000607 0.0
2.038087 1.727947 -0.002415 0.0
2.695185 0.178206 -0.004799 0.0
1.044354 0.332421 -0.000150 0.0
2.137568 1.502418 -0.004273 0.0
3.080738 0.532036 -0.001856 0.0
4.237368 0.843455 -0.000042 0.0
0.895821 0.962586 -0.001984 0.0
2.899208 1.319932 0.000438 0.0
0.703494 0.087450 0.003627 0.0
0.929349 0.709152 -0.000875 0.0
1.252391 1.423307 -0.002286 0.0
1.815939 0.631557 -0.001529 0.0
0.480619 1.399237 0.003414 0.0
2.628704 0.591009 0.001205 0.0
2.586569 1.805966 -0.002601 0.0
1.581370 1.182785 0.001999 0.0
2.972757 0.284037 0.004221 0.0
3.486148 1.889290 0.002048 0.0
1.047772 0.198816 0.007230 0.0
0.237245 1.097629 0.001143 0.0
1.550855 1.977319 -0.000915 0.0
0.630120 2.292840 0.003062 0.0
0.493544 0.608863 -0.000005 0.0
1.834348 1.445265 -0.002318 0.0
2.849062 1.415128 0.004442 0.0
2.865915 0.751530 0.000692 0.0
3.841673 0.024750 0.002597 0.0
0.606274 1.530384 0.002326 0.0
0.114839 1.022636 0.006560 0.0
3.968905 1.453240 0.001875 0.0
4.120110 1.919649 0.003082 0.0
2.851401 2.005678 0.002750 0.0
2.318528 1.546604 0.001425 0.0
2.661604 1.326325 0.004507 0.0
0.822315 1.920514 0.000289 0.0
3.780701 1.843362 0.000991 0.0
1.875864 1.795293 0.000361 0.0
0.830370 0.035352 0.002513 0.0
0.739131 1.297557 0.002129 0.0
0.347016 1.049737 0.002530 0.0
1.786940 1.585001 0.000508 0.0
0.048704 1.879013 -0.004082 0.0
2.232961 1.488396 0.000785 0.0
3.161705 0.474361 -0.002719 0.0
3.806497 1.349978 -0.002788 0.0
0.870656 0.156257 -0.001764 0.0
1.554097 1.927330 0.000245 0.0
0.484793 1.431324 -0.000738 0.0
0.509648 0.528532 0.002413 0.0
0.876631 2.055691 -0.001662 0.0
3.300900 1.762318 -0.001481 0.0
1.504565 0.547540 0.001780 0.0
3.560813 1.285019 0.000190 0.0
2.035443 2.036420 -0.006370 0.0
1.486822 1.005608 0.006687 0.0
2.724551 1.579328 0.004258 0.0
0.162547 0.403607 0.002005 0.0
2.615928 0.006917 -0.002451 0.0
3.651224 0.968794 0.001770 0.0
3.721492 0.587978 0.004890 0.0
3.173490 2.271800 0.000911 0.0
0.684989 0.934625 0.000643 0.0
2.365701 1.019157 0.000997 0.0
0.366478 0.870930 -0.002439 0.0
3.844139 1.347123 0.003841 0.0
4.277307 1.531335 0.003714 0.0
1.848321 0.143665 -0.006334 0.0
1.784525 1.436052 -0.004381 0.0
3.922971 1.221898 -0.001475 0.0
1.603021 2.004829 0.004251 0.0
0.425029 2.041450 -0.003204 0.0
2.008411 2.129443 0.000521 0.0
2.393947 1.588417 -0.003371 0.0
1.508601 2.039633 0.001724 0.0
2.444724 0.204950 0.000554 0.0
3.441580 1.788037 -0.002172 0.0
0.876493 0.193404 0.003716 0.0
2.830112 0.978224 -0.003685 0.0
0.315053 0.489799 0.003216 0.0
0.445614 0.098318 -0.001021 0.0
2.187159 1.396605 0.001803 0.0
4.242545 1.306863 0.001320 0.0
3.361191 0.748018 0.000339 0.0
0.044547 2.053434 -0.003467 0.0
3.084910 1.765956 -0.001751 0.0
2.629496 0.800525 0.002278 0.0
2.414932 1.686746 0.001984 0.0
2.789631 1.698084 0.000168 0.0
3.711200 1.017582 -0.003571 0.0
3.603335 1.228757 0.005455 0.0
3.140089 0.966071 -0.001402 0.0
2.189989 1.451702 0.000069 0.0
3.238962 1.937208 0.000354 0.0
3.391210 1.776877 0.001647 0.0
1.999729 0.719003 -0.003884 0.0
0.886009 0.331959 -0.000714 0.0
3.653348 1.761550 -0.001290 0.0
3.768151 2.165702 -0.002311 0.0
0.219340 1.999508 -0.000839 0.0
3.640094 1.008000 -0.001487 0.0
0.185912 1.604489 0.007361 0.0
1.986985 0.106376 0.000659 0.0
2.162406 1.391988 -0.001747 0.0
0.058321 0.212498 0.002367 0.0
1.627019 2.065523 -0.000485 0.0
1.396058 1.120430 0.000264 0.0
3.314065 1.027677 -0.006113 0.0
2.164113 1.869982 0.001239 0.0
0.493702 0.403801 0.000086 0.0
0.046453 0.059962 0.000283 0.0
0.589053 1.011310 -0.001674 0.0
1.148044 0.198683 -0.002029 0.0
4.047256 2.302080 0.002805 0.0
0.390567 0.577446 0.000882 0.0
1.485684 1.365532 0.002028 0.0
3.869276 2.032735 -0.001092 0.0
2.963547 1.157366 0.001011 0.0
1.783612 1.670942 -0.000938 0.0
3.822165 1.129958 -0.002134 0.0
1.798453 0.249126 0.002317 0.0
1.426072 0.868421 -0.002442 0.0
0.059607 1.055310 -0.000854 0.0
1.919191 0.075132 0.003288 0.0
3.550655 0.120073 0.000746 0.0
4.244870 2.137950 -0.001108 0.0
2.417309 1.059644 0.005738 0.0
3.577422 0.731184 -0.004038 0.0
1.433344 1.214569 -0.003287 0.0
0.449941 0.261602 -0.000577 0.0
3.046136 0.042559 -0.006142 0.0
2.302064 0.198570 -0.002965 0.0
2.488441 1.155478 -0.000659 0.0
1.469665 0.742494 0.002745 0.0
3.394576 0.324628 -0.004033 0.0
0.134146 1.294904 -0.002013 0.0
0.778223 2.213157 0.003253 0.0
1.310607 0.851718 -0.000693 0.0
0.876377 0.187707 0.002906 0.0
2.399838 2.147170 0.000598 0.0
0.755695 1.893880 0.001906 0.0
3.773002 0.199708 0.001729 0.0
2.796147 1.196894 0.002908 0.0
2.126294 1.282260 -0.000760 0.0
0.475967 1.436848 0.000496 0.0
4.157720 1.806264 0.005914 0.0
3.088315 1.081595 0.002143 0.0
2.270293 0.384693 -0.001249 0.0
4.125717 2.108691 -0.000221 0.0
0.538963 0.517065 -0.001766 0.0
0.605837 0.100277 -0.000219 0.0
0.771181 0.365862 -0.005601 0.0
1.489474 1.798626 -0.000843 0.0
2.673478 1.637881 -0.004747 0.0
1.007203 2.081265 0.000041 0.0
1.622184 1.539499 0.002737 0.0
3.724102 1.806478 -0.002407 0.0
2.593429 0.633507 0.002935 0.0
1.709815 0.230665 -0.002221 0.0
0.658688 0.413206 -0.001669 0.0
3.239372 1.620231 -0.003857 0.0
0.135885 1.680559 -0.000110 0.0
3.765531 0.954013 -0.002106 0.0
3.427212 0.357578 0.000394 0.0
0.655954 1.907131 0.000432 0.0
0.425377 2.147042 0.004524 0.0
0.341769 1.884212 0.002188 0.0
2.000516 1.720110 0.001698 0.0
0.194301 1.865663 0.003040 0.0
4.163111 0.608201 -0.001690 0.0
2.618609 0.751545 0.002031 0.0
1.146109 1.076794 -0.003301 0.0
3.076021 0.648291 -0.002303 0.0
0.114759 0.792862 0.003034 0.0
3.247598 1.075663 -0.001710 0.0
3.435669 1.038765 -0.000281 0.0
2.985933 0.966809 0.001376 0.0
2.848933 1.783353 -0.001281 0.0
0.787761 1.480924 -0.000803 0.0
2.746184 0.835975 0.003021 0.0
3.335615 0.634382 0.003916 0.0
0.143298 1.019754 0.002224 0.0
1.120171 1.287191 0.001049 0.0
3.420878 0.588127 0.001082 0.0
2.559082 0.434638 -0.003106 0.0
3.817932 1.735864 -0.002456 0.0
3.450731 2.060189 -0.001338 0.0
0.446563 2.084662 -0.000633 0.0
2.555090 0.662169 0.002219 0.0
4.180128 0.333949 -0.000376 0.0
2.446330 1.099422 -0.000717 0.0
2.754729 0.698952 -0.000724 0.0
0.240969 2.107209 0.005086 0.0
0.238132 0.642899 -0.002178 0.0
4.255917 0.994217 0.000955 0.0
2.206846 1.339929 0.001073 0.0
1.542870 1.458312 -0.001592 0.0
0.341595 1.327632 0.004608 0.0
0.331776 1.916976 -0.001370 0.0
2.980340 0.650767 -0.001028 0.0
0.012078 1.087238 0.001656 0.0
2.314678 0.734818 0.001934 0.0
0.504523 0.776681 -0.000465 0.0
1.226897 1.448327 -0.002760 0.0
2.781514 1.455923 0.003520 0.0
3.023166 2.097239 0.003719 0.0
2.433276 1.766830 0.004403 0.0
2.556749 0.462109 -0.001777 0.0
4.203311 1.212284 0.004316 0.0
0.065688 1.448776 0.000993 0.0
3.530803 0.290620 0.001251 0.0
0.475693 0.376287 -0.002369 0.0
2.854918 0.781629 0.001864 0.0
0.221845 0.288774 0.000726 0.0
3.359816 2.093798 -0.004895 0.0
1.163075 0.797751 0.001476 0.0
4.202261 0.283632 -0.001039 0.0
1.580232 1.975740 0.003525 0.0
0.669052 1.099080 -0.001613 0.0
2.118876 1.811430 0.007230 0.0
3.714807 1.772308 0.000697 0.0
3.297886 2.272577 0.001337 0.0
1.576252 1.709481 0.000799 0.0
2.315893 0.651450 -0.001518 0.0
0.671764 2.197386 0.005404 0.0
2.412641 1.947133 -0.000031 0.0
0.636195 1.234481 -0.002676 0.0
3.797869 1.617788 -0.000030 0.0
0.570878 1.374292 0.004269 0.0
1.953028 0.084976 0.006002 0.0
0.112104 0.940666 -0.002991 0.0
2.473777 0.401327 -0.000899 0.0
1.104051 1.489166 -0.001669 0.0
2.304365 1.160496 0.004465 0.0
1.205170 0.456098 0.000656 0.0
1.045195 0.839337 0.000467 0.0
0.246316 0.076619 0.002621 0.0
2.978213 1.172636 -0.000816 0.0
3.153566 1.332827 0.000598 0.0
3.861535 1.112802 0.002471 0.0
4.173171 0.750539 -0.001485 0.0
0.281304 0.095796 0.004526 0.0
1.645127 1.028358 0.005378 0.0
2.976406 0.527600 0.003496 0.0
3.286367 0.599203 0.002808 0.0
1.054606 1.609096 0.000178 0.0
0.988352 0.711195 -0.000918 0.0
4.011651 0.105856 -0.000997 0.0
0.385384 0.193121 -0.002744 0.0
0.545805 1.956938 -0.001099 0.0
2.615482 0.628948 0.001114 0.0
3.969331 1.312173 0.001973 0.0
2.749664 0.792095 -0.001101 0.0
3.882960 0.088682 0.001540 0.0
0.774015 0.340238 0.002160 0.0
3.438677 0.890256 0.003836 0.0
2.999475 0.043072 0.001907 0.0
3.705335 1.851420 0.002110 0.0
1.156224 1.063635 0.000206 0.0
2.749674 0.801460 -0.002355 0.0
1.422045 1.328387 0.000644 0.0
4.106082 1.743110 -0.009630 0.0
2.733428 0.759570 -0.003611 0.0
0.654309 0.754465 -0.004032 0.0
2.453194 0.792854 -0.003391 0.0
1.210817 1.834077 0.004247 0.0
3.466569 0.064597 -0.004316 0.0
2.551699 1.022086 -0.004014 0.0
0.366436 1.606059 -0.002107 0.0
4.189479 0.465561 -0.001292 0.0
0.354753 0.504305 0.002924 0.0
0.852594 0.809593 0.004353 0.0
2.633688 0.927581 0.002283 0.0
1.548040 0.424824 0.001920 0.0
1.639027 1.073587 -0.001633 0.0
3.881407 1.552633 0.001334 0.0
2.037860 0.318216 -0.004250 0.0
0.539127 0.566947 -0.001785 0.0
3.567556 0.127863 0.002204 0.0
0.705198 0.439432 0.000642 0.0
0.535032 0.356197 -0.001974 0.0
3.959061 1.971527 -0.000538 0.0
2.293249 0.488468 0.000185 0.0
1.101200 1.311648 0.002479 0.0
1.530545 0.556304 0.000553 0.0
0.388897 0.177909 0.004211 0.0
1.607957 1.361232 0.001371 0.0
3.918739 1.772276 -0.001425 0.0
4.033732 0.751562 -0.000903 0.0
2.127680 1.502118 0.001149 0.0
2.336305 2.207098 0.004076 0.0
0.345944 0.976075 0.001389 0.0
2.645255 1.059498 0.001900 0.0
4.013824 0.409116 0.002228 0.0
4.218142 1.136964 0.000934 0.0
3.914231 1.195089 -0.000441 0.0
2.555359 0.518853 -0.003264 0.0
1.929072 0.251033 0.005870 0.0
2.478253 0.108719 -0.002446 0.0
3.271704 1.767356 -0.001092 0.0
4.010292 1.604981 0.000820 0.0
1.022629 0.569732 0.002171 0.0
0.115978 0.015023 -0.000389 0.0
0.220302 0.891357 0.000321 0.0
3.953036 1.844517 0.000025 0.0
3.392641 1.626964 0.003589 0.0
1.714109 2.135474 0.000781 0.0
3.455148 0.929269 -0.003367 0.0
3.141881 0.227151 -0.002573 0.0
0.263670 1.549948 -0.001709 0.0
0.519472 0.314656 -0.000613 0.0
0.797558 1.279435 -0.002858 0.0
0.518186 1.273141 -0.000484 0.0
0.680142 1.289816 0.000946 0.0
2.926743 0.757433 -0.000872 0.0
2.169070 1.720682 -0.003106 0.0
4.138750 0.252145 0.002427 0.0
0.767185 2.044621 -0.001740 0.0
3.139363 0.741061 -0.000839 0.0
1.002809 0.251773 0.001864 0.0
1.036933 1.731810 -0.000341 0.0
2.561575 1.649898 0.000795 0.0
0.066665 1.517843 -0.001056 0.0
3.848968 0.617890 -0.001875 0.0
0.616014 0.569200 0.000101 0.0
0.046138 0.868385 -0.004423 0.0
1.539942 1.503337 -0.000318 0.0
2.739127 1.176617 0.000605 0.0
0.744420 0.650778 -0.003413 0.0
0.443502 1.383636 -0.000417 0.0
0.023120 0.299342 -0.000043 0.0
3.225816 1.449690 0.002530 0.0
0.376085 0.426098 0.000075 0.0
3.968294 1.118630 0.001437 0.0
0.010510 0.037920 -0.000765 0.0
3.971954 0.450344 -0.000857 0.0
2.684887 1.511617 0.005128 0.0
3.985687 0.601631 0.001516 0.0
0.020282 1.363589 -0.000077 0.0
2.628673 2.086562 -0.001458 0.0
2.090662 1.152355 0.000672 0.0
2.246879 2.255356 0.003359 0.0
0.679408 0.014806 0.000973 0.0
2.803701 1.203412 -0.003899 0.0
0.187220 0.896999 -0.004128 0.0
1.784996 1.984418 -0.001933 0.0
0.153121 1.750887 -0.002664 0.0
4.125148 2.275193 0.000784 0.0
0.172514 1.583499 0.002266 0.0
2.615384 0.162773 -0.000137 0.0
3.736027 0.123750 -0.002389 0.0
1.382783 2.230791 0.002886 0.0
2.525768 0.440169 -0.001359 0.0
1.452100 1.596089 0.004132 0.0
2.155665 2.071834 -0.003771 0.0
3.763903 0.204917 -0.000993 0.0
2.782481 0.032998 0.004341 0.0
1.753763 0.080699 0.000076 0.0
0.821397 1.132055 0.003640 0.0
1.812624 0.788363 0.003310 0.0
3.945682 2.184218 -0.001134 0.0
0.320656 1.963020 -0.001947 0.0
0.275911 0.996960 -0.002664 0.0
4.018741 1.657660 0.000985 0.0
2.459904 1.218719 0.001277 0.0
2.334354 0.504289 -0.002001 0.0
1.088298 0.876001 -0.003958 0.0
4.267578 0.714322 0.000092 0.0
3.645327 0.732860 0.004268 0.0
1.541218 0.835697 -0.000355 0.0
3.888135 0.274831 0.003722 0.0
1.661593 0.245241 0.002247 0.0
2.865371 1.219502 -0.002728 0.0
0.560914 0.664360 -0.000715 0.0
2.221927 0.358353 -0.001251 0.0
2.031714 1.128009 -0.001081 0.0
1.897755 1.846086 -0.003234 0.0
4.267590 1.609651 0.000094 0.0
1.369728 2.046252 -0.003136 0.0
3.493704 2.205034 -0.002797 0.0
0.952116 0.328004 -0.000060 0.0
0.479236 0.611718 0.002655 0.0
4.275467 0.112504 -0.000351 0.0
0.211380 0.684087 -0.000401 0.0
4.060004 0.308029 0.002553 0.0
3.129332 0.525120 0.002697 0.0
3.648401 0.311884 -0.000098 0.0
2.667496 1.033648 0.000982 0.0
2.860379 0.336171 -0.001631 0.0
1.764028 0.624226 -0.002982 0.0
3.816994 0.717497 0.001711 0.0
3.372930 0.826900 -0.000475 0.0
3.814266 0.324878 0.000087 0.0
0.061131 1.804112 0.000918 0.0
2.682726 1.029087 0.003586 0.0
1.741850 1.677084 0.003013 0.0
0.984118 0.770814 0.004319 0.0
3.819148 0.047338 -0.001191 0.0
1.225640 0.624004 -0.000181 0.0
2.971813 0.514542 0.001806 0.0
3.072525 0.491274 -0.002255 0.0
3.696579 0.209304 -0.001905 0.0
3.736836 0.499315 -0.003569 0.0
3.726846 0.284074 0.000566 0.0
2.832541 0.858420 0.002516 0.0
2.448550 2.208962 -0.001280 0.0
2.009643 0.653128 0.002713 0.0
1.906956 0.556976 0.003254 0.0
2.146194 2.207700 -0.003750 0.0
3.277258 1.658489 -0.002817 0.0
2.912943 0.482828 -0.006858 0.0
0.932660 0.780235 0.003501 0.0
3.460634 1.446463 -0.002197 0.0
3.345202 0.872151 -0.002232 0.0
1.540787 0.149070 -0.000131 0.0
2.174509 1.952429 0.005181 0.0
0.318153 0.320362 0.000785 0.0
2.000298 0.752941 0.006211 0.0
4.149993 2.213834 -0.003120 0.0
0.480204 2.045680 0.002485 0.0
4.016063 1.164336 0.001343 0.0
1.565455 1.061757 0.002555 0.0
2.319746 1.569793 0.003978 0.0
0.790055 0.879882 -0.000204 0.0
2.352006 1.711977 0.000048 0.0
3.842488 2.078880 0.000598 0.0
2.436020 1.441943 -0.006077 0.0
2.504454 0.356947 -0.002363 0.0
3.830344 1.729247 -0.004166 0.0
2.063062 0.627911 -0.002349 0.0
2.872844 2.083377 0.000392 0.0
1.656456 0.955069 0.001814 0.0
2.308733 0.274664 -0.002598 0.0
2.278001 2.155069 0.002362 0.0
2.225408 0.232411 0.000500 0.0
0.707169 1.305902 -0.001805 0.0
3.211164 1.494927 0.003629 0.0
0.702376 1.762406 -0.000624 0.0
2.224676 0.807646 -0.003277 0.0
3.354403 1.300082 0.001482 0.0
1.110099 2.305487 0.001979 0.0
1.981233 1.899452 -0.004452 0.0
3.546512 0.392764 0.000374 0.0
0.118288 2.216384 -0.000509 0.0
0.814655 2.078471 -0.001253 0.0
0.374210 0.095643 -0.001392 0.0
3.343427 1.908841 -0.003342 0.0
0.846817 0.422433 -0.001826 0.0
2.076973 1.879289 0.002911 0.0
2.142154 1.557991 -0.000462 0.0
1.265639 1.217853 -0.001098 0.0
4.008592 2.191206 -0.003106 0.0
1.375174 1.681125 -0.002259 0.0
3.079476 2.160606 -0.001094 0.0
3.765546 0.284162 0.001750 0.0
4.172018 1.848312 0.001318 0.0
2.047125 2.010505 0.002391 0.0
3.191695 0.881363 -0.004727 0.0
2.979293 0.454453 0.002662 0.0
0.874943 1.377538 0.004354 0.0
3.054829 1.348164 -0.004509 0.0
0.549363 1.839318 -0.000893 0.0
3.590453 1.391167 0.005087 0.0
1.406879 0.088476 -0.000596 0.0
0.153941 0.651066 -0.003923 0.0
3.144919 0.781375 0.000707 0.0
3.405193 0.596404 0.002668 0.0
0.876733 1.558421 0.004443 0.0
1.287545 1.957183 -0.001681 0.0
1.783316 1.577237 0.001961 0.0
3.822275 1.595313 -0.002353 0.0
0.956382 1.091560 0.003132 0.0
2.221257 0.111981 -0.003023 0.0
3.505400 1.740507 -0.000297 0.0
0.588849 0.594554 -0.000975 0.0
0.481466 2.270212 0.002965 0.0
0.025070 0.525807 0.000442 0.0
0.909657 1.348066 -0.002649 0.0
3.335885 0.548266 -0.003000 0.0
2.789443 0.886724 -0.002437 0.0
0.667067 1.449863 0.004223 0.0
4.225875 2.289940 -0.000809 0.0
0.477742 0.154276 -0.002660 0.0
3.069211 1.915911 -0.003041 0.0
0.206883 0.216363 -0.001203 0.0
0.283792 0.764960 -0.002486 0.0
1.859828 0.942542 0.004219 0.0
2.994663 0.748854 0.002689 0.0
3.011537 1.234969 -0.005584 0.0
1.930067 2.232887 0.001076 0.0
3.271965 1.301251 0.000251 0.0
1.331365 0.374851 0.003007 0.0
1.929991 1.801936 -0.004100 0.0
0.378124 0.940464 -0.002649 0.0
1.241768 1.142376 0.000310 0.0
0.626673 2.190139 -0.000796 0.0
3.578573 2.121651 0.001570 0.0
3.672403 0.224627 0.000047 0.0
1.808093 0.100497 -0.002193 0.0
4.079563 0.645859 -0.002188 0.0
3.895686 1.020423 -0.001801 0.0
1.395423 0.124831 0.000460 0.0
2.430304 2.142432 -0.001600 0.0
3.992763 2.081840 -0.003652 0.0
1.389194 2.146849 0.001809 0.0
0.668906 1.056947 -0.002016 0.0
1.454282 1.560412 0.001165 0.0
1.348439 1.836141 0.003574 0.0
1.431643 1.782647 -0.001272 0.0
2.035197 0.522191 0.000637 0.0
2.353107 0.424684 0.002534 0.0
3.043219 0.149976 0.001636 0.0
3.854531 1.386332 0.002577 0.0
3.629623 1.132086 0.001786 0.0
4.220584 1.543461 -0.004752 0.0
0.625714 0.051630 -0.003273 0.0
2.862216 1.595591 -0.000253 0.0
1.250362 0.351931 -0.004338 0.0
1.920027 0.708041 -0.003032 0.0
2.405885 2.241339 -0.001510 0.0
0.739734 0.278042 0.000418 0.0
0.314025 1.594734 0.000403 0.0
2.647218 1.534761 0.002430 0.0
3.754291 0.299221 0.000416 0.0
2.409971 0.052582 -0.001710 0.0
3.851151 2.204283 0.000873 0.0
1.088460 0.233006 -0.002486 0.0
1.546771 0.912268 -0.001731 0.0
0.937983 1.364509 0.000018 0.0
1.332826 0.033821 0.001303 0.0
1.376486 0.274657 -0.001147 0.0
2.326394 0.458483 -0.002916 0.0
4.140674 0.633765 -0.004019 0.0
2.121999 0.739797 -0.003154 0.0
2.568667 0.184191 0.000500 0.0
1.616322 2.282131 0.000245 0.0
1.888825 2.242088 0.001854 0.0
1.238538 0.432126 -0.004560 0.0
2.152610 0.200379 0.003210 0.0
3.332855 0.165194 0.003915 0.0
1.586150 2.054630 0.006315 0.0
0.858219 1.558729 0.003987 0.0
2.964704 1.128564 0.002737 0.0
3.086267 0.076768 -0.001992 0.0
3.823223 0.852818 -0.003476 0.0
1.802162 0.992048 0.000786 0.0
2.855210 1.935282 -0.002119 0.0
0.840041 0.373590 0.002804 0.0
1.669635 1.424522 -0.000564 0.0
1.219257 0.042486 -0.001321 0.0
3.442685 0.998056 0.003732 0.0
0.418349 1.644714 -0.001673 0.0
3.722972 0.617465 -0.000410 0.0
2.776649 1.478822 -0.004744 0.0
1.884784 1.390110 0.000991 0.0
1.252529 0.117054 -0.005521 0.0
1.960203 2.092462 0.003091 0.0
3.505922 0.279939 -0.000620 0.0
1.572636 0.815333 -0.001402 0.0
2.184063 0.796509 -0.000559 0.0
2.311569 0.868414 -0.001569 0.0
2.424674 1.298557 -0.002811 0.0
2.135577 1.011538 -0.002240 0.0
4.202668 1.716371 0.000933 0.0
0.276204 1.219443 -0.001229 0.0
3.879658 0.157321 0.003962 0.0
0.383700 0.547838 0.002291 0.0
3.834372 1.791337 0.000492 0.0
0.250588 1.007832 0.001400 0.0
2.881675 1.728459 -0.000889 0.0
0.613927 0.976960 0.004314 0.0
3.348815 2.090138 -0.001626 0.0
1.812048 1.671111 -0.004100 0.0
2.126907 0.388689 0.002410 0.0
3.894265 1.136975 0.002372 0.0
1.481160 0.612112 0.004546 0.0
2.798596 0.117905 -0.000995 0.0
2.379073 1.445617 0.001227 0.0
2.327839 1.901204 -0.001511 0.0
2.059874 0.204362 0.004087 0.0
2.684716 1.212586 0.001392 0.0
3.093093 2.196666 -0.000274 0.0
0.222002 1.303816 -0.002946 0.0
2.335127 0.806555 -0.003335 0.0
0.623602 0.118651 -0.003179 0.0
3.596873 0.302203 0.003233 0.0
2.566412 1.208715 0.002092 0.0
3.887897 1.374560 0.000117 0.0
0.982412 2.053701 0.004198 0.0
3.878221 2.230038 0.001695 0.0
2.802612 2.038435 0.001328 0.0
1.324049 2.205017 0.003327 0.0
2.260447 0.173053 -0.000560 0.0
3.120079 2.297605 0.001285 0.0
3.807613 1.225523 0.000427 0.0
2.457170 1.851967 0.001602 0.0
0.840538 2.087782 0.001386 0.0
0.163958 0.843628 -0.001747 0.0
2.989176 1.990401 -0.005422 0.0
2.343812 0.782503 0.000543 0.0
1.203001 0.284351 0.001609 0.0
1.573941 0.994306 0.000192 0.0
1.546100 0.430197 0.003470 0.0
3.204149 1.687219 -0.003807 0.0
3.774982 0.643113 -0.001602 0.0
0.859219 0.618647 -0.000994 0.0
2.535899 1.556427 -0.000441 0.0
2.010384 2.015977 0.000763 0.0
3.762242 1.874360 -0.004324 0.0
3.518620 1.103909 0.002818 0.0
1.430925 1.981741 -0.002208 0.0
2.432208 0.521364 0.000786 0.0
0.286101 0.014700 0.001732 0.0
3.247760 1.120487 -0.000846 0.0
1.405868 1.451209 -0.000761 0.0
2.867334 0.223758 -0.004552 0.0
0.260241 1.761777 0.002156 0.0
2.418585 0.092291 0.003549 0.0
3.223526 1.756437 0.001430 0.0
1.277620 1.213406 -0.002346 0.0
4.181629 1.283328 0.002824 0.0
3.372117 1.463939 0.001424 0.0
3.727908 0.195171 -0.000419 0.0
3.744651 0.149922 0.003717 0.0
3.735159 1.098354 0.002874 0.0
1.709595 0.381551 -0.002026 0.0
3.136946 0.984680 0.001155 0.0
0.765712 0.186854 0.002226 0.0
0.805361 0.142441 0.001201 0.0
1.643853 0.952868 0.002180 0.0
1.304448 0.933185 0.000343 0.0
2.339242 0.121106 -0.006398 0.0
3.880575 2.268681 0.001395 0.0
1.472046 0.183486 0.000499 0.0
2.208930 0.998389 -0.000084 0.0
0.157446 1.861985 0.002899 0.0
1.750135 0.300518 0.001924 0.0
3.933782 1.704860 0.000204 0.0
3.526931 2.055751 -0.001512 0.0
1.423440 1.794717 0.000142 0.0
1.387475 1.639776 -0.000837 0.0
0.901583 1.906141 -0.002424 0.0
2.192665 0.650087 -0.002719 0.0
0.613266 0.073050 -0.001587 0.0
3.771724 1.224778 0.001860 0.0
4.173004 1.441292 -0.006523 0.0
0.219159 1.718172 -0.004079 0.0
2.972816 1.448059 0.004032 0.0
0.333638 0.257557 0.002865 0.0
1.134863 0.278036 0.002440 0.0
0.310380 1.986501 0.000584 0.0
2.055839 0.905228 -0.000957 0.0
2.929290 0.017230 -0.000371 0.0
2.472088 0.165386 0.004885 0.0
2.042432 1.926908 0.000005 0.0
3.918867 1.403011 0.003643 0.0
1.339804 1.728272 -0.000688 0.0
1.165825 0.795654 -0.000265 0.0
3.976657 0.227404 0.004435 0.0
0.349620 0.884882 0.001936 0.0
3.232140 0.924160 -0.000502 0.0
1.392924 1.490638 -0.001805 0.0
1.344329 1.657356 -0.002427 0.0
2.911855 2.253191 0.001417 0.0
1.595190 1.469324 0.002138 0.0
1.112122 2.276633 -0.002521 0.0
0.288206 0.329754 -0.003670 0.0
2.911445 2.055907 -0.004637 0.0
3.491464 2.156872 0.000264 0.0
3.397712 2.297555 0.000162 0.0
1.113224 2.178778 -0.002188 0.0
2.503487 0.550515 0.000441 0.0
3.371751 0.521385 0.002040 0.0
1.260721 2.118528 0.000188 0.0
1.678083 1.863234 -0.004412 0.0
1.246389 0.690620 0.002950 0.0
1.913838 1.288802 -0.000362 0.0
2.940809 1.310538 0.000670 0.0
0.348693 0.058243 0.003349 0.0
0.373033 0.340359 0.001190 0.0
3.705810 0.191584 0.000144 0.0
3.811299 0.523667 -0.000199 0.0
2.505438 1.871933 -0.000349 0.0
2.928017 1.588546 0.001187 0.0
3.113131 0.420326 0.000602 0.0
3.032996 0.192160 0.000376 0.0
1.499012 1.119985 0.001020 0.0
3.493640 1.776228 0.002031 0.0
2.759948 1.117329 -0.002552 0.0
1.263820 1.664037 0.000647 0.0
3.921311 1.743359 -0.002806 0.0
3.664830 0.419225 -0.000697 0.0
0.719274 1.001820 -0.002819 0.0
3.332328 1.301354 0.000110 0.0
4.039031 1.083789 -0.000194 0.0
0.276129 1.541472 0.004459 0.0
1.674842 0.954600 -0.001531 0.0
3.012608 0.897800 -0.003332 0.0
2.045578 0.383457 -0.001538 0.0
2.034319 0.450043 -0.001577 0.0
0.309829 0.077979 -0.001445 0.0
3.063461 0.816711 0.001107 0.0
3.140782 0.275653 -0.002553 0.0
1.413835 1.684616 0.000735 0.0
2.914943 2.111491 0.002644 0.0
3.335639 2.109746 0.004056 0.0
4.096661 0.435768 0.002824 0.0
2.432420 1.870186 0.001661 0.0
0.029960 1.771314 0.004355 0.0
3.311121 1.385964 -0.001580 0.0
1.122684 1.463956 -0.002725 0.0
1.317311 1.859576 -0.001083 0.0
3.533745 0.281226 0.003462 0.0
0.076582 0.929110 0.004500 0.0
0.532736 2.040998 -0.000958 0.0
2.431145 1.414049 0.001850 0.0
3.136950 1.593764 -0.004397 0.0
3.168100 1.440999 -0.002471 0.0
1.557070 1.037666 0.005106 0.0
3.783500 0.523315 0.000462 0.0
2.304624 0.331930 0.003604 0.0
0.611343 0.084795 -0.001412 0.0
0.012959 1.836135 0.001066 0.0
0.353886 2.022930 0.000344 0.0
1.046287 2.050589 0.000657 0.0
1.671650 1.171571 0.005123 0.0
3.861565 1.575709 -0.002589 0.0
1.083024 1.639039 -0.002222 0.0
1.464366 0.322971 0.002606 0.0
3.719348 1.028281 -0.000384 0.0
2.305949 0.932284 0.005843 0.0
4.254109 1.049875 0.000427 0.0
0.048869 0.141731 -0.002835 0.0
4.198255 0.142556 -0.005377 0.0
0.104417 2.153468 0.003076 0.0
0.261374 0.070864 0.000593 0.0
1.154485 0.811480 -0.003235 0.0
0.178183 0.510826 0.000349 0.0
2.314547 0.624345 0.001413 0.0
1.137503 2.242902 0.001748 0.0
1.381741 0.948179 0.000740 0.0
0.582675 1.921307 -0.001742 0.0
2.584622 1.191932 0.002763 0.0
1.070315 2.145905 0.005259 0.0
1.455775 0.175342 -0.000232 0.0
0.063794 1.374710 -0.001085 0.0
1.718908 0.670648 -0.002018 0.0
1.127026 1.457235 -0.001759 0.0
0.868116 2.189966 -0.004218 0.0
1.131635 1.845755 0.000914 0.0
3.529180 1.018596 -0.000331 0.0
2.569325 2.062748 0.000713 0.0
2.687132 1.085030 0.004155 0.0
0.608865 2.095255 -0.000932 0.0
3.051730 0.969205 -0.000769 0.0
3.023572 0.456854 -0.001037 0.0
1.281352 0.075069 -0.001447 0.0
0.985735 0.447783 -0.005798 0.0
3.785733 0.493721 -0.003870 0.0
0.598036 1.432405 0.001352 0.0
2.847676 2.159813 0.003107 0.0
0.149467 0.101178 -0.001834 0.0
0.953504 0.238657 0.000054 0.0
1.870253 2.078217 -0.003599 0.0
2.356461 2.011406 0.002091 0.0
2.685988 0.707596 -0.002711 0.0
2.864923 1.402766 -0.000369 0.0
3.798887 0.482444 -0.000311 0.0
0.129498 1.626276 0.000867 0.0
1.281003 1.926051 0.001935 0.0
3.747404 1.532623 0.004221 0.0
2.989148 0.942304 0.000219 0.0
4.028470 1.802447 -0.003544 0.0
3.294877 1.238521 0.002570 0.0
2.991536 2.004509 -0.001202 0.0
1.952009 1.074263 0.000730 0.0
0.049441 0.156033 0.003457 0.0
2.144374 0.679455 0.001166 0.0
1.702091 0.154951 0.003296 0.0
1.872647 2.072674 0.001555 0.0
2.308756 0.768868 0.000853 0.0
2.305114 1.871028 -0.000630 0.0
0.888272 1.983095 0.001835 0.0
0.319968 0.467899 0.002708 0.0
2.370348 0.616556 -0.000391 0.0
2.746948 1.537044 -0.000059 0.0
0.632003 2.144930 0.004640 0.0
3.004189 0.736884 0.000956 0.0
2.344847 0.571182 0.002299 0.0
2.755338 1.455486 0.001963 0.0
0.823759 0.402768 0.001242 0.0
3.665054 0.040253 -0.004463 0.0
3.249477 0.975160 -0.000984 0.0
3.690480 1.592617 -0.000469 0.0
3.225924 0.207351 -0.004733 0.0
1.353128 2.007532 -0.003426 0.0
1.246724 2.195701 0.000828 0.0
1.288104 1.409443 -0.000750 0.0
3.642133 1.892508 0.001110 0.0
2.177693 0.292069 0.000704 0.0
3.683051 0.624230 -0.000395 0.0
3.295554 1.013640 -0.002342 0.0
1.882266 0.539259 0.000454 0.0
0.754005 1.429218 -0.002530 0.0
1.290290 0.142757 -0.000950 0.0
1.503281 0.867593 -0.002700 0.0
2.389032 0.617016 -0.003390 0.0
2.565592 1.756161 0.001820 0.0
3.253247 1.951305 -0.000829 0.0
3.895116 0.515281 -0.003315 0.0
0.956488 2.042246 -0.001281 0.0
0.918440 0.197976 -0.001849 0.0
1.291617 1.920498 0.004861 0.0
0.746231 1.155451 -0.003447 0.0
2.266109 0.475625 -0.001359 0.0
1.885713 2.230327 -0.002168 0.0
1.876538 2.050441 0.000746 0.0
2.495038 1.711778 0.002084 0.0
3.765581 1.309996 -0.000140 0.0
1.006155 1.981917 -0.006678 0.0
3.214309 1.946252 0.005902 0.0
1.274180 0.422265 0.000379 0.0
1.340249 0.342851 -0.000850 0.0
1.561237 2.164798 0.002643 0.0
2.652412 1.569481 -0.001072 0.0
0.898273 2.019078 -0.003745 0.0
2.319721 1.546286 0.001004 0.0
2.217009 0.015797 -0.001178 0.0
2.385970 1.969630 -0.002768 0.0
2.955787 0.323021 -0.001749 0.0
0.958364 0.691326 0.003588 0.0
2.236563 0.460903 -0.003950 0.0
1.458462 1.691126 -0.002528 0.0
1.098805 0.977192 -0.001946 0.0
1.803168 1.391072 -0.000809 0.0
1.621354 0.376213 0.000470 0.0
3.971823 0.264414 -0.001977 0.0
1.917133 2.233153 0.002135 0.0
2.910551 0.178357 0.004382 0.0
2.646260 0.984432 0.001041 0.0
0.221410 0.118706 0.002780 0.0
2.296250 1.938863 -0.000070 0.0
3.299833 1.411301 -0.000729 0.0
1.322270 1.073616 -0.000248 0.0
2.795669 1.883389 0.001549 0.0
1.797537 1.101587 -0.000403 0.0
2.851951 0.250874 -0.000377 0.0
2.139868 0.185538 -0.001549 0.0
3.828151 0.113563 0.008660 0.0
3.138430 0.102970 -0.000270 0.0
3.399252 0.759828 0.000269 0.0
4.146698 1.316676 0.001523 0.0
1.313476 1.644786 0.003689 0.0
0.045265 2.011687 -0.003116 0.0
3.867882 0.555558 0.001026 0.0
1.459696 1.075855 0.002901 0.0
0.065491 1.219926 -0.004239 0.0
2.192890 1.581668 -0.002937 0.0
0.053973 0.054278 -0.000195 0.0
1.241659 1.580768 0.001698 0.0
4.133960 1.932261 0.000623 0.0
2.219791 2.060841 0.001839 0.0
4.246825 0.573244 -0.002250 0.0
0.748081 1.787481 0.000265 0.0
0.237433 0.656777 -0.002791 0.0
2.777491 1.420737 0.003301 0.0
3.991931 0.382844 -0.004073 0.0
0.757160 2.105249 0.001909 0.0
1.959884 2.107535 0.000028 0.0
0.031916 1.344517 0.001310 0.0
3.988043 0.878473 -0.000549 0.0
3.579820 2.049772 -0.002641 0.0
2.412903 0.750931 0.002228 0.0
1.503090 0.482238 0.000145 0.0
2.589056 2.197860 -0.000672 0.0
3.286046 1.734880 0.000374 0.0
1.950893 1.831179 -0.000804 0.0
0.302882 1.685939 0.003928 0.0
0.551892 1.652454 -0.004922 0.0
3.172153 0.598467 -0.001921 0.0
0.358100 2.224470 0.000224 0.0
3.065892 0.670001 -0.000242 0.0
2.149195 0.307708 -0.000558 0.0
0.638540 1.092126 0.004471 0.0
0.808997 1.923587 -0.000572 0.0
2.187503 0.584696 -0.001004 0.0
3.091048 1.789648 -0.002901 0.0
1.556729 1.238214 -0.000749 0.0
3.216540 0.739974 0.003762 0.0
3.888181 0.661733 0.002304 0.0
3.771205 1.920603 0.000475 0.0
0.614107 0.336677 0.000864 0.0
1.489024 1.488297 0.000183 0.0
0.949899 0.541991 -0.000183 0.0
3.107127 1.500393 -0.002497 0.0
0.037032 0.832837 0.001913 0.0
0.416152 0.230059 0.003082 0.0
3.621561 0.353084 -0.000369 0.0
4.203259 1.340195 -0.000750 0.0
2.389274 0.849024 -0.003743 0.0
1.868454 1.814679 -0.000329 0.0
3.056429 0.099880 -0.001019 0.0
0.901030 1.557818 0.001591 0.0
1.796126 0.244981 -0.000837 0.0
2.083410 2.167083 0.000247 0.0
2.260880 0.126200 0.000705 0.0
1.065537 0.085937 0.000351 0.0
1.158366 0.521320 0.007392 0.0
4.190031 0.576691 0.003299 0.0
4.156741 0.117626 -0.005687 0.0
0.313612 1.895055 0.003591 0.0
4.233234 0.122762 -0.000518 0.0
2.691226 0.421938 -0.000384 0.0
1.309156 2.274014 -0.001698 0.0
0.344206 2.245931 0.001741 0.0
1.321121 1.482088 0.001272 0.0
2.470991 0.389020 -0.002715 0.0
1.119176 0.595085 0.000357 0.0
