3.485317 0.747345 -0.001919 0.0
1.150216 1.929935 0.000906 0.0
4.742859 1.354021 -0.000782 0.0
2.468182 1.407407 -0.002038 0.0
0.899615 1.394695 0.000230 0.0
0.154166 0.573289 -0.000357 0.0
2.834946 0.566011 0.000859 0.0
4.374966 0.392180 0.000136 0.0
2.379157 0.010775 -0.001123 0.0
2.192605 0.722485 0.000155 0.0
3.871255 1.476631 0.000960 0.0
0.103000 2.102678 0.000294 0.0
4.251549 1.541815 -0.001862 0.0
0.158856 0.946132 0.000354 0.0
2.696118 0.554315 0.000523 0.0
4.948876 1.939085 0.001683 0.0
3.304818 1.880341 -0.003332 0.0
3.929267 1.790414 -0.001165 0.0
4.594244 1.015939 -0.000995 0.0
2.820639 1.275502 -0.004291 0.0
0.450060 0.844865 -0.001680 0.0
0.750898 1.175641 0.001252 0.0
4.704103 1.204959 -0.000048 0.0
4.972626 0.350400 -0.002892 0.0
1.344588 0.755921 0.000989 0.0
3.793281 1.165477 0.003617 0.0
4.104213 0.194486 0.001550 0.0
4.353284 0.679357 -0.000929 0.0
3.232820 0.889803 0.000534 0.0
2.598131 0.308723 -0.001054 0.0
1.409639 0.623707 -0.001907 0.0
4.467618 0.437267 0.000879 0.0
0.468024 2.031313 0.003357 0.0
3.747141 1.952970 -0.005254 0.0
2.752935 1.386557 0.003050 0.0
1.163498 1.473619 -0.000122 0.0
0.516569 0.674617 0.004859 0.0
1.685796 1.845512 -0.001038 0.0
2.175433 1.740676 0.000667 0.0
2.548947 0.291349 -0.000044 0.0
2.632174 1.972136 -0.001267 0.0
0.449981 2.294946 -0.000473 0.0
1.306676 1.753795 0.001040 0.0
1.951090 0.451361 -0.003031 0.0
4.822695 1.080233 0.001723 0.0
0.025603 1.725922 0.003824 0.0
2.331819 0.281712 0.001524 0.0
0.268916 1.060999 -0.000953 0.0
0.813192 1.770858 0.002481 0.0
3.583214 1.326455 0.006120 0.0
0.700695 0.764840 0.003145 0.0
2.138813 1.872859 0.000095 0.0
1.456540 1.905814 0.000826 0.0
2.734449 1.268604 -0.000354 0.0
2.138699 2.350063 0.000313 0.0
4.633901 2.207298 -0.002595 0.0
3.170935 1.278727 -0.000542 0.0
4.723306 1.151011 -0.001429 0.0
2.012408 0.655450 0.002036 0.0
1.506125 0.431555 -0.002238 0.0
3.282087 1.554731 0.002128 0.0
1.267278 1.466504 0.001996 0.0
0.092288 2.234281 0.005233 0.0
4.099899 1.422666 -0.000854 0.0
0.991948 2.170247 0.001173 0.0
4.514325 1.844624 0.004354 0.0
0.949484 2.361157 0.000356 0.0
4.680703 1.954784 0.001001 0.0
2.359293 1.090497 0.004008 0.0
2.432302 0.358674 -0.005393 0.0
2.558668 0.011157 0.003456 0.0
2.920193 2.356590 -0.004558 0.0
1.816193 0.408952 -0.001216 0.0
4.453549 2.075565 -0.001595 0.0
3.604276 2.207668 0.000131 0.0
4.405507 2.161962 0.002834 0.0
0.327273 0.430759 0.002631 0.0
1.456085 2.270008 0.001925 0.0
3.942186 1.430194 0.000663 0.0
4.010334 0.628768 -0.000227 0.0
4.985515 2.046503 -0.000656 0.0
0.970960 1.471464 -0.001195 0.0
0.200471 2.040727 0.005427 0.0
4.554686 1.339282 -0.000503 0.0
0.360823 0.552402 -0.000857 0.0
4.011111 0.927049 -0.001170 0.0
2.971567 0.403491 -0.003439 0.0
0.739980 1.432602 -0.000896 0.0
3.750469 1.484457 0.000098 0.0
3.697498 1.296118 0.003237 0.0
3.958796 1.935839 -0.003699 0.0
4.635666 0.977010 0.000496 0.0
1.493509 0.047040 -0.000004 0.0
2.274994 1.974277 -0.001474 0.0
1.213525 1.236906 -0.002660 0.0
3.935560 0.443427 -0.001657 0.0
0.910784 2.221523 0.000241 0.0
3.346191 0.255582 -0.003175 0.0
0.820911 1.438177 -0.003342 0.0
3.819725 0.758354 -0.000750 0.0
1.071217 0.661989 0.003183 0.0
4.637328 1.362631 0.001001 0.0
4.884836 1.788679 0.001834 0.0
2.668700 1.127310 -0.000955 0.0
2.727077 1.995715 -0.002626 0.0
2.791502 2.068888 -0.003731 0.0
3.103038 1.205464 0.005184 0.0
1.519585 1.682291 -0.001727 0.0
0.971467 1.019988 0.000342 0.0
2.832298 0.080046 0.000043 0.0
4.205973 0.152757 -0.000292 0.0
2.204555 0.964622 -0.002075 0.0
3.701507 0.372118 0.001829 0.0
4.384561 2.142623 0.001914 0.0
4.833871 0.037485 0.001902 0.0
3.229025 0.510432 0.000587 0.0
4.049382 1.064635 -0.000443 0.0
4.849984 0.177364 0.001441 0.0
3.801138 0.580749 0.001899 0.0
4.953444 2.016839 0.003334 0.0
2.645605 0.287563 0.000464 0.0
1.192802 0.369103 0.001565 0.0
0.612620 0.363427 -0.002302 0.0
3.826976 1.932557 0.004697 0.0
0.354684 0.213333 -0.002803 0.0
2.113668 2.003707 0.000820 0.0
3.618613 2.303083 -0.003056 0.0
0.856158 1.263735 0.001980 0.0
3.571507 2.212963 0.000861 0.0
0.534680 2.286284 -0.003132 0.0
2.719583 2.092562 0.002649 0.0
0.977872 0.569573 -0.001787 0.0
4.700710 1.453387 -0.000421 0.0
2.059470 0.696035 -0.002619 0.0
2.750114 0.814294 -0.001991 0.0
3.364281 0.971366 -0.001391 0.0
3.320570 0.762856 0.003823 0.0
0.101851 1.772208 0.000688 0.0
2.859686 1.483705 0.001397 0.0
3.928531 0.359364 0.003392 0.0
2.663597 1.594791 0.003017 0.0
1.011594 0.396132 0.001457 0.0
3.157240 0.385906 0.003140 0.0
0.518866 0.254513 0.001734 0.0
2.032201 2.108779 0.000315 0.0
1.190724 1.389959 0.000893 0.0
2.324492 0.695575 -0.000677 0.0
3.066145 1.029629 -0.003902 0.0
2.977588 2.197797 0.002893 0.0
1.234691 0.706554 -0.002227 0.0
3.348219 0.625415 -0.002541 0.0
2.311609 1.428311 -0.000720 0.0
4.069384 2.019993 -0.002421 0.0
2.497382 1.825291 0.000008 0.0
0.145914 1.801787 -0.000553 0.0
4.072021 1.308940 -0.000439 0.0
4.480347 0.399959 0.001130 0.0
2.841557 1.378576 -0.002203 0.0
2.179809 1.092700 -0.000347 0.0
1.590233 0.556277 -0.001005 0.0
0.447333 0.044566 -0.003384 0.0
2.714624 2.339173 -0.000468 0.0
0.360473 1.534885 0.002241 0.0
4.929438 2.238157 -0.001434 0.0
3.661704 1.299034 -0.002150 0.0
4.693556 1.443352 0.002526 0.0
0.964164 0.431621 -0.004681 0.0
0.069440 1.128313 0.000110 0.0
4.708513 1.394983 -0.001762 0.0
3.130932 1.532044 -0.000357 0.0
0.185993 1.541900 0.001700 0.0
4.774291 1.679663 -0.004648 0.0
1.827702 0.847277 0.001206 0.0
1.126580 1.293969 0.000449 0.0
2.296302 0.848394 0.000478 0.0
3.962558 1.760441 0.000373 0.0
3.707832 0.371762 -0.000473 0.0
4.322848 1.537875 0.001853 0.0
2.017472 2.144718 0.000971 0.0
2.735817 1.652382 0.000491 0.0
0.562339 0.436902 0.004426 0.0
1.460351 1.989517 -0.003721 0.0
2.361175 1.884407 0.002800 0.0
1.160616 1.963815 0.001896 0.0
0.273123 0.794045 0.001167 0.0
4.505923 0.223376 0.000613 0.0
3.532333 0.836410 -0.002960 0.0
1.495532 1.474342 -0.004897 0.0
0.045174 1.237538 -0.000700 0.0
0.543011 2.160784 0.002007 0.0
0.673758 0.630727 0.000393 0.0
3.739529 0.081257 0.000267 0.0
4.949253 0.688254 0.000526 0.0
0.392127 0.855497 0.001095 0.0
3.485583 1.902872 0.001323 0.0
2.757272 1.384244 -0.001514 0.0
1.805226 1.377081 -0.001248 0.0
1.543158 1.423976 0.000605 0.0
1.324527 0.448560 0.002895 0.0
0.564379 2.266313 0.000436 0.0
2.859102 2.054048 -0.000493 0.0
0.091258 1.054252 0.003318 0.0
1.595991 1.287455 0.002743 0.0
2.984246 0.190196 0.003450 0.0
1.427136 0.510235 -0.002831 0.0
0.684148 0.375602 -0.000748 0.0
2.760855 0.246526 -0.001802 0.0
4.976227 1.018584 -0.003054 0.0
4.814259 0.355970 -0.003051 0.0
1.002689 1.238553 -0.002660 0.0
1.198797 2.224997 0.003780 0.0
0.701052 1.918793 -0.001643 0.0
2.527013 1.625662 0.002529 0.0
2.683921 2.203530 0.002085 0.0
3.690811 0.437654 -0.002320 0.0
0.349726 1.559957 0.000467 0.0
2.992315 0.128078 0.003447 0.0
2.887960 1.965810 -0.002082 0.0
3.868963 1.492270 0.002366 0.0
3.063072 0.695989 -0.002755 0.0
3.693093 0.439520 -0.003025 0.0
2.741975 0.693677 -0.001124 0.0
1.263707 1.716156 0.003224 0.0
3.935858 1.423136 -0.000787 0.0
0.761152 2.360547 0.000140 0.0
4.725507 1.318878 -0.003572 0.0
2.917192 2.159759 -0.001751 0.0
2.286916 0.018532 0.001738 0.0
4.882139 1.323349 -0.002305 0.0
0.699874 0.015027 -0.004881 0.0
2.939750 1.756965 0.001215 0.0
0.703868 1.530948 0.002373 0.0
4.077681 1.892772 -0.001124 0.0
2.811179 0.085633 -0.001959 0.0
1.558004 0.477139 -0.000311 0.0
1.024921 1.426722 -0.002572 0.0
2.023386 0.756384 0.001059 0.0
2.938426 0.123873 0.000285 0.0
2.871292 0.452521 -0.001842 0.0
0.948251 0.887035 0.000753 0.0
3.076209 1.081201 0.000211 0.0
3.493603 1.148745 -0.000752 0.0
4.166599 1.916329 -0.003577 0.0
4.814055 0.821664 -0.000534 0.0
0.022289 0.181011 0.004754 0.0
4.822673 2.219951 0.003714 0.0
1.361697 1.611155 0.000928 0.0
1.053175 1.502354 0.000285 0.0
2.871922 1.031557 0.000923 0.0
4.369826 1.869837 -0.001059 0.0
3.569497 0.986617 0.002450 0.0
4.542312 1.259813 -0.001338 0.0
1.553941 0.346916 -0.003960 0.0
3.060596 1.682273 -0.001645 0.0
1.091790 1.977313 0.000157 0.0
1.165525 1.099136 0.002491 0.0
0.692236 1.740959 0.000609 0.0
0.853799 1.863084 -0.005547 0.0
2.054651 1.076549 -0.002258 0.0
1.340312 0.060909 -0.002364 0.0
1.465862 1.898927 -0.004797 0.0
4.801152 0.474203 0.001233 0.0
2.813958 0.774707 0.002767 0.0
4.896362 1.601986 0.001603 0.0
3.290448 1.806970 0.003249 0.0
2.515968 1.680829 -0.000480 0.0
3.611777 2.206846 0.000291 0.0
2.269159 0.268724 -0.000432 0.0
3.609437 0.420738 0.001478 0.0
1.408173 2.062396 0.001744 0.0
1.644782 1.032988 0.003629 0.0
4.690673 1.127886 -0.002881 0.0
2.671896 1.761393 0.000530 0.0
1.973241 1.155306 -0.002055 0.0
0.329051 0.929572 -0.002032 0.0
2.592536 1.055260 -0.000495 0.0
0.292193 0.588021 -0.001679 0.0
4.975526 0.033089 -0.000760 0.0
3.145127 0.820168 0.000909 0.0
2.792958 0.939265 -0.000793 0.0
2.268781 0.860343 0.001114 0.0
1.810913 0.124378 0.001553 0.0
0.803018 2.000188 -0.006069 0.0
1.374641 0.101714 0.003361 0.0
2.337501 0.706542 0.000248 0.0
2.161831 0.625896 0.002122 0.0
4.533223 0.260390 0.001303 0.0
3.512981 1.109666 -0.002961 0.0
1.581180 1.508041 0.002389 0.0
4.078905 1.202261 0.004998 0.0
3.080390 0.350735 0.001734 0.0
0.953925 0.232665 0.000931 0.0
0.128798 0.266118 -0.002786 0.0
0.509457 2.325749 -0.000620 0.0
2.537400 1.194791 -0.001891 0.0
0.837477 0.464679 -0.002198 0.0
4.034089 0.393692 -0.001246 0.0
4.354133 0.673982 -0.000987 0.0
2.676169 0.889284 -0.003951 0.0
2.843211 0.758538 -0.003336 0.0
4.077363 1.763732 -0.005003 0.0
2.255071 0.674059 -0.001144 0.0
4.292126 0.595681 0.001411 0.0
1.434850 1.529410 -0.000330 0.0
1.498159 0.103328 -0.003698 0.0
2.216887 0.649953 0.002413 0.0
3.687650 0.170524 0.001570 0.0
1.312160 1.188306 0.001277 0.0
0.558479 2.099879 0.001457 0.0
2.369662 0.388116 -0.000311 0.0
4.141819 0.051201 -0.001411 0.0
0.075649 1.491601 -0.002083 0.0
1.346067 0.854295 -0.001988 0.0
2.082291 0.157204 -0.000353 0.0
3.320683 0.210763 0.001347 0.0
2.604131 2.349628 -0.001131 0.0
3.771970 1.099269 0.004571 0.0
0.106630 2.330241 -0.000021 0.0
4.439649 0.312024 -0.003404 0.0
0.772026 1.843757 0.001329 0.0
0.478886 0.464606 -0.000583 0.0
4.535956 0.355590 0.001490 0.0
0.150652 0.094621 0.000872 0.0
3.478507 0.328569 0.004800 0.0
4.558290 2.094977 0.000866 0.0
1.375612 0.663511 -0.001121 0.0
0.149973 1.290311 -0.000360 0.0
4.906867 0.352716 -0.004236 0.0
1.679349 1.648725 -0.000356 0.0
1.877264 1.624314 0.004651 0.0
4.485323 0.505387 0.002437 0.0
1.096072 0.378748 -0.001032 0.0
3.515669 2.045815 -0.000030 0.0
0.987952 1.022428 0.005913 0.0
4.185964 1.747823 0.001135 0.0
1.087412 2.243649 -0.001325 0.0
3.214332 0.136677 -0.003306 0.0
1.353940 0.517370 0.000654 0.0
0.334086 0.131489 0.006284 0.0
3.622132 1.038704 0.004626 0.0
3.074463 1.345266 0.000327 0.0
2.708434 1.067810 -0.005104 0.0
1.382376 0.813815 0.001395 0.0
4.879185 1.169059 0.004293 0.0
4.888669 0.206110 -0.000047 0.0
1.661968 2.038695 0.001744 0.0
0.991732 2.259627 -0.005478 0.0
4.752107 0.844016 0.000771 0.0
1.445324 0.136683 0.002679 0.0
1.667828 1.824661 -0.000413 0.0
4.551134 0.766618 -0.004864 0.0
1.853312 1.354759 0.004262 0.0
2.490575 1.288130 -0.002745 0.0
2.870169 1.248089 -0.002197 0.0
4.443945 1.084842 -0.001880 0.0
3.655188 0.903916 -0.002520 0.0
3.455099 1.746807 0.007146 0.0
1.565364 0.511432 -0.004658 0.0
0.214919 0.609509 -0.005232 0.0
0.840954 1.471124 -0.000636 0.0
2.545561 1.253907 -0.001015 0.0
1.703963 1.374498 -0.001691 0.0
0.818033 0.197280 -0.003831 0.0
4.843381 1.670918 -0.000244 0.0
1.761486 2.023452 -0.001381 0.0
0.029966 0.383815 -0.002782 0.0
3.878366 0.921398 -0.001057 0.0
3.496500 0.663492 -0.002674 0.0
3.868550 1.810428 0.007725 0.0
2.482709 1.218846 -0.002519 0.0
2.892548 0.312094 0.000656 0.0
1.543310 2.165686 -0.003457 0.0
0.883989 1.946720 0.001449 0.0
1.544768 0.513865 -0.002513 0.0
2.277857 1.204936 -0.001470 0.0
1.170530 1.295821 0.002859 0.0
4.555305 1.031394 -0.001332 0.0
0.688088 2.190753 -0.000209 0.0
3.738685 0.074468 -0.001543 0.0
3.712285 2.140201 0.001911 0.0
1.463347 0.078418 0.006052 0.0
1.349262 1.746742 0.001074 0.0
1.154801 1.374845 -0.001227 0.0
3.600716 2.023806 0.003598 0.0
0.041489 1.564013 0.000486 0.0
1.414186 1.006906 -0.003706 0.0
3.085877 1.406460 -0.001073 0.0
4.923417 1.577230 0.000208 0.0
4.079053 0.071626 0.003470 0.0
3.702001 1.513025 0.002559 0.0
0.397163 0.423236 0.000470 0.0
2.346506 0.376996 0.004340 0.0
1.837894 1.720092 0.001334 0.0
3.841841 1.680700 -0.001735 0.0
1.085898 0.430235 0.007492 0.0
3.804902 0.069186 -0.002596 0.0
4.243563 0.419760 -0.001002 0.0
3.768338 2.072823 0.000960 0.0
4.624753 0.893128 -0.000422 0.0
1.825220 1.500123 -0.001018 0.0
3.232134 0.136121 -0.000825 0.0
2.292467 2.040914 -0.000083 0.0
2.310741 1.950662 0.003667 0.0
0.693451 0.857634 0.000214 0.0
1.713746 0.520006 0.000301 0.0
3.963532 1.038941 -0.001213 0.0
2.775336 0.410071 -0.003632 0.0
2.298852 1.263664 -0.003261 0.0
2.726965 2.215935 -0.006382 0.0
1.993911 1.951827 -0.000847 0.0
1.346626 0.392098 -0.001573 0.0
4.900443 1.525002 0.000383 0.0
2.935841 2.144967 0.000264 0.0
2.380712 0.409368 -0.002817 0.0
2.035372 0.572385 -0.001148 0.0
3.405844 0.254952 0.000143 0.0
3.217819 1.006123 0.000178 0.0
1.680709 2.018036 -0.001356 0.0
1.482055 2.336448 0.000528 0.0
2.007238 0.044641 0.000573 0.0
3.174647 1.569584 0.003099 0.0
0.894194 0.798915 -0.001722 0.0
3.457844 2.253355 -0.000000 0.0
4.119878 1.438944 0.001708 0.0
3.167751 0.909896 -0.003167 0.0
2.114084 0.758722 -0.001008 0.0
4.799988 0.278358 -0.003064 0.0
1.156552 0.438458 0.000094 0.0
1.764206 0.616690 0.001253 0.0
2.026787 0.377513 -0.000868 0.0
3.577726 0.078502 0.003641 0.0
0.180905 -0.002549 -0.002631 0.0
4.182327 1.982815 0.006628 0.0
0.943718 0.979047 -0.000015 0.0
2.351858 2.166867 -0.001126 0.0
2.262975 0.920811 -0.003298 0.0
1.204983 1.640729 -0.000422 0.0
4.080665 0.404018 0.001626 0.0
0.262964 0.416364 0.001229 0.0
3.693736 1.173279 0.002693 0.0
1.800975 2.308525 -0.002834 0.0
4.132680 0.087412 0.003650 0.0
0.600068 0.063361 -0.001989 0.0
2.689149 0.532254 -0.001530 0.0
3.137347 1.326011 0.002145 0.0
4.126308 0.311608 0.002601 0.0
3.531835 1.107613 -0.003404 0.0
3.489069 1.577773 -0.002843 0.0
2.667370 1.994446 0.000859 0.0
4.763416 0.103752 0.001256 0.0
4.640980 0.406235 0.001796 0.0
1.608272 1.061340 0.001618 0.0
1.385549 0.254876 0.000551 0.0
3.737289 1.698304 -0.003373 0.0
3.213674 0.698647 0.000307 0.0
0.507050 0.468781 0.000009 0.0
4.932957 0.527505 0.000908 0.0
4.884415 1.593701 -0.002821 0.0
0.520008 0.146600 -0.005069 0.0
0.997414 1.022422 0.000852 0.0
3.570650 1.933196 0.001274 0.0
4.271866 0.620727 -0.000534 0.0
2.405985 0.876354 0.002229 0.0
4.305467 1.716674 -0.000878 0.0
2.312107 1.784020 0.000082 0.0
4.823482 1.771318 0.000155 0.0
1.510338 1.491345 0.003353 0.0
2.870913 0.866206 0.005293 0.0
4.616401 2.230425 0.004115 0.0
2.414741 1.004647 0.002188 0.0
2.197189 0.377243 -0.000070 0.0
0.054513 1.654857 -0.002013 0.0
3.144957 0.568520 -0.001227 0.0
3.093780 2.140700 -0.000615 0.0
4.556374 0.453556 -0.000925 0.0
3.394743 0.536336 0.001595 0.0
0.319846 1.704734 -0.000572 0.0
3.353641 2.032209 0.002761 0.0
4.625141 1.319850 0.000292 0.0
0.133078 1.618807 -0.004374 0.0
0.768400 1.348323 -0.002625 0.0
4.297594 1.887638 0.002746 0.0
2.166006 2.031604 0.001409 0.0
2.434962 1.543874 -0.001564 0.0
0.773082 1.216764 0.001125 0.0
4.716565 0.941922 0.000615 0.0
1.983185 1.611023 -0.001872 0.0
3.686182 0.095825 0.000244 0.0
0.570698 0.155547 0.001351 0.0
0.814904 1.966346 0.007794 0.0
3.053631 0.964665 0.004810 0.0
4.482878 2.123047 0.000000 0.0
0.246476 1.980322 -0.002058 0.0
4.970284 0.952740 -0.002248 0.0
1.053634 0.237059 -0.000390 0.0
3.606204 1.187079 0.001356 0.0
4.218546 1.660495 -0.004017 0.0
2.553233 0.819162 0.000525 0.0
2.922043 0.510540 0.001948 0.0
1.249250 0.980595 -0.001896 0.0
4.122851 0.462673 -0.001418 0.0
4.431542 0.333320 -0.001246 0.0
3.183915 0.972143 0.002169 0.0
2.409446 0.140964 0.003741 0.0
2.996634 1.418077 -0.001903 0.0
3.895219 1.693202 0.004716 0.0
1.562463 0.851316 0.001386 0.0
2.627158 1.822831 0.000936 0.0
3.569788 0.572323 0.000798 0.0
0.200411 0.068525 0.000366 0.0
1.109885 1.153108 -0.001996 0.0
4.213779 1.886555 -0.001409 0.0
0.787226 0.407523 0.002315 0.0
3.066345 0.292516 -0.005615 0.0
2.456392 1.628924 0.002186 0.0
3.961327 2.082721 -0.004058 0.0
2.754567 0.593446 -0.002954 0.0
4.203241 2.255579 -0.002227 0.0
1.193515 1.671047 -0.000304 0.0
4.092815 1.575408 0.001766 0.0
1.611450 0.164670 0.000220 0.0
1.898833 0.851374 -0.001238 0.0
4.134912 0.400900 0.000383 0.0
4.093785 1.997517 -0.004262 0.0
3.214836 1.014727 -0.000218 0.0
3.826162 0.669257 0.002706 0.0
4.676577 0.467500 0.003738 0.0
1.890151 1.831854 -0.002632 0.0
3.147478 2.345878 -0.002163 0.0
1.395547 0.870900 -0.001423 0.0
1.361968 2.102205 0.003248 0.0
0.210279 1.397317 0.002102 0.0
3.911649 0.862607 0.003344 0.0
0.780280 0.292747 0.003996 0.0
0.615816 0.959234 0.000347 0.0
4.364465 0.934386 0.003158 0.0
1.933136 2.309800 0.001608 0.0
0.276945 1.115594 0.000182 0.0
2.570100 1.239558 -0.001442 0.0
1.868930 0.301121 -0.003603 0.0
1.744821 0.393312 -0.000158 0.0
4.832152 0.147089 -0.001450 0.0
1.276753 1.664155 0.002395 0.0
2.395405 1.098383 -0.005742 0.0
3.149863 0.111106 -0.000398 0.0
1.720476 0.094191 0.003465 0.0
3.827819 0.303101 0.001634 0.0
4.155914 0.911458 -0.002244 0.0
4.788357 0.618781 0.005476 0.0
1.117053 0.249135 0.000204 0.0
2.000343 0.315396 -0.001094 0.0
4.466129 1.469922 -0.000424 0.0
4.666774 0.186282 -0.002035 0.0
0.616352 1.591446 -0.002588 0.0
2.281907 1.638483 0.005791 0.0
0.720569 1.013066 0.004359 0.0
0.185712 1.703261 0.002298 0.0
3.900386 2.026428 0.002403 0.0
1.993167 0.556663 0.001261 0.0
2.546928 1.709838 0.001582 0.0
0.560556 0.710540 0.000242 0.0
0.133285 1.925146 -0.000435 0.0
4.419846 1.506447 -0.000556 0.0
1.621195 1.749370 -0.001328 0.0
2.172828 2.057610 0.001171 0.0
2.410593 1.148767 -0.003011 0.0
4.932997 1.749561 -0.001627 0.0
1.831554 0.260413 0.000515 0.0
0.477507 2.390882 0.004064 0.0
0.112491 0.350581 0.002342 0.0
4.670386 1.399564 0.000993 0.0
4.574700 0.195203 -0.003569 0.0
2.709050 1.658312 0.000976 0.0
1.739845 0.699804 -0.006802 0.0
1.504202 1.041474 -0.000389 0.0
1.944765 2.369430 0.000261 0.0
0.476543 0.925817 -0.002324 0.0
3.419489 1.973418 0.000996 0.0
1.350217 0.239305 0.000618 0.0
2.732414 0.354297 0.002291 0.0
4.394282 0.198914 -0.000174 0.0
2.411414 2.172348 -0.000685 0.0
0.793057 1.411769 -0.002605 0.0
1.798992 0.066250 -0.001598 0.0
1.529980 0.764523 -0.000117 0.0
1.993819 0.177754 0.001957 0.0
1.824720 2.069717 -0.004279 0.0
3.388039 1.708831 -0.003114 0.0
1.169022 0.214164 -0.001126 0.0
2.804776 2.237675 -0.003178 0.0
2.454510 1.502287 0.006807 0.0
1.246830 1.884308 0.000761 0.0
1.836196 1.906909 0.003268 0.0
3.666296 2.000403 0.000265 0.0
2.450111 0.728158 0.001367 0.0
0.735331 0.730071 0.006255 0.0
3.747640 0.972038 0.002964 0.0
2.147292 1.243064 -0.002497 0.0
0.730530 0.662758 0.003444 0.0
4.373824 1.288028 -0.001199 0.0
2.726096 0.980088 -0.002472 0.0
0.571879 1.545402 -0.002051 0.0
4.301953 1.942865 -0.004194 0.0
3.549605 1.105074 0.000630 0.0
3.047472 1.830973 -0.002657 0.0
3.886480 0.049475 0.001296 0.0
3.610110 0.902758 -0.002350 0.0
4.490858 0.461374 -0.002580 0.0
1.378363 1.882553 0.000976 0.0
4.786018 1.913762 0.003960 0.0
0.010479 0.567909 -0.001585 0.0
4.478127 1.397619 -0.001143 0.0
0.007122 0.630983 0.000313 0.0
4.749415 1.636189 -0.000673 0.0
4.602541 0.440479 0.003069 0.0
2.339180 2.141484 0.000131 0.0
2.121428 1.972670 -0.002262 0.0
2.659757 0.787192 -0.000981 0.0
0.308252 1.295507 0.001171 0.0
1.991192 2.287212 -0.000668 0.0
3.834759 0.349837 -0.000842 0.0
1.425128 0.319759 0.001087 0.0
0.838220 2.379094 0.002180 0.0
3.132423 1.573325 0.001600 0.0
0.022683 1.435729 0.000108 0.0
4.391756 2.207476 -0.004155 0.0
4.199462 2.352456 -0.001344 0.0
2.750177 1.949138 -0.001045 0.0
1.582125 0.921976 0.004029 0.0
1.246567 0.169579 -0.001304 0.0
2.325308 2.315220 0.001333 0.0
0.577927 2.118265 0.001694 0.0
0.932434 0.964250 -0.005552 0.0
4.721324 2.072370 -0.002337 0.0
0.092676 1.360657 0.001085 0.0
0.606994 0.135931 0.002491 0.0
0.432176 1.196456 -0.004108 0.0
0.309009 0.113883 -0.002031 0.0
3.174937 1.872617 -0.000900 0.0
3.122520 2.251542 0.002864 0.0
2.731728 1.804457 -0.000425 0.0
2.465409 2.022840 0.003037 0.0
3.919714 1.326373 0.002797 0.0
4.333975 0.295925 0.000199 0.0
2.284559 0.011996 -0.003981 0.0
3.304590 2.338963 0.003104 0.0
4.150798 0.590126 -0.000072 0.0
2.444509 0.841031 0.004528 0.0
1.751509 1.076884 -0.001137 0.0
3.488622 1.074809 0.003423 0.0
0.348897 0.310862 -0.000321 0.0
0.108617 0.780763 -0.001938 0.0
0.285050 2.353544 0.000207 0.0
3.484222 2.294079 0.000198 0.0
0.937569 1.431883 -0.001959 0.0
3.106388 0.724822 0.000704 0.0
2.527603 2.002454 0.000343 0.0
3.059443 0.883932 -0.001702 0.0
1.007908 1.579366 -0.003208 0.0
2.689354 2.165117 -0.003987 0.0
2.980893 2.335896 -0.000261 0.0
2.564807 0.785728 -0.002510 0.0
2.162231 0.362395 0.002546 0.0
0.681217 0.308312 -0.000016 0.0
0.110291 1.493577 -0.000682 0.0
0.164753 2.057462 0.001987 0.0
0.971030 1.519283 -0.003359 0.0
4.858272 0.042203 -0.000064 0.0
1.457245 0.937759 0.002623 0.0
3.651863 0.145341 0.001072 0.0
2.647100 2.209359 0.000724 0.0
0.980105 0.976904 -0.002080 0.0
3.464047 0.521606 -0.004121 0.0
2.118907 2.217418 0.000059 0.0
0.515536 0.783514 0.003724 0.0
0.883444 2.344927 0.006684 0.0
0.647710 2.255028 -0.003618 0.0
4.023506 0.632685 -0.001048 0.0
1.423351 0.634475 -0.004514 0.0
2.636915 1.730990 0.000322 0.0
2.578499 0.917294 0.000403 0.0
4.775168 2.271189 -0.001119 0.0
3.584088 0.879545 0.001860 0.0
3.611444 2.226143 -0.000548 0.0
4.456400 1.228909 0.002044 0.0
1.373510 0.433401 -0.001610 0.0
1.933387 1.668601 0.001607 0.0
0.926576 0.839870 0.006312 0.0
2.143781 1.778095 -0.001698 0.0
3.418916 2.321075 0.001690 0.0
1.274817 2.195663 0.006651 0.0
3.401974 1.571256 0.000862 0.0
1.979757 2.331519 0.002939 0.0
3.313153 1.922748 0.003566 0.0
2.014788 0.860131 0.002898 0.0
1.138747 2.199768 0.004004 0.0
2.992196 1.710539 0.001576 0.0
3.239982 1.412149 0.001175 0.0
4.855979 0.032993 0.001270 0.0
2.489298 0.278044 -0.001283 0.0
3.155972 1.474585 -0.006092 0.0
2.042493 1.947803 0.003338 0.0
2.676621 0.525957 0.002582 0.0
2.459607 1.153936 -0.000422 0.0
0.650014 1.564131 0.001910 0.0
1.464455 0.862536 -0.003790 0.0
4.180294 1.761396 0.000022 0.0
0.238916 0.387780 0.001549 0.0
3.427431 1.540973 -0.001678 0.0
1.196012 1.699778 -0.004206 0.0
0.232211 0.432679 0.001780 0.0
4.909916 0.977919 0.002380 0.0
0.839847 0.739229 -0.002885 0.0
1.520824 1.038537 -0.002105 0.0
0.919238 2.305182 0.002674 0.0
1.080405 0.454179 0.001970 0.0
0.413636 1.047152 -0.001155 0.0
4.160521 1.501293 -0.000333 0.0
0.227874 2.169013 0.002406 0.0
1.693302 1.364317 0.001037 0.0
3.724887 2.149296 -0.000069 0.0
4.023606 0.911271 0.001896 0.0
4.388116 1.704543 0.001629 0.0
2.386313 1.160632 0.001754 0.0
4.847738 0.561580 -0.000507 0.0
2.761796 0.929085 -0.000541 0.0
3.447232 1.731077 -0.000195 0.0
3.481821 0.336834 -0.001246 0.0
0.695898 1.266155 0.001075 0.0
4.455967 0.423842 -0.001326 0.0
0.945347 0.472474 -0.000220 0.0
4.845993 1.287195 0.001472 0.0
4.982882 0.035252 -0.000324 0.0
0.436580 1.474396 0.001303 0.0
3.281154 1.712320 0.004498 0.0
0.908847 1.056596 -0.000094 0.0
2.198025 2.258562 -0.001090 0.0
1.176603 1.353393 0.000184 0.0
1.749918 1.534916 0.002316 0.0
2.319890 0.779300 -0.006080 0.0
1.439872 2.098181 -0.001342 0.0
2.600560 1.619412 -0.000388 0.0
0.355012 0.970718 -0.001677 0.0
1.599155 1.162799 -0.004423 0.0
0.330165 2.039157 -0.000709 0.0
0.656323 0.053068 0.002260 0.0
1.619402 1.323936 0.003105 0.0
3.116543 0.909470 0.000293 0.0
4.724096 1.652963 0.000285 0.0
0.521345 2.238441 0.000550 0.0
3.407660 1.557010 -0.004361 0.0
1.728164 2.175312 0.003823 0.0
3.014956 0.934075 -0.003448 0.0
0.378809 2.390125 -0.001498 0.0
2.619252 2.112940 -0.000226 0.0
3.138583 0.528754 -0.001975 0.0
4.046413 0.285489 -0.001046 0.0
2.148870 2.123806 -0.001398 0.0
0.443422 2.111530 -0.000672 0.0
0.518036 2.135715 0.000270 0.0
0.887115 1.678046 0.003047 0.0
3.387678 2.314823 0.001437 0.0
3.905759 0.215751 0.000599 0.0
3.305678 0.667882 0.000551 0.0
4.565145 0.320157 0.001197 0.0
1.693756 0.922598 0.001076 0.0
3.797467 1.698407 0.003078 0.0
4.927319 0.314811 -0.001688 0.0
4.082941 1.764397 -0.000238 0.0
0.711707 1.111208 -0.003184 0.0
0.212427 1.067428 0.002002 0.0
3.102297 0.376255 0.001134 0.0
2.144298 1.860297 0.000141 0.0
2.014209 2.131467 0.000206 0.0
1.847280 2.229377 -0.001757 0.0
0.519206 1.754015 0.004097 0.0
0.183095 1.839262 0.000250 0.0
2.284806 2.359111 0.001167 0.0
4.126762 1.553631 -0.006626 0.0
3.584636 1.925024 0.000991 0.0
4.734937 0.832711 0.001030 0.0
4.800775 2.200998 0.000237 0.0
4.451812 2.103802 -0.000921 0.0
3.234286 1.634804 0.000594 0.0
0.462843 0.352342 0.004092 0.0
0.612199 1.699607 -0.000356 0.0
1.541885 2.122486 0.000658 0.0
3.759417 2.375604 -0.002106 0.0
3.759620 2.307825 0.002034 0.0
0.507088 2.210917 0.001559 0.0
3.705136 1.892130 0.001070 0.0
1.101157 0.695038 -0.000545 0.0
4.700092 2.307671 0.000744 0.0
1.939474 0.800180 -0.001757 0.0
4.830147 0.516751 -0.000742 0.0
2.148877 0.635026 0.002945 0.0
0.825176 0.130853 -0.000437 0.0
0.007244 1.234320 -0.001997 0.0
1.877119 2.358516 -0.005881 0.0
4.072051 1.894740 -0.000001 0.0
0.780433 0.912747 -0.001110 0.0
2.142506 0.161805 -0.004845 0.0
3.422447 0.340665 0.000107 0.0
1.117866 0.332628 0.002172 0.0
4.106659 0.975164 -0.002480 0.0
2.724377 1.238198 0.004820 0.0
1.577648 0.059837 -0.000111 0.0
1.616117 0.119114 0.004639 0.0
3.666957 1.705112 -0.000812 0.0
3.295730 0.252169 -0.004758 0.0
1.309233 1.843721 0.000325 0.0
1.129441 2.108698 -0.006212 0.0
3.768289 1.894731 -0.004637 0.0
0.561752 0.744244 -0.002729 0.0
2.598821 1.352375 0.000958 0.0
1.056050 1.088875 -0.002316 0.0
4.934460 1.792158 -0.002202 0.0
2.649930 0.892357 0.001051 0.0
1.891389 0.144995 -0.004236 0.0
4.519225 0.112892 -0.003028 0.0
2.305856 1.626375 0.000062 0.0
4.266572 0.938441 0.001581 0.0
2.876547 0.005049 0.001405 0.0
0.663521 1.516169 0.004138 0.0
4.605158 0.081720 0.001146 0.0
4.318095 1.281140 0.000675 0.0
4.185942 0.580395 0.000699 0.0
2.043054 0.256734 -0.000999 0.0
3.853459 0.599310 0.000778 0.0
4.818365 1.963145 0.000783 0.0
4.526813 0.649648 0.002281 0.0
3.076152 1.780052 -0.004495 0.0
4.007020 2.284102 0.003544 0.0
4.296561 0.878693 -0.000540 0.0
0.542644 0.655620 -0.007873 0.0
0.399774 1.097805 0.001618 0.0
3.109919 1.764478 -0.001498 0.0
1.834193 1.434862 0.000556 0.0
3.880967 0.053620 0.000110 0.0
0.760522 1.556988 -0.000221 0.0
3.517602 1.320188 -0.002774 0.0
0.489137 1.393343 0.001133 0.0
1.924275 0.013967 0.005738 0.0
4.505048 1.393513 -0.002327 0.0
2.918102 1.152596 0.001084 0.0
1.547305 1.470223 0.001501 0.0
4.793006 0.980939 0.001171 0.0
2.734781 1.467954 0.003887 0.0
0.048413 0.576064 0.000885 0.0
1.781178 0.889585 0.003508 0.0
3.723979 0.002148 -0.002816 0.0
1.996050 2.129375 0.004779 0.0
2.572502 1.962175 -0.001292 0.0
2.822972 0.574777 0.005482 0.0
1.585809 1.443457 -0.003294 0.0
0.777336 1.831136 -0.003349 0.0
4.810721 0.103427 0.001342 0.0
2.565078 1.542772 0.001901 0.0
0.736309 1.105904 0.002885 0.0
2.417228 0.409710 -0.001570 0.0
1.266346 0.887560 0.000472 0.0
2.498847 1.307000 0.001424 0.0
1.605155 2.101297 0.002321 0.0
4.513645 0.694343 0.001583 0.0
0.193002 2.005308 0.001341 0.0
2.706176 1.070753 0.003508 0.0
2.367465 1.899778 -0.002004 0.0
2.311101 0.929028 0.000306 0.0
0.398624 2.282625 0.000437 0.0
0.979048 0.898244 -0.000156 0.0
4.762601 0.645708 0.001396 0.0
0.783804 2.072589 0.002529 0.0
1.417551 0.286506 -0.000368 0.0
0.288109 2.138217 0.003072 0.0
1.289319 1.961413 0.001166 0.0
0.435655 0.462144 0.000210 0.0
1.569469 1.319930 0.003988 0.0
1.260024 1.802188 -0.002477 0.0
1.812312 0.736998 0.001470 0.0
3.099565 0.641050 -0.001497 0.0
4.802685 2.187527 0.001759 0.0
0.659163 1.424493 -0.000383 0.0
4.441896 0.185485 -0.000982 0.0
3.464615 0.217653 0.002317 0.0
4.297898 1.700696 -0.000243 0.0
4.696527 0.754014 -0.000120 0.0
4.076244 0.616100 -0.001594 0.0
4.561923 0.054113 -0.002759 0.0
3.631030 0.586787 0.000374 0.0
4.131313 0.942919 0.000252 0.0
0.366790 0.122680 -0.000482 0.0
2.271284 1.580260 -0.004154 0.0
3.078056 1.511955 0.002492 0.0
2.224213 1.667358 0.000050 0.0
3.716942 1.908858 0.000452 0.0
2.026736 0.047593 0.003403 0.0
2.281891 1.929458 0.003249 0.0
4.898872 1.150960 -0.004065 0.0
3.816664 0.376108 -0.000814 0.0
1.689709 2.381367 -0.000288 0.0
1.841690 0.021630 0.001550 0.0
4.920287 1.179504 -0.001424 0.0
1.798666 0.451073 -0.001348 0.0
1.558191 2.132767 0.000661 0.0
0.772670 1.098068 -0.000257 0.0
4.435368 0.695551 -0.004816 0.0
4.561089 0.066839 -0.001410 0.0
4.636709 0.692620 0.004464 0.0
1.409212 1.837611 0.003813 0.0
4.032335 1.710414 0.000424 0.0
3.156516 2.139521 -0.004628 0.0
0.715836 0.272170 -0.003746 0.0
3.776885 1.006485 0.000013 0.0
2.381800 0.103770 -0.001984 0.0
4.416379 1.596930 0.005298 0.0
2.658191 0.398958 0.000196 0.0
1.488726 2.387489 -0.006288 0.0
2.488588 2.195027 -0.004633 0.0
1.850160 1.700801 0.002470 0.0
1.570358 0.960262 0.005740 0.0
1.157668 2.089940 -0.002831 0.0
3.623298 0.131309 0.000993 0.0
2.442929 1.719868 -0.000602 0.0
3.498714 0.508846 -0.000162 0.0
2.933617 2.099090 0.004361 0.0
1.079846 0.259348 -0.000141 0.0
0.583885 1.443902 -0.002613 0.0
0.231157 1.384231 0.000892 0.0
3.897839 0.882053 0.001306 0.0
4.927233 1.982241 0.000033 0.0
3.596092 0.996903 -0.001444 0.0
3.152422 0.553431 -0.003553 0.0
1.291260 1.339145 0.003223 0.0
3.941145 2.330753 0.000714 0.0
1.941775 1.346812 -0.002554 0.0
2.562166 1.419164 0.005563 0.0
1.138647 0.880848 -0.000512 0.0
4.924113 2.389186 0.000431 0.0
2.100035 0.852492 0.001175 0.0
2.362364 1.121362 0.002229 0.0
2.125371 0.327687 -0.003447 0.0
4.810431 0.813362 -0.001184 0.0
4.108832 0.830487 -0.001284 0.0
2.888189 1.249309 -0.002600 0.0
4.936136 1.635437 0.000070 0.0
1.457969 2.220546 -0.000415 0.0
4.431652 1.328185 -0.001884 0.0
4.329032 0.353741 0.000051 0.0
2.180533 1.747454 0.001164 0.0
1.782196 0.340704 -0.001605 0.0
3.137153 2.001686 0.003167 0.0
0.587166 1.002358 0.005022 0.0
4.945908 1.389911 0.000866 0.0
0.389271 0.162996 0.000350 0.0
1.291656 2.089313 0.003218 0.0
3.454313 2.341783 -0.001273 0.0
1.462285 1.015156 0.001479 0.0
3.818823 0.583804 0.002358 0.0
4.777084 0.676664 0.002061 0.0
4.421256 1.414287 0.000229 0.0
0.842330 0.800847 0.004075 0.0
2.662211 0.837027 0.002149 0.0
2.979568 0.410809 -0.000410 0.0
0.623185 0.811341 -0.000908 0.0
3.095242 0.877596 -0.001581 0.0
1.995788 1.404946 -0.000233 0.0
2.217158 0.898837 -0.000922 0.0
1.636795 1.681990 -0.000605 0.0
0.556615 0.449653 -0.002367 0.0
1.509101 2.234955 0.001475 0.0
4.818516 0.826316 0.000048 0.0
0.767695 2.246951 0.000644 0.0
1.292559 1.710752 0.002636 0.0
1.817630 0.575555 0.002332 0.0
2.423435 0.175904 -0.002170 0.0
0.784921 0.480347 -0.001189 0.0
4.560842 1.651569 0.000203 0.0
0.198085 0.173603 0.000049 0.0
1.904310 1.294475 0.002200 0.0
2.943306 1.219256 0.003053 0.0
3.500705 0.222720 0.000156 0.0
2.427234 1.195707 0.000577 0.0
2.005944 0.185582 0.000100 0.0
1.903528 2.351935 0.000220 0.0
4.487181 1.580741 -0.001390 0.0
2.267565 0.181861 -0.001267 0.0
1.934319 1.169760 0.000558 0.0
2.060777 0.424076 -0.004578 0.0
4.030881 0.657828 0.001357 0.0
2.881439 2.224095 0.000023 0.0
2.285866 1.310571 -0.001347 0.0
3.665914 0.556278 0.003094 0.0
0.360090 1.266619 -0.000813 0.0
0.234732 1.156657 -0.002549 0.0
1.148072 2.257165 0.002175 0.0
3.964754 1.197619 0.003498 0.0
4.582793 0.053132 0.001797 0.0
4.664718 1.454214 0.001812 0.0
1.466994 0.400083 -0.001718 0.0
1.403889 2.361755 -0.000587 0.0
3.904431 1.275741 -0.001428 0.0
1.819197 0.122333 0.001221 0.0
2.986285 0.705476 -0.003994 0.0
1.495029 2.335897 -0.003066 0.0
0.774735 1.361594 0.001804 0.0
1.212496 1.963982 0.001989 0.0
0.407427 2.068058 -0.005151 0.0
3.032455 1.398883 0.003562 0.0
2.209510 0.793674 0.000830 0.0
2.108430 0.916965 -0.002376 0.0
0.363907 1.525067 0.005428 0.0
1.295039 1.693115 0.001240 0.0
1.432031 1.771665 0.004824 0.0
0.191386 1.007854 -0.001213 0.0
4.507796 0.653086 -0.003732 0.0
0.091938 2.325347 -0.000748 0.0
3.966772 1.286757 0.000599 0.0
2.510823 0.991571 0.002572 0.0
0.024622 2.163727 0.001291 0.0
3.699733 1.924447 -0.002957 0.0
3.455236 0.480714 0.003202 0.0
3.197033 1.942272 -0.002141 0.0
2.035861 0.054350 -0.001511 0.0
2.129381 1.863821 0.001784 0.0
4.375779 0.767894 -0.003250 0.0
3.941071 1.519769 0.004443 0.0
4.593132 2.366076 -0.005478 0.0
4.930531 1.159637 -0.001063 0.0
1.580941 0.401168 -0.000501 0.0
2.318553 1.827785 0.000474 0.0
2.689295 1.629994 -0.001253 0.0
4.591794 1.921563 0.001456 0.0
2.102253 0.545640 -0.001289 0.0
0.588792 1.408915 0.000177 0.0
2.773882 1.720857 -0.001524 0.0
2.300566 0.591642 0.000579 0.0
2.736283 2.139850 0.002547 0.0
3.528129 0.934622 -0.002777 0.0
1.780851 1.241972 0.001025 0.0
0.103656 1.598659 0.003546 0.0
4.174600 1.658474 0.000417 0.0
3.943171 1.171098 0.002320 0.0
2.379252 0.196275 0.001208 0.0
3.518076 2.010395 -0.001282 0.0
4.919208 0.317403 -0.001504 0.0
3.274181 0.783610 0.006056 0.0
4.141615 1.129568 -0.000956 0.0
3.553053 0.424102 -0.003405 0.0
3.111986 0.313695 0.001231 0.0
1.740927 0.503678 0.000365 0.0
1.901097 1.447259 -0.000111 0.0
1.166501 1.115757 -0.003575 0.0
4.299195 2.138585 0.000583 0.0
0.571368 0.728186 0.001146 0.0
0.099838 1.022181 0.006099 0.0
2.289630 1.290599 0.001791 0.0
3.101189 0.120509 0.002200 0.0
4.174009 0.867269 -0.004476 0.0
0.594776 0.163560 0.002521 0.0
2.686244 2.180171 -0.000862 0.0
4.991966 0.304484 -0.001676 0.0
2.861924 1.310219 -0.000120 0.0
2.511425 1.066657 -0.001941 0.0
1.158215 1.001081 -0.000648 0.0
1.396506 2.319498 -0.002087 0.0
2.138867 1.333166 0.000761 0.0
3.015762 0.528596 0.002184 0.0
2.906335 1.907461 -0.001645 0.0
1.954110 2.037822 -0.002650 0.0
2.587334 0.496236 -0.001015 0.0
4.852985 1.486416 -0.002614 0.0
4.823154 1.975801 -0.000976 0.0
1.883846 0.227716 -0.000251 0.0
1.486001 0.058917 -0.000959 0.0
4.608039 0.262212 0.002362 0.0
0.181267 0.762008 0.001219 0.0
0.534063 2.359052 0.003142 0.0
4.639790 2.078696 -0.004581 0.0
1.101377 0.711280 0.000633 0.0
0.606701 0.099432 -0.002499 0.0
1.712002 1.646389 0.002441 0.0
2.464915 0.988183 0.005471 0.0
2.215696 0.817857 -0.002589 0.0
1.216952 2.284924 0.001043 0.0
1.505329 1.812986 -0.002822 0.0
3.976744 0.146164 -0.002781 0.0
1.611142 1.849005 0.000667 0.0
1.788064 1.464276 0.001242 0.0
4.233535 0.200498 -0.000050 0.0
1.426282 0.886067 0.001698 0.0
1.793781 0.481227 0.000842 0.0
0.126322 0.742819 -0.002365 0.0
4.054842 1.203112 0.003471 0.0
3.446965 1.968854 -0.002651 0.0
0.522535 1.414315 -0.000168 0.0
3.997000 1.892334 -0.002466 0.0
2.647757 0.572518 0.001898 0.0
0.224817 0.135356 0.003498 0.0
0.832397 1.465853 0.004994 0.0
2.734750 0.781518 -0.002015 0.0
4.694852 0.192722 -0.002263 0.0
2.786883 0.877866 0.002272 0.0
0.707099 0.639608 0.003007 0.0
0.312799 0.166572 0.001914 0.0
0.227265 1.871618 -0.002902 0.0
3.669595 2.348019 0.000413 0.0
2.148297 0.937811 -0.000774 0.0
4.634455 1.228755 0.000332 0.0
0.744712 1.514585 -0.002681 0.0
0.282282 0.980685 0.004475 0.0
1.095512 0.622718 -0.004173 0.0
4.725999 0.146748 0.000962 0.0
3.126288 1.096465 0.000414 0.0
2.421994 0.938272 -0.002135 0.0
0.524043 1.092885 -0.001056 0.0
1.351564 2.258501 0.000501 0.0
3.285786 1.939589 -0.001908 0.0
4.464866 0.580771 0.000380 0.0
4.944274 0.493142 -0.000121 0.0
4.772818 1.903325 0.004377 0.0
0.039203 1.860120 0.001487 0.0
1.946317 0.252409 -0.001768 0.0
2.050674 1.042195 0.003379 0.0
0.846396 2.215316 -0.004404 0.0
1.142184 2.033985 0.002578 0.0
0.550783 0.702055 -0.001580 0.0
4.541299 0.785753 -0.003918 0.0
1.685872 1.751125 -0.002176 0.0
4.144671 2.101903 -0.003402 0.0
1.620067 0.764069 0.002049 0.0
2.054240 1.255175 -0.004780 0.0
1.431147 0.135499 0.003886 0.0
1.659346 1.905617 0.002629 0.0
1.668302 0.697611 0.004534 0.0
4.377571 1.500920 0.001959 0.0
0.890180 2.347449 -0.001849 0.0
2.955694 2.177209 -0.000901 0.0
3.942065 0.463371 0.003627 0.0
1.373762 1.563808 -0.000142 0.0
4.904020 1.322559 0.003594 0.0
1.213818 2.319813 -0.000660 0.0
2.159207 1.307869 0.000297 0.0
2.002493 0.700118 0.000284 0.0
3.729291 1.605083 -0.002661 0.0
4.481043 1.563711 -0.001876 0.0
1.992980 0.881293 0.001671 0.0
3.544169 0.652327 0.000676 0.0
2.061950 2.300038 -0.000370 0.0
4.008457 0.216290 0.002099 0.0
4.257527 0.834029 -0.005833 0.0
2.744555 1.213683 0.002426 0.0
2.831446 2.044825 0.000510 0.0
3.684985 0.433620 -0.001255 0.0
0.049560 0.164681 0.000745 0.0
3.138359 1.945715 -0.004517 0.0
3.446113 2.102604 0.000070 0.0
4.248616 0.159464 -0.000594 0.0
0.656997 2.123113 -0.000222 0.0
4.058830 2.300807 -0.000449 0.0
3.763742 1.924220 -0.001387 0.0
4.383410 0.099848 -0.004691 0.0
1.193072 0.277902 -0.003348 0.0
3.741867 0.368160 -0.001268 0.0
2.009600 1.357975 -0.002192 0.0
3.507476 1.994756 -0.000850 0.0
1.278070 0.221706 -0.003101 0.0
4.745201 2.317878 -0.002539 0.0
1.340202 2.136123 0.000302 0.0
3.729173 0.395058 -0.002429 0.0
2.866138 0.685441 -0.001027 0.0
-0.001100 0.684785 0.000822 0.0
0.994571 1.755197 0.001545 0.0
3.744128 1.412951 0.001742 0.0
4.656899 0.676274 0.002451 0.0
2.327063 1.335892 0.002238 0.0
1.571726 0.341523 0.001590 0.0
1.267757 0.264981 0.003279 0.0
2.245913 2.055991 0.002987 0.0
0.020208 1.311795 -0.002362 0.0
2.441362 0.854520 -0.000097 0.0
1.536632 1.902472 0.002087 0.0
4.459250 0.801558 -0.001660 0.0
3.855049 2.279534 -0.000336 0.0
2.016863 0.376312 0.001373 0.0
0.298541 -0.002851 0.036288 0.0
2.787804 0.000906 0.094101 0.0
0.331701 0.004271 0.107354 0.0
4.312278 0.002375 0.004862 0.0
0.181115 -0.003831 0.129880 0.0
1.869291 -0.000068 0.050990 0.0
1.232749 -0.001548 0.063857 0.0
3.047296 0.002861 0.022177 0.0
3.645371 0.003035 -0.002572 0.0
2.088126 0.006507 0.136575 0.0
2.553400 -0.004166 0.028646 0.0
3.379199 0.002325 0.092589 0.0
3.082432 0.001157 0.170725 0.0
2.932483 0.001324 0.171688 0.0
4.703915 -0.000829 0.058179 0.0
3.249080 0.002062 0.115001 0.0
4.963072 0.002256 0.144982 0.0
1.472710 -0.000731 0.047743 0.0
3.082200 0.003415 0.025222 0.0
3.623565 -0.000348 0.095381 0.0
1.687383 0.000826 0.055944 0.0
1.623449 -0.002956 0.169256 0.0
4.930719 -0.000304 0.077045 0.0
1.851366 0.000972 0.086352 0.0
1.795239 -0.001904 0.172385 0.0
4.202852 0.001738 0.083893 0.0
2.637715 -0.002023 0.075554 0.0
0.297000 -0.001458 0.182834 0.0
3.810910 0.001053 0.015136 0.0
4.878573 0.000887 0.089391 0.0
2.285157 -0.003340 0.170049 0.0
2.253371 -0.003247 0.054270 0.0
3.961633 -0.002301 0.040814 0.0
1.268105 -0.002770 0.111406 0.0
0.791592 0.002023 0.039440 0.0
1.928720 0.002666 0.125233 0.0
2.271884 0.000468 0.099276 0.0
0.269975 0.004734 0.108872 0.0
4.924006 -0.000506 0.079209 0.0
3.607638 0.001688 0.170927 0.0
2.140133 0.003737 0.065354 0.0
3.669765 0.004163 0.110342 0.0
3.961674 0.001490 0.074593 0.0
0.130006 0.003483 0.088624 0.0
3.426289 -0.003722 0.003972 0.0
4.003298 0.005187 0.063710 0.0
3.468017 0.003286 0.079098 0.0
4.983023 0.001407 0.073285 0.0
2.936273 0.002931 0.030096 0.0
3.818206 -0.000068 0.118466 0.0
2.192807 0.001957 0.100562 0.0
1.755170 0.000405 0.082470 0.0
3.328535 0.002070 0.131309 0.0
1.324666 -0.002544 0.022962 0.0
3.079539 0.000662 0.017088 0.0
4.463902 -0.003313 0.102004 0.0
0.174941 0.000879 0.056942 0.0
2.396834 -0.004554 0.046124 0.0
2.595027 0.002354 0.028150 0.0
0.491584 -0.002206 0.131500 0.0
0.015313 0.001629 0.149313 0.0
2.923202 0.000492 0.182925 0.0
3.290836 -0.000919 0.061286 0.0
2.156703 0.000516 0.068355 0.0
4.680125 -0.003834 0.048156 0.0
3.697717 0.001000 0.042688 0.0
1.960368 -0.001309 0.116647 0.0
2.609139 -0.002531 0.081060 0.0
0.132156 0.004025 0.019117 0.0
3.556691 0.004192 0.165545 0.0
4.574733 0.000571 0.019380 0.0
1.906477 -0.000670 0.108837 0.0
2.822022 0.003303 0.088048 0.0
3.266359 0.000547 0.106288 0.0
4.289375 -0.000665 0.157760 0.0
0.848187 0.004950 0.043997 0.0
3.877794 0.000249 0.112118 0.0
1.752889 -0.004802 0.030645 0.0
3.369334 -0.000079 0.139375 0.0
3.203305 0.006514 0.171171 0.0
0.545858 0.000566 0.158074 0.0
2.565028 0.000277 0.179340 0.0
0.556341 -0.001328 0.134198 0.0
0.265519 0.001918 0.117911 0.0
1.871652 0.001425 0.147716 0.0
0.196937 0.001028 0.011842 0.0
3.399008 0.001595 0.042469 0.0
3.739449 0.001723 0.007270 0.0
3.767225 -0.001033 0.034983 0.0
1.011339 -0.002853 0.088136 0.0
4.918588 0.001751 0.055816 0.0
2.075292 -0.003018 0.120929 0.0
4.891127 0.001940 0.098215 0.0
1.293501 0.002373 0.123293 0.0
4.052000 0.002034 0.044362 0.0
0.961778 0.000372 0.034776 0.0
3.432318 -0.000499 0.161587 0.0
1.870238 0.000449 0.155916 0.0
4.832766 0.004183 0.059907 0.0
2.771421 0.000860 0.166603 0.0
2.860611 -0.002549 0.013308 0.0
4.750547 -0.002522 0.077255 0.0
4.756853 0.000911 0.125534 0.0
2.665655 0.001100 0.056584 0.0
4.891711 0.000855 0.110253 0.0
2.863590 0.002431 0.183054 0.0
2.697701 0.000493 0.117957 0.0
2.971573 -0.002213 0.004311 0.0
0.812120 -0.001994 0.015458 0.0
4.947655 0.001616 0.115439 0.0
3.519115 0.003249 0.149325 0.0
3.798898 0.003941 0.059338 0.0
2.874316 0.001782 0.087507 0.0
0.945071 0.004122 -0.002103 0.0
4.021635 -0.002327 0.026225 0.0
1.920487 -0.001098 0.105865 0.0
0.258146 -0.002444 0.133723 0.0
4.772568 -0.007258 0.090660 0.0
2.675355 -0.001138 0.048040 0.0
3.569938 0.000885 0.143811 0.0
3.332031 -0.001355 0.138159 0.0
3.876229 0.003512 0.176552 0.0
3.783812 0.005623 0.074473 0.0
2.035370 0.002497 0.161834 0.0
4.229526 0.000076 0.161630 0.0
1.543847 0.003132 0.033300 0.0
2.845232 -0.000413 0.089361 0.0
1.330429 -0.001594 0.156147 0.0
3.804199 0.000191 0.080532 0.0
2.565586 0.000383 0.065885 0.0
1.364932 0.000126 0.075018 0.0
4.504669 0.003078 0.184267 0.0
4.295481 -0.000353 0.127510 0.0
1.740479 -0.002265 0.034111 0.0
2.742470 0.002357 0.159406 0.0
4.836061 0.000718 0.129455 0.0
4.953033 -0.000128 0.127178 0.0
2.121166 0.002571 0.065284 0.0
3.698218 0.000338 0.152222 0.0
3.163416 -0.002047 0.057059 0.0
2.331241 0.003114 0.066237 0.0
2.540265 0.002204 0.069975 0.0
1.032064 -0.001461 0.110209 0.0
0.501227 -0.001780 0.006929 0.0
2.368791 0.000799 0.177934 0.0
2.341033 -0.000452 0.071407 0.0
2.158669 -0.000605 0.062375 0.0
3.844120 0.002636 0.111334 0.0
2.711757 0.002623 0.082571 0.0
4.827254 -0.002914 0.122326 0.0
2.271764 0.002124 0.044132 0.0
3.734782 0.001617 0.080180 0.0
1.633758 -0.003241 0.026652 0.0
1.322136 0.002215 0.133809 0.0
4.439505 0.001235 0.036839 0.0
0.875885 0.000272 0.080763 0.0
1.967214 0.001563 0.137113 0.0
4.000653 0.004366 0.044810 0.0
1.026374 0.001198 0.084348 0.0
0.617748 -0.000446 0.059310 0.0
3.864464 -0.002495 0.025932 0.0
0.378240 0.002928 0.149655 0.0
0.502569 0.003254 0.133214 0.0
0.953455 0.001314 0.160167 0.0
0.331057 0.003100 0.155720 0.0
2.205156 0.000554 0.016114 0.0
4.737381 -0.002955 0.070597 0.0
0.211690 0.002167 0.110136 0.0
2.132104 -0.002712 0.086470 0.0
1.649714 0.000918 0.036420 0.0
4.887582 0.000874 0.142742 0.0
3.761792 -0.000076 0.165336 0.0
1.691331 0.000814 0.048448 0.0
3.049499 0.001089 -0.002053 0.0
1.534764 0.001528 0.059604 0.0
1.903937 -0.002430 0.007154 0.0
1.766914 -0.002361 0.011067 0.0
2.290524 0.000888 0.119682 0.0
3.982142 -0.000623 0.011152 0.0
4.179860 0.001444 0.051308 0.0
2.871317 0.001905 0.116816 0.0
3.378193 0.001553 0.021495 0.0
2.228369 0.003421 0.104072 0.0
0.737927 0.001283 0.123450 0.0
2.411041 0.000029 0.091687 0.0
3.651980 -0.000406 0.110204 0.0
0.455129 -0.000074 0.177213 0.0
3.301017 0.003040 0.177818 0.0
2.812499 0.000185 0.134950 0.0
4.704669 0.003991 0.111145 0.0
2.454008 0.001392 0.048457 0.0
0.422824 0.004192 0.124784 0.0
4.900681 -0.004629 0.142548 0.0
0.136252 0.001757 0.022757 0.0
1.558400 0.000631 0.028566 0.0
3.764386 0.003148 0.132432 0.0
3.364021 -0.000475 -0.004303 0.0
4.571115 -0.001299 0.187885 0.0
2.653056 0.004708 0.053933 0.0
2.822639 0.003300 0.044814 0.0
3.466913 0.000396 0.076387 0.0
4.025814 -0.003642 0.055609 0.0
0.404884 0.004095 0.082906 0.0
4.939767 0.001613 0.066456 0.0
2.581262 -0.000550 0.070252 0.0
4.544945 0.001246 0.146055 0.0
0.780261 0.000278 0.027305 0.0
2.675038 0.007550 0.134047 0.0
0.632559 -0.001787 0.161601 0.0
3.225124 -0.002975 0.002989 0.0
0.729065 0.002741 0.188747 0.0
2.501372 0.003062 0.103420 0.0
1.620745 -0.002240 0.155594 0.0
4.204840 -0.002515 0.172096 0.0
2.056717 0.003712 0.060129 0.0
2.061994 0.002919 0.042487 0.0
1.913774 -0.001378 0.008502 0.0
0.174249 -0.000009 0.004366 0.0
0.491903 0.001458 0.118181 0.0
2.710428 -0.002149 0.137496 0.0
4.328764 -0.001706 0.152337 0.0
2.545587 0.001021 0.137239 0.0
2.720858 0.000072 0.141470 0.0
2.228002 0.000039 0.065510 0.0
4.557397 0.004870 0.120247 0.0
4.926105 -0.001959 0.069603 0.0
0.256827 0.003699 0.157360 0.0
0.314370 -0.000335 0.145695 0.0
4.164090 0.003085 0.138061 0.0
2.853380 0.000953 0.047090 0.0
3.137251 0.002665 0.104140 0.0
0.882615 -0.005712 0.107157 0.0
0.851291 -0.001346 0.098609 0.0
3.266034 0.003641 0.080306 0.0
0.615079 0.002668 0.102749 0.0
0.572034 0.003398 0.096118 0.0
2.942458 0.000584 0.084857 0.0
0.714191 -0.000979 0.177955 0.0
1.647495 -0.001762 0.020693 0.0
4.823302 -0.002384 0.153430 0.0
1.666291 -0.001679 0.018275 0.0
0.709224 -0.002631 0.139828 0.0
4.725383 -0.001409 0.133524 0.0
0.859078 -0.000102 0.176179 0.0
0.730660 -0.001394 0.184793 0.0
2.409293 0.003059 0.111880 0.0
2.151071 0.001573 0.015542 0.0
4.745117 0.002135 0.095877 0.0
2.986369 0.003167 0.012955 0.0
4.817331 0.000574 0.034444 0.0
3.892620 0.001390 0.060412 0.0
2.947908 0.003280 0.104765 0.0
2.197386 -0.000289 0.030793 0.0
0.006180 0.001952 0.077043 0.0
2.440260 0.005448 0.031321 0.0
4.458326 0.001125 0.078226 0.0
3.583863 -0.001760 0.151427 0.0
2.200402 0.003691 0.156774 0.0
3.418829 0.000765 0.185775 0.0
1.874599 0.000395 0.057723 0.0
1.873509 0.005833 0.129753 0.0
0.309735 0.001362 0.019826 0.0
0.960189 0.002321 0.159955 0.0
0.637724 -0.004703 0.100114 0.0
2.182693 0.001003 0.167856 0.0
2.855125 0.002640 0.114165 0.0
0.601871 0.004397 0.145668 0.0
0.111226 0.003616 0.068789 0.0
1.317673 0.003900 0.130526 0.0
3.205302 0.004459 0.134692 0.0
1.861215 0.000867 0.038129 0.0
4.977285 0.004749 0.036721 0.0
0.174122 0.002783 0.129070 0.0
1.657455 0.001688 0.172176 0.0
4.924782 0.007134 0.119277 0.0
1.289423 0.000602 0.147610 0.0
3.195454 0.001925 0.107755 0.0
0.503191 0.000954 0.137580 0.0
4.508364 0.000172 0.053836 0.0
0.455831 0.003581 0.063226 0.0
2.877938 0.001002 0.187121 0.0
4.355852 0.003643 0.133329 0.0
1.378860 0.002437 0.128959 0.0
4.417583 -0.001499 0.004730 0.0
4.239656 0.001913 0.074276 0.0
3.619506 -0.001809 0.028060 0.0
1.031040 0.002521 0.172070 0.0
3.328161 0.000854 0.136992 0.0
1.062287 0.000580 0.026006 0.0
4.084821 -0.001371 0.138952 0.0
0.572814 0.002700 0.105525 0.0
1.081809 -0.002284 0.010682 0.0
1.441238 -0.000258 0.169552 0.0
1.913933 0.005196 0.091557 0.0
1.475115 0.002420 0.183638 0.0
4.525918 0.005348 0.182269 0.0
2.382394 -0.000731 0.076007 0.0
1.133661 0.001912 0.121385 0.0
3.819779 -0.002593 0.077433 0.0
3.666141 0.000122 0.153597 0.0
0.233454 -0.001055 0.050232 0.0
4.009295 0.003486 0.179207 0.0
4.920810 0.005020 0.099410 0.0
1.510248 -0.002170 0.166666 0.0
2.020728 -0.000240 0.047801 0.0
2.757203 -0.000069 0.155725 0.0
3.632869 -0.000613 0.132758 0.0
1.350424 -0.003654 0.140746 0.0
3.303382 -0.000641 0.025538 0.0
1.888248 -0.001218 0.177722 0.0
3.989295 0.003359 0.022683 0.0
4.480652 -0.002728 0.125505 0.0
3.157614 0.001716 0.178713 0.0
1.597285 -0.002169 0.030924 0.0
3.060956 -0.002258 0.162815 0.0
2.005266 -0.001466 0.184625 0.0
3.486121 0.003801 0.040329 0.0
2.874567 0.002669 0.058418 0.0
1.003419 0.002188 0.188508 0.0
2.783410 -0.001176 0.167462 0.0
0.152214 -0.001320 0.120925 0.0
2.850779 -0.002877 0.126562 0.0
0.621774 0.000307 0.166318 0.0
0.605023 -0.001190 0.047674 0.0
3.209633 0.007426 0.061668 0.0
3.784052 0.002137 0.155193 0.0
3.359477 0.000971 0.066062 0.0
3.520646 0.001548 0.129074 0.0
2.117805 0.000675 0.053043 0.0
1.237750 0.001295 0.007113 0.0
2.403586 0.002317 0.054425 0.0
0.108246 -0.003905 0.165933 0.0
2.835629 -0.001776 0.109651 0.0
4.134272 -0.001468 0.048759 0.0
4.144730 -0.001964 0.136996 0.0
1.382070 0.000927 0.051371 0.0
0.828659 -0.004680 0.084700 0.0
0.297296 -0.002107 0.092525 0.0
1.797995 0.004777 0.163218 0.0
2.692101 -0.000073 0.156747 0.0
0.884100 -0.000037 0.084704 0.0
