2.15217724 0.95897549 0.00117702 0.00000000
3.60133888 1.46940076 -0.00150959 0.00000000
4.14724224 1.98432104 0.00118778 0.00000000
2.85414436 1.44052173 0.00074709 0.00000000
0.36203162 1.55451244 0.00506430 0.00000000
0.14714146 1.89273238 0.00019026 0.00000000
2.69567671 0.88310401 0.00095977 0.00000000
0.86094569 0.22433377 -0.00247870 0.00000000
0.39645726 1.78853438 0.00238213 0.00000000
3.04817382 0.08345830 -0.00068348 0.00000000
2.54443546 0.11184798 0.00131040 0.00000000
3.03718276 0.11177037 0.00860029 0.00000000
1.22078889 0.47560491 -0.00289429 0.00000000
1.59675052 0.02597608 0.00037762 0.00000000
1.46417693 1.52155374 -0.00106604 0.00000000
4.22533549 1.36757986 0.00243513 0.00000000
2.59686362 1.19429509 -0.00242757 0.00000000
2.38715211 1.81109540 0.00095614 0.00000000
3.53361107 0.14938945 -0.00044759 0.00000000
3.74904646 1.76292248 -0.00130309 0.00000000
1.42224553 1.82393658 -0.00277222 0.00000000
3.91213410 0.45026374 -0.00184976 0.00000000
1.95560427 1.78148086 0.00001481 0.00000000
1.92074273 1.58196023 0.00067903 0.00000000
2.66507164 0.80896643 0.00147990 0.00000000
2.73935213 1.89048721 0.00392845 0.00000000
3.30433530 2.00684709 0.00032843 0.00000000
1.79840698 1.75942435 0.00343152 0.00000000
1.36039429 0.26130117 -0.00593586 0.00000000
0.47603425 2.01797782 -0.00340416 0.00000000
1.85393061 1.97853747 0.00094587 0.00000000
4.19735967 0.52799344 0.00437320 0.00000000
2.43447123 1.63289062 -0.00268786 0.00000000
2.84903847 1.07113582 0.00037546 0.00000000
0.42304585 0.46031246 -0.00236019 0.00000000
3.29013003 1.00278572 0.00327439 0.00000000
0.44877112 0.13919905 -0.00315231 0.00000000
0.75275352 1.69176739 -0.00399067 0.00000000
2.72177944 1.97676973 0.00019495 0.00000000
2.63852961 1.91373816 -0.00001921 0.00000000
3.82564730 1.68982365 0.00219820 0.00000000
1.27987337 0.88556355 -0.00369461 0.00000000
3.21666034 0.62762126 0.00103339 0.00000000
3.73589059 0.81894770 0.00240674 0.00000000
2.00545981 0.98826756 0.00143007 0.00000000
2.81496822 0.15058064 0.00199033 0.00000000
4.39889526 1.29146508 -0.00035066 0.00000000
1.17893180 1.16531009 0.00194977 0.00000000
3.59516501 0.51967252 -0.00454802 0.00000000
2.34695099 0.54868650 0.00304296 0.00000000
0.74209230 0.29348608 0.00848829 0.00000000
1.51949542 0.95584310 0.00171084 0.00000000
2.81172484 0.46216874 0.00154477 0.00000000
0.49439623 0.08846798 -0.00221221 0.00000000
3.42230583 0.63244835 0.00248271 0.00000000
1.92138164 2.00761749 0.00042595 0.00000000
2.27245909 1.68227668 -0.00232871 0.00000000
3.41520335 0.80029984 0.00333554 0.00000000
2.32985245 1.49832537 0.00004663 0.00000000
1.16741128 1.95042614 0.00147622 0.00000000
3.76223154 0.49289393 -0.00315889 0.00000000
3.09603669 0.08408164 -0.00384615 0.00000000
0.20123151 2.20405688 -0.00241226 0.00000000
2.31782535 2.13998559 0.00174269 0.00000000
3.78337760 1.96144068 -0.00318948 0.00000000
2.73314837 0.17763309 0.00432959 0.00000000
3.02141233 1.20382558 0.00299535 0.00000000
4.25394880 0.70983828 0.00118984 0.00000000
1.79552471 1.36063962 -0.00143072 0.00000000
3.32924404 0.20522022 0.00292515 0.00000000
3.92315113 2.18360548 0.00218069 0.00000000
4.20047049 1.13107883 -0.00013286 0.00000000
2.23600572 1.04303853 0.00221048 0.00000000
0.80179197 0.48459778 -0.00280667 0.00000000
0.55121811 2.03177137 0.00271293 0.00000000
1.78143706 1.27989760 0.00086226 0.00000000
1.95619415 1.25893131 0.00042529 0.00000000
3.88513821 1.65620567 0.00175311 0.00000000
0.81380856 0.22312228 -0.00044433 0.00000000
3.39822052 0.41144938 0.00052727 0.00000000
1.61223151 0.11992850 0.00058623 0.00000000
2.91601455 0.86330088 0.00494683 0.00000000
2.46222144 1.45542335 0.00392237 0.00000000
3.36840726 1.78258446 0.00053236 0.00000000
1.83094169 2.29114986 0.00237266 0.00000000
2.98017831 1.56482418 0.00154514 0.00000000
2.01886483 1.80022064 -0.00088798 0.00000000
3.42769120 0.87542393 0.00693840 0.00000000
2.68261952 1.02622691 0.00018573 0.00000000
0.87272662 0.74210292 -0.00030361 0.00000000
3.43701339 1.84152984 0.00457659 0.00000000
3.32488751 0.56010314 -0.00042685 0.00000000
2.02519108 2.27469630 -0.00204816 0.00000000
2.17227956 1.81274655 -0.00052461 0.00000000
2.10111809 0.09223718 0.00050045 0.00000000
1.52604667 0.41453497 0.00109152 0.00000000
0.07688275 0.86312601 -0.00288343 0.00000000
1.61516065 0.71959077 -0.00127428 0.00000000
0.93730455 1.11697567 0.00142618 0.00000000
3.73502753 0.04902872 0.00056267 0.00000000
2.56838279 1.43325101 0.00016775 0.00000000
3.71474124 1.22760302 -0.00188431 0.00000000
1.83180036 1.25087586 -0.00230180 0.00000000
4.40371881 0.76569262 -0.00166877 0.00000000
1.68099582 0.64134499 -0.00078079 0.00000000
0.01430205 1.65900761 0.00304375 0.00000000
0.32829185 1.96781277 0.00187084 0.00000000
3.05458144 1.49815727 -0.00364362 0.00000000
1.14751886 1.88847235 -0.00124183 0.00000000
1.52518244 1.39310918 -0.00354834 0.00000000
2.03049374 1.42731791 -0.00025222 0.00000000
2.56647015 0.12966701 -0.00291571 0.00000000
4.26284495 2.08856684 0.00064144 0.00000000
2.71448775 1.96785663 -0.00232567 0.00000000
2.98813809 1.19031545 0.00073836 0.00000000
1.19007515 0.41820311 -0.00720987 0.00000000
4.22722721 1.20509172 0.00081509 0.00000000
1.81402333 0.80547420 0.00335200 0.00000000
0.20409161 1.55194881 -0.00184154 0.00000000
3.25693870 1.89321308 -0.00217611 0.00000000
3.43916480 1.84175472 -0.00076429 0.00000000
1.72742014 1.61630271 -0.00595090 0.00000000
3.29617056 0.29600121 -0.00256872 0.00000000
3.58811764 2.26010076 0.00136094 0.00000000
1.20016573 1.49828583 0.00272065 0.00000000
2.79707675 0.56775430 -0.00031731 0.00000000
2.17038083 1.66996204 -0.00156088 0.00000000
3.14652827 1.87645154 0.00327630 0.00000000
3.25185586 1.81586499 -0.00189746 0.00000000
3.67069821 0.52714706 0.00099645 0.00000000
3.69912798 1.56690333 0.00204204 0.00000000
1.80069323 1.49985452 -0.00091390 0.00000000
0.24057327 1.51791680 0.00008291 0.00000000
2.39302995 0.38468446 -0.00324876 0.00000000
0.75564030 1.87135304 0.00130835 0.00000000
1.79648891 0.54689303 0.00308780 0.00000000
3.01347557 1.83970315 -0.00099823 0.00000000
2.29863148 1.91889181 -0.00176735 0.00000000
4.38603049 1.25066941 0.00283123 0.00000000
2.91774436 1.75942725 -0.00488142 0.00000000
2.24613402 1.90874250 -0.00000823 0.00000000
3.18333542 0.60240254 0.00124251 0.00000000
3.63164229 2.25020519 -0.00190953 0.00000000
2.79367479 1.27069426 0.00418569 0.00000000
1.12964667 1.42486866 0.00017611 0.00000000
3.91614393 1.35482749 0.00038172 0.00000000
2.49882526 1.46122736 0.00149115 0.00000000
1.10327847 1.44811639 -0.00690087 0.00000000
1.03792174 1.09564882 -0.00236658 0.00000000
3.00415876 0.88636458 -0.00205165 0.00000000
3.87071496 2.01554368 0.00073593 0.00000000
3.27731930 1.39644322 0.00381043 0.00000000
0.56677110 1.91633058 0.00310403 0.00000000
1.64520851 0.51282262 0.00138388 0.00000000
2.09967744 0.62444132 0.00029701 0.00000000
0.18028777 0.31787710 0.00134971 0.00000000
4.27103280 2.06031190 -0.00241985 0.00000000
1.82983359 0.63854367 0.00402067 0.00000000
0.55432191 2.28693689 0.00090643 0.00000000
2.84659234 2.23597769 -0.00236728 0.00000000
3.61078264 1.59614302 -0.00191918 0.00000000
1.40884044 1.76125896 -0.00199691 0.00000000
0.74669526 0.64324168 -0.00073581 0.00000000
2.76803429 0.60375823 -0.00145506 0.00000000
2.34568543 0.97653370 -0.00025080 0.00000000
4.28072155 0.96025228 0.00106249 0.00000000
0.78968287 1.07882436 -0.00289681 0.00000000
1.11025886 1.31055641 0.00191969 0.00000000
2.16653342 0.73091664 0.00052727 0.00000000
0.13319441 1.74482945 0.00286688 0.00000000
4.26327213 0.50986417 -0.00185719 0.00000000
4.32748203 0.65271398 0.00093876 0.00000000
0.87947098 0.18872943 0.00034213 0.00000000
1.35418889 1.82059589 -0.00314085 0.00000000
1.18330301 1.23492908 -0.00906115 0.00000000
0.20344143 1.13552802 -0.00404149 0.00000000
4.34435930 1.75630788 0.00132626 0.00000000
3.86852518 1.45804566 0.00072651 0.00000000
4.18000423 1.12234084 -0.00062351 0.00000000
1.69349017 0.48848444 -0.00167296 0.00000000
2.31756745 0.26410494 -0.00030103 0.00000000
2.86872881 0.11951448 -0.00149200 0.00000000
0.15835849 0.30387129 -0.00360321 0.00000000
1.48577068 0.59307939 -0.00051602 0.00000000
3.13941382 0.39922402 -0.00017674 0.00000000
2.07447778 2.23372166 0.00122897 0.00000000
3.08501235 1.58466148 -0.00401363 0.00000000
3.78904419 1.69463792 -0.00186860 0.00000000
0.17870942 1.95935005 -0.00150018 0.00000000
2.95920525 1.81355852 -0.00555902 0.00000000
2.55900278 1.28914401 0.00411655 0.00000000
1.34117802 1.06262057 -0.00120884 0.00000000
1.38415936 0.93669900 0.00040659 0.00000000
4.17402664 0.38586920 0.00247040 0.00000000
2.97005328 1.85076344 0.00309646 0.00000000
2.27555549 0.01834303 0.00128015 0.00000000
4.28158926 1.88479978 0.00339419 0.00000000
2.12682956 0.00205413 0.00125041 0.00000000
2.86858183 1.42179264 0.00308108 0.00000000
4.41023785 0.01420930 -0.00038048 0.00000000
3.61128273 1.73860579 0.00046321 0.00000000
2.97346040 1.94519989 0.00004581 0.00000000
3.89277328 0.88281735 -0.00113363 0.00000000
0.80716086 0.16972293 0.00124780 0.00000000
3.97815491 1.93036374 0.00145585 0.00000000
3.02338802 0.37220760 0.00229926 0.00000000
4.41097573 2.12567334 0.00055049 0.00000000
2.53356358 1.97596134 0.00134194 0.00000000
2.33051516 0.36814225 -0.00510213 0.00000000
0.53871193 0.74162290 0.00019806 0.00000000
3.48312425 1.26092936 0.00049502 0.00000000
0.68160578 2.18166498 -0.00136383 0.00000000
1.91003273 1.15506075 0.00038560 0.00000000
0.31957293 2.11250189 0.00058411 0.00000000
1.51940504 1.75657947 0.00099080 0.00000000
3.27853781 1.19434299 0.00035106 0.00000000
0.79655189 0.30254498 0.00101257 0.00000000
1.85544679 1.45639689 0.00291018 0.00000000
0.62758381 1.09510528 0.00344148 0.00000000
2.84442956 0.79348015 0.00019399 0.00000000
1.36071758 2.06094230 -0.00046252 0.00000000
2.61299916 0.91791961 0.00094636 0.00000000
2.15535819 1.60709679 0.00009637 0.00000000
2.21146881 2.27578830 0.00141898 0.00000000
1.57459426 2.09547520 0.00289985 0.00000000
1.82031971 0.00435403 0.00037927 0.00000000
0.76445464 0.38363295 0.00220690 0.00000000
3.34385167 2.12308597 0.00045864 0.00000000
3.85943071 1.07920512 0.00344505 0.00000000
0.95618152 0.52830419 0.00388482 0.00000000
2.16348940 1.58954502 -0.00278659 0.00000000
3.72220217 0.54118756 -0.00287559 0.00000000
3.14535800 1.10059423 0.00158805 0.00000000
3.17588879 0.45203336 -0.00187245 0.00000000
3.89561182 1.11738422 0.00211139 0.00000000
0.96361492 0.07227604 0.00085900 0.00000000
3.44755473 2.11292127 -0.00165929 0.00000000
4.38256207 0.84458309 -0.00187818 0.00000000
1.96525401 1.45763264 0.00153253 0.00000000
0.95386516 1.78972453 0.00137249 0.00000000
1.96938214 0.49202172 0.00461792 0.00000000
3.53866947 0.46929705 0.00204820 0.00000000
2.24132301 1.87723842 0.00543237 0.00000000
0.61614668 0.02873185 -0.00399081 0.00000000
2.53332308 0.01499457 -0.00121053 0.00000000
1.70499697 2.07456753 -0.00629739 0.00000000
4.06136170 0.22376229 -0.00196615 0.00000000
1.24592636 1.82161881 -0.00353720 0.00000000
3.77999294 0.56314369 -0.00096363 0.00000000
2.34135587 1.44540637 -0.00170325 0.00000000
4.19090556 2.29237581 0.00032338 0.00000000
0.07168046 2.19066955 0.00081895 0.00000000
2.55141991 1.88873263 0.00286256 0.00000000
2.93049957 1.07390062 -0.00522552 0.00000000
3.81989590 1.20087708 0.00415877 0.00000000
2.09678961 0.46104106 0.00050088 0.00000000
1.23318993 1.83460348 0.00162997 0.00000000
3.59942057 1.87373144 0.00169279 0.00000000
0.34996881 1.31966474 -0.00043919 0.00000000
3.90053884 1.39597599 -0.00538086 0.00000000
3.89207232 0.81126776 -0.00077402 0.00000000
1.11110296 2.11204922 0.00016296 0.00000000
0.76228144 1.73864880 0.00043399 0.00000000
2.36512810 1.73019423 0.00050621 0.00000000
1.37191630 0.38944364 0.00101692 0.00000000
4.16193345 0.00295909 -0.00188354 1.00000000
0.23478193 0.00081072 -0.00324374 1.00000000
3.57051226 0.00063128 0.00221435 1.00000000
1.06539156 0.00015886 -0.00177606 1.00000000
2.61193170 -0.00202612 -0.00219263 1.00000000
2.85195884 0.00014325 -0.00032148 1.00000000
2.02642911 -0.00412315 0.00043161 1.00000000
2.11415994 -0.00235732 -0.00177441 1.00000000
0.53882664 0.00451460 -0.00140635 1.00000000
2.12588829 0.00071967 0.00076680 1.00000000
1.50270017 -0.00214686 0.00086015 1.00000000
3.40379845 0.00046197 0.00354534 1.00000000
4.18118884 0.00242371 0.00128230 1.00000000
3.60043378 0.00076271 -0.00371739 1.00000000
3.04148237 0.00008494 -0.00234288 1.00000000
2.93566629 0.00290830 0.00128421 1.00000000
0.81598015 -0.00163695 0.00017956 1.00000000
3.93136087 0.00140438 0.00520810 1.00000000
4.12337655 0.00591632 -0.00209159 1.00000000
0.95485310 -0.00215019 -0.00309479 1.00000000
2.08332423 0.00226627 0.00031674 1.00000000
4.42172418 0.00000681 0.00093329 1.00000000
1.00393486 0.00300765 -0.00126275 1.00000000
0.71098573 0.00064329 -0.00180539 1.00000000
3.09042069 0.00388104 -0.00013553 1.00000000
3.04576186 -0.00125256 0.00225470 1.00000000
3.53698509 0.00076238 0.00060587 1.00000000
2.67704948 0.00197020 0.00255039 1.00000000
2.14160818 -0.00087033 -0.00249756 1.00000000
2.70161867 0.00461241 0.00038528 1.00000000
1.62672027 -0.00175655 -0.00340487 1.00000000
2.89402510 -0.00231007 -0.00154108 1.00000000
2.08510770 0.00257315 -0.00127783 1.00000000
1.37134830 -0.00511951 0.00399962 1.00000000
0.01753415 -0.00138180 -0.00060583 1.00000000
3.45246639 0.00117667 -0.00040143 1.00000000
1.75965216 -0.00013164 -0.00055968 1.00000000
4.01966382 -0.00486588 -0.00411139 1.00000000
2.31126000 -0.00410603 0.00057478 1.00000000
2.59778702 0.00013524 -0.00048663 1.00000000
2.93311255 0.00008025 -0.00321820 1.00000000
0.61173186 0.00458383 -0.00001884 1.00000000
2.26507462 -0.00477236 0.00085410 1.00000000
0.52167042 -0.00149750 -0.00097468 1.00000000
1.79462032 -0.00163990 -0.00123970 1.00000000
3.71427621 0.00180673 0.00081892 1.00000000
2.32917105 -0.00215692 0.00182148 1.00000000
2.70834624 -0.00373833 0.00088961 1.00000000
1.81468697 0.00048170 0.00060030 1.00000000
0.32071251 0.00471266 -0.00346912 1.00000000
0.32463790 -0.00233150 0.00008901 1.00000000
1.53342427 0.00231188 -0.00277935 1.00000000
4.23387513 -0.00081962 0.00588292 1.00000000
3.63041677 0.00025563 -0.00050375 1.00000000
3.91481372 0.00148401 0.00334799 1.00000000
3.46249561 -0.00030326 0.00052263 1.00000000
4.00083803 -0.00246096 -0.00580197 1.00000000
3.59976080 -0.00234817 0.00518162 1.00000000
3.03033277 -0.00283675 -0.00075397 1.00000000
1.65377438 -0.00586713 0.00049414 1.00000000
3.16977362 -0.00082298 0.00136750 1.00000000
0.49567337 -0.00038728 -0.00110019 1.00000000
4.01629592 -0.00029373 0.00456757 1.00000000
2.70885922 -0.00530023 0.00285481 1.00000000
3.23016229 0.00168836 -0.00075098 1.00000000
0.27967765 0.00105119 -0.00131810 1.00000000
3.32785386 -0.00521740 -0.00249160 1.00000000
1.12653063 0.00459698 -0.00056016 1.00000000
2.19053226 -0.00124485 -0.00514446 1.00000000
4.16609460 0.00029402 -0.00089713 1.00000000
0.26743951 0.00190660 -0.00261722 1.00000000
0.22585607 0.00099284 -0.00046876 1.00000000
3.38675305 0.00190653 -0.00161519 1.00000000
4.21241809 -0.00492259 0.00601390 1.00000000
1.47900373 0.00210969 0.00114952 1.00000000
2.76050913 0.00048749 0.00473950 1.00000000
2.96773683 0.00337598 0.00209995 1.00000000
3.47095559 -0.00225918 -0.00014384 1.00000000
1.31306176 0.00069988 0.00247127 1.00000000
1.93447045 -0.00465029 0.00294937 1.00000000
0.76331440 -0.00026768 0.00197843 1.00000000
3.54680660 0.00103849 0.00376580 1.00000000
0.12634748 0.00132404 -0.00068620 1.00000000
0.91251553 0.00179352 0.00341989 1.00000000
0.98748180 -0.00306490 0.00351898 1.00000000
3.13337920 -0.00136018 0.00194559 1.00000000
0.79870265 -0.00684602 -0.00135362 1.00000000
3.73453433 0.00390241 0.00035218 1.00000000
3.68289022 -0.00286359 0.00341067 1.00000000
1.59195924 -0.00179064 0.00033907 1.00000000
0.90006968 0.00051892 0.00260989 1.00000000
1.77191583 -0.00629452 -0.00236654 1.00000000
3.01103728 0.00032608 -0.00461621 1.00000000
1.06569122 -0.00322208 -0.00065950 1.00000000
3.14018965 -0.00043310 -0.00252130 1.00000000
4.27986078 0.00045175 0.00237064 1.00000000
3.07801311 0.00386953 -0.00650573 1.00000000
3.32254853 0.00070181 -0.00250968 1.00000000
0.88994671 0.00008311 -0.00182744 1.00000000
2.79937863 -0.00094512 0.00079158 1.00000000
0.33575489 -0.00163090 -0.00518615 1.00000000
1.05351550 0.00018894 -0.00006101 1.00000000
0.11120653 -0.00448072 0.00097168 1.00000000
4.00717242 -0.00518140 -0.00101308 1.00000000
3.96330404 0.00013357 -0.00079561 1.00000000
3.67223963 -0.00129523 -0.00145151 1.00000000
0.54055484 0.00034791 0.00224508 1.00000000
4.19173036 0.00429448 -0.00295351 1.00000000
0.02892384 0.00113016 0.00309391 1.00000000
1.17860314 -0.00868607 -0.00001492 1.00000000
4.04335465 0.00096331 0.00190437 1.00000000
1.59658208 0.00271728 0.00040356 1.00000000
1.79011719 -0.00005271 0.00332580 1.00000000
0.84109803 0.00019677 -0.00093370 1.00000000
1.70331504 0.00258698 0.00212226 1.00000000
3.36644093 -0.00024340 -0.00147302 1.00000000
0.12835496 -0.00004432 0.00272706 1.00000000
0.01295268 -0.00130789 0.00154702 1.00000000
3.44767607 -0.00161525 -0.00249960 1.00000000
1.98520771 -0.00133671 -0.00110772 1.00000000
2.33489835 0.00003552 0.00010030 1.00000000
0.97993136 0.00162467 -0.00343432 1.00000000
0.07091279 0.00025039 0.00157443 1.00000000
2.68201157 -0.00089797 0.00150611 1.00000000
0.92498130 0.00091284 -0.00083340 1.00000000
4.25507832 -0.00256992 0.00314905 1.00000000
2.71904449 -0.00250150 0.00251821 1.00000000
0.90106672 -0.00023161 -0.00018016 1.00000000
1.69838568 -0.00143562 -0.00324973 1.00000000
0.04228024 -0.00410361 0.00074832 1.00000000
3.98180389 -0.00080394 0.00067845 1.00000000
0.71548582 0.00192367 -0.00143714 1.00000000
2.32039182 -0.00211930 0.00006537 1.00000000
2.47371220 -0.00442737 -0.00007329 1.00000000
0.14489027 -0.00122382 0.00214013 1.00000000
2.79894384 0.00253510 0.00389722 1.00000000
0.85889793 -0.00162244 0.00279848 1.00000000
0.68308172 -0.00065318 -0.00660874 1.00000000
1.11412176 -0.00211507 0.00542305 1.00000000
4.04567389 -0.00044403 -0.00278860 1.00000000
2.64781238 0.00060646 -0.00290787 1.00000000
1.12645554 -0.00337523 -0.00173786 1.00000000
0.80097911 -0.00339678 0.00035929 1.00000000
3.60185060 -0.00369701 -0.00083367 1.00000000
3.45986130 0.00253084 -0.00003227 1.00000000
0.05632577 -0.00053936 0.00060288 1.00000000
3.05843952 0.00558922 -0.00027300 1.00000000
0.84121457 -0.00436650 -0.00270310 1.00000000
0.74596342 -0.00391673 -0.00501132 1.00000000
2.45437368 -0.00205495 -0.00188871 1.00000000
3.23237660 -0.00130151 -0.00188262 1.00000000
2.93646117 0.00341883 -0.00007396 1.00000000
4.42753727 -0.00037384 -0.00091880 1.00000000
2.20578772 -0.00079149 -0.00011697 1.00000000
0.71418646 -0.00119303 0.00093094 1.00000000
2.34364748 0.00051322 -0.00281501 1.00000000
3.32763717 -0.00186297 0.00180870 1.00000000
1.90782116 0.00075003 0.00545846 1.00000000
1.53553386 0.00031556 0.00091370 1.00000000
3.01956401 0.00035693 0.00185763 1.00000000
1.65089745 0.00148540 -0.00288241 1.00000000
2.98386329 -0.00436457 -0.00065944 1.00000000
4.21741149 0.00095415 0.00324119 1.00000000
4.03966838 0.00028216 -0.00077150 1.00000000
2.98553262 -0.00209329 -0.00185813 1.00000000
0.51669542 0.00193302 0.00237852 1.00000000
3.49739148 0.00442821 0.00334913 1.00000000
2.43775625 0.00350937 0.00152984 1.00000000
0.91880820 0.00324633 0.00296852 1.00000000
3.61985942 0.00230243 -0.00021254 1.00000000
0.47335240 0.00103400 -0.00017086 1.00000000
2.15567012 0.00020606 0.00149426 1.00000000
4.22422271 -0.00133063 -0.00270278 1.00000000
2.90436186 0.00134930 0.00023192 1.00000000
4.23713765 0.00026048 -0.00004714 1.00000000
3.47737686 -0.00305639 0.00073748 1.00000000
2.60552881 -0.00106386 0.00356698 1.00000000
0.53150273 0.00219298 0.00012206 1.00000000
4.06118850 -0.00104736 0.00152836 1.00000000
3.79262884 0.00346573 -0.00117057 1.00000000
1.83200197 0.00033310 -0.00439353 1.00000000
1.29189727 -0.00247587 -0.00089466 1.00000000
3.43767701 0.00555789 -0.00063317 1.00000000
0.75799581 -0.00357109 -0.00103912 1.00000000
3.92843855 -0.00150738 0.00189138 1.00000000
2.10055165 -0.00216643 -0.00081367 1.00000000
3.93437549 0.00021294 0.00363253 1.00000000
0.94034413 -0.00090352 -0.00219421 1.00000000
3.76277480 0.00197571 0.00298190 1.00000000
2.27319724 -0.00087567 0.00293248 1.00000000
1.51652300 0.00227893 0.00881074 1.00000000
0.98088271 -0.00046193 -0.00037019 1.00000000
2.58096815 -0.00224710 0.00729678 1.00000000
2.13862729 0.00307978 -0.00467452 1.00000000
0.18783238 -0.00407148 0.00136441 1.00000000
0.36577876 -0.00020741 0.00695905 1.00000000
2.19703462 -0.00262595 -0.00058077 1.00000000
4.20489049 -0.00332160 0.00492170 1.00000000
2.48615159 -0.00109687 -0.00229398 1.00000000
0.49458726 0.00266231 0.00084674 1.00000000
0.62723192 0.00220175 0.00084971 1.00000000
2.29629666 -0.00134273 -0.00130485 1.00000000
3.54219436 0.00016553 0.00059405 1.00000000
0.32613419 -0.00169746 -0.00153952 1.00000000
2.67493068 -0.00216708 -0.00298234 1.00000000
2.07957793 -0.00114768 0.00117741 1.00000000
0.14031446 -0.00421944 0.00114442 1.00000000
0.49130810 0.00064605 0.00354605 1.00000000
1.20192495 0.00033752 0.00280867 1.00000000
2.96380019 -0.00524881 -0.00105695 1.00000000
3.79153980 0.00058957 0.00174382 1.00000000
2.63274737 0.00205915 -0.00183062 1.00000000
3.96023868 -0.00043622 0.00049908 1.00000000
1.85232820 -0.00008904 -0.00056460 1.00000000
2.76588991 -0.00056714 0.00217303 1.00000000
2.59081467 0.00197945 0.00072550 1.00000000
1.57073915 -0.00179911 0.00090069 1.00000000
3.35104931 0.00419346 -0.00706236 1.00000000
2.39042181 0.00209531 0.00124421 1.00000000
3.33053215 -0.00236777 -0.00061375 1.00000000
0.41711516 -0.00008923 0.00533200 1.00000000
0.46218810 0.00573709 -0.24149671 0.00000000
0.65372136 0.00410539 -0.08642781 0.00000000
2.74816031 0.00268913 -0.11604272 0.00000000
2.23540775 0.00581947 -0.18329466 0.00000000
3.54048169 0.00335692 -0.11642818 0.00000000
0.40536180 0.00499461 -0.05952515 0.00000000
2.24057929 0.00023670 -0.06689633 0.00000000
3.88045804 0.00263670 -0.23207261 0.00000000
0.56821348 0.00126443 -0.18416639 0.00000000
3.86411956 0.00791958 -0.07242593 0.00000000
2.76073296 0.00076698 -0.10503331 0.00000000
1.29963701 -0.00310736 -0.05656133 0.00000000
4.30953761 0.00271198 -0.21112045 0.00000000
4.30423363 0.00629672 -0.21785092 0.00000000
0.67550905 -0.00294041 -0.04759140 0.00000000
2.47036867 0.00412680 -0.23308084 0.00000000
2.90601956 0.00194052 -0.07021273 0.00000000
0.72922413 -0.00048465 -0.19501907 0.00000000
3.26086014 0.00910847 -0.18088478 0.00000000
2.87619088 0.01038557 -0.27081496 0.00000000
2.86896903 0.00734731 -0.17865827 0.00000000
3.14024139 0.00368298 -0.25954569 0.00000000
2.48188642 0.00769662 -0.24780783 0.00000000
1.34697219 0.00996992 -0.17286277 0.00000000
2.27963905 0.00056961 -0.07959932 0.00000000
2.10043109 0.00320995 -0.18064909 0.00000000
1.22915234 0.00747110 -0.15393556 0.00000000
0.67072192 0.00527843 -0.27778989 0.00000000
1.13278547 0.00561900 -0.17348012 0.00000000
1.68221699 0.00421673 -0.16906046 0.00000000
4.14367871 0.00268840 -0.23019194 0.00000000
0.09790604 0.00918773 -0.26142252 0.00000000
0.11537217 0.00754598 -0.15991110 0.00000000
3.76319458 0.00169633 -0.00788987 0.00000000
2.48672256 0.00073366 -0.16811339 0.00000000
3.32981175 0.00149849 -0.11325297 0.00000000
0.69084218 0.00365518 -0.18944690 0.00000000
2.88380119 0.00016334 -0.09251050 0.00000000
1.73655238 0.00192524 -0.24514455 0.00000000
2.30820837 0.00424983 -0.23404712 0.00000000
4.03698715 0.00000053 -0.12426332 0.00000000
3.18591365 0.00648124 -0.10548876 0.00000000
2.10042874 0.00101731 -0.18141545 0.00000000
0.01622019 0.00350228 -0.09054572 0.00000000
4.39661398 0.00242913 -0.17548705 0.00000000
0.96863556 -0.00076743 -0.08746571 0.00000000
1.90085504 0.00828929 -0.11484044 0.00000000
1.25495950 0.00090758 -0.03022264 0.00000000
2.85923606 -0.00084557 -0.19906684 0.00000000
3.61559595 -0.00160118 -0.11233102 0.00000000
2.84255796 0.00393270 -0.15303418 0.00000000
3.25671510 0.00221829 -0.20266291 0.00000000
0.84355349 0.00537678 -0.15653246 0.00000000
2.12583602 -0.00080951 -0.08936533 0.00000000
0.08587358 -0.00220642 -0.06677920 0.00000000
3.60051014 0.00389187 -0.06031719 0.00000000
4.25081036 0.00278361 -0.02219482 0.00000000
0.77217079 0.00327192 -0.16179461 0.00000000
1.68305327 0.00369676 -0.26302772 0.00000000
3.28836060 0.00011352 -0.22685456 0.00000000
1.89500161 0.00320303 -0.12051667 0.00000000
1.36317972 0.00276811 -0.10921307 0.00000000
3.03733107 0.00107215 -0.09284530 0.00000000
3.50112111 0.00124243 -0.00478724 0.00000000
4.01018851 0.00091119 -0.04329129 0.00000000
2.54952618 0.00139112 -0.03281126 0.00000000
4.22432548 0.00366940 -0.18094646 0.00000000
4.28071714 0.00412474 -0.18955780 0.00000000
1.14516740 0.00895044 -0.26474957 0.00000000
1.80578819 0.00506182 -0.24460783 0.00000000
2.31876289 0.00433161 -0.21671125 0.00000000
2.69035165 0.00112476 -0.09062207 0.00000000
0.76008642 0.00765917 -0.16542466 0.00000000
3.95708201 0.00344528 -0.16038855 0.00000000
3.76951542 0.00638659 -0.19810032 0.00000000
1.17241374 -0.00129023 -0.04226564 0.00000000
3.85808085 0.00202326 -0.06361884 0.00000000
2.59314618 0.00000113 -0.12901984 0.00000000
3.00543544 0.00584637 -0.09886086 0.00000000
3.11637806 0.00279200 -0.23397109 0.00000000
0.80362205 0.00107885 -0.11823973 0.00000000
3.03609633 0.00498878 -0.08104383 0.00000000
1.45049550 0.00353177 -0.06035211 0.00000000
2.68343509 0.00218447 -0.03647283 0.00000000
0.46492690 0.00468367 -0.11134603 0.00000000
1.87336833 0.00516521 -0.25428974 0.00000000
2.79118951 0.00092929 -0.04257866 0.00000000
3.36557139 0.00150883 -0.13545631 0.00000000
3.80964344 0.00554951 -0.18214255 0.00000000
3.09005519 -0.00124447 -0.03818464 0.00000000
4.06035956 0.01118320 -0.21666901 0.00000000
3.67933829 0.00733282 -0.23680944 0.00000000
3.98429437 0.00620052 -0.23702870 0.00000000
0.72863915 0.00677303 -0.27031008 0.00000000
3.15624824 0.00136952 -0.02445735 0.00000000
3.97067770 0.00257730 -0.09742725 0.00000000
1.65573290 0.00611173 -0.27477537 0.00000000
2.94655055 0.00353538 -0.09034118 0.00000000
2.18847087 0.00018820 -0.15574331 0.00000000
2.35825600 0.01112681 -0.21991071 0.00000000
0.16277890 0.00246857 -0.05641272 0.00000000
3.84507359 0.00662568 -0.15841818 0.00000000
0.51926978 -0.00110809 -0.06485782 0.00000000
0.00358808 0.00665931 -0.19593481 0.00000000
1.43278546 0.00364384 -0.06553014 0.00000000
3.10934230 0.00736650 -0.25593200 0.00000000
0.26600776 0.00570285 -0.09183095 0.00000000
2.83302506 0.00256892 -0.17514796 0.00000000
0.56476295 -0.00397305 -0.01893149 0.00000000
1.98745054 -0.00081173 -0.03865488 0.00000000
2.77008511 0.00214635 -0.10398406 0.00000000
2.11532976 0.00676581 -0.27256419 0.00000000
2.91612238 0.00694239 -0.11394335 0.00000000
0.92859577 0.00373448 -0.15324349 0.00000000
2.21569138 0.00356614 -0.07150433 0.00000000
1.17876982 0.00279926 -0.23013604 0.00000000
1.65621229 0.00319988 -0.24233636 0.00000000
2.91457085 0.00809332 -0.23309788 0.00000000
1.97283763 -0.00144862 -0.03493660 0.00000000
4.23551733 0.00188817 -0.01013448 0.00000000
2.01682247 0.00837697 -0.24931652 0.00000000
2.61064062 0.00204051 -0.18879833 0.00000000
1.87867333 0.00558015 -0.23419708 0.00000000
2.51858899 -0.00082482 -0.12071999 0.00000000
0.74261104 0.00478158 -0.14848283 0.00000000
4.19222315 0.00951952 -0.16083622 0.00000000
2.88798889 0.00448291 -0.24504450 0.00000000
1.80366365 0.00394351 -0.07246550 0.00000000
1.59894442 0.00131646 -0.18421450 0.00000000
0.88090792 0.00217263 -0.17365046 0.00000000
0.32934866 0.00694832 -0.20978291 0.00000000
3.53686108 0.00223065 -0.24470056 0.00000000
1.46839266 0.00505829 -0.12124716 0.00000000
2.43887136 0.00316905 -0.11893569 0.00000000
2.41477557 0.00956803 -0.24764136 0.00000000
4.32404578 0.00626749 -0.26911949 0.00000000
3.19299682 0.00594454 -0.28120837 0.00000000
1.01553470 0.00602084 -0.27617729 0.00000000
2.68725486 0.00412189 -0.11007972 0.00000000
2.50862848 0.01027783 -0.23624955 0.00000000
3.90790163 0.00566513 -0.13820535 0.00000000
0.12169958 0.00387267 -0.06131293 0.00000000
0.98164875 -0.00285097 -0.07324778 0.00000000
1.89743223 0.00389850 -0.03420966 0.00000000
1.85246129 -0.00153156 -0.02909757 0.00000000
1.36826295 0.00586110 -0.27120065 0.00000000
0.59310989 0.00004163 -0.10007982 0.00000000
2.46913778 0.00489283 -0.18079839 0.00000000
3.53931149 -0.00195143 -0.05724098 0.00000000
0.97703729 0.00456843 -0.21589127 0.00000000
0.84521484 0.00576522 -0.18844036 0.00000000
3.91410753 0.00181544 -0.13945163 0.00000000
3.47949817 0.00334470 -0.21622504 0.00000000
3.15269785 0.00128382 -0.09915952 0.00000000
1.06594744 0.00367821 -0.11435619 0.00000000
1.11408309 -0.00329405 -0.09299448 0.00000000
0.34443101 0.00424893 -0.22089017 0.00000000
2.75303748 0.00132398 -0.05765978 0.00000000
1.22173193 0.00888406 -0.25973700 0.00000000
1.64497436 0.00313284 -0.13090096 0.00000000
3.39651235 0.00187755 -0.06829291 0.00000000
3.47283279 0.00161576 -0.16171234 0.00000000
0.50433197 0.00200936 -0.09233421 0.00000000
2.20652299 0.00394017 -0.13855478 0.00000000
1.96881104 0.00189466 -0.18349076 0.00000000
2.18166012 0.00414793 -0.04061328 0.00000000
1.36162772 0.01238633 -0.22442701 0.00000000
1.38432680 0.00146214 -0.08078066 0.00000000
1.39453735 0.00044192 -0.12995726 0.00000000
0.12092760 0.00582126 -0.11013537 0.00000000
0.68417469 0.00649276 -0.27839841 0.00000000
4.34552489 0.01086961 -0.27944000 0.00000000
4.34320516 0.00017244 -0.03169993 0.00000000
1.61803631 0.00417418 -0.20179599 0.00000000
4.30617401 0.00978707 -0.21184440 0.00000000
1.73896918 0.00197058 -0.21866570 0.00000000
2.41617973 0.00294664 -0.17923723 0.00000000
2.12085957 0.00555952 -0.12477964 0.00000000
0.86051978 0.00746011 -0.20756875 0.00000000
1.58722266 -0.00042221 -0.02125771 0.00000000
4.00085096 0.00524988 -0.13059021 0.00000000
3.72958703 0.00858867 -0.22520670 0.00000000
1.30637269 0.00546098 -0.06638003 0.00000000
2.81001441 0.00739470 -0.27932586 0.00000000
4.38773700 0.00141552 -0.05331122 0.00000000
2.81101753 0.00376719 -0.07155484 0.00000000
3.21259824 0.00430582 -0.11314590 0.00000000
1.68733968 0.00732953 -0.22096876 0.00000000
4.06343390 0.00219393 -0.20235389 0.00000000
2.80325911 0.00239508 -0.11332160 0.00000000
3.49511704 0.00410511 -0.15350610 0.00000000
3.67957677 0.00341498 -0.13182275 0.00000000
2.97593389 0.00705006 -0.23290307 0.00000000
1.70239182 0.00894774 -0.23882385 0.00000000
3.12549125 0.00153007 -0.01021893 0.00000000
0.53706908 0.00600921 -0.21810275 0.00000000
0.09062147 0.00501130 -0.23918843 0.00000000
3.16084200 0.00527593 -0.24636619 0.00000000
1.88770304 0.00647677 -0.26831582 0.00000000
1.60547422 -0.00435409 -0.02689007 0.00000000
0.46055012 0.00207751 -0.01721444 0.00000000
3.95264192 0.00352730 -0.17153648 0.00000000
0.55666206 0.00088906 -0.03515445 0.00000000
3.88101213 0.00284354 -0.08264496 0.00000000
0.92649300 -0.00312845 -0.01963934 0.00000000
3.51780139 0.00234054 -0.04713250 0.00000000
1.87774871 0.00516480 -0.25955019 0.00000000
0.26301019 0.00510412 -0.08785325 0.00000000
0.56359820 0.00646891 -0.16439432 0.00000000
0.55927431 0.00154173 -0.05007573 0.00000000
1.64475066 0.00426098 -0.13333416 0.00000000
1.69874397 -0.00150470 -0.06729139 0.00000000
0.03479738 -0.00043497 -0.13597853 0.00000000
0.74804428 0.00090886 -0.03559570 0.00000000
3.27124707 0.00690026 -0.09421049 0.00000000
3.91625825 -0.00101998 -0.02944752 0.00000000
3.35257890 0.00169892 -0.05751978 0.00000000
1.98228714 0.00064554 -0.22669844 0.00000000
1.98666215 0.00078673 -0.09573870 0.00000000
1.83821442 0.00078689 -0.05336861 0.00000000
2.93161563 -0.00116614 -0.15621186 0.00000000
3.57671589 0.00666527 -0.25895931 0.00000000
3.46196977 0.00411516 -0.13637361 0.00000000
4.25043232 0.00428836 -0.10335262 0.00000000
2.64733809 0.00468889 -0.22070042 0.00000000
0.03322247 0.00649800 -0.25627017 0.00000000
1.29607202 -0.00030035 -0.09770964 0.00000000
2.77761901 -0.00286126 -0.05027585 0.00000000
2.05013270 0.00888911 -0.22280217 0.00000000
4.05247776 0.00023825 -0.04631558 0.00000000
1.46544082 0.00761443 -0.23985760 0.00000000
4.17255574 0.00018326 -0.06190485 0.00000000
3.59978214 0.00433712 -0.11763504 0.00000000
2.81279574 0.00461593 -0.14533183 0.00000000
3.45470510 0.00528086 -0.24421268 0.00000000
1.98210259 0.00240820 -0.05756735 0.00000000
2.49751558 0.00211088 -0.02024832 0.00000000
1.20614466 -0.00567521 -0.02880977 0.00000000
2.94357991 -0.00148594 -0.01378112 0.00000000
3.31287215 0.00805481 -0.26013652 0.00000000
4.25255003 0.00274701 -0.09344967 0.00000000
2.41740731 0.00051031 -0.02551232 0.00000000
4.25734474 0.00459190 -0.20334857 0.00000000
0.06316505 0.00409306 -0.27397287 0.00000000
0.87810652 0.00105384 -0.09087602 0.00000000
2.48845958 0.00109401 -0.05742883 0.00000000
0.91278872 -0.00198705 -0.05354563 0.00000000
1.31003508 0.00479056 -0.11300807 0.00000000
3.10669175 0.00192247 -0.26214487 0.00000000
1.09409073 0.00202872 -0.00577276 0.00000000
0.35504410 0.00735278 -0.25805336 0.00000000
2.26099990 0.00407693 -0.17140052 0.00000000
2.39395299 0.00470218 -0.17492841 0.00000000
3.20556122 0.00225103 -0.25374352 0.00000000
1.81375030 0.00370785 -0.11834715 0.00000000
0.99288423 0.00565261 -0.15287375 0.00000000
1.50700253 0.00440583 -0.10304685 0.00000000
3.74141844 0.00242329 -0.26303140 0.00000000
3.95504842 0.00034727 -0.04843585 0.00000000
1.56677481 0.00305119 -0.10499787 0.00000000
1.48612963 0.00698320 -0.16921865 0.00000000
0.48819432 -0.00342879 -0.04796225 0.00000000
0.09130674 0.00662732 -0.18453517 0.00000000
0.46975668 0.00527037 -0.20473021 0.00000000
3.05888671 0.00386881 -0.27152369 0.00000000
2.64612967 0.00111568 -0.03156849 0.00000000
2.27486816 0.00169585 -0.06936775 0.00000000
4.18741634 -0.00291225 -0.00904889 0.00000000
0.61056335 0.00174193 -0.06545984 0.00000000
0.85733389 0.00159222 -0.06069885 0.00000000
3.20259319 0.00400276 -0.15649417 0.00000000
3.18374996 -0.00019575 -0.12261868 0.00000000
0.25662165 0.00697553 -0.27644038 0.00000000
0.24536080 0.00184547 -0.14187597 0.00000000
3.71691886 0.00652766 -0.24093086 0.00000000
0.63273452 0.00380955 -0.03733819 0.00000000
2.21629228 0.00596648 -0.06074783 0.00000000
1.13915329 0.00090937 -0.02523197 0.00000000
2.94190510 0.00384743 -0.24603049 0.00000000
2.81005810 0.00212162 -0.09139266 0.00000000
3.66299938 0.00497488 -0.13407944 0.00000000
1.24391548 0.00867038 -0.26522461 0.00000000
3.70966875 0.00292013 -0.00383123 0.00000000
0.38895949 0.00368715 -0.23393136 0.00000000
1.51363864 0.00207218 -0.03702173 0.00000000
4.32352356 0.01021793 -0.11068956 0.00000000
3.82035789 0.00591436 -0.03243083 0.00000000
0.07281194 0.00050091 -0.09364926 0.00000000
1.34745722 0.00601441 -0.15711111 0.00000000
3.72429411 0.00714856 -0.17931738 0.00000000
1.18305782 0.00649855 -0.25969254 0.00000000
0.30530260 0.00318466 -0.11172409 0.00000000
2.52139393 0.00901943 -0.11214461 0.00000000
3.72889060 0.00685408 -0.24112406 0.00000000
3.48705587 -0.00004076 -0.07910784 0.00000000
4.16237671 0.00299589 -0.00859973 0.00000000
1.67499008 0.00774085 -0.21650959 0.00000000
0.96869748 0.00863283 -0.22850829 0.00000000
3.69851533 0.00474095 -0.18019648 0.00000000
3.15310711 0.00654787 -0.24092650 0.00000000
3.86531334 -0.00115288 -0.05609721 0.00000000
2.21444736 -0.00061192 -0.06260288 0.00000000
2.35607511 0.00596915 -0.12998441 0.00000000
0.79116668 0.00410290 -0.26818160 0.00000000
2.69720889 0.00818393 -0.25729218 0.00000000
2.45021571 -0.00109308 -0.00132853 0.00000000
3.71260963 0.00240664 -0.12201193 0.00000000
3.61003835 0.00193988 -0.15739440 0.00000000
2.66913823 0.00399816 -0.03291193 0.00000000
1.80925208 0.00472660 -0.23834387 0.00000000
1.77563867 0.01295330 -0.24444185 0.00000000
1.35011664 0.00568597 -0.26080194 0.00000000
4.24253143 0.00338371 -0.04382636 0.00000000
1.66672273 0.00119935 -0.01562844 0.00000000
4.13609813 -0.00358259 -0.02313327 0.00000000
0.88503404 -0.00039847 -0.00295234 0.00000000
2.50422329 0.00674589 -0.26340929 0.00000000
0.42543321 0.00682995 -0.28171264 0.00000000
1.97856945 0.00241675 -0.05557498 0.00000000
0.69488120 0.00144461 -0.00966627 0.00000000
4.37126572 0.00501505 -0.09715075 0.00000000
4.03616198 -0.00357531 -0.01778896 0.00000000
0.40194016 0.00147620 -0.03598033 0.00000000
2.59787080 0.00199620 -0.18030247 0.00000000
0.23201804 0.00414911 -0.14818657 0.00000000
0.60768289 0.00288403 -0.20673295 0.00000000
3.63468372 0.00276386 -0.01915761 0.00000000
0.70977764 0.00726046 -0.22800701 0.00000000
0.49847426 0.00079448 -0.10164598 0.00000000
0.05422285 0.00203142 -0.02006059 0.00000000
4.06795015 0.00607251 -0.20266458 0.00000000
3.55226225 0.00016689 -0.14494558 0.00000000
4.30712793 0.00596776 -0.20299840 0.00000000
4.35249140 0.00150103 -0.03672975 0.00000000
2.00260242 0.00974107 -0.24397751 0.00000000
2.16924436 0.00618490 -0.19416591 0.00000000
2.62848515 0.00537132 -0.24323924 0.00000000
2.57055396 0.00311495 -0.20616064 0.00000000
0.05287419 0.00210902 -0.21162773 0.00000000
4.08226576 0.00439720 -0.22129567 0.00000000
0.83811184 0.00981700 -0.14283004 0.00000000
4.04969060 0.01012184 -0.21831833 0.00000000
4.20823770 0.00374173 -0.15195332 0.00000000
0.34588119 0.00738518 -0.22185182 0.00000000
1.95848702 0.00172818 -0.03788773 0.00000000
4.10009343 0.00443972 -0.11463750 0.00000000
2.18418039 0.00459969 -0.23240801 0.00000000
0.58025940 0.00091095 -0.00352286 0.00000000
3.62268845 0.00086844 -0.00839203 0.00000000
3.54249923 0.00257510 -0.08130575 0.00000000
3.97775713 0.00274968 -0.06769099 0.00000000
0.89532993 -0.00080392 -0.00889118 0.00000000
1.29072058 0.00882179 -0.22209075 0.00000000
4.09499129 0.00616629 -0.21947995 0.00000000
3.15452899 0.00411563 -0.25392093 0.00000000
4.22103987 -0.00111971 -0.01051364 0.00000000
4.35465100 -0.00336379 -0.03975415 0.00000000
3.34253123 0.00270323 -0.10768032 0.00000000
3.72327945 0.00858539 -0.25402114 0.00000000
0.05060190 0.00440792 -0.03804043 0.00000000
3.32080237 -0.00342037 -0.02636122 0.00000000
2.61202756 0.00995038 -0.15483711 0.00000000
4.02337067 0.00412504 -0.22447052 0.00000000
2.75174549 0.00220611 -0.15788321 0.00000000
1.87498662 0.00696537 -0.24085743 0.00000000
1.47574187 0.00571858 -0.19510726 0.00000000
3.70728209 -0.00250393 -0.06689271 0.00000000
1.83110740 0.00637960 -0.15482866 0.00000000
2.97706423 0.00347649 -0.10332605 0.00000000
1.45538951 0.00366906 -0.07091665 0.00000000
3.73275584 0.00039994 -0.00299442 0.00000000
0.12087773 0.00284873 -0.12622892 0.00000000
2.83267341 -0.00112479 -0.04873029 0.00000000
1.94847128 0.00336061 -0.11929521 0.00000000
1.59790760 0.00053083 -0.01620823 0.00000000
2.97878038 0.00630296 -0.26598945 0.00000000
3.44235472 0.00391096 -0.10733595 0.00000000
1.25235323 0.00177629 -0.16899426 0.00000000
4.25466460 0.00722551 -0.22933629 0.00000000
0.66634891 0.00700166 -0.18361963 0.00000000
4.17140973 -0.00184532 -0.00232471 0.00000000
1.17180006 0.00823439 -0.28029083 0.00000000
3.42072760 0.00085617 -0.07908956 0.00000000
0.64660955 0.00924188 -0.22399310 0.00000000
0.38461077 0.00739076 -0.23427942 0.00000000
4.34717764 0.00153267 0.00001419 0.00000000
4.37825167 0.00197377 -0.18741046 0.00000000
1.84793468 0.00234314 -0.10493563 0.00000000
3.87202536 0.00139201 -0.07590607 0.00000000
1.43564014 0.00290417 -0.08856549 0.00000000
3.41110701 0.00598798 -0.13216560 0.00000000
4.29254360 -0.00006827 -0.10710145 0.00000000
1.37015749 -0.00321181 -0.01572200 0.00000000
1.30622011 0.00058334 -0.08676910 0.00000000
3.63516117 -0.00016710 -0.16628030 0.00000000
3.20787801 0.00410882 -0.23540941 0.00000000
0.18657745 0.00269564 -0.09394763 0.00000000
0.72269888 0.00229338 -0.09733597 0.00000000
0.56614171 0.00419872 -0.24407376 0.00000000
2.56165862 0.00368837 -0.02825559 0.00000000
2.02869738 0.00282350 -0.04061993 0.00000000
4.26007135 0.00308860 -0.08897125 0.00000000
1.58991847 0.00563549 -0.06537721 0.00000000
3.80607322 -0.00192067 -0.06329618 0.00000000
1.79253385 0.00549466 -0.17355666 0.00000000
2.14203009 0.00302808 -0.08085352 0.00000000
4.08406016 0.00372944 -0.23331147 0.00000000
2.59456178 0.00279492 -0.08212010 0.00000000
2.67145553 0.00112546 -0.07895915 0.00000000
1.07435012 0.00342476 -0.05466095 0.00000000
3.03093478 0.00202891 -0.05407804 0.00000000
3.50382998 0.00657140 -0.23029067 0.00000000
1.89830958 -0.00522976 -0.01786306 0.00000000
1.97532622 0.00911218 -0.27282624 0.00000000
0.82664642 0.00748545 -0.23593975 0.00000000
3.77600710 0.00252567 -0.07453566 0.00000000
1.93949243 0.00573430 -0.23858824 0.00000000
0.68381805 0.00698751 -0.10765958 0.00000000
2.17468575 0.00619735 -0.22807209 0.00000000
0.68097002 0.00410767 -0.07027740 0.00000000
3.55158921 0.00917887 -0.17757256 0.00000000
2.16211948 0.00351093 -0.09591740 0.00000000
2.52212546 0.00095307 -0.24409051 0.00000000
0.74287951 0.00428834 -0.10364708 0.00000000
1.82147209 0.00491082 -0.16233595 0.00000000
3.46950120 0.00028139 -0.07258897 0.00000000
2.07129875 0.00438195 -0.24293988 0.00000000
3.86524488 0.00178355 -0.11309920 0.00000000
0.05655009 0.00763106 -0.25278887 0.00000000
3.47142867 0.00546881 -0.15148219 0.00000000
3.11033877 0.00157380 -0.04951409 0.00000000
3.92998477 0.00342707 -0.19257381 0.00000000
1.03208546 0.00493735 -0.18783904 0.00000000
3.77744399 0.00238900 -0.13686808 0.00000000
0.35737845 0.01142987 -0.21802280 0.00000000
0.41452495 0.00559713 -0.23256987 0.00000000
0.00307945 0.00849685 -0.23547180 0.00000000
0.78886212 -0.00182174 -0.09002558 0.00000000
2.81463638 0.00933644 -0.27377212 0.00000000
0.71782413 0.00161011 -0.03298583 0.00000000
3.12201909 0.00032826 -0.05803049 0.00000000
1.33574808 0.00216477 -0.21308321 0.00000000
4.14385562 0.00871847 -0.12234318 0.00000000
1.63490895 0.00064292 -0.00938316 0.00000000
0.52322340 0.00028296 -0.03623068 0.00000000
4.38634714 0.00615189 -0.17045703 0.00000000
1.08210433 -0.00023272 -0.04175672 0.00000000
1.04500878 0.00096702 -0.00340446 0.00000000
3.09299020 0.00278896 -0.11264494 0.00000000
4.18424851 0.00484077 -0.12045546 0.00000000
3.11086963 0.00350126 -0.20947463 0.00000000
3.85943859 0.00751053 -0.25894381 0.00000000
1.67861053 -0.00076946 -0.15053543 0.00000000
4.03704515 0.00681392 -0.14285156 0.00000000
1.98199171 0.00184340 -0.02450776 0.00000000
1.67266266 0.00147639 -0.05356827 0.00000000
2.43379263 -0.00078487 -0.11161551 0.00000000
1.37870242 0.00075117 -0.27747488 0.00000000
2.65020124 0.00655515 -0.18462426 0.00000000
2.63176654 0.00346588 -0.19534182 0.00000000
2.52083662 0.00182192 -0.01852512 0.00000000
4.32354877 0.00532091 -0.23564330 0.00000000
0.91557710 0.01004504 -0.20195852 0.00000000
2.99746071 0.00350057 -0.03018748 0.00000000
3.62076640 -0.00036462 -0.02768420 0.00000000
1.36630645 0.00418823 -0.24999459 0.00000000
0.84701961 0.00633502 -0.27614268 0.00000000
0.64809391 0.00048094 -0.12238588 0.00000000
2.67361737 0.00689894 -0.21169979 0.00000000
1.70964210 0.00595428 -0.27580484 0.00000000
2.90323447 0.00503875 -0.21879396 0.00000000
1.90986805 0.00205896 -0.05437497 0.00000000
1.78987748 0.00550100 -0.16120475 0.00000000
2.45885658 0.00116497 -0.15639967 0.00000000
1.42573276 0.00745652 -0.27808098 0.00000000
3.87318337 0.00365463 -0.00016808 0.00000000
1.06416184 0.00769950 -0.19618808 0.00000000
3.51171379 0.00659297 -0.27926763 0.00000000
2.19956192 0.00854417 -0.26521970 0.00000000
4.21495420 0.00526114 -0.20767698 0.00000000
4.09116984 0.00488789 -0.03426717 0.00000000
0.16525401 0.00693467 -0.23109543 0.00000000
0.92163004 0.00369643 -0.11628673 0.00000000
3.85241143 0.00300616 -0.06418214 0.00000000
1.28955158 0.00999778 -0.27324690 0.00000000
3.50322689 0.00660509 -0.27938525 0.00000000
1.67876228 0.00822731 -0.09348124 0.00000000
1.13479275 0.00052261 -0.02905976 0.00000000
2.95173478 0.00812005 -0.17011789 0.00000000
3.02300328 0.00885566 -0.24241334 0.00000000
4.35470007 -0.00069636 -0.10489320 0.00000000
1.44224106 0.00448717 -0.14887490 0.00000000
0.62321426 -0.00379545 -0.10848697 0.00000000
0.07796371 0.00381477 -0.12078525 0.00000000
3.16484957 0.00882055 -0.26093175 0.00000000
3.23139204 0.00454547 -0.21558555 0.00000000
2.71477783 0.00473437 -0.25762704 0.00000000
0.81076151 -0.00048030 -0.07787453 0.00000000
2.88749899 0.00740746 -0.19774648 0.00000000
0.70038567 0.00076717 -0.09866475 0.00000000
0.69805689 0.00169240 -0.05627426 0.00000000
1.38243107 0.00282302 -0.22300557 0.00000000
3.17765193 0.00183167 -0.00050852 0.00000000
3.67885866 0.00498981 -0.15020702 0.00000000
3.17394315 0.00508285 -0.18959433 0.00000000
2.82519747 0.00259213 -0.23811700 0.00000000
2.14811760 0.00120007 -0.16128638 0.00000000
0.20647305 0.00181020 -0.20647753 0.00000000
3.65275783 0.00634491 -0.22606473 0.00000000
0.45323928 -0.00498617 -0.00916558 0.00000000
0.51076147 0.00147110 -0.03694908 0.00000000
0.26748641 0.00303912 -0.23602118 0.00000000
2.57899708 0.00450859 -0.07363825 0.00000000
2.53278942 -0.00131617 -0.01378888 0.00000000
3.37618995 0.00746176 -0.24275142 0.00000000
2.30991936 0.00431766 -0.00939817 0.00000000
0.34568976 -0.00102345 -0.07980268 0.00000000
3.15820209 0.01027355 -0.27980579 0.00000000
3.66104486 0.00699447 -0.20517923 0.00000000
1.20028144 0.00788191 -0.20773528 0.00000000
0.92837293 0.00485751 -0.14722517 0.00000000
0.87649646 0.00513188 -0.07479517 0.00000000
1.21541540 0.00148398 -0.07598712 0.00000000
1.18985711 -0.00229669 -0.00090157 0.00000000
2.63753585 0.00081176 -0.00992909 0.00000000
3.70753742 0.00581732 -0.16390434 0.00000000
0.57295363 0.00670711 -0.18889396 0.00000000
2.19273787 -0.00161729 -0.03845496 0.00000000
1.15544496 0.00102874 -0.00195448 0.00000000
1.68761869 0.00258315 -0.08487544 0.00000000
4.00457337 0.00015154 -0.02229909 0.00000000
4.18197877 0.00638344 -0.26474798 0.00000000
1.55602509 -0.00078784 -0.11142480 0.00000000
4.26353727 0.00899183 -0.17703273 0.00000000
1.51470619 0.00275197 -0.02588016 0.00000000
2.41691791 0.00849722 -0.20891075 0.00000000
3.86600787 0.00152087 -0.06454116 0.00000000
3.47591041 0.00575871 -0.12617155 0.00000000
2.18700238 -0.00147537 -0.05082123 0.00000000
1.03730313 0.00246428 -0.08792723 0.00000000
4.27283469 0.00034721 -0.15055075 0.00000000
1.16321288 0.00521391 -0.10715115 0.00000000
4.08993346 0.00080160 -0.06995008 0.00000000
3.83919210 0.00029494 -0.02727190 0.00000000
4.11976669 0.00194111 -0.00066064 0.00000000
3.07551229 0.00241423 -0.27436468 0.00000000
3.39130108 0.00116701 -0.27773634 0.00000000
0.55171222 0.00275355 -0.24698832 0.00000000
0.85057464 0.00479605 -0.13821627 0.00000000
2.10626153 0.00539682 -0.15332655 0.00000000
1.36582011 0.00445244 -0.09613652 0.00000000
4.39934836 0.00590801 -0.25196404 0.00000000
2.86079119 0.00385058 -0.02437678 0.00000000
1.81513656 0.00581362 -0.22662757 0.00000000
2.94729338 -0.00272409 -0.04503704 0.00000000
0.96133731 -0.00242201 -0.04001119 0.00000000
3.48266111 0.00196396 -0.06868384 0.00000000
4.05485626 0.00427827 -0.08526391 0.00000000
3.66241660 0.00272462 -0.20103599 0.00000000
1.58103977 0.00403662 -0.20973525 0.00000000
3.01977574 0.00202108 -0.04885123 0.00000000
1.90136555 0.00876347 -0.18558175 0.00000000
1.47533449 -0.00105453 -0.02753168 0.00000000
0.97027834 0.00313569 -0.01879745 0.00000000
0.80885701 0.00546506 -0.14321414 0.00000000
3.92596924 0.00730199 -0.14312187 0.00000000
1.05246882 0.00074666 -0.14557731 0.00000000
1.26993048 0.00723916 -0.08221497 0.00000000
3.57775816 0.00501202 -0.11032645 0.00000000
0.91521603 0.00633544 -0.18931091 0.00000000
1.71344834 0.00542151 -0.18924229 0.00000000
4.40606899 0.00462043 -0.23612564 0.00000000
1.98383050 0.00176182 -0.02145701 0.00000000
0.54888340 0.00761603 -0.16758223 0.00000000
1.94641593 0.00377924 -0.10337600 0.00000000
3.20081487 0.00337896 -0.01386966 0.00000000
3.07299293 0.00194991 -0.11713217 0.00000000
0.90021607 0.00186211 -0.09180597 0.00000000
1.48972198 0.00319120 -0.17577800 0.00000000
2.32190824 0.01080021 -0.18382587 0.00000000
3.12712920 0.00310961 -0.09428808 0.00000000
2.22734470 0.00144060 -0.06085515 0.00000000
