1.559837 2.197005 -0.001359 0.0
3.427495 0.690220 0.005580 0.0
0.288503 1.218270 -0.002004 0.0
0.173242 0.921727 -0.002819 0.0
0.588678 0.104901 -0.001113 0.0
0.566898 0.059179 0.004118 0.0
2.020744 2.358672 -0.000734 0.0
3.214213 0.482593 -0.003780 0.0
0.610639 0.719537 0.003355 0.0
1.580355 0.333852 0.002757 0.0
3.314959 0.857510 0.001166 0.0
3.376525 1.052558 -0.002325 0.0
3.992827 0.438163 -0.003668 0.0
1.877682 0.979992 -0.000841 0.0
3.217702 0.377143 0.001974 0.0
3.686152 0.125576 -0.000486 0.0
2.547396 1.794339 0.001120 0.0
3.615832 0.890892 0.000328 0.0
2.274996 2.196756 0.002629 0.0
1.096178 2.162937 -0.002333 0.0
2.857614 1.580219 0.001333 0.0
2.975429 2.168442 -0.001306 0.0
3.405645 1.018371 -0.001816 0.0
1.236723 2.068181 -0.000116 0.0
4.215404 1.440089 -0.000992 0.0
0.036741 1.427670 0.000182 0.0
3.193003 1.750800 -0.004628 0.0
3.929992 0.853520 0.000461 0.0
4.522003 2.199172 -0.001120 0.0
0.190970 0.644238 -0.001045 0.0
3.160506 0.708597 0.004682 0.0
2.315674 1.824222 -0.000476 0.0
2.778730 1.119113 0.002549 0.0
3.137643 0.878733 -0.000543 0.0
0.138279 2.041087 0.003545 0.0
4.246640 1.797405 0.001966 0.0
0.680614 1.294223 -0.003436 0.0
2.552539 1.707823 -0.000407 0.0
2.781095 1.088830 0.001049 0.0
2.333944 1.473079 -0.000732 0.0
2.565171 0.760216 0.000027 0.0
1.220822 1.202166 -0.001611 0.0
0.318331 0.030973 0.001963 0.0
3.261599 1.087822 0.005290 0.0
2.562446 0.879016 -0.001545 0.0
3.395457 1.363242 -0.001030 0.0
2.120518 2.304537 0.001166 0.0
0.038197 0.596503 -0.004622 0.0
0.108734 1.616167 -0.001994 0.0
2.283974 0.432344 0.000791 0.0
0.020241 1.205239 0.003623 0.0
4.320375 1.188579 0.002592 0.0
2.662316 0.978478 0.004987 0.0
2.822492 0.232235 0.001496 0.0
2.310923 1.617963 0.000203 0.0
4.200877 1.580143 -0.000121 0.0
1.255075 1.410931 -0.000577 0.0
1.010507 0.745910 0.002976 0.0
2.758677 1.720773 -0.004619 0.0
2.257606 0.293680 0.004185 0.0
0.695415 1.097654 0.000307 0.0
3.322147 0.475723 0.004029 0.0
2.722332 0.038872 0.001822 0.0
2.416002 0.455963 -0.002918 0.0
0.820700 2.274792 0.001821 0.0
0.181049 0.355267 0.000377 0.0
3.412012 2.045649 0.006208 0.0
1.024919 2.375658 0.003400 0.0
2.852725 1.438392 0.004616 0.0
2.440029 2.004031 -0.000981 0.0
4.200187 0.734917 0.001142 0.0
4.382578 2.175702 -0.005343 0.0
1.759858 1.509707 0.000136 0.0
0.186315 0.825925 0.001770 0.0
4.133496 1.227958 -0.001043 0.0
2.581274 1.820714 -0.002081 0.0
1.320646 2.211309 -0.000241 0.0
2.764569 1.179344 0.002968 0.0
3.888276 2.361201 -0.000357 0.0
3.784108 1.324440 0.000884 0.0
4.046293 0.844788 -0.001199 0.0
0.869025 1.432687 0.000681 0.0
1.754686 1.088440 -0.000508 0.0
3.400631 1.599388 0.002000 0.0
3.232468 1.282785 0.000066 0.0
2.470233 0.955757 0.000202 0.0
0.879312 1.852836 0.000503 0.0
3.373644 1.377629 -0.001080 0.0
2.300596 1.668801 0.002088 0.0
0.988931 0.553164 0.001056 0.0
4.321004 0.155383 0.000714 0.0
1.392188 1.109417 -0.000239 0.0
3.122997 0.409794 0.002834 0.0
0.133499 1.394885 0.000621 0.0
3.051767 2.240793 0.000621 0.0
0.691830 1.706612 0.001470 0.0
3.465659 1.412352 0.003621 0.0
0.112974 1.755526 -0.000730 0.0
0.610421 0.697278 0.000840 0.0
2.650368 0.596902 0.000039 0.0
2.028725 0.506081 0.002561 0.0
0.574790 1.451959 -0.003215 0.0
3.650555 0.311960 0.002647 0.0
0.075768 2.263873 0.000763 0.0
1.739814 1.738769 -0.001996 0.0
4.189004 2.147222 -0.000217 0.0
4.109548 0.879531 -0.003532 0.0
0.871345 0.001540 0.002238 0.0
1.488736 1.312957 0.000746 0.0
4.070951 0.688247 -0.002772 0.0
3.325300 1.670018 0.007279 0.0
0.269706 1.812301 0.001163 0.0
1.501703 1.603017 -0.002802 0.0
0.678971 0.749892 0.001128 0.0
0.645686 0.386362 0.002537 0.0
3.837356 1.146965 -0.000671 0.0
2.664310 2.374374 -0.005253 0.0
0.391396 1.077891 -0.000229 0.0
0.379273 1.515526 -0.000132 0.0
0.847010 1.546368 0.002960 0.0
4.137017 2.381446 -0.002258 0.0
2.612632 0.301081 0.002199 0.0
3.325011 2.034799 0.003146 0.0
2.971177 0.322504 0.001844 0.0
3.041712 1.137068 0.001385 0.0
1.928616 0.622467 -0.001032 0.0
2.668680 0.305070 0.000148 0.0
2.607747 1.993433 -0.001251 0.0
1.798082 0.839403 -0.004361 0.0
1.765870 2.366228 -0.002742 0.0
1.070577 1.153134 0.000110 0.0
3.851387 1.931006 0.002344 0.0
4.087611 1.955432 -0.003223 0.0
3.627685 0.079235 -0.000428 0.0
1.536227 1.063153 -0.001455 0.0
2.240465 2.375560 -0.001104 0.0
3.450923 1.610499 0.002470 0.0
2.741188 1.084519 -0.000075 0.0
0.668820 1.534077 0.000869 0.0
1.552377 1.365280 -0.002810 0.0
2.038339 1.946021 -0.003479 0.0
0.819591 1.820929 -0.001812 0.0
4.347909 0.561669 -0.000967 0.0
2.743821 0.102604 -0.001609 0.0
3.681684 2.408718 0.002295 0.0
2.549087 1.206650 -0.000597 0.0
4.372418 0.562914 0.003358 0.0
2.991916 2.063235 0.002388 0.0
1.346117 1.819472 -0.003961 0.0
3.196007 2.353573 -0.001718 0.0
2.045746 0.122866 0.000154 0.0
4.529842 2.351114 0.002148 0.0
0.526461 2.154911 0.005698 0.0
0.006002 1.773456 -0.001689 0.0
2.410595 0.113566 0.002367 0.0
4.182033 0.678921 0.002300 0.0
1.029527 0.278200 -0.000681 0.0
1.183807 2.102632 0.002768 0.0
3.263675 0.034931 0.002046 0.0
3.548449 0.729558 -0.001320 0.0
0.225746 2.341077 0.001364 0.0
4.465622 2.027006 -0.000763 0.0
3.680201 0.080656 0.002343 0.0
0.832953 1.920941 -0.002671 0.0
1.070263 2.161234 -0.001778 0.0
1.996236 2.381523 -0.002289 0.0
3.628650 0.116290 -0.006242 0.0
0.338474 0.584671 0.001513 0.0
1.988245 2.004889 0.003826 0.0
0.213472 1.804101 -0.002682 0.0
3.400760 0.323849 0.001584 0.0
3.713902 2.109437 0.000469 0.0
1.618089 2.078529 -0.000253 0.0
1.198116 1.181038 0.000162 0.0
1.315898 1.888450 0.000614 0.0
0.304265 0.782074 0.002470 0.0
3.672912 1.229144 0.000122 0.0
2.040598 1.409129 0.000231 0.0
3.776675 0.159275 0.000426 0.0
0.388242 1.826732 -0.002389 0.0
2.449091 0.262717 -0.000264 0.0
4.254256 1.281795 0.001368 0.0
3.165832 0.554218 0.003516 0.0
1.316350 2.153660 0.004592 0.0
3.923593 1.660800 0.001384 0.0
3.725566 0.887528 -0.002977 0.0
0.670156 0.113325 0.000950 0.0
2.270997 1.270458 0.000770 0.0
0.028893 1.419100 -0.000982 0.0
4.492503 0.616459 -0.005088 0.0
2.371144 0.881460 -0.001127 0.0
2.376468 0.966157 -0.004640 0.0
1.941262 0.526185 0.002520 0.0
3.183988 1.490750 -0.000854 0.0
3.515579 0.236151 -0.000676 0.0
1.392044 2.312123 -0.001360 0.0
1.383131 1.378348 0.000054 0.0
3.985196 1.341844 -0.001801 0.0
2.566165 1.915013 -0.000018 0.0
4.107559 1.332486 0.000065 0.0
3.983183 1.968482 -0.002289 0.0
3.643342 0.381185 -0.005786 0.0
1.846145 0.324354 -0.005466 0.0
1.888913 1.931341 0.003768 0.0
2.330198 0.913873 -0.002010 0.0
4.373051 2.164588 -0.003607 0.0
2.170257 2.283441 -0.001298 0.0
3.373683 0.189181 0.000204 0.0
2.878839 0.124841 -0.003041 0.0
3.722937 1.569112 -0.003729 0.0
3.650857 2.229237 0.002561 0.0
4.161644 1.353220 -0.002460 0.0
1.641273 2.239754 -0.001295 0.0
1.826971 1.510477 0.000383 0.0
1.451207 1.149346 0.003729 0.0
3.776396 1.739619 -0.000583 0.0
1.825834 1.252905 0.002565 0.0
4.322530 0.053291 -0.000182 0.0
0.763799 2.202959 0.006422 0.0
2.235302 1.090829 -0.001165 0.0
1.701837 1.344667 0.000493 0.0
3.844175 2.064986 -0.000912 0.0
4.512335 1.954130 -0.002382 0.0
0.380769 0.298177 0.000630 0.0
3.402849 0.954473 0.000136 0.0
1.998531 1.494094 0.000189 0.0
0.279367 1.247943 0.001198 0.0
1.694490 2.138934 -0.000175 0.0
0.071570 1.279297 0.001840 0.0
2.889126 1.344708 0.003200 0.0
2.194810 2.309910 -0.000647 0.0
4.499044 0.591137 0.001420 0.0
0.621930 1.764728 0.001705 0.0
1.406543 0.868671 -0.000856 0.0
3.688718 2.155427 0.000800 0.0
1.433907 2.223069 0.004992 0.0
4.068893 2.371158 -0.003200 0.0
0.221757 1.095312 -0.002777 0.0
0.816436 0.461565 -0.000273 0.0
0.015778 0.918073 0.002017 0.0
0.588848 1.362927 0.001626 0.0
1.576554 1.423326 -0.004252 0.0
1.271022 0.036448 -0.000616 0.0
3.980219 0.164071 0.001287 0.0
2.105313 1.617543 -0.003372 0.0
1.874020 1.840493 -0.003453 0.0
1.492445 0.027647 -0.001237 0.0
0.450150 0.647382 0.001791 0.0
2.546503 0.266074 -0.001250 0.0
3.889214 0.864135 -0.001958 0.0
3.654630 1.507536 0.000109 0.0
2.184729 1.357967 -0.000110 0.0
0.299697 0.669321 -0.000677 0.0
2.427074 1.545512 0.003630 0.0
3.264923 1.583684 0.000167 0.0
4.018617 2.220720 0.001094 0.0
2.395414 1.343346 0.000735 0.0
4.362734 0.836944 -0.001923 0.0
2.742926 1.372936 0.003771 0.0
2.725501 1.157737 0.002317 0.0
1.815345 1.007108 0.004556 0.0
3.395583 1.345444 0.000132 0.0
1.018245 0.300536 0.000599 0.0
0.124412 1.759307 0.003277 0.0
0.238188 1.506198 -0.000514 0.0
1.110587 0.233915 0.005198 0.0
3.193080 1.146606 -0.002370 0.0
2.594177 0.972200 -0.001625 0.0
0.383318 0.230248 0.000798 0.0
2.553854 1.909655 0.001216 0.0
1.592365 1.345043 -0.007144 0.0
2.120115 0.425934 0.002642 0.0
1.251183 1.987039 -0.001846 0.0
0.569194 0.192520 -0.002946 0.0
3.310334 2.178832 -0.001366 0.0
1.183108 0.934172 0.002603 0.0
3.068027 2.241151 -0.000042 0.0
0.850310 2.370385 0.005883 0.0
1.545925 0.266038 -0.001101 0.0
2.166479 0.891750 0.002393 0.0
0.100672 0.833579 0.004213 0.0
0.576318 0.390335 -0.000734 0.0
2.136958 1.353154 -0.003795 0.0
1.301498 0.852745 -0.003035 0.0
2.705139 0.379671 -0.001718 0.0
2.113480 0.157381 0.000769 0.0
2.265612 1.553895 0.002197 0.0
2.125149 1.294428 0.001685 0.0
0.394745 1.646559 -0.000498 0.0
1.229064 1.347425 -0.001082 0.0
1.654071 0.816135 0.001670 0.0
2.488181 1.974230 -0.002474 0.0
0.946840 2.191823 -0.000196 0.0
3.527770 2.362209 -0.005420 0.0
0.821072 1.906913 0.002023 0.0
2.631707 0.852069 0.003931 0.0
3.996719 1.743134 -0.004609 0.0
3.597324 0.834129 -0.000466 0.0
2.822769 0.079226 -0.001460 0.0
2.524477 0.722837 0.002373 0.0
3.452637 2.413162 0.000622 0.0
1.653099 1.931393 -0.006377 0.0
1.461059 1.690156 0.002358 0.0
3.873774 2.298805 -0.002362 0.0
3.104912 1.590501 -0.003890 0.0
1.046485 2.145584 0.002837 0.0
1.608307 0.573119 -0.002729 0.0
0.192889 0.521190 -0.002001 0.0
1.669538 0.008216 -0.002597 0.0
3.950283 0.640077 0.000395 0.0
3.009755 2.045763 -0.000670 0.0
3.681002 0.418429 0.000505 0.0
1.829704 2.259535 0.000745 0.0
1.343151 0.603634 0.002348 0.0
3.896995 2.312355 -0.003110 0.0
3.068172 0.946131 -0.000649 0.0
1.260627 0.945896 -0.001429 0.0
0.762712 1.636440 0.004018 0.0
4.384553 0.634475 0.005660 0.0
0.552816 0.803232 -0.002969 0.0
3.089849 1.556097 -0.002073 0.0
3.711280 0.073909 -0.000041 0.0
1.780993 2.176955 -0.002978 0.0
3.979224 1.929011 -0.000406 0.0
1.248668 1.195517 -0.000175 0.0
2.370862 1.135144 -0.002019 0.0
2.438667 1.255201 -0.004751 0.0
3.238893 2.266538 0.002441 0.0
0.667317 1.153638 0.003028 0.0
2.075262 2.288752 0.004280 0.0
3.168781 0.230335 -0.001941 0.0
0.034745 2.253046 0.000687 0.0
3.696492 1.756526 -0.003620 0.0
1.226907 0.133047 -0.001426 0.0
0.227280 0.237521 0.000851 0.0
0.028822 1.597905 -0.001046 0.0
4.170272 1.220127 -0.006892 0.0
2.307107 1.865795 -0.001585 0.0
1.464415 0.512544 0.000181 0.0
0.824992 0.852714 -0.000805 0.0
1.457574 0.489175 -0.004127 0.0
0.109793 1.054339 0.003971 0.0
1.572530 0.089734 -0.000076 0.0
2.205407 0.330100 -0.001058 0.0
0.899677 0.407238 0.002975 0.0
2.106016 1.842095 -0.001198 0.0
2.270230 1.618111 0.003610 0.0
0.079412 1.287056 0.000598 0.0
0.355790 1.479784 0.003325 0.0
4.434145 1.281223 -0.002745 0.0
4.304373 1.041563 -0.000201 0.0
4.448693 1.641164 -0.000550 0.0
0.946931 1.318583 0.002148 0.0
0.850974 1.531560 -0.002047 0.0
3.846097 2.218480 -0.004923 0.0
1.284797 0.413802 0.001674 0.0
2.140427 0.586881 0.003322 0.0
1.283978 0.184481 -0.001155 0.0
1.367964 2.111215 0.002104 0.0
1.628508 1.720364 0.001712 0.0
3.969743 1.625521 0.001166 0.0
3.988525 1.930321 -0.000763 0.0
3.259049 2.024536 0.002193 0.0
2.653006 1.576412 -0.001527 0.0
3.358327 2.177519 -0.000348 0.0
1.179368 0.025962 -0.001346 0.0
2.800942 2.087153 0.000188 0.0
1.125882 1.037381 0.001440 0.0
2.803432 1.751320 0.002064 0.0
1.783315 1.181094 -0.003662 0.0
3.803988 1.387464 0.003798 0.0
3.746908 0.658869 -0.003020 0.0
1.364769 0.997527 0.001071 0.0
1.653610 0.395617 -0.001970 0.0
1.527113 2.414735 0.001055 0.0
4.075542 2.233258 0.004411 0.0
3.902228 0.317725 -0.000237 0.0
4.095608 1.544090 0.002132 0.0
3.303489 0.682514 -0.001748 0.0
3.832589 1.950137 -0.003142 0.0
4.210624 2.209608 0.001543 0.0
4.159552 0.605191 0.002840 0.0
3.174521 0.991015 -0.000572 0.0
0.801223 1.743041 -0.007692 0.0
0.345436 1.393416 -0.002722 0.0
2.190415 1.316860 -0.001683 0.0
2.030842 2.306345 -0.004454 0.0
0.996491 2.096159 -0.002404 0.0
0.241486 1.756272 0.001344 0.0
2.808995 0.362038 0.001502 0.0
1.026257 1.677077 0.000748 0.0
1.972832 1.137732 0.002901 0.0
1.050051 0.635211 0.001453 0.0
1.626297 1.169452 -0.001938 0.0
4.248814 2.332391 0.000861 0.0
0.134555 2.052817 0.003944 0.0
4.288189 1.632461 0.001401 0.0
0.905589 1.342080 0.000372 0.0
1.471810 0.685668 -0.000667 0.0
1.527271 2.212430 -0.001130 0.0
2.682468 0.594299 0.002257 0.0
0.481590 2.344036 0.003801 0.0
4.078600 1.726998 -0.001942 0.0
4.001177 0.146338 0.002712 0.0
1.713744 2.213389 0.000252 0.0
0.029114 0.753111 -0.002229 0.0
4.266378 1.315792 0.000014 0.0
1.971910 1.753182 -0.003129 0.0
0.908526 1.607489 -0.001868 0.0
2.555864 1.196343 -0.003377 0.0
2.129523 1.951719 0.002998 0.0
1.430640 1.566570 0.004664 0.0
3.337994 1.576017 0.001772 0.0
2.943421 2.059340 0.000897 0.0
3.323783 1.469532 -0.000864 0.0
1.447454 2.251882 0.000432 0.0
2.526057 1.227548 -0.001992 0.0
2.944986 0.611532 -0.001020 0.0
3.934415 0.370332 0.000942 0.0
1.174329 1.784818 0.000641 0.0
3.015672 1.772146 0.000677 0.0
4.180457 2.255203 -0.001214 0.0
2.174084 2.172729 -0.003233 0.0
2.031020 2.248170 -0.001049 0.0
2.841499 1.887399 -0.000628 0.0
2.751580 2.052128 -0.002859 0.0
3.280506 1.204908 0.000041 0.0
1.076710 2.372967 0.000950 0.0
1.205422 0.575173 0.002322 0.0
4.325252 1.482870 0.000566 0.0
1.690847 2.089301 0.007374 0.0
4.341998 0.376560 0.003668 0.0
2.030953 2.160686 -0.000208 0.0
2.660768 0.028833 -0.004861 0.0
0.287548 0.340993 0.001357 0.0
1.634325 0.822973 -0.001286 0.0
0.337289 1.154951 -0.001241 0.0
2.124241 0.328437 -0.002476 0.0
2.331119 0.437459 0.003135 0.0
0.522665 2.159942 -0.000731 0.0
1.750075 0.984487 0.001001 0.0
4.039221 1.623999 0.002222 0.0
0.024830 0.375527 -0.001401 0.0
0.255343 0.457364 -0.000573 0.0
1.460614 0.214514 0.000145 0.0
2.785658 2.186916 -0.002495 0.0
2.484780 0.557458 0.000039 0.0
2.688525 0.752538 0.000500 0.0
4.017607 1.451532 -0.006101 0.0
1.406282 1.389026 0.001366 0.0
0.237009 0.012058 0.000522 0.0
3.909611 1.641492 -0.001550 0.0
1.260014 0.386149 -0.004080 0.0
1.012864 1.515942 0.000233 0.0
0.689106 1.803504 0.000208 0.0
4.099033 1.546093 0.002909 0.0
4.299728 0.892716 -0.001406 0.0
3.925617 2.332373 0.000653 0.0
0.912453 1.132818 0.001202 0.0
3.069685 1.845047 0.000039 0.0
4.304963 0.001301 -0.002053 0.0
4.161763 0.630120 0.000720 0.0
1.795363 0.237472 -0.000673 0.0
2.186286 1.836569 -0.003576 0.0
2.564276 0.929788 -0.002503 0.0
3.978481 1.326068 -0.000009 0.0
3.587743 1.281090 -0.003476 0.0
0.941854 1.243377 -0.000536 0.0
1.910674 0.324388 -0.001148 0.0
2.912722 0.231799 -0.005722 0.0
3.962201 2.375964 0.000226 0.0
1.286110 0.466577 0.001394 0.0
3.785831 0.306984 -0.002804 0.0
3.528499 1.179697 -0.001076 0.0
1.227980 0.378653 -0.002278 0.0
3.647843 1.806684 0.001887 0.0
0.695649 0.707625 -0.001291 0.0
3.335201 0.041601 -0.000120 0.0
4.482316 1.877552 0.000356 0.0
3.059889 1.429921 0.001974 0.0
1.405297 1.688169 -0.001689 0.0
3.730013 2.045595 -0.004229 0.0
0.683549 0.919964 -0.001723 0.0
3.903316 0.816905 -0.002564 0.0
3.421668 0.817829 0.001010 0.0
2.810368 0.853704 0.002666 0.0
2.491830 1.759028 -0.000929 0.0
1.270507 0.940793 0.000249 0.0
2.569012 0.170326 -0.000078 0.0
2.420550 2.150090 0.006353 0.0
3.158649 0.756039 0.001132 0.0
2.836772 1.158286 0.001444 0.0
0.926963 1.962283 0.005184 0.0
2.929100 1.173130 -0.001434 0.0
3.054322 2.260150 -0.001994 0.0
4.499589 0.410562 -0.000570 0.0
3.640379 1.555468 0.002428 0.0
0.514595 1.181768 -0.000466 0.0
0.871349 1.189431 0.000673 0.0
2.680770 0.664750 0.001147 0.0
0.051870 0.442733 -0.000558 0.0
0.564029 2.066409 0.001490 0.0
1.430679 1.827249 0.002033 0.0
1.522629 1.783535 0.000463 0.0
3.889205 1.378721 -0.003025 0.0
2.594534 2.145531 -0.000150 0.0
1.579438 1.939258 0.000535 0.0
1.625957 2.245502 -0.002479 0.0
4.163831 1.208704 -0.001350 0.0
1.281641 0.537833 -0.002333 0.0
0.880830 0.635772 -0.001388 0.0
3.174016 2.354978 -0.000754 0.0
0.842505 0.348950 -0.000120 0.0
3.121846 0.828406 -0.002179 0.0
2.108914 1.878363 -0.000187 0.0
0.052291 0.317312 -0.000522 0.0
1.863094 1.759331 -0.002983 0.0
4.035355 1.670068 0.000299 0.0
4.159510 0.598618 0.000828 0.0
0.450637 0.675447 0.001913 0.0
0.947438 1.593338 -0.003094 0.0
1.619626 0.873553 0.003391 0.0
3.444470 2.253423 -0.003801 0.0
2.683932 0.134333 -0.003868 0.0
4.508517 1.675986 -0.000276 0.0
1.286777 0.348461 0.002062 0.0
0.129208 0.570571 0.000894 0.0
4.068869 2.069504 -0.002789 0.0
3.766885 0.765469 -0.000674 0.0
4.288281 1.264049 -0.001044 0.0
0.449659 1.301265 -0.003745 0.0
3.935671 1.006977 0.004226 0.0
4.229797 0.812323 0.001539 0.0
3.699743 0.659901 -0.001608 0.0
4.194362 2.043237 -0.004370 0.0
1.579139 2.333951 -0.000645 0.0
2.734985 0.534538 0.002050 0.0
0.359079 1.880948 0.001297 0.0
3.898734 2.067006 0.001384 0.0
3.790687 0.316228 0.000910 0.0
0.806554 0.035038 0.002927 0.0
2.235263 1.210825 0.002867 0.0
3.530027 0.209826 0.001299 0.0
1.443552 2.152822 0.000162 0.0
0.251096 1.855682 0.001845 0.0
4.383620 1.122021 0.004860 0.0
0.148769 0.410204 0.000597 0.0
0.693324 0.329426 0.000181 0.0
2.238738 2.238325 -0.000576 0.0
4.173439 2.122694 0.001238 0.0
1.652212 2.111353 -0.001646 0.0
0.531098 2.373578 0.004511 0.0
4.503594 1.161468 -0.000524 0.0
3.616083 1.521294 -0.001415 0.0
0.428841 1.046163 -0.000059 0.0
2.964864 1.131430 -0.000515 0.0
0.213444 0.822944 0.000685 0.0
3.284230 1.735550 -0.006690 0.0
3.919820 0.189901 -0.000164 0.0
4.012245 1.522952 -0.001521 0.0
1.615368 2.192834 0.002070 0.0
1.902519 1.940218 -0.000527 0.0
4.393338 0.377487 0.004953 0.0
0.967609 0.035295 -0.007715 0.0
1.629092 1.056864 0.001474 0.0
4.415259 1.230019 0.001725 0.0
1.881542 1.285515 0.002737 0.0
1.057790 1.417354 0.004470 0.0
0.279983 1.004028 0.001538 0.0
2.539686 1.699361 0.002455 0.0
0.936887 0.591444 0.000929 0.0
3.914032 2.338309 -0.000363 0.0
3.031834 0.435787 0.002668 0.0
0.247148 0.158083 -0.003656 0.0
2.784815 0.860934 0.003888 0.0
4.118554 1.922492 0.002726 0.0
1.411107 0.252467 0.002880 0.0
1.061708 1.350318 0.003151 0.0
4.430162 0.635820 -0.003842 0.0
1.220580 0.084814 0.002304 0.0
3.312599 1.836256 -0.004097 0.0
2.576395 0.796256 0.001353 0.0
0.089630 2.168821 0.002320 0.0
2.371426 2.391892 0.002721 0.0
0.364392 0.246611 -0.004152 0.0
1.004870 2.129347 -0.001074 0.0
1.609862 1.997436 -0.004839 0.0
1.943297 0.819940 0.001191 0.0
4.115179 2.060735 -0.001874 0.0
4.319416 0.476455 -0.001674 0.0
3.692202 0.315775 -0.000309 0.0
0.827234 2.258535 0.000360 0.0
3.705969 1.361768 0.000019 0.0
1.792260 1.171554 0.000460 0.0
2.244128 0.456314 0.001119 0.0
4.027684 0.962146 -0.002776 0.0
2.038313 1.960600 -0.000868 0.0
4.257369 1.670662 0.002547 0.0
2.102382 2.128972 0.000094 0.0
1.927437 0.022159 0.000132 0.0
0.621872 1.750538 0.001424 0.0
1.081792 0.917853 -0.001565 0.0
1.555286 1.211496 0.000896 0.0
4.245695 0.812217 0.001873 0.0
1.417566 1.203011 -0.002340 0.0
0.103482 1.396986 0.006388 0.0
2.689641 1.680406 -0.001184 0.0
1.797136 0.923315 -0.001847 0.0
0.603142 1.648385 0.001142 0.0
1.569296 1.766683 -0.000480 0.0
1.006745 0.287111 0.002550 0.0
2.919382 1.411222 0.005790 0.0
1.021280 0.693708 -0.000863 0.0
0.422081 0.479836 -0.002011 0.0
1.887896 0.419736 0.004719 0.0
4.006125 0.752509 0.002324 0.0
3.490855 1.214623 -0.001007 0.0
1.871827 0.041219 0.001953 0.0
0.111376 1.411471 -0.000442 0.0
2.069125 0.013536 -0.003847 0.0
1.129252 0.423600 0.001802 0.0
3.603513 0.753351 0.000125 0.0
0.780607 0.988360 -0.002878 0.0
2.387108 1.627352 -0.002264 0.0
3.243147 1.829956 -0.000342 0.0
4.152064 1.764727 -0.005215 0.0
4.411722 1.789776 -0.001656 0.0
2.230363 1.737506 0.002954 0.0
0.622045 1.462082 0.002049 0.0
0.787228 1.740173 0.002543 0.0
4.162868 2.315918 -0.002176 0.0
3.086701 0.229092 0.001855 0.0
0.824965 1.261024 0.003013 0.0
0.395169 0.744849 0.003671 0.0
2.454397 1.627558 0.003435 0.0
1.455953 0.824975 -0.001219 0.0
1.086713 1.709020 -0.000963 0.0
4.465981 1.214664 -0.003261 0.0
0.626468 1.131965 0.000304 0.0
4.049301 1.941622 -0.002273 0.0
1.623819 1.083716 0.000146 0.0
0.036206 0.640806 0.001131 0.0
3.015098 2.379468 -0.000604 0.0
1.596082 2.365907 -0.001834 0.0
3.539335 1.750659 -0.002269 0.0
3.932702 2.077607 -0.000840 0.0
2.270237 0.243693 0.001926 0.0
3.785682 1.653365 -0.002219 0.0
3.100157 0.304385 0.000891 0.0
2.140590 1.681698 -0.002434 0.0
0.673503 0.372773 -0.002898 0.0
1.043424 0.085780 0.005657 0.0
0.586008 0.760939 -0.003516 0.0
2.017984 1.874930 -0.004926 0.0
3.999548 0.377046 0.000990 0.0
4.067667 1.797605 0.001780 0.0
2.491849 1.529584 -0.000598 0.0
4.461195 0.510443 -0.002154 0.0
2.160183 0.451218 -0.000394 0.0
1.154188 1.246795 0.003132 0.0
4.463485 0.140790 -0.002702 0.0
0.084875 1.684282 -0.002424 0.0
3.906075 0.773731 -0.000717 0.0
1.150373 0.955551 -0.002025 0.0
2.367329 2.410987 -0.000179 0.0
3.731591 1.679016 0.007866 0.0
2.352328 1.237337 0.000992 0.0
3.787681 1.809506 0.003205 0.0
4.385225 2.189710 0.003419 0.0
1.400126 1.257392 -0.000307 0.0
1.236761 0.980137 0.002859 0.0
2.079690 1.073440 -0.002909 0.0
4.031602 0.818252 0.003557 0.0
0.883828 1.569374 0.002954 0.0
2.614519 1.701764 -0.000401 0.0
1.600736 1.195968 0.000022 0.0
2.064449 0.002594 -0.002967 0.0
0.390698 1.653862 0.002859 0.0
3.880941 2.135573 -0.002312 0.0
3.658610 1.669361 -0.000069 0.0
4.398413 0.367626 0.001575 0.0
0.144301 1.654475 -0.000623 0.0
1.820141 1.453007 -0.000253 0.0
1.425799 1.088543 -0.001004 0.0
1.993276 2.154144 -0.003275 0.0
3.570155 0.154667 -0.001182 0.0
3.492715 0.909957 0.001497 0.0
1.144446 1.113260 -0.002835 0.0
3.575201 2.069047 -0.001921 0.0
0.779019 1.972432 -0.000886 0.0
2.610019 1.202472 0.000678 0.0
0.580009 0.861212 0.000210 0.0
1.849793 1.997744 -0.004216 0.0
3.792734 1.363451 0.003212 0.0
0.195647 1.619688 -0.000955 0.0
1.235912 1.747312 0.004291 0.0
3.326239 2.390912 -0.002953 0.0
0.438606 0.222914 0.002913 0.0
0.708247 0.124678 -0.000919 0.0
4.221257 1.876013 0.000400 0.0
3.433823 1.436352 -0.000249 0.0
0.980806 2.133219 0.004106 0.0
0.636657 0.683558 0.002784 0.0
3.651819 1.732361 0.000556 0.0
3.045902 1.014215 -0.003167 0.0
4.110933 1.243068 0.002193 0.0
1.864834 1.406288 -0.003645 0.0
4.146050 0.410383 0.001240 0.0
1.815596 1.512064 -0.004084 0.0
2.561403 1.348204 -0.003990 0.0
2.829197 2.066094 -0.002963 0.0
2.024914 1.659957 0.002683 0.0
1.140468 0.638449 -0.001438 0.0
0.953808 2.121337 0.004637 0.0
0.067877 1.344628 0.002010 0.0
2.364933 0.463993 -0.004728 0.0
3.045747 2.307060 -0.003993 0.0
4.119859 0.521918 -0.000754 0.0
0.021582 0.132181 0.001110 0.0
4.022695 0.212454 -0.000762 0.0
4.131989 2.154385 0.002528 0.0
2.433054 0.579444 0.002977 0.0
2.620110 0.695337 -0.001372 0.0
0.070299 1.046139 -0.001372 0.0
3.977414 2.075273 -0.003582 0.0
4.284353 0.348747 0.002459 0.0
2.495652 1.799623 0.001546 0.0
2.912651 0.008925 0.003095 0.0
2.618177 2.126899 0.000926 0.0
2.870207 1.641234 0.001805 0.0
2.706783 0.793927 -0.004423 0.0
2.020764 1.430984 -0.003172 0.0
3.026568 2.022464 0.000579 0.0
3.122384 2.393437 0.001725 0.0
1.510323 2.122510 0.002990 0.0
0.894849 2.329740 0.004911 0.0
1.834164 0.516361 -0.005108 0.0
1.157306 0.327842 -0.002763 0.0
1.980597 0.702534 -0.003376 0.0
0.362711 0.412376 0.002198 0.0
1.990415 1.185824 0.001706 0.0
2.298139 0.183926 -0.000485 0.0
0.314389 0.233610 -0.001182 0.0
2.817619 0.349683 0.003347 0.0
0.821641 2.368903 -0.002025 0.0
3.583724 0.603532 0.000618 0.0
3.151681 1.564780 -0.002645 0.0
4.415023 1.547603 -0.001377 0.0
1.642839 2.402056 -0.001685 0.0
4.124020 0.964883 -0.001702 0.0
3.689380 0.157613 0.003754 0.0
2.141369 0.022047 -0.003108 0.0
3.652697 0.862961 0.001163 0.0
3.882855 1.681675 0.000177 0.0
0.010097 1.558990 -0.003082 0.0
2.709397 2.068548 -0.000051 0.0
1.802674 0.638324 0.000462 0.0
3.539771 0.027471 -0.001509 0.0
3.177128 1.462673 0.000977 0.0
3.758601 1.598824 -0.001650 0.0
3.596478 1.277565 -0.000958 0.0
0.032917 0.769428 0.001131 0.0
1.783986 0.220513 -0.001174 0.0
2.630691 0.069231 -0.000238 0.0
0.976282 1.886265 0.001660 0.0
2.667335 0.277195 0.003274 0.0
4.091386 0.378051 -0.003866 0.0
0.292716 1.870733 0.000215 0.0
2.784035 1.615486 0.003547 0.0
3.201362 1.739657 0.002705 0.0
3.502521 0.407680 0.000956 0.0
2.292257 1.740351 -0.003779 0.0
3.234287 2.217666 -0.000952 0.0
0.087371 1.253519 0.000293 0.0
2.842491 1.988272 0.003282 0.0
1.784722 2.302727 0.001577 0.0
3.165150 1.520702 -0.000183 0.0
2.529923 0.155785 0.003676 0.0
2.994534 1.997279 -0.000403 0.0
3.338187 1.609891 -0.000666 0.0
2.160138 0.489664 0.003672 0.0
3.710781 1.587454 -0.002230 0.0
4.268935 1.996607 -0.001127 0.0
3.629780 1.454479 -0.003814 0.0
1.931409 0.714236 0.002578 0.0
2.518368 0.168342 0.004119 0.0
1.888501 0.942378 -0.002909 0.0
2.862640 0.061229 -0.001776 0.0
0.389354 1.834298 0.001951 0.0
2.117947 0.713948 0.000964 0.0
4.220913 1.856688 -0.000073 0.0
1.456140 1.421477 -0.003045 0.0
3.961220 1.731239 0.000648 0.0
3.648226 2.156537 -0.001301 0.0
3.623339 1.381877 -0.000033 0.0
1.409351 1.797383 -0.003466 0.0
3.408630 2.371207 0.000539 0.0
1.202025 1.903922 -0.000260 0.0
0.562020 0.634244 0.001818 0.0
0.407991 0.315567 0.002650 0.0
4.436197 1.438293 0.004484 0.0
0.386407 1.541721 0.002370 0.0
0.994537 2.075506 -0.000133 0.0
0.633662 0.729827 -0.001640 0.0
2.166486 2.191665 -0.000977 0.0
1.948004 0.598980 -0.004687 0.0
3.101232 2.118628 0.002585 0.0
2.364532 1.803491 -0.001574 0.0
0.796965 1.874177 0.003218 0.0
0.033424 0.193618 0.002130 0.0
4.426802 0.939603 -0.001479 0.0
3.471534 1.544895 0.000327 0.0
3.738154 0.870752 0.001484 0.0
2.687673 1.584327 -0.003099 0.0
0.253525 0.672174 -0.004221 0.0
2.088931 1.843902 -0.000582 0.0
2.891868 2.390259 -0.001369 0.0
1.015362 2.176456 -0.000380 0.0
2.875730 1.556311 0.003004 0.0
3.284348 1.953600 0.000480 0.0
2.191296 1.446625 0.000370 0.0
0.660625 2.198908 0.001078 0.0
1.258985 2.089418 -0.003555 0.0
0.390033 0.352854 -0.000907 0.0
0.277201 0.004400 -0.000577 0.0
2.703650 0.490808 0.000914 0.0
1.313967 1.788966 -0.004691 0.0
0.661596 0.583644 -0.001515 0.0
0.702954 1.314474 -0.001678 0.0
1.934856 1.906171 0.000415 0.0
0.210743 0.505513 -0.007371 0.0
2.995876 0.707972 0.001937 0.0
2.045995 1.428519 -0.002869 0.0
4.369845 0.590053 0.000476 0.0
4.342824 1.385228 -0.001610 0.0
1.438259 1.052512 0.001843 0.0
2.226633 1.173903 0.003783 0.0
3.795830 1.857447 -0.000537 0.0
4.198351 2.078124 -0.000134 0.0
2.305175 1.149379 0.002217 0.0
0.494125 0.605756 -0.007255 0.0
3.935514 1.988420 -0.002667 0.0
0.067954 1.327933 -0.002185 0.0
2.255309 1.900075 0.003592 0.0
1.528027 1.533479 0.003843 0.0
3.429707 1.567321 -0.001426 0.0
2.506420 0.434620 -0.001660 0.0
1.205789 1.085716 -0.000222 0.0
4.125265 1.197687 -0.002136 0.0
1.442899 2.405676 -0.002384 0.0
1.094003 0.520459 0.003876 0.0
4.369787 0.367546 0.001025 0.0
0.518666 2.199803 -0.000600 0.0
4.500536 0.675569 0.002620 0.0
4.066034 1.139368 0.000546 0.0
4.051359 1.214022 0.002756 0.0
4.060662 1.793846 0.001276 0.0
4.408859 1.255221 -0.001660 0.0
0.418231 0.879482 0.003175 0.0
4.273790 0.038590 0.004219 0.0
4.062679 1.957675 0.000735 0.0
3.788204 0.700007 -0.002411 0.0
2.051812 1.733302 -0.001124 0.0
1.084527 0.924478 0.002936 0.0
0.179177 1.384716 0.001437 0.0
1.424154 1.257436 -0.001359 0.0
0.989822 2.374531 0.002405 0.0
0.206288 1.785642 -0.001567 0.0
0.238853 0.158427 0.001321 0.0
2.623207 2.370203 0.007607 0.0
0.322608 1.513299 -0.000707 0.0
0.203238 0.881773 -0.000477 0.0
4.449560 1.655022 -0.002978 0.0
1.399886 1.813127 -0.001059 0.0
3.819890 0.678369 -0.003002 0.0
3.582689 1.912924 -0.002024 0.0
0.096746 0.723847 0.002833 0.0
1.890022 0.373203 -0.005296 0.0
0.974162 2.145758 -0.001094 0.0
3.072632 0.235392 0.002341 0.0
0.306058 1.364556 -0.001465 0.0
2.227961 1.707177 -0.005575 0.0
1.236601 1.883997 -0.000729 0.0
2.471884 0.272727 -0.002609 0.0
4.408331 2.231075 -0.007269 0.0
0.183844 1.368450 -0.001492 0.0
3.811628 0.437088 -0.000947 0.0
4.477399 1.724231 0.001729 0.0
1.782702 2.040384 -0.002926 0.0
3.745932 1.613895 0.001118 0.0
1.460051 0.653052 0.001254 0.0
2.991996 1.188909 -0.001739 0.0
1.860837 1.131871 -0.002467 0.0
4.130423 2.292939 -0.001294 0.0
3.051147 0.895817 0.000497 0.0
3.130069 0.148060 0.001369 0.0
0.642171 0.654099 0.001712 0.0
3.804709 1.374575 0.000294 0.0
4.455714 0.664933 -0.004375 0.0
1.838424 0.211589 0.002221 0.0
3.613067 0.888798 0.002693 0.0
0.974743 0.008264 -0.005127 0.0
1.859506 0.672163 0.000058 0.0
0.821854 1.028329 -0.002281 0.0
1.576362 0.218384 0.001853 0.0
1.741189 0.753224 0.000752 0.0
2.399390 0.771230 -0.002119 0.0
2.987753 0.913399 0.003634 0.0
0.477269 0.584768 -0.003397 0.0
2.402460 2.187354 0.001173 0.0
2.241800 1.975394 -0.002164 0.0
0.835819 1.783586 -0.001780 0.0
1.641446 1.370196 -0.000757 0.0
2.075062 0.553483 0.000073 0.0
3.284690 1.331161 -0.001357 0.0
3.261790 1.923284 -0.001855 0.0
0.406797 0.901537 0.000527 0.0
4.103728 0.223152 0.003502 0.0
4.485261 1.999312 0.001043 0.0
3.862498 0.944077 -0.004153 0.0
1.164605 2.108602 -0.000689 0.0
4.357829 1.948115 -0.000050 0.0
2.480805 1.464021 0.001776 0.0
1.421724 2.287442 -0.001211 0.0
2.393443 1.668708 0.000264 0.0
2.174735 0.475706 -0.000224 0.0
3.053270 0.058872 -0.001054 0.0
3.201513 1.963085 -0.000263 0.0
3.396209 0.185775 -0.003430 0.0
1.675793 0.292883 0.005625 0.0
4.056710 1.140623 -0.001613 0.0
3.388948 2.134817 0.000331 0.0
3.519674 1.159330 -0.000124 0.0
3.278041 0.481632 -0.002756 0.0
0.318752 1.433821 -0.003721 0.0
2.693083 2.249467 0.001955 0.0
0.858778 0.049428 -0.001842 0.0
4.251551 2.292915 -0.000042 0.0
4.257938 2.246342 0.001926 0.0
1.600076 0.097550 -0.001256 0.0
1.469095 0.961430 -0.000914 0.0
1.382367 0.256417 -0.001728 0.0
3.070010 0.595710 -0.005638 0.0
0.432024 0.359719 0.002715 0.0
1.585178 2.210809 -0.000158 0.0
2.634844 0.375885 0.000602 0.0
1.741670 1.952543 0.000476 0.0
3.901850 1.276995 -0.004956 0.0
1.406978 1.244498 0.000207 0.0
2.176154 1.782794 0.001817 0.0
2.680294 1.037167 -0.003521 0.0
0.782184 0.455314 -0.002180 0.0
2.678715 0.021681 -0.002443 0.0
3.277557 2.238272 0.000396 0.0
4.150119 0.285431 -0.000606 0.0
4.100014 1.716747 0.000413 0.0
0.098557 0.649814 0.003702 0.0
1.078230 1.748125 0.002070 0.0
0.526535 0.209995 -0.000382 0.0
3.736526 1.361794 -0.002728 0.0
3.808176 1.742013 -0.000629 0.0
2.467876 0.311900 -0.002505 0.0
2.513264 0.975544 0.000439 0.0
3.180166 0.342529 -0.004584 0.0
0.872779 1.830542 0.000609 0.0
0.290473 1.881750 0.005352 0.0
1.715816 0.873317 -0.000486 0.0
1.615196 0.735814 -0.002341 0.0
1.731308 0.187633 0.001913 0.0
4.101184 0.697118 0.004635 0.0
0.877849 0.759142 -0.003048 0.0
1.576110 1.121650 0.000524 0.0
0.272071 0.372118 -0.002940 0.0
0.830948 2.108794 0.001382 0.0
1.284429 1.055134 0.005729 0.0
2.661231 1.565499 -0.001290 0.0
3.023644 0.870224 0.002712 0.0
2.833903 0.301497 0.004306 0.0
3.065151 0.988518 -0.001587 0.0
2.811113 2.301904 -0.001103 0.0
3.405688 0.559378 -0.000586 0.0
1.856183 0.545290 0.001814 0.0
1.641026 0.512393 -0.002694 0.0
2.060225 0.939541 -0.004493 0.0
1.817397 1.342023 0.000426 0.0
0.657752 2.117950 0.003457 0.0
2.612742 0.608174 -0.003519 0.0
0.649786 0.318569 -0.000183 0.0
0.731617 0.818937 0.000539 0.0
2.732369 1.927945 0.002720 0.0
0.527158 0.614120 0.001040 0.0
1.051765 1.835080 -0.002665 0.0
0.966383 2.055796 -0.001726 0.0
0.853212 0.346620 -0.000005 0.0
0.529875 2.369640 -0.000970 0.0
1.219649 0.375297 0.001237 0.0
1.810618 0.649611 -0.002556 0.0
1.424440 1.534396 -0.000354 0.0
1.603939 1.573055 -0.002262 0.0
1.299715 0.456496 -0.001317 0.0
3.356863 0.150423 -0.000677 0.0
4.186839 0.094908 0.001917 0.0
3.980062 0.531952 0.000225 0.0
1.235387 0.661903 -0.004724 0.0
4.163142 2.361390 -0.000159 0.0
1.705456 0.729086 0.000117 0.0
3.503274 0.421760 -0.001849 0.0
4.199009 1.953084 0.004288 0.0
3.572337 2.364592 0.002394 0.0
0.182834 0.827606 -0.003834 0.0
2.263704 1.957252 -0.004680 0.0
0.505381 0.422915 -0.002489 0.0
4.094959 1.025647 0.000784 0.0
3.708034 0.244517 -0.004215 0.0
2.588681 0.622834 -0.000494 0.0
3.556149 1.068244 0.005729 0.0
1.327276 1.003349 0.003006 0.0
0.574277 1.779946 0.001124 0.0
3.780935 0.786362 -0.002145 0.0
2.985501 1.493191 -0.000640 0.0
3.258627 1.051705 0.001132 0.0
0.298052 1.619333 -0.003174 0.0
0.992982 1.091820 -0.000706 0.0
2.674113 1.505423 -0.000054 0.0
4.297444 2.287972 0.001386 0.0
0.522599 0.367573 0.006450 0.0
2.078806 1.575527 0.000762 0.0
0.771032 0.095818 -0.003853 0.0
1.508691 1.464318 0.002045 0.0
3.391003 2.367887 -0.000655 0.0
3.284959 1.699709 0.000048 0.0
0.640643 1.681807 0.002928 0.0
4.200027 0.886745 0.000890 0.0
4.071284 1.243780 -0.000702 0.0
0.658412 1.867488 0.007130 0.0
1.664669 1.037297 -0.001390 0.0
2.945074 0.408829 -0.001873 0.0
0.654495 2.281710 -0.000845 0.0
3.575860 0.597487 -0.005816 0.0
3.164618 1.085947 -0.001920 0.0
0.294984 1.495520 0.003197 0.0
0.401901 2.116786 0.002025 0.0
0.070949 1.097202 0.002449 0.0
2.552788 1.693207 0.000266 0.0
3.674443 1.706298 0.004646 0.0
1.003618 1.289211 0.000650 0.0
0.636227 0.478476 0.002399 0.0
3.542427 0.884693 -0.000697 0.0
0.953299 1.525924 -0.002579 0.0
3.280952 1.666692 0.004213 0.0
3.790061 0.066784 -0.001280 0.0
0.783122 2.391493 0.000605 0.0
3.968410 1.217269 0.001921 0.0
0.366958 0.373835 -0.000271 0.0
3.599317 0.964419 -0.005585 0.0
2.785223 0.795902 0.003270 0.0
2.386552 0.384642 0.001951 0.0
0.762273 0.655964 -0.000531 0.0
3.338424 0.702711 0.002356 0.0
3.042368 0.465620 -0.003110 0.0
1.329889 0.386014 -0.000815 0.0
3.381380 0.813347 0.003285 0.0
3.436017 1.854209 0.003949 0.0
0.695884 1.704357 0.000199 0.0
2.365065 1.921098 0.000111 0.0
3.656319 0.286060 0.000475 0.0
2.155576 1.836850 -0.004143 0.0
2.097056 0.128930 0.001253 0.0
1.752758 2.297564 0.000236 0.0
1.440580 1.326182 -0.002498 0.0
2.671243 0.637320 0.003989 0.0
3.940856 2.353566 -0.000897 0.0
4.115949 1.910575 0.002084 0.0
0.537610 1.150082 0.001171 0.0
2.219156 0.709157 -0.004696 0.0
3.916554 0.925849 -0.002789 0.0
2.788289 0.344983 0.000941 0.0
1.153801 2.122724 -0.001803 0.0
2.221026 0.447521 -0.001227 0.0
2.229482 0.786171 0.002286 0.0
1.154642 2.226634 -0.007233 0.0
3.857567 0.426431 -0.000655 0.0
1.402211 1.762316 0.000192 0.0
3.991968 0.202069 0.002420 0.0
2.128960 0.477228 0.000226 0.0
2.087628 1.763577 -0.001614 0.0
3.556304 1.473271 -0.000333 0.0
1.145728 0.649848 0.001104 0.0
3.235797 1.758094 -0.001334 0.0
2.761389 1.700401 0.000050 0.0
4.451423 1.282184 0.000897 0.0
0.018284 1.303041 -0.001516 0.0
3.807229 2.354674 -0.001574 0.0
3.951175 1.635102 -0.001244 0.0
3.137433 0.561187 0.000469 0.0
1.972496 1.237128 -0.000358 0.0
3.239609 1.248760 0.000553 0.0
1.299215 1.851106 -0.001548 0.0
0.721160 0.811861 0.002301 0.0
2.627111 1.923123 -0.004056 0.0
4.081541 0.618740 0.002704 0.0
3.444469 0.425585 -0.001145 0.0
2.626919 0.309116 -0.004642 0.0
0.802878 0.291147 0.000201 0.0
0.158080 1.117476 0.002091 0.0
3.990611 1.370153 0.001023 0.0
1.788688 0.963604 0.001354 0.0
3.232282 0.964614 0.001425 0.0
2.218353 0.368285 -0.001581 0.0
3.012823 1.319993 -0.003941 0.0
4.338298 1.099953 -0.002971 0.0
3.393359 2.136140 -0.001139 0.0
2.561707 1.879881 -0.000214 0.0
2.525708 1.680189 0.006576 0.0
1.128575 1.720795 0.001985 0.0
1.914820 1.751159 0.000278 0.0
2.992091 1.638835 -0.003626 0.0
1.261539 0.311174 -0.002690 0.0
3.603796 1.314858 -0.007086 0.0
3.887281 1.377818 0.001759 0.0
1.359321 0.879315 -0.003261 0.0
1.155167 1.672483 0.005813 0.0
3.142820 0.411275 0.007129 0.0
0.082202 0.365362 -0.001721 0.0
1.318634 0.941755 0.000157 0.0
1.380528 0.960387 -0.000287 0.0
3.697718 0.107228 0.002203 0.0
4.053451 1.672732 0.001091 0.0
1.956911 0.831263 -0.001022 0.0
1.480944 0.302983 -0.000260 0.0
3.629305 1.891950 0.000862 0.0
1.396676 1.644474 0.000573 0.0
3.497800 1.331501 -0.000128 0.0
4.213374 1.771739 0.003196 0.0
3.175200 0.536715 0.003402 0.0
3.184728 1.795770 0.003267 0.0
1.491364 1.577294 -0.002118 0.0
0.379588 2.266784 -0.000865 0.0
4.004336 0.428898 0.000068 0.0
0.848665 0.198612 -0.001991 0.0
4.487502 1.903884 -0.000360 0.0
0.885589 0.971887 0.000021 0.0
4.472571 1.589961 -0.001902 0.0
3.963361 0.404769 -0.002051 0.0
1.415826 0.255434 0.001927 0.0
1.013596 2.047960 0.001352 0.0
3.691197 0.660111 -0.001360 0.0
0.068768 1.623860 0.000326 0.0
0.639425 1.738376 -0.000480 0.0
1.075779 1.107874 -0.000483 0.0
3.857678 1.526379 0.002075 0.0
1.824394 1.616396 0.000272 0.0
3.486519 1.900256 0.000702 0.0
0.911017 1.592649 -0.002822 0.0
0.100071 0.850126 0.003256 0.0
4.117741 0.585926 0.001296 0.0
3.979879 1.957726 0.002690 0.0
2.193636 0.711182 0.002802 0.0
3.404618 1.472756 0.002093 0.0
0.769115 1.568110 -0.000307 0.0
0.569718 2.360998 0.002464 0.0
2.830471 0.756343 -0.000578 0.0
3.669363 2.002266 0.003225 0.0
2.234548 0.409018 0.002518 0.0
0.635769 1.862449 0.002221 0.0
4.303900 2.032479 -0.000363 0.0
2.192995 0.449052 -0.003718 0.0
0.783564 2.106413 0.000976 0.0
2.314174 0.137157 -0.008000 0.0
4.289356 2.348275 -0.000378 0.0
2.787448 1.825976 0.003492 0.0
1.760829 1.278604 0.000215 0.0
2.948596 1.158348 0.000397 0.0
2.743304 1.972362 0.004782 0.0
0.917322 2.277895 0.001935 0.0
3.800400 1.395484 0.001801 0.0
3.665426 2.236555 0.000771 0.0
2.632557 1.820643 0.001565 0.0
1.297206 0.917551 0.002604 0.0
0.990437 2.145848 0.002418 0.0
0.048123 0.881306 -0.001706 0.0
1.963318 2.011084 0.006469 0.0
1.371283 2.113357 -0.000978 0.0
1.553267 1.176430 -0.002820 0.0
1.802497 0.078720 0.000877 0.0
0.411755 0.285935 0.002785 0.0
2.062280 1.117456 -0.000104 0.0
3.608633 1.966350 -0.003911 0.0
2.451890 1.185540 -0.003251 0.0
0.024472 0.001459 -0.002722 0.0
0.334217 1.259354 -0.001941 0.0
2.731167 0.483382 -0.005467 0.0
0.925247 1.914767 -0.000547 0.0
0.151238 1.484674 0.004255 0.0
2.873128 2.296332 0.003835 0.0
1.749917 1.433263 0.000476 0.0
1.975410 1.068157 0.004075 0.0
3.210235 0.237705 -0.000846 0.0
0.543367 0.427957 0.001610 0.0
1.559118 0.183774 0.004632 0.0
4.274730 0.375704 0.001109 0.0
0.059298 1.644599 -0.001432 0.0
3.163988 0.077012 0.002972 0.0
1.927893 0.350843 -0.004071 0.0
3.644238 1.325192 0.001551 0.0
3.798347 1.550128 -0.002673 0.0
3.620188 1.982819 -0.000590 0.0
4.479839 1.354707 -0.000341 0.0
1.453051 0.887393 0.003508 0.0
2.288534 1.262290 0.001072 0.0
3.397863 0.206549 0.004205 0.0
1.298904 0.594229 0.000960 0.0
4.170273 2.058820 -0.002378 0.0
1.322749 0.899095 -0.001325 0.0
2.297177 2.322925 0.004350 0.0
3.982020 0.393443 -0.005785 0.0
1.424343 1.526530 -0.000430 0.0
4.211922 2.391384 0.004124 0.0
4.412257 0.250040 0.002471 0.0
0.148841 1.183224 0.000113 0.0
3.987567 1.349467 -0.001562 0.0
4.483907 1.207766 0.001072 0.0
2.995570 1.730854 0.001097 0.0
2.981201 2.185799 -0.006266 0.0
4.197274 1.714603 -0.001224 0.0
2.716945 0.318312 -0.002650 0.0
4.451978 0.828859 0.001108 0.0
0.482616 1.839389 -0.001528 0.0
1.580076 0.991230 0.001790 0.0
1.040558 0.535200 -0.002990 0.0
4.472883 2.132944 -0.002100 0.0
1.250353 0.579704 -0.001290 0.0
1.601822 1.965589 0.000171 0.0
0.894297 1.736382 0.001840 0.0
3.418886 1.437896 0.005023 0.0
0.281271 0.886877 0.001576 0.0
1.432688 0.520658 0.000133 0.0
4.351113 1.321547 0.004929 0.0
1.596047 0.140296 0.002723 0.0
0.113140 1.543929 0.004694 0.0
1.049671 0.547378 0.004063 0.0
3.518973 0.610262 0.000637 0.0
2.362725 0.137900 0.002490 0.0
3.878865 1.494243 -0.003021 0.0
0.130593 1.844184 -0.000404 0.0
3.802374 1.700730 -0.002838 0.0
2.734858 1.236957 0.002861 0.0
4.194247 1.032076 0.004690 0.0
2.181864 2.372742 0.000425 0.0
1.040499 2.288694 -0.002545 0.0
2.137715 1.618497 0.000206 0.0
2.458525 0.532702 -0.001213 0.0
1.670332 1.994543 0.003074 0.0
2.473112 1.019231 0.000889 0.0
1.673980 0.180989 0.002573 0.0
2.448368 0.928710 -0.001939 0.0
0.897110 1.794692 -0.001002 0.0
2.652446 1.948609 0.000941 0.0
2.496491 1.488683 -0.000161 0.0
0.484401 1.412421 -0.002871 0.0
0.692650 0.784028 -0.003032 0.0
1.245367 0.475063 0.004264 0.0
3.075437 1.543582 -0.000686 0.0
2.010075 0.527149 -0.000390 0.0
3.257416 1.272174 0.008820 0.0
2.319926 2.168840 -0.000768 0.0
2.409152 0.372625 0.002727 0.0
4.162583 0.821919 0.003389 0.0
1.419817 2.278963 0.002687 0.0
2.942347 1.858927 0.000592 0.0
3.160000 0.519821 -0.002261 0.0
1.655375 2.141947 -0.001264 0.0
0.952622 1.667498 -0.001133 0.0
2.441122 0.867231 -0.002308 0.0
2.714316 2.260379 -0.001378 0.0
3.090264 0.433610 0.000139 0.0
4.465731 1.579021 0.007509 0.0
3.558509 0.318783 -0.000491 0.0
1.683525 0.501172 0.000077 0.0
3.417573 0.641951 0.000207 0.0
0.463125 1.808669 0.001750 0.0
0.868038 0.064684 0.004397 0.0
3.908253 2.237768 0.002289 0.0
0.300227 1.233268 0.002281 0.0
4.309311 0.578121 -0.007246 0.0
1.869019 1.686206 0.001256 0.0
2.795958 1.196658 0.004556 0.0
3.557859 1.948431 0.000120 0.0
2.921618 0.995452 -0.003342 0.0
3.708672 2.054903 -0.005737 0.0
1.332082 0.588365 0.001040 0.0
1.531062 0.259976 -0.000429 0.0
1.123010 1.772566 0.001931 0.0
0.115794 0.409102 -0.000557 0.0
0.825539 2.416225 -0.002074 0.0
3.320382 2.341974 0.001576 0.0
1.583676 0.541792 0.001802 0.0
3.945024 1.776949 0.002928 0.0
1.299266 1.817036 -0.003800 0.0
1.387787 2.126945 0.001263 0.0
0.072128 1.169464 0.000496 0.0
0.208451 0.035065 -0.003040 0.0
2.562535 0.783506 -0.002583 0.0
2.611846 2.363121 0.000410 0.0
1.328261 0.975467 0.002893 0.0
2.463580 0.990110 -0.002228 0.0
2.245809 0.470200 0.001913 0.0
1.605728 1.366275 0.001895 0.0
1.925804 0.655193 0.003814 0.0
1.053929 0.503004 0.003270 0.0
0.641628 0.080508 0.001550 0.0
1.419776 2.249555 0.002437 0.0
4.034834 1.865220 0.000334 0.0
2.713004 0.100955 0.003036 0.0
1.056255 0.255562 0.005893 0.0
0.126854 0.864107 -0.000396 0.0
2.141643 0.761542 0.000443 0.0
0.728547 1.711519 -0.002507 0.0
4.328155 0.117432 0.003617 0.0
2.482573 1.942054 -0.002974 0.0
3.940562 1.641232 -0.000618 0.0
3.148504 0.160546 -0.002931 0.0
0.816497 2.195912 -0.004155 0.0
3.040631 0.670538 -0.001941 0.0
3.057727 1.663874 -0.002446 0.0
1.197934 0.529938 -0.001399 0.0
4.314683 1.692291 0.005365 0.0
0.791253 0.229807 -0.001672 0.0
2.653627 0.284397 -0.002349 0.0
4.104828 0.066963 -0.000846 0.0
1.010196 0.697260 0.001551 0.0
4.190934 0.911813 -0.002091 0.0
1.021645 1.084620 -0.004081 0.0
1.217904 0.737064 -0.002194 0.0
3.344092 1.024853 0.000024 0.0
3.603063 1.026539 -0.000246 0.0
0.194851 2.018038 -0.003445 0.0
0.577381 1.749700 0.002230 0.0
4.159916 0.849788 0.000771 0.0
4.033551 0.770698 0.002873 0.0
1.925105 2.224857 -0.000365 0.0
1.310147 1.119398 0.003843 0.0
3.188664 2.397722 -0.002747 0.0
1.421189 2.261549 -0.003562 0.0
1.610551 0.929400 -0.003463 0.0
3.863560 1.292826 0.000245 0.0
2.309325 0.842757 0.000648 0.0
1.939345 0.740022 0.004922 0.0
2.591528 0.802740 -0.002146 0.0
3.403303 1.902444 0.000104 0.0
1.341422 0.329791 -0.004537 0.0
1.895768 1.277671 0.002717 0.0
1.332205 0.812698 -0.004874 0.0
2.906093 2.241248 0.003627 0.0
1.075196 2.306791 -0.000655 0.0
0.745721 1.988067 -0.003671 0.0
0.535892 1.966192 0.002128 0.0
3.535437 0.923026 0.005240 0.0
1.948781 0.161561 -0.000071 0.0
0.044668 0.508642 0.003441 0.0
3.027295 1.944670 -0.003077 0.0
3.699354 1.799095 0.000071 0.0
0.586310 0.065025 0.001091 0.0
0.303621 1.790526 0.000761 0.0
1.104740 0.757594 -0.003384 0.0
2.728210 1.953372 0.002377 0.0
2.296047 1.534425 0.002287 0.0
2.727737 1.782209 -0.004083 0.0
1.846506 1.137906 -0.000226 0.0
4.162984 1.878957 0.001515 0.0
1.489230 0.405054 0.000957 0.0
1.184727 0.482048 0.002240 0.0
0.656438 0.722638 -0.003039 0.0
3.355997 0.470424 -0.000711 0.0
0.895592 0.308901 -0.002010 0.0
1.691511 1.984617 0.005288 0.0
1.364593 2.204623 -0.001819 0.0
2.143499 1.008436 -0.000595 0.0
3.886206 1.408385 0.002887 0.0
1.943697 1.709045 -0.004880 0.0
1.327148 0.537852 0.005494 0.0
4.364527 1.261332 -0.003874 0.0
3.348811 2.248682 0.002229 0.0
2.653306 0.583947 0.004992 0.0
0.911895 0.617300 -0.002700 0.0
3.979012 1.382955 -0.001681 0.0
0.983260 1.672412 0.000058 0.0
1.793811 2.059804 -0.003293 0.0
2.532117 2.192372 -0.004810 0.0
0.776524 1.595662 0.003402 0.0
0.681034 1.850877 0.003901 0.0
4.215375 2.379582 -0.003144 0.0
1.507463 1.665537 -0.002162 0.0
4.164219 1.415787 -0.002580 0.0
1.595130 0.900633 0.002141 0.0
1.269378 0.590698 0.001944 0.0
0.056443 0.959768 0.000669 0.0
1.009977 0.906985 -0.001232 0.0
2.337899 0.267624 0.000338 0.0
2.445557 2.300633 -0.000074 0.0
0.808389 2.027461 -0.001051 0.0
2.486800 0.785649 0.001113 0.0
4.498349 2.146108 0.000093 0.0
0.403792 1.413892 -0.000516 0.0
4.460933 1.002495 -0.003095 0.0
3.569815 1.766655 -0.003659 0.0
3.696522 2.402079 0.003086 0.0
3.995429 1.095453 0.001694 0.0
2.755083 0.773427 -0.001252 0.0
2.680203 0.596074 -0.003754 0.0
3.885759 0.550849 -0.000687 0.0
2.174828 1.791986 0.000005 0.0
1.336703 1.289222 0.000863 0.0
2.309328 0.349174 -0.004387 0.0
1.500311 1.394963 -0.000080 0.0
0.558939 1.183602 -0.002179 0.0
2.413384 2.110766 0.004704 0.0
0.645461 1.459742 0.001327 0.0
1.329682 1.542254 -0.001771 0.0
2.007150 1.232552 -0.001352 0.0
0.316041 1.954169 0.000230 0.0
3.460611 1.082960 0.002455 0.0
3.473390 0.203444 -0.002286 0.0
4.109731 0.364042 0.003031 0.0
0.628296 0.693898 0.007915 0.0
1.125243 0.912684 -0.003162 0.0
2.598569 0.426149 -0.005563 0.0
2.575662 1.260911 0.000188 0.0
0.575025 1.932157 0.002613 0.0
2.170706 0.830875 -0.006486 0.0
2.052894 0.118123 -0.004316 0.0
0.779184 0.840243 -0.004850 0.0
2.930693 1.800146 0.000370 0.0
2.285656 0.315994 -0.000638 0.0
3.620938 1.309371 0.001524 0.0
3.655079 2.028729 -0.000416 0.0
2.000577 2.366517 0.000741 0.0
0.330785 1.648646 -0.001790 0.0
3.113307 1.167074 0.001318 0.0
0.052034 1.966929 -0.001115 0.0
0.175205 2.409808 0.001374 0.0
0.214475 2.281075 0.003524 0.0
2.539198 2.089424 -0.000745 0.0
2.408175 1.368987 0.001481 0.0
0.071653 1.423133 -0.000895 0.0
3.765787 0.486347 0.000624 0.0
1.385192 2.163236 0.002141 0.0
2.464230 0.056554 0.002810 0.0
3.670118 1.145751 -0.001422 0.0
1.513091 0.089593 -0.001260 0.0
1.172166 0.482877 -0.002153 0.0
2.302674 0.742950 -0.000304 0.0
2.286674 1.706384 0.002135 0.0
2.328197 1.224032 -0.001334 0.0
3.739508 0.113654 -0.003452 0.0
3.322745 1.482200 -0.000357 0.0
1.073104 0.288665 0.001486 0.0
2.855981 1.497628 0.002179 0.0
3.586136 2.379065 -0.000616 0.0
2.563804 1.006818 -0.003338 0.0
2.215162 0.551185 0.001749 0.0
4.048782 0.043527 -0.000414 0.0
1.132461 0.916109 -0.002200 0.0
1.551737 2.255894 0.000578 0.0
1.129674 0.709286 0.000971 0.0
0.162879 0.420817 0.000335 0.0
1.630012 2.351121 -0.001033 0.0
1.527901 2.370697 -0.000538 0.0
2.824636 1.285967 0.003937 0.0
0.136704 1.405466 -0.001076 0.0
1.267988 1.848457 0.000859 0.0
0.580514 0.700111 0.000714 0.0
2.252241 1.605345 -0.000809 0.0
4.301582 0.733496 0.003375 0.0
2.223333 1.208340 0.002375 0.0
3.037756 0.996546 -0.002497 0.0
0.452196 1.704598 -0.001835 0.0
0.543209 1.954523 0.001103 0.0
4.087548 0.936167 0.003059 0.0
2.612986 0.596272 -0.000846 0.0
3.833794 0.181644 -0.001000 0.0
4.474219 0.215034 -0.001746 0.0
2.314089 0.284555 0.002325 0.0
1.348678 2.146957 0.000555 0.0
3.025862 0.020710 -0.000215 0.0
2.476254 1.911500 -0.004021 0.0
0.014774 0.406824 0.002883 0.0
1.953505 2.348035 -0.002469 0.0
0.394326 0.162150 -0.000350 0.0
3.364058 0.291482 0.002059 0.0
0.653719 1.896909 0.001365 0.0
0.541769 0.582899 -0.002300 0.0
2.762744 0.566766 -0.001301 0.0
3.094573 0.516960 0.000394 0.0
1.318094 0.122811 0.004515 0.0
3.858902 2.150811 -0.001642 0.0
1.637875 0.118028 -0.001230 0.0
0.611563 0.750798 0.001080 0.0
4.117203 2.357521 -0.001288 0.0
2.421921 0.644792 -0.001485 0.0
0.725645 1.067917 -0.002644 0.0
2.241863 1.387745 0.002278 0.0
3.859262 1.316920 0.001174 0.0
2.756846 0.817819 0.002663 0.0
2.659814 1.329767 -0.002358 0.0
4.424017 0.690654 -0.001818 0.0
3.393676 1.937426 -0.002333 0.0
4.401746 0.286521 0.001691 0.0
3.971416 0.980698 0.003399 0.0
2.631283 2.096272 -0.003279 0.0
3.819986 1.121680 0.001689 0.0
1.676040 0.545081 -0.000303 0.0
4.403430 2.377349 -0.004204 0.0
4.023644 0.714649 -0.000071 0.0
4.512655 1.720245 0.002973 0.0
1.998859 0.277757 -0.003306 0.0
3.029736 0.904248 -0.003297 0.0
0.223543 0.823183 -0.002409 0.0
4.182526 0.817922 -0.006670 0.0
4.262719 1.262392 -0.000996 0.0
0.241376 2.237746 -0.005896 0.0
0.579949 2.055443 -0.001167 0.0
3.489555 1.043236 -0.000200 0.0
