3.34073152 2.02436662 0.00087538 0.00000000
1.11977353 0.22467507 -0.00084137 0.00000000
2.03481506 1.75725506 0.00169661 0.00000000
2.09609631 0.11860541 -0.00232565 0.00000000
1.53971875 0.91821948 -0.00316331 0.00000000
0.37682195 0.17542130 0.00149598 0.00000000
4.45441586 1.84794382 -0.00198064 0.00000000
1.75331835 0.65842989 0.00132999 0.00000000
2.78693200 2.06066558 0.00200192 0.00000000
2.05426089 0.95384315 -0.00358419 0.00000000
3.33523525 0.17541222 -0.00033424 0.00000000
4.01464574 0.65212536 0.00203500 0.00000000
2.65604950 0.17419947 0.00229234 0.00000000
2.83677573 1.57060190 0.00153503 0.00000000
2.81475933 0.03382037 0.00314521 0.00000000
3.73299252 0.26838447 -0.00213357 0.00000000
0.08349057 1.54838047 0.00109828 0.00000000
4.24152664 1.86166094 -0.00024816 0.00000000
1.02204867 1.59374702 -0.00045686 0.00000000
0.59508737 0.34080748 -0.00410739 0.00000000
0.08558511 0.40336128 -0.00255417 0.00000000
1.61759999 0.62541989 0.00197097 0.00000000
0.32616175 0.49028137 -0.00042611 0.00000000
3.25710617 1.71833772 0.00039274 0.00000000
0.79651041 1.60600716 -0.00065851 0.00000000
0.68536237 0.36015103 0.00047538 0.00000000
2.40183438 1.85783667 -0.00549388 0.00000000
3.19971072 1.25741284 0.00315398 0.00000000
0.93974864 1.09406812 0.00149595 0.00000000
3.52485410 1.85252586 -0.00195643 0.00000000
2.07157782 0.72088617 0.00312654 0.00000000
3.55708803 0.61498117 -0.00223662 0.00000000
1.42006028 1.31730014 -0.00283050 0.00000000
3.85300716 1.07578790 -0.00033335 0.00000000
3.06089409 1.68112303 -0.00114777 0.00000000
0.54043964 0.34518867 0.00681537 0.00000000
3.27673002 0.71118442 0.00152723 0.00000000
0.74575904 2.02942193 -0.00018513 0.00000000
1.14526272 1.76310669 -0.00136139 0.00000000
0.40986751 1.13482802 -0.00074242 0.00000000
0.92842757 1.18542991 0.00243092 0.00000000
4.46746042 1.05173563 0.00114437 0.00000000
1.85196342 0.59385757 -0.00015926 0.00000000
3.01477335 1.86105989 0.00441132 0.00000000
2.50967578 1.24174295 0.00091151 0.00000000
3.29143551 0.88970921 0.00476815 0.00000000
4.46827600 1.65471089 -0.00179441 0.00000000
2.90894227 1.37628273 -0.00506639 0.00000000
1.06060102 1.45821629 0.00002552 0.00000000
3.46243545 0.05586105 0.00232485 0.00000000
4.30645566 1.37392966 -0.00131909 0.00000000
2.75158182 0.06674709 0.00018343 0.00000000
2.67080971 0.62426225 0.00042934 0.00000000
3.79899269 1.30569112 0.00395200 0.00000000
3.16317471 1.66243468 -0.00037478 0.00000000
3.45966801 1.91068023 -0.00336481 0.00000000
3.89334961 1.39451051 0.00050536 0.00000000
3.97648545 1.33754019 0.00296398 0.00000000
2.15115308 1.42894430 -0.00090995 0.00000000
0.70143428 1.16072376 -0.00382715 0.00000000
4.30215448 1.49544506 0.00587879 0.00000000
1.12210663 1.55032135 -0.00203570 0.00000000
2.39804032 0.97397814 -0.00040032 0.00000000
1.65609291 0.66442768 0.00340440 0.00000000
1.98475630 1.30944700 -0.00282453 0.00000000
3.85600769 1.77100088 -0.00066994 0.00000000
0.03533911 1.33626140 0.00143658 0.00000000
3.92174477 0.05464716 0.00195879 0.00000000
0.97033796 1.02634459 0.00074528 0.00000000
3.61372441 1.23000612 -0.00109890 0.00000000
3.20242587 0.38178473 -0.00569331 0.00000000
0.30470692 2.02969533 -0.00665132 0.00000000
4.05662073 1.13717305 -0.00042047 0.00000000
1.57089180 0.69651772 -0.00062677 0.00000000
3.62670439 0.94407096 -0.00051712 0.00000000
2.98807762 0.68107335 -0.00251135 0.00000000
2.89849632 0.45957423 0.00198240 0.00000000
1.00561111 0.35490640 0.00316146 0.00000000
3.93982164 1.46813157 0.00089155 0.00000000
3.48160649 1.47613478 -0.00243284 0.00000000
1.24637055 0.28671734 0.00439217 0.00000000
3.78415090 1.41133270 -0.00128053 0.00000000
4.09467581 0.32535029 -0.00053055 0.00000000
1.79476768 0.64891618 -0.00071052 0.00000000
2.76269989 1.14642095 0.00289804 0.00000000
4.07084955 0.05716613 -0.00445913 0.00000000
1.26502899 1.01494467 0.00377267 0.00000000
0.90458302 0.77560122 -0.00284738 0.00000000
3.93095735 0.86469355 0.00127866 0.00000000
4.22838226 1.76310427 -0.00095351 0.00000000
2.45450946 1.23433582 -0.00134425 0.00000000
2.84236530 1.87382404 -0.00153627 0.00000000
4.22942536 0.14321660 -0.00161011 0.00000000
1.62446858 1.35715107 -0.00167077 0.00000000
0.70314442 1.88459876 -0.00221221 0.00000000
3.80660921 0.75004338 -0.00368003 0.00000000
3.73620372 0.28258381 0.00135969 0.00000000
0.62644102 1.42334763 -0.00444526 0.00000000
2.34681904 1.44842819 -0.00086006 0.00000000
2.24392363 1.26651391 -0.00109266 0.00000000
3.22207632 0.05715241 -0.00032187 0.00000000
1.84836882 0.05873806 0.00251228 0.00000000
2.12511415 1.44739725 -0.00218377 0.00000000
4.31374167 0.40017851 -0.00553778 0.00000000
3.55413488 1.47989723 -0.00391210 0.00000000
3.72023772 1.17932059 -0.00317916 0.00000000
0.27003443 1.15574167 0.00722498 0.00000000
2.90623259 0.50973581 0.00330447 0.00000000
2.06894660 0.02810032 -0.00159556 0.00000000
3.24105085 1.64757643 -0.00101337 0.00000000
3.34847759 1.52339183 0.00087805 0.00000000
2.17695079 1.28026143 -0.00151594 0.00000000
1.72584343 1.26294441 -0.00187600 0.00000000
3.38780552 1.43058412 -0.00035120 0.00000000
1.14610485 0.34014049 -0.00171525 0.00000000
3.15525278 0.78438122 0.00093035 0.00000000
2.35479958 1.51543512 0.00067527 0.00000000
0.78433663 1.48422518 0.00318510 0.00000000
2.47485999 1.50915842 -0.00182933 0.00000000
0.63236797 0.04881855 -0.00238956 0.00000000
2.15793741 1.19020489 0.00035432 0.00000000
2.56696498 1.37842126 0.00053082 0.00000000
1.51045018 1.54926997 -0.00072733 0.00000000
0.38736099 1.11849285 0.00398484 0.00000000
1.83950620 0.97789754 0.00042859 0.00000000
0.90890049 1.61490229 0.00128133 0.00000000
0.97697649 1.44530098 0.00283910 0.00000000
4.11882317 1.79113840 0.00319089 0.00000000
2.04962427 0.98493162 0.00205512 0.00000000
1.70000278 1.93269445 0.00139473 0.00000000
4.17545027 1.46898215 -0.00265566 0.00000000
1.06144166 0.27859969 -0.00245087 0.00000000
1.96855670 1.18614915 0.00243535 0.00000000
0.02706764 0.18133686 0.00191906 0.00000000
2.71564204 1.43388449 -0.00146526 0.00000000
3.75563053 1.61374975 0.00164701 0.00000000
4.39674479 1.01693518 -0.00128318 0.00000000
2.34044489 1.30431322 0.00087527 0.00000000
2.31366572 0.94590582 -0.00266775 0.00000000
3.20283995 1.45555239 -0.00332963 0.00000000
3.08233340 1.02845069 0.00149698 0.00000000
0.60500327 0.52164515 0.00163209 0.00000000
0.28231749 0.37409588 0.00116071 0.00000000
2.97530687 0.13107536 -0.00615875 0.00000000
1.05841739 2.00764390 -0.00075490 0.00000000
1.10555964 0.21526844 -0.00176060 0.00000000
3.93553236 1.36821807 0.00097908 0.00000000
0.56237494 0.04677692 0.00022041 0.00000000
2.61768096 0.99534952 0.00048266 0.00000000
2.00007716 0.04875223 -0.00005790 0.00000000
2.50854188 0.22308635 0.00105344 0.00000000
0.65762229 1.18035137 0.00357450 0.00000000
3.01735158 1.13434574 0.00446226 0.00000000
2.66487828 1.71043108 0.00092312 0.00000000
0.49189054 1.30396077 -0.00047025 0.00000000
1.06123773 0.13803352 -0.00084899 0.00000000
1.50671049 0.54102940 0.00426489 0.00000000
0.23045840 1.82804849 0.00286779 0.00000000
2.63235845 0.59759572 0.00047508 0.00000000
0.50599731 1.19055098 0.00647209 0.00000000
1.07985910 1.50944452 0.00210032 0.00000000
4.29590369 0.75331285 0.00261288 0.00000000
3.56146861 0.07883734 -0.00016172 0.00000000
3.65945742 1.27237896 -0.00172517 0.00000000
3.04799939 0.20519358 -0.00138321 0.00000000
3.75154851 1.08130962 -0.00231112 0.00000000
3.23798759 2.00535394 -0.00290002 0.00000000
2.53635784 1.68512735 0.00256967 0.00000000
2.34990252 0.16533283 -0.00199923 0.00000000
3.91434953 0.11417716 -0.00814763 0.00000000
4.36490748 0.09630116 -0.00037871 0.00000000
0.30110425 0.66505274 -0.00266253 0.00000000
0.82789390 0.72353910 -0.00059606 0.00000000
3.56488975 1.29305043 -0.00379910 0.00000000
1.04545102 1.15900598 -0.00020646 0.00000000
1.29814880 0.16549263 0.00268531 0.00000000
3.41545706 0.01936016 -0.00264855 0.00000000
1.82171869 1.08472435 0.00014548 0.00000000
0.79281915 0.06044683 0.00195604 0.00000000
1.79775059 0.53326220 -0.00339507 0.00000000
2.76318878 0.56389565 -0.00252084 0.00000000
4.45032612 1.54433025 -0.00343561 0.00000000
1.75925278 0.51604493 0.00067017 0.00000000
3.51281725 0.70855638 -0.00337768 0.00000000
0.61633714 1.72701568 0.00456910 0.00000000
0.77625703 0.59291641 -0.00099598 0.00000000
3.13259488 0.37794974 -0.00179850 0.00000000
0.87512938 1.45072619 -0.00129230 0.00000000
1.17119579 1.00625106 0.00084175 0.00000000
4.49005075 0.42525067 -0.00173681 0.00000000
3.37969281 0.76436561 -0.00088615 0.00000000
4.27237582 0.88010046 0.00159836 0.00000000
0.80132851 1.42675842 0.00128547 0.00000000
3.39094403 1.42115077 0.00012185 0.00000000
0.42462001 1.64787032 0.00380408 0.00000000
4.44072981 1.98295875 -0.00105412 0.00000000
2.21002298 1.12553898 0.00244147 0.00000000
1.54472892 0.19945349 0.00099688 0.00000000
2.87078302 1.14737874 -0.00030504 0.00000000
1.76198620 0.82120738 0.00245740 0.00000000
2.08635256 1.12944711 0.00132321 0.00000000
3.48517007 0.80494432 -0.00062330 0.00000000
0.71954633 1.61338675 -0.00183304 0.00000000
4.03768740 0.25456593 0.00067463 0.00000000
2.18332218 2.03474562 0.00201860 0.00000000
2.45815620 0.69700646 -0.00381219 0.00000000
0.34217054 0.10932632 -0.00378889 0.00000000
3.79448107 0.34798337 0.00115413 0.00000000
2.67828143 1.60398002 -0.00019612 0.00000000
2.11981191 1.88552657 0.00185836 0.00000000
4.38618613 0.88103522 0.00251976 0.00000000
0.46953456 0.83132194 0.00251406 0.00000000
0.39180276 1.96094975 0.00303781 0.00000000
2.70470515 0.64205164 0.00301935 0.00000000
1.67651956 0.64228806 0.00201747 0.00000000
3.01976638 0.01982017 -0.00218173 0.00000000
1.03424572 1.11829143 0.00168328 0.00000000
1.07882441 1.26727295 0.00081876 0.00000000
0.97123015 1.51557853 -0.00284213 0.00000000
1.71962546 1.50408605 -0.00017937 0.00000000
3.36289910 1.66960340 0.00104948 0.00000000
2.68383127 1.95115078 -0.00117180 0.00000000
1.43022692 1.85927665 0.00099841 0.00000000
4.22462656 1.05815519 -0.00257650 0.00000000
2.57916928 1.56531977 -0.00242393 0.00000000
3.88440581 0.67365651 0.00266896 0.00000000
2.49441722 0.49638013 -0.00034405 0.00000000
1.67909666 1.24680182 -0.00038104 0.00000000
0.94342504 1.27747672 0.00442333 0.00000000
3.62107522 0.90765443 -0.00086653 0.00000000
3.32261334 1.46168229 0.00005969 0.00000000
3.86763846 1.13867077 -0.00415645 0.00000000
0.45207854 1.19366619 0.00457375 0.00000000
4.15728226 1.07644952 0.00605237 0.00000000
3.78334280 1.05684186 0.00083880 0.00000000
0.92435017 0.85214537 -0.00177169 0.00000000
2.16551552 1.99421441 -0.00127324 0.00000000
0.28400642 0.67937348 0.00023378 0.00000000
3.00002616 0.80644152 0.00136888 0.00000000
2.28380597 0.81755346 -0.00329811 0.00000000
3.34922434 0.25560217 0.00002653 0.00000000
3.52215562 0.23689824 -0.00397893 0.00000000
4.03054910 1.69199649 0.00024212 0.00000000
1.72448209 1.09930712 0.00154821 0.00000000
2.06923607 0.20614020 0.00464611 0.00000000
1.15590732 1.91975192 0.00483856 0.00000000
3.62981062 0.72197092 -0.00538337 0.00000000
2.90042488 0.34000830 -0.00085418 0.00000000
1.82966825 0.42054448 -0.00187294 0.00000000
2.88684370 1.74595885 0.00207576 0.00000000
0.92066885 1.78144877 0.00004016 0.00000000
3.37714874 1.66134594 0.00389009 0.00000000
1.96092177 1.08814924 0.00242151 0.00000000
4.42508338 1.92804822 0.00157148 0.00000000
3.65010729 2.01074740 -0.00182218 0.00000000
1.46390899 2.03107763 0.00023126 0.00000000
2.26510364 0.86652702 0.00099547 0.00000000
2.88206420 0.53387953 -0.00118720 0.00000000
1.30512132 1.71520483 -0.00053621 0.00000000
2.55586700 1.94506047 0.00044787 0.00000000
3.73003541 1.83010361 -0.00070443 0.00000000
2.66172275 2.07067020 0.00136109 0.00000000
3.82334865 1.67047663 0.00630742 0.00000000
3.35373796 0.15704856 -0.00064931 0.00000000
0.95493613 1.11111838 0.00265642 0.00000000
1.91911289 1.24576582 0.00098810 0.00000000
2.87696341 0.28953740 0.00056112 0.00000000
3.38679971 1.15704486 -0.00191910 0.00000000
4.00569762 1.34673972 0.00174031 0.00000000
2.12341160 0.65171833 0.00248838 0.00000000
3.36849290 1.42619147 -0.00364612 0.00000000
0.33315224 0.00819688 -0.00275409 0.00000000
4.26471527 1.28662917 -0.00179257 0.00000000
4.45562048 0.30898142 -0.00008410 0.00000000
3.94217032 0.26580365 0.00318933 0.00000000
0.36084891 0.28463864 -0.00466412 0.00000000
3.65239296 0.98113365 -0.00180784 0.00000000
3.17718741 1.64858309 0.00347343 0.00000000
2.36503625 1.47847963 -0.00241260 0.00000000
1.96058469 2.05194942 -0.00075767 0.00000000
3.84328410 1.08316225 0.00040738 0.00000000
3.05475467 1.30089760 -0.00133497 0.00000000
2.61395183 0.17273088 0.00511772 0.00000000
1.35927032 0.87063151 -0.00330744 0.00000000
2.39581223 0.58095457 -0.00151194 0.00000000
2.73833364 1.45467666 0.00207453 0.00000000
1.16089435 1.25196526 0.00023696 0.00000000
3.06659530 1.41419202 -0.00386735 0.00000000
0.79362804 0.35272475 -0.00039365 0.00000000
3.26968949 1.12915445 0.00204473 0.00000000
3.40440475 0.65626674 0.00300465 0.00000000
1.58258401 1.99221438 -0.00357759 0.00000000
1.69427745 1.92737642 -0.00286984 0.00000000
1.36517489 1.79384494 0.00004093 0.00000000
1.57769711 0.33982052 -0.00021196 0.00000000
3.21425110 0.39719971 0.00143304 0.00000000
3.49537001 1.86662486 0.00200614 0.00000000
1.62151593 0.10257478 -0.00134445 0.00000000
3.06335259 0.00306751 0.00023124 0.00000000
4.11081734 0.28562956 0.00036055 0.00000000
2.12416695 0.46260896 -0.00007821 0.00000000
0.01746422 1.34512956 0.00239962 0.00000000
0.29479632 0.83546009 -0.00112077 0.00000000
0.18063626 0.88719791 -0.00231839 0.00000000
2.79574940 0.32240237 -0.00094537 0.00000000
1.47743138 0.79960211 -0.00235369 0.00000000
3.26761560 0.77794647 -0.00039926 0.00000000
3.73593080 1.20621271 0.00081970 0.00000000
2.25582106 1.71434896 0.00417370 0.00000000
1.26156763 1.11329170 -0.00306202 0.00000000
3.70854074 0.45503563 -0.00125465 0.00000000
2.78363108 1.91297857 -0.00158793 0.00000000
3.36680194 0.42995307 0.00057460 0.00000000
1.75784132 0.44998806 -0.00033266 0.00000000
0.42030386 1.10267571 0.00096172 0.00000000
4.02821874 0.68888201 -0.00154619 0.00000000
0.89430195 0.97716882 0.00029152 0.00000000
4.12641663 0.49551145 0.00375654 0.00000000
0.98109749 0.71476303 0.00025863 0.00000000
0.84582725 1.19851761 0.00261043 0.00000000
3.02608643 0.34470308 0.00340482 0.00000000
3.95590901 1.82023817 -0.00095491 0.00000000
2.59130912 1.76196895 0.00024969 0.00000000
1.01024143 1.61515818 0.00089040 0.00000000
2.50923886 1.79355222 0.00127409 0.00000000
2.86049096 1.05494006 0.00279958 0.00000000
3.10683958 0.29630685 -0.00149203 0.00000000
1.47053852 0.41830891 0.00173172 0.00000000
3.23473450 1.39938822 0.00149865 0.00000000
2.05432640 0.49169394 -0.00238238 0.00000000
4.45738792 0.81133236 0.00073264 0.00000000
2.32475899 1.19694174 0.00149052 0.00000000
3.66666836 0.72627138 -0.00005618 0.00000000
3.82942500 1.88319533 -0.00058338 0.00000000
2.27273536 0.27459104 -0.00083331 0.00000000
0.72324284 1.33755518 -0.00100462 0.00000000
3.35027378 1.73954139 0.00042655 0.00000000
3.64842645 1.66947388 0.00087792 0.00000000
3.09284878 0.64839976 0.00522463 0.00000000
2.82114383 0.69690642 0.00104082 0.00000000
3.90209829 2.04065594 0.00000801 0.00000000
3.73973841 1.42285429 0.00041164 0.00000000
3.64939915 2.01051681 -0.00088190 0.00000000
2.99943200 1.80464253 0.00086435 0.00000000
0.47022953 2.06530550 -0.00231259 0.00000000
1.37779887 0.33733421 -0.00193344 0.00000000
4.43742903 0.46716566 -0.00268544 0.00000000
1.64302868 1.00005845 -0.00641507 0.00000000
3.85682535 0.33941257 0.00097307 0.00000000
0.07957082 0.59686677 0.00202990 0.00000000
3.96937404 1.47812831 -0.00077398 0.00000000
3.40521661 1.23931568 -0.00097565 0.00000000
2.58107708 1.21952823 0.00265251 0.00000000
1.93350815 0.90923114 0.00009271 0.00000000
2.32452881 0.10053842 -0.00106313 0.00000000
2.00254305 1.34888550 -0.00115607 0.00000000
3.27316006 1.61606486 -0.00252714 0.00000000
2.12651768 0.90592215 0.00229990 0.00000000
0.04937478 1.25212604 -0.00709571 0.00000000
0.76007900 1.79436117 0.00220434 0.00000000
3.71332267 0.43761715 -0.00053829 0.00000000
3.85027861 1.39886968 -0.00068410 0.00000000
1.50661175 0.23045441 -0.00067061 0.00000000
1.25998269 0.17550683 -0.00023207 0.00000000
2.58753151 1.63605661 0.00219589 0.00000000
0.93926019 1.82789014 0.00244291 0.00000000
4.21697888 1.44611626 0.00207043 0.00000000
1.88156084 0.39756220 -0.00020464 0.00000000
1.71813263 1.30828939 0.00212172 0.00000000
4.18272608 1.82678095 -0.00775424 0.00000000
4.34101770 1.93688173 0.00275190 0.00000000
4.16659729 1.66943047 0.00432137 0.00000000
3.91659899 0.62199944 -0.00154771 0.00000000
0.07702129 1.59011030 -0.00217243 0.00000000
2.03304282 1.45223493 -0.00065966 0.00000000
3.89519263 1.49130786 -0.00185706 0.00000000
2.93433719 0.40801162 0.00285761 0.00000000
0.56509708 0.61956624 -0.00272456 0.00000000
1.28424636 1.96515566 -0.00018902 0.00000000
1.02784760 1.73658406 -0.00301263 0.00000000
1.30020433 0.81585572 0.00310388 0.00000000
0.83807249 0.38032723 -0.00068378 0.00000000
1.67191019 0.33985997 -0.00164471 0.00000000
2.96025649 1.06886296 -0.00021292 0.00000000
2.11085943 0.48056809 -0.00040396 0.00000000
2.34254354 0.07440123 0.00075061 0.00000000
3.94756643 1.37458882 -0.00025927 0.00000000
0.06389262 0.32256486 0.00060173 0.00000000
3.95326465 1.93836916 -0.00128228 0.00000000
1.94015266 1.29091986 -0.00278161 0.00000000
2.32183946 1.28716553 -0.00043200 0.00000000
2.52808632 0.17245132 -0.00300841 0.00000000
0.17747449 2.03883870 -0.00241358 0.00000000
4.09718744 2.07257063 0.00327835 0.00000000
0.33805225 1.68606794 0.00752105 0.00000000
4.28529332 1.64108064 0.00151484 0.00000000
3.64759947 0.23696784 -0.00060465 0.00000000
2.03517062 0.50396374 -0.00207790 0.00000000
2.03809713 0.81246436 0.00503630 0.00000000
0.08790929 0.34551018 0.00186770 0.00000000
4.47575553 0.11442243 -0.00137548 0.00000000
1.79188761 1.48537454 0.00357130 0.00000000
0.81324526 1.85230509 -0.00213667 0.00000000
0.84936359 1.67369194 0.00216065 0.00000000
2.30978850 0.80449331 -0.00247109 0.00000000
2.31088161 1.26158041 0.00125133 0.00000000
3.02200348 0.52696350 -0.00273094 0.00000000
1.21560476 1.59544481 0.00003957 0.00000000
2.32592558 0.88413266 -0.00205048 0.00000000
4.20879969 1.89862138 -0.00057825 0.00000000
1.07197621 1.14917122 -0.00237295 0.00000000
2.03687446 0.29311976 -0.00083279 0.00000000
1.85976919 0.71007328 0.00345362 0.00000000
2.50223524 1.61526329 0.00391715 0.00000000
1.09829443 1.46195102 0.00240908 0.00000000
2.09141997 0.53804585 0.00324173 0.00000000
2.34860146 1.04710914 0.00294047 0.00000000
1.21185726 1.29576405 -0.00147019 0.00000000
2.56044945 0.99320244 -0.00067853 0.00000000
1.55294523 1.05090694 -0.00220058 0.00000000
2.45685625 1.73277670 0.00248994 0.00000000
0.26335210 0.54527473 -0.00123455 0.00000000
1.09418799 1.69865221 0.00408230 0.00000000
1.19215811 1.35720029 0.00444623 0.00000000
3.43873716 0.35814718 0.00362822 0.00000000
3.18255005 1.34441510 0.00200542 0.00000000
4.27609498 0.07611791 0.00283866 0.00000000
0.96841467 1.13382603 -0.00131643 0.00000000
4.12104845 1.33566156 0.00415163 0.00000000
2.10220815 1.51109966 0.00013283 0.00000000
2.58825995 0.11982400 -0.00203500 0.00000000
1.29702080 0.74813886 -0.00082886 0.00000000
4.25564423 0.99398459 0.00059149 0.00000000
1.56108722 0.95896637 -0.00169191 0.00000000
3.18860016 0.98676562 -0.00083640 0.00000000
0.45611507 0.14216237 0.00123500 0.00000000
1.76757391 0.08844765 -0.00138642 0.00000000
3.01201101 0.99696543 -0.00195748 0.00000000
2.17414417 1.93042132 0.00214193 0.00000000
2.46747364 0.33287377 0.00851990 0.00000000
4.28947380 1.97106245 0.00274056 0.00000000
1.04408297 1.03949007 -0.00496496 0.00000000
1.17720999 1.19262173 0.00655090 0.00000000
0.27249192 1.08609313 -0.00120291 0.00000000
3.68838686 0.28729227 -0.00068919 0.00000000
2.32882464 0.93108861 -0.00240945 0.00000000
0.58997339 1.73282711 0.00088107 0.00000000
2.78484235 0.63318359 0.00171241 0.00000000
2.72765114 1.53857646 -0.00100142 0.00000000
1.49299845 0.72199896 0.00325722 0.00000000
3.78381334 1.53759405 0.00186874 0.00000000
1.24462966 1.45962738 -0.00329294 0.00000000
2.87465708 0.36842411 0.00325124 0.00000000
3.88937123 0.54504703 0.00296969 0.00000000
1.42738189 1.99780251 0.00244735 0.00000000
0.50461756 0.13402102 0.00404350 0.00000000
1.68584451 0.34761885 -0.00099774 0.00000000
3.00134990 2.05075477 -0.00196202 0.00000000
2.14188195 0.98180299 0.00561128 0.00000000
1.24245375 0.74572798 0.00200490 0.00000000
0.14083991 1.89140354 -0.00243984 0.00000000
1.20188688 0.19100503 -0.00096146 0.00000000
2.16555381 1.14850089 -0.00317238 0.00000000
1.13936860 0.71939491 0.00430277 0.00000000
3.54004966 1.36223383 -0.00107578 0.00000000
1.77757463 1.06168116 0.00285325 0.00000000
2.50614068 0.12511344 -0.00160981 0.00000000
2.09786739 1.11285995 -0.00002711 0.00000000
2.65750371 1.54182029 0.00269352 0.00000000
1.20567320 0.50110921 -0.00217192 0.00000000
4.42376851 0.57846121 0.00142839 0.00000000
2.19255853 1.32468011 -0.00078731 0.00000000
4.00485565 0.18599816 0.00244773 0.00000000
0.90763070 1.64734522 0.00050879 0.00000000
3.87289734 1.58459387 0.00021874 0.00000000
3.95036516 1.81419265 -0.00377200 0.00000000
1.30286894 0.51333311 -0.00005201 0.00000000
1.31974393 1.10249698 -0.00151670 0.00000000
3.17407860 2.02541065 -0.00060518 0.00000000
2.84844386 0.67368966 0.00062921 0.00000000
3.08586375 2.01973716 -0.00093041 0.00000000
2.61720137 0.73465187 0.00192621 0.00000000
3.20626083 1.34339425 -0.00452298 0.00000000
0.00496096 1.86890751 0.00110393 0.00000000
3.74024597 1.38749544 -0.00083044 0.00000000
2.56932302 0.44857291 0.00065775 0.00000000
4.07044779 0.54564246 -0.00304916 0.00000000
2.67737604 0.01772779 0.00399932 0.00000000
0.94802925 1.65219687 0.00118693 0.00000000
3.95719114 0.86819040 -0.00116425 0.00000000
3.85479444 1.36319768 -0.00284399 0.00000000
3.30377555 1.25230749 -0.00113859 0.00000000
3.10477505 0.64634438 -0.00133362 0.00000000
0.76776259 0.97224152 -0.00213854 0.00000000
0.06171522 0.27426804 -0.00140079 0.00000000
3.52176830 0.42843457 0.00212698 0.00000000
1.69026245 0.34097012 0.00153521 0.00000000
0.42209436 1.13514011 0.00238888 0.00000000
3.16455907 1.92761907 -0.00155942 0.00000000
1.97809291 1.45800493 0.00138417 0.00000000
1.24811913 0.39135547 0.00282315 0.00000000
1.06413515 1.52887167 -0.00015025 0.00000000
0.09082775 0.02255777 0.00001649 0.00000000
2.54738874 1.03261801 -0.00135931 0.00000000
1.63360872 0.43778336 0.00343276 0.00000000
3.59812037 1.33316259 0.00216830 0.00000000
2.53885608 1.71331769 0.00357804 0.00000000
1.73986330 1.26465257 0.00128483 0.00000000
1.65319884 1.28935473 0.00402650 0.00000000
3.67207271 0.59974402 0.00242844 0.00000000
4.47270219 1.22201220 -0.00406207 0.00000000
3.15617405 0.69775462 -0.00272878 0.00000000
1.35118256 1.70740350 0.00089593 0.00000000
1.64773038 0.23520188 0.00198821 0.00000000
2.50808129 0.55675347 0.00293440 0.00000000
1.36320641 1.31207164 -0.00470818 0.00000000
2.84192381 1.76725866 -0.00451960 0.00000000
1.29881904 2.01776840 0.00555882 0.00000000
3.97244488 1.24839928 0.00008057 0.00000000
2.15319889 1.80443692 0.00016978 0.00000000
1.08722913 1.29582421 0.00270630 0.00000000
2.15324485 1.42500170 0.00131148 0.00000000
1.72799026 0.74028436 0.00094243 0.00000000
1.62135448 0.14677502 0.00183258 0.00000000
0.82952975 0.66203185 -0.00233545 0.00000000
1.04623136 0.22562022 -0.00216941 0.00000000
2.40358544 1.93179732 0.00423073 0.00000000
2.32067868 0.58362135 0.00260798 0.00000000
3.09189193 1.12456908 0.00179913 0.00000000
2.36969931 0.10937394 -0.00116965 0.00000000
3.94115967 0.83862717 -0.00787370 0.00000000
1.32467715 1.52966803 0.00325204 0.00000000
1.72790816 1.59672898 -0.00057979 0.00000000
0.96055743 1.48237602 0.00170986 0.00000000
1.75794426 0.33728498 0.00292243 0.00000000
4.08626049 0.08483660 -0.00338423 0.00000000
0.94009225 0.58564216 0.00092394 0.00000000
3.12769722 1.82325189 -0.00198578 0.00000000
1.36719274 1.42881063 0.00237946 0.00000000
0.52122870 1.97061682 0.00283655 0.00000000
4.30479681 0.72465559 -0.00043122 0.00000000
3.26188096 0.10105085 0.00243104 0.00000000
0.89642819 1.94763486 0.00159956 0.00000000
3.06483237 0.91230884 -0.00167659 0.00000000
1.48671812 0.79118303 0.00085443 0.00000000
0.55591062 0.81824257 -0.00301558 0.00000000
0.71204469 1.07081685 -0.00129588 0.00000000
1.12206262 1.94374478 0.00306493 0.00000000
0.64962206 1.66181886 -0.00098906 0.00000000
3.31652200 1.13649486 0.00478635 0.00000000
4.34224322 1.89785688 0.00296892 0.00000000
4.43259200 1.04319771 0.00031697 0.00000000
2.83642989 0.08716844 -0.00188575 0.00000000
0.82206762 0.04985234 -0.00100312 0.00000000
1.34148734 0.67000408 -0.00006971 0.00000000
4.19077793 1.97213457 0.00328893 0.00000000
1.49074734 1.32664664 -0.00316187 0.00000000
1.76166671 0.57070701 -0.00148453 0.00000000
4.06061769 1.16938000 0.00326912 0.00000000
3.83607757 1.75503083 -0.00254244 0.00000000
1.65628949 0.67383306 -0.00120159 0.00000000
3.85134168 0.88153055 -0.00101505 0.00000000
2.75926555 2.02871333 -0.00227114 0.00000000
3.25588718 1.14225920 -0.00080897 0.00000000
0.38526043 0.90622099 0.00222989 0.00000000
1.47092246 1.51217905 -0.00224746 0.00000000
1.35548451 0.92006062 -0.00055399 0.00000000
0.17449196 0.66014103 0.00158439 0.00000000
3.81421912 1.39281098 -0.00233968 0.00000000
2.95330900 0.36599626 -0.00184853 0.00000000
0.27147591 1.26752265 0.00034418 0.00000000
1.16726287 1.42869081 -0.00160870 0.00000000
2.97605395 0.86767489 0.00131524 0.00000000
1.69468178 0.47360240 -0.00245031 0.00000000
0.64455413 2.01683107 -0.00120802 0.00000000
0.77133188 1.25931913 0.00383461 0.00000000
1.09758942 0.92987070 0.00285912 0.00000000
0.71038978 1.84106442 -0.00674272 0.00000000
3.15111390 1.58285423 0.00376223 0.00000000
2.82096971 1.64109477 0.00111638 0.00000000
2.38594437 1.64148021 -0.00185756 0.00000000
2.13521949 1.36880622 0.00088607 0.00000000
1.68517255 1.02412932 0.00353361 0.00000000
2.16169844 1.52854507 0.00044759 0.00000000
3.64356505 1.21755682 0.00488255 0.00000000
3.41646538 0.99760637 -0.00080716 0.00000000
1.68667292 0.99781989 0.00006208 0.00000000
2.71016382 1.34965217 0.00189097 0.00000000
1.85036976 0.62082611 -0.00104736 0.00000000
3.86369119 2.01712126 0.00292700 0.00000000
2.56214370 0.43135843 0.00089649 0.00000000
4.12645177 0.94373440 -0.00368124 0.00000000
4.39735489 1.00921161 0.00307838 0.00000000
2.38701312 0.62838397 -0.00190070 0.00000000
2.14019089 0.84102555 0.00071407 0.00000000
3.66773782 1.27931472 0.00137057 0.00000000
3.99599546 1.77783140 -0.00091759 0.00000000
2.23494081 0.11933610 0.00083714 0.00000000
4.25500487 1.90918113 -0.00015268 0.00000000
2.42632904 0.24726037 0.00688163 0.00000000
3.26121884 0.63429285 0.00010498 0.00000000
3.21972221 1.57328880 0.00180563 0.00000000
3.51840244 1.70166370 0.00218015 0.00000000
4.34937583 0.89043652 -0.00455143 0.00000000
3.81006838 0.08516485 -0.00462341 0.00000000
3.73735237 1.84034067 0.00200654 0.00000000
2.79252525 0.32969255 0.00242294 0.00000000
0.65353248 0.86523489 -0.00030625 0.00000000
0.60114802 2.00444475 0.00413457 0.00000000
0.96598820 0.23542906 0.00129847 0.00000000
2.56162042 0.21515343 -0.00028119 0.00000000
0.67468112 0.76039911 0.00418915 0.00000000
4.42100193 1.78476008 -0.00201810 0.00000000
2.43726235 1.71160607 0.00011920 0.00000000
2.53696963 0.16611360 -0.00138934 0.00000000
3.93561493 2.01732814 -0.00290769 0.00000000
0.64107086 0.25118386 -0.00294377 0.00000000
0.15397576 0.97147003 0.00357154 0.00000000
1.85139528 1.83069839 -0.00188715 0.00000000
3.87626011 0.96993522 -0.00170364 0.00000000
0.22534496 0.33255646 -0.00135484 0.00000000
3.97943670 0.62382811 -0.00324299 0.00000000
3.43208340 0.73589536 -0.00289456 0.00000000
1.63177715 1.58434517 0.00111130 0.00000000
1.13230304 1.68421239 0.00062547 0.00000000
1.59924822 0.73382305 -0.00168677 0.00000000
0.81460354 0.49070696 -0.00147821 0.00000000
0.56639174 0.57631606 -0.00232538 0.00000000
2.59634701 1.62998034 0.00044453 0.00000000
0.03678168 1.40649674 -0.00248265 0.00000000
1.08402031 1.66562703 -0.00098909 0.00000000
1.46590989 0.28967891 0.00096298 0.00000000
0.02051718 2.06466918 -0.00001657 0.00000000
2.71366057 0.59161945 -0.00449169 0.00000000
3.02721601 0.72688844 0.00524298 0.00000000
2.59346647 1.73868191 0.00537065 0.00000000
3.22398181 1.67274603 -0.00094523 0.00000000
3.92615256 2.00079953 -0.00202709 0.00000000
1.51692565 0.12803720 0.00307778 0.00000000
2.75384597 0.56766586 -0.00154816 0.00000000
0.98970308 0.29856554 0.00079913 0.00000000
2.19778064 1.39956874 -0.00300581 0.00000000
2.16191582 1.01534787 -0.00354966 0.00000000
4.28976833 1.38326032 0.00073819 0.00000000
2.02582867 1.99748789 0.00039410 0.00000000
0.78854124 1.35679417 -0.00185717 0.00000000
2.29059709 0.14499915 0.00185651 0.00000000
2.70116931 1.29161736 -0.00165113 0.00000000
2.56263568 1.69384387 0.00240141 0.00000000
0.52781418 1.08138485 0.00203093 0.00000000
2.73663365 1.78422212 0.00199784 0.00000000
3.30948001 2.03474479 -0.00367729 0.00000000
3.36298123 1.75453129 0.00403192 0.00000000
3.28320668 0.58794912 0.00154278 0.00000000
4.35607024 0.65133385 0.00758171 0.00000000
2.38509850 0.32663146 0.00166876 0.00000000
1.48136999 0.10349751 -0.00206227 0.00000000
2.34020305 0.15777491 -0.00477248 0.00000000
1.93249491 0.71237595 -0.00062326 0.00000000
1.87818036 0.95541906 0.00041063 0.00000000
1.64561161 1.85692524 -0.00363646 0.00000000
2.64648705 1.03771974 0.00110115 0.00000000
3.34687095 0.18948684 0.00146212 0.00000000
0.83490310 0.30775366 -0.00176202 0.00000000
2.12670084 1.04697524 -0.00163232 0.00000000
2.67108994 1.08469925 -0.00045462 0.00000000
0.00824238 1.14711545 -0.00009830 0.00000000
0.17870411 0.41687069 0.00258372 0.00000000
1.54254757 1.38268233 -0.00035165 0.00000000
4.16948270 1.85846226 0.00094882 0.00000000
1.55201826 1.03342119 0.00281636 0.00000000
2.84986713 0.93638870 0.00252594 0.00000000
2.73099150 0.46242842 -0.00293011 0.00000000
4.32315410 1.82362996 -0.00059388 0.00000000
2.32949464 1.04179825 0.00112013 0.00000000
2.62635870 0.86276478 0.00086307 0.00000000
2.96401315 0.95290806 -0.00197705 0.00000000
3.21924440 0.59165495 0.00699676 0.00000000
2.26024705 1.13163260 -0.00206638 0.00000000
3.92617633 1.46185383 0.00535822 0.00000000
0.96303843 0.33125133 0.00149351 0.00000000
3.95311135 0.43694138 0.00083569 0.00000000
3.28947655 1.87669415 -0.00191557 0.00000000
3.78443447 1.46342660 -0.00100929 0.00000000
1.08251873 1.11316710 0.00042048 0.00000000
2.80291268 0.33318168 -0.00239938 0.00000000
0.84248908 0.32274749 -0.00436656 0.00000000
3.87124790 1.22241432 -0.00379566 0.00000000
0.57800112 1.63853941 -0.00280273 0.00000000
1.08411614 1.96335981 0.00028214 0.00000000
3.81775651 1.35157389 -0.00492139 0.00000000
0.76355392 1.70170296 -0.00028070 0.00000000
1.58700899 1.28691599 0.00203932 0.00000000
4.31781147 0.79334935 0.00286701 0.00000000
1.77238386 2.05428449 0.00077804 0.00000000
0.23373442 1.92265119 -0.00030529 0.00000000
2.45010141 1.93511834 0.00100113 0.00000000
2.32531366 0.30403257 0.00048169 0.00000000
2.09018390 1.96760442 -0.00076505 0.00000000
1.23936965 0.71230646 -0.00286578 0.00000000
0.02008503 1.38042396 -0.00352277 0.00000000
0.76564325 0.75478029 -0.00112761 0.00000000
3.94410157 2.02455159 0.00291580 0.00000000
4.17883970 1.01524532 -0.00161082 0.00000000
0.95434154 1.58907295 -0.00209797 0.00000000
2.85063975 1.90951478 -0.00046228 0.00000000
0.61488211 1.58823385 0.00316526 0.00000000
3.16544296 1.79051289 -0.00061814 0.00000000
0.21525524 1.24064160 0.00312148 0.00000000
2.95037258 0.09821419 -0.00472741 0.00000000
1.37811467 0.27313813 0.00072917 0.00000000
2.94692578 0.91722088 -0.00313577 0.00000000
4.22848357 1.79681571 0.00348716 0.00000000
1.42259122 1.91731026 -0.00745888 0.00000000
0.95742609 0.42729986 0.00112616 0.00000000
1.04001419 0.53342504 0.00447611 0.00000000
1.42171049 0.79708081 -0.00088309 0.00000000
4.24956895 0.60276107 -0.00329056 0.00000000
0.08948824 0.73865837 0.00031670 0.00000000
2.27836991 0.02932603 -0.00033664 0.00000000
0.26669014 1.39698361 -0.00053317 0.00000000
3.07482871 0.35654748 -0.00477400 0.00000000
4.11987822 1.64055525 -0.00060389 0.00000000
2.55562150 0.17976898 0.00058571 0.00000000
1.26507998 0.49974907 -0.00199347 0.00000000
3.03483927 1.95403431 -0.00190627 0.00000000
1.28666279 1.51380256 0.00453052 0.00000000
0.16573228 1.67286576 0.00505231 0.00000000
3.13393572 0.29292041 0.00264325 0.00000000
1.63745084 0.61882559 0.00208532 0.00000000
2.64211352 0.46385067 -0.00190953 0.00000000
1.34685279 0.56483322 -0.00063371 0.00000000
2.23044277 0.02288866 0.00155220 0.00000000
1.19623937 0.90423191 0.00068014 0.00000000
3.73050818 1.05564314 -0.00388698 0.00000000
3.97628509 1.84843249 0.00051761 0.00000000
3.74715799 1.38314556 -0.00431936 0.00000000
3.71899106 0.90309866 0.00120099 0.00000000
2.96073276 0.01756252 -0.00087679 0.00000000
2.79922206 0.13153735 0.00107033 0.00000000
2.92408914 0.38276463 -0.00018716 0.00000000
3.31059123 1.56473675 -0.00322509 0.00000000
1.24281729 1.15637881 -0.00534003 0.00000000
2.48651391 0.64057622 0.00319471 0.00000000
3.63481495 1.27389119 -0.00153808 0.00000000
3.94589619 0.00335551 0.00281682 0.00000000
4.03235089 0.29506940 -0.00145780 0.00000000
4.43580789 2.05809085 -0.00639617 0.00000000
2.79739825 2.05785239 0.00324020 0.00000000
2.11341939 1.01725627 0.00324975 0.00000000
4.27733924 1.05940642 0.00082228 0.00000000
3.68091810 1.83135521 -0.00176194 0.00000000
4.22148583 0.90952137 0.00108279 0.00000000
0.03720819 0.04761640 0.00396730 0.00000000
3.18214709 1.96802904 0.00104946 0.00000000
1.93367690 0.12209395 -0.00075270 0.00000000
3.51948735 2.06641969 -0.00120555 0.00000000
0.87643612 0.80257534 -0.00323871 0.00000000
1.36767599 2.04032909 0.00168649 0.00000000
3.23242312 1.41831214 0.00367869 0.00000000
4.30084347 0.49770444 -0.00065681 0.00000000
0.98881220 0.39989045 0.00168501 0.00000000
0.97869793 0.50082344 -0.00076319 0.00000000
3.98790240 1.30110455 -0.00159862 0.00000000
0.07291242 2.03884974 0.00275091 0.00000000
4.03089251 0.12284553 0.00121229 0.00000000
4.37411143 0.95717808 0.00031404 0.00000000
1.46169206 0.18084780 -0.00134284 0.00000000
1.05690697 0.91409677 -0.00549096 0.00000000
3.51542892 1.56533713 -0.00540347 0.00000000
0.20121288 1.52875786 0.00052830 0.00000000
3.42771710 0.24880373 0.00229774 0.00000000
2.31245389 0.16669650 0.00220346 0.00000000
0.38636360 1.88057633 -0.00274309 0.00000000
3.04019718 0.72356160 0.00126709 0.00000000
4.02032181 1.53749388 -0.00028698 0.00000000
1.53296768 2.07274085 0.00067972 0.00000000
3.53854438 1.23701150 0.00012112 0.00000000
3.69255275 1.52594519 0.00492805 0.00000000
1.12355961 1.99181846 -0.00157323 0.00000000
0.23822524 0.56912764 0.00132437 0.00000000
2.89572196 0.08802468 -0.00262111 0.00000000
2.28630426 1.87854718 0.00352148 0.00000000
0.06825525 0.21320409 -0.00231125 0.00000000
1.49761016 1.31417228 0.00044820 0.00000000
3.64281823 1.66861241 -0.00043050 0.00000000
4.13803163 0.61816337 0.00141631 0.00000000
4.48039869 1.54164641 0.00088491 0.00000000
2.92024200 1.88370457 -0.00218317 0.00000000
2.09723051 1.24708038 -0.00209530 0.00000000
0.90315215 1.86787463 0.00223701 0.00000000
0.09211657 0.16477758 0.00003547 0.00000000
0.38078941 0.09704214 -0.00058044 0.00000000
4.32946985 0.39734725 -0.00048564 0.00000000
1.52062238 1.64559986 0.00118575 0.00000000
0.25529106 0.10938659 -0.00112163 0.00000000
2.44999802 1.15135070 -0.00198004 0.00000000
3.71757097 1.06439185 -0.00503545 0.00000000
4.02102175 0.64512845 -0.00026639 0.00000000
2.74109661 1.79665693 0.00400792 0.00000000
2.15130511 0.27117368 0.00254817 0.00000000
3.68286902 1.33156863 0.00563848 0.00000000
0.17410277 1.09728044 -0.00112294 0.00000000
3.54940663 1.35238609 0.00094736 0.00000000
3.89410115 1.38030716 0.00215118 0.00000000
0.27149135 1.90795563 -0.00240701 0.00000000
1.96519721 1.08955434 -0.00034098 0.00000000
1.15194486 1.20439733 -0.00264095 0.00000000
1.03857631 1.20398706 -0.00240891 0.00000000
3.83055460 0.66244750 0.00075186 0.00000000
3.27339108 1.36192291 0.00098448 0.00000000
3.22198408 2.06782303 0.00207251 0.00000000
0.27841449 0.24351053 -0.00350858 0.00000000
4.30243203 2.07477587 -0.00196105 0.00000000
3.82979702 0.80842487 -0.00130020 0.00000000
1.50370468 1.25877118 0.00175302 0.00000000
3.77789121 1.78351654 0.00362557 0.00000000
4.40416431 0.53893910 0.00101894 0.00000000
3.77990668 0.58343911 -0.00481567 0.00000000
2.89038224 0.60832618 -0.00329470 0.00000000
4.09148680 1.27977986 0.00184344 0.00000000
0.82119683 0.78748563 -0.00470877 0.00000000
2.08962289 1.09713824 -0.00253149 0.00000000
1.10259536 1.23666996 0.00126191 0.00000000
2.28150273 0.57224678 -0.00048554 0.00000000
3.45488354 1.93659454 -0.00182973 0.00000000
0.24501922 0.50400255 -0.00464644 0.00000000
3.75840531 2.02515966 -0.00289064 0.00000000
1.08010314 1.64482672 -0.00099640 0.00000000
0.37000066 0.47443087 0.00103845 0.00000000
3.63674790 1.72635937 -0.00138069 0.00000000
4.01589270 1.59257124 -0.00338581 0.00000000
2.61682906 1.89383643 -0.00153628 0.00000000
1.45717581 1.53880549 -0.00332311 0.00000000
0.49856004 1.66994324 -0.00331219 0.00000000
3.65906184 0.61828072 0.00206707 0.00000000
2.19232005 1.48315077 0.00185748 0.00000000
0.12687100 1.89304944 -0.00124861 0.00000000
3.60489425 0.94053079 0.00565387 0.00000000
0.93329565 1.03311985 -0.00522834 0.00000000
3.72693113 1.81980926 -0.00354745 0.00000000
4.29954945 1.76775602 -0.00498866 0.00000000
0.31527074 0.38943412 0.00340522 0.00000000
0.77033707 0.45577015 -0.00139865 0.00000000
1.21257520 0.65155870 0.00430839 0.00000000
2.14295881 0.52702521 -0.00231979 0.00000000
0.11070197 1.92090526 -0.00474451 0.00000000
2.70593267 1.39523026 0.00022359 0.00000000
0.52995298 0.99771940 -0.00246808 0.00000000
1.60363124 1.95470908 -0.00032306 0.00000000
1.87659702 0.17096882 0.00202619 0.00000000
3.87592990 1.26146325 -0.00145298 0.00000000
2.49470034 0.25825476 0.00005463 0.00000000
2.34104166 0.62512170 -0.00328780 0.00000000
1.01306680 0.33563061 0.00336618 0.00000000
3.07371026 0.78058986 -0.00440741 0.00000000
1.89271938 1.18703976 0.00088864 0.00000000
3.02105523 1.95485799 0.00326454 0.00000000
2.87327932 1.03312118 0.00147920 0.00000000
1.52998586 1.06571787 0.00320533 0.00000000
0.27512553 0.70667655 -0.00305156 0.00000000
3.41121408 1.68272151 0.00170147 0.00000000
3.54170660 1.15337671 -0.00073605 0.00000000
2.35824564 0.29600902 -0.00290562 0.00000000
3.90292899 1.05734840 -0.00048138 0.00000000
4.06476852 1.49286520 0.00307501 0.00000000
1.07497499 0.62984148 0.00127302 0.00000000
0.02432122 0.95501914 -0.00138918 0.00000000
4.07535705 1.62164199 -0.00075792 0.00000000
1.42829247 0.91884973 -0.00030549 0.00000000
0.35609903 1.83519905 -0.00171251 0.00000000
3.11988327 0.30990270 0.00118323 0.00000000
3.77831637 1.84845205 0.00030995 0.00000000
2.81575585 0.44013757 0.00033496 0.00000000
4.01460698 0.96801963 -0.00175681 0.00000000
0.61325761 0.50172801 0.00032166 0.00000000
2.83579233 0.14452273 0.00070460 0.00000000
1.88577416 0.62393004 -0.00196338 0.00000000
0.98471232 0.67821823 -0.00359828 0.00000000
2.07397145 0.88385423 -0.00078234 0.00000000
0.99884100 0.36703204 -0.00019511 0.00000000
1.07779503 0.73384521 -0.00010956 0.00000000
4.26492731 1.94525755 -0.00200805 0.00000000
4.20899495 1.06312983 0.00212384 0.00000000
2.83778612 1.32428401 0.00153069 0.00000000
0.09562695 1.24798646 -0.00169899 0.00000000
1.14765108 1.33994135 0.00154635 0.00000000
0.88917929 0.76922212 0.00038045 0.00000000
0.05290755 1.09154301 -0.00321495 0.00000000
4.35919799 0.77543391 0.00155263 0.00000000
3.06109339 0.14255289 -0.00273238 0.00000000
1.56713171 1.03817110 0.00221609 0.00000000
0.73479140 0.51599160 0.00212962 0.00000000
3.24968541 1.54605755 0.00241862 0.00000000
4.18378159 0.62779817 0.00213370 0.00000000
0.65504186 1.32434387 0.00322814 0.00000000
2.76852718 0.99532610 0.00112809 0.00000000
2.65287349 0.60407833 0.00454440 0.00000000
3.61583379 1.14705318 0.00358649 0.00000000
2.42425967 1.79107787 0.00276460 0.00000000
1.90423488 1.88076532 0.00165751 0.00000000
2.95197439 1.01648781 0.00002723 0.00000000
0.33069546 2.02139421 -0.00163226 0.00000000
2.18785095 0.88283150 0.00155339 0.00000000
3.93031019 1.46397812 -0.00012630 0.00000000
3.85980117 1.79434168 -0.00300293 0.00000000
0.88994086 0.88419896 0.00157614 0.00000000
3.94457987 1.90246882 -0.00012057 0.00000000
1.22618761 1.11863115 -0.00180935 0.00000000
1.37451870 1.82695023 -0.00009561 0.00000000
0.54710857 0.95024420 0.00203491 0.00000000
2.70918867 1.14612701 -0.00136352 0.00000000
3.53869605 0.16834449 0.00088262 0.00000000
1.20674777 1.51485051 -0.00140281 0.00000000
1.35756703 0.69138365 -0.00177964 0.00000000
0.07716851 0.66098147 -0.00032376 0.00000000
3.03408973 1.46687441 0.00104616 0.00000000
0.31438083 2.00640909 -0.00008272 0.00000000
0.89116214 1.41337993 -0.00294396 0.00000000
3.02813151 0.35222066 -0.00339135 0.00000000
3.81717482 1.02916133 0.00048056 0.00000000
3.72624166 0.27293279 0.00158654 0.00000000
0.79707561 0.56896512 0.00344632 0.00000000
2.23016118 1.78244965 0.00294108 0.00000000
1.05006931 1.50996073 -0.00107608 0.00000000
3.98226593 0.65316561 0.00434137 0.00000000
3.39578226 1.72929043 -0.00154352 0.00000000
3.59480284 0.65376536 0.00022100 0.00000000
1.28811675 1.22797412 -0.00249200 0.00000000
3.68232559 1.08487907 -0.00040312 0.00000000
3.68239261 1.38952111 -0.00057059 0.00000000
1.88744044 1.44931109 -0.00242738 0.00000000
2.25225698 1.59907666 -0.00503264 0.00000000
2.21232295 1.92257247 -0.00388110 0.00000000
2.40593050 1.96885823 -0.00206921 0.00000000
2.99583586 1.14041567 0.00297702 0.00000000
0.91933125 0.14338111 0.00361230 0.00000000
1.24088748 2.01252691 -0.00284251 0.00000000
1.04331396 0.39945520 0.00483245 0.00000000
1.71586025 1.82392961 0.00093319 0.00000000
2.42947657 1.83029552 0.00197200 0.00000000
2.12267235 0.82049975 -0.00631130 0.00000000
4.42970407 0.64402263 0.00041008 0.00000000
0.71942886 1.04898418 -0.00574598 0.00000000
2.49828065 1.81962529 0.00034324 0.00000000
1.04043998 0.38432345 -0.00141033 0.00000000
4.41204112 1.56818465 -0.00362463 0.00000000
0.29397229 0.47382459 -0.00104921 0.00000000
0.94090386 1.89966394 0.00226402 0.00000000
2.11409690 0.64817877 0.00330440 0.00000000
1.78608076 1.80349166 0.00129677 0.00000000
2.57490084 1.15594462 -0.00180702 0.00000000
1.36255967 1.66457085 0.00126647 0.00000000
1.69286673 1.19093235 0.00185735 0.00000000
1.42633271 1.40369723 -0.00199195 0.00000000
0.07842025 0.25289729 0.00426150 0.00000000
2.10933347 1.88688918 -0.00206731 0.00000000
3.25376704 1.56096254 -0.00209627 0.00000000
2.87335200 1.12371963 -0.00091282 0.00000000
3.07598212 1.40763135 0.00105824 0.00000000
0.74304543 0.73265656 -0.00404652 0.00000000
3.00449032 0.87246334 -0.00373520 0.00000000
1.53594217 1.06592514 -0.00173165 0.00000000
1.07378297 1.34187364 0.00155242 0.00000000
3.08486407 0.99169253 0.00234831 0.00000000
3.64010005 0.33847349 0.00207437 0.00000000
2.03982672 0.86365061 0.00012745 0.00000000
4.39928783 0.53253639 -0.00049914 0.00000000
3.56955555 0.26710501 -0.00415978 0.00000000
0.59244066 0.23582876 -0.00011292 0.00000000
2.61039186 1.70647397 0.00297331 0.00000000
2.53314278 0.21052997 -0.00260671 0.00000000
4.33925064 1.25521832 0.00007677 0.00000000
0.51849797 0.37722002 -0.00014890 0.00000000
2.14338184 0.82556515 -0.00239490 0.00000000
1.46907694 0.45066343 -0.00047523 0.00000000
1.01352100 1.13450115 -0.00289224 0.00000000
4.03902640 2.04073379 0.00202183 0.00000000
1.59975354 1.70532869 -0.00462162 0.00000000
3.69018828 0.78907945 0.00152454 0.00000000
0.75625563 0.71820199 -0.00060452 0.00000000
2.29138624 0.94254354 0.00137708 0.00000000
3.08462771 0.35233386 0.00130987 0.00000000
2.19325536 1.71490015 0.00325094 0.00000000
3.54034008 0.11657898 0.00180561 0.00000000
1.35323744 0.81069481 -0.00035117 0.00000000
4.35298074 0.97064702 0.00144247 0.00000000
3.77192191 1.45672161 -0.00103142 0.00000000
3.73705030 1.96067680 0.00101017 0.00000000
2.37487647 1.04202914 -0.00202890 0.00000000
4.47024735 0.87177215 -0.00187098 0.00000000
1.82435949 1.89417889 0.00100044 0.00000000
1.76813599 1.25509705 -0.00009702 0.00000000
3.32435206 0.79648129 0.00324060 0.00000000
2.17901139 0.98977546 -0.00092167 0.00000000
3.89516791 1.71067803 0.00040658 0.00000000
0.51897468 1.56591644 -0.00178438 0.00000000
1.67414027 0.39097585 -0.00201376 0.00000000
2.98362211 0.14851476 -0.00052973 0.00000000
1.44732045 0.42278664 0.00018831 0.00000000
0.73706261 1.56387672 -0.00322797 0.00000000
1.15287820 1.73797904 0.00333025 0.00000000
1.13500911 0.24742653 0.00069832 0.00000000
4.21511166 1.65568660 -0.00067067 0.00000000
0.97828648 1.98354475 0.00192491 0.00000000
0.27924740 1.45009589 0.00087468 0.00000000
1.43358921 1.89162795 0.00409153 0.00000000
4.03031136 0.87522739 -0.00204588 0.00000000
1.12351956 0.19928968 -0.00291890 0.00000000
0.33090724 1.00639846 0.00044939 0.00000000
0.81788871 1.85249079 0.00342679 0.00000000
0.51882275 0.94280222 -0.00283466 0.00000000
3.71912799 0.68325961 -0.00219976 0.00000000
4.08772248 1.82122693 -0.00263134 0.00000000
0.70318562 0.03984040 -0.00024589 0.00000000
1.70091071 1.41818945 0.00428024 0.00000000
1.04216362 1.70169233 0.00312291 0.00000000
1.10852353 0.26721397 0.00040721 0.00000000
3.82924774 1.56627684 -0.00232158 0.00000000
4.19812881 1.65024757 -0.00456335 0.00000000
1.28000831 1.79173527 -0.00223665 0.00000000
1.09765162 1.62614701 0.00441000 0.00000000
1.70823196 1.24254755 0.00239990 0.00000000
0.86730585 0.52359751 -0.00308153 0.00000000
4.23795430 1.43771852 0.00205891 0.00000000
0.93822075 0.71642337 -0.00049824 0.00000000
2.88540379 0.99607198 0.00238784 0.00000000
3.20066856 1.21790059 -0.00041786 0.00000000
4.27710771 1.44489827 0.00043988 0.00000000
3.35523262 2.01411436 -0.00017407 0.00000000
0.69647270 0.37904939 -0.00049375 0.00000000
1.87539103 0.39425203 -0.00264108 0.00000000
3.58916070 1.90227527 -0.00205142 0.00000000
1.88719899 0.36959997 -0.00065597 0.00000000
3.59507834 0.82980465 0.00050918 0.00000000
1.44080142 1.80041897 0.00081475 0.00000000
3.64834504 0.30182896 -0.00011289 0.00000000
2.19042972 0.28311914 0.00717074 0.00000000
2.04272089 0.03162092 -0.00287786 0.00000000
3.36920338 1.75395861 0.00023940 0.00000000
3.62451098 0.33998286 0.00010763 0.00000000
1.46456912 1.20780136 -0.00080731 0.00000000
0.94516113 1.23747925 0.00263935 0.00000000
4.24283630 1.06470539 0.00365630 0.00000000
1.61175592 0.36390720 0.00044767 0.00000000
0.61138087 0.62450794 0.00059941 0.00000000
2.87668017 0.94756183 0.00157046 0.00000000
2.60257121 1.26716423 -0.00169629 0.00000000
2.01003420 1.66265952 0.00019856 0.00000000
3.64909870 1.74153023 -0.00040727 0.00000000
3.85233011 0.05910129 0.00035297 0.00000000
4.47248244 1.91975842 -0.00128262 0.00000000
3.86049575 1.30514217 0.00110249 0.00000000
3.10830174 1.50776166 0.00039049 0.00000000
4.10240710 0.99684146 -0.00364193 0.00000000
2.63711828 1.27656915 -0.00195109 0.00000000
3.48890839 0.52314475 0.00576961 0.00000000
4.17131249 0.39920041 -0.00032470 0.00000000
0.93767824 0.94396495 0.00327861 0.00000000
2.40251488 0.39816708 0.00208505 0.00000000
2.52830090 1.34726264 0.00090760 0.00000000
2.51068944 0.63390813 -0.00147817 0.00000000
2.62617498 1.90838574 -0.00026011 0.00000000
1.84029853 1.73287073 -0.00103424 0.00000000
3.87967547 1.66298020 0.00027346 0.00000000
1.27627823 1.79407787 0.00017486 0.00000000
3.80340554 1.41714875 0.00126765 0.00000000
3.72317521 0.03709180 0.00291119 0.00000000
2.83239696 1.27763588 0.00192315 0.00000000
3.13952206 1.03410659 0.00183427 0.00000000
0.00388101 1.74488069 -0.00091612 0.00000000
3.80187488 0.51173613 -0.00177887 0.00000000
0.18906742 0.37773060 0.00036179 0.00000000
3.88806186 1.51187875 0.00121828 0.00000000
0.62354111 0.73851771 0.00364702 0.00000000
4.32422093 0.69660344 0.00422825 0.00000000
2.15662228 0.55243375 -0.00182443 0.00000000
0.92795478 0.23681279 0.00121431 0.00000000
