0.929992 0.001616 0.002817 1.0
1.035278 0.000365 0.003276 1.0
0.652647 0.002159 0.001782 1.0
4.391120 -0.001851 0.004267 1.0
1.256222 0.002259 -0.002156 1.0
1.937706 0.001578 0.001237 1.0
1.710443 0.001863 0.001862 1.0
2.810499 0.002283 -0.001682 1.0
1.750622 -0.000697 -0.001403 1.0
4.136418 -0.002166 0.000413 1.0
1.775264 0.002523 0.002507 1.0
2.633067 0.004344 0.001751 1.0
1.254344 0.006228 -0.002601 1.0
0.157433 -0.000212 0.000561 1.0
1.291895 0.004805 0.001919 1.0
2.044892 -0.001512 -0.000736 1.0
3.467125 -0.002452 -0.008931 1.0
4.438977 -0.001881 -0.001682 1.0
4.059348 0.001410 0.000895 1.0
2.523393 0.003370 -0.000100 1.0
4.519704 0.000005 0.001648 1.0
1.724145 -0.001368 -0.004186 1.0
4.381027 0.002587 0.001806 1.0
4.302054 0.004093 0.003010 1.0
0.334636 -0.000224 -0.001650 1.0
1.916250 0.005222 0.001726 1.0
3.053161 -0.000946 -0.000373 1.0
3.217418 0.003063 0.000467 1.0
1.933751 -0.000374 -0.003811 1.0
3.207486 -0.002261 -0.001843 1.0
3.986467 0.000220 -0.001708 1.0
0.097153 -0.002021 0.002382 1.0
1.851605 0.001139 -0.001695 1.0
3.384272 0.002403 0.001822 1.0
1.397991 0.003561 -0.003741 1.0
1.962166 -0.000682 -0.000796 1.0
3.765234 0.002060 0.001412 1.0
0.266989 -0.000191 0.000693 1.0
1.126302 0.000961 0.001908 1.0
1.624034 -0.002985 0.001891 1.0
0.208968 -0.000073 -0.002555 1.0
3.853322 0.001267 -0.000500 1.0
2.666173 -0.001171 -0.001443 1.0
3.685642 0.001032 0.004304 1.0
3.968529 -0.000453 -0.002574 1.0
0.513715 -0.000322 0.001423 1.0
1.580335 0.001479 0.002310 1.0
2.404173 0.003088 -0.002672 1.0
2.704318 -0.002971 0.001655 1.0
1.290445 0.001519 -0.001067 1.0
0.907170 0.000591 0.001562 1.0
0.927554 0.002081 0.006153 1.0
2.326969 -0.000199 -0.003809 1.0
3.274346 0.002035 -0.002085 1.0
2.291906 -0.003510 -0.002361 1.0
2.047234 0.000274 -0.000757 1.0
0.936175 0.002712 0.003633 1.0
0.311977 0.002362 0.000993 1.0
0.235700 -0.001942 -0.000679 1.0
1.946053 -0.000994 0.002419 1.0
0.788325 -0.005319 -0.002041 1.0
2.787355 -0.000527 0.000557 1.0
3.518569 -0.003574 -0.000659 1.0
1.451492 0.001048 -0.001526 1.0
2.177608 0.000067 0.000574 1.0
3.252788 0.002890 0.001008 1.0
2.246537 -0.005302 -0.001004 1.0
3.235667 0.001474 -0.003204 1.0
4.207054 -0.002436 -0.000152 1.0
2.424315 -0.000861 -0.000583 1.0
3.299328 -0.000925 0.001274 1.0
0.617423 0.000816 -0.000824 1.0
0.458645 -0.001587 -0.002509 1.0
1.082224 0.958071 -0.000614 0.0
0.858394 0.241793 -0.000995 0.0
2.600152 0.718693 -0.001085 0.0
4.386946 1.067235 0.000424 0.0
2.486557 1.108756 0.005602 0.0
4.009483 1.000068 0.001319 0.0
0.298671 0.806533 -0.000834 0.0
0.479779 0.583135 -0.003444 0.0
2.264925 1.149770 0.002979 0.0
3.064632 0.823814 -0.000562 0.0
1.422867 0.735167 -0.003193 0.0
0.674034 0.892983 0.004226 0.0
3.920699 1.487810 0.004604 0.0
3.101924 1.321565 0.000496 0.0
4.319876 0.927044 0.000958 0.0
4.407664 1.205018 0.003455 0.0
0.687897 1.473677 -0.000633 0.0
1.541974 0.239149 0.001877 0.0
2.587629 0.431153 0.005476 0.0
2.454213 0.227292 0.004206 0.0
3.568468 1.465659 0.001495 0.0
0.543792 0.641870 -0.000790 0.0
4.034589 0.704737 0.000502 0.0
0.917745 0.736922 -0.002960 0.0
0.565185 0.069682 -0.004229 0.0
3.399588 0.755495 -0.000215 0.0
3.581698 0.273055 -0.000690 0.0
4.291218 0.778736 -0.000489 0.0
0.182522 0.303073 -0.000443 0.0
2.651767 0.563847 -0.000504 0.0
1.311510 1.542574 0.002443 0.0
2.362272 0.456019 -0.002077 0.0
2.357053 0.760003 0.001031 0.0
1.557859 1.483829 0.000066 0.0
2.477537 0.514607 0.002604 0.0
2.166180 1.538558 -0.002491 0.0
0.071991 0.575652 -0.004761 0.0
0.395951 1.155239 -0.000441 0.0
3.191594 0.130824 0.001975 0.0
1.633988 0.720720 0.001526 0.0
2.646513 0.494545 -0.002805 0.0
2.253122 0.791600 -0.000538 0.0
3.514696 1.286411 -0.006778 0.0
2.978268 0.612066 -0.004844 0.0
2.455699 1.630608 0.004063 0.0
1.360500 0.949570 -0.002108 0.0
1.588256 1.582288 -0.000818 0.0
2.362519 1.096244 -0.001950 0.0
4.086262 1.531839 -0.000491 0.0
3.272921 0.127318 0.001277 0.0
1.092262 0.295376 -0.002388 0.0
0.960932 0.648119 -0.003000 0.0
3.443946 0.194617 -0.004273 0.0
0.437712 0.662752 0.002420 0.0
3.882471 1.313584 -0.005242 0.0
4.136648 0.623621 -0.003254 0.0
0.964887 1.535931 0.001969 0.0
2.108524 1.273888 -0.001766 0.0
1.442288 1.540818 0.002008 0.0
0.831316 1.479858 -0.002434 0.0
2.622015 0.243526 0.001293 0.0
2.633201 1.162328 0.003203 0.0
2.476287 0.340334 -0.000795 0.0
2.868501 0.723343 -0.001841 0.0
1.714199 1.439184 -0.001639 0.0
0.120440 0.650968 -0.000637 0.0
3.876674 1.438105 -0.002217 0.0
2.812691 0.046668 -0.002736 0.0
4.467842 1.037369 -0.001229 0.0
3.659627 0.425660 0.000418 0.0
3.815852 1.588851 0.000384 0.0
4.327637 1.602601 0.000560 0.0
3.503463 1.094955 0.001356 0.0
1.093384 1.167426 0.002948 0.0
0.569143 1.223687 -0.001180 0.0
3.593490 0.089416 0.002852 0.0
1.841567 1.449228 0.002387 0.0
1.194351 1.236630 -0.000348 0.0
1.169791 0.800915 0.000373 0.0
3.331898 1.034691 0.002475 0.0
2.985244 1.341131 -0.002051 0.0
2.029247 1.081218 -0.001473 0.0
2.967386 1.701708 0.002945 0.0
2.307693 0.055940 -0.002403 0.0
3.613122 0.782407 -0.001253 0.0
0.319468 0.517907 -0.000824 0.0
3.576083 0.771391 -0.001404 0.0
3.611406 0.886308 0.000897 0.0
3.301039 0.568616 -0.001756 0.0
2.933559 0.832841 -0.002752 0.0
0.586990 1.119668 -0.001924 0.0
3.833510 0.997897 -0.001721 0.0
2.409236 1.562068 0.000521 0.0
3.525012 0.589480 -0.000210 0.0
3.747319 0.180161 0.000693 0.0
1.857551 1.535057 0.005461 0.0
3.996600 0.117038 0.002822 0.0
3.383017 1.505197 0.003493 0.0
3.211285 1.257451 0.000649 0.0
2.292483 0.474594 0.003054 0.0
2.229139 1.261584 -0.005064 0.0
3.641339 0.036870 0.002127 0.0
2.502169 0.555752 0.004573 0.0
1.925485 1.085016 -0.000468 0.0
2.868682 0.746368 -0.001697 0.0
1.762099 1.056472 0.000856 0.0
1.703682 0.155352 0.001266 0.0
1.321131 0.656359 0.002059 0.0
1.103237 1.485922 0.001081 0.0
0.463792 0.810978 0.002016 0.0
3.242385 1.479656 -0.001936 0.0
0.544816 1.386580 0.000120 0.0
3.999424 0.698163 -0.000335 0.0
2.537995 0.566407 -0.004241 0.0
3.580930 0.457184 0.002190 0.0
2.930318 0.214763 -0.001739 0.0
1.132201 0.990588 -0.004580 0.0
3.258373 1.239061 0.000999 0.0
1.175744 1.554756 0.001385 0.0
3.553041 1.213305 0.005481 0.0
3.508064 0.130220 0.001427 0.0
2.131656 0.723648 -0.003413 0.0
2.322257 1.093914 0.002899 0.0
3.936006 0.261133 0.001351 0.0
0.758158 1.416688 0.000524 0.0
1.779846 1.272401 -0.000147 0.0
1.336045 0.117950 0.003257 0.0
2.911214 1.306425 0.000788 0.0
2.128881 0.662147 -0.002856 0.0
4.395507 1.602574 -0.001623 0.0
3.764136 1.262700 0.003486 0.0
0.913902 1.574160 -0.002467 0.0
3.380509 0.894015 -0.001078 0.0
1.393863 1.084902 -0.000194 0.0
3.826162 0.682533 -0.002138 0.0
0.803000 1.138017 0.001722 0.0
3.382775 1.691296 0.003812 0.0
0.043655 0.484451 -0.006720 0.0
2.752238 1.422036 -0.003736 0.0
1.069815 0.838550 0.006224 0.0
1.160899 1.391693 -0.001878 0.0
2.109801 0.684085 -0.001141 0.0
2.256544 0.671709 0.001891 0.0
2.125596 1.678560 0.000446 0.0
3.875950 0.251942 -0.003303 0.0
3.081604 1.023382 -0.002419 0.0
4.389290 1.129842 0.000341 0.0
2.645581 1.101324 0.002944 0.0
2.260983 0.636092 -0.000684 0.0
2.352324 0.900081 -0.000633 0.0
1.631169 1.645525 0.004075 0.0
1.136741 0.223420 -0.000366 0.0
1.003069 1.025872 -0.001824 0.0
0.284390 0.645879 0.000979 0.0
2.409495 0.458054 0.001378 0.0
1.824695 1.603826 -0.001429 0.0
2.495215 1.442149 0.004396 0.0
3.729592 1.663094 -0.000176 0.0
2.163466 1.069558 0.001109 0.0
4.096992 0.847682 -0.003112 0.0
3.410515 0.401099 -0.001898 0.0
3.133928 1.281489 -0.000089 0.0
4.437968 0.560661 -0.001912 0.0
1.692801 0.706300 -0.002688 0.0
0.560559 1.443022 0.004784 0.0
0.107606 0.258751 0.000132 0.0
1.013971 1.404394 -0.002274 0.0
3.882360 1.226269 -0.004125 0.0
3.098165 0.135573 -0.000563 0.0
4.197208 1.230801 0.000155 0.0
1.811562 0.159645 0.001017 0.0
3.443317 0.695170 -0.000558 0.0
4.042392 0.777040 -0.000508 0.0
3.843641 0.767596 -0.000720 0.0
0.146257 0.292825 -0.003291 0.0
2.760273 1.242669 0.003047 0.0
4.398550 0.968713 0.000166 0.0
2.574901 0.285370 0.001866 0.0
2.616236 0.783510 0.002087 0.0
3.587858 1.296543 0.001028 0.0
2.279031 1.203534 0.001929 0.0
3.111724 0.877721 0.001824 0.0
2.365555 0.529816 0.001800 0.0
3.452181 1.470849 0.001142 0.0
2.112688 1.462651 0.002006 0.0
3.466965 1.219224 0.000314 0.0
0.293255 1.004707 -0.002954 0.0
1.993683 0.147674 0.003150 0.0
1.640298 0.043939 0.000490 0.0
2.626706 0.231232 0.001525 0.0
0.361090 0.743354 -0.003958 0.0
3.559771 1.593202 -0.001161 0.0
4.095764 0.382101 -0.001413 0.0
0.243671 1.578628 -0.000464 0.0
0.760182 1.302676 0.002043 0.0
0.239614 1.709309 0.000065 0.0
4.460416 1.521269 -0.000475 0.0
0.510596 1.294851 -0.001988 0.0
3.209639 0.125249 0.003445 0.0
1.034414 0.393397 -0.000393 0.0
0.915328 0.840333 0.001903 0.0
2.923466 0.563633 -0.000450 0.0
0.124943 1.638720 0.001000 0.0
1.532951 0.689303 -0.000629 0.0
1.633149 0.728503 0.002240 0.0
2.799115 1.567617 -0.005371 0.0
2.527097 0.115666 -0.003202 0.0
1.699682 0.708306 -0.000001 0.0
3.404670 0.802601 -0.001125 0.0
3.456389 0.064254 -0.001817 0.0
0.452157 0.195477 0.000420 0.0
0.435334 0.756891 -0.002492 0.0
3.887302 1.538651 0.000544 0.0
0.151754 0.136428 0.002743 0.0
4.462884 0.098293 -0.005171 0.0
0.056684 0.355166 -0.001369 0.0
1.822261 1.231930 -0.001540 0.0
1.269992 0.353121 -0.000089 0.0
2.393196 0.227157 0.000024 0.0
4.323090 0.023306 -0.002574 0.0
4.522112 1.586021 0.002079 0.0
3.471528 1.021618 0.003657 0.0
3.839070 1.426467 -0.001232 0.0
2.329969 1.434434 0.000887 0.0
0.822576 0.958817 -0.002389 0.0
0.946566 0.180974 0.002861 0.0
3.759350 0.028678 0.000677 0.0
1.375460 0.846757 0.000450 0.0
0.180026 0.155929 0.000147 0.0
2.942424 1.121429 0.003378 0.0
0.842045 0.259998 -0.001900 0.0
3.831292 0.707605 -0.001530 0.0
4.058914 0.953975 -0.003556 0.0
2.763761 0.244983 -0.002645 0.0
0.946681 0.015916 -0.004087 0.0
2.136571 0.669229 0.002302 0.0
2.319127 1.437733 0.000472 0.0
2.745906 0.172095 0.003463 0.0
1.742627 1.703015 -0.000735 0.0
2.423173 0.618308 -0.000715 0.0
1.985857 0.638492 -0.000703 0.0
2.565562 0.889294 0.003715 0.0
1.528468 0.589083 0.001475 0.0
3.900719 0.306796 -0.001806 0.0
0.335376 1.026801 -0.002599 0.0
0.289222 0.816674 0.001927 0.0
2.032790 1.166764 0.001396 0.0
1.384820 1.378466 0.001134 0.0
3.912314 0.612737 -0.000025 0.0
3.948218 0.200761 0.000308 0.0
0.877078 0.156848 -0.000592 0.0
4.105965 1.105385 0.001847 0.0
1.238321 1.586458 0.001724 0.0
3.823720 1.386695 0.004072 0.0
1.484904 0.277662 -0.000416 0.0
1.272897 1.344331 0.000729 0.0
1.362507 0.355936 -0.005847 0.0
3.430768 0.665309 -0.003517 0.0
3.693905 1.583789 0.000653 0.0
1.138020 0.105026 -0.001354 0.0
0.596361 0.473903 0.000278 0.0
0.330034 1.168447 -0.000495 0.0
0.026604 1.047236 -0.002733 0.0
4.248757 1.161055 0.002063 0.0
4.487309 0.542888 0.001614 0.0
0.402136 0.454616 -0.001866 0.0
0.636219 0.542953 0.000912 0.0
4.388968 1.259948 -0.001772 0.0
1.612525 1.322341 -0.002546 0.0
0.761262 1.468357 0.003716 0.0
1.498258 0.023204 0.000263 0.0
1.795148 1.611652 0.002706 0.0
3.356351 0.720345 -0.000071 0.0
0.236708 0.558025 0.000639 0.0
2.135761 0.739386 -0.001359 0.0
0.202852 0.048636 0.001837 0.0
1.886333 0.104324 0.002057 0.0
2.907379 1.225924 -0.000177 0.0
2.669069 1.185129 0.002076 0.0
2.935166 0.690107 -0.000141 0.0
1.893168 1.075898 0.005964 0.0
1.954218 1.568793 0.001717 0.0
3.187086 1.676879 0.001030 0.0
1.628966 0.018501 -0.000983 0.0
0.015596 1.275594 0.000238 0.0
1.416725 0.407888 -0.002192 0.0
4.040511 0.249538 0.000972 0.0
1.951471 0.276925 -0.001053 0.0
1.388631 1.457074 -0.000858 0.0
2.631098 0.326631 0.008133 0.0
0.218515 0.961980 0.002001 0.0
2.653535 0.275213 0.003668 0.0
0.475280 0.397856 0.005639 0.0
3.862468 0.838801 -0.000675 0.0
3.336340 0.668221 -0.000351 0.0
1.220565 1.276331 -0.001910 0.0
0.735445 0.437397 -0.000774 0.0
2.328663 1.585164 -0.000130 0.0
3.826044 0.477926 -0.002190 0.0
3.754120 1.051396 0.002113 0.0
1.110041 0.092286 -0.001206 0.0
2.788076 0.600410 0.002843 0.0
4.077152 0.064989 -0.004242 0.0
2.623072 0.833015 0.001408 0.0
0.733546 0.661824 0.000871 0.0
3.596914 1.513975 0.000161 0.0
3.911533 1.322123 0.004431 0.0
4.000653 0.342252 0.000225 0.0
1.857439 1.325170 0.005042 0.0
1.986070 1.589575 0.004856 0.0
1.490590 0.712607 0.000806 0.0
3.389350 0.908813 0.000103 0.0
1.369947 0.356946 -0.000714 0.0
1.644431 1.531023 -0.003181 0.0
0.673961 0.928304 -0.000851 0.0
3.870810 1.208426 0.000136 0.0
3.332808 0.017589 0.003059 0.0
3.925265 0.903045 -0.002031 0.0
4.267419 1.419026 -0.001411 0.0
3.746430 1.030754 0.000007 0.0
0.397598 0.017974 -0.000762 0.0
1.175566 1.243341 0.004349 0.0
4.222043 0.969579 -0.002042 0.0
1.958707 1.181413 0.001719 0.0
3.380581 1.358274 -0.000591 0.0
1.401020 1.136989 -0.000748 0.0
4.152539 0.378813 -0.004028 0.0
1.203161 0.891885 -0.001783 0.0
1.555275 1.370649 -0.001796 0.0
3.508875 0.351145 0.002366 0.0
2.255007 1.205265 0.000162 0.0
3.283392 0.752046 0.004305 0.0
1.882004 1.449961 0.003620 0.0
3.823730 0.793430 0.000888 0.0
1.771739 1.179933 0.001001 0.0
4.143468 1.143741 0.000284 0.0
4.178429 1.521405 0.005180 0.0
2.368701 0.351307 0.002982 0.0
3.800538 0.397443 -0.005512 0.0
3.603912 1.201886 -0.000935 0.0
1.233523 1.292247 -0.003469 0.0
1.745892 1.300769 0.000829 0.0
3.976548 0.329504 0.000449 0.0
2.660613 0.954821 0.002310 0.0
0.615049 0.455006 -0.000917 0.0
0.734533 1.114932 -0.001624 0.0
1.627047 0.934847 0.000457 0.0
2.315773 0.652007 0.002979 0.0
2.525392 0.736677 0.001087 0.0
3.357377 0.704529 0.000531 0.0
3.221681 0.243133 -0.001080 0.0
0.928944 1.500065 0.003035 0.0
4.452895 0.836908 0.001535 0.0
1.830209 1.422217 0.001974 0.0
3.000471 1.451744 -0.002270 0.0
3.886018 0.200432 0.001620 0.0
3.728542 0.825712 0.001016 0.0
4.315378 0.587108 -0.001699 0.0
0.327550 0.129955 -0.001627 0.0
2.873307 1.483586 -0.004177 0.0
2.886073 1.213123 0.001998 0.0
0.677952 0.907545 0.003212 0.0
0.069914 0.305124 -0.000692 0.0
0.282150 0.716345 0.001473 0.0
1.976522 1.294789 0.002508 0.0
4.160537 1.018257 -0.000154 0.0
3.681315 1.401194 -0.001106 0.0
3.313534 1.642948 -0.000944 0.0
4.043667 0.183837 0.000547 0.0
3.922642 0.368311 0.000913 0.0
2.657930 1.608852 -0.000905 0.0
2.199609 0.020197 -0.003951 0.0
1.172124 1.517856 -0.002650 0.0
0.980797 0.322899 0.000639 0.0
0.059896 1.044365 0.002854 0.0
0.011351 1.346845 0.000122 0.0
2.276119 0.094712 -0.000442 0.0
1.304616 0.881910 -0.003393 0.0
4.169779 1.382132 0.004249 0.0
1.234888 0.786124 -0.002443 0.0
4.222300 0.685512 0.003478 0.0
1.976388 1.370152 -0.005668 0.0
2.079333 0.553243 -0.001680 0.0
4.307754 1.283462 0.004220 0.0
1.469298 1.478502 0.003911 0.0
4.260811 0.580514 -0.002136 0.0
0.732630 1.272572 -0.000826 0.0
2.690141 0.066929 -0.002967 0.0
3.885966 0.198882 0.000305 0.0
1.120137 0.978648 -0.002270 0.0
1.969000 0.819879 0.000986 0.0
1.894680 0.152940 -0.000604 0.0
1.962912 0.949293 -0.002039 0.0
0.161985 0.178178 0.000989 0.0
3.045225 0.826579 -0.000136 0.0
2.458339 0.087628 0.002919 0.0
1.678887 0.192900 -0.000214 0.0
4.464721 1.306146 0.002711 0.0
3.295570 0.226708 0.002354 0.0
4.455984 0.943841 -0.000125 0.0
2.669627 0.956336 0.002091 0.0
2.182550 0.766485 0.001483 0.0
0.166584 1.003867 -0.002320 0.0
4.380170 1.060565 0.003498 0.0
0.476889 1.650916 -0.001032 0.0
0.162219 1.144247 -0.002945 0.0
3.043724 1.219569 0.003209 0.0
3.581344 0.895821 -0.001842 0.0
2.119845 1.568009 0.001428 0.0
4.266278 1.432740 0.005397 0.0
2.320602 0.865932 -0.001923 0.0
3.467793 0.757560 0.003953 0.0
1.119190 0.525638 0.000171 0.0
4.390830 0.339685 0.002032 0.0
0.467188 0.936305 -0.006683 0.0
3.935146 0.074131 -0.000393 0.0
1.740151 1.018189 -0.000502 0.0
1.404345 0.004167 0.000827 0.0
0.828852 0.052036 -0.005736 0.0
3.434367 1.422778 -0.002232 0.0
2.126632 0.651942 0.000478 0.0
0.682967 1.026538 -0.001836 0.0
1.725658 0.990916 0.003135 0.0
0.363568 1.149834 -0.003371 0.0
2.717121 1.118544 -0.000348 0.0
2.171900 1.583236 -0.001031 0.0
3.835916 0.074428 0.002971 0.0
1.727605 1.711196 0.004905 0.0
3.435788 0.993764 0.001469 0.0
2.548750 0.342049 -0.000862 0.0
3.615162 0.956484 0.000120 0.0
0.496260 0.110283 0.001826 0.0
3.025087 1.497259 -0.001589 0.0
4.396711 1.172743 0.000631 0.0
0.274838 1.111844 0.002567 0.0
3.763506 1.018454 -0.002422 0.0
2.476280 1.032174 0.003382 0.0
2.548741 0.308782 0.005045 0.0
1.432813 0.567339 -0.000578 0.0
4.506889 0.326227 -0.003037 0.0
1.690463 1.677501 0.002571 0.0
1.166958 0.896543 -0.001211 0.0
2.839349 1.254267 0.002221 0.0
1.194949 0.390414 0.000586 0.0
0.623848 1.498717 -0.001263 0.0
4.376411 0.445178 0.000443 0.0
3.497062 1.016691 -0.003836 0.0
1.055614 1.158348 -0.004685 0.0
4.452524 1.154170 0.002046 0.0
2.801293 1.278148 -0.000270 0.0
0.105770 0.732398 -0.001082 0.0
2.676665 1.224411 -0.002926 0.0
1.456557 0.063271 0.002481 0.0
0.920855 0.641778 0.001954 0.0
3.321215 0.717334 0.001621 0.0
1.062872 0.480501 0.000808 0.0
3.893957 0.040244 0.003006 0.0
1.038789 1.515168 0.001065 0.0
3.138688 0.736497 -0.000952 0.0
0.782098 1.322639 -0.001489 0.0
3.413579 0.255222 -0.000978 0.0
1.901541 0.290748 -0.002313 0.0
2.153847 0.396509 -0.002073 0.0
3.896839 1.591942 0.004871 0.0
3.442464 0.167320 -0.001571 0.0
0.183900 0.694101 0.002585 0.0
0.616096 0.999130 -0.001762 0.0
3.144190 0.029552 -0.000797 0.0
1.933691 0.966599 -0.003933 0.0
1.434849 1.410940 0.002082 0.0
1.517988 1.703384 0.002087 0.0
2.462932 0.357626 -0.001081 0.0
1.332624 1.520512 -0.003553 0.0
3.562440 0.361552 0.002281 0.0
2.225221 1.174981 0.001399 0.0
2.694562 1.412734 -0.001302 0.0
2.386221 1.632979 -0.003269 0.0
3.357707 0.868582 -0.003540 0.0
1.414291 1.239182 -0.001741 0.0
1.129999 1.561751 -0.000321 0.0
2.051271 1.501612 -0.001444 0.0
2.289508 0.831299 -0.006419 0.0
3.987685 1.033966 -0.000443 0.0
2.957973 0.106422 -0.000497 0.0
1.516032 0.170822 0.002509 0.0
2.724936 1.368029 -0.000989 0.0
0.461308 0.033648 0.000816 0.0
2.603216 1.635625 -0.001382 0.0
1.337477 0.797733 0.002018 0.0
0.930377 1.451087 0.000982 0.0
0.101200 1.110427 0.004726 0.0
4.480322 1.152313 -0.003433 0.0
3.865782 0.680264 0.003865 0.0
3.686264 0.147627 0.002333 0.0
2.140661 0.613985 0.002193 0.0
2.980219 0.190456 0.003521 0.0
0.596346 1.102099 -0.005507 0.0
1.620680 0.824029 -0.002148 0.0
0.384147 1.051774 -0.003814 0.0
2.135213 0.672884 0.000555 0.0
1.464298 0.826168 0.001113 0.0
2.757815 0.372968 -0.000778 0.0
1.400854 1.019610 -0.001758 0.0
0.393297 1.309565 0.005204 0.0
3.477003 1.054983 -0.001304 0.0
0.796980 0.063755 -0.000309 0.0
0.514900 0.846887 0.003590 0.0
0.774426 0.544622 0.000846 0.0
2.567114 0.863700 -0.001371 0.0
2.310719 1.066793 0.001206 0.0
1.671440 1.636217 0.002567 0.0
1.691272 1.339682 -0.003376 0.0
2.762440 0.659596 -0.001724 0.0
3.583960 0.123666 -0.000016 0.0
3.256467 0.996767 0.003235 0.0
4.017885 0.366748 0.000119 0.0
4.507181 1.654609 0.001230 0.0
1.915737 1.654408 -0.001788 0.0
1.810112 0.666989 -0.002994 0.0
2.514796 0.341257 -0.000426 0.0
2.251334 0.099925 -0.001109 0.0
1.324453 0.816613 0.000320 0.0
1.393823 1.609146 0.000959 0.0
2.778348 0.720806 -0.001615 0.0
1.699003 0.791716 0.002012 0.0
1.607393 1.337593 -0.002039 0.0
0.621684 1.635235 0.001414 0.0
1.254307 1.118533 0.002538 0.0
2.842156 0.580444 -0.000078 0.0
2.585234 0.270849 -0.000692 0.0
0.748783 0.755440 -0.001182 0.0
0.915197 1.108681 0.004913 0.0
1.130102 1.552616 -0.007147 0.0
1.104537 0.602443 0.001648 0.0
2.589618 1.028352 0.001478 0.0
0.622669 0.341974 0.004372 0.0
0.347448 1.113632 -0.001573 0.0
0.479992 1.577135 -0.001320 0.0
1.354520 1.011784 -0.000247 0.0
2.246994 0.261286 0.001544 0.0
0.670890 0.503374 -0.003745 0.0
3.717893 0.145546 -0.004541 0.0
2.455083 1.258662 0.001703 0.0
1.783853 1.072271 -0.000886 0.0
1.716435 0.279606 -0.001540 0.0
0.852644 0.421018 0.001319 0.0
1.252988 0.762634 -0.004536 0.0
3.052884 0.475153 0.002176 0.0
3.020994 1.389547 0.000800 0.0
1.742642 0.951171 0.002670 0.0
1.344540 0.615721 -0.003756 0.0
0.469827 1.191366 0.002775 0.0
2.436733 1.488319 0.003306 0.0
1.041531 0.300030 -0.001047 0.0
2.296943 1.230326 -0.007710 0.0
4.073759 1.496720 -0.002939 0.0
0.340851 0.751357 -0.001798 0.0
1.919410 0.632786 0.001025 0.0
3.155522 1.661933 0.004427 0.0
2.373511 0.993813 0.003018 0.0
1.840243 1.344176 0.001507 0.0
2.893861 0.875582 0.002376 0.0
3.740473 0.521673 -0.000322 0.0
0.199943 0.692759 0.004749 0.0
4.284758 0.463969 0.001134 0.0
2.159464 1.632221 0.002191 0.0
2.845836 0.918107 -0.001025 0.0
1.720687 0.489478 -0.001217 0.0
3.273115 1.563104 -0.000387 0.0
1.305320 0.134819 -0.009039 0.0
3.340821 1.054564 -0.000993 0.0
3.117049 0.111123 -0.002798 0.0
0.124728 0.219412 -0.000126 0.0
3.652467 0.336582 0.001953 0.0
2.047920 0.727123 0.000126 0.0
2.676274 0.546151 -0.005212 0.0
1.435338 0.332826 0.000920 0.0
3.283200 0.870665 0.000478 0.0
0.106154 0.201371 -0.001997 0.0
2.057084 1.624194 0.003890 0.0
2.638401 0.649714 -0.002395 0.0
2.321970 1.057088 -0.002024 0.0
4.489421 0.017228 -0.001235 0.0
1.954527 1.001506 -0.000339 0.0
3.765309 1.601844 0.003518 0.0
0.878278 0.684910 -0.003937 0.0
0.019008 1.627913 -0.002351 0.0
0.591858 0.653944 -0.000037 0.0
0.040170 0.189071 -0.001354 0.0
1.844154 0.446479 0.002726 0.0
0.263418 1.012905 -0.001812 0.0
0.704014 0.284046 0.000336 0.0
3.940655 0.552343 -0.000699 0.0
3.655720 1.017771 -0.002372 0.0
0.176196 1.698892 -0.001822 0.0
0.300037 1.272506 0.001465 0.0
0.538656 1.009267 -0.003438 0.0
1.003114 0.676031 0.005359 0.0
0.696145 1.162416 -0.002433 0.0
2.687342 0.561042 0.000920 0.0
0.713306 1.389669 0.000595 0.0
3.465634 0.030666 -0.001478 0.0
2.434578 1.098995 -0.001388 0.0
1.598296 1.541006 0.000489 0.0
2.210504 0.912899 -0.001233 0.0
2.923778 0.407450 0.002461 0.0
0.132306 1.573479 -0.002034 0.0
4.050947 1.084592 0.002406 0.0
3.809011 0.594192 -0.001370 0.0
2.919461 0.034507 -0.001038 0.0
2.967266 0.607138 -0.000948 0.0
1.548129 0.911542 0.001253 0.0
4.340210 1.562491 -0.002849 0.0
2.852752 1.384373 0.001046 0.0
4.104736 1.243273 0.000801 0.0
0.204604 1.404042 -0.003742 0.0
0.679186 1.664004 -0.000984 0.0
0.384892 0.993049 0.002398 0.0
4.264057 1.522272 0.002480 0.0
3.109099 1.146011 0.001858 0.0
3.995585 0.761852 -0.000144 0.0
4.262223 0.852331 -0.003460 0.0
4.061313 0.401265 -0.003286 0.0
3.843963 1.543900 0.000166 0.0
0.027667 1.522556 -0.002712 0.0
1.978722 1.540369 -0.000399 0.0
1.541084 0.955878 0.003356 0.0
3.350872 1.707759 0.001464 0.0
2.527540 1.680866 -0.003261 0.0
4.223045 1.527191 -0.002256 0.0
1.993090 1.120029 -0.003491 0.0
2.162960 0.879977 -0.004985 0.0
0.993007 1.126078 0.000038 0.0
3.319516 0.507607 0.000898 0.0
0.220578 0.193416 -0.001303 0.0
1.718883 0.001848 -0.004305 0.0
3.039338 0.226199 -0.004484 0.0
2.408093 1.186154 -0.000877 0.0
0.224047 0.901498 0.006406 0.0
4.475899 0.095452 0.000115 0.0
1.129265 1.338369 -0.001119 0.0
2.378248 0.144435 -0.003283 0.0
0.605693 0.792792 0.002091 0.0
0.264128 1.129125 -0.000932 0.0
1.591538 0.974037 0.002011 0.0
2.035138 1.205969 -0.000180 0.0
4.176416 0.434004 -0.002460 0.0
3.520983 1.361649 0.001441 0.0
1.891967 1.369359 0.001270 0.0
3.588152 0.296953 -0.000483 0.0
0.384656 1.387958 0.001829 0.0
3.775151 0.780880 0.001628 0.0
3.750336 0.182492 -0.000522 0.0
4.185692 1.703326 0.001103 0.0
1.531814 0.787307 0.002399 0.0
0.628822 1.568811 0.003794 0.0
2.903622 0.267703 -0.000778 0.0
0.456195 0.738867 -0.003266 0.0
3.904461 1.242516 0.003327 0.0
2.328137 0.873669 0.000251 0.0
0.175610 0.785450 -0.000900 0.0
3.876104 0.527920 0.000354 0.0
2.542748 1.644819 0.003972 0.0
2.765634 0.751689 0.003006 0.0
0.758675 1.046227 0.007163 0.0
0.461531 0.811869 -0.001556 0.0
0.137032 1.022188 -0.001941 0.0
3.364306 0.145301 0.000555 0.0
2.089460 0.649907 0.000122 0.0
2.849576 0.772765 -0.002428 0.0
0.292197 1.180012 0.004696 0.0
4.409896 1.688924 0.003266 0.0
2.635852 0.948178 0.002316 0.0
2.884516 0.567493 0.000150 0.0
1.865817 1.551531 0.000075 0.0
2.848067 0.724044 0.002323 0.0
2.184448 0.615618 -0.000764 0.0
1.461971 1.453441 0.002737 0.0
3.752811 1.195820 0.000480 0.0
2.572941 0.330580 0.000840 0.0
2.517135 1.165063 0.006634 0.0
4.351122 0.381714 0.000593 0.0
1.294290 0.620683 -0.001454 0.0
2.817500 0.996085 -0.002764 0.0
1.689287 0.660701 -0.003599 0.0
0.983902 1.177509 -0.004815 0.0
2.719132 1.464772 0.004392 0.0
3.534650 1.660452 0.000454 0.0
2.305446 1.243460 -0.001942 0.0
4.502304 0.958561 0.001671 0.0
2.261624 0.294766 -0.000085 0.0
1.039226 0.255700 -0.000505 0.0
3.396039 0.417576 -0.002977 0.0
2.907700 0.320643 0.001112 0.0
1.837825 0.742061 0.001205 0.0
3.317214 0.787780 -0.005106 0.0
1.916829 0.421662 0.000416 0.0
2.854430 1.657916 -0.001734 0.0
0.580670 0.629352 -0.002969 0.0
0.373961 0.609975 -0.002800 0.0
2.199371 0.022545 0.002487 0.0
0.468300 0.145017 -0.002138 0.0
1.819014 0.319554 -0.002560 0.0
3.194096 1.407852 -0.005613 0.0
3.638567 1.550674 0.000633 0.0
4.426085 0.678629 -0.001020 0.0
3.576003 0.754014 0.001542 0.0
2.134383 0.786431 -0.005537 0.0
0.907987 0.278301 0.002634 0.0
1.884173 1.619720 -0.001832 0.0
2.043320 1.280727 0.006688 0.0
4.387110 1.216657 0.000740 0.0
3.127106 0.968756 0.000766 0.0
3.289228 1.359531 0.001260 0.0
1.253781 1.017047 0.004481 0.0
1.051598 0.961166 -0.002744 0.0
0.170775 0.330754 -0.000018 0.0
3.302179 0.824419 -0.001248 0.0
1.227501 0.953790 -0.001561 0.0
1.401145 1.700166 -0.000140 0.0
4.139375 1.027889 0.001745 0.0
1.933400 1.492653 0.001907 0.0
2.282523 1.449005 0.001848 0.0
3.745873 0.676146 0.000298 0.0
4.169166 1.244856 -0.002384 0.0
0.268650 1.220453 0.001229 0.0
0.619600 0.412782 -0.001089 0.0
3.840266 1.077998 -0.002036 0.0
1.853881 0.325584 0.004607 0.0
0.340910 1.566971 -0.001696 0.0
3.023617 0.846492 -0.001472 0.0
2.146113 0.413777 -0.003639 0.0
1.669149 1.524650 -0.001186 0.0
4.469147 0.821266 0.002325 0.0
4.101414 1.556514 -0.001498 0.0
0.841921 1.029648 -0.000318 0.0
2.764080 1.696384 0.001192 0.0
1.783287 0.657595 0.003416 0.0
1.378572 0.890206 0.002906 0.0
1.861210 0.964589 0.002364 0.0
0.749869 0.285464 0.000912 0.0
1.353268 0.008446 -0.001515 0.0
4.376543 1.436768 0.001843 0.0
3.215996 0.962691 -0.001933 0.0
3.265326 0.892134 -0.001070 0.0
0.050560 0.336618 -0.000452 0.0
4.198174 1.663269 0.000750 0.0
4.073400 1.243461 0.000563 0.0
0.934542 0.665696 0.003937 0.0
0.615525 1.136166 0.003757 0.0
0.185899 0.445366 0.000574 0.0
1.670009 0.752646 0.003404 0.0
2.506567 0.480467 0.001461 0.0
3.198439 0.290600 -0.001686 0.0
4.357027 1.172115 0.000876 0.0
4.169740 0.495726 -0.001361 0.0
2.483597 1.638558 -0.002503 0.0
1.855347 0.849050 0.001833 0.0
2.862896 1.063255 -0.000895 0.0
1.289471 0.193578 -0.000106 0.0
1.793133 0.526880 -0.001919 0.0
1.746313 1.714372 -0.002976 0.0
0.631262 1.666152 -0.001687 0.0
0.818400 0.725663 0.002547 0.0
0.186038 0.608732 0.000697 0.0
0.253160 1.573147 0.001850 0.0
0.842663 0.695125 0.002447 0.0
1.108168 0.234339 0.003646 0.0
2.473778 0.822540 -0.000532 0.0
1.754377 0.838371 0.001005 0.0
3.515374 1.324280 -0.000159 0.0
0.591718 1.129996 -0.000551 0.0
4.159564 0.449496 -0.003162 0.0
0.708103 0.559149 -0.000855 0.0
4.434616 0.434917 0.003296 0.0
2.281640 0.186848 -0.001298 0.0
0.792407 0.827976 0.006405 0.0
0.559526 1.223028 -0.001719 0.0
3.730057 0.488306 0.000405 0.0
4.411496 1.193729 0.003023 0.0
3.343034 0.353555 0.003261 0.0
3.999373 1.196904 0.000901 0.0
3.887627 1.120281 -0.002030 0.0
2.963763 0.656801 0.000879 0.0
3.030774 0.043865 0.004358 0.0
0.457177 1.362506 -0.001340 0.0
3.986003 0.933269 -0.003022 0.0
3.497485 1.524958 -0.003112 0.0
2.917137 1.322404 -0.001037 0.0
3.449428 1.284118 -0.002050 0.0
2.343089 0.694710 0.002638 0.0
3.947432 0.196154 -0.000601 0.0
3.572652 1.209831 0.000414 0.0
0.893510 1.200675 0.000042 0.0
2.691827 1.504251 0.000355 0.0
1.089722 1.348307 0.000384 0.0
0.371872 0.986557 -0.003219 0.0
1.766620 1.224106 -0.001538 0.0
4.375057 0.950290 -0.007187 0.0
1.319246 0.861864 -0.003100 0.0
3.329746 1.258833 0.000407 0.0
2.631775 0.540270 0.001031 0.0
1.310782 0.908987 -0.000614 0.0
3.865797 1.495627 -0.000048 0.0
2.667464 0.916220 0.000917 0.0
1.172594 0.624641 0.000760 0.0
1.743828 0.381334 -0.002975 0.0
2.813971 0.626369 -0.001748 0.0
0.894638 0.228317 -0.001848 0.0
0.304112 0.522426 0.002555 0.0
2.279471 1.468511 0.001976 0.0
4.457960 1.065357 -0.000534 0.0
1.559085 0.443982 -0.000708 0.0
1.615294 0.023753 -0.000446 0.0
0.813975 1.211455 0.002770 0.0
1.095399 0.961132 0.004486 0.0
1.302681 0.610763 -0.000314 0.0
2.041093 1.486842 0.007119 0.0
2.244491 0.996585 -0.000587 0.0
3.972878 1.443827 0.003562 0.0
3.456429 0.450142 0.000860 0.0
0.766860 1.360365 0.005957 0.0
2.441509 1.606163 0.003735 0.0
0.884094 0.592861 0.003925 0.0
3.133485 0.993452 0.000799 0.0
3.183403 0.513123 -0.002380 0.0
4.152189 0.920404 0.001845 0.0
2.634356 0.932774 0.003820 0.0
2.783639 1.642250 0.000450 0.0
2.519028 1.200349 0.000659 0.0
4.302131 0.473484 0.002368 0.0
1.141924 0.837521 -0.000227 0.0
3.836459 1.372644 -0.005657 0.0
2.874508 0.720652 -0.001379 0.0
3.672819 0.419579 -0.000008 0.0
2.414821 0.405864 0.000950 0.0
1.162838 1.145422 -0.000270 0.0
3.018823 0.758464 0.003803 0.0
3.111664 1.100733 0.001887 0.0
3.699943 1.084406 -0.000139 0.0
0.876805 1.011735 0.000384 0.0
4.051094 1.315813 0.001715 0.0
2.350760 1.465468 0.000569 0.0
0.613216 1.002706 0.004945 0.0
1.211160 0.711008 0.000768 0.0
2.454529 1.664711 -0.004302 0.0
0.768099 0.681656 0.004340 0.0
3.661100 1.452680 0.002466 0.0
0.696293 1.161521 -0.000445 0.0
2.085359 0.149744 -0.000936 0.0
0.629932 0.196891 0.002319 0.0
3.750380 0.260256 0.000566 0.0
3.280142 0.810503 -0.001033 0.0
2.834672 0.174324 -0.000160 0.0
2.008408 0.172290 0.000896 0.0
3.059642 1.317450 -0.000114 0.0
1.895974 1.333253 -0.000663 0.0
0.101641 0.674905 0.003184 0.0
4.322194 1.242533 0.001287 0.0
2.467047 0.499692 0.000452 0.0
2.359347 1.708197 -0.001896 0.0
0.060822 0.208494 0.000875 0.0
1.733501 1.573994 -0.002530 0.0
0.791609 1.627683 -0.002964 0.0
1.436715 1.560924 -0.001513 0.0
1.976168 0.369290 0.002061 0.0
1.871544 1.018903 0.000217 0.0
2.843616 0.818842 0.000868 0.0
3.687512 1.470309 -0.000491 0.0
1.164017 0.636126 -0.001410 0.0
2.738240 0.607969 -0.001291 0.0
3.228480 0.125534 -0.002075 0.0
3.320718 1.595930 0.004297 0.0
4.476673 0.827729 -0.001853 0.0
3.306266 1.335550 -0.002760 0.0
0.407851 1.345108 -0.003478 0.0
1.047930 0.203785 -0.005230 0.0
2.614862 0.544483 -0.003048 0.0
1.785750 1.493551 -0.000831 0.0
0.188842 0.183456 0.000580 0.0
4.123421 1.089584 0.001344 0.0
1.481374 0.595072 0.002290 0.0
1.149139 0.241604 0.002063 0.0
1.875579 1.295276 0.001549 0.0
3.746830 0.138162 -0.001318 0.0
0.132730 0.730391 0.001819 0.0
0.953091 1.027956 0.000606 0.0
0.765606 0.607237 -0.001506 0.0
1.836324 0.315369 -0.000202 0.0
3.629610 1.318977 0.002744 0.0
2.565548 0.514359 0.001171 0.0
2.981076 0.957993 -0.001262 0.0
1.858159 1.474983 -0.003009 0.0
3.775017 0.730254 0.006854 0.0
2.108035 0.169732 0.000158 0.0
1.982318 0.462787 0.001992 0.0
1.367777 1.353153 -0.000106 0.0
2.036105 1.188539 -0.004373 0.0
3.127979 0.789838 -0.000920 0.0
0.253580 1.170926 0.002530 0.0
0.655660 0.852641 -0.000498 0.0
1.724371 0.867085 0.002686 0.0
0.456277 1.039458 -0.003298 0.0
3.567639 0.785853 0.000398 0.0
3.994637 0.416976 0.001809 0.0
0.219101 1.077108 -0.001980 0.0
0.850491 0.283709 -0.001691 0.0
3.149055 0.503967 0.001150 0.0
0.820560 0.165106 -0.000471 0.0
1.910149 1.499225 -0.002624 0.0
3.427092 0.701068 0.001230 0.0
1.385182 1.135448 0.000534 0.0
0.696272 0.835687 -0.000750 0.0
1.042748 1.618350 -0.001985 0.0
0.250831 1.678798 -0.005170 0.0
2.010551 0.476444 -0.005101 0.0
3.935357 0.869422 0.000842 0.0
0.144326 1.001409 -0.002421 0.0
3.287482 0.712687 0.001338 0.0
3.333019 1.465770 -0.003781 0.0
3.520008 1.061721 0.000123 0.0
2.166697 0.785471 0.001908 0.0
3.080162 1.454948 -0.006479 0.0
2.203991 1.392622 -0.002056 0.0
1.508786 1.545300 -0.002063 0.0
3.544296 0.199638 0.000323 0.0
1.802794 0.944949 -0.000624 0.0
1.252912 0.387211 0.002384 0.0
1.161358 1.312989 -0.000709 0.0
2.996702 0.645729 -0.000188 0.0
4.244486 0.333224 -0.000243 0.0
0.346691 0.793613 -0.004515 0.0
3.363197 0.487610 -0.002135 0.0
3.772172 1.627048 -0.001638 0.0
1.761183 1.473171 0.000477 0.0
4.233128 0.709027 0.005677 0.0
0.642985 0.115923 0.000989 0.0
3.820662 0.924202 -0.004192 0.0
0.723958 0.361776 -0.004499 0.0
2.173096 0.234011 0.000665 0.0
3.502322 1.121190 0.000231 0.0
1.655529 0.951942 0.002008 0.0
0.933226 1.415833 -0.000950 0.0
0.326372 0.775314 0.001480 0.0
0.129912 1.243527 -0.000172 0.0
3.097591 1.703225 0.002941 0.0
1.397243 0.937076 0.003618 0.0
2.779266 1.408550 -0.000123 0.0
0.924727 0.437060 -0.001355 0.0
1.564155 0.393734 -0.001849 0.0
1.890253 0.418879 0.002591 0.0
3.527673 0.967750 0.000266 0.0
3.582470 1.007276 0.000167 0.0
1.109753 1.062288 -0.002597 0.0
3.937675 0.572582 0.001215 0.0
0.199004 0.352619 -0.000951 0.0
1.306551 1.394591 0.001766 0.0
4.444839 1.080984 -0.000747 0.0
2.905769 1.251092 -0.002367 0.0
1.408444 0.685629 -0.002059 0.0
1.088540 0.422467 0.000063 0.0
0.200396 0.885932 -0.000487 0.0
0.622147 0.475145 0.003393 0.0
2.786119 0.922701 -0.001031 0.0
4.129475 1.408270 -0.001578 0.0
2.627460 0.240758 0.002723 0.0
1.492122 0.946832 0.001805 0.0
1.912878 0.115245 -0.000943 0.0
4.290928 1.548376 -0.000478 0.0
2.968803 1.054166 -0.004633 0.0
2.854689 1.404172 0.001421 0.0
2.602067 0.306072 -0.001727 0.0
0.081264 0.852551 0.001358 0.0
1.731710 0.784956 -0.001132 0.0
1.131616 0.582800 0.003417 0.0
3.952977 0.658357 -0.002438 0.0
4.204954 0.618768 -0.003201 0.0
4.234670 1.076524 -0.001017 0.0
4.297902 0.648096 -0.002981 0.0
2.714771 1.310441 -0.001082 0.0
4.465767 1.063797 0.003936 0.0
1.729265 0.954263 0.003728 0.0
0.179801 0.283576 -0.002112 0.0
3.539838 0.126901 -0.001139 0.0
2.055679 1.471963 -0.003071 0.0
2.372207 -0.000078 0.000934 0.0
2.255809 0.809449 -0.003130 0.0
2.820851 1.145349 0.001448 0.0
3.613797 0.492980 -0.000331 0.0
2.886877 1.544840 -0.006157 0.0
0.037855 1.176173 -0.000566 0.0
2.641826 1.070946 -0.003446 0.0
2.417027 0.450891 0.000137 0.0
0.186414 1.595689 0.003937 0.0
3.414707 0.444164 -0.001565 0.0
4.203204 1.306963 -0.000123 0.0
3.793554 0.617907 -0.000351 0.0
1.184481 0.181773 -0.000875 0.0
3.167565 0.516222 0.002050 0.0
0.277120 0.871409 -0.002424 0.0
3.872289 0.344862 0.004719 0.0
1.070692 0.096046 -0.000186 0.0
3.780285 1.225169 0.001417 0.0
0.062076 0.488584 0.000775 0.0
2.945716 0.070979 0.002742 0.0
2.371147 0.180259 -0.001951 0.0
2.760848 0.751312 0.000532 0.0
4.276708 0.675729 0.002412 0.0
4.135170 1.636454 -0.001569 0.0
3.593789 0.014083 -0.002273 0.0
4.285284 1.582048 -0.001654 0.0
0.913486 0.712008 0.000872 0.0
1.269731 0.984430 0.001611 0.0
3.796012 1.257844 -0.000462 0.0
0.097786 1.206062 0.004360 0.0
0.319817 0.271482 -0.003163 0.0
0.277456 0.931669 0.003627 0.0
2.115439 0.981873 0.001202 0.0
1.756525 1.136415 -0.000626 0.0
1.427876 0.318287 0.002042 0.0
3.243642 1.540187 0.003864 0.0
0.197070 1.118907 0.002550 0.0
1.518029 0.716633 0.002714 0.0
0.526993 0.159790 0.001451 0.0
1.783587 1.258531 -0.004094 0.0
0.867950 0.211348 0.003778 0.0
3.798955 1.215559 0.001847 0.0
3.890427 1.583726 -0.001809 0.0
2.665981 1.185030 -0.000763 0.0
2.485233 1.389175 0.001732 0.0
1.968537 0.322160 -0.000682 0.0
3.930393 0.011727 0.001791 0.0
3.837271 0.015914 0.001908 0.0
2.427848 1.170477 -0.002755 0.0
2.971872 0.013203 -0.005056 0.0
3.305496 1.329436 0.003556 0.0
4.203046 1.350186 0.002048 0.0
1.037390 0.669084 0.005285 0.0
0.812250 0.651010 0.002520 0.0
0.072871 1.194067 0.002405 0.0
0.339718 0.506343 -0.000579 0.0
0.926782 0.098253 -0.001331 0.0
0.407751 1.060233 -0.001424 0.0
2.224542 0.063445 0.005837 0.0
3.390494 0.124501 -0.001422 0.0
0.312822 1.534577 -0.000873 0.0
2.932950 0.289986 -0.002222 0.0
1.012543 1.254901 0.000279 0.0
3.391356 0.186693 0.000454 0.0
1.166892 0.031472 -0.001601 0.0
2.787726 0.423364 0.001974 0.0
2.878140 1.122627 0.000325 0.0
3.272285 0.980429 -0.001478 0.0
1.275339 1.291552 -0.001954 0.0
1.222997 0.869480 0.000133 0.0
2.546072 1.149970 -0.004958 0.0
1.025194 1.592364 -0.003264 0.0
3.580922 1.603832 -0.003394 0.0
3.786944 0.141463 -0.005585 0.0
4.277979 0.715263 -0.002452 0.0
3.682243 1.349661 -0.002181 0.0
2.682570 0.230607 0.003366 0.0
1.179979 0.834019 -0.000980 0.0
3.661989 1.057668 0.000310 0.0
0.614305 0.880305 0.000601 0.0
4.415401 1.288657 -0.003717 0.0
4.505592 0.036636 0.006003 0.0
4.377482 0.841297 0.001820 0.0
1.796924 1.488393 -0.000720 0.0
0.748766 0.693541 0.000783 0.0
2.839990 0.448405 0.000810 0.0
1.092999 0.688453 0.004855 0.0
1.479572 1.384424 0.002024 0.0
1.011613 1.308869 0.001775 0.0
3.772538 0.481989 -0.000947 0.0
3.247763 1.529522 0.001459 0.0
3.708461 1.017573 0.004070 0.0
0.297484 1.258029 -0.001273 0.0
1.289463 0.738048 -0.000468 0.0
2.782849 0.505186 0.001938 0.0
1.904225 0.074912 -0.000842 0.0
3.247759 0.064215 0.001073 0.0
0.711684 0.263975 0.001382 0.0
0.958251 0.701426 0.002781 0.0
1.557813 1.087397 -0.001115 0.0
3.805046 1.002661 -0.000298 0.0
0.224555 0.045517 0.003326 0.0
2.579913 0.332006 0.002718 0.0
1.911455 0.014926 0.001815 0.0
0.945560 0.834022 0.000463 0.0
1.132582 1.475741 0.002917 0.0
0.840193 0.799832 -0.002538 0.0
1.054870 0.459285 -0.003118 0.0
0.434559 0.501440 0.001633 0.0
2.810524 1.090189 -0.003687 0.0
1.825232 1.038969 -0.000546 0.0
2.932991 1.540059 0.000006 0.0
3.501677 0.841663 0.001817 0.0
2.180384 1.133790 0.000542 0.0
1.229686 0.462851 0.004133 0.0
0.686479 0.684735 0.006094 0.0
3.408368 0.793884 -0.000670 0.0
1.303011 1.693331 -0.000669 0.0
1.956705 0.636239 0.000151 0.0
2.785140 0.457057 0.002187 0.0
4.222618 0.760941 -0.001200 0.0
1.301795 0.432820 -0.001361 0.0
4.465662 0.663810 -0.000050 0.0
3.942263 1.065560 -0.002907 0.0
1.903129 0.253064 0.002583 0.0
1.504023 0.130382 0.000346 0.0
3.568171 0.636276 -0.000288 0.0
1.889016 1.698560 0.000021 0.0
1.496395 0.068613 0.004207 0.0
3.306832 1.312918 -0.000548 0.0
3.976818 0.504280 0.002012 0.0
3.390782 0.752976 0.000008 0.0
1.426054 0.105862 0.000187 0.0
0.489770 0.898833 0.002018 0.0
0.279413 1.308634 -0.001746 0.0
2.385051 0.335174 0.001339 0.0
2.722357 0.155016 0.001797 0.0
3.337730 0.234478 0.000303 0.0
3.090003 1.493437 -0.000130 0.0
1.836630 0.598159 -0.000891 0.0
1.892612 1.368371 0.002091 0.0
2.599421 0.432360 0.000218 0.0
1.690811 0.088668 -0.001075 0.0
2.969428 0.269993 -0.000021 0.0
2.625008 1.336129 -0.006081 0.0
2.821262 1.428213 0.002111 0.0
0.564645 0.705222 0.004357 0.0
1.937140 0.584602 0.004661 0.0
4.411533 0.631867 0.002835 0.0
3.441796 1.180510 -0.000901 0.0
0.807530 1.291955 0.001152 0.0
2.580851 0.038856 -0.000488 0.0
3.475889 0.786528 0.004414 0.0
2.346214 1.503493 0.001808 0.0
4.179713 1.046387 0.001007 0.0
4.309136 0.540434 -0.000757 0.0
0.563013 1.133294 0.001186 0.0
2.932527 0.758831 0.000681 0.0
1.244541 1.151041 0.001652 0.0
3.389641 1.242928 0.001126 0.0
4.192018 0.152442 0.000603 0.0
0.169354 0.611959 -0.002580 0.0
2.734129 1.584841 -0.000386 0.0
4.186043 1.082796 0.002025 0.0
0.647903 0.996924 -0.002364 0.0
1.610459 0.886619 -0.004216 0.0
0.448579 1.098915 -0.000331 0.0
2.881639 0.709493 -0.003068 0.0
2.467485 0.389634 0.000695 0.0
3.927705 0.303790 -0.002378 0.0
1.007356 1.645283 -0.001991 0.0
4.133167 0.528048 -0.001383 0.0
4.211338 1.022101 -0.002206 0.0
1.599163 1.441029 0.000614 0.0
4.116859 0.244883 0.001249 0.0
4.011144 0.694291 -0.000996 0.0
3.255060 1.200579 -0.002006 0.0
3.448575 0.165733 -0.002692 0.0
4.072468 0.733595 -0.002402 0.0
1.987875 1.536933 0.003165 0.0
2.933152 1.614552 -0.000025 0.0
1.415059 0.131635 -0.000713 0.0
1.829401 0.347364 0.002082 0.0
1.735552 1.304456 -0.001912 0.0
2.922271 1.008869 -0.002653 0.0
2.265137 0.372536 -0.000761 0.0
1.706233 1.526406 0.001240 0.0
3.955338 0.417135 -0.002056 0.0
1.195379 0.548897 0.004051 0.0
0.799522 1.600295 -0.006046 0.0
1.564927 0.549683 -0.001228 0.0
3.196519 1.354059 -0.002943 0.0
1.995699 0.517564 -0.003800 0.0
3.630848 1.110894 0.000227 0.0
3.580339 1.390538 -0.004584 0.0
1.510815 -0.001888 -0.002302 0.0
2.602390 1.407618 0.003085 0.0
1.020601 1.599805 -0.002217 0.0
2.770886 0.638565 -0.000684 0.0
3.508863 1.430401 -0.000932 0.0
3.330317 1.272051 -0.000177 0.0
1.392023 0.533928 0.007634 0.0
0.586563 1.675253 0.000790 0.0
3.197041 0.462643 -0.002105 0.0
0.617661 0.540465 -0.000927 0.0
0.521875 0.060995 0.004387 0.0
2.620889 0.432833 0.001306 0.0
1.978759 0.050617 -0.001419 0.0
2.096589 0.191978 0.001375 0.0
1.433310 0.755297 -0.001556 0.0
4.453488 0.874944 -0.000641 0.0
3.392996 1.010452 -0.003927 0.0
1.181584 1.438557 0.000583 0.0
2.386939 1.291395 0.001622 0.0
0.344281 0.350759 0.002963 0.0
0.522937 0.894866 -0.000188 0.0
4.284581 1.091188 -0.002138 0.0
2.927227 1.537662 0.001077 0.0
3.931027 1.080378 -0.000056 0.0
1.694746 0.163372 -0.001276 0.0
3.198306 0.808444 -0.000491 0.0
3.563971 0.906932 0.002804 0.0
1.814766 0.913946 0.003728 0.0
0.085799 1.146197 -0.002017 0.0
0.476404 0.630917 0.000424 0.0
0.252773 0.832821 -0.001274 0.0
1.671821 0.392437 -0.000843 0.0
0.184916 1.363942 0.001934 0.0
0.590303 0.069185 -0.001455 0.0
3.054153 1.476856 0.000737 0.0
0.435686 1.516070 0.001633 0.0
1.678168 1.238693 -0.000818 0.0
1.594409 1.315247 0.001862 0.0
2.430072 0.195810 0.001178 0.0
0.190167 1.080046 0.000086 0.0
4.018313 0.148074 0.000926 0.0
3.734784 0.356002 0.003770 0.0
0.309888 1.303376 0.001739 0.0
1.100318 1.074019 0.001450 0.0
0.401621 1.708737 -0.001117 0.0
0.309143 0.749173 -0.001745 0.0
0.019476 1.074305 0.001553 0.0
0.041280 0.926443 -0.000751 0.0
3.243985 0.996563 0.001588 0.0
1.456418 1.109972 -0.003325 0.0
1.209462 1.628912 -0.002695 0.0
0.522646 1.424797 0.002315 0.0
3.085291 1.298044 0.000333 0.0
2.181359 0.015721 -0.002187 0.0
0.288539 1.330216 0.000365 0.0
2.236854 0.012746 0.002165 0.0
3.725569 1.281881 0.005841 0.0
4.365135 1.040538 -0.004705 0.0
1.883895 0.623610 -0.001059 0.0
1.814324 1.421488 -0.000754 0.0
0.786563 1.220592 0.001840 0.0
0.766287 0.130213 0.006238 0.0
2.768954 0.830602 0.001199 0.0
2.728129 0.610383 0.003372 0.0
0.458065 1.397015 0.000244 0.0
1.812920 1.254375 -0.000925 0.0
1.353030 1.105131 -0.006380 0.0
0.862080 0.013440 -0.000372 0.0
4.307121 1.402130 0.002969 0.0
3.972275 1.143583 0.002281 0.0
3.881512 1.354393 0.000758 0.0
0.811516 0.276731 0.006127 0.0
3.334746 1.070430 -0.000673 0.0
2.877776 0.215961 -0.000515 0.0
4.222183 0.985148 -0.002894 0.0
4.086017 1.463168 -0.001044 0.0
2.167231 0.098261 0.003236 0.0
2.680231 1.707644 -0.002171 0.0
2.720585 1.090051 -0.001453 0.0
0.978946 0.936230 0.000058 0.0
2.930201 1.187041 -0.003706 0.0
4.440890 1.342716 -0.000920 0.0
3.334101 0.072190 0.001890 0.0
0.023219 0.182096 -0.001853 0.0
2.602216 0.650277 0.001140 0.0
3.638065 1.374445 0.003321 0.0
1.003920 0.238634 -0.000731 0.0
3.898136 0.156418 0.002269 0.0
2.683505 0.877757 0.003870 0.0
0.880122 1.442461 -0.003805 0.0
3.979908 1.254574 0.003040 0.0
1.450255 0.659402 -0.004439 0.0
3.929490 0.178988 -0.001687 0.0
2.551950 0.083316 0.001049 0.0
3.304539 1.212072 0.002510 0.0
3.324269 0.443419 -0.003645 0.0
0.418803 1.588275 0.002650 0.0
1.271803 1.395263 -0.002344 0.0
2.396985 1.607803 0.000463 0.0
1.279874 0.007289 -0.001186 0.0
0.631463 1.111626 -0.002901 0.0
0.945867 0.122279 0.002436 0.0
3.421840 0.621898 -0.003225 0.0
3.882530 0.437513 -0.002287 0.0
3.477703 0.523592 0.002198 0.0
4.214239 0.588982 0.000670 0.0
1.062126 0.053996 -0.000783 0.0
2.821044 0.236279 0.002778 0.0
4.446137 1.560574 -0.002807 0.0
3.355763 0.314055 0.001310 0.0
2.227902 1.094875 0.002805 0.0
1.699992 1.210883 0.003058 0.0
3.460627 0.676031 -0.000263 0.0
4.052521 0.962846 0.000949 0.0
3.192592 0.569929 0.000771 0.0
2.298101 0.322635 0.003100 0.0
2.771847 0.523940 0.001220 0.0
0.666405 1.439602 -0.001352 0.0
2.335823 0.832617 0.000728 0.0
0.961853 1.099929 0.000142 0.0
0.670280 0.099778 0.001799 0.0
2.094157 1.033371 0.002472 0.0
2.971438 0.779279 0.003683 0.0
0.104806 1.446746 -0.003749 0.0
0.093463 1.242032 0.000288 0.0
3.151979 0.791630 0.003056 0.0
3.830240 1.453650 -0.002459 0.0
0.476022 0.988259 0.001980 0.0
2.784635 1.501098 -0.005507 0.0
1.770028 0.859006 0.005247 0.0
3.284530 0.395033 -0.004500 0.0
4.160511 0.119992 -0.001782 0.0
0.811323 1.029961 -0.000266 0.0
4.213316 0.237408 0.000539 0.0
2.359320 0.048160 -0.000380 0.0
3.937190 1.446658 0.001236 0.0
4.158884 1.286719 -0.001075 0.0
2.772027 0.528176 0.002102 0.0
1.024284 0.695715 0.005268 0.0
0.787360 0.738676 -0.001927 0.0
4.059207 0.713567 0.001319 0.0
0.237467 1.279004 -0.004004 0.0
2.424813 0.304694 0.003169 0.0
3.694675 1.689831 0.001614 0.0
1.506877 0.617433 0.001396 0.0
0.172438 0.686251 0.003316 0.0
3.243820 0.069382 -0.002303 0.0
0.883623 1.110751 -0.000934 0.0
0.618123 0.988179 -0.002598 0.0
4.273827 1.618805 0.002887 0.0
4.181671 0.368449 -0.003370 0.0
4.505326 1.392868 0.003983 0.0
3.690677 1.109736 -0.002040 0.0
3.157324 0.080948 -0.000843 0.0
4.249456 0.683275 0.001686 0.0
3.427556 1.375637 0.004785 0.0
2.844704 0.627409 0.001553 0.0
1.174789 1.265358 -0.000419 0.0
0.304060 0.464729 -0.001689 0.0
4.462952 0.824328 -0.001215 0.0
2.845734 0.023537 -0.004126 0.0
3.121208 0.869934 0.004726 0.0
0.191574 1.693916 0.003421 0.0
2.353358 0.974738 0.003643 0.0
1.954106 1.220212 -0.003078 0.0
1.180570 1.556218 0.000532 0.0
1.079184 1.517395 0.002752 0.0
3.558035 1.433426 -0.001873 0.0
2.999840 1.348589 -0.001297 0.0
1.396682 1.297433 -0.000647 0.0
1.556213 1.343293 -0.001050 0.0
1.843089 1.343368 -0.001279 0.0
4.109819 1.382787 0.003342 0.0
2.336245 0.522088 -0.001027 0.0
3.360987 0.665618 -0.002673 0.0
1.076492 0.250058 -0.003402 0.0
3.205366 1.363751 0.000660 0.0
4.496076 0.427333 0.000023 0.0
4.328496 1.390101 -0.000765 0.0
4.112952 0.468116 -0.001002 0.0
0.678457 1.306082 0.001044 0.0
4.473799 0.366514 -0.001315 0.0
0.851947 0.646302 -0.002813 0.0
1.092308 1.571832 -0.001954 0.0
0.729244 0.292674 0.002617 0.0
1.511538 0.955279 -0.000397 0.0
1.323189 0.374788 -0.002321 0.0
1.317374 1.437314 0.003233 0.0
0.862795 0.738938 -0.000912 0.0
3.982251 0.634748 0.003685 0.0
3.551362 1.082922 0.003227 0.0
0.051793 1.095877 -0.001086 0.0
0.811020 0.798215 -0.003695 0.0
4.421688 0.159050 -0.002544 0.0
4.168343 1.668552 0.000848 0.0
0.404555 0.076374 -0.001037 0.0
1.470807 1.218151 0.000585 0.0
2.383755 0.674010 0.005456 0.0
0.118283 0.174497 0.001288 0.0
0.316393 1.106538 -0.000690 0.0
0.510045 0.676313 0.001151 0.0
2.188640 0.858011 0.000276 0.0
1.667277 0.593026 0.002337 0.0
0.770270 0.057198 -0.000738 0.0
2.726294 0.664705 -0.002848 0.0
2.345279 0.337492 0.000098 0.0
3.392121 0.835077 0.000921 0.0
0.967544 0.686644 0.000385 0.0
3.031131 1.090003 0.003847 0.0
3.383288 1.038078 -0.003206 0.0
0.634472 0.851562 0.002550 0.0
4.280340 1.071042 -0.001315 0.0
1.905419 0.828632 -0.001737 0.0
2.899483 0.309757 0.000313 0.0
0.096869 1.711294 0.002844 0.0
2.059322 0.021702 0.001411 0.0
0.380297 1.337290 0.003796 0.0
1.118908 0.833023 0.005396 0.0
2.972610 0.812263 -0.002909 0.0
2.098578 1.456003 0.001805 0.0
3.422216 1.141007 -0.000542 0.0
4.468254 1.072422 0.000006 0.0
4.037095 0.371671 -0.002774 0.0
4.248557 1.587161 0.003554 0.0
0.217486 1.690038 0.000716 0.0
3.952530 0.411509 -0.000298 0.0
0.759627 0.474894 -0.001538 0.0
1.295978 1.170258 0.001927 0.0
4.188447 1.338404 0.003258 0.0
4.111168 0.305890 -0.004851 0.0
0.067894 0.569704 -0.005320 0.0
0.154367 0.934390 -0.000629 0.0
1.973646 1.219854 0.001425 0.0
2.388886 0.909253 0.003406 0.0
3.178255 0.703916 0.003946 0.0
3.482664 1.108783 0.003398 0.0
3.997085 1.009575 -0.002973 0.0
4.324843 1.361478 0.001491 0.0
2.475735 0.366807 -0.001064 0.0
2.427301 1.200864 -0.000788 0.0
1.536445 1.266853 0.001218 0.0
3.964112 1.288227 0.000751 0.0
0.363716 0.128947 -0.000580 0.0
1.300845 1.680059 0.000979 0.0
2.261733 0.637004 -0.001039 0.0
2.847289 1.691787 -0.002137 0.0
0.301099 1.107183 0.005666 0.0
4.157950 0.176777 -0.000334 0.0
0.726590 0.290687 -0.002849 0.0
1.294643 0.847993 0.003381 0.0
1.222683 0.669149 0.001196 0.0
4.148116 0.096635 -0.000235 0.0
1.474871 0.522032 -0.000601 0.0
1.827544 0.222530 -0.003016 0.0
1.151441 0.200370 -0.003940 0.0
0.266427 1.352228 0.001320 0.0
1.126641 1.034165 -0.001161 0.0
3.832968 0.509799 -0.000345 0.0
0.626280 0.667874 -0.002848 0.0
0.111285 1.287674 0.000074 0.0
1.054315 0.937202 0.002401 0.0
0.285803 1.252979 -0.002463 0.0
2.914216 1.677996 -0.001413 0.0
0.081962 0.540827 -0.001596 0.0
2.017147 0.925903 -0.000527 0.0
2.101262 1.371369 -0.001847 0.0
1.305274 0.769655 0.000820 0.0
3.398775 0.878779 -0.004116 0.0
4.239709 1.493420 0.000505 0.0
