3.110549 1.060978 -0.002932 0.0
1.436130 0.932532 0.000209 0.0
3.131012 0.643968 -0.000719 0.0
2.009226 0.817643 -0.000082 0.0
2.595047 1.906973 -0.002395 0.0
0.981179 0.434686 -0.000894 0.0
3.489784 0.004403 -0.001083 0.0
2.351697 0.848943 -0.001396 0.0
0.785216 0.219431 -0.005180 0.0
1.009625 0.070150 0.000290 0.0
3.293567 1.395022 -0.001139 0.0
0.001441 0.804938 -0.002748 0.0
2.122667 1.730657 0.001706 0.0
2.162130 0.481907 -0.000457 0.0
2.694335 1.523955 -0.003948 0.0
3.970550 0.985386 0.000448 0.0
1.874546 0.472382 -0.001014 0.0
3.465357 2.322883 -0.003414 0.0
0.653191 2.209775 -0.002937 0.0
3.157630 2.248883 -0.001302 0.0
2.275689 1.352489 -0.002900 0.0
1.068269 2.156397 -0.003115 0.0
2.640782 0.641251 0.004806 0.0
3.511455 2.194555 0.001853 0.0
1.576969 1.917544 0.000758 0.0
1.566432 0.394001 0.000048 0.0
2.241791 2.225251 -0.000354 0.0
3.002692 1.187910 -0.002994 0.0
2.907334 1.140807 0.000638 0.0
1.270331 0.663953 0.003120 0.0
3.220923 0.376287 0.004371 0.0
1.376888 0.938243 -0.004731 0.0
2.650895 1.989418 0.001432 0.0
1.800720 1.420048 0.000617 0.0
0.050858 0.200243 -0.002100 0.0
0.372035 0.147621 0.002002 0.0
2.825512 1.798176 0.001325 0.0
3.928715 0.688996 0.002086 0.0
1.379201 1.189827 -0.000003 0.0
0.807676 0.855447 0.004110 0.0
3.893494 0.311757 -0.001023 0.0
2.162613 1.374309 -0.003222 0.0
3.928145 0.788836 -0.000403 0.0
2.580801 1.473961 0.005191 0.0
0.597686 1.840629 -0.001517 0.0
4.028158 0.087030 -0.000433 0.0
1.121922 0.275263 0.000180 0.0
1.555193 1.838784 -0.000727 0.0
3.757846 0.822538 0.001811 0.0
2.176152 1.888991 0.000048 0.0
1.216328 1.648301 -0.002050 0.0
2.788714 0.123570 -0.000231 0.0
0.464737 0.497596 0.000248 0.0
0.044845 0.076558 0.003176 0.0
3.846846 0.403515 0.000048 0.0
3.928022 1.866600 0.000931 0.0
4.055765 0.371076 0.002815 0.0
2.015662 2.254742 -0.002466 0.0
0.355708 0.913079 0.003762 0.0
2.336956 0.237994 0.001414 0.0
3.761921 1.423055 0.000154 0.0
1.109777 0.817738 0.003435 0.0
0.934124 0.261154 0.000042 0.0
2.415212 1.682088 -0.002905 0.0
1.691952 0.384985 -0.000648 0.0
1.894480 1.567041 0.000840 0.0
2.470881 1.441027 0.002315 0.0
1.619041 1.651130 -0.000336 0.0
3.747176 1.608359 0.001992 0.0
0.283515 0.904940 0.001583 0.0
1.735624 1.139109 0.003146 0.0
0.383391 2.387501 0.000603 0.0
2.307427 1.371220 -0.001332 0.0
0.640419 0.859334 -0.002135 0.0
0.778719 1.104945 -0.001704 0.0
2.483660 2.363289 -0.004462 0.0
0.401423 2.213576 0.000559 0.0
1.512775 2.366769 0.004208 0.0
3.626663 1.066089 -0.002281 0.0
0.582146 1.306114 0.001328 0.0
2.080272 0.094027 -0.000895 0.0
2.870605 0.285331 -0.002237 0.0
0.822639 0.017097 -0.000274 0.0
2.152957 0.177629 0.000907 0.0
0.998350 1.151768 -0.000937 0.0
2.716636 0.258832 0.001298 0.0
3.412227 0.618826 0.001660 0.0
0.275384 1.110356 0.002780 0.0
3.601919 1.450079 0.000588 0.0
2.693065 2.346929 0.000542 0.0
4.194609 1.447534 0.001121 0.0
0.689081 2.157736 -0.003710 0.0
2.044378 2.398899 0.000471 0.0
3.179596 0.473038 -0.000241 0.0
1.796423 2.020024 -0.000297 0.0
2.910953 0.634141 0.001398 0.0
1.499003 0.099108 -0.000970 0.0
3.150532 0.731968 -0.003766 0.0
0.427255 1.243721 -0.001834 0.0
1.855319 0.086517 0.002088 0.0
1.797157 1.411281 -0.006666 0.0
0.548939 2.040635 -0.001060 0.0
1.599658 0.646365 -0.006643 0.0
3.157020 0.781516 -0.004122 0.0
0.222607 2.259127 -0.000549 0.0
2.478260 2.162335 0.001827 0.0
2.602853 0.799660 -0.000577 0.0
3.026720 0.594131 0.000187 0.0
3.740629 2.405666 0.003679 0.0
0.465043 1.274754 -0.000612 0.0
1.511927 1.309188 -0.001411 0.0
2.744719 0.803964 0.000048 0.0
2.218200 1.679477 0.001030 0.0
0.021871 1.509388 0.001344 0.0
1.424572 1.897268 -0.001780 0.0
1.654033 1.269412 -0.000660 0.0
4.132284 0.244887 -0.000639 0.0
3.810679 1.934430 0.001342 0.0
0.113531 0.316262 0.001021 0.0
0.056975 2.169439 -0.002431 0.0
3.056221 0.081413 0.001563 0.0
1.296468 1.115455 -0.002233 0.0
0.879907 2.389231 0.002081 0.0
1.072528 0.784405 0.002229 0.0
1.176807 1.212736 -0.003756 0.0
3.901896 2.199750 -0.002112 0.0
1.864709 2.100566 0.002580 0.0
3.800845 1.358747 0.001097 0.0
3.329828 1.204048 -0.001925 0.0
4.065735 2.311405 0.001818 0.0
1.754737 0.316898 -0.000123 0.0
1.954873 2.343523 -0.001621 0.0
1.592256 0.728437 0.004030 0.0
0.212224 1.857404 0.000342 0.0
3.755421 0.580301 -0.002115 0.0
2.783751 1.730592 -0.004698 0.0
1.757785 0.609611 -0.000041 0.0
0.102832 0.800516 0.000771 0.0
3.747939 1.469363 0.002977 0.0
3.303495 2.310562 -0.000131 0.0
2.590899 0.950771 0.001927 0.0
0.252568 2.086418 0.000563 0.0
3.003270 1.336675 0.001101 0.0
2.500697 0.891981 0.002128 0.0
3.995733 1.309374 -0.001358 0.0
3.788545 2.022480 -0.000219 0.0
1.669789 0.743230 0.000871 0.0
0.636193 2.204594 0.001668 0.0
0.238986 0.742549 -0.000844 0.0
2.634312 0.863393 0.001016 0.0
1.728584 2.086747 -0.006310 0.0
3.694291 0.580021 0.000310 0.0
4.116809 0.676639 0.002349 0.0
3.547738 0.058757 -0.000353 0.0
3.327134 1.650358 -0.001290 0.0
0.853006 1.211025 -0.002611 0.0
1.498948 1.355794 0.002840 0.0
0.951006 1.044392 -0.001597 0.0
2.400991 1.250339 0.002061 0.0
0.614730 1.404710 0.001140 0.0
3.101597 1.479052 0.001381 0.0
0.289626 1.050804 -0.000073 0.0
1.068256 2.058179 -0.000337 0.0
1.337412 1.730743 -0.000730 0.0
4.029551 0.481704 -0.005399 0.0
2.397418 1.461189 -0.000596 0.0
0.969349 0.284494 -0.001253 0.0
3.439885 1.667605 -0.002249 0.0
0.139382 0.990449 -0.000508 0.0
1.555435 1.649864 0.001838 0.0
2.754279 0.375055 -0.002275 0.0
3.901880 0.032567 -0.004401 0.0
3.262488 1.880115 0.000201 0.0
1.965910 1.714009 -0.004111 0.0
4.093351 1.107272 -0.003032 0.0
1.642685 1.657797 -0.000249 0.0
2.010091 0.065720 0.001535 0.0
0.231629 1.075355 -0.003218 0.0
0.998175 0.606528 -0.003479 0.0
2.069817 1.071658 0.001331 0.0
3.443541 1.035093 -0.002101 0.0
3.102710 1.510218 0.000870 0.0
4.063275 1.035031 0.001955 0.0
1.783005 1.798260 -0.002216 0.0
2.024705 1.093726 0.003965 0.0
1.560999 1.944836 -0.005507 0.0
2.798880 1.076407 -0.000394 0.0
2.698400 0.825904 -0.001483 0.0
4.162409 1.183455 0.003909 0.0
3.482224 0.379750 -0.000203 0.0
1.665657 2.294842 0.002428 0.0
1.477487 1.729709 -0.000760 0.0
3.493893 0.621936 -0.004637 0.0
3.770932 1.031882 0.003533 0.0
0.503481 1.242479 -0.001172 0.0
3.371508 1.272254 0.001227 0.0
2.052792 1.645596 0.005071 0.0
3.707323 0.618861 -0.002944 0.0
0.230614 0.387734 -0.004524 0.0
2.103285 2.163105 -0.000594 0.0
1.853823 0.876831 -0.001404 0.0
2.310968 0.577337 0.002951 0.0
0.891713 1.431021 -0.003063 0.0
0.028696 1.152254 0.001671 0.0
0.445245 2.381332 -0.000107 0.0
0.404984 1.671910 0.005968 0.0
2.142518 1.698164 -0.000474 0.0
2.278277 0.894355 -0.000222 0.0
1.475600 1.327112 0.000452 0.0
0.087592 0.917655 -0.000412 0.0
1.784104 1.678693 0.003005 0.0
1.685730 1.520320 0.001486 0.0
4.160669 0.021518 0.001642 0.0
0.803360 0.722514 0.001535 0.0
3.931060 0.853294 0.001493 0.0
2.393689 0.832378 -0.004016 0.0
1.937684 0.696061 -0.003436 0.0
0.327707 2.264001 0.004190 0.0
1.739821 1.284677 0.003707 0.0
1.722860 0.368566 0.000975 0.0
1.723793 1.990498 -0.004407 0.0
4.157279 1.996438 0.007376 0.0
3.937901 1.628101 -0.002767 0.0
2.590256 0.109448 -0.000787 0.0
4.080002 0.764376 -0.002903 0.0
2.742748 1.345908 0.001670 0.0
4.063850 0.345804 -0.002122 0.0
3.450875 0.984444 -0.001883 0.0
1.355746 1.972543 -0.004568 0.0
0.976486 1.792896 -0.002504 0.0
0.310700 1.003279 0.004657 0.0
0.030640 1.897875 0.001084 0.0
3.802696 1.255155 0.002908 0.0
2.441362 0.060273 -0.003313 0.0
2.155832 1.052870 -0.002299 0.0
0.444395 0.177705 0.000784 0.0
1.116796 2.139750 0.000153 0.0
1.310808 0.615059 0.000128 0.0
3.976963 1.175569 0.003673 0.0
4.060204 0.853517 -0.000870 0.0
3.388701 1.566171 -0.000065 0.0
3.181740 1.327472 0.002905 0.0
2.937173 0.965939 -0.002185 0.0
1.692278 0.434979 -0.000959 0.0
1.226389 1.804066 -0.000662 0.0
4.098982 0.371565 0.001081 0.0
3.598408 0.455164 0.001704 0.0
1.944880 2.305610 -0.000703 0.0
3.890825 1.130563 0.001033 0.0
0.880430 2.236192 0.000386 0.0
1.543857 2.203025 0.001505 0.0
0.142995 1.477811 0.000047 0.0
2.654236 1.807275 -0.000387 0.0
0.658235 1.346479 -0.000308 0.0
2.079280 1.292446 0.000527 0.0
2.899046 2.032724 0.001393 0.0
3.605005 0.757655 -0.001343 0.0
2.642113 1.310337 -0.002844 0.0
0.631125 1.432378 -0.000554 0.0
2.750281 0.594588 -0.003528 0.0
0.198266 0.935897 -0.002234 0.0
0.950014 0.211737 -0.003248 0.0
2.330975 2.371162 0.003155 0.0
4.063194 0.994496 0.005683 0.0
3.416481 2.267033 -0.001293 0.0
1.959713 1.810726 0.002495 0.0
3.579258 2.004666 0.000912 0.0
2.080008 2.353728 0.002932 0.0
0.238168 0.090681 -0.000263 0.0
0.861111 0.932382 -0.004020 0.0
2.973594 0.067138 -0.000392 0.0
2.157534 0.343772 -0.000129 0.0
0.056093 0.675485 -0.001059 0.0
2.333422 2.145537 0.002058 0.0
2.712273 1.861965 -0.000056 0.0
2.383316 0.658517 0.004475 0.0
3.045953 1.944912 0.001459 0.0
3.750891 0.318759 0.000632 0.0
0.297303 0.166372 -0.000501 0.0
3.267198 0.793246 0.004736 0.0
3.395283 1.767744 -0.006157 0.0
1.128501 2.278513 0.001178 0.0
0.960148 0.608467 0.002337 0.0
2.909889 1.681163 0.003297 0.0
2.514256 0.977058 -0.000010 0.0
2.314337 1.078444 -0.003570 0.0
0.850983 1.891921 -0.000980 0.0
-0.003892 1.582079 -0.005552 0.0
3.496677 2.201685 -0.000841 0.0
3.930622 0.861107 0.001042 0.0
0.376259 0.119683 0.000107 0.0
4.024137 1.005488 -0.001597 0.0
1.637689 1.207067 0.004338 0.0
2.603285 1.581258 -0.007551 0.0
2.899811 1.352034 0.002382 0.0
1.389390 1.861053 0.001719 0.0
3.781164 0.387899 0.000144 0.0
0.450253 2.205226 0.004226 0.0
2.221965 0.313586 0.000596 0.0
0.840657 0.483093 0.001090 0.0
3.649751 1.256987 -0.002549 0.0
0.551600 2.059193 -0.000130 0.0
1.869031 0.829595 0.005859 0.0
0.530183 1.777220 -0.000448 0.0
1.065718 0.610668 -0.004385 0.0
0.280317 1.962028 0.003741 0.0
3.077013 2.261842 -0.000095 0.0
0.111202 0.760010 0.001173 0.0
0.275343 2.205811 0.000886 0.0
2.257842 0.854395 0.000530 0.0
2.847900 2.032612 -0.001584 0.0
3.013692 1.340821 -0.001205 0.0
2.025829 1.948074 -0.002221 0.0
0.813309 2.094742 0.001563 0.0
2.619285 0.694917 0.001140 0.0
0.404906 2.263954 0.003987 0.0
2.307851 0.144554 0.002867 0.0
2.935550 0.903526 0.001780 0.0
2.071898 0.479576 -0.000790 0.0
1.609798 1.399442 -0.006179 0.0
0.126616 0.497499 0.000503 0.0
2.496222 1.505869 0.001012 0.0
2.552568 1.931781 0.003282 0.0
3.662543 1.770878 0.000681 0.0
4.098795 1.598633 0.000850 0.0
3.913258 0.430927 0.002463 0.0
2.546037 0.696540 0.001118 0.0
3.410130 2.242945 -0.001352 0.0
3.131203 2.311594 -0.006741 0.0
0.436227 0.779118 0.001417 0.0
4.170105 0.907132 0.001646 0.0
3.033180 1.466462 0.001741 0.0
0.329787 1.654589 -0.000194 0.0
1.371200 0.570542 -0.004544 0.0
1.716249 1.669230 -0.001487 0.0
4.075322 0.006444 -0.001730 0.0
2.987805 2.043121 -0.003088 0.0
0.766605 0.762117 -0.000315 0.0
3.931109 1.192726 -0.005242 0.0
1.715104 2.259443 0.002969 0.0
2.638546 1.744855 0.002423 0.0
2.945546 0.859615 -0.001322 0.0
1.967231 1.675836 -0.001788 0.0
0.807925 1.721024 -0.000365 0.0
3.540582 1.629809 -0.003035 0.0
3.585208 1.329949 -0.003009 0.0
3.397127 0.960602 0.001259 0.0
3.216832 0.494677 -0.000294 0.0
0.839463 0.519456 0.000886 0.0
0.140207 1.708725 -0.005156 0.0
0.652073 2.214098 0.003584 0.0
3.421964 2.114304 -0.000627 0.0
3.677308 2.074246 0.002380 0.0
3.355233 0.773821 0.001240 0.0
0.740691 0.395813 0.000312 0.0
3.178174 1.629354 -0.002822 0.0
2.290620 1.416814 -0.000550 0.0
2.082014 0.332579 -0.006166 0.0
3.296861 1.105204 0.003254 0.0
2.748648 0.061005 0.001515 0.0
0.352821 0.654471 -0.002210 0.0
2.819113 0.304086 0.000833 0.0
3.954307 2.237984 -0.001564 0.0
1.887830 1.528992 0.002387 0.0
0.900663 2.289347 0.002065 0.0
2.611643 2.044090 0.000998 0.0
0.162506 1.780075 0.001135 0.0
0.726392 1.454745 -0.003554 0.0
1.264800 1.090401 -0.000034 0.0
4.150825 0.175428 -0.000228 0.0
2.924080 1.092516 0.000099 0.0
2.266274 2.026831 -0.000550 0.0
3.657953 1.431164 -0.000529 0.0
0.769036 0.989686 0.001175 0.0
2.378838 1.881161 0.000144 0.0
1.445454 0.482309 -0.006661 0.0
0.434760 0.723174 -0.000599 0.0
0.434645 0.428865 0.001627 0.0
3.714161 0.216854 -0.001684 0.0
2.285573 1.328969 -0.000660 0.0
1.762128 2.146248 -0.001991 0.0
0.885758 0.766689 -0.000451 0.0
1.580804 2.188317 -0.003015 0.0
3.822544 1.476710 -0.000993 0.0
1.321569 0.024075 -0.000666 0.0
3.339271 2.066920 -0.000219 0.0
3.020259 0.495368 0.000599 0.0
0.109885 0.801201 -0.000221 0.0
1.447468 1.783671 0.000892 0.0
3.618841 2.390919 -0.001580 0.0
3.711108 0.747875 -0.001997 0.0
4.160536 1.236512 0.001649 0.0
1.460594 1.535426 -0.000367 0.0
1.601655 1.103832 -0.002178 0.0
3.619559 1.918507 -0.001841 0.0
3.320023 1.000359 0.000320 0.0
1.196905 1.156238 -0.001486 0.0
4.135283 1.727009 -0.002145 0.0
3.057669 0.500861 -0.000653 0.0
3.000664 0.010505 -0.000200 0.0
0.387391 1.559238 0.001307 0.0
3.219458 1.620479 0.001094 0.0
2.095903 0.334596 0.001601 0.0
0.000752 0.513874 -0.001062 0.0
0.317094 1.274712 0.003003 0.0
2.566138 1.667949 0.001051 0.0
2.469606 0.734614 0.000844 0.0
1.792650 2.383908 -0.004124 0.0
3.032393 0.248634 -0.001737 0.0
2.835585 1.583019 -0.003721 0.0
1.154880 1.301894 0.005119 0.0
0.469144 2.064589 -0.002421 0.0
3.841604 1.003256 0.002216 0.0
3.844081 0.669483 0.004138 0.0
1.183072 1.347976 -0.003711 0.0
0.550250 1.593797 0.001615 0.0
2.483951 2.150094 -0.002081 0.0
0.006669 2.043069 0.001242 0.0
2.542699 0.509462 -0.002528 0.0
2.251277 1.037791 0.002770 0.0
3.680344 0.448186 -0.004591 0.0
1.538868 1.303709 -0.000548 0.0
1.687342 0.803968 -0.002385 0.0
0.448123 0.378464 0.001604 0.0
4.058887 0.343831 0.001188 0.0
2.433498 0.423662 -0.000066 0.0
4.121034 1.466874 -0.000861 0.0
0.058192 1.241903 -0.004123 0.0
0.942801 0.514591 0.002951 0.0
4.200373 1.079517 0.003202 0.0
1.596023 1.013982 -0.004296 0.0
0.981341 2.021440 -0.000220 0.0
3.961119 0.368295 0.000986 0.0
4.012437 1.027687 0.001464 0.0
0.420975 0.929582 0.001506 0.0
3.243582 1.847905 -0.001363 0.0
0.911513 1.866598 -0.001384 0.0
3.078654 1.470698 0.000969 0.0
1.608619 1.974967 -0.003996 0.0
0.540149 1.746768 0.000570 0.0
1.016982 1.280276 0.002602 0.0
2.157457 1.361558 -0.003637 0.0
2.073656 1.912022 -0.002990 0.0
3.461851 0.164457 0.001193 0.0
3.424633 2.408899 -0.000248 0.0
1.636397 1.423429 -0.002780 0.0
0.439682 1.357280 -0.002908 0.0
2.121529 0.126752 0.000235 0.0
2.369276 1.629711 -0.001486 0.0
2.197120 0.854742 -0.003637 0.0
2.990233 0.451159 0.000145 0.0
1.399231 0.223579 -0.005181 0.0
2.034729 0.104117 -0.001075 0.0
1.612579 0.447187 -0.001592 0.0
2.828650 1.654724 0.002445 0.0
2.946433 1.447745 0.000553 0.0
2.720242 0.165756 0.000656 0.0
0.823495 0.914685 -0.005367 0.0
1.809684 0.026757 0.000507 0.0
0.459777 1.765390 0.002892 0.0
2.795087 1.822979 -0.002463 0.0
0.488504 1.734935 0.001393 0.0
0.644373 0.474986 -0.002145 0.0
1.479416 1.373812 0.000854 0.0
1.024372 0.253551 0.001604 0.0
1.018037 1.155111 -0.000942 0.0
2.515829 0.760237 0.000053 0.0
0.566203 2.057282 0.000071 0.0
2.023054 0.055731 -0.001627 0.0
1.612855 0.801424 0.000192 0.0
3.613226 0.724474 0.000850 0.0
2.973577 1.431027 0.005271 0.0
0.525573 0.644020 -0.006529 0.0
2.411216 1.430291 0.000116 0.0
0.591320 1.062626 -0.001282 0.0
3.412643 2.100237 -0.002052 0.0
2.811853 0.003686 0.000104 0.0
4.026873 0.321326 -0.000364 0.0
2.833937 0.093939 0.003239 0.0
1.414353 1.134694 0.001338 0.0
3.789664 1.317890 -0.001701 0.0
4.203728 1.600271 -0.003058 0.0
1.444788 1.403756 -0.001180 0.0
0.645147 1.051697 -0.000872 0.0
2.305218 0.622927 0.002364 0.0
3.371815 0.167976 -0.003217 0.0
0.096612 0.410792 -0.000502 0.0
2.219390 0.690265 0.001229 0.0
2.861800 1.837282 -0.002644 0.0
3.257098 0.893754 -0.002571 0.0
1.464561 2.324065 -0.000303 0.0
3.826679 2.310229 -0.000330 0.0
1.174925 1.879343 -0.000956 0.0
0.291830 0.670982 -0.004594 0.0
0.691686 0.574355 0.001584 0.0
0.760863 1.335717 -0.001501 0.0
3.787965 2.065087 -0.002937 0.0
1.184411 0.233156 -0.002642 0.0
0.739041 0.542588 -0.001264 0.0
2.063300 1.982906 -0.004387 0.0
0.044751 0.022492 0.000304 0.0
3.925169 1.430765 0.005830 0.0
0.243921 1.617018 0.001333 0.0
0.459213 1.951494 0.003392 0.0
4.032509 2.242104 -0.003333 0.0
0.789261 1.485503 -0.002293 0.0
0.463175 1.141074 0.004362 0.0
0.106957 0.776492 -0.000866 0.0
1.343817 1.202980 -0.002078 0.0
1.993446 1.732876 0.000655 0.0
2.890557 1.751526 0.003252 0.0
0.010961 0.683169 0.003725 0.0
2.708367 1.186562 -0.000122 0.0
3.353597 1.673853 0.000773 0.0
3.077178 0.350516 0.000408 0.0
0.960779 0.765454 -0.003094 0.0
0.575158 1.127612 0.001947 0.0
2.175467 2.298400 0.003843 0.0
2.122254 0.692701 -0.000680 0.0
3.606738 0.898037 -0.000898 0.0
2.018824 0.495000 0.002675 0.0
3.676116 0.611265 0.000456 0.0
0.310897 1.197980 0.003966 0.0
0.382828 0.419585 0.002226 0.0
2.091929 0.947734 -0.001924 0.0
3.846092 0.652654 -0.001282 0.0
4.179434 0.480302 -0.003374 0.0
2.862727 2.285384 -0.002231 0.0
1.188818 0.118390 -0.001092 0.0
3.728534 0.816407 0.004990 0.0
3.757788 0.695334 -0.003116 0.0
2.408877 0.311836 -0.004239 0.0
2.871268 0.912946 -0.002431 0.0
2.947657 1.065708 0.002171 0.0
1.510630 0.055790 -0.003034 0.0
2.283863 1.950823 -0.000488 0.0
3.399354 0.899201 0.004026 0.0
1.391436 1.752418 0.003072 0.0
2.845603 1.675827 -0.003837 0.0
0.899575 1.323442 -0.000823 0.0
2.561760 0.952637 0.000156 0.0
1.409806 1.797871 -0.000492 0.0
1.544745 0.068434 0.001649 0.0
0.871598 0.617116 0.000976 0.0
0.518616 2.275047 0.004946 0.0
2.937144 1.901910 -0.000776 0.0
1.424157 1.201447 0.001081 0.0
4.168258 2.026341 -0.004802 0.0
2.710886 2.180957 0.001449 0.0
3.380548 0.578428 -0.000687 0.0
1.213424 2.054432 -0.000772 0.0
3.233158 2.393052 -0.005569 0.0
1.313693 0.496271 -0.002820 0.0
1.282215 1.135477 -0.000253 0.0
3.519721 1.218606 0.005576 0.0
3.666022 0.084211 0.003583 0.0
2.625945 2.012266 0.000887 0.0
2.656201 2.090779 -0.001541 0.0
0.735279 1.027015 0.003312 0.0
0.387542 1.589928 -0.001073 0.0
3.399618 2.347288 -0.002449 0.0
2.205310 0.805900 -0.002629 0.0
0.986898 0.478004 0.004446 0.0
1.475130 0.427233 0.003916 0.0
1.732760 0.704046 0.004857 0.0
1.591809 0.818934 0.000030 0.0
2.837858 0.610626 0.002513 0.0
2.757981 0.221981 -0.002682 0.0
3.758944 0.053015 0.000655 0.0
2.779610 2.144110 0.001174 0.0
3.380999 2.149121 -0.001881 0.0
1.228553 0.388061 -0.004453 0.0
3.604492 0.806830 -0.000952 0.0
0.543702 0.066980 0.000287 0.0
3.991073 0.688813 -0.001025 0.0
1.681081 1.445155 0.000763 0.0
1.948750 0.976110 0.002379 0.0
2.119092 0.241950 0.004763 0.0
4.065871 1.951380 -0.004359 0.0
2.663851 0.427184 -0.001600 0.0
3.267376 1.264555 0.000057 0.0
2.322244 0.680327 0.001309 0.0
0.010241 0.532789 -0.001431 0.0
1.439559 1.630109 -0.002020 0.0
1.980282 2.214001 -0.003034 0.0
2.105108 0.316921 -0.001352 0.0
0.131710 2.377071 0.005252 0.0
4.041995 1.462495 -0.000658 0.0
0.165871 0.260142 0.001051 0.0
0.767790 0.297563 0.001130 0.0
2.340088 0.195245 0.002504 0.0
4.018829 0.522547 0.002556 0.0
1.978530 1.004418 0.001920 0.0
1.094570 1.834653 -0.001787 0.0
0.272284 1.063848 -0.001818 0.0
2.889590 1.269791 0.002035 0.0
3.795019 2.142239 0.008020 0.0
0.414781 1.892788 -0.003096 0.0
1.643806 1.431403 0.001119 0.0
1.193907 2.010987 0.001065 0.0
0.665763 1.145536 -0.000153 0.0
3.595033 0.846388 -0.000223 0.0
2.580082 0.684999 -0.000243 0.0
0.693158 2.226364 -0.002226 0.0
0.959706 2.118512 -0.002010 0.0
3.617917 1.695850 -0.004856 0.0
2.252471 0.855415 0.003201 0.0
0.755715 2.053333 0.003708 0.0
0.791939 2.155457 -0.000033 0.0
2.762635 2.285287 -0.001458 0.0
2.675198 1.836552 -0.008036 0.0
4.175343 0.617944 0.000322 0.0
2.459824 0.915822 0.002746 0.0
1.124813 0.145021 0.005064 0.0
0.978245 1.748629 0.004624 0.0
2.162975 1.177101 0.002231 0.0
2.999142 1.017878 -0.000010 0.0
0.323110 0.381691 0.001233 0.0
3.939525 1.336822 -0.000232 0.0
3.696078 1.263172 -0.003231 0.0
3.516814 1.480480 0.001064 0.0
2.413003 0.636356 0.000040 0.0
2.111006 0.192905 -0.001886 0.0
2.519766 2.377381 0.001404 0.0
3.676619 0.648407 -0.000451 0.0
2.312149 2.103910 0.002472 0.0
3.225905 2.034502 0.000471 0.0
2.890612 2.218630 0.001000 0.0
0.867665 1.983012 0.003195 0.0
1.884991 1.721173 0.002375 0.0
1.631232 0.922446 -0.002037 0.0
0.583717 0.680096 0.001679 0.0
1.338573 0.864888 -0.004265 0.0
1.200262 0.396239 0.000532 0.0
1.394208 1.780063 -0.005470 0.0
3.625452 0.506287 -0.003132 0.0
0.171882 1.375612 0.001738 0.0
3.820800 0.346020 -0.001061 0.0
4.184945 0.184141 -0.001413 0.0
1.411237 0.687667 0.000733 0.0
0.029493 1.117078 0.003007 0.0
1.356318 2.088091 -0.001772 0.0
1.629041 0.057289 -0.000336 0.0
2.364995 2.245864 0.000080 0.0
3.319833 0.947444 -0.000086 0.0
1.387855 0.932453 -0.005693 0.0
0.535329 1.685030 -0.001711 0.0
3.558358 0.416093 0.001883 0.0
4.200538 0.228243 -0.001091 0.0
0.227267 0.829197 0.000722 0.0
3.659791 1.038881 0.000576 0.0
0.443553 1.994807 0.002150 0.0
3.289489 0.465716 -0.004341 0.0
3.360170 1.595610 -0.004058 0.0
3.368225 1.756531 -0.002768 0.0
3.269774 0.016022 0.003723 0.0
3.764058 0.918251 -0.001178 0.0
0.982915 1.676870 0.003327 0.0
3.158004 2.319733 -0.003420 0.0
3.643561 0.561510 -0.000189 0.0
2.700222 0.787193 0.003806 0.0
3.247158 0.656366 0.001643 0.0
2.271139 0.389759 -0.000919 0.0
3.318415 0.051600 -0.001546 0.0
1.816860 1.425315 0.002407 0.0
1.654422 0.855006 -0.001331 0.0
3.491130 1.267352 0.000379 0.0
1.008894 1.002374 0.004109 0.0
0.871182 1.829631 0.001788 0.0
0.338222 0.869395 -0.002527 0.0
3.836539 1.516925 -0.001459 0.0
1.858525 0.577877 -0.001076 0.0
1.959952 0.186578 0.003236 0.0
3.228731 1.594931 0.004671 0.0
1.678789 0.207631 -0.001738 0.0
3.812612 1.870505 0.002720 0.0
3.886703 1.091045 0.001249 0.0
4.158319 0.265716 -0.000299 0.0
1.202836 0.494247 0.000343 0.0
0.067495 0.853227 0.002877 0.0
3.028264 1.304453 -0.003036 0.0
2.100976 1.516591 0.000985 0.0
2.603074 2.119890 0.000579 0.0
2.046127 1.278410 -0.000492 0.0
0.088043 1.095144 -0.002638 0.0
0.648035 0.789421 -0.001017 0.0
2.539628 1.556411 0.000256 0.0
0.653640 1.505982 0.001039 0.0
1.445930 1.548402 0.002069 0.0
1.510663 1.958537 0.002616 0.0
2.346254 0.528179 -0.002443 0.0
0.007473 1.080532 0.004087 0.0
0.968781 1.486541 0.004557 0.0
2.361588 1.320432 0.003439 0.0
2.083678 1.796177 -0.001066 0.0
0.229681 1.788562 0.001844 0.0
2.321878 1.885101 -0.001176 0.0
0.419460 0.990923 0.002665 0.0
1.674145 0.428799 0.000853 0.0
1.957165 0.428815 -0.005640 0.0
1.379855 1.688154 -0.000100 0.0
3.044396 2.282445 -0.000848 0.0
0.888837 0.367103 -0.002595 0.0
3.015409 1.409554 -0.000359 0.0
0.558462 1.173469 -0.002139 0.0
4.138795 0.076990 -0.003146 0.0
1.760079 0.017647 -0.001681 0.0
4.132740 0.148175 -0.002960 0.0
2.294531 1.189779 -0.001325 0.0
1.743084 0.997256 -0.000717 0.0
0.199260 0.685582 0.001145 0.0
0.943363 2.076329 0.003540 0.0
1.122249 0.539517 0.002679 0.0
0.239208 1.843366 0.001124 0.0
3.913466 1.638314 0.002975 0.0
3.663938 0.546115 0.002075 0.0
3.163191 1.388563 0.002312 0.0
0.929327 0.648779 0.000607 0.0
0.241375 1.472758 -0.002169 0.0
1.461848 0.100358 0.002404 0.0
1.078362 0.351155 0.002996 0.0
2.833932 2.279324 0.001322 0.0
1.880506 0.895459 -0.002572 0.0
2.130908 0.534872 -0.003106 0.0
2.022160 1.725859 0.001184 0.0
0.830752 1.961486 -0.002687 0.0
0.073242 1.347480 0.003281 0.0
0.146434 2.348369 -0.000108 0.0
0.342510 2.162655 -0.003337 0.0
3.299936 1.815410 -0.001369 0.0
2.237667 1.668725 -0.004508 0.0
3.643520 0.592246 -0.007487 0.0
2.755585 0.725954 -0.000252 0.0
1.445055 1.939990 0.000750 0.0
3.554901 0.144934 -0.005384 0.0
2.004032 2.057068 -0.003795 0.0
2.508970 0.394687 0.002026 0.0
1.171808 0.368195 -0.003150 0.0
0.048743 2.219476 0.002053 0.0
1.573994 0.235282 -0.002964 0.0
1.965517 2.185001 -0.000495 0.0
2.900140 1.277988 -0.001033 0.0
0.257290 0.154827 0.000040 0.0
2.301868 0.596573 -0.000620 0.0
3.786693 1.113249 0.002048 0.0
1.803141 0.449834 0.002052 0.0
0.912498 0.935165 -0.000987 0.0
2.808691 0.454851 0.001148 0.0
3.400304 1.743169 0.002718 0.0
3.285836 0.303072 0.001858 0.0
0.651793 0.938217 -0.001429 0.0
3.033447 2.388017 -0.003159 0.0
1.695998 0.045968 0.001305 0.0
0.666068 0.763916 -0.000555 0.0
3.313074 1.626565 0.000548 0.0
0.502688 1.069048 0.001009 0.0
4.147761 0.087771 -0.002607 0.0
2.872286 2.155638 -0.000844 0.0
2.277571 0.873671 0.002335 0.0
0.567143 1.208562 -0.001961 0.0
0.827756 0.869641 0.004130 0.0
1.794979 1.083298 -0.003178 0.0
0.894022 0.760304 -0.000464 0.0
2.000615 0.150686 0.000651 0.0
2.895113 2.177041 -0.003915 0.0
2.485460 1.308365 -0.001603 0.0
3.945225 1.899879 0.000096 0.0
3.655535 1.668294 0.001277 0.0
2.985853 1.444471 0.002889 0.0
2.699137 1.568254 0.000682 0.0
2.939502 1.854543 0.001753 0.0
3.129578 0.455748 0.000469 0.0
0.931790 0.741078 0.002197 0.0
0.540273 1.061951 0.000716 0.0
2.376945 0.046313 0.000125 0.0
2.261386 0.437893 0.000800 0.0
4.127015 1.774517 -0.006982 0.0
1.768373 0.256536 -0.001688 0.0
0.225823 1.867126 -0.002113 0.0
0.355542 2.102131 0.002506 0.0
3.607236 0.091000 -0.001876 0.0
3.209150 2.070247 0.000573 0.0
1.805105 1.444073 0.000574 0.0
2.474855 1.450771 -0.001032 0.0
2.539618 0.908358 -0.000185 0.0
3.797333 0.625826 0.001922 0.0
2.015135 1.318807 0.001806 0.0
2.422024 0.040051 -0.000428 0.0
0.998408 0.381433 -0.000177 0.0
1.693791 1.659731 0.001374 0.0
2.713588 2.229549 -0.001177 0.0
1.230444 0.393643 -0.001995 0.0
1.188809 2.022751 -0.003306 0.0
2.758349 1.426170 -0.001240 0.0
1.803974 0.078334 0.000261 0.0
1.083401 1.577482 -0.000325 0.0
0.659694 1.222904 -0.003619 0.0
2.356652 0.659453 0.004135 0.0
3.388957 0.313263 0.000478 0.0
3.271671 1.858052 0.005390 0.0
2.913097 0.937757 0.001993 0.0
4.055825 1.983574 0.000399 0.0
3.076917 1.404530 0.004835 0.0
0.080609 0.084428 0.001867 0.0
0.518249 1.243182 -0.002559 0.0
1.975944 1.705933 -0.000939 0.0
1.954335 0.145115 0.001551 0.0
0.846188 0.547317 0.001575 0.0
0.022375 1.939388 0.002712 0.0
3.447581 1.578526 0.001199 0.0
0.734777 1.674965 0.002712 0.0
1.644753 1.954409 -0.000704 0.0
2.537474 0.819557 -0.000761 0.0
0.953897 1.693333 0.002950 0.0
1.320639 0.208686 -0.000123 0.0
3.241946 1.327054 -0.001920 0.0
0.959287 1.363054 0.001100 0.0
3.591076 1.852209 -0.000882 0.0
1.219939 0.325585 0.000381 0.0
0.019029 2.316015 0.002255 0.0
2.138717 0.809534 0.000440 0.0
2.767855 0.932575 -0.000991 0.0
1.312862 0.171011 0.000510 0.0
0.910278 1.171225 0.004180 0.0
3.681211 1.898554 -0.002635 0.0
2.875466 2.346252 -0.000198 0.0
0.357418 0.097151 0.001019 0.0
2.508995 1.573115 -0.002381 0.0
4.046776 1.072546 0.002124 0.0
4.108514 0.718033 0.003174 0.0
2.044945 1.616819 -0.000006 0.0
3.558173 1.645862 -0.000876 0.0
0.595056 1.538069 -0.002119 0.0
0.547317 0.134524 -0.001032 0.0
1.552238 0.438208 0.000371 0.0
2.128697 0.291141 0.002250 0.0
0.159618 0.606317 -0.001909 0.0
3.927263 1.785323 0.000259 0.0
1.408305 2.323639 0.001689 0.0
2.732260 0.394023 -0.000667 0.0
0.219698 0.479276 0.004775 0.0
1.504674 1.861473 0.000545 0.0
0.371321 1.334467 -0.001384 0.0
3.961141 1.437154 -0.001741 0.0
3.614670 2.104033 -0.002489 0.0
4.126208 2.206228 -0.000163 0.0
0.140186 0.701748 0.003571 0.0
3.571740 2.307131 -0.002505 0.0
0.608786 2.236342 -0.002365 0.0
0.022384 1.086750 0.002495 0.0
4.029345 1.272010 0.003353 0.0
2.284484 0.228114 0.004976 0.0
3.760821 1.369105 0.002942 0.0
1.548144 1.299301 -0.003037 0.0
1.652767 1.684908 -0.002435 0.0
1.993808 0.228847 0.000685 0.0
0.930325 1.704361 0.002316 0.0
3.829784 1.109481 -0.001863 0.0
3.699832 1.742416 -0.000635 0.0
0.403285 0.793573 -0.001512 0.0
3.441489 1.359038 0.001493 0.0
0.399551 1.989001 -0.000110 0.0
3.882738 1.043823 -0.000594 0.0
1.895132 0.326328 0.003784 0.0
1.439114 1.400365 0.000317 0.0
0.721889 2.033195 -0.002544 0.0
0.728982 1.924180 0.003290 0.0
0.040994 0.660321 -0.000247 0.0
1.068495 1.498974 0.004650 0.0
0.848581 0.601533 0.001326 0.0
1.708497 1.413126 -0.001635 0.0
2.287005 0.571518 -0.004541 0.0
2.408630 2.384468 0.007340 0.0
0.612741 1.326643 0.000603 0.0
2.114907 2.369475 -0.001561 0.0
3.603762 1.772369 0.003553 0.0
1.454927 0.886984 -0.001751 0.0
1.216788 1.920264 0.002766 0.0
2.773372 1.001898 0.000921 0.0
4.158879 0.077731 0.003121 0.0
2.714549 0.556075 0.002070 0.0
1.885186 0.125712 -0.000429 0.0
1.549166 0.464897 -0.004154 0.0
1.194196 0.369103 -0.002685 0.0
0.813749 1.517966 -0.001070 0.0
0.728138 1.510306 0.000217 0.0
3.001178 1.585355 -0.003453 0.0
3.941060 2.215809 -0.003130 0.0
2.524791 0.727677 -0.001503 0.0
1.082400 2.351691 0.000808 0.0
0.528690 1.854146 -0.000757 0.0
0.140542 2.051952 -0.000593 0.0
0.075995 1.348309 -0.000301 0.0
1.210750 1.787215 -0.004811 0.0
1.362616 1.999396 0.000704 0.0
2.864569 0.417715 0.001337 0.0
2.712724 1.544660 -0.001746 0.0
2.553279 1.293713 -0.000876 0.0
4.144199 0.903222 0.002940 0.0
2.084948 0.954047 0.001366 0.0
1.369833 0.788315 0.001677 0.0
2.115838 2.147368 0.001390 0.0
3.726472 0.648869 0.000329 0.0
3.130040 1.413390 0.000943 0.0
2.465171 0.202495 0.001973 0.0
2.706407 1.462829 0.001006 0.0
2.815778 2.214393 0.001071 0.0
2.966745 0.052520 0.001879 0.0
3.404361 2.324226 -0.003445 0.0
2.520800 0.877414 -0.002471 0.0
2.142215 1.127329 0.001297 0.0
1.116151 0.670663 0.001430 0.0
0.568131 1.383787 0.000246 0.0
2.343485 2.029376 0.001610 0.0
0.723734 1.469841 0.001712 0.0
2.827944 1.002320 -0.000789 0.0
3.181365 0.212033 -0.002068 0.0
0.384504 1.347450 -0.001177 0.0
4.073595 0.671758 0.000042 0.0
2.595774 0.307737 -0.002156 0.0
3.551230 0.092854 -0.002403 0.0
0.428967 0.421127 -0.000406 0.0
0.264958 2.087449 0.003879 0.0
1.736369 1.308703 0.001602 0.0
0.292242 1.150090 0.004764 0.0
1.513529 0.008402 -0.000250 0.0
3.833378 2.277401 -0.000300 0.0
0.880346 0.566016 0.000995 0.0
2.004125 1.549044 -0.001280 0.0
0.612816 0.089267 -0.002144 0.0
1.865826 0.189304 -0.000996 0.0
3.887378 1.688592 -0.001539 0.0
0.604753 2.026093 0.002423 0.0
1.983544 1.278454 -0.001472 0.0
1.116697 2.294438 0.003263 0.0
1.995106 0.998710 -0.002495 0.0
1.207602 0.837106 -0.000707 0.0
2.913221 1.894148 0.003320 0.0
1.680758 2.221352 0.000622 0.0
0.708849 0.529969 -0.001486 0.0
1.561359 2.273739 -0.000162 0.0
3.353049 0.197808 -0.001471 0.0
0.644695 0.468114 -0.003291 0.0
3.181719 0.783249 -0.003199 0.0
0.396347 1.131137 -0.002199 0.0
2.855421 1.413482 0.002400 0.0
0.033959 0.534923 -0.002333 0.0
1.263346 1.458659 -0.004287 0.0
2.232976 1.978165 -0.001095 0.0
1.760902 0.292616 0.001973 0.0
1.828624 1.537038 -0.000310 0.0
2.122302 1.026932 -0.000424 0.0
1.479295 1.751325 0.004529 0.0
0.747780 0.483796 -0.002095 0.0
2.669800 1.154409 -0.001095 0.0
3.078657 0.318664 0.001465 0.0
4.097448 1.209907 -0.002436 0.0
0.537029 0.232734 -0.007200 0.0
3.091076 1.323334 -0.001202 0.0
3.997945 0.345965 0.001471 0.0
2.955840 1.890990 0.001352 0.0
4.045661 1.978057 0.000451 0.0
0.874307 1.365936 -0.002518 0.0
1.406979 1.811739 -0.000186 0.0
1.679710 0.693399 0.001294 0.0
0.746753 0.305304 -0.000192 0.0
2.943800 0.757470 -0.000132 0.0
2.688882 2.046877 0.004233 0.0
3.247633 2.262883 -0.002430 0.0
3.272747 1.932221 -0.002207 0.0
1.869573 1.492841 -0.001337 0.0
0.400034 0.659694 0.000087 0.0
1.670726 2.238883 -0.000128 0.0
3.939693 1.765431 -0.000732 0.0
0.769463 1.174708 -0.001879 0.0
0.590965 0.092636 0.001008 0.0
1.759757 1.064768 -0.004512 0.0
2.712893 0.228104 -0.003978 0.0
0.568930 2.291623 0.000794 0.0
3.472867 0.371776 0.000094 0.0
1.466046 1.481234 -0.000690 0.0
1.306754 1.164395 -0.002166 0.0
3.690238 1.423644 0.002324 0.0
3.492998 1.190777 -0.003408 0.0
2.881015 1.878478 0.002131 0.0
3.029092 2.023927 0.001787 0.0
0.642137 1.098149 -0.005539 0.0
4.164375 1.346456 -0.000623 0.0
0.008313 0.025957 0.000401 0.0
2.374289 1.856370 0.001498 0.0
1.916664 1.613886 0.000664 0.0
3.893894 0.167716 -0.002343 0.0
2.447705 1.089628 -0.001181 0.0
2.282139 1.263764 0.003310 0.0
0.529171 0.856335 -0.006456 0.0
4.098606 0.572381 0.002409 0.0
0.860851 0.233391 0.002634 0.0
3.613127 1.086372 -0.003090 0.0
1.987485 0.769381 -0.000733 0.0
1.448396 0.274224 0.003951 0.0
0.058383 0.857771 -0.001133 0.0
0.138521 1.707461 -0.000483 0.0
1.164632 0.346674 -0.000176 0.0
3.937418 1.560474 -0.001094 0.0
4.151579 0.999929 0.001611 0.0
1.487148 2.290627 -0.004109 0.0
0.760299 0.762401 0.000936 0.0
0.403947 1.437994 0.000259 0.0
2.891179 1.077269 0.003427 0.0
2.976060 1.098963 -0.003188 0.0
1.284606 1.195981 0.000371 0.0
0.514972 2.135816 -0.003855 0.0
0.648707 2.118060 0.002680 0.0
2.179973 1.090094 -0.000920 0.0
1.151067 0.083590 -0.002001 0.0
2.348209 0.604715 0.002394 0.0
3.526443 1.947804 -0.000980 0.0
3.364402 1.544664 0.002646 0.0
3.206333 1.585748 0.001173 0.0
0.756540 1.511773 0.002369 0.0
2.249492 0.677344 -0.000526 0.0
3.968101 2.153529 0.003058 0.0
1.711508 0.090189 0.000405 0.0
3.688344 0.815743 0.003371 0.0
4.080059 2.051164 -0.001822 0.0
2.247772 1.999581 -0.002638 0.0
1.303343 2.065088 -0.003418 0.0
0.046815 0.036636 0.000479 0.0
2.455682 1.229444 -0.004153 0.0
3.699795 1.564580 -0.001640 0.0
2.031194 0.743896 -0.002327 0.0
2.282577 1.923572 0.000726 0.0
2.532453 1.557179 -0.000613 0.0
0.461568 1.457791 -0.000695 0.0
1.939719 0.434592 0.002587 0.0
2.709426 0.056279 0.002062 0.0
0.669835 0.154876 -0.002248 0.0
2.389226 1.727823 -0.000056 0.0
0.255068 1.321378 -0.002478 0.0
3.066585 2.074173 -0.002669 0.0
4.029133 1.941585 0.000306 0.0
3.386174 0.999062 -0.004210 0.0
1.416187 0.666981 -0.001222 0.0
2.360227 1.784893 0.001029 0.0
1.648448 1.460562 0.000958 0.0
0.978804 1.534343 -0.000846 0.0
2.385717 0.470036 0.001402 0.0
3.964333 0.660878 -0.003261 0.0
2.719770 0.788545 -0.001443 0.0
0.371804 0.966987 0.004020 0.0
0.901352 1.365142 -0.000583 0.0
2.777576 1.919496 0.003699 0.0
4.124820 1.602847 -0.000811 0.0
2.337389 0.288317 0.001269 0.0
0.153224 1.207172 0.001736 0.0
4.071921 1.534726 -0.002933 0.0
2.019585 1.440304 0.000270 0.0
3.838860 0.158868 -0.000700 0.0
3.312322 0.239317 -0.000416 0.0
1.965044 2.032572 -0.001583 0.0
1.924683 1.296856 0.004233 0.0
1.734173 2.270549 0.002025 0.0
0.834679 2.122510 0.000637 0.0
0.610543 1.158021 0.000511 0.0
1.616486 1.473305 -0.000859 0.0
3.085586 2.145461 0.000916 0.0
2.809635 2.250344 0.001529 0.0
4.205010 0.216404 0.002390 0.0
0.015974 2.205185 -0.001535 0.0
2.968936 1.860227 -0.001614 0.0
1.553171 0.430506 0.003038 0.0
0.840600 1.131391 0.003753 0.0
1.950702 1.366518 -0.004273 0.0
2.572668 0.764935 0.000238 0.0
0.277672 0.253061 0.002581 0.0
2.263694 0.249469 -0.003015 0.0
3.011517 1.355436 0.000383 0.0
3.725716 1.133311 0.002110 0.0
3.390252 1.206297 -0.004258 0.0
3.438536 1.457396 -0.000812 0.0
3.380141 0.756546 -0.001566 0.0
2.059380 0.949581 -0.001238 0.0
3.739979 2.183263 -0.003673 0.0
2.099194 0.223654 0.001355 0.0
2.829774 0.107443 0.003008 0.0
3.583211 1.082520 -0.003853 0.0
3.713421 0.678947 -0.002323 0.0
0.310292 1.849976 0.003961 0.0
4.167882 1.250489 0.002208 0.0
1.738772 2.325355 -0.002091 0.0
2.294431 0.814938 0.001935 0.0
0.029690 1.254686 -0.001901 0.0
4.088907 0.646437 0.000194 0.0
2.543131 1.266739 -0.000084 0.0
0.811754 0.043577 0.001021 0.0
1.312169 0.160988 -0.004361 0.0
1.293084 1.854959 -0.003836 0.0
3.123110 0.570520 -0.001002 0.0
1.454162 1.425200 -0.001188 0.0
1.228192 1.922477 0.001402 0.0
2.007239 1.342278 -0.001814 0.0
1.908429 1.348753 -0.001104 0.0
3.147239 0.314453 -0.000197 0.0
2.658081 1.823291 -0.000886 0.0
3.098588 1.915532 -0.003141 0.0
0.759911 0.450187 -0.002363 0.0
2.122351 1.168667 -0.000676 0.0
2.933133 2.034525 0.000861 0.0
0.912971 1.266840 0.003947 0.0
1.472981 1.956027 0.005280 0.0
1.618222 0.220315 -0.003807 0.0
2.041146 2.114678 -0.002232 0.0
1.394617 1.955361 0.001901 0.0
2.377766 0.758978 -0.000135 0.0
0.037094 1.722900 0.001151 0.0
3.520861 0.598319 -0.000379 0.0
0.751098 0.822859 0.002482 0.0
1.309711 0.491723 -0.002592 0.0
0.648448 0.948442 0.002080 0.0
2.975233 1.115663 -0.004432 0.0
3.179237 1.880775 -0.001751 0.0
1.215806 0.953644 0.001295 0.0
2.854250 1.917592 -0.000154 0.0
2.838858 1.281739 -0.002037 0.0
2.030436 0.255970 -0.002762 0.0
3.512654 0.764249 0.001118 0.0
0.748514 0.281310 0.000774 0.0
1.243753 2.063300 0.003817 0.0
3.302410 1.700495 -0.002893 0.0
2.986323 0.275699 -0.001295 0.0
2.153095 0.511202 0.000469 0.0
1.175668 2.301034 -0.001149 0.0
2.736091 2.080580 0.002972 0.0
0.547434 0.489014 0.001315 0.0
3.400978 0.251147 -0.000597 0.0
2.482314 0.732072 -0.002328 0.0
2.684912 0.453887 0.008974 0.0
3.054413 0.526896 0.000895 0.0
2.586509 0.669014 0.001533 0.0
2.595141 1.947939 -0.000678 0.0
0.265276 0.240257 -0.002640 0.0
2.817597 0.891248 -0.000401 0.0
0.832709 0.020364 -0.000144 0.0
1.953613 1.091599 0.001671 0.0
0.089163 0.288174 -0.002090 0.0
0.174648 2.320256 0.001000 0.0
2.103059 1.690132 0.002660 0.0
0.603804 2.219816 0.004614 0.0
2.225298 0.905007 0.002224 0.0
0.182252 1.233530 0.001102 0.0
2.373820 1.234835 -0.002348 0.0
2.996991 1.057504 0.001540 0.0
1.215202 0.492791 -0.000101 0.0
1.562511 1.161773 0.000030 0.0
0.934234 1.129766 0.003042 0.0
0.245297 1.977399 0.001044 0.0
0.169383 1.996668 0.003855 0.0
0.857871 2.079727 0.000023 0.0
4.163851 0.947309 -0.005051 0.0
3.353626 1.192112 0.004096 0.0
2.748073 2.138107 -0.005467 0.0
2.079115 1.004958 -0.000323 0.0
0.826619 1.511288 -0.002052 0.0
3.934517 0.137699 -0.003121 0.0
3.766698 1.769482 0.001328 0.0
1.107217 1.746784 0.002307 0.0
0.903509 0.166067 0.001416 0.0
0.946102 2.003428 0.002781 0.0
0.401679 0.196849 0.001210 0.0
0.628672 1.997817 -0.000415 0.0
4.034701 0.173617 -0.002670 0.0
2.041015 0.015427 -0.002091 0.0
0.886210 0.481937 0.002696 0.0
3.758603 1.133910 -0.000590 0.0
2.196030 0.236941 -0.001132 0.0
4.053823 1.123302 -0.000481 0.0
0.365094 1.182786 0.002019 0.0
2.247164 0.845568 0.001251 0.0
1.751068 0.357836 0.002111 0.0
2.686494 1.470278 0.000184 0.0
0.383671 1.678883 0.002687 0.0
4.128958 1.241604 -0.002515 0.0
0.408408 0.759417 -0.000182 0.0
1.224348 0.364804 -0.001437 0.0
4.083691 1.761565 0.000814 0.0
0.455571 0.115326 -0.003248 0.0
1.247755 1.240727 0.001555 0.0
1.544840 2.348366 -0.002432 0.0
3.438090 1.287098 -0.001378 0.0
1.545860 0.704867 0.005787 0.0
0.570188 0.464095 -0.000049 0.0
4.175170 1.505078 0.000810 0.0
4.103759 1.597498 -0.000524 0.0
0.348063 2.090758 0.001136 0.0
4.071848 1.385315 0.001309 0.0
3.370885 0.673116 0.000840 0.0
0.605216 0.565491 0.000633 0.0
3.133971 1.180517 -0.000815 0.0
2.102650 1.224724 0.002728 0.0
4.091160 1.758688 0.003237 0.0
3.024750 1.170751 -0.000320 0.0
2.311413 2.050782 0.001756 0.0
2.665204 1.670588 0.002203 0.0
1.420839 1.642152 0.001431 0.0
3.376534 0.001601 0.002311 0.0
0.237070 2.055935 -0.000293 0.0
1.951936 1.199479 -0.000401 0.0
3.783657 1.622452 -0.001536 0.0
2.156764 1.634221 0.000162 0.0
2.155644 0.030571 -0.000185 0.0
0.397476 1.447759 -0.000719 0.0
3.249502 2.407647 0.004116 0.0
0.291240 0.945643 0.003377 0.0
4.085542 2.211560 0.002317 0.0
2.150861 1.320766 -0.004013 0.0
3.356805 0.470905 0.002120 0.0
3.047741 2.004421 -0.000345 0.0
2.689201 1.719409 0.003902 0.0
1.124368 2.210094 -0.000698 0.0
1.655251 0.962783 0.000514 0.0
2.700821 2.370106 -0.000583 0.0
1.557647 0.819803 -0.003192 0.0
2.454503 1.018355 0.002371 0.0
0.371627 0.709610 -0.000141 0.0
2.992004 1.615623 0.001114 0.0
2.067942 2.306647 0.001317 0.0
2.566553 1.812045 0.001406 0.0
2.343653 1.330756 0.004643 0.0
3.002109 0.356013 0.001526 0.0
1.677248 1.723377 0.000585 0.0
2.632089 2.144847 -0.001667 0.0
0.519633 1.133542 -0.000250 0.0
3.163629 2.373233 -0.003113 0.0
1.067222 0.054655 0.002431 0.0
2.584147 1.340981 -0.001236 0.0
4.118366 1.215113 0.002380 0.0
2.033270 1.983275 0.004502 0.0
0.079827 2.182240 0.001115 0.0
1.503013 2.116572 -0.002190 0.0
0.657125 2.148778 -0.001135 0.0
4.117836 0.806856 -0.000546 0.0
0.689809 0.578772 0.003181 0.0
2.020711 2.190023 0.001163 0.0
1.039445 1.949338 -0.002682 0.0
1.174656 1.863561 0.000033 0.0
3.798195 0.851876 0.003562 0.0
0.019548 1.791875 -0.000023 0.0
3.374818 2.122166 0.002143 0.0
1.724113 1.091015 -0.001220 0.0
2.348737 0.985132 -0.004066 0.0
0.375636 0.903345 -0.002639 0.0
0.021288 1.386549 0.005565 0.0
1.092849 0.973027 0.001017 0.0
3.351506 1.722831 0.001571 0.0
2.685092 0.192487 0.002303 0.0
3.364531 0.050669 0.005945 0.0
0.736241 0.162913 -0.000373 0.0
0.354609 0.757331 0.000163 0.0
2.252087 1.253584 0.001123 0.0
1.585241 0.564220 0.001930 0.0
0.667145 1.785676 -0.003840 0.0
2.435754 1.926711 0.001381 0.0
3.366478 0.134232 -0.001599 0.0
1.334752 2.201470 -0.000391 0.0
3.348739 1.186971 0.001993 0.0
1.434565 0.203547 0.002443 0.0
2.723027 0.027456 -0.001329 0.0
1.071563 0.825742 0.002363 0.0
1.964362 -0.000919 0.091335 0.0
2.751416 -0.004258 0.005600 0.0
3.209094 -0.001496 0.066240 0.0
2.153289 -0.003866 0.133337 0.0
0.714137 0.001293 0.103396 0.0
1.681923 0.004072 0.169661 0.0
3.676616 0.000960 0.023429 0.0
0.968815 0.002340 0.068939 0.0
2.001157 0.007458 0.117678 0.0
3.190141 0.004603 0.154936 0.0
1.807239 -0.001612 0.024899 0.0
2.421069 0.003014 0.087990 0.0
3.998883 0.003097 0.010071 0.0
2.903853 0.003145 0.156482 0.0
1.274540 0.005864 0.167963 0.0
1.270851 0.000841 0.016783 0.0
1.426593 0.002425 0.094208 0.0
0.377622 0.002696 0.105716 0.0
3.137425 0.007299 0.166922 0.0
0.811463 0.000826 0.056521 0.0
3.545655 0.002634 0.146397 0.0
2.819942 0.004158 0.163715 0.0
3.115302 0.002327 0.070790 0.0
1.398493 -0.001752 0.019674 0.0
2.599613 0.007998 0.173302 0.0
3.614776 0.007650 0.158620 0.0
2.036688 0.005170 0.168441 0.0
2.416878 0.000587 0.065238 0.0
1.344239 -0.001935 0.016058 0.0
1.659911 0.005329 0.066163 0.0
1.333416 -0.000025 0.007186 0.0
2.925491 0.005327 0.059544 0.0
0.360412 0.003749 0.025072 0.0
1.419832 0.005873 0.142121 0.0
2.798152 0.004113 0.168360 0.0
3.751082 0.000204 0.052963 0.0
2.564897 0.003128 0.178825 0.0
4.048607 -0.001089 0.075260 0.0
3.371176 0.002488 0.135006 0.0
2.560321 0.007313 0.141773 0.0
0.080960 0.000160 0.023677 0.0
2.827193 0.002358 0.114720 0.0
2.360863 0.000772 0.057468 0.0
3.730104 0.003347 0.176496 0.0
3.030078 -0.000927 0.024478 0.0
0.936212 0.001444 0.110526 0.0
1.539667 0.004217 0.117147 0.0
3.884435 0.006010 0.143789 0.0
3.079996 0.000869 0.050722 0.0
0.541802 0.003486 0.077415 0.0
4.096391 -0.000027 0.116451 0.0
3.121772 0.004268 0.062767 0.0
1.946234 0.000368 0.092924 0.0
2.262526 0.000972 0.014990 0.0
2.590370 0.000370 0.101664 0.0
3.875270 0.002647 0.097579 0.0
0.834566 0.000621 0.048371 0.0
0.296122 0.005435 0.137224 0.0
1.478652 -0.002002 0.056362 0.0
4.021883 0.000136 0.013145 0.0
0.917069 0.004122 0.102701 0.0
2.665029 0.001088 0.111688 0.0
3.492184 0.000170 0.147532 0.0
2.413990 -0.001174 0.016155 0.0
0.901832 0.006954 0.168147 0.0
3.914030 0.003457 0.105032 0.0
3.922276 0.004044 0.059408 0.0
2.222595 0.003271 0.106369 0.0
1.192028 0.003764 0.015474 0.0
0.361122 0.005045 0.166505 0.0
3.165982 0.004905 0.143869 0.0
3.627474 0.003928 0.144265 0.0
3.044717 -0.000895 0.060444 0.0
0.971857 0.007208 0.179679 0.0
2.708615 0.000109 0.055617 0.0
2.521894 -0.000206 0.075044 0.0
0.009768 -0.001130 0.062442 0.0
0.968148 -0.000214 0.013954 0.0
3.242988 0.006503 0.150826 0.0
2.074203 0.002727 0.071894 0.0
3.025272 -0.005829 0.031526 0.0
1.385884 0.001176 0.020138 0.0
1.659432 0.003085 0.041945 0.0
2.520248 0.003394 0.130908 0.0
2.800898 -0.000416 0.072182 0.0
3.314425 -0.001622 0.017127 0.0
0.603167 -0.003271 0.086908 0.0
2.020563 0.001587 0.032218 0.0
4.063717 0.000252 0.023028 0.0
1.695875 0.003018 0.119747 0.0
0.818548 0.001420 0.033768 0.0
1.326724 0.004991 0.122425 0.0
4.142955 0.000198 0.034381 0.0
2.133068 0.003332 0.009530 0.0
2.556124 0.002862 0.017549 0.0
1.155622 -0.000861 0.065374 0.0
1.834119 0.001902 0.100010 0.0
2.876887 0.002884 0.124525 0.0
0.165485 -0.001419 0.025888 0.0
2.191006 0.005140 0.075976 0.0
2.110540 -0.002247 0.142794 0.0
2.718586 0.002427 0.033934 0.0
3.849786 -0.001453 0.013482 0.0
0.087116 0.003775 0.169100 0.0
4.179120 -0.003918 0.003691 0.0
0.653531 0.003871 -0.000341 0.0
3.663512 0.002482 0.079130 0.0
1.863371 0.000888 0.109645 0.0
2.842780 -0.002451 0.099403 0.0
2.419303 0.004008 0.150703 0.0
0.825449 0.003002 0.086083 0.0
1.177314 0.002915 0.154514 0.0
4.019770 0.000686 0.150269 0.0
0.568708 0.003146 0.033507 0.0
0.138123 0.000071 0.045897 0.0
0.457511 0.004358 0.076806 0.0
2.400909 0.002371 0.050914 0.0
2.148265 0.004746 0.101457 0.0
2.673527 -0.001197 0.042618 0.0
1.492868 0.002415 0.177163 0.0
2.345082 0.004107 0.040697 0.0
0.783400 0.002125 0.135367 0.0
0.404792 0.002509 0.007626 0.0
0.996851 -0.002531 0.011276 0.0
3.371657 -0.000481 0.077005 0.0
3.117053 -0.002253 0.016602 0.0
0.909106 0.002840 0.092057 0.0
2.236981 -0.000546 0.076059 0.0
3.331513 0.008303 0.155125 0.0
1.951194 -0.000349 0.051560 0.0
0.838183 0.003698 0.122354 0.0
3.416919 0.001482 0.003764 0.0
0.310679 0.000493 0.153568 0.0
0.734993 0.002766 0.013540 0.0
3.753498 0.002396 0.074243 0.0
2.977477 0.001863 0.047404 0.0
3.128627 0.003921 0.161912 0.0
0.111393 -0.002470 0.036561 0.0
0.118303 0.002263 0.135213 0.0
3.438733 0.003197 0.041260 0.0
2.276353 0.000364 0.048015 0.0
3.657441 -0.000880 0.089863 0.0
3.964729 0.002972 0.107733 0.0
0.620478 0.004802 0.123637 0.0
1.217169 0.000845 0.064163 0.0
0.978348 0.003541 0.142367 0.0
0.571907 -0.000217 0.081429 0.0
2.285560 -0.001492 0.043853 0.0
1.749475 0.003306 0.015441 0.0
3.062383 -0.001126 0.005844 0.0
3.195986 0.002644 0.070725 0.0
4.131630 0.003205 0.104684 0.0
2.140880 0.000704 0.115759 0.0
3.973791 0.003291 0.170481 0.0
1.696627 -0.001523 0.032742 0.0
4.130799 -0.005693 0.021780 0.0
2.897097 -0.001290 0.005846 0.0
1.439605 -0.004066 0.165864 0.0
2.031339 -0.001988 0.041661 0.0
0.251060 -0.000938 0.092756 0.0
1.586232 -0.002976 0.108170 0.0
3.043747 -0.001891 0.086833 0.0
2.863643 0.000568 0.100825 0.0
1.052015 0.004419 0.008305 0.0
1.743682 0.002061 0.072432 0.0
2.173349 0.000814 0.023405 0.0
3.672342 0.002526 0.107782 0.0
1.085375 0.000478 0.048816 0.0
3.125664 0.003693 0.044935 0.0
2.348196 0.003465 0.050180 0.0
2.584573 0.000185 0.148187 0.0
0.433287 -0.000267 0.170315 0.0
2.368249 0.000799 0.024579 0.0
3.256847 -0.000239 0.094092 0.0
1.916586 0.003770 0.018002 0.0
0.105071 -0.000464 0.021589 0.0
3.630899 0.002084 0.117928 0.0
1.794544 0.001224 0.021748 0.0
3.177956 0.001504 0.131478 0.0
3.262304 0.008275 0.171064 0.0
1.914579 -0.001248 0.059638 0.0
0.312226 -0.005303 0.069111 0.0
4.179160 0.000590 0.153003 0.0
1.532113 0.006235 0.137479 0.0
0.876088 -0.000522 0.019789 0.0
1.553898 0.002714 0.062436 0.0
1.248354 0.003287 0.113783 0.0
2.992321 0.000275 -0.004422 0.0
1.244901 0.002035 0.133073 0.0
1.788079 0.000439 0.104198 0.0
1.620852 0.002383 0.121821 0.0
2.946051 0.000103 0.051524 0.0
3.016243 -0.001894 0.106719 0.0
2.113259 0.006822 0.174337 0.0
1.296728 0.004144 0.121897 0.0
0.787614 0.002291 0.081753 0.0
3.838240 0.004309 0.097179 0.0
4.150591 -0.000597 0.003760 0.0
3.115916 0.004185 0.045818 0.0
3.402041 0.001028 0.016577 0.0
2.445273 0.003491 0.097331 0.0
2.895281 0.003628 0.177925 0.0
0.521158 0.005464 0.135593 0.0
3.683283 0.001136 0.175771 0.0
0.913046 0.002890 0.125806 0.0
1.199002 0.000200 0.007201 0.0
3.009225 -0.000506 0.019144 0.0
2.331204 0.003480 0.171078 0.0
3.809901 0.000895 0.045892 0.0
2.874899 0.001396 0.175346 0.0
1.835583 0.006448 0.071830 0.0
2.934231 0.001976 0.096471 0.0
2.756663 -0.001460 0.037995 0.0
0.555861 0.000123 0.059988 0.0
0.799669 0.002721 0.005635 0.0
3.909805 -0.000434 0.039088 0.0
2.176483 -0.002251 0.051686 0.0
2.880860 0.001768 0.076525 0.0
0.887126 0.002573 0.104191 0.0
1.858191 0.007449 0.136399 0.0
3.614775 0.002056 0.095142 0.0
2.564069 0.005546 0.168722 0.0
3.750970 -0.000472 0.040084 0.0
0.983693 0.006762 0.080947 0.0
2.140842 0.005159 0.116202 0.0
0.205616 0.000665 0.054175 0.0
0.915255 0.004030 0.135484 0.0
2.361414 -0.000740 0.076787 0.0
0.090648 0.002839 0.072938 0.0
2.588589 -0.002978 0.001233 0.0
3.847133 0.006692 0.172519 0.0
3.455853 0.006223 0.175747 0.0
3.644463 0.001628 0.088910 0.0
3.283404 0.000358 0.018368 0.0
4.143977 0.002424 0.020360 0.0
0.856756 -0.001516 0.119656 0.0
1.671592 0.001687 0.162379 0.0
0.462901 0.005195 0.121355 0.0
3.979863 0.002890 0.123332 0.0
2.494091 0.006114 0.030512 0.0
0.013165 0.002264 0.023176 0.0
3.770276 0.001787 0.173533 0.0
3.698454 0.002597 0.046897 0.0
2.730976 0.002246 0.040934 0.0
4.100617 0.000408 0.171358 0.0
3.302046 0.004998 0.116707 0.0
2.562324 -0.004995 0.014789 0.0
2.455610 0.002590 0.029290 0.0
0.407801 0.003651 0.007326 0.0
3.743976 -0.000822 0.170388 0.0
2.058146 0.007103 0.121993 0.0
1.099145 0.001957 0.040234 0.0
0.125803 0.003834 0.071094 0.0
3.675247 0.002041 0.121812 0.0
0.857257 0.000728 0.056880 0.0
3.949084 0.005997 0.121347 0.0
0.260073 0.000039 0.142091 0.0
