1.37712170 0.79199466 0.00195942 0.00000000
2.07150062 0.81251191 0.00156424 0.00000000
0.17940447 1.84206765 -0.00086349 0.00000000
0.08011752 0.47167770 0.00438641 0.00000000
3.53205561 0.90296743 -0.00397898 0.00000000
2.16248546 1.96070754 0.00372501 0.00000000
2.56463429 0.41159456 -0.00010660 0.00000000
1.86376222 1.14940510 -0.00188109 0.00000000
1.58165134 0.82197297 -0.00017575 0.00000000
2.50263118 1.40078332 -0.00056835 0.00000000
1.20090993 0.89587811 -0.00117774 0.00000000
3.36593128 1.81681513 0.00005517 0.00000000
2.88973251 1.15279708 0.00279344 0.00000000
1.83899633 0.53984925 -0.00474604 0.00000000
0.83673306 1.91896526 0.00164747 0.00000000
2.34291009 1.01760306 0.00409408 0.00000000
3.07664509 1.12819639 0.00070832 0.00000000
2.73241182 1.66425174 0.00126410 0.00000000
1.38566127 2.01419030 0.00028632 0.00000000
3.66538250 1.90353226 0.00285730 0.00000000
0.47558834 0.03777733 0.00080560 0.00000000
1.47741518 0.96920640 0.00619984 0.00000000
2.52358783 0.89381008 -0.00011662 0.00000000
2.39331384 1.89922592 -0.00112297 0.00000000
2.00991462 0.43506006 0.00085768 0.00000000
2.67124116 1.56566145 -0.00015676 0.00000000
3.34252270 1.96879379 -0.00723204 0.00000000
0.78610957 1.69824608 -0.00025470 0.00000000
0.49941003 0.30033711 0.00343369 0.00000000
1.78064286 0.78767920 0.00277654 0.00000000
1.20643501 0.96543671 -0.00141814 0.00000000
0.53913544 1.77161609 -0.00072783 0.00000000
1.37071613 1.91831411 -0.00233644 0.00000000
0.95716764 0.80234342 0.00398562 0.00000000
1.80868920 0.60356076 0.00043791 0.00000000
2.63755441 0.89715831 -0.00174886 0.00000000
0.40655590 0.62501118 0.00321241 0.00000000
1.83999262 1.70899180 -0.00194359 0.00000000
3.02196704 0.00947841 0.00015019 0.00000000
3.70313493 1.89965876 0.00062238 0.00000000
0.17016726 0.07950140 0.00011879 0.00000000
3.02379805 0.58993384 -0.00092999 0.00000000
2.85846781 1.64748966 0.00038622 0.00000000
2.02067148 2.01627966 -0.00172031 0.00000000
2.40405021 1.35643133 0.00274745 0.00000000
4.02615859 1.57599572 0.00003693 0.00000000
1.46976047 0.38146027 -0.00084254 0.00000000
2.79231838 0.01026891 0.00259985 0.00000000
3.47314103 1.99913998 0.00138097 0.00000000
0.76001562 0.90196469 0.00457438 0.00000000
0.43964927 0.92897462 -0.00589083 0.00000000
1.89928935 1.46684973 0.00035963 0.00000000
3.04220014 1.16630819 -0.00164134 0.00000000
2.43808995 0.68164294 0.00418077 0.00000000
2.83094164 0.78832941 0.00175821 0.00000000
0.82879482 1.42446689 0.00030342 0.00000000
2.36406011 1.73844360 0.00301990 0.00000000
3.14991128 0.84818563 0.00402471 0.00000000
2.36248495 1.71152067 -0.00358192 0.00000000
1.65005080 1.82148561 0.00259003 0.00000000
1.72121141 0.20958589 0.00158291 0.00000000
0.88883010 0.44385836 -0.00174309 0.00000000
2.20170258 1.59996863 0.00244517 0.00000000
1.45170324 0.96138822 -0.00103901 0.00000000
0.64392086 0.82541724 -0.00329415 0.00000000
3.44693039 0.35504868 0.00013218 0.00000000
3.20371967 0.19995215 0.00110113 0.00000000
1.48886770 1.26073299 0.00565240 0.00000000
1.93052838 1.53714230 0.00040278 0.00000000
3.21737417 1.46929646 -0.00171697 0.00000000
0.49512052 0.58939792 -0.00093762 0.00000000
1.54171723 1.81321455 0.00324186 0.00000000
3.75113412 0.13249673 -0.00162026 0.00000000
0.16085033 1.81369892 0.00059666 0.00000000
1.84233537 0.53890892 0.00008448 0.00000000
3.00652508 0.07075743 -0.00138651 0.00000000
0.79141293 0.09738053 -0.00477214 0.00000000
2.01566430 0.74996529 -0.00080425 0.00000000
2.31996937 1.49150468 -0.00012717 0.00000000
2.77848254 2.03770064 -0.00093223 0.00000000
1.40650311 1.04901934 -0.00187838 0.00000000
2.20902573 0.15145323 0.00261260 0.00000000
0.23878664 1.47822945 0.00193539 0.00000000
3.02672001 1.83652395 -0.00244560 0.00000000
2.24241555 1.08487332 -0.00371684 0.00000000
0.89983056 1.14058065 0.00119195 0.00000000
0.48216640 0.96612358 0.00062511 0.00000000
3.03709144 0.52768963 -0.00201321 0.00000000
2.96368437 0.59423676 -0.00026934 0.00000000
4.02872496 1.80583788 -0.00124245 0.00000000
0.93774266 1.47768280 -0.00133592 0.00000000
1.25810624 0.45208753 -0.00146072 0.00000000
3.99974216 1.34483336 0.00105327 0.00000000
0.86788012 1.87058527 -0.00144595 0.00000000
4.03194878 0.12937286 -0.00285743 0.00000000
1.51248662 1.86918074 -0.00570123 0.00000000
4.01012658 0.38806046 -0.00135984 0.00000000
2.80234794 1.67176923 0.00270154 0.00000000
2.42808816 1.71687759 -0.00576831 0.00000000
3.32229106 1.45784388 0.00246615 0.00000000
0.61697295 0.38645762 -0.00072048 0.00000000
2.18720352 0.13979049 0.00173462 0.00000000
2.49909816 1.70488381 0.00255668 0.00000000
1.08402392 2.03614234 -0.00312758 0.00000000
3.80079653 1.23869341 -0.00092991 0.00000000
1.83735835 1.68911833 0.00137945 0.00000000
3.53432638 0.84716676 0.00339653 0.00000000
2.33541444 2.02009424 -0.00180829 0.00000000
1.95447334 0.47849432 0.00083100 0.00000000
1.87606211 0.93526234 0.00126062 0.00000000
4.02252432 0.84177367 -0.00185734 0.00000000
0.45511065 0.67071067 0.00447323 0.00000000
0.32911045 1.05462669 0.00021168 0.00000000
0.03464797 0.03463334 -0.00115338 0.00000000
2.64126018 1.10664395 0.00051529 0.00000000
2.79909920 0.11543330 -0.00261388 0.00000000
0.20158135 1.82088893 -0.00172249 0.00000000
0.36182938 0.52043281 -0.00092074 0.00000000
1.25363441 1.54400542 0.00233597 0.00000000
2.90106012 1.56717583 -0.00154307 0.00000000
1.76612518 1.29971450 -0.00197510 0.00000000
2.86064515 0.35326987 0.00092329 0.00000000
0.86163135 1.07694728 0.00249205 0.00000000
1.09054291 1.19200589 -0.00051137 0.00000000
0.08517780 1.11985488 0.00254300 0.00000000
0.75196029 1.15060108 -0.00350499 0.00000000
2.38826519 0.57567286 -0.00275024 0.00000000
1.04562695 0.97204671 -0.00137921 0.00000000
0.28174208 0.48035149 0.00178463 0.00000000
2.13873620 1.57855806 -0.00319686 0.00000000
2.61006392 1.90541874 -0.00114919 0.00000000
1.46808071 1.92678408 -0.00432211 0.00000000
3.25459113 0.43062795 -0.00119465 0.00000000
2.85484539 1.20377081 0.00169256 0.00000000
0.45901768 0.56057987 -0.00273317 0.00000000
2.41072806 1.18301552 -0.00039743 0.00000000
3.08763037 0.11970209 -0.00493830 0.00000000
1.72218883 0.40615386 0.00154693 0.00000000
3.80358707 0.22238985 -0.00103553 0.00000000
0.53484576 1.85489883 0.00126573 0.00000000
1.19469574 1.28714631 0.00084524 0.00000000
2.82661057 0.75052534 -0.00170132 0.00000000
1.17768678 0.66803070 -0.00208586 0.00000000
1.21418424 1.40145577 -0.00341639 0.00000000
3.20125556 1.81618494 0.00603207 0.00000000
0.92582428 1.64257417 -0.00318311 0.00000000
1.70046893 1.56569441 0.00085657 0.00000000
0.62442436 1.50816068 0.00050173 0.00000000
3.82194841 1.02590141 -0.00111135 0.00000000
2.73286423 0.35140234 -0.00233837 0.00000000
1.41373357 1.92611805 -0.00462963 0.00000000
3.17017888 1.27828690 0.00121197 0.00000000
0.52773694 1.18494281 0.00372740 0.00000000
2.76798537 1.10513554 0.00006415 0.00000000
3.62414119 0.13875219 -0.00313556 0.00000000
3.95046371 1.27116654 0.00246245 0.00000000
0.33865331 0.13811654 -0.00079569 0.00000000
1.34403295 0.82119000 0.00421934 0.00000000
2.91547961 0.12769197 0.00059461 0.00000000
0.29110131 0.31127270 -0.00096537 0.00000000
2.30338318 0.91290758 -0.00153982 0.00000000
2.81021539 1.81205301 -0.00035370 0.00000000
3.98622751 1.41862831 0.00227073 0.00000000
1.57515016 0.64350496 -0.00245527 0.00000000
1.86272366 0.92983504 0.00253819 0.00000000
0.86218210 0.32455979 0.00239128 0.00000000
0.05515603 0.41556688 -0.00211633 0.00000000
1.56596512 1.91720792 0.00302792 0.00000000
1.16913561 0.75701672 0.00078159 0.00000000
0.71705133 0.01392330 0.00470663 0.00000000
1.45542246 1.54782325 0.00040215 0.00000000
1.70677125 1.64918580 -0.00536836 0.00000000
2.67977979 1.24081883 0.00080425 0.00000000
3.50465410 1.28407509 -0.00081607 0.00000000
1.38853726 1.09046889 -0.00554345 0.00000000
2.75639690 1.03676444 0.00243848 0.00000000
3.95470102 0.54412239 0.00063334 0.00000000
2.22046810 1.62459990 0.00953369 0.00000000
0.77921401 1.90802465 -0.00287114 0.00000000
3.25339089 0.74458827 -0.00076395 0.00000000
1.10051994 0.51047434 -0.00081796 0.00000000
3.69790995 0.66439757 0.00130427 0.00000000
3.55175151 0.29741310 0.00264521 0.00000000
2.54121695 1.27109587 0.00005052 0.00000000
2.96148475 1.23586570 0.00161251 0.00000000
0.97534838 0.26377358 -0.00221953 0.00000000
2.20608484 1.75579698 -0.00023866 0.00000000
3.32692238 1.20873309 -0.00099059 0.00000000
0.71477071 0.34295913 0.00282114 0.00000000
3.50490774 1.83054517 0.00285785 0.00000000
1.72091530 0.70788866 -0.00149020 0.00000000
2.83583267 1.21574844 0.00460533 0.00000000
3.75756198 1.33454920 -0.00227980 0.00000000
3.47430388 0.79328395 -0.00398374 0.00000000
2.76809843 0.99346965 0.00087144 0.00000000
3.09319498 0.86180455 0.00239069 0.00000000
2.38481793 0.29934733 -0.00224512 0.00000000
2.39144033 0.91407044 -0.00416571 0.00000000
1.95423964 0.69052771 -0.00182339 0.00000000
3.77613259 0.86169162 0.00009612 0.00000000
0.71710243 0.64213221 0.00230998 0.00000000
2.53384862 1.35086117 0.00110862 0.00000000
2.55738254 0.88047350 0.00299999 0.00000000
1.37191849 1.36347569 -0.00151180 0.00000000
2.25178223 1.93164641 0.00012008 0.00000000
2.99264942 1.42402159 -0.00160868 0.00000000
0.77737469 1.61483639 -0.00076880 0.00000000
1.94312856 1.42047458 0.00036504 0.00000000
1.30032254 1.89474350 -0.00053935 0.00000000
0.53633610 1.16988038 0.00127146 0.00000000
3.78825112 0.91203807 -0.00040152 0.00000000
2.37223240 1.91025943 -0.00288234 0.00000000
1.66998082 0.97363776 -0.00183334 0.00000000
0.68571118 0.84191376 0.00184010 0.00000000
3.23248046 1.53326492 -0.00160013 0.00000000
2.95640238 1.26172089 0.00242574 0.00000000
1.66719935 1.16330503 -0.00012353 0.00000000
0.50608525 0.50639687 0.00210125 0.00000000
0.56510858 1.10406141 0.00056798 0.00000000
2.15132781 0.60931671 0.00218628 0.00000000
2.28876526 1.82687847 0.00008333 0.00000000
0.40877836 1.89040767 0.00094299 0.00000000
3.94189742 1.50907441 -0.00075609 0.00000000
1.33901026 0.10893078 0.00236429 0.00000000
1.36091074 0.62471105 -0.00072246 0.00000000
1.40437916 1.49485629 0.00205290 0.00000000
1.90196960 1.08026043 0.00689472 0.00000000
1.12456702 1.34317377 0.00153115 0.00000000
1.19704830 0.81462775 0.00041054 0.00000000
1.27250113 1.95848409 -0.00040282 0.00000000
1.04820943 1.42654223 0.00000421 0.00000000
0.11760251 1.70239845 0.00090260 0.00000000
0.27259300 0.64693640 -0.00457958 0.00000000
0.75034181 0.57086527 -0.00140710 0.00000000
0.74341356 1.79720421 -0.00133450 0.00000000
2.90545095 1.97508653 -0.00077006 0.00000000
1.01450606 1.01142933 0.00213331 0.00000000
0.25746034 0.74502882 -0.00077212 0.00000000
1.67721515 0.25480917 -0.00752171 0.00000000
4.05554137 1.52420305 0.00515644 0.00000000
1.00409785 0.67977703 -0.00158912 0.00000000
0.53519621 1.84534515 0.00020226 0.00000000
3.94731235 1.19891030 -0.00100399 0.00000000
2.41317685 1.08883407 -0.00030080 0.00000000
3.79928509 0.49791434 -0.00332529 0.00000000
3.41748481 0.36951716 -0.00033307 0.00000000
0.66905174 1.75829365 0.00363719 0.00000000
3.48389517 1.98523065 -0.00225214 0.00000000
0.15436335 1.74199896 -0.00197600 0.00000000
2.71313855 1.17123280 0.00028517 0.00000000
2.69332299 0.39947919 0.00044746 0.00000000
1.22682200 0.68726221 -0.00149715 0.00000000
3.79325233 0.56222981 -0.00092214 0.00000000
1.23658868 0.60240846 -0.00321006 0.00000000
1.75590472 0.50686307 0.00097760 0.00000000
1.08955176 0.84522137 -0.00439311 0.00000000
0.19323571 1.67083688 0.00103915 0.00000000
0.09535801 1.69621153 0.00005451 0.00000000
0.85702272 1.69028308 -0.00319352 0.00000000
1.74329885 0.81869009 0.00273966 0.00000000
1.17368567 0.73666155 -0.00100601 0.00000000
3.30291802 1.84492297 -0.00122884 0.00000000
3.79955353 1.85979100 -0.00061273 0.00000000
3.44710331 1.78885373 0.00000308 0.00000000
2.91986177 0.85950436 -0.00194245 0.00000000
3.83909951 1.43052158 -0.00298634 0.00000000
0.71407881 0.67455874 0.00146509 0.00000000
2.11734132 1.06756026 0.00200647 0.00000000
3.07611057 1.71670703 -0.00303555 0.00000000
0.28390825 1.23289508 -0.00036913 0.00000000
1.12766790 1.69210221 0.00243148 0.00000000
3.25237937 0.18540314 -0.00054507 0.00000000
3.18359690 1.72921200 0.00109898 0.00000000
3.16707736 1.59195227 -0.00138141 0.00000000
1.62114303 0.36393662 0.00536520 0.00000000
0.90902172 1.99567793 -0.00002312 0.00000000
2.06896480 1.57132617 -0.00113293 0.00000000
0.09995898 0.10240633 0.00222950 0.00000000
0.30181355 0.05089771 -0.00202932 0.00000000
3.75491416 0.72180304 0.00277144 0.00000000
0.19916367 2.00966963 -0.00241309 0.00000000
1.36591100 0.65695840 0.00113213 0.00000000
3.10073397 0.01345751 0.00128643 0.00000000
2.19614993 0.82122235 0.00252353 0.00000000
3.71904371 1.22440800 0.00233038 0.00000000
2.92409190 1.78943432 0.00350490 0.00000000
3.24832695 0.22589764 -0.00251726 0.00000000
0.09872779 1.05205003 -0.00091700 0.00000000
3.16388678 1.92285991 -0.00091738 0.00000000
1.68280597 0.36851851 -0.00040315 0.00000000
3.45852107 1.64484140 -0.00116629 0.00000000
2.90065386 1.46414059 -0.00275236 0.00000000
1.83658489 1.16855802 -0.00034665 0.00000000
1.36267981 0.67507400 0.00465484 0.00000000
2.85099832 0.63940339 0.00105797 0.00000000
1.72684917 0.26430879 0.00406375 0.00000000
0.35458328 1.10026840 0.00128822 0.00000000
2.70157926 0.90443299 0.00320709 0.00000000
1.78570413 1.06174123 0.00192029 0.00000000
1.21839115 0.61722786 -0.00139021 0.00000000
0.00032856 1.65692454 -0.00148596 0.00000000
0.46676640 1.58578608 -0.00158988 0.00000000
2.73098701 1.25309772 -0.00198368 0.00000000
0.28699806 1.17573375 0.00429299 0.00000000
0.32475658 1.75466510 -0.00238350 0.00000000
2.83587381 0.93831808 -0.00199149 0.00000000
3.07882113 1.14980171 0.00018337 0.00000000
1.34152617 1.12401809 0.00357302 0.00000000
3.49084158 1.58230485 -0.00116618 0.00000000
3.49940506 1.18003744 -0.00101247 0.00000000
0.55544067 1.36159811 -0.00272619 0.00000000
1.71369404 1.37652663 -0.00478317 0.00000000
0.86747066 1.68233916 0.00156691 0.00000000
0.25935995 2.04013583 0.00156947 0.00000000
2.98398912 1.48258549 -0.00418997 0.00000000
2.17557517 0.85154869 0.00008839 0.00000000
4.03599937 1.11893321 0.00361199 0.00000000
3.62133637 1.84774421 0.00049031 0.00000000
2.98816713 1.86072238 -0.00115282 0.00000000
3.35461413 1.88624224 -0.00111242 0.00000000
3.65466710 1.82143581 0.00090005 0.00000000
1.57036526 1.65517319 -0.00182092 0.00000000
2.72580563 1.79205956 -0.00626555 0.00000000
3.44070757 0.27982943 -0.00096917 0.00000000
3.76438555 1.99667402 0.00092768 0.00000000
2.54416176 0.99746345 -0.00331203 0.00000000
3.90680105 1.59793833 -0.00179419 0.00000000
3.02694628 0.77680736 -0.00130246 0.00000000
2.68714165 1.74827806 -0.00060681 0.00000000
2.12592554 1.86090940 -0.00214845 0.00000000
0.10050582 0.67392686 0.00074592 0.00000000
3.30245055 0.77175662 0.00074174 0.00000000
1.63822193 1.76134845 0.00093368 0.00000000
2.64705527 1.40738109 0.00106919 0.00000000
0.33627694 0.26253525 -0.00075951 0.00000000
4.05036022 1.72549874 0.00055468 0.00000000
3.79612150 0.57223884 -0.00098059 0.00000000
1.41860430 1.98670634 -0.00057710 0.00000000
3.67724590 2.03065783 -0.00526222 0.00000000
1.38876033 0.07486907 0.00196993 0.00000000
3.89396395 1.30631420 0.00035398 0.00000000
2.94222925 1.54787501 0.00255235 0.00000000
2.34734794 0.26853435 -0.00317873 0.00000000
1.11052633 0.76947156 -0.00154659 0.00000000
3.15658583 1.70642272 -0.00258708 0.00000000
2.96819065 1.99943026 -0.00099543 0.00000000
0.79729485 1.83304294 -0.00053440 0.00000000
3.51906034 1.92718976 -0.00065952 0.00000000
3.98027418 1.14721769 -0.00107020 0.00000000
1.68343307 0.32245627 0.00200874 0.00000000
0.73474827 0.05005703 0.00114461 0.00000000
3.84815389 1.93379039 0.00355592 0.00000000
1.81065938 0.36436182 -0.00389134 0.00000000
3.53453914 1.72272051 0.00117602 0.00000000
1.13667696 1.79685047 -0.00400486 0.00000000
0.09579898 0.59692893 0.00114121 0.00000000
0.12971852 0.47295931 -0.00495432 0.00000000
3.07794106 1.90104051 -0.00035407 0.00000000
3.99044420 1.43718398 -0.00377569 0.00000000
1.80979939 0.60745996 -0.00135651 0.00000000
2.82637941 0.60702985 -0.00125491 0.00000000
2.05158987 1.70207339 -0.00331554 0.00000000
2.03080562 0.77325453 0.00218231 0.00000000
1.91684316 1.42127699 -0.00197350 0.00000000
0.58391657 1.27405296 -0.00240972 0.00000000
3.73254940 0.57616208 0.00224304 0.00000000
1.21050618 1.74848521 0.00324963 0.00000000
1.10773156 1.43535719 0.00246476 0.00000000
1.99480029 1.37934851 -0.00098072 0.00000000
1.17362610 0.41899011 -0.00799120 0.00000000
1.12259182 0.18511958 -0.00030361 0.00000000
3.36604007 0.90003496 -0.00077630 0.00000000
2.21104212 1.41008001 -0.00062706 0.00000000
2.47861328 0.95506555 -0.00140043 0.00000000
3.83137347 0.24448409 -0.00173211 0.00000000
0.09592383 0.14625629 -0.00278077 0.00000000
1.99301000 1.55368448 0.00036205 0.00000000
0.32663530 1.45189215 0.00053866 0.00000000
1.53621409 0.94230432 0.00462002 0.00000000
2.31584052 0.53738266 0.00097009 0.00000000
0.49713229 1.60736780 0.00321623 0.00000000
3.67599334 0.27903403 -0.00447731 0.00000000
2.10574031 1.98459335 -0.00439133 0.00000000
1.07110185 1.83785842 -0.00113825 0.00000000
2.15712605 1.03737502 -0.00091105 0.00000000
3.75416463 0.34468039 -0.00306993 0.00000000
0.17655472 0.76045800 -0.00094237 0.00000000
1.73807332 0.49915656 -0.00698087 0.00000000
0.17894318 0.63697815 -0.00371648 0.00000000
1.47648391 1.88871922 0.00240336 0.00000000
3.65530480 0.98226125 0.00150974 0.00000000
2.32525807 0.46679051 -0.00006562 0.00000000
3.22927255 0.86180255 0.00183563 0.00000000
2.30659192 1.93829381 -0.00078111 0.00000000
2.59777350 1.41881105 -0.00237924 0.00000000
0.52368757 1.05510015 0.00110122 0.00000000
0.97353285 0.60599954 0.00122243 0.00000000
3.72455910 0.41250956 0.00045820 0.00000000
0.39184045 0.07413245 0.00081522 0.00000000
3.93401097 0.78251302 -0.00053707 0.00000000
3.96848651 0.70883341 -0.00316260 0.00000000
2.48650348 1.53560815 -0.00605673 0.00000000
2.03301071 1.34073160 0.00046648 0.00000000
1.37782405 0.94982208 -0.00367113 0.00000000
2.41791485 0.76983059 -0.00450253 0.00000000
3.61443128 1.50825613 0.00343154 0.00000000
1.70720376 1.09540083 0.00363841 0.00000000
0.25553444 0.33955689 -0.00033788 0.00000000
3.19278161 1.89468435 -0.00288841 0.00000000
0.37221682 1.81499713 0.00086908 0.00000000
2.84025173 0.94113286 0.00022934 0.00000000
2.57389426 0.66694145 -0.00211188 0.00000000
3.11499067 1.34628511 0.00063092 0.00000000
2.21790171 0.69236837 0.00241540 0.00000000
0.00097239 0.84406662 -0.00153122 0.00000000
2.85637935 0.16438844 0.00046048 0.00000000
1.98074969 0.58048057 0.00246495 0.00000000
3.19729351 1.54916082 -0.00367781 0.00000000
2.30461068 0.29662290 0.00413676 0.00000000
2.61972022 1.63849882 -0.00078676 0.00000000
0.83201304 1.66887076 0.00376895 0.00000000
0.01578523 0.67728410 0.00646970 0.00000000
2.09029618 1.63830703 0.00189039 0.00000000
1.56228246 1.95818288 -0.00312128 0.00000000
3.98029605 0.56091216 0.00222112 0.00000000
2.06566299 1.39498056 -0.00405887 0.00000000
2.98854618 0.15728124 -0.00039856 0.00000000
3.07314021 0.94412603 0.00268000 0.00000000
3.03590022 0.04201583 -0.00484053 0.00000000
3.10600273 0.49035455 0.00353309 0.00000000
1.64986718 0.62603874 0.00253775 0.00000000
2.26774256 0.00709868 0.00209660 0.00000000
3.77610131 0.73469374 0.00230927 0.00000000
3.91918244 0.36660213 0.00092221 0.00000000
1.03568214 1.83222988 -0.00064281 0.00000000
1.97005475 1.89044634 0.00085644 0.00000000
1.88115999 1.64577016 0.00073191 0.00000000
0.79216095 0.12233580 -0.00281710 0.00000000
0.39397724 1.33133948 -0.00452150 0.00000000
3.45054779 1.87416838 -0.00105510 0.00000000
3.07655359 0.64944107 0.00035007 0.00000000
3.48705424 0.86780592 0.00303098 0.00000000
0.31348424 0.37940211 0.00046485 0.00000000
1.79589294 0.69147337 -0.00287210 0.00000000
2.49404124 1.86454959 -0.00252222 0.00000000
0.74295599 1.17628381 -0.00275712 0.00000000
3.66421967 1.78752110 -0.00086253 0.00000000
3.45564973 1.44450830 0.00184847 0.00000000
1.52435223 1.63200022 -0.00772600 0.00000000
1.94748287 0.97988893 -0.00244541 0.00000000
1.57943304 0.18203186 -0.00420827 0.00000000
0.51440699 2.00306577 0.00548521 0.00000000
3.03342368 0.04823089 0.00187438 0.00000000
2.54214743 0.18145087 0.00251405 0.00000000
2.77185287 1.53921065 -0.00354942 0.00000000
1.56418708 0.76402254 0.00144773 0.00000000
1.72565906 1.55184725 0.00160163 0.00000000
2.49821167 0.89169607 0.00191570 0.00000000
2.87527887 0.84828762 -0.00222052 0.00000000
2.79004708 1.19069901 0.00102768 0.00000000
2.38896081 0.98636027 0.00058698 0.00000000
3.37723013 0.98847879 -0.00747963 0.00000000
0.10634330 0.94539126 -0.00174713 0.00000000
2.82221205 0.84272137 0.00123900 0.00000000
1.00879177 1.61535709 -0.00260988 0.00000000
0.00427088 1.09751437 0.00055650 0.00000000
1.71826370 1.72865033 -0.00050856 0.00000000
1.00479427 1.41002205 -0.00159617 0.00000000
1.02504236 1.46798973 0.00061385 0.00000000
2.76489133 1.25862055 0.00046311 0.00000000
1.03306377 1.43391647 0.00416357 0.00000000
2.60869441 0.15440840 0.00431541 0.00000000
1.77771054 0.31682445 0.00055454 0.00000000
3.60144416 1.53448968 0.00294079 0.00000000
1.61062049 1.08979883 -0.00121926 0.00000000
3.69236565 0.45102616 -0.00354689 0.00000000
2.41826543 0.08462527 -0.00087039 0.00000000
1.15181390 1.01922776 -0.00024929 0.00000000
3.78907696 1.88995733 0.00008040 0.00000000
0.19654820 1.11993899 0.00147860 0.00000000
3.86909226 1.71249152 0.00029977 0.00000000
2.73013421 0.66928516 0.00258194 0.00000000
0.94126355 1.13043874 -0.00163432 0.00000000
1.08024270 0.73241477 -0.00365880 0.00000000
2.35326928 0.49247183 0.00585537 0.00000000
3.91760906 0.04319335 -0.00549050 0.00000000
2.07328444 2.02660271 0.00209108 0.00000000
0.42050227 0.52009388 -0.00103571 0.00000000
1.18335580 1.63970523 0.00047368 0.00000000
2.65226181 1.24526293 -0.00203983 0.00000000
1.71044593 0.31156162 -0.00307732 0.00000000
0.81216706 0.20798552 0.00162124 0.00000000
1.69827631 1.66278067 -0.00109742 0.00000000
3.54729480 0.65888866 0.00165119 0.00000000
2.07100158 0.60809688 -0.00116794 0.00000000
2.74530827 0.29247773 -0.00160593 0.00000000
0.08490790 0.67829905 0.00022019 0.00000000
3.59562716 1.29897378 -0.00211892 0.00000000
1.28739422 0.30972979 -0.00411769 0.00000000
3.00807713 0.88569116 0.00003460 0.00000000
3.78444425 1.50472500 0.00113020 0.00000000
2.87207265 0.51732980 -0.00065101 0.00000000
0.95161935 0.96521680 0.00420385 0.00000000
3.54372952 2.01195695 0.00150943 0.00000000
3.79003063 1.45107648 -0.00183559 0.00000000
1.84495696 0.53379406 -0.00150235 0.00000000
4.01690647 1.14347328 0.00182715 0.00000000
2.56333758 1.33413037 -0.00061103 0.00000000
1.69750789 1.29597042 0.00123664 0.00000000
1.82603761 0.49075378 -0.00312381 0.00000000
2.57252474 1.38278760 0.00585020 0.00000000
2.65475517 1.79070230 -0.00554759 0.00000000
1.60036901 0.87546896 0.00094095 0.00000000
1.73618290 1.91766209 -0.00163862 0.00000000
4.00714107 1.88777553 -0.00272606 0.00000000
2.52277962 1.04802592 0.00005314 0.00000000
1.47785919 1.90972430 0.00239198 0.00000000
1.22867700 0.13927321 0.00160549 0.00000000
2.79579499 0.34384709 -0.00132703 0.00000000
3.16212872 0.40009044 0.00080271 0.00000000
0.19195587 1.43443275 0.00414794 0.00000000
1.23240585 0.52819100 -0.00348716 0.00000000
0.91006390 1.86265850 0.00351740 0.00000000
2.94785634 1.08861070 -0.00040707 0.00000000
3.48328017 0.19306588 0.00083499 0.00000000
2.45007664 0.71975663 0.00058729 0.00000000
3.09564434 1.71054055 -0.00309565 0.00000000
0.23147038 1.96461720 -0.00121072 0.00000000
2.62260091 0.20049211 -0.00255792 0.00000000
0.56433283 1.14121937 0.00314009 0.00000000
1.92193717 1.43183701 -0.00244745 0.00000000
3.22208880 1.14057569 0.00262716 0.00000000
2.80388795 1.25750086 0.00093448 0.00000000
2.62710025 0.84927754 0.00303544 0.00000000
3.01221391 1.08007618 0.00126759 0.00000000
2.43681000 1.57460636 -0.00234271 0.00000000
1.78242207 0.54876361 0.00248219 0.00000000
2.49384236 0.15653868 0.00108053 0.00000000
3.95872467 1.20252346 0.00152760 0.00000000
2.35852504 0.57583904 -0.00392363 0.00000000
3.54349864 1.74918527 -0.00247066 0.00000000
2.45119443 1.71409835 -0.00093489 0.00000000
1.94402580 1.61293820 0.00309186 0.00000000
1.73902316 1.24164848 -0.00807349 0.00000000
2.87628473 0.58648586 -0.00066236 0.00000000
1.13310838 1.00703387 0.00247208 0.00000000
0.57252703 1.89624228 -0.00108060 0.00000000
1.14719096 0.29721258 -0.00317661 0.00000000
0.28279566 1.58286285 -0.00083569 0.00000000
1.30924263 0.66880579 -0.00234956 0.00000000
3.87576998 1.66027733 0.00089919 0.00000000
0.36087999 0.88379127 0.00119964 0.00000000
3.49056154 0.12538134 0.00092309 0.00000000
3.73519158 1.15171458 -0.00095493 0.00000000
2.46610785 0.46001560 0.00551041 0.00000000
2.70791353 0.52900934 0.00009376 0.00000000
0.78096461 1.60375250 0.00062074 0.00000000
1.36903592 1.78986235 -0.00097685 0.00000000
2.15407590 1.29199048 -0.00495145 0.00000000
2.68952391 0.78535533 -0.00158092 0.00000000
1.74768887 1.68807700 0.00241881 0.00000000
0.64357400 1.67706266 -0.00387031 0.00000000
1.52190840 0.46177816 -0.00461402 0.00000000
1.29666231 1.99149877 -0.00172340 0.00000000
2.28491514 1.02901946 -0.00145906 0.00000000
3.40528371 1.67675227 0.00188827 0.00000000
0.93355961 0.45897446 0.00111203 0.00000000
3.56478400 0.23997299 -0.00195349 0.00000000
0.49050563 1.20452311 -0.00399971 0.00000000
3.09218144 0.26254799 0.00098695 0.00000000
0.96706212 1.62940609 0.00063821 0.00000000
1.19086178 0.97382597 0.00070774 0.00000000
3.90207642 0.60250120 0.00081367 0.00000000
1.14011519 0.04447253 -0.00210737 0.00000000
2.59153849 0.25911950 0.00011518 0.00000000
3.44639403 1.00969979 -0.00269560 0.00000000
3.46271657 0.43427830 0.00016057 0.00000000
1.24662259 0.88675345 0.00345770 0.00000000
1.68747626 1.52482408 -0.00205058 0.00000000
0.68365507 0.98519858 0.00117167 0.00000000
0.36091528 0.78358371 0.00210830 0.00000000
0.54576349 1.09670441 -0.00025489 0.00000000
3.09550935 0.15058716 -0.00095878 0.00000000
0.05023118 0.63020311 0.00286861 0.00000000
2.59920625 1.89296169 -0.00301172 0.00000000
3.54875779 1.10682832 0.00016739 0.00000000
3.00503442 1.93624140 0.00009985 0.00000000
3.41016509 0.46246169 0.00370604 0.00000000
0.09553380 0.35956960 0.00406189 0.00000000
0.43077917 1.91378628 0.00313324 0.00000000
0.72331534 1.83462085 -0.00126440 0.00000000
0.35642955 0.80972639 -0.00157549 0.00000000
3.18860077 1.27399867 0.00238862 0.00000000
2.35729853 1.93959742 -0.00496985 0.00000000
3.79808886 0.68482513 -0.00144304 0.00000000
3.89426336 1.13296610 -0.00116068 0.00000000
1.10048873 1.04116119 0.00155453 0.00000000
1.02617903 0.13329373 -0.00087727 0.00000000
3.37934398 1.75770158 0.00132637 0.00000000
3.22575517 0.36402437 -0.00570358 0.00000000
2.84190585 0.54635137 0.00553027 0.00000000
0.30476823 0.18229272 -0.00310510 0.00000000
3.06704844 1.94814054 0.00252094 0.00000000
2.08816562 1.41642065 -0.00041793 0.00000000
1.27869212 1.79515339 -0.00158053 0.00000000
0.16131283 1.31918685 -0.00236616 0.00000000
2.57014952 0.00558390 0.00106963 0.00000000
3.29903172 0.25327761 -0.00176660 0.00000000
1.48525186 0.72809123 -0.00320288 0.00000000
1.60147821 0.04206865 -0.00000767 0.00000000
2.98338149 1.32794078 0.00287853 0.00000000
1.92210602 1.17281209 0.00102182 0.00000000
2.42890733 0.27555921 0.00048493 0.00000000
2.54425832 0.09212965 0.00130372 0.00000000
3.67236163 0.02908951 0.00409714 0.00000000
0.51804968 1.00320084 -0.00456740 0.00000000
1.15806208 1.36692867 -0.00023484 0.00000000
0.02493182 1.58556732 -0.00204545 0.00000000
3.76132410 1.11374528 -0.00316574 0.00000000
3.48580173 1.93913193 0.00263360 0.00000000
3.30960317 1.29043425 0.00128197 0.00000000
3.66757039 1.15004339 0.00467643 0.00000000
1.65867242 0.56467438 0.00161293 0.00000000
1.14060978 0.21492678 -0.00039743 0.00000000
0.92907187 1.73484439 -0.00184184 0.00000000
1.60518494 0.50504424 -0.00018670 0.00000000
3.66118101 0.92601025 0.00403186 0.00000000
3.00150741 0.69451811 -0.00047190 0.00000000
2.48217387 0.56135845 0.00460471 0.00000000
0.91187569 1.29809748 -0.00036183 0.00000000
3.35809715 1.75935342 0.00382488 0.00000000
1.44034315 1.77733493 0.00325689 0.00000000
3.25661297 0.73061443 -0.00338131 0.00000000
1.49763662 0.58195124 0.00140610 0.00000000
1.12533730 0.27167487 0.00101249 0.00000000
3.48113174 1.69245397 -0.00230817 0.00000000
1.27504303 0.88270658 0.00225752 0.00000000
3.76900864 0.66550310 0.00007927 0.00000000
3.45177581 1.46432091 -0.00240886 0.00000000
1.40653063 0.61357540 0.00190955 0.00000000
3.43517941 0.97921320 -0.00076700 0.00000000
2.32077133 1.49463748 0.00169032 0.00000000
3.79392692 0.52029768 -0.00098006 0.00000000
0.11314019 1.80920451 0.00310681 0.00000000
1.74358142 0.42319568 -0.00122628 0.00000000
3.08140876 1.88864380 0.00181068 0.00000000
3.00905509 0.14733385 0.00266294 0.00000000
3.57673019 1.13551927 0.00011904 0.00000000
3.20732727 0.71850262 -0.00496071 0.00000000
1.58683204 2.00715885 0.00016848 0.00000000
2.60927106 1.31343898 0.00405467 0.00000000
3.51222480 1.14086584 -0.00147850 0.00000000
3.97010664 0.71864322 0.00113310 0.00000000
0.85501157 1.11731615 0.00162074 0.00000000
3.86050982 0.51397655 -0.00412349 0.00000000
1.66935942 1.93166811 -0.00147504 0.00000000
3.19537271 1.37880080 -0.00095970 0.00000000
2.31590218 1.61745826 0.00101607 0.00000000
2.31641251 0.20274720 0.00494913 0.00000000
3.99178307 0.84754738 -0.00209659 0.00000000
3.68110608 1.68111119 0.00062952 0.00000000
3.25494167 0.75625947 0.00146825 0.00000000
2.49460892 1.08078978 0.00139661 0.00000000
0.79696921 1.39426898 -0.00087815 0.00000000
1.01675732 1.10936169 0.00050986 0.00000000
1.19146891 1.92353120 -0.00126724 0.00000000
3.66968923 1.74583588 -0.00338427 0.00000000
2.37282535 0.53317339 -0.00035379 0.00000000
1.50277451 1.33364043 0.00598839 0.00000000
0.73834522 1.47916227 0.00329040 0.00000000
3.97084730 1.99776241 -0.00152785 0.00000000
3.15668485 0.12236717 -0.00042288 0.00000000
2.23559570 1.98065768 -0.00027585 0.00000000
2.38235073 0.92769734 -0.00005458 0.00000000
0.50953039 1.75019980 -0.00581290 0.00000000
2.23946540 0.31218629 0.00166699 0.00000000
2.12270079 0.87309698 0.00061583 0.00000000
0.74375873 1.58726833 0.00296165 0.00000000
2.67004933 1.87704554 0.00323771 0.00000000
0.87082313 0.60682190 -0.00180562 0.00000000
2.21417249 0.91593864 0.00279483 0.00000000
0.98975952 0.52729738 -0.00130217 0.00000000
3.32213488 0.69835371 -0.00129251 0.00000000
1.17586819 1.78431484 0.00534270 0.00000000
0.30684545 1.14893526 0.00060608 0.00000000
2.00240528 1.56078658 0.00120191 0.00000000
1.26190858 0.36249368 0.00484291 0.00000000
2.22629599 1.89532631 0.00218923 0.00000000
1.53253036 0.41319533 -0.00115384 0.00000000
0.42021323 0.95059825 -0.00128833 0.00000000
1.85918151 1.67981688 -0.00328692 0.00000000
3.99787970 1.11320041 -0.00160722 0.00000000
1.56826043 2.03173001 0.00375451 0.00000000
1.28786035 1.79199455 -0.00051367 0.00000000
2.39833463 0.85309655 0.00345854 0.00000000
2.80530627 1.30443059 -0.00013781 0.00000000
2.87298468 0.26994595 0.00284466 0.00000000
0.83352337 0.99029746 -0.00321767 0.00000000
0.28733989 1.66253144 -0.00196198 0.00000000
2.16442563 0.26894064 -0.00353856 0.00000000
1.43174875 0.98361961 -0.00169394 0.00000000
2.25555440 0.11967867 0.00159498 0.00000000
2.20462752 1.28381753 -0.00043356 0.00000000
1.72617057 0.14802006 0.00190400 0.00000000
0.37036218 1.41226274 -0.00218706 0.00000000
0.42611014 0.69597344 -0.00163211 0.00000000
1.91724487 1.03498807 0.00201410 0.00000000
2.56366867 1.02597855 0.00113154 0.00000000
3.60392375 1.09701292 -0.00150620 0.00000000
2.17026570 1.75212686 0.00038131 0.00000000
3.66921436 0.57066389 0.00123822 0.00000000
2.09464057 2.02542036 0.00195803 0.00000000
2.98832832 0.71540589 -0.00002739 0.00000000
1.61826828 0.39437754 -0.00265879 0.00000000
3.39562143 1.34119721 -0.00529585 0.00000000
0.59936906 1.10727947 -0.00491133 0.00000000
1.00214382 0.14001449 -0.00008908 0.00000000
2.37412933 0.09339520 0.00071770 0.00000000
0.81398932 1.68886861 0.00002986 0.00000000
0.32752220 0.56216443 0.00401884 0.00000000
1.14636129 1.16493004 -0.00042366 0.00000000
0.98816448 0.94109071 0.00085061 0.00000000
1.61299943 1.64329705 -0.00153368 0.00000000
0.68288473 0.68385939 -0.00389009 0.00000000
0.14870216 1.27255653 0.00120533 0.00000000
1.11894303 0.70494110 0.00495992 0.00000000
3.85756615 0.69164043 -0.00054563 0.00000000
1.95062010 1.21677779 0.00194047 0.00000000
0.70003856 1.94261700 -0.00097386 0.00000000
3.80298010 0.29125697 -0.00093620 0.00000000
2.83515251 1.39216697 0.00151419 0.00000000
0.69621254 0.92343974 0.00404156 0.00000000
1.94792491 1.02388276 -0.00090950 0.00000000
2.48807782 1.51773544 0.00379191 0.00000000
3.12581201 1.01110259 -0.00181315 0.00000000
1.49329105 0.01184722 0.00115897 0.00000000
0.94792646 1.53827878 0.00474164 0.00000000
0.08836356 1.04685169 -0.00091235 0.00000000
2.16353404 0.78720319 0.00298630 0.00000000
1.93660701 0.04088942 0.00285269 0.00000000
2.10624480 0.71457770 0.00144041 0.00000000
1.15796612 1.29521876 -0.00288164 0.00000000
1.81358801 0.82351518 -0.00065795 0.00000000
1.51209287 0.72220644 -0.00421026 0.00000000
3.45077428 0.35754148 -0.00075419 0.00000000
2.14239169 1.55159767 -0.00420854 0.00000000
1.53937843 0.90528867 -0.00139917 0.00000000
1.88713614 0.79945819 -0.00048637 0.00000000
3.06898754 1.75542624 -0.00040752 0.00000000
3.27754993 0.66859339 -0.00565380 0.00000000
3.46692115 1.80860969 0.00275214 0.00000000
2.14261309 1.35268688 -0.00471874 0.00000000
0.86024135 1.32938093 -0.00095743 0.00000000
0.94974243 1.07995880 -0.00367564 0.00000000
0.01601756 1.79610006 0.00233605 0.00000000
2.29400701 1.86474179 -0.00321173 0.00000000
2.36016824 1.21143459 0.00085543 0.00000000
2.80051677 1.48598135 -0.00104817 0.00000000
3.45457252 1.98339445 0.00059917 0.00000000
2.73821470 1.50396104 -0.00333564 0.00000000
0.83286374 1.41556282 0.00443445 0.00000000
0.62020889 0.19179475 -0.00003762 0.00000000
0.92204080 0.54547554 0.00137282 0.00000000
2.21155113 0.31384147 0.00030572 0.00000000
2.80717290 1.99937792 -0.00148627 0.00000000
1.71106235 0.31297310 0.00241488 0.00000000
2.67198739 0.40625417 -0.00069571 0.00000000
1.10957560 0.59932835 0.00088832 0.00000000
1.83915417 0.69359740 0.00023258 0.00000000
3.64818613 1.20418801 0.00098407 0.00000000
2.98277694 0.52533231 -0.00165425 0.00000000
3.33964848 0.85977799 -0.00280000 0.00000000
1.01184153 1.86171879 -0.00537510 0.00000000
3.12026502 1.13094468 -0.00516942 0.00000000
3.91772787 1.37469126 -0.00444312 0.00000000
2.95003572 1.69865059 -0.00226039 0.00000000
2.34286907 0.06160967 -0.00096542 0.00000000
0.04657375 0.21059145 -0.00463428 0.00000000
0.09686798 0.20184486 -0.00143512 0.00000000
0.15587495 0.17413725 0.00140549 0.00000000
1.13886057 1.45949255 0.00070504 0.00000000
0.37803898 0.94767504 0.00200367 0.00000000
1.15269848 1.23703956 -0.00212275 0.00000000
1.93729105 0.46003178 -0.00385640 0.00000000
2.16087612 0.40501767 0.00199957 0.00000000
3.94342109 0.65807375 -0.00113444 0.00000000
0.97400027 1.80307376 -0.00161667 0.00000000
3.65414587 1.47365682 0.00490337 0.00000000
0.64844531 0.37719837 -0.00279499 0.00000000
0.01021197 0.11773336 0.00144340 0.00000000
0.28666607 0.58485980 0.00287908 0.00000000
3.26489103 0.00173220 -0.00353155 0.00000000
0.01042343 1.91102696 0.00062961 0.00000000
1.36124858 1.31927657 0.00216774 0.00000000
2.04193848 1.39637474 0.00126631 0.00000000
1.34677571 1.69391355 -0.00034895 0.00000000
3.58779708 0.05726648 0.00002256 0.00000000
3.14759756 1.78314690 0.00090567 0.00000000
2.71814231 0.05684433 -0.00202001 0.00000000
0.56409735 1.95701925 -0.00118709 0.00000000
1.97285048 1.67342223 0.00149623 0.00000000
3.83296432 0.52294821 0.00431204 0.00000000
0.75533131 0.77642990 -0.00141413 0.00000000
0.09981392 1.87399217 0.00109134 0.00000000
0.22695683 0.94541080 -0.00305808 0.00000000
2.14705740 2.03386470 -0.00055639 0.00000000
3.10359398 1.83362506 0.00241531 0.00000000
2.18630019 1.37720476 -0.00118944 0.00000000
0.87973168 0.37709240 0.00184278 0.00000000
0.58865184 0.60346502 0.00035481 0.00000000
4.02216768 1.31498311 0.00114045 0.00000000
1.50559587 1.95270870 -0.00274714 0.00000000
2.23695435 0.94082428 0.00109916 0.00000000
1.59473212 0.15687378 -0.00414411 0.00000000
0.93395271 0.04458765 0.00051698 0.00000000
3.61161916 1.16251800 -0.00633281 0.00000000
3.91096310 0.02780805 0.00400217 0.00000000
1.38741023 0.27345675 -0.00394163 0.00000000
2.24710021 0.58909057 -0.00265039 0.00000000
3.00791736 0.98089678 0.00090159 0.00000000
0.60346585 1.35143144 -0.00143605 0.00000000
1.50234935 0.20702527 -0.00151107 0.00000000
1.62077225 0.25193654 0.00122051 0.00000000
3.73146743 0.23484053 0.00551758 0.00000000
1.55709278 1.28195356 -0.00035880 0.00000000
1.13445256 1.55403754 0.00149113 0.00000000
1.48566680 0.84015116 0.00212523 0.00000000
3.83833785 1.92399198 0.00206942 0.00000000
1.97487119 1.70286565 0.00266995 0.00000000
1.34558249 0.22876527 -0.00028930 0.00000000
0.17609805 0.95227966 0.00315504 0.00000000
1.92779808 1.96625193 -0.00246015 0.00000000
0.72888051 1.89296144 -0.00139276 0.00000000
2.80332767 0.89339669 0.00122350 0.00000000
3.99890388 0.42628064 -0.00186013 0.00000000
3.87962376 0.10867122 -0.00098094 0.00000000
2.72533668 1.13140015 0.00248983 0.00000000
1.59770824 1.11709438 0.00211505 0.00000000
1.50509125 1.23066545 -0.00214490 0.00000000
3.00286971 0.73312267 -0.00171480 0.00000000
2.70845022 1.76126209 0.00192784 0.00000000
1.83979937 1.19542411 -0.00177215 0.00000000
0.37672462 1.45526416 0.00002657 0.00000000
3.13209053 0.13977713 -0.00123227 0.00000000
3.52560958 0.08564180 0.00274054 0.00000000
1.03519124 1.73634088 0.00034389 0.00000000
1.82448218 1.05906348 0.00115595 0.00000000
0.59704760 1.86784390 0.00384977 0.00000000
1.21073255 1.72407502 -0.00474746 0.00000000
2.65343139 0.77870286 0.00230015 0.00000000
1.43529901 0.65325287 0.00021160 0.00000000
3.69706492 1.92061907 0.00278993 0.00000000
1.67620992 0.13173029 0.00073333 0.00000000
3.84948029 0.79832914 0.00008586 0.00000000
0.59691009 0.70170074 0.00235217 0.00000000
0.02025037 0.88456226 -0.00033742 0.00000000
2.29150717 1.21227874 0.00018964 0.00000000
3.14102296 0.46049317 0.00417420 0.00000000
1.31762869 1.62591944 -0.00001133 0.00000000
3.76406097 1.34633145 0.00234261 0.00000000
0.06572076 0.16423247 -0.00227108 0.00000000
1.24213354 0.97023999 0.00173727 0.00000000
0.70423978 1.37073860 -0.00251827 0.00000000
2.28408418 1.35847676 0.00338125 0.00000000
0.49727702 0.97162825 -0.00074968 0.00000000
2.46855970 1.07086867 -0.00090457 0.00000000
1.45538652 0.12282844 0.00220386 0.00000000
3.24606447 0.17241690 0.00129668 0.00000000
3.94697328 0.73127440 0.00141475 0.00000000
2.33723925 0.64253480 -0.00176137 0.00000000
2.05332264 1.94822034 0.00112185 0.00000000
3.58321835 1.51103276 -0.00558810 0.00000000
0.85130243 0.65798772 -0.00107781 0.00000000
0.61992768 1.38878294 0.00092997 0.00000000
1.15287945 1.30188040 -0.00188714 0.00000000
2.68936542 1.07448151 0.00029877 0.00000000
0.89178792 1.19178669 -0.00056568 0.00000000
0.95211829 0.24411323 -0.00405503 0.00000000
1.07618400 1.39041946 -0.00075037 0.00000000
1.19018751 1.58279155 -0.00193552 0.00000000
2.27345752 0.42280789 0.00007310 0.00000000
3.08311225 1.70738648 -0.00306993 0.00000000
0.67694055 0.65748096 0.00296607 0.00000000
0.39417720 1.07356326 0.00055726 0.00000000
4.01275884 0.49064394 0.00024153 0.00000000
0.55248852 0.41252017 -0.00088850 0.00000000
1.10068780 0.50690620 0.00082488 0.00000000
2.57355642 1.27387072 -0.00054655 0.00000000
3.53171679 1.09713330 -0.00194138 0.00000000
3.11652293 1.83173165 -0.00119832 0.00000000
1.95561118 0.25960952 -0.00280964 0.00000000
2.30247961 1.60926844 0.00163236 0.00000000
3.89711494 0.35814129 0.00094133 0.00000000
2.00028741 0.61837258 -0.00178684 0.00000000
3.29333031 0.24890722 0.00056865 0.00000000
3.50409627 0.43192368 -0.00103907 0.00000000
1.47942972 0.74891732 0.00209072 0.00000000
1.17240079 0.68080686 0.00204484 0.00000000
2.07997671 0.45183562 -0.00136554 0.00000000
2.57547119 1.04230970 0.00107152 0.00000000
0.43897604 1.50831937 -0.00480418 0.00000000
2.02809357 0.85930694 -0.00105706 0.00000000
2.80832559 1.67630812 0.00658818 0.00000000
3.72049148 1.68884514 -0.00264049 0.00000000
0.03357819 0.43635469 0.00004561 0.00000000
0.01211554 1.58396659 0.00174883 0.00000000
0.89861139 1.92672092 -0.00260944 0.00000000
1.08831282 1.54820781 0.00347719 0.00000000
3.82794356 0.30452831 0.00073453 0.00000000
1.26617015 1.13302957 -0.00131967 0.00000000
0.87165097 0.73054702 -0.00199095 0.00000000
2.78880569 1.47806371 0.00031021 0.00000000
2.00367018 1.23259239 -0.00433220 0.00000000
3.75797338 1.66085929 -0.00021652 0.00000000
0.13755276 0.76138475 0.00387527 0.00000000
1.77422943 0.85491949 -0.00207435 0.00000000
1.29124123 0.85308043 0.00057889 0.00000000
3.18836537 1.49955039 0.00054077 0.00000000
2.46786285 0.27721914 -0.00129681 0.00000000
3.47858317 0.55521711 0.00049967 0.00000000
3.43728229 1.23177585 -0.00006821 0.00000000
3.31474901 1.90733228 0.00252532 0.00000000
1.80086495 0.69241371 -0.00427603 0.00000000
3.37402931 1.22191166 0.00213346 0.00000000
1.71261980 0.76569334 -0.00199739 0.00000000
0.85361625 0.85818189 0.00159285 0.00000000
1.67847390 0.23417374 0.00261828 0.00000000
1.51920241 1.19524262 -0.00395768 0.00000000
0.79307409 0.69479393 0.00205430 0.00000000
1.17799491 1.73863769 0.00083782 0.00000000
1.26933453 1.34994751 0.00316352 0.00000000
2.43816443 1.70987351 -0.00164451 0.00000000
3.70356908 1.02538740 0.00109978 0.00000000
3.24632433 1.05577128 -0.00179590 0.00000000
1.18594342 0.99270122 -0.00050174 0.00000000
3.28711565 0.95406792 0.00287276 0.00000000
0.20257974 0.13064989 -0.00216471 0.00000000
1.55979331 1.91382190 -0.00026250 0.00000000
0.38345236 1.16667539 0.00157441 0.00000000
1.53383671 0.39823154 0.00203638 0.00000000
0.43165924 1.09790023 0.00122686 0.00000000
2.64140091 0.67178610 -0.00215503 0.00000000
0.42381195 0.35958975 -0.00138738 0.00000000
3.82397809 0.18330317 0.00181991 0.00000000
0.33789180 0.03129853 0.00024169 0.00000000
0.33579807 1.58065026 -0.00303922 0.00000000
1.61744959 1.45032223 -0.00430269 0.00000000
3.59348482 1.98792631 0.00302497 0.00000000
0.35038001 1.19875211 -0.00127353 0.00000000
0.70206113 1.54205784 -0.00138745 0.00000000
3.44868498 0.97634991 -0.00217108 0.00000000
2.95621196 0.18127386 0.00204430 0.00000000
1.18169742 0.66092703 0.00032124 0.00000000
1.81086348 1.26219103 -0.00521835 0.00000000
1.47053908 2.01134166 0.00145218 0.00000000
1.97491987 0.66704923 0.00252359 0.00000000
1.94299977 0.30659559 -0.00308967 0.00000000
1.99560950 1.28015215 -0.00490734 0.00000000
3.35681182 1.87263409 0.00171374 0.00000000
2.22889139 1.43838919 -0.00639603 0.00000000
2.73032379 0.27611070 -0.00136264 0.00000000
4.03982147 0.83481873 -0.00105304 0.00000000
3.28719448 1.07821612 -0.00351904 0.00000000
0.98839300 0.31359851 0.00426927 0.00000000
2.72403753 0.27404838 -0.00130667 0.00000000
3.43526518 1.48914762 -0.00285243 0.00000000
0.82423368 0.95182909 -0.00228938 0.00000000
2.08823637 1.28722448 -0.00451499 0.00000000
4.01437015 1.22958374 0.00357156 0.00000000
0.30313998 1.68577834 0.00112013 0.00000000
0.37787272 1.98031456 0.00015480 0.00000000
0.08074371 1.37125566 -0.00151121 0.00000000
1.64388530 1.52958030 -0.00294072 0.00000000
0.77562148 1.68611455 -0.00017838 0.00000000
2.06385241 0.62093276 -0.00469365 0.00000000
1.42575038 0.88839465 -0.00002529 0.00000000
3.41714842 0.63049494 -0.00077100 0.00000000
0.77475110 1.53525943 -0.00085359 0.00000000
0.33944405 1.23104804 0.00150307 0.00000000
2.22833148 1.89949469 0.00076963 0.00000000
1.59046137 1.23304403 -0.00382847 0.00000000
3.38797252 0.14317275 -0.00041219 0.00000000
3.95472763 0.16944342 -0.00360801 0.00000000
3.35960091 1.37281627 0.00037619 0.00000000
0.53376882 0.97165339 0.00284432 0.00000000
2.26519971 1.06688767 0.00041098 0.00000000
1.92797691 1.35372355 0.00156223 0.00000000
4.02864808 0.70436185 -0.00180301 0.00000000
0.27446589 1.71644470 -0.00180949 0.00000000
2.58884820 1.47252856 0.00158800 0.00000000
1.92464517 0.51692993 -0.00007788 0.00000000
3.89845640 1.40044575 -0.00072667 0.00000000
0.53972400 0.13344655 -0.00079288 0.00000000
3.89640957 1.24145985 -0.00143576 0.00000000
3.31010796 1.44809040 -0.00413666 0.00000000
0.35116381 1.16538903 -0.00180600 0.00000000
3.72045987 1.74815406 0.00022728 0.00000000
3.96230942 0.25119284 0.00010291 0.00000000
0.59843475 0.50534562 -0.00156308 0.00000000
1.59684302 0.53005710 -0.00023650 0.00000000
0.68390845 0.08727335 -0.00420894 0.00000000
1.08094846 0.26937650 0.00198419 0.00000000
3.65197999 0.60899463 0.00365396 0.00000000
3.29801057 0.09289194 -0.00228906 0.00000000
1.41792892 1.24946260 0.00422946 0.00000000
1.74650052 0.51075097 -0.00122665 0.00000000
3.51433948 0.65495122 0.00661536 0.00000000
3.30883185 0.12723570 0.00239858 0.00000000
1.07286683 0.76027298 0.00042811 0.00000000
3.09797743 1.29313798 -0.00225250 0.00000000
2.31735579 0.39628612 -0.00293138 0.00000000
3.85273367 1.43053882 -0.00147179 0.00000000
0.20101416 1.21560883 0.00164887 0.00000000
3.19470562 1.78981517 -0.00382689 0.00000000
0.37076669 0.12520934 -0.00289645 0.00000000
0.10045030 0.37953867 0.00415010 0.00000000
0.65515610 1.47015790 -0.00166730 0.00000000
0.42337437 1.62373324 0.00318944 0.00000000
2.72939069 0.73502783 0.00220010 0.00000000
2.94739776 0.31774480 -0.00191376 0.00000000
2.03549601 0.56092221 -0.00117626 0.00000000
0.13163435 0.43831279 0.00032683 0.00000000
0.76761455 0.77069551 -0.00190063 0.00000000
2.28529444 0.12042647 -0.00069966 0.00000000
0.00129305 0.27798082 0.00103461 0.00000000
3.21693748 1.40823184 0.00193188 0.00000000
3.80108360 0.36501686 -0.00156116 0.00000000
2.03763211 1.90805128 -0.00230937 0.00000000
1.36712016 1.95954469 0.00101678 0.00000000
2.23431820 1.83519430 0.00185497 0.00000000
0.28393927 1.56952088 -0.00389695 0.00000000
1.70946024 1.18269560 -0.00394731 0.00000000
1.64607859 0.10213247 -0.00128366 0.00000000
3.15428814 1.28091930 -0.00542150 0.00000000
3.53411850 1.64804066 -0.00043551 0.00000000
1.69676577 1.59522234 -0.00066144 0.00000000
1.26187796 1.68045717 0.00460818 0.00000000
2.90930249 1.65022040 -0.00216176 0.00000000
1.73979231 1.95199664 -0.00080153 0.00000000
1.73831419 0.64222879 0.00232067 0.00000000
3.07094194 0.23939088 -0.00134784 0.00000000
1.54305835 1.59380818 -0.00216132 0.00000000
2.21507314 0.39848201 -0.00033602 0.00000000
0.70888564 1.78658612 -0.00353907 0.00000000
2.04942602 2.01454177 0.00182369 0.00000000
0.32877194 0.55532494 0.00210726 0.00000000
3.83263606 0.38036655 0.00468528 0.00000000
2.15896507 1.58654775 -0.00656912 0.00000000
2.44187501 1.54492926 -0.00141026 0.00000000
1.66154110 0.00575213 -0.00073688 0.00000000
0.06690865 0.10461721 0.00243391 0.00000000
0.90509158 0.42826374 0.00177192 0.00000000
0.85921667 1.24135583 0.00312669 0.00000000
3.58156879 1.14544818 -0.00083389 0.00000000
3.83442930 1.10458629 0.00176564 0.00000000
3.00858937 0.46701792 -0.00089125 0.00000000
1.96164218 0.75851869 0.00385892 0.00000000
2.14272335 1.45223927 -0.00189721 0.00000000
2.79139043 1.59348394 0.00165641 0.00000000
0.77236518 0.53559686 0.00016199 0.00000000
1.67547888 1.11000788 -0.00138106 0.00000000
3.87502265 1.04188855 0.00294302 0.00000000
1.05603512 1.60509531 0.00574010 0.00000000
1.20350481 1.00496195 0.00181785 0.00000000
2.77165911 1.70416793 -0.00158313 0.00000000
1.25372989 1.66374638 -0.00153776 0.00000000
2.22648381 0.42035922 -0.00381952 0.00000000
0.24481250 0.43730031 -0.00116521 0.00000000
3.68517323 0.55522836 -0.00042535 0.00000000
4.03632930 1.30349364 -0.00086545 0.00000000
2.63289170 1.65327176 -0.00252015 0.00000000
2.77516815 0.88622958 -0.00020564 0.00000000
1.23340843 1.52424663 0.00424014 0.00000000
3.14156791 1.75790846 0.00250034 0.00000000
2.81882096 0.11595737 0.00159266 0.00000000
2.65378473 1.69524465 0.00567214 0.00000000
3.57998421 0.55588661 -0.00206213 0.00000000
2.58833187 1.65456533 0.00079856 0.00000000
