3.624564 0.473403 -0.000924 0.0
3.001006 0.353837 0.002129 0.0
0.015690 0.657214 0.000459 0.0
2.238908 0.740648 0.001739 0.0
0.177709 1.073581 -0.002535 0.0
0.341237 1.000048 0.003114 0.0
1.691032 0.951301 0.003254 0.0
0.706286 0.283275 -0.005967 0.0
3.565291 1.493694 0.001309 0.0
4.146391 0.109685 0.002189 0.0
1.756061 0.853900 0.003198 0.0
2.783281 1.167345 0.001913 0.0
3.866285 0.575429 0.001766 0.0
3.823885 1.331501 0.002115 0.0
2.727909 0.347814 -0.003343 0.0
0.316119 0.241633 -0.000490 0.0
1.593741 1.492242 0.001018 0.0
2.471589 1.318969 -0.000388 0.0
3.762721 1.383783 0.002174 0.0
0.719611 0.036325 -0.001441 0.0
1.285162 1.462204 0.000296 0.0
2.929819 0.281220 -0.004758 0.0
2.641817 0.625248 -0.003913 0.0
3.813483 0.351154 0.002511 0.0
2.150421 1.398136 -0.001605 0.0
1.428257 0.343779 0.002361 0.0
2.496790 0.311255 -0.000266 0.0
3.823404 0.215199 -0.000924 0.0
1.947178 0.117590 -0.000052 0.0
1.423244 1.226434 -0.000618 0.0
3.636528 1.480199 -0.000340 0.0
0.849965 1.387098 0.001228 0.0
2.047513 0.414974 -0.000477 0.0
0.574327 0.641984 -0.000315 0.0
2.271397 0.836752 0.003039 0.0
3.673375 0.684463 -0.002515 0.0
3.081666 0.597392 -0.000837 0.0
3.350425 0.051467 0.002721 0.0
2.729870 1.011961 -0.002677 0.0
3.863412 1.462619 -0.003441 0.0
0.902478 0.632923 -0.001856 0.0
3.857787 1.059588 -0.004054 0.0
0.745364 1.226403 -0.002737 0.0
0.844731 0.622648 0.001860 0.0
2.483482 0.064225 -0.000926 0.0
2.823673 1.453691 0.002444 0.0
0.626323 0.355794 -0.002237 0.0
1.558494 0.961765 0.000650 0.0
1.126313 1.349746 -0.000272 0.0
0.669019 1.151425 0.003120 0.0
4.239987 1.079111 0.001446 0.0
2.689551 1.474253 0.000596 0.0
3.541824 0.990802 0.000304 0.0
4.241311 0.038787 -0.000656 0.0
0.366139 1.234537 -0.001125 0.0
3.106144 0.187488 -0.000111 0.0
0.439994 0.512316 -0.002802 0.0
2.459601 1.106045 -0.001970 0.0
2.603463 1.513808 -0.000334 0.0
1.976083 1.281210 -0.000495 0.0
0.595589 0.452060 0.000202 0.0
1.634158 1.045630 0.002702 0.0
0.259610 1.156392 -0.006374 0.0
4.170773 0.359652 0.000897 0.0
3.942724 0.885253 -0.001870 0.0
1.680951 0.906888 0.001125 0.0
3.595003 0.312579 -0.006154 0.0
0.044580 0.710950 0.001151 0.0
0.340926 1.128797 0.000118 0.0
4.028423 0.254079 -0.001898 0.0
2.192557 1.021224 -0.001457 0.0
2.416413 0.541523 0.001442 0.0
2.631620 1.388671 0.004473 0.0
1.318062 0.236750 0.000520 0.0
1.580594 1.399883 0.005499 0.0
2.135568 0.653245 0.000694 0.0
4.087152 0.283943 -0.001768 0.0
3.446158 1.085793 -0.000034 0.0
4.239417 0.006308 -0.003497 0.0
0.686052 0.438323 -0.001258 0.0
4.077364 1.441275 0.001874 0.0
1.192329 0.347991 -0.002794 0.0
3.751993 0.625768 0.003151 0.0
1.565812 0.213749 0.002288 0.0
3.177415 0.664652 -0.000323 0.0
1.739374 0.872616 -0.002369 0.0
0.713517 0.604858 -0.001318 0.0
4.030227 0.312404 0.002744 0.0
0.973020 0.452092 0.003148 0.0
0.886249 0.565370 0.002540 0.0
3.899277 0.721042 -0.003858 0.0
0.646653 1.474591 -0.003521 0.0
1.493641 0.413749 0.001167 0.0
0.414384 0.656607 -0.001254 0.0
4.109215 1.151014 -0.000267 0.0
3.987837 0.676100 0.000843 0.0
1.829013 0.699409 -0.003017 0.0
3.240286 0.110406 0.002795 0.0
0.896797 0.667568 0.003551 0.0
4.267720 0.953040 0.001044 0.0
1.485569 0.521367 0.001464 0.0
0.763148 1.321390 -0.000357 0.0
3.050024 0.034484 -0.001517 0.0
0.624013 0.524170 0.000955 0.0
1.725335 0.574646 -0.003751 0.0
0.523261 1.097817 0.004309 0.0
0.636475 0.385114 -0.000118 0.0
3.624148 0.141417 0.002920 0.0
2.840035 0.895320 -0.000123 0.0
1.126519 0.089626 -0.003113 0.0
4.071935 1.217251 -0.001499 0.0
0.562628 1.103193 0.003831 0.0
1.321559 0.540877 -0.004384 0.0
4.339316 0.820479 -0.001303 0.0
4.197955 0.112144 0.000881 0.0
3.862981 0.516548 -0.000842 0.0
0.866050 1.034705 0.001254 0.0
4.256515 0.744225 -0.006256 0.0
2.763922 1.398417 0.000737 0.0
0.943594 0.597389 -0.003550 0.0
0.872455 1.362694 -0.003349 0.0
0.965199 0.534627 0.002339 0.0
0.786060 0.950751 0.000747 0.0
1.168574 1.423605 -0.001251 0.0
1.810117 0.612290 -0.004810 0.0
1.782297 0.745621 0.001924 0.0
3.372209 0.402771 -0.001180 0.0
1.052435 0.434526 0.002855 0.0
3.855487 0.971131 -0.002610 0.0
4.205046 0.174561 0.000448 0.0
0.307600 1.098038 0.002518 0.0
0.987271 1.451898 -0.003184 0.0
2.885472 1.260799 -0.004144 0.0
1.112584 0.044359 -0.002687 0.0
1.756189 0.853550 0.000968 0.0
0.230262 0.669278 -0.001836 0.0
3.269800 1.452488 0.006163 0.0
1.030856 0.154198 -0.000552 0.0
1.801884 0.673497 0.000786 0.0
3.822321 0.362552 -0.003268 0.0
3.242253 1.324012 0.005542 0.0
0.032952 1.473285 -0.000320 0.0
3.324750 1.479908 -0.002135 0.0
2.173029 0.627226 -0.002395 0.0
0.102861 0.067404 0.003146 0.0
2.078516 0.597330 0.002043 0.0
3.590095 1.092201 -0.003458 0.0
3.466634 0.349937 0.000853 0.0
3.689642 1.436659 -0.002955 0.0
3.917564 0.146907 0.001568 0.0
3.980882 0.882822 -0.001372 0.0
2.024755 1.084686 -0.002537 0.0
3.619612 0.111047 -0.000136 0.0
0.707952 0.908413 -0.003550 0.0
0.474797 0.293967 0.000588 0.0
3.719963 0.342380 0.000065 0.0
3.278799 1.387226 0.002729 0.0
3.732326 1.102485 0.002296 0.0
2.620003 0.812892 0.002327 0.0
3.548125 1.511793 0.001394 0.0
0.402747 0.841873 0.002501 0.0
2.436383 0.941488 0.000088 0.0
4.039746 0.461666 0.006036 0.0
0.226369 1.281168 -0.000578 0.0
2.265664 1.140669 0.003990 0.0
1.605260 1.449095 0.000825 0.0
2.546392 0.672852 -0.004185 0.0
2.318087 1.307278 0.004167 0.0
2.039500 0.481196 0.000059 0.0
0.296707 0.564814 -0.000409 0.0
1.455365 1.295311 -0.000665 0.0
1.468044 0.677686 0.004239 0.0
1.641220 1.366572 -0.002121 0.0
0.913322 0.687208 -0.001770 0.0
0.930333 1.232560 0.004740 0.0
1.859823 0.183280 -0.000441 0.0
2.445502 0.312510 -0.005253 0.0
2.006011 0.658308 -0.004835 0.0
0.630557 1.317178 -0.000464 0.0
0.225278 1.049250 0.004164 0.0
2.244761 0.875996 0.004764 0.0
3.595013 0.502913 0.001341 0.0
0.429128 0.562281 -0.004076 0.0
3.582379 1.285438 0.001493 0.0
3.205603 0.570933 -0.004049 0.0
0.781656 1.072337 -0.000891 0.0
0.238517 0.323807 -0.004506 0.0
2.760691 1.311109 0.003360 0.0
2.257073 1.060343 -0.002776 0.0
4.215756 0.046805 -0.001994 0.0
3.389126 0.434759 0.002256 0.0
4.182786 0.658369 -0.002208 0.0
0.787253 0.791294 0.003833 0.0
1.135310 0.011245 0.002368 0.0
3.276181 0.110608 -0.002064 0.0
3.359502 0.904786 -0.000793 0.0
3.170831 0.356202 -0.001465 0.0
1.431815 0.933040 -0.000186 0.0
2.033309 0.463011 0.000394 0.0
3.860475 1.144231 0.000360 0.0
2.831673 0.480691 0.002723 0.0
1.644857 0.529030 -0.000185 0.0
0.961318 0.938728 0.001579 0.0
2.880756 0.053919 0.000999 0.0
0.421057 0.031344 -0.003270 0.0
2.015046 0.909737 0.001344 0.0
2.024752 1.501404 -0.004459 0.0
3.414265 1.508096 0.002027 0.0
3.275534 1.309347 0.001344 0.0
3.492380 0.287955 0.002804 0.0
3.291805 0.306286 -0.001264 0.0
0.067179 0.361524 0.004054 0.0
0.708116 0.300511 0.001336 0.0
0.112968 0.901923 0.002072 0.0
3.868063 1.240201 0.001493 0.0
4.235806 1.074113 -0.003208 0.0
0.552369 0.465977 -0.003980 0.0
3.485323 0.671496 0.004782 0.0
2.389855 0.361221 0.001225 0.0
1.043242 0.920796 0.003454 0.0
3.943798 0.202571 0.000127 0.0
2.289431 1.204152 -0.000300 0.0
0.092391 0.489530 0.001591 0.0
3.773703 1.455332 -0.000530 0.0
0.020234 1.027151 -0.000479 0.0
1.208770 0.188349 0.000475 0.0
3.437607 0.949863 0.003338 0.0
3.379312 0.603704 -0.000988 0.0
0.303463 1.054617 -0.000324 0.0
0.369231 1.095197 -0.000411 0.0
4.141048 1.065190 -0.001502 0.0
0.002496 0.820070 -0.001599 0.0
2.631109 1.391082 0.002288 0.0
3.484640 1.265387 -0.001807 0.0
1.220917 1.363681 0.000141 0.0
4.001471 1.058753 0.000724 0.0
3.011387 0.805996 0.004306 0.0
2.799885 1.491511 -0.001984 0.0
1.594227 1.301206 -0.000051 0.0
2.577753 0.228811 -0.002062 0.0
3.571264 1.101264 -0.002722 0.0
2.021574 1.017490 -0.003134 0.0
0.363082 1.349334 0.004155 0.0
3.598709 0.978869 -0.000289 0.0
2.068062 1.009498 -0.000196 0.0
2.269738 1.433317 -0.002300 0.0
1.708500 0.603974 0.001187 0.0
4.200365 1.274789 0.000651 0.0
1.053872 0.953536 0.000027 0.0
1.369095 0.215968 0.001119 0.0
4.256214 1.077673 0.001310 0.0
3.001849 0.872810 0.000360 0.0
1.798521 0.975071 0.000643 0.0
2.980308 0.327836 0.002509 0.0
3.437662 0.306632 -0.002797 0.0
3.835356 0.563904 0.003513 0.0
1.686037 1.452607 0.004987 0.0
2.902328 0.872067 -0.000772 0.0
1.416489 1.451354 0.002573 0.0
0.449178 1.429686 0.000176 0.0
0.527492 0.418197 0.005851 0.0
1.572900 0.673715 0.000870 0.0
3.885036 1.032818 -0.000966 0.0
3.006954 0.438273 0.001576 0.0
0.232216 1.001190 0.003798 0.0
2.285393 0.151226 0.001351 0.0
1.937201 0.275412 0.003362 0.0
4.225428 0.520106 0.002828 0.0
3.291893 0.491698 -0.002354 0.0
3.490847 0.502908 0.001237 0.0
2.061667 1.266491 -0.000538 0.0
0.370048 1.429359 -0.001017 0.0
2.060669 0.119156 0.000956 0.0
3.648856 1.359182 0.000414 0.0
0.489547 0.043466 0.000398 0.0
3.312620 0.265576 0.003867 0.0
0.013458 1.148964 0.001045 0.0
3.509252 0.591522 0.002348 0.0
0.454235 0.363601 0.001728 0.0
3.935079 0.689790 0.001222 0.0
1.719536 1.308707 0.004691 0.0
2.828574 0.617654 -0.001384 0.0
0.914539 0.077083 0.000863 0.0
3.682901 0.976961 0.000039 0.0
0.347519 0.852036 0.004067 0.0
1.358025 0.193169 0.000456 0.0
0.023063 1.420640 -0.002193 0.0
0.785309 1.130285 -0.002676 0.0
1.546857 0.540648 0.000960 0.0
0.600091 0.350540 0.000948 0.0
0.377902 0.794871 -0.001847 0.0
1.088891 1.013154 -0.000658 0.0
3.635971 0.204216 -0.006705 0.0
0.985083 0.692052 0.000089 0.0
3.671254 0.596619 0.003335 0.0
4.115710 1.389078 -0.001045 0.0
1.084585 1.164827 0.001378 0.0
1.881113 1.184932 0.003447 0.0
3.377218 0.636871 0.001259 0.0
3.033172 0.528996 -0.002488 0.0
4.153650 0.864515 0.002781 0.0
2.219509 0.397647 0.001573 0.0
3.932186 0.619071 0.002502 0.0
2.979161 0.171718 -0.005248 0.0
3.263973 1.422100 -0.004295 0.0
0.931276 0.455083 0.000950 0.0
3.735979 0.690008 0.001603 0.0
0.613586 1.332000 0.002657 0.0
3.833723 0.572753 0.002355 0.0
3.692704 0.060835 0.000351 0.0
3.661839 1.528421 0.004016 0.0
2.208551 0.442262 0.001295 0.0
1.568386 1.014282 0.002049 0.0
3.181194 0.395902 0.000441 0.0
3.166021 0.382406 0.001306 0.0
0.591805 1.047189 -0.000888 0.0
0.089407 0.390393 0.000771 0.0
0.570695 1.179185 -0.001756 0.0
1.094638 0.351082 0.000573 0.0
3.611217 0.693982 0.000137 0.0
0.477058 0.241344 -0.000270 0.0
2.243179 0.360007 0.000943 0.0
0.267047 0.581900 0.000587 0.0
4.074564 0.003607 -0.002201 0.0
0.798374 1.299341 0.002125 0.0
4.340284 1.314691 0.000844 0.0
0.823688 0.186672 -0.003705 0.0
1.300056 0.771085 -0.001193 0.0
4.141473 0.301264 0.000926 0.0
0.375620 1.500616 0.001731 0.0
2.461280 0.740769 0.000829 0.0
1.909790 0.539237 0.000412 0.0
4.050335 0.655910 0.001019 0.0
4.206651 0.134556 -0.003496 0.0
3.225270 0.394496 -0.004034 0.0
0.876014 1.480037 0.001320 0.0
2.164808 0.183560 0.001598 0.0
1.575918 0.907920 -0.001731 0.0
2.751167 0.948805 -0.002136 0.0
3.311711 1.042319 0.005292 0.0
3.645170 1.168773 0.001026 0.0
0.523339 0.749996 -0.000852 0.0
2.356399 0.424073 0.002844 0.0
3.046293 0.005201 0.006156 0.0
0.804371 0.003904 -0.001018 0.0
1.086040 1.321600 0.002940 0.0
3.173676 1.452877 -0.002593 0.0
1.358780 1.155950 0.000739 0.0
1.853412 0.336997 0.001088 0.0
4.049870 0.068341 0.002596 0.0
2.472210 0.205340 0.002243 0.0
1.433929 0.405164 0.002153 0.0
0.376783 1.311329 -0.002562 0.0
2.881061 1.061425 -0.000409 0.0
1.235260 1.433999 -0.002791 0.0
0.220389 1.468723 -0.000313 0.0
2.802127 1.246302 -0.004380 0.0
1.620196 1.456799 0.000271 0.0
2.699051 0.194616 -0.000242 0.0
3.300324 1.050153 0.001800 0.0
3.676696 0.348828 0.001462 0.0
2.776297 0.052584 -0.001731 0.0
2.144337 0.607133 -0.000016 0.0
1.992351 0.459848 0.000446 0.0
3.999499 0.832002 -0.001808 0.0
1.023234 0.871031 -0.002879 0.0
3.922044 0.866562 -0.001578 0.0
1.062557 0.703593 -0.000007 0.0
1.078933 1.509809 0.000394 0.0
0.903986 0.644422 -0.001408 0.0
0.524216 0.483540 0.003245 0.0
3.323097 0.866660 0.000004 0.0
4.071975 0.990352 0.001065 0.0
1.103119 0.881739 0.001446 0.0
1.939667 1.303318 0.003090 0.0
1.490715 1.460600 0.000641 0.0
3.243730 0.684811 0.001748 0.0
0.524597 1.530146 -0.002429 0.0
1.444263 1.044223 -0.002718 0.0
1.729323 0.958364 -0.002872 0.0
3.294728 0.324723 -0.005515 0.0
2.282786 0.774669 0.000561 0.0
3.856066 0.627309 0.004569 0.0
2.504422 1.426147 0.005568 0.0
1.924237 0.065557 -0.000462 0.0
4.370105 1.136911 0.002597 0.0
3.340218 0.888804 0.000341 0.0
0.391765 1.294510 -0.000508 0.0
4.295983 0.812801 0.005867 0.0
3.650977 0.083813 -0.003380 0.0
0.301409 0.494685 0.000103 0.0
1.337894 0.722768 0.000769 0.0
2.060193 0.687141 -0.002826 0.0
3.924398 0.130912 -0.004606 0.0
0.983331 0.570164 -0.001913 0.0
3.077787 1.491404 0.004120 0.0
1.614119 0.810580 0.000185 0.0
1.763992 0.898404 0.002314 0.0
0.355838 0.175135 -0.003146 0.0
0.401152 1.540232 0.001421 0.0
2.241551 0.806760 -0.000698 0.0
2.940152 0.955379 0.007823 0.0
2.969903 1.334203 -0.002058 0.0
0.689762 0.878430 -0.001416 0.0
2.922183 0.030686 -0.001313 0.0
3.453630 1.407007 -0.000090 0.0
3.243258 0.025099 -0.004892 0.0
0.067005 1.134306 0.004439 0.0
0.157135 0.555635 0.002617 0.0
0.064445 1.431659 -0.001016 0.0
3.258650 0.497719 -0.000473 0.0
0.072545 0.001772 -0.001157 0.0
3.863756 0.024584 -0.003643 0.0
0.982550 0.443308 -0.001357 0.0
0.792923 0.020985 -0.002793 0.0
1.028408 0.993237 0.000804 0.0
2.031025 0.896985 -0.001356 0.0
1.205554 0.143028 -0.000582 0.0
3.462737 0.114093 0.002635 0.0
1.558071 0.575601 -0.004694 0.0
3.319124 0.323579 0.001326 0.0
0.684760 1.394881 0.000904 0.0
0.792687 0.294393 0.000464 0.0
2.804414 1.325146 0.001372 0.0
1.078537 0.793859 -0.004314 0.0
3.390095 1.040728 0.002155 0.0
2.758160 0.642568 0.004263 0.0
2.801719 0.605890 0.000186 0.0
2.699823 1.201221 0.000628 0.0
1.578308 0.974592 0.000779 0.0
3.085594 0.196546 0.000680 0.0
3.667097 0.003161 -0.004038 0.0
2.818010 0.857007 0.000894 0.0
0.134156 1.309792 0.005236 0.0
2.344072 0.533867 -0.002379 0.0
1.342266 0.427602 -0.004945 0.0
2.487782 0.286378 -0.001532 0.0
3.774906 1.399687 -0.001044 0.0
3.631833 0.615007 0.002088 0.0
3.492344 0.060474 -0.000885 0.0
1.087984 0.411547 -0.001577 0.0
1.990912 1.065210 -0.000181 0.0
4.141177 1.459399 0.002454 0.0
2.410778 0.418717 0.003052 0.0
0.113802 0.699238 -0.002171 0.0
1.058289 0.787907 -0.002878 0.0
3.671902 1.494678 0.002481 0.0
2.002070 0.031418 0.000152 0.0
2.021830 1.217302 0.002455 0.0
1.870049 0.972274 0.001647 0.0
3.528010 1.028882 -0.001356 0.0
0.043466 0.053937 -0.004083 0.0
1.334183 1.116676 -0.001345 0.0
0.224625 0.769097 -0.002533 0.0
2.522176 0.228787 -0.000206 0.0
2.950940 0.480146 -0.002242 0.0
0.419791 0.253451 0.000733 0.0
2.891705 0.684945 -0.002303 0.0
1.620845 0.887907 -0.002268 0.0
2.069030 1.390950 -0.003551 0.0
1.257992 0.381722 0.005801 0.0
0.760763 0.200230 -0.000481 0.0
2.318689 0.116437 -0.002684 0.0
4.122028 1.345721 0.000480 0.0
1.969871 1.263179 0.004192 0.0
2.876003 1.394631 0.002022 0.0
0.469752 1.410495 0.002948 0.0
0.629645 0.557561 -0.000863 0.0
1.789029 1.088319 -0.004474 0.0
2.108217 0.624951 0.005222 0.0
2.549787 0.043142 -0.003792 0.0
3.990815 1.132140 -0.000489 0.0
3.094090 0.918446 0.001662 0.0
1.433885 0.493881 -0.002867 0.0
3.265120 1.327217 0.003565 0.0
1.384302 1.039801 -0.001501 0.0
1.067131 1.140777 0.000475 0.0
3.158745 0.200684 -0.003189 0.0
3.184945 0.044782 -0.000222 0.0
3.495445 0.993305 -0.004983 0.0
0.996279 1.261028 -0.002284 0.0
1.576722 0.817111 0.003577 0.0
1.367052 0.126330 -0.002482 0.0
3.449697 0.812336 -0.001904 0.0
1.841384 1.210337 0.002433 0.0
3.642319 0.053986 0.002956 0.0
3.803879 0.942855 -0.002689 0.0
0.691097 0.076368 -0.001642 0.0
1.978839 0.317423 0.002846 0.0
4.102643 1.107681 -0.004863 0.0
4.355630 0.654514 0.002947 0.0
1.340253 0.616603 0.006052 0.0
2.220449 0.610066 0.001394 0.0
0.559855 0.647177 0.000710 0.0
2.942928 1.209199 0.003395 0.0
1.485020 0.048509 0.000173 0.0
0.046807 1.502194 0.001101 0.0
2.061838 0.659671 -0.003671 0.0
1.713396 0.468055 -0.001672 0.0
3.128378 0.636617 -0.002590 0.0
4.236996 1.261644 -0.002999 0.0
4.340492 0.298080 -0.003440 0.0
0.793642 0.362036 -0.000622 0.0
4.221123 1.393140 0.001421 0.0
0.476061 0.776112 -0.001953 0.0
2.451557 1.170163 0.002330 0.0
2.139731 0.347378 -0.000454 0.0
2.755358 0.261829 -0.000886 0.0
2.691913 1.357607 -0.001595 0.0
3.892383 0.594073 0.000722 0.0
4.276644 0.876721 0.004170 0.0
2.607571 0.545062 -0.001286 0.0
4.295209 0.343869 -0.000611 0.0
3.668831 0.836807 -0.000828 0.0
2.275440 0.926239 0.000301 0.0
2.222060 0.778732 0.002831 0.0
1.957014 0.828422 -0.003130 0.0
0.895684 0.805730 0.000499 0.0
1.748281 0.820303 -0.001503 0.0
2.269883 0.640884 -0.005179 0.0
1.326613 1.070609 0.003739 0.0
0.331051 1.390979 -0.000358 0.0
0.886532 1.149486 -0.002438 0.0
0.978795 0.633110 -0.001838 0.0
0.814578 1.133906 0.000035 0.0
3.909040 0.976528 -0.004279 0.0
1.978023 0.738266 -0.000780 0.0
1.727341 0.761875 -0.000391 0.0
4.377729 1.137744 -0.002007 0.0
0.748905 1.377476 0.000794 0.0
1.480037 0.957940 0.001502 0.0
1.664515 0.730926 -0.004856 0.0
1.404498 1.415818 0.002644 0.0
4.213822 0.720654 0.001738 0.0
1.876315 1.315885 -0.002810 0.0
3.581991 1.502314 0.002556 0.0
1.096944 0.730349 -0.000959 0.0
1.368465 0.623144 -0.001094 0.0
3.330471 0.151623 0.000250 0.0
1.060078 0.564841 -0.000183 0.0
1.092410 0.368860 0.001421 0.0
2.859597 0.187002 -0.002673 0.0
1.303741 0.056117 0.000757 0.0
1.706721 0.607897 -0.003703 0.0
4.182748 0.291801 0.001239 0.0
1.014972 0.213441 0.000448 0.0
1.236902 0.561420 -0.003036 0.0
0.061290 0.339948 -0.001071 0.0
2.982851 0.179970 -0.002177 0.0
4.050073 1.241732 0.000628 0.0
2.048635 0.616136 -0.000213 0.0
2.560799 0.067375 -0.001776 0.0
1.678796 1.419320 -0.001143 0.0
2.328915 0.804976 -0.001159 0.0
3.568902 0.133766 0.002592 0.0
2.348558 0.087883 -0.001081 0.0
4.210806 0.335189 -0.001166 0.0
2.079950 0.090977 0.001108 0.0
3.769203 0.397468 -0.004220 0.0
2.560922 1.051256 -0.001322 0.0
2.324344 1.299698 -0.006014 0.0
3.578520 1.531367 -0.000959 0.0
1.757086 0.347227 0.001666 0.0
0.790065 0.570344 0.000242 0.0
4.127372 0.559668 -0.001898 0.0
0.519616 0.631158 0.005608 0.0
1.882212 0.047039 0.004345 0.0
1.386531 1.096989 0.000037 0.0
4.251300 0.181938 0.003509 0.0
1.629436 0.147523 0.002471 0.0
2.972615 0.948928 -0.004449 0.0
4.063302 1.364360 -0.000709 0.0
4.024629 0.329462 -0.000005 0.0
3.398689 0.008591 -0.000204 0.0
3.816874 0.726740 -0.002582 0.0
2.388636 1.293951 0.000982 0.0
3.156564 0.941480 0.002073 0.0
4.073688 1.478933 -0.002715 0.0
2.196395 1.223117 -0.001832 0.0
1.743769 1.305544 0.000275 0.0
2.791794 1.048564 0.001279 0.0
4.251966 0.010436 0.000209 0.0
2.249426 0.416416 0.002314 0.0
2.512895 1.057359 0.001987 0.0
3.952360 1.530832 0.000147 0.0
3.067373 0.408259 0.001885 0.0
3.546316 0.092490 0.000572 0.0
2.912420 0.980810 -0.001803 0.0
2.866686 0.020522 0.001646 0.0
0.286582 0.475955 -0.002463 0.0
3.355507 1.040323 0.000234 0.0
3.204635 0.029359 -0.001857 0.0
0.428186 0.967563 -0.003155 0.0
2.040842 0.262129 -0.001064 0.0
1.693564 0.482060 0.000884 0.0
1.717791 0.527242 0.002824 0.0
2.266234 0.626253 0.003379 0.0
1.965976 0.091641 0.006053 0.0
3.161188 0.554464 0.003046 0.0
3.693690 0.893987 -0.001014 0.0
1.074030 0.020269 0.005461 0.0
0.068140 0.449145 0.001082 0.0
0.696290 0.512960 0.000034 0.0
0.247718 1.244857 -0.000840 0.0
0.245703 1.459092 0.002005 0.0
2.697734 1.366980 0.003092 0.0
0.419139 0.362463 -0.003411 0.0
1.570831 0.986413 0.003250 0.0
3.878396 1.272573 -0.007192 0.0
0.401793 0.429385 0.000285 0.0
1.423890 0.482185 -0.004192 0.0
0.979435 1.452276 -0.000130 0.0
3.562616 0.465396 -0.000613 0.0
0.918623 0.696668 0.002567 0.0
3.998491 1.085170 0.000520 0.0
4.176263 1.163467 0.000242 0.0
1.119676 1.140280 -0.003676 0.0
4.086049 0.489821 0.001667 0.0
3.016573 0.505781 -0.004979 0.0
0.775207 1.185778 0.005824 0.0
2.421459 1.370247 -0.003132 0.0
0.155860 0.135651 -0.000198 0.0
3.095406 0.359541 0.000378 0.0
3.984031 1.213800 0.000175 0.0
4.301575 0.925975 0.000409 0.0
1.768433 1.367929 0.000359 0.0
2.070253 0.863929 -0.001515 0.0
1.081479 0.977905 0.001654 0.0
0.795013 0.142289 -0.002634 0.0
0.229594 0.450200 -0.001850 0.0
2.017957 0.897051 -0.002430 0.0
2.718938 0.414236 -0.000589 0.0
3.261405 0.332330 -0.007239 0.0
1.018035 1.287968 -0.003980 0.0
3.865677 0.709349 -0.000707 0.0
0.173579 0.278259 -0.001126 0.0
4.021815 0.791934 0.000100 0.0
0.695824 0.449018 0.004161 0.0
2.001210 0.534428 -0.001377 0.0
0.883323 0.222598 0.003004 0.0
1.636732 0.529992 0.000908 0.0
1.175653 1.250479 -0.000823 0.0
0.857193 1.208107 0.000261 0.0
3.121501 1.164605 -0.002086 0.0
4.141925 0.873026 -0.000893 0.0
1.865574 0.810872 -0.001241 0.0
1.935014 1.394386 0.000102 0.0
0.426101 1.168614 -0.001722 0.0
1.267084 0.984399 -0.001065 0.0
3.925395 1.516980 0.000827 0.0
0.965718 0.033913 -0.000264 0.0
3.723253 0.110543 0.000274 0.0
1.142120 1.125345 -0.002309 0.0
4.066937 0.819793 -0.000150 0.0
3.906679 0.956061 0.003053 0.0
0.227959 0.926191 0.003273 0.0
0.725014 0.789863 -0.000140 0.0
4.331816 1.067404 0.000578 0.0
2.186833 1.103281 0.002602 0.0
1.690455 0.515336 0.001355 0.0
0.843118 1.193784 0.002894 0.0
4.077717 0.117080 -0.001469 0.0
1.385964 0.555298 -0.003078 0.0
3.762260 0.362153 -0.007525 0.0
3.803930 0.332573 -0.001283 0.0
3.468942 0.475596 0.000562 0.0
2.251031 1.178455 -0.002709 0.0
0.604263 0.148815 0.004494 0.0
3.223299 1.067317 0.001873 0.0
2.254101 1.253691 0.004323 0.0
1.679532 1.517465 -0.002278 0.0
4.107961 0.810360 -0.003115 0.0
0.508237 0.739962 0.001801 0.0
4.057700 0.099136 -0.001214 0.0
1.559244 1.390448 0.003935 0.0
2.325389 0.590087 -0.000760 0.0
1.774579 0.707064 -0.002208 0.0
0.156005 0.410021 -0.000656 0.0
2.131022 0.300232 0.002618 0.0
1.641163 0.033775 -0.005687 0.0
1.017589 0.364915 0.001373 0.0
1.292722 1.375237 0.000867 0.0
3.081328 0.462307 -0.000792 0.0
0.218929 0.252506 -0.003214 0.0
0.449016 0.147303 -0.004111 0.0
4.069663 0.694703 -0.000000 0.0
4.059662 0.076995 0.000419 0.0
0.215385 1.323735 -0.001742 0.0
3.303528 1.034496 0.000682 0.0
0.037266 0.794825 -0.000644 0.0
4.011278 0.502872 -0.001020 0.0
3.377316 1.109838 -0.002704 0.0
1.931663 0.732040 -0.002046 0.0
0.215212 1.315905 0.000145 0.0
0.248356 0.839937 -0.002087 0.0
4.161060 0.715215 0.002863 0.0
2.546410 1.115667 -0.003922 0.0
1.160583 0.905917 0.004411 0.0
0.659635 0.880202 -0.001182 0.0
2.637015 1.140168 -0.003637 0.0
1.523678 0.680954 0.002557 0.0
1.741259 1.255451 0.003864 0.0
4.293671 1.280445 -0.003137 0.0
2.488901 0.683888 -0.001856 0.0
1.666841 0.729055 -0.000418 0.0
2.031550 0.422634 -0.001030 0.0
4.000925 0.039089 0.001345 0.0
0.592676 0.273256 0.001909 0.0
1.242762 0.484741 0.002799 0.0
2.583417 0.748579 0.000046 0.0
3.599722 0.254615 -0.002950 0.0
1.819445 0.689094 0.001439 0.0
2.016150 0.532777 0.000712 0.0
4.040465 0.911226 0.000808 0.0
2.934491 1.188828 -0.005238 0.0
0.676266 1.033131 0.002780 0.0
0.096973 0.306020 0.001274 0.0
0.980029 0.411372 -0.000300 0.0
0.558824 1.212490 0.003906 0.0
3.107615 0.010277 0.000495 0.0
0.147113 0.343434 0.001035 0.0
4.345838 0.364904 -0.002904 0.0
3.117332 1.386453 -0.001969 0.0
3.182867 1.211538 0.001372 0.0
1.056460 1.120198 0.002878 0.0
2.373986 1.137908 -0.002984 0.0
0.666385 0.979857 0.002401 0.0
3.577775 0.614996 -0.002678 0.0
2.000612 0.012773 0.001802 0.0
3.242331 0.998087 0.001596 0.0
0.713627 0.036797 -0.002229 0.0
0.649931 1.011977 0.003716 0.0
3.354114 1.217035 -0.000387 0.0
2.143008 0.088443 -0.001658 0.0
3.587357 0.052245 -0.001626 0.0
2.109412 0.772609 -0.001722 0.0
2.309957 1.292763 0.000210 0.0
0.649721 1.356054 0.008454 0.0
4.264474 0.347838 -0.000705 0.0
3.154635 0.082092 0.000786 0.0
2.615145 1.203750 -0.003508 0.0
3.460270 1.185900 -0.003424 0.0
1.101324 1.484360 0.002960 0.0
1.080025 0.071249 0.002310 0.0
3.080143 0.310299 0.002547 0.0
0.149321 0.808151 -0.003252 0.0
0.475290 1.415243 -0.005667 0.0
0.678141 0.853878 0.003044 0.0
1.044835 0.137505 -0.002919 0.0
4.373015 1.381693 0.001425 0.0
0.721922 0.157281 0.000788 0.0
2.764147 0.187829 0.001453 0.0
4.217019 1.350226 0.002183 0.0
0.031787 0.722016 -0.000185 0.0
1.056995 0.470011 -0.004015 0.0
1.226759 0.892106 0.000741 0.0
0.879469 0.539548 0.000846 0.0
0.455242 1.172446 -0.001562 0.0
3.810678 1.253507 0.001040 0.0
1.890527 0.211064 -0.002977 0.0
2.607460 0.932481 0.001009 0.0
0.673092 1.492469 0.001090 0.0
2.006515 0.657854 0.002080 0.0
2.514205 0.967989 -0.002255 0.0
0.672693 1.372283 -0.002337 0.0
3.237232 0.548181 0.000286 0.0
3.700784 0.226414 0.000037 0.0
3.041948 0.208797 0.000695 0.0
2.818971 0.746078 0.001452 0.0
4.046162 0.057170 0.000370 0.0
3.726561 0.728209 0.002265 0.0
0.744723 0.371055 0.000051 0.0
4.004009 0.813075 -0.002068 0.0
1.154307 0.663587 -0.001402 0.0
1.718495 0.374406 0.002248 0.0
3.522376 1.313449 0.001075 0.0
2.448044 1.335051 0.005491 0.0
2.300034 0.488625 0.001624 0.0
3.128887 0.738245 0.001315 0.0
3.211128 1.334528 -0.001207 0.0
1.921405 1.268781 0.000581 0.0
3.649970 0.145876 -0.003978 0.0
1.630033 0.180095 -0.000951 0.0
0.913862 0.879387 0.001023 0.0
0.686672 0.124425 -0.000366 0.0
3.919772 0.380756 0.003196 0.0
2.435040 0.567935 0.004366 0.0
2.360960 0.528410 -0.003456 0.0
2.065362 0.205248 0.001913 0.0
1.753341 0.508700 0.002935 0.0
0.972787 0.694388 -0.002475 0.0
4.350928 0.263344 -0.001593 0.0
2.515645 1.156418 0.004649 0.0
3.617203 1.435198 0.001663 0.0
2.572111 0.451754 -0.002225 0.0
4.070290 1.098647 -0.000526 0.0
2.112822 1.207215 -0.001297 0.0
2.073900 0.444522 0.001812 0.0
2.652548 0.629174 -0.002758 0.0
3.663786 0.783299 -0.000396 0.0
1.196787 0.447681 -0.001826 0.0
3.792740 1.246377 -0.002142 0.0
4.189318 1.187681 0.004640 0.0
1.608596 0.711158 0.000900 0.0
1.056413 0.596525 0.002283 0.0
2.743853 0.889040 0.003340 0.0
4.311299 0.577929 0.000517 0.0
3.239584 0.035630 0.001444 0.0
3.274336 0.880675 0.001839 0.0
2.888385 0.453489 0.003550 0.0
4.039059 0.636511 0.000568 0.0
3.050159 0.679345 -0.002902 0.0
2.769462 0.426081 -0.004381 0.0
2.421833 0.417884 0.000665 0.0
3.623116 1.130324 0.001528 0.0
2.048422 0.076795 -0.002899 0.0
3.970590 0.563380 0.001259 0.0
1.707386 0.844683 0.000357 0.0
0.280492 1.210868 0.001363 0.0
1.335183 0.146028 -0.000573 0.0
2.748069 0.202199 -0.003220 0.0
3.015734 0.323691 0.000245 0.0
4.350242 0.348717 0.001222 0.0
0.774225 1.438424 -0.000281 0.0
3.200532 0.387279 -0.000315 0.0
1.359104 1.100652 0.005117 0.0
4.282214 0.924613 0.000575 0.0
3.111265 0.101766 0.004062 0.0
0.065337 0.681551 0.002995 0.0
2.772426 0.691366 -0.002733 0.0
0.231471 0.749782 0.002525 0.0
0.955696 1.244488 -0.001043 0.0
1.047335 0.845235 -0.002895 0.0
2.210096 0.844956 -0.000508 0.0
4.103016 0.141959 0.000963 0.0
3.405080 0.295999 0.002358 0.0
2.468794 1.078899 0.003472 0.0
2.708904 1.082858 0.000198 0.0
4.211439 0.166522 -0.001340 0.0
3.076141 1.429988 -0.002964 0.0
3.427770 0.208080 0.001249 0.0
1.043486 0.003762 0.003909 0.0
2.610249 0.385939 -0.000470 0.0
3.917557 0.913323 0.000092 0.0
0.500407 0.241733 -0.001824 0.0
1.939402 0.237270 0.000465 0.0
2.460120 0.518622 0.001071 0.0
1.977143 0.619852 0.000876 0.0
2.923156 0.540215 0.002523 0.0
1.728446 0.765789 -0.001938 0.0
2.851333 0.135218 0.000509 0.0
3.335832 0.363688 0.000069 0.0
3.461687 0.317573 0.005340 0.0
2.990757 1.255789 -0.000385 0.0
0.189071 1.404751 0.001909 0.0
3.727844 1.365775 -0.000298 0.0
3.624158 1.392859 0.003023 0.0
4.369967 0.259552 0.002314 0.0
3.710650 0.384027 0.001289 0.0
1.527047 0.893307 0.003173 0.0
2.479536 1.429025 0.001520 0.0
3.461946 1.516493 -0.000442 0.0
3.567241 1.094677 0.005143 0.0
2.083681 0.145740 -0.000155 0.0
3.005321 0.867134 0.001447 0.0
0.900610 0.777144 0.000628 0.0
4.181415 1.302331 0.002950 0.0
4.254981 1.469965 0.000743 0.0
2.621085 0.029535 0.001115 0.0
4.054986 0.697461 0.001591 0.0
1.014602 0.886728 0.002092 0.0
1.587156 1.220707 -0.002441 0.0
0.620542 0.680906 -0.004919 0.0
0.811711 0.464873 0.004093 0.0
0.945632 1.467269 0.001288 0.0
0.459178 1.508699 -0.001509 0.0
2.467702 1.520904 -0.004401 0.0
2.531345 0.886598 0.001476 0.0
3.622284 0.652455 0.001911 0.0
1.687014 0.589363 0.001565 0.0
4.363838 0.526274 -0.003163 0.0
1.757625 0.003355 0.002240 0.0
2.171781 0.033031 -0.001301 0.0
1.604290 0.853575 -0.000557 0.0
0.782790 0.648359 -0.001831 0.0
1.470078 0.906061 0.003641 0.0
1.541930 0.859771 -0.000653 0.0
0.930670 0.076628 0.000541 0.0
1.410012 0.256080 0.002894 0.0
0.247005 0.457752 0.001062 0.0
3.143066 0.115035 0.001571 0.0
1.506335 0.954546 -0.000124 0.0
0.066328 0.483954 -0.000558 0.0
2.475993 1.336323 -0.002164 0.0
3.400086 0.622165 0.001833 0.0
1.318727 0.848608 0.001641 0.0
1.215449 0.611433 0.000751 0.0
1.784609 1.321098 -0.000436 0.0
3.925478 1.241884 0.000265 0.0
1.627718 1.280891 0.002300 0.0
0.479017 1.126089 -0.000428 0.0
3.121855 0.738950 -0.000298 0.0
2.702183 0.029262 -0.003346 0.0
1.455281 0.471703 -0.002128 0.0
1.062438 0.843813 -0.003602 0.0
3.495927 0.631550 -0.000624 0.0
0.357651 0.514956 0.002285 0.0
3.220627 1.348676 0.003934 0.0
0.169920 0.333981 -0.000779 0.0
1.471409 0.995482 0.001868 0.0
2.408170 1.153649 -0.004110 0.0
2.416837 0.593587 -0.001213 0.0
2.380967 0.796193 0.000240 0.0
3.325366 0.083095 -0.001512 0.0
2.591308 1.110820 -0.001327 0.0
2.168232 1.054161 -0.003215 0.0
3.301714 0.087363 -0.001670 0.0
2.350274 0.734982 0.001567 0.0
3.120961 1.396182 -0.001529 0.0
1.492332 0.101435 -0.001337 0.0
1.102368 0.892447 -0.000665 0.0
2.191917 0.390873 -0.001027 0.0
0.284114 0.586502 -0.003321 0.0
3.807915 0.082540 -0.004353 0.0
1.730357 0.646414 -0.004782 0.0
1.894553 0.900752 0.000297 0.0
0.521320 0.999096 0.000128 0.0
3.092674 0.744509 0.000276 0.0
1.982593 0.696113 -0.000876 0.0
1.270599 0.172071 -0.003902 0.0
3.832113 1.387033 0.001854 0.0
1.187809 1.196179 -0.005215 0.0
0.972268 0.493887 0.004743 0.0
4.085368 0.065797 -0.003470 0.0
4.203152 1.352547 0.000072 0.0
0.604124 1.095456 0.004611 0.0
1.574891 0.269371 0.003842 0.0
4.297001 0.519115 -0.001503 0.0
4.264397 0.535388 -0.002799 0.0
2.118663 0.872989 0.000636 0.0
4.024003 0.990320 0.002334 0.0
0.313122 1.022396 -0.002751 0.0
2.973650 1.190583 0.002874 0.0
3.169017 0.954741 0.000070 0.0
1.796998 1.281263 0.004871 0.0
3.662602 1.364482 0.001193 0.0
2.675694 0.630457 -0.001338 0.0
2.174345 0.555473 0.000674 0.0
2.413497 0.740021 -0.003685 0.0
3.981520 0.181304 -0.003723 0.0
1.851337 1.113241 -0.000205 0.0
3.092214 0.344200 -0.001678 0.0
3.572498 0.242837 0.008465 0.0
3.209192 1.062079 0.002899 0.0
2.226584 1.388169 -0.001912 0.0
3.241014 0.298017 0.002077 0.0
0.829008 0.375010 0.001544 0.0
1.227839 1.414479 -0.005778 0.0
2.247853 1.048157 -0.001918 0.0
1.473598 0.803328 0.001905 0.0
2.260647 1.505234 0.002003 0.0
0.139504 0.034455 0.000738 0.0
3.213754 1.285742 0.000752 0.0
0.839500 1.040740 -0.002278 0.0
0.141843 0.563701 -0.002657 0.0
2.942516 0.489085 0.003773 0.0
2.755006 0.964544 -0.001570 0.0
2.464348 0.207084 0.000887 0.0
3.732824 0.998016 0.000366 0.0
0.897864 1.307589 0.001891 0.0
3.993778 1.376935 -0.002616 0.0
3.831481 0.161656 0.002178 0.0
0.063663 0.076110 -0.001387 0.0
1.987885 0.689814 0.002518 0.0
4.369623 1.520855 0.000594 0.0
1.220049 0.792360 -0.001860 0.0
1.058012 1.165136 -0.000138 0.0
2.399898 1.105454 0.000683 0.0
2.938520 1.268910 -0.004778 0.0
3.295862 1.466072 0.000784 0.0
1.459240 0.376339 0.003255 0.0
3.105260 0.613061 0.000552 0.0
2.915914 0.717480 0.003129 0.0
0.871930 0.805083 -0.001592 0.0
3.845615 1.314603 -0.001811 0.0
3.218258 0.218083 -0.002916 0.0
1.856843 1.452911 -0.003543 0.0
1.519112 0.883149 0.005630 0.0
2.102240 1.373898 -0.000016 0.0
0.449790 0.872574 -0.001062 0.0
2.800174 0.580979 0.000042 0.0
0.380211 0.754933 -0.001794 0.0
0.986328 0.823045 0.001020 0.0
2.685590 1.483355 -0.004739 0.0
2.382914 0.655601 -0.002044 0.0
3.106510 0.535449 -0.001696 0.0
2.065346 0.379848 0.001624 0.0
3.983448 0.443966 0.001790 0.0
4.287609 0.409513 -0.001594 0.0
3.905603 0.039137 0.005449 0.0
1.674599 0.540947 -0.000642 0.0
2.451983 0.309191 0.001706 0.0
2.626862 1.094670 -0.000719 0.0
2.730810 0.921741 -0.000401 0.0
1.263810 0.679595 -0.000124 0.0
3.414771 1.164140 0.003009 0.0
1.204759 0.042360 0.002689 0.0
2.536795 0.752060 0.000864 0.0
3.542383 0.379610 -0.003371 0.0
2.124396 0.461332 0.002273 0.0
3.597480 0.027098 -0.002267 0.0
0.180187 0.521805 0.001191 0.0
1.150618 1.286206 -0.003896 0.0
2.680532 1.136448 0.004287 0.0
3.022279 0.573504 0.000602 0.0
2.943918 1.171654 0.000809 0.0
1.727018 0.145865 0.006009 0.0
2.729314 1.470676 0.000609 0.0
0.813200 1.437301 -0.004184 0.0
3.932441 1.253456 -0.001091 0.0
1.292336 0.657146 0.002870 0.0
2.943088 1.348906 -0.002073 0.0
4.010419 1.029269 0.000577 0.0
4.279652 1.033292 0.002905 0.0
1.524639 0.138459 0.000392 0.0
2.790287 1.033947 -0.005798 0.0
0.126397 1.004618 -0.000021 0.0
3.359822 0.627859 -0.007645 0.0
3.567863 0.351453 0.002686 0.0
3.755458 1.123447 -0.000657 0.0
1.140303 0.634200 0.001192 0.0
1.795713 0.013034 0.002902 0.0
1.184841 1.081173 0.000952 0.0
3.068003 1.097547 0.000286 0.0
1.478847 0.899656 -0.002055 0.0
2.413517 0.647256 -0.002982 0.0
2.015042 1.169264 0.000051 0.0
1.038085 1.017527 -0.002790 0.0
2.129814 1.468436 -0.000225 0.0
0.016629 0.249797 -0.000626 0.0
0.887485 0.590052 0.002457 0.0
2.473731 0.255979 -0.000243 0.0
2.749922 1.145908 0.005800 0.0
3.313876 0.248869 -0.005358 0.0
0.884875 0.079304 -0.000073 0.0
4.229508 0.736464 -0.000072 0.0
0.109237 0.357567 -0.002058 0.0
2.389980 0.516097 -0.000403 0.0
4.171232 0.641678 -0.001186 0.0
2.796466 1.143391 -0.000987 0.0
2.819889 0.180545 -0.000582 0.0
3.341295 0.702036 -0.002602 0.0
0.712464 1.165815 -0.002534 0.0
3.287886 0.941612 -0.001751 0.0
1.667896 1.273821 0.001152 0.0
2.931185 0.789716 -0.005237 0.0
1.337541 1.069108 -0.001404 0.0
3.453977 1.403356 0.000536 0.0
0.982402 0.841359 0.000682 0.0
0.311464 0.845676 0.004211 0.0
2.511716 1.321725 0.002670 0.0
2.565953 0.898046 -0.003519 0.0
0.193223 0.904270 -0.000868 0.0
4.053091 0.259274 0.002191 0.0
2.187127 1.266365 0.002009 0.0
3.483796 0.210267 -0.000664 0.0
3.792050 0.525285 -0.004027 0.0
0.613696 0.677224 -0.001564 0.0
3.116968 0.553683 0.000630 0.0
3.560404 0.973319 0.004171 0.0
1.155145 1.476644 0.000878 0.0
1.782744 0.040255 0.000215 0.0
3.531123 1.058786 0.001445 0.0
4.003103 1.258232 -0.002078 0.0
0.984620 0.565697 0.001165 0.0
3.368279 0.124546 -0.000843 0.0
1.609996 0.036625 0.001565 0.0
3.607518 0.332494 -0.001995 0.0
2.824568 0.324678 -0.002614 0.0
1.620957 1.095024 0.001303 0.0
0.389028 0.608476 -0.001696 0.0
1.152930 0.097310 0.003294 0.0
1.712413 0.243241 0.000164 0.0
2.999636 0.515920 0.002549 0.0
2.980717 1.372689 0.004478 0.0
3.831780 0.759058 0.003781 0.0
0.936184 0.254284 0.002535 0.0
2.637799 1.137783 -0.002548 0.0
2.605465 0.763888 0.000398 0.0
2.630493 1.174708 -0.001012 0.0
3.145908 1.331972 0.001892 0.0
2.530856 1.223921 0.003320 0.0
2.841986 1.035380 0.004419 0.0
1.220236 0.120381 -0.002419 0.0
2.778495 0.556849 -0.001186 0.0
1.035117 0.618510 0.002297 0.0
4.328372 1.212724 0.001630 0.0
3.023991 0.236116 -0.001714 0.0
1.132635 1.021188 0.003455 0.0
3.318467 0.294293 0.001814 0.0
3.143467 1.370646 0.001423 0.0
3.207147 1.174991 -0.000888 0.0
0.300720 1.355527 -0.004899 0.0
2.548357 0.688356 0.002825 0.0
1.840362 1.420736 -0.006438 0.0
3.226612 0.797868 -0.003501 0.0
2.781497 1.137454 0.002878 0.0
2.898320 0.606894 0.004634 0.0
1.243690 1.340328 0.002052 0.0
2.123041 1.319021 0.002144 0.0
3.425531 0.298860 0.003510 0.0
2.250044 0.862607 0.001317 0.0
0.113661 0.792244 0.000634 0.0
2.013980 0.943584 -0.000176 0.0
2.470638 0.292373 -0.002959 0.0
1.936031 1.435572 -0.004809 0.0
0.891046 0.567721 -0.000952 0.0
0.626479 1.382741 -0.000828 0.0
2.568229 0.424112 0.002423 0.0
3.669175 1.229922 0.001695 0.0
1.932501 1.174397 -0.001803 0.0
2.678969 0.678681 0.000290 0.0
1.925300 0.358542 0.001982 0.0
1.077095 1.512085 0.001952 0.0
3.472362 1.512302 -0.001485 0.0
3.339239 1.232051 0.001626 0.0
0.326417 0.862449 0.003125 0.0
4.184639 0.988386 0.006859 0.0
2.198366 0.218177 0.002092 0.0
3.524719 0.719467 -0.003833 0.0
1.470499 0.762286 -0.000602 0.0
2.720696 1.062803 -0.004074 0.0
2.986232 0.277857 0.001959 0.0
0.582936 1.039313 -0.001055 0.0
2.263534 1.432823 0.003777 0.0
2.930276 0.104794 -0.006214 0.0
3.650082 0.120621 -0.000533 0.0
3.698995 0.360549 -0.001609 0.0
3.165039 1.220497 -0.002590 0.0
2.561596 0.267015 0.000634 0.0
0.501685 0.314921 0.001229 0.0
3.597664 1.405640 -0.002942 0.0
3.190691 0.794977 -0.001207 0.0
1.945522 0.497497 -0.001926 0.0
3.116163 0.278509 -0.003233 0.0
1.865582 1.443572 -0.005888 0.0
3.928311 1.505625 -0.003865 0.0
3.144314 0.728071 0.003574 0.0
0.025360 0.626756 0.000194 0.0
0.778178 0.153678 0.000005 0.0
1.999840 0.536673 0.002062 0.0
0.867234 0.774280 -0.001680 0.0
3.392277 0.284207 -0.000063 0.0
1.291898 1.232170 0.001384 0.0
0.946741 0.900253 -0.000677 0.0
1.148479 1.344724 0.001471 0.0
1.182575 0.748242 -0.007462 0.0
1.592202 0.184238 0.002407 0.0
0.612892 1.033821 0.002960 0.0
1.352456 0.383860 0.001066 0.0
2.628088 0.552451 -0.001194 0.0
0.883646 0.018322 -0.000119 0.0
0.290005 1.315775 0.002397 0.0
1.403727 0.971757 -0.000058 0.0
3.740662 0.416862 -0.000545 0.0
1.197220 1.149984 0.003007 0.0
0.708278 0.191554 0.006135 0.0
3.729095 0.663406 -0.000049 0.0
0.354005 1.051970 -0.002212 0.0
0.447671 0.365246 0.000773 0.0
2.008727 0.512649 0.001593 0.0
2.979821 0.127318 -0.001112 0.0
3.286487 1.069855 -0.002311 0.0
0.405020 1.303338 0.002743 0.0
0.599380 0.940202 -0.002336 0.0
0.048787 0.513014 -0.000234 0.0
1.984824 1.380456 -0.001143 0.0
2.258106 0.530257 0.004122 0.0
0.397277 1.024935 0.003198 0.0
1.053488 0.854623 0.003502 0.0
1.235953 0.539424 0.003063 0.0
0.198372 0.669050 -0.001508 0.0
0.489221 1.389872 0.001655 0.0
0.652929 0.102709 0.002227 0.0
2.993335 1.119443 -0.000370 0.0
0.784885 0.699787 0.000196 0.0
3.543024 0.119580 0.001441 0.0
2.353319 0.931413 0.003932 0.0
2.851734 1.172312 -0.001390 0.0
3.356353 1.418341 -0.000818 0.0
1.526947 1.162848 0.003073 0.0
4.036473 0.492323 -0.003610 0.0
3.006886 0.077405 -0.000451 0.0
1.013276 0.052442 -0.001469 0.0
3.804170 0.772880 0.003366 0.0
0.903770 0.025028 -0.001394 0.0
0.242454 0.202841 -0.001747 0.0
3.628167 1.062977 -0.000768 0.0
3.446726 0.970063 0.001652 0.0
2.295859 0.450789 -0.006258 0.0
3.868616 1.285380 -0.003177 0.0
3.092081 1.481712 0.004963 0.0
0.422986 0.143104 0.001357 0.0
2.787937 0.561423 -0.003780 0.0
0.780130 0.401579 -0.001561 0.0
3.002719 0.990121 -0.001072 0.0
0.590079 0.341561 0.002324 0.0
3.280768 1.424078 -0.001346 0.0
0.372086 0.467463 0.000146 0.0
1.215811 0.482191 -0.003081 0.0
2.690476 1.452621 -0.000315 0.0
2.235885 1.024098 -0.002264 0.0
4.287072 1.076499 0.003452 0.0
2.642383 0.417317 -0.001878 0.0
0.273618 0.105937 0.001415 0.0
2.624300 1.286502 0.003664 0.0
1.355350 1.143651 0.001818 0.0
1.459209 0.911900 -0.001477 0.0
4.046796 1.147813 0.005177 0.0
3.763097 1.059421 -0.003305 0.0
1.080122 0.068617 0.000327 0.0
1.479320 0.044172 0.000657 0.0
1.116970 0.849067 -0.002013 0.0
0.526543 0.742516 -0.000602 0.0
1.753127 0.359127 0.000469 0.0
2.569396 0.257965 0.001632 0.0
0.298179 1.250149 0.002748 0.0
1.620063 0.746333 0.001089 0.0
1.944983 1.394111 0.001997 0.0
2.041741 0.355554 -0.002323 0.0
2.209805 1.408071 -0.001527 0.0
0.644344 0.422244 -0.000469 0.0
2.422349 1.258798 0.000536 0.0
2.022473 0.724266 0.004006 0.0
2.232471 0.012628 0.001457 0.0
2.215654 0.518950 0.000718 0.0
1.695559 1.146718 -0.000236 0.0
2.061117 1.242985 -0.000058 0.0
0.774144 0.567667 0.003953 0.0
0.060946 0.811463 0.000448 0.0
3.003042 0.003400 0.000588 0.0
0.225665 0.630653 0.003704 0.0
3.850467 0.260806 -0.002801 0.0
0.538650 1.047764 -0.004326 0.0
0.725257 0.048346 -0.000932 0.0
3.790696 0.078594 0.002319 0.0
0.955352 0.809906 -0.001532 0.0
4.189980 0.590211 0.004928 0.0
3.494595 0.126125 0.002818 0.0
1.059764 0.250640 0.001109 0.0
1.863971 1.255605 -0.001369 0.0
1.256955 0.436959 0.002952 0.0
1.267497 0.147034 0.001054 0.0
0.727252 1.487803 0.004332 0.0
3.300319 0.953503 -0.000195 0.0
0.787732 0.841131 -0.001436 0.0
1.177979 0.640155 0.000622 0.0
2.032687 0.218974 -0.001567 0.0
2.035229 1.342996 -0.001249 0.0
4.303942 0.891823 -0.002356 0.0
3.583909 1.335062 -0.000612 0.0
1.304514 1.261040 0.000403 0.0
0.909335 1.022594 -0.000499 0.0
3.681898 0.009819 0.003848 0.0
0.754837 1.262991 -0.000274 0.0
4.106677 1.185695 -0.000444 0.0
1.615955 0.855826 0.003765 0.0
1.773506 0.193073 0.002451 0.0
1.818723 0.052164 -0.002728 0.0
3.411859 1.195069 -0.001680 0.0
3.948714 0.089794 -0.002233 0.0
3.235972 1.220710 -0.001027 0.0
1.772084 1.065874 -0.002328 0.0
1.596448 1.465617 -0.001325 0.0
2.494304 0.071481 -0.000841 0.0
3.803187 0.127200 -0.000330 0.0
0.177740 0.733550 0.001017 0.0
0.956832 0.373540 0.000387 0.0
2.150141 0.125111 -0.000800 0.0
0.228995 1.281243 -0.001151 0.0
1.291243 0.701693 -0.001373 0.0
3.374108 0.804220 -0.004662 0.0
3.261123 1.316764 0.005244 0.0
1.822655 0.555280 0.002157 0.0
2.054642 -0.000513 0.004111 0.0
3.544761 1.031587 -0.000425 0.0
2.716585 0.046887 -0.001845 0.0
2.981434 0.913630 0.003581 0.0
2.351516 1.331914 0.000177 0.0
2.554028 0.317929 -0.003557 0.0
2.147188 1.060491 -0.000040 0.0
1.642684 0.545190 0.000405 0.0
1.284356 0.815622 0.001733 0.0
1.756533 0.648184 0.001160 0.0
1.520968 0.192031 -0.002245 0.0
2.083959 0.738894 -0.001756 0.0
3.714303 0.686047 -0.001200 0.0
3.890225 0.496139 -0.004365 0.0
0.644676 0.858145 0.000833 0.0
0.829055 1.318063 0.003320 0.0
3.341267 0.018451 -0.003477 0.0
3.713938 1.139659 -0.001894 0.0
1.439338 0.448523 0.003201 0.0
0.270944 1.428132 -0.000402 0.0
0.042920 1.217911 -0.000346 0.0
1.371636 0.483576 0.002508 0.0
1.626374 0.989183 -0.003279 0.0
0.071710 0.115781 0.001851 0.0
2.270107 1.524836 -0.004930 0.0
1.812399 1.348526 -0.003179 0.0
3.046612 0.850690 -0.002552 0.0
2.449610 1.029284 0.001168 0.0
3.501699 0.991982 -0.000099 0.0
0.596995 1.099725 -0.002766 0.0
1.313202 0.206054 -0.000979 0.0
2.011760 0.932649 0.000848 0.0
0.402349 0.146585 -0.002651 0.0
4.212215 0.211929 -0.005114 0.0
2.964310 1.281524 0.001143 0.0
0.736037 0.877679 0.001269 0.0
1.822173 0.402467 0.004049 0.0
1.201726 0.313865 -0.002054 0.0
2.097024 0.621709 0.001207 0.0
4.304569 1.481513 0.000954 0.0
4.156554 0.561668 0.005799 0.0
1.559715 0.638471 0.000177 0.0
3.206656 0.897541 0.000408 0.0
3.371034 0.143093 0.000928 0.0
3.033387 0.366398 0.001923 0.0
3.842901 0.606215 -0.004147 0.0
1.043587 0.134694 0.003224 0.0
0.606516 1.321273 0.004777 0.0
1.358794 1.294575 0.002006 0.0
0.396235 0.867589 0.001913 0.0
2.276891 1.127699 -0.000599 0.0
3.454657 1.383153 0.001753 0.0
2.906645 0.157919 0.002952 0.0
1.131098 0.832086 0.003217 0.0
0.415649 0.220196 -0.000627 0.0
0.181102 0.523395 -0.002853 0.0
0.807216 1.228871 -0.003944 0.0
1.584100 0.547603 0.004491 0.0
2.004300 0.744756 -0.002669 0.0
1.188525 0.380047 -0.001262 0.0
2.413687 0.399901 0.003220 0.0
0.035836 0.303634 0.001472 0.0
0.734800 0.450766 0.000694 0.0
0.596989 1.216250 -0.002947 0.0
0.158234 0.212267 -0.002260 0.0
0.820585 1.028396 0.004021 0.0
1.151964 0.209213 0.002378 0.0
3.586516 1.351648 -0.002076 0.0
3.555195 1.527343 0.002721 0.0
1.290213 0.578134 -0.002763 0.0
3.507734 0.102936 0.000038 0.0
2.880317 0.716111 0.001964 0.0
3.164432 0.482618 0.000499 0.0
1.520943 0.439012 0.002890 0.0
3.435729 0.185546 -0.000862 0.0
3.660346 0.210527 0.001829 0.0
2.991308 0.224729 -0.000655 0.0
2.739501 1.454278 0.002596 0.0
3.126987 1.310746 -0.003331 0.0
1.118292 0.525177 -0.003348 0.0
3.472357 0.245420 0.000815 0.0
0.150075 1.343435 0.002781 0.0
1.556927 0.994905 0.001256 0.0
1.684281 1.250190 -0.003209 0.0
3.729896 1.100592 -0.002545 0.0
3.766257 1.147382 -0.000111 0.0
1.570111 0.789043 -0.001428 0.0
4.074779 0.130119 0.001607 0.0
0.467423 0.903452 0.001113 0.0
0.775930 0.397967 -0.003975 0.0
4.341525 0.548655 0.001907 0.0
1.101298 0.746292 0.004120 0.0
2.014204 0.443979 0.000735 0.0
0.616491 0.937751 0.001218 0.0
0.072579 0.862838 -0.002748 0.0
1.857604 1.131728 0.000736 0.0
0.974543 0.737829 0.001313 0.0
3.759621 0.165812 0.007652 0.0
0.197475 0.295347 0.000269 0.0
3.039432 0.768924 -0.002195 0.0
4.153353 0.284180 0.002313 0.0
0.564087 1.531150 -0.002000 0.0
0.791202 0.787081 -0.000018 0.0
3.380044 0.164224 0.001283 0.0
3.660889 0.290484 0.002169 0.0
3.818841 1.464588 -0.000970 0.0
1.371964 0.576119 0.000650 0.0
4.092500 0.493619 -0.005217 0.0
1.506911 1.399049 -0.001252 0.0
2.340869 0.706914 0.002088 0.0
3.863888 1.217033 0.002833 0.0
2.912119 0.093762 -0.000890 0.0
1.648240 1.386250 0.001498 0.0
3.538287 1.073473 -0.000616 0.0
1.957548 0.762386 -0.002542 0.0
4.068470 1.100644 0.003958 0.0
3.088481 0.791080 -0.000152 0.0
0.696543 0.825218 0.002700 0.0
3.829692 1.120191 -0.000678 0.0
3.937457 0.333668 -0.000887 0.0
0.679740 0.240431 -0.000375 0.0
0.074543 1.222131 0.001061 0.0
2.536423 0.091873 -0.001262 0.0
1.612079 1.314139 -0.000556 0.0
1.338078 1.042937 -0.000212 0.0
1.053932 0.827396 -0.000089 0.0
4.197981 1.286217 0.001148 0.0
4.123825 1.363633 0.001739 0.0
1.944669 1.083561 -0.001768 0.0
1.308749 0.193292 0.000238 0.0
1.118288 0.696072 0.005108 0.0
3.893196 0.199750 -0.001972 0.0
2.193421 0.821613 -0.000753 0.0
3.528126 0.660438 0.006592 0.0
1.157439 0.567445 -0.003150 0.0
3.028306 0.972999 0.001380 0.0
3.062948 0.385825 -0.001112 0.0
2.091523 0.412407 0.000850 0.0
0.441476 0.195212 -0.002010 0.0
2.643599 0.145974 -0.003804 0.0
3.322846 0.120026 0.000584 0.0
1.692097 0.372064 0.003479 0.0
1.765244 0.233551 0.001732 0.0
3.000159 0.713206 -0.001024 0.0
1.530600 0.382062 -0.002855 0.0
4.111484 1.185996 -0.003778 0.0
0.546984 0.272981 0.000096 0.0
1.248923 0.965514 -0.000629 0.0
1.087377 0.854197 -0.001675 0.0
1.837062 0.116023 0.005128 0.0
3.820610 1.084172 0.001906 0.0
2.254131 0.866274 0.003443 0.0
1.762047 0.516917 0.001838 0.0
0.612530 0.097298 0.000098 0.0
0.438635 0.126326 0.001867 0.0
1.010525 1.181759 0.000076 0.0
0.443900 0.676021 0.002191 0.0
0.887159 1.134080 0.001559 0.0
3.467398 0.937384 0.001024 0.0
3.439711 0.027989 0.002411 0.0
3.644830 1.508431 -0.000103 0.0
3.065101 1.406952 0.000637 0.0
1.981639 1.287638 -0.001753 0.0
4.346497 0.641067 0.001031 0.0
1.098549 0.174374 -0.000878 0.0
0.130076 0.520771 -0.002140 0.0
0.626392 1.095193 -0.002765 0.0
1.536462 0.221310 -0.001387 0.0
0.971080 0.369798 -0.003061 0.0
0.012824 0.168591 -0.001515 0.0
2.514791 1.013866 -0.002154 0.0
4.224117 0.519335 -0.003207 0.0
3.947927 1.153489 -0.001740 0.0
0.173002 1.303085 -0.002966 0.0
1.510961 0.264136 -0.002710 0.0
3.677683 0.902582 0.000887 0.0
0.876949 0.965117 0.001242 0.0
3.201844 1.497055 -0.000349 0.0
3.722809 0.184794 -0.001554 0.0
3.012273 0.837261 -0.001530 0.0
1.194673 0.054775 0.000417 0.0
2.217717 1.047558 0.001764 0.0
3.213701 0.802987 -0.001553 0.0
2.330373 1.489714 0.002024 0.0
2.885771 0.134220 0.000119 0.0
0.638137 0.854033 0.000180 0.0
1.562497 0.787458 0.001426 0.0
1.131756 0.306578 -0.004629 0.0
4.078014 0.148699 0.000288 0.0
0.775180 0.909319 0.000554 0.0
1.598320 0.286074 -0.004288 0.0
3.962698 0.307963 0.001199 0.0
1.948589 1.335981 0.000339 0.0
4.009350 0.609026 0.003966 0.0
0.202935 1.294663 0.000802 0.0
0.779328 1.369578 0.002370 0.0
3.307940 0.669518 -0.000293 0.0
2.061537 1.307652 0.000161 0.0
3.243711 1.331693 -0.002759 0.0
3.391913 1.227258 -0.002679 0.0
1.440494 0.087528 -0.003125 0.0
1.526700 1.046805 -0.003228 0.0
4.069111 0.534235 0.003381 0.0
0.175638 1.489868 0.000191 0.0
4.213593 0.778379 -0.002735 0.0
1.764439 1.301574 0.001104 0.0
2.196673 1.188960 0.002527 0.0
2.623428 1.390665 0.001389 0.0
0.515390 0.695398 -0.002116 0.0
0.908979 0.704162 0.002730 0.0
1.952737 0.991360 -0.003910 0.0
1.946710 1.327078 0.001553 0.0
1.168052 1.366799 0.000681 0.0
0.312992 0.277704 -0.003214 0.0
3.759319 0.912426 -0.005182 0.0
0.014393 0.726451 0.001230 0.0
4.214468 0.011192 -0.002268 0.0
3.209739 0.930886 -0.003044 0.0
0.927251 0.080414 0.002977 0.0
1.600518 1.461510 0.000022 0.0
4.136169 0.807749 0.001755 0.0
1.962751 0.862700 0.002124 0.0
2.513728 0.871764 -0.001162 0.0
3.033167 1.173012 -0.001679 0.0
4.309561 1.149587 0.001307 0.0
2.892649 0.415048 -0.000743 0.0
2.820035 0.941840 0.000544 0.0
1.467137 1.389557 0.001041 0.0
2.081562 1.264912 -0.001587 0.0
4.213118 0.857911 0.000179 0.0
2.649043 1.130853 -0.001599 0.0
0.005496 1.520464 -0.003971 0.0
2.757922 1.143813 0.000809 0.0
1.202599 0.190742 0.000695 0.0
1.279381 0.729786 -0.001136 0.0
0.255414 1.371024 -0.001170 0.0
3.560217 0.717194 0.001746 0.0
1.315613 0.358227 -0.002087 0.0
1.124411 0.266015 -0.000032 0.0
4.349891 0.115412 0.003854 0.0
