4.055037 1.124693 -0.000267 0.0
0.725538 0.017670 -0.001966 0.0
1.793389 1.755557 0.000446 0.0
1.041648 1.435375 0.002642 0.0
3.397115 1.046886 -0.000104 0.0
4.216618 1.266602 -0.002898 0.0
1.685061 1.686845 0.003362 0.0
2.598397 1.308593 0.000145 0.0
3.295712 0.771599 -0.001138 0.0
0.879806 0.264088 0.000137 0.0
1.774531 0.185769 0.001136 0.0
0.221167 0.623386 0.005764 0.0
2.599837 0.422297 -0.003223 0.0
3.419000 1.756476 0.000603 0.0
3.097364 1.698798 -0.003912 0.0
2.773688 0.386634 0.000046 0.0
3.782384 1.541435 -0.000726 0.0
4.045712 0.859338 0.001076 0.0
3.106597 0.753212 0.001012 0.0
2.108588 0.775283 0.003105 0.0
4.037612 0.586353 0.002420 0.0
4.036787 1.706091 -0.001890 0.0
0.660714 0.464183 -0.003456 0.0
2.828482 1.433723 -0.001420 0.0
2.189946 1.033706 -0.002007 0.0
3.553900 0.779844 -0.000092 0.0
2.783443 1.370355 0.000423 0.0
1.577847 0.225517 0.000561 0.0
3.101360 1.824282 -0.001364 0.0
3.465951 1.015478 0.002583 0.0
2.679256 0.581913 -0.003854 0.0
0.449855 0.470102 0.004496 0.0
3.839184 0.052120 -0.000109 0.0
1.805059 1.882600 -0.002591 0.0
2.821448 1.810713 0.003823 0.0
2.504418 1.514348 -0.000086 0.0
0.303225 0.554521 0.000430 0.0
1.896841 0.047043 0.004875 0.0
2.533992 0.072309 0.004789 0.0
1.599529 0.334663 -0.002867 0.0
1.906534 0.261251 -0.000954 0.0
0.163582 0.947107 -0.000127 0.0
1.767836 1.327588 -0.000644 0.0
4.054171 1.510396 -0.002922 0.0
0.693412 0.999379 -0.003156 0.0
3.213929 0.965768 -0.002958 0.0
0.813517 0.199613 -0.001023 0.0
3.024526 0.441745 -0.005236 0.0
3.395085 0.936635 0.000755 0.0
0.494051 1.019235 0.003706 0.0
2.724622 1.819832 0.000485 0.0
3.815027 1.145723 0.007202 0.0
2.846062 1.818056 -0.005270 0.0
1.256573 1.321835 0.000524 0.0
3.254713 0.128613 0.000585 0.0
0.331048 1.704318 0.001121 0.0
0.315244 1.195854 -0.000342 0.0
1.847032 0.631257 0.004944 0.0
3.205582 1.817077 -0.000692 0.0
3.355844 0.678396 -0.001281 0.0
2.941593 1.753912 0.000550 0.0
0.483480 1.895912 -0.000576 0.0
3.006411 1.390474 0.002196 0.0
2.853573 0.445786 0.000956 0.0
2.702265 1.135334 -0.003427 0.0
2.642195 0.381407 0.001599 0.0
0.844090 1.070294 -0.004524 0.0
0.628456 0.589409 -0.000300 0.0
2.367778 1.391176 -0.003409 0.0
0.374037 0.192974 0.002661 0.0
3.636764 1.484141 0.003894 0.0
1.582899 0.865930 0.002596 0.0
0.257744 0.245863 -0.001755 0.0
0.508453 0.587767 0.001450 0.0
3.322415 1.021673 0.004594 0.0
1.378890 1.061495 0.001273 0.0
2.876431 1.633240 -0.001537 0.0
2.251406 0.630006 -0.000700 0.0
3.055717 0.204112 -0.004022 0.0
2.151220 1.738929 0.002474 0.0
3.269664 0.702785 -0.000729 0.0
4.102813 0.140646 -0.000502 0.0
3.199052 1.689388 0.000050 0.0
3.427852 1.314432 -0.001684 0.0
4.201112 0.378452 0.003821 0.0
0.945613 1.323319 0.002198 0.0
3.664454 0.749062 0.005179 0.0
1.658961 0.297348 0.000983 0.0
3.955982 1.566615 0.000016 0.0
3.945570 1.364210 0.002555 0.0
0.629980 0.504073 -0.000952 0.0
3.061023 0.526427 0.001388 0.0
1.612824 1.511605 -0.001963 0.0
2.525309 0.625597 -0.001506 0.0
2.528686 0.362357 0.001006 0.0
2.703439 1.082043 0.000430 0.0
2.067519 1.208715 0.000490 0.0
0.669206 0.978875 -0.001139 0.0
0.554295 1.117452 -0.000760 0.0
1.050811 0.901655 0.001859 0.0
1.400649 1.148129 0.001292 0.0
3.548575 0.765266 0.004186 0.0
3.653027 0.871954 -0.003169 0.0
0.747966 1.384155 0.002770 0.0
2.302620 1.537930 0.002767 0.0
1.487734 0.490810 -0.000156 0.0
2.686421 0.447933 0.001876 0.0
1.318073 0.485794 0.005676 0.0
0.594092 0.095263 -0.000868 0.0
3.547717 0.403444 -0.002659 0.0
1.640207 0.779251 0.006471 0.0
3.171228 0.295226 -0.000737 0.0
0.820595 1.650947 -0.002348 0.0
1.745256 0.989712 0.001440 0.0
3.129827 0.916243 -0.000734 0.0
3.101451 0.675152 0.000995 0.0
0.454032 0.281074 -0.001339 0.0
2.838877 1.216813 -0.000778 0.0
1.068216 0.450021 0.002086 0.0
0.833770 0.940091 0.002141 0.0
2.364980 0.564590 0.000395 0.0
2.191265 0.294559 -0.000415 0.0
0.725207 0.019840 0.002658 0.0
1.266450 0.639432 -0.002566 0.0
2.543371 1.448918 0.001386 0.0
3.659165 1.360360 -0.001084 0.0
0.106877 0.253593 0.001494 0.0
3.614138 1.141331 -0.001594 0.0
0.447119 1.233735 0.001396 0.0
2.385415 0.498623 -0.002908 0.0
3.575227 1.005451 0.000468 0.0
0.241497 1.277875 0.004000 0.0
3.594583 0.826269 -0.001697 0.0
1.937144 0.057551 -0.000865 0.0
0.857932 1.506530 0.000372 0.0
2.722111 1.048122 0.000757 0.0
3.326655 1.246622 0.001909 0.0
1.517920 0.543516 -0.002331 0.0
4.199725 1.009906 0.003825 0.0
0.188376 0.016811 -0.001975 0.0
1.260867 0.310872 0.000508 0.0
0.632496 0.171779 -0.001137 0.0
3.667785 0.412838 -0.001612 0.0
1.442954 1.879465 0.000390 0.0
0.275652 0.762185 0.001391 0.0
0.666777 0.014155 -0.004735 0.0
3.386281 1.606310 0.000908 0.0
3.453648 1.892204 -0.001469 0.0
1.621618 0.218586 0.000326 0.0
1.136727 0.912340 0.002957 0.0
2.450151 0.945301 -0.000162 0.0
1.388665 0.185771 0.002543 0.0
0.245997 0.423950 -0.000840 0.0
1.329552 1.094256 0.003138 0.0
2.296788 1.575966 -0.004023 0.0
0.971370 0.283314 -0.001228 0.0
0.574308 1.422133 0.001100 0.0
1.454215 1.489077 0.004109 0.0
2.800847 1.142102 -0.001936 0.0
3.749249 0.142199 0.003590 0.0
2.857821 1.111080 0.003370 0.0
1.296045 -0.000155 -0.003782 0.0
2.817378 0.461377 -0.001093 0.0
1.349151 0.158575 0.000980 0.0
0.917727 1.672110 -0.000545 0.0
4.220988 0.339415 0.000015 0.0
1.908621 1.599125 -0.001389 0.0
4.165009 0.871994 -0.004701 0.0
1.852799 1.057666 -0.003284 0.0
1.047829 1.535509 -0.000639 0.0
1.162705 1.630592 -0.003846 0.0
1.527755 1.336891 -0.001694 0.0
3.351303 1.211079 -0.001997 0.0
0.006671 1.754990 0.000059 0.0
0.332873 0.236422 0.001744 0.0
1.766725 1.447493 0.000505 0.0
0.696231 1.323909 0.001652 0.0
1.485883 1.108065 -0.007491 0.0
0.687688 0.691412 0.004146 0.0
1.537265 1.847251 0.001651 0.0
0.473762 1.254035 0.003999 0.0
0.931474 0.140359 -0.001503 0.0
0.496311 1.785514 0.001303 0.0
0.757770 0.825064 0.001341 0.0
2.328448 0.479955 0.001183 0.0
1.202386 1.285427 0.004609 0.0
2.322998 0.239424 0.001940 0.0
3.502373 0.296576 -0.000041 0.0
2.877778 1.324251 0.002691 0.0
0.902318 0.553988 0.000169 0.0
3.868481 1.727110 -0.001110 0.0
2.636011 1.228573 0.001138 0.0
3.078518 1.077267 -0.002829 0.0
1.548668 1.663996 -0.003862 0.0
2.060245 1.420332 -0.002456 0.0
3.522303 1.886434 0.001794 0.0
1.782652 1.233354 -0.001101 0.0
1.234747 0.317647 0.000968 0.0
3.000560 0.040560 -0.000004 0.0
3.455530 0.115633 0.000169 0.0
3.328374 0.990635 -0.001587 0.0
3.566640 1.172679 0.001500 0.0
0.959331 0.958815 -0.000966 0.0
2.123280 0.747047 0.000766 0.0
2.822186 1.237819 -0.000580 0.0
1.998729 0.120542 -0.001517 0.0
2.757332 0.428545 0.000949 0.0
1.845378 1.146126 -0.001726 0.0
2.359025 0.679676 -0.000438 0.0
3.313822 1.475394 -0.000221 0.0
2.641669 1.218586 -0.000657 0.0
1.430486 0.403749 0.001589 0.0
0.286829 0.036930 -0.000430 0.0
1.572420 0.662287 0.000856 0.0
0.976231 1.519228 0.000069 0.0
3.312749 0.738483 0.002775 0.0
2.531151 1.758619 -0.000632 0.0
0.045442 0.674044 0.001030 0.0
1.857959 1.830332 -0.003273 0.0
4.211633 0.729393 -0.003978 0.0
2.047686 0.041565 0.000009 0.0
2.185573 1.615324 0.001976 0.0
3.181013 1.233129 -0.002321 0.0
2.467834 0.689428 -0.004362 0.0
1.277738 1.873903 0.000503 0.0
3.827862 1.169610 -0.002833 0.0
0.910921 1.131849 -0.003331 0.0
3.490143 0.757013 0.003060 0.0
3.530167 1.809712 -0.000506 0.0
2.821968 1.680489 0.001063 0.0
1.724209 1.348756 -0.001492 0.0
2.017743 1.017543 -0.000932 0.0
1.720481 1.218176 0.000924 0.0
0.867907 1.660382 -0.002430 0.0
1.510856 1.874139 -0.000989 0.0
1.958038 0.771571 0.001601 0.0
0.301916 0.623993 -0.003149 0.0
2.187733 1.838361 0.001794 0.0
0.660464 0.951507 -0.002079 0.0
3.213748 0.600051 0.002968 0.0
2.640107 0.619866 0.001236 0.0
0.029129 0.089237 -0.000734 0.0
4.033231 0.697624 -0.000322 0.0
0.594252 0.289716 0.000529 0.0
0.598320 1.740594 0.002948 0.0
0.864654 0.200925 -0.003726 0.0
4.142669 1.273880 -0.003927 0.0
2.382828 1.371548 -0.004283 0.0
3.006094 0.287413 -0.002521 0.0
2.026851 0.737153 -0.001734 0.0
1.437454 0.098644 -0.000572 0.0
0.895174 0.598882 -0.000327 0.0
2.163485 1.120379 0.000707 0.0
4.073900 0.954023 0.000914 0.0
3.463108 0.463935 -0.001562 0.0
2.173820 0.634954 0.004063 0.0
1.713016 0.877042 0.002266 0.0
1.723778 0.264221 0.006560 0.0
3.255133 0.652518 0.009065 0.0
0.054609 1.223058 0.001957 0.0
0.375073 1.641542 -0.004844 0.0
2.584677 0.417305 0.003348 0.0
1.188270 0.992377 -0.000202 0.0
3.848529 0.614129 -0.004928 0.0
2.607231 0.213032 -0.001579 0.0
3.157828 1.261778 0.000692 0.0
3.875152 0.533837 -0.000276 0.0
0.667878 0.081288 0.001354 0.0
2.999075 0.791742 0.002747 0.0
0.243496 1.635436 0.000624 0.0
0.680341 1.791051 -0.001419 0.0
1.291239 0.971136 0.002515 0.0
1.482186 1.764913 0.000246 0.0
0.998024 0.715257 0.003116 0.0
0.785443 1.161952 -0.003844 0.0
3.689331 0.328037 0.002976 0.0
3.845835 1.273653 0.004027 0.0
0.627877 0.810976 -0.004730 0.0
1.751830 0.120340 -0.004711 0.0
0.955871 1.430087 0.000594 0.0
0.621711 0.792280 -0.000071 0.0
0.258089 0.244906 -0.002078 0.0
0.202796 1.459498 -0.003202 0.0
2.907283 0.039375 0.001672 0.0
0.127924 1.125238 -0.001362 0.0
3.501898 0.239604 0.001596 0.0
2.162062 1.455769 -0.001845 0.0
1.129821 0.816601 -0.003004 0.0
2.025949 0.419647 0.000995 0.0
3.536352 0.428601 0.003617 0.0
1.902657 1.697596 -0.001291 0.0
1.553501 0.007228 -0.000623 0.0
1.890057 1.554421 0.000694 0.0
4.165194 0.410957 0.001494 0.0
1.250432 1.104356 0.000309 0.0
1.770617 0.387830 0.000837 0.0
2.672228 1.186398 0.001515 0.0
3.623343 0.372677 -0.001623 0.0
1.511842 1.633016 0.001828 0.0
3.435275 0.374022 0.002604 0.0
1.673345 0.649237 0.002084 0.0
0.549646 0.489610 0.001545 0.0
4.072150 0.612500 0.002993 0.0
3.550327 0.352687 0.003143 0.0
1.991958 1.528950 0.001420 0.0
2.288134 0.447610 0.001699 0.0
3.201311 1.596597 0.001786 0.0
3.410797 0.316971 -0.000563 0.0
3.729722 0.026617 0.002352 0.0
1.240605 1.765909 0.000093 0.0
0.235015 1.405376 0.005458 0.0
2.250776 0.129738 0.000647 0.0
2.931049 1.843288 0.000418 0.0
0.733465 0.364054 -0.000992 0.0
2.342170 1.833063 -0.000394 0.0
2.170940 1.433134 0.005279 0.0
1.483767 0.604363 -0.001796 0.0
3.657743 1.111257 -0.001979 0.0
2.636945 1.163992 0.002058 0.0
4.167829 1.485689 0.002111 0.0
3.229486 0.035436 0.004717 0.0
2.118029 0.826968 0.001125 0.0
3.237422 0.444849 0.001211 0.0
3.242143 0.638600 0.001541 0.0
0.419878 0.712354 0.002997 0.0
3.965408 1.575544 0.001008 0.0
0.078301 0.820265 0.005456 0.0
0.336740 0.533437 0.000298 0.0
0.791213 0.230118 -0.000434 0.0
3.477918 0.710550 -0.000458 0.0
2.811715 1.831474 0.002756 0.0
3.227908 1.789999 0.002891 0.0
1.976607 1.099316 -0.000386 0.0
2.082968 1.809887 -0.001155 0.0
1.715573 1.606777 0.002740 0.0
4.169207 1.593585 -0.002790 0.0
3.821654 1.541966 0.000243 0.0
3.157824 0.859332 0.003323 0.0
3.886615 1.860751 0.001477 0.0
2.523040 1.026758 -0.000239 0.0
1.182389 1.478635 -0.000758 0.0
3.478861 1.172286 -0.004472 0.0
1.370005 0.459106 0.001819 0.0
4.184024 1.298618 0.003589 0.0
1.450281 1.124737 0.003614 0.0
2.934142 0.990183 0.003103 0.0
0.375094 1.206850 0.000768 0.0
0.312653 0.748967 0.003163 0.0
3.268000 0.821666 -0.000982 0.0
3.884765 0.723007 -0.001016 0.0
0.377716 0.488059 0.000688 0.0
2.715343 0.218450 0.001655 0.0
0.531545 1.683737 -0.006375 0.0
1.092372 1.585470 -0.001480 0.0
1.730051 1.517820 0.000062 0.0
0.348921 0.872521 0.002916 0.0
2.852213 1.064834 -0.001377 0.0
1.863645 1.697975 0.001831 0.0
0.261242 1.639954 -0.000588 0.0
3.417640 0.445324 -0.004123 0.0
0.397931 1.893634 -0.000091 0.0
2.944258 1.881915 0.002824 0.0
1.108608 0.623530 0.002285 0.0
1.580092 1.128900 -0.000111 0.0
2.067391 0.321055 0.001815 0.0
3.565604 1.861322 0.001022 0.0
0.557257 1.263749 0.004213 0.0
2.382636 0.620823 0.001675 0.0
0.852411 1.255841 0.004540 0.0
3.248640 0.070070 0.001076 0.0
1.870291 0.880845 0.000120 0.0
1.504536 0.009784 -0.002411 0.0
3.922112 0.384428 -0.001197 0.0
2.606608 0.503678 -0.000165 0.0
2.299075 0.285283 -0.000605 0.0
3.411191 0.595225 -0.004104 0.0
4.212377 0.191250 -0.004747 0.0
1.156524 1.254250 0.002982 0.0
2.072468 0.454748 0.000746 0.0
1.835652 0.065548 0.004494 0.0
1.168186 1.065789 0.004191 0.0
3.528357 0.848990 0.001118 0.0
3.936809 1.379334 -0.002966 0.0
4.116068 0.745027 0.000396 0.0
3.329203 0.648348 0.000577 0.0
0.376515 1.164997 0.002178 0.0
3.934343 1.657725 -0.000037 0.0
4.047144 0.039699 0.000557 0.0
0.420525 1.788261 -0.000477 0.0
3.175225 0.252122 0.000745 0.0
0.201387 0.627236 0.001615 0.0
3.721675 0.755137 -0.004996 0.0
2.607339 1.895675 0.001114 0.0
1.734614 1.480103 0.001551 0.0
2.007527 1.248781 0.001767 0.0
2.819872 1.657359 0.000289 0.0
4.109597 1.058249 0.001236 0.0
1.001602 1.279607 0.002519 0.0
1.850853 1.359941 -0.001433 0.0
1.936027 0.609078 0.004170 0.0
3.895207 0.023562 -0.000708 0.0
3.400505 1.047133 -0.001220 0.0
1.705987 1.507008 -0.000381 0.0
0.442503 0.358385 0.002725 0.0
3.852745 0.733629 -0.000768 0.0
3.847873 1.000659 -0.002503 0.0
0.947770 1.644392 0.000155 0.0
0.416943 1.658849 -0.001139 0.0
2.715003 0.272041 -0.000505 0.0
3.272976 0.076209 -0.000891 0.0
3.528661 0.521861 -0.002996 0.0
1.690202 0.470073 0.000957 0.0
2.008234 0.874788 0.001202 0.0
1.545567 0.287326 -0.002507 0.0
3.304004 0.101747 -0.004210 0.0
2.415440 0.194124 -0.000259 0.0
0.343202 0.669065 -0.001145 0.0
1.719278 1.861555 0.001939 0.0
1.817970 1.421332 -0.003586 0.0
3.120560 1.598170 0.002529 0.0
1.226359 0.546273 0.004273 0.0
3.470589 1.587022 -0.003787 0.0
1.578450 1.133109 -0.002042 0.0
0.778693 0.429856 0.002725 0.0
3.584304 0.478069 0.001720 0.0
3.956221 1.734058 -0.001793 0.0
3.587127 1.179512 0.001686 0.0
1.808295 0.738225 -0.002682 0.0
4.114998 0.436617 0.000288 0.0
2.957761 0.304294 -0.003283 0.0
3.388251 0.565460 0.002348 0.0
3.491481 1.056160 -0.001429 0.0
4.089811 1.468199 -0.001605 0.0
3.687550 1.271137 -0.000440 0.0
4.125312 1.342248 -0.003048 0.0
1.155655 1.422728 -0.000049 0.0
2.919833 0.845675 0.001158 0.0
0.202608 0.702558 -0.002448 0.0
1.644106 0.305554 -0.004145 0.0
4.218559 0.626599 -0.001574 0.0
4.216022 0.762671 0.002570 0.0
4.126444 0.035943 -0.001530 0.0
1.150129 1.699214 -0.001579 0.0
0.994381 0.944721 0.003139 0.0
0.006559 0.295186 0.000534 0.0
1.264867 0.873192 -0.001094 0.0
3.072848 0.979837 -0.000035 0.0
3.266599 0.354704 -0.002695 0.0
1.755428 1.871808 -0.001574 0.0
1.559909 1.116232 0.004804 0.0
1.715778 1.735437 -0.002333 0.0
2.880104 0.809814 -0.001832 0.0
3.938092 1.107153 0.001062 0.0
2.852553 0.580721 -0.007033 0.0
1.494680 1.035884 0.004856 0.0
0.493402 1.010387 -0.004078 0.0
2.922338 0.012176 0.000268 0.0
2.895379 0.192021 0.003573 0.0
4.187426 0.263985 0.000687 0.0
0.241154 0.437368 -0.000391 0.0
3.808033 1.036751 0.000634 0.0
3.381302 1.840561 -0.003762 0.0
0.335687 0.778841 -0.003600 0.0
2.934827 0.767464 -0.002002 0.0
1.273938 1.901680 -0.000911 0.0
3.504860 1.153817 0.002880 0.0
1.522088 1.071761 -0.002445 0.0
2.549983 1.481428 0.001263 0.0
2.342014 0.543124 0.001437 0.0
1.677369 0.943706 -0.002624 0.0
3.023459 0.658287 0.001353 0.0
2.764057 0.401058 -0.004572 0.0
0.768627 1.692885 -0.000151 0.0
0.642142 0.471400 0.002286 0.0
3.260557 1.006480 -0.000495 0.0
2.319621 0.073987 -0.003477 0.0
0.947788 0.517386 0.002219 0.0
4.174743 0.559191 -0.000869 0.0
3.400555 0.935833 0.000671 0.0
3.492836 1.580182 -0.000533 0.0
2.655368 1.227982 0.000468 0.0
2.118642 -0.001306 0.005026 0.0
1.708056 1.272471 0.000180 0.0
2.716281 1.541860 0.002386 0.0
4.024459 0.452620 -0.000347 0.0
1.882747 0.624650 0.002702 0.0
2.459709 0.271926 -0.001641 0.0
2.699716 1.669940 0.004052 0.0
0.870418 1.548160 0.002770 0.0
1.039577 0.816423 0.003608 0.0
2.028812 0.821630 0.000546 0.0
4.139286 1.039315 -0.002063 0.0
0.652003 0.464456 -0.005376 0.0
1.802519 0.452958 -0.000445 0.0
0.430839 0.008758 0.004861 0.0
1.857652 0.592243 0.001789 0.0
4.126249 1.613701 0.002109 0.0
2.145178 1.107958 0.003928 0.0
2.735258 1.566108 0.001419 0.0
2.969943 1.824793 0.000418 0.0
3.450635 1.038486 0.002669 0.0
1.893969 0.690951 -0.000282 0.0
2.111087 0.987319 -0.000165 0.0
3.384857 0.843494 0.002997 0.0
0.736212 0.948810 0.000452 0.0
0.101440 1.119059 0.004329 0.0
1.379848 0.870681 0.000250 0.0
1.859387 1.396827 -0.000666 0.0
1.202827 1.416170 -0.000455 0.0
0.717953 1.422066 0.000527 0.0
4.131566 0.308882 0.003425 0.0
3.341989 0.181958 -0.002982 0.0
2.197766 1.802777 -0.000140 0.0
2.259475 0.540147 0.000819 0.0
3.712449 1.259503 -0.000538 0.0
4.009792 0.685916 -0.002129 0.0
0.922872 1.723738 0.001229 0.0
0.419858 1.753394 0.000240 0.0
1.765815 1.483636 -0.001308 0.0
2.550617 0.362900 0.003216 0.0
2.541046 0.095099 -0.003313 0.0
1.939906 1.431790 -0.005427 0.0
1.820198 1.130946 -0.001142 0.0
0.651210 0.205616 -0.002463 0.0
3.416640 1.148928 -0.000937 0.0
2.424160 1.274854 0.001566 0.0
0.424705 0.179413 0.000965 0.0
4.066329 1.851694 0.001583 0.0
1.628620 0.001964 0.004580 0.0
2.293442 1.887475 0.001449 0.0
1.007665 1.853359 0.004598 0.0
1.365821 1.405911 0.001952 0.0
0.120727 1.062398 0.007116 0.0
0.290481 0.308931 -0.001601 0.0
3.346682 1.853573 -0.001259 0.0
2.424839 1.438608 0.001733 0.0
2.689232 1.074708 -0.001207 0.0
1.978553 0.453130 -0.000365 0.0
0.807148 1.117314 0.001287 0.0
2.746101 1.354302 0.001393 0.0
3.877243 0.559639 0.004160 0.0
1.055337 0.448676 0.000610 0.0
1.563935 0.990833 0.000193 0.0
2.313496 1.431358 0.004328 0.0
0.510820 0.271240 -0.002905 0.0
0.571244 1.136399 0.001985 0.0
3.280009 0.160376 -0.001118 0.0
1.735518 1.503090 -0.002016 0.0
1.721469 1.852541 -0.003442 0.0
2.818756 1.840149 0.000682 0.0
4.150175 1.850167 0.000026 0.0
0.445012 1.511849 -0.003518 0.0
0.615263 0.379056 -0.000527 0.0
2.029472 1.282803 -0.003786 0.0
2.489936 1.457177 -0.002561 0.0
2.024523 0.030287 -0.000691 0.0
0.343166 0.097758 0.001906 0.0
3.522507 1.639211 -0.003175 0.0
0.666218 1.704312 0.002416 0.0
1.923489 0.918491 -0.005411 0.0
1.683326 1.084467 -0.001408 0.0
2.226950 1.505773 -0.003084 0.0
0.911440 0.073949 -0.001217 0.0
0.008080 1.227484 -0.000678 0.0
2.471887 0.574187 -0.001361 0.0
3.207087 0.754181 -0.003471 0.0
2.974973 0.584227 -0.000768 0.0
0.900691 0.242225 -0.000235 0.0
1.891647 0.718930 0.002433 0.0
0.901496 0.275123 0.000608 0.0
0.371535 1.627414 0.001149 0.0
3.162697 0.498851 0.000846 0.0
2.689794 1.695989 0.001320 0.0
1.156721 0.744335 0.000533 0.0
0.376508 1.373722 -0.003356 0.0
4.105327 0.579542 0.002926 0.0
0.074594 0.151294 -0.001200 0.0
3.377016 1.227637 -0.004010 0.0
1.274222 1.188571 0.000493 0.0
3.586122 0.831261 -0.001534 0.0
2.231777 1.757994 -0.000066 0.0
0.853742 1.239319 -0.001706 0.0
1.251080 0.009377 0.000761 0.0
1.608485 1.049765 0.002888 0.0
1.867905 1.186766 0.000039 0.0
2.763311 0.471754 0.002793 0.0
2.087624 1.210388 -0.001530 0.0
2.513597 1.324636 0.004888 0.0
2.256697 1.569530 -0.002506 0.0
2.306170 0.050050 0.000205 0.0
0.929588 0.156533 -0.001424 0.0
2.530764 1.238644 0.004049 0.0
0.413676 0.426688 0.000194 0.0
3.001180 0.943679 -0.001025 0.0
0.219192 0.650677 0.002112 0.0
2.358843 0.623438 0.000393 0.0
4.139993 1.358620 -0.004584 0.0
0.951420 0.536998 0.001748 0.0
0.805869 1.086654 -0.004548 0.0
4.224773 1.331941 -0.001579 0.0
1.149435 1.357764 -0.000337 0.0
0.654748 1.367128 -0.002924 0.0
2.346807 0.654188 -0.000472 0.0
0.363100 1.617001 0.000068 0.0
3.588765 1.745123 -0.000785 0.0
1.945842 0.022977 -0.001437 0.0
3.777259 0.678262 0.001820 0.0
2.035654 1.605791 0.001756 0.0
4.191251 1.727712 0.000997 0.0
0.807090 0.569502 -0.001630 0.0
3.370300 1.896674 -0.002785 0.0
2.814124 1.687354 0.002511 0.0
2.402631 0.156470 0.003583 0.0
0.278982 1.000781 0.003197 0.0
2.105518 0.405479 -0.001696 0.0
0.438191 0.817349 0.002936 0.0
2.048455 1.114419 0.001266 0.0
3.289796 1.059618 0.001752 0.0
3.118059 1.131603 0.001351 0.0
0.368647 0.853347 0.001550 0.0
4.208571 0.863767 0.000655 0.0
0.556904 0.022283 -0.000368 0.0
2.327966 1.424184 0.000099 0.0
3.745358 1.719777 0.004293 0.0
0.572045 0.760706 0.001460 0.0
1.792789 1.047078 0.001342 0.0
3.140949 1.265383 0.001730 0.0
2.820114 0.811867 0.000710 0.0
0.580853 0.804482 0.001205 0.0
4.234243 1.831784 -0.000089 0.0
2.035855 0.360339 -0.001762 0.0
0.393711 0.932032 0.003555 0.0
1.483195 1.499866 -0.001474 0.0
3.262113 0.655041 -0.005439 0.0
3.216845 1.062078 -0.004075 0.0
3.085426 0.619366 -0.001563 0.0
0.204573 0.749998 0.002312 0.0
2.611177 0.825909 -0.003895 0.0
2.835607 0.706115 0.002684 0.0
2.249153 1.709767 0.001580 0.0
1.887778 0.034006 0.003288 0.0
0.369209 1.390503 -0.000963 0.0
1.432455 1.365039 0.000213 0.0
1.631161 0.178262 0.001381 0.0
0.700731 1.155262 0.002974 0.0
1.440235 0.727521 -0.000298 0.0
0.007725 0.751675 -0.004883 0.0
3.726519 1.187478 0.005208 0.0
0.933290 1.739252 0.001556 0.0
3.427031 0.378341 -0.001767 0.0
1.717073 1.189043 -0.001797 0.0
2.106307 1.026159 -0.003300 0.0
1.620345 1.217897 -0.001688 0.0
1.853657 0.288833 0.002799 0.0
1.235191 0.920343 -0.003328 0.0
2.886278 0.037767 0.002491 0.0
3.934548 0.468299 0.002243 0.0
3.123986 0.540432 0.000083 0.0
1.717169 0.618323 0.002241 0.0
3.834634 1.814864 -0.005454 0.0
3.357473 0.518867 0.004703 0.0
0.309604 1.068703 -0.003377 0.0
4.010923 0.804545 -0.002518 0.0
1.665998 0.283070 0.002076 0.0
0.269340 0.156193 -0.004158 0.0
3.756694 0.705231 -0.001855 0.0
0.057418 1.475349 0.003290 0.0
3.126287 1.242904 -0.003869 0.0
2.078512 0.214382 -0.000847 0.0
3.309521 1.006144 0.002741 0.0
2.629918 1.337192 -0.000521 0.0
2.754538 0.113665 0.004276 0.0
1.317131 0.241895 -0.001013 0.0
3.848359 0.812038 -0.000305 0.0
3.904374 0.596197 0.003064 0.0
0.936790 1.001687 0.000875 0.0
3.636089 0.506479 0.002023 0.0
3.635002 0.964750 -0.000845 0.0
0.836698 0.580026 -0.000103 0.0
3.698538 0.569143 0.002337 0.0
4.083450 0.306539 0.001212 0.0
2.183960 0.587138 -0.000118 0.0
1.098510 0.055270 -0.001382 0.0
2.071638 0.678583 -0.001655 0.0
2.344526 0.906389 -0.004864 0.0
2.001845 0.550698 0.003175 0.0
0.498144 1.567029 -0.001628 0.0
0.825228 1.100367 -0.002493 0.0
1.693025 1.169542 -0.000151 0.0
1.835369 1.713918 -0.001578 0.0
2.234262 0.476268 0.000108 0.0
1.951425 0.086679 -0.002814 0.0
0.441072 1.755597 -0.002246 0.0
2.133565 0.267444 -0.000912 0.0
2.525111 1.027879 -0.000431 0.0
3.878150 1.250793 -0.000726 0.0
0.615193 1.815787 0.002414 0.0
4.022519 1.276866 -0.001079 0.0
3.473811 0.772271 0.001630 0.0
3.402954 1.338189 0.001182 0.0
2.020833 1.881682 0.004398 0.0
1.548351 0.900929 -0.000467 0.0
1.090101 1.663735 0.001907 0.0
2.813742 0.712470 0.001195 0.0
4.226845 0.687230 0.001275 0.0
0.067209 1.757792 0.001326 0.0
2.267754 0.603270 0.001263 0.0
0.459370 1.487672 -0.000858 0.0
1.727692 1.095406 -0.003043 0.0
2.386924 1.124499 0.001740 0.0
1.738874 0.910906 -0.001925 0.0
0.464254 0.936249 0.004062 0.0
2.506553 1.279484 0.000317 0.0
2.186834 0.664174 0.001380 0.0
1.523364 1.616740 -0.003246 0.0
1.507440 0.295381 -0.000915 0.0
2.549693 0.592880 -0.003895 0.0
4.237490 1.879685 -0.000352 0.0
3.464743 1.435396 0.000280 0.0
0.332566 1.864061 -0.000054 0.0
0.812317 1.772973 0.000301 0.0
3.078780 0.464747 -0.000372 0.0
1.985881 0.482280 0.000041 0.0
1.758447 0.608581 -0.002120 0.0
4.171671 0.726483 0.004573 0.0
0.711786 0.454995 -0.001386 0.0
3.878478 0.187625 0.000796 0.0
4.050894 1.674017 -0.000277 0.0
0.635952 1.118050 -0.000379 0.0
2.703419 0.829435 0.007985 0.0
2.617095 1.581340 0.002163 0.0
1.137297 0.703843 0.000586 0.0
3.507490 0.830396 -0.002581 0.0
0.604155 0.492500 0.000072 0.0
0.678144 1.632683 0.001509 0.0
2.039024 1.309444 0.002785 0.0
0.625500 0.619783 0.003617 0.0
2.835520 1.482744 0.004233 0.0
1.935929 0.372123 -0.004968 0.0
1.072714 0.327787 -0.001516 0.0
3.059238 0.274242 0.000360 0.0
2.389789 0.175118 -0.000011 0.0
3.636211 1.358581 0.002908 0.0
3.911078 0.858252 -0.000090 0.0
3.266504 0.751578 0.001689 0.0
0.974172 0.438145 0.002442 0.0
3.243201 1.568878 0.003257 0.0
3.776368 1.565985 -0.001424 0.0
3.938764 1.443568 0.000686 0.0
1.527381 1.156993 -0.002369 0.0
3.052864 1.458291 -0.000879 0.0
2.909052 1.245141 -0.001818 0.0
3.018267 0.818765 0.000680 0.0
2.577054 1.170227 0.002396 0.0
3.870819 0.299951 0.003580 0.0
0.172452 1.821643 0.000654 0.0
1.970397 1.504859 0.003069 0.0
3.441429 1.120177 0.000554 0.0
2.895359 0.957195 -0.003315 0.0
1.583136 0.203491 0.001984 0.0
1.749634 0.750806 0.002801 0.0
0.627487 1.711045 -0.001304 0.0
1.879729 1.276547 0.001387 0.0
0.913425 1.400466 0.000734 0.0
2.569043 0.316191 0.002138 0.0
0.706284 1.461078 0.002603 0.0
3.645617 1.254150 0.000865 0.0
2.723444 1.258237 -0.004140 0.0
1.158080 0.953699 -0.001181 0.0
2.953040 0.376281 -0.000170 0.0
3.982805 1.354722 0.002794 0.0
3.308511 1.184438 -0.000902 0.0
1.658767 0.589216 -0.001860 0.0
0.379278 1.627995 -0.000755 0.0
4.118216 1.222682 0.003331 0.0
2.855197 0.979170 0.004525 0.0
0.529876 0.448060 -0.001620 0.0
3.831015 1.265470 0.001784 0.0
0.370894 1.777560 -0.002541 0.0
2.641128 0.865720 0.001473 0.0
2.151884 0.678003 -0.001378 0.0
2.449374 1.442042 -0.002906 0.0
2.629959 0.184339 0.004198 0.0
2.746564 1.387750 -0.001821 0.0
1.342296 1.653970 0.000470 0.0
4.028681 0.237028 0.003216 0.0
0.010593 0.656561 0.006916 0.0
3.654471 1.469576 0.000055 0.0
2.522086 0.038767 -0.001543 0.0
2.427797 0.326995 -0.001468 0.0
4.070992 0.877682 0.005204 0.0
1.775061 1.294837 -0.000815 0.0
3.936196 0.744411 0.002790 0.0
3.500970 1.856687 0.000571 0.0
0.664769 1.628822 -0.001938 0.0
3.992128 1.111418 0.001139 0.0
3.893445 0.180270 -0.000339 0.0
1.853434 1.677996 -0.003487 0.0
0.623068 1.392926 0.001306 0.0
0.393946 0.277553 -0.000286 0.0
2.966912 1.240300 -0.001696 0.0
2.928290 1.447260 -0.001364 0.0
1.681090 0.679459 -0.001342 0.0
3.124541 1.239485 0.002516 0.0
3.215104 0.719057 0.001325 0.0
1.263092 0.957664 -0.002790 0.0
2.100135 1.739209 -0.002535 0.0
0.682615 1.303313 0.005494 0.0
0.514596 1.276658 0.001053 0.0
2.563524 0.961171 0.000546 0.0
1.036556 0.261858 0.004632 0.0
0.717652 0.994056 0.001430 0.0
3.231697 1.097030 0.000279 0.0
0.377646 0.235663 0.001762 0.0
1.752094 0.416516 -0.000545 0.0
3.695490 1.485380 -0.000198 0.0
0.062733 1.440297 0.001503 0.0
3.265211 1.708208 0.001930 0.0
0.117791 0.618959 0.001296 0.0
0.404877 1.511666 0.002516 0.0
2.857745 0.999730 -0.001774 0.0
1.189448 0.255798 0.000150 0.0
4.100340 0.409352 0.002684 0.0
2.002860 1.219974 0.002332 0.0
1.652154 0.981534 -0.003760 0.0
3.153162 0.786596 0.006765 0.0
2.357349 1.739963 0.003686 0.0
1.439642 0.794767 0.001534 0.0
3.889627 1.191021 0.002077 0.0
2.514051 1.324315 -0.002283 0.0
1.072879 1.173154 -0.001534 0.0
0.439414 0.777694 -0.005414 0.0
4.035440 0.115181 -0.002134 0.0
2.080952 0.554625 0.005766 0.0
1.352969 0.697159 -0.000407 0.0
2.965455 0.551717 0.001648 0.0
3.150425 0.009386 0.005353 0.0
2.265107 0.960818 -0.001615 0.0
1.040589 1.668260 -0.000693 0.0
2.794747 1.169705 -0.001899 0.0
0.438014 1.368539 0.004420 0.0
1.662639 0.845287 -0.001041 0.0
4.012294 1.885568 0.002319 0.0
0.630915 1.149619 -0.000375 0.0
3.836943 0.229017 0.003503 0.0
1.364306 1.035332 0.003396 0.0
0.681909 1.090403 -0.000707 0.0
3.452313 1.315195 0.000321 0.0
3.154583 1.419086 -0.001231 0.0
3.038008 0.411434 -0.004995 0.0
1.449153 0.621029 0.002421 0.0
3.331161 0.859537 -0.005359 0.0
1.346683 1.630805 0.003290 0.0
3.633347 1.804356 0.003700 0.0
2.924798 0.410355 0.000873 0.0
1.286582 1.082863 -0.001673 0.0
2.249415 1.643191 0.003910 0.0
2.155589 1.657059 -0.001152 0.0
1.129020 1.063053 -0.000092 0.0
2.145905 1.075206 -0.002025 0.0
3.597465 0.749281 -0.000406 0.0
2.490866 0.169695 -0.001413 0.0
3.077297 1.354343 0.002196 0.0
3.605383 1.592621 0.000954 0.0
2.696536 1.138898 0.001817 0.0
1.907714 0.951496 0.000105 0.0
0.417593 1.484979 0.002978 0.0
2.136195 0.222407 0.001302 0.0
0.995250 0.717311 -0.002106 0.0
2.717637 0.485381 0.000919 0.0
0.341529 0.294641 -0.000214 0.0
3.992999 1.183049 0.000219 0.0
1.571528 0.392836 -0.003534 0.0
1.038074 1.323138 -0.001119 0.0
0.461296 0.638954 0.003658 0.0
2.578253 1.574355 0.001605 0.0
2.092930 1.294151 -0.001496 0.0
2.578026 0.109398 -0.003465 0.0
3.063674 0.068338 0.000452 0.0
1.986416 0.855795 -0.000960 0.0
0.491268 0.246759 0.005772 0.0
0.454181 0.847388 0.000515 0.0
2.910035 1.802013 -0.000005 0.0
1.485961 1.825285 -0.001825 0.0
2.093774 0.634852 0.001132 0.0
1.161870 1.266550 -0.000516 0.0
3.750075 1.196564 0.002956 0.0
2.437477 0.713022 0.000655 0.0
1.559390 0.585148 0.000643 0.0
3.001988 1.511243 0.000581 0.0
4.019029 1.082449 -0.000815 0.0
1.009361 1.352371 0.000825 0.0
0.248781 0.090140 0.003902 0.0
0.744662 0.635914 -0.000321 0.0
2.652652 0.957122 -0.001835 0.0
0.701242 1.454528 0.000939 0.0
3.602069 0.203415 -0.000961 0.0
2.144039 1.060780 -0.000928 0.0
3.267338 1.738062 0.002476 0.0
0.540298 1.602305 0.001720 0.0
2.726891 0.004594 -0.000127 0.0
1.025912 0.520214 0.000691 0.0
1.699689 0.545425 0.003229 0.0
0.768399 1.902998 -0.002563 0.0
3.060895 0.419833 -0.002916 0.0
0.282497 0.715349 0.001287 0.0
4.114866 0.902806 0.001219 0.0
1.073982 0.516442 -0.000292 0.0
1.835875 0.884391 -0.002839 0.0
2.474171 1.524096 0.000230 0.0
0.030577 0.821766 -0.001069 0.0
2.463256 1.227483 -0.000261 0.0
0.626608 0.145108 0.002344 0.0
0.531040 1.482495 -0.000110 0.0
2.697096 1.500379 0.000451 0.0
2.138657 0.339129 -0.007188 0.0
2.745967 1.502440 -0.006406 0.0
0.161410 0.488709 0.001658 0.0
1.160706 1.390734 0.003875 0.0
1.944412 0.563633 -0.002358 0.0
0.736483 1.271731 -0.003812 0.0
0.282472 1.222159 -0.002834 0.0
1.144990 1.630884 0.002707 0.0
0.842997 1.565850 -0.006730 0.0
0.338831 0.508285 -0.004315 0.0
2.634767 1.620980 -0.000925 0.0
3.081600 0.183004 0.001838 0.0
2.748619 1.670239 0.003315 0.0
0.110937 0.361257 0.000354 0.0
2.626260 0.492221 0.001536 0.0
0.999787 1.745436 -0.002391 0.0
2.049927 1.001075 -0.004257 0.0
3.413942 1.304167 -0.000796 0.0
2.398882 0.606949 -0.001231 0.0
2.868342 1.890047 0.002156 0.0
3.138061 0.018019 -0.003964 0.0
2.733864 0.106201 0.003248 0.0
0.289623 0.821408 0.003560 0.0
4.042115 1.260228 0.000335 0.0
2.809002 0.352295 0.000092 0.0
0.534921 1.326727 -0.005058 0.0
3.217600 0.304303 0.000946 0.0
2.112702 1.567075 -0.001711 0.0
3.196327 1.874857 0.000181 0.0
0.343297 1.370196 -0.002320 0.0
2.271587 1.614915 0.002297 0.0
3.466192 1.359091 0.001812 0.0
3.178889 1.199112 0.001056 0.0
3.895183 0.570891 0.004126 0.0
2.888736 0.038003 -0.000257 0.0
1.259458 1.097434 -0.001646 0.0
2.511095 0.585253 -0.001323 0.0
0.961843 1.073649 0.001206 0.0
2.490537 0.526277 -0.000438 0.0
0.841695 0.051011 -0.003423 0.0
1.684730 1.560696 0.001123 0.0
2.835640 1.766223 -0.005118 0.0
1.928255 1.129953 -0.004660 0.0
0.566594 0.270543 -0.000381 0.0
2.919835 0.959449 -0.001192 0.0
1.891983 1.214940 0.002313 0.0
4.134834 0.103182 0.003905 0.0
2.742881 1.367090 0.001171 0.0
3.719380 1.177601 -0.000114 0.0
0.018957 1.147454 -0.004194 0.0
3.909502 0.406782 0.004008 0.0
1.403593 0.029381 0.003015 0.0
3.286291 1.235581 0.002902 0.0
3.639357 0.825116 -0.001620 0.0
0.370547 0.693071 -0.000169 0.0
3.699961 1.192189 0.001625 0.0
1.622686 1.759268 0.001409 0.0
2.303914 1.723104 -0.005346 0.0
2.312462 1.623970 -0.002590 0.0
2.612317 0.542550 -0.004397 0.0
1.076960 0.454704 0.000444 0.0
2.519492 0.177063 -0.000189 0.0
1.733927 0.271001 -0.004582 0.0
1.761741 0.671402 -0.002735 0.0
2.870701 0.951222 -0.001971 0.0
0.062719 0.866363 -0.000861 0.0
0.307202 1.261956 0.002736 0.0
1.565352 1.567361 0.001809 0.0
4.086385 0.992722 -0.002990 0.0
3.350072 1.385916 -0.000965 0.0
3.043812 1.418141 -0.001709 0.0
3.416514 0.517250 -0.004747 0.0
1.438781 1.065142 -0.000313 0.0
1.535046 1.409404 -0.003037 0.0
0.898062 1.853624 0.000358 0.0
2.548037 0.966767 0.000282 0.0
4.223271 1.864362 0.001956 0.0
2.273902 1.752068 -0.002497 0.0
2.979583 0.203707 0.000864 0.0
1.942229 1.681874 -0.003913 0.0
1.296981 0.192944 0.002278 0.0
1.900439 0.757544 0.000312 0.0
0.392092 0.939223 -0.000884 0.0
1.401369 0.662119 -0.000502 0.0
1.119609 1.325367 0.000903 0.0
0.430709 -0.001484 -0.001593 0.0
4.001425 1.850766 -0.002085 0.0
1.824990 1.184272 -0.000485 0.0
1.850740 0.286104 -0.001658 0.0
3.973526 1.721786 -0.004315 0.0
0.636489 0.938605 -0.003602 0.0
2.682917 0.130317 0.001154 0.0
3.033027 0.868664 0.000924 0.0
1.219767 0.556990 0.001308 0.0
2.351387 0.714317 0.003155 0.0
2.945126 1.380661 -0.002461 0.0
3.318277 1.643180 -0.000930 0.0
2.553455 0.342836 -0.001737 0.0
1.422490 0.531416 -0.002469 0.0
2.522203 1.423006 0.000232 0.0
1.358841 1.488336 -0.001430 0.0
0.451211 1.120501 -0.002053 0.0
1.562616 0.346480 0.000891 0.0
3.182986 1.036117 0.000798 0.0
2.826110 0.945400 -0.000275 0.0
1.726216 1.886761 0.003990 0.0
0.130192 1.243964 -0.001582 0.0
2.393626 1.146929 0.001812 0.0
3.052475 1.760748 0.004641 0.0
3.439352 0.402446 0.002455 0.0
1.379096 1.397583 0.001865 0.0
2.913553 1.817070 0.004252 0.0
1.859318 0.766905 0.002651 0.0
1.873594 1.159975 0.002478 0.0
1.938968 1.303603 0.000014 0.0
0.885538 1.350472 0.000790 0.0
1.289764 0.674031 -0.002038 0.0
3.589440 1.656946 0.003967 0.0
1.283868 0.462326 0.000853 0.0
4.078718 0.008183 0.001815 0.0
3.310869 0.620412 0.000923 0.0
4.121802 1.819976 -0.003430 0.0
3.279320 1.853210 0.000442 0.0
1.437209 0.576554 0.003490 0.0
1.576789 0.004706 0.000113 0.0
0.307946 0.545445 0.000920 0.0
1.625031 0.647823 0.001039 0.0
0.115138 0.586727 0.002678 0.0
2.286100 0.562601 0.005686 0.0
4.161130 0.319820 -0.001751 0.0
0.116646 0.969753 -0.002653 0.0
0.060248 1.020418 0.000370 0.0
3.785708 0.315962 0.000798 0.0
1.248042 0.833489 -0.001640 0.0
2.043765 1.431027 0.001775 0.0
1.841460 0.551907 -0.002798 0.0
1.379138 1.258871 0.003436 0.0
0.703902 0.619796 0.000205 0.0
3.551264 0.163568 -0.005383 0.0
4.029974 0.334131 -0.001707 0.0
2.418672 0.927205 -0.004570 0.0
4.150440 0.650601 -0.004934 0.0
1.457591 1.489582 0.001118 0.0
2.764973 0.119983 -0.000403 0.0
1.141868 1.856113 -0.000056 0.0
1.583523 0.631353 0.006413 0.0
0.048745 1.586126 -0.000300 0.0
2.450082 1.237343 0.000642 0.0
3.400858 1.306085 -0.001280 0.0
4.204815 0.720351 -0.000605 0.0
2.326185 0.104647 0.001152 0.0
3.700605 0.256840 0.002261 0.0
1.328909 0.049223 0.000283 0.0
3.678475 0.497502 -0.000888 0.0
3.905281 1.737074 -0.002564 0.0
2.314627 1.159125 0.005666 0.0
3.279109 1.352182 -0.000606 0.0
4.098973 0.354079 -0.003200 0.0
3.594932 0.782165 -0.001629 0.0
2.704317 0.237616 0.002193 0.0
2.654838 0.862555 -0.000458 0.0
0.459737 0.301989 0.001499 0.0
0.483925 0.051058 -0.004995 0.0
2.277764 1.628903 -0.001866 0.0
1.134574 1.631598 -0.002573 0.0
2.249922 0.857296 0.000418 0.0
2.894547 1.345255 -0.004080 0.0
0.451303 0.373838 -0.001963 0.0
1.511341 0.070344 -0.001176 0.0
0.740295 0.179106 0.003473 0.0
0.674943 0.730768 -0.001424 0.0
0.927113 1.301973 0.000539 0.0
3.202676 0.532940 -0.000837 0.0
3.115815 0.195086 -0.004744 0.0
1.647704 1.616539 -0.000674 0.0
0.081151 1.351040 -0.003448 0.0
0.804244 1.728526 -0.004000 0.0
1.918631 0.575272 0.005150 0.0
0.259464 1.615347 0.002894 0.0
3.607200 0.564532 0.000036 0.0
1.062494 0.626302 0.001657 0.0
0.318517 0.781933 0.001270 0.0
1.944311 1.152165 0.000315 0.0
2.144782 -0.000450 -0.000293 0.0
0.662132 1.276041 0.003049 0.0
1.187008 1.130119 0.003587 0.0
3.070338 0.041403 -0.000525 0.0
0.993278 1.350509 0.003024 0.0
0.452431 1.350400 0.000815 0.0
3.722209 1.345069 -0.000260 0.0
3.785006 0.572028 -0.002026 0.0
4.162169 1.669402 0.000613 0.0
2.275512 1.121154 -0.002580 0.0
0.781222 1.622391 -0.001150 0.0
0.127335 0.955562 0.001406 0.0
1.944920 1.196715 0.003459 0.0
3.768255 0.184365 -0.004116 0.0
1.190714 1.263772 0.001387 0.0
2.194109 1.702157 0.001904 0.0
1.897607 1.376196 0.000609 0.0
0.524064 0.035144 0.000045 0.0
0.958620 1.522158 -0.005059 0.0
2.531773 1.360200 -0.000996 0.0
3.191876 1.684342 0.004376 0.0
2.895403 0.027680 -0.000482 0.0
0.108504 1.084482 -0.000244 0.0
2.002841 0.533301 -0.001400 0.0
2.232373 1.588319 -0.003642 0.0
0.782932 0.486300 -0.000374 0.0
2.366875 0.566582 -0.002707 0.0
1.269809 1.108572 -0.002248 0.0
3.348452 0.634999 0.001657 0.0
3.779554 1.298000 0.007339 0.0
1.168271 0.425880 -0.001668 0.0
3.922026 0.999485 -0.001075 0.0
2.190445 1.489397 0.000356 0.0
0.476260 0.187165 -0.003585 0.0
4.089387 0.742405 0.000346 0.0
1.897103 0.327041 -0.004223 0.0
0.350931 1.449926 0.006130 0.0
1.761523 0.997123 -0.002415 0.0
3.077991 0.527496 0.006009 0.0
2.984149 0.989218 -0.001906 0.0
0.823584 0.027093 0.001207 0.0
2.792155 1.084603 0.000871 0.0
0.745742 1.175769 0.000322 0.0
0.735469 0.604567 -0.000113 0.0
0.003668 0.007740 0.002337 0.0
1.161691 1.537095 0.000866 0.0
3.947207 1.633616 0.001573 0.0
1.987313 0.172385 -0.001196 0.0
1.192201 1.709349 0.000228 0.0
2.528066 0.871869 0.001517 0.0
2.037465 1.298060 0.000419 0.0
2.980141 1.274177 -0.003161 0.0
0.301537 0.191885 0.002158 0.0
3.100389 0.165557 0.002287 0.0
0.812596 0.145734 0.004729 0.0
1.254794 1.112511 0.000062 0.0
0.135393 0.586264 0.001600 0.0
1.422333 1.595518 0.000322 0.0
1.562726 0.560352 -0.002549 0.0
0.161909 0.137915 0.004224 0.0
4.210843 0.209175 0.002821 0.0
4.187044 0.862552 -0.001548 0.0
3.221887 1.395064 0.006230 0.0
2.919159 1.032868 -0.000952 0.0
0.777835 1.595025 0.001587 0.0
2.478794 1.379705 -0.001983 0.0
3.364525 0.728526 -0.000914 0.0
2.129462 0.030543 -0.000877 0.0
0.860245 0.505313 0.000171 0.0
1.420971 1.572139 0.000113 0.0
2.402126 0.504783 0.000228 0.0
0.148441 1.379218 0.003875 0.0
0.219913 0.371324 -0.002475 0.0
0.105790 1.279436 0.000400 0.0
1.024874 0.868899 0.001839 0.0
2.278443 0.495720 0.000096 0.0
1.452603 1.138079 -0.000319 0.0
2.242754 1.327955 -0.001528 0.0
3.368946 1.867600 0.002143 0.0
3.595014 1.148727 0.004168 0.0
1.203971 0.554314 -0.000938 0.0
2.543042 1.371391 0.000143 0.0
1.950779 0.476512 0.001966 0.0
1.620636 0.344605 0.000204 0.0
0.256852 1.451904 0.000542 0.0
0.044717 1.526979 0.001184 0.0
1.239483 1.520076 -0.005282 0.0
0.647662 1.434714 0.000611 0.0
0.883318 1.207621 -0.002008 0.0
1.741994 1.238098 0.002554 0.0
1.866745 0.912314 -0.000964 0.0
2.158614 0.744678 0.000264 0.0
2.237859 1.309414 -0.001068 0.0
3.681373 0.350386 -0.000269 0.0
0.349006 1.199834 -0.001507 0.0
1.128837 1.608932 0.003757 0.0
1.707293 1.681128 -0.000058 0.0
1.152977 0.486495 -0.004660 0.0
3.994808 0.191754 -0.002171 0.0
3.204518 0.675790 0.000997 0.0
1.945351 0.066289 -0.001923 0.0
1.974444 1.197596 -0.000467 0.0
1.274630 0.079598 -0.002370 0.0
1.334222 1.795835 0.000491 0.0
3.332304 0.031756 0.006637 0.0
2.731026 1.405049 -0.004904 0.0
0.022226 1.056161 -0.006174 0.0
2.116522 1.716027 0.001700 0.0
1.063665 1.279205 -0.003688 0.0
3.813709 0.954901 -0.003780 0.0
0.293121 0.859100 0.003700 0.0
1.869202 0.472563 -0.001552 0.0
0.065481 1.692777 -0.002422 0.0
3.574656 0.269117 -0.000250 0.0
1.621249 1.770431 0.002856 0.0
0.771447 0.771354 -0.005469 0.0
3.590930 0.586911 0.001808 0.0
0.883163 1.490864 -0.000894 0.0
1.228850 1.018252 0.000279 0.0
3.249600 0.025393 -0.001374 0.0
1.639466 0.871556 -0.001736 0.0
1.598060 0.080302 -0.000964 0.0
4.159463 1.174097 0.000789 0.0
0.784058 1.310013 -0.002953 0.0
2.594082 0.623742 -0.000185 0.0
0.798783 1.782234 -0.002196 0.0
3.950805 1.417409 0.002392 0.0
1.844641 1.518477 0.000521 0.0
3.460640 0.573930 0.003148 0.0
3.317392 0.673620 -0.000705 0.0
1.704712 1.529486 -0.002574 0.0
2.594695 1.544172 -0.005472 0.0
1.577087 1.704468 -0.001477 0.0
2.957828 1.673178 0.004866 0.0
1.815934 0.550380 0.001980 0.0
4.109999 0.953401 0.000019 0.0
3.621332 0.558792 0.000815 0.0
0.155069 1.334255 -0.004581 0.0
0.798092 0.163599 -0.000716 0.0
0.145606 1.047901 -0.003812 0.0
3.075460 0.643394 -0.005312 0.0
0.892251 0.388325 0.003764 0.0
0.666587 1.351760 0.001985 0.0
0.305005 0.514848 0.000748 0.0
1.549050 1.310467 0.003774 0.0
3.778028 0.572743 0.001721 0.0
1.633898 0.026914 0.000511 0.0
3.580927 0.588568 0.000614 0.0
4.244180 1.272502 -0.004197 0.0
2.107955 1.692111 0.005092 0.0
1.734527 0.980340 0.001116 0.0
2.113745 0.343022 -0.001920 0.0
2.192186 0.880301 0.002388 0.0
1.660691 0.018842 0.002924 0.0
2.220981 0.589462 0.001365 0.0
2.347387 1.664907 0.004298 0.0
0.528333 0.401914 -0.001908 0.0
0.215138 0.777002 -0.001307 0.0
3.853874 1.885440 -0.001709 0.0
2.282279 1.338494 0.000249 0.0
2.811138 0.534128 0.000021 0.0
3.477218 0.713406 -0.001080 0.0
1.634385 0.678092 -0.000617 0.0
3.804898 1.810485 -0.002975 0.0
2.724351 0.021887 0.000156 0.0
3.891547 0.883429 0.003721 0.0
2.099857 0.130322 -0.003903 0.0
2.844050 1.657371 0.003096 0.0
1.358769 0.658751 0.005157 0.0
3.076712 1.017604 -0.002347 0.0
1.556151 0.948535 -0.002116 0.0
0.167638 1.441110 0.003162 0.0
0.218001 1.801271 0.002307 0.0
2.165919 1.594508 -0.000937 0.0
3.582398 0.338124 0.001899 0.0
3.174700 0.839151 -0.000131 0.0
1.800775 1.458645 -0.000494 0.0
3.810544 0.917422 0.002844 0.0
3.199098 1.521979 0.002062 0.0
0.661886 0.438632 0.001758 0.0
0.123554 0.626758 0.005006 0.0
0.142108 1.138812 0.001423 0.0
0.589787 0.848233 0.005800 0.0
0.105383 1.159754 0.005597 0.0
1.646481 1.704663 0.003721 0.0
3.325971 1.406093 0.005433 0.0
3.542423 1.200260 -0.003553 0.0
1.065047 1.357836 0.000555 0.0
2.515442 0.651186 -0.000562 0.0
0.735365 1.099266 0.000843 0.0
0.207374 0.865375 -0.003742 0.0
4.166474 1.393591 0.000706 0.0
0.536384 1.014852 0.002808 0.0
0.754728 1.819289 0.001675 0.0
2.425233 1.506606 0.002887 0.0
0.793676 0.661170 -0.001612 0.0
0.838707 0.787461 0.003813 0.0
0.522537 0.417551 -0.002610 0.0
1.565578 1.181391 -0.003724 0.0
1.000812 0.828871 0.001536 0.0
0.428350 1.232386 -0.000959 0.0
2.547799 0.811420 -0.004573 0.0
2.478433 1.119283 -0.004533 0.0
2.816921 1.620166 0.000025 0.0
4.184619 0.436472 -0.001546 0.0
3.782566 0.231835 0.005055 0.0
1.604556 0.019381 0.006893 0.0
3.900588 0.030380 0.002605 0.0
4.245881 1.260245 0.003607 0.0
1.018719 1.230112 -0.001390 0.0
1.775197 0.339119 0.002492 0.0
1.552260 0.616015 0.001534 0.0
0.893243 0.419741 0.000980 0.0
2.789975 0.705058 -0.000014 0.0
3.431881 1.089073 -0.002147 0.0
2.510311 1.378765 -0.000566 0.0
3.455298 1.821648 -0.001636 0.0
0.636440 1.326606 0.000977 0.0
2.326894 0.157180 -0.001534 0.0
0.199835 1.354624 -0.002265 0.0
1.235885 1.509476 0.000837 0.0
4.123704 1.097894 -0.002244 0.0
3.136795 1.684295 0.001429 0.0
3.348197 1.712399 -0.000496 0.0
2.880203 0.188049 -0.003479 0.0
4.240233 0.934167 -0.001098 0.0
2.690846 0.532307 0.002010 0.0
0.179357 1.207237 -0.002883 0.0
4.062686 0.730859 -0.001000 0.0
0.898024 1.784411 -0.001832 0.0
4.163155 1.857873 0.004466 0.0
1.576462 1.413873 0.002320 0.0
3.233840 1.416814 -0.000377 0.0
1.380143 1.757003 0.000305 0.0
1.934060 0.384205 0.002994 0.0
2.288717 1.715260 -0.003271 0.0
1.205815 1.843829 -0.001823 0.0
2.496736 1.832594 -0.000244 0.0
1.218974 1.857706 -0.002348 0.0
0.205553 1.072312 0.004509 0.0
4.134300 0.908767 0.004281 0.0
1.229214 0.071542 0.001442 0.0
1.102030 1.475017 -0.001344 0.0
2.218088 1.375583 0.001752 0.0
4.088590 1.119808 0.003968 0.0
0.927576 0.387773 -0.000588 0.0
1.712707 0.492051 -0.001216 0.0
3.100840 1.328016 0.000029 0.0
3.730964 0.988328 -0.001432 0.0
0.500313 1.695698 -0.000122 0.0
1.962100 1.645858 -0.001329 0.0
3.999823 1.573683 -0.003046 0.0
0.447268 0.224537 -0.005246 0.0
4.214163 0.559917 0.001413 0.0
3.694419 1.761941 0.001107 0.0
1.702766 0.537474 -0.000780 0.0
2.557573 1.802993 0.001834 0.0
3.437194 1.397220 0.002681 0.0
3.511972 1.825400 -0.003741 0.0
3.541976 0.581209 0.001575 0.0
0.987727 0.494115 -0.002673 0.0
2.998965 0.652048 0.002014 0.0
1.840454 0.650339 0.000659 0.0
3.666674 1.112206 0.002146 0.0
1.151194 0.587807 0.000674 0.0
2.781147 1.814124 0.001093 0.0
2.959362 1.287553 0.000953 0.0
3.711666 1.288712 0.003575 0.0
3.329618 0.383831 -0.000886 0.0
2.404818 1.519092 -0.001336 0.0
0.886779 0.480556 0.002340 0.0
0.343507 0.815243 0.000577 0.0
4.032841 1.764483 0.005027 0.0
0.758014 1.223467 -0.000118 0.0
1.366690 1.607554 0.005122 0.0
2.612920 0.985075 0.001862 0.0
0.650347 0.017180 0.000585 0.0
3.958464 1.207626 0.001753 0.0
1.088893 0.606806 -0.003663 0.0
3.798963 0.596030 -0.002013 0.0
1.974525 0.571845 -0.001115 0.0
3.731294 0.436990 0.002744 0.0
0.343189 1.758844 0.004621 0.0
1.790870 1.793287 0.000042 0.0
3.355770 0.304190 0.003918 0.0
0.848183 1.174546 0.000652 0.0
3.047186 1.850338 -0.000848 0.0
4.101448 1.022707 0.006457 0.0
0.006252 0.808467 0.002277 0.0
0.680410 0.802369 -0.001842 0.0
2.930373 1.695056 0.000431 0.0
0.133435 0.773512 0.001303 0.0
1.279035 1.273034 0.001904 0.0
2.326664 1.535696 -0.004462 0.0
2.825714 1.116723 -0.000506 0.0
3.825513 0.164539 0.001337 0.0
2.137352 0.932081 0.002875 0.0
0.494598 1.881129 -0.001235 0.0
1.648956 0.933346 -0.001672 0.0
2.214331 0.820687 -0.001426 0.0
1.499829 1.126597 0.003149 0.0
2.847057 1.006484 -0.001140 0.0
2.252799 0.894751 0.001909 0.0
3.486171 0.008962 -0.000389 0.0
0.125603 1.355030 -0.003611 0.0
0.794466 1.235801 0.003835 0.0
1.617242 0.349183 -0.005426 0.0
3.382534 1.770137 -0.000990 0.0
1.541287 0.442056 -0.001773 0.0
3.436469 0.698401 -0.002424 0.0
2.042389 1.685262 0.001933 0.0
1.052638 0.807782 -0.000074 0.0
3.828512 0.234150 -0.002591 0.0
0.269056 1.278561 0.000495 0.0
3.674217 1.163883 -0.002745 0.0
3.521677 0.093731 0.006222 0.0
2.442381 0.768414 0.002740 0.0
2.160441 1.744312 0.004137 0.0
1.322411 1.848428 -0.002707 0.0
2.465825 1.604880 0.000394 0.0
0.052155 0.475051 0.000912 0.0
1.688656 1.765478 -0.000184 0.0
2.895845 0.081774 0.001746 0.0
3.295124 1.071327 -0.000327 0.0
4.015984 0.541784 0.002422 0.0
2.084627 1.371759 0.000225 0.0
3.073462 1.573959 -0.001233 0.0
3.753736 0.357740 -0.001317 0.0
2.605588 0.016100 -0.003720 0.0
1.220319 1.600400 -0.000278 0.0
4.187887 1.416851 -0.000387 0.0
0.537268 1.621479 0.001268 0.0
2.852728 1.126235 -0.000722 0.0
0.345358 0.920439 0.001782 0.0
2.720679 0.713613 0.002763 0.0
0.111559 0.939394 -0.001428 0.0
0.443845 1.641638 0.002231 0.0
0.215172 0.543103 -0.000246 0.0
2.952688 0.841691 -0.000263 0.0
3.190683 0.097159 -0.001734 0.0
0.473488 0.750614 -0.001337 0.0
0.967891 0.097173 -0.001387 0.0
2.130676 1.457814 -0.002512 0.0
0.038140 0.526026 0.004286 0.0
2.283233 1.899658 -0.005399 0.0
1.429954 0.839984 0.000771 0.0
1.560838 0.888615 -0.003179 0.0
3.958695 0.646321 0.002195 0.0
2.108420 1.783961 -0.002678 0.0
4.172732 0.371295 -0.002137 0.0
1.414838 0.294654 0.000151 0.0
1.708100 1.695367 0.000590 0.0
1.835153 0.068600 -0.000789 0.0
0.050941 1.283162 0.001864 0.0
1.846347 1.695470 0.001027 0.0
2.505143 0.138649 0.003083 0.0
2.261105 1.544042 0.001388 0.0
0.095846 0.648878 -0.002953 0.0
1.471346 0.432578 -0.002065 0.0
3.997259 1.604293 -0.001693 0.0
3.407900 1.891423 0.003648 0.0
0.697949 0.966687 0.001856 0.0
2.374578 0.017428 0.001219 0.0
1.039316 0.800958 0.003079 0.0
1.632650 1.097894 -0.001548 0.0
2.452941 1.339103 0.002180 0.0
3.117097 1.661537 -0.001585 0.0
2.597980 0.517334 -0.000431 0.0
2.940633 0.797064 -0.003317 0.0
1.232131 0.526464 -0.001070 0.0
2.424638 1.314196 0.001857 0.0
2.710813 0.743680 0.001457 0.0
1.368798 0.255024 0.000881 0.0
1.802297 1.862723 0.001361 0.0
3.777571 1.865267 0.000763 0.0
3.538799 1.791000 -0.003601 0.0
3.753856 1.135281 0.000127 0.0
1.889264 1.690499 -0.000839 0.0
2.337032 1.315914 -0.002377 0.0
3.606880 0.124837 -0.001656 0.0
0.145466 1.680780 0.004815 0.0
1.221352 0.729216 -0.002353 0.0
1.603658 1.195963 -0.001790 0.0
3.018491 0.867633 0.001985 0.0
0.891172 1.601938 0.003233 0.0
3.389022 0.909640 -0.006273 0.0
1.240565 0.053526 -0.003230 0.0
3.183064 0.774875 -0.000306 0.0
2.209653 1.552660 -0.005586 0.0
0.565624 0.240855 0.001508 0.0
3.846477 0.341756 -0.002281 0.0
0.398138 1.557970 -0.004545 0.0
0.432841 0.735932 0.003564 0.0
2.595325 1.093708 -0.000125 0.0
0.046162 0.052006 0.002465 0.0
2.283373 0.091385 -0.001222 0.0
3.783661 1.561643 0.002730 0.0
1.775561 1.416918 0.000042 0.0
3.513241 1.297627 0.000967 0.0
3.997224 1.418245 -0.000035 0.0
4.102556 0.700439 -0.002951 0.0
3.600509 0.683516 0.002538 0.0
2.881641 1.401589 0.001134 0.0
2.307098 0.830433 0.001296 0.0
4.196520 1.476041 -0.003103 0.0
3.603180 0.236199 -0.001729 0.0
0.731261 0.145388 -0.007300 0.0
0.102368 1.579394 0.000782 0.0
3.819132 1.073907 0.001742 0.0
4.138890 1.620273 0.005204 0.0
4.046356 1.716909 0.000268 0.0
1.364086 0.728564 0.000203 0.0
0.259570 1.006811 0.001473 0.0
1.629275 0.005814 -0.003442 0.0
2.988929 0.697540 0.001999 0.0
0.976460 0.431004 0.002203 0.0
1.547968 0.933823 0.002064 0.0
0.694012 0.114945 -0.001658 0.0
1.734069 0.580917 0.002019 0.0
0.049189 0.375492 0.001656 0.0
3.116768 0.265754 -0.001395 0.0
3.339912 0.643163 0.005199 0.0
3.587811 0.183763 -0.003462 0.0
0.683909 0.296176 0.000287 0.0
1.732436 0.555536 0.002378 0.0
0.608233 1.643515 0.004257 0.0
