3.78796894 0.00033178 0.00134090 1.00000000
1.42304528 -0.00118837 0.00144980 1.00000000
0.07177911 -0.00393541 0.00068436 1.00000000
2.07964752 0.00204352 0.00358444 1.00000000
3.86710560 -0.00033302 -0.00134028 1.00000000
1.09136886 -0.00268970 -0.00137523 1.00000000
3.56120242 -0.00303734 0.00081377 1.00000000
2.26181128 0.00091455 0.00040225 1.00000000
1.10331263 -0.00499059 0.00036415 1.00000000
3.94290288 0.00091317 0.00085400 1.00000000
3.26591107 0.00200291 -0.00364265 1.00000000
0.73535631 0.00298189 0.00154119 1.00000000
1.26501795 -0.00526254 0.00130669 1.00000000
3.99449731 0.00501877 0.00078372 1.00000000
2.71259205 -0.00367058 0.00343747 1.00000000
3.36277276 0.00122359 0.00113411 1.00000000
1.20988508 -0.00118271 0.00134153 1.00000000
3.07903013 -0.00066785 -0.00471105 1.00000000
3.63158150 -0.00167306 -0.00185490 1.00000000
1.52979495 0.00048942 -0.00313206 1.00000000
2.28393699 -0.00453013 -0.00274006 1.00000000
0.33563588 -0.00025805 0.00121090 1.00000000
4.02679469 -0.00250307 0.00231686 1.00000000
2.45537377 -0.00207897 -0.00157558 1.00000000
1.41472999 0.00090313 -0.00032822 1.00000000
2.32866616 -0.00001236 0.00566214 1.00000000
2.73751529 0.00222248 0.00032299 1.00000000
1.65519495 0.00111413 0.00091891 1.00000000
3.86060188 -0.00061460 -0.00111904 1.00000000
0.39225641 -0.00153824 0.00219066 1.00000000
2.76203299 -0.00683096 -0.00061173 1.00000000
1.76111963 -0.00088195 0.00279267 1.00000000
2.11316666 0.00025421 0.00047238 1.00000000
3.44482313 0.00035360 0.00476933 1.00000000
1.60707986 0.00339281 -0.00167499 1.00000000
1.56858388 -0.00535243 -0.00180183 1.00000000
0.66454166 -0.00134690 0.00042436 1.00000000
2.31210340 -0.00239957 -0.00004374 1.00000000
3.69037422 0.00131094 -0.00070632 1.00000000
1.13464045 0.00012468 0.00242706 1.00000000
2.94179475 0.00475687 -0.00094567 1.00000000
3.73430761 -0.00041673 -0.00097468 1.00000000
3.23312252 -0.00275154 -0.00072416 1.00000000
0.46537996 0.00237098 -0.00098322 1.00000000
2.44532326 0.00191832 -0.00092432 1.00000000
2.36268465 0.00040658 0.00268167 1.00000000
2.32295013 0.00081024 -0.00360781 1.00000000
4.08483831 -0.00246786 0.00364381 1.00000000
1.33462823 -0.00150579 0.00109193 1.00000000
3.72020111 -0.00028770 -0.00162054 1.00000000
3.20362283 0.00121405 0.00073075 1.00000000
0.68983720 0.00646366 -0.00160507 1.00000000
1.40406504 0.00083653 -0.00076662 1.00000000
3.17424173 -0.00058574 0.00111062 1.00000000
0.60089837 0.00172380 0.00614168 1.00000000
4.07906456 -0.00061714 -0.00274535 1.00000000
2.16680911 -0.00064892 0.00096980 1.00000000
2.98034348 0.00257123 0.00059128 1.00000000
0.81719222 -0.00001231 0.00184985 1.00000000
4.14474707 0.00240407 -0.00268728 1.00000000
0.02984133 -0.00010354 -0.00067920 1.00000000
1.02466137 -0.00685693 0.00007455 1.00000000
3.40140828 -0.00096466 0.00315973 1.00000000
0.62378005 -0.00011419 -0.00387815 1.00000000
3.27689989 0.00322603 -0.00097423 1.00000000
3.76710668 0.00403200 -0.00546740 1.00000000
0.73605216 0.00076986 0.00264068 1.00000000
3.20247168 0.00311232 0.00211688 1.00000000
3.61387299 -0.00265983 -0.00140929 1.00000000
2.55564041 0.00144599 -0.00324890 1.00000000
3.33120978 0.00323516 -0.00309859 1.00000000
0.78044983 0.00046501 0.00247402 1.00000000
2.05686796 -0.00015457 0.00537558 1.00000000
2.24924643 -0.00442750 0.00229226 1.00000000
1.08561278 0.00451407 -0.00343513 1.00000000
3.06163471 0.28300190 0.00176638 0.00000000
2.84590844 1.35180153 0.00340235 0.00000000
1.43401434 1.04576269 -0.00115255 0.00000000
1.84902943 0.38633713 0.00297292 0.00000000
3.36688427 1.74791894 -0.00159819 0.00000000
2.60718696 0.09653347 -0.00200427 0.00000000
0.49804473 0.58875721 0.00247214 0.00000000
2.59752894 1.08879735 -0.00210463 0.00000000
3.93885181 2.45838657 -0.00316363 0.00000000
0.59881641 1.88790588 0.00199281 0.00000000
1.71121055 0.45393950 0.00078830 0.00000000
2.56708834 1.61074235 0.00331456 0.00000000
2.72576097 0.73615840 -0.00419872 0.00000000
0.34041959 2.00664773 -0.00035971 0.00000000
3.80524140 2.27796315 -0.00053129 0.00000000
2.12266896 1.56323149 -0.00134402 0.00000000
2.93792437 1.42554137 -0.00083873 0.00000000
1.05322076 0.04392310 0.00131895 0.00000000
1.71303316 1.97893139 -0.00188488 0.00000000
3.11441347 1.37509205 -0.00049531 0.00000000
0.52813308 0.74636088 0.00391852 0.00000000
2.85548399 0.16107416 0.00072588 0.00000000
1.47638351 1.70547332 -0.00500033 0.00000000
3.56523070 0.85825470 0.00200738 0.00000000
2.11615814 2.08081731 -0.00115051 0.00000000
4.11619663 2.28274476 -0.00178017 0.00000000
3.99653717 0.59273703 0.00133168 0.00000000
0.99672137 1.99820043 -0.00062257 0.00000000
2.20959357 0.00309334 -0.00540462 0.00000000
1.94260160 0.28345743 0.00351883 0.00000000
2.47237514 0.16260649 0.00167833 0.00000000
3.18922844 1.87221396 -0.00208737 0.00000000
2.24271729 0.89972458 -0.00014545 0.00000000
4.00456754 0.00585981 -0.00013898 0.00000000
3.45962726 1.99140132 -0.00176198 0.00000000
3.98736886 1.14284120 -0.00043174 0.00000000
1.47814170 1.94974149 0.00086325 0.00000000
3.97994070 0.07279765 -0.00288991 0.00000000
3.70980217 0.04731428 0.00142677 0.00000000
2.60308614 2.42213223 0.00012730 0.00000000
0.96289143 1.63565160 0.00096179 0.00000000
0.94410451 0.36913373 0.00188549 0.00000000
2.22419421 1.69529260 -0.00006208 0.00000000
1.45708382 0.55264657 -0.00520244 0.00000000
0.25477659 0.30358490 -0.00197482 0.00000000
1.59512701 2.35152402 -0.00098299 0.00000000
2.65782861 1.70508693 0.00171650 0.00000000
2.30599876 2.43193842 0.00117274 0.00000000
2.79390178 2.42956178 -0.00092889 0.00000000
0.67399713 1.64487660 0.00295571 0.00000000
1.93389322 0.73265675 -0.00065926 0.00000000
2.74336195 0.15766456 0.00165191 0.00000000
2.01524670 0.60776828 -0.00244715 0.00000000
0.73456993 1.37327107 -0.00141975 0.00000000
3.74293496 0.11038354 -0.00036804 0.00000000
2.44528984 1.26899625 0.00362822 0.00000000
0.67907642 1.31643980 -0.00220578 0.00000000
1.18277126 0.21198123 -0.00151423 0.00000000
2.44912446 0.94762853 0.00243476 0.00000000
3.60693442 2.29717553 -0.00443220 0.00000000
0.43179295 0.45670535 0.00034136 0.00000000
3.94215042 0.07112575 0.00143817 0.00000000
2.56626923 1.65724359 -0.00444371 0.00000000
0.10139973 1.52206620 0.00216095 0.00000000
0.08804887 1.74851543 -0.00437219 0.00000000
3.99833559 1.22152134 0.00084591 0.00000000
0.14796308 1.79705847 0.00023090 0.00000000
3.65471181 1.21462784 0.00192173 0.00000000
1.78357564 1.06327710 0.00092472 0.00000000
2.85956552 0.71996272 0.00014459 0.00000000
0.76620936 1.04764775 0.00226617 0.00000000
1.98123613 0.03735602 0.00270772 0.00000000
1.89082611 0.56473211 -0.00080754 0.00000000
0.06274725 2.44821711 -0.00107532 0.00000000
2.01629791 2.40735611 -0.00004774 0.00000000
0.32689008 1.14603452 0.00062283 0.00000000
0.48058498 0.42595096 -0.00143296 0.00000000
0.68572358 1.64616356 -0.00003445 0.00000000
0.57478261 1.60765466 -0.00222180 0.00000000
2.30019335 0.04588128 -0.00369720 0.00000000
1.00583670 0.10977822 -0.00228426 0.00000000
2.78493395 1.86593734 0.00170825 0.00000000
3.43061271 0.80563192 0.00012653 0.00000000
3.13411204 1.77699381 -0.00171964 0.00000000
1.39468393 1.48588663 0.00187592 0.00000000
0.42204816 0.28563101 0.00030698 0.00000000
3.29984176 0.37658453 0.00016082 0.00000000
3.23863997 0.75955428 -0.00011328 0.00000000
0.95242046 1.06689809 -0.00161280 0.00000000
0.27936270 0.09150226 0.00070694 0.00000000
1.52779554 1.53023335 0.00362889 0.00000000
3.94858598 2.28215085 -0.00066691 0.00000000
0.49746937 1.30599813 0.00069374 0.00000000
3.56931786 0.05035321 0.00009728 0.00000000
1.88858262 1.49654568 -0.00529818 0.00000000
2.58062862 1.92996461 0.00308893 0.00000000
1.48694091 1.67499821 0.00560813 0.00000000
1.23315274 1.62990594 -0.00000308 0.00000000
3.62825816 2.37627698 -0.00244997 0.00000000
2.25713837 1.14527738 -0.00326950 0.00000000
3.89982509 2.36997206 -0.00201622 0.00000000
0.71898867 0.67643264 -0.00048898 0.00000000
0.43501311 2.32500326 0.00101432 0.00000000
3.13170973 1.60379745 0.00269181 0.00000000
2.62638871 1.09294877 0.00065271 0.00000000
0.15844859 2.16154407 -0.00153228 0.00000000
0.37755814 2.11295368 0.00184065 0.00000000
2.21745307 1.98522232 0.00294155 0.00000000
3.08413772 2.06790454 0.00065204 0.00000000
0.29152944 1.09549643 -0.00160887 0.00000000
0.61307086 1.52008821 0.00187453 0.00000000
1.08519844 1.33425368 -0.00077947 0.00000000
2.97685147 0.88493602 -0.00604565 0.00000000
2.39482790 1.43852270 0.00050948 0.00000000
1.15624750 1.52055417 0.00214228 0.00000000
1.87751590 0.03921988 -0.00527792 0.00000000
0.90906609 0.93371749 0.00400639 0.00000000
0.51016384 2.14138692 -0.00260084 0.00000000
1.84332954 0.20956337 -0.00012780 0.00000000
2.50733584 1.14409722 0.00134846 0.00000000
3.46521455 2.26424332 -0.00335567 0.00000000
3.10451853 2.25658912 -0.00334533 0.00000000
2.52948769 1.60880971 -0.00041202 0.00000000
2.08319483 0.61326290 0.00137819 0.00000000
0.32469642 0.78318291 -0.00061043 0.00000000
3.81807351 0.75313744 0.00221158 0.00000000
1.64547112 0.88170399 0.00097439 0.00000000
1.55783664 2.34432657 0.00358088 0.00000000
3.53580485 1.58862808 0.00230222 0.00000000
3.06692138 2.38618538 0.00208183 0.00000000
0.32517492 0.66927293 -0.00009553 0.00000000
2.42144261 1.27729096 0.00123956 0.00000000
2.29651212 1.01236567 0.00182239 0.00000000
2.79392993 0.13536173 -0.00090681 0.00000000
4.07498726 1.45854406 -0.00051656 0.00000000
1.25667966 0.34437140 0.00145607 0.00000000
2.04127368 0.94817601 -0.00111613 0.00000000
0.78657453 2.19175105 -0.00142275 0.00000000
2.99483570 1.67462265 -0.00118092 0.00000000
0.02397463 0.88048910 0.00036584 0.00000000
3.03233864 1.08369957 -0.00090580 0.00000000
1.56028779 0.79307373 0.00364574 0.00000000
0.44307874 0.42148577 0.00249631 0.00000000
1.17739239 1.97291532 -0.00118450 0.00000000
3.33764957 1.42539009 0.00044362 0.00000000
0.92714450 2.31085863 -0.00038802 0.00000000
1.99397936 2.03541441 0.00005181 0.00000000
0.23851547 1.55130211 0.00071671 0.00000000
0.92202517 0.49679569 -0.00160662 0.00000000
2.87659787 2.09729619 0.00060549 0.00000000
4.17089639 0.98922840 0.00267194 0.00000000
1.11488664 0.24727147 0.00015248 0.00000000
0.18356685 1.77514901 0.00210161 0.00000000
1.49641342 1.97071811 -0.00411013 0.00000000
3.74562057 0.05370809 0.00127265 0.00000000
1.07537889 0.59233993 0.00389298 0.00000000
3.75958648 2.26949007 0.00258250 0.00000000
2.42803321 1.70742048 -0.00513195 0.00000000
2.28210365 1.40906728 0.00125872 0.00000000
1.75376619 2.47355667 0.00089100 0.00000000
0.15228121 2.20677955 0.00167151 0.00000000
3.80240006 1.55564327 0.00301954 0.00000000
2.50351063 0.53044741 0.00030989 0.00000000
2.06327822 1.94188231 -0.00055896 0.00000000
2.80946959 2.41284553 0.00127444 0.00000000
2.66804063 0.44099558 0.00119542 0.00000000
0.90382186 1.99308353 0.00058102 0.00000000
0.30920678 0.14243099 -0.00004202 0.00000000
2.86643708 2.21336067 0.00266035 0.00000000
1.81224511 2.30788157 0.00200088 0.00000000
1.75360529 0.17412479 -0.00304941 0.00000000
4.09012977 2.05129289 -0.00232389 0.00000000
2.96180149 1.64984785 -0.00213253 0.00000000
3.60791013 1.78619445 -0.00023753 0.00000000
2.94290113 0.37286287 0.00101829 0.00000000
1.70935951 0.79890948 -0.00137675 0.00000000
3.09153423 0.85892154 0.00193556 0.00000000
0.03018603 1.30696877 -0.00226121 0.00000000
0.53393123 0.76792896 -0.00122590 0.00000000
0.62388111 1.61753779 0.00494538 0.00000000
0.46095586 0.44585119 0.00184137 0.00000000
0.27414530 0.58892607 -0.00263227 0.00000000
3.67925833 1.43990176 0.00301039 0.00000000
2.93180045 0.47704674 0.00186363 0.00000000
1.61300120 1.25475428 0.00227123 0.00000000
0.08752211 0.16613835 -0.00035430 0.00000000
3.54990635 1.09556438 -0.00228779 0.00000000
2.53667255 1.56348605 0.00057719 0.00000000
2.87445447 2.09605680 0.00088152 0.00000000
0.93253947 0.74697462 0.00065838 0.00000000
0.17234656 1.78190216 -0.00067280 0.00000000
0.28398484 0.16808090 -0.00058999 0.00000000
2.50598195 0.03264022 -0.00025677 0.00000000
0.28177128 1.75394140 0.00042974 0.00000000
0.26576316 1.68908930 -0.00460535 0.00000000
0.28640824 0.86938768 0.00477162 0.00000000
1.17026334 1.34999158 -0.00262554 0.00000000
3.96543726 2.40455476 -0.00043585 0.00000000
1.78457258 1.98819353 -0.00424702 0.00000000
1.37654929 0.58056486 -0.00000992 0.00000000
0.90967507 1.04718251 0.00202835 0.00000000
3.42389832 2.18306939 0.00314245 0.00000000
1.79778153 2.37998579 0.00032215 0.00000000
3.35473446 0.98315360 0.00217882 0.00000000
3.51442420 1.55393209 -0.00140273 0.00000000
2.28562315 0.03923121 0.00256780 0.00000000
2.15857886 1.50565454 -0.00762343 0.00000000
3.69388450 1.78819893 -0.00302856 0.00000000
1.95911168 1.86256798 0.00027352 0.00000000
1.03856714 2.42338280 0.00157895 0.00000000
3.06199449 0.06486895 -0.00303758 0.00000000
1.78513384 2.01489493 0.00289260 0.00000000
2.51040758 1.42376501 -0.00266900 0.00000000
2.34339696 0.61176588 -0.00601671 0.00000000
1.73100057 2.32535321 -0.00254478 0.00000000
0.08689622 1.32944717 0.00312311 0.00000000
2.48587198 0.19002588 -0.00026166 0.00000000
4.00837255 0.48849554 0.00201566 0.00000000
0.69295530 1.12358145 0.00432987 0.00000000
0.29779151 2.02000538 0.00190013 0.00000000
1.25738451 1.95387146 -0.00585568 0.00000000
2.19437273 1.28221896 0.00212035 0.00000000
4.05160668 1.92134448 0.00111325 0.00000000
0.30468500 0.87893705 0.00037794 0.00000000
1.53114648 1.63520683 0.00127517 0.00000000
0.57813754 0.64864893 -0.00162009 0.00000000
0.72709078 0.34139271 -0.00643817 0.00000000
1.00305700 1.56122930 -0.00111266 0.00000000
0.10713853 1.70354347 0.00282804 0.00000000
1.00123621 0.02945597 0.00095797 0.00000000
2.58619076 0.91299682 0.00423915 0.00000000
2.93294905 0.26617843 0.00311341 0.00000000
0.24091675 2.13801018 -0.00013077 0.00000000
3.95049558 1.55575242 -0.00030323 0.00000000
0.61540525 0.29377128 -0.00167203 0.00000000
2.99147345 0.18265612 -0.00203720 0.00000000
0.56342661 2.18834172 -0.00120974 0.00000000
0.68190797 0.98523768 0.00117730 0.00000000
2.76029162 0.05174695 -0.00027105 0.00000000
2.42298634 2.37195119 -0.00187044 0.00000000
1.15329496 0.49122463 0.00119166 0.00000000
1.49116146 0.34283679 0.00467497 0.00000000
0.24956681 2.32956060 0.00079381 0.00000000
2.04826594 0.65933955 -0.00087978 0.00000000
3.28384252 1.00186581 0.00207205 0.00000000
1.58423385 0.72743025 -0.00355636 0.00000000
4.16813930 1.30867025 0.00314179 0.00000000
1.71779190 0.99242102 -0.00260926 0.00000000
2.13789445 2.17638535 -0.00039141 0.00000000
1.87814295 0.37492940 -0.00293720 0.00000000
1.35050063 0.73913833 0.00203252 0.00000000
2.00244334 0.55597627 -0.00092915 0.00000000
3.55486082 0.16759495 -0.00167864 0.00000000
0.89826617 1.76871698 -0.00390248 0.00000000
0.17342592 1.67354785 0.00081087 0.00000000
2.69268057 2.02954052 0.00017279 0.00000000
0.15780396 2.04804445 0.00120109 0.00000000
2.28255138 0.71166545 0.00253191 0.00000000
2.09788047 1.31697027 -0.00296952 0.00000000
3.95226167 0.12406339 -0.00363295 0.00000000
2.38973395 1.07620973 -0.00229324 0.00000000
3.23349170 1.06669051 -0.00035741 0.00000000
2.13611702 1.81462302 0.00078919 0.00000000
1.94745079 0.18508050 0.00056861 0.00000000
3.09816260 0.49942837 0.00042937 0.00000000
1.10676390 1.20031159 -0.00182592 0.00000000
0.88092351 0.10859586 0.00690917 0.00000000
3.29052092 1.81847829 -0.00138024 0.00000000
3.10519085 0.00274496 -0.00202534 0.00000000
3.74873019 1.14658606 -0.00064183 0.00000000
2.27531972 2.27418800 0.00029913 0.00000000
0.84052605 2.26180876 0.00007270 0.00000000
1.09412068 0.99478790 -0.00163532 0.00000000
3.26439228 2.31664844 -0.00029302 0.00000000
0.24718201 1.33589017 -0.00236041 0.00000000
0.85930605 1.08092505 -0.00242517 0.00000000
1.73388362 1.53530174 -0.00288495 0.00000000
1.63396551 0.67674428 -0.00391490 0.00000000
3.17412540 2.28302322 -0.00283584 0.00000000
3.26707647 0.70527984 0.00549813 0.00000000
1.62846657 1.77650893 0.00098485 0.00000000
3.82785786 2.28765914 -0.00255859 0.00000000
1.27442083 0.74958641 -0.00663919 0.00000000
2.21294970 0.69240017 0.00184890 0.00000000
2.94491469 0.61133257 -0.00031668 0.00000000
2.56664472 1.53058238 0.00178102 0.00000000
1.86643582 1.74137246 0.00463164 0.00000000
3.35380129 0.99407500 0.00060644 0.00000000
3.18543714 0.85721912 -0.00161631 0.00000000
0.59096992 2.36789199 0.00133618 0.00000000
2.41696767 1.68919652 -0.00169374 0.00000000
3.48598809 1.79973663 -0.00392488 0.00000000
1.37869601 1.73677571 0.00250622 0.00000000
3.86486280 0.75171061 0.00156537 0.00000000
2.14530293 1.85580476 -0.00044853 0.00000000
3.62273715 2.48188513 0.00054891 0.00000000
2.59767555 2.14651326 -0.00438315 0.00000000
1.29736431 0.24674897 -0.00102546 0.00000000
0.80313286 0.66423549 -0.00006120 0.00000000
1.55402123 2.38802978 -0.00260359 0.00000000
3.00948465 0.77891065 -0.00150795 0.00000000
1.68305549 0.01952945 -0.00193616 0.00000000
3.05774288 1.81146753 -0.00438275 0.00000000
4.06351258 0.59772280 0.00230011 0.00000000
1.82249772 1.08338019 0.00285851 0.00000000
4.16250662 1.73714380 -0.00118211 0.00000000
1.35558981 1.57187556 -0.00079613 0.00000000
1.55054628 1.91052217 -0.00099961 0.00000000
1.49954315 1.39749866 0.00131714 0.00000000
3.25363991 0.54272177 0.00351294 0.00000000
1.09180636 1.61251601 0.00012655 0.00000000
1.01090614 1.63665695 -0.00263225 0.00000000
2.33637803 0.98844168 0.00464353 0.00000000
0.40521986 1.44839170 -0.00319101 0.00000000
2.73997685 0.22218866 -0.00259011 0.00000000
3.63678577 1.27124161 -0.00567601 0.00000000
3.71053297 0.88783151 0.00426760 0.00000000
1.36160965 0.30921731 -0.00095715 0.00000000
2.13613583 1.50406363 -0.00166124 0.00000000
3.09170836 0.93102061 0.00109375 0.00000000
1.03442272 1.70623987 0.00076347 0.00000000
0.60110333 1.83944575 0.00056608 0.00000000
1.26309978 1.53489704 0.00024737 0.00000000
4.00427595 2.05142223 0.00135049 0.00000000
1.83530253 0.31283538 -0.00306081 0.00000000
2.40723978 0.95589360 -0.00042192 0.00000000
0.74363899 1.44452968 0.00084184 0.00000000
2.57253520 1.70544062 0.00070819 0.00000000
1.51190590 0.18250735 0.00213002 0.00000000
0.41917709 0.53935052 -0.00387535 0.00000000
0.09385589 1.28810671 -0.00470404 0.00000000
0.07611873 0.25336909 0.00094641 0.00000000
0.26110012 1.57654772 -0.00067401 0.00000000
1.19185342 1.25481380 0.00407197 0.00000000
1.86572241 2.07154150 0.00159373 0.00000000
1.65621098 1.11461313 0.00119764 0.00000000
3.02214817 0.09793328 0.00461376 0.00000000
2.82563200 1.63443945 -0.00062311 0.00000000
2.25467091 1.27667977 -0.00014617 0.00000000
3.80587539 2.17557632 -0.00162455 0.00000000
3.27297438 1.80942693 -0.00487814 0.00000000
3.47842424 1.20503030 -0.00239022 0.00000000
3.47732109 0.35043660 -0.00011917 0.00000000
1.35242850 2.33067537 0.00551416 0.00000000
1.21118688 1.92067091 -0.00113877 0.00000000
1.73539362 0.33532902 0.00107629 0.00000000
4.09097823 1.17487587 0.00503245 0.00000000
2.82364326 1.97307637 0.00516925 0.00000000
2.35106632 0.85307071 -0.00216064 0.00000000
1.32186461 1.22416899 -0.00163210 0.00000000
3.19687799 0.20542404 -0.00391394 0.00000000
0.20608970 2.10527623 -0.00094976 0.00000000
2.33683236 1.73100700 0.00009797 0.00000000
3.70666115 1.83416702 -0.00078108 0.00000000
2.30149158 0.33921894 -0.00328242 0.00000000
1.47498968 0.29344810 0.00229700 0.00000000
0.54854721 1.79077208 0.00267166 0.00000000
1.90718232 2.38760541 -0.00308603 0.00000000
2.88546825 2.47661943 -0.00044238 0.00000000
3.94981502 0.23670297 0.00395687 0.00000000
1.49797984 0.87788817 0.00111187 0.00000000
2.49480787 2.17555682 0.00056430 0.00000000
3.76878174 2.34724633 0.00383510 0.00000000
3.95241493 1.23161632 0.00249588 0.00000000
3.74284683 0.88346062 -0.00146682 0.00000000
0.65449024 1.36071237 0.00170891 0.00000000
2.97859409 2.00504527 -0.00456986 0.00000000
0.63250814 0.29193409 -0.00331633 0.00000000
3.64226864 0.04708451 -0.00019643 0.00000000
3.21610620 0.28440223 -0.00242204 0.00000000
0.19484503 0.26101895 0.00318517 0.00000000
1.07557911 1.41544462 -0.00205483 0.00000000
1.07950414 2.43576014 -0.00240765 0.00000000
0.18534715 2.13919435 -0.00365264 0.00000000
1.42324802 1.56662940 0.00031265 0.00000000
2.95194239 1.41643293 -0.00264176 0.00000000
3.26750975 1.63032276 0.00087692 0.00000000
0.92005913 2.20700698 0.00097973 0.00000000
2.69953164 1.19380194 -0.00057599 0.00000000
1.61439176 1.95613112 -0.00111331 0.00000000
0.16392198 1.53187517 -0.00329816 0.00000000
0.04770972 0.98138757 0.00257973 0.00000000
1.46977348 0.64029647 0.00133471 0.00000000
0.92693866 0.43927726 -0.00246737 0.00000000
3.24549972 2.26656697 -0.00032483 0.00000000
1.25574101 1.74989479 0.00314656 0.00000000
3.50991314 1.40615875 -0.00116455 0.00000000
1.71584104 0.44194022 0.00241936 0.00000000
3.95930528 2.20863123 0.00115751 0.00000000
1.13896910 1.72782885 0.00252061 0.00000000
2.87685240 1.10435786 0.00004104 0.00000000
0.27420153 1.78772854 0.00272668 0.00000000
1.78409773 2.36030080 -0.00120873 0.00000000
4.12317149 1.57135989 -0.00395261 0.00000000
0.35142038 1.23436392 -0.00064903 0.00000000
0.87982966 0.56474669 0.00377377 0.00000000
2.91309840 1.72088844 0.00088536 0.00000000
3.81513387 1.25722701 0.00150814 0.00000000
3.90692435 0.67511513 -0.00030448 0.00000000
3.07021483 1.42065207 -0.00354746 0.00000000
3.68979449 1.82088349 -0.00607177 0.00000000
2.34896259 0.16389777 0.00228853 0.00000000
0.13303777 1.71067176 0.00281045 0.00000000
3.95210321 0.40033599 0.00219220 0.00000000
4.13725295 1.30793052 0.00157709 0.00000000
3.42209225 0.00575245 -0.00188555 0.00000000
2.85287001 1.23988471 -0.00007397 0.00000000
3.99300414 1.18859840 0.00161193 0.00000000
0.62109533 0.26232129 -0.00421347 0.00000000
3.25819885 0.33864391 -0.00127418 0.00000000
0.69550487 2.10089702 0.00162083 0.00000000
2.93243935 0.54450672 -0.00222111 0.00000000
4.15950073 2.40068320 -0.00305886 0.00000000
0.88032938 0.66387470 0.00059945 0.00000000
3.34135704 1.75621321 0.00626717 0.00000000
1.88422301 1.00240758 0.00085006 0.00000000
1.92036233 0.05684037 0.00175053 0.00000000
0.12292414 0.83094600 0.00137224 0.00000000
1.71839143 2.04725676 -0.00050344 0.00000000
2.87598129 0.11778192 -0.00327638 0.00000000
2.49789262 2.01143195 -0.00082481 0.00000000
1.06939887 0.04805160 0.00262342 0.00000000
3.59045506 0.12039543 -0.00144879 0.00000000
2.20885586 2.34198816 -0.00000340 0.00000000
1.46001805 0.86784142 0.00418671 0.00000000
2.90110538 0.42598564 0.00283804 0.00000000
0.36745548 0.05906468 0.00365888 0.00000000
3.65775941 2.29212872 0.00356595 0.00000000
3.10341269 0.16461411 -0.00020153 0.00000000
2.04959929 0.66740437 -0.00265296 0.00000000
4.03892472 1.71717402 0.00070222 0.00000000
2.12790796 1.38651845 0.00041942 0.00000000
3.18462441 2.32311447 -0.00145946 0.00000000
1.06247004 1.09367532 0.00226490 0.00000000
3.43443601 0.77266168 -0.00200284 0.00000000
2.61789474 2.25775625 0.00152374 0.00000000
4.09990368 2.07029051 -0.00551402 0.00000000
3.82964455 1.48463608 -0.00200623 0.00000000
3.31365492 0.05711206 0.00154338 0.00000000
1.91431564 0.39503852 0.00001395 0.00000000
3.38382126 0.41648692 0.00034912 0.00000000
0.30362270 2.47541822 -0.00474870 0.00000000
3.13242179 2.31101690 0.00567685 0.00000000
2.28146542 1.32906090 0.00253879 0.00000000
2.26711530 2.47371726 -0.00040356 0.00000000
2.07216434 0.44755098 -0.00546801 0.00000000
3.07236188 1.90950783 0.00032275 0.00000000
1.44603922 0.74166674 0.00086573 0.00000000
1.86803336 2.18659725 0.00032100 0.00000000
1.73803656 1.38360463 -0.00289164 0.00000000
1.20157415 2.35228599 -0.00046351 0.00000000
3.19183514 2.26831587 0.00038291 0.00000000
2.92466858 1.39515754 -0.00230553 0.00000000
1.13526675 1.93990816 0.00310084 0.00000000
4.15092262 0.89719451 -0.00141235 0.00000000
1.62506798 1.06267434 0.00161135 0.00000000
2.77944974 2.40695518 -0.00276263 0.00000000
3.63117806 1.56096851 0.00008548 0.00000000
1.67063826 0.91082565 0.00484991 0.00000000
1.52707353 1.29036715 -0.00230245 0.00000000
1.59244060 1.56813128 -0.00055272 0.00000000
0.86648188 0.32009157 -0.00430519 0.00000000
3.57112086 0.39450131 0.00162223 0.00000000
0.04062116 0.95327122 -0.00227575 0.00000000
3.19791281 0.93830019 -0.00032127 0.00000000
1.86106239 0.79814014 0.00267121 0.00000000
4.07113372 1.61847857 0.00022483 0.00000000
4.05039558 1.86198414 -0.00245547 0.00000000
3.58585222 0.15608506 -0.00260227 0.00000000
1.35126052 2.38890988 0.00503345 0.00000000
1.98462065 1.17851094 0.00019864 0.00000000
1.22955400 2.23810373 0.00206229 0.00000000
0.14984592 1.21126502 0.00019456 0.00000000
0.34528615 0.31850875 0.00376214 0.00000000
2.55178231 0.89218297 -0.00104563 0.00000000
2.88680365 0.65200626 -0.00205721 0.00000000
2.21421448 2.08288998 -0.00012705 0.00000000
0.37801477 1.93170146 0.00131978 0.00000000
1.79226141 1.92978683 0.00124294 0.00000000
1.28709312 0.88908163 0.00238173 0.00000000
3.08831570 1.50912452 0.00245466 0.00000000
2.45345396 0.91159545 0.00046192 0.00000000
3.83202557 1.33506944 -0.00039255 0.00000000
4.10002869 0.43282677 0.00288873 0.00000000
0.82095221 0.53371163 0.00113097 0.00000000
3.31138911 1.61213939 -0.00228470 0.00000000
1.71857981 0.45742533 0.00016996 0.00000000
0.29690905 0.45612890 -0.00346187 0.00000000
2.72742002 1.16869612 -0.00229101 0.00000000
4.02829645 1.64581792 -0.00408709 0.00000000
2.41261731 0.26891210 -0.00327829 0.00000000
0.90350481 1.60321560 -0.00189195 0.00000000
1.53240404 2.45409930 -0.00025473 0.00000000
1.50288358 0.93046423 0.00118401 0.00000000
0.33007424 2.23250210 0.00523324 0.00000000
0.32702740 2.11705482 -0.00180000 0.00000000
0.53008507 1.48314772 0.00129966 0.00000000
4.11257761 0.70630592 -0.00095194 0.00000000
2.83788212 2.28111044 -0.00095491 0.00000000
0.66647535 0.77724432 -0.00003004 0.00000000
4.16420884 2.27030835 0.00107379 0.00000000
1.94178737 2.04138118 -0.00344595 0.00000000
4.08197526 1.94310917 -0.00038720 0.00000000
2.06212271 0.79141582 -0.00033776 0.00000000
3.51110534 2.47589765 0.00694135 0.00000000
3.03493758 1.20634264 -0.00124167 0.00000000
0.99405140 0.69374835 0.00111795 0.00000000
0.50427051 2.20158664 0.00465867 0.00000000
3.29559227 1.72688036 0.00328981 0.00000000
0.76379409 1.51590589 -0.00149553 0.00000000
2.93439299 0.07967448 -0.00017410 0.00000000
1.24623964 1.80526000 -0.00265423 0.00000000
2.52586457 0.84216231 -0.00389888 0.00000000
2.30222211 0.26269823 -0.00175912 0.00000000
0.76646194 0.05651909 -0.00144419 0.00000000
0.03550775 2.22181350 -0.00052973 0.00000000
2.11457235 2.41404160 -0.00132606 0.00000000
1.55210396 0.18453445 -0.00113960 0.00000000
0.60738500 1.62444691 -0.00181550 0.00000000
0.84281591 1.45451490 0.00179605 0.00000000
0.57658196 0.31819962 0.00175362 0.00000000
1.16831657 1.97002624 0.00069387 0.00000000
3.21734036 2.18721568 0.00215126 0.00000000
0.67058377 0.03313595 0.00387853 0.00000000
3.96074516 1.59338648 0.00178939 0.00000000
1.05846345 1.84170806 0.00534426 0.00000000
3.69307024 0.21647587 0.00085005 0.00000000
0.99701242 1.33057353 0.00065210 0.00000000
2.54962332 1.70838606 -0.00356632 0.00000000
0.84173012 1.09235163 -0.00209270 0.00000000
3.55873679 0.74114514 -0.00509886 0.00000000
1.92682107 2.05954339 0.00040043 0.00000000
2.58686581 1.24900573 -0.00233433 0.00000000
2.38225985 2.05017804 -0.00240319 0.00000000
2.67295375 0.97474189 -0.00285073 0.00000000
0.07021644 1.59727038 0.00364774 0.00000000
0.40888921 1.94447135 0.00285915 0.00000000
2.79731685 1.82958433 -0.00400747 0.00000000
1.26317116 1.10997341 0.00763741 0.00000000
0.18724614 1.94045214 0.00271617 0.00000000
2.50451844 1.07662507 0.00001680 0.00000000
2.20848365 2.07332552 -0.00219107 0.00000000
1.50097935 0.46191830 0.00091206 0.00000000
2.61508778 0.81684129 0.00023258 0.00000000
2.02551238 1.13969330 0.00148949 0.00000000
2.12940828 0.44227379 0.00421279 0.00000000
3.40497519 0.05949847 -0.00237981 0.00000000
0.66798862 0.09124709 -0.00047051 0.00000000
3.88932861 1.29433126 -0.00100945 0.00000000
2.80544803 2.41100229 0.00274495 0.00000000
0.69620525 1.20418924 0.00265730 0.00000000
3.90110222 0.06715591 -0.00223481 0.00000000
1.02635257 0.07888843 -0.00136716 0.00000000
2.36699443 0.29471585 0.00365050 0.00000000
4.02443596 0.22472593 0.00164049 0.00000000
2.63011128 0.17707255 -0.00239394 0.00000000
2.42958589 0.03231417 0.00278360 0.00000000
4.05074209 0.05498990 0.00074419 0.00000000
0.25414276 0.44764519 -0.00123014 0.00000000
1.17848294 2.24762261 -0.00361487 0.00000000
1.40184946 2.46703751 0.00638934 0.00000000
3.31275324 1.38137383 -0.00148142 0.00000000
0.68361613 0.93932479 -0.00136092 0.00000000
1.24851345 0.18027243 -0.00271994 0.00000000
3.20938032 2.03017648 -0.00086014 0.00000000
3.42326501 0.26579608 0.00006675 0.00000000
3.69695329 0.58970978 0.00225461 0.00000000
0.92342041 1.95496016 0.00071928 0.00000000
1.32755876 0.02631246 -0.00153393 0.00000000
2.11254456 2.20528016 -0.00422686 0.00000000
1.42166185 0.33477577 -0.00248596 0.00000000
3.44964226 2.11460779 -0.00015187 0.00000000
2.65177195 2.40382114 0.00136394 0.00000000
2.38836759 1.02806901 -0.00015045 0.00000000
1.73017202 1.87644585 0.00098117 0.00000000
2.00667520 1.39404984 -0.00402909 0.00000000
3.13614180 0.09185793 -0.00399047 0.00000000
2.64637355 1.27453233 0.00163242 0.00000000
4.17033706 1.18729219 -0.00484503 0.00000000
0.24370779 1.72936625 0.00222522 0.00000000
2.14537061 1.08691164 0.00455297 0.00000000
2.98056325 0.77720323 -0.00015423 0.00000000
0.70628017 2.09090040 -0.00159827 0.00000000
2.52072405 0.88501849 0.00056197 0.00000000
1.14307433 0.61238247 -0.00291695 0.00000000
1.26424140 1.19732609 0.00270682 0.00000000
0.03997798 1.33843038 -0.00013712 0.00000000
1.34629232 1.92883507 -0.00035470 0.00000000
0.69199607 0.79954652 -0.00281642 0.00000000
1.91201609 0.20136341 -0.00195884 0.00000000
2.93652824 2.06672198 -0.00380243 0.00000000
1.43789811 1.74635202 -0.00319038 0.00000000
2.54175204 1.94610586 -0.00342289 0.00000000
2.67657367 1.24155627 0.00643070 0.00000000
2.25145450 1.63082419 -0.00159928 0.00000000
1.90682566 0.06060396 -0.00045308 0.00000000
1.26388983 1.59287179 0.00201213 0.00000000
3.41127201 1.67997799 0.00033768 0.00000000
1.01229445 2.15207503 0.00132277 0.00000000
4.00929149 2.44304543 -0.00565160 0.00000000
2.62046213 2.40550531 0.00017714 0.00000000
0.32646832 0.12282307 0.00224724 0.00000000
1.11335869 0.73683944 0.00103776 0.00000000
3.86191557 2.21635527 0.00092489 0.00000000
4.17174960 1.42799709 0.00242624 0.00000000
2.80292278 0.11796058 -0.00030127 0.00000000
3.55908608 1.62005717 0.00165559 0.00000000
1.29222035 0.40868911 -0.00241220 0.00000000
0.87280543 0.91380494 0.00224888 0.00000000
2.57436924 1.57392725 0.00248500 0.00000000
0.93229752 1.63277780 -0.00111097 0.00000000
0.87052820 1.85717202 -0.00286605 0.00000000
2.78695631 0.84377831 -0.00405718 0.00000000
1.69090255 0.08902733 0.00076436 0.00000000
2.54846670 2.22622319 -0.00021293 0.00000000
0.84838316 0.79989428 -0.00029012 0.00000000
3.92353955 2.22722694 -0.00362099 0.00000000
3.54304428 1.25626603 0.00093535 0.00000000
3.84290909 0.58371747 0.00238563 0.00000000
0.53251928 0.43434638 0.00176255 0.00000000
3.17557843 1.76514499 0.00022823 0.00000000
2.80042966 0.74163190 -0.00009571 0.00000000
2.47656207 1.64777623 0.00073306 0.00000000
2.20602404 0.63583079 -0.00227904 0.00000000
1.30651958 1.81252465 -0.00265113 0.00000000
2.65545007 0.49125252 0.00020192 0.00000000
3.20427251 0.58033719 -0.00082802 0.00000000
3.82336442 0.83525974 0.00030610 0.00000000
1.93342882 0.07995857 0.00541816 0.00000000
0.89083057 0.57083313 -0.00154569 0.00000000
3.73200681 1.85742312 -0.00036219 0.00000000
3.72151917 1.66074935 -0.00150535 0.00000000
0.82114043 0.55599821 -0.00798426 0.00000000
0.08586913 0.50181614 -0.00054217 0.00000000
3.48897456 2.25854853 -0.00281089 0.00000000
1.09863371 2.18344770 0.00165235 0.00000000
2.49616278 0.11918674 -0.00054293 0.00000000
2.43545286 0.40434583 -0.00006480 0.00000000
0.20340589 0.55013533 0.00381757 0.00000000
4.00865163 2.09621393 0.00284186 0.00000000
3.40269711 0.95610818 -0.00132428 0.00000000
1.66855826 0.19993099 -0.00036622 0.00000000
0.90473975 0.11050508 0.00088181 0.00000000
1.70411819 0.47297556 -0.00076566 0.00000000
0.24167992 1.88221798 0.00126509 0.00000000
0.03788963 2.47015269 -0.00120842 0.00000000
0.93886319 0.97083537 0.00029110 0.00000000
2.83786296 0.60458064 0.00165584 0.00000000
3.73639832 0.55923570 -0.00030036 0.00000000
1.11925250 1.28829697 0.00168024 0.00000000
0.22614816 1.70526313 0.00015769 0.00000000
3.38433051 0.25971658 -0.00278709 0.00000000
2.78712435 1.28230012 -0.00224975 0.00000000
1.16089828 0.22406085 0.00180502 0.00000000
2.21956346 0.52026042 -0.00209719 0.00000000
3.69596561 1.94518761 -0.00091932 0.00000000
2.49497951 1.35273504 0.00356638 0.00000000
3.18769118 2.02915553 -0.00384913 0.00000000
0.30988524 1.78748768 -0.00128912 0.00000000
0.72401331 2.02259796 -0.00119576 0.00000000
1.59384331 0.35892422 -0.00118783 0.00000000
2.62760513 2.04782445 -0.00196859 0.00000000
4.00297783 1.63917814 -0.00499054 0.00000000
0.33829300 0.45828226 -0.00270927 0.00000000
3.86081965 0.68727193 0.00082706 0.00000000
1.14141083 1.47992890 -0.00273085 0.00000000
2.25782480 1.07424144 -0.00136584 0.00000000
2.77410988 0.22573024 0.00057993 0.00000000
0.70171672 0.21656537 -0.00135719 0.00000000
4.15667198 0.06891809 0.00169070 0.00000000
3.65922412 2.17341160 0.00173328 0.00000000
0.77851915 2.45585764 0.00194102 0.00000000
2.46185428 0.13260838 0.00216307 0.00000000
3.21515301 2.17004943 -0.00218754 0.00000000
2.22185063 0.98087179 -0.00228775 0.00000000
0.20124621 1.39109854 -0.00470405 0.00000000
2.99413741 0.79775663 -0.00427914 0.00000000
0.15983662 2.40706647 -0.00078645 0.00000000
4.00026084 1.66271927 0.00168050 0.00000000
1.67332915 2.45467575 -0.00066079 0.00000000
4.11841085 1.26544316 -0.00317796 0.00000000
3.68644158 0.03907525 0.00228877 0.00000000
0.41011917 1.76908975 0.00215486 0.00000000
1.34413749 0.13194079 0.00110973 0.00000000
2.74611780 0.66394693 0.00368148 0.00000000
3.10378815 0.31239014 -0.00117174 0.00000000
1.39577438 0.20324429 -0.00297648 0.00000000
2.69438774 1.77602509 0.00129517 0.00000000
0.17075564 1.77229521 0.00118009 0.00000000
1.94259908 1.69954524 0.00133253 0.00000000
1.75664913 0.60381253 -0.00131578 0.00000000
2.84910148 0.28722889 -0.00419847 0.00000000
0.57088073 0.74807017 0.00179761 0.00000000
0.57077367 2.29309618 -0.00068917 0.00000000
2.67955053 1.24448197 -0.00061636 0.00000000
1.58038575 0.09827303 -0.00087496 0.00000000
0.53730222 1.91262440 0.00470744 0.00000000
1.16655237 0.08030634 -0.00472335 0.00000000
1.98629043 2.14349136 -0.00094176 0.00000000
0.36046068 2.33525836 0.00226575 0.00000000
1.95354158 1.41003658 0.00189520 0.00000000
1.56787189 0.85743089 0.00296896 0.00000000
2.46262733 0.17296696 0.00168045 0.00000000
0.15328157 0.55643188 0.00366299 0.00000000
0.73650263 0.37410286 -0.00231507 0.00000000
3.32448320 0.77870329 -0.00169581 0.00000000
0.89380689 1.26739191 0.00248177 0.00000000
3.20785499 1.75839687 0.00071037 0.00000000
0.04686607 1.34824120 0.00238827 0.00000000
2.79324482 2.03184529 0.00123311 0.00000000
3.95017822 0.30074258 -0.00493122 0.00000000
1.66998121 1.91103272 0.00062466 0.00000000
0.98540202 0.99941773 0.00045147 0.00000000
0.73484099 2.04686542 -0.00048425 0.00000000
3.53280028 2.17212052 -0.00051239 0.00000000
2.06522686 1.86592061 0.00343525 0.00000000
1.12170171 2.18530515 0.00420616 0.00000000
2.36445827 0.24107382 -0.00113730 0.00000000
2.15806468 2.09496312 0.00132176 0.00000000
0.11562878 1.62872856 -0.00355263 0.00000000
1.28277922 0.59754898 -0.00029588 0.00000000
0.22849932 1.95074608 0.00128759 0.00000000
0.32469685 2.03478262 -0.00169409 0.00000000
2.75197736 0.86238425 0.00294431 0.00000000
1.96544421 0.45750439 0.00001785 0.00000000
3.39773986 0.86393683 -0.00157819 0.00000000
2.59582765 1.47241202 0.00155539 0.00000000
0.51200295 2.23271848 -0.00113423 0.00000000
3.10995884 1.98035021 -0.00403099 0.00000000
2.15087539 1.61821670 0.00509770 0.00000000
2.12238294 1.57067570 -0.00369339 0.00000000
1.52250905 1.62936670 -0.00203871 0.00000000
0.84289937 1.70113044 -0.00041275 0.00000000
3.36115530 0.31545192 0.00051169 0.00000000
3.18351413 2.46703849 0.00559913 0.00000000
3.44857361 1.04190918 0.00082903 0.00000000
1.59469251 1.04111705 -0.00159592 0.00000000
2.26763915 1.55005626 -0.00371742 0.00000000
2.48006180 2.23940255 -0.00420273 0.00000000
1.26262073 2.40944223 0.00096502 0.00000000
1.88172254 0.35287660 0.00049411 0.00000000
3.61790184 1.07354576 -0.00089414 0.00000000
0.09036229 0.73693493 -0.00103656 0.00000000
3.31122045 0.74169952 -0.00144311 0.00000000
2.28705515 2.23804963 -0.00063423 0.00000000
2.79928967 1.69023301 -0.00005260 0.00000000
3.69804106 0.81424531 0.00142489 0.00000000
2.29194009 1.82308686 -0.00106166 0.00000000
2.64079904 2.37599277 0.00321884 0.00000000
3.27057382 1.63021486 -0.00090248 0.00000000
3.77709681 1.61762851 -0.00278959 0.00000000
1.20985109 1.51219028 0.00870536 0.00000000
3.99120035 0.64759489 -0.00112958 0.00000000
3.36142884 1.71208459 0.00008716 0.00000000
1.22924342 0.50001030 0.00107706 0.00000000
1.64900447 0.46621006 -0.00477916 0.00000000
1.86460450 0.52258078 0.00124918 0.00000000
4.06497524 1.96504086 0.00191284 0.00000000
0.39179009 2.12379108 -0.00591788 0.00000000
0.26587422 2.22677814 0.00397856 0.00000000
1.05568739 1.80121130 0.00053408 0.00000000
1.41911574 1.26719381 -0.00064431 0.00000000
1.15483651 1.76613317 -0.00082978 0.00000000
0.96610884 0.88736100 -0.00023406 0.00000000
3.78190562 1.27778653 -0.00228789 0.00000000
0.15306920 0.07258081 -0.00162657 0.00000000
1.30502548 1.16695239 0.00322333 0.00000000
1.00978509 0.35727895 -0.00262784 0.00000000
1.74554315 0.32360996 0.00038514 0.00000000
0.47372844 2.03594341 0.00104892 0.00000000
0.51302369 0.98778770 -0.00354763 0.00000000
0.00762250 1.32506470 -0.00089117 0.00000000
1.26614483 1.92755163 0.00029551 0.00000000
3.02988297 0.34540326 -0.00499963 0.00000000
0.37892195 1.78399403 0.00065553 0.00000000
0.24751625 2.34955820 0.00233618 0.00000000
1.91143593 0.29271607 -0.00070912 0.00000000
1.18447288 2.15878922 0.00139993 0.00000000
0.45594079 0.37484881 0.00163918 0.00000000
2.47253286 0.95961877 -0.00212629 0.00000000
1.75162672 1.23469633 0.00121424 0.00000000
3.31749949 1.36888088 -0.00334074 0.00000000
2.95513232 1.09260743 0.00261941 0.00000000
0.35808325 1.00072176 -0.00107099 0.00000000
2.83622872 1.40143791 0.00374774 0.00000000
0.65618350 0.44221703 0.00062881 0.00000000
0.99992618 1.49590521 -0.00504395 0.00000000
1.38888672 1.32406440 -0.00250861 0.00000000
3.72427827 1.45124211 0.00040467 0.00000000
1.24601006 1.92487530 -0.00009075 0.00000000
2.03404115 2.14611769 0.00045836 0.00000000
0.79467843 0.57934101 0.00140544 0.00000000
2.02997927 1.00100093 0.00406082 0.00000000
3.01123047 0.01224040 0.00195382 0.00000000
1.10468598 0.23424054 0.00127353 0.00000000
1.90231785 0.83661532 0.00396332 0.00000000
3.87902089 0.71007047 -0.00057740 0.00000000
3.38970523 1.62556718 0.00252147 0.00000000
0.24602632 0.93466937 -0.00247168 0.00000000
1.17185347 1.78891340 0.00347377 0.00000000
0.62388383 0.51978728 -0.00166313 0.00000000
2.02138616 0.80232183 0.00268287 0.00000000
1.99176157 0.18466506 -0.00530633 0.00000000
0.30426294 1.45986615 0.00004948 0.00000000
4.15529917 1.89012711 0.00101712 0.00000000
0.48862615 2.22849799 -0.00168621 0.00000000
4.00065246 1.18190009 0.00037054 0.00000000
0.52223820 0.57108956 0.00164033 0.00000000
2.44633740 2.44813054 -0.00219870 0.00000000
0.65951072 1.72022228 0.00102612 0.00000000
3.69939053 1.86328521 0.00101597 0.00000000
1.04295905 0.97809088 -0.00151687 0.00000000
3.80507482 1.95560436 0.00104677 0.00000000
1.00823163 2.46683554 0.00146807 0.00000000
0.17198556 0.60761096 -0.00569526 0.00000000
3.10531602 2.37985741 0.00024818 0.00000000
1.15905372 1.62068817 0.00208110 0.00000000
3.72339909 1.56602345 -0.00305595 0.00000000
1.63903771 2.22705233 -0.00000528 0.00000000
2.36919897 1.96570555 0.00245446 0.00000000
1.39088472 0.69897935 0.00096755 0.00000000
0.91636083 0.66415126 -0.00093367 0.00000000
2.35378295 0.10512737 -0.00070806 0.00000000
0.65539852 1.12834771 0.00069749 0.00000000
2.66676348 1.29147726 -0.00277381 0.00000000
0.83255880 1.16038600 0.00072059 0.00000000
1.40386974 0.66383167 -0.00044717 0.00000000
2.43167976 0.28717223 -0.00276243 0.00000000
1.56880136 1.06942745 -0.00067698 0.00000000
0.97200022 2.07795643 0.00392487 0.00000000
1.98194774 0.17657194 -0.00258722 0.00000000
1.13975252 1.43540742 -0.00131260 0.00000000
4.09089645 0.81741417 -0.00026834 0.00000000
3.45907700 0.44568112 0.00267014 0.00000000
4.07352211 1.41552149 -0.00306365 0.00000000
3.34800289 0.10410291 0.00236699 0.00000000
1.01179638 2.26218138 -0.00025836 0.00000000
3.50010710 2.15659768 -0.00146548 0.00000000
0.95955474 0.44784355 -0.00280356 0.00000000
3.46537738 0.42304696 -0.00262866 0.00000000
0.63315526 0.48563659 -0.00372803 0.00000000
3.54952985 1.22667948 0.00109361 0.00000000
2.12969625 0.98990872 -0.00028677 0.00000000
0.41563662 0.62720072 -0.00158724 0.00000000
1.08388838 0.31415944 -0.00152709 0.00000000
0.49247620 1.88423298 0.00041393 0.00000000
2.11156545 0.82098032 0.00450053 0.00000000
1.22503259 1.43235758 -0.00139497 0.00000000
3.15567419 1.15597186 0.00359807 0.00000000
0.80225744 2.17343284 -0.00135137 0.00000000
1.20611915 2.17258076 0.00145454 0.00000000
3.93573151 2.06047058 -0.00424900 0.00000000
1.28445319 0.89585405 0.00014705 0.00000000
2.12300117 2.31376316 0.00109283 0.00000000
3.72391003 0.02086839 0.00047767 0.00000000
0.66607142 1.41336615 0.00322833 0.00000000
1.88600044 2.14690592 0.00070688 0.00000000
3.58648107 1.11503501 0.00055188 0.00000000
3.82593089 1.18270668 0.00262870 0.00000000
3.55686911 1.99549394 0.00022846 0.00000000
1.88213906 1.37084961 -0.00603564 0.00000000
1.61946625 0.47967080 -0.00208029 0.00000000
2.11246883 0.13801638 -0.00179704 0.00000000
1.21693990 1.80853019 0.00251409 0.00000000
0.98773223 2.12417249 -0.00460425 0.00000000
1.50474607 2.18503656 0.00039840 0.00000000
1.24434338 0.45416325 0.00234245 0.00000000
1.24856666 1.09536162 -0.00051222 0.00000000
3.18549686 2.30029763 0.00232968 0.00000000
0.32385547 0.35647751 -0.00331653 0.00000000
2.85371990 1.88062646 -0.00196897 0.00000000
0.41100997 2.00264874 0.00076747 0.00000000
2.62621652 2.40570789 0.00240232 0.00000000
2.32387203 1.98370582 0.00088229 0.00000000
3.87554702 1.52529558 -0.00272778 0.00000000
1.26348295 1.03049230 0.00149973 0.00000000
0.86741616 2.33395112 0.00141282 0.00000000
1.63267510 1.72459900 -0.00303125 0.00000000
2.57756277 1.13654372 0.00274817 0.00000000
3.35623334 2.25090733 0.00556840 0.00000000
0.95814019 2.13207082 -0.00007197 0.00000000
0.10185624 0.33947774 -0.00030214 0.00000000
3.02235581 1.37336485 -0.00171111 0.00000000
2.65133124 1.65422081 -0.00344004 0.00000000
1.93720427 0.90289413 -0.00144501 0.00000000
3.04636108 0.91574467 -0.00035857 0.00000000
0.22948193 0.73137974 0.00352062 0.00000000
1.67807928 1.59786646 0.00120131 0.00000000
0.11027740 1.84559526 0.00226498 0.00000000
2.10692064 1.60558252 0.00192341 0.00000000
2.04413338 0.45552559 0.00328208 0.00000000
4.03099108 0.28877472 -0.00248927 0.00000000
1.49872174 0.83084495 -0.00205799 0.00000000
1.25613453 2.04885057 -0.00036006 0.00000000
0.05823659 1.69910792 -0.00185144 0.00000000
2.73205629 0.79846652 -0.00286121 0.00000000
1.19703136 0.18956086 0.00070284 0.00000000
0.53372788 0.06026132 -0.00369108 0.00000000
0.13874272 0.42817381 0.00366343 0.00000000
2.02920651 1.01871556 -0.00349354 0.00000000
0.01169059 0.19721639 -0.00145087 0.00000000
0.12986284 1.21424936 0.00037604 0.00000000
3.86536988 0.52877877 -0.00032745 0.00000000
2.20579026 1.13250879 0.00187823 0.00000000
0.63901810 1.21246622 0.00011399 0.00000000
0.91304423 1.87113176 0.00052800 0.00000000
0.18950123 2.13645137 -0.00026169 0.00000000
1.33318414 0.42143614 0.00116170 0.00000000
0.30025733 2.00155899 -0.00012603 0.00000000
1.66925871 1.82128710 0.00357882 0.00000000
2.97216904 1.27558259 0.00339858 0.00000000
3.36250898 1.41893705 -0.00015247 0.00000000
1.75226366 0.90935613 0.00015811 0.00000000
3.03528704 0.14119225 0.00195407 0.00000000
0.38941739 2.00689818 0.00028209 0.00000000
2.22543461 2.44632747 -0.00336710 0.00000000
1.72611217 0.53724626 -0.00323082 0.00000000
2.70833748 0.49162961 -0.00115956 0.00000000
4.12683617 2.23582650 0.00115738 0.00000000
3.77306679 1.62502053 -0.00110818 0.00000000
4.05767054 0.78125547 -0.00447454 0.00000000
2.50562321 0.59072170 -0.00208167 0.00000000
0.29551098 1.60309530 -0.00137384 0.00000000
1.11948147 0.97922614 0.00116963 0.00000000
1.41175835 0.81196891 0.00142371 0.00000000
2.77893115 0.39696684 0.00366555 0.00000000
0.03522050 1.96378604 -0.00265102 0.00000000
3.70923327 2.27824474 0.00371722 0.00000000
2.17339189 2.26375115 0.00004288 0.00000000
2.80475340 0.51063898 -0.00032369 0.00000000
0.38481490 0.23603709 0.00038228 0.00000000
0.56889707 0.13471077 0.00064063 0.00000000
1.30843458 1.37835705 0.00076894 0.00000000
3.36559289 1.24878787 0.00411180 0.00000000
1.49821698 2.22380540 -0.00197466 0.00000000
3.67399993 1.22001206 -0.00165075 0.00000000
2.01020187 0.86316848 0.00568403 0.00000000
1.71233065 1.89984645 -0.00248404 0.00000000
0.74538790 1.27268722 -0.00008788 0.00000000
3.40168957 0.52447407 0.00098477 0.00000000
0.41618026 0.55440851 -0.00006318 0.00000000
1.66886672 1.29866916 0.00289794 0.00000000
0.53119486 0.78711463 0.00099843 0.00000000
0.84760594 1.88347492 0.00102356 0.00000000
1.09916758 1.05885539 0.00093356 0.00000000
1.92512993 2.25810958 -0.00372219 0.00000000
0.78973335 1.02091337 0.00236253 0.00000000
1.79378821 1.59527026 -0.00036700 0.00000000
1.39270933 0.31106888 -0.00136345 0.00000000
2.82443245 1.58938179 -0.00125979 0.00000000
0.51315767 0.33656464 0.00138339 0.00000000
1.08465050 1.30382127 0.00208268 0.00000000
0.14726168 1.54191749 0.00074948 0.00000000
1.11753521 0.64084262 0.00062666 0.00000000
3.15883228 0.57497763 -0.00738647 0.00000000
2.44772904 0.29099784 -0.00026443 0.00000000
2.47298130 1.27388556 0.00233427 0.00000000
3.81546518 0.87045849 -0.00102202 0.00000000
0.97471595 1.38173087 -0.00040749 0.00000000
2.85054130 1.77670509 0.00092484 0.00000000
3.52729513 2.40246221 -0.00166176 0.00000000
1.54925473 2.27538661 0.00138317 0.00000000
0.83593112 0.90737493 0.00037330 0.00000000
1.03257837 2.12586121 -0.00009122 0.00000000
1.06986040 0.56378634 -0.00194219 0.00000000
2.09247194 0.05886457 -0.00077888 0.00000000
4.11797883 0.23602779 0.00458556 0.00000000
2.42622124 1.79661973 0.00182933 0.00000000
2.81490431 1.05351310 0.00633454 0.00000000
2.70828929 0.44782269 0.00053691 0.00000000
2.06627111 0.96259272 0.00643302 0.00000000
2.16568157 1.86925623 -0.00391784 0.00000000
3.44307191 0.62126930 -0.00444469 0.00000000
2.98356937 2.38852411 -0.00098799 0.00000000
1.46132865 1.54752948 0.00313608 0.00000000
3.76468641 0.94511882 -0.00383012 0.00000000
0.42798717 2.48226719 -0.00172537 0.00000000
0.00231533 0.65351828 0.00237904 0.00000000
2.76312116 1.57442493 0.00048186 0.00000000
0.60993270 2.11020797 -0.00232636 0.00000000
2.78311320 2.06097982 0.00018106 0.00000000
3.36630570 2.20497334 0.00078738 0.00000000
3.66572632 0.50191840 -0.00062204 0.00000000
1.87316876 1.82826829 -0.00436675 0.00000000
4.13039941 0.97901282 0.00004634 0.00000000
0.34571065 1.72313967 -0.00017211 0.00000000
2.63763335 1.48475313 0.00180344 0.00000000
3.82356496 1.02309230 -0.00074955 0.00000000
3.37749965 1.89951680 -0.00082566 0.00000000
4.05452150 1.00948890 -0.00254045 0.00000000
1.49967662 1.22485259 0.00190379 0.00000000
0.39656837 0.13254467 0.00365075 0.00000000
3.77779253 0.12655441 -0.00088451 0.00000000
2.50679074 1.75369600 -0.00215438 0.00000000
0.09893058 1.26243308 -0.00230815 0.00000000
0.51138553 1.14975664 0.00043524 0.00000000
1.06878854 1.61456048 -0.00465167 0.00000000
2.43159190 1.85301707 0.00095964 0.00000000
2.20583661 0.99583769 -0.00193842 0.00000000
2.26785437 2.34207247 0.00362309 0.00000000
3.04916994 0.25108455 0.00105775 0.00000000
3.73416881 1.26250556 -0.00153147 0.00000000
