3.536488 0.629145 0.001137 0.0
0.146529 1.246274 0.002257 0.0
3.387396 0.901624 -0.000515 0.0
3.596247 0.045602 0.001606 0.0
4.281465 0.516524 -0.001239 0.0
4.108687 0.936449 0.000701 0.0
1.314327 1.573428 0.001299 0.0
0.950926 1.609319 -0.002501 0.0
2.715091 0.745399 -0.000667 0.0
4.735701 0.670038 0.002586 0.0
2.782202 0.611186 0.000541 0.0
1.170650 0.866252 0.001186 0.0
3.318569 1.112148 -0.001248 0.0
4.361462 0.693187 0.000654 0.0
2.683263 1.129384 0.005377 0.0
3.469169 1.725893 0.001026 0.0
2.172785 0.901414 0.000421 0.0
0.478971 0.897801 0.000169 0.0
3.216198 0.929660 -0.000342 0.0
3.906008 0.423794 0.006134 0.0
1.686895 1.690433 0.000710 0.0
0.926114 1.687117 0.002923 0.0
0.898248 0.884980 0.001579 0.0
4.316552 0.270523 0.005483 0.0
1.880820 0.158374 -0.003955 0.0
1.822099 1.368602 -0.000673 0.0
0.044126 0.384705 -0.003761 0.0
3.945872 1.496295 0.004281 0.0
0.745525 1.077189 -0.004607 0.0
1.198221 0.980560 -0.000374 0.0
2.869769 0.040349 0.006746 0.0
3.564078 1.662551 0.000111 0.0
0.440741 0.358578 -0.001882 0.0
3.521664 1.595713 -0.001031 0.0
0.190166 1.163780 -0.000985 0.0
2.276043 0.179934 -0.003900 0.0
1.760099 0.675471 -0.000217 0.0
1.119632 0.769472 -0.001847 0.0
3.336553 1.270098 0.002382 0.0
4.540362 0.489687 0.005113 0.0
0.860747 0.664012 0.004792 0.0
1.659510 1.009048 -0.004223 0.0
1.715225 1.463698 -0.003841 0.0
1.189140 1.694803 -0.000440 0.0
1.870791 1.650597 0.002213 0.0
4.267377 0.318395 0.001613 0.0
2.907905 0.835999 -0.002423 0.0
0.202720 1.128603 0.000506 0.0
2.923855 1.652589 -0.003191 0.0
0.845335 1.737870 -0.001836 0.0
3.524160 0.606125 -0.004304 0.0
2.358159 0.958154 0.003870 0.0
4.173726 0.177300 -0.000825 0.0
2.721934 0.699364 0.001620 0.0
0.843924 0.332367 -0.001224 0.0
1.269102 0.347973 -0.001155 0.0
2.227201 1.510075 0.001986 0.0
0.986581 0.407637 -0.002763 0.0
1.958082 0.750068 -0.004924 0.0
2.536449 1.083132 0.001618 0.0
4.189915 1.694089 -0.002409 0.0
4.323095 0.336320 -0.003784 0.0
3.197187 1.648355 0.001354 0.0
0.725864 1.135878 0.003563 0.0
4.193324 1.578210 0.003069 0.0
0.575252 1.475171 0.001011 0.0
3.240323 0.070255 0.000985 0.0
1.054618 1.414452 0.000641 0.0
4.510719 0.676587 0.001894 0.0
2.564268 0.162442 0.001212 0.0
4.653362 0.318687 0.002324 0.0
2.400770 0.866667 0.000357 0.0
3.030262 0.413949 0.000072 0.0
2.781057 1.576901 -0.000884 0.0
4.230980 1.364087 0.000416 0.0
1.396936 0.937452 0.003212 0.0
2.372711 1.631111 -0.003265 0.0
3.046487 1.439145 0.005981 0.0
2.012476 0.884213 -0.000962 0.0
1.447229 0.751713 -0.001131 0.0
1.635799 0.856474 0.000078 0.0
1.958625 0.244074 0.000626 0.0
0.588188 0.281566 -0.000865 0.0
0.958517 0.809962 -0.001619 0.0
2.542381 1.627362 -0.003527 0.0
1.439773 0.092395 -0.001161 0.0
0.586876 1.258055 -0.000720 0.0
2.246193 0.063949 0.001962 0.0
2.868707 0.441597 0.000575 0.0
3.011270 0.663269 -0.000001 0.0
1.843689 1.350266 0.002375 0.0
3.012000 1.495432 -0.005117 0.0
2.669071 1.184584 -0.003413 0.0
2.051681 0.888893 -0.001713 0.0
3.010908 1.698146 0.000173 0.0
0.992620 1.452502 0.000333 0.0
1.345265 1.349807 -0.004877 0.0
2.117937 1.012270 0.001530 0.0
2.505895 1.269558 0.003613 0.0
4.561678 1.208420 0.001447 0.0
1.837346 0.101499 0.000768 0.0
4.281321 1.272668 -0.001988 0.0
4.715265 0.983651 0.008514 0.0
2.221745 0.095831 -0.001190 0.0
1.871922 1.466094 0.001612 0.0
2.980422 0.790604 0.001300 0.0
3.132786 1.146355 -0.004333 0.0
0.319776 0.723707 -0.002089 0.0
4.189729 1.066509 0.003237 0.0
3.670298 0.330187 0.000842 0.0
3.475092 0.189574 -0.000373 0.0
0.936567 0.377706 -0.002241 0.0
0.236186 1.424021 0.000200 0.0
2.296498 0.892522 0.002216 0.0
3.690394 0.978921 0.000733 0.0
1.676907 0.058313 -0.001468 0.0
4.213502 1.062760 -0.001412 0.0
0.868495 1.348531 0.003991 0.0
0.644535 0.738080 0.001180 0.0
1.268494 1.272799 -0.003433 0.0
3.748797 1.600269 0.001341 0.0
1.142538 1.147063 0.001159 0.0
2.715524 0.670934 0.001124 0.0
1.017502 0.472485 0.000505 0.0
0.675790 0.824685 0.001601 0.0
3.103459 1.624239 -0.002389 0.0
1.586490 0.494990 -0.000880 0.0
1.671028 1.013985 0.003631 0.0
2.131747 0.433624 0.000746 0.0
1.698400 0.529828 -0.001722 0.0
4.389027 0.819982 0.002782 0.0
3.178200 0.029550 0.001420 0.0
3.407201 0.861736 0.002876 0.0
0.359480 0.613522 -0.001501 0.0
1.776603 0.949606 0.001634 0.0
3.001828 1.172933 0.002543 0.0
3.371490 1.514098 -0.001188 0.0
0.940489 1.107621 0.000614 0.0
3.656644 0.968169 -0.002967 0.0
1.407698 1.639879 -0.001409 0.0
3.117428 1.649304 0.000853 0.0
1.317048 0.579665 0.002297 0.0
3.033498 0.144921 -0.001056 0.0
3.184256 0.166628 -0.000961 0.0
2.003464 1.364841 0.002897 0.0
1.515073 0.325121 0.003901 0.0
4.699561 1.145602 0.000872 0.0
3.658070 0.231476 0.004842 0.0
4.043572 0.772408 0.002229 0.0
3.891271 0.143118 0.004390 0.0
2.445841 1.130554 -0.004079 0.0
2.247557 0.451959 -0.002588 0.0
2.063435 1.387695 -0.002729 0.0
1.955747 0.634750 0.007695 0.0
4.436582 0.612395 -0.002268 0.0
1.364822 0.127383 0.000220 0.0
3.793886 1.184038 0.001458 0.0
2.786217 1.115312 0.001013 0.0
3.912835 0.026478 0.001187 0.0
3.313128 0.899039 -0.000466 0.0
0.839293 1.734536 -0.000433 0.0
2.831285 0.919085 -0.001558 0.0
0.224525 1.448672 0.003679 0.0
0.728819 1.685023 -0.006572 0.0
0.298702 1.551709 0.000429 0.0
2.344516 1.101912 -0.001803 0.0
1.520325 0.695254 -0.000558 0.0
0.109864 0.120562 -0.003057 0.0
4.760841 1.729251 0.001984 0.0
1.571074 1.355842 -0.001260 0.0
3.493096 0.443139 0.001041 0.0
3.718165 1.121892 -0.002744 0.0
4.542421 1.572891 0.001339 0.0
4.602281 0.421715 -0.005344 0.0
3.595064 0.499941 0.004292 0.0
2.850285 0.665510 -0.001021 0.0
2.563450 0.147042 0.002648 0.0
0.658995 1.452459 0.002016 0.0
2.042589 1.538113 0.001275 0.0
0.987215 0.934889 0.001687 0.0
3.528695 0.102177 -0.001277 0.0
1.622798 1.421601 -0.005581 0.0
4.607229 1.436626 -0.000133 0.0
3.534745 1.350551 -0.001852 0.0
2.693653 0.418566 -0.002947 0.0
4.207046 0.182243 0.000503 0.0
4.756905 1.300348 0.001654 0.0
0.947032 1.451888 -0.003076 0.0
2.515290 0.706254 0.003641 0.0
1.567842 0.729279 -0.007039 0.0
3.963857 0.576353 -0.000980 0.0
0.409094 1.680948 -0.000588 0.0
3.460568 1.428637 -0.003002 0.0
4.345240 0.269408 -0.000767 0.0
3.774309 0.068857 0.001124 0.0
3.193159 1.249147 0.000015 0.0
0.754732 0.054931 0.002266 0.0
2.488478 0.092546 -0.000687 0.0
4.608359 1.512844 -0.001811 0.0
3.919841 0.569310 0.006569 0.0
3.652417 0.755893 0.003770 0.0
2.474814 0.551406 0.001026 0.0
4.466756 0.558384 0.002807 0.0
3.105484 0.464642 0.001953 0.0
4.045550 1.171063 -0.003057 0.0
2.952430 0.202567 -0.001855 0.0
4.389792 1.104040 -0.001253 0.0
3.913680 0.873715 0.002569 0.0
1.473064 0.432367 -0.001200 0.0
1.303903 0.281961 -0.000130 0.0
3.461249 1.111433 -0.000903 0.0
3.580098 0.648010 0.002502 0.0
3.917570 1.592547 0.002496 0.0
3.656591 1.156137 -0.000302 0.0
0.353139 1.332027 -0.000390 0.0
1.591453 0.123406 -0.003378 0.0
3.283660 0.807939 0.003004 0.0
3.232293 1.557065 -0.001096 0.0
1.976073 0.603836 -0.004607 0.0
1.485710 0.775510 0.001050 0.0
0.383517 1.650315 0.000039 0.0
1.664125 1.102326 0.003666 0.0
1.786367 1.085817 0.001024 0.0
3.161540 0.592484 0.001182 0.0
3.691195 0.746353 0.000889 0.0
4.400089 1.405546 0.005309 0.0
4.131951 0.466681 -0.001607 0.0
3.135946 0.300316 0.004079 0.0
2.382976 0.788278 0.004454 0.0
0.584649 1.203803 0.000887 0.0
2.624203 0.311391 0.002790 0.0
4.608840 1.440763 0.002081 0.0
1.040238 0.678519 -0.000327 0.0
0.826615 0.905137 0.000811 0.0
3.340699 1.359974 0.001352 0.0
3.503716 1.126423 -0.004491 0.0
2.991956 1.539138 -0.001054 0.0
0.099378 1.702406 -0.000912 0.0
1.435906 0.928807 0.005874 0.0
2.511041 0.223235 0.000029 0.0
3.215995 0.348377 -0.000453 0.0
3.714145 0.617067 -0.000719 0.0
4.302337 0.683853 -0.000265 0.0
0.041685 1.367362 -0.000949 0.0
0.517538 1.628284 0.001581 0.0
2.798554 0.681064 0.000190 0.0
2.249532 0.461872 0.000386 0.0
2.271418 1.443238 0.000886 0.0
2.726681 0.072619 -0.002468 0.0
2.677129 0.662121 -0.000692 0.0
2.285233 0.975180 0.005590 0.0
4.032286 0.574925 0.000241 0.0
1.530372 0.813212 -0.001941 0.0
4.630392 1.741692 -0.004288 0.0
2.923744 1.679166 0.005513 0.0
2.320607 0.633602 -0.003071 0.0
4.084645 1.301358 -0.001288 0.0
2.559201 1.509438 -0.002120 0.0
3.377831 1.158049 0.002468 0.0
4.113030 1.078740 0.006104 0.0
2.851077 0.165207 -0.001153 0.0
1.333328 1.489454 0.005710 0.0
4.315103 0.614451 0.000773 0.0
4.075374 0.969630 0.001510 0.0
3.967237 0.388101 0.000769 0.0
0.868619 1.640845 -0.000218 0.0
1.113982 1.517254 -0.000519 0.0
0.227785 1.077724 -0.002441 0.0
4.501300 0.991543 -0.002467 0.0
1.674402 0.214998 0.001356 0.0
3.515963 1.741284 -0.000216 0.0
3.662513 0.057746 0.003529 0.0
2.366251 0.976951 -0.004042 0.0
0.404775 1.167640 -0.001975 0.0
4.569693 0.685111 -0.000316 0.0
2.223047 1.689875 -0.002466 0.0
2.814918 1.217726 0.003251 0.0
3.384975 0.357327 0.001894 0.0
4.545767 0.916469 -0.003056 0.0
0.376652 0.090096 -0.001386 0.0
3.323734 1.187088 0.002178 0.0
1.729642 1.547606 -0.003190 0.0
0.890873 0.265124 0.003635 0.0
3.122253 0.931728 -0.001693 0.0
3.969615 1.226686 -0.004237 0.0
1.817147 0.387595 0.001403 0.0
4.022920 1.437770 -0.001849 0.0
4.127386 1.579965 0.004243 0.0
2.443219 0.819591 -0.001596 0.0
3.777924 1.215348 -0.002472 0.0
2.138356 1.402353 -0.002962 0.0
1.484965 0.809432 0.000375 0.0
4.070894 1.105962 0.004120 0.0
3.070216 0.133459 0.001651 0.0
1.014071 0.377726 -0.003144 0.0
4.405433 0.758680 -0.001239 0.0
2.677884 0.361016 0.004238 0.0
2.015766 0.855781 0.003194 0.0
2.271171 1.741030 0.000660 0.0
0.358496 0.477972 0.002801 0.0
1.099646 0.199026 0.000022 0.0
1.057425 0.580542 -0.002008 0.0
0.773474 0.516546 -0.003938 0.0
4.033095 1.085191 0.002943 0.0
3.717359 1.271380 -0.000455 0.0
3.221490 0.606815 -0.001306 0.0
4.551956 1.026335 0.003122 0.0
3.766002 0.065877 0.000445 0.0
4.463764 1.405314 -0.002007 0.0
3.779411 0.368478 0.001268 0.0
3.543221 1.321969 0.001939 0.0
0.469877 1.184879 0.004783 0.0
3.575236 1.191902 -0.000600 0.0
3.429283 0.581087 0.000760 0.0
1.393241 0.440772 0.001084 0.0
3.094477 0.788797 0.001087 0.0
0.277713 0.662734 0.000840 0.0
1.875183 0.752575 -0.000093 0.0
0.290405 0.617077 0.000571 0.0
1.100903 0.286593 0.000454 0.0
1.347485 0.540244 0.000988 0.0
1.576608 1.590772 0.001921 0.0
2.014718 0.753524 -0.006075 0.0
2.650026 0.081535 -0.003780 0.0
1.004195 1.370329 0.001800 0.0
0.496759 1.268896 -0.000318 0.0
1.836583 0.600637 0.001498 0.0
4.202630 0.128269 -0.004335 0.0
1.338007 1.064503 -0.003268 0.0
2.219900 1.290806 0.002689 0.0
3.926770 0.336930 0.007247 0.0
0.400702 0.762975 -0.001795 0.0
4.277527 0.201092 0.003637 0.0
3.314599 0.439514 -0.000673 0.0
4.558947 0.202961 0.000381 0.0
2.181593 0.466787 -0.000300 0.0
2.174652 1.378061 -0.005238 0.0
1.070927 1.219782 0.004404 0.0
0.338753 1.674718 0.002723 0.0
2.970431 0.631345 -0.000658 0.0
2.638678 0.229326 0.000503 0.0
2.803983 0.334498 -0.003642 0.0
1.383038 0.453402 -0.002542 0.0
4.575421 1.408380 -0.004278 0.0
3.325649 0.985662 0.004454 0.0
1.807638 1.634342 -0.000373 0.0
0.999872 1.741359 -0.004783 0.0
4.041629 0.272635 0.000960 0.0
4.562769 1.665333 0.001519 0.0
2.121962 1.594212 0.002018 0.0
4.336441 0.852833 -0.001349 0.0
2.501089 0.064383 -0.003838 0.0
3.965575 0.511770 -0.001906 0.0
3.995740 0.755497 -0.000009 0.0
1.860625 0.168518 -0.001330 0.0
1.235213 1.584054 -0.003902 0.0
1.830909 0.641119 0.000849 0.0
2.045823 0.798467 -0.002346 0.0
1.242667 1.132287 0.001590 0.0
0.977307 0.222392 -0.000460 0.0
2.511592 1.017000 0.003376 0.0
3.984359 1.212432 0.004087 0.0
2.865142 1.492340 -0.000274 0.0
4.223702 1.486652 -0.001517 0.0
4.476758 1.393064 -0.001438 0.0
0.882642 1.132758 0.005032 0.0
1.455171 0.189590 -0.001525 0.0
1.794070 0.087716 -0.004660 0.0
0.371393 1.549479 0.002886 0.0
4.308145 0.265529 -0.000859 0.0
0.163733 0.161978 -0.002441 0.0
0.794099 0.169521 0.003797 0.0
1.755161 0.960636 0.004476 0.0
4.657608 0.388591 -0.001059 0.0
3.226225 0.154900 -0.000015 0.0
0.474483 1.325854 -0.003504 0.0
3.279525 1.588233 -0.000334 0.0
2.167396 0.411640 0.004044 0.0
1.228941 1.152955 0.001483 0.0
2.767576 1.056833 -0.000726 0.0
1.056380 0.536245 -0.000771 0.0
0.330946 0.655014 -0.001484 0.0
1.244756 1.469012 -0.002354 0.0
4.708200 1.635318 -0.002903 0.0
4.417184 0.035635 0.001351 0.0
2.365916 1.511287 0.005682 0.0
2.926474 1.620788 0.000197 0.0
0.109217 1.560287 0.004437 0.0
4.031653 1.602084 -0.002422 0.0
4.738634 0.108411 -0.000264 0.0
0.542160 1.318477 -0.003481 0.0
3.936557 0.277202 0.001506 0.0
1.105389 1.004939 -0.007381 0.0
1.304352 0.406524 0.003854 0.0
1.770731 1.704533 0.002367 0.0
0.551886 1.193138 0.003343 0.0
0.958877 0.743781 0.001922 0.0
4.241289 1.095335 0.000760 0.0
4.104681 0.876404 0.001321 0.0
3.892399 0.384382 0.002069 0.0
2.338342 1.306738 0.000085 0.0
0.906087 0.375508 0.001482 0.0
3.856643 1.144297 0.003311 0.0
2.671571 1.661898 0.004452 0.0
3.915264 1.024716 0.000206 0.0
1.382697 1.432157 -0.000732 0.0
0.978991 1.155760 -0.002938 0.0
2.897180 1.275850 -0.001893 0.0
0.694868 1.644519 0.000457 0.0
2.567377 1.140113 -0.001590 0.0
2.059621 1.248610 -0.003405 0.0
2.595211 1.333449 0.000704 0.0
4.709044 1.530160 0.000546 0.0
3.508508 1.003788 -0.004139 0.0
2.624602 1.246108 0.001315 0.0
2.644134 0.085323 0.001158 0.0
0.563222 1.553857 0.004220 0.0
0.567989 1.412912 0.002343 0.0
4.624673 1.470816 -0.004013 0.0
0.548620 0.999740 0.002062 0.0
2.977786 0.090918 0.000570 0.0
4.428087 0.379520 -0.000522 0.0
4.270107 0.389163 -0.001707 0.0
0.959737 0.413475 -0.002752 0.0
2.798886 0.369569 -0.000606 0.0
1.502280 1.245953 0.001951 0.0
0.359167 1.111203 0.003542 0.0
1.597676 1.158435 0.002976 0.0
1.876973 0.028809 0.004182 0.0
0.776685 0.861443 0.000985 0.0
1.233967 0.630918 0.002050 0.0
0.410466 1.296198 0.000535 0.0
2.473505 0.936011 0.005213 0.0
0.811649 1.214264 0.002376 0.0
3.970773 0.079570 -0.003449 0.0
1.119431 1.476533 0.001866 0.0
1.702793 0.057772 -0.002979 0.0
2.216103 0.541765 0.000645 0.0
2.666241 1.089100 -0.001376 0.0
4.437803 0.574893 -0.001570 0.0
4.288584 0.140402 0.000175 0.0
3.244121 1.011495 -0.000342 0.0
4.580911 0.685165 0.000613 0.0
0.717092 1.298204 -0.001232 0.0
2.493117 0.664743 -0.001585 0.0
1.828269 0.697421 -0.001095 0.0
3.489000 1.015029 -0.001327 0.0
4.331265 0.910728 0.002043 0.0
1.105964 1.715263 0.003162 0.0
0.257762 0.362625 0.000621 0.0
3.895131 1.700904 0.001712 0.0
2.814581 1.621432 -0.000295 0.0
0.944848 1.549809 -0.001181 0.0
3.930915 1.314571 -0.000618 0.0
2.278729 1.694041 0.001844 0.0
3.999952 1.694069 0.000263 0.0
4.132077 1.564963 -0.006246 0.0
3.409777 1.131852 0.000007 0.0
1.625706 1.626708 -0.001379 0.0
1.072446 0.015254 -0.003693 0.0
1.281756 0.007672 0.001116 0.0
0.229973 0.801888 0.001054 0.0
2.583250 0.042950 0.007895 0.0
2.581126 1.663429 0.001735 0.0
1.585231 0.270089 0.000974 0.0
1.765910 1.075004 0.001252 0.0
3.703210 1.685580 0.000610 0.0
1.780201 1.146994 -0.002362 0.0
2.991059 1.037514 0.003992 0.0
3.168300 1.318752 -0.001769 0.0
3.498690 0.007081 -0.000751 0.0
0.277982 1.709768 0.001950 0.0
2.645236 1.244792 -0.006617 0.0
3.037751 1.039687 0.000392 0.0
4.386414 0.060562 -0.001659 0.0
4.086102 1.514389 -0.001391 0.0
0.696087 0.370917 -0.000801 0.0
1.508106 1.278819 -0.002725 0.0
2.405709 1.460101 0.003599 0.0
3.579063 0.495113 -0.005272 0.0
2.940314 0.443067 0.001094 0.0
1.878860 1.071708 0.002146 0.0
2.516469 0.629057 -0.001931 0.0
2.869839 1.188843 0.002139 0.0
2.869858 0.897299 0.001825 0.0
4.472022 1.575650 0.003445 0.0
2.965113 0.969841 0.002862 0.0
0.837727 0.026274 0.005894 0.0
0.030666 0.226998 0.005286 0.0
4.263822 0.106474 0.000211 0.0
2.058527 0.540746 -0.000633 0.0
4.317971 0.248423 -0.003855 0.0
0.568523 0.971168 0.001319 0.0
1.160400 -0.000207 0.001600 0.0
4.573212 0.114521 -0.000532 0.0
2.452145 1.635838 0.000675 0.0
2.042884 1.283871 0.000010 0.0
1.952962 1.279508 0.002711 0.0
4.738141 0.490179 -0.002941 0.0
1.094085 1.498756 -0.002199 0.0
2.116937 0.984495 -0.002895 0.0
3.271793 1.705939 -0.004601 0.0
4.703944 0.109503 0.002442 0.0
1.779100 0.184048 0.004840 0.0
0.208899 0.508151 -0.001549 0.0
2.827990 1.171273 0.000616 0.0
4.133300 0.307945 -0.005059 0.0
3.099930 1.456332 -0.000552 0.0
1.884281 0.501336 -0.001519 0.0
4.106264 0.294718 -0.001393 0.0
4.631387 0.594195 -0.001400 0.0
4.361886 1.656719 -0.001659 0.0
0.184036 1.395623 0.001706 0.0
4.616985 1.718453 0.001508 0.0
0.132179 1.097122 0.002064 0.0
0.483479 1.041011 -0.001253 0.0
4.316235 1.525944 0.002755 0.0
3.644191 0.233429 -0.001064 0.0
1.559440 1.250853 0.002977 0.0
1.013702 1.132773 -0.000954 0.0
0.894825 0.627800 0.004380 0.0
1.764704 1.512358 0.004121 0.0
3.722898 1.250969 0.008872 0.0
1.422411 0.541673 -0.000436 0.0
3.721924 1.412464 -0.005219 0.0
4.067456 0.517803 0.001504 0.0
3.972338 1.171657 0.001472 0.0
1.065506 0.964162 0.002448 0.0
4.584892 1.495982 0.002751 0.0
3.552322 1.744291 -0.001654 0.0
3.405227 1.525800 0.001112 0.0
4.245681 1.175663 0.000107 0.0
4.342161 0.947471 0.001042 0.0
4.679449 0.540078 -0.005918 0.0
1.682841 0.469273 -0.001219 0.0
0.190089 1.684631 -0.000383 0.0
1.534677 0.710048 -0.002581 0.0
4.485885 0.656955 -0.000405 0.0
3.848871 1.670335 -0.003137 0.0
4.015054 0.363371 0.003978 0.0
3.946994 1.610877 -0.003069 0.0
3.191144 1.611421 0.005062 0.0
3.478103 1.589565 0.000790 0.0
2.840905 1.017029 -0.003309 0.0
3.686644 0.900405 0.003890 0.0
1.147500 0.569935 0.005063 0.0
1.321645 0.724993 0.001365 0.0
1.959151 0.015897 -0.002132 0.0
1.266460 0.344073 0.003152 0.0
0.862676 1.635961 -0.000727 0.0
2.389842 1.710502 -0.003554 0.0
4.068680 1.294105 0.002852 0.0
4.195167 0.651218 0.000613 0.0
0.341170 1.171520 0.003831 0.0
3.041300 0.095856 0.003007 0.0
1.550976 0.689112 0.001825 0.0
0.879594 0.749097 -0.003281 0.0
2.465622 1.674574 0.001423 0.0
3.274620 1.018030 -0.004071 0.0
0.823780 1.730349 0.003587 0.0
2.904091 1.540000 0.002295 0.0
0.843423 0.031671 0.008998 0.0
3.015814 0.381272 -0.003237 0.0
0.581765 0.568677 -0.005079 0.0
3.572291 1.731923 0.000617 0.0
0.170342 1.311202 -0.004821 0.0
4.099351 0.544331 -0.003008 0.0
2.028254 0.902468 0.002004 0.0
0.053401 0.323310 0.000487 0.0
1.565776 0.622828 -0.001228 0.0
2.468356 1.253160 -0.000700 0.0
3.032858 0.467211 0.004596 0.0
1.404615 0.842173 0.001842 0.0
2.817992 1.062516 0.000255 0.0
2.070322 0.029522 -0.000787 0.0
2.672809 1.666869 -0.002953 0.0
4.598552 0.477826 0.003134 0.0
3.598394 0.402080 -0.003180 0.0
1.906811 1.194731 0.002903 0.0
3.218367 0.231544 -0.001134 0.0
0.128746 1.318694 0.001093 0.0
4.081477 0.985034 -0.004013 0.0
2.594167 1.443913 0.000555 0.0
4.489137 0.833108 -0.001766 0.0
1.823209 1.368148 -0.000462 0.0
0.636154 0.186053 0.001642 0.0
0.743391 0.607940 -0.002099 0.0
0.598388 0.666345 0.000466 0.0
4.350569 0.680001 0.000265 0.0
3.305910 0.940601 0.000713 0.0
0.434382 0.044118 -0.000469 0.0
3.517561 1.066675 0.003502 0.0
2.018644 0.102756 0.000906 0.0
0.034775 0.803588 -0.001865 0.0
2.423081 0.562759 0.001221 0.0
4.290782 0.152305 0.003966 0.0
0.250884 1.127694 0.001374 0.0
4.366634 1.001884 0.000844 0.0
1.010020 0.230500 0.004535 0.0
2.755339 0.494932 -0.001301 0.0
1.019853 0.066019 -0.000247 0.0
0.646680 1.513464 0.000347 0.0
0.632709 1.664713 -0.002354 0.0
0.690609 0.685474 0.002364 0.0
3.158342 0.748284 -0.003373 0.0
3.645484 0.642402 0.000609 0.0
1.410167 0.293563 -0.003276 0.0
0.442050 1.430564 -0.001577 0.0
3.197763 0.750564 -0.001452 0.0
2.686804 -0.000896 -0.001943 0.0
3.714820 0.588042 0.000657 0.0
3.817471 0.360615 -0.000015 0.0
0.569345 0.729101 -0.002041 0.0
0.626034 0.740249 0.003573 0.0
0.993284 0.340274 0.002460 0.0
3.185320 0.527407 0.000854 0.0
1.114709 0.539518 0.002706 0.0
0.148076 0.206988 0.004229 0.0
2.839711 1.367105 0.000060 0.0
4.160119 0.559336 0.001320 0.0
3.607816 1.217484 -0.000092 0.0
4.161556 0.347565 0.000015 0.0
2.203532 0.424268 -0.002599 0.0
0.021991 0.447725 0.002845 0.0
2.214927 1.709500 -0.003169 0.0
3.547828 1.054855 0.004894 0.0
1.713644 1.355361 0.000036 0.0
4.321234 0.313078 0.001075 0.0
1.564385 1.292820 0.004250 0.0
0.668858 0.442226 -0.003940 0.0
0.214360 0.048467 -0.001333 0.0
0.166583 0.102288 -0.002089 0.0
2.887751 0.832031 0.000114 0.0
0.355862 1.606035 -0.000919 0.0
4.287830 0.981662 0.006719 0.0
0.835568 1.112860 -0.000667 0.0
4.388333 0.308669 -0.003847 0.0
1.638801 1.444108 0.000551 0.0
4.418841 1.369472 0.001698 0.0
3.043784 1.446264 -0.000599 0.0
3.563153 0.996678 -0.002839 0.0
3.220951 1.012509 -0.000188 0.0
1.665260 1.596029 0.001876 0.0
2.864295 1.170608 -0.002737 0.0
4.300997 0.372833 -0.000931 0.0
4.641877 1.299687 -0.000020 0.0
3.346156 0.866682 0.000225 0.0
4.140504 0.729033 0.003967 0.0
1.634492 0.177622 -0.000482 0.0
1.108461 1.658470 0.000123 0.0
2.059901 0.170218 0.000096 0.0
4.658275 0.615765 0.001360 0.0
0.479564 0.243760 0.003211 0.0
2.800594 1.151717 0.001671 0.0
3.850522 0.265948 0.002573 0.0
4.091817 1.385488 0.001209 0.0
0.757235 0.074679 -0.003799 0.0
4.277316 0.130703 0.001984 0.0
0.312216 0.104627 -0.003695 0.0
1.846544 0.029309 0.002630 0.0
3.475791 1.679685 -0.000394 0.0
3.569830 1.065659 -0.000545 0.0
3.326708 1.605818 0.003650 0.0
3.453304 0.371789 -0.003891 0.0
0.095455 0.598208 0.002741 0.0
0.467575 1.004242 -0.001723 0.0
4.492942 0.301861 0.002220 0.0
0.441991 0.548116 -0.000973 0.0
0.690268 1.471872 0.001267 0.0
3.529977 0.864956 0.004077 0.0
3.822542 0.501290 -0.000852 0.0
4.164408 0.570855 -0.001182 0.0
2.341198 0.487358 -0.001727 0.0
0.757310 0.666122 -0.002229 0.0
3.314802 1.017410 -0.003149 0.0
2.256135 0.645878 -0.001040 0.0
3.952144 0.050975 0.005694 0.0
1.631040 0.156767 0.001967 0.0
1.679798 1.006271 0.000898 0.0
1.421392 1.254932 -0.002244 0.0
2.990478 0.900946 0.004278 0.0
2.856854 1.086354 -0.001894 0.0
4.752487 0.270178 -0.001809 0.0
2.856518 1.403381 0.001568 0.0
2.662256 1.595463 0.001140 0.0
3.747806 0.545328 -0.003568 0.0
2.193276 0.066958 0.000484 0.0
3.425494 1.617264 -0.002381 0.0
4.552700 0.727389 -0.000217 0.0
0.166733 0.125665 0.000383 0.0
3.154206 0.033105 -0.003556 0.0
1.682794 0.184502 -0.000901 0.0
3.075129 1.262260 -0.001829 0.0
1.023562 0.491564 -0.006886 0.0
0.104003 0.698401 0.000144 0.0
4.467184 1.705760 0.001189 0.0
0.463857 0.031785 -0.003624 0.0
0.643010 0.477864 -0.001783 0.0
4.036466 0.355027 0.000634 0.0
4.685415 1.348669 -0.000041 0.0
2.556254 1.520164 -0.002931 0.0
3.913939 0.903238 0.000178 0.0
0.340501 0.712612 0.003460 0.0
0.468054 1.741575 -0.002057 0.0
2.718089 1.169894 -0.000621 0.0
1.645316 1.682983 -0.002158 0.0
0.711158 1.206588 -0.002111 0.0
4.346678 0.816483 -0.003094 0.0
3.870357 0.694566 0.005054 0.0
1.077083 0.505884 -0.001103 0.0
1.797580 1.616741 0.002969 0.0
0.410953 1.217850 0.000777 0.0
3.345828 1.522034 -0.002638 0.0
3.428837 0.171813 0.001897 0.0
3.343323 0.866466 -0.002703 0.0
0.849408 0.830229 -0.005569 0.0
1.160924 0.993697 0.000381 0.0
3.470196 0.932650 -0.002220 0.0
3.586361 0.586561 0.001048 0.0
3.652177 1.179061 0.000423 0.0
0.582889 1.626413 0.003769 0.0
4.288584 1.621700 0.000101 0.0
2.329016 1.403307 0.001249 0.0
1.255884 0.744037 0.001718 0.0
1.584804 0.864215 -0.005229 0.0
1.929318 0.374648 0.000122 0.0
4.247526 1.183955 0.004948 0.0
2.790826 0.809195 -0.000322 0.0
0.974390 1.388987 0.003993 0.0
4.113751 1.379205 0.002327 0.0
1.823476 1.636972 0.003924 0.0
4.713527 0.054095 -0.003110 0.0
1.839627 0.205214 -0.002729 0.0
1.036718 1.681895 0.001401 0.0
0.866866 0.890375 -0.002503 0.0
2.273638 1.523133 0.002867 0.0
0.253538 0.313601 0.003112 0.0
0.804565 0.514024 0.001651 0.0
2.230222 1.675104 0.003732 0.0
0.066633 0.495348 0.004107 0.0
1.240060 0.219432 0.006359 0.0
4.335223 0.059999 0.003564 0.0
0.488720 1.410266 0.003251 0.0
3.931386 1.598984 -0.001553 0.0
2.070031 0.291533 -0.003686 0.0
0.579437 0.193481 0.000962 0.0
3.162876 1.373391 -0.003273 0.0
3.829029 1.642018 0.000012 0.0
3.537668 1.551336 -0.002507 0.0
4.041037 1.521499 -0.001597 0.0
1.399761 1.691692 -0.000055 0.0
2.515830 1.686149 -0.006013 0.0
3.450356 0.157059 0.000619 0.0
4.699538 0.405795 0.000608 0.0
0.609651 1.364435 -0.000294 0.0
3.979229 0.288877 -0.001301 0.0
0.661220 0.646885 -0.003251 0.0
4.556363 1.544185 -0.004283 0.0
1.408997 1.291003 0.000079 0.0
1.104998 0.279345 0.000833 0.0
2.465445 0.206029 -0.000625 0.0
2.518420 0.532837 0.003267 0.0
4.154597 0.594530 0.001664 0.0
1.861223 1.604945 -0.000113 0.0
0.508733 0.408209 0.001837 0.0
3.957953 1.414586 0.000475 0.0
4.554244 1.491343 0.004597 0.0
1.167802 0.813063 0.001310 0.0
1.953866 0.925222 -0.002605 0.0
4.331684 0.654564 -0.003930 0.0
4.245463 0.114888 0.001157 0.0
3.945065 0.623121 0.000150 0.0
3.057079 1.071705 -0.004612 0.0
1.025729 1.166464 0.001616 0.0
1.669038 1.126972 -0.003255 0.0
4.334247 0.470220 -0.003840 0.0
3.597857 1.458579 -0.001154 0.0
0.957048 1.124910 -0.001950 0.0
1.508714 0.832845 -0.004075 0.0
2.507966 0.629937 -0.001397 0.0
1.654213 0.185559 0.001473 0.0
3.177332 0.491465 -0.004098 0.0
2.007558 1.192403 0.001123 0.0
4.447003 1.236610 0.001165 0.0
2.034519 1.197032 0.004308 0.0
2.699823 0.419759 0.001661 0.0
0.937660 0.507151 -0.000928 0.0
1.686384 1.583043 0.003920 0.0
2.916052 0.744886 -0.001921 0.0
0.905335 1.735292 0.001120 0.0
4.156730 0.408376 0.000837 0.0
0.262086 1.468789 -0.001878 0.0
1.959519 0.763547 0.000484 0.0
2.249735 1.101265 0.001227 0.0
1.415566 0.052901 -0.005863 0.0
3.133977 0.375428 -0.001979 0.0
3.410765 0.844587 -0.003454 0.0
0.384172 0.644230 0.001223 0.0
4.755786 0.820256 0.002949 0.0
2.527506 0.585877 -0.003038 0.0
0.949894 0.268405 -0.005517 0.0
4.254633 1.477920 0.006208 0.0
1.976085 0.798477 -0.001171 0.0
2.564957 1.393849 0.002412 0.0
2.343290 0.733960 0.000385 0.0
0.932911 0.645999 -0.001093 0.0
3.362931 1.489789 -0.000619 0.0
2.894216 1.198153 0.001096 0.0
2.560119 0.848535 0.002437 0.0
3.077472 1.717330 -0.001126 0.0
1.501121 0.795855 0.000257 0.0
0.435180 1.331070 -0.006284 0.0
2.599976 0.487434 -0.002094 0.0
1.736749 0.519265 0.001448 0.0
2.372995 0.443887 0.001422 0.0
1.181732 0.646748 -0.001960 0.0
4.501371 0.390924 -0.002651 0.0
2.844046 1.201289 -0.005015 0.0
4.130407 1.476627 0.004393 0.0
3.972083 0.966721 0.002640 0.0
2.607068 0.807695 -0.002206 0.0
0.902258 0.942151 0.000284 0.0
3.829009 0.542235 -0.000465 0.0
1.876449 1.504613 0.002480 0.0
2.481928 0.346938 -0.000687 0.0
4.077537 1.338124 0.002607 0.0
2.856293 0.029369 -0.004069 0.0
1.430500 1.102106 0.000839 0.0
4.335838 0.683771 -0.000712 0.0
0.517546 1.747693 0.000497 0.0
0.788503 0.479237 -0.000300 0.0
2.847457 1.052270 0.003015 0.0
3.381638 1.444369 -0.000719 0.0
2.436941 1.200916 -0.002930 0.0
1.651903 1.270609 0.003211 0.0
4.500682 0.967270 -0.000627 0.0
4.231064 1.248190 -0.001872 0.0
3.556512 1.008315 -0.000743 0.0
0.863125 1.210696 0.003584 0.0
4.613022 1.716542 -0.003079 0.0
0.038253 1.323433 0.002371 0.0
1.381495 0.438169 -0.000784 0.0
1.716767 0.008860 -0.000289 0.0
1.163142 0.881513 0.003058 0.0
2.624258 1.632750 0.003328 0.0
3.256359 0.221563 -0.002939 0.0
1.684067 1.580446 0.000096 0.0
3.840690 0.447588 0.001778 0.0
0.233980 0.819207 -0.000433 0.0
1.406160 0.762087 0.000429 0.0
4.127712 1.670714 0.002292 0.0
3.591704 1.254150 0.004000 0.0
4.649423 0.697593 -0.001152 0.0
2.052937 1.356559 0.000265 0.0
2.715677 0.919043 0.001088 0.0
3.634127 1.249989 -0.001936 0.0
0.674169 1.311542 -0.003347 0.0
1.353776 0.867878 0.003825 0.0
2.903481 0.329979 -0.000705 0.0
3.309331 0.646936 -0.001660 0.0
1.034880 0.467768 0.000832 0.0
0.565295 0.107807 -0.002161 0.0
4.179811 0.758554 0.003229 0.0
2.432766 1.366068 -0.001887 0.0
3.388568 1.261284 -0.003556 0.0
1.327255 0.723585 0.004262 0.0
1.421038 0.311562 0.000461 0.0
2.283783 1.522286 0.003185 0.0
2.048582 0.624646 -0.001259 0.0
0.086046 0.974157 0.004998 0.0
1.265605 0.939200 0.000762 0.0
1.188767 0.971125 -0.003251 0.0
2.068853 0.813889 -0.002918 0.0
3.020932 0.054246 -0.000239 0.0
0.025870 0.278826 -0.006454 0.0
2.745533 0.444016 0.001516 0.0
4.264030 1.320717 -0.000356 0.0
1.750237 0.808850 0.001526 0.0
4.168112 0.593006 -0.001078 0.0
2.615855 1.270134 0.002452 0.0
1.285160 0.292923 0.004331 0.0
2.307787 1.290862 -0.002665 0.0
4.212615 1.580701 0.002925 0.0
3.548783 0.333558 -0.000100 0.0
1.634736 0.592243 -0.001570 0.0
2.498783 1.619635 0.001910 0.0
1.188758 0.324582 0.000197 0.0
4.560578 1.340741 0.001251 0.0
4.583558 0.981599 -0.002609 0.0
0.288541 0.764153 -0.000086 0.0
2.613158 0.057999 -0.001741 0.0
2.816385 0.469107 0.002507 0.0
3.155445 1.512117 -0.001482 0.0
0.169397 1.409681 -0.007745 0.0
4.093216 0.378847 0.001616 0.0
0.578305 0.454542 0.000769 0.0
0.489173 1.701956 -0.000726 0.0
3.907063 0.679413 0.000228 0.0
3.841698 0.421195 0.001081 0.0
0.261747 1.047088 -0.000996 0.0
3.982552 1.255388 -0.000750 0.0
0.019570 1.427958 -0.001167 0.0
3.077898 0.754379 0.001720 0.0
0.356228 0.466782 0.001799 0.0
2.912445 0.587821 -0.004243 0.0
2.965974 0.445049 0.005894 0.0
2.869906 1.309521 -0.000921 0.0
0.961104 0.691788 -0.000887 0.0
2.910824 1.678445 0.000445 0.0
4.407660 1.102406 0.001115 0.0
0.231650 1.146504 -0.004219 0.0
0.409424 0.885377 0.001767 0.0
4.480124 0.017165 -0.000681 0.0
3.028428 1.683118 0.001398 0.0
3.332921 1.007156 0.001434 0.0
2.877538 0.641287 -0.000461 0.0
2.448491 0.147916 -0.000254 0.0
2.369413 0.353868 0.000956 0.0
0.607593 0.598584 -0.006337 0.0
1.298159 0.906119 0.002524 0.0
1.891422 1.260304 -0.001084 0.0
4.687373 1.722744 0.003775 0.0
1.135610 0.231184 0.000341 0.0
3.458367 0.066882 -0.004756 0.0
2.009748 1.364996 0.002575 0.0
4.146212 1.459080 0.000383 0.0
0.091366 1.073673 -0.003883 0.0
0.574822 1.511865 -0.005773 0.0
2.933885 1.503942 0.004110 0.0
1.007805 0.557228 0.001473 0.0
1.880550 1.368996 -0.001657 0.0
3.041240 1.483314 0.003740 0.0
0.851766 0.794137 0.005556 0.0
1.635162 0.140670 0.004661 0.0
0.140762 1.156396 -0.002981 0.0
0.985068 0.450406 -0.000236 0.0
3.024745 0.920429 -0.002094 0.0
4.124611 1.024357 -0.000688 0.0
3.885139 0.609508 0.001501 0.0
0.720573 1.747102 -0.000805 0.0
0.650248 1.229147 -0.002989 0.0
4.513147 0.445609 0.000202 0.0
2.027186 1.281877 -0.001108 0.0
4.378231 1.074507 0.002161 0.0
1.383667 0.288502 0.001102 0.0
3.310459 1.031284 -0.001217 0.0
1.800111 1.334600 -0.001008 0.0
0.750331 0.972080 -0.001469 0.0
3.260785 1.662448 -0.001631 0.0
2.359343 1.054418 0.000684 0.0
1.504726 0.772207 0.000661 0.0
2.397682 0.493118 0.002062 0.0
0.939913 0.375524 0.001489 0.0
0.345045 0.078699 -0.001151 0.0
0.936332 0.231881 -0.001039 0.0
3.889077 1.169312 0.002596 0.0
1.125743 0.622038 0.002822 0.0
0.763904 1.160339 0.001188 0.0
0.674699 1.427430 -0.000888 0.0
1.805925 0.483407 0.001893 0.0
0.288037 0.493603 0.002486 0.0
3.413897 1.226496 0.002510 0.0
2.575339 1.225529 -0.003588 0.0
4.688043 0.040234 -0.002886 0.0
4.255132 1.484227 -0.003823 0.0
4.565099 0.047931 0.001738 0.0
4.640493 1.606970 0.003517 0.0
1.444662 1.550402 -0.004201 0.0
3.597630 1.305704 0.001007 0.0
2.715722 0.788466 0.002165 0.0
1.602949 0.938265 0.001137 0.0
0.534322 0.237817 0.004200 0.0
1.496054 0.650536 -0.000974 0.0
3.964986 0.664541 -0.005272 0.0
2.679234 1.401315 -0.002829 0.0
2.617931 0.411423 -0.001146 0.0
4.184388 0.309398 0.003615 0.0
0.725809 1.256094 0.001383 0.0
4.627909 0.463836 0.001039 0.0
1.601305 0.653714 0.000996 0.0
1.260790 1.247786 -0.001983 0.0
1.182984 0.606219 0.002451 0.0
0.926937 1.512930 -0.000994 0.0
2.841656 0.590956 0.000250 0.0
2.515179 0.829122 -0.000741 0.0
0.940185 1.313274 -0.002298 0.0
0.224155 0.300601 0.001841 0.0
4.504226 1.612955 -0.000347 0.0
0.844708 0.645588 -0.001171 0.0
1.287082 0.764593 -0.002170 0.0
3.870704 1.182208 -0.000528 0.0
1.352503 0.112391 -0.001802 0.0
1.122890 0.201216 -0.002582 0.0
1.644179 0.271097 -0.001373 0.0
4.720683 0.341429 -0.001343 0.0
0.143614 0.497826 -0.002576 0.0
1.183220 1.617131 0.003725 0.0
2.951206 1.253166 -0.002932 0.0
3.776305 1.186537 -0.001608 0.0
0.221603 0.317695 -0.000530 0.0
1.505341 0.283708 0.001900 0.0
4.765611 1.349143 -0.005902 0.0
4.146393 0.869669 -0.000074 0.0
3.582548 0.500546 -0.001346 0.0
4.069285 0.442410 -0.001085 0.0
2.621853 0.622628 -0.001674 0.0
0.681344 0.396679 0.002251 0.0
0.208024 1.294913 -0.000236 0.0
2.245979 0.986290 0.002107 0.0
1.433493 1.075749 -0.001777 0.0
3.401923 0.959042 -0.000641 0.0
4.759838 1.017707 -0.001638 0.0
4.385956 0.703979 -0.001304 0.0
4.523667 0.151824 0.002717 0.0
1.312303 1.471726 0.001531 0.0
4.345362 0.543168 -0.001621 0.0
3.913721 0.885782 0.001775 0.0
2.480347 1.076893 -0.001070 0.0
3.273150 0.544815 0.000406 0.0
3.938872 1.410381 0.002850 0.0
0.431048 0.844585 -0.002666 0.0
0.348612 0.383074 0.003179 0.0
1.186639 0.799497 -0.000470 0.0
3.186712 1.604411 0.001980 0.0
0.334020 1.001733 -0.001425 0.0
3.708560 1.049670 -0.002546 0.0
2.128063 1.365183 0.000712 0.0
3.810763 0.943689 0.001757 0.0
1.433024 1.180247 0.003455 0.0
4.727286 1.007310 -0.000515 0.0
1.509250 0.666442 -0.005861 0.0
2.777740 1.570857 -0.001791 0.0
2.319359 1.326123 0.000865 0.0
3.100795 1.381825 -0.001135 0.0
1.441952 0.974338 0.003437 0.0
0.453523 0.615676 -0.001337 0.0
2.856282 1.713059 -0.001509 0.0
4.155582 1.373287 -0.003094 0.0
4.448684 0.401174 -0.002967 0.0
3.064315 0.502495 -0.003828 0.0
0.000448 0.501747 -0.001116 0.0
4.255629 0.556989 -0.001750 0.0
1.962052 1.111513 0.003433 0.0
4.569480 1.180524 0.004228 0.0
1.158935 0.851506 -0.000367 0.0
1.591342 0.457146 0.004973 0.0
3.643146 1.031295 -0.002541 0.0
4.620938 0.226089 -0.001679 0.0
4.422458 0.842357 0.001934 0.0
0.643155 0.262527 0.003649 0.0
4.754243 1.290831 -0.000644 0.0
1.835984 1.384036 -0.004446 0.0
1.811384 0.273176 0.000181 0.0
3.669155 0.729741 -0.001150 0.0
1.414151 1.066805 -0.001871 0.0
0.023034 0.567583 0.000052 0.0
0.336502 1.478380 -0.000850 0.0
4.716212 0.657295 0.000285 0.0
2.919378 0.168201 -0.001318 0.0
1.372166 1.557346 0.001482 0.0
4.469905 0.820858 0.000942 0.0
2.476312 0.955416 -0.003172 0.0
4.703737 1.363393 -0.003053 0.0
2.311190 0.076212 0.003161 0.0
0.804341 1.116821 0.001108 0.0
3.842311 1.499606 0.004841 0.0
0.127660 0.281318 -0.001818 0.0
2.426035 0.853511 -0.000540 0.0
1.030128 1.663437 -0.003727 0.0
0.913707 0.683361 -0.000220 0.0
4.121442 1.241389 -0.002428 0.0
0.557447 0.350425 -0.003766 0.0
2.254611 0.410071 0.002906 0.0
1.407391 0.893277 -0.001502 0.0
3.617577 1.078193 -0.000132 0.0
3.657571 1.235679 -0.000921 0.0
3.884965 0.300344 0.001206 0.0
1.042678 0.605637 -0.000670 0.0
0.307650 1.641213 0.001688 0.0
0.700778 1.014873 0.001333 0.0
2.301254 1.232558 -0.002336 0.0
4.055273 0.996146 -0.000795 0.0
1.726556 1.650590 -0.000933 0.0
2.428910 0.401651 -0.003033 0.0
2.659883 1.190911 0.000205 0.0
1.114806 1.532572 -0.001008 0.0
0.122146 0.156217 0.002047 0.0
2.277089 0.334389 -0.003572 0.0
4.754096 0.474275 0.000649 0.0
2.749267 0.967214 0.000043 0.0
3.501075 0.791427 0.000026 0.0
2.783311 1.682433 -0.001719 0.0
0.796497 0.039594 -0.001370 0.0
2.995294 0.132718 0.001536 0.0
2.781689 0.196839 -0.000500 0.0
0.145258 0.293642 0.000243 0.0
1.560299 0.880862 -0.002551 0.0
0.779699 0.497634 0.003055 0.0
0.217240 1.171526 -0.002293 0.0
0.692572 0.036509 0.000891 0.0
2.002536 1.631140 0.001780 0.0
2.357980 0.679140 -0.000318 0.0
0.684094 1.341307 0.000279 0.0
1.807300 1.374278 0.000039 0.0
1.462618 1.260861 -0.000802 0.0
0.874704 0.904539 0.001577 0.0
3.569669 1.669820 -0.001405 0.0
0.478839 1.386595 0.000791 0.0
2.167484 1.234697 -0.000017 0.0
0.349479 0.667521 0.000364 0.0
1.879423 0.510652 0.003904 0.0
1.163929 0.213607 0.002688 0.0
1.486620 1.077435 0.001181 0.0
1.376935 0.488857 -0.000227 0.0
2.626439 0.382996 0.001546 0.0
0.499120 0.035439 -0.000160 0.0
2.079761 1.486017 -0.000132 0.0
2.180643 1.739602 0.001215 0.0
0.978891 0.468648 -0.002588 0.0
3.586731 0.269690 0.001053 0.0
0.670172 1.668774 0.002622 0.0
3.227904 1.009919 0.001111 0.0
3.570148 1.661573 -0.002935 0.0
1.791084 0.712234 0.001449 0.0
3.564802 1.522514 0.000840 0.0
3.482096 1.400266 0.002133 0.0
4.574198 1.014883 -0.003029 0.0
3.540396 1.024412 0.004693 0.0
3.010844 0.086432 -0.000282 0.0
1.576799 0.012597 0.001519 0.0
3.214178 0.086582 -0.001683 0.0
4.462223 0.351832 0.006010 0.0
1.769503 1.443921 0.000444 0.0
4.032856 0.181655 -0.005296 0.0
4.209146 0.501845 -0.004708 0.0
2.334510 1.579522 0.002571 0.0
3.628341 1.040529 -0.003445 0.0
4.614256 1.268927 -0.001229 0.0
3.886539 0.588701 -0.001688 0.0
1.424953 1.183271 0.000619 0.0
2.579369 0.942618 -0.000894 0.0
0.438260 0.338405 0.000351 0.0
1.994885 0.745619 -0.000232 0.0
2.744592 1.319821 -0.000102 0.0
0.584774 1.059470 0.002566 0.0
4.122124 0.623931 0.004210 0.0
2.437771 0.564598 -0.000782 0.0
0.364001 0.734399 -0.003803 0.0
4.174961 1.552503 0.000827 0.0
1.676861 0.939344 -0.002109 0.0
2.715206 0.742165 0.003836 0.0
0.996912 1.382840 -0.000110 0.0
3.582928 0.016988 0.002320 0.0
0.693739 0.098603 -0.000431 0.0
1.358814 0.462121 0.003268 0.0
2.308517 0.473778 0.001420 0.0
0.691524 1.130377 -0.001316 0.0
4.637984 0.732062 -0.001078 0.0
0.893351 0.824599 -0.000810 0.0
2.907601 0.986609 -0.002328 0.0
0.704011 1.379828 0.001196 0.0
0.534884 0.951723 0.001218 0.0
4.488373 0.506791 0.002103 0.0
0.400134 0.425162 -0.002360 0.0
1.750841 1.733543 -0.003126 0.0
0.495275 1.639143 0.000700 0.0
1.213891 0.069551 0.006694 0.0
4.346656 1.092230 0.001819 0.0
0.823899 1.460320 0.003337 0.0
0.313574 1.704145 -0.001349 0.0
3.044726 0.331235 0.000026 0.0
4.185887 0.776791 -0.001310 0.0
0.805458 1.179195 0.000941 0.0
4.336857 0.895670 -0.003291 0.0
4.248550 1.221110 0.004087 0.0
2.886485 0.648227 0.000727 0.0
4.199515 1.299797 0.000190 0.0
3.508128 0.299943 0.002596 0.0
2.096013 0.708855 -0.003494 0.0
2.991010 1.168913 0.000249 0.0
4.697867 1.132977 0.001933 0.0
3.316066 -0.003884 -0.001765 0.0
2.173124 0.714608 -0.002300 0.0
2.723463 1.019062 -0.000241 0.0
3.954577 0.552135 -0.000119 0.0
0.260538 0.112209 0.004655 0.0
3.758283 0.773044 0.001956 0.0
0.642472 1.458868 -0.000639 0.0
0.632195 1.234488 -0.004391 0.0
3.455178 1.600125 -0.000277 0.0
3.986879 1.320338 0.000855 0.0
3.190138 1.632101 0.000944 0.0
0.891199 1.232499 -0.000221 0.0
3.508413 0.446914 0.002172 0.0
0.482788 0.505719 0.001099 0.0
2.240617 0.740141 -0.001439 0.0
3.098805 1.275598 -0.001127 0.0
3.970468 0.913817 0.001766 0.0
1.254455 1.140861 0.003619 0.0
4.377822 0.835822 0.000298 0.0
0.384575 0.525461 0.003993 0.0
4.020104 0.964590 0.000295 0.0
3.832354 0.505291 0.002568 0.0
3.344193 1.665885 -0.000634 0.0
4.304709 0.457280 0.000009 0.0
4.495044 1.260542 0.002961 0.0
0.354971 0.404978 -0.000901 0.0
3.093381 1.356197 0.005951 0.0
3.014360 0.777032 -0.000393 0.0
0.381019 1.328007 -0.000404 0.0
0.760505 1.706765 -0.001605 0.0
1.425450 0.518298 -0.000716 0.0
3.106499 1.445172 -0.002789 0.0
1.559490 0.796259 0.000527 0.0
3.244360 0.453581 -0.000199 0.0
2.652737 0.564280 -0.002673 0.0
1.892512 0.636247 -0.001310 0.0
4.282624 0.213736 -0.000612 0.0
0.666209 1.621270 0.000232 0.0
0.066360 0.242047 -0.000976 0.0
2.193738 0.319380 -0.002096 0.0
2.886594 0.315026 -0.004034 0.0
3.694436 1.462723 0.001137 0.0
3.980415 0.274812 0.003264 0.0
2.021916 0.550728 -0.002616 0.0
2.858107 0.405781 0.003872 0.0
1.390910 0.750375 0.002275 0.0
4.734323 0.646503 -0.000232 0.0
1.932834 0.555290 0.000197 0.0
2.156662 0.414003 -0.003369 0.0
4.587109 0.293800 -0.003545 0.0
0.496566 1.729033 0.000858 0.0
3.659569 1.480534 -0.002269 0.0
1.019066 0.534924 0.000495 0.0
3.053098 0.682141 -0.004300 0.0
1.519580 0.919430 -0.005021 0.0
3.249159 1.385739 0.001115 0.0
3.351254 0.348635 0.000348 0.0
4.488052 1.043144 -0.004288 0.0
1.716696 0.779225 0.001931 0.0
0.974541 0.345737 0.002135 0.0
3.967452 1.559280 0.003345 0.0
4.308857 1.608979 -0.001077 0.0
1.316520 0.800369 0.000111 0.0
0.346799 1.355386 -0.003361 0.0
3.714429 1.150202 0.000695 0.0
2.093152 0.959583 0.003197 0.0
3.176102 0.378600 0.001555 0.0
0.209331 0.237388 -0.002623 0.0
1.317007 0.849127 0.004266 0.0
3.731435 0.914077 0.000732 0.0
1.723353 0.759164 -0.000549 0.0
3.759724 0.414706 0.003086 0.0
2.477034 0.122004 0.004647 0.0
4.464676 1.193502 -0.000669 0.0
2.223872 1.115307 0.004087 0.0
2.338275 0.244174 -0.003143 0.0
1.821832 0.873839 0.007899 0.0
2.796012 0.996623 -0.000103 0.0
0.695110 0.967084 -0.001005 0.0
0.466116 0.598206 -0.000167 0.0
3.013511 1.555560 -0.002391 0.0
2.424656 0.809253 0.002608 0.0
2.528955 0.745631 -0.002604 0.0
3.734307 1.144893 -0.000724 0.0
1.425895 1.509916 0.003182 0.0
0.260634 0.364203 0.002890 0.0
1.260270 0.301440 -0.001130 0.0
4.498804 0.618933 -0.002556 0.0
1.354886 0.489584 -0.000279 0.0
4.175071 1.490898 -0.000449 0.0
4.315674 1.014378 -0.004957 0.0
2.266598 1.436588 -0.000402 0.0
3.427397 1.461892 0.000594 0.0
0.350366 0.916707 -0.002428 0.0
2.522431 1.181742 -0.002469 0.0
4.558078 1.392385 -0.003761 0.0
0.111714 1.203563 -0.001963 0.0
4.294397 0.959710 0.002186 0.0
1.685821 1.096579 -0.000628 0.0
2.725230 1.103616 0.000974 0.0
4.025529 1.606080 -0.000681 0.0
3.211301 1.099237 -0.003186 0.0
4.133814 1.241404 0.001312 0.0
4.616828 0.438209 -0.000427 0.0
0.000165 0.380130 0.002141 0.0
0.953989 0.682075 -0.001437 0.0
1.476067 0.194688 -0.002148 0.0
2.027384 0.593970 0.000615 0.0
2.858031 0.272302 -0.002536 0.0
0.516245 0.484258 -0.003479 0.0
1.372072 1.515440 -0.004207 0.0
2.737210 0.355133 -0.000176 0.0
0.737547 1.624640 -0.000211 0.0
2.960193 1.226399 0.000523 0.0
2.680055 0.587781 0.005618 0.0
1.480842 1.255243 -0.002319 0.0
1.562802 1.649774 0.003699 0.0
3.608940 1.407270 0.002033 0.0
2.205176 1.573194 0.002194 0.0
3.615624 0.590786 -0.003769 0.0
4.723189 1.179735 0.003479 0.0
2.896682 0.647877 0.003322 0.0
1.007842 1.749656 -0.000559 0.0
2.371501 0.923856 -0.000288 0.0
2.999760 0.235043 -0.000009 0.0
0.848690 0.591151 0.000278 0.0
1.619532 0.928139 -0.003195 0.0
0.080640 0.983213 -0.004184 0.0
4.211898 1.143144 0.001865 0.0
1.582272 0.218192 -0.001141 0.0
1.237815 1.012717 -0.003793 0.0
3.068884 0.644196 -0.001338 0.0
2.153264 1.574615 0.000533 0.0
0.974579 0.062801 -0.000368 0.0
1.584484 0.934059 -0.003216 0.0
2.516000 1.484017 -0.001695 0.0
3.590319 1.583227 -0.003166 0.0
2.933538 0.408774 0.002507 0.0
3.780471 1.237764 -0.000875 0.0
1.864832 0.317252 -0.001427 0.0
4.074280 0.005942 0.001183 0.0
2.449157 1.580926 -0.003283 0.0
3.128554 1.415806 0.000227 0.0
4.124280 1.491815 -0.000305 0.0
0.967020 0.143934 0.001730 0.0
2.628637 0.179776 0.001577 0.0
2.545836 0.240356 -0.002526 0.0
0.118000 0.005887 -0.000368 0.0
4.183882 1.039745 -0.000972 0.0
3.075611 0.345705 -0.001731 0.0
1.009884 1.330865 -0.000214 0.0
3.348906 1.564716 0.000705 0.0
4.701223 1.362886 -0.001957 0.0
0.133859 0.100980 0.001110 0.0
2.739703 1.453789 -0.005307 0.0
2.231755 0.159080 -0.000920 0.0
2.313018 0.493100 0.001877 0.0
4.735335 0.199741 0.001845 0.0
4.673875 0.920601 0.001719 0.0
0.950074 0.609930 0.000212 0.0
1.823204 0.254609 0.000198 0.0
4.166596 0.241412 0.001656 0.0
4.658654 1.181251 0.001021 0.0
2.363541 0.830320 0.002135 0.0
1.214315 0.960213 -0.000360 0.0
1.894661 0.754981 -0.001797 0.0
0.943290 1.552506 0.005083 0.0
0.197628 0.421993 -0.002424 0.0
0.326356 1.079424 0.000378 0.0
1.601989 1.134250 0.000456 0.0
2.089874 0.606894 0.001604 0.0
2.733650 0.745534 0.000013 0.0
3.517342 1.547445 -0.004255 0.0
1.000172 0.843920 0.000131 0.0
3.880591 0.565728 -0.001223 0.0
4.525866 0.743720 -0.001176 0.0
4.016853 0.553647 0.002921 0.0
0.054075 1.550710 -0.002098 0.0
3.756776 0.670890 0.003525 0.0
0.463686 1.469119 -0.001408 0.0
3.864102 0.274393 0.002755 0.0
1.355166 1.197438 0.000848 0.0
3.582584 0.024747 0.000220 0.0
1.758846 0.249978 0.004126 0.0
2.159540 0.878229 -0.002929 0.0
4.558838 1.694747 0.004511 0.0
3.278305 1.118533 -0.000911 0.0
3.038473 0.701761 0.000725 0.0
0.057403 0.303584 0.001060 0.0
2.371480 1.594329 -0.000864 0.0
4.570444 1.235967 0.001203 0.0
0.065945 1.567621 0.000513 0.0
2.776155 0.935077 -0.000997 0.0
4.562503 1.416944 0.005017 0.0
0.383240 0.177393 0.002729 0.0
3.551425 0.614982 0.003273 0.0
1.785868 0.313927 -0.001506 0.0
0.549449 0.686808 0.000903 0.0
3.947033 1.198065 0.002470 0.0
3.750738 1.745418 -0.003276 0.0
1.483971 1.243856 -0.000885 0.0
4.019061 1.522115 -0.004872 0.0
4.699561 1.049317 -0.000293 0.0
2.669832 1.500713 0.003673 0.0
0.254869 0.086725 -0.001678 0.0
2.511947 1.653185 0.002676 0.0
1.198449 1.645133 0.000042 0.0
1.968827 1.107862 0.002053 0.0
2.419640 0.818429 0.000742 0.0
3.359937 0.090987 -0.002896 0.0
1.266772 0.275437 0.004750 0.0
1.549737 1.342700 -0.000982 0.0
2.337621 0.112367 -0.004447 0.0
1.740717 0.906999 0.000784 0.0
3.287582 1.631695 -0.002751 0.0
2.399605 1.466878 0.001862 0.0
1.694792 0.891180 -0.001755 0.0
0.689460 0.535264 -0.002995 0.0
4.090680 1.067867 -0.000557 0.0
4.609603 0.542097 0.002081 0.0
1.894332 0.468940 -0.000527 0.0
4.222514 0.798533 0.000226 0.0
3.860068 0.442075 0.001488 0.0
4.306314 0.871559 0.001576 0.0
0.216300 1.718014 -0.003143 0.0
0.668833 0.927828 0.000824 0.0
3.067920 1.341107 -0.001257 0.0
4.007948 1.467571 -0.002343 0.0
2.294454 1.391950 -0.000644 0.0
0.143055 1.001977 0.002019 0.0
2.974599 1.302369 -0.002585 0.0
2.057059 0.568523 0.003035 0.0
2.115251 1.132703 0.000738 0.0
3.539558 0.133693 -0.003577 0.0
3.891816 0.723349 0.002042 0.0
2.778382 1.711031 -0.000883 0.0
0.945069 1.346162 0.000146 0.0
3.313260 1.650248 -0.001405 0.0
3.235514 0.636314 -0.002836 0.0
2.627720 1.699520 -0.001377 0.0
1.387520 1.495550 -0.004272 0.0
2.999153 0.333953 0.005982 0.0
1.737093 1.208222 0.000490 0.0
2.708647 0.244591 -0.002186 0.0
2.762025 0.661350 -0.000124 0.0
0.014923 0.915422 0.000507 0.0
1.430390 0.656091 0.001196 0.0
4.083438 0.823651 -0.003697 0.0
2.153368 0.643910 0.002663 0.0
2.680614 1.581572 0.001806 0.0
3.308700 1.132242 0.001426 0.0
0.403192 0.648796 0.001760 0.0
4.103883 0.378390 0.002605 0.0
3.983988 0.999615 0.001045 0.0
0.861553 0.328728 0.002600 0.0
1.109715 1.268723 0.001178 0.0
2.009771 1.662394 -0.000431 0.0
3.630302 1.115919 -0.000086 0.0
0.229388 0.667105 -0.000062 0.0
2.557581 0.384442 -0.003975 0.0
0.580331 0.894458 0.001776 0.0
2.624817 1.688215 0.000298 0.0
0.100451 1.357230 0.004972 0.0
3.345241 0.361568 0.001164 0.0
4.609031 0.144165 -0.000838 0.0
2.481954 0.043713 -0.000808 0.0
4.484077 0.609352 -0.000552 0.0
3.864622 0.854330 0.003688 0.0
3.641842 0.651198 0.003859 0.0
1.334680 1.324250 -0.002014 0.0
1.539636 0.466592 -0.001806 0.0
0.144100 -0.001281 0.003072 0.0
0.360151 0.723719 -0.000655 0.0
4.106318 0.973931 0.000539 0.0
2.526770 0.295207 -0.003268 0.0
1.894700 0.177211 0.005683 0.0
2.044531 1.090477 0.001185 0.0
3.552637 0.253849 -0.001124 0.0
2.864350 0.555999 0.002478 0.0
1.697108 0.669345 -0.000468 0.0
4.698681 1.436919 0.001113 0.0
2.991956 0.028170 0.002998 0.0
4.047282 0.547637 -0.002332 0.0
1.787270 0.721601 -0.000603 0.0
1.907039 0.653725 0.002539 0.0
1.978906 0.038649 0.002195 0.0
0.057973 1.587740 -0.000254 0.0
3.070180 0.362260 -0.003405 0.0
4.094782 0.227918 -0.002132 0.0
1.850790 0.587441 -0.000320 0.0
0.595139 1.659682 0.001513 0.0
3.036659 0.307744 0.001462 0.0
2.759517 0.297027 -0.003265 0.0
3.536807 0.332085 0.000612 0.0
1.537911 1.714401 0.000994 0.0
3.905118 0.092608 0.002974 0.0
2.659740 1.011579 0.003670 0.0
0.813049 0.291759 -0.000680 0.0
0.659240 1.417822 -0.000229 0.0
2.047156 1.574191 -0.002364 0.0
2.813966 0.638889 0.000057 0.0
3.136209 0.232336 -0.000530 0.0
3.688792 0.553765 -0.002070 0.0
0.776862 1.429312 0.003299 0.0
1.261322 0.079232 -0.000688 0.0
2.755264 1.553756 -0.002771 0.0
0.590650 0.549570 0.001394 0.0
2.001705 0.882903 -0.000914 0.0
3.488651 1.652505 0.000504 0.0
0.963247 1.402701 -0.000134 0.0
2.441146 0.833463 0.002584 0.0
4.196944 0.027737 0.000711 0.0
3.136585 0.445481 -0.001476 0.0
4.094534 0.246503 -0.000550 0.0
3.039930 1.317185 -0.003086 0.0
2.354348 0.697921 0.002402 0.0
2.430854 1.110337 0.002164 0.0
0.788770 1.220468 -0.002152 0.0
2.139666 1.165272 -0.000815 0.0
0.440642 1.093246 -0.001732 0.0
4.485479 0.641432 0.001335 0.0
0.430100 1.256082 -0.002482 0.0
1.610389 0.330101 -0.000340 0.0
1.933688 1.623614 -0.000611 0.0
1.764200 1.542591 -0.001313 0.0
2.334980 1.094702 -0.001575 0.0
2.241555 0.410068 -0.003246 0.0
0.016282 0.982962 -0.002012 0.0
2.970336 1.379281 0.003003 0.0
2.851670 1.540422 -0.004683 0.0
3.401172 1.184478 -0.001702 0.0
0.357748 1.717019 0.000870 0.0
0.522041 0.572640 0.000324 0.0
0.667872 1.482404 0.001108 0.0
0.611486 1.635938 -0.000052 0.0
3.721270 0.093505 -0.001706 0.0
0.485179 0.380397 -0.002585 0.0
1.600195 0.172143 0.002408 0.0
3.882679 0.018777 -0.002639 0.0
3.835211 0.767614 0.002872 0.0
1.685363 0.685479 0.000664 0.0
1.520680 1.115604 0.004190 0.0
1.223343 0.842361 0.005003 0.0
