0.74198362 1.38963128 0.00603787 0.00000000
2.43255851 0.60866224 -0.00217232 0.00000000
1.29616607 0.50991423 -0.00150086 0.00000000
3.89682362 1.06835747 0.00119604 0.00000000
0.92005852 1.01904951 -0.00023097 0.00000000
3.14970175 0.38901631 -0.00253632 0.00000000
3.47726363 1.73733719 0.00087904 0.00000000
4.66415107 0.70737080 0.00116116 0.00000000
4.65757749 1.91616794 -0.00122620 0.00000000
3.53335624 0.16087270 0.00019478 0.00000000
1.90219946 0.82077483 -0.00032198 0.00000000
1.92966717 0.53634263 0.00303691 0.00000000
0.25209266 0.60137798 0.00052671 0.00000000
0.62381537 0.70936434 0.00029026 0.00000000
2.32013467 0.89229950 -0.00039060 0.00000000
0.53229672 1.38596576 0.00374161 0.00000000
2.39849744 1.95725546 -0.00147416 0.00000000
3.50206179 1.02918507 -0.00133169 0.00000000
3.62914283 1.32197693 0.00527223 0.00000000
1.52544123 1.41165315 -0.00256901 0.00000000
0.18146068 0.04991107 -0.00024460 0.00000000
3.64799667 0.60386370 0.00384888 0.00000000
0.49483639 0.68040374 -0.00333983 0.00000000
2.97526811 1.66455203 -0.00002258 0.00000000
4.19317378 1.84427194 -0.00010503 0.00000000
0.33340815 1.72359496 0.00145724 0.00000000
1.89676488 0.66704728 0.00113721 0.00000000
1.84877942 1.83841769 0.00005497 0.00000000
4.52205508 1.30181058 -0.00096493 0.00000000
2.97764143 1.98560428 0.00467615 0.00000000
4.71357325 0.00982212 -0.00139338 0.00000000
1.48705008 1.54063420 0.00226069 0.00000000
0.44479498 0.76737668 0.00443744 0.00000000
4.20825899 0.60237978 -0.00088505 0.00000000
4.71847348 1.24179971 -0.00598004 0.00000000
4.70922374 2.07931474 0.00045228 0.00000000
4.61835708 1.58097568 0.00468543 0.00000000
3.99780060 1.20927529 0.00068289 0.00000000
2.18338436 2.02302005 -0.00079825 0.00000000
0.37362775 0.53123799 -0.00349464 0.00000000
0.68893501 1.18868153 -0.00160668 0.00000000
3.97625446 0.68463858 0.00186656 0.00000000
2.61220649 1.14417537 0.00073115 0.00000000
1.30554114 0.32830115 0.00123837 0.00000000
4.45108700 0.67900891 -0.00118457 0.00000000
0.21824746 1.92894290 -0.00061503 0.00000000
1.59617219 1.50496435 -0.00123595 0.00000000
2.40955867 0.39653908 0.00124935 0.00000000
4.16572383 0.12447627 -0.00035356 0.00000000
0.40878149 1.07099430 -0.00322727 0.00000000
3.95222596 1.57906345 0.00292396 0.00000000
0.90619184 1.97845529 0.00264311 0.00000000
0.36273934 1.53553081 -0.00163085 0.00000000
3.68978813 1.39352371 -0.00445966 0.00000000
1.07791009 1.50521152 0.00095236 0.00000000
1.65547732 0.84559645 0.00139866 0.00000000
2.47998296 1.28040523 0.00272518 0.00000000
1.80573785 2.04509618 0.00131872 0.00000000
0.73344408 1.95185049 -0.00306490 0.00000000
2.27972320 0.39632164 -0.00128272 0.00000000
2.66028963 1.61592147 0.00335285 0.00000000
2.18451744 0.68921894 -0.00544253 0.00000000
0.02437043 1.36202076 -0.00415904 0.00000000
1.87128159 0.77419456 -0.00088938 0.00000000
2.61211680 1.78972049 -0.00501743 0.00000000
0.69200392 0.30939324 0.00134884 0.00000000
4.77493336 0.60401232 -0.00010408 0.00000000
0.54478366 1.27995511 -0.00087470 0.00000000
2.00404171 0.88775872 0.00286715 0.00000000
4.23259775 1.67567083 -0.00075560 0.00000000
1.80710311 0.07345541 -0.00279377 0.00000000
1.08298292 1.06895585 -0.00341825 0.00000000
1.54289013 0.22323891 -0.00233081 0.00000000
3.74741543 1.38697929 -0.00092881 0.00000000
0.79890573 1.55881452 -0.00181425 0.00000000
0.65539824 0.71679420 0.00060253 0.00000000
4.06781333 1.85955159 -0.00139648 0.00000000
3.54432348 1.57816511 -0.00104084 0.00000000
2.92673350 1.79303904 -0.00173838 0.00000000
0.43043785 0.60407972 -0.00079926 0.00000000
4.15225962 1.38535218 -0.00383061 0.00000000
2.59492953 1.23958206 0.00140056 0.00000000
4.06559354 1.20081148 -0.00114386 0.00000000
1.62919302 1.06504838 -0.00005286 0.00000000
2.38434724 0.24027842 -0.00087037 0.00000000
2.13238570 0.18795533 -0.00195808 0.00000000
1.83725909 0.67057763 -0.00055109 0.00000000
0.10172529 0.70415341 -0.00332633 0.00000000
0.41185601 0.69510968 0.00383364 0.00000000
2.66916249 0.37186711 0.00550285 0.00000000
1.67572779 1.92306600 -0.00232764 0.00000000
1.79956603 1.77270779 -0.00012315 0.00000000
0.16154229 0.71831765 -0.00103551 0.00000000
2.86766828 0.65663054 -0.00079958 0.00000000
1.97496160 2.02015905 0.00166337 0.00000000
2.56069430 1.53694317 0.00232777 0.00000000
1.31144281 2.13156132 -0.00034477 0.00000000
2.34715996 0.06427559 -0.00372155 0.00000000
3.88632749 0.03178036 -0.00282212 0.00000000
2.02472547 0.40207577 0.00218102 0.00000000
0.25411161 0.59991417 0.00096389 0.00000000
3.83008619 0.78751482 0.00196641 0.00000000
1.45625827 0.90520346 -0.00379232 0.00000000
2.42559151 0.64279824 -0.00180047 0.00000000
2.31215459 1.04548369 -0.00211204 0.00000000
0.15049702 1.97538685 -0.00587634 0.00000000
1.43368627 1.08762121 0.00162292 0.00000000
1.80385986 1.79740768 0.00039183 0.00000000
0.80145813 2.18114474 0.00240711 0.00000000
0.77913242 1.01129734 -0.00117364 0.00000000
2.02270053 0.90637501 -0.00364435 0.00000000
4.62202911 0.49572912 0.00225509 0.00000000
1.84065056 0.51802771 -0.00439096 0.00000000
1.00167553 0.88982328 -0.00301404 0.00000000
2.92814841 0.02777025 0.00014267 0.00000000
1.25394428 1.78204602 -0.00057535 0.00000000
4.30394563 2.20989348 0.00262443 0.00000000
3.50991230 1.60952213 0.00182815 0.00000000
4.75138447 1.09213230 -0.00425946 0.00000000
0.61227293 1.54959994 -0.00380494 0.00000000
3.29083254 1.92312594 0.00199041 0.00000000
1.18746657 0.78632753 -0.00218949 0.00000000
0.06946765 2.13144323 0.00023714 0.00000000
0.59890172 1.48858921 0.00184661 0.00000000
3.37486770 2.13403422 -0.00058754 0.00000000
0.13676213 1.42974812 0.00042599 0.00000000
2.23476519 1.85543219 0.00174611 0.00000000
1.23908954 2.17933948 -0.00105566 0.00000000
4.43243638 1.87184707 -0.00342141 0.00000000
2.87102979 1.37677932 -0.00071399 0.00000000
3.03404914 0.06514941 -0.00252997 0.00000000
0.73119082 0.79591568 -0.00160303 0.00000000
0.27963803 1.70538095 0.00008410 0.00000000
2.02762682 2.07701226 -0.00522694 0.00000000
2.73995940 2.19411770 0.00043793 0.00000000
3.36736441 1.01962214 0.00151408 0.00000000
2.21489432 1.68350372 0.00118061 0.00000000
1.53629913 1.63527513 -0.00462242 0.00000000
4.51422771 0.03540740 0.00285452 0.00000000
4.60041886 0.29485773 -0.00101491 0.00000000
3.32039853 2.06328522 0.00225812 0.00000000
0.73625187 2.13249572 0.00563108 0.00000000
1.05319200 1.12430059 -0.00176429 0.00000000
4.76547555 0.57260123 -0.00316382 0.00000000
1.71615670 1.16960600 -0.00213341 0.00000000
2.79771776 0.47097816 0.00447337 0.00000000
4.60993979 1.36509669 -0.00472091 0.00000000
0.59352175 2.17537801 0.00033701 0.00000000
3.44612169 1.29776576 0.00169900 0.00000000
4.27650645 1.37031538 -0.00251025 0.00000000
1.06060501 1.54236866 0.00710000 0.00000000
3.51636780 0.03201153 0.00489208 0.00000000
1.98966839 0.35920806 -0.00049672 0.00000000
3.82386379 1.88845652 -0.00337947 0.00000000
0.67357112 1.74576087 -0.00044715 0.00000000
1.13733344 1.67618259 -0.00087986 0.00000000
1.85854634 1.27877951 0.00192462 0.00000000
0.21510296 1.46479434 -0.00063614 0.00000000
2.43699968 1.26204498 0.00375990 0.00000000
4.78517658 1.20673161 -0.00449860 0.00000000
0.61075561 1.67624757 0.00152179 0.00000000
0.66626651 0.13068101 0.00063366 0.00000000
1.27861325 1.80426983 0.00029813 0.00000000
2.59576453 0.74985478 -0.00408114 0.00000000
4.02444912 1.73541046 -0.00122672 0.00000000
1.47677360 1.55322977 -0.00056177 0.00000000
4.72528697 0.27332937 0.00000220 0.00000000
0.52512831 0.33302486 -0.00098613 0.00000000
3.44581541 2.02727584 0.00045349 0.00000000
1.91538099 1.06856162 -0.00046905 0.00000000
1.78628007 0.42587558 -0.00233889 0.00000000
2.65989397 1.34837951 -0.00288571 0.00000000
1.74449607 1.34089048 -0.00111238 0.00000000
2.80221343 1.22314532 0.00077605 0.00000000
0.86373374 0.95787889 -0.00065422 0.00000000
3.19120148 1.20742829 -0.00050645 0.00000000
0.34003941 1.19657786 -0.00358329 0.00000000
1.08807935 1.20001181 -0.00766481 0.00000000
2.47712746 0.70258254 0.00232486 0.00000000
1.99824048 0.95947517 -0.00248135 0.00000000
2.78221578 1.48426439 0.00363259 0.00000000
4.24132985 0.30147118 -0.00382542 0.00000000
1.04600079 0.50363601 0.00305923 0.00000000
0.56470114 1.14589253 0.00161649 0.00000000
1.82461693 1.24056318 0.00114864 0.00000000
1.26531137 1.25881741 -0.00328785 0.00000000
4.25459958 1.71657773 -0.00008858 0.00000000
4.35664849 1.65520639 0.00235706 0.00000000
4.64973144 1.81976708 -0.00345388 0.00000000
2.07481333 1.84184649 0.00108262 0.00000000
2.19592240 1.16897954 -0.00601466 0.00000000
2.00205197 1.46410061 -0.00030146 0.00000000
4.82194317 0.36534247 0.00013516 0.00000000
1.72696438 0.49292096 -0.00160804 0.00000000
3.65341619 1.88265116 0.00119922 0.00000000
4.51111207 0.51053217 0.00216170 0.00000000
3.61728632 0.87210559 0.00343109 0.00000000
0.37757206 0.74249590 0.00367177 0.00000000
1.12910755 0.92226664 -0.00433829 0.00000000
0.42526642 2.10010241 -0.00240479 0.00000000
0.08267124 0.35790998 -0.00509445 0.00000000
1.23606215 0.98204256 -0.00235487 0.00000000
2.63407940 1.59784191 0.00003295 0.00000000
0.33388066 1.63707683 0.00011186 0.00000000
4.76927199 1.72339954 -0.00535143 0.00000000
3.66069439 1.74858206 0.00137667 0.00000000
2.04308481 0.17383742 0.00258406 0.00000000
4.09754836 1.00182326 0.00232373 0.00000000
3.05506898 1.34900099 0.00111078 0.00000000
2.75202059 0.52834272 -0.00124606 0.00000000
0.61028010 0.98004249 0.00074496 0.00000000
1.41577963 0.57993888 0.00050481 0.00000000
0.83430117 0.99973279 0.00050769 0.00000000
3.36589420 1.76715146 0.00078506 0.00000000
3.46681859 1.36486180 -0.00227427 0.00000000
2.02563904 0.02452650 -0.00278795 0.00000000
0.03230865 1.92525636 -0.00203876 0.00000000
0.32587742 1.04320109 -0.00378369 0.00000000
4.35574068 1.44929060 0.00261289 0.00000000
4.21720431 0.48113777 0.00037696 0.00000000
2.36911622 1.70044907 0.00142162 0.00000000
2.60548891 0.41415065 0.00436551 0.00000000
2.33730443 1.40617024 0.00154876 0.00000000
2.66218102 2.14010544 0.00356304 0.00000000
2.59143656 0.45226392 0.00053692 0.00000000
4.87930855 0.54895634 0.00275541 0.00000000
3.56598638 1.63415800 -0.00523782 0.00000000
1.28170542 0.49170981 -0.00424011 0.00000000
3.24715603 1.60413691 -0.00128393 0.00000000
1.02549376 2.12083094 -0.00408703 0.00000000
1.09792878 2.09106309 -0.00024443 0.00000000
3.64082126 2.02606583 -0.00110484 0.00000000
1.18352807 1.10608792 -0.00369665 0.00000000
4.66977137 1.55725084 0.00394050 0.00000000
3.13992416 0.47883722 -0.00124848 0.00000000
4.58732111 1.96385940 0.00027444 0.00000000
3.13649734 0.53024307 -0.00167626 0.00000000
1.30326385 0.56153452 -0.00284205 0.00000000
2.95704949 0.62178200 0.00515500 0.00000000
0.04645959 1.89297039 0.00319517 0.00000000
4.88213599 1.57080127 0.00110018 0.00000000
1.75551596 2.02213045 -0.00287209 0.00000000
3.85026124 1.99257070 -0.00291663 0.00000000
0.87653723 0.59091619 -0.00257056 0.00000000
4.06362965 1.04283480 -0.00141600 0.00000000
0.50987927 1.64195837 0.00258476 0.00000000
3.87053054 1.91501436 -0.00442379 0.00000000
2.16206963 2.12948933 -0.00399273 0.00000000
1.84285602 1.87552400 -0.00058376 0.00000000
0.44490320 2.16786269 0.00224292 0.00000000
0.98533443 0.20748959 0.00208532 0.00000000
1.10459309 0.06447650 -0.00045039 0.00000000
4.69015845 1.02160039 -0.00447930 0.00000000
0.19096373 0.04283786 0.00261562 0.00000000
0.83197437 0.51511373 0.00321887 0.00000000
0.48256039 0.88983629 0.00161827 0.00000000
3.16225034 1.88281511 0.00310181 0.00000000
4.66430037 0.81498268 0.00169304 0.00000000
1.84602716 1.93316940 -0.00123052 0.00000000
2.93937559 1.56875288 0.00105631 0.00000000
0.26237991 1.23241774 -0.00272407 0.00000000
2.10035978 0.60923690 0.00032555 0.00000000
1.02345048 0.36062175 -0.00248967 0.00000000
0.58336644 0.98823506 -0.00005481 0.00000000
3.00933132 0.56068775 0.00353252 0.00000000
3.79093452 0.33505489 -0.00249945 0.00000000
1.87639996 0.40539231 0.00125652 0.00000000
3.51099087 1.63579961 0.00142151 0.00000000
2.92967789 1.44811012 0.00167939 0.00000000
2.07052226 1.64322735 0.00309339 0.00000000
4.32528391 1.67762351 0.00066230 0.00000000
0.67520498 1.71878084 -0.00235085 0.00000000
3.27190211 0.48172004 0.00098586 0.00000000
2.71582600 0.76236295 -0.00128251 0.00000000
0.70481154 1.26932895 -0.00364606 0.00000000
2.33958543 0.96630198 0.00277215 0.00000000
2.21702522 1.53443660 -0.00068552 0.00000000
1.72269121 2.03817763 0.00267182 0.00000000
3.76495495 0.84699854 0.00152178 0.00000000
2.50048010 0.77600169 -0.00109217 0.00000000
4.88021900 0.48153352 0.00185561 0.00000000
0.18803852 1.45492592 0.00026449 0.00000000
2.84078239 1.30070553 0.00084467 0.00000000
2.80354182 0.21032395 0.00080279 0.00000000
3.70313019 1.55291516 0.00058729 0.00000000
3.07537845 0.07611106 -0.00058191 0.00000000
1.58263166 1.55979242 0.00121719 0.00000000
0.54147522 0.15528642 -0.00118248 0.00000000
4.44596418 0.57282443 -0.00065226 0.00000000
1.81765845 0.30859080 0.00259468 0.00000000
1.38529301 0.06781696 0.00188493 0.00000000
2.01288797 0.56673158 -0.00191338 0.00000000
4.66256572 0.25297367 0.00070471 0.00000000
1.14603089 0.83952118 0.00113583 0.00000000
2.63871450 0.34080573 0.00046457 0.00000000
4.79005981 0.81474383 -0.00090643 0.00000000
4.76086219 0.76224443 -0.00207033 0.00000000
2.96805838 1.16193844 0.00295275 0.00000000
4.85935983 1.73686051 0.00148501 0.00000000
0.86520940 1.18689823 0.00329091 0.00000000
0.36583397 1.26902929 0.00500234 0.00000000
2.18137443 1.62419875 0.00047597 0.00000000
3.81163346 0.61537644 0.00239304 0.00000000
1.25616363 1.14595934 -0.00202186 0.00000000
2.12511475 1.42531156 0.00048579 0.00000000
1.84699409 1.54441776 0.00252689 0.00000000
0.57556420 0.07995792 -0.00079399 0.00000000
3.09763545 0.09454415 -0.00197624 0.00000000
4.71333055 1.84726052 -0.00097227 0.00000000
1.23630331 0.69502248 -0.00030931 0.00000000
1.39262241 0.94652442 0.00154707 0.00000000
0.51114355 2.18674481 -0.00054863 0.00000000
4.11181718 0.83724849 0.00186671 0.00000000
1.50133777 2.05843055 -0.00165600 0.00000000
3.18277356 2.20651593 -0.00353097 0.00000000
4.53901992 0.66029944 -0.00517372 0.00000000
1.48425059 1.77041883 -0.00225973 0.00000000
4.06741940 0.80048368 -0.00180911 0.00000000
3.24175877 1.57329903 -0.00012599 0.00000000
4.43428968 0.28536226 0.00143319 0.00000000
2.34465254 1.61842657 0.00598421 0.00000000
2.36395882 0.28936833 0.00232623 0.00000000
4.81397235 1.67004384 0.00006105 0.00000000
0.53937917 1.03221560 -0.00167000 0.00000000
1.64717604 1.43569252 -0.00083940 0.00000000
0.61195869 1.79952250 0.00218222 0.00000000
2.67369132 0.86617202 0.00059904 0.00000000
3.83029819 2.13117461 -0.00111202 0.00000000
3.71298796 0.86153436 0.00257141 0.00000000
4.73146724 1.32549065 -0.00376703 0.00000000
2.18285732 1.00197192 -0.00317401 0.00000000
1.64203466 2.21176523 -0.00177593 0.00000000
1.22039394 1.64377609 -0.00114331 0.00000000
1.86528196 2.06415421 -0.00305013 0.00000000
2.58331556 0.44641050 -0.00209464 0.00000000
0.71997453 0.56799556 -0.00012582 0.00000000
2.29581979 1.66438528 0.00098570 0.00000000
1.90977746 0.58952711 -0.00030607 0.00000000
2.48598838 1.73680008 -0.00943374 0.00000000
0.88277680 2.00195477 -0.00025150 0.00000000
3.82827285 1.59781967 -0.00238389 0.00000000
2.92470870 0.53415472 -0.00208794 0.00000000
3.96153599 0.53638777 -0.00343685 0.00000000
1.82690521 1.70263549 0.00056731 0.00000000
4.22219454 0.38594161 0.00103942 0.00000000
0.13899495 1.53350817 -0.00283553 0.00000000
3.24116900 1.60593661 0.00251298 0.00000000
4.40106655 2.20854891 0.00017080 0.00000000
3.59283920 1.42315578 0.00088326 0.00000000
3.31193957 0.46070572 0.00480986 0.00000000
0.88436257 0.23378139 0.00140622 0.00000000
4.81866387 1.75162597 -0.00180912 0.00000000
3.25463217 1.85043943 -0.00306763 0.00000000
3.63755602 1.40199469 -0.00075318 0.00000000
1.42852824 0.39702491 0.00332478 0.00000000
2.69923520 0.04404679 0.00291733 0.00000000
4.78105468 0.30553853 -0.00010833 0.00000000
4.50585999 1.25446724 0.00230528 0.00000000
0.58711727 1.49384482 -0.00125676 0.00000000
3.44383157 2.09593361 -0.00186069 0.00000000
4.34890878 2.16769683 -0.00500004 0.00000000
4.18661633 0.63239924 0.00035093 0.00000000
4.29006961 1.40304940 -0.00052068 0.00000000
1.07044886 1.89203121 -0.00288086 0.00000000
1.23748624 0.16606333 0.00405748 0.00000000
2.88675930 0.30450612 0.00473840 0.00000000
2.00960229 1.88979483 -0.00001600 0.00000000
4.09795472 1.40501649 0.00066498 0.00000000
4.18420844 0.67709927 0.00243664 0.00000000
1.29863815 1.54130923 -0.00061621 0.00000000
2.30662506 1.83205403 0.00012315 0.00000000
3.78524077 1.42297464 0.00011052 0.00000000
0.72870788 0.92399858 0.00341939 0.00000000
0.78129803 1.68143004 -0.00468145 0.00000000
4.43719084 2.07003139 -0.00235288 0.00000000
0.42092296 0.92108732 -0.00070819 0.00000000
1.37500764 0.56221830 0.00230370 0.00000000
1.49520138 1.64022393 -0.00351405 0.00000000
3.15660176 0.39798949 -0.00336182 0.00000000
3.34818510 1.14108720 -0.00129495 0.00000000
3.66162818 1.26162582 -0.00293019 0.00000000
3.24432314 1.99720671 0.00103205 0.00000000
2.55352111 1.61689869 0.00120709 0.00000000
3.18767741 0.36142962 -0.00137611 0.00000000
0.65960090 1.20123489 -0.00142043 0.00000000
2.30868400 0.53948790 -0.00134244 0.00000000
1.76640335 2.07846549 0.00002195 0.00000000
4.67381690 0.68982299 0.00229575 0.00000000
2.77995112 0.29053220 -0.00311959 0.00000000
3.06639476 1.60547471 0.00147876 0.00000000
2.04305628 0.27470484 -0.00260969 0.00000000
1.06511611 1.48013425 0.00319948 0.00000000
3.40372273 2.18094192 -0.00193713 0.00000000
3.40475685 1.17826680 -0.00071883 0.00000000
3.83117307 0.06805070 0.00319530 0.00000000
0.27167777 1.53232078 0.00105799 0.00000000
3.34193057 0.71037285 0.00457188 0.00000000
1.96913793 1.34221139 0.00337038 0.00000000
4.61158824 1.00994527 -0.00175181 0.00000000
0.17243378 0.87137946 0.00291158 0.00000000
3.45473524 0.94547784 -0.00338622 0.00000000
1.88564496 0.99811302 -0.00461763 0.00000000
2.13265291 0.57039915 -0.00181723 0.00000000
3.80377496 1.52037746 -0.00015204 0.00000000
3.56771916 0.03345408 0.00112092 0.00000000
4.12391082 0.45688878 0.00015833 0.00000000
0.75218847 0.21161007 0.00094542 0.00000000
1.17214722 0.78745328 0.00090629 0.00000000
1.63786108 1.74316888 0.00218366 0.00000000
3.06456131 1.05914258 -0.00381764 0.00000000
4.48187202 1.23140495 0.00065805 0.00000000
0.01496007 1.36091398 -0.00435396 0.00000000
0.96207998 1.31782895 -0.00053757 0.00000000
0.34993572 1.09008998 0.00007922 0.00000000
4.75592899 0.89502155 0.00213164 0.00000000
2.92028513 1.80973548 0.00255872 0.00000000
1.63603423 0.90554873 -0.00003051 0.00000000
0.49069118 0.02812802 -0.00297547 0.00000000
4.36997787 0.33042973 -0.00508691 0.00000000
2.15721354 0.27234249 -0.00384062 0.00000000
1.51489141 2.12842397 -0.00068296 0.00000000
0.37355449 0.34251573 -0.00564948 0.00000000
3.16950039 1.84390344 0.00142554 0.00000000
2.81739485 0.22731861 -0.00835920 0.00000000
2.78134053 1.61970348 -0.00171447 0.00000000
0.45746613 0.60925088 0.00074549 0.00000000
2.06205373 1.89094118 -0.00018707 0.00000000
0.95807365 0.38841991 0.00436160 0.00000000
1.92602600 0.67657180 0.00058275 0.00000000
2.76946628 1.09342370 -0.00030342 0.00000000
2.75246480 1.42720266 0.00064416 0.00000000
4.73605897 0.92839198 0.00047283 0.00000000
3.44527504 0.52002683 -0.00234545 0.00000000
1.91126089 0.65566218 0.00206596 0.00000000
0.55762072 1.94930139 0.00424063 0.00000000
1.85298939 1.02123375 -0.00092538 0.00000000
4.50465732 0.97478304 0.00215994 0.00000000
1.68520477 0.88450020 -0.00488124 0.00000000
0.76187612 2.19874804 0.00254006 0.00000000
3.82022913 1.02853671 -0.00180945 0.00000000
0.14746518 0.55551249 0.00105773 0.00000000
1.59434167 1.92334767 0.00026174 0.00000000
0.27264942 1.43636766 -0.00333872 0.00000000
1.44066709 0.31368438 0.00058139 0.00000000
4.15607348 0.48849799 -0.00165068 0.00000000
2.37742683 0.67796056 0.00362778 0.00000000
3.09046557 1.96238414 0.00074396 0.00000000
0.71575468 0.00211417 0.00288150 0.00000000
1.64469845 2.03471363 -0.00061290 0.00000000
3.65415089 1.56822779 -0.00141398 0.00000000
3.31950304 0.51763540 0.00800907 0.00000000
0.60301741 0.72465481 -0.00307179 0.00000000
2.28536606 1.67452769 0.00119689 0.00000000
1.83825898 0.66086062 0.00019565 0.00000000
3.92083393 0.79377526 0.00064690 0.00000000
1.80544174 0.21761228 -0.00085192 0.00000000
4.69405458 0.11692112 -0.00137723 0.00000000
0.55757967 1.14860445 -0.00123122 0.00000000
0.44939537 1.03261532 -0.00255633 0.00000000
0.35399495 0.80400132 0.00087741 0.00000000
0.93410781 0.35891568 -0.00095990 0.00000000
2.71089754 1.63715155 -0.00732754 0.00000000
0.02034089 1.26357716 0.00489524 0.00000000
0.08239684 1.61826436 -0.00103359 0.00000000
4.82923445 1.92787906 -0.00277311 0.00000000
4.50089703 1.10557442 -0.00086709 0.00000000
1.87197959 1.80957049 0.00000707 0.00000000
0.00079476 2.00548441 -0.00485875 0.00000000
0.11552725 0.77665225 -0.00077801 0.00000000
2.93275763 1.67846893 -0.00247291 0.00000000
2.55842865 1.55239393 0.00229441 0.00000000
3.83494811 2.14449391 -0.00329657 0.00000000
0.77911721 1.76195313 0.00332792 0.00000000
3.10983631 1.50640300 0.00189372 0.00000000
3.52467123 1.81072122 -0.00293192 0.00000000
1.49349510 1.39562696 0.00072306 0.00000000
4.09835773 1.40143477 0.00010126 0.00000000
1.66642352 1.21664720 -0.00273360 0.00000000
3.33079336 1.38829779 -0.00216516 0.00000000
4.87555687 0.24838095 0.00119154 0.00000000
1.89255443 0.25200614 0.00272167 0.00000000
3.26100543 1.15236319 0.00587011 0.00000000
2.53652168 1.10050694 0.00086175 0.00000000
2.98757769 0.21815341 0.00320961 0.00000000
0.97260783 0.58896889 -0.00089576 0.00000000
3.47906675 2.05101727 0.00676699 0.00000000
2.75413923 1.03578037 0.00060630 0.00000000
2.60619084 1.92198978 0.00160159 0.00000000
0.12104031 1.69163254 -0.00091076 0.00000000
1.41161588 1.65069320 -0.00337626 0.00000000
3.61691186 2.11562139 0.00314930 0.00000000
2.76824070 1.85215412 0.00278392 0.00000000
0.90911511 2.09573980 0.00005863 0.00000000
3.79535384 0.43809326 0.00098548 0.00000000
2.72206665 0.18860129 0.00371311 0.00000000
3.23355215 0.00904296 -0.00128936 0.00000000
2.29804421 1.20443172 0.00013351 0.00000000
2.09843796 0.66953559 -0.00333386 0.00000000
1.60840500 0.00615064 0.00258657 0.00000000
1.12627700 1.90719791 -0.00297462 0.00000000
1.63666161 1.04422900 0.00300839 0.00000000
1.58591521 1.00144075 0.00110508 0.00000000
0.88794790 1.45006469 -0.00015423 0.00000000
0.97532416 1.52303455 -0.00024100 0.00000000
3.63867122 1.12179485 0.00120556 0.00000000
2.83842837 0.76563203 -0.00180529 0.00000000
4.78756876 2.18693574 0.00337738 0.00000000
0.64371218 0.05193124 -0.00408931 0.00000000
2.01787202 1.32371016 -0.00176882 0.00000000
1.66108699 1.67954322 0.00173992 0.00000000
1.03499114 1.13391967 -0.00053852 0.00000000
4.75980866 0.64903002 -0.00505290 0.00000000
0.84500141 2.16262465 -0.00449393 0.00000000
0.78924665 1.79768198 0.00020062 0.00000000
4.34029173 1.00244729 -0.00239985 0.00000000
0.84361472 0.57153167 0.00235689 0.00000000
4.09117733 1.80005743 0.00209206 0.00000000
2.72945799 0.77344642 0.00183548 0.00000000
1.57537632 1.23399999 -0.00302888 0.00000000
0.30237219 1.24946792 0.00115905 0.00000000
1.77442967 2.04135847 0.00123139 0.00000000
1.00813913 1.77197917 0.00222457 0.00000000
4.19942256 2.19985982 0.00108442 0.00000000
4.73469134 1.15523241 -0.00112600 0.00000000
4.40498304 0.36853530 -0.00081337 0.00000000
1.08794869 1.02168177 0.00150739 0.00000000
3.79323996 1.64402126 -0.00221159 0.00000000
0.93613799 0.44632999 0.00404195 0.00000000
4.88772521 1.98077112 0.00413418 0.00000000
4.35069757 1.11942302 -0.00378255 0.00000000
4.66045921 0.11630066 0.00407700 0.00000000
0.31430984 0.96861877 0.00166979 0.00000000
3.29555746 1.15175910 -0.00551190 0.00000000
3.79770396 0.09893326 -0.00129144 0.00000000
2.08616426 0.41936387 0.00304723 0.00000000
0.69343656 1.35305660 0.00355224 0.00000000
3.32024960 1.42758306 -0.00319428 0.00000000
0.72993964 0.00786300 -0.00723971 0.00000000
1.52827270 0.25584609 -0.00006024 0.00000000
4.10253407 0.84181355 0.00355891 0.00000000
0.77363247 0.55838540 0.00229381 0.00000000
4.51591398 1.43733341 -0.00006825 0.00000000
2.93506135 2.04825879 -0.00076043 0.00000000
2.51683652 0.88955963 0.00414991 0.00000000
2.93539268 1.08817059 -0.00327224 0.00000000
2.17686277 0.22268239 0.00000330 0.00000000
1.64300253 0.84914610 0.00070475 0.00000000
4.58586723 1.53881213 -0.00227722 0.00000000
3.72279523 1.16831385 -0.00039872 0.00000000
0.14034345 0.38106974 -0.00006149 0.00000000
0.88391819 0.15381825 0.00199509 0.00000000
0.85998877 0.98710218 0.00119891 0.00000000
3.87859712 1.33727898 -0.00308931 0.00000000
1.70339020 0.35550159 -0.00478446 0.00000000
2.54987529 2.15566983 0.00098928 0.00000000
4.12069375 1.90815111 0.00395509 0.00000000
0.56409246 0.59790578 0.00013427 0.00000000
1.10692388 0.74884600 -0.00001994 0.00000000
0.85449446 0.74137668 -0.00124748 0.00000000
3.66058814 1.02246662 0.00325305 0.00000000
4.49358415 1.46330642 0.00084954 0.00000000
2.40636184 0.77128641 0.00279554 0.00000000
4.84002198 1.61008981 -0.00097035 0.00000000
0.11937471 0.22065243 -0.00019477 0.00000000
1.87077192 2.04507843 0.00738188 0.00000000
1.60069474 0.71786819 0.00160688 0.00000000
0.05295710 1.57448632 -0.00002389 0.00000000
4.57785789 1.81110869 -0.00573709 0.00000000
0.35374328 0.24124638 -0.00418344 0.00000000
2.48223821 1.11802041 0.00166867 0.00000000
4.87729916 0.58972722 0.00034705 0.00000000
1.43695040 1.77152886 -0.00348929 0.00000000
0.99582204 0.97010828 0.00223337 0.00000000
1.80884017 0.96337130 -0.00065583 0.00000000
1.06849964 0.82616324 -0.00120436 0.00000000
1.30454116 1.62380829 0.00426504 0.00000000
2.74680378 2.14468095 0.00132286 0.00000000
0.48626677 1.13907097 0.00189661 0.00000000
4.08103350 0.56390033 0.00251481 0.00000000
4.84172049 1.66119071 0.00078248 0.00000000
1.14950254 1.97128431 0.00046660 0.00000000
3.83981158 1.81771284 0.00277432 0.00000000
2.47437791 1.13210186 0.00278707 0.00000000
1.13643358 1.00459045 0.00060918 0.00000000
2.88430380 0.32265648 0.00211445 0.00000000
2.21512626 1.03128191 0.00165810 0.00000000
1.52937375 1.48926541 0.00237792 0.00000000
2.92479612 0.06163183 -0.00389467 0.00000000
4.05958640 1.29025591 -0.00568806 0.00000000
3.97551049 0.14258893 0.00123482 0.00000000
1.80321203 1.68947973 -0.00000472 0.00000000
3.38479136 0.99120262 -0.00387545 0.00000000
4.23783142 0.87235402 -0.00178252 0.00000000
0.43028995 0.77176580 0.00379514 0.00000000
3.43129194 0.71948880 0.00329449 0.00000000
0.10233486 0.07105036 0.00304946 0.00000000
3.65518127 1.19276380 0.00044511 0.00000000
3.32272794 0.48922570 0.00231938 0.00000000
0.16367984 1.56700266 0.00133507 0.00000000
3.09785366 0.04523423 -0.00470586 0.00000000
0.15251541 1.21677028 0.00146952 0.00000000
0.62259465 0.78220516 -0.00177503 0.00000000
0.30082144 0.30359959 0.00152181 0.00000000
4.43703314 0.70941909 0.00019116 0.00000000
0.76356785 2.03225261 0.00377982 0.00000000
3.79519602 2.13424511 -0.00238320 0.00000000
3.48606521 0.25359914 -0.00287297 0.00000000
4.49760780 1.59371367 -0.00150288 0.00000000
3.88237852 1.43955814 0.00559087 0.00000000
3.24106022 0.07655645 0.00354641 0.00000000
4.85068633 1.44070444 0.00017448 0.00000000
0.38931009 1.73292135 0.00197173 0.00000000
3.11220219 1.43814356 -0.00059704 0.00000000
1.09012651 0.58657525 -0.00156705 0.00000000
3.84846351 1.90573242 0.00131827 0.00000000
2.43177491 0.17993923 -0.00084607 0.00000000
0.18751307 1.23728632 0.00350874 0.00000000
4.56488865 2.14357890 0.00134109 0.00000000
0.39909526 0.54773292 -0.00136312 0.00000000
0.82866542 1.73345869 0.00294928 0.00000000
4.85105244 0.31420237 -0.00125015 0.00000000
1.98484973 1.64684274 0.00082578 0.00000000
1.59645295 0.05304673 0.00206793 0.00000000
4.51656494 1.89293949 -0.00100083 0.00000000
1.23187180 0.35967869 -0.00049638 0.00000000
3.41400152 1.60042914 -0.00151804 0.00000000
1.09686617 1.46596457 -0.00086268 0.00000000
3.51364352 1.19676372 -0.00354613 0.00000000
1.90380082 1.21002648 -0.00269205 0.00000000
2.29546325 0.44197944 -0.00013156 0.00000000
1.99737607 0.37099836 0.00326051 0.00000000
1.63103058 1.03201459 -0.00231923 0.00000000
1.01562501 2.05554020 -0.00250691 0.00000000
4.39258611 0.40964353 0.00032422 0.00000000
0.49992582 1.88202419 -0.00045343 0.00000000
2.66413879 1.27441215 0.00053746 0.00000000
3.38993341 1.74245449 -0.00282683 0.00000000
0.96224920 0.88218101 0.00003208 0.00000000
4.42140065 1.14661826 0.00107475 0.00000000
1.71719444 1.55042625 0.00148819 0.00000000
1.35463840 0.82666418 -0.00155705 0.00000000
0.94027032 1.74508308 0.00175427 0.00000000
3.72710714 1.88234782 -0.00189245 0.00000000
4.78428628 1.84123266 -0.00083908 0.00000000
1.17754009 1.13325840 -0.00029577 0.00000000
0.02863482 1.21409590 -0.00000359 0.00000000
1.52479418 0.03799691 0.00046921 0.00000000
0.58952338 1.88545242 -0.00035272 0.00000000
4.80058425 1.76542666 -0.00543031 0.00000000
2.56552484 1.67018153 0.00101486 0.00000000
0.67892434 0.34610958 0.00253322 0.00000000
2.86533738 0.67678082 0.00056091 0.00000000
4.55638501 0.49160150 0.00150285 0.00000000
3.84608049 0.63286417 0.00168021 0.00000000
4.23530375 1.24763398 0.00477169 0.00000000
0.19175317 1.20740563 -0.00207374 0.00000000
1.03186821 0.50926329 -0.00247161 0.00000000
3.02585447 1.17439699 -0.00569947 0.00000000
1.12462094 0.54508372 -0.00264482 0.00000000
1.93439387 2.09403202 0.00338150 0.00000000
1.08973529 0.59137240 -0.00156938 0.00000000
2.95084074 1.12614971 -0.00252348 0.00000000
4.41893839 2.03514155 -0.00306458 0.00000000
4.02427509 0.52809469 0.00554382 0.00000000
4.31791528 0.82756271 -0.00126988 0.00000000
0.80083866 1.79106605 -0.00040892 0.00000000
1.58863707 0.03334383 -0.00463645 0.00000000
0.56629295 0.29568596 -0.00225684 0.00000000
1.19669394 2.16035182 -0.00025562 0.00000000
3.27474915 0.92098811 0.00053479 0.00000000
3.87228267 0.99205836 0.00555609 0.00000000
3.71076433 1.37601911 0.00055484 0.00000000
0.53976817 1.24544140 0.00058978 0.00000000
0.24978807 1.01458890 -0.00398489 0.00000000
4.04175236 0.94341192 -0.00021872 0.00000000
3.78840504 0.77597665 -0.00572796 0.00000000
0.38371905 0.08316031 -0.00192950 0.00000000
2.05664438 0.02797719 0.00076509 0.00000000
3.51165340 0.74774715 -0.00322707 0.00000000
1.59663417 0.34449838 -0.00023604 0.00000000
4.42658347 0.76821476 -0.00279784 0.00000000
3.16994743 1.71073316 -0.00377606 0.00000000
1.08039869 0.22117291 0.00359699 0.00000000
3.78385924 0.84218042 -0.00130643 0.00000000
4.36140672 1.24063059 -0.00436948 0.00000000
2.20390310 0.74840594 0.00191291 0.00000000
4.47678052 1.45890917 0.00055359 0.00000000
1.91169796 1.81828637 0.00510329 0.00000000
1.76484603 1.24763911 -0.00029264 0.00000000
3.11411424 1.52111248 -0.00218176 0.00000000
4.11372747 0.42724015 -0.00041829 0.00000000
0.55029210 0.84793494 0.00205074 0.00000000
1.92075596 1.03882736 -0.00456623 0.00000000
2.83223303 1.30334900 0.00169459 0.00000000
0.86090571 0.13019152 -0.00287772 0.00000000
4.27232126 0.56933312 -0.00077917 0.00000000
0.74045581 2.19308386 -0.00424033 0.00000000
2.71123515 1.87296740 0.00123002 0.00000000
2.22209810 1.12811059 0.00366322 0.00000000
3.49798652 1.36624262 0.00116009 0.00000000
2.31593593 2.15008052 0.00124195 0.00000000
3.15771172 1.24431675 0.00663213 0.00000000
4.24371149 0.78814449 -0.00307324 0.00000000
2.62330344 0.05495994 -0.00009067 0.00000000
0.79329398 0.63275946 0.00020133 0.00000000
3.24487065 1.50755526 0.00552755 0.00000000
1.59031744 1.73623852 0.00385905 0.00000000
2.88683691 1.84843315 0.00274187 0.00000000
0.11167688 1.04249530 -0.00052460 0.00000000
0.64410939 1.21606106 0.00129110 0.00000000
1.75895821 0.41861073 -0.00286003 0.00000000
0.20461546 1.46203784 -0.00138847 0.00000000
3.65383733 0.97620237 -0.00214505 0.00000000
3.38750095 0.87050418 -0.00206270 0.00000000
0.42073381 0.30300375 0.00595433 0.00000000
0.40367146 1.36572621 0.00364373 0.00000000
3.69999241 2.16055736 0.00022218 0.00000000
1.24633233 0.67738346 0.00171587 0.00000000
3.12824368 1.53246160 0.00101760 0.00000000
0.34784230 0.24595446 -0.00177202 0.00000000
3.84275350 1.70301444 0.00150872 0.00000000
0.47378840 0.15161105 0.00263535 0.00000000
4.22453091 0.37409635 -0.00139679 0.00000000
2.35764166 1.16949812 -0.00379726 0.00000000
3.80597926 0.12566235 -0.00153511 0.00000000
3.32105928 2.03403871 0.00218045 0.00000000
3.38701936 0.87522644 0.00011826 0.00000000
2.27300339 0.15769757 -0.00288545 0.00000000
0.97224160 0.40159474 -0.00029872 0.00000000
4.33771807 1.03761373 -0.00029812 0.00000000
1.51502257 1.99412458 -0.00012781 0.00000000
4.03063085 0.41739900 0.00011580 0.00000000
0.22690552 0.69222296 0.00211991 0.00000000
3.98124871 1.27847085 -0.00265312 0.00000000
4.56728336 1.43557146 0.00139278 0.00000000
3.64648794 1.66944304 0.00097818 0.00000000
4.41034392 0.13379306 -0.00035223 0.00000000
0.20280169 0.81533356 0.00071760 0.00000000
1.70830029 1.82467797 0.00177268 0.00000000
4.58692441 2.03755516 -0.00089622 0.00000000
0.72247536 1.05127555 0.00010502 0.00000000
4.20429911 1.48007969 -0.00250459 0.00000000
3.43896569 0.39324416 0.00381840 0.00000000
0.88274026 2.12781762 -0.00152567 0.00000000
2.15567036 1.99642349 0.00249458 0.00000000
1.80105282 1.55476136 -0.00589396 0.00000000
2.51934597 0.87389299 0.00292893 0.00000000
1.51074543 1.26938043 0.00132127 0.00000000
1.73087821 0.38124449 -0.00275109 0.00000000
3.12383044 0.05956159 -0.00388157 0.00000000
4.86667258 1.27280375 0.00029897 0.00000000
4.62554723 1.61042014 0.00165105 0.00000000
3.50772180 0.05972412 0.00290093 0.00000000
1.15316919 1.73036778 -0.00142689 0.00000000
1.06912030 1.07807516 -0.00282252 0.00000000
1.58190460 0.47938388 -0.00116762 0.00000000
4.38105297 0.52891538 -0.00357696 0.00000000
0.02219837 0.96589948 0.00249559 0.00000000
4.34745197 1.62067871 -0.00235508 0.00000000
0.97738759 0.08189671 0.00133853 0.00000000
3.65841107 1.31486038 0.00023600 0.00000000
3.84236250 1.93624584 -0.00227848 0.00000000
3.46194947 0.87453960 -0.00079027 0.00000000
1.04541712 0.48846725 -0.00133622 0.00000000
0.34866042 0.43753504 0.00072805 0.00000000
1.19357090 1.84259117 0.00426639 0.00000000
1.78190452 1.51502203 0.00079607 0.00000000
3.74939284 1.81930442 -0.00113171 0.00000000
2.24458100 0.74963456 0.00400623 0.00000000
2.59388623 1.98057827 0.00051174 0.00000000
3.80923513 0.86301674 0.00322010 0.00000000
1.58489623 0.10452508 0.00250910 0.00000000
2.69649364 2.16057023 -0.00027827 0.00000000
3.32331737 1.54036601 0.00331846 0.00000000
2.36044882 1.82702756 -0.00026028 0.00000000
1.17808280 1.08613564 0.00174003 0.00000000
3.28121964 1.31918172 0.00453114 0.00000000
3.81825694 1.93671383 -0.00334928 0.00000000
4.72851755 1.18558192 -0.00309753 0.00000000
0.42831816 0.22381798 -0.00030822 0.00000000
2.09030926 0.45572203 -0.00007078 0.00000000
4.59747885 0.98108537 0.00006815 0.00000000
3.12460710 1.01497871 -0.00313589 0.00000000
0.75411223 0.94152914 0.00154710 0.00000000
2.82515050 0.62121553 -0.00010829 0.00000000
4.19857140 0.73819627 0.00171874 0.00000000
2.27519849 1.85600798 -0.00255089 0.00000000
0.81116901 0.26344138 0.00270658 0.00000000
1.46634626 0.68639722 0.00584703 0.00000000
2.72075363 0.35250177 0.00564689 0.00000000
0.66846815 0.23447966 0.00239647 0.00000000
2.35585406 0.79719528 0.00156425 0.00000000
0.82166636 1.23046301 0.00230331 0.00000000
4.85942717 2.21014866 0.00088120 0.00000000
4.11044983 0.32908171 0.00100980 0.00000000
2.93367258 1.58977272 -0.00174634 0.00000000
4.62556011 1.25948086 -0.00138368 0.00000000
3.06353723 2.07551809 0.00049009 0.00000000
4.33011953 1.12974236 0.00367849 0.00000000
3.47851410 0.85543889 -0.00060208 0.00000000
0.50527459 1.97587263 0.00124422 0.00000000
3.48006400 1.18281115 0.00401651 0.00000000
2.82019040 0.91962380 -0.00030807 0.00000000
2.27155870 0.30190840 0.00303959 0.00000000
4.63530358 0.70814314 -0.00392963 0.00000000
3.96917983 1.06008059 0.00212684 0.00000000
3.20811109 0.46028815 -0.00108966 0.00000000
2.53470783 1.82846201 -0.00115146 0.00000000
3.14535436 0.15510017 -0.00085409 0.00000000
4.25584824 0.32902473 -0.00025025 0.00000000
1.86620591 0.43202588 -0.00110195 0.00000000
3.46805990 1.18347539 -0.00109711 0.00000000
2.12430255 0.12122286 0.00291060 0.00000000
2.22134723 1.08631957 0.00053336 0.00000000
4.47878551 0.49339249 0.00665303 0.00000000
3.88221373 0.52614997 -0.00175629 0.00000000
0.42078338 0.58925485 0.00155817 0.00000000
4.84408663 0.72298941 -0.00205711 0.00000000
3.84531326 1.67915530 -0.00189846 0.00000000
0.30488707 0.95729678 -0.00256894 0.00000000
2.31790514 2.15306211 -0.00003172 0.00000000
0.90544601 0.83005604 -0.00391922 0.00000000
0.19842066 0.00100916 0.00183115 0.00000000
2.07327512 0.33430269 -0.00285654 0.00000000
0.02769209 1.67531788 0.00364497 0.00000000
3.16610774 0.81288930 -0.00312238 0.00000000
2.42038687 1.05159156 0.00170064 0.00000000
0.62662012 1.73566601 0.00143341 0.00000000
1.18245391 0.38590563 0.00045399 0.00000000
2.14966275 1.46188261 -0.00359713 0.00000000
3.43165542 0.20779602 -0.00127918 0.00000000
2.96427382 1.56473986 -0.00015149 0.00000000
1.25740754 0.94163524 -0.00207135 0.00000000
0.52927827 0.45922276 -0.00504224 0.00000000
0.46143966 1.20371889 0.00338746 0.00000000
3.78275896 1.48081807 -0.00044082 0.00000000
3.05107120 0.16227660 -0.00202043 0.00000000
2.89273897 1.75243370 -0.00107564 0.00000000
4.80243572 1.76950784 -0.00231420 0.00000000
3.18399780 0.25165326 -0.00055825 0.00000000
0.58897701 1.08084189 0.00051491 0.00000000
2.12665673 0.94951229 -0.00033120 0.00000000
4.76439906 0.24470977 -0.00315409 0.00000000
1.57104952 1.13433595 0.00615262 0.00000000
1.04848871 0.64534204 -0.00171535 0.00000000
1.96870228 1.37864310 -0.00158656 0.00000000
2.50307738 1.70847438 -0.00068439 0.00000000
2.26740730 2.19216450 0.00103858 0.00000000
1.10999991 1.60202419 -0.00013193 0.00000000
0.24394165 2.16647992 0.00283492 0.00000000
1.33551829 0.46164236 0.00132262 0.00000000
2.36296708 1.52515489 0.00196688 0.00000000
3.29287034 0.23023677 0.00233973 0.00000000
3.91420919 1.91313554 -0.00194432 0.00000000
0.65224790 0.54806090 -0.00020757 0.00000000
1.22891565 0.68754459 -0.00447151 0.00000000
0.63699661 1.66383225 0.00389397 0.00000000
2.43559454 1.56372203 -0.00161473 0.00000000
2.00615009 1.53557653 -0.00179535 0.00000000
4.36252025 2.08236756 -0.00199160 0.00000000
4.75430604 0.10044091 0.00179446 0.00000000
3.29302415 1.78108092 0.00600584 0.00000000
4.18628330 1.03785102 0.00368109 0.00000000
2.82509809 1.01617368 -0.00168192 0.00000000
2.86906844 1.76330741 0.00058770 0.00000000
1.63519782 1.40543972 0.00336332 0.00000000
2.88795260 0.12600116 -0.00466260 0.00000000
3.05722924 1.66345680 -0.00091596 0.00000000
2.08340353 1.87658105 0.00444258 0.00000000
3.98262144 0.74549254 -0.00531464 0.00000000
4.64863299 2.02178756 0.00131641 0.00000000
4.15902312 0.02203035 -0.00077833 0.00000000
3.27193089 0.27814343 -0.00011296 0.00000000
3.44689728 1.52183391 0.00189935 0.00000000
0.32444399 2.10982680 0.00051915 0.00000000
2.83808520 1.54175068 0.00160882 0.00000000
2.53761690 0.12259794 0.00064497 0.00000000
3.77526657 1.14163131 0.00014667 0.00000000
1.15308466 2.15992184 -0.00333241 0.00000000
2.06513586 1.45581316 0.00126500 0.00000000
0.56086642 1.23933664 0.00087489 0.00000000
2.57697917 0.18739980 -0.00253061 0.00000000
0.32688511 1.39408927 0.00267348 0.00000000
0.54775183 0.33805141 0.00363528 0.00000000
2.89873617 0.70422733 -0.00055355 0.00000000
2.26213244 0.47144746 0.00426836 0.00000000
3.73555848 2.15387598 0.00474471 0.00000000
1.63817564 1.24285949 -0.00104454 0.00000000
1.39687792 1.21784888 -0.00170415 0.00000000
1.92305851 0.12230112 0.00439377 0.00000000
1.72091896 1.52178716 0.00505522 0.00000000
3.78238322 0.08650045 -0.00104376 0.00000000
1.51922990 1.85040697 0.00104379 0.00000000
1.25050371 0.77546001 -0.00242747 0.00000000
1.39595910 1.69586686 0.00263604 0.00000000
4.49591247 0.63520623 -0.00061070 0.00000000
4.33682631 0.14270629 0.00046556 0.00000000
0.98772116 0.88068746 0.00074153 0.00000000
0.97549844 0.02871934 -0.00245261 0.00000000
0.14250602 1.60440115 -0.00151705 0.00000000
1.53964643 1.11361473 -0.00126903 0.00000000
3.38958591 2.07347744 0.00030946 0.00000000
4.47287316 0.82215025 -0.00260803 0.00000000
4.07715241 0.11399797 -0.00096272 0.00000000
4.71315473 1.33156210 -0.00028645 0.00000000
0.62294240 1.61620630 -0.00261425 0.00000000
3.91120429 1.63711316 -0.00361194 0.00000000
4.58890166 0.06368080 -0.00308531 0.00000000
4.41859022 0.04589120 -0.00093517 0.00000000
0.75445229 2.19175852 0.00059164 0.00000000
3.27588375 0.22982639 0.00395739 0.00000000
1.02460297 2.08341501 -0.00250017 0.00000000
3.68006495 1.94225317 0.00151174 0.00000000
4.24992125 1.29541677 -0.00116252 0.00000000
3.59066749 1.08329674 -0.00333110 0.00000000
3.20820709 1.47959635 0.00187052 0.00000000
4.77054326 1.88382628 0.00056027 0.00000000
2.52154978 0.27078819 -0.00007127 0.00000000
4.60080095 1.18215308 0.00134463 0.00000000
1.98620859 1.42812499 0.00326937 0.00000000
4.77624183 0.52327790 -0.00044325 0.00000000
1.89091629 0.87539409 -0.00181983 0.00000000
4.32760122 0.53438709 0.00125902 0.00000000
2.44008663 0.08492042 -0.00257873 0.00000000
1.64815987 1.51910589 0.00452391 0.00000000
3.15603780 2.17877654 0.00210055 0.00000000
2.58720641 2.20716068 -0.00153450 0.00000000
4.33815880 0.91925204 -0.00243994 0.00000000
3.28344953 1.53407702 -0.00193823 0.00000000
2.07412951 0.75837015 0.00081184 0.00000000
4.29151057 2.06406401 -0.00679084 0.00000000
0.29158703 0.69702515 -0.00542982 0.00000000
1.16742939 2.18015732 -0.00208573 0.00000000
0.23756414 1.25217529 -0.00267433 0.00000000
0.22169199 1.06977349 -0.00119763 0.00000000
4.22764085 1.54848169 0.00481929 0.00000000
4.30116437 1.51251690 0.00018532 0.00000000
2.12805042 0.60856562 -0.00010166 0.00000000
3.97261765 1.57371018 -0.00151052 0.00000000
3.13434019 1.12154572 -0.00294994 0.00000000
2.29521776 2.00939423 0.00799259 0.00000000
1.97302450 2.07776929 -0.00163700 0.00000000
3.03646436 1.68762195 -0.00044872 0.00000000
4.59971352 1.59893009 -0.00150689 0.00000000
2.36050854 0.74866356 0.00186992 0.00000000
2.62722130 0.57396114 -0.00110379 0.00000000
4.63324804 1.48446761 -0.00008887 0.00000000
1.20738883 0.09514059 0.00090923 0.00000000
4.56632293 0.43028640 -0.00241059 0.00000000
2.23783227 0.35854716 -0.00262220 0.00000000
3.61749010 0.88870638 0.00368911 0.00000000
2.65845408 0.16984895 0.00257064 0.00000000
3.21218931 0.69782063 0.00227091 0.00000000
1.12342554 0.35972312 -0.00204595 0.00000000
0.96563089 0.77173057 0.00113200 0.00000000
1.20377610 0.67440136 -0.00220253 0.00000000
3.51859077 1.85772213 -0.00730521 0.00000000
3.88520657 0.61852879 -0.00086155 0.00000000
4.10381204 0.65133630 0.00404332 0.00000000
1.15228831 2.04315564 -0.00202233 0.00000000
0.38155805 0.18448887 0.00083175 0.00000000
3.98499944 1.67550018 -0.00271199 0.00000000
3.44008125 1.63489012 0.00064223 0.00000000
4.73803059 2.03496819 -0.00097947 0.00000000
0.16723643 1.11790623 0.00272919 0.00000000
1.49583313 2.05939415 0.00060814 0.00000000
3.80358613 0.72227565 -0.00156545 0.00000000
1.19365481 1.92051577 -0.00111295 0.00000000
2.45554548 0.07452331 0.00001872 0.00000000
0.55460906 1.36993697 0.00210633 0.00000000
4.39734183 0.77212457 -0.00100631 0.00000000
1.42447932 1.62781847 0.00111276 0.00000000
1.97587185 1.48325008 -0.00203372 0.00000000
2.06985077 1.93360746 -0.00176749 0.00000000
2.61595159 1.74452931 0.00265971 0.00000000
2.10647614 1.45915887 0.00560572 0.00000000
3.82625665 1.33888451 0.00214990 0.00000000
1.66434113 0.78927995 0.00036210 0.00000000
0.19864468 1.73580802 -0.00028947 0.00000000
4.57086420 0.48997954 0.00308410 0.00000000
2.55687332 1.31777911 -0.00202988 0.00000000
3.14097301 0.19799182 -0.00171737 0.00000000
3.71662547 0.08578484 -0.00282030 0.00000000
3.86233578 1.30425454 0.00167895 0.00000000
4.35965094 1.52115274 -0.00232523 0.00000000
2.73206702 1.48408658 0.00170298 0.00000000
4.23254700 1.58942261 -0.00505097 0.00000000
0.67899427 1.96203628 -0.00000063 0.00000000
4.55930378 0.41029542 -0.00191266 0.00000000
3.71364312 0.52219256 0.00048872 0.00000000
4.09857404 0.37762789 0.00225434 0.00000000
3.94774018 0.10511504 -0.00160976 0.00000000
3.92145355 0.56171996 0.00015456 0.00000000
2.13506722 1.24325305 -0.00423881 0.00000000
2.61790047 0.52930311 -0.00012109 0.00000000
0.01337776 1.46311767 -0.00109423 0.00000000
4.18510585 2.02993130 -0.00091688 0.00000000
4.53099219 1.86938057 -0.00540412 0.00000000
4.27883173 0.62231555 -0.00108254 0.00000000
1.40391055 1.31739002 0.00181277 0.00000000
2.20100790 1.76731456 -0.00042320 0.00000000
3.61173525 1.97069181 0.00313133 0.00000000
3.64272442 0.53905425 0.00005690 0.00000000
2.09750934 0.64047529 -0.00268447 0.00000000
3.91342263 0.29616586 0.00023885 0.00000000
1.85369195 1.41590504 -0.00009754 0.00000000
3.52968595 0.61114628 -0.00067010 0.00000000
0.02611519 0.81671605 -0.00108377 0.00000000
0.54620301 1.94938473 -0.00375568 0.00000000
2.39264070 1.53773116 -0.00132210 0.00000000
3.98170778 1.43036246 -0.00218492 0.00000000
2.06443774 1.89924012 0.00146364 0.00000000
3.88912807 0.69072285 0.00137709 0.00000000
3.18913366 2.06054734 -0.00087986 0.00000000
4.22419156 0.93838966 -0.00189744 0.00000000
3.76031315 2.01295347 -0.00040498 0.00000000
0.10702662 2.05856779 -0.00073246 0.00000000
4.65481791 1.65815802 0.00241030 0.00000000
1.12460913 0.09376236 0.00068201 0.00000000
3.44735915 1.25257766 -0.00139285 0.00000000
4.66117181 0.48909528 0.00109434 0.00000000
4.86632946 1.30107889 0.00004288 0.00000000
4.15741527 0.03355904 0.00261800 0.00000000
3.01484984 0.34326059 0.00016801 0.00000000
1.39636259 0.56738841 0.00151752 0.00000000
2.09643831 0.07839703 0.00149937 0.00000000
4.02322530 1.25905680 0.00256475 0.00000000
3.26326858 0.92372473 0.00134917 0.00000000
4.82654283 0.62103836 -0.00266405 0.00000000
3.70324763 2.07429364 -0.00179999 0.00000000
2.64698740 1.33783920 -0.00058154 0.00000000
2.50154661 1.66812457 -0.00184611 0.00000000
4.23063270 0.14662518 0.00210694 0.00000000
1.79916103 1.89110062 0.00387418 0.00000000
3.97269967 1.82951120 -0.00143196 0.00000000
4.77755429 0.98489919 -0.00132639 0.00000000
0.40262271 1.90535490 -0.00505631 0.00000000
4.76431744 0.16905851 0.00131182 0.00000000
2.33196967 0.14104695 -0.00076539 0.00000000
2.78491375 0.73977800 -0.00160312 0.00000000
2.77860482 1.22133352 -0.00334401 0.00000000
1.29314143 0.74204116 0.00060076 0.00000000
3.62347651 0.68085683 0.00379427 0.00000000
0.85925618 1.15976943 0.00351649 0.00000000
4.47411326 1.57946635 -0.00168382 0.00000000
0.39207534 0.35107028 -0.00074453 0.00000000
3.14329197 1.10941203 -0.00097279 0.00000000
2.51237788 0.31979812 -0.00314458 0.00000000
1.19637668 0.88895796 -0.00215812 0.00000000
3.00577990 1.74270676 -0.00052848 0.00000000
1.68164654 0.29715251 0.00146670 0.00000000
1.96471366 1.51496493 -0.00059084 0.00000000
2.69191239 2.03287764 0.00091259 0.00000000
2.81316134 1.82791122 0.00403292 0.00000000
4.44593526 1.91698581 -0.00087030 0.00000000
2.25490672 0.86150227 0.00158169 0.00000000
2.67630157 0.05819699 0.00514779 0.00000000
1.24324602 1.50678453 -0.00127333 0.00000000
3.01728051 2.11761700 0.00466841 0.00000000
2.05327584 1.88484877 0.00264789 0.00000000
0.97678078 1.30718161 -0.00063661 0.00000000
3.24027105 0.58614980 -0.00001383 0.00000000
1.15992981 0.67156750 0.00004341 0.00000000
4.81023515 0.69184553 0.00271648 0.00000000
0.11692075 1.36465680 0.00296439 0.00000000
3.69958991 1.66125411 -0.00144889 0.00000000
1.72689710 0.59108677 -0.00422272 0.00000000
1.97820682 1.34393659 0.00151710 0.00000000
4.23297760 1.38775356 0.00311995 0.00000000
3.81753005 2.09226708 -0.00062117 0.00000000
1.02663329 1.69010346 -0.00145475 0.00000000
3.84309987 0.79029083 0.00376066 0.00000000
1.87202963 0.71587927 0.00263441 0.00000000
3.47378340 1.66974934 0.00099704 0.00000000
1.72568599 2.19100869 -0.00309145 0.00000000
3.20145861 1.83064945 0.00072027 0.00000000
1.30097549 1.62842893 0.00455502 0.00000000
4.02121067 1.58513050 0.00398916 0.00000000
