2.40554289 1.41934552 0.00049464 0.00000000
1.44331166 0.63875723 0.00634275 0.00000000
3.13003123 0.32807861 0.00087002 0.00000000
2.76964231 0.15270396 -0.00119740 0.00000000
1.25276303 1.53744713 -0.00100637 0.00000000
0.79132212 1.69297620 0.00002463 0.00000000
0.32377998 1.48766045 0.00325920 0.00000000
0.08839512 0.87581969 0.00212929 0.00000000
2.72778826 1.62501080 0.00066283 0.00000000
3.91957629 1.31996543 -0.00024878 0.00000000
0.08067446 0.66462363 0.00056104 0.00000000
0.62623612 1.80253765 0.00018059 0.00000000
0.19200720 0.78492368 0.00533633 0.00000000
3.70302384 1.37345695 -0.00004815 0.00000000
3.14157688 1.67164590 0.00306336 0.00000000
3.38755854 0.46176343 -0.00312516 0.00000000
0.24247239 0.13960323 0.00074740 0.00000000
2.44156263 0.08926306 0.00150506 0.00000000
0.54033652 1.48422857 -0.00357395 0.00000000
2.37785692 1.78570154 0.00223567 0.00000000
1.99870277 0.10504330 -0.00401728 0.00000000
3.43706588 1.67536477 -0.00079324 0.00000000
3.20086208 1.83718035 -0.00238600 0.00000000
0.34826598 1.36285395 0.00102893 0.00000000
2.36148761 1.79690795 0.00112477 0.00000000
0.26929053 1.55766963 -0.00279890 0.00000000
1.24536099 0.63570913 0.00421846 0.00000000
2.38530010 0.45301687 -0.00124015 0.00000000
0.24573346 1.09229992 0.00158250 0.00000000
1.17559049 0.31357493 -0.00014100 0.00000000
3.15662618 0.20057022 0.00144912 0.00000000
2.85022617 1.60797321 0.00105434 0.00000000
1.57515719 1.27358305 0.00197794 0.00000000
0.95312964 0.65524581 -0.00082899 0.00000000
1.45258872 1.03098355 0.00326125 0.00000000
2.14690493 0.85513085 0.00248773 0.00000000
2.63742280 1.31442090 -0.00020403 0.00000000
3.83430187 1.10474496 0.00179704 0.00000000
3.53790834 1.46244593 0.00277802 0.00000000
0.12791378 1.86440111 -0.00047335 0.00000000
3.39974103 1.20030984 -0.00238803 0.00000000
3.73699976 1.22001843 0.00015954 0.00000000
3.46123415 1.57929398 -0.00094181 0.00000000
1.72258503 1.24330073 -0.00018443 0.00000000
0.95882282 1.89282274 0.00778075 0.00000000
1.97493339 1.64535752 -0.00030330 0.00000000
2.98285228 0.80569430 0.00204733 0.00000000
1.33024354 1.25265305 -0.00144981 0.00000000
2.04316787 1.49962448 0.00103868 0.00000000
0.57264692 0.34450755 -0.00111410 0.00000000
3.12059299 1.46824627 0.00025291 0.00000000
1.38177999 0.48667165 0.00603467 0.00000000
2.62145255 1.32820524 0.00044101 0.00000000
3.54135377 1.61915933 -0.00124698 0.00000000
2.87497484 1.22720364 0.00188830 0.00000000
3.39909917 1.02762362 0.00119983 0.00000000
0.68448438 0.97798878 -0.00207176 0.00000000
1.16563231 0.10778423 -0.00012624 0.00000000
1.70841604 0.47576630 0.00354971 0.00000000
1.74478321 0.87850348 -0.00200465 0.00000000
0.81648129 1.49910265 -0.00146428 0.00000000
0.95066227 1.16188900 0.00148302 0.00000000
0.43001824 1.40265887 -0.00145419 0.00000000
0.38909193 1.20663933 0.00518092 0.00000000
0.76744907 1.01224987 -0.00246485 0.00000000
0.28539321 1.70349869 -0.00276916 0.00000000
1.76410384 0.14073690 -0.00092319 0.00000000
0.74935160 1.17741862 -0.00426449 0.00000000
2.86301033 0.31458009 -0.00404740 0.00000000
0.78697438 0.37615226 0.00219054 0.00000000
2.02182452 1.00198842 0.00048912 0.00000000
0.58193510 0.77428966 0.00020663 0.00000000
0.19740988 1.85099140 0.00479385 0.00000000
1.37717945 0.26289299 0.00158571 0.00000000
1.24389381 1.84193338 -0.00019679 0.00000000
1.23684819 1.64026237 -0.00197646 0.00000000
0.05461279 0.25463051 0.00153972 0.00000000
2.82128512 1.19180986 0.00059400 0.00000000
0.66809661 0.54598400 0.00104717 0.00000000
2.77077999 1.36733610 -0.00272196 0.00000000
3.13579376 1.39349609 -0.00142012 0.00000000
1.76649411 1.65718484 -0.00062916 0.00000000
0.82050840 1.87109200 -0.00011006 0.00000000
1.30735348 0.40617053 0.01030000 0.00000000
3.95430926 0.27675621 -0.00231225 0.00000000
2.12996973 1.72087216 -0.00504025 0.00000000
1.56446592 1.54458983 0.00221085 0.00000000
2.28355026 0.36695343 0.00079294 0.00000000
2.52829784 1.73640780 0.00205216 0.00000000
1.74218600 1.86189205 -0.00010564 0.00000000
0.71400633 1.23727251 0.00089239 0.00000000
2.84962183 0.96223830 -0.00281410 0.00000000
2.16852374 0.63466443 0.00356533 0.00000000
1.21401156 1.91651196 -0.00035322 0.00000000
0.66645600 1.01285914 0.00276795 0.00000000
0.01782384 0.32474094 -0.00004835 0.00000000
0.52801682 0.85270910 0.00111092 0.00000000
3.74911843 0.62669513 -0.00052025 0.00000000
0.03486914 0.56894118 -0.00036012 0.00000000
2.80851174 1.56858334 0.00057633 0.00000000
0.91226005 1.74374724 -0.00014621 0.00000000
0.99586380 0.91559797 0.00137568 0.00000000
1.42642238 1.64501500 0.00179227 0.00000000
1.87305751 0.26089024 0.00304720 0.00000000
3.63210970 0.31236954 -0.00419360 0.00000000
1.73832382 0.90191278 -0.00155468 0.00000000
3.00911235 0.68753901 0.00232365 0.00000000
1.33518987 1.85215371 0.00017931 0.00000000
0.26909857 0.72561895 0.00184707 0.00000000
0.38273811 0.07183622 -0.00040066 0.00000000
1.49050400 1.85747479 0.00116046 0.00000000
1.69503145 0.69163081 0.00082759 0.00000000
0.17499645 1.05536626 -0.00028257 0.00000000
1.11668186 0.63738267 -0.00054416 0.00000000
1.52481931 0.49168237 0.00138003 0.00000000
1.88405052 0.40500210 -0.00020314 0.00000000
2.15861567 1.30424953 0.00115049 0.00000000
4.06407395 0.91610094 0.00490845 0.00000000
1.31196672 0.93737803 -0.00372198 0.00000000
3.09337683 1.49691848 -0.00086983 0.00000000
0.76672709 1.19298175 -0.00053220 0.00000000
0.57562526 0.19209856 -0.00218969 0.00000000
0.72858699 0.37289156 0.00160076 0.00000000
2.26542355 0.05771586 0.00083337 0.00000000
0.36008880 0.16467175 0.00010107 0.00000000
1.77148731 0.11871141 0.00204988 0.00000000
3.29544721 0.14423995 -0.00130401 0.00000000
0.59374117 0.66190746 0.00139252 0.00000000
3.91368539 0.95230353 0.00471791 0.00000000
3.13109586 0.63530595 0.00219414 0.00000000
3.86881990 0.11405092 -0.00289066 0.00000000
2.79397035 0.66190446 0.00190259 0.00000000
1.12753391 0.63302103 0.00323814 0.00000000
2.03776416 1.81496978 0.00082727 0.00000000
0.99930753 0.60138594 0.00053569 0.00000000
3.63400892 0.60059968 0.00339234 0.00000000
1.36993000 1.50159873 -0.00241144 0.00000000
3.24260028 1.47239894 -0.00143979 0.00000000
0.05205731 0.23162963 -0.00675311 0.00000000
0.12805290 0.28525672 0.00151998 0.00000000
1.75823921 0.15034106 0.00129020 0.00000000
2.95976096 0.22930020 -0.00421702 0.00000000
1.60219830 1.13569641 0.00030625 0.00000000
1.61809251 0.70119843 -0.00039510 0.00000000
1.81441700 1.70247914 0.00377545 0.00000000
0.95320459 1.03504233 -0.00106998 0.00000000
1.52684651 0.55736567 0.00075354 0.00000000
1.72021513 0.76505420 0.00196540 0.00000000
3.89578466 1.02783823 -0.00077787 0.00000000
1.96978392 0.82671237 0.00225049 0.00000000
0.29088985 1.27400541 0.00251892 0.00000000
1.31931671 1.20673130 -0.00222296 0.00000000
3.25144042 0.87621375 -0.00038304 0.00000000
1.81138710 0.76967488 -0.00144358 0.00000000
3.94919249 1.44017858 0.00259756 0.00000000
0.72533251 0.58716887 0.00191207 0.00000000
0.97899435 1.39889473 -0.00279199 0.00000000
3.39320653 1.25415581 -0.00186087 0.00000000
1.54297057 1.27239169 -0.00485007 0.00000000
1.89268689 1.13769503 0.00205927 0.00000000
0.95914633 1.74675948 -0.00173391 0.00000000
2.06795848 0.04490185 0.00245026 0.00000000
0.33865326 0.76486158 -0.00099835 0.00000000
3.09120668 0.14411055 -0.00452184 0.00000000
2.93817635 1.38293496 -0.00101079 0.00000000
2.49521035 0.49179350 0.00133716 0.00000000
1.90066640 0.15207148 -0.00294917 0.00000000
3.81203043 1.04982397 -0.00066623 0.00000000
0.04909145 0.07555204 0.00223515 0.00000000
2.27279097 0.56130484 -0.00050727 0.00000000
2.01567315 0.44490863 0.00204623 0.00000000
3.15507850 0.71565793 -0.00058776 0.00000000
2.70797294 1.01998413 -0.00022187 0.00000000
1.95407511 1.15799393 -0.00111490 0.00000000
1.88010061 1.91825176 -0.00352265 0.00000000
1.72577614 0.10408979 0.00024015 0.00000000
2.11688763 0.09908146 0.00155713 0.00000000
0.72416542 0.48936621 -0.00109346 0.00000000
3.89457255 0.93461925 -0.00037279 0.00000000
0.82775434 0.94445784 0.00200395 0.00000000
3.12533830 1.12904021 0.00389913 0.00000000
2.15470674 1.81150012 -0.00054091 0.00000000
1.93152605 1.28486306 -0.00179753 0.00000000
1.13584281 0.18538918 -0.00322536 0.00000000
0.11232094 0.95782721 -0.00021824 0.00000000
3.29865554 0.04685509 -0.00443304 0.00000000
3.82531624 1.06515821 0.00431712 0.00000000
0.39940893 1.60474174 -0.00250369 0.00000000
2.83923739 0.81530865 0.00253459 0.00000000
3.69473233 0.25904829 -0.00402120 0.00000000
2.85312045 1.35963796 0.00293008 0.00000000
3.66108017 1.87614098 -0.00375483 0.00000000
2.06558299 1.67497846 0.00028121 0.00000000
3.00285693 1.02259292 0.00407320 0.00000000
0.72084462 1.08129414 0.00079946 0.00000000
1.58431549 0.74582872 -0.00051391 0.00000000
3.77591076 1.10536074 0.00092272 0.00000000
3.31728278 0.03284962 0.00003612 0.00000000
2.36976148 1.76765292 0.00225356 0.00000000
1.92057850 1.54129025 0.00303554 0.00000000
3.01514485 0.23925647 -0.00162097 0.00000000
0.20492612 0.20496852 -0.00449558 0.00000000
3.15102310 1.06602178 0.00319437 0.00000000
2.62030753 0.61700762 -0.00322767 0.00000000
0.10559898 0.74877616 -0.00084105 0.00000000
1.08028399 0.34464015 0.00167475 0.00000000
1.37342831 1.86292280 -0.00220839 0.00000000
1.16295866 1.34292487 -0.00168608 0.00000000
2.13260847 1.31731683 0.00042199 0.00000000
3.49535989 1.82893892 -0.00009929 0.00000000
0.67514618 0.07331721 -0.00323777 0.00000000
3.75400318 0.90818087 0.00020821 0.00000000
1.83498838 0.88456262 0.00280110 0.00000000
0.28777154 1.24468339 -0.00057931 0.00000000
0.51287339 0.73702501 -0.00045647 0.00000000
1.28618682 0.34786073 0.00282385 0.00000000
0.22180523 1.76251016 -0.00084668 0.00000000
1.30314666 0.12705742 -0.00004638 0.00000000
3.15893621 0.93898194 -0.00014049 0.00000000
1.15871263 0.31988921 0.00265001 0.00000000
0.08580668 1.46701982 -0.00074217 0.00000000
1.66054799 1.61153078 0.00052678 0.00000000
3.36776281 1.17543282 -0.00096144 0.00000000
3.26948109 0.31426739 0.00458602 0.00000000
1.66806010 0.54081269 -0.00485811 0.00000000
0.72385205 1.28409851 0.00023051 0.00000000
2.70777060 1.41806766 -0.00546025 0.00000000
0.31123585 1.26110015 0.00303455 0.00000000
2.82413820 1.24778829 -0.00133016 0.00000000
1.30792366 0.72431633 0.00240386 0.00000000
3.25653476 0.68447093 -0.00318704 0.00000000
2.74735129 0.41105563 0.00099512 0.00000000
1.78071389 1.64007736 -0.00251268 0.00000000
1.18334223 1.48720669 0.00472058 0.00000000
3.65558473 0.56968993 0.00194631 0.00000000
2.74595352 1.23214182 0.00020348 0.00000000
1.85270208 0.66900344 -0.00074414 0.00000000
1.13354216 0.32558316 -0.00294022 0.00000000
3.04607830 0.57430722 0.00119219 0.00000000
1.80120939 0.92511881 0.00558668 0.00000000
0.05220807 0.53282158 -0.00156664 0.00000000
3.86962058 0.88065486 0.00276740 0.00000000
3.24458891 1.14434111 -0.00056302 0.00000000
1.93987892 1.65327185 -0.00168988 0.00000000
3.83853792 1.67078420 0.00218559 0.00000000
3.79489435 0.14431737 0.00096376 0.00000000
2.30707503 1.46687820 0.00127690 0.00000000
3.34025418 1.49920445 -0.00110990 0.00000000
0.54908417 1.86780557 0.00809944 0.00000000
1.91056844 1.32318560 -0.00317355 0.00000000
0.19524635 0.95422594 0.00384385 0.00000000
0.89570884 0.65395613 0.00199563 0.00000000
3.61251326 0.10639956 -0.00502674 0.00000000
0.28864674 0.10889919 -0.00051510 0.00000000
3.21096539 1.06837401 0.00342634 0.00000000
1.12497493 1.21552746 0.00201687 0.00000000
1.75644460 0.14672562 0.00250763 0.00000000
2.23945838 0.23037884 -0.00110462 0.00000000
0.96247041 0.49090308 -0.00081130 0.00000000
2.77158794 0.91601593 0.00144516 0.00000000
3.15963947 1.18032039 0.00124334 0.00000000
3.83961736 0.33104323 0.00048878 0.00000000
1.00166978 0.91879864 -0.00046693 0.00000000
0.15863092 1.69425434 -0.00029154 0.00000000
1.51862199 0.00165071 -0.00208851 0.00000000
1.10513051 0.19131932 0.00093806 0.00000000
0.18280108 1.43820918 -0.00132983 0.00000000
2.66072388 1.73391981 -0.00201908 0.00000000
3.12535401 0.59286488 -0.00272031 0.00000000
3.16651199 0.66824358 0.00103834 0.00000000
3.85628736 1.10844786 -0.00284752 0.00000000
1.97324183 0.40407958 0.00059595 0.00000000
1.42882657 1.05705312 -0.00497648 0.00000000
2.45461061 1.59940610 -0.00195612 0.00000000
0.87482862 1.39541644 0.00508278 0.00000000
1.10153470 1.25904613 -0.00284749 0.00000000
3.87135493 1.67991485 -0.00174840 0.00000000
0.99935421 0.21710770 -0.00139181 0.00000000
0.05622850 0.07793144 0.00370882 0.00000000
1.42171835 0.00746836 0.00143448 0.00000000
1.05372146 1.03264940 0.00028174 0.00000000
4.02210008 1.56444209 -0.00162593 0.00000000
2.29751878 1.25940211 -0.00204879 0.00000000
0.78955841 1.23759689 0.00146927 0.00000000
2.03129200 0.37772678 -0.00206885 0.00000000
1.43810443 1.35985549 0.00349016 0.00000000
0.50103823 1.11432783 -0.00017948 0.00000000
3.49676942 0.98816964 0.00251318 0.00000000
2.72020839 0.08773612 0.00138839 0.00000000
2.78523939 1.38655305 -0.00026490 0.00000000
3.03497117 1.15047009 -0.00277621 0.00000000
3.02988923 0.97076928 -0.00359793 0.00000000
3.15488138 0.92224251 -0.00331144 0.00000000
1.73402067 1.76151101 -0.00597139 0.00000000
3.52061500 0.72116495 0.00593837 0.00000000
0.43404990 1.71176382 -0.00084837 0.00000000
3.31865708 1.78635216 -0.00437408 0.00000000
1.73258900 1.24718689 -0.00300499 0.00000000
3.91008330 0.80179952 0.00064348 0.00000000
3.06403317 1.54683874 -0.00196535 0.00000000
1.41253080 1.74206235 -0.00122622 0.00000000
2.80164454 0.96463472 -0.00057521 0.00000000
1.77678749 1.12100408 -0.00022360 0.00000000
1.11296239 0.38175432 -0.00155026 0.00000000
0.00003245 0.27146995 0.00045869 0.00000000
2.88244752 0.28884411 -0.00044084 0.00000000
1.16054119 0.46875574 -0.00009981 0.00000000
0.45131682 0.90258625 -0.00009171 0.00000000
0.07785688 0.76660382 0.00259603 0.00000000
3.47219742 0.20627583 -0.00003291 0.00000000
0.81456414 1.29226472 0.00130183 0.00000000
2.18427771 0.26879693 0.00117476 0.00000000
3.21921679 0.74693000 -0.00036407 0.00000000
0.56867044 0.88451082 0.00021489 0.00000000
2.84869091 0.56384026 -0.00266629 0.00000000
0.44136018 1.22348095 -0.00036415 0.00000000
1.12341194 0.99665915 -0.00086965 0.00000000
2.75571166 0.81841172 0.00116833 0.00000000
0.50165523 0.07467660 0.00010405 0.00000000
2.28066640 0.55320183 -0.00429316 0.00000000
0.19207161 0.96727829 0.00472045 0.00000000
0.50814326 0.22123981 -0.00055819 0.00000000
2.65476265 1.48914971 -0.00330784 0.00000000
3.89955443 1.32085163 0.00264760 0.00000000
3.02638719 1.16457960 0.00277583 0.00000000
1.41958730 0.35849160 -0.00314511 0.00000000
0.23380936 0.64847252 -0.00297924 0.00000000
0.70142100 1.30143354 0.00151851 0.00000000
2.91501443 0.62349224 -0.00014200 0.00000000
1.20550611 0.44948510 -0.00301361 0.00000000
3.65368104 0.30025739 0.00215695 0.00000000
0.27373400 0.58135753 -0.00025085 0.00000000
3.00422008 0.02093677 0.00128730 0.00000000
2.44457616 0.67629363 -0.00513221 0.00000000
2.33720798 0.16466728 -0.00036096 0.00000000
1.84754163 0.19434624 0.00461319 0.00000000
2.16102949 1.07082111 -0.00280825 0.00000000
2.54160074 1.71499214 0.00080945 0.00000000
2.57969820 1.27607431 0.00074788 0.00000000
1.19057271 1.87940034 0.00179429 0.00000000
3.94029404 1.61401450 0.00076111 0.00000000
1.23089193 1.66159309 0.00244027 0.00000000
0.00461991 0.08521046 0.00506603 0.00000000
2.06769502 0.65402100 -0.00034973 0.00000000
1.54723790 0.36779698 -0.00099170 0.00000000
0.15100735 1.66811295 0.00036506 0.00000000
0.99744090 1.48091564 -0.00046766 0.00000000
1.64877734 1.79099615 -0.00289589 0.00000000
3.59983272 1.88639314 0.00357750 0.00000000
2.85705521 0.67752820 0.00546374 0.00000000
0.91392977 1.12085606 0.00055791 0.00000000
0.66543079 0.27154047 0.00287148 0.00000000
3.84058063 1.20964189 -0.00047801 0.00000000
0.75809802 1.57023115 0.00023185 0.00000000
4.00157461 0.36485741 0.00196826 0.00000000
3.71276118 0.32414598 -0.00206075 0.00000000
2.65279998 0.52976781 0.00140080 0.00000000
0.12889377 1.14529112 0.00240595 0.00000000
2.66645789 0.42182911 -0.00160930 0.00000000
3.58393326 1.85358559 0.00184476 0.00000000
1.40739368 0.94197082 -0.00066509 0.00000000
0.72875209 0.64195357 -0.00154059 0.00000000
3.89868391 1.89345688 0.00546869 0.00000000
0.97459655 0.30953062 0.00157286 0.00000000
2.81644653 0.65475460 -0.00129969 0.00000000
2.41877315 1.39026801 0.00032774 0.00000000
0.82463168 0.47070257 0.00337167 0.00000000
0.40639912 0.30042218 -0.00055874 0.00000000
1.76438205 0.20891398 0.00357690 0.00000000
3.08114056 0.33494578 0.00088797 0.00000000
0.49045117 1.12422494 -0.00131171 0.00000000
0.68198001 0.93580552 -0.00066270 0.00000000
2.93631954 0.64619002 0.00022705 0.00000000
1.77413576 0.02957065 0.00115822 0.00000000
3.82486605 1.15377713 -0.00403002 0.00000000
0.26617326 0.43376137 -0.00057407 0.00000000
0.27355482 0.19157849 0.00187251 0.00000000
0.53622515 1.38132948 0.00120719 0.00000000
3.88452048 1.12223673 0.00122288 0.00000000
3.70988140 0.75085748 0.00035222 0.00000000
4.00544886 0.68011087 -0.00098859 0.00000000
4.05453128 0.89258197 0.00069671 0.00000000
1.74934737 1.43707617 -0.00915124 0.00000000
0.92229416 0.30611201 -0.00226958 0.00000000
3.92972821 0.38182777 0.00027046 0.00000000
2.32187476 0.09802953 0.00058690 0.00000000
0.13482590 1.79548283 0.00220464 0.00000000
0.31824247 1.62157578 0.00277354 0.00000000
1.07336692 0.18902526 0.00007679 0.00000000
1.80625213 1.18664599 0.00524791 0.00000000
4.03902861 1.70951478 -0.00200833 0.00000000
3.32489273 1.91348105 0.00146581 0.00000000
1.84264327 1.25482632 -0.00023653 0.00000000
2.99601545 0.14528663 0.00386634 0.00000000
3.64418197 1.40876725 -0.00174066 0.00000000
1.57167098 0.05903769 -0.00167459 0.00000000
3.33287436 0.27506424 0.00138924 0.00000000
3.23489885 1.39074909 -0.00051122 0.00000000
0.39105295 1.09080206 -0.00388426 0.00000000
0.30010048 1.64513436 -0.00245419 0.00000000
2.27921970 0.54160012 -0.00198175 0.00000000
0.70009375 1.66189712 -0.00335810 0.00000000
1.83176722 1.44075969 -0.00231195 0.00000000
2.02874254 1.35830225 -0.00105687 0.00000000
1.48207449 1.14394668 0.00059365 0.00000000
1.43184390 0.07107324 -0.00001327 0.00000000
2.36721874 0.10036203 0.00252009 0.00000000
1.79219478 0.65843878 -0.00223431 0.00000000
0.88766591 1.67682860 0.00119021 0.00000000
0.81660684 1.49776747 -0.00047019 0.00000000
3.14534811 1.08041904 0.00248232 0.00000000
1.97307053 0.35839556 -0.00116934 0.00000000
3.00828147 0.33295814 0.00031000 0.00000000
0.25103342 1.16029328 -0.00033277 0.00000000
1.14306180 0.11507445 -0.00036689 0.00000000
1.83597184 0.00185265 -0.00309841 0.00000000
2.38946187 1.39670205 0.00092053 0.00000000
0.23877555 1.32668601 -0.00033312 0.00000000
2.30310065 1.48995912 -0.00080031 0.00000000
3.97422511 1.28010165 0.00026131 0.00000000
1.92676638 0.81136269 0.00132989 0.00000000
2.16058369 0.93943054 0.00144043 0.00000000
0.10178252 1.32195860 0.00280935 0.00000000
2.62776179 1.63607883 0.00251344 0.00000000
0.23689835 1.05578163 0.00316154 0.00000000
1.13455272 1.87144936 -0.00461641 0.00000000
1.75579248 1.66863417 0.00317712 0.00000000
1.11407503 0.57726484 0.00100689 0.00000000
0.46873438 0.99454387 -0.00012978 0.00000000
3.50334107 1.83172449 0.00179789 0.00000000
1.75634558 1.49598641 0.00439842 0.00000000
1.68580505 1.02718427 -0.00339396 0.00000000
1.53391119 1.80760940 -0.00023858 0.00000000
0.09072221 1.04305102 0.00264291 0.00000000
0.24947787 1.20377106 0.00157442 0.00000000
1.97021366 0.56578642 -0.00409041 0.00000000
2.97950362 1.05105001 -0.00190336 0.00000000
0.62980920 0.35546816 -0.00037390 0.00000000
3.91416571 0.35039231 0.00099033 0.00000000
1.72110775 1.11012135 0.00453085 0.00000000
2.43114132 1.56906144 0.00321798 0.00000000
3.07342711 0.80286926 -0.00025432 0.00000000
1.75761568 1.00787723 0.00253752 0.00000000
4.01404167 0.78842601 -0.00297600 0.00000000
0.20868372 1.33593858 -0.00289099 0.00000000
1.42560853 0.69452088 -0.00236976 0.00000000
2.17398841 0.96955529 -0.00008419 0.00000000
0.37600071 1.58259218 0.00217083 0.00000000
3.70098343 1.91402184 0.00488425 0.00000000
3.64399783 0.29094829 0.00222744 0.00000000
3.07368533 1.52482461 0.00305579 0.00000000
0.82711542 1.80213145 0.00120185 0.00000000
3.93767523 0.29330142 0.00043249 0.00000000
2.26838422 0.59828517 0.00000948 0.00000000
2.59455918 0.07850411 -0.00014584 0.00000000
1.96624830 0.37710139 -0.00104743 0.00000000
0.24420262 0.82231330 0.00043957 0.00000000
3.25849711 0.35985604 -0.00547595 0.00000000
0.70125321 0.91464114 -0.00033965 0.00000000
3.76842797 0.56478867 0.00004324 0.00000000
1.63242042 0.86817968 -0.00019916 0.00000000
1.80126780 1.31514389 -0.00011798 0.00000000
0.30259278 1.03597071 0.00195410 0.00000000
1.38968719 0.38713877 -0.00220507 0.00000000
2.04809979 0.39172601 -0.00290842 0.00000000
2.76877404 1.27389148 0.00436266 0.00000000
0.51929560 1.74717657 0.00105730 0.00000000
0.08763098 0.05294181 0.00050080 0.00000000
3.78338008 1.81328429 0.00329954 0.00000000
0.37132597 0.83827380 0.00232737 0.00000000
2.63695827 0.89849419 -0.00023608 0.00000000
2.26735416 1.17900232 0.00163793 0.00000000
1.32015498 1.86041864 -0.00378661 0.00000000
3.78408871 0.01772605 -0.00030941 0.00000000
2.01327469 1.79224895 -0.00128474 0.00000000
3.46171564 0.51960160 -0.00160517 0.00000000
2.61980072 1.13353100 -0.00139818 0.00000000
2.91293013 0.70214354 0.00069531 0.00000000
3.20356482 0.17497284 -0.00424724 0.00000000
0.88887801 0.06887317 0.00228733 0.00000000
1.95002049 1.16831361 -0.00032116 0.00000000
3.44548471 1.63843533 -0.00038206 0.00000000
2.95037251 1.53225461 0.00413959 0.00000000
0.76350741 0.07190076 0.00008985 0.00000000
1.89731868 1.72539107 -0.00176430 0.00000000
3.58149152 1.28217153 -0.00079394 0.00000000
4.02549131 0.16463359 0.00115732 0.00000000
3.43897141 0.66336282 -0.00074762 0.00000000
0.28861369 0.18682781 -0.00109423 0.00000000
1.48784222 1.47402796 0.00218199 0.00000000
3.25119639 0.02628598 -0.00140239 0.00000000
0.62738791 1.18263731 -0.00319090 0.00000000
1.65554123 0.33029901 0.00347281 0.00000000
3.99678564 0.00110842 -0.00473536 0.00000000
0.56879752 1.09762599 0.00554879 0.00000000
2.11269401 0.72578450 -0.00099166 0.00000000
2.10740583 0.60954469 0.00213575 0.00000000
2.69530768 1.49049103 -0.00045217 0.00000000
1.80882827 0.39748243 0.00112857 0.00000000
1.30729225 0.91412930 -0.00345103 0.00000000
3.91027717 1.71020229 -0.00238665 0.00000000
1.64894544 0.04563291 0.00110703 0.00000000
1.55928384 0.47238334 0.00151424 0.00000000
3.61937294 0.07424869 -0.00052370 0.00000000
1.10530495 1.30643608 -0.00051170 0.00000000
2.67924888 0.51509848 -0.00380589 0.00000000
2.97558902 1.18048954 -0.00178396 0.00000000
2.48484780 1.78623517 0.00066545 0.00000000
1.82041743 1.49431460 -0.00388437 0.00000000
3.47292416 0.03095058 0.00261645 0.00000000
2.44489065 1.53955922 -0.00219897 0.00000000
2.83747575 0.23531405 0.00212663 0.00000000
1.87748443 0.01033623 0.00164957 0.00000000
0.14624110 0.49988321 0.00264782 0.00000000
3.10878806 1.56609873 -0.00010735 0.00000000
2.56650687 0.78580848 0.00206458 0.00000000
0.20473018 1.64627600 0.00103076 0.00000000
3.22325954 0.95908976 -0.00008172 0.00000000
2.81212453 1.58593315 -0.00158055 0.00000000
1.28058202 1.22626580 0.00448301 0.00000000
0.94060723 1.41627098 0.00166986 0.00000000
1.36122635 0.77444300 -0.00386923 0.00000000
3.76983876 1.91419709 0.00362570 0.00000000
0.74284590 0.00232772 0.00071643 0.00000000
0.40402897 0.58377537 0.00031033 0.00000000
3.89261014 0.31837717 0.00200277 0.00000000
0.85790854 1.67495254 0.00120274 0.00000000
0.33270724 1.83771601 -0.00348427 0.00000000
2.33512477 1.28746765 0.00050951 0.00000000
2.74690335 1.45188603 0.00198134 0.00000000
2.36920621 0.47497183 -0.00028935 0.00000000
3.06962986 1.68568031 0.00132671 0.00000000
0.00596528 0.88397038 0.00424287 0.00000000
2.53149200 0.54754818 -0.00136563 0.00000000
3.59456890 0.32541302 -0.00072598 0.00000000
2.51371944 0.78512705 -0.00396219 0.00000000
3.93184638 1.42863197 0.00204064 0.00000000
2.49443790 1.47850483 -0.00007976 0.00000000
2.36801018 0.91548220 0.00136549 0.00000000
3.55664733 0.19056945 0.00261417 0.00000000
0.94279705 1.26987316 0.00355065 0.00000000
1.61679068 0.79455628 -0.00399698 0.00000000
0.51455233 0.62701794 0.00139321 0.00000000
0.97197159 1.41160757 -0.00370153 0.00000000
1.44014028 0.32432680 -0.00092238 0.00000000
3.70144771 0.15872293 -0.00235437 0.00000000
4.06378214 0.66042866 -0.00063422 0.00000000
0.93725805 0.66552261 0.00013309 0.00000000
0.26643235 1.03911294 0.00005832 0.00000000
0.48382885 0.54301456 -0.00262675 0.00000000
1.44176525 0.43142893 -0.00523206 0.00000000
0.53328146 0.82598064 -0.00153935 0.00000000
2.19191082 1.14678870 -0.00463713 0.00000000
0.60447629 1.41433647 -0.00284600 0.00000000
1.27286222 1.36763634 -0.00421989 0.00000000
0.59652120 0.14398814 -0.00087837 0.00000000
3.19874800 0.02747816 0.00067214 0.00000000
0.60416383 1.58814503 0.00009129 0.00000000
3.52073184 0.07142463 0.00181030 0.00000000
1.71149322 1.45537595 0.00119302 0.00000000
0.09256693 0.23919208 0.00132460 0.00000000
3.33232736 0.55499738 -0.00206992 0.00000000
4.02262788 1.28813142 0.00105691 0.00000000
3.89028325 0.81297417 0.00153293 0.00000000
3.62765724 1.84447011 0.00358133 0.00000000
1.37324775 0.44816606 0.00059546 0.00000000
0.72724395 0.43195178 0.00140319 0.00000000
2.10709474 0.87416091 0.00141132 0.00000000
0.10176750 0.99380381 -0.00510833 0.00000000
1.60398642 0.02819442 -0.00046791 0.00000000
2.52506307 0.20826404 -0.00262812 0.00000000
1.42251738 1.28230178 -0.00049828 0.00000000
0.82218202 1.08902337 -0.00009001 0.00000000
1.58282259 1.78096845 0.00128359 0.00000000
0.89259862 0.88906895 0.00397524 0.00000000
1.98043289 1.13416741 0.00343589 0.00000000
2.76679837 0.31344482 0.00222748 0.00000000
1.98402737 1.90292705 0.00391490 0.00000000
0.68186027 1.88826092 0.00435514 0.00000000
3.31539303 1.55577254 0.00146939 0.00000000
2.04332298 1.87098514 -0.00217773 0.00000000
2.55352607 0.41394504 -0.00070651 0.00000000
3.30742977 1.12541049 -0.00251630 0.00000000
1.09139663 1.26937900 0.00150791 0.00000000
2.18372931 0.29471207 -0.00135521 0.00000000
3.98100804 0.09450533 0.00164867 0.00000000
1.89567535 0.45966604 -0.00395074 0.00000000
1.49824306 1.00311036 -0.00283584 0.00000000
0.63230118 0.75586094 -0.00089421 0.00000000
0.56648031 1.50942641 0.00007960 0.00000000
3.60367432 0.19257537 0.00041108 0.00000000
0.41412605 1.02733362 -0.00480412 0.00000000
2.45713716 1.48251093 -0.00474372 0.00000000
0.21049178 1.67650573 0.00221755 0.00000000
0.76143975 0.32142316 -0.00019579 0.00000000
1.73416288 1.29625228 0.00116363 0.00000000
1.72158861 1.45342292 -0.00045257 0.00000000
2.49233290 0.00672012 0.00174949 0.00000000
0.00835748 1.72089238 -0.00121863 0.00000000
1.33150759 0.07188526 0.00120942 0.00000000
1.27429693 1.80935459 0.00092540 0.00000000
2.04108428 1.82475768 -0.00096376 0.00000000
3.86115007 1.53928720 -0.00273235 0.00000000
4.04797586 1.35682640 -0.00408642 0.00000000
1.27548998 0.62141484 0.00180696 0.00000000
2.50684943 0.71625614 0.00022960 0.00000000
3.72350325 1.05617062 0.00084738 0.00000000
2.25888072 0.59472455 -0.00284413 0.00000000
3.28505198 0.78180894 -0.00148109 0.00000000
2.80910528 0.19274908 0.00477057 0.00000000
0.96230857 1.42915633 -0.00122060 0.00000000
2.63632669 0.97918156 0.00002628 0.00000000
0.96768328 0.91370366 0.00022059 0.00000000
3.09943628 0.17426346 -0.00389651 0.00000000
1.57212303 1.58802872 -0.00155731 0.00000000
2.60319697 0.43066388 -0.00027065 0.00000000
3.17365646 1.81304492 -0.00089639 0.00000000
1.54333404 0.10921151 0.00074906 0.00000000
3.24310384 1.32036255 -0.00086827 0.00000000
1.79074446 1.70957307 0.00243469 0.00000000
1.98571549 0.74038836 0.00048890 0.00000000
3.37389792 0.64158566 -0.00303353 0.00000000
3.83114190 1.25326037 0.00170434 0.00000000
3.16224461 1.13304451 0.00405821 0.00000000
1.28905348 0.31526922 -0.00030659 0.00000000
1.72767155 1.74055488 0.00090266 0.00000000
3.11565682 1.65652498 -0.00278018 0.00000000
2.70030942 0.57709046 -0.00204088 0.00000000
0.37301963 0.19702338 0.00088799 0.00000000
0.59417598 1.65853570 -0.00191609 0.00000000
0.04834990 1.16151253 0.00598701 0.00000000
0.84449277 0.64210758 0.00321593 0.00000000
0.50879741 0.62686627 0.00201422 0.00000000
2.05598996 0.68381391 -0.00051021 0.00000000
3.78373366 0.58694233 -0.00184328 0.00000000
0.30328439 0.55328236 -0.00128264 0.00000000
1.70847762 1.40423491 -0.00025672 0.00000000
3.96777583 1.40024861 0.00119124 0.00000000
2.77955574 1.85631450 0.00626131 0.00000000
1.56368378 1.52347748 -0.00287607 0.00000000
1.52196168 0.32497213 -0.00528242 0.00000000
2.63179834 0.09439966 -0.00308392 0.00000000
3.65145521 1.79044592 -0.00127072 0.00000000
2.54573816 1.16519560 -0.00158610 0.00000000
3.14920294 0.60581521 0.00375870 0.00000000
0.42972322 1.73333708 0.00108091 0.00000000
1.20937689 1.03218185 -0.00233042 0.00000000
1.36334190 0.82012407 -0.00276676 0.00000000
1.81305103 0.55037513 -0.00123844 0.00000000
0.70610660 1.82447632 0.00165723 0.00000000
0.30601796 1.16967527 -0.00175438 0.00000000
2.02360635 1.26672970 -0.00190457 0.00000000
0.61788584 0.64542244 0.00075572 0.00000000
3.92540454 0.14857666 -0.00295206 0.00000000
2.06518480 1.37942150 0.00117953 0.00000000
0.56031330 0.31944779 0.00006269 0.00000000
1.64492348 0.06232539 0.00134187 0.00000000
1.78882167 1.89864106 -0.00359553 0.00000000
1.52969818 1.09774487 0.00560103 0.00000000
0.00578255 0.35365378 -0.00120709 0.00000000
1.88502066 1.34758211 -0.00012877 0.00000000
2.42576294 0.23220825 0.00273876 0.00000000
3.42356245 1.77971294 0.00082071 0.00000000
2.09230119 0.43587892 0.00329012 0.00000000
1.00901110 0.70115032 -0.00186566 0.00000000
2.47935913 1.67130151 -0.00052709 0.00000000
3.78343070 1.69751519 -0.00660926 0.00000000
1.11664573 0.53909032 0.00102359 0.00000000
2.33384034 0.77393496 -0.00447342 0.00000000
2.10185349 1.18252213 0.00521622 0.00000000
1.04197843 0.06509857 0.00265630 0.00000000
2.83130755 0.62262859 0.00090304 0.00000000
2.66626735 0.65714422 0.00028731 0.00000000
2.95876973 0.73711808 -0.00124621 0.00000000
0.52098449 0.57155258 0.00320390 0.00000000
0.28914483 0.55502557 -0.00034210 0.00000000
1.75642450 1.13640045 -0.00310392 0.00000000
0.83234025 1.46847408 0.00375780 0.00000000
3.50176860 1.54387556 0.00227852 0.00000000
0.49009971 1.01618077 0.00299953 0.00000000
2.18931031 0.37772943 0.00120439 0.00000000
2.46395148 1.19559609 -0.00552845 0.00000000
3.95968754 0.06968789 -0.00244267 0.00000000
3.75736446 0.63801599 -0.00124042 0.00000000
0.25098056 0.06331110 -0.00228940 0.00000000
3.46420100 0.28120721 -0.00343985 0.00000000
3.67657718 0.47782364 -0.00056938 0.00000000
2.74120312 1.81347502 0.00227829 0.00000000
3.97883296 1.29294381 0.00406938 0.00000000
1.79235347 0.78764566 0.00184236 0.00000000
1.09635814 1.74866272 -0.00207300 0.00000000
1.72771549 1.25345773 -0.00045960 0.00000000
2.32354542 0.20727612 -0.00101312 0.00000000
2.01817362 0.64426235 -0.00000748 0.00000000
2.03894422 0.92532793 -0.00114770 0.00000000
3.16258837 1.87733821 0.00278730 0.00000000
2.51623307 0.78450011 0.00164600 0.00000000
3.40678484 1.69769377 0.00268805 0.00000000
0.22569261 1.11138308 0.00211612 0.00000000
2.53018628 1.68864268 -0.00218783 0.00000000
3.50356423 0.87811114 0.00164030 0.00000000
2.53208985 1.28956029 -0.00110106 0.00000000
2.16820011 0.22065093 -0.00134350 0.00000000
2.73251297 0.70339275 0.00100256 0.00000000
1.92783566 1.23411187 -0.00203137 0.00000000
0.51118788 1.49468772 -0.00146252 0.00000000
2.49658187 1.27179421 0.00067673 0.00000000
3.42865412 0.93748916 0.00072604 0.00000000
0.18124015 1.38486524 -0.00018736 0.00000000
2.07254338 1.22300647 0.00174167 0.00000000
0.87848225 1.00213926 -0.00055755 0.00000000
0.90257003 0.67973545 -0.00273449 0.00000000
3.36622329 1.70806626 0.00313512 0.00000000
2.28086581 1.85758320 -0.00103158 0.00000000
1.39871397 1.18403169 -0.00071838 0.00000000
1.46918689 1.06983316 0.00277941 0.00000000
2.36078886 1.13130628 -0.00062738 0.00000000
1.75453484 0.91864711 -0.00016937 0.00000000
3.72177264 0.85145980 0.00037985 0.00000000
2.11047381 1.09440590 -0.00247823 0.00000000
3.83590731 0.88443173 -0.00079376 0.00000000
3.49839093 1.43440452 0.00534708 0.00000000
0.10175772 1.16340588 0.00144524 0.00000000
1.39387709 0.06889003 0.00077162 0.00000000
1.30154808 0.02356500 0.00226760 0.00000000
2.86352743 0.32557863 0.00306565 0.00000000
0.74477886 1.72595018 -0.00150029 0.00000000
3.87350745 0.41963738 -0.00017806 0.00000000
0.58512058 1.52530376 0.00121154 0.00000000
0.39770956 0.93251751 -0.00349407 0.00000000
1.41595593 0.06167109 -0.00144676 0.00000000
3.20995778 0.27920029 -0.00067183 0.00000000
3.73000582 1.33410298 -0.00166032 0.00000000
1.81217220 0.05360227 0.00464659 0.00000000
1.58161884 1.88202396 -0.00254044 0.00000000
1.03447998 0.14430966 0.00021862 0.00000000
2.09405321 0.29282231 -0.00001610 0.00000000
3.06920177 0.22407808 0.00253929 0.00000000
2.68204072 1.30684558 -0.00310776 0.00000000
1.15325802 1.22334759 -0.00171577 0.00000000
1.26134487 0.04014764 0.00099510 0.00000000
0.71828416 1.79225830 -0.00088506 0.00000000
1.79215654 0.65673114 0.00026391 0.00000000
3.32875704 1.23072476 -0.00218413 0.00000000
0.24932807 1.74195929 -0.00348667 0.00000000
0.59954111 0.57085093 0.00003872 0.00000000
3.72554761 0.23715639 0.00135013 0.00000000
2.71401369 1.47500146 0.00303615 0.00000000
0.39950056 0.66718708 -0.00079176 0.00000000
3.63962853 0.41293328 -0.00409214 0.00000000
3.51610228 1.69699313 0.00359897 0.00000000
1.80961488 0.22730421 0.00133076 0.00000000
2.10116831 1.70565623 0.00241440 0.00000000
1.07206551 0.57357374 0.00093848 0.00000000
0.22040347 0.49162011 0.00153054 0.00000000
2.84505580 0.42661769 0.00009275 0.00000000
1.91295570 0.60043079 -0.00436217 0.00000000
3.81171033 1.45637568 0.00155714 0.00000000
0.76909409 1.77148589 0.00382491 0.00000000
2.13924262 0.13967715 -0.00327005 0.00000000
0.41246107 1.26599821 0.00053996 0.00000000
2.92888707 1.87815995 -0.00070644 0.00000000
2.27757307 0.26550167 -0.00364606 0.00000000
4.05235787 0.00034251 0.00150356 0.00000000
0.57080742 1.24249509 -0.00365682 0.00000000
3.11136078 0.77260941 -0.00239870 0.00000000
2.23952862 0.68474314 -0.00032532 0.00000000
2.32534128 0.47092927 -0.00485105 0.00000000
2.02058336 1.19993992 0.00026335 0.00000000
1.37721076 1.83535807 0.00081928 0.00000000
2.47196323 1.33029573 0.00032651 0.00000000
1.02151484 1.13919558 0.00155296 0.00000000
2.49028969 1.87424612 0.00363616 0.00000000
2.67384942 0.74384503 -0.00217713 0.00000000
3.69518592 0.41146595 -0.00523121 0.00000000
3.45516805 0.59223959 0.00185972 0.00000000
3.54157270 1.37932531 0.00278741 0.00000000
0.48765113 0.54405202 0.00049484 0.00000000
1.91732981 0.59281415 -0.00014885 0.00000000
1.29023274 1.37553578 -0.00472580 0.00000000
2.64774072 1.78343893 -0.00060433 0.00000000
2.33618809 0.74344244 -0.00018540 0.00000000
2.93182262 0.64367500 -0.00353089 0.00000000
2.09880229 0.20754197 -0.00125341 0.00000000
0.34035776 0.41823963 -0.00208145 0.00000000
2.78554218 0.97312680 0.00242652 0.00000000
3.16630998 0.79472197 0.00056794 0.00000000
1.60705076 0.53469622 0.00056208 0.00000000
0.19256821 0.58837790 0.00386103 0.00000000
0.49710646 1.31368909 -0.00042715 0.00000000
0.58301541 0.00154982 0.00284581 1.00000000
2.52267931 -0.00523467 0.00087996 1.00000000
0.79181246 -0.00039551 0.00242337 1.00000000
2.56713429 -0.00389070 0.00470719 1.00000000
2.15897777 -0.00104764 0.00262253 1.00000000
3.94915289 -0.00008808 -0.00593029 1.00000000
3.51043309 0.00177540 -0.00173033 1.00000000
3.19730244 0.00182693 -0.00181977 1.00000000
3.03809865 -0.00681341 0.00561118 1.00000000
3.62879221 -0.00140243 -0.00124341 1.00000000
0.02531243 0.00447939 0.00249759 1.00000000
0.45959222 0.00200870 -0.00158320 1.00000000
1.23139293 -0.00160472 0.00014345 1.00000000
3.48159956 0.00460115 0.00662472 1.00000000
0.83836140 0.00148507 0.00066352 1.00000000
3.48570402 0.00177873 -0.00185023 1.00000000
3.02638619 -0.00028005 -0.00169491 1.00000000
2.94808696 -0.00105787 -0.00187738 1.00000000
1.53617880 0.00330039 -0.00733271 1.00000000
0.08305723 -0.00137269 0.00338865 1.00000000
2.68604864 -0.00017647 -0.00092817 1.00000000
1.51418735 0.00046505 -0.00041738 1.00000000
2.95500751 0.00322261 -0.00109458 1.00000000
3.01933611 -0.00028917 -0.00005713 1.00000000
3.44873793 0.00349502 0.00255838 1.00000000
2.97936523 0.00005556 0.00284710 1.00000000
1.32025707 -0.00366655 0.00340553 1.00000000
2.98762315 0.00077425 -0.00131206 1.00000000
1.89770097 -0.00164567 0.00040104 1.00000000
1.76206149 -0.00134586 -0.00199334 1.00000000
3.15394104 -0.00053992 0.00313455 1.00000000
2.64551053 -0.00399792 0.00203650 1.00000000
0.71855397 0.00303279 -0.00435393 1.00000000
3.40902245 -0.00134784 -0.00246855 1.00000000
0.00630705 0.00233818 -0.00471576 1.00000000
0.85344863 -0.00406604 -0.00051777 1.00000000
0.62053831 0.00408478 0.00174188 1.00000000
1.33868071 -0.00072318 0.00342795 1.00000000
2.08048138 0.00340324 0.00064023 1.00000000
1.24892273 -0.00180924 0.00301559 1.00000000
2.93506087 0.00028713 -0.00205971 1.00000000
2.15312062 0.00020926 0.00244555 1.00000000
3.75287058 -0.00130202 0.00072558 1.00000000
2.03659565 0.00237756 -0.00108241 1.00000000
1.45918097 0.00244393 0.00022108 1.00000000
3.24543037 0.00037902 0.00465316 1.00000000
3.66830834 -0.00323242 -0.00112691 1.00000000
1.90524683 0.00021367 0.00040793 1.00000000
3.43828498 -0.00000247 0.00141640 1.00000000
2.10468380 0.00327643 -0.00302230 1.00000000
1.16378534 -0.00143520 0.00218318 1.00000000
3.78228751 -0.00193783 0.00247856 1.00000000
0.25649937 0.00048599 -0.00136415 1.00000000
1.32827978 0.00171470 0.00086638 1.00000000
3.69068669 0.00134719 0.00366373 1.00000000
0.90042172 0.00148607 -0.00000922 1.00000000
0.21986765 0.00010998 0.00263207 1.00000000
2.45404760 0.00492576 0.00248345 1.00000000
1.48187577 0.00218824 -0.00078471 1.00000000
3.29497514 -0.00324935 -0.00284145 1.00000000
0.15824676 0.00012647 -0.00157380 1.00000000
4.00652837 -0.00110616 -0.00182189 1.00000000
3.56988092 0.00333153 0.00246747 1.00000000
0.09702404 0.00342339 -0.00130454 1.00000000
3.18810377 0.00076702 -0.00045769 1.00000000
1.07667866 0.00123817 -0.00229146 1.00000000
0.36419233 -0.00125402 0.00286038 1.00000000
2.33231537 -0.00197492 0.00033106 1.00000000
2.01117947 0.00198010 0.00076472 1.00000000
2.10992562 -0.00093692 -0.00133609 1.00000000
1.08388951 0.00225571 -0.00110691 1.00000000
1.67762323 0.00085850 0.00339705 1.00000000
1.86585888 -0.00587218 -0.00029296 1.00000000
3.55575771 0.00357251 -0.00136969 1.00000000
3.44078147 0.00401985 -0.00040517 1.00000000
1.51758897 0.00084798 0.00485994 1.00000000
1.20651569 0.00230182 -0.00229683 1.00000000
2.75223818 -0.00005740 0.00070263 1.00000000
2.04209983 -0.00146956 -0.00279960 1.00000000
2.41098616 0.00041022 0.00537799 1.00000000
2.38981374 0.00278266 0.00545070 1.00000000
2.01191559 0.00040991 0.00263533 1.00000000
2.00405031 -0.00139428 -0.00172403 1.00000000
2.96564317 0.00478422 0.00131410 1.00000000
0.07889453 -0.00181132 0.00240087 1.00000000
0.92515630 -0.00360336 -0.00251769 1.00000000
0.66033067 -0.00186429 -0.00271767 1.00000000
3.44569710 -0.00283685 -0.00052862 1.00000000
1.69134199 0.00586125 -0.00251811 1.00000000
0.54335558 -0.00241552 -0.00061357 1.00000000
2.31555619 -0.00024788 0.00036005 1.00000000
3.31621568 0.00346570 0.00501306 1.00000000
2.43240045 -0.00236499 -0.00037776 1.00000000
0.60533407 -0.00109465 0.00121382 1.00000000
2.75843973 -0.00130610 0.00102589 1.00000000
3.14188015 0.00399427 0.00004679 1.00000000
2.93059415 0.00105019 -0.00139655 1.00000000
4.03427644 -0.00020214 0.00185946 1.00000000
1.86917783 0.00115977 -0.00081947 1.00000000
0.09790785 0.00153255 0.00122458 1.00000000
3.33408437 0.00285515 -0.00265069 1.00000000
1.51155015 -0.00577963 -0.00381791 1.00000000
3.62597530 -0.00060162 -0.00193694 1.00000000
3.07031023 -0.00217639 -0.00560088 1.00000000
3.90246714 -0.00260826 0.00052345 1.00000000
2.43972601 0.00147159 -0.00013139 1.00000000
3.32249242 0.00365483 0.00258976 1.00000000
1.78493596 -0.00024761 -0.00513134 1.00000000
0.00650975 0.00122780 0.00089172 1.00000000
0.60931608 0.00266205 0.00158598 1.00000000
1.67055318 0.00044130 0.00246993 1.00000000
0.29842237 -0.00330566 0.00042551 1.00000000
1.59479439 -0.00343382 -0.00369281 1.00000000
3.24429894 0.00465026 -0.00023719 1.00000000
3.41330902 0.00127620 -0.00646905 1.00000000
2.23293214 -0.00201282 -0.00145282 1.00000000
2.04323307 0.00032581 0.00072559 1.00000000
1.16390132 -0.00507253 -0.00018102 1.00000000
4.05174897 -0.00280597 0.00327558 1.00000000
0.77394096 -0.00029515 -0.00324392 1.00000000
2.99522592 0.00239963 0.00265992 1.00000000
2.53160337 0.00189713 0.00197249 1.00000000
1.33126974 -0.00528950 0.00338885 1.00000000
0.22102917 0.00153780 -0.00138854 1.00000000
2.60598990 0.00283530 0.00019921 1.00000000
2.83827521 -0.00006885 0.00236485 1.00000000
0.36827903 -0.00260137 0.00450258 1.00000000
2.79412034 -0.00035313 0.00070779 1.00000000
0.34333108 0.00235610 0.00271205 1.00000000
2.06790802 -0.00263103 -0.00049059 1.00000000
0.70048574 -0.00110361 -0.00229463 1.00000000
3.92554627 -0.00004575 0.00146632 1.00000000
0.86284016 0.00098320 0.00124560 1.00000000
0.49785162 0.00093865 -0.00200716 1.00000000
2.78287737 -0.00144575 0.00045891 1.00000000
3.08165806 0.00040339 -0.00211607 1.00000000
0.36532563 -0.00077778 -0.00171849 1.00000000
2.89771143 0.00429291 0.00421391 1.00000000
2.98531175 0.00362462 -0.00412014 1.00000000
2.16853525 -0.00227004 -0.00046663 1.00000000
2.78868378 -0.00043289 -0.00081054 1.00000000
3.04461283 0.00179832 0.00208900 1.00000000
2.83746194 0.00051502 -0.00316060 1.00000000
2.59177269 0.00528189 -0.00217277 1.00000000
3.82363316 -0.00011793 -0.00065250 1.00000000
1.50372187 -0.00157059 0.00122687 1.00000000
1.08576734 -0.00259792 -0.00327664 1.00000000
2.85065393 -0.00272779 0.00059887 1.00000000
2.09082941 -0.00159828 0.00204437 1.00000000
1.43415056 0.00139713 0.00179813 1.00000000
0.92049398 0.00286839 -0.00272563 1.00000000
3.02518610 0.00014697 0.00053219 1.00000000
1.47485231 0.00450998 -0.00062053 1.00000000
1.04528784 0.00342249 -0.00353042 1.00000000
1.56739819 0.00196091 -0.00173372 1.00000000
1.69758570 -0.00312548 -0.00581058 1.00000000
3.95621570 0.00274464 -0.00038582 1.00000000
1.57091948 0.00099480 -0.00362700 1.00000000
0.13322303 0.00034868 0.00025041 1.00000000
1.33177570 0.00009694 -0.00328736 1.00000000
1.93556080 0.00043289 0.00216891 1.00000000
1.87737834 0.00221867 -0.00118714 1.00000000
1.49275535 0.00100900 0.00085375 1.00000000
3.74404424 -0.00046822 0.00238471 1.00000000
2.78470046 -0.00021931 -0.00123053 1.00000000
3.19716498 0.00118188 -0.00120629 1.00000000
2.18876139 0.00260938 -0.00419519 1.00000000
2.71476583 -0.00342772 -0.00083509 1.00000000
1.42177334 0.00312697 -0.00080320 1.00000000
2.52452430 -0.00107736 0.00234037 1.00000000
0.10452685 -0.00361444 0.00219691 1.00000000
1.15392049 0.00152826 0.00247087 1.00000000
3.72461467 -0.00270556 -0.00036440 1.00000000
1.47008697 0.00214004 0.00020743 1.00000000
4.06041544 0.00395413 -0.00062344 1.00000000
2.97748091 0.00124948 -0.00018232 1.00000000
1.18635791 0.00038554 0.00027031 1.00000000
0.35892886 0.00140990 0.00551019 1.00000000
0.30371134 0.00003304 -0.00068742 1.00000000
1.60085574 -0.00307699 -0.00031163 1.00000000
3.78026799 -0.00045920 -0.00196037 1.00000000
2.79303959 0.00187143 -0.00110977 1.00000000
2.41837700 -0.00284711 -0.00261888 1.00000000
1.03279636 -0.00261570 0.00236384 1.00000000
2.22964414 0.00182623 0.00186424 1.00000000
2.51426253 0.00089461 0.00206082 1.00000000
1.31066972 0.00330020 -0.00018544 1.00000000
1.06349551 0.00193082 0.00022414 1.00000000
1.25263823 0.00564361 -0.00369032 1.00000000
3.04116973 -0.00283535 -0.00238892 1.00000000
1.43699798 0.00013817 0.00753145 1.00000000
1.23391732 -0.00132023 0.00074856 1.00000000
0.61923620 0.00268373 -0.00079032 1.00000000
3.48483233 -0.00253232 -0.00013038 1.00000000
1.20915057 0.00080531 0.00377930 1.00000000
1.72325534 0.00321204 0.00046288 1.00000000
2.77535799 0.00349020 -0.00305162 1.00000000
3.54288517 -0.00303245 -0.00085397 1.00000000
2.02547678 -0.00241596 0.00045592 1.00000000
0.21649851 -0.00053868 -0.00467476 1.00000000
2.90160743 -0.00299071 0.00176564 1.00000000
1.30753425 0.00160160 0.00139954 1.00000000
1.74315675 -0.00224071 -0.00240369 1.00000000
2.15701678 0.00493526 -0.00219597 1.00000000
1.89180458 0.00310229 -0.00028602 1.00000000
2.71458912 -0.00016647 0.00143028 1.00000000
3.07597714 0.00238754 -0.00204503 1.00000000
1.61581432 -0.00077229 -0.00365645 1.00000000
1.58306953 -0.00012570 -0.00080135 1.00000000
2.77087740 0.00235242 -0.00101806 1.00000000
3.13652362 0.00089725 0.00251588 1.00000000
2.44563733 -0.00264566 0.00055981 1.00000000
0.46201224 -0.00369478 0.00334025 1.00000000
3.80682046 -0.00486508 0.00150701 1.00000000
0.11986793 -0.00191983 -0.00345144 1.00000000
3.74660637 -0.00264599 0.00486400 1.00000000
2.20660189 -0.00293731 0.00138721 1.00000000
1.16324096 0.00556511 0.00218053 1.00000000
0.14930773 0.00015729 0.00185751 1.00000000
1.03839511 -0.00039313 -0.00096493 1.00000000
2.12502661 0.00455574 -0.00237511 1.00000000
1.05601859 0.00292213 0.00199687 1.00000000
1.35229707 0.00218350 0.00168999 1.00000000
3.93084642 -0.00443946 0.00112656 1.00000000
3.30584842 -0.00084027 -0.00071397 1.00000000
0.22956941 -0.00255020 -0.00441364 1.00000000
1.99918204 -0.00241657 -0.00187593 1.00000000
1.18405078 -0.00231737 -0.00217407 1.00000000
2.42754356 -0.00199821 0.00425747 1.00000000
2.38311287 0.00496710 -0.00025315 1.00000000
3.05524261 0.00220672 0.00067740 1.00000000
3.86888276 -0.00005252 0.00206366 1.00000000
2.18667425 -0.00285766 -0.00054210 1.00000000
0.40519357 0.00451613 0.00154673 1.00000000
1.01168022 0.00235302 -0.04250552 0.00000000
2.79994321 -0.00025120 -0.00174087 0.00000000
3.62557870 -0.00203455 -0.02739241 0.00000000
1.33198985 -0.00272574 -0.10066781 0.00000000
1.88773324 -0.00317130 -0.07151240 0.00000000
3.93289834 -0.00997833 -0.19967968 0.00000000
1.73745550 0.00102929 -0.03629690 0.00000000
2.30480284 -0.00720830 -0.15807526 0.00000000
0.80284879 -0.00535404 -0.13510046 0.00000000
0.09963550 -0.00084462 -0.05211784 0.00000000
0.62753894 -0.00725939 -0.17478828 0.00000000
3.09372910 -0.00027702 -0.13354123 0.00000000
2.24093452 -0.00808200 -0.16287834 0.00000000
1.21431627 -0.00714681 -0.06361013 0.00000000
2.38737068 0.00040207 -0.03206010 0.00000000
1.29316447 -0.00603575 -0.10057827 0.00000000
0.46754571 -0.00803249 -0.18012715 0.00000000
1.83622228 -0.00027442 -0.10667624 0.00000000
2.06357464 -0.00693351 -0.11847319 0.00000000
2.61240506 -0.00778465 -0.18364618 0.00000000
0.13793995 -0.00485597 -0.20012435 0.00000000
0.53295605 0.00053394 -0.02126303 0.00000000
0.29687708 -0.00217552 -0.06221774 0.00000000
2.21658652 -0.00517875 -0.04668674 0.00000000
0.90907271 -0.00682164 -0.16469832 0.00000000
1.14861361 -0.00324263 -0.16559293 0.00000000
3.56766931 -0.00196952 -0.07472157 0.00000000
3.42388191 -0.00305800 -0.15640037 0.00000000
0.96603802 -0.00502841 -0.09941067 0.00000000
3.11036380 -0.00354198 -0.03735549 0.00000000
0.22545181 -0.00375260 -0.06468250 0.00000000
0.11531701 -0.00722175 -0.15712074 0.00000000
0.75055482 0.00033492 -0.06223786 0.00000000
3.27412027 -0.00207082 -0.05289048 0.00000000
3.26185050 -0.00794324 -0.10204443 0.00000000
3.20576696 -0.00467068 -0.14573934 0.00000000
1.39591633 -0.00326406 -0.16080929 0.00000000
0.81149653 -0.00303995 -0.05869337 0.00000000
2.02362916 -0.00803803 -0.19527752 0.00000000
3.83467835 -0.00249159 -0.07237173 0.00000000
0.06610183 -0.00476036 -0.17857247 0.00000000
0.48077074 -0.00945294 -0.12985655 0.00000000
1.67961517 -0.00504446 -0.09759593 0.00000000
3.98289906 -0.00373184 -0.10790565 0.00000000
1.19391662 -0.00270008 -0.06878413 0.00000000
1.50254532 -0.00037593 -0.01235621 0.00000000
2.78312621 -0.00311546 -0.09908362 0.00000000
3.82081223 -0.00318885 -0.04232167 0.00000000
1.63329581 -0.00451823 -0.13403482 0.00000000
2.40226986 -0.01012873 -0.18252678 0.00000000
