1.607138 1.041275 -0.001318 0.0
3.516855 1.309025 -0.000801 0.0
3.137093 2.097390 -0.004702 0.0
1.468947 1.975419 -0.001220 0.0
3.746986 2.071245 -0.001280 0.0
1.487433 0.504979 -0.001887 0.0
3.014811 2.070060 0.000529 0.0
0.856342 1.628492 -0.001509 0.0
2.984480 2.085638 0.000180 0.0
2.344447 1.494030 -0.001280 0.0
3.886126 2.269255 -0.001594 0.0
2.487441 2.182791 -0.001975 0.0
1.802242 1.939360 0.002337 0.0
3.246594 1.499187 -0.002818 0.0
3.518332 0.905202 -0.000711 0.0
2.873853 0.590257 0.000918 0.0
2.374441 0.764602 -0.001304 0.0
0.592449 2.313315 -0.001131 0.0
2.902013 1.030205 0.005700 0.0
1.728579 1.354602 0.000434 0.0
1.946128 0.147950 -0.002502 0.0
1.276118 1.783698 -0.002805 0.0
1.293623 1.120112 0.001986 0.0
0.445258 0.914931 0.003066 0.0
2.836837 2.391176 0.000837 0.0
1.443693 1.631625 -0.005749 0.0
2.398789 2.365687 0.000972 0.0
3.050546 0.342567 -0.001711 0.0
1.323564 0.319633 0.002905 0.0
0.030692 0.926525 -0.000141 0.0
2.587209 1.731865 -0.004226 0.0
0.765976 0.723682 0.000891 0.0
0.892414 0.469991 -0.000223 0.0
3.285968 0.904591 -0.004573 0.0
0.166721 0.684634 0.000668 0.0
3.873364 2.062033 -0.003052 0.0
3.102872 1.086413 -0.004566 0.0
0.569489 1.980116 0.001973 0.0
1.511811 1.557776 0.001500 0.0
4.077943 1.197829 0.004389 0.0
3.559793 0.466055 0.003424 0.0
2.247714 0.403239 0.001005 0.0
1.255123 0.131905 0.001723 0.0
3.664650 1.183968 -0.000861 0.0
1.661415 0.677521 0.003468 0.0
1.219463 0.503770 0.002292 0.0
2.036301 1.828091 -0.000022 0.0
1.312232 1.508074 -0.002055 0.0
0.512022 1.374529 0.002524 0.0
0.222462 0.467052 0.002203 0.0
3.046517 0.227875 0.000962 0.0
2.047524 0.809909 0.001227 0.0
1.927498 0.128686 -0.002290 0.0
0.699494 2.025309 -0.002079 0.0
0.963266 1.465705 -0.001452 0.0
0.323692 1.522466 -0.002371 0.0
2.163246 0.283905 -0.001910 0.0
1.086844 1.425884 0.002549 0.0
1.646775 1.592695 -0.000890 0.0
1.952670 1.866638 0.003140 0.0
2.690416 0.925763 0.003492 0.0
0.865064 0.655435 -0.002882 0.0
3.625237 1.091271 0.000659 0.0
2.498019 1.486518 -0.001331 0.0
2.216058 2.070116 0.000169 0.0
1.739675 2.236531 -0.001639 0.0
3.053712 1.814435 0.000972 0.0
2.734019 0.561753 0.001484 0.0
2.195235 2.000865 0.003593 0.0
3.779113 2.200155 -0.002968 0.0
2.417385 0.186698 0.000253 0.0
3.281844 1.438497 0.000214 0.0
4.028276 1.651620 -0.000320 0.0
1.202215 0.866116 0.000740 0.0
2.222779 2.153163 -0.000757 0.0
1.405809 1.188619 0.002802 0.0
0.635900 0.821781 0.000169 0.0
2.229532 2.075073 -0.001165 0.0
2.357425 0.371817 -0.003097 0.0
2.265673 1.146913 0.000330 0.0
2.407324 2.128256 -0.001734 0.0
1.249630 2.182344 0.000280 0.0
1.100168 0.301910 -0.000960 0.0
2.725884 2.177099 -0.003910 0.0
2.893967 0.544130 -0.003870 0.0
1.266925 0.053777 0.000469 0.0
0.469168 1.083427 -0.002041 0.0
0.261204 0.065494 -0.002603 0.0
2.123702 1.405423 0.001733 0.0
0.592741 0.827365 -0.004822 0.0
3.163690 1.276477 -0.006392 0.0
1.530296 0.274891 0.001368 0.0
4.019320 0.343409 -0.000647 0.0
2.736468 0.863435 -0.000175 0.0
2.119343 0.194106 -0.000215 0.0
2.100470 1.719879 0.001092 0.0
2.257112 0.198008 -0.000970 0.0
3.077911 2.244734 -0.001818 0.0
0.738517 2.067339 0.000973 0.0
2.843051 0.855449 -0.001841 0.0
0.608402 2.305362 0.002381 0.0
3.415565 0.125078 -0.001182 0.0
1.920456 1.507554 0.000423 0.0
3.795975 1.656616 0.000909 0.0
0.731443 1.409170 -0.002696 0.0
1.456442 1.344641 0.001296 0.0
3.377805 1.462352 0.001512 0.0
3.782634 0.961906 -0.005109 0.0
1.503765 0.274887 -0.000490 0.0
1.931480 1.964107 -0.002728 0.0
1.433816 1.529974 -0.001236 0.0
2.611838 0.083494 0.000469 0.0
3.536594 0.978378 -0.001549 0.0
3.905756 1.613763 -0.000501 0.0
1.576048 1.057152 0.001727 0.0
3.559888 0.605812 0.001774 0.0
1.894119 0.274806 0.000798 0.0
2.849367 1.313231 -0.002207 0.0
2.668410 0.262647 -0.003583 0.0
3.345186 0.276443 -0.001659 0.0
3.731167 1.343338 0.004016 0.0
3.589934 0.605295 0.003116 0.0
1.416469 2.080722 -0.003149 0.0
3.945277 1.474593 -0.004129 0.0
0.284327 0.255132 -0.004155 0.0
2.084520 0.148457 -0.005601 0.0
0.681485 0.429644 0.001572 0.0
3.212863 1.926586 0.001816 0.0
1.127436 1.626999 0.004522 0.0
3.414744 2.332894 0.003874 0.0
1.438924 0.269777 0.002632 0.0
0.293200 0.643168 -0.001876 0.0
0.812943 0.868466 -0.001547 0.0
1.942363 1.195746 -0.003118 0.0
2.623326 2.233185 -0.001218 0.0
3.579904 2.251214 0.003091 0.0
1.023516 2.324317 0.000877 0.0
0.163615 1.597508 0.000611 0.0
3.282390 0.211602 0.003760 0.0
2.196775 1.045112 -0.001697 0.0
0.612638 1.376118 0.004736 0.0
1.736241 2.052244 0.005267 0.0
2.303829 2.250029 0.002412 0.0
1.735835 1.825497 -0.002226 0.0
1.490680 0.274467 -0.003154 0.0
0.773572 0.256565 0.000030 0.0
1.581482 1.890885 -0.001060 0.0
4.027694 1.553466 0.002570 0.0
0.701947 1.149863 -0.008314 0.0
3.509846 1.114196 -0.000390 0.0
3.599390 1.927798 0.002072 0.0
0.603429 0.748419 -0.001029 0.0
0.399858 1.831935 -0.006148 0.0
3.931306 1.377591 -0.000083 0.0
0.521494 0.658955 0.000260 0.0
3.507244 1.533617 -0.002067 0.0
2.043744 0.683950 0.000641 0.0
3.755436 2.218418 0.000697 0.0
2.472612 0.099790 -0.000028 0.0
0.583826 0.792771 -0.002506 0.0
2.381251 1.869595 -0.000748 0.0
0.591345 0.792020 -0.000121 0.0
4.060023 2.274262 -0.003442 0.0
2.846963 2.306700 0.002385 0.0
0.395975 1.960843 0.000751 0.0
0.471700 2.005357 -0.000754 0.0
3.506898 1.819416 0.001026 0.0
0.748583 1.094462 0.000638 0.0
1.117624 1.065276 -0.002285 0.0
1.256770 1.950004 0.001214 0.0
2.152459 2.206357 0.001364 0.0
1.196818 1.957858 0.003855 0.0
3.825622 0.820902 0.000884 0.0
0.231040 0.374904 0.000145 0.0
0.658451 1.561716 0.000270 0.0
0.801038 2.012136 -0.000043 0.0
2.439632 2.167831 -0.003355 0.0
0.712560 2.179070 0.001381 0.0
1.685287 0.990998 0.000696 0.0
1.193473 1.979550 0.004691 0.0
2.127305 1.412229 -0.003474 0.0
0.634274 0.097987 0.001783 0.0
1.777180 2.037043 0.004184 0.0
2.647417 1.185419 -0.002942 0.0
3.072398 0.321599 -0.002152 0.0
0.348342 0.818819 -0.000727 0.0
3.997382 1.274637 0.001323 0.0
1.698662 0.742611 -0.001451 0.0
0.948096 1.145098 -0.002693 0.0
3.913330 0.743869 -0.003609 0.0
1.036913 1.518985 -0.001668 0.0
3.083247 1.708537 0.002335 0.0
3.957792 0.808218 0.001302 0.0
3.142640 0.837574 -0.001367 0.0
3.308125 0.707589 -0.001281 0.0
2.480305 2.297106 0.006225 0.0
0.387428 1.437387 -0.002814 0.0
1.632776 2.053208 0.000703 0.0
3.223278 0.689700 0.003053 0.0
1.511708 2.048332 0.003152 0.0
2.330990 1.057350 -0.001356 0.0
2.089215 0.389638 0.000316 0.0
3.431630 0.028020 0.001508 0.0
2.609113 1.896786 0.001799 0.0
0.256367 1.837731 0.000191 0.0
0.795021 0.435108 -0.000339 0.0
1.530730 0.575221 -0.001423 0.0
1.884435 2.242493 0.002112 0.0
2.568685 2.183677 -0.000613 0.0
1.106325 2.156985 -0.000694 0.0
3.296427 1.341933 -0.002819 0.0
0.108571 1.841760 -0.000961 0.0
0.829742 0.227390 0.002050 0.0
2.116031 1.591572 0.007481 0.0
3.499134 2.108559 -0.000946 0.0
3.233238 1.187399 0.003704 0.0
0.031554 1.932244 0.006962 0.0
0.301503 2.287195 -0.000525 0.0
1.699898 2.205273 -0.002351 0.0
3.676527 0.175382 0.001434 0.0
0.609404 0.278720 -0.004212 0.0
3.548011 0.974116 -0.004068 0.0
1.303419 1.843492 -0.004362 0.0
0.353409 0.570079 -0.000771 0.0
1.021888 1.957407 -0.000499 0.0
2.982148 2.349101 -0.002632 0.0
1.388594 0.457716 -0.004414 0.0
1.878407 1.666624 -0.001644 0.0
1.415511 0.044883 0.003388 0.0
1.547570 1.714291 0.002599 0.0
1.059464 1.531579 0.002805 0.0
0.597914 1.614239 0.002204 0.0
2.971361 1.550525 0.000336 0.0
0.817826 2.065540 -0.002432 0.0
0.409946 1.066714 -0.000365 0.0
0.678608 1.280000 0.000130 0.0
2.981865 0.982612 0.003273 0.0
4.041002 0.125441 -0.003248 0.0
0.933606 1.271484 -0.004311 0.0
2.630745 0.237731 0.000968 0.0
3.105450 1.044163 -0.001744 0.0
2.044638 1.826653 -0.000424 0.0
2.625563 1.968180 0.001490 0.0
0.989139 1.488797 -0.001919 0.0
3.435412 0.551701 0.004971 0.0
3.474115 0.506597 -0.000224 0.0
1.633780 0.968861 0.001132 0.0
0.744246 0.001718 0.002588 0.0
3.469381 0.487178 0.002918 0.0
0.824706 1.696046 0.002070 0.0
4.051280 2.237554 -0.000775 0.0
0.949716 1.928260 -0.000335 0.0
0.909637 1.243654 -0.000852 0.0
1.724633 0.442690 0.001771 0.0
0.706547 0.452462 -0.005112 0.0
1.630228 1.553579 0.000899 0.0
0.340056 0.231736 -0.002071 0.0
1.857744 1.983445 0.001987 0.0
2.167938 0.330961 0.005298 0.0
2.769197 1.879115 0.000181 0.0
3.633852 0.397714 -0.000398 0.0
0.027738 1.554414 -0.005699 0.0
0.401673 0.216295 -0.001006 0.0
2.078017 0.953757 0.001608 0.0
2.887076 1.151376 0.004191 0.0
1.095805 2.304128 0.002890 0.0
0.471688 1.690977 0.001074 0.0
1.585282 2.265276 -0.002422 0.0
3.644401 0.952233 -0.001445 0.0
1.465221 0.355475 -0.002159 0.0
0.868517 1.805821 -0.002413 0.0
3.242876 1.442102 -0.001841 0.0
0.893047 0.429321 -0.000255 0.0
1.470350 0.245197 0.002293 0.0
1.078891 1.923436 0.001335 0.0
3.087528 0.160349 0.000003 0.0
0.092083 0.096664 0.002078 0.0
2.558561 0.037162 -0.001147 0.0
3.816383 0.104902 0.005591 0.0
1.337424 1.515368 0.004474 0.0
3.472561 0.542807 0.000587 0.0
2.676525 1.436739 -0.002918 0.0
2.518656 1.001025 -0.001507 0.0
3.950666 2.328777 -0.000223 0.0
2.117631 2.296003 -0.003328 0.0
1.926283 1.972540 -0.003650 0.0
3.173617 1.014547 0.001347 0.0
2.582112 0.621814 0.003253 0.0
0.827973 2.161547 0.003027 0.0
3.148175 0.295351 0.000409 0.0
2.470545 1.356920 -0.000982 0.0
0.534920 2.149319 -0.002269 0.0
3.588804 0.238785 -0.000224 0.0
0.790304 1.442032 0.000166 0.0
3.569726 1.320302 0.000733 0.0
0.942448 2.072603 -0.003846 0.0
1.079257 1.679691 -0.000792 0.0
1.504072 2.005812 0.000274 0.0
1.707968 1.494473 0.003241 0.0
0.365044 0.490643 0.002349 0.0
0.628047 2.234186 0.000811 0.0
1.704925 1.900196 0.005740 0.0
3.884418 0.014627 -0.000815 0.0
1.219059 0.209446 -0.003079 0.0
3.253539 2.054810 -0.001613 0.0
3.289353 1.976900 0.001900 0.0
3.065560 2.213889 -0.001703 0.0
2.535159 1.810730 0.004483 0.0
2.045397 2.179554 -0.001653 0.0
2.679747 1.043493 -0.000158 0.0
1.485535 0.598884 -0.003975 0.0
0.669140 0.945457 -0.000743 0.0
2.525356 0.272013 -0.005312 0.0
3.690253 1.104806 -0.000034 0.0
3.673725 2.177281 0.000427 0.0
3.368113 1.459005 -0.004836 0.0
2.173641 2.357874 -0.004160 0.0
3.065601 1.613582 -0.002601 0.0
3.881751 2.309357 -0.001093 0.0
1.568726 1.570949 -0.000650 0.0
3.298017 1.110692 0.002849 0.0
1.304502 1.549120 0.002041 0.0
0.779480 1.245218 0.005893 0.0
0.701647 1.935968 -0.001212 0.0
2.277404 2.340825 0.001793 0.0
3.432832 2.331901 -0.002016 0.0
3.474050 0.951804 0.004694 0.0
0.271714 1.015078 0.002200 0.0
3.483066 1.916530 0.001530 0.0
2.982724 2.156105 -0.000160 0.0
3.130388 2.148032 0.001241 0.0
3.096892 1.768775 0.003523 0.0
2.712412 2.164627 -0.000514 0.0
2.373452 0.580401 0.003487 0.0
1.047432 1.187177 0.001711 0.0
4.000436 0.621372 -0.002555 0.0
2.752401 0.510081 -0.002923 0.0
0.642776 1.970618 -0.000486 0.0
2.852102 2.121864 -0.000784 0.0
3.754803 1.126515 -0.002179 0.0
3.462722 2.143735 0.005371 0.0
2.508062 0.369649 -0.004533 0.0
2.326687 1.208371 0.000357 0.0
2.465492 2.269009 -0.000825 0.0
2.557778 2.385068 0.000727 0.0
3.163516 0.151069 0.000377 0.0
3.056921 1.936196 -0.002291 0.0
2.425170 0.509978 0.001945 0.0
2.653016 1.306405 0.003658 0.0
2.925495 2.377421 0.000947 0.0
3.274843 1.524434 -0.002836 0.0
4.071858 1.391719 -0.003017 0.0
1.800335 0.677479 0.000092 0.0
1.106833 2.175907 0.001765 0.0
0.579655 0.985834 0.000792 0.0
2.818122 2.390697 0.000875 0.0
3.264553 0.479184 0.003404 0.0
4.093937 0.349933 -0.000594 0.0
1.833371 2.109515 0.003669 0.0
1.976945 1.112920 -0.000761 0.0
0.330214 0.736164 0.003354 0.0
3.005352 1.951024 0.001429 0.0
2.509419 1.583865 0.006710 0.0
0.562099 1.811467 0.004016 0.0
0.818848 0.117817 -0.004825 0.0
2.331722 0.437932 -0.000283 0.0
3.781828 0.608772 0.001258 0.0
1.706349 0.264486 0.001099 0.0
2.141418 1.185113 0.001410 0.0
1.545085 2.320455 -0.005307 0.0
1.522565 2.377309 0.002459 0.0
3.853356 0.710740 -0.005478 0.0
2.993881 2.078051 -0.000718 0.0
2.829956 0.857722 0.003506 0.0
0.776855 1.474343 -0.003167 0.0
1.119634 0.540353 0.001139 0.0
2.447667 0.354468 0.001468 0.0
1.721120 1.373306 0.004648 0.0
2.259820 0.241244 -0.003898 0.0
1.315903 0.950665 -0.003354 0.0
2.539834 0.823985 -0.001983 0.0
2.169085 0.312655 0.001118 0.0
1.157006 0.206981 -0.002048 0.0
1.510545 1.454067 0.000897 0.0
2.288659 0.717210 0.007793 0.0
1.216759 1.680005 -0.000565 0.0
0.542178 0.764043 0.002436 0.0
3.180317 1.588482 0.002398 0.0
2.815711 1.719833 -0.001766 0.0
0.262474 2.260611 0.003051 0.0
1.368757 1.720790 0.003909 0.0
2.970915 0.649110 -0.001031 0.0
3.750284 0.081230 0.002094 0.0
3.366941 1.986538 -0.000111 0.0
1.938079 0.081891 -0.000888 0.0
0.787823 2.258328 -0.000214 0.0
1.092956 1.567437 0.004840 0.0
3.842167 1.852373 -0.001291 0.0
0.204914 1.305480 0.003408 0.0
1.072302 0.486877 -0.000449 0.0
0.156669 1.905083 -0.001326 0.0
2.746004 0.687746 0.002971 0.0
2.942378 1.500017 0.000904 0.0
3.128594 2.158724 -0.000740 0.0
0.730717 1.664501 -0.004365 0.0
0.045553 0.641756 -0.001512 0.0
4.084976 0.587717 -0.004953 0.0
2.209607 1.099669 -0.001532 0.0
1.904137 0.276733 -0.002091 0.0
3.757447 1.069925 0.000311 0.0
2.430345 0.876323 0.000329 0.0
0.432225 1.392849 0.000928 0.0
3.651110 1.876864 0.002003 0.0
1.612322 1.404497 -0.003487 0.0
3.915338 1.329175 0.003190 0.0
3.817650 0.887308 0.001788 0.0
1.784646 0.195860 -0.002032 0.0
2.276013 0.539376 0.002187 0.0
2.096197 0.092875 -0.001168 0.0
1.584131 0.952801 0.000186 0.0
1.544797 1.642591 0.002517 0.0
0.740894 1.136681 0.002848 0.0
1.926928 0.403720 -0.001304 0.0
3.303327 0.989918 0.003641 0.0
2.476114 0.082224 -0.000518 0.0
1.513212 2.165832 0.001663 0.0
2.573556 1.139210 -0.000523 0.0
2.478305 1.724026 0.000998 0.0
0.956537 0.900965 0.000376 0.0
2.148544 0.403257 0.003083 0.0
1.601553 1.915743 -0.000577 0.0
2.510440 2.108181 0.000624 0.0
0.694407 0.528953 -0.000410 0.0
0.747914 1.543141 -0.001981 0.0
1.996258 2.383285 -0.000168 0.0
0.391208 2.345707 -0.001327 0.0
0.352314 0.073503 0.000308 0.0
2.043918 1.483813 -0.001421 0.0
2.878825 0.060805 -0.002964 0.0
1.985970 0.346113 -0.001293 0.0
2.114873 1.824407 -0.002357 0.0
3.052764 0.459411 0.005141 0.0
2.907277 2.038088 0.004136 0.0
0.203628 0.274403 0.001263 0.0
1.226765 1.773623 0.002933 0.0
3.067152 0.969896 0.001315 0.0
0.562712 2.222553 0.000911 0.0
1.322147 0.419935 -0.002407 0.0
0.386738 1.873799 -0.004042 0.0
0.010054 0.049556 0.001939 0.0
0.740603 0.199199 0.000194 0.0
0.812447 0.208057 0.001400 0.0
1.775272 1.211985 -0.002029 0.0
3.885696 1.320737 0.004798 0.0
0.117386 0.014480 0.001300 0.0
1.929795 0.883914 -0.003500 0.0
0.167530 1.976120 -0.002745 0.0
0.158717 2.296035 -0.002001 0.0
3.329008 0.111086 -0.003882 0.0
3.995783 1.001031 -0.000898 0.0
1.339192 1.139682 0.002347 0.0
3.204735 2.140134 -0.002748 0.0
1.273313 0.155423 -0.002817 0.0
4.066760 0.163663 0.002193 0.0
3.921055 2.295909 0.003510 0.0
2.468137 0.702988 -0.000253 0.0
2.416564 1.839049 0.007040 0.0
1.994758 0.723027 0.001019 0.0
2.595792 1.020317 0.000996 0.0
1.216736 0.473765 0.000770 0.0
1.973559 0.430655 0.001584 0.0
3.813386 1.454572 0.004132 0.0
0.120919 0.230875 0.004998 0.0
2.888269 2.074833 0.000580 0.0
0.990698 1.407451 0.000939 0.0
1.753666 1.380145 -0.001870 0.0
3.760045 1.927140 0.001540 0.0
0.109925 1.906458 -0.008605 0.0
0.965288 0.824426 0.004924 0.0
2.135306 1.990325 -0.002076 0.0
2.303238 1.592414 -0.000606 0.0
3.554124 1.348582 0.002224 0.0
2.898175 0.659635 0.003613 0.0
0.119336 1.283461 0.000843 0.0
3.417034 0.607072 0.000138 0.0
1.839714 0.969931 -0.001238 0.0
0.415130 1.441828 -0.000917 0.0
0.273038 1.917730 0.002445 0.0
1.280444 0.915851 0.001878 0.0
2.372650 1.327464 0.003289 0.0
2.971470 1.131478 0.001832 0.0
2.214709 1.665085 0.001073 0.0
3.828251 2.319077 -0.000524 0.0
0.193867 1.891651 0.002367 0.0
1.882617 0.465916 0.001778 0.0
3.224517 2.127774 0.001731 0.0
3.703726 1.420030 0.001876 0.0
3.520336 1.071151 -0.000942 0.0
1.767912 1.219377 0.001537 0.0
4.045655 1.363454 0.000705 0.0
3.148803 0.758830 0.000699 0.0
4.081718 2.341020 0.000656 0.0
1.795004 1.388544 -0.003732 0.0
0.852730 1.929411 0.001863 0.0
1.203382 0.303202 0.003530 0.0
3.781994 0.170670 -0.003074 0.0
3.813384 2.363091 0.001485 0.0
3.851881 1.315141 -0.001180 0.0
0.228375 2.190975 0.001798 0.0
1.391868 2.050290 -0.000073 0.0
1.973154 0.003425 -0.000773 0.0
2.949058 0.581341 -0.003157 0.0
2.261517 0.289700 -0.000493 0.0
2.753008 0.839019 -0.003573 0.0
3.500922 1.908034 -0.002563 0.0
3.273078 0.636147 0.003163 0.0
3.685295 1.770189 0.001359 0.0
0.315269 0.118051 -0.002570 0.0
3.391252 0.085381 0.000826 0.0
2.059199 1.381129 -0.001757 0.0
0.756629 1.064722 -0.002593 0.0
1.104811 2.114090 -0.001911 0.0
1.880803 1.243813 -0.004715 0.0
3.590738 1.555619 -0.001067 0.0
0.225831 0.349411 0.000497 0.0
1.332352 1.469057 -0.001537 0.0
2.836025 0.173092 -0.002848 0.0
3.775565 1.204655 0.000479 0.0
1.362843 1.020692 0.002502 0.0
1.421153 1.120954 0.001061 0.0
1.308237 0.025303 -0.003236 0.0
3.614838 0.711861 -0.000094 0.0
4.081290 1.763984 0.003590 0.0
0.347949 1.591659 -0.000294 0.0
1.353847 1.305119 -0.003316 0.0
1.499282 0.042421 0.003848 0.0
1.511742 0.469365 0.004509 0.0
0.899046 1.036950 0.003626 0.0
3.507152 1.447763 0.002695 0.0
1.381434 0.539289 -0.003126 0.0
3.997739 0.973990 -0.002383 0.0
1.964306 1.771983 -0.001317 0.0
2.382603 1.865802 0.003349 0.0
3.762865 2.201019 -0.000342 0.0
3.308038 0.985740 -0.004104 0.0
3.658034 1.166928 0.002645 0.0
1.314936 1.629752 0.002605 0.0
0.690303 1.452438 -0.000068 0.0
0.510087 2.025238 0.001749 0.0
0.130799 2.319030 -0.004911 0.0
2.807517 1.019153 0.000278 0.0
3.743483 1.279759 -0.000098 0.0
1.273061 2.019583 0.001305 0.0
1.227924 1.248945 0.000622 0.0
0.733285 1.419437 -0.002115 0.0
2.883122 1.633579 -0.000425 0.0
0.807991 0.375148 -0.003304 0.0
2.477446 1.555283 0.002494 0.0
1.984339 2.019601 -0.002593 0.0
1.630197 0.932527 0.001396 0.0
3.089389 0.039624 -0.001061 0.0
1.403602 0.116243 -0.000515 0.0
1.683249 1.803494 0.000839 0.0
2.366698 0.075438 -0.001388 0.0
2.757669 1.830101 -0.002667 0.0
2.573260 1.526679 0.003787 0.0
1.728423 2.272896 -0.000573 0.0
0.258090 0.928625 0.001996 0.0
1.548331 1.679681 0.001500 0.0
3.155068 0.240895 -0.000433 0.0
0.829060 0.008476 -0.000253 0.0
2.828123 1.755534 0.000260 0.0
2.299712 1.711037 -0.000787 0.0
3.744264 2.293843 -0.000622 0.0
3.471433 1.565984 0.003553 0.0
2.351252 1.904702 0.001390 0.0
3.778980 0.147190 -0.003047 0.0
2.717223 1.621814 -0.001067 0.0
1.967534 2.306115 -0.002810 0.0
1.957324 1.605297 -0.003058 0.0
0.678522 1.086137 -0.003764 0.0
0.795029 0.906443 0.000589 0.0
0.191855 1.939360 -0.000544 0.0
2.081921 1.383582 -0.003568 0.0
1.952266 1.424364 0.001628 0.0
2.735108 0.693155 -0.001749 0.0
3.073123 0.244931 0.002652 0.0
0.623863 2.223993 -0.002501 0.0
3.640344 2.324568 0.001549 0.0
0.825824 2.351839 -0.004148 0.0
2.571853 0.033189 -0.004116 0.0
2.628218 0.131714 0.001782 0.0
1.769443 2.077623 -0.002447 0.0
2.199692 0.083374 0.000811 0.0
1.921254 0.044263 0.001165 0.0
0.256128 1.859442 -0.000415 0.0
1.517013 2.084268 -0.000202 0.0
2.588256 2.396318 -0.001053 0.0
3.125621 1.946749 0.000992 0.0
3.709307 0.644661 0.001379 0.0
0.025774 0.800964 0.003016 0.0
1.337729 0.729882 -0.000127 0.0
1.444347 0.251621 -0.002782 0.0
1.477115 1.005280 0.000237 0.0
2.443643 1.401081 0.003376 0.0
2.377831 1.065655 0.000015 0.0
3.192869 0.426898 0.002701 0.0
2.497414 0.441007 0.002446 0.0
0.427382 0.539148 -0.005690 0.0
4.100470 1.612076 -0.002668 0.0
1.717318 1.741990 0.002430 0.0
2.734187 1.086370 0.004424 0.0
3.042207 0.952196 0.000059 0.0
1.679972 0.640691 -0.003330 0.0
2.278988 0.673938 0.003896 0.0
3.802250 0.612527 -0.002047 0.0
3.100325 0.400802 0.001882 0.0
1.119424 2.136097 0.002160 0.0
1.437703 0.276324 -0.000331 0.0
2.391294 0.419878 0.001403 0.0
0.449641 0.309410 -0.001098 0.0
0.895081 0.527464 -0.002083 0.0
2.519767 1.601497 -0.000122 0.0
3.148059 0.247432 0.001342 0.0
2.351581 0.182688 -0.001367 0.0
2.141713 0.400094 0.000725 0.0
2.304725 2.389995 -0.001328 0.0
0.330314 1.830143 0.001002 0.0
3.093895 2.230915 0.001821 0.0
0.666400 0.961957 -0.000959 0.0
3.366307 1.443696 -0.001851 0.0
1.046703 1.585292 0.003908 0.0
1.366146 0.140702 0.000218 0.0
0.015334 1.715624 -0.000334 0.0
0.147316 1.400993 -0.001777 0.0
2.072594 1.014365 0.006905 0.0
1.548360 2.353899 -0.001311 0.0
1.747181 0.090988 0.002191 0.0
1.389317 1.178101 -0.002621 0.0
2.464319 0.817217 -0.001639 0.0
1.825323 2.023089 0.000534 0.0
3.026476 2.020538 -0.003967 0.0
0.987320 1.470683 0.003761 0.0
2.813442 0.149227 -0.003746 0.0
2.218299 0.390096 0.001529 0.0
1.815175 2.168926 -0.001086 0.0
0.058254 1.991912 -0.001806 0.0
3.355650 1.370081 0.000204 0.0
1.689546 0.929180 0.003505 0.0
1.129989 0.603804 -0.000474 0.0
1.542436 0.792064 -0.001649 0.0
1.977981 1.365491 -0.000654 0.0
0.680996 0.955256 -0.000950 0.0
1.132179 0.147441 -0.000471 0.0
0.517320 1.770077 0.001339 0.0
2.759695 0.891335 0.001565 0.0
3.444720 1.452649 0.001451 0.0
1.483094 1.504002 0.000077 0.0
1.729755 1.659096 -0.004359 0.0
1.102502 1.672803 0.002227 0.0
1.032076 1.977548 0.001418 0.0
1.497354 1.803774 -0.000058 0.0
0.516741 1.286865 -0.000418 0.0
3.960457 2.096491 -0.002383 0.0
3.760745 1.079737 0.005135 0.0
0.010724 1.854517 0.001441 0.0
1.073845 0.122930 0.000657 0.0
2.115054 0.966256 0.002725 0.0
0.414372 1.379845 -0.000808 0.0
0.391047 0.190527 0.000596 0.0
3.423349 1.293653 -0.001398 0.0
3.358428 1.099921 0.005589 0.0
2.365112 1.478978 0.002696 0.0
1.305918 1.540815 -0.002233 0.0
0.103274 1.124401 -0.001752 0.0
2.326085 0.747278 0.000444 0.0
2.803841 0.332567 0.002421 0.0
3.427892 1.181736 -0.000016 0.0
3.347609 1.274420 -0.004282 0.0
1.374243 0.615108 0.002733 0.0
1.359022 2.272129 -0.001960 0.0
2.620410 1.667589 0.001976 0.0
1.369031 0.641404 0.005409 0.0
1.859976 1.598401 0.001960 0.0
2.755459 0.159031 -0.000487 0.0
1.866073 1.422873 0.002193 0.0
0.582279 0.147847 0.002422 0.0
1.304373 0.482742 -0.002421 0.0
3.042234 0.685616 -0.001313 0.0
0.059488 1.148739 -0.001123 0.0
1.904198 0.461070 0.001603 0.0
0.607963 0.609963 -0.002300 0.0
2.280185 1.689140 -0.003082 0.0
2.974230 2.312723 -0.003250 0.0
2.935982 1.589938 0.001729 0.0
0.148168 1.566305 -0.000468 0.0
0.064631 0.207485 0.000076 0.0
0.675917 0.523482 0.005055 0.0
1.670265 0.834315 -0.001856 0.0
0.941381 1.764479 -0.001149 0.0
0.892847 0.674977 -0.000677 0.0
0.194287 2.074329 -0.000509 0.0
1.210689 1.605163 -0.000315 0.0
0.067559 0.629990 0.000525 0.0
0.042102 0.736625 0.000445 0.0
4.033115 1.748228 -0.004977 0.0
2.184796 0.446864 0.000042 0.0
0.331428 1.441373 -0.000049 0.0
1.726170 2.027308 0.001240 0.0
0.551038 1.138625 -0.003160 0.0
3.244394 2.412799 0.002144 0.0
0.253427 1.621428 0.001536 0.0
3.622421 2.335000 -0.003644 0.0
0.693868 0.684386 0.005367 0.0
1.361507 2.403513 0.001889 0.0
0.625052 1.845515 -0.001927 0.0
3.144195 0.116223 0.004321 0.0
1.936327 1.553898 0.002157 0.0
4.009470 0.523614 0.001769 0.0
1.795285 0.779729 -0.001115 0.0
1.186964 0.009174 0.000880 0.0
1.107316 1.597712 0.000762 0.0
2.249865 2.290975 -0.001389 0.0
0.368273 0.186204 0.002516 0.0
3.209963 1.482791 0.004449 0.0
1.989576 0.036331 0.003778 0.0
3.627454 2.306088 -0.005860 0.0
1.714551 2.087727 -0.000179 0.0
3.049392 1.154561 0.002204 0.0
1.196149 0.172352 0.004229 0.0
3.333269 1.132260 -0.003932 0.0
2.662223 0.323147 -0.001304 0.0
1.604673 0.469650 -0.001201 0.0
0.737969 1.465393 0.001297 0.0
1.159522 0.949204 -0.000092 0.0
1.067057 1.321496 0.005217 0.0
4.053685 1.201719 0.000536 0.0
3.485857 1.960801 -0.002459 0.0
0.326971 0.414997 0.004360 0.0
0.028048 1.784710 -0.001974 0.0
0.605265 1.322827 -0.000437 0.0
0.962860 0.368485 -0.001889 0.0
3.016476 2.220960 0.004257 0.0
0.468405 1.826911 -0.001659 0.0
1.970901 0.721494 0.003404 0.0
0.470093 1.110960 -0.003985 0.0
1.362257 2.236693 0.000360 0.0
0.719058 0.828886 0.001410 0.0
2.346734 0.367688 -0.001384 0.0
1.317596 1.361931 -0.001056 0.0
1.844451 1.211192 -0.001519 0.0
3.884103 0.688166 0.001853 0.0
3.567809 0.588452 0.001051 0.0
0.213693 1.886415 -0.002668 0.0
1.665068 2.264321 0.002358 0.0
3.994778 0.841879 -0.004001 0.0
3.293934 0.922050 -0.006069 0.0
0.627173 0.803206 -0.002415 0.0
2.158241 0.124943 0.001531 0.0
1.706955 2.072298 0.002246 0.0
1.807281 1.155953 0.007770 0.0
0.083093 2.318236 0.001740 0.0
2.530319 0.728882 0.002901 0.0
1.358479 0.567075 -0.000159 0.0
2.434049 0.553694 0.001548 0.0
1.681918 1.507708 0.003766 0.0
0.439090 0.536196 0.000838 0.0
1.666993 0.469049 0.004072 0.0
0.147527 1.933661 0.002337 0.0
3.574793 2.361525 0.003348 0.0
2.517394 1.541299 -0.004700 0.0
0.581870 0.767929 0.000781 0.0
2.989443 0.176207 -0.001984 0.0
0.341549 0.698607 -0.003948 0.0
1.022143 0.215714 0.001188 0.0
3.823882 0.751463 -0.000255 0.0
2.761309 1.350572 -0.000477 0.0
1.641316 1.421885 -0.001971 0.0
0.431936 2.300290 0.001853 0.0
1.476999 0.711969 0.000460 0.0
1.108191 1.633340 -0.000427 0.0
2.704796 1.525318 -0.003248 0.0
0.661907 0.045146 0.002085 0.0
3.206339 0.317263 0.003290 0.0
1.043200 2.123402 -0.000338 0.0
0.742191 1.454803 -0.000111 0.0
2.991278 1.426085 0.000445 0.0
2.746133 0.150864 0.003064 0.0
1.072190 1.028407 -0.004092 0.0
0.801765 1.333543 0.001691 0.0
0.258944 1.473628 -0.002737 0.0
2.425281 0.539369 0.001211 0.0
0.411583 0.223708 0.002920 0.0
3.423005 0.613647 0.001815 0.0
3.487748 1.237030 0.002617 0.0
0.147177 0.269481 0.000730 0.0
3.010390 1.212185 -0.001646 0.0
1.533666 1.491240 -0.001515 0.0
0.126724 0.961157 0.000593 0.0
1.228143 2.369505 0.002183 0.0
0.273254 1.880099 0.001900 0.0
2.895856 2.315979 -0.002797 0.0
2.483190 0.386109 0.001693 0.0
3.311371 2.159582 0.001205 0.0
2.283207 0.972073 0.000122 0.0
1.172680 1.439324 0.001522 0.0
3.853179 1.204647 -0.004193 0.0
2.573833 2.116341 0.001245 0.0
3.837803 1.531717 -0.000332 0.0
3.459339 1.040735 -0.003005 0.0
3.660781 2.256228 0.001054 0.0
0.983445 2.402439 -0.000536 0.0
4.046272 1.913037 -0.003751 0.0
1.386788 1.000115 0.001038 0.0
1.288467 1.390231 0.002516 0.0
2.260104 1.503181 -0.005584 0.0
3.548547 1.017804 -0.002693 0.0
1.033924 1.948124 0.001097 0.0
1.551360 0.467807 -0.000814 0.0
2.709966 2.120454 0.000543 0.0
1.161062 1.071106 0.000886 0.0
1.309391 0.874395 0.003132 0.0
1.068848 1.578254 0.001177 0.0
1.549079 0.684974 -0.000631 0.0
2.338051 2.117131 -0.002189 0.0
2.882664 1.270442 -0.000849 0.0
3.059651 1.080162 0.001339 0.0
2.719020 2.350715 -0.000107 0.0
0.279099 0.267080 -0.002063 0.0
1.688109 1.134642 -0.000437 0.0
1.703953 2.397724 -0.002240 0.0
1.962270 0.383998 -0.000213 0.0
0.882298 1.728520 0.001786 0.0
0.129015 0.150881 -0.002704 0.0
0.514663 0.353071 0.002104 0.0
3.944599 0.338646 -0.000638 0.0
2.464899 2.106842 0.003040 0.0
0.707429 0.284393 -0.001596 0.0
2.375881 0.838947 -0.000406 0.0
0.693410 1.401175 -0.000262 0.0
2.641321 0.344987 -0.000484 0.0
2.256939 0.482182 -0.001016 0.0
0.553254 2.376782 -0.000151 0.0
3.949194 1.747544 -0.001891 0.0
0.804375 0.715095 -0.005001 0.0
0.840915 2.304691 -0.001054 0.0
2.760588 1.040979 -0.000647 0.0
1.360325 0.931048 -0.000153 0.0
2.473083 1.242448 -0.000343 0.0
1.653444 2.247291 -0.001285 0.0
1.358073 2.388203 0.002649 0.0
3.736467 0.158637 -0.004265 0.0
2.812002 0.158957 -0.003343 0.0
3.319582 0.036806 -0.001047 0.0
3.805689 0.405658 -0.002803 0.0
2.650250 2.091345 -0.000440 0.0
2.936656 1.783038 0.000295 0.0
3.881196 1.264887 -0.001881 0.0
3.768249 1.785832 -0.004985 0.0
1.869694 0.541973 -0.001401 0.0
1.642788 0.961295 0.002594 0.0
3.486977 1.301268 0.003058 0.0
3.415848 2.332837 -0.001014 0.0
2.854562 0.824423 0.002454 0.0
2.142493 0.574006 0.002875 0.0
4.067239 1.604745 -0.001423 0.0
1.299475 2.152478 0.002015 0.0
3.037678 0.689541 0.000320 0.0
0.974437 0.840239 -0.003806 0.0
0.087100 2.291731 -0.005929 0.0
3.414270 0.423569 -0.003683 0.0
0.985008 0.207153 0.000276 0.0
0.149947 1.674719 -0.002498 0.0
3.661823 1.050664 -0.000822 0.0
2.021365 1.608557 0.002913 0.0
1.216703 1.833508 -0.004004 0.0
1.234240 2.298112 0.002772 0.0
0.339025 0.035055 -0.005047 0.0
1.060037 0.449678 0.002885 0.0
3.303452 0.051848 0.000162 0.0
2.861799 2.003877 0.000716 0.0
0.272195 1.749269 -0.001400 0.0
3.642172 1.709459 0.000799 0.0
0.094787 0.219424 -0.000962 0.0
2.865042 0.509690 0.000713 0.0
1.444360 1.587583 -0.002065 0.0
2.433279 1.290538 -0.001939 0.0
1.674351 0.820559 0.004225 0.0
3.791599 1.046038 0.001408 0.0
1.194739 0.511510 -0.001974 0.0
1.561812 0.810192 0.000747 0.0
3.281550 0.134362 0.000862 0.0
0.973996 1.066714 0.001659 0.0
0.810236 1.407296 0.003038 0.0
3.142522 0.333740 0.000779 0.0
2.354307 1.008189 -0.000385 0.0
3.310660 0.832113 -0.002176 0.0
2.093476 1.478774 0.004145 0.0
3.367906 0.966639 0.003283 0.0
3.691324 2.127282 0.001348 0.0
1.340143 0.024479 -0.000948 0.0
2.697098 2.071517 0.002335 0.0
3.669063 1.356983 -0.001074 0.0
0.363954 2.173096 0.005605 0.0
1.122849 0.262569 -0.001600 0.0
2.880844 1.859826 -0.000917 0.0
2.556987 0.813441 -0.002600 0.0
3.855674 1.965953 0.001208 0.0
2.064600 0.801993 0.001765 0.0
3.408077 0.431420 0.002420 0.0
1.247690 1.801818 -0.003107 0.0
2.643091 2.388905 0.000757 0.0
2.208855 1.057362 0.002033 0.0
1.940920 0.359058 -0.001362 0.0
1.477587 0.672889 -0.000465 0.0
2.110485 1.410101 0.000601 0.0
1.731007 0.563196 0.002333 0.0
2.339487 0.214782 -0.003535 0.0
3.756261 1.362384 0.005488 0.0
1.061544 0.946759 -0.001511 0.0
3.428519 1.698628 -0.001917 0.0
4.014687 0.122746 0.003809 0.0
0.522116 2.060083 -0.000602 0.0
2.740651 1.495876 -0.000471 0.0
3.551158 0.340063 -0.002180 0.0
2.147522 1.603811 0.000137 0.0
0.335313 1.060353 0.002996 0.0
3.093130 0.042019 0.004734 0.0
1.585231 1.166387 0.000188 0.0
0.794268 1.556281 0.000665 0.0
0.372326 0.424053 0.004334 0.0
1.862375 0.372069 0.002124 0.0
2.652693 2.011072 0.000290 0.0
1.781459 2.035063 -0.007621 0.0
2.892126 0.912370 0.000655 0.0
0.209222 0.507944 -0.003486 0.0
2.780130 1.975928 -0.001031 0.0
1.911389 1.964826 -0.003729 0.0
2.906798 0.576788 -0.004561 0.0
0.176939 1.615716 -0.000781 0.0
4.042819 0.905654 -0.000285 0.0
1.661886 2.000161 0.000303 0.0
0.008792 0.805462 -0.000837 0.0
0.930069 1.274940 0.000391 0.0
4.022522 1.814024 -0.003071 0.0
1.573055 1.056178 -0.001323 0.0
3.549149 0.634142 0.003084 0.0
3.603393 1.589012 -0.001684 0.0
2.032444 0.999076 -0.001811 0.0
3.858611 0.019932 -0.001237 0.0
3.027933 0.053726 -0.002390 0.0
1.966351 0.839940 -0.002263 0.0
1.781607 0.927221 0.000939 0.0
0.137896 1.284369 -0.000374 0.0
1.034428 0.715980 -0.003415 0.0
1.689138 1.944189 -0.001083 0.0
3.335631 2.371723 0.000167 0.0
3.902780 2.285845 0.000713 0.0
2.626854 2.157043 -0.000164 0.0
1.000025 0.585940 0.001507 0.0
1.670936 0.858637 0.003914 0.0
3.884081 1.489394 -0.000971 0.0
3.597045 0.748632 0.004008 0.0
3.266992 1.862017 0.000931 0.0
0.839997 0.984231 0.003063 0.0
2.546770 0.709697 -0.000754 0.0
2.706000 2.124083 -0.001779 0.0
3.284562 0.263503 0.000725 0.0
2.403268 0.490959 -0.003228 0.0
3.834966 1.510957 -0.001212 0.0
4.031150 2.384343 -0.001640 0.0
0.114165 1.979011 0.003634 0.0
1.960734 1.392587 0.001724 0.0
3.169206 1.176376 -0.003902 0.0
3.198703 0.884697 -0.003324 0.0
2.630474 2.235464 -0.001805 0.0
1.120336 2.130002 0.000701 0.0
1.808932 1.308674 -0.002149 0.0
1.316232 2.345142 -0.000265 0.0
2.603325 0.014443 -0.001001 0.0
4.038315 0.433513 -0.002040 0.0
0.842415 0.525054 0.003642 0.0
3.616680 0.623161 -0.000651 0.0
1.284476 1.267448 -0.003596 0.0
3.157958 1.246173 -0.003703 0.0
1.354107 0.558202 0.000233 0.0
3.935358 1.515442 -0.000813 0.0
2.719257 0.090411 0.000564 0.0
0.706752 0.941429 -0.003451 0.0
1.122649 0.393752 -0.002253 0.0
3.607495 1.246583 0.000909 0.0
2.212853 1.528528 0.003031 0.0
3.758508 2.031385 -0.000447 0.0
2.253150 1.705229 -0.001114 0.0
0.851992 0.060047 0.002791 0.0
2.990374 0.430161 0.001006 0.0
0.962338 1.450589 0.002323 0.0
3.593032 1.032843 -0.001672 0.0
2.164707 0.355605 0.005293 0.0
0.964935 0.098543 0.001515 0.0
1.815667 2.224298 -0.000281 0.0
1.897053 1.133304 0.000770 0.0
2.041935 0.619836 -0.000042 0.0
2.979790 1.716047 0.001214 0.0
1.501437 1.804995 -0.002696 0.0
3.965849 2.351998 -0.001373 0.0
0.336112 2.298255 -0.002160 0.0
2.205068 2.076518 0.003301 0.0
3.335842 1.021066 0.000429 0.0
0.472066 0.335290 -0.003305 0.0
2.505443 0.069742 -0.004047 0.0
2.559061 2.236227 -0.000360 0.0
2.539042 1.544402 0.000054 0.0
1.648212 1.659808 0.003093 0.0
0.764992 0.754859 -0.000486 0.0
1.828891 1.503715 -0.000830 0.0
0.335855 2.083215 0.004741 0.0
4.031182 0.079469 -0.002129 0.0
0.957336 1.645894 -0.003086 0.0
0.014373 1.475571 0.001756 0.0
0.943527 1.796036 0.000776 0.0
0.815018 1.713761 -0.000479 0.0
0.372646 2.288743 -0.004289 0.0
0.193200 2.162157 -0.002859 0.0
1.178135 1.559261 -0.002428 0.0
3.898527 1.173554 -0.003262 0.0
2.564253 1.657818 -0.000422 0.0
2.086659 1.384172 0.001784 0.0
1.175974 1.341170 0.002984 0.0
0.175553 2.229913 -0.003202 0.0
0.052460 1.601977 0.000978 0.0
0.155127 1.035633 -0.001409 0.0
0.754166 0.586821 -0.000462 0.0
3.627630 0.273164 -0.001680 0.0
3.740778 1.494877 0.001097 0.0
1.354837 1.538041 -0.001094 0.0
3.870674 1.867090 0.001761 0.0
2.620176 0.789187 0.000962 0.0
3.965979 0.042269 0.007992 0.0
1.070077 1.784561 0.003164 0.0
3.276501 1.655470 0.001341 0.0
3.117026 1.949869 0.000224 0.0
0.294296 0.742162 -0.001179 0.0
2.327340 0.590938 0.003607 0.0
0.594475 1.680036 0.000912 0.0
2.713386 1.132397 0.000312 0.0
3.966291 1.782947 -0.002857 0.0
0.598708 1.298683 -0.003412 0.0
2.208957 0.834798 -0.001156 0.0
1.521869 1.930431 0.001083 0.0
3.889726 0.565131 -0.002344 0.0
3.025790 1.280999 0.002731 0.0
1.142439 1.352431 0.003356 0.0
2.035620 1.306741 -0.002308 0.0
0.006493 0.365724 -0.001219 0.0
3.300218 0.486662 -0.002585 0.0
2.153366 0.851910 0.002775 0.0
3.399546 0.033333 0.000451 0.0
0.113686 0.540621 -0.000545 0.0
0.179298 2.012490 -0.003537 0.0
3.314586 0.999078 0.004271 0.0
4.028921 1.822951 0.003126 0.0
3.821515 0.064147 -0.001612 0.0
2.651296 1.728325 0.003752 0.0
3.663927 1.710928 0.003082 0.0
1.817465 0.731120 0.000204 0.0
3.347824 2.332648 -0.001257 0.0
0.788340 1.589604 0.001569 0.0
1.094500 0.116561 0.000848 0.0
0.310721 0.405123 -0.000475 0.0
1.124141 2.401272 -0.001099 0.0
0.849786 0.131558 0.002589 0.0
3.530692 1.853817 0.000952 0.0
0.666970 1.900497 0.001879 0.0
1.205362 0.883778 -0.000910 0.0
3.683318 1.786651 0.002155 0.0
0.777219 0.350281 -0.002474 0.0
3.912206 2.352414 0.004762 0.0
4.063176 1.044742 0.001611 0.0
3.653928 0.885599 -0.002151 0.0
1.959035 0.484624 -0.001432 0.0
3.829417 1.116423 -0.002152 0.0
0.769614 2.164475 -0.004179 0.0
3.431957 0.045026 0.001159 0.0
0.976203 0.654051 -0.002618 0.0
1.262735 2.201409 -0.001441 0.0
1.066373 1.976091 -0.001231 0.0
1.562474 1.222464 -0.001505 0.0
0.075693 0.918263 0.004377 0.0
2.037116 0.608308 -0.000213 0.0
3.474626 0.423398 -0.000701 0.0
0.627148 1.737441 -0.001325 0.0
3.979326 0.335971 0.001070 0.0
3.594045 0.574647 -0.002070 0.0
2.328672 2.163909 0.004390 0.0
3.135512 1.262492 -0.002547 0.0
3.501189 0.179380 -0.000953 0.0
1.059025 2.304010 0.000650 0.0
1.284191 0.119474 0.002502 0.0
1.226824 1.131988 -0.000417 0.0
1.821382 2.043494 -0.001317 0.0
2.829794 0.111370 -0.000216 0.0
3.523609 0.537585 -0.003720 0.0
0.814790 0.039989 0.001376 0.0
2.232459 0.623525 -0.004551 0.0
1.903007 0.439173 -0.005340 0.0
2.861250 0.468693 0.000610 0.0
1.627666 0.918287 0.000198 0.0
1.341982 2.390234 0.002932 0.0
0.165041 2.378558 0.001188 0.0
1.128254 1.214297 -0.003469 0.0
0.175299 1.871003 0.002080 0.0
2.896563 0.117391 -0.002740 0.0
1.727021 0.410938 0.001161 0.0
3.253209 1.842446 0.000388 0.0
2.993989 0.504597 0.002778 0.0
3.537141 0.824076 0.000454 0.0
3.427155 0.197522 0.000417 0.0
2.613858 0.725294 0.004328 0.0
2.334095 2.220551 -0.001420 0.0
3.258600 0.566507 0.001692 0.0
0.900101 0.015769 0.000291 0.0
1.308319 0.611361 -0.000378 0.0
3.664799 0.944104 0.000519 0.0
1.216493 1.774667 0.000461 0.0
3.310615 2.111376 -0.002324 0.0
1.943528 1.281573 0.002256 0.0
0.891079 1.461900 0.003233 0.0
3.180676 1.009071 0.003218 0.0
1.448961 0.132888 -0.003959 0.0
1.272497 0.232331 -0.001171 0.0
3.559643 0.644828 0.000267 0.0
2.676604 2.213883 0.003465 0.0
3.542890 1.435688 0.000210 0.0
3.271151 0.646374 0.000908 0.0
2.438437 2.390642 0.001814 0.0
2.339057 2.159695 -0.005118 0.0
2.482176 2.199210 -0.000085 0.0
2.614425 2.310009 -0.001246 0.0
3.201064 1.738825 -0.001162 0.0
0.899629 0.095121 0.001073 0.0
1.436817 2.002721 -0.002462 0.0
3.665964 0.743756 -0.002511 0.0
1.159767 1.375859 0.002305 0.0
2.440536 1.642447 0.002350 0.0
3.089376 0.675355 0.001318 0.0
3.794449 1.251181 -0.000523 0.0
0.696030 1.604091 0.001733 0.0
4.046068 0.960605 -0.001375 0.0
3.818582 0.042065 -0.003552 0.0
3.008505 1.864466 0.000330 0.0
1.063942 1.831144 0.001503 0.0
0.999387 1.982183 -0.001167 0.0
2.463124 2.134875 -0.001992 0.0
1.327235 1.330619 -0.003385 0.0
1.167355 0.556534 0.001152 0.0
1.872606 0.296329 -0.001173 0.0
2.051055 0.368070 -0.001835 0.0
0.433941 1.394919 -0.006255 0.0
2.358964 0.758755 0.001799 0.0
1.971870 0.436142 0.005704 0.0
2.956905 1.614641 -0.000802 0.0
3.648665 1.733965 -0.000901 0.0
3.144581 0.048200 0.000437 0.0
2.191058 0.349572 0.004515 0.0
3.098682 1.423280 -0.001269 0.0
0.634912 1.574773 0.000429 0.0
2.617389 0.819720 0.001924 0.0
2.995892 0.561102 -0.001726 0.0
1.141061 1.095183 -0.004226 0.0
3.973147 0.189663 -0.001471 0.0
1.748975 1.398933 -0.001945 0.0
2.401180 0.568321 -0.003438 0.0
1.667500 1.519226 -0.004861 0.0
2.335310 0.710806 0.002771 0.0
3.673036 0.248499 0.001538 0.0
3.074286 0.632174 0.000272 0.0
3.694053 1.178471 -0.003978 0.0
1.454051 1.334292 0.001234 0.0
2.870429 2.076393 -0.002683 0.0
2.505167 1.910945 -0.000659 0.0
4.008335 1.114436 0.001487 0.0
0.273804 0.429105 -0.002217 0.0
1.564195 1.743039 0.002488 0.0
1.218587 1.109710 0.003289 0.0
3.545744 1.070472 -0.002278 0.0
2.094684 1.690888 0.002521 0.0
2.086033 1.654198 0.004034 0.0
2.123686 1.727486 0.001648 0.0
0.703682 0.230046 -0.000033 0.0
3.225957 1.317113 -0.000141 0.0
1.508339 1.078520 0.000738 0.0
3.939283 0.309181 -0.004699 0.0
4.087891 0.914743 -0.003164 0.0
3.228996 0.433060 0.000757 0.0
0.281707 1.192072 0.001299 0.0
2.780840 1.872558 -0.003930 0.0
0.325479 1.445491 -0.000127 0.0
2.370528 1.070636 -0.004876 0.0
2.694454 0.038140 -0.001823 0.0
2.082691 0.809280 0.002665 0.0
3.017039 1.550407 -0.002056 0.0
3.633747 2.297589 0.002106 0.0
3.432267 1.828023 -0.002123 0.0
0.474462 1.888483 -0.000436 0.0
2.334954 0.387462 -0.005199 0.0
0.699754 0.400661 -0.004241 0.0
0.175638 1.638360 -0.002377 0.0
1.223584 1.284156 -0.005815 0.0
0.383611 1.222458 0.004928 0.0
2.669992 2.360385 -0.000580 0.0
0.862841 2.217669 -0.000194 0.0
2.166037 0.418963 0.002222 0.0
1.535233 1.471139 -0.001940 0.0
4.049601 0.169697 0.004665 0.0
1.866978 1.043806 -0.000392 0.0
0.874349 0.960463 -0.000388 0.0
0.462972 0.336380 0.002194 0.0
2.761768 0.122008 -0.003544 0.0
1.562009 1.004680 0.002593 0.0
2.728638 0.373159 -0.001001 0.0
2.158241 1.599412 0.001194 0.0
2.089079 0.910955 -0.001979 0.0
0.398870 0.907751 0.002407 0.0
3.983648 0.008771 0.001786 0.0
1.038401 1.649088 -0.005032 0.0
1.302010 1.362425 0.001066 0.0
0.965482 2.078100 0.005343 0.0
1.084045 0.586638 0.005764 0.0
2.626251 0.218717 0.001876 0.0
2.520690 1.009361 0.000462 0.0
1.272555 0.721180 0.003216 0.0
1.128269 1.465989 -0.001345 0.0
0.400405 1.388045 -0.001191 0.0
0.796302 0.212328 -0.000205 0.0
3.241907 1.058122 -0.006783 0.0
1.779788 1.020673 0.004109 0.0
1.234950 2.216246 -0.001708 0.0
2.225027 1.392708 0.000570 0.0
3.659968 0.954730 -0.000582 0.0
2.607751 1.726085 0.001203 0.0
2.184236 0.304784 -0.002504 0.0
0.759609 1.216553 -0.001118 0.0
2.930504 1.513165 0.003353 0.0
3.188246 1.566633 -0.002989 0.0
3.518715 1.548923 0.000588 0.0
2.557088 0.007904 0.002980 0.0
3.576506 0.111887 0.006064 0.0
3.514388 0.560202 -0.000942 0.0
1.645972 2.011657 -0.000478 0.0
0.614826 0.959438 -0.001766 0.0
1.851991 0.781702 0.003256 0.0
1.575052 0.521093 0.002402 0.0
1.864642 1.703090 0.001921 0.0
2.099275 2.249432 0.005964 0.0
2.625584 0.423521 -0.000992 0.0
2.104366 2.212103 -0.000015 0.0
1.100795 0.556046 -0.004517 0.0
2.913116 0.860282 -0.001724 0.0
1.241298 1.457697 0.001287 0.0
2.114460 1.794456 -0.002628 0.0
3.398570 0.927569 0.001280 0.0
0.426301 2.031424 0.000427 0.0
2.138719 0.024425 -0.001997 0.0
0.519819 1.741906 0.000911 0.0
2.414892 0.724964 0.002946 0.0
3.445143 1.001101 -0.003536 0.0
1.951086 2.373872 -0.002364 0.0
0.642368 0.858898 0.002033 0.0
2.272326 1.956279 0.000059 0.0
1.272438 1.367708 0.003150 0.0
0.423045 0.015207 -0.000565 0.0
3.641570 1.107041 -0.001813 0.0
1.399571 0.197644 -0.001296 0.0
0.956032 1.275202 -0.000633 0.0
1.365975 0.752784 -0.000033 0.0
3.059467 1.783379 0.004412 0.0
0.039999 1.789308 -0.002052 0.0
2.014568 1.865925 0.000277 0.0
3.835693 1.896127 0.002441 0.0
1.323694 0.473875 -0.002024 0.0
2.440809 2.388553 -0.000649 0.0
1.865665 0.667190 -0.003253 0.0
3.793396 1.473762 0.002326 0.0
2.905507 0.593792 -0.003225 0.0
0.430397 0.022698 0.002513 0.0
0.363120 1.769017 0.003204 0.0
3.559446 0.793611 -0.007810 0.0
3.657249 0.376650 0.000041 0.0
0.439221 1.156507 0.003416 0.0
3.349673 2.055673 -0.003586 0.0
2.053386 1.099821 -0.001797 0.0
2.773729 0.417840 -0.004860 0.0
2.149331 1.696838 0.001081 0.0
3.351165 1.962616 0.000121 0.0
0.884604 0.886182 -0.000899 0.0
1.317695 0.091826 -0.001006 0.0
3.634541 1.238661 -0.000384 0.0
2.346116 0.411368 -0.000274 0.0
3.703372 1.191680 -0.001146 0.0
3.007630 0.729749 -0.000659 0.0
0.992092 1.803933 0.002327 0.0
0.796579 0.445456 0.000865 0.0
1.716896 1.370836 0.002299 0.0
3.316821 0.621441 -0.002898 0.0
2.475430 1.030353 0.000751 0.0
1.294789 2.116924 -0.000434 0.0
3.184502 0.249529 -0.003265 0.0
2.830619 2.263550 0.000630 0.0
3.725403 0.419949 0.003736 0.0
2.099818 0.364302 0.002637 0.0
1.218256 0.884407 0.000064 0.0
0.121782 1.986338 0.000962 0.0
3.023088 0.363804 -0.004407 0.0
4.093730 0.109422 0.003082 0.0
3.052287 0.722990 -0.003804 0.0
3.648783 0.656665 -0.001274 0.0
2.957675 2.032396 -0.001014 0.0
3.710183 1.179023 -0.002892 0.0
3.638531 0.496789 0.002050 0.0
2.401219 0.035877 0.000335 0.0
2.189508 2.284192 -0.000076 0.0
2.419128 1.116046 -0.004137 0.0
4.028603 0.369893 0.000526 0.0
2.722004 1.636105 0.002644 0.0
3.138413 2.269227 0.001567 0.0
2.033447 1.466834 0.002654 0.0
3.387381 1.129334 0.000108 0.0
1.676911 2.242458 0.001173 0.0
2.038936 0.936002 0.001477 0.0
4.029442 1.597911 0.004802 0.0
2.428008 1.114156 -0.000246 0.0
0.107034 1.105822 0.002003 0.0
2.109111 0.616537 -0.002258 0.0
0.071377 1.663519 0.000407 0.0
3.224788 1.516902 0.000615 0.0
1.473742 0.135810 0.002986 0.0
2.037252 1.233653 -0.001301 0.0
1.376856 0.254792 0.004382 0.0
1.663429 2.175490 -0.003443 0.0
1.013075 1.888768 0.000822 0.0
1.821692 1.102415 -0.001491 0.0
2.662972 1.589795 0.002276 0.0
2.010818 1.869215 -0.003437 0.0
3.690266 1.947069 -0.002573 0.0
2.502555 2.223582 -0.001460 0.0
0.024506 1.587242 0.002509 0.0
2.079081 1.009922 0.003400 0.0
3.544403 2.140683 -0.000640 0.0
1.055195 2.046181 -0.002719 0.0
1.176504 0.383125 0.002972 0.0
3.211914 1.681761 -0.002481 0.0
0.950811 1.924725 0.001762 0.0
3.761969 0.335391 -0.000997 0.0
1.405458 2.088901 -0.004204 0.0
0.774990 0.009731 0.000904 0.0
0.348635 0.629893 -0.003310 0.0
1.532930 0.089413 -0.000770 0.0
4.015864 1.115042 0.003976 0.0
0.632293 0.324875 -0.002314 0.0
2.584430 1.938545 -0.001131 0.0
4.075464 0.194276 -0.001164 0.0
2.108168 1.836387 0.001695 0.0
3.391122 1.617536 0.001528 0.0
0.954216 0.800809 0.003058 0.0
1.877978 0.939082 -0.001059 0.0
2.183614 0.995504 -0.002227 0.0
3.404051 0.043745 -0.001645 0.0
1.806359 1.509386 -0.002027 0.0
2.404769 1.673228 -0.001630 0.0
2.641158 1.805512 0.000280 0.0
1.560965 0.572514 0.001350 0.0
2.068496 0.603055 0.000310 0.0
0.445412 2.385130 0.005408 0.0
0.198358 2.126165 0.002181 0.0
2.381201 0.956415 0.000072 0.0
1.432042 2.090308 -0.002717 0.0
1.731157 1.585739 0.002883 0.0
3.455681 2.158851 -0.000570 0.0
0.197906 1.122923 -0.000359 0.0
2.032271 0.439922 0.001061 0.0
4.093245 0.971766 -0.004104 0.0
3.163474 0.197887 -0.000356 0.0
0.999001 2.057830 0.002371 0.0
4.044106 0.108655 -0.000015 0.0
0.004345 0.790472 -0.002822 0.0
1.581787 0.381506 0.001321 0.0
1.574112 1.288122 0.002727 0.0
0.745694 1.791292 0.001792 0.0
2.264237 1.056638 0.002360 0.0
1.839978 2.144486 0.000706 0.0
0.903151 1.718560 -0.001381 0.0
3.179260 0.142052 0.002177 0.0
1.797613 2.192745 0.002910 0.0
2.759999 1.608818 0.002435 0.0
3.376310 1.279614 0.000594 0.0
1.786977 0.455268 -0.000071 0.0
3.407778 0.287411 0.000328 0.0
0.284302 1.832441 -0.004928 0.0
3.240732 0.362850 0.005172 0.0
1.625247 0.369448 0.002443 0.0
1.871806 0.361274 0.000152 0.0
2.484647 0.413094 0.000868 0.0
3.478159 2.213286 -0.003472 0.0
0.946734 1.096830 -0.003407 0.0
2.988121 2.139220 -0.001908 0.0
0.433832 1.634068 0.002585 0.0
4.021426 0.316472 -0.003283 0.0
0.533622 0.247225 0.006778 0.0
3.520795 0.172369 0.002775 0.0
3.777511 0.611737 -0.000309 0.0
2.919138 0.823447 0.000001 0.0
0.507901 1.311686 0.000845 0.0
3.067438 1.933266 -0.001443 0.0
2.379690 1.884409 0.003809 0.0
0.207420 0.627417 -0.002052 0.0
1.594338 0.969679 -0.001497 0.0
2.322554 0.075979 -0.002153 0.0
1.738998 0.693961 -0.000564 0.0
2.023238 0.744527 -0.001051 0.0
3.822326 0.306802 0.000850 0.0
2.524571 1.581846 0.000393 0.0
1.748414 1.121725 0.004419 0.0
2.148532 1.449159 0.000759 0.0
3.860703 0.942075 0.003346 0.0
2.496104 1.932477 0.000845 0.0
2.870689 2.306132 -0.000386 0.0
0.914903 0.477942 0.000808 0.0
3.056072 0.167591 -0.001646 0.0
0.180772 2.381274 0.000096 0.0
1.456950 0.669016 -0.000747 0.0
1.875073 1.617150 -0.004210 0.0
2.731003 0.620072 0.001893 0.0
2.218778 1.952525 -0.000618 0.0
0.494957 1.679913 0.002204 0.0
2.669856 1.915088 -0.003708 0.0
0.727466 0.008830 0.003086 0.0
2.342740 1.142572 -0.000565 0.0
1.687627 0.858715 -0.001303 0.0
1.872423 0.133754 0.000955 0.0
0.037245 2.146873 -0.001354 0.0
1.401914 1.940537 -0.000514 0.0
3.393566 0.161882 -0.001320 0.0
0.448954 0.126854 -0.001361 0.0
2.402971 1.128873 0.002138 0.0
3.105060 2.015795 0.000601 0.0
3.021909 0.581629 0.000333 0.0
2.710477 0.466885 0.000384 0.0
2.392509 0.054139 0.002410 0.0
3.287626 0.370553 0.001856 0.0
3.271802 1.077668 0.000394 0.0
2.421450 1.950894 0.000211 0.0
2.918843 1.202787 -0.002220 0.0
1.071823 1.039938 0.002848 0.0
0.850508 0.188529 -0.001454 0.0
1.211139 1.292316 0.000417 0.0
2.089590 1.287016 0.004360 0.0
0.981198 1.140181 0.003724 0.0
1.756577 1.406195 -0.002269 0.0
2.970062 0.925419 0.003214 0.0
3.941543 0.522908 0.001802 0.0
2.968063 0.622979 0.001998 0.0
1.390779 2.180340 0.002405 0.0
1.105792 1.973381 0.000360 0.0
0.254954 0.009192 -0.002445 0.0
3.028971 0.635975 0.005679 0.0
0.674015 0.216617 0.001445 0.0
0.527631 0.785760 -0.003643 0.0
3.394579 1.687060 -0.002331 0.0
2.684448 1.225718 -0.000364 0.0
3.375626 2.144698 0.002057 0.0
2.607191 0.852239 -0.000308 0.0
1.935509 1.204696 0.001163 0.0
1.927538 1.287840 0.001106 0.0
4.084462 0.315173 0.004160 0.0
3.955278 0.745543 -0.000228 0.0
0.355815 1.698778 0.000601 0.0
1.290174 1.889099 -0.000686 0.0
2.936219 1.737793 -0.002958 0.0
0.200005 0.779052 -0.000152 0.0
1.912810 2.107570 0.004565 0.0
3.173525 1.096707 -0.001667 0.0
2.187004 0.935552 0.000070 0.0
2.120493 1.031064 0.001366 0.0
0.611359 0.530151 0.000765 0.0
0.146345 0.002583 0.004388 0.0
3.586442 0.159250 -0.000546 0.0
4.095661 1.828751 -0.003473 0.0
0.433125 1.301055 -0.003812 0.0
3.140472 0.860814 0.000032 0.0
2.020887 0.020325 -0.000784 0.0
2.753626 2.096392 -0.000343 0.0
2.946814 1.919055 0.001522 0.0
3.571529 1.651710 -0.001654 0.0
3.080182 0.867215 -0.001815 0.0
0.976813 1.473328 -0.000128 0.0
2.088579 0.427571 -0.000962 0.0
3.427655 1.560635 0.000872 0.0
3.195506 1.716064 0.002682 0.0
2.613278 2.338659 -0.001392 0.0
4.017262 0.527032 -0.001242 0.0
1.840523 1.002402 -0.005245 0.0
2.209495 1.623655 -0.000918 0.0
2.575983 1.983023 -0.002452 0.0
0.433287 1.862497 0.000680 0.0
1.664853 2.404060 0.000334 0.0
2.716473 1.566105 -0.002617 0.0
4.036674 0.757549 0.002844 0.0
1.879666 0.417285 -0.003978 0.0
1.756958 1.362434 0.004588 0.0
2.005469 1.148670 -0.000793 0.0
0.268497 0.109743 0.000004 0.0
1.660836 0.006205 0.001742 0.0
2.732693 0.715578 0.002634 0.0
0.068620 2.123359 0.001596 0.0
4.079250 0.704246 -0.003190 0.0
1.333344 2.253720 -0.000237 0.0
1.893743 2.081120 -0.003895 0.0
4.031772 1.592849 0.003343 0.0
1.233637 0.309246 -0.000664 0.0
0.292348 0.740467 -0.002270 0.0
0.988870 0.323079 0.005642 0.0
3.830032 1.344105 -0.000164 0.0
