3.241705 1.891508 0.002361 0.0
1.113778 0.906019 0.002221 0.0
1.505224 1.112701 -0.005148 0.0
2.146502 1.134038 0.001876 0.0
2.749756 1.610126 0.004088 0.0
3.306090 1.278289 -0.004600 0.0
1.300219 1.194324 -0.002912 0.0
0.744754 0.091077 -0.001956 0.0
0.906097 1.456258 -0.000846 0.0
3.776010 0.547231 -0.000843 0.0
2.120869 1.770437 -0.002447 0.0
3.531842 1.368751 -0.000681 0.0
2.723633 1.434004 0.004119 0.0
3.924504 0.538238 0.002505 0.0
2.576452 0.942949 -0.000414 0.0
3.383358 1.396075 0.002210 0.0
3.753635 0.603117 -0.001351 0.0
3.902839 1.079214 0.004671 0.0
1.471464 0.321104 -0.003342 0.0
2.302636 0.419477 -0.000843 0.0
3.909789 0.118202 -0.001461 0.0
0.220032 1.269428 0.002126 0.0
3.268999 0.535912 0.000613 0.0
0.667620 0.560178 0.000870 0.0
2.285781 0.546528 -0.003344 0.0
3.292679 1.046172 0.001443 0.0
2.760721 1.436676 -0.000391 0.0
0.885688 1.494336 -0.000515 0.0
3.161764 0.333932 -0.003576 0.0
1.996504 0.015722 -0.001035 0.0
0.447090 0.732901 -0.001491 0.0
2.871490 0.645654 0.000778 0.0
3.316202 0.185536 0.002022 0.0
1.843589 1.010404 -0.002657 0.0
2.593658 1.514666 -0.001131 0.0
2.595770 0.216354 -0.002982 0.0
3.276198 1.278612 0.000265 0.0
2.366571 0.175340 0.002013 0.0
3.520375 1.727970 -0.001537 0.0
2.060984 1.068060 0.003263 0.0
0.945640 1.258604 -0.001071 0.0
2.437259 1.939687 0.005451 0.0
0.055759 0.324216 0.004297 0.0
3.483509 1.974531 0.002016 0.0
3.390905 0.637089 -0.002996 0.0
0.609553 0.900777 0.001034 0.0
2.941556 1.619438 0.002053 0.0
3.521787 0.416205 0.003042 0.0
3.631403 1.878327 0.000938 0.0
3.580962 0.487008 -0.000085 0.0
1.117326 1.186742 0.001870 0.0
1.399017 1.088357 0.003977 0.0
1.439890 1.214874 0.001763 0.0
3.998741 0.091318 -0.001029 0.0
1.524285 0.684298 -0.000993 0.0
2.355733 1.967137 -0.001615 0.0
2.505384 1.499907 -0.001519 0.0
0.855386 0.057445 0.000608 0.0
1.350762 0.623178 -0.002672 0.0
2.986002 1.916033 -0.002260 0.0
3.103687 1.313758 -0.005123 0.0
2.113803 0.986306 0.003597 0.0
3.144053 0.004492 -0.002389 0.0
3.884419 0.122356 -0.000744 0.0
2.168199 1.163333 -0.001691 0.0
3.523320 0.419515 0.001429 0.0
1.020747 1.008577 0.005223 0.0
1.459239 1.858622 -0.002378 0.0
3.163934 1.831688 0.000444 0.0
2.550564 0.754591 0.000581 0.0
2.962173 1.524548 0.002136 0.0
0.154128 1.837869 -0.002227 0.0
0.319283 0.544348 0.001448 0.0
2.157483 0.238773 0.002241 0.0
3.598693 1.580159 -0.004145 0.0
3.102557 1.144369 -0.001510 0.0
0.819784 1.597076 -0.002905 0.0
2.073701 0.647327 -0.002725 0.0
2.905739 0.097364 -0.000719 0.0
1.556980 0.619013 0.001156 0.0
2.888193 1.647787 0.000344 0.0
1.729419 0.755627 -0.003208 0.0
3.035288 0.300457 0.001239 0.0
1.305720 1.210876 0.002791 0.0
2.782967 1.107085 -0.001470 0.0
2.188542 0.812795 -0.003242 0.0
3.696058 1.245704 0.000313 0.0
3.988761 0.243428 -0.000341 0.0
3.047186 1.590685 0.001333 0.0
2.118344 1.146123 0.001231 0.0
3.614458 0.407110 -0.001635 0.0
0.969506 1.752379 0.001328 0.0
1.253040 1.542751 -0.000774 0.0
0.417100 1.787343 0.000850 0.0
1.878006 0.426347 -0.003379 0.0
1.026931 0.381390 0.002455 0.0
1.317644 0.703307 -0.000824 0.0
3.185550 0.763483 -0.002744 0.0
3.211897 0.614613 0.000877 0.0
2.451929 1.304134 0.001302 0.0
0.417861 0.723081 0.000508 0.0
0.056129 0.427067 0.002468 0.0
0.476985 0.129909 0.000492 0.0
0.323762 0.272649 -0.003940 0.0
3.300316 1.277748 -0.000499 0.0
0.647335 0.164904 -0.002291 0.0
1.384025 1.261573 -0.000184 0.0
2.933463 0.355599 0.003148 0.0
2.345045 1.748397 0.000317 0.0
2.144151 1.446342 -0.000418 0.0
0.688680 0.348493 -0.001401 0.0
1.873149 1.662241 -0.001292 0.0
3.875573 1.189468 -0.000187 0.0
2.454812 0.343102 -0.002543 0.0
0.972523 1.118343 -0.002699 0.0
1.757516 0.738032 0.000276 0.0
0.336606 0.958639 -0.001128 0.0
0.164860 0.116476 -0.002673 0.0
0.039181 1.040491 -0.002077 0.0
1.061753 0.955079 0.002504 0.0
0.611288 0.673392 -0.000306 0.0
1.026746 1.435060 0.003650 0.0
0.844712 0.119961 0.002619 0.0
3.335124 0.799669 -0.002330 0.0
2.627707 1.293215 -0.004514 0.0
3.659642 1.730516 -0.000233 0.0
2.362300 1.845221 0.000198 0.0
0.253613 1.828810 0.000455 0.0
0.133663 1.768187 -0.000937 0.0
0.140292 0.064083 0.002330 0.0
2.625667 1.793320 -0.000059 0.0
3.532175 0.046919 -0.000955 0.0
2.211099 0.314849 -0.001317 0.0
1.335486 1.856066 0.003791 0.0
2.153133 0.393750 0.004395 0.0
0.179007 0.187908 0.002467 0.0
3.005730 1.248972 0.000166 0.0
3.482674 0.090283 0.000239 0.0
1.825137 0.809666 -0.001001 0.0
1.297961 1.558385 0.002523 0.0
0.383501 1.957669 0.002534 0.0
2.171852 1.640672 -0.002183 0.0
1.048265 1.399342 0.001128 0.0
2.096564 0.213665 0.004946 0.0
2.979340 0.246803 0.006404 0.0
2.067800 0.214773 0.001380 0.0
3.262221 1.243793 -0.000241 0.0
1.973815 0.981056 -0.000268 0.0
1.179010 1.028352 -0.002137 0.0
3.519784 1.048945 0.001031 0.0
0.749872 0.931853 0.000290 0.0
0.313521 1.339105 -0.001070 0.0
1.977377 0.624849 0.000059 0.0
0.845060 1.793393 -0.000342 0.0
0.600589 1.899978 -0.000637 0.0
1.685036 0.460821 -0.000138 0.0
0.707097 1.867178 0.001631 0.0
0.833426 0.691578 0.000946 0.0
0.950389 1.162316 0.001779 0.0
1.605417 0.192528 -0.000916 0.0
2.168980 1.899635 0.001458 0.0
0.244118 0.373502 0.004616 0.0
3.078702 0.627462 -0.002205 0.0
2.713269 0.818646 0.003621 0.0
2.197732 0.388114 0.004332 0.0
3.974180 0.769923 0.001552 0.0
3.500681 1.222499 -0.001387 0.0
0.695736 1.504751 0.000031 0.0
2.367374 1.495604 -0.001012 0.0
2.652275 0.764391 0.000588 0.0
2.716837 1.612498 -0.002442 0.0
3.720012 0.085067 0.001957 0.0
0.646596 0.524074 -0.001343 0.0
0.114806 0.429740 0.000779 0.0
1.955887 0.363117 -0.004244 0.0
3.200528 0.888597 -0.000655 0.0
1.596249 0.885570 -0.005574 0.0
2.102418 1.227351 0.003620 0.0
2.008355 1.104315 -0.000794 0.0
1.704569 1.143310 -0.003630 0.0
0.894239 0.166983 -0.004226 0.0
3.366085 1.914429 -0.002734 0.0
0.034750 0.570945 -0.001762 0.0
1.121947 1.822021 0.006867 0.0
0.789445 1.908082 -0.002179 0.0
3.812752 1.702550 -0.001679 0.0
3.922723 0.867308 -0.002305 0.0
1.968753 1.835696 -0.000818 0.0
1.910629 1.504373 0.000664 0.0
3.804536 0.938773 0.000677 0.0
1.213218 1.944754 0.003833 0.0
3.152349 0.797908 0.000984 0.0
2.906567 0.251855 0.001918 0.0
1.135864 1.606742 -0.000561 0.0
1.234123 0.599839 0.002070 0.0
2.024638 0.226700 -0.000761 0.0
0.043438 0.762962 0.000115 0.0
0.622519 0.881048 -0.002925 0.0
1.349068 1.785068 0.000648 0.0
2.357436 0.924047 -0.000876 0.0
1.235060 1.859112 0.001362 0.0
2.903059 0.641534 -0.002395 0.0
1.931786 1.781461 0.005674 0.0
1.157327 1.541403 0.004041 0.0
2.689904 0.023926 0.001289 0.0
0.744708 0.230970 0.000975 0.0
2.497702 0.851536 -0.002160 0.0
3.612273 0.016482 0.000813 0.0
4.001092 1.196191 -0.000653 0.0
2.441416 1.206756 0.001937 0.0
0.814661 0.724709 0.000431 0.0
3.389686 0.194355 0.001399 0.0
3.188473 0.250663 0.000344 0.0
0.697127 1.920648 -0.001757 0.0
3.712726 1.048497 0.004946 0.0
0.080728 1.650996 -0.002024 0.0
0.414670 1.780360 0.002120 0.0
0.877388 0.730464 -0.002792 0.0
0.562894 0.311239 -0.001755 0.0
2.308265 1.302914 -0.000983 0.0
2.948382 1.011497 -0.003059 0.0
1.809595 0.723101 -0.001337 0.0
1.507894 1.049259 0.003906 0.0
1.694123 0.350745 0.005317 0.0
0.636465 1.528473 -0.000038 0.0
3.759612 1.850293 0.001431 0.0
1.839341 1.865876 -0.000034 0.0
3.876232 0.566310 -0.001892 0.0
0.090956 1.005264 0.004646 0.0
3.256264 1.304827 0.000762 0.0
1.106339 0.398786 -0.001868 0.0
0.621735 0.665683 0.005333 0.0
1.999558 1.846497 -0.006392 0.0
2.544182 0.014339 0.000974 0.0
0.138496 0.669997 -0.002772 0.0
1.723587 0.838682 0.000680 0.0
1.161020 1.898301 0.002283 0.0
1.053913 1.896485 -0.004287 0.0
2.028406 1.470044 -0.005165 0.0
1.063426 0.956923 0.000741 0.0
1.894485 1.580475 0.001374 0.0
2.002945 0.715946 0.000535 0.0
2.322164 0.522236 0.002223 0.0
2.014327 1.874866 0.000234 0.0
0.119836 0.128038 -0.000241 0.0
0.966943 0.397711 -0.004830 0.0
2.922979 1.651510 -0.000732 0.0
0.352782 1.511662 0.002007 0.0
2.537173 0.619323 0.003568 0.0
2.500738 1.876691 -0.002461 0.0
0.248235 0.783429 0.006839 0.0
2.484258 0.930297 0.001092 0.0
2.506259 0.377505 0.002453 0.0
2.370050 1.822105 -0.003724 0.0
3.059273 0.656733 0.002331 0.0
2.556628 1.771639 0.006164 0.0
3.884759 0.453275 -0.000463 0.0
2.270166 0.699772 -0.002283 0.0
3.639450 0.168098 -0.001323 0.0
3.038775 0.474903 0.002082 0.0
3.195743 1.496071 -0.000538 0.0
0.784962 1.501489 -0.002348 0.0
1.015225 0.407604 0.000075 0.0
0.709674 0.142971 0.000126 0.0
0.997219 0.612075 0.001179 0.0
2.245779 1.735275 -0.000763 0.0
1.579945 1.062655 -0.002140 0.0
0.139822 0.322176 0.001906 0.0
2.878527 1.443699 0.003183 0.0
1.199419 0.150699 0.001312 0.0
2.456486 0.808461 -0.003246 0.0
1.790161 1.583533 -0.001615 0.0
0.566975 0.130393 0.001682 0.0
1.018202 1.713816 0.003795 0.0
2.772406 0.402781 -0.001803 0.0
2.971976 1.874735 0.001913 0.0
1.272654 0.878613 0.002102 0.0
1.789023 1.312624 -0.003134 0.0
2.943039 1.095861 0.001322 0.0
2.097104 0.084300 0.002101 0.0
1.139586 0.803377 -0.003410 0.0
2.188799 1.926391 0.004933 0.0
0.492523 1.287575 0.001203 0.0
2.224629 0.557274 -0.000115 0.0
0.204023 1.129724 0.001239 0.0
3.133007 1.366071 -0.006060 0.0
3.801583 1.650660 0.001260 0.0
3.332008 0.649645 -0.005308 0.0
0.217783 1.439158 -0.002032 0.0
3.512377 1.842538 0.003319 0.0
3.705009 0.661086 0.004747 0.0
1.969931 1.327833 -0.003268 0.0
2.610947 0.325294 0.001991 0.0
2.848067 1.468962 -0.004260 0.0
3.896249 1.358068 -0.000500 0.0
1.328232 1.698766 0.001357 0.0
2.346714 1.616282 0.003052 0.0
2.205947 1.623494 -0.004231 0.0
3.404117 1.608691 -0.000947 0.0
2.377475 0.177188 0.003497 0.0
1.187073 0.758070 0.002547 0.0
3.830032 1.352250 0.002319 0.0
1.017983 0.284194 -0.001948 0.0
1.678765 0.375768 -0.001615 0.0
3.583975 1.327839 -0.002679 0.0
0.084785 0.787860 -0.002200 0.0
1.410594 1.383702 0.003327 0.0
3.998706 1.130538 0.001410 0.0
1.655789 1.899723 0.002258 0.0
0.614940 0.506386 -0.002757 0.0
2.499997 0.646709 0.001657 0.0
1.288785 1.443172 0.001601 0.0
1.847591 1.757744 0.005636 0.0
1.720528 0.145019 0.001821 0.0
2.116376 0.885662 -0.003642 0.0
0.984325 0.826978 -0.001664 0.0
1.699933 0.572122 0.000569 0.0
1.315454 1.788305 0.001945 0.0
1.116245 0.236980 -0.002485 0.0
0.747290 1.229956 0.000285 0.0
3.502423 1.818844 -0.003051 0.0
1.034801 1.305606 0.000395 0.0
1.979687 1.017936 0.001137 0.0
2.674545 1.971275 -0.000695 0.0
1.791499 1.025112 0.000236 0.0
1.251750 0.367387 -0.002541 0.0
3.615681 1.960343 0.001868 0.0
3.482158 1.838781 -0.001723 0.0
2.910099 0.610745 0.002116 0.0
0.590958 1.250996 0.003099 0.0
2.954710 0.665144 0.001431 0.0
3.623911 1.930237 0.002941 0.0
3.012187 0.360529 -0.000379 0.0
0.096960 1.669782 -0.001033 0.0
1.365765 0.868150 -0.003117 0.0
1.086618 1.937715 0.000688 0.0
2.837806 0.569645 -0.003472 0.0
0.354942 1.464115 -0.003271 0.0
0.131685 0.655535 -0.003822 0.0
0.864634 1.893707 -0.002095 0.0
0.481169 0.471230 0.000842 0.0
3.614190 1.617643 -0.002328 0.0
1.481786 1.691923 -0.000112 0.0
3.407173 1.629888 -0.005083 0.0
0.235078 0.708278 -0.000035 0.0
3.250655 1.559583 0.000860 0.0
1.344278 0.281922 0.001225 0.0
3.050240 1.176009 -0.002751 0.0
1.151914 0.645634 -0.003484 0.0
2.578746 1.655245 0.000264 0.0
1.475592 1.377552 0.002695 0.0
1.598507 1.784067 -0.005088 0.0
0.042182 1.441044 0.002793 0.0
0.809193 1.419095 0.001545 0.0
2.186212 0.770941 -0.000036 0.0
2.761611 1.973356 0.002635 0.0
0.021509 1.507440 -0.003626 0.0
0.069515 0.430058 -0.002284 0.0
3.682041 1.811055 0.001407 0.0
0.622357 0.313439 -0.002627 0.0
0.659667 0.947451 -0.005696 0.0
3.353859 0.856100 -0.001337 0.0
2.037902 0.139954 -0.001295 0.0
3.261757 0.987472 0.001870 0.0
3.106532 1.925479 0.000152 0.0
0.944239 1.294183 0.003638 0.0
0.455885 0.069341 -0.000146 0.0
3.619821 0.348657 0.005519 0.0
1.441294 0.620256 -0.001893 0.0
2.921979 1.078589 0.006417 0.0
0.231670 1.203809 -0.002934 0.0
2.768952 0.088878 0.000687 0.0
1.875491 0.561022 -0.005693 0.0
1.444658 0.742061 -0.002552 0.0
1.806643 1.929537 -0.002292 0.0
0.262414 1.201916 -0.000336 0.0
1.371759 1.419630 0.004486 0.0
3.511040 0.636867 0.001483 0.0
0.361489 1.911213 -0.003050 0.0
3.253998 0.959316 0.000051 0.0
3.585424 1.615749 0.000678 0.0
0.428955 0.020442 -0.003065 0.0
0.178088 1.085713 -0.001941 0.0
3.311315 1.325670 0.001474 0.0
1.391983 0.338808 0.003003 0.0
3.399939 0.207902 -0.000488 0.0
0.394797 1.119282 0.003815 0.0
0.279688 1.824591 -0.000789 0.0
2.488732 0.360267 0.003009 0.0
2.100810 0.290864 -0.000788 0.0
0.929594 1.844140 0.003967 0.0
0.590579 0.640235 -0.002270 0.0
3.239377 1.446766 0.001662 0.0
1.810678 0.027602 0.005329 0.0
0.163223 1.801550 -0.000082 0.0
0.373643 1.519331 0.003960 0.0
3.576352 0.287993 -0.002699 0.0
1.416373 1.637385 -0.001817 0.0
3.264066 0.794619 0.001988 0.0
1.922889 0.576615 0.002418 0.0
0.600622 1.423365 0.001088 0.0
1.899883 0.310551 -0.001986 0.0
0.264393 1.090831 0.000451 0.0
0.374889 1.556691 0.000612 0.0
3.802394 1.525818 0.000592 0.0
2.770439 1.198072 0.001261 0.0
3.445063 1.232989 -0.006907 0.0
1.042480 0.086704 -0.002102 0.0
0.833785 1.655196 0.000715 0.0
3.509865 0.944388 -0.000836 0.0
0.045753 0.493976 0.000914 0.0
0.821324 1.402899 0.000540 0.0
1.471753 1.676300 0.000736 0.0
1.792137 1.085964 0.000159 0.0
3.597232 1.561231 -0.001242 0.0
0.535348 1.849071 -0.001570 0.0
1.538325 0.731745 0.003645 0.0
3.783254 1.190962 -0.002433 0.0
0.763380 1.621526 -0.000624 0.0
3.931487 1.392946 0.000718 0.0
0.431073 0.055479 0.005700 0.0
1.549569 1.234143 0.001711 0.0
2.732750 1.977306 -0.000333 0.0
3.535436 1.933397 -0.005709 0.0
0.988909 0.910879 -0.000157 0.0
1.382296 1.836388 -0.000521 0.0
1.982429 0.219923 -0.001476 0.0
2.152124 0.007839 -0.003286 0.0
1.614328 1.959926 0.000008 0.0
0.238004 0.867660 0.000897 0.0
1.873585 0.859055 0.000654 0.0
2.945167 0.997535 -0.005384 0.0
3.282862 0.128602 -0.000120 0.0
2.264348 1.249229 -0.001903 0.0
2.113028 1.590865 0.000459 0.0
0.907459 1.262181 0.000876 0.0
1.909006 0.721102 -0.001726 0.0
3.511674 1.345657 0.000917 0.0
0.234425 1.934993 -0.001838 0.0
3.856924 1.119162 -0.001897 0.0
0.359388 1.341747 0.001426 0.0
0.326718 0.392007 0.002576 0.0
3.044497 1.821454 -0.000500 0.0
3.086847 1.080805 0.001554 0.0
1.133650 0.508656 0.001627 0.0
3.864120 1.294523 0.001928 0.0
1.353155 1.911100 -0.003151 0.0
2.133636 0.965167 0.000613 0.0
0.604915 1.299536 0.000494 0.0
0.047206 1.706960 -0.004479 0.0
2.763714 0.162244 -0.003374 0.0
1.117473 1.042922 -0.000636 0.0
0.817432 0.228294 -0.000492 0.0
3.990910 1.589755 0.003491 0.0
3.714397 0.624062 -0.000544 0.0
0.361783 1.026016 -0.000306 0.0
3.664785 0.908107 0.000056 0.0
0.526746 0.446973 -0.000341 0.0
3.954248 1.194506 0.001620 0.0
2.078014 0.802897 0.000642 0.0
2.540818 0.496965 0.001047 0.0
3.182911 0.219269 -0.001902 0.0
0.314549 1.898346 0.001686 0.0
2.776629 1.770047 0.001686 0.0
1.757285 1.190698 -0.000377 0.0
1.868073 0.925038 0.003121 0.0
2.039274 0.489597 0.000924 0.0
3.723325 0.526542 0.002850 0.0
0.254385 0.719769 -0.001759 0.0
0.002897 0.207876 -0.000158 0.0
3.082548 1.540705 -0.002020 0.0
0.032793 0.380981 -0.003018 0.0
0.447882 0.785176 -0.002462 0.0
0.605393 0.514095 -0.001162 0.0
3.381929 1.892398 0.002529 0.0
1.536294 1.612160 -0.000998 0.0
0.065241 0.984231 -0.001725 0.0
3.696190 1.793860 0.004717 0.0
2.501540 1.890435 -0.000626 0.0
1.109449 0.263122 -0.000826 0.0
0.981163 1.074069 -0.000066 0.0
0.009643 0.632640 -0.003810 0.0
0.004326 0.883811 0.002729 0.0
1.866427 0.999223 -0.002386 0.0
2.720949 0.808968 -0.000741 0.0
3.298322 0.628201 -0.000107 0.0
0.076686 0.725906 -0.004913 0.0
3.476415 0.968434 0.003448 0.0
2.088136 1.706262 0.000657 0.0
2.648081 1.215968 -0.001591 0.0
3.984768 0.968997 0.000963 0.0
0.527561 0.616558 0.001756 0.0
3.423825 0.846868 0.000254 0.0
2.834795 1.300360 -0.000961 0.0
2.733607 1.798959 0.005702 0.0
2.606237 0.135348 0.001986 0.0
0.398985 1.416939 0.001443 0.0
0.290267 0.660534 -0.000120 0.0
2.555912 1.245180 -0.000766 0.0
1.522764 1.386354 0.002143 0.0
1.478814 0.962540 -0.003235 0.0
0.782675 1.448374 -0.000230 0.0
1.527815 1.819884 0.002630 0.0
0.289617 1.155125 0.001785 0.0
1.286386 1.656207 0.002545 0.0
1.679169 0.605837 -0.005555 0.0
3.181098 0.727517 0.000525 0.0
3.325696 1.155005 -0.000364 0.0
2.965675 1.472726 0.001600 0.0
1.099565 1.778177 -0.003616 0.0
3.271768 0.211024 0.000327 0.0
1.551222 0.903269 -0.002327 0.0
2.178290 1.964614 -0.002175 0.0
3.301705 0.274496 0.000151 0.0
2.357282 1.606521 0.002143 0.0
3.380644 1.214524 -0.001770 0.0
2.040227 1.848012 0.003176 0.0
1.268688 0.794831 -0.002267 0.0
3.137047 0.760052 0.003353 0.0
3.401872 0.293094 0.002813 0.0
1.965573 1.388369 -0.004179 0.0
3.478177 1.000406 0.001582 0.0
1.750730 0.946298 0.003443 0.0
2.540059 0.996613 -0.002179 0.0
0.247679 0.025284 0.003826 0.0
0.057962 1.749152 -0.002098 0.0
1.601882 0.365410 -0.001684 0.0
0.156149 1.519440 0.000653 0.0
2.860063 -0.000075 -0.001938 0.0
3.626239 0.374844 -0.001529 0.0
2.520422 1.458643 -0.001940 0.0
2.905488 1.562535 0.003195 0.0
3.571711 1.506626 -0.002252 0.0
2.079785 1.136392 -0.002813 0.0
3.562954 1.435455 -0.002611 0.0
1.733029 0.459906 0.002534 0.0
3.329485 0.571772 0.001283 0.0
1.430942 0.465116 0.003100 0.0
2.459663 1.064069 -0.001255 0.0
3.999023 1.502648 0.003136 0.0
2.898620 0.429484 0.001688 0.0
2.194510 0.682105 -0.003335 0.0
0.165771 1.812785 0.003683 0.0
1.047897 0.352216 -0.001945 0.0
3.346336 0.514481 0.003499 0.0
0.523302 1.005267 -0.000805 0.0
3.533474 1.844853 0.000151 0.0
3.229006 1.714511 0.001261 0.0
0.755814 0.847416 -0.000611 0.0
0.732143 0.945841 0.002737 0.0
3.002485 1.231443 0.000376 0.0
1.687610 1.515816 -0.001881 0.0
2.403558 0.007595 0.000646 0.0
0.847402 0.161287 -0.005082 0.0
3.126745 0.761238 -0.000918 0.0
0.150021 0.001512 -0.003162 0.0
0.519556 1.611548 -0.000187 0.0
2.042427 1.286276 0.001017 0.0
1.359700 1.012870 -0.003462 0.0
1.109252 0.487920 0.000123 0.0
1.784984 0.850563 0.000324 0.0
2.848057 1.104049 -0.000907 0.0
0.091976 1.379730 0.001656 0.0
1.794402 1.293729 0.001384 0.0
0.783346 0.446889 0.000475 0.0
0.156466 1.909937 0.001760 0.0
3.992493 1.229039 -0.003022 0.0
2.400788 0.124574 0.005468 0.0
3.181837 0.687083 0.005129 0.0
0.295233 0.041063 0.002702 0.0
1.470490 0.180651 -0.002951 0.0
3.579310 0.374961 0.000773 0.0
0.134640 0.885349 0.000318 0.0
2.144068 1.183150 -0.004720 0.0
3.975101 0.254533 0.000591 0.0
1.972516 1.506901 -0.001932 0.0
1.006324 0.163140 0.001326 0.0
2.275052 1.128220 0.001184 0.0
0.117841 0.588027 0.002189 0.0
0.906215 0.495359 0.001247 0.0
0.870600 0.764178 -0.000546 0.0
1.320975 1.473919 -0.000768 0.0
2.205175 0.984121 -0.001476 0.0
0.202879 0.175085 -0.003001 0.0
3.651734 0.754577 -0.000991 0.0
0.641926 1.830367 -0.000030 0.0
1.909006 1.142710 0.002973 0.0
1.393404 0.222804 -0.001699 0.0
0.939468 1.457246 0.000127 0.0
0.664654 1.564310 -0.001607 0.0
1.331721 1.210780 -0.001561 0.0
1.323793 1.132656 0.002323 0.0
2.590296 1.953391 -0.000347 0.0
2.425979 0.387794 -0.003731 0.0
2.784645 1.132439 -0.004260 0.0
3.510568 1.194976 0.001243 0.0
1.781528 1.446975 0.001581 0.0
0.421824 0.206318 -0.001029 0.0
2.574708 1.422717 0.003167 0.0
0.355611 1.383078 0.003512 0.0
2.494439 1.805259 -0.000186 0.0
3.004231 1.238408 -0.000195 0.0
1.265841 1.939697 -0.000593 0.0
3.539878 0.944139 0.000869 0.0
1.641585 0.222769 -0.003852 0.0
0.277312 1.291565 -0.002958 0.0
0.546485 1.287981 0.002559 0.0
1.131116 0.251398 -0.000625 0.0
1.826775 1.807121 0.001698 0.0
3.625880 1.375613 -0.001975 0.0
1.976591 1.320925 -0.001281 0.0
2.904127 1.643615 0.001604 0.0
3.333809 1.953863 -0.004525 0.0
1.335384 1.506076 -0.001677 0.0
0.825203 1.749910 -0.002493 0.0
3.181544 0.871319 -0.004962 0.0
3.462155 0.762205 -0.000265 0.0
2.107345 0.553758 -0.002021 0.0
0.190223 1.147081 -0.004428 0.0
2.672691 1.353277 0.004503 0.0
1.146991 1.658782 -0.001488 0.0
0.345262 1.589783 -0.002548 0.0
3.095778 1.168637 -0.002522 0.0
0.844692 1.931295 0.000633 0.0
3.290193 0.357762 0.001889 0.0
0.079111 0.695365 0.002676 0.0
3.686218 0.030862 -0.004062 0.0
2.539840 1.524535 0.000948 0.0
3.580065 1.438422 -0.002042 0.0
3.940417 1.829525 0.000057 0.0
1.070636 1.301168 -0.002052 0.0
3.167117 0.674798 0.002844 0.0
0.982475 1.708619 0.000168 0.0
2.746526 0.512199 0.003433 0.0
1.635923 1.035855 -0.000057 0.0
3.329837 0.492204 -0.000495 0.0
0.563375 1.448276 0.000448 0.0
3.673657 0.432363 0.001987 0.0
0.239694 1.249217 -0.000865 0.0
3.507309 1.162714 0.000766 0.0
0.292204 0.746716 0.002567 0.0
1.022239 1.501622 -0.000753 0.0
1.069736 1.406762 0.002988 0.0
2.378731 1.800575 0.003014 0.0
2.874065 1.328517 0.001169 0.0
2.433451 1.511388 0.000678 0.0
3.989017 0.712092 -0.000780 0.0
3.442888 0.670610 -0.004693 0.0
0.796056 0.065824 0.003199 0.0
3.295108 0.851113 0.001547 0.0
3.088014 0.182036 0.003126 0.0
3.478588 1.423502 0.001854 0.0
3.072924 1.362417 -0.001029 0.0
0.656402 1.046531 0.001907 0.0
2.506160 1.007911 0.001085 0.0
3.905500 0.354093 -0.004140 0.0
3.059514 0.054863 0.003343 0.0
2.204360 0.158583 -0.000395 0.0
2.401076 0.920954 0.001884 0.0
1.652922 0.735901 0.004000 0.0
0.516633 1.280172 0.002291 0.0
1.361428 0.211644 -0.001975 0.0
1.586623 0.927976 -0.001765 0.0
0.059547 1.401858 -0.004256 0.0
0.846509 1.124453 -0.006479 0.0
3.797783 0.186617 0.001035 0.0
2.101778 1.263490 -0.002416 0.0
3.423956 1.819735 0.001075 0.0
3.130845 0.735702 0.000366 0.0
2.939782 0.880007 -0.005243 0.0
1.939662 1.830950 0.002560 0.0
2.100277 0.822207 0.002626 0.0
2.016332 1.351963 0.003665 0.0
3.447454 1.117612 -0.002867 0.0
0.879698 1.198591 -0.002932 0.0
2.254524 1.471500 0.000911 0.0
2.455625 0.145021 -0.001436 0.0
1.219306 0.567987 0.001118 0.0
1.959857 1.277295 0.001515 0.0
3.010956 0.119443 -0.002006 0.0
3.543693 0.267222 0.000328 0.0
2.431453 1.036899 -0.003558 0.0
3.074790 0.921128 -0.003427 0.0
2.028015 1.896587 0.001720 0.0
1.162758 0.938549 0.000566 0.0
1.546013 0.327509 0.000982 0.0
3.026615 0.977858 0.000610 0.0
3.088369 1.527174 -0.002138 0.0
2.664370 1.773577 -0.003068 0.0
1.445672 0.493563 -0.000674 0.0
1.739375 1.383258 -0.000747 0.0
1.764252 0.070648 -0.004107 0.0
3.455051 0.270166 0.000735 0.0
0.279742 0.533564 0.003986 0.0
1.978016 0.323269 -0.000636 0.0
3.273466 0.912201 0.000707 0.0
3.852273 0.469766 -0.003063 0.0
0.265910 0.416593 -0.002124 0.0
2.047601 1.943855 -0.001407 0.0
1.160479 0.941196 0.000790 0.0
2.249823 1.365015 -0.001939 0.0
3.870683 0.180730 0.001700 0.0
3.568956 0.639286 -0.000268 0.0
2.865707 1.502066 -0.001355 0.0
0.713909 0.812321 -0.002629 0.0
3.515348 1.364272 0.003732 0.0
1.055664 0.484532 -0.004688 0.0
3.989991 0.507996 0.001564 0.0
1.859667 1.021676 0.000676 0.0
2.018678 1.602796 0.000337 0.0
3.606956 0.570590 -0.001845 0.0
0.374541 0.985522 0.002903 0.0
1.277004 1.622435 0.001161 0.0
0.405113 1.969257 -0.000177 0.0
0.275212 1.831364 0.001245 0.0
1.318731 1.167120 0.000246 0.0
0.686144 1.088723 -0.001841 0.0
1.331668 1.105694 -0.007302 0.0
0.573466 0.952161 -0.001319 0.0
2.526344 0.153302 0.002374 0.0
0.307347 0.653319 -0.001210 0.0
1.583632 0.059417 -0.003498 0.0
2.770297 0.932682 0.001635 0.0
1.301473 0.254519 -0.000835 0.0
2.048996 1.914758 0.000611 0.0
3.025416 1.146766 0.002380 0.0
0.273174 0.297908 0.000184 0.0
0.052319 0.326772 -0.001397 0.0
0.901096 0.615157 -0.001066 0.0
3.134820 0.169619 -0.000149 0.0
2.623612 0.989104 0.001892 0.0
3.751567 0.280813 -0.002303 0.0
2.828953 0.218136 0.000128 0.0
3.967390 1.627927 -0.000665 0.0
1.368982 1.652387 0.004620 0.0
2.111950 1.886090 -0.001282 0.0
3.489414 1.081894 -0.005869 0.0
3.015876 1.833805 -0.001881 0.0
0.387603 0.596169 -0.000996 0.0
1.017160 0.483555 0.001773 0.0
3.094338 0.180351 -0.004667 0.0
1.644492 1.064434 0.003588 0.0
0.875622 1.469593 -0.002729 0.0
0.466717 0.150391 -0.001481 0.0
3.771428 1.423437 0.001920 0.0
3.742442 0.284143 -0.001916 0.0
2.642164 1.821427 0.002938 0.0
1.149802 1.457763 -0.002787 0.0
3.718837 1.873705 -0.001439 0.0
0.092530 1.680428 0.003371 0.0
3.486086 1.605958 0.005048 0.0
1.091290 1.131175 -0.004358 0.0
1.275113 0.067625 0.000491 0.0
1.940019 1.573774 -0.001001 0.0
2.251445 0.679774 0.003766 0.0
2.682600 1.217781 -0.004503 0.0
2.238935 1.726910 -0.003103 0.0
3.146079 0.546985 0.000392 0.0
2.497646 0.068763 -0.000323 0.0
0.226532 1.558622 -0.005639 0.0
3.430586 0.241000 -0.000345 0.0
0.429737 1.833275 0.000080 0.0
0.071733 1.101849 -0.003716 0.0
3.940062 0.096131 -0.004233 0.0
1.226733 0.728435 -0.000397 0.0
2.948696 1.587994 0.002498 0.0
0.932886 0.115281 -0.000993 0.0
1.760103 1.333936 0.001876 0.0
3.095873 1.758132 -0.000131 0.0
1.742044 1.386075 -0.004360 0.0
1.841930 1.137702 -0.003483 0.0
3.616381 0.823945 -0.003104 0.0
0.989330 1.570200 0.001711 0.0
3.183294 1.623521 0.004107 0.0
0.881128 0.044634 0.002206 0.0
3.836771 1.007709 0.000087 0.0
1.626766 1.729112 0.001114 0.0
3.694834 0.440536 -0.000337 0.0
2.939845 1.119312 -0.000367 0.0
1.119890 1.414691 0.001035 0.0
0.515514 1.489621 0.002862 0.0
2.932578 1.922845 0.000791 0.0
1.938138 1.382293 0.001273 0.0
0.076696 0.177378 0.002184 0.0
1.428148 0.839332 -0.004425 0.0
0.860687 0.516007 0.000413 0.0
3.866155 1.840122 -0.001616 0.0
2.146762 1.310531 0.000809 0.0
3.902619 0.274507 0.001749 0.0
1.687865 1.752523 0.003048 0.0
2.452703 1.617571 -0.002250 0.0
3.936181 1.826751 0.001674 0.0
1.795966 1.095775 -0.003234 0.0
1.641878 0.799459 0.004265 0.0
2.460183 0.304969 -0.000874 0.0
3.859339 1.222101 -0.000899 0.0
2.516034 0.847918 0.002408 0.0
1.453086 0.839952 0.003140 0.0
2.884143 0.868809 0.001291 0.0
3.796931 1.788939 0.001866 0.0
3.849201 0.439575 -0.003449 0.0
0.913351 1.743837 0.004424 0.0
2.555851 1.397031 -0.000672 0.0
0.373592 1.360415 -0.000181 0.0
1.794341 1.554247 0.000622 0.0
2.034510 1.067459 0.000584 0.0
2.744960 0.713502 0.000737 0.0
1.027390 0.153195 -0.000317 0.0
3.346636 1.262938 -0.001786 0.0
0.948771 1.873109 -0.002885 0.0
2.546564 0.668723 0.000392 0.0
1.865819 0.590294 -0.003308 0.0
0.221082 0.958491 -0.003008 0.0
2.363557 0.461551 0.002001 0.0
2.214055 1.959017 0.000335 0.0
0.162257 1.458010 0.002715 0.0
1.986277 1.441894 -0.001946 0.0
3.555338 0.551797 0.003000 0.0
1.873017 0.191841 -0.001070 0.0
1.145666 1.267078 -0.002857 0.0
2.894964 1.888542 -0.000593 0.0
2.307738 1.165263 0.001651 0.0
3.900011 1.407933 -0.002920 0.0
0.709780 0.609843 -0.003739 0.0
2.671606 0.759221 0.000416 0.0
0.687938 0.788249 0.004088 0.0
3.318605 0.283635 -0.004952 0.0
3.061788 1.432635 0.000239 0.0
1.405112 0.125368 0.003630 0.0
3.015905 0.711349 -0.004653 0.0
1.226049 1.590402 0.002026 0.0
2.439323 1.621464 0.000974 0.0
0.293262 1.864654 0.003892 0.0
0.701427 1.882910 0.000567 0.0
2.632996 1.199020 0.002220 0.0
1.644330 0.752222 0.000934 0.0
3.021320 1.066772 -0.002072 0.0
0.122616 0.847144 0.001738 0.0
2.272887 0.877422 0.003086 0.0
3.217101 1.165388 -0.002331 0.0
1.968593 0.246383 -0.003749 0.0
3.888213 0.954832 -0.000578 0.0
3.648331 1.699753 -0.001959 0.0
3.014447 1.206038 -0.000012 0.0
1.153030 0.287193 -0.003632 0.0
1.484523 0.445492 -0.000983 0.0
0.563153 1.419849 -0.001628 0.0
3.604690 0.313442 0.000703 0.0
3.777272 0.470225 -0.000833 0.0
0.662560 1.956738 0.000510 0.0
2.688487 1.919024 0.000873 0.0
0.489463 0.412931 0.002834 0.0
0.794960 0.151400 -0.003603 0.0
3.976299 1.146513 0.001629 0.0
1.924132 1.828436 -0.001268 0.0
3.799376 1.308471 -0.002266 0.0
0.460048 1.621218 0.002765 0.0
1.701020 1.977175 -0.001053 0.0
1.271074 1.692576 0.001990 0.0
2.306553 1.625442 -0.004280 0.0
1.940374 1.645454 0.000665 0.0
1.876466 0.601410 -0.003248 0.0
2.941501 0.942856 -0.001757 0.0
2.099429 1.060973 -0.003660 0.0
2.304803 1.028685 -0.001910 0.0
1.106612 1.488742 -0.000076 0.0
1.801300 1.033326 -0.000868 0.0
3.150163 1.160818 -0.000256 0.0
0.494318 0.625499 0.001829 0.0
0.980237 0.988691 0.002593 0.0
1.730560 0.019462 -0.001957 0.0
1.867096 1.128486 0.000714 0.0
2.353854 1.862202 -0.001605 0.0
2.187154 0.052676 -0.002137 0.0
1.547862 0.544563 0.000187 0.0
0.568454 0.452468 -0.003797 0.0
3.088409 1.056826 0.001677 0.0
3.902271 1.762125 -0.001038 0.0
2.057424 1.728143 -0.000093 0.0
3.228682 1.297414 -0.001057 0.0
0.779600 0.913912 0.000016 0.0
2.191402 1.682458 -0.000650 0.0
3.133138 1.281297 -0.000781 0.0
0.023366 1.305296 0.000002 0.0
1.776234 0.516310 0.001819 0.0
2.973069 1.578636 0.000475 0.0
3.501413 0.486944 0.002064 0.0
3.440232 1.227392 -0.003065 0.0
1.200189 1.829578 0.000432 0.0
2.171172 1.808731 0.003406 0.0
1.675050 1.637791 -0.002131 0.0
0.853124 1.678848 -0.005093 0.0
3.215602 1.016958 0.001479 0.0
1.483259 1.776581 0.004444 0.0
0.517248 0.502573 -0.000760 0.0
0.639331 0.398381 0.000179 0.0
1.161879 0.032076 0.001705 0.0
1.065893 0.429846 -0.000469 0.0
4.003864 0.327712 0.000730 0.0
3.605028 1.106351 0.002163 0.0
2.338965 1.111565 -0.002397 0.0
1.149076 1.659574 -0.000985 0.0
0.074479 0.888882 -0.000638 0.0
3.402885 0.846974 0.001152 0.0
1.756839 0.985760 -0.000910 0.0
1.231478 0.847091 -0.001984 0.0
2.315605 1.661675 0.000079 0.0
0.615331 0.264723 0.002354 0.0
0.288545 1.752089 0.002230 0.0
0.756009 1.146513 -0.003100 0.0
2.297400 1.302487 -0.004931 0.0
1.688375 0.698571 0.006004 0.0
0.937790 0.675430 -0.001791 0.0
1.120422 1.671140 -0.000792 0.0
2.402050 1.919482 0.000644 0.0
2.680897 1.751448 -0.002974 0.0
2.431771 0.789663 -0.000556 0.0
3.220511 0.737817 -0.000979 0.0
2.158422 1.912057 -0.000327 0.0
0.397559 0.007741 0.007317 0.0
2.104594 1.460911 -0.002868 0.0
3.721530 1.787064 0.001012 0.0
3.086546 0.529482 -0.001518 0.0
1.089554 1.455287 0.000337 0.0
1.916870 1.530947 -0.002095 0.0
3.304413 1.038193 -0.000033 0.0
3.619604 1.823945 0.003082 0.0
0.583309 1.419428 0.004465 0.0
1.866776 1.338314 -0.003890 0.0
0.749654 0.428479 -0.002574 0.0
0.463158 1.043859 0.002055 0.0
2.714632 1.096357 0.001278 0.0
1.528446 1.355144 -0.000463 0.0
2.397039 1.834107 -0.004277 0.0
0.053978 0.137791 -0.001453 0.0
3.719876 1.583254 0.003976 0.0
2.434297 1.917017 0.001458 0.0
3.453100 1.033425 0.002483 0.0
0.099368 0.797987 0.002990 0.0
2.594957 1.878414 0.000157 0.0
3.830689 1.396485 0.001377 0.0
3.864231 0.648906 0.004812 0.0
0.637275 0.691727 0.001561 0.0
1.915102 0.288997 -0.002312 0.0
0.807191 1.961558 -0.003061 0.0
0.771649 0.863012 0.004815 0.0
2.964687 1.150926 -0.001731 0.0
2.127290 1.600480 0.001090 0.0
3.083939 0.786490 -0.004616 0.0
0.679200 0.381089 0.001982 0.0
3.690230 1.440633 -0.001093 0.0
1.197440 0.839574 0.003576 0.0
3.221843 1.438485 -0.000937 0.0
3.506861 0.290491 -0.001692 0.0
3.946955 0.292275 0.002059 0.0
3.154178 1.508807 -0.000675 0.0
1.423689 0.173215 -0.000576 0.0
2.283937 1.303398 -0.002218 0.0
2.066840 1.704246 -0.002826 0.0
2.559413 0.328068 -0.003096 0.0
1.162533 0.927283 -0.003914 0.0
0.808107 1.081920 0.000346 0.0
3.507854 1.911949 0.000419 0.0
3.374768 1.495434 -0.000065 0.0
3.012028 1.800760 0.000493 0.0
1.227684 1.511825 0.000157 0.0
3.914599 0.462729 -0.000834 0.0
2.890292 1.405502 0.002630 0.0
0.153557 1.914214 -0.001026 0.0
0.541854 0.042218 0.001081 0.0
2.495222 1.278238 0.002831 0.0
2.684658 0.139783 -0.002779 0.0
1.015709 1.404013 -0.000369 0.0
3.114847 1.841208 0.001052 0.0
2.730214 1.836606 -0.000032 0.0
3.541148 0.476731 0.003176 0.0
0.640595 0.795610 0.000922 0.0
2.846841 0.333052 0.003031 0.0
0.687520 1.328850 0.001256 0.0
2.300306 0.552896 -0.001403 0.0
0.088458 1.816365 -0.001457 0.0
0.950793 1.403660 0.003178 0.0
3.336904 1.543279 -0.000777 0.0
3.791443 0.927075 0.000310 0.0
3.821506 0.585430 -0.001644 0.0
2.545766 0.220550 0.000984 0.0
1.555165 1.935302 -0.001435 0.0
0.786146 1.855243 -0.001781 0.0
1.612127 1.521138 -0.004232 0.0
3.320521 0.263167 0.002917 0.0
3.529407 0.626465 -0.001564 0.0
2.760284 1.971515 -0.003342 0.0
0.240187 1.799654 0.002715 0.0
1.742087 1.670975 0.004197 0.0
3.229531 1.764626 0.003911 0.0
3.871556 1.389345 -0.004072 0.0
2.886665 0.134104 0.001007 0.0
3.856736 1.146626 0.002829 0.0
2.744310 1.382843 0.001090 0.0
2.645844 0.988510 -0.003660 0.0
3.058120 1.491448 0.001783 0.0
0.739314 0.935973 -0.000397 0.0
3.734918 1.471214 -0.003285 0.0
1.189797 1.711010 -0.000733 0.0
1.216563 0.717930 0.000453 0.0
1.369715 0.107701 -0.001374 0.0
3.048359 1.893523 -0.001057 0.0
2.176999 1.247442 -0.001069 0.0
2.424970 1.321380 -0.002545 0.0
2.737107 0.502442 0.000320 0.0
3.851429 0.588502 -0.000347 0.0
3.091227 1.325666 0.002828 0.0
0.687263 1.084204 0.002929 0.0
2.941881 1.136439 -0.006335 0.0
0.669793 1.215729 0.002786 0.0
0.259711 0.366481 -0.001356 0.0
2.370888 1.876630 0.000270 0.0
3.664730 0.588527 0.003287 0.0
2.230777 1.853194 0.003219 0.0
2.702596 1.266029 0.002563 0.0
1.075941 0.270535 -0.003590 0.0
3.920461 1.465245 0.001571 0.0
1.099221 1.885192 0.000611 0.0
3.281729 1.797324 0.000059 0.0
1.708372 1.771029 0.001817 0.0
2.270776 0.140400 0.004736 0.0
2.093085 0.680913 0.001102 0.0
2.657515 0.065564 0.001569 0.0
3.542377 1.197774 -0.001658 0.0
1.024462 0.390981 -0.001375 0.0
1.919274 0.461364 -0.004938 0.0
3.948645 1.276393 -0.003263 0.0
2.891769 0.863574 0.001688 0.0
3.757151 0.423773 -0.001705 0.0
0.683549 1.087125 0.001066 0.0
2.939573 1.474918 -0.002210 0.0
3.239386 0.886101 -0.000658 0.0
0.713133 0.936275 -0.001076 0.0
2.211965 0.578209 -0.000088 0.0
0.491222 1.224401 0.005209 0.0
0.973358 1.033966 0.000287 0.0
0.990553 0.728202 0.001660 0.0
2.909440 1.881981 -0.000872 0.0
0.416993 0.588391 -0.002294 0.0
2.802263 1.292906 0.001573 0.0
2.176987 0.554266 -0.003600 0.0
3.302917 0.758451 0.000963 0.0
3.581704 0.050278 -0.000270 0.0
3.535595 1.536600 0.001107 0.0
3.045973 0.114323 0.001277 0.0
2.403481 1.648828 -0.001267 0.0
2.084405 1.658458 -0.001992 0.0
2.201663 1.022265 0.001453 0.0
3.754847 1.797945 0.001780 0.0
2.817542 0.105198 0.002496 0.0
3.106735 1.731305 -0.001411 0.0
0.155228 0.913190 -0.004038 0.0
2.029545 1.258978 -0.002406 0.0
3.063860 1.786371 0.005122 0.0
1.727258 1.094322 -0.001123 0.0
3.914280 1.791461 -0.004557 0.0
0.865761 0.140266 -0.000439 0.0
4.008147 0.879835 0.001855 0.0
3.019733 1.815659 0.001609 0.0
2.354034 0.801842 0.001459 0.0
0.232979 1.030338 -0.000407 0.0
1.948304 0.912592 -0.000824 0.0
2.933906 1.726524 0.001191 0.0
3.640639 1.915726 0.002334 0.0
3.655858 0.034776 -0.004218 0.0
3.809624 0.111349 0.001369 0.0
3.605979 0.127840 -0.002816 0.0
3.235049 0.333771 -0.004452 0.0
1.337942 0.112250 0.000203 0.0
2.549655 0.596457 0.002893 0.0
2.289427 1.318994 -0.001505 0.0
0.791260 0.338124 -0.002804 0.0
0.636160 0.649448 -0.001688 0.0
0.127165 1.377963 -0.000488 0.0
0.500373 1.908808 0.001164 0.0
2.876728 0.078698 0.002232 0.0
2.272683 0.644962 0.001848 0.0
2.624236 0.252847 -0.002781 0.0
3.409392 1.539525 -0.001635 0.0
2.810724 1.299145 0.006091 0.0
3.309417 1.755085 -0.001157 0.0
0.953668 1.927561 0.001100 0.0
1.342215 0.006976 -0.005921 0.0
1.626088 0.693840 -0.000346 0.0
0.526276 1.914309 0.003423 0.0
3.006953 1.155565 0.002931 0.0
0.446478 1.335748 0.004782 0.0
0.072185 1.225843 0.000648 0.0
1.198386 1.044209 -0.000250 0.0
3.250959 0.772886 -0.002700 0.0
3.004676 0.491031 0.003864 0.0
3.462543 0.054248 -0.001645 0.0
3.959422 0.294485 0.004088 0.0
2.773978 0.669465 0.001253 0.0
3.599899 0.587642 0.001282 0.0
1.062801 0.462003 0.000662 0.0
2.832368 0.070521 0.002494 0.0
2.538278 1.833028 0.002134 0.0
2.779730 0.477155 -0.001954 0.0
3.144234 0.579474 0.005188 0.0
0.453709 1.315100 0.002760 0.0
1.958537 0.320975 -0.001786 0.0
3.489814 0.438130 -0.000263 0.0
1.413382 0.824638 -0.000669 0.0
3.015556 1.817823 -0.001225 0.0
3.644037 0.588731 -0.001499 0.0
3.643479 1.651460 -0.000866 0.0
3.463634 1.619868 0.001612 0.0
1.989769 1.703759 -0.001470 0.0
0.192222 1.831551 0.003607 0.0
1.580222 0.519330 0.002694 0.0
2.005374 0.933703 -0.003420 0.0
0.649439 0.172686 0.001561 0.0
1.492122 0.941266 -0.000389 0.0
3.305512 1.693872 0.001052 0.0
1.927455 1.837407 -0.000945 0.0
2.348064 1.263957 -0.000382 0.0
1.786602 1.803810 0.002717 0.0
2.773066 0.079692 -0.001970 0.0
0.548634 1.578664 0.001964 0.0
3.274247 1.409030 -0.003664 0.0
0.736230 1.650509 -0.003967 0.0
1.209036 1.481157 -0.000560 0.0
1.654667 0.817261 -0.000924 0.0
3.185162 1.977625 0.001624 0.0
2.539975 1.019229 -0.003856 0.0
1.526293 0.022963 -0.000832 0.0
2.309860 1.457540 0.000018 0.0
3.871388 1.770499 -0.004181 0.0
0.533399 1.981581 -0.002805 0.0
0.688881 1.282896 -0.004632 0.0
0.574429 1.970186 0.003860 0.0
2.843887 1.631593 -0.000421 0.0
2.251928 1.715925 -0.001177 0.0
2.924449 1.595974 -0.004195 0.0
2.465348 0.165217 0.003570 0.0
2.383228 0.861651 -0.001267 0.0
0.708658 1.131359 0.002118 0.0
0.194389 0.728541 0.000050 0.0
3.273994 1.844344 0.000898 0.0
0.266529 1.977205 -0.003281 0.0
3.142367 0.529330 -0.002832 0.0
0.407721 1.465360 0.002313 0.0
3.279955 0.269840 0.000559 0.0
0.175305 1.805609 0.002730 0.0
0.974406 1.267963 0.002267 0.0
0.896534 1.643479 0.000892 0.0
3.136612 1.830070 -0.002513 0.0
3.117378 1.428439 -0.003617 0.0
2.297387 1.371219 0.000240 0.0
2.782200 1.776600 0.000401 0.0
1.442230 0.341949 0.000317 0.0
0.445060 0.786776 0.001648 0.0
1.567365 1.180276 -0.001784 0.0
0.751514 0.862822 0.000958 0.0
1.945589 0.620507 0.000333 0.0
2.160197 1.316585 0.001113 0.0
2.233459 1.068797 0.004266 0.0
3.820366 0.095988 0.001876 0.0
0.210883 1.413641 0.000506 0.0
0.954283 0.033515 0.000155 0.0
2.941859 1.586744 0.000474 0.0
0.418153 1.115907 0.000000 0.0
2.931705 1.871735 -0.001890 0.0
2.557899 1.300386 0.001668 0.0
3.787636 0.260867 0.001256 0.0
0.762663 1.328411 -0.000128 0.0
1.262766 1.204113 0.000641 0.0
2.308500 0.603951 0.002690 0.0
2.559725 0.873843 0.001694 0.0
1.775221 1.313496 0.001650 0.0
1.423231 0.247144 -0.000497 0.0
3.086302 1.561877 0.007878 0.0
3.848479 1.366907 -0.000593 0.0
1.195773 0.526892 0.002660 0.0
1.298115 1.839394 0.003053 0.0
1.961661 0.352278 -0.003593 0.0
3.540602 0.432976 -0.003064 0.0
0.844438 0.982795 0.000186 0.0
2.062363 0.170079 0.002145 0.0
1.281714 0.763496 -0.001631 0.0
3.785993 0.066390 -0.000228 0.0
0.679424 1.856304 0.000697 0.0
0.633165 1.773247 -0.000493 0.0
3.267036 0.456566 0.001589 0.0
0.452883 0.187081 -0.000633 0.0
0.447752 0.733500 -0.000263 0.0
0.063603 1.406852 -0.004781 0.0
1.425618 1.766171 0.004848 0.0
2.918269 0.731870 0.000376 0.0
3.822494 0.766097 0.002076 0.0
1.709265 1.719367 0.000162 0.0
0.453365 0.938859 -0.001777 0.0
2.059405 0.185741 0.001065 0.0
1.144695 0.975736 -0.000512 0.0
2.868704 1.717787 0.000401 0.0
3.668083 1.602144 -0.001734 0.0
2.994152 0.919999 -0.000549 0.0
0.982274 0.385595 -0.006790 0.0
1.920142 0.446664 0.004770 0.0
3.622037 1.527282 -0.000314 0.0
3.788275 1.338214 -0.000154 0.0
0.386937 0.575486 0.003076 0.0
0.128047 0.476886 0.002888 0.0
3.679043 0.179646 0.002703 0.0
2.088402 0.639612 -0.001794 0.0
3.138167 1.893865 0.000172 0.0
2.219516 1.117289 0.000224 0.0
3.441819 1.820137 0.000578 0.0
2.469009 1.961466 -0.002757 0.0
1.989711 1.073287 -0.002580 0.0
1.359542 0.343218 -0.000378 0.0
0.616330 1.714924 0.000650 0.0
1.322478 0.699050 -0.003219 0.0
3.613443 1.904954 0.000277 0.0
1.826571 1.612891 -0.002334 0.0
1.774544 0.461586 0.002126 0.0
3.207469 0.264767 -0.003563 0.0
2.283315 1.683184 0.001113 0.0
2.951422 0.478688 0.000284 0.0
1.941801 1.735976 -0.002662 0.0
2.164741 0.919810 0.000724 0.0
1.877086 0.250427 -0.001089 0.0
0.164844 1.483682 -0.001071 0.0
4.001888 1.701883 0.002367 0.0
3.971434 1.497415 0.002942 0.0
0.026101 0.086844 -0.002988 0.0
2.189130 0.535734 0.003607 0.0
0.815041 1.393404 -0.003145 0.0
1.741657 1.562999 0.005007 0.0
0.068224 1.829934 0.002686 0.0
1.026455 1.841344 0.001294 0.0
1.967242 0.829094 0.004000 0.0
3.631917 0.909093 0.002606 0.0
2.249371 0.482527 -0.004207 0.0
0.655881 1.827553 0.001978 0.0
3.754951 0.321093 -0.005468 0.0
2.736738 0.596223 -0.001807 0.0
3.773440 0.337736 -0.000746 0.0
2.275126 1.874253 0.002390 0.0
1.061075 1.601948 -0.003702 0.0
2.822216 0.005296 0.002060 0.0
1.397076 1.452053 -0.001468 0.0
0.390269 0.836303 0.002282 0.0
2.097119 0.679324 -0.000818 0.0
2.724022 1.193064 -0.001947 0.0
1.591735 1.262102 0.000101 0.0
0.099545 0.447614 0.003334 0.0
3.798567 0.180273 0.004561 0.0
3.083486 1.799162 -0.001701 0.0
1.698775 1.250855 0.000365 0.0
0.558615 1.853910 -0.000252 0.0
0.513996 0.137957 0.002396 0.0
1.918453 1.819075 -0.001406 0.0
2.464272 0.326357 0.000851 0.0
2.105203 1.011373 -0.004567 0.0
1.104516 0.068392 0.000318 0.0
0.819712 0.844051 -0.000380 0.0
3.041545 0.367239 -0.002392 0.0
0.969036 1.183351 0.001943 0.0
3.903615 1.212097 0.003536 0.0
1.084322 0.420347 -0.007678 0.0
1.371760 1.380687 0.003843 0.0
2.607229 0.364214 -0.004792 0.0
2.563460 1.235404 0.001229 0.0
3.499030 1.260428 0.000171 0.0
1.069362 0.539615 -0.000664 0.0
3.261931 0.193405 -0.003129 0.0
0.326318 0.941462 0.002066 0.0
0.276497 1.653840 0.001156 0.0
0.949035 0.916043 0.002953 0.0
3.769448 1.100771 0.006398 0.0
1.010159 0.137665 -0.006212 0.0
3.969742 1.716706 -0.001298 0.0
3.923163 1.211134 -0.003036 0.0
2.727948 1.443554 -0.001690 0.0
3.407414 0.070614 -0.000184 0.0
3.626932 0.906833 0.000798 0.0
4.004108 1.529010 -0.001343 0.0
0.694369 0.436036 0.000653 0.0
3.471456 0.603639 0.002934 0.0
0.811069 0.884547 0.002825 0.0
1.294988 1.023858 -0.000224 0.0
0.662198 0.246813 0.001396 0.0
2.686396 0.620696 0.000013 0.0
3.735365 0.882833 -0.004677 0.0
1.641892 0.583771 -0.000668 0.0
2.694618 0.532868 0.001921 0.0
0.702177 0.931986 0.003307 0.0
2.009708 0.973698 -0.003141 0.0
3.395766 0.748542 -0.000923 0.0
3.115434 0.320834 -0.001279 0.0
1.389986 0.082525 -0.000880 0.0
0.930414 1.721567 -0.001078 0.0
2.113029 1.466678 -0.000610 0.0
1.837878 0.859971 0.001976 0.0
3.103398 1.417543 -0.001665 0.0
2.970703 1.941890 0.002328 0.0
1.204750 0.810708 0.001085 0.0
1.001531 0.395452 -0.001636 0.0
2.656476 0.281911 -0.001857 0.0
3.545222 0.429554 -0.001097 0.0
1.434483 0.386985 -0.001256 0.0
0.407194 0.407525 0.001837 0.0
1.788556 1.087400 0.004173 0.0
2.426441 1.514199 0.004377 0.0
1.538714 1.299350 -0.003726 0.0
0.718466 1.829333 0.001440 0.0
3.408906 0.887367 -0.003716 0.0
3.188082 0.318050 -0.000485 0.0
2.911996 0.801205 -0.000680 0.0
1.945451 1.679578 -0.004193 0.0
1.363139 0.662173 -0.001594 0.0
0.524689 0.134334 -0.002227 0.0
3.020747 1.443881 0.002049 0.0
1.848842 0.510318 -0.004739 0.0
3.492804 0.632723 0.002949 0.0
2.720965 1.933069 0.000680 0.0
1.319006 1.194241 0.000616 0.0
0.839859 1.245684 -0.001090 0.0
3.140880 0.281592 0.002759 0.0
3.479279 0.085453 0.000794 0.0
1.969649 1.410515 -0.005060 0.0
0.281094 1.818708 0.000181 0.0
0.429224 1.811340 0.004494 0.0
0.150871 1.703197 -0.000935 0.0
3.252614 1.550437 0.002491 0.0
0.968047 1.162099 0.001540 0.0
2.372052 1.308882 -0.000641 0.0
2.890078 1.653430 -0.001875 0.0
2.458566 1.568978 0.000612 0.0
0.235802 0.006496 -0.000670 0.0
3.757120 0.465218 0.002380 0.0
1.380853 0.218181 -0.002338 0.0
2.356742 0.199058 -0.004407 0.0
2.723332 1.681265 0.001786 0.0
0.377285 0.774614 0.001647 0.0
3.091268 0.207905 0.003719 0.0
0.285427 0.071459 -0.002581 0.0
2.593881 1.951288 0.005514 0.0
3.310841 0.724063 -0.000492 0.0
3.418777 0.676326 -0.003335 0.0
0.895940 0.383960 0.001518 0.0
1.528922 1.977676 -0.005904 0.0
0.145744 0.205289 -0.005146 0.0
3.966843 0.637415 0.002194 0.0
3.059989 0.588188 0.000248 0.0
2.801920 1.563193 0.001174 0.0
3.624404 1.097577 -0.000940 0.0
2.781186 1.549572 0.003997 0.0
0.065231 1.187924 -0.001599 0.0
2.765208 0.654481 0.002099 0.0
1.034747 1.803164 0.000286 0.0
1.956525 1.638542 0.002592 0.0
0.342388 0.690217 0.001589 0.0
0.473406 1.798022 0.001788 0.0
1.286888 0.482167 -0.000448 0.0
1.256674 0.862180 -0.003729 0.0
3.278419 1.357647 0.003042 0.0
2.856007 0.834758 0.003033 0.0
0.016669 1.329943 -0.000018 0.0
3.676732 1.235927 -0.005255 0.0
0.695655 1.266933 -0.003811 0.0
1.334215 1.673469 0.000329 0.0
2.329874 0.758047 0.000811 0.0
3.202934 0.326580 -0.003928 0.0
2.977704 1.482431 -0.002974 0.0
1.424041 0.005633 -0.002246 0.0
3.764027 0.073688 0.002757 0.0
2.776189 0.704033 0.001270 0.0
2.567508 1.095847 -0.002891 0.0
1.692817 0.854140 0.003260 0.0
2.342242 0.904869 -0.000067 0.0
3.900341 1.013528 0.000095 0.0
1.887344 1.456878 0.003937 0.0
2.163782 1.307604 0.000335 0.0
2.361810 0.573178 -0.007377 0.0
0.640356 1.192782 0.001062 0.0
3.836367 0.472789 0.003001 0.0
2.889031 1.485723 -0.000062 0.0
0.470171 0.063167 0.000724 0.0
1.138757 1.142059 -0.000902 0.0
0.591616 0.385649 -0.000621 0.0
2.443733 1.075063 -0.003215 0.0
1.270806 1.632646 -0.000051 0.0
1.016231 1.912969 -0.003172 0.0
2.127115 1.136460 -0.003299 0.0
3.585639 1.839262 0.000853 0.0
3.458727 1.708361 0.000829 0.0
0.345262 1.659114 -0.001771 0.0
3.727501 0.999829 -0.001254 0.0
1.531519 1.691576 -0.002225 0.0
1.843014 1.487904 -0.002029 0.0
3.525514 0.169233 0.002035 0.0
0.842486 0.823367 -0.001450 0.0
1.101130 1.320292 -0.003603 0.0
0.471405 1.536100 -0.002766 0.0
0.691611 1.960186 0.000592 0.0
3.837051 1.867631 -0.002423 0.0
1.735728 0.093484 0.002202 0.0
2.312373 0.208496 0.000078 0.0
3.610302 1.848408 -0.001231 0.0
2.992736 0.072990 -0.004485 0.0
2.267443 0.271782 0.000032 0.0
3.823559 1.744569 -0.002003 0.0
3.545721 0.185539 0.001129 0.0
3.911173 0.687942 -0.002048 0.0
2.737494 1.410489 -0.001147 0.0
1.723943 1.757509 -0.002574 0.0
1.274604 0.064772 0.001252 0.0
1.395608 1.874527 -0.001054 0.0
0.534453 1.175942 -0.000939 0.0
3.826954 1.543937 -0.001986 0.0
2.897585 0.844809 0.001477 0.0
3.897445 1.747500 -0.005828 0.0
0.295545 1.769086 -0.002625 0.0
3.811360 1.526413 -0.002639 0.0
2.302075 0.767667 0.006881 0.0
3.157480 1.462607 -0.002106 0.0
3.770811 0.327855 -0.001430 0.0
1.993413 1.139860 0.001316 0.0
3.533459 1.162868 0.004057 0.0
0.322782 1.476505 0.003762 0.0
0.317366 0.416167 0.000319 0.0
3.069542 1.761564 -0.001977 0.0
0.616874 1.261533 0.000425 0.0
3.289520 1.802994 0.000258 0.0
1.476057 0.188151 0.000507 0.0
1.392082 0.802776 0.000159 0.0
0.382136 1.491349 -0.001545 0.0
3.141665 1.553046 -0.001832 0.0
2.438526 0.269769 0.001404 0.0
2.722654 0.429108 0.000008 0.0
1.034221 1.208604 0.003611 0.0
0.508812 0.860129 -0.003942 0.0
2.148745 1.236660 0.002419 0.0
2.347424 0.538871 0.001829 0.0
1.581315 0.601263 0.000503 0.0
3.994372 1.572512 -0.003640 0.0
3.394581 0.603853 0.000112 0.0
3.856336 1.189666 0.000374 0.0
1.050689 1.462183 0.001366 0.0
1.600584 1.115396 0.000101 0.0
2.280379 1.232592 -0.002451 0.0
3.857527 1.754867 0.001740 0.0
2.652483 1.545609 -0.000034 0.0
0.598586 1.752545 0.000638 0.0
0.031326 1.803663 -0.002021 0.0
0.220097 0.007149 0.001536 0.0
2.922300 0.520225 -0.000850 0.0
2.440679 1.967313 0.006176 0.0
0.611179 1.122267 0.001068 0.0
3.697579 1.541758 -0.001752 0.0
1.149538 1.313265 -0.001369 0.0
1.618743 1.040906 -0.000340 0.0
3.610079 0.660571 -0.000933 0.0
2.631452 0.459137 0.000169 0.0
3.460063 0.570870 0.002462 0.0
3.778903 1.879204 0.000539 0.0
3.114764 0.701633 0.001592 0.0
0.330981 0.222521 0.000591 0.0
2.852800 1.419665 -0.002794 0.0
3.341141 1.285548 0.003303 0.0
0.632764 1.403652 0.002328 0.0
2.412824 0.089087 0.003585 0.0
1.742646 1.413339 -0.001397 0.0
1.979831 1.858128 0.003014 0.0
1.081803 1.613744 -0.003049 0.0
3.069174 1.944148 0.003880 0.0
2.926326 0.860831 0.000373 0.0
3.573148 0.171618 0.000099 0.0
1.704208 1.386309 -0.002929 0.0
1.972591 1.869610 -0.001334 0.0
0.210901 1.486409 -0.000878 0.0
2.239090 1.576882 -0.000089 0.0
1.130569 1.932014 -0.000169 0.0
0.231203 0.190418 0.002431 0.0
3.547094 0.790613 0.001154 0.0
2.345040 1.176164 -0.000163 0.0
3.077891 1.768690 0.000527 0.0
2.637243 1.936622 -0.002187 0.0
3.982846 0.959054 -0.000173 0.0
1.907001 0.075711 -0.003147 0.0
0.838963 0.186065 0.005493 0.0
2.904463 1.499454 0.001553 0.0
3.088149 1.505912 -0.000404 0.0
0.751718 1.061937 0.002853 0.0
1.465630 0.203360 -0.002004 0.0
2.178979 0.513337 -0.000450 0.0
3.017623 0.367073 0.003043 0.0
2.215007 0.915971 -0.002154 0.0
2.388635 0.776158 -0.001128 0.0
3.939955 1.204798 -0.000328 0.0
0.649332 0.832160 0.000026 0.0
2.418941 0.110977 -0.000510 0.0
2.087338 0.017212 0.001807 0.0
2.361353 0.019610 0.004299 0.0
2.724613 1.898309 -0.002124 0.0
0.785458 0.716344 0.001512 0.0
1.655797 1.002425 -0.002192 0.0
0.713001 0.349432 0.000927 0.0
2.102976 1.289726 0.003496 0.0
2.880162 1.106647 -0.002286 0.0
1.824903 1.773554 0.001007 0.0
0.738347 1.112068 -0.001057 0.0
3.991290 1.005221 0.001052 0.0
2.328703 0.548177 0.000785 0.0
2.278843 1.078365 -0.001193 0.0
0.809934 0.894431 0.004194 0.0
2.918656 0.426524 0.000432 0.0
2.564269 1.834843 0.001239 0.0
2.352872 1.296548 0.000052 0.0
0.411956 1.736247 -0.001568 0.0
3.127274 1.276914 0.000069 0.0
0.105193 1.062158 -0.001787 0.0
2.824060 1.792801 0.002665 0.0
3.255524 0.609459 0.001217 0.0
0.602998 1.939647 0.000494 0.0
3.076927 1.257549 -0.000327 0.0
