4.090562 1.519943 0.000426 0.0
3.220210 1.288895 0.000594 0.0
3.756197 1.398944 -0.006215 0.0
2.471781 0.192332 -0.003351 0.0
0.396252 1.515980 0.000386 0.0
2.005029 1.587408 -0.002817 0.0
4.397610 0.232679 -0.000340 0.0
2.177841 1.904679 -0.000014 0.0
0.376188 0.637967 0.004494 0.0
3.356519 0.708657 0.002759 0.0
4.233013 0.663667 0.000722 0.0
2.506561 1.409059 -0.000171 0.0
4.173202 0.861820 0.002133 0.0
1.179316 0.054511 -0.000399 0.0
0.328448 0.133885 0.001002 0.0
3.371694 1.201079 -0.001705 0.0
1.672421 0.176873 0.005835 0.0
3.142293 0.144985 0.001075 0.0
1.002558 1.075028 0.000342 0.0
0.647834 1.165120 -0.002076 0.0
0.577914 1.701777 0.006891 0.0
2.453083 0.359187 -0.001475 0.0
2.090856 0.550479 0.001898 0.0
2.538538 0.586830 0.004234 0.0
4.102475 1.804031 0.003015 0.0
3.275014 0.019049 -0.000676 0.0
0.052511 1.727155 -0.000000 0.0
1.222044 0.462578 -0.000122 0.0
4.275470 0.779238 0.002431 0.0
2.212775 0.300236 -0.003593 0.0
1.444640 0.862835 0.000917 0.0
2.759162 0.291331 0.001247 0.0
2.433480 1.646831 -0.001393 0.0
0.379306 1.224792 0.000008 0.0
4.660607 0.326735 -0.001826 0.0
2.967424 1.498727 -0.000867 0.0
2.418951 0.648077 0.006373 0.0
2.441197 0.022749 0.001748 0.0
2.458324 1.356047 0.002376 0.0
0.742715 0.996034 0.000434 0.0
0.451515 0.334914 -0.003513 0.0
0.879393 0.974655 -0.000223 0.0
1.988728 0.472235 0.000910 0.0
4.078683 0.524512 0.001350 0.0
1.348388 1.697221 -0.000826 0.0
0.717963 1.848746 -0.002785 0.0
3.853495 1.594168 0.000130 0.0
1.149851 0.791500 -0.001809 0.0
3.725289 1.396267 0.000701 0.0
2.791007 1.785745 -0.002829 0.0
3.615501 0.246253 0.000065 0.0
4.206864 0.500455 -0.001128 0.0
3.929221 1.431614 -0.000175 0.0
0.251154 1.349431 -0.004386 0.0
4.408014 1.550019 -0.002655 0.0
4.602014 1.925831 -0.002424 0.0
0.620646 1.563849 -0.000820 0.0
3.042831 1.459162 0.000716 0.0
4.644817 1.867545 0.004057 0.0
2.380969 0.801909 0.000015 0.0
0.274001 0.183370 -0.004182 0.0
3.364067 1.358100 -0.001809 0.0
3.970520 1.310874 0.001474 0.0
2.339431 1.165722 -0.002575 0.0
1.700443 1.066074 0.000426 0.0
2.786278 0.583690 -0.001103 0.0
0.991073 1.138757 -0.000525 0.0
3.432957 1.159331 -0.006057 0.0
3.175895 0.635853 -0.005789 0.0
3.653522 0.366098 0.000786 0.0
4.766541 0.260796 0.001457 0.0
3.431103 1.261779 0.003008 0.0
3.956235 0.334821 -0.003325 0.0
4.681964 0.045833 -0.001883 0.0
3.077217 0.242193 0.000579 0.0
0.544668 0.039518 -0.000936 0.0
1.038245 1.889975 -0.002929 0.0
2.150829 1.843279 -0.001179 0.0
4.204674 1.848977 0.000485 0.0
1.397639 1.070062 -0.002498 0.0
2.367287 0.763637 -0.000216 0.0
2.982596 1.875727 -0.000875 0.0
2.844942 1.760169 0.002348 0.0
1.227725 0.283965 0.002189 0.0
1.804693 1.257039 -0.001486 0.0
1.398099 1.551734 0.000871 0.0
1.708253 0.756445 -0.004826 0.0
1.827206 1.398034 -0.003903 0.0
3.032125 0.036273 -0.001204 0.0
4.018541 1.744929 0.002979 0.0
4.666418 0.041060 0.002110 0.0
3.307872 0.514945 0.002560 0.0
1.491897 0.112483 -0.000361 0.0
4.277999 0.450558 0.000375 0.0
2.886197 0.534276 -0.006026 0.0
4.748524 0.391820 0.000734 0.0
2.215530 0.474858 0.001851 0.0
3.206845 1.634325 0.001047 0.0
4.471450 0.553255 -0.001159 0.0
2.108228 0.612379 0.001873 0.0
0.945502 1.349879 0.001527 0.0
3.539072 0.621623 0.000601 0.0
2.012116 0.861917 -0.001892 0.0
3.835485 0.797348 0.000836 0.0
0.746959 1.560298 -0.006322 0.0
1.313343 0.080981 -0.001478 0.0
2.891954 1.174435 -0.001234 0.0
3.707307 0.352137 0.002249 0.0
2.110074 1.034229 -0.000680 0.0
0.676785 0.651628 0.003631 0.0
1.373282 1.870738 0.002430 0.0
2.445879 0.380711 0.002910 0.0
3.674304 0.377242 0.001648 0.0
0.406340 1.356190 0.001513 0.0
3.746999 1.887486 -0.000984 0.0
4.493896 0.242959 0.000058 0.0
1.783508 0.489345 0.003727 0.0
4.589380 0.936223 0.002576 0.0
0.830724 0.310311 0.001449 0.0
2.057162 0.368057 -0.001206 0.0
0.087569 1.364760 0.001206 0.0
3.731868 0.991670 0.003860 0.0
1.237498 1.745983 0.002544 0.0
4.183003 1.569247 0.001640 0.0
3.579932 0.151512 0.000406 0.0
2.440045 1.634005 -0.000080 0.0
0.742118 0.794518 0.003404 0.0
1.733813 0.685992 -0.000602 0.0
2.937337 1.420316 -0.001398 0.0
2.728729 1.033537 0.003971 0.0
4.595095 1.546836 0.002574 0.0
3.697548 0.807815 -0.002134 0.0
3.393010 0.382008 -0.004170 0.0
1.062585 0.609990 0.006535 0.0
3.558717 1.079958 -0.007945 0.0
0.367387 1.611871 0.002671 0.0
1.894804 1.017927 0.002382 0.0
1.027613 1.233309 0.001504 0.0
0.921275 0.557235 0.001029 0.0
2.195126 0.110635 0.001889 0.0
0.005381 1.391314 -0.004240 0.0
2.762245 0.619455 0.001319 0.0
2.317402 0.463528 -0.002967 0.0
1.225298 1.781315 0.000869 0.0
0.893451 0.292959 0.000327 0.0
3.983320 0.017312 -0.000801 0.0
2.492392 1.332492 0.001155 0.0
3.274514 0.485938 -0.000576 0.0
4.419321 0.611496 0.005693 0.0
2.013960 1.021088 0.001234 0.0
3.587085 1.610127 -0.001829 0.0
2.903434 1.659646 0.002982 0.0
4.768125 0.138798 -0.002719 0.0
3.145455 0.200524 0.004243 0.0
3.263275 0.047007 -0.000386 0.0
0.022147 0.689697 0.001681 0.0
4.080547 0.165346 -0.000109 0.0
3.119453 0.604287 -0.000053 0.0
0.070372 1.299978 0.001355 0.0
3.899754 1.092836 -0.002214 0.0
2.342922 1.767489 0.002498 0.0
3.680874 1.433179 0.000181 0.0
2.979702 1.525028 -0.000201 0.0
1.511631 1.569275 -0.000123 0.0
3.768175 0.755846 -0.002968 0.0
1.234050 0.536100 0.000802 0.0
0.186820 1.157148 0.001853 0.0
1.841852 0.374616 -0.002957 0.0
4.714359 1.715928 0.000707 0.0
2.222024 0.388965 -0.000704 0.0
1.688916 0.883572 0.004992 0.0
4.125186 1.385935 0.001601 0.0
4.692323 1.116479 0.002044 0.0
1.453494 1.597912 -0.001515 0.0
1.966495 1.781082 0.003841 0.0
1.891064 -0.001697 0.002144 0.0
4.777597 1.194158 0.000849 0.0
4.489501 0.371389 0.000873 0.0
0.595981 0.079564 -0.002688 0.0
1.739310 1.542677 0.000675 0.0
2.209762 1.487582 0.003303 0.0
4.147709 1.604469 -0.001823 0.0
4.580680 0.532567 0.001302 0.0
0.337773 0.733369 0.001245 0.0
0.457981 1.728051 -0.000029 0.0
2.368138 0.185456 0.000543 0.0
2.573444 1.897888 -0.002849 0.0
3.532093 0.268854 0.000131 0.0
0.644512 0.780698 -0.000988 0.0
0.244455 1.507850 -0.002737 0.0
3.774718 0.724893 -0.000341 0.0
2.948362 1.423202 -0.002175 0.0
3.603741 0.790329 -0.001265 0.0
4.357071 0.495618 0.001407 0.0
3.962431 0.197772 0.002498 0.0
4.151741 0.146723 0.001748 0.0
0.652033 0.679642 0.004050 0.0
2.543519 0.973216 0.001421 0.0
3.155609 0.199011 0.002740 0.0
3.866347 0.302187 -0.004090 0.0
2.688333 1.769766 -0.002851 0.0
0.397552 0.779565 -0.001106 0.0
4.250896 0.108512 0.004279 0.0
1.287761 0.403178 -0.001076 0.0
1.648260 1.894261 0.003276 0.0
3.597908 1.783713 -0.000564 0.0
3.483831 0.611683 -0.003570 0.0
1.819145 1.248146 -0.000150 0.0
0.116098 0.160165 0.002981 0.0
1.225502 1.905647 -0.000792 0.0
0.353552 1.601242 -0.002798 0.0
4.818285 0.820557 0.002962 0.0
4.822158 0.005887 0.004405 0.0
3.661315 1.875005 0.003202 0.0
3.681006 0.385952 -0.002606 0.0
2.835891 0.965524 -0.001100 0.0
3.120742 0.664900 0.001814 0.0
0.607161 1.542971 0.000036 0.0
3.613469 1.768300 0.000786 0.0
3.284974 0.257276 0.000262 0.0
2.651895 1.555977 -0.002445 0.0
2.904412 0.174777 0.002608 0.0
0.990676 0.766937 -0.003810 0.0
2.126386 1.531019 0.005257 0.0
0.021679 0.169813 -0.001805 0.0
3.552054 0.535646 0.000031 0.0
2.579728 1.770835 0.001512 0.0
2.898701 1.310988 -0.000285 0.0
0.718737 0.257152 0.000574 0.0
4.564895 0.785173 0.002555 0.0
2.047886 1.921776 -0.000479 0.0
2.753952 1.343057 0.000010 0.0
1.440375 1.458542 0.002794 0.0
4.000917 0.055623 0.001536 0.0
0.101225 1.891022 0.002468 0.0
2.611090 1.196652 0.005274 0.0
3.750388 1.616029 0.004022 0.0
0.288612 1.014854 0.001634 0.0
2.786624 0.814674 0.000623 0.0
1.906486 1.377365 0.005503 0.0
0.536352 0.545558 -0.002088 0.0
2.934634 0.426007 0.001378 0.0
1.007394 1.644223 -0.000465 0.0
0.931194 1.071238 -0.002085 0.0
1.338226 1.620238 0.003334 0.0
2.803668 0.381178 -0.005065 0.0
0.699998 0.221054 -0.002282 0.0
1.469303 0.512805 -0.002133 0.0
4.290042 0.735375 -0.005504 0.0
3.765626 0.630659 -0.000447 0.0
4.208028 0.341849 -0.000205 0.0
1.444479 0.567927 0.006342 0.0
2.241777 0.523247 -0.000902 0.0
3.848953 0.865231 0.001287 0.0
0.085521 0.856599 -0.000937 0.0
4.792406 1.240514 -0.001558 0.0
0.752137 1.035033 0.003005 0.0
2.940077 0.469193 0.000791 0.0
1.324870 1.479933 -0.000058 0.0
1.179603 1.891360 0.000841 0.0
1.347561 1.923622 -0.001611 0.0
3.518543 0.911910 0.002012 0.0
2.806236 0.647046 -0.004328 0.0
1.828086 0.684213 0.002537 0.0
0.547458 0.861140 -0.002726 0.0
4.238004 0.454609 -0.000787 0.0
0.549814 0.784158 -0.001656 0.0
4.166173 1.619598 0.000556 0.0
1.955773 0.933112 -0.000405 0.0
0.576633 0.772269 -0.001005 0.0
0.143662 1.570892 -0.001284 0.0
3.090535 0.113197 -0.001977 0.0
0.996548 0.956730 -0.000717 0.0
3.326698 0.973853 -0.000175 0.0
0.905587 0.623951 -0.001723 0.0
1.915836 1.321173 0.001567 0.0
4.059597 0.722013 0.002920 0.0
2.288255 0.433369 -0.001108 0.0
3.039429 0.978973 -0.001494 0.0
4.100087 1.694432 -0.003606 0.0
1.799917 1.223967 -0.002724 0.0
4.441683 0.088620 -0.001661 0.0
3.064251 0.797704 -0.004353 0.0
0.008738 0.578972 0.006629 0.0
2.154776 0.435055 0.003388 0.0
1.235642 0.452443 0.000995 0.0
2.728309 0.232084 0.002676 0.0
0.417440 1.243528 -0.003118 0.0
0.028431 0.839931 -0.001083 0.0
3.015150 1.402833 0.001697 0.0
0.065643 0.480890 -0.000704 0.0
3.125004 1.674871 0.000840 0.0
0.754814 1.896368 -0.001337 0.0
-0.000017 1.329672 0.001097 0.0
1.202321 1.032184 0.001210 0.0
4.488290 1.700291 0.001719 0.0
3.515890 1.344102 0.001324 0.0
0.725745 1.531585 0.000848 0.0
3.250572 0.582021 -0.000377 0.0
3.126505 0.422480 0.001045 0.0
4.093085 0.132781 0.000244 0.0
3.953876 1.787660 -0.000941 0.0
3.891665 1.426807 -0.002560 0.0
4.478686 1.212756 -0.006232 0.0
4.269149 0.030126 0.000425 0.0
2.353546 1.415068 0.000735 0.0
2.010440 1.627294 -0.002518 0.0
0.980333 1.548578 0.004730 0.0
4.230493 1.021051 0.000587 0.0
2.852356 0.412964 0.002535 0.0
0.330785 1.629126 -0.000938 0.0
3.529905 1.204704 0.001623 0.0
2.051068 0.840588 -0.002760 0.0
1.048779 1.233908 0.003498 0.0
0.675196 0.728303 0.000702 0.0
2.428383 0.747936 0.000742 0.0
3.639935 1.057803 -0.001980 0.0
2.430276 1.598422 0.001190 0.0
2.814243 0.396662 0.000816 0.0
3.860230 1.735325 0.001374 0.0
1.941815 1.477427 -0.000645 0.0
3.072868 1.707197 -0.003956 0.0
4.197588 0.512977 -0.002310 0.0
0.556400 0.539658 -0.007427 0.0
3.899400 1.374044 0.002923 0.0
3.987299 0.923074 0.001769 0.0
1.352133 1.445526 0.001114 0.0
3.389097 1.409472 0.000240 0.0
4.064922 1.482706 0.000224 0.0
2.261465 1.725783 0.003342 0.0
3.933815 0.215622 0.000825 0.0
4.758631 1.588703 -0.004380 0.0
0.398884 0.330441 0.002676 0.0
0.279126 1.018736 -0.003337 0.0
1.256542 1.393921 -0.001786 0.0
3.933758 1.582564 0.002506 0.0
3.848763 0.736977 -0.002209 0.0
0.025227 0.036499 -0.001449 0.0
0.020646 0.512888 0.004349 0.0
4.633873 0.943206 0.000051 0.0
2.545009 1.161895 -0.000885 0.0
1.665689 1.122944 0.000138 0.0
2.445975 1.709866 -0.000424 0.0
1.954000 0.479576 0.000378 0.0
4.053223 0.972079 -0.004225 0.0
3.821891 1.864981 -0.003822 0.0
4.428795 1.155351 -0.000866 0.0
1.445271 0.335124 0.002622 0.0
1.172858 0.311874 0.002807 0.0
2.057177 1.917391 -0.002983 0.0
0.317532 1.850300 -0.003853 0.0
0.328938 0.410921 0.003087 0.0
3.020168 0.759077 0.000827 0.0
1.709531 0.889710 -0.001946 0.0
4.324729 0.671326 -0.001839 0.0
4.367642 1.699196 0.000749 0.0
3.131193 0.342271 0.002547 0.0
3.897532 1.876063 -0.000860 0.0
3.427554 0.952380 -0.000957 0.0
3.706726 0.001230 -0.003214 0.0
4.612798 0.942364 -0.000092 0.0
2.067513 1.823119 0.002928 0.0
0.076097 1.525588 0.004745 0.0
0.105292 0.104544 0.001908 0.0
4.494111 1.531919 0.004210 0.0
0.802680 0.412060 -0.003339 0.0
1.408442 1.640931 0.003382 0.0
3.650852 1.082742 -0.002345 0.0
3.338227 0.745304 -0.001724 0.0
0.168078 0.682440 -0.001659 0.0
2.570356 1.432689 -0.001990 0.0
0.784390 1.303802 -0.000202 0.0
2.781595 1.556368 -0.001865 0.0
3.821156 1.525738 -0.000393 0.0
3.291305 0.187271 0.000120 0.0
0.381353 0.972530 0.000273 0.0
0.644972 0.947766 -0.000632 0.0
1.786944 1.646524 0.001998 0.0
3.083277 1.140489 -0.001600 0.0
2.610175 1.679019 -0.000461 0.0
2.854530 1.906556 -0.003884 0.0
2.829013 1.249385 -0.001629 0.0
2.544577 1.908799 -0.002042 0.0
2.713894 0.475672 -0.000838 0.0
1.393953 1.225848 0.000530 0.0
2.278651 0.344879 -0.002826 0.0
4.104767 0.066447 -0.000947 0.0
0.981187 0.276939 0.003302 0.0
1.464373 1.501499 -0.000538 0.0
4.506546 1.558080 -0.000636 0.0
0.916367 1.614496 -0.004104 0.0
1.960541 0.856302 0.002737 0.0
2.965179 0.108773 -0.004700 0.0
2.085746 0.693836 0.002861 0.0
1.314850 1.092345 0.000466 0.0
4.369313 0.934197 -0.004613 0.0
1.059341 0.594119 -0.000073 0.0
0.517359 1.137470 0.000656 0.0
0.278509 1.443188 -0.002113 0.0
2.909362 1.807444 0.002367 0.0
3.515954 1.582432 -0.000209 0.0
1.253824 0.238215 0.000194 0.0
2.528129 0.218686 0.002433 0.0
0.767419 0.323537 -0.001553 0.0
4.694759 0.222667 0.000152 0.0
4.776516 0.662466 -0.004659 0.0
1.341482 1.145555 0.001000 0.0
1.090280 1.827580 -0.001754 0.0
1.001751 0.095670 -0.002587 0.0
0.799354 0.937714 0.001111 0.0
1.365660 0.344265 0.000795 0.0
0.460192 0.579307 -0.000698 0.0
0.069350 0.050141 0.000612 0.0
3.411186 0.808388 0.003595 0.0
2.818833 1.358872 -0.002109 0.0
4.638608 1.192544 -0.001777 0.0
1.411314 1.502697 0.001412 0.0
2.168710 1.332118 0.000147 0.0
4.807708 0.233084 0.000063 0.0
2.191730 0.175246 -0.002400 0.0
3.798430 0.214757 0.001289 0.0
2.742753 0.616078 -0.001039 0.0
1.186227 0.323097 0.000843 0.0
4.610260 0.567112 -0.000608 0.0
2.010553 0.448043 -0.000312 0.0
2.812583 1.874080 -0.000830 0.0
0.061254 0.128451 0.000475 0.0
3.880592 0.181591 0.002230 0.0
0.746677 0.142360 0.000065 0.0
2.525583 0.599624 0.001370 0.0
1.930351 1.082255 0.002997 0.0
1.251579 0.925194 -0.000433 0.0
4.266002 0.865233 -0.000658 0.0
1.179879 1.081283 -0.003021 0.0
3.529951 1.186853 0.003193 0.0
4.789863 0.009337 0.003474 0.0
2.685477 1.083953 -0.000165 0.0
2.278794 1.624222 -0.006717 0.0
1.472303 1.350654 -0.001741 0.0
4.833285 0.516892 0.000404 0.0
3.338690 0.856024 0.001303 0.0
4.408739 1.636327 -0.002799 0.0
3.353511 0.458813 0.001320 0.0
3.712920 0.791149 -0.004117 0.0
4.546825 1.016921 -0.000107 0.0
2.963587 0.702867 0.002007 0.0
2.067293 1.817169 0.001646 0.0
4.187720 1.734743 -0.000181 0.0
3.431990 0.416325 0.002785 0.0
1.805227 0.233715 -0.001672 0.0
1.449923 0.437705 -0.000356 0.0
3.974959 0.811503 0.002788 0.0
2.156771 0.493186 0.000211 0.0
2.126229 0.755290 0.000729 0.0
0.421645 1.297586 0.000051 0.0
4.085966 1.148750 -0.000032 0.0
1.218392 0.172753 -0.000527 0.0
3.504625 1.192054 -0.004159 0.0
1.846832 1.689308 0.000879 0.0
4.315464 1.585049 0.001198 0.0
4.069626 0.521066 0.000488 0.0
0.394060 0.646623 0.001388 0.0
0.169617 0.733077 0.001279 0.0
0.833371 1.029472 -0.001722 0.0
1.429513 0.381710 0.006850 0.0
0.007299 1.520513 0.005985 0.0
2.673549 0.969463 -0.002772 0.0
0.171672 1.758092 -0.005208 0.0
1.628327 1.631856 -0.000667 0.0
3.106645 1.121944 0.003583 0.0
1.844831 1.400943 0.000239 0.0
0.199908 0.280674 -0.000096 0.0
2.825617 1.342524 0.004555 0.0
3.288756 0.826579 0.003125 0.0
1.105673 0.145080 0.006022 0.0
0.234209 1.272172 -0.001644 0.0
4.197208 0.528715 -0.003167 0.0
4.386819 1.088633 -0.000834 0.0
2.832993 1.638273 0.001291 0.0
0.171673 1.519380 -0.000608 0.0
0.355885 1.372700 -0.001935 0.0
0.569031 0.991003 0.000615 0.0
4.402746 0.430642 -0.000903 0.0
1.876093 0.300668 0.004876 0.0
1.680769 0.544089 0.000063 0.0
2.766710 0.114353 -0.001781 0.0
2.941582 0.483459 -0.000716 0.0
1.407075 0.347994 -0.000508 0.0
0.951869 0.296886 -0.000278 0.0
2.500902 1.279478 -0.000884 0.0
3.577258 0.761722 0.000507 0.0
1.035352 1.311700 -0.002058 0.0
3.274984 1.914957 -0.001470 0.0
3.679525 1.448223 -0.002631 0.0
0.931945 0.618038 0.001000 0.0
1.819567 1.582413 -0.000620 0.0
3.187265 1.435380 -0.002011 0.0
1.573633 0.046495 -0.001057 0.0
2.343691 0.655038 -0.004977 0.0
0.570280 0.258378 0.001723 0.0
4.780625 1.748926 0.000800 0.0
3.354775 0.885066 0.000753 0.0
3.390042 1.862323 0.000623 0.0
0.027668 1.680491 -0.001606 0.0
2.953726 0.433677 0.004000 0.0
0.686876 0.380338 -0.000288 0.0
2.834723 1.841731 -0.001552 0.0
0.116535 1.266168 -0.000913 0.0
0.797732 1.770564 -0.001483 0.0
2.466977 1.085138 -0.001579 0.0
3.635967 1.826002 0.000995 0.0
2.947539 1.273259 -0.001655 0.0
3.617915 1.607228 -0.002878 0.0
2.725491 1.542215 -0.004023 0.0
2.023498 1.263147 -0.001286 0.0
3.609878 1.160572 -0.000811 0.0
4.387529 0.058993 0.003040 0.0
0.595923 1.072062 0.000198 0.0
0.438035 0.075862 0.000468 0.0
1.840552 0.260085 -0.000902 0.0
2.437485 1.422557 -0.000652 0.0
2.313271 0.338430 0.001804 0.0
1.030604 1.397496 -0.003357 0.0
0.545483 0.524587 0.004480 0.0
3.501887 0.027708 0.004693 0.0
1.603373 0.134185 -0.000553 0.0
2.983656 0.347761 0.004234 0.0
0.031212 0.089039 -0.002711 0.0
1.859857 1.691980 -0.001254 0.0
1.085828 0.911821 -0.003154 0.0
3.378761 0.789126 0.002163 0.0
0.271862 1.307890 -0.003216 0.0
3.570971 1.767227 -0.000911 0.0
4.417020 0.283941 0.002062 0.0
0.238178 0.538835 0.000212 0.0
1.556042 0.904532 0.003013 0.0
4.171603 0.454169 -0.001602 0.0
1.053130 1.606438 0.000561 0.0
4.525461 1.100946 0.003874 0.0
4.176448 0.385201 -0.006314 0.0
1.238731 0.838220 -0.000131 0.0
0.317942 1.808774 0.004033 0.0
4.098733 0.044686 0.004316 0.0
4.103311 1.167782 -0.001348 0.0
3.894478 0.246754 -0.000382 0.0
3.467447 1.450774 -0.000162 0.0
1.679816 1.179043 0.001596 0.0
4.491729 0.166083 0.000361 0.0
4.767532 0.485996 0.000163 0.0
2.342746 0.188565 0.000182 0.0
0.014606 0.365417 0.001479 0.0
0.074407 1.436867 0.001000 0.0
2.619497 1.282222 -0.001067 0.0
3.290277 0.548849 0.000044 0.0
1.234520 1.200077 -0.000457 0.0
1.570337 1.702417 -0.002230 0.0
3.709444 1.418334 -0.002492 0.0
4.144647 1.660513 -0.006304 0.0
0.092130 0.148975 -0.003663 0.0
1.679837 1.267299 0.002696 0.0
3.213689 1.896758 0.001004 0.0
2.491745 0.022241 -0.004148 0.0
2.076257 1.759275 -0.001916 0.0
4.778903 0.831038 0.001418 0.0
4.305326 1.035309 0.003489 0.0
4.587255 0.572610 -0.000964 0.0
2.046483 0.084522 -0.000246 0.0
4.045200 0.594377 -0.000369 0.0
0.846777 1.871035 0.000261 0.0
2.712265 1.075423 -0.001706 0.0
2.268350 1.887241 -0.001424 0.0
0.266716 0.711899 0.003335 0.0
3.164729 1.394139 -0.002277 0.0
0.250368 0.281484 0.001763 0.0
4.625775 1.274064 0.002722 0.0
2.304732 1.105462 0.001991 0.0
2.416876 0.807359 -0.000749 0.0
0.997284 1.708981 0.001725 0.0
2.026011 0.565880 0.002167 0.0
2.364705 1.354323 0.000662 0.0
3.720310 0.591114 -0.000948 0.0
4.330138 1.398807 0.000790 0.0
1.620784 1.365428 0.000048 0.0
1.811557 0.573833 0.001013 0.0
0.189713 0.726777 -0.002418 0.0
2.032898 0.721692 0.004465 0.0
3.224320 0.607221 -0.000723 0.0
0.418289 0.747329 0.001059 0.0
3.404389 0.479783 -0.001287 0.0
0.680479 0.460409 0.000598 0.0
2.045202 1.403777 -0.003189 0.0
3.392713 1.268491 -0.002613 0.0
1.271529 0.287447 0.000480 0.0
1.536936 0.049351 0.000742 0.0
2.961484 0.760579 0.001531 0.0
4.167356 1.709732 0.001990 0.0
4.230585 1.554637 -0.004528 0.0
2.988092 1.416117 -0.002767 0.0
3.862446 0.760229 -0.000207 0.0
0.867366 0.143310 0.005695 0.0
1.413204 0.827304 0.001682 0.0
2.013985 1.887538 0.001457 0.0
0.603129 0.939757 0.000906 0.0
2.746730 1.305495 0.000537 0.0
0.491207 1.763306 0.000934 0.0
1.802909 0.550055 0.002401 0.0
2.813367 0.954470 -0.000624 0.0
3.093620 0.977797 0.000442 0.0
4.050187 0.502083 0.001417 0.0
3.000675 1.281297 0.002644 0.0
0.494648 0.182461 -0.001599 0.0
1.595172 1.314576 -0.000439 0.0
0.799413 1.442897 0.001687 0.0
2.329676 0.868984 0.001906 0.0
2.291455 1.004698 -0.000566 0.0
3.212932 0.112933 0.000133 0.0
0.741837 0.211286 0.004334 0.0
4.614518 1.024099 0.001007 0.0
1.386745 0.268244 -0.000563 0.0
0.733861 1.126683 0.001372 0.0
2.047902 1.227064 0.001118 0.0
4.281779 1.016671 0.003973 0.0
1.123085 1.349335 -0.002837 0.0
2.687939 0.258869 -0.006151 0.0
0.444174 1.168660 0.003357 0.0
3.661262 0.750436 -0.000094 0.0
3.023274 0.697619 -0.000748 0.0
2.672747 1.179951 -0.004578 0.0
0.066382 0.724883 -0.001864 0.0
0.202698 0.771809 0.002395 0.0
2.353890 0.256650 0.002643 0.0
3.026085 0.756331 0.001379 0.0
3.817501 1.181741 -0.000500 0.0
1.962384 0.344281 -0.001829 0.0
0.209034 1.080839 -0.000625 0.0
4.407535 1.895274 0.001116 0.0
3.860797 0.794859 -0.000714 0.0
4.766386 1.469535 0.005082 0.0
0.438213 0.215303 -0.005827 0.0
1.149696 1.132959 -0.000588 0.0
2.946669 0.543906 -0.000481 0.0
1.847801 1.157490 0.001962 0.0
2.679971 1.702983 0.003814 0.0
1.091452 0.970473 0.004251 0.0
2.170717 0.191848 -0.001879 0.0
3.631113 0.896993 -0.006070 0.0
4.153026 1.278158 0.002103 0.0
3.360176 1.648216 0.002314 0.0
2.144404 0.645761 -0.004763 0.0
2.667980 1.574486 -0.003911 0.0
4.188960 0.045746 -0.001082 0.0
0.885043 0.849154 0.000404 0.0
4.713101 0.385063 -0.003176 0.0
3.862138 1.795361 -0.002216 0.0
0.792722 1.647391 -0.002794 0.0
3.459637 0.665571 -0.008302 0.0
1.016644 1.873914 0.004888 0.0
4.757922 1.680317 0.002805 0.0
2.187287 1.202445 -0.001734 0.0
2.486050 1.453916 0.003802 0.0
0.957483 0.107669 -0.001783 0.0
1.574930 1.289202 0.001255 0.0
4.071174 0.233771 -0.004371 0.0
0.343479 1.580492 0.001320 0.0
1.557269 0.828393 0.000206 0.0
4.742636 1.664069 -0.002080 0.0
0.712490 1.193468 0.005482 0.0
2.540460 0.251200 0.004446 0.0
2.260819 0.477283 -0.001357 0.0
1.975283 1.260267 0.003463 0.0
0.434509 0.605919 0.001135 0.0
1.168947 0.530848 0.002436 0.0
2.932463 1.075683 0.004675 0.0
0.219882 1.144838 0.001793 0.0
0.900829 0.792628 0.001752 0.0
4.303905 1.100653 0.002294 0.0
0.386237 1.428216 0.000821 0.0
0.228544 1.545738 0.000027 0.0
4.431397 1.593402 0.000519 0.0
3.947607 0.460992 0.004074 0.0
4.687134 1.823938 0.002236 0.0
0.891421 1.532270 -0.002149 0.0
2.603227 1.875670 0.000035 0.0
4.546443 0.792526 -0.003494 0.0
3.150103 1.405935 -0.000266 0.0
2.451190 1.839699 -0.002907 0.0
2.014229 0.743547 -0.000618 0.0
4.517091 1.130052 0.001126 0.0
0.349671 1.778522 0.001583 0.0
1.965365 0.370148 0.000700 0.0
1.121700 1.133553 0.004309 0.0
1.314489 0.656273 0.002732 0.0
1.465000 1.521462 -0.004672 0.0
0.352660 0.403248 0.001488 0.0
2.898313 1.898382 0.000179 0.0
4.670027 1.659143 0.000177 0.0
2.259737 1.493618 -0.001558 0.0
2.317361 1.011758 0.002765 0.0
1.702950 0.174513 -0.000995 0.0
1.073135 0.165915 -0.001733 0.0
3.688009 1.143440 -0.001030 0.0
3.721852 0.773249 0.001483 0.0
1.824437 0.398311 -0.003082 0.0
3.789073 0.599504 0.001942 0.0
1.277021 0.422955 0.000109 0.0
4.128837 1.603982 0.000176 0.0
4.410345 0.861870 0.002031 0.0
0.451967 1.903212 0.002338 0.0
4.196859 0.929717 -0.003470 0.0
1.129285 1.585845 0.001999 0.0
2.479833 0.658827 0.002863 0.0
2.990827 1.409960 -0.004575 0.0
1.912659 0.279404 0.000886 0.0
0.145481 0.971202 0.000506 0.0
0.583704 1.765805 -0.001994 0.0
3.930737 1.801632 -0.001071 0.0
1.305872 0.148523 0.001064 0.0
1.541982 1.204007 -0.001441 0.0
3.014526 0.039693 -0.003542 0.0
4.577691 0.920482 0.004627 0.0
3.143216 0.722813 0.001428 0.0
3.246431 0.906812 0.003697 0.0
1.568445 0.070305 0.002868 0.0
3.534148 0.039603 0.003031 0.0
1.315006 0.444912 -0.001693 0.0
1.788225 1.914679 -0.000817 0.0
1.483062 1.034598 -0.003637 0.0
1.247416 1.861009 0.000963 0.0
4.357890 1.651673 0.001018 0.0
2.711544 0.426926 -0.002402 0.0
1.858782 1.773007 -0.000503 0.0
0.959116 0.446977 -0.001932 0.0
1.379043 1.257299 -0.004398 0.0
0.799070 1.624011 -0.000430 0.0
3.222084 0.308229 0.000930 0.0
2.416810 1.669049 -0.001224 0.0
3.283135 1.248560 0.004793 0.0
3.842165 0.088653 0.005332 0.0
0.887833 1.379067 -0.001377 0.0
1.617124 1.438202 -0.001075 0.0
3.692821 1.778914 -0.001168 0.0
0.560878 1.631399 -0.001569 0.0
3.357115 1.589448 -0.001896 0.0
3.408838 0.018781 0.003195 0.0
0.345652 1.682019 -0.001545 0.0
0.798194 1.093546 0.000784 0.0
3.056893 1.663734 0.003287 0.0
1.154218 1.490581 0.004164 0.0
1.038654 0.118936 0.002233 0.0
1.493500 1.910393 -0.004129 0.0
1.976875 1.377299 0.000095 0.0
2.715211 1.472322 -0.001954 0.0
1.297286 1.484539 0.001648 0.0
0.816673 1.229203 0.000477 0.0
0.478056 1.003130 0.001560 0.0
0.099786 1.250068 0.000365 0.0
0.937697 0.330143 -0.000007 0.0
1.516840 0.930511 -0.003158 0.0
4.094233 1.571053 -0.001292 0.0
0.507906 0.358271 -0.001590 0.0
0.578506 1.921192 0.000661 0.0
2.988724 0.165415 -0.002036 0.0
1.631160 0.160715 0.002058 0.0
1.821462 1.881247 0.002395 0.0
2.312059 1.823111 -0.003997 0.0
0.347273 0.578324 0.000481 0.0
2.818252 1.170756 -0.000365 0.0
1.290024 0.207674 0.001430 0.0
2.552873 0.736398 -0.000263 0.0
3.452171 1.519152 0.001576 0.0
2.317635 1.584577 -0.003122 0.0
4.480510 0.547383 -0.000058 0.0
3.312615 0.673623 0.001735 0.0
1.428219 1.349831 -0.000415 0.0
4.570967 0.115856 -0.001423 0.0
3.016022 0.185460 -0.002505 0.0
2.714626 0.585990 0.002337 0.0
0.293484 1.627683 0.001073 0.0
3.857138 1.645960 -0.000075 0.0
3.879351 0.507349 -0.000825 0.0
4.767512 1.518340 0.000592 0.0
4.777121 1.240079 0.001094 0.0
0.911460 1.211281 -0.002810 0.0
0.045556 0.794664 -0.002975 0.0
1.719464 1.062681 -0.002941 0.0
2.686082 0.225100 -0.004116 0.0
3.513700 0.254834 -0.001495 0.0
3.093913 1.308859 -0.000601 0.0
2.332443 0.979994 0.003238 0.0
3.715822 1.910987 -0.002676 0.0
4.741437 0.207409 0.001560 0.0
3.538047 1.614446 -0.003053 0.0
2.071313 0.199926 -0.004273 0.0
4.134952 1.677288 0.002580 0.0
2.117615 0.360569 -0.000086 0.0
3.472819 1.052713 -0.002555 0.0
2.550135 0.479208 0.002775 0.0
0.051522 1.353496 0.001477 0.0
4.512072 0.636114 -0.003727 0.0
3.364798 0.760602 0.002011 0.0
4.773275 1.563037 0.001337 0.0
0.510107 0.870656 -0.000029 0.0
4.417815 0.532718 0.000774 0.0
3.359590 1.563167 0.001969 0.0
0.285781 1.484285 0.001286 0.0
1.358555 0.339139 0.001705 0.0
4.588346 1.714202 -0.000938 0.0
4.170172 1.514101 -0.003903 0.0
4.174759 0.869067 -0.002838 0.0
4.324505 0.735224 -0.000543 0.0
4.468453 0.606286 0.000444 0.0
4.044958 1.858277 -0.000980 0.0
2.394066 1.732137 0.003304 0.0
2.006493 0.537152 -0.000593 0.0
1.128663 1.321320 -0.002908 0.0
0.322002 0.474966 0.000578 0.0
3.244405 1.127258 -0.000785 0.0
0.443136 1.348754 -0.003478 0.0
3.968763 1.554046 0.001943 0.0
3.097829 1.840444 0.002329 0.0
3.947038 0.714498 0.000110 0.0
4.454660 0.713725 -0.002801 0.0
0.312188 0.305146 -0.001308 0.0
3.518935 0.705188 -0.003432 0.0
0.367851 0.879813 -0.001252 0.0
0.096556 0.497971 0.000512 0.0
1.686146 1.208995 0.001592 0.0
1.413499 1.478201 0.001201 0.0
0.711420 1.569652 0.001464 0.0
2.520392 1.577902 -0.002175 0.0
2.226883 0.916830 -0.002662 0.0
4.573491 1.565921 0.000423 0.0
2.072155 1.568929 -0.001002 0.0
3.548772 0.211367 0.000169 0.0
3.800471 1.527775 0.001672 0.0
0.963362 1.601559 0.000287 0.0
4.601027 1.262908 -0.000319 0.0
3.456432 0.638025 0.000507 0.0
3.857483 0.355421 0.004993 0.0
1.699856 1.106845 -0.001412 0.0
4.309134 0.559015 -0.000257 0.0
4.760082 0.328563 0.002198 0.0
1.450119 0.122432 0.003644 0.0
2.976462 0.222732 -0.002060 0.0
1.189521 0.433344 -0.005212 0.0
2.159381 0.271386 0.003853 0.0
0.857185 0.972031 0.000116 0.0
0.139004 0.902617 0.001711 0.0
1.721425 1.867720 -0.002605 0.0
2.743064 0.153766 0.000945 0.0
3.687750 1.166098 -0.004078 0.0
1.323545 1.112829 -0.003774 0.0
4.192376 1.805765 0.001061 0.0
1.805236 1.122347 -0.000747 0.0
2.215537 0.863114 -0.004523 0.0
3.310268 0.062520 0.002433 0.0
1.705493 1.767089 0.001226 0.0
0.303826 1.412628 -0.000577 0.0
3.484372 0.189390 -0.001683 0.0
0.168990 1.358589 0.000777 0.0
4.632812 1.099377 0.002133 0.0
0.414208 0.955102 -0.002399 0.0
3.816259 1.306078 0.000583 0.0
4.230729 0.793954 -0.000185 0.0
4.547978 1.729613 -0.000951 0.0
4.094688 1.124768 0.001680 0.0
2.046897 1.090743 0.001952 0.0
0.559819 1.788053 -0.002622 0.0
0.207752 0.785304 -0.001605 0.0
0.414868 0.201277 0.001856 0.0
3.888194 1.614646 0.001086 0.0
1.508717 0.791114 -0.000973 0.0
3.076976 1.906951 -0.000836 0.0
2.861619 1.198754 -0.000732 0.0
3.950074 0.659135 -0.001501 0.0
3.334961 1.905244 -0.003343 0.0
4.744271 1.018894 0.006832 0.0
0.874184 1.374573 -0.001719 0.0
3.943274 0.362486 0.005722 0.0
0.816241 0.490966 0.003080 0.0
0.119353 0.160629 -0.002260 0.0
4.518533 1.626415 -0.002028 0.0
3.393692 1.604038 -0.002013 0.0
2.189371 0.843741 -0.002120 0.0
1.695512 0.713342 -0.003368 0.0
1.970462 1.458911 0.001060 0.0
1.643588 1.305069 -0.000081 0.0
0.770104 1.608443 0.004457 0.0
1.439084 0.773696 0.000381 0.0
2.842062 1.313941 -0.000049 0.0
1.452127 1.071708 0.004315 0.0
2.600743 1.042431 0.002566 0.0
4.277426 1.448436 0.003408 0.0
1.959362 1.759115 0.002206 0.0
4.056567 0.905776 -0.000774 0.0
2.461842 0.148185 0.003108 0.0
2.374448 1.441545 0.000373 0.0
2.707916 1.046493 -0.001073 0.0
4.716395 0.915094 -0.001854 0.0
0.073250 0.271043 0.000994 0.0
1.587107 1.565673 0.002696 0.0
4.256217 1.537885 0.000725 0.0
1.300874 0.196207 0.000161 0.0
3.380753 1.778904 -0.004405 0.0
1.276016 1.123065 -0.004740 0.0
3.311553 0.422593 0.002300 0.0
2.761599 0.060573 -0.000085 0.0
4.549857 0.367495 0.003325 0.0
3.507404 1.303833 0.000019 0.0
2.179563 1.539696 0.003077 0.0
2.743228 0.747788 -0.000052 0.0
2.361044 1.550046 -0.001093 0.0
4.658820 0.724912 0.004160 0.0
0.992591 1.677657 -0.002608 0.0
3.108325 0.202471 -0.002535 0.0
4.790628 1.485497 -0.002585 0.0
1.012914 1.550275 0.001431 0.0
1.410248 1.198708 0.003189 0.0
2.211230 0.649585 -0.000100 0.0
2.110057 0.185835 0.001534 0.0
4.487069 0.382593 -0.004203 0.0
1.027687 0.341676 -0.000537 0.0
0.282518 1.385275 0.000772 0.0
2.969572 1.566673 0.000127 0.0
4.655488 1.520150 -0.001537 0.0
2.734371 0.963488 -0.001776 0.0
2.532221 0.769062 -0.004216 0.0
1.359385 1.834970 0.002053 0.0
3.543266 1.681580 0.002793 0.0
3.555664 1.761040 0.000872 0.0
0.681410 1.793147 -0.004346 0.0
-0.002135 0.397066 0.000944 0.0
2.920728 0.014647 -0.000509 0.0
1.136166 1.038712 0.002039 0.0
1.447456 1.621958 -0.000105 0.0
4.438014 1.728791 -0.001539 0.0
0.765617 1.395939 -0.003038 0.0
0.042762 1.681115 -0.001932 0.0
3.207434 1.252278 0.001181 0.0
4.181945 0.446630 0.000205 0.0
3.457466 0.830122 0.003047 0.0
1.970477 0.686248 0.000637 0.0
0.085861 0.050833 -0.000073 0.0
4.119629 0.544333 0.003547 0.0
4.791898 0.504589 -0.001840 0.0
1.417017 1.763338 -0.004433 0.0
0.818259 1.506871 -0.003784 0.0
4.132769 0.674040 -0.003637 0.0
4.271179 1.553870 0.000604 0.0
2.776847 1.096927 -0.000823 0.0
1.205583 1.611180 -0.002264 0.0
0.214841 1.692777 -0.000236 0.0
2.007349 0.102183 -0.001410 0.0
4.819134 0.834732 0.000881 0.0
3.885389 0.692752 0.000431 0.0
1.428833 1.049871 0.001290 0.0
2.878364 0.221356 0.000720 0.0
3.970701 0.967794 0.000240 0.0
4.233328 1.287127 -0.000014 0.0
1.423586 1.099568 -0.001240 0.0
2.372710 1.376569 0.001384 0.0
1.993972 0.473932 -0.000965 0.0
0.352331 1.081359 0.004655 0.0
4.774409 1.349390 0.001212 0.0
3.009819 1.134029 0.000237 0.0
1.166510 0.299686 0.000698 0.0
1.035449 1.070496 -0.003133 0.0
1.460112 1.698661 -0.001997 0.0
2.904757 0.628867 -0.000792 0.0
3.624735 1.805000 -0.004392 0.0
0.194763 1.169586 -0.003915 0.0
0.141637 1.090601 -0.000084 0.0
2.212924 0.483514 0.000648 0.0
1.959698 0.383437 -0.001725 0.0
4.581936 1.117651 0.002544 0.0
3.015686 1.224544 0.002881 0.0
4.395891 0.588045 -0.002539 0.0
0.676786 1.832671 -0.002497 0.0
3.027835 1.473633 0.000571 0.0
4.086029 0.779365 -0.001814 0.0
1.722745 1.533428 0.000427 0.0
1.534715 0.710205 0.001582 0.0
1.482600 0.638970 -0.002308 0.0
0.827345 1.333932 -0.000933 0.0
2.844672 1.339941 0.000020 0.0
0.549722 0.982131 0.005127 0.0
3.150428 1.776181 -0.002662 0.0
2.778259 1.698565 0.000003 0.0
0.639885 1.189977 0.001340 0.0
0.299779 1.411365 0.006202 0.0
0.170076 0.134053 0.000799 0.0
0.109114 0.182028 -0.000463 0.0
1.072575 0.248755 -0.001774 0.0
4.153188 0.191486 -0.001304 0.0
2.295148 0.720415 -0.001403 0.0
1.115702 0.687640 -0.003403 0.0
4.769543 1.885598 0.004801 0.0
1.807790 0.253524 0.001195 0.0
2.789935 0.665151 -0.003598 0.0
3.389247 0.171632 0.001450 0.0
1.479378 1.749310 0.000768 0.0
4.834520 1.373796 0.000946 0.0
0.295583 0.389962 0.000536 0.0
2.593907 1.168053 0.002880 0.0
0.880183 0.872586 -0.002588 0.0
3.382579 1.127686 0.000730 0.0
3.299787 0.392821 -0.001976 0.0
1.939217 0.426962 0.000256 0.0
3.076421 0.633003 0.002332 0.0
2.382274 1.907564 -0.000550 0.0
0.380969 0.446648 -0.001587 0.0
2.096576 1.498807 -0.000045 0.0
0.693445 0.257828 0.000891 0.0
2.707688 1.888062 0.003572 0.0
2.743221 1.094852 -0.000450 0.0
2.497429 1.682972 0.004840 0.0
0.422166 0.001275 -0.002572 0.0
1.204581 1.377450 -0.000776 0.0
4.333658 1.871255 -0.002513 0.0
3.849561 1.150992 0.001982 0.0
4.353328 1.872499 -0.000911 0.0
0.656375 0.262407 -0.002340 0.0
3.314063 1.880751 0.003133 0.0
2.151534 0.451714 0.000039 0.0
3.779308 0.998852 0.000711 0.0
0.878285 0.469368 0.001572 0.0
0.489755 0.416537 0.005454 0.0
3.578544 1.014123 -0.002192 0.0
0.748411 0.084993 0.004235 0.0
0.058527 1.119973 0.001261 0.0
3.358542 1.880086 -0.001891 0.0
1.129305 0.183556 -0.001206 0.0
4.697514 0.834330 -0.000117 0.0
4.240312 1.263893 0.001241 0.0
1.883771 0.540767 -0.000392 0.0
2.645190 1.800036 -0.005775 0.0
1.692798 1.286587 0.000423 0.0
1.697165 1.515594 0.000120 0.0
0.506119 0.377535 0.004884 0.0
3.143746 1.534139 0.000746 0.0
4.459725 1.241189 -0.001959 0.0
1.905301 1.767569 -0.001439 0.0
4.759708 1.914316 -0.000026 0.0
3.180408 0.619445 0.003600 0.0
3.857958 0.603559 0.000297 0.0
1.243654 1.667535 0.002258 0.0
4.792740 1.108285 -0.003031 0.0
1.983835 1.407871 0.002001 0.0
1.416182 0.083609 -0.003378 0.0
3.959691 0.461567 -0.002423 0.0
4.154225 1.683111 0.001218 0.0
2.904818 1.815942 -0.005133 0.0
0.633414 1.647266 0.006039 0.0
3.017698 0.357860 0.005653 0.0
1.075882 0.792332 0.002879 0.0
0.035908 1.106562 0.000949 0.0
4.287144 1.700076 -0.001875 0.0
2.050685 0.922560 -0.001441 0.0
1.992190 1.782254 -0.000491 0.0
1.764630 0.655811 0.004552 0.0
3.915231 0.078018 0.002058 0.0
2.150739 0.251963 -0.004791 0.0
4.591325 1.306347 0.004596 0.0
0.979912 1.214656 -0.001095 0.0
3.164260 0.834980 -0.002071 0.0
2.031789 1.898078 0.002178 0.0
1.787901 1.714372 -0.005757 0.0
0.152053 0.300772 -0.000149 0.0
4.324770 1.191487 0.002581 0.0
4.373138 0.496898 -0.000218 0.0
1.223634 0.278043 -0.003091 0.0
1.772025 0.055600 0.000098 0.0
0.995936 1.141786 -0.001936 0.0
1.044995 0.804492 0.005804 0.0
3.873624 1.526892 -0.002075 0.0
1.634493 0.386081 0.001283 0.0
0.478035 1.238584 -0.001513 0.0
4.258712 1.475106 0.000633 0.0
0.205688 0.617127 -0.001512 0.0
2.411416 1.464544 -0.001051 0.0
3.087896 0.349158 0.003286 0.0
0.672240 0.933161 -0.003368 0.0
3.045733 1.578181 0.000411 0.0
3.992566 0.854010 0.000958 0.0
0.693064 0.851214 0.002269 0.0
4.746807 0.584442 -0.004577 0.0
2.552361 0.129031 -0.001325 0.0
4.492831 1.514308 0.000534 0.0
0.972073 0.013835 0.001643 0.0
4.601606 0.966158 0.002343 0.0
1.391476 0.751343 -0.000802 0.0
3.639366 1.131137 0.002437 0.0
2.621455 1.197374 0.001722 0.0
4.790609 0.736211 0.002240 0.0
4.380526 1.346368 0.004884 0.0
4.014997 0.343054 -0.002596 0.0
0.361776 1.202071 0.003418 0.0
1.563857 1.018490 0.002550 0.0
2.315739 0.557936 -0.001404 0.0
4.500592 1.718241 0.001059 0.0
1.841055 1.871749 -0.000147 0.0
4.029245 1.318779 -0.004016 0.0
0.794713 1.308588 0.000597 0.0
1.358003 1.863099 0.002349 0.0
1.985977 0.959171 0.004205 0.0
1.877599 0.581560 0.001912 0.0
1.729693 1.193099 0.002109 0.0
1.442538 1.137642 0.004473 0.0
2.438365 1.629603 -0.004807 0.0
3.988017 0.204531 0.004553 0.0
1.254853 0.236276 0.000411 0.0
0.655843 0.852928 -0.002165 0.0
3.042710 1.183272 -0.001241 0.0
3.533290 1.321064 -0.001002 0.0
1.354754 1.770081 0.000425 0.0
2.939157 1.098514 0.000387 0.0
4.156667 0.517367 -0.002505 0.0
4.248794 1.609090 -0.002288 0.0
3.038809 1.677327 -0.000321 0.0
3.202746 1.518759 0.004199 0.0
1.957376 1.258409 0.000831 0.0
1.788803 1.568665 0.002172 0.0
0.872650 0.774118 0.000610 0.0
0.752947 1.294825 -0.003367 0.0
1.135502 0.100690 -0.000682 0.0
0.761378 1.662152 0.000707 0.0
1.465520 0.527090 0.000973 0.0
3.319648 1.708681 0.000858 0.0
3.425189 0.328493 0.000324 0.0
0.919359 1.583487 -0.009812 0.0
4.343352 0.449623 -0.000860 0.0
4.343174 1.052745 -0.002419 0.0
4.784526 0.454980 0.003428 0.0
3.344526 0.958642 -0.005549 0.0
2.808901 0.095819 0.001878 0.0
4.747761 1.803104 -0.001769 0.0
0.564458 0.851381 -0.002192 0.0
0.877257 1.212317 -0.001667 0.0
3.678381 1.770313 0.001000 0.0
0.421819 0.722084 0.002863 0.0
2.267809 0.977377 0.000424 0.0
4.164348 0.904001 -0.000008 0.0
3.011446 1.848729 0.001960 0.0
2.843700 1.799606 -0.000033 0.0
1.508511 0.248164 0.003941 0.0
1.221652 0.504295 -0.001623 0.0
3.370693 1.120814 -0.004161 0.0
4.279511 0.389828 0.000719 0.0
3.926928 1.363853 0.002260 0.0
0.966586 1.459728 -0.000752 0.0
2.791180 0.185720 -0.000609 0.0
0.833799 1.460875 -0.000338 0.0
2.567852 0.483171 0.001471 0.0
2.866551 0.929102 0.000986 0.0
4.370152 0.932631 -0.000527 0.0
2.468056 0.965951 0.001125 0.0
3.632696 1.352985 -0.005757 0.0
3.950787 0.851237 0.003918 0.0
2.317670 0.961914 -0.001440 0.0
3.032583 1.732945 0.006650 0.0
4.449544 1.495127 0.000108 0.0
4.547405 1.584933 -0.001598 0.0
2.570974 0.040724 -0.000804 0.0
0.455852 0.783566 -0.002096 0.0
4.824367 0.647584 -0.000223 0.0
3.664615 0.843431 -0.007736 0.0
1.668848 1.555830 -0.004710 0.0
3.690353 0.532718 0.000134 0.0
3.102191 1.335862 0.000797 0.0
4.320431 1.891946 0.003345 0.0
3.548526 1.592801 0.003547 0.0
3.538317 1.840106 -0.003877 0.0
0.776397 0.504878 0.000686 0.0
4.144650 1.154952 -0.000068 0.0
2.726074 0.875897 0.000688 0.0
2.453940 0.203684 -0.000007 0.0
2.533602 0.990317 0.000204 0.0
0.801487 1.873344 0.000579 0.0
2.431450 0.017152 0.004685 0.0
0.189968 0.012370 -0.000696 0.0
1.783034 0.035657 0.001323 0.0
0.551889 0.092747 -0.001372 0.0
4.238404 0.674296 -0.004257 0.0
2.379438 0.769734 0.002863 0.0
2.658543 0.655366 0.000015 0.0
3.058036 0.831038 -0.002905 0.0
4.667598 1.515664 -0.001079 0.0
3.316796 0.060068 0.000014 0.0
1.947802 1.402298 0.001199 0.0
0.970834 0.771766 -0.002568 0.0
0.280873 1.854584 0.001858 0.0
2.742996 1.347180 0.000192 0.0
1.725496 0.206414 0.001327 0.0
2.488739 0.544055 0.004572 0.0
1.331653 0.053159 0.005057 0.0
3.383208 0.153164 -0.001999 0.0
3.111825 0.388277 -0.001094 0.0
2.396780 0.869628 0.000115 0.0
2.905889 1.021318 0.000242 0.0
0.544830 0.248425 -0.003171 0.0
2.809014 0.935913 0.001464 0.0
4.047610 1.736612 -0.001398 0.0
3.443032 1.328715 0.000945 0.0
1.029626 1.061672 0.000660 0.0
1.474497 1.092596 -0.003237 0.0
3.901552 0.561719 0.003117 0.0
3.474172 0.206335 0.002343 0.0
4.036776 0.427228 -0.000452 0.0
4.443569 1.264775 0.000551 0.0
2.836662 1.119281 0.001172 0.0
4.009936 1.788128 -0.001132 0.0
3.103054 0.782589 0.000746 0.0
3.952156 1.226697 -0.000895 0.0
3.665726 0.605072 -0.001719 0.0
4.302387 1.607882 0.000130 0.0
4.612506 1.724587 -0.000000 0.0
4.413388 1.020003 0.001666 0.0
3.210162 0.083196 -0.000335 0.0
2.191557 1.231583 -0.003284 0.0
2.926830 0.895619 -0.000478 0.0
2.911494 1.670183 -0.000093 0.0
3.080564 1.397212 0.001076 0.0
1.653793 1.197206 0.002622 0.0
1.724016 1.596725 -0.003962 0.0
1.050471 1.831830 0.001910 0.0
2.492790 0.386851 0.005066 0.0
2.365014 1.453556 -0.002256 0.0
1.232753 0.748150 0.000278 0.0
1.439458 1.849659 -0.002275 0.0
4.511838 1.538350 0.000766 0.0
2.314963 0.287314 0.000250 0.0
0.127067 1.222191 -0.005404 0.0
0.891584 1.159882 0.002159 0.0
4.010280 0.572952 -0.000792 0.0
3.629416 0.917457 -0.002440 0.0
0.126189 0.327274 0.000280 0.0
1.024523 0.886301 0.001616 0.0
3.872377 0.750799 -0.001217 0.0
3.239833 1.491938 0.002135 0.0
1.664979 1.078375 0.000398 0.0
2.890459 0.107332 -0.005632 0.0
2.410183 1.271391 0.001287 0.0
0.215988 1.609716 0.002109 0.0
0.532368 1.681530 -0.000200 0.0
3.772079 0.408197 0.000337 0.0
1.903010 0.180297 0.002222 0.0
1.642029 0.634190 0.001107 0.0
4.390316 0.365970 0.003069 0.0
2.115269 1.753570 0.001939 0.0
4.232946 0.459958 0.000819 0.0
4.830506 0.162935 0.001087 0.0
1.358489 0.290528 0.001890 0.0
1.144857 1.684795 0.003743 0.0
2.440362 0.960405 0.001941 0.0
4.566695 1.275165 -0.000007 0.0
0.305508 1.685233 -0.001236 0.0
3.223741 1.381131 -0.003836 0.0
4.294267 1.856795 0.002212 0.0
3.895238 1.755195 0.001653 0.0
1.672135 0.426517 0.001295 0.0
0.134850 1.118149 -0.000519 0.0
1.948910 1.340893 -0.000874 0.0
1.458397 1.241117 -0.003995 0.0
3.224503 0.580235 -0.001403 0.0
4.592859 0.377324 0.001462 0.0
3.752421 0.562876 0.003667 0.0
4.222799 0.421191 0.000073 0.0
3.402349 0.995095 0.000564 0.0
3.006248 0.329316 -0.001695 0.0
3.443878 1.883773 -0.000957 0.0
1.278733 0.723042 -0.004276 0.0
3.571771 0.140805 -0.000069 0.0
1.847289 1.741435 0.001402 0.0
1.653223 0.050968 -0.001257 0.0
2.857697 0.895537 0.004662 0.0
0.701633 1.310741 0.003442 0.0
3.288175 1.572471 -0.002068 0.0
3.708627 1.065017 -0.000198 0.0
3.930158 1.879556 -0.000804 0.0
3.636503 1.155344 -0.004058 0.0
0.914660 0.293772 0.000822 0.0
3.731289 0.063804 -0.001945 0.0
4.207046 1.406365 0.001864 0.0
3.508608 0.100637 0.001616 0.0
3.440801 1.593373 -0.001299 0.0
3.054397 0.685846 0.001888 0.0
1.629412 1.132026 -0.001058 0.0
0.676444 0.786976 -0.001128 0.0
0.043862 0.983362 0.000332 0.0
0.499636 1.218976 -0.003916 0.0
2.417023 1.615291 -0.003296 0.0
1.474579 1.708580 0.000599 0.0
4.427916 0.023980 0.002655 0.0
2.026763 1.017618 0.001158 0.0
4.233329 1.759080 -0.000121 0.0
4.459661 1.210626 -0.002198 0.0
1.352772 0.999455 -0.000384 0.0
4.050899 1.888398 0.000731 0.0
3.423904 1.383391 0.002120 0.0
2.186557 0.305656 -0.003078 0.0
1.245177 1.167007 0.001077 0.0
1.775005 1.730097 -0.000139 0.0
4.796532 0.193289 -0.001314 0.0
3.659371 1.246538 0.001263 0.0
0.665446 1.126935 -0.001938 0.0
0.470362 0.354546 -0.000012 0.0
4.412121 0.768615 -0.000327 0.0
0.984954 0.270054 -0.004462 0.0
3.902703 1.164032 -0.003178 0.0
3.822278 0.028289 0.003535 0.0
1.405149 0.397015 -0.000053 0.0
4.393571 0.526421 0.000485 0.0
3.166207 1.359925 -0.000329 0.0
3.798627 1.857455 -0.001773 0.0
0.412939 0.545436 0.000646 0.0
4.159302 1.199663 -0.004362 0.0
3.671693 1.559584 -0.000447 0.0
2.480872 0.132336 0.003582 0.0
1.594230 0.608959 -0.002894 0.0
2.514214 0.960387 0.003016 0.0
3.966379 1.784888 -0.004216 0.0
1.740516 1.910177 0.003092 0.0
2.947353 0.552181 -0.002229 0.0
0.349987 1.913719 0.001334 0.0
0.680709 0.072739 0.000237 0.0
0.560026 1.283942 -0.002464 0.0
2.905827 1.194102 -0.000149 0.0
1.296779 1.080889 -0.000899 0.0
2.458640 0.734228 -0.001432 0.0
4.256741 0.350938 0.003506 0.0
2.415877 1.898712 -0.000694 0.0
4.136073 1.778434 0.001285 0.0
0.566151 1.244483 0.000911 0.0
1.417911 1.088466 -0.002233 0.0
4.044847 0.985456 -0.000650 0.0
0.202885 1.051068 0.001768 0.0
4.137439 0.017730 0.000566 0.0
2.194148 0.874207 0.000444 0.0
3.755066 0.537842 0.001374 0.0
4.475921 1.903540 -0.002925 0.0
4.141046 1.256897 -0.001489 0.0
3.829021 0.399859 -0.001246 0.0
4.292779 1.891051 0.003444 0.0
2.611285 0.047178 -0.002228 0.0
2.526377 0.638195 -0.004101 0.0
4.248642 0.613362 0.000090 0.0
0.819038 0.837062 -0.002825 0.0
1.940723 1.414516 0.002525 0.0
0.490580 0.137243 -0.001504 0.0
3.680721 1.457502 0.000368 0.0
4.281613 1.122885 0.004642 0.0
3.831323 0.949568 -0.002657 0.0
2.563744 0.004664 0.001687 0.0
3.993846 0.822954 -0.001098 0.0
4.008163 1.677990 0.000494 0.0
0.653475 1.263550 0.001721 0.0
4.488683 0.432337 -0.000658 0.0
4.166611 0.758436 0.000788 0.0
1.057699 0.422429 -0.009346 0.0
0.908300 0.286267 0.000623 0.0
0.898657 0.310275 0.001547 0.0
1.931251 0.144555 0.003657 0.0
1.781180 1.599808 -0.006145 0.0
2.586451 0.766529 -0.002201 0.0
1.822610 0.828564 -0.001754 0.0
1.635398 1.625135 -0.000515 0.0
4.599560 0.271635 0.001341 0.0
3.542363 1.459574 0.001677 0.0
0.468758 0.448913 0.001339 0.0
3.218508 1.258794 0.004932 0.0
2.275022 1.101916 0.000311 0.0
3.449085 0.783553 0.002925 0.0
3.616271 1.467982 0.002309 0.0
0.198310 0.016976 -0.001683 0.0
0.465345 0.185161 -0.000118 0.0
2.196006 0.991516 0.004569 0.0
0.437132 1.579505 0.001327 0.0
4.030055 1.218524 -0.000340 0.0
0.565645 1.180248 -0.000147 0.0
3.962236 1.562545 -0.000494 0.0
1.599165 1.397643 0.001163 0.0
0.346923 1.082297 0.000187 0.0
1.094405 0.143357 0.003724 0.0
0.537770 0.872654 -0.001409 0.0
1.092860 1.013999 0.001271 0.0
2.246408 1.868238 0.003214 0.0
4.461316 0.749760 -0.003174 0.0
2.502442 1.920541 0.000199 0.0
0.065852 1.869168 -0.000173 0.0
2.847093 0.889054 0.002967 0.0
3.727508 1.731548 0.001760 0.0
4.477050 1.262669 0.001103 0.0
3.442579 0.602103 -0.003110 0.0
3.844590 0.878025 -0.000997 0.0
4.509208 1.462156 -0.001446 0.0
3.323344 1.792799 0.003370 0.0
1.524726 0.043791 0.005448 0.0
0.544344 0.763131 0.005078 0.0
4.817938 0.293290 0.001618 0.0
3.639835 1.575154 -0.001674 0.0
1.535766 0.225925 0.000523 0.0
0.136523 1.102380 -0.001621 0.0
3.824210 0.665452 0.001855 0.0
1.756701 0.554984 -0.001627 0.0
1.083832 1.013524 0.001640 0.0
1.369168 0.238538 0.002335 0.0
2.805549 1.827472 0.002083 0.0
0.802636 1.332442 -0.004579 0.0
0.556533 0.991592 -0.000918 0.0
4.156849 0.672241 -0.001301 0.0
3.734268 1.710861 0.004673 0.0
2.662219 1.690211 -0.001981 0.0
3.728586 0.903803 0.002072 0.0
4.145273 1.712292 0.006809 0.0
3.227928 0.621918 -0.001929 0.0
1.652654 0.405928 0.001742 0.0
2.096414 0.921835 -0.001873 0.0
1.416806 0.120650 -0.002636 0.0
3.681787 1.070487 -0.001204 0.0
2.701384 1.415561 0.005166 0.0
4.620567 0.373480 0.002033 0.0
1.050232 1.829182 0.001925 0.0
2.363450 0.249444 -0.002563 0.0
4.374712 0.557229 0.001549 0.0
0.879672 1.009842 0.002373 0.0
1.932735 1.272272 -0.002031 0.0
3.892687 0.673535 -0.001416 0.0
4.607593 1.778467 -0.001874 0.0
0.384324 1.720973 -0.001257 0.0
2.916651 0.609177 0.000494 0.0
0.644706 1.069194 -0.003312 0.0
3.220530 0.133265 0.000476 0.0
1.698612 1.390764 0.001189 0.0
0.200705 1.793102 0.001851 0.0
2.359169 0.186255 -0.005046 0.0
1.736003 0.937384 -0.002120 0.0
3.855682 1.147893 -0.001829 0.0
3.127839 1.787316 -0.001647 0.0
3.449067 1.452495 -0.001782 0.0
1.528139 0.383630 -0.003478 0.0
1.971074 0.765603 0.000224 0.0
4.838981 0.723307 0.000251 0.0
4.555300 1.174059 0.004869 0.0
2.758734 1.769752 0.000579 0.0
1.186210 1.406527 -0.000509 0.0
2.116627 0.855913 -0.004021 0.0
1.394096 0.302858 -0.001166 0.0
0.279035 1.235144 0.000875 0.0
0.977926 0.790407 -0.002423 0.0
4.473092 0.596765 -0.001320 0.0
3.821299 0.917336 0.000569 0.0
2.572428 0.845132 -0.000843 0.0
4.425063 1.635285 -0.001678 0.0
1.768797 1.668605 0.001218 0.0
3.767713 0.817345 -0.001072 0.0
4.710347 1.705300 -0.003382 0.0
4.505773 0.453251 -0.002796 0.0
3.712040 0.159262 0.005542 0.0
1.022451 1.507350 -0.000035 0.0
1.439800 1.168481 0.001357 0.0
0.141286 1.893878 -0.004238 0.0
3.490641 0.886928 -0.005460 0.0
2.037771 1.367430 -0.000995 0.0
2.404402 1.427704 -0.003169 0.0
2.913449 1.716121 0.000485 0.0
2.232474 0.363752 0.000559 0.0
4.819649 1.143218 -0.002719 0.0
1.619586 0.330793 0.004426 0.0
2.991729 1.773251 -0.000489 0.0
2.464329 1.783352 -0.004351 0.0
0.541617 0.631913 0.005448 0.0
3.074300 0.469984 -0.000366 0.0
0.833215 1.429782 -0.002502 0.0
3.393620 1.667359 0.001932 0.0
0.439613 0.962877 -0.000688 0.0
4.500865 0.041843 0.001734 0.0
2.739525 0.286094 0.001455 0.0
1.418727 1.598473 -0.000654 0.0
3.001662 1.855169 -0.000817 0.0
4.553693 1.738339 -0.002901 0.0
0.887536 1.451574 0.002170 0.0
1.917450 0.562340 0.001479 0.0
4.121612 0.713589 0.000314 0.0
1.028192 0.925607 -0.000872 0.0
1.631362 1.556149 0.002066 0.0
3.750757 0.762723 -0.000261 0.0
2.100611 0.514888 0.002731 0.0
4.538363 0.514652 -0.001093 0.0
4.842178 1.795619 0.001549 0.0
4.672401 1.007264 0.002240 0.0
2.837854 1.347506 0.000906 0.0
2.633829 1.816036 0.002237 0.0
1.568788 1.315612 -0.002175 0.0
4.016921 0.555770 -0.003964 0.0
4.619062 0.651269 -0.001214 0.0
1.557393 0.489073 0.001156 0.0
2.048919 1.057820 0.000671 0.0
1.785519 0.526151 -0.002314 0.0
2.134845 0.859885 0.001316 0.0
0.292805 0.272387 -0.003930 0.0
3.964927 0.743400 -0.001885 0.0
2.214011 1.249555 -0.000516 0.0
4.558553 1.626292 0.000467 0.0
1.735002 1.241907 0.001426 0.0
2.506797 0.049929 -0.000059 0.0
4.744766 0.725653 -0.000322 0.0
4.752698 0.815557 -0.000115 0.0
1.964361 0.423022 0.000031 0.0
4.554537 0.642719 0.002436 0.0
0.279748 0.733444 -0.003103 0.0
2.963088 1.285248 -0.000841 0.0
4.637857 0.848964 0.000864 0.0
3.642459 0.558469 0.004492 0.0
0.743634 1.536410 -0.001055 0.0
3.928415 1.021686 0.000497 0.0
2.815327 0.227458 -0.002140 0.0
0.555390 1.263240 -0.000929 0.0
3.506173 1.446421 -0.006189 0.0
3.893784 0.884302 0.000518 0.0
2.656131 1.887866 -0.001979 0.0
1.569503 0.544635 0.000084 0.0
2.446689 0.260479 0.000630 0.0
0.998171 0.340270 -0.001032 0.0
1.151374 0.258857 -0.003234 0.0
