1.683152 0.418570 0.003990 0.0
3.547900 0.104232 -0.000363 0.0
3.760225 1.066273 -0.000744 0.0
0.099050 1.730593 0.001362 0.0
4.802504 1.788803 -0.001632 0.0
0.706799 1.991610 0.002122 0.0
2.915368 1.774318 -0.001171 0.0
3.052547 0.181913 0.000761 0.0
2.724076 0.823535 -0.001320 0.0
0.479783 1.750621 0.000619 0.0
3.577396 0.002198 0.000825 0.0
3.772596 1.006049 -0.002982 0.0
3.718930 0.938829 -0.003005 0.0
4.464559 0.714843 -0.003751 0.0
3.486161 1.955541 0.000655 0.0
1.956539 2.009483 0.000496 0.0
1.965360 1.250560 -0.001196 0.0
4.673870 1.570986 0.001409 0.0
1.309449 1.865340 -0.001897 0.0
1.690617 0.897276 -0.002205 0.0
2.450925 0.722125 0.001075 0.0
1.145236 1.894491 0.000583 0.0
2.608638 1.360944 -0.004528 0.0
3.518962 1.287530 -0.003132 0.0
0.820971 0.495993 0.002264 0.0
3.924233 0.639114 0.001508 0.0
4.362602 1.812511 0.000368 0.0
0.032231 0.499542 0.000667 0.0
3.447101 1.167142 0.002198 0.0
0.342175 0.146059 0.003833 0.0
1.940333 1.405021 -0.001337 0.0
3.163538 0.197538 0.000644 0.0
0.382758 0.330521 0.000276 0.0
2.018621 1.789795 -0.006468 0.0
4.163577 0.763220 -0.002161 0.0
4.753000 1.694857 -0.000124 0.0
2.498413 1.802426 0.000563 0.0
2.323303 1.644794 -0.003143 0.0
4.555836 1.290601 0.003096 0.0
3.364044 0.252357 -0.000563 0.0
1.718172 0.798285 -0.000187 0.0
3.422533 0.571441 -0.002346 0.0
4.015232 1.132706 0.002162 0.0
3.134275 0.586025 0.004600 0.0
1.204051 0.651284 0.001121 0.0
1.811322 0.759839 0.000467 0.0
4.579972 1.828021 -0.001653 0.0
2.827847 0.797858 0.002562 0.0
3.753440 0.994322 0.004313 0.0
0.535415 0.891691 -0.001880 0.0
2.011031 0.930431 -0.001715 0.0
3.040663 0.995909 0.001994 0.0
4.787478 0.296528 -0.002226 0.0
4.870633 0.064746 0.007302 0.0
4.618556 1.936298 0.003515 0.0
1.980199 1.923220 0.000027 0.0
2.519172 1.041318 0.002552 0.0
3.357711 1.901208 -0.004695 0.0
1.830898 1.560719 -0.002662 0.0
4.815638 1.431557 -0.002767 0.0
3.009022 1.236286 0.000618 0.0
1.409804 0.193255 0.002757 0.0
0.608159 2.057859 -0.000911 0.0
2.213697 1.112593 0.002270 0.0
2.690707 0.473410 -0.006318 0.0
4.564905 0.251146 -0.004024 0.0
1.804238 0.540574 0.000111 0.0
4.914298 1.281722 -0.003442 0.0
3.233273 0.448769 -0.001925 0.0
3.388372 0.949435 -0.002697 0.0
2.298140 1.468081 0.000353 0.0
3.900128 1.735579 -0.002430 0.0
4.776345 1.125588 -0.004584 0.0
4.846651 1.884443 -0.002063 0.0
3.262576 1.309145 0.002577 0.0
4.430922 1.241355 -0.000838 0.0
2.787144 0.230339 -0.000021 0.0
3.795946 1.583014 -0.002334 0.0
4.350420 1.252610 0.001024 0.0
1.597962 0.264320 -0.001380 0.0
0.388091 1.769801 0.004540 0.0
2.667736 0.964338 0.001853 0.0
3.207305 0.956989 -0.002915 0.0
1.442843 1.998426 -0.001651 0.0
2.741050 1.980304 0.000994 0.0
2.922224 1.399126 0.003111 0.0
2.599236 0.739350 0.000686 0.0
1.647052 1.615191 -0.003908 0.0
3.509705 1.585155 -0.000006 0.0
4.567684 1.458400 -0.000397 0.0
0.937187 0.629617 0.000167 0.0
3.699488 0.708420 -0.008107 0.0
0.121249 0.331750 0.001263 0.0
2.259967 0.615278 -0.001936 0.0
4.165955 0.200464 -0.001239 0.0
1.767636 0.579305 0.001865 0.0
1.618528 0.416385 -0.002156 0.0
4.579084 0.250731 0.000650 0.0
2.583301 0.474105 0.004158 0.0
4.261747 1.467642 0.003824 0.0
0.365177 1.757400 0.000253 0.0
3.070166 1.472585 -0.001439 0.0
1.303224 0.927410 0.000439 0.0
2.457121 0.125089 0.001751 0.0
0.936180 0.344243 -0.000902 0.0
3.863402 0.431811 0.000923 0.0
3.748309 1.930528 -0.000098 0.0
3.937873 0.125855 0.002569 0.0
4.458759 0.023002 -0.001153 0.0
4.548437 0.250469 0.000880 0.0
4.287702 0.774206 0.001952 0.0
1.666263 1.669588 0.003585 0.0
2.067147 1.592983 -0.004584 0.0
4.121115 1.873238 -0.001335 0.0
0.791765 0.074808 -0.005023 0.0
0.274164 1.310993 0.000547 0.0
1.499355 1.523409 0.000404 0.0
0.426694 1.629617 -0.001476 0.0
2.848777 0.456674 -0.001109 0.0
3.803706 1.098102 0.000020 0.0
3.801819 1.763676 0.003342 0.0
1.519248 0.180433 -0.002647 0.0
2.886818 1.444036 0.003922 0.0
4.487615 0.183194 -0.000506 0.0
0.138543 0.518576 -0.001682 0.0
0.062570 1.193364 0.000847 0.0
3.823331 0.333267 0.000573 0.0
0.718500 0.125535 -0.001187 0.0
1.281728 1.153055 0.007172 0.0
0.429070 1.455471 0.000865 0.0
1.783007 1.469234 -0.000939 0.0
0.892083 1.287996 -0.000724 0.0
2.244548 0.884429 0.000090 0.0
1.662413 2.007620 0.001150 0.0
4.736558 1.895791 -0.000757 0.0
4.239559 1.682055 -0.004274 0.0
3.518475 0.092629 0.001434 0.0
0.681989 1.143995 0.000588 0.0
0.304955 0.515580 0.004169 0.0
0.178870 1.374194 0.003080 0.0
0.389111 0.175980 -0.000855 0.0
2.911833 1.321339 -0.001458 0.0
2.419932 0.980323 -0.001054 0.0
2.437763 0.912606 0.001624 0.0
0.447841 1.156000 0.000337 0.0
0.811643 1.914035 -0.001007 0.0
1.347218 0.259086 -0.000290 0.0
0.277714 0.642834 0.001582 0.0
2.271126 0.649903 -0.004177 0.0
4.904754 0.418872 0.001499 0.0
2.388329 1.684733 0.002306 0.0
1.096501 1.047761 0.001590 0.0
2.255108 0.258672 -0.003364 0.0
1.147784 1.711647 -0.001733 0.0
0.014378 1.379071 -0.002335 0.0
2.322028 0.051163 -0.001664 0.0
2.344561 0.632756 0.002434 0.0
0.442725 2.015795 -0.001138 0.0
4.464046 0.251528 0.004626 0.0
2.277741 0.232027 0.001253 0.0
2.314874 1.360495 0.001367 0.0
3.526817 2.016198 -0.004399 0.0
0.335255 1.888937 0.000060 0.0
0.614041 0.303398 0.000012 0.0
0.999114 0.425023 0.002715 0.0
0.845278 1.500019 0.000648 0.0
1.926550 0.177675 -0.001968 0.0
0.740971 0.970567 0.001640 0.0
1.216304 1.859226 -0.003572 0.0
4.221675 1.371185 -0.000797 0.0
0.527629 1.075503 0.001521 0.0
4.538559 1.597622 0.003581 0.0
3.078108 1.668499 0.004140 0.0
1.300903 1.928480 -0.000941 0.0
1.623257 1.308572 -0.003367 0.0
3.417821 1.824000 -0.002213 0.0
3.617252 0.483618 0.001370 0.0
1.200474 1.641306 0.000327 0.0
4.650374 1.748125 0.001097 0.0
4.919322 0.551238 0.002369 0.0
3.303222 0.500884 0.002883 0.0
2.698743 1.480509 0.003174 0.0
3.503453 0.166311 -0.005692 0.0
2.274458 1.129083 0.003356 0.0
0.703789 1.592718 0.000605 0.0
4.619409 1.805306 -0.003594 0.0
1.077154 0.446841 -0.001465 0.0
4.920620 0.275278 0.003269 0.0
1.828075 1.936310 0.002832 0.0
0.205949 0.057393 0.000317 0.0
2.382557 1.284421 -0.003348 0.0
1.552102 0.782436 0.000787 0.0
4.206605 1.653802 -0.000778 0.0
4.577065 1.390771 0.003132 0.0
2.191546 1.322598 -0.000012 0.0
3.220815 1.533996 0.001821 0.0
2.909222 1.609273 0.002425 0.0
1.332006 2.074428 -0.003035 0.0
2.063294 1.325383 0.001681 0.0
4.468063 1.561470 0.001116 0.0
2.919882 0.661148 0.000471 0.0
4.371518 0.907075 0.002392 0.0
3.624861 1.702199 0.000027 0.0
4.131554 1.583004 -0.002375 0.0
3.377580 1.764011 -0.001300 0.0
0.324704 0.118932 0.000132 0.0
4.277233 0.203170 0.000560 0.0
4.779069 1.171838 -0.000398 0.0
3.522578 0.746779 0.000858 0.0
4.552140 1.320120 -0.000415 0.0
0.177877 0.323274 -0.001878 0.0
0.741955 0.404125 -0.002084 0.0
4.600706 2.072990 0.000155 0.0
3.463727 1.728169 0.001346 0.0
4.196752 0.415964 0.000225 0.0
1.420649 1.072024 -0.001057 0.0
1.986127 0.644230 -0.002993 0.0
2.529857 0.935166 -0.003568 0.0
1.884619 0.871831 -0.005923 0.0
1.931004 1.497559 -0.001736 0.0
2.113486 0.188625 0.001092 0.0
0.617261 0.428177 0.003950 0.0
2.192193 0.684384 0.001907 0.0
2.444045 0.633399 -0.001109 0.0
3.510785 0.853205 -0.001059 0.0
0.471758 0.473670 0.002677 0.0
3.864764 1.435581 0.003829 0.0
4.478888 1.922446 -0.002547 0.0
4.906961 0.500812 0.002264 0.0
4.601632 0.413296 0.006829 0.0
1.436496 1.585576 -0.001424 0.0
1.279987 1.743114 -0.004230 0.0
0.794331 0.289284 0.001498 0.0
0.925488 0.713980 -0.001281 0.0
1.222272 1.820326 0.000867 0.0
1.499197 1.396855 -0.000197 0.0
2.451545 1.079985 0.007237 0.0
2.620172 1.103457 -0.000336 0.0
0.243670 0.014030 -0.001460 0.0
1.378288 1.474987 -0.000320 0.0
2.052965 1.326281 0.002822 0.0
0.327618 1.303135 -0.001717 0.0
1.799897 0.294836 -0.002676 0.0
2.284297 1.008647 0.000710 0.0
2.466510 1.570476 0.004670 0.0
1.627216 0.095465 0.001654 0.0
3.062913 1.803188 0.000416 0.0
4.553185 0.686695 0.000090 0.0
0.503414 2.032785 -0.003264 0.0
0.106839 2.054035 0.000500 0.0
0.398518 0.081932 -0.000831 0.0
4.913802 2.021233 -0.001565 0.0
3.612986 0.006154 0.000937 0.0
0.105457 1.739941 0.003727 0.0
1.748198 1.460807 -0.001098 0.0
2.788543 0.672939 0.001821 0.0
4.357484 1.958323 -0.004778 0.0
0.544961 1.710490 -0.000030 0.0
3.001231 1.307279 -0.003270 0.0
3.398712 0.710318 0.001954 0.0
4.446288 0.441063 -0.000341 0.0
4.387280 1.327905 0.001306 0.0
2.432459 0.210613 0.000043 0.0
2.875959 1.054258 -0.002926 0.0
4.223586 0.761272 0.002288 0.0
3.834838 1.671631 0.002955 0.0
1.436387 0.653408 0.003459 0.0
1.123322 1.619529 0.002068 0.0
3.185217 0.293570 0.000851 0.0
4.711706 0.636294 0.000571 0.0
1.431887 1.289605 0.003098 0.0
2.893268 0.521704 -0.003276 0.0
1.868145 0.611153 -0.001223 0.0
4.209753 1.761584 0.001588 0.0
3.241622 0.707489 0.003162 0.0
3.757628 1.550562 -0.003514 0.0
3.307469 0.101773 0.000157 0.0
3.321377 0.258537 -0.000398 0.0
0.189371 0.106198 0.003035 0.0
1.503257 1.393232 -0.002729 0.0
4.110223 1.244200 0.000811 0.0
2.915277 0.985489 0.003006 0.0
1.916949 1.730222 0.004338 0.0
2.793872 1.659506 -0.001621 0.0
3.406012 0.067474 0.003615 0.0
3.716341 1.363274 -0.001898 0.0
1.389236 0.415322 0.000283 0.0
0.923979 0.053904 0.000750 0.0
2.192957 1.898387 0.002535 0.0
3.241631 0.925159 0.004527 0.0
1.384134 0.586063 -0.003423 0.0
2.086120 0.730482 0.001824 0.0
3.210390 1.119787 0.005308 0.0
4.760752 1.394817 -0.004606 0.0
2.892383 1.766195 -0.001833 0.0
4.668143 1.386389 0.004822 0.0
2.684312 0.864862 0.002251 0.0
4.283512 0.331499 -0.002838 0.0
0.482754 1.924588 -0.002230 0.0
1.615346 1.103218 0.000300 0.0
2.426436 0.040862 -0.004926 0.0
4.090555 1.639206 0.002092 0.0
0.722897 1.560286 -0.001623 0.0
0.417075 1.879333 -0.000798 0.0
3.213854 0.276654 -0.002548 0.0
3.972996 1.275425 0.000186 0.0
0.797538 1.150707 0.002355 0.0
3.774971 1.387034 0.000773 0.0
4.723876 0.542447 -0.001483 0.0
2.295576 1.237227 -0.005136 0.0
2.460481 0.411388 -0.003635 0.0
3.872208 0.127869 -0.000854 0.0
0.826972 1.104156 -0.003103 0.0
2.010300 0.920329 0.000820 0.0
4.532417 0.237186 -0.002249 0.0
0.908315 0.403270 -0.000516 0.0
2.528117 2.019723 -0.002655 0.0
3.156687 1.587087 0.002861 0.0
2.233961 0.589772 -0.001254 0.0
2.306081 1.914169 -0.002531 0.0
3.877993 0.900747 -0.004624 0.0
1.768182 0.931806 -0.000408 0.0
2.361359 1.643203 -0.002097 0.0
4.826756 0.724915 0.004324 0.0
2.753608 1.282678 0.001044 0.0
0.506649 0.519046 -0.000268 0.0
1.611044 2.001809 -0.000911 0.0
3.184658 1.545194 0.001670 0.0
3.818162 1.947681 0.000354 0.0
3.806586 1.098423 0.004651 0.0
1.333069 0.971968 -0.000986 0.0
3.007771 1.622363 0.001335 0.0
3.188651 0.324321 0.000583 0.0
2.530423 0.290570 -0.001966 0.0
0.721359 1.408500 0.001996 0.0
3.914041 0.495551 -0.000973 0.0
1.033788 1.695691 0.000868 0.0
1.461960 0.679074 -0.000493 0.0
0.553135 1.355483 0.003109 0.0
3.123178 1.318347 -0.000213 0.0
3.169965 2.011200 0.001002 0.0
1.684070 2.060447 0.002885 0.0
0.745487 1.392234 -0.003598 0.0
1.684441 0.789695 0.001352 0.0
1.176291 1.367386 0.003545 0.0
1.318727 0.084223 0.000197 0.0
3.802459 1.513004 -0.005419 0.0
2.099558 0.474294 -0.002753 0.0
3.588175 0.991606 -0.001446 0.0
2.582153 1.676374 0.000977 0.0
3.727189 0.044972 -0.001510 0.0
1.705754 1.253911 -0.001849 0.0
0.289084 1.822055 -0.003157 0.0
0.640631 0.525521 -0.001614 0.0
1.868510 1.314966 -0.001476 0.0
0.236537 0.796064 -0.003620 0.0
1.878648 1.660502 -0.000017 0.0
0.590304 1.625269 -0.001460 0.0
3.233331 1.874525 0.000275 0.0
0.979663 1.068197 -0.000914 0.0
4.250110 0.006026 -0.001224 0.0
3.727425 0.515738 -0.003410 0.0
1.015595 0.884567 -0.000131 0.0
3.384047 0.318169 0.000457 0.0
0.803435 1.352612 -0.002503 0.0
3.876447 0.456077 0.001616 0.0
3.973539 0.205012 -0.002135 0.0
4.367465 1.326462 0.000122 0.0
1.846299 1.836387 -0.000033 0.0
3.939475 0.815203 -0.002972 0.0
2.195736 0.944902 -0.001942 0.0
1.937956 0.226776 -0.003768 0.0
1.066967 1.734063 0.004936 0.0
1.310816 0.013914 0.001193 0.0
3.883477 0.283391 -0.001868 0.0
4.723044 2.019610 -0.002913 0.0
1.932979 0.197357 0.000239 0.0
4.331730 1.088845 0.000602 0.0
4.890363 0.367869 -0.005501 0.0
1.299529 0.478608 0.001359 0.0
2.309755 0.804791 -0.002887 0.0
3.292861 1.902973 -0.000397 0.0
2.957174 0.747603 0.004629 0.0
0.465777 2.025358 0.001599 0.0
3.756516 0.007239 -0.003417 0.0
3.438287 1.342243 -0.002342 0.0
0.495346 0.406620 -0.003164 0.0
1.573885 0.005749 0.005945 0.0
1.204237 0.002316 0.001593 0.0
1.230534 0.722832 0.001849 0.0
0.161282 0.072035 -0.001367 0.0
3.070371 1.600370 -0.001348 0.0
0.647280 0.525439 0.000675 0.0
1.483809 0.891321 0.002016 0.0
2.543602 1.067962 -0.001414 0.0
3.069504 0.768639 -0.003132 0.0
3.021210 2.037119 0.000037 0.0
0.571054 0.285486 0.000465 0.0
3.677304 1.504821 0.002050 0.0
1.345398 0.814138 0.000788 0.0
2.835465 1.644006 0.000076 0.0
2.164865 0.584849 0.004213 0.0
0.799043 0.189456 0.004583 0.0
1.072503 0.643461 -0.000959 0.0
4.118597 0.545768 0.000097 0.0
4.774096 0.662430 -0.001708 0.0
4.890038 1.987138 -0.000018 0.0
4.624784 1.836013 -0.000485 0.0
1.268826 1.022454 -0.001436 0.0
2.770206 1.196745 0.003491 0.0
3.086398 1.371847 -0.002712 0.0
4.796952 1.318748 0.000981 0.0
4.418655 0.958169 -0.002210 0.0
4.682646 1.698420 -0.001166 0.0
1.868031 1.290189 -0.002862 0.0
4.313279 0.471076 -0.000889 0.0
2.121900 1.583493 0.001757 0.0
4.052550 0.197621 0.003050 0.0
4.054773 1.029824 -0.003769 0.0
3.816711 0.149379 0.000009 0.0
2.560711 1.899707 0.001635 0.0
0.215558 0.672708 0.000668 0.0
2.471050 1.706407 0.001892 0.0
3.383440 1.000480 -0.000179 0.0
3.721477 1.887753 -0.003316 0.0
2.677545 1.708165 -0.001110 0.0
2.354713 1.722844 0.002934 0.0
4.316521 0.102837 0.003885 0.0
4.208672 1.306393 -0.005309 0.0
2.093091 0.518475 0.003328 0.0
3.662427 0.472224 -0.001584 0.0
4.420316 1.877534 0.001174 0.0
4.239391 1.874179 -0.002775 0.0
4.925326 0.494166 0.002286 0.0
1.622870 1.005169 0.000629 0.0
1.898309 0.658353 0.001613 0.0
2.160064 0.126383 0.001883 0.0
4.488385 1.645833 -0.001230 0.0
4.432772 0.094617 -0.003221 0.0
4.698233 1.905861 0.002778 0.0
1.698545 0.979162 0.001683 0.0
3.350137 1.875489 0.000806 0.0
3.003030 1.299254 -0.000191 0.0
0.090510 1.298347 0.007581 0.0
0.180557 1.498567 -0.000756 0.0
3.330368 1.518931 0.000814 0.0
0.606456 0.324122 -0.003098 0.0
2.375280 0.459824 0.001943 0.0
2.647497 1.680378 -0.001395 0.0
3.045704 1.866047 -0.003023 0.0
4.873070 0.702092 -0.000738 0.0
1.858501 0.221629 0.000603 0.0
2.162797 0.714162 -0.001630 0.0
4.733860 0.314206 -0.001158 0.0
4.853391 0.574010 -0.001164 0.0
3.261047 1.158145 0.000789 0.0
3.609875 0.924545 -0.001890 0.0
3.646056 1.931343 -0.000569 0.0
1.437309 0.379664 -0.000190 0.0
0.496014 0.066263 -0.004515 0.0
3.455474 0.395845 0.002072 0.0
0.425822 0.980571 0.004561 0.0
3.883513 2.018681 0.002705 0.0
0.061093 0.340050 0.001213 0.0
4.633395 0.974860 0.001082 0.0
4.073553 1.241034 -0.000571 0.0
3.868308 0.341546 0.000180 0.0
2.418407 2.080842 -0.001549 0.0
2.247855 1.232996 0.006710 0.0
0.567571 0.974382 0.002889 0.0
1.919780 0.716345 -0.002693 0.0
2.154043 1.296169 0.005153 0.0
1.444609 1.974048 0.000915 0.0
1.238340 1.844392 -0.003481 0.0
1.204732 1.254556 -0.002484 0.0
1.398808 0.541550 0.000127 0.0
0.066055 0.024043 -0.002843 0.0
3.995738 1.626170 -0.006028 0.0
2.516599 2.070623 0.003963 0.0
3.900351 1.940940 -0.000475 0.0
0.124046 1.332105 0.000764 0.0
0.284615 1.643129 0.003875 0.0
3.554932 1.115829 -0.000220 0.0
0.096112 1.079905 -0.001015 0.0
4.541845 1.916374 -0.004278 0.0
4.464071 0.166826 0.003118 0.0
4.327022 1.883954 -0.001882 0.0
4.583044 1.653577 0.000978 0.0
4.846799 0.546985 0.003456 0.0
1.543538 0.313469 0.002011 0.0
3.350410 1.077987 -0.000666 0.0
0.323480 1.444281 -0.005368 0.0
2.556785 0.673362 0.002180 0.0
1.239056 0.545069 0.002673 0.0
3.418868 0.258673 0.000696 0.0
0.358917 1.378127 -0.003628 0.0
0.080628 1.952271 0.001855 0.0
0.279436 1.886528 -0.003892 0.0
3.598840 1.476889 0.000472 0.0
3.351125 1.947719 0.002406 0.0
3.148555 0.268594 0.004143 0.0
4.482550 1.204407 -0.002199 0.0
0.642036 0.406751 -0.005027 0.0
3.485673 1.080585 0.001361 0.0
0.489956 0.302327 -0.003103 0.0
2.944097 0.125259 -0.005252 0.0
0.587830 2.026458 -0.002134 0.0
4.705020 1.887747 0.003992 0.0
3.742560 0.043849 -0.001483 0.0
2.354943 0.659678 0.002660 0.0
3.651576 1.613824 -0.000287 0.0
0.938107 1.284035 0.002025 0.0
1.358681 2.014569 -0.001595 0.0
4.512586 1.780239 -0.004750 0.0
1.871994 1.110756 -0.000932 0.0
4.793509 0.347894 -0.000327 0.0
2.656619 0.884569 0.002714 0.0
1.386832 0.811810 -0.002199 0.0
4.847324 1.013762 0.001096 0.0
4.345523 1.538125 -0.001006 0.0
4.206627 1.385933 -0.000155 0.0
3.662590 1.968336 0.005662 0.0
3.970917 0.337523 0.005453 0.0
0.479100 2.081033 -0.002253 0.0
0.565895 0.434903 -0.000769 0.0
2.997163 1.140582 -0.000773 0.0
2.487314 0.880452 0.001236 0.0
3.403728 1.090938 -0.002407 0.0
0.109431 0.349875 0.001129 0.0
2.612284 0.815522 -0.000031 0.0
2.104191 1.343189 0.002587 0.0
1.001023 0.525273 -0.002452 0.0
1.008993 1.543188 0.002227 0.0
3.344655 1.548438 -0.002003 0.0
3.767320 1.345244 -0.005602 0.0
2.955647 0.799132 0.001441 0.0
2.752769 0.370717 0.001988 0.0
1.507077 1.049976 -0.003433 0.0
1.057209 1.463426 -0.001485 0.0
3.786214 2.062292 -0.003551 0.0
1.349406 1.182997 0.001498 0.0
0.451409 1.374525 0.003424 0.0
2.207499 0.637405 0.000551 0.0
3.254248 2.079573 -0.002294 0.0
1.284753 0.085858 0.001321 0.0
3.892631 0.414338 -0.000956 0.0
0.883809 0.920971 -0.004142 0.0
2.972120 0.987934 -0.000537 0.0
3.864752 0.636587 -0.002857 0.0
3.863238 1.877095 0.000070 0.0
3.896306 1.459117 0.001766 0.0
3.676248 1.037021 -0.002196 0.0
0.973036 0.902314 -0.001415 0.0
0.026205 0.513896 -0.000534 0.0
1.774426 1.292128 -0.001100 0.0
3.552059 1.127512 -0.000014 0.0
1.210003 0.499472 -0.003951 0.0
1.414995 0.956436 0.001916 0.0
4.204718 1.736471 0.000899 0.0
1.791255 1.654536 -0.000260 0.0
0.857262 0.712488 -0.002484 0.0
2.710974 1.688900 0.004440 0.0
0.876805 0.445656 0.000389 0.0
2.840290 2.045878 0.003176 0.0
4.786438 1.545830 0.000057 0.0
2.806532 1.617140 0.002468 0.0
2.212871 2.069917 -0.002195 0.0
3.050052 0.869280 -0.002251 0.0
0.698157 0.741366 -0.000599 0.0
3.935965 0.803614 -0.004546 0.0
3.796449 1.221295 0.002017 0.0
1.569099 1.638554 -0.001580 0.0
2.542341 2.009121 0.001501 0.0
3.504811 1.807166 0.000420 0.0
0.552084 1.953778 0.001019 0.0
2.501755 1.680757 0.000653 0.0
1.302297 1.468574 0.001043 0.0
3.193402 0.626619 -0.000468 0.0
0.060936 1.725535 -0.000289 0.0
1.327673 1.732292 0.002936 0.0
0.989459 0.950220 0.002929 0.0
1.309997 1.345384 -0.003701 0.0
2.906603 1.123385 -0.001616 0.0
1.704506 1.225756 -0.001082 0.0
0.533313 0.842329 0.005460 0.0
4.119007 0.177258 -0.003222 0.0
0.278602 1.055591 -0.004958 0.0
2.376752 1.906134 -0.002228 0.0
1.435913 0.138848 -0.002808 0.0
0.855301 0.182110 -0.001011 0.0
2.228245 1.006321 -0.001845 0.0
0.882607 1.701449 0.000889 0.0
1.035463 1.182706 -0.003474 0.0
0.493277 2.015325 0.003099 0.0
1.484914 1.852688 0.002131 0.0
1.229643 1.090624 -0.000896 0.0
3.157555 1.423298 -0.004081 0.0
3.592189 1.863401 0.005199 0.0
1.926516 1.746315 0.002401 0.0
1.601198 0.562659 -0.001223 0.0
2.273688 1.868074 0.000100 0.0
3.729042 0.535187 0.000711 0.0
2.287279 1.571070 0.003243 0.0
3.277467 1.136494 -0.000542 0.0
2.747078 0.753285 -0.004411 0.0
4.290139 1.214797 0.003087 0.0
3.144195 1.677301 -0.002238 0.0
2.593361 0.917580 0.002045 0.0
4.826909 0.163245 0.001252 0.0
2.801402 0.701473 0.002706 0.0
2.261488 0.748626 -0.002298 0.0
1.034274 0.185152 -0.001330 0.0
4.018394 0.890248 -0.001253 0.0
1.970786 1.416519 -0.003818 0.0
4.775349 1.202463 -0.000706 0.0
0.290622 1.326111 0.001399 0.0
3.003498 1.496369 -0.000405 0.0
0.591705 1.991168 -0.002072 0.0
3.205675 1.541118 0.005706 0.0
3.061532 1.320365 -0.003594 0.0
0.699477 1.634992 -0.000554 0.0
4.384116 0.135762 0.002353 0.0
4.755317 0.069887 -0.000147 0.0
3.945958 1.306832 0.003323 0.0
0.224933 0.095163 0.003803 0.0
2.702047 0.580318 -0.003214 0.0
4.307162 1.540051 -0.003788 0.0
3.816589 1.091765 0.000752 0.0
4.549661 0.853140 0.005119 0.0
1.919702 1.071534 -0.000225 0.0
4.803247 1.011035 -0.006009 0.0
3.663001 0.929751 -0.001027 0.0
2.266706 1.704744 -0.002680 0.0
1.584803 0.275557 -0.001706 0.0
0.002761 1.092431 0.002611 0.0
1.929925 0.318152 -0.001575 0.0
0.512430 0.949313 0.000185 0.0
3.016348 1.502581 -0.001183 0.0
4.958471 0.776278 0.000198 0.0
3.574568 0.395992 -0.005413 0.0
0.363141 1.213056 -0.001259 0.0
1.208414 1.710665 0.001024 0.0
1.259845 1.304397 -0.000075 0.0
1.062386 0.349257 -0.000661 0.0
0.338497 0.174232 0.002806 0.0
3.962425 1.776348 0.000753 0.0
0.062505 2.074288 0.001336 0.0
1.838411 1.219540 0.000592 0.0
1.054649 1.411442 0.007292 0.0
1.645047 1.886296 0.004602 0.0
3.887235 0.207287 -0.000758 0.0
3.463369 1.500321 0.000699 0.0
4.838537 0.641816 -0.000107 0.0
0.670817 1.826238 0.000320 0.0
3.066793 1.921387 -0.001199 0.0
0.779588 1.563346 0.002992 0.0
2.003519 0.795031 0.003566 0.0
3.545577 0.291582 -0.002046 0.0
3.849697 0.817271 -0.003483 0.0
2.044898 1.955694 -0.002862 0.0
3.513992 1.813198 0.001208 0.0
3.962172 0.663624 -0.000390 0.0
2.833063 1.040441 0.002494 0.0
4.430108 0.436619 0.003931 0.0
1.108868 1.444600 -0.005406 0.0
4.108190 1.414916 0.001537 0.0
2.881901 0.636725 0.000484 0.0
0.998890 0.657470 0.001218 0.0
3.228892 1.336498 -0.001576 0.0
1.806904 1.710899 -0.000025 0.0
0.878029 1.027218 -0.000633 0.0
0.849553 0.663660 0.003529 0.0
2.122303 1.101154 0.003304 0.0
4.201947 0.108688 -0.000863 0.0
0.484464 1.488929 -0.000962 0.0
1.809560 0.210594 0.001857 0.0
0.800457 1.493570 0.005216 0.0
0.954364 0.316610 -0.002566 0.0
2.458267 0.700290 -0.003134 0.0
1.213729 1.477905 0.000346 0.0
2.210785 0.481227 0.001400 0.0
1.567301 0.677805 -0.003088 0.0
4.303435 1.099114 0.001147 0.0
2.572855 0.542383 0.000418 0.0
1.128401 0.981167 0.007204 0.0
3.817288 0.550996 0.000690 0.0
3.059981 0.488890 -0.000724 0.0
2.285795 0.977409 0.007236 0.0
1.305433 1.045361 -0.000238 0.0
0.429323 0.750804 -0.001665 0.0
1.404346 0.601561 0.000950 0.0
1.251483 0.210206 -0.000012 0.0
3.862916 0.144285 0.001329 0.0
0.352930 1.083731 -0.002092 0.0
4.042288 1.877539 0.001242 0.0
3.824294 1.809567 -0.000117 0.0
4.186102 1.672053 -0.000388 0.0
1.423993 1.227598 0.001773 0.0
0.825122 0.152111 -0.001273 0.0
0.648266 1.134999 -0.002589 0.0
3.091019 0.693835 0.000315 0.0
2.974004 1.703082 0.002517 0.0
2.238850 0.568752 0.000467 0.0
2.047350 0.216464 0.000437 0.0
1.074595 0.600867 0.004681 0.0
1.536414 0.782281 -0.000879 0.0
3.229026 1.620953 -0.003902 0.0
3.254773 1.352357 0.000195 0.0
3.583901 1.585897 0.001455 0.0
4.667884 0.344502 -0.002302 0.0
4.139781 2.022005 -0.003569 0.0
2.699303 0.518264 0.000936 0.0
2.594413 0.701166 0.000666 0.0
2.726402 0.565362 -0.000939 0.0
3.059096 0.457399 -0.002438 0.0
0.680734 0.388735 -0.003322 0.0
0.020448 1.488552 -0.001091 0.0
0.697246 0.758460 0.000419 0.0
3.695666 0.382461 0.000949 0.0
1.045647 1.047001 -0.000205 0.0
1.127386 0.768457 0.000343 0.0
4.710996 0.808039 -0.001055 0.0
3.319567 1.435353 0.000199 0.0
2.597367 0.260318 0.003783 0.0
3.938743 0.397990 -0.000448 0.0
3.089248 0.738267 -0.000153 0.0
0.260014 1.938290 -0.001759 0.0
3.141468 0.316576 0.007911 0.0
1.030750 1.871142 0.000605 0.0
2.382220 0.710185 0.000866 0.0
1.074396 0.823559 -0.001234 0.0
0.702732 1.151920 -0.001633 0.0
2.864808 0.032702 0.001328 0.0
1.812987 1.748216 0.002513 0.0
4.257816 0.177245 0.000296 0.0
2.774306 0.633563 -0.002383 0.0
1.970492 0.784023 -0.003674 0.0
0.433458 0.449383 0.002147 0.0
1.037177 1.670303 -0.001357 0.0
3.461713 0.448228 0.003660 0.0
4.008495 1.369382 0.001095 0.0
0.269367 1.837905 0.000732 0.0
0.732601 0.418817 -0.001477 0.0
4.929561 0.589163 0.002664 0.0
3.388588 0.360553 -0.003548 0.0
1.353684 0.005269 -0.001208 0.0
3.003471 0.711015 0.000504 0.0
3.797404 0.956806 0.000289 0.0
2.639157 0.818839 -0.000765 0.0
0.942676 1.371037 -0.002833 0.0
3.891643 0.864250 0.000265 0.0
4.151580 0.000201 -0.003857 0.0
2.756992 0.041412 0.004094 0.0
0.531202 1.096915 0.001597 0.0
2.643584 0.315968 0.001081 0.0
3.783658 0.418010 -0.003176 0.0
0.526406 1.971716 0.003044 0.0
3.433515 1.407365 0.001718 0.0
1.130926 0.289114 -0.002023 0.0
0.832916 0.372607 0.002774 0.0
2.619536 1.718205 0.001691 0.0
0.832476 0.188770 0.003917 0.0
2.538102 1.881706 0.001871 0.0
0.164940 2.011103 0.001200 0.0
2.845357 0.172614 0.000549 0.0
3.715399 0.202972 0.003576 0.0
0.914737 0.317271 0.000714 0.0
1.644976 1.071708 -0.001893 0.0
3.100631 0.865309 -0.002071 0.0
3.533165 1.308395 0.000679 0.0
1.601714 1.284688 0.003156 0.0
0.128668 1.109424 0.000304 0.0
2.001670 1.229140 -0.000998 0.0
2.298579 1.254104 -0.004419 0.0
2.809393 0.141532 -0.002212 0.0
4.349463 0.755270 0.001223 0.0
2.412858 1.272078 -0.002291 0.0
2.158176 1.125879 -0.000257 0.0
3.825122 0.936810 0.001000 0.0
1.405972 1.788024 -0.002325 0.0
0.329270 1.764734 0.004871 0.0
4.374999 1.275293 -0.000338 0.0
3.639294 1.255014 -0.000546 0.0
4.055731 1.878420 0.000799 0.0
2.986603 2.010244 -0.000280 0.0
3.329358 1.346870 -0.002187 0.0
3.428331 0.291351 0.001076 0.0
3.900602 0.228315 0.001885 0.0
1.584461 0.044304 0.001146 0.0
3.203762 0.819756 0.003123 0.0
2.712465 0.986838 0.002837 0.0
1.485122 0.882017 -0.000915 0.0
1.187511 1.718449 0.000683 0.0
1.771702 1.284089 0.000893 0.0
4.308425 0.828416 0.002846 0.0
1.372050 1.419280 -0.004045 0.0
2.729032 1.770612 -0.000487 0.0
1.380470 0.267383 0.000323 0.0
3.405031 0.494852 0.001192 0.0
0.455232 1.228515 -0.003763 0.0
3.760304 0.859923 -0.001130 0.0
0.638368 1.862021 0.001421 0.0
3.534515 1.280218 -0.002070 0.0
0.915856 1.303593 -0.001260 0.0
2.749115 0.171906 0.000940 0.0
2.399612 1.472983 0.002034 0.0
4.962422 1.668407 -0.000379 0.0
0.032438 1.017178 0.000010 0.0
2.413951 1.798743 -0.000291 0.0
2.094689 0.701358 0.001230 0.0
4.710104 1.060608 0.004057 0.0
2.739794 1.237327 -0.001840 0.0
0.755349 0.364674 0.004154 0.0
3.995300 1.648827 -0.002872 0.0
4.174212 0.381847 0.003806 0.0
1.727178 0.369218 -0.001512 0.0
0.792197 1.432201 -0.003678 0.0
1.892136 0.731233 0.003849 0.0
1.439956 0.451532 -0.000978 0.0
3.172529 1.060544 0.000474 0.0
3.985730 0.719212 -0.000115 0.0
3.137501 1.785799 -0.000324 0.0
4.557987 2.079650 0.003981 0.0
0.766653 0.964528 0.001996 0.0
3.192434 1.152543 -0.004243 0.0
0.955333 1.928944 0.000179 0.0
1.472782 1.035825 0.002131 0.0
0.553458 1.623981 0.000685 0.0
0.541596 0.469207 -0.004934 0.0
0.843913 0.242910 0.004314 0.0
4.393920 1.680366 -0.003965 0.0
4.740618 0.167624 -0.000163 0.0
0.425123 1.438877 0.003592 0.0
0.293843 1.916650 -0.000242 0.0
3.316461 0.045808 -0.000213 0.0
4.363114 1.260370 -0.002672 0.0
4.352492 1.543945 -0.001042 0.0
2.944687 1.778628 -0.002701 0.0
3.129039 0.582906 -0.003934 0.0
0.929018 1.149275 0.001264 0.0
4.295432 0.621505 0.001791 0.0
0.469541 0.629620 0.004004 0.0
0.575102 1.567229 0.000393 0.0
3.288413 0.462692 -0.002222 0.0
2.235044 0.094526 0.001159 0.0
3.973729 1.116300 0.001726 0.0
3.330419 0.009586 0.003534 0.0
0.877591 0.787862 -0.001313 0.0
1.216985 1.754234 -0.001791 0.0
3.661317 0.891920 0.001243 0.0
3.725889 0.917125 0.005011 0.0
2.366820 0.108670 0.001586 0.0
1.518593 1.196853 -0.000143 0.0
4.876212 1.395652 -0.000308 0.0
2.580464 1.895611 0.005647 0.0
4.060976 0.596868 -0.001283 0.0
1.731707 0.207233 0.001556 0.0
4.423018 1.308114 0.002088 0.0
0.793130 1.140683 0.000474 0.0
4.944345 0.795544 0.001741 0.0
2.069769 0.368209 0.000872 0.0
2.915428 2.046536 -0.001956 0.0
0.479257 0.665492 0.002313 0.0
2.353321 0.369231 0.000597 0.0
2.089340 0.585932 -0.001867 0.0
2.810685 2.004053 0.001901 0.0
3.229160 0.952450 0.002902 0.0
3.275300 0.665342 0.001175 0.0
1.457423 0.510677 0.001029 0.0
0.409901 1.076156 -0.000866 0.0
3.430428 0.888995 -0.001234 0.0
0.423053 0.105833 0.004256 0.0
1.516349 2.068159 -0.001840 0.0
1.620111 0.188909 -0.001845 0.0
2.345924 0.082757 -0.001418 0.0
2.156659 1.643051 -0.000481 0.0
3.134825 0.015362 0.001585 0.0
3.840679 0.632241 -0.001677 0.0
3.467873 1.601972 0.001243 0.0
1.449153 2.058843 0.000524 0.0
0.796150 2.046837 -0.000308 0.0
2.391898 1.802474 0.000900 0.0
2.350345 0.579836 0.000902 0.0
2.936046 2.048635 -0.001705 0.0
3.397479 1.144819 -0.003379 0.0
4.824119 1.907247 0.001643 0.0
4.106630 0.941926 -0.000019 0.0
2.043837 1.129483 -0.001303 0.0
2.129506 0.806262 0.002790 0.0
4.724123 0.558587 -0.007832 0.0
4.277881 1.842544 -0.007373 0.0
2.616257 1.163249 0.001570 0.0
4.505341 0.813378 0.000603 0.0
2.578182 0.265519 0.002925 0.0
0.122757 0.166790 -0.006410 0.0
0.616376 1.210334 -0.002545 0.0
1.950229 1.997018 0.003363 0.0
0.562415 1.718699 -0.004884 0.0
4.651295 0.693112 -0.001692 0.0
3.630773 0.678006 0.000164 0.0
3.750846 1.406287 -0.000191 0.0
2.570724 2.036025 0.000710 0.0
1.884043 1.369181 0.001415 0.0
3.579849 0.662780 -0.002024 0.0
3.510639 1.958755 -0.005683 0.0
0.882490 1.790427 -0.000609 0.0
2.798379 1.771816 0.002137 0.0
0.270685 1.841638 0.002897 0.0
2.228664 0.915485 0.002368 0.0
1.618054 1.358518 0.001667 0.0
0.594945 1.552167 0.000048 0.0
4.298131 1.517857 -0.004441 0.0
2.283730 0.531137 0.000616 0.0
2.406873 0.806251 -0.003539 0.0
4.173452 1.308515 0.000517 0.0
4.101131 1.377142 -0.001443 0.0
3.348860 1.990944 0.001249 0.0
4.510786 1.447805 0.007129 0.0
4.103664 0.848928 -0.006974 0.0
1.257871 1.763360 0.001110 0.0
1.290986 2.036511 0.001369 0.0
4.657349 1.490471 -0.003831 0.0
0.297971 1.063873 0.000838 0.0
1.334309 1.220779 0.002110 0.0
2.589679 0.425736 -0.002793 0.0
3.760912 1.648238 -0.001547 0.0
0.322784 0.229362 0.001133 0.0
2.288864 0.795429 0.002061 0.0
0.377424 1.228993 0.004809 0.0
0.615091 0.967637 0.002236 0.0
0.270639 1.738906 0.001014 0.0
1.231817 1.412770 0.001524 0.0
3.763938 0.628041 -0.001009 0.0
4.068970 1.047460 0.000753 0.0
1.481523 0.845270 -0.001753 0.0
3.114604 0.989168 -0.002984 0.0
2.481208 0.374518 -0.002084 0.0
3.488055 0.956540 0.000039 0.0
3.656196 1.659275 0.005969 0.0
3.796484 1.785281 0.002379 0.0
3.581434 1.977316 -0.000646 0.0
4.081883 1.092767 -0.002063 0.0
0.523164 0.972589 0.002228 0.0
1.527861 1.546672 -0.002475 0.0
4.304861 0.624244 -0.003673 0.0
3.975222 1.211739 -0.001238 0.0
4.919430 1.871497 -0.000632 0.0
0.440790 0.022646 -0.000569 0.0
0.622999 0.958701 -0.001043 0.0
1.761830 0.160487 -0.000274 0.0
3.942146 1.553636 0.000146 0.0
4.244242 1.427018 -0.000071 0.0
1.098595 0.163861 0.001291 0.0
3.274145 0.722382 0.001561 0.0
3.264972 0.726823 -0.001477 0.0
0.982871 1.804291 -0.003838 0.0
4.218936 1.276229 -0.001750 0.0
3.647301 0.473935 0.003955 0.0
3.223241 1.211648 0.001943 0.0
3.114294 0.149321 0.001897 0.0
3.218137 1.103605 -0.001605 0.0
4.148965 1.427440 -0.004616 0.0
0.973865 1.147744 0.003679 0.0
2.615216 0.457394 -0.001700 0.0
0.600728 0.462910 -0.006487 0.0
0.904175 0.803650 -0.000351 0.0
4.110797 2.035307 0.001610 0.0
2.970819 0.503924 -0.004030 0.0
3.095322 1.042765 -0.001386 0.0
2.152780 1.999236 0.001049 0.0
0.034404 0.212059 0.003232 0.0
2.457470 0.109266 -0.001727 0.0
4.590555 0.672503 -0.001534 0.0
2.536248 0.864497 0.003519 0.0
4.607802 1.876333 -0.002423 0.0
3.111597 0.129017 0.000297 0.0
4.489749 1.675585 0.003165 0.0
2.872120 0.980200 -0.000033 0.0
2.735595 0.573077 0.000921 0.0
4.463605 0.819837 -0.002268 0.0
1.456397 1.452838 -0.001467 0.0
1.707704 1.495864 -0.001503 0.0
4.317473 1.839984 0.004702 0.0
1.369288 1.124786 0.002298 0.0
1.530332 0.709635 -0.002795 0.0
3.530430 2.081958 0.000111 0.0
1.860514 1.830772 0.001333 0.0
3.725164 0.148841 -0.000585 0.0
0.159176 1.125593 -0.004459 0.0
2.440675 1.707521 -0.001584 0.0
1.223120 0.414160 0.000485 0.0
4.534593 1.632401 -0.001724 0.0
0.710356 0.340728 -0.001223 0.0
0.242314 0.056863 0.000086 0.0
0.299046 1.645600 -0.002472 0.0
1.124976 1.450672 -0.001747 0.0
0.409568 1.761101 -0.000973 0.0
3.636361 1.151247 0.001991 0.0
4.899142 1.548906 -0.003600 0.0
1.719678 1.256330 0.000588 0.0
3.069560 1.281633 0.007085 0.0
1.725860 1.327439 -0.000728 0.0
3.071171 1.360214 -0.001326 0.0
0.798111 0.576614 -0.000395 0.0
2.170643 0.771847 -0.002560 0.0
0.200823 1.153780 -0.001452 0.0
4.955923 0.858508 -0.002216 0.0
1.837649 1.839401 0.000796 0.0
2.998312 1.153291 0.001496 0.0
0.113817 0.275735 0.000169 0.0
4.345054 1.062545 0.002915 0.0
3.080524 0.036642 0.002279 0.0
2.161214 1.425316 -0.000092 0.0
3.662912 0.466951 0.000241 0.0
0.179341 0.050664 0.000304 0.0
1.295732 1.278966 0.003151 0.0
1.418005 1.661472 0.001953 0.0
0.754070 0.081594 -0.001464 0.0
3.722587 1.607506 -0.001273 0.0
4.629448 1.194607 -0.001482 0.0
1.410976 1.897911 -0.001162 0.0
2.971016 1.377664 0.001775 0.0
3.635111 0.362305 -0.000289 0.0
1.995327 0.596313 -0.002637 0.0
0.785024 1.311286 -0.000482 0.0
0.086468 0.309099 -0.000901 0.0
0.012804 2.044026 -0.001781 0.0
3.408762 0.874171 0.004270 0.0
4.086916 1.492024 -0.002523 0.0
1.051509 0.023387 0.002730 0.0
3.398992 0.181965 0.000023 0.0
1.265265 0.992623 -0.001278 0.0
2.771692 1.731771 -0.000799 0.0
2.970458 1.590692 0.000397 0.0
4.220625 1.567755 -0.000845 0.0
4.242965 1.157288 -0.002253 0.0
2.620238 0.429691 -0.000158 0.0
4.713122 1.009704 -0.000259 0.0
1.357090 0.492114 0.001464 0.0
3.155412 0.940439 -0.001330 0.0
0.290391 1.955614 -0.005401 0.0
1.398283 2.074357 0.002260 0.0
2.104862 1.955400 0.002015 0.0
3.124627 0.955446 0.002990 0.0
4.600373 0.940704 -0.000686 0.0
2.240482 1.358416 -0.000015 0.0
1.983108 1.467545 -0.000022 0.0
1.078855 1.073632 -0.000516 0.0
3.114792 1.991076 -0.000800 0.0
2.880798 0.677053 0.000227 0.0
0.049022 0.155800 -0.000866 0.0
4.592600 1.999599 -0.000363 0.0
2.314410 0.220324 0.000681 0.0
4.802110 0.929148 0.002757 0.0
1.507538 0.432237 -0.005160 0.0
4.059357 1.862173 0.002473 0.0
1.061136 0.585111 -0.001228 0.0
4.953945 0.134602 0.001126 0.0
2.863262 1.704490 0.003431 0.0
3.679578 0.544979 0.000841 0.0
3.067011 0.385303 0.002383 0.0
4.617299 1.162168 -0.001379 0.0
3.680393 0.532755 0.001420 0.0
3.200321 0.461360 -0.005379 0.0
0.739096 0.455882 0.001595 0.0
0.309208 1.135833 -0.000337 0.0
0.357438 1.821135 0.000796 0.0
3.840298 1.133083 -0.002114 0.0
2.569890 0.991718 0.000778 0.0
3.467729 0.854872 -0.000398 0.0
1.347416 1.284395 -0.005306 0.0
2.570172 1.647021 0.002449 0.0
0.071278 0.546495 -0.002475 0.0
1.309395 1.362231 -0.001111 0.0
0.004983 0.122554 -0.001964 0.0
3.514931 1.392439 0.002254 0.0
1.274834 0.289774 -0.003062 0.0
4.440791 1.716402 -0.003567 0.0
0.900484 1.713135 0.000290 0.0
3.477548 0.851391 0.002682 0.0
4.588417 1.003581 -0.002247 0.0
0.482484 1.483786 0.001206 0.0
4.013558 1.660221 -0.002224 0.0
4.905196 0.058928 0.004340 0.0
0.985125 0.049901 0.000812 0.0
4.876779 0.610984 0.000266 0.0
3.621399 0.052653 0.001467 0.0
1.138676 1.174506 0.001027 0.0
4.092962 1.163682 0.003043 0.0
0.875413 0.452087 0.000239 0.0
2.346988 0.427411 -0.001643 0.0
0.608126 1.830894 -0.006598 0.0
3.568122 1.620987 0.000753 0.0
4.427025 1.587900 0.000286 0.0
1.265810 1.828972 0.003152 0.0
4.281249 0.501551 0.006402 0.0
0.837098 1.711595 0.005965 0.0
3.823880 1.680971 0.003052 0.0
0.600947 1.104004 -0.002056 0.0
3.746588 0.494361 0.002473 0.0
1.619571 0.888817 -0.002575 0.0
4.762385 1.635329 -0.002519 0.0
4.134941 1.924453 -0.003454 0.0
4.880654 0.539851 -0.000833 0.0
0.237567 0.017300 -0.000386 0.0
1.834546 1.507470 0.003428 0.0
0.335723 1.288204 0.000917 0.0
3.626047 1.357671 0.000950 0.0
4.961937 0.757197 -0.003227 0.0
2.026716 1.863897 0.000255 0.0
3.811726 1.381858 -0.000230 0.0
1.776950 1.961379 -0.000283 0.0
2.278065 0.683863 -0.002915 0.0
2.192036 1.251613 -0.000917 0.0
1.457620 0.887600 -0.002481 0.0
0.174703 1.467086 -0.003464 0.0
0.433773 0.634681 0.000317 0.0
3.949167 0.645992 0.006539 0.0
4.906282 0.178533 -0.001234 0.0
0.268301 1.024439 -0.001551 0.0
3.822668 1.436735 -0.002218 0.0
3.485955 2.041592 0.002541 0.0
0.136204 0.083269 0.004133 0.0
2.931293 1.082820 -0.005808 0.0
0.621831 1.797794 0.002874 0.0
0.094964 1.327121 0.002985 0.0
4.251298 0.897365 -0.000986 0.0
4.240483 1.715876 -0.002330 0.0
0.711479 1.149340 -0.003403 0.0
0.042374 1.569180 -0.002229 0.0
1.522232 0.332121 -0.001146 0.0
2.436485 0.972581 0.001739 0.0
0.617575 1.805752 -0.006011 0.0
3.591221 2.056235 0.001008 0.0
4.035415 2.068646 0.001230 0.0
4.487645 0.972906 -0.001628 0.0
2.341465 1.288053 -0.003114 0.0
2.916669 0.413817 -0.000368 0.0
3.232275 1.679774 0.000532 0.0
3.835478 0.841656 -0.002854 0.0
0.838921 1.863126 0.002541 0.0
2.888549 1.029181 -0.001245 0.0
4.883575 0.554974 0.003519 0.0
1.343952 1.755174 0.000508 0.0
2.711959 1.894166 -0.002662 0.0
0.463831 2.000220 0.000854 0.0
0.981062 1.193388 -0.000586 0.0
4.892512 0.559626 -0.003820 0.0
2.183462 1.338442 0.000429 0.0
0.505411 1.346279 0.001594 0.0
2.886053 0.302567 -0.001331 0.0
4.562704 0.890956 0.003759 0.0
3.522941 1.333206 -0.000748 0.0
1.476227 0.957575 -0.002191 0.0
3.710136 1.369970 -0.000289 0.0
2.689310 1.735522 -0.000531 0.0
0.515376 1.018690 -0.002856 0.0
4.099778 0.991951 0.000231 0.0
3.023692 0.019867 -0.001506 0.0
1.793510 1.953057 0.002215 0.0
4.842557 0.528764 -0.002405 0.0
3.274929 0.442138 0.002702 0.0
1.586109 1.700995 0.001101 0.0
4.544540 1.395661 -0.003953 0.0
4.671481 1.737597 0.002181 0.0
1.737344 1.033847 -0.006644 0.0
0.838767 0.894014 0.000193 0.0
1.998177 1.187889 -0.000454 0.0
4.439489 1.464382 0.003054 0.0
3.523531 1.442297 -0.001692 0.0
4.046216 1.299913 -0.001726 0.0
4.740815 0.861253 0.000491 0.0
1.592424 1.843307 0.002129 0.0
4.361831 0.384152 -0.003170 0.0
1.347491 0.875982 0.000477 0.0
0.419182 0.832745 -0.000239 0.0
3.125065 2.062675 0.001990 0.0
1.915790 0.477588 0.001226 0.0
2.529554 0.789384 -0.001200 0.0
3.470851 0.958010 0.001892 0.0
4.748178 0.663666 -0.001095 0.0
1.410766 0.933002 0.001887 0.0
3.500951 0.441418 0.001610 0.0
0.923069 1.682560 0.002286 0.0
2.237615 0.980957 -0.004978 0.0
4.565707 1.726379 0.002069 0.0
0.390925 1.518867 0.000320 0.0
3.458203 0.025180 -0.003495 0.0
2.360537 1.641292 -0.003265 0.0
3.018725 0.420987 -0.000028 0.0
1.975152 0.329941 0.003587 0.0
4.892043 1.650472 0.003335 0.0
1.145369 0.227245 0.001241 0.0
4.012107 1.627216 -0.004633 0.0
3.781733 0.725385 -0.000347 0.0
4.265842 0.739224 -0.000359 0.0
4.130672 0.478266 0.001505 0.0
3.269153 1.988399 0.002308 0.0
3.675076 0.980702 0.002344 0.0
2.394336 0.605558 -0.000779 0.0
1.157272 1.189138 0.000470 0.0
0.035608 1.193956 -0.002559 0.0
2.970983 0.893301 -0.003060 0.0
3.855298 1.130685 -0.000598 0.0
1.078942 1.179922 0.000280 0.0
1.886965 1.983195 0.001883 0.0
4.849410 0.404986 -0.001780 0.0
1.975770 1.250369 -0.000736 0.0
4.180855 0.534129 0.002488 0.0
1.895353 0.590091 -0.000204 0.0
1.877695 1.927827 0.001132 0.0
0.648763 1.926291 -0.000557 0.0
3.810947 0.192632 -0.002361 0.0
3.047813 1.822386 0.005291 0.0
3.981097 0.789476 0.001230 0.0
0.863238 1.082460 0.002436 0.0
4.001354 0.263317 0.002385 0.0
1.170292 0.202186 0.000427 0.0
0.331346 0.595490 0.001568 0.0
0.861506 1.893832 -0.002824 0.0
0.500018 0.231161 -0.002206 0.0
3.220588 1.874617 0.001106 0.0
0.630498 2.078756 -0.006339 0.0
2.201406 2.073248 0.001520 0.0
4.189008 0.834371 0.002518 0.0
3.573205 0.551718 0.001863 0.0
0.722450 0.485272 -0.000678 0.0
2.244833 1.375423 0.002403 0.0
1.386760 0.691921 -0.000728 0.0
3.394569 1.719356 0.001442 0.0
4.571373 0.016201 0.004058 0.0
0.264547 0.519993 -0.003394 0.0
0.847544 1.684204 0.000940 0.0
4.825858 1.615925 0.003882 0.0
4.255670 0.703838 -0.001657 0.0
2.901944 0.535225 -0.001637 0.0
0.017001 0.413536 -0.004958 0.0
1.596261 0.098125 0.000782 0.0
4.440556 1.542534 -0.000319 0.0
2.365142 0.753329 0.004820 0.0
3.909601 1.908573 -0.001392 0.0
3.090714 0.558252 0.003305 0.0
0.826705 1.163943 0.001533 0.0
1.150584 1.504194 0.003633 0.0
0.457400 0.550746 0.002270 0.0
0.201436 0.568805 -0.001234 0.0
0.084293 0.707538 0.001381 0.0
2.902837 0.888995 -0.001867 0.0
0.643049 0.368331 -0.008050 0.0
4.448168 0.158743 0.000028 0.0
4.090386 1.855654 -0.000508 0.0
2.429520 0.136255 0.001582 0.0
1.810598 0.323156 0.000828 0.0
3.915531 1.498080 -0.002434 0.0
1.708317 0.555124 0.003584 0.0
1.918149 0.938676 -0.000880 0.0
2.416708 1.019248 0.003657 0.0
0.611759 0.696931 0.000453 0.0
1.518722 0.006154 -0.000433 0.0
1.525505 1.607238 0.001595 0.0
4.633179 0.799136 0.000009 0.0
3.388059 0.830354 0.003014 0.0
2.967969 1.416352 -0.001752 0.0
4.785751 0.708659 0.003413 0.0
4.481235 0.084446 0.001831 0.0
1.486360 1.382417 -0.001807 0.0
0.410886 1.956113 -0.000841 0.0
3.113892 1.668880 0.000410 0.0
4.917344 0.203636 -0.002555 0.0
1.225287 0.540615 -0.002081 0.0
3.403173 1.054379 -0.000478 0.0
1.740372 1.248421 -0.001836 0.0
1.080894 0.626298 0.000530 0.0
3.067918 1.910133 0.000564 0.0
0.699525 1.042416 -0.004031 0.0
1.953954 1.690297 0.002743 0.0
0.743781 2.084546 -0.004701 0.0
1.347429 0.692534 -0.000923 0.0
4.365701 0.003738 -0.005365 0.0
1.578347 0.191439 0.000081 0.0
1.344536 1.964896 0.002377 0.0
3.628322 0.424984 -0.001126 0.0
1.002932 1.414409 0.002711 0.0
3.647211 0.899172 -0.003793 0.0
2.977773 0.831808 -0.003716 0.0
0.418237 0.856691 0.003739 0.0
4.476129 1.061594 -0.000992 0.0
3.843123 1.722455 0.004463 0.0
4.347588 0.914319 -0.000497 0.0
0.532806 0.372638 0.000959 0.0
0.363059 0.966933 0.000440 0.0
4.168250 1.678209 0.005284 0.0
0.973201 1.099463 -0.005640 0.0
3.949001 0.265985 0.004330 0.0
4.442887 0.074915 0.006896 0.0
1.348920 1.202984 -0.005939 0.0
1.415540 0.385713 0.001261 0.0
3.796408 0.412978 -0.002086 0.0
4.813932 1.204423 -0.002295 0.0
2.525228 1.396381 -0.000508 0.0
0.512792 1.048715 -0.002747 0.0
3.054622 1.082735 0.001889 0.0
3.402712 0.146974 0.001442 0.0
2.859826 0.112195 0.002001 0.0
0.192848 1.722147 -0.001572 0.0
1.106793 2.000261 0.003295 0.0
2.508760 1.611920 0.000124 0.0
2.825518 1.584372 0.000194 0.0
0.745434 0.733702 -0.000690 0.0
3.786443 1.750974 0.000933 0.0
0.793579 0.166397 0.003666 0.0
1.818343 0.012269 -0.001879 0.0
0.708648 1.564600 0.000876 0.0
1.020306 0.864200 -0.000502 0.0
1.302533 2.074651 -0.001833 0.0
3.500540 1.420330 -0.002905 0.0
3.350984 0.226809 -0.000642 0.0
2.141788 1.732030 -0.001141 0.0
0.988473 1.886949 0.002292 0.0
0.009198 2.026649 0.005910 0.0
4.247752 1.050756 0.001765 0.0
2.841178 0.524771 0.002011 0.0
0.569547 0.268184 0.000719 0.0
4.639162 0.530637 -0.001542 0.0
2.911654 1.042261 0.002183 0.0
4.630441 0.920021 0.000075 0.0
0.447578 0.350852 0.001539 0.0
4.682710 1.414254 -0.000119 0.0
2.939521 2.044165 0.003958 0.0
3.322408 0.802419 -0.001674 0.0
0.252295 0.991800 -0.000940 0.0
3.814927 1.601262 -0.001350 0.0
2.619991 1.363507 -0.000575 0.0
3.059722 1.103788 -0.002200 0.0
3.592040 0.093047 0.003423 0.0
4.899333 1.671005 -0.002063 0.0
3.677994 1.000930 0.000948 0.0
4.455717 1.028044 -0.001152 0.0
4.439101 0.192717 -0.002144 0.0
0.875634 1.373511 0.003917 0.0
3.793121 0.154311 0.000288 0.0
2.144743 1.033605 -0.005319 0.0
4.361218 1.315971 -0.000927 0.0
3.436388 0.863476 -0.002878 0.0
0.465872 1.160219 -0.000238 0.0
3.312945 1.171472 0.001991 0.0
1.851907 0.810207 0.001738 0.0
2.902702 1.859503 0.000821 0.0
1.518846 0.336982 -0.003724 0.0
0.220229 2.050590 -0.002389 0.0
1.514773 1.562386 -0.000467 0.0
2.134701 1.012900 -0.000260 0.0
2.898983 0.107338 -0.003343 0.0
0.690124 0.217218 0.001678 0.0
4.562051 2.048934 0.001884 0.0
4.063235 1.250134 0.000514 0.0
4.247588 1.684618 0.000352 0.0
1.414889 1.579421 0.003729 0.0
0.879384 1.974235 -0.001405 0.0
3.919223 1.641178 0.000726 0.0
2.828818 0.931127 0.000705 0.0
3.622276 2.062461 0.001195 0.0
1.169819 0.082505 -0.002728 0.0
4.829601 1.112678 -0.001102 0.0
3.518482 1.492094 0.003856 0.0
4.922789 1.635405 0.000223 0.0
0.702115 0.138572 0.002975 0.0
1.032428 1.643377 0.000468 0.0
3.446514 0.643794 0.001516 0.0
2.197873 1.856124 0.001450 0.0
3.488529 1.674305 0.004009 0.0
4.450961 0.994842 0.000710 0.0
2.429751 1.074119 -0.000309 0.0
1.236329 0.705604 -0.003506 0.0
3.035456 0.104879 0.003905 0.0
1.132053 0.209832 0.000414 0.0
2.666822 0.937545 0.002066 0.0
2.586520 1.419891 0.004575 0.0
2.667194 2.058428 -0.000082 0.0
0.985458 0.085083 -0.002028 0.0
0.013806 2.011015 0.004214 0.0
3.141960 1.172580 -0.000667 0.0
4.528884 1.486389 0.001902 0.0
0.974700 0.252020 -0.001974 0.0
1.173092 1.386623 0.003190 0.0
4.136594 0.719859 -0.000501 0.0
2.746532 0.593018 0.001904 0.0
3.580929 0.166068 0.002780 0.0
0.206345 0.995031 -0.000003 0.0
1.663932 0.987974 0.001139 0.0
3.636710 1.694335 0.001269 0.0
0.502777 1.222100 0.001609 0.0
4.182852 1.004642 -0.000236 0.0
2.036941 0.390591 -0.000638 0.0
4.727245 1.175408 0.000673 0.0
1.730908 1.889597 -0.002071 0.0
3.371883 0.287075 -0.002013 0.0
4.410400 0.843123 -0.000677 0.0
3.826347 1.043012 -0.005787 0.0
3.485482 1.123785 0.002386 0.0
2.319227 1.937065 0.001312 0.0
1.752234 1.303842 0.001665 0.0
4.734862 1.428037 -0.000844 0.0
4.558291 0.230732 -0.001172 0.0
0.047072 1.538298 -0.003752 0.0
3.227170 1.224262 0.000288 0.0
1.170069 1.297416 0.004091 0.0
3.174711 0.742654 0.000020 0.0
1.831421 1.047688 0.001199 0.0
2.418563 0.507427 0.002639 0.0
3.237099 1.605984 0.005552 0.0
0.010281 2.068962 -0.002234 0.0
2.058352 1.970575 -0.001877 0.0
4.374045 2.077046 -0.001794 0.0
1.125236 0.444934 0.002378 0.0
1.455862 1.881076 -0.002513 0.0
3.227362 0.900579 -0.003498 0.0
0.497181 1.617227 -0.000278 0.0
1.215607 1.075779 0.000261 0.0
3.724539 0.018594 -0.001099 0.0
0.985085 0.757392 -0.004603 0.0
4.540643 1.978546 0.002461 0.0
0.360886 1.772434 -0.002498 0.0
0.371490 1.331713 0.002404 0.0
0.963448 1.455105 -0.000146 0.0
1.597724 0.299716 0.001051 0.0
2.795991 0.675731 -0.000884 0.0
1.168304 0.932481 -0.001195 0.0
1.212915 0.358282 -0.000789 0.0
0.887370 0.430922 -0.000010 0.0
1.731772 1.795463 0.000746 0.0
1.837683 1.965357 -0.000359 0.0
0.601496 0.668458 0.001022 0.0
0.584980 1.564254 0.003955 0.0
3.487905 1.670484 -0.002238 0.0
3.699654 1.254312 0.001924 0.0
4.015889 1.794757 -0.002679 0.0
2.311415 0.901784 -0.003101 0.0
3.610184 0.237877 -0.000117 0.0
0.892625 1.280237 -0.002590 0.0
1.902959 1.030391 -0.000440 0.0
2.876892 0.652192 -0.000462 0.0
1.032112 0.839401 -0.001631 0.0
0.696919 1.756573 0.002342 0.0
4.146009 0.222908 0.003244 0.0
2.423104 0.480627 -0.003596 0.0
0.143688 1.057231 -0.000017 0.0
0.470539 0.846084 -0.004716 0.0
3.698658 0.339879 -0.002215 0.0
1.798465 1.154259 0.002859 0.0
3.463005 1.818378 0.000786 0.0
4.825440 0.171899 0.001730 0.0
2.609556 0.426841 -0.000172 0.0
3.549082 0.623475 -0.001343 0.0
0.130517 0.673622 0.002618 0.0
0.552347 1.177003 0.003748 0.0
1.875168 0.745505 0.002270 0.0
1.665735 1.824587 -0.000960 0.0
4.318655 0.769118 0.000999 0.0
1.796021 0.339809 0.002407 0.0
4.392088 1.331887 0.000688 0.0
4.859023 0.231766 0.000130 0.0
3.430216 0.512176 0.001482 0.0
4.481298 1.952761 -0.004467 0.0
1.487636 0.518171 -0.001003 0.0
0.405236 0.495119 0.003612 0.0
2.566066 0.950936 -0.000347 0.0
2.209644 1.598870 0.002551 0.0
0.132061 1.249286 0.000132 0.0
2.445378 1.862910 -0.004127 0.0
4.085215 0.758461 -0.001054 0.0
0.580743 0.854745 0.000190 0.0
1.415072 1.884827 0.004375 0.0
1.536509 0.526564 0.000260 0.0
0.329119 1.742225 0.002706 0.0
4.047818 1.807965 -0.001607 0.0
3.352529 1.033278 0.002193 0.0
3.082580 0.315187 0.000738 0.0
1.603082 1.172916 -0.000809 0.0
4.198417 0.391179 0.000893 0.0
0.090962 0.918693 0.000881 0.0
0.303019 1.648341 -0.004111 0.0
3.903129 2.051541 0.000371 0.0
0.564147 0.672617 -0.001324 0.0
2.245376 2.026713 -0.002310 0.0
0.687200 1.851693 -0.001139 0.0
4.175819 2.063388 0.001663 0.0
4.440471 1.138461 0.001871 0.0
0.315681 0.812540 0.001102 0.0
1.404462 0.197345 0.000209 0.0
4.760391 0.480855 0.001682 0.0
0.026402 0.987489 -0.004008 0.0
0.661355 0.728491 -0.001338 0.0
1.411123 0.311901 0.001013 0.0
0.163301 2.041272 0.000863 0.0
3.119912 2.047531 -0.002252 0.0
1.360002 1.726445 0.001622 0.0
3.585872 0.259813 -0.000093 0.0
0.192822 1.276318 0.001082 0.0
4.091211 1.048219 -0.001406 0.0
3.964748 0.348405 -0.001091 0.0
2.098292 0.407478 0.000796 0.0
0.420697 0.857511 -0.001605 0.0
2.666921 0.109206 0.000752 0.0
0.800990 1.625668 0.003683 0.0
0.280115 1.899346 0.000787 0.0
3.117163 0.492595 -0.006007 0.0
2.833595 0.290192 -0.005588 0.0
4.048339 0.723822 0.001450 0.0
4.643388 0.740090 0.000773 0.0
1.076643 1.123623 -0.001019 0.0
1.485254 0.866283 -0.003218 0.0
3.864664 0.216165 -0.000063 0.0
3.566348 0.514163 -0.004736 0.0
1.723790 1.880967 -0.001509 0.0
4.054789 0.422794 0.005886 0.0
4.969907 1.167237 0.000159 0.0
1.043381 0.244387 -0.001455 0.0
2.202118 1.348788 0.002099 0.0
3.608096 1.878459 0.001879 0.0
1.846015 1.719985 0.004855 0.0
2.468891 0.995556 -0.000330 0.0
4.001333 0.665749 0.000922 0.0
2.274845 2.016738 0.000958 0.0
