1.15133713 0.52351998 -0.00353039 0.00000000
0.15192008 1.28160067 -0.00014211 0.00000000
3.86766970 0.08712756 0.00290279 0.00000000
4.28895853 0.14849948 -0.00189409 0.00000000
0.65605490 1.02970306 0.00242859 0.00000000
1.58790364 0.30260095 -0.00086438 0.00000000
3.70847692 1.62095490 -0.00148548 0.00000000
3.79957068 0.89693785 -0.00084628 0.00000000
0.15488076 0.57737618 0.00134540 0.00000000
4.62391215 1.68270785 -0.00530461 0.00000000
1.96395781 0.20688477 0.00055564 0.00000000
0.86076494 1.56312489 0.00053267 0.00000000
1.93703857 0.72848319 -0.00365770 0.00000000
2.52581109 1.05133575 0.00091039 0.00000000
3.01544338 1.72417644 0.00160348 0.00000000
4.05327678 1.77238086 -0.00192958 0.00000000
1.79223815 0.32913939 -0.00157665 0.00000000
4.30103925 0.89121173 -0.00152375 0.00000000
0.78003968 1.81631464 0.00351027 0.00000000
2.19403356 0.54245143 0.00153205 0.00000000
0.98779492 0.95006511 -0.00089260 0.00000000
3.35978311 0.51430957 -0.00270609 0.00000000
2.73843818 1.27496728 -0.00237430 0.00000000
4.69809677 1.86624940 -0.00039065 0.00000000
1.88361580 0.38610800 0.00230268 0.00000000
0.21498272 1.50371616 -0.00204355 0.00000000
0.24499864 0.25870757 0.00233056 0.00000000
4.65837184 1.62955327 0.00396640 0.00000000
2.79168934 1.65891617 0.00303014 0.00000000
2.82803971 0.06967649 -0.00245087 0.00000000
4.55037001 0.63604625 -0.00009804 0.00000000
2.42244968 1.20619088 -0.00236899 0.00000000
0.12227753 1.22536087 0.00200194 0.00000000
2.08048882 1.26411028 -0.00008133 0.00000000
1.74901676 0.91729483 -0.00255400 0.00000000
3.74929538 0.37400589 0.00088789 0.00000000
2.84666842 1.38607530 0.00232111 0.00000000
2.82676105 0.74204025 -0.00045091 0.00000000
1.18666106 1.69417838 0.00037042 0.00000000
2.05497961 1.26664552 -0.00177429 0.00000000
0.69384370 1.85042881 -0.00033692 0.00000000
4.66869401 1.72498801 -0.00125287 0.00000000
0.11384746 1.20524492 0.00152188 0.00000000
3.06678914 1.89827226 0.00369324 0.00000000
2.39152599 1.90416261 0.00573937 0.00000000
0.65185867 1.41593324 0.00177246 0.00000000
3.58738252 0.77600443 -0.00059782 0.00000000
0.05572311 1.04753493 0.00319713 0.00000000
2.92349777 1.90095094 0.00009887 0.00000000
2.43348660 1.60534968 -0.00202509 0.00000000
1.97419996 0.10714779 -0.00368403 0.00000000
4.37274526 0.14611651 0.00165514 0.00000000
0.44487987 0.24728398 -0.00136936 0.00000000
4.48636376 1.57104933 -0.00352425 0.00000000
4.29358354 1.18827173 0.00160351 0.00000000
1.04867358 0.44300193 -0.00023990 0.00000000
3.77647830 0.61043238 0.00068072 0.00000000
1.69581047 1.81354436 -0.00039662 0.00000000
3.56080196 1.37379935 -0.00037349 0.00000000
4.21784868 0.89950649 -0.00098394 0.00000000
2.90022054 0.98833563 -0.00255958 0.00000000
3.03905134 0.43340122 -0.00069975 0.00000000
4.61569459 1.81426537 -0.00121055 0.00000000
3.75950754 1.70356423 0.00182823 0.00000000
2.64759137 1.71385007 -0.00290093 0.00000000
2.60954534 0.35710152 -0.00063638 0.00000000
3.97743258 0.88992981 0.00233119 0.00000000
0.95357172 0.64429568 0.00105705 0.00000000
0.94845094 1.87042909 -0.00481292 0.00000000
4.33877841 1.35368328 0.00005722 0.00000000
2.50611757 0.97529912 0.00293752 0.00000000
2.43762354 1.27405560 0.00140614 0.00000000
2.49791703 0.14324687 0.00044827 0.00000000
3.13784374 0.26929248 -0.00214572 0.00000000
2.61102471 0.27324052 -0.00281291 0.00000000
3.60612752 0.10400203 0.00245702 0.00000000
3.19551168 0.23056489 0.00113478 0.00000000
2.10789114 1.28461543 -0.00314816 0.00000000
2.49702333 1.70587572 -0.00115736 0.00000000
4.18218200 0.48962595 0.00006528 0.00000000
3.83800727 1.23117814 -0.00145638 0.00000000
1.69418613 1.21750197 0.00003544 0.00000000
4.40492358 0.09147463 0.00242811 0.00000000
2.24533420 0.82159256 0.00291089 0.00000000
1.03132345 1.06371474 -0.00081290 0.00000000
1.84415753 0.01120465 -0.00101884 0.00000000
3.33525350 0.52023795 0.00154559 0.00000000
2.80530485 0.87711637 -0.00259659 0.00000000
4.27360299 1.72219706 -0.00138278 0.00000000
4.33478996 1.79628148 -0.00150653 0.00000000
3.49678308 1.21871571 0.00147902 0.00000000
3.78041029 1.66387197 -0.00306936 0.00000000
4.48047781 1.22039985 -0.00282365 0.00000000
2.28916198 1.07290836 -0.00180487 0.00000000
0.22977734 0.74474149 0.00608195 0.00000000
0.56470089 1.88985501 -0.00029106 0.00000000
2.11137727 0.60504909 -0.00401068 0.00000000
2.61442285 1.02254889 0.00472565 0.00000000
4.08952016 1.02925650 -0.00026042 0.00000000
3.41160868 1.68496417 0.00101352 0.00000000
1.80052714 0.93658921 0.00056116 0.00000000
2.82843735 0.60687930 0.00235636 0.00000000
1.77123422 0.69439519 -0.00415594 0.00000000
3.76010573 0.74571904 -0.00097563 0.00000000
2.84528145 0.62317644 -0.00139755 0.00000000
0.28812928 0.59218090 -0.00575077 0.00000000
3.83114528 1.00762654 0.00750902 0.00000000
0.89179502 0.14726901 0.00142698 0.00000000
0.43576568 0.33343878 -0.00110728 0.00000000
0.61738518 1.01762782 -0.00111443 0.00000000
1.59785479 0.02220969 0.00141845 0.00000000
2.79245903 0.26141639 -0.00361476 0.00000000
0.21997551 0.65789717 -0.00123343 0.00000000
2.03001006 1.69718045 -0.00387729 0.00000000
3.63218529 0.11911931 -0.00166091 0.00000000
2.05206526 0.57819836 -0.00035393 0.00000000
4.21509898 0.07212159 0.00099349 0.00000000
4.40571182 1.29992231 -0.00127583 0.00000000
0.39989305 1.32975083 -0.00131971 0.00000000
0.81831389 0.51814588 0.00065417 0.00000000
1.05731472 1.56829868 0.00055305 0.00000000
1.57684119 0.75292517 -0.00338916 0.00000000
1.56593212 1.68519989 -0.00232565 0.00000000
1.10429035 0.37297436 0.00354236 0.00000000
1.52915849 0.79537294 -0.00060201 0.00000000
2.21532860 1.68727622 0.00110995 0.00000000
2.13023032 1.10032901 -0.00337802 0.00000000
1.03301141 0.82914616 -0.00357680 0.00000000
1.25795254 1.04990858 0.00062422 0.00000000
3.30431682 0.66862190 0.00031925 0.00000000
1.95536624 1.35065167 0.00118165 0.00000000
2.02707392 0.92590498 -0.00025584 0.00000000
0.88205943 0.37829543 0.00078396 0.00000000
4.03033610 1.14783375 0.00107633 0.00000000
0.22493020 0.20260471 0.00082643 0.00000000
1.92327443 0.76608311 -0.00225650 0.00000000
0.31727501 0.89820283 0.00195312 0.00000000
0.66678368 0.14727533 -0.00223807 0.00000000
2.89371042 0.92258484 -0.00362054 0.00000000
1.16540971 1.61375143 -0.00070456 0.00000000
0.91415086 1.76190449 0.00186242 0.00000000
0.61893852 0.03385737 -0.00159806 0.00000000
1.00801397 1.55216526 0.00540945 0.00000000
2.00807086 0.51887388 0.00152251 0.00000000
0.94097143 0.30648203 0.00145542 0.00000000
3.20665645 1.26733566 0.00238874 0.00000000
1.77053841 1.51205375 0.00422335 0.00000000
1.74786316 0.55305406 -0.00080477 0.00000000
2.25678708 0.19682964 0.00196517 0.00000000
2.54321699 0.54289364 0.00114827 0.00000000
0.59451045 1.10642134 0.00607885 0.00000000
0.96474834 1.24698468 0.00152758 0.00000000
3.04434099 0.08996027 0.00010852 0.00000000
3.28458987 1.06085571 -0.00195503 0.00000000
3.99524333 0.78541149 -0.00108086 0.00000000
3.38286421 0.61674097 -0.00525587 0.00000000
0.68497189 0.15146985 0.00436271 0.00000000
2.47847801 1.19791366 0.00310728 0.00000000
0.34209501 0.47177635 0.00187304 0.00000000
0.11317214 0.08867624 -0.00253938 0.00000000
1.71330740 1.70858504 -0.00087149 0.00000000
4.10180458 0.54534452 -0.00301844 0.00000000
2.50902065 1.76434215 -0.00063357 0.00000000
1.42038207 1.11326879 -0.00330296 0.00000000
4.62851878 0.72068535 0.00020010 0.00000000
3.87586358 1.16277102 -0.00168435 0.00000000
1.28406923 0.11746056 0.00110311 0.00000000
4.36118665 1.42141495 0.00169223 0.00000000
1.65398070 1.17413905 0.00262096 0.00000000
1.96831413 0.83518123 0.00303130 0.00000000
0.21458747 0.01959475 0.00170104 0.00000000
1.56543249 0.22103229 0.00440461 0.00000000
3.27007574 1.26768829 -0.00028467 0.00000000
3.96779498 1.56646327 0.00095622 0.00000000
0.24237705 0.47478952 -0.00328976 0.00000000
1.38361384 0.49119351 -0.00157281 0.00000000
3.75314811 0.32023530 -0.00111157 0.00000000
1.40355598 0.39178937 -0.00023521 0.00000000
4.45483403 0.66609002 -0.00003628 0.00000000
2.78667068 0.34072441 -0.00085757 0.00000000
1.14791334 1.51791631 -0.00414120 0.00000000
1.69387211 1.40730600 0.00350316 0.00000000
1.13250228 0.47060907 -0.00007720 0.00000000
4.10146275 0.16838379 0.00392164 0.00000000
3.61336856 1.77031411 -0.00075826 0.00000000
0.86651719 1.85287496 0.00229522 0.00000000
3.15930557 1.48020123 -0.00324175 0.00000000
1.31255107 1.00817634 0.00271055 0.00000000
3.48753475 0.85292038 0.00082098 0.00000000
2.42252425 0.75164854 0.00142888 0.00000000
2.57260996 0.81785717 0.00239897 0.00000000
0.57022582 0.90406851 0.00266369 0.00000000
2.75652848 1.54592687 -0.00309583 0.00000000
1.91682806 0.47619625 -0.00154073 0.00000000
0.44008052 1.75181090 -0.00078708 0.00000000
0.50340669 0.01849866 0.00031268 0.00000000
3.78941912 0.61271976 0.00082549 0.00000000
4.14175390 0.81386887 0.00306042 0.00000000
3.87705144 1.57351049 -0.00264213 0.00000000
2.86682692 1.58459613 0.00403313 0.00000000
1.97600960 0.55770981 0.00215944 0.00000000
4.04040769 1.59633905 -0.00313519 0.00000000
3.39313693 1.14727433 0.00308351 0.00000000
4.62474007 0.96190301 -0.00174841 0.00000000
0.55113453 1.25663268 0.00405866 0.00000000
4.14041379 0.77561329 -0.00039890 0.00000000
3.12807433 1.52320471 -0.00145927 0.00000000
4.28761096 1.47122545 -0.00290101 0.00000000
3.64509883 1.11412322 -0.00387400 0.00000000
2.74396393 1.39317644 -0.00740664 0.00000000
3.01233276 1.76181498 0.00133570 0.00000000
0.53878912 0.51273748 -0.00184180 0.00000000
1.99094057 0.27503682 -0.00027485 0.00000000
4.24704632 0.24311196 0.00124171 0.00000000
0.27761175 0.50144216 0.00040686 0.00000000
2.11655484 1.05356148 0.00016850 0.00000000
1.74149294 1.81784011 0.00440484 0.00000000
2.03761378 0.94100927 -0.00044803 0.00000000
0.73800061 1.70469080 0.00346128 0.00000000
2.77581586 1.41403609 -0.00091381 0.00000000
4.70901797 0.40844201 0.00080632 0.00000000
3.61870130 1.20643964 0.00203250 0.00000000
2.85581111 1.34351662 0.00108987 0.00000000
3.30658680 1.84857511 -0.00273885 0.00000000
4.00544548 0.83623003 -0.00476244 0.00000000
2.72591340 1.19474434 0.00241299 0.00000000
4.62315458 0.47391489 0.00215813 0.00000000
1.67820362 0.06547296 0.00073344 0.00000000
1.73438195 0.87241447 0.00266510 0.00000000
0.16704252 1.72879065 0.00380895 0.00000000
1.61908438 1.09269840 -0.00080019 0.00000000
3.88654640 1.31461160 0.00618325 0.00000000
0.00744177 1.55030835 -0.00351950 0.00000000
0.59222396 0.77732691 -0.00050814 0.00000000
1.34284683 1.83021126 0.00112416 0.00000000
0.65723584 1.19912748 0.00150513 0.00000000
3.40526745 0.48959644 0.00231075 0.00000000
4.31480853 0.24658020 -0.00042470 0.00000000
0.84797186 1.63835098 0.00310672 0.00000000
0.80161932 0.99946570 0.00607879 0.00000000
2.85948251 0.03855791 -0.00209412 0.00000000
2.70687410 1.32540660 -0.00489505 0.00000000
3.69027034 0.82437094 -0.00044590 0.00000000
3.58595611 0.13665626 0.00184365 0.00000000
2.93778080 0.87069601 -0.00170888 0.00000000
3.96277589 0.06493221 0.00402504 0.00000000
1.41387606 0.56148179 -0.00265892 0.00000000
0.30770863 0.06943607 -0.00307437 0.00000000
1.79359843 1.45756458 -0.00228388 0.00000000
4.31141998 0.80542090 0.00485502 0.00000000
1.43184070 0.73062682 -0.00272035 0.00000000
2.55243643 0.96761013 -0.00323567 0.00000000
4.38501126 1.39127710 0.00352630 0.00000000
4.49867773 1.65944006 0.00047581 0.00000000
0.10067291 1.46258317 -0.00423518 0.00000000
0.28986397 1.92473004 -0.00260830 0.00000000
2.19412785 0.15582769 0.00096400 0.00000000
2.44043590 1.60952798 0.00273835 0.00000000
2.49578048 1.89527917 0.00314330 0.00000000
2.42416545 1.08353677 -0.00259073 0.00000000
0.98719025 0.81176406 0.00287006 0.00000000
2.60450893 0.29905107 -0.00336076 0.00000000
3.81918337 1.25537277 -0.00033334 0.00000000
2.86299988 1.69420303 0.00264637 0.00000000
2.95031030 0.84346455 -0.00066096 0.00000000
2.06533614 1.70820975 0.00050483 0.00000000
4.43654572 1.83282016 0.00499480 0.00000000
1.77493287 1.15179676 0.00327326 0.00000000
3.40471974 0.37638273 -0.00089151 0.00000000
4.52041679 0.77699778 -0.00063538 0.00000000
2.88272309 1.81088585 0.00196142 0.00000000
1.23150539 0.13628638 -0.00111414 0.00000000
2.44637799 1.57668690 -0.00047085 0.00000000
2.36933651 0.62192872 0.00261674 0.00000000
2.60951122 0.25730605 0.00205897 0.00000000
1.73621986 0.08310310 -0.00376958 0.00000000
3.61375080 1.35670118 0.00100147 0.00000000
2.58633273 1.49337598 0.00217402 0.00000000
0.39131510 1.81260459 -0.00213824 0.00000000
0.38717749 1.11976866 0.00243442 0.00000000
3.01636846 1.78074038 -0.00046052 0.00000000
0.83529502 0.79223462 -0.00123190 0.00000000
4.28887746 1.17631999 -0.00097262 0.00000000
4.64764481 1.73240831 -0.00437415 0.00000000
1.70957628 1.90836372 0.00188519 0.00000000
3.85810888 1.51638845 0.00498535 0.00000000
3.33156676 1.77071960 0.00314825 0.00000000
1.14616264 0.69720126 -0.00103020 0.00000000
2.89223377 1.72812889 0.00182132 0.00000000
3.34466714 1.12623056 0.00012305 0.00000000
3.95030325 0.17927921 0.00067627 0.00000000
2.98413390 1.85655751 -0.00537248 0.00000000
4.27632757 1.59701191 -0.00336195 0.00000000
3.45604652 0.47696033 -0.00046542 0.00000000
0.33468475 1.52723397 -0.00144259 0.00000000
3.30722417 1.88177576 -0.00116298 0.00000000
3.57531462 1.80326561 -0.00466637 0.00000000
3.70366228 1.21043791 -0.00212791 0.00000000
2.26252763 0.89383821 0.00452534 0.00000000
3.89298746 0.35421304 0.00748058 0.00000000
3.58017301 1.83372314 0.00105036 0.00000000
3.79100803 1.79832241 -0.00305854 0.00000000
2.81099529 1.44697518 0.00021480 0.00000000
2.20158781 1.44410619 -0.00224616 0.00000000
0.35786842 0.94205237 0.00056813 0.00000000
3.92316819 0.26567458 0.00182942 0.00000000
3.68049561 0.93787698 -0.00121658 0.00000000
0.41769691 0.50994304 -0.00007644 0.00000000
0.99531333 1.85770186 -0.00058366 0.00000000
3.78056079 0.79981370 -0.00192378 0.00000000
0.28391984 1.76807668 0.00131417 0.00000000
1.89124212 0.85632548 -0.00193479 0.00000000
2.82328522 1.63532676 -0.00138634 0.00000000
3.29461550 0.22132676 -0.00375332 0.00000000
2.35609717 0.96708432 -0.00445031 0.00000000
0.46628095 0.97380813 -0.00321084 0.00000000
4.01926789 1.28755850 0.00188706 0.00000000
1.99748672 1.52891867 0.00308243 0.00000000
1.96443358 0.00303582 0.00252906 0.00000000
2.29094345 0.61221141 0.00061913 0.00000000
3.06987818 0.67897106 0.00264299 0.00000000
1.52625826 1.64495627 -0.00008655 0.00000000
0.12836879 1.20996879 0.00004209 0.00000000
2.77722157 1.11680806 0.00096816 0.00000000
1.63922052 1.60079697 0.00155277 0.00000000
2.81814748 1.08785917 0.00107982 0.00000000
0.33655341 0.37688226 -0.00237168 0.00000000
3.59865924 1.49840058 0.00130030 0.00000000
0.11368350 1.15099957 0.00138501 0.00000000
1.86031684 1.60172749 -0.00110082 0.00000000
1.50898278 0.24516940 -0.00091684 0.00000000
1.30735579 0.46786634 0.00081827 0.00000000
1.27097406 1.85107033 0.00293179 0.00000000
0.49995413 0.75273068 -0.00184925 0.00000000
3.98122684 0.78085014 0.00024170 0.00000000
3.39494445 0.56478008 0.00141504 0.00000000
4.26650274 0.46392412 0.00138209 0.00000000
0.02322760 0.83063627 0.00092498 0.00000000
2.55605206 1.12189892 -0.00201325 0.00000000
1.07407009 1.44071488 -0.00026878 0.00000000
3.18537277 0.23904672 -0.00324413 0.00000000
2.92243431 1.76878300 0.00037275 0.00000000
4.40672171 0.41742512 0.00161640 0.00000000
3.61558584 0.00308741 -0.00296861 0.00000000
4.14192080 0.55461778 -0.00254374 0.00000000
1.25620951 0.57472819 0.00357490 0.00000000
2.79015841 1.50581374 0.00318260 0.00000000
3.51748364 1.04722372 -0.00147596 0.00000000
4.35134286 0.19622795 0.00071841 0.00000000
1.72947657 1.28290726 -0.00004929 0.00000000
0.12158378 0.13083101 0.00100995 0.00000000
2.68081796 0.59699219 -0.00062105 0.00000000
1.98141682 0.33841271 -0.00324090 0.00000000
0.46457680 0.18321033 -0.00216870 0.00000000
0.76298966 1.77299842 0.00121718 0.00000000
3.17702763 0.76549719 0.00159716 0.00000000
0.80590151 1.77582021 -0.00784062 0.00000000
0.79518297 1.64115488 -0.00269411 0.00000000
1.89654511 0.74537469 0.00119325 0.00000000
1.05315422 1.03610186 0.00146309 0.00000000
3.53886843 1.72710898 0.00116588 0.00000000
4.29573920 0.42265908 -0.00108188 0.00000000
2.00862360 0.22914110 -0.00118837 0.00000000
3.72953267 1.34250351 0.00196120 0.00000000
0.72067332 1.91101042 -0.00177168 0.00000000
2.40522401 0.54089662 0.00136566 0.00000000
0.61688381 0.42326741 -0.00180178 0.00000000
0.86452626 0.85972103 0.00434236 0.00000000
0.76606268 0.79754495 0.00144675 0.00000000
2.88376495 0.12350242 0.00023563 0.00000000
0.18143174 1.56215901 -0.00207587 0.00000000
2.31671395 1.44189969 0.00267176 0.00000000
2.38191491 1.01062380 -0.00131553 0.00000000
4.05772090 1.19878821 -0.00213413 0.00000000
4.15335516 1.15867226 0.00140911 0.00000000
0.18681336 0.28317938 0.00213526 0.00000000
0.48981388 1.82701958 0.00125237 0.00000000
2.73141946 0.31558946 -0.00056243 0.00000000
1.43781500 1.47375804 0.00258912 0.00000000
1.92884946 0.71040625 -0.00358772 0.00000000
0.81674492 0.40751993 -0.00049961 0.00000000
4.55861368 1.55156321 0.00015983 0.00000000
0.12560319 1.18025346 -0.00612047 0.00000000
4.54439852 0.79819216 -0.00009219 0.00000000
0.07293094 0.70554438 0.00020745 0.00000000
0.01603298 0.92424008 -0.00150248 0.00000000
3.88638495 1.90080869 -0.00402782 0.00000000
2.92593773 0.62354348 -0.00096351 0.00000000
4.61672184 0.38572187 0.00141385 0.00000000
1.78680388 0.09538815 0.00396895 0.00000000
2.38327791 0.24572146 -0.00032786 0.00000000
3.99007530 1.44168856 -0.00314774 0.00000000
3.17727109 0.10878650 0.00003078 0.00000000
1.60158570 1.02708382 -0.00205130 0.00000000
2.43035460 0.86635793 -0.00454052 0.00000000
1.27604382 1.01007050 -0.00056351 0.00000000
2.60847213 0.14149989 -0.00271033 0.00000000
4.47454092 0.91897760 0.00106894 0.00000000
2.43496347 0.38611153 -0.00222496 0.00000000
3.04419163 0.03312928 0.00099564 0.00000000
2.47825109 1.22336516 0.00211873 0.00000000
3.60505705 0.88738231 -0.00191954 0.00000000
3.60584027 1.52336467 -0.00024574 0.00000000
4.65747038 1.90031176 0.00192234 0.00000000
2.00741612 0.43010299 0.00273580 0.00000000
4.43483455 0.76251499 0.00532743 0.00000000
3.38705444 0.95086737 -0.00354462 0.00000000
2.42063535 1.28449401 0.00171789 0.00000000
0.18709118 1.57361214 -0.00121455 0.00000000
0.76463565 1.40575070 0.00017785 0.00000000
2.03603223 0.73748867 -0.00281815 0.00000000
0.62213538 1.57812598 0.00026504 0.00000000
2.34956229 0.97221051 0.00380557 0.00000000
4.05420799 1.64288957 0.00036076 0.00000000
4.58706866 0.11791927 -0.00159953 0.00000000
0.14477346 0.94367297 -0.00445416 0.00000000
2.16687319 1.62308967 0.00211486 0.00000000
2.59410434 1.54718506 -0.00197444 0.00000000
3.15847388 1.25523664 -0.00075409 0.00000000
3.63161095 0.60821902 -0.00051152 0.00000000
4.37941864 0.93815831 -0.00104592 0.00000000
1.67589149 0.90089988 -0.00243357 0.00000000
4.23436145 1.77026879 0.00049741 0.00000000
1.14870643 0.29594000 -0.00091289 0.00000000
4.17177770 1.91167108 0.00065937 0.00000000
4.04630542 1.40607930 0.00066927 0.00000000
1.61400091 1.56749749 -0.00151652 0.00000000
3.39128063 1.81728516 -0.00435745 0.00000000
4.49184008 0.76484533 -0.00063640 0.00000000
2.01828264 1.93113132 -0.00703571 0.00000000
0.29216685 1.81808624 -0.00222440 0.00000000
2.60175034 0.19936503 -0.00068715 0.00000000
0.29816303 1.61426485 0.00036098 0.00000000
3.10762802 1.76903332 -0.00104179 0.00000000
0.31863275 0.45327294 0.00386032 0.00000000
0.68362120 1.34173021 0.00427106 0.00000000
0.68779824 0.39339547 -0.00027825 0.00000000
4.03314809 1.59843365 0.00157589 0.00000000
2.15512604 1.74534425 0.00237447 0.00000000
3.74636412 1.74507457 -0.00234512 0.00000000
2.02418073 0.47758591 0.00090042 0.00000000
3.79697890 0.89989431 -0.00449101 0.00000000
3.21429045 0.28582569 0.00269552 0.00000000
0.81287077 1.34204620 0.00211186 0.00000000
3.32043244 1.92067999 0.00118331 0.00000000
1.17243688 0.19932999 0.00331090 0.00000000
0.62982772 1.77303849 0.00271929 0.00000000
0.40373708 1.87675667 -0.00106597 0.00000000
2.13121535 1.78980520 -0.00418701 0.00000000
3.68969334 1.60924686 -0.00024906 0.00000000
4.12234069 1.49442110 0.00336867 0.00000000
2.82085158 1.09904909 0.00138935 0.00000000
3.84601712 0.31665983 -0.00564801 0.00000000
2.24901977 1.27463235 -0.00556002 0.00000000
3.85628319 0.34096076 0.00014690 0.00000000
4.02836628 0.27981155 0.00115632 0.00000000
2.94370014 1.08121335 -0.00270503 0.00000000
4.18956612 1.41164569 0.00233335 0.00000000
4.01614240 1.65754080 0.00322092 0.00000000
0.87961760 0.14258966 0.00202242 0.00000000
3.96455039 1.38363720 -0.00559252 0.00000000
3.50631351 1.62430382 -0.00105319 0.00000000
3.29470033 1.91664163 -0.00158090 0.00000000
0.28466317 1.59397439 -0.00398785 0.00000000
4.42288612 0.83402764 0.00014344 0.00000000
4.46511667 0.59443178 -0.00044368 0.00000000
2.63445693 0.62358806 0.00376671 0.00000000
0.42881240 1.45747203 -0.00157145 0.00000000
2.49879203 1.04155439 -0.00403740 0.00000000
1.55822513 0.91934718 -0.00221013 0.00000000
1.63695863 0.06110549 -0.00109340 0.00000000
1.42788985 1.56549843 0.00006970 0.00000000
2.29309514 0.10013931 -0.00071024 0.00000000
3.25098364 1.17245088 0.00212046 0.00000000
0.89332260 0.49337575 0.00132515 0.00000000
2.69932816 0.45346544 -0.00105652 0.00000000
1.06811126 1.02555513 -0.00256389 0.00000000
0.74284037 1.13593985 -0.00059748 0.00000000
0.45991282 1.05442475 -0.00240886 0.00000000
1.05225357 0.70416932 -0.00056149 0.00000000
0.27270502 1.41477845 -0.00002994 0.00000000
1.10331371 0.59248837 -0.00248729 0.00000000
2.52177550 1.45219807 0.00207252 0.00000000
2.11436271 0.69003123 0.00144439 0.00000000
1.09665596 1.91541946 0.00010754 0.00000000
1.86944890 1.19212385 -0.00223421 0.00000000
4.72248211 1.14430485 -0.00086526 0.00000000
2.83057355 1.39827686 -0.00335139 0.00000000
0.13895108 0.64358709 -0.00085655 0.00000000
4.21763161 0.07167613 0.00317949 0.00000000
3.06209009 0.87958277 -0.00359777 0.00000000
2.87972934 0.53542302 0.00444847 0.00000000
3.41307106 1.74489647 0.00302878 0.00000000
0.57561242 1.34221839 -0.00122858 0.00000000
3.42611969 0.88386677 0.00000617 0.00000000
2.52409129 1.24739014 0.00048607 0.00000000
2.88306317 0.69408482 0.00388120 0.00000000
1.03709818 1.27029752 0.00140495 0.00000000
3.29024355 0.15805258 -0.00446539 0.00000000
3.60739517 1.05125844 0.00042885 0.00000000
0.51277192 1.81591478 -0.00087957 0.00000000
3.93162588 0.22858757 -0.00036454 0.00000000
1.77114378 1.51389838 -0.00146459 0.00000000
2.49803367 0.98555817 -0.00424526 0.00000000
2.00108744 0.50223522 -0.00075423 0.00000000
3.63142709 1.43524885 0.00193968 0.00000000
1.63576161 0.81222237 -0.00077179 0.00000000
2.21421760 0.51700642 0.00195407 0.00000000
2.62212950 0.82324690 0.00126393 0.00000000
3.54178180 0.74107539 -0.00410632 0.00000000
0.79638098 1.44564778 0.00109343 0.00000000
3.54324762 1.26714412 -0.00183717 0.00000000
2.54482849 1.36352147 0.00035421 0.00000000
3.62066251 0.99790974 0.00090378 0.00000000
1.93433117 1.90049448 -0.00114391 0.00000000
2.96359366 1.57002642 -0.00064084 0.00000000
2.81001307 1.08451300 -0.00335573 0.00000000
2.05018594 0.39402797 -0.00127648 0.00000000
4.27217878 1.20770212 -0.00305725 0.00000000
3.31473762 1.90803329 0.00074001 0.00000000
3.33443707 0.72490561 -0.00241012 0.00000000
3.25319961 1.21719407 -0.00218091 0.00000000
0.77934773 1.55398296 -0.00605021 0.00000000
3.77610875 1.14085891 -0.00028429 0.00000000
2.41453620 0.20278103 0.00435635 0.00000000
4.20773026 1.21581538 0.00265079 0.00000000
0.73421089 0.32914900 -0.00245295 0.00000000
1.03411550 0.79199650 0.00068583 0.00000000
0.77298127 1.41975456 0.00184642 0.00000000
3.86120874 0.68731818 -0.00110618 0.00000000
0.15114432 1.56904187 0.00117705 0.00000000
4.29102148 0.70996861 -0.00079210 0.00000000
4.22629648 0.36393371 -0.00586208 0.00000000
4.28714887 0.93988322 -0.00225470 0.00000000
2.10667775 0.48353617 -0.00208929 0.00000000
3.73435697 0.93138026 0.00420560 0.00000000
4.37527723 1.30496187 -0.00149181 0.00000000
4.61728586 1.87462991 0.00099577 0.00000000
1.64687554 1.47499306 -0.00107331 0.00000000
3.71138805 0.47647403 0.00029173 0.00000000
0.48023664 1.42531448 -0.00064153 0.00000000
3.43005420 1.02127555 0.00018357 0.00000000
0.87081729 0.36423049 0.00114210 0.00000000
2.29926497 1.31036776 -0.00305504 0.00000000
0.86650689 0.46665465 -0.00383987 0.00000000
2.93488537 0.13377637 0.00329870 0.00000000
2.93234820 1.60198652 0.00054377 0.00000000
2.82736352 0.70901552 0.00234873 0.00000000
2.17583836 0.05237036 0.00361333 0.00000000
0.68735728 1.59978657 0.00069461 0.00000000
2.53757552 0.80125804 0.00312849 0.00000000
4.06691390 1.81122198 -0.00016746 0.00000000
4.51912800 0.08527775 0.00191837 0.00000000
0.97282570 0.54003611 -0.00152438 0.00000000
2.10555100 1.84007761 0.00131586 0.00000000
0.51144972 0.95253328 0.00230295 0.00000000
2.78395767 0.86934523 0.00106579 0.00000000
1.63090278 0.67030822 0.00135723 0.00000000
0.19832351 1.20065313 -0.00277093 0.00000000
3.51813677 1.53481547 -0.00593529 0.00000000
1.43730073 1.74522076 -0.00239599 0.00000000
0.73541791 1.28381047 0.00070449 0.00000000
3.50836729 1.54646604 -0.00146898 0.00000000
2.53818840 1.88163555 0.00292778 0.00000000
3.91693415 1.92407355 -0.00172498 0.00000000
2.09285203 0.96837598 0.00091680 0.00000000
2.73166520 1.29541662 0.00634456 0.00000000
4.58861203 0.05506096 -0.00037554 0.00000000
1.77902611 1.72311022 0.00060691 0.00000000
3.10583451 1.56001638 0.00180465 0.00000000
0.23552119 0.88623480 0.00073231 0.00000000
1.51895556 0.98226685 -0.00316701 0.00000000
2.28289882 1.65641988 0.00018479 0.00000000
0.95866983 0.33690936 0.00312616 0.00000000
0.47156015 0.24382939 0.00297210 0.00000000
4.50641022 0.59907884 0.00247999 0.00000000
1.29829818 1.64695764 -0.00049495 0.00000000
2.13723649 0.06902790 0.00178248 0.00000000
3.41069763 0.86772225 -0.00479724 0.00000000
3.18164431 1.27121489 0.00173833 0.00000000
1.72691987 0.20521064 0.00301670 0.00000000
2.41254850 0.02609819 -0.00052927 0.00000000
2.85816905 1.30531338 -0.00131888 0.00000000
2.07198265 1.89498929 0.00170200 0.00000000
1.12981141 1.25237996 -0.00022324 0.00000000
1.99922080 0.94374352 -0.00016899 0.00000000
0.79846314 0.87328416 -0.00170017 0.00000000
0.27889296 0.24561817 -0.00061509 0.00000000
2.21047547 0.38199215 -0.00445942 0.00000000
0.33922592 1.13202447 0.00264472 0.00000000
2.41615915 0.85570122 -0.00109048 0.00000000
2.49342696 1.19422016 -0.00089175 0.00000000
3.00850437 0.12649767 -0.00167011 0.00000000
1.69817564 1.42940609 0.00046826 0.00000000
3.07028083 1.54520369 -0.00080015 0.00000000
2.51460241 1.77822012 -0.00093569 0.00000000
1.08973445 1.68662767 -0.00005177 0.00000000
0.72235702 0.17825853 -0.00232254 0.00000000
1.79212661 0.04678684 -0.00170705 0.00000000
1.52194034 1.69304681 0.00000857 0.00000000
0.19591262 0.28523911 -0.00890249 0.00000000
3.20090067 1.31360030 -0.00251875 0.00000000
3.63134673 0.70408980 -0.00061308 0.00000000
3.22205516 0.37823802 0.00209959 0.00000000
0.61971329 1.25972913 0.00517832 0.00000000
1.51639858 1.01795307 0.00238167 0.00000000
4.55479397 0.27199930 0.00018512 0.00000000
2.64039865 1.86928145 0.00331258 0.00000000
2.33684172 1.12373843 -0.00017660 0.00000000
4.64914788 0.66117453 0.00035149 0.00000000
2.53402903 1.53289546 -0.00158238 0.00000000
1.19036932 1.34105751 0.00000789 0.00000000
1.32794129 1.69579012 -0.00262597 0.00000000
3.87796692 1.72332750 0.00139319 0.00000000
2.08442573 1.12373874 0.00249149 0.00000000
1.70685418 0.20604904 0.00039194 0.00000000
1.50483913 0.95517730 -0.00054716 0.00000000
2.47480227 1.87180152 -0.00254419 0.00000000
2.52721761 0.01807621 -0.00073423 0.00000000
2.64987186 1.46858904 -0.00161828 0.00000000
1.67033612 0.81584211 -0.00489431 0.00000000
4.17117906 0.70717439 -0.00108032 0.00000000
4.64411025 1.69230523 0.00328440 0.00000000
0.76551136 0.97664861 -0.00260606 0.00000000
3.14413465 0.52465551 0.00317451 0.00000000
1.63884166 1.40150010 0.00255924 0.00000000
1.27432497 1.39928157 0.00015112 0.00000000
2.58218343 0.07130976 0.00110169 0.00000000
1.24404219 1.82331205 0.00103734 0.00000000
0.38827706 1.34163880 0.00273750 0.00000000
2.28421693 1.43724559 -0.00194572 0.00000000
2.46325809 0.82853913 -0.00114938 0.00000000
0.90220101 0.04798692 -0.00124547 0.00000000
1.10673263 1.13612860 0.00382769 0.00000000
3.35692553 0.08002676 0.00144511 0.00000000
3.22558746 1.56701325 -0.00243754 0.00000000
1.45964897 1.00312148 -0.00177001 0.00000000
3.22135684 0.03368000 0.00093218 0.00000000
0.54122861 0.39137483 0.00286293 0.00000000
0.30861547 1.91887437 -0.00107328 0.00000000
0.18979784 0.09091523 -0.00191048 0.00000000
4.02436255 0.69316872 0.00471732 0.00000000
1.89583106 1.49811981 0.00356253 0.00000000
1.07275360 0.85825430 0.00479424 0.00000000
4.42307824 0.52093030 -0.00332712 0.00000000
0.75357912 0.45269214 -0.00001721 0.00000000
3.18152520 1.84581020 0.00130043 0.00000000
1.72156351 1.46361398 0.00052080 0.00000000
3.04133307 1.07838841 0.00222532 0.00000000
0.53592555 1.22281374 0.00080180 0.00000000
4.23452381 0.60074101 0.00244607 0.00000000
2.78607047 1.66417672 -0.00701980 0.00000000
0.26801705 0.74878389 0.00189002 0.00000000
3.93421877 0.28077981 0.00047163 0.00000000
0.72961292 1.83492308 -0.00214821 0.00000000
1.95401138 1.07035299 -0.00282388 0.00000000
1.89297687 1.60784355 0.00228913 0.00000000
2.74687933 0.12507958 0.00053559 0.00000000
1.91967089 0.78289781 0.00253506 0.00000000
2.58392740 1.08373548 -0.00025883 0.00000000
3.94167396 0.92556694 -0.00006958 0.00000000
2.72912763 1.27696941 0.00227891 0.00000000
3.49781227 1.11485929 0.00199015 0.00000000
0.03955718 0.16058645 -0.00007907 0.00000000
4.46868162 0.28981914 -0.00355747 0.00000000
1.17315286 1.16250560 -0.00142185 0.00000000
2.55656188 1.66748051 0.00020755 0.00000000
0.09974834 1.38637297 0.00217931 0.00000000
0.91408154 0.42791851 0.00141018 0.00000000
4.11674203 1.14152227 -0.00010603 0.00000000
1.49535907 0.81100158 -0.00036767 0.00000000
4.42275615 1.85346644 -0.00198739 0.00000000
4.61559958 0.20110077 0.00068003 0.00000000
2.40528175 1.36402564 0.00185708 0.00000000
3.87182749 0.25754370 -0.00471760 0.00000000
4.62288768 0.29370564 0.00552353 0.00000000
2.82209072 0.94108569 0.00531050 0.00000000
4.27741824 1.35069450 0.00074745 0.00000000
2.47061208 0.94104564 -0.00020902 0.00000000
2.94934646 0.73780960 0.00138522 0.00000000
3.77697141 0.70587836 0.00001285 0.00000000
0.76484699 0.97984041 0.00008747 0.00000000
4.12834150 1.66215185 0.00140266 0.00000000
4.62418265 1.36899745 -0.00302981 0.00000000
3.57206952 1.54812397 0.00117404 0.00000000
2.82044858 1.64205103 -0.00061727 0.00000000
2.57162227 0.81266819 -0.00013784 0.00000000
0.22500930 0.50700176 -0.00063169 0.00000000
2.82128959 0.74496756 -0.00110613 0.00000000
1.85806687 0.08062501 0.00131553 0.00000000
0.17230301 0.87872110 0.00254884 0.00000000
4.58376878 0.30311763 -0.00032613 0.00000000
2.62352545 1.82317982 -0.00091560 0.00000000
2.13454085 0.52729222 -0.00522158 0.00000000
0.32956054 1.21238945 -0.00076720 0.00000000
0.33409096 1.07955129 0.00139243 0.00000000
4.15188713 0.09591956 0.00096124 0.00000000
1.53238325 1.28192663 0.00005318 0.00000000
4.27004632 1.18041434 0.00097094 0.00000000
4.69659985 0.10196679 0.00332868 0.00000000
0.89894169 1.85018092 -0.00196946 0.00000000
1.28402718 1.48297732 0.00457285 0.00000000
4.33045801 0.29700910 -0.00010035 0.00000000
0.17431910 0.24194127 -0.00141404 0.00000000
2.36450819 0.65231435 0.00176153 0.00000000
0.03267411 1.87474403 -0.00380624 0.00000000
1.66685733 1.88944438 0.00288198 0.00000000
4.45303554 1.71063352 0.00029590 0.00000000
0.86966289 1.68266736 0.00335909 0.00000000
1.61782224 1.49281979 -0.00254991 0.00000000
3.81697709 1.37052533 0.00038794 0.00000000
3.04073664 0.92840383 -0.00055104 0.00000000
0.15352000 1.70752820 0.00141952 0.00000000
0.31422168 1.21182909 -0.00727527 0.00000000
1.36502167 0.57304832 0.00238677 0.00000000
4.63314807 1.77971910 -0.00020153 0.00000000
0.47826063 0.32801482 -0.00193099 0.00000000
4.11627879 1.76012724 -0.00006908 0.00000000
3.20087479 0.36087615 0.00185194 0.00000000
1.52047758 0.92421589 0.00418971 0.00000000
0.08715434 1.82757686 -0.00179386 0.00000000
0.16424223 0.02663577 0.00178172 0.00000000
4.21657525 1.88809512 0.00001159 0.00000000
3.82643334 0.10842140 0.00097942 0.00000000
1.44027131 1.71879256 0.00153119 0.00000000
1.33250020 0.78764565 -0.00188274 0.00000000
2.08597029 0.94298866 0.00251295 0.00000000
1.28221398 0.85093404 -0.00203300 0.00000000
4.65899509 0.30910215 -0.00584441 0.00000000
0.27283309 0.90245662 -0.00336789 0.00000000
2.65236776 1.54277388 -0.00223813 0.00000000
1.82212566 1.53754117 0.00222294 0.00000000
0.44839033 1.57067367 -0.00095581 0.00000000
2.17506094 0.55358246 -0.00140716 0.00000000
3.05668886 0.27941355 0.00170025 0.00000000
4.41560907 0.55123447 -0.00085889 0.00000000
1.67707959 1.12495062 -0.00289578 0.00000000
0.36657030 0.39094847 0.00125474 0.00000000
1.63398265 0.11915555 0.00239508 0.00000000
3.76080825 1.73255877 0.00552426 0.00000000
4.68772124 0.65481248 0.00093274 0.00000000
1.14774007 1.09731475 0.00300268 0.00000000
2.92152892 1.02002149 0.00222341 0.00000000
0.37636920 1.87966865 -0.00060334 0.00000000
1.51408932 1.55560665 -0.00494175 0.00000000
3.16985969 0.69617571 0.00115228 0.00000000
1.99201169 0.58833911 -0.00258807 0.00000000
4.30781918 0.71574683 0.00305922 0.00000000
4.52275857 0.63669281 0.00357200 0.00000000
4.06762985 1.56026822 0.00268630 0.00000000
1.60905423 0.27134912 0.00224380 0.00000000
0.62832615 1.15021359 0.00153708 0.00000000
4.38400210 0.01046182 0.00390850 0.00000000
3.58403449 1.23410573 -0.00405787 0.00000000
4.03429618 1.55690591 0.00015001 0.00000000
0.31773240 0.94284817 0.00145014 0.00000000
0.78104112 1.78581619 -0.00263558 0.00000000
0.19255607 0.14433535 0.00188212 0.00000000
3.52169135 1.74989813 -0.00063029 0.00000000
2.69237360 1.06443895 0.00223913 0.00000000
2.88893713 1.62741449 -0.00061813 0.00000000
1.00590102 0.30224944 0.00362441 0.00000000
3.79768862 0.71978128 0.00614987 0.00000000
1.02246391 1.59482793 0.00085457 0.00000000
2.28933482 0.03557867 -0.00419530 0.00000000
4.35873091 1.78139457 0.00234563 0.00000000
2.24843292 0.84186614 0.00279665 0.00000000
1.76037936 1.10548802 -0.00062318 0.00000000
3.19402526 1.50257821 0.00222741 0.00000000
2.89074164 1.24279337 0.00233799 0.00000000
1.67819696 1.49954860 -0.00065665 0.00000000
0.60802382 0.05472295 0.00084462 0.00000000
3.92153998 1.60546219 0.00027938 0.00000000
1.26330501 0.12462319 0.00105026 0.00000000
1.48407100 1.12066268 -0.00061028 0.00000000
3.78687983 1.22044943 0.00292411 0.00000000
3.66989092 0.41964036 0.00169621 0.00000000
0.48511633 1.31686806 0.00064730 0.00000000
4.41212508 0.32438173 0.00005155 0.00000000
0.13247191 0.48759729 0.00016563 0.00000000
0.82790078 0.43476683 0.00053717 0.00000000
0.10000685 0.78340363 -0.00068891 0.00000000
1.66088488 1.24487230 -0.00068442 0.00000000
0.44929358 0.83273209 -0.00484454 0.00000000
1.86319913 1.17818747 0.00069858 0.00000000
1.85663271 1.59721365 -0.00132646 0.00000000
0.50848565 1.58624882 0.00182325 0.00000000
3.22911337 1.69275384 -0.00222818 0.00000000
4.04936571 1.30369115 -0.00236623 0.00000000
3.31655037 0.54676561 0.00200712 0.00000000
0.66003039 1.47763263 -0.00018692 0.00000000
2.20655984 0.72442622 0.00341297 0.00000000
0.16771065 1.92616137 -0.00491533 0.00000000
3.58805963 0.39028794 -0.00185953 0.00000000
2.32301050 1.26929368 -0.00033188 0.00000000
0.92330391 0.35930713 0.00178890 0.00000000
4.05493290 0.43958239 0.00122679 0.00000000
1.16653691 0.00667931 -0.00381894 0.00000000
2.16820595 1.69979698 -0.00066199 0.00000000
3.38127542 1.62336338 -0.00099302 0.00000000
3.61756098 0.86415059 0.00423135 0.00000000
2.89642254 0.99231506 0.00289170 0.00000000
2.13344386 1.47227785 -0.00287376 0.00000000
4.27427072 0.79426820 0.00678288 0.00000000
2.91541921 0.73651610 0.00246204 0.00000000
3.32347856 1.50413118 0.00095457 0.00000000
0.14040395 0.28636656 0.00523648 0.00000000
3.45065179 0.51653273 -0.00101101 0.00000000
2.36519466 1.04103311 -0.00171057 0.00000000
2.50910608 0.42712017 0.00208786 0.00000000
0.38078736 0.61667206 0.00194567 0.00000000
4.27970956 0.15427517 0.00293256 0.00000000
0.31069463 1.87290175 -0.00322783 0.00000000
3.71497912 0.41874947 -0.00542108 0.00000000
0.33711910 0.33509238 -0.00184626 0.00000000
3.43031495 1.87251785 -0.00216455 0.00000000
1.41714774 0.13748924 0.00041006 0.00000000
4.67700468 1.92878080 0.00321599 0.00000000
2.72874228 0.63980919 -0.00182355 0.00000000
2.63078840 0.54907851 0.00463683 0.00000000
0.79972989 0.30642520 0.00074008 0.00000000
2.12847369 0.31657041 0.00120486 0.00000000
3.20844304 0.73199070 0.00107980 0.00000000
3.21404431 0.31197561 -0.00090177 0.00000000
3.47713537 0.07009164 -0.00021621 0.00000000
4.51838146 0.43739195 0.00060958 0.00000000
3.20459705 0.47453563 0.00008378 0.00000000
1.87650702 0.40548206 -0.00545403 0.00000000
0.38524029 1.23974719 -0.00428943 0.00000000
3.37130923 1.18599346 0.00120914 0.00000000
2.94327756 0.20295669 0.00053904 0.00000000
0.60076133 0.61818592 0.00343155 0.00000000
2.93916556 1.66852604 0.00254573 0.00000000
2.38376659 0.32114030 0.00224012 0.00000000
0.45402309 0.88075619 -0.00025641 0.00000000
1.63863226 0.00107540 0.00151084 0.00000000
2.36878694 0.76568969 -0.00330302 0.00000000
3.42209610 1.33893041 -0.00075226 0.00000000
0.41554310 1.65388912 0.00295041 0.00000000
0.81638459 1.77322582 0.00294752 0.00000000
1.56870227 1.19847011 0.00211358 0.00000000
2.22512028 0.93871785 0.00109477 0.00000000
4.43946616 1.54679317 -0.00268908 0.00000000
0.57209862 0.18571415 0.00017983 0.00000000
3.67975221 1.20701267 0.00207981 0.00000000
0.27362774 1.08787779 0.00088147 0.00000000
2.49285166 1.36693737 -0.00225801 0.00000000
3.83969134 0.62860743 0.00112925 0.00000000
1.09762385 0.24090606 -0.00177640 0.00000000
2.80074289 0.84270223 -0.00043141 0.00000000
3.88978305 0.24911287 0.00750114 0.00000000
1.53678399 1.11979199 0.00214819 0.00000000
3.02307337 0.71168900 -0.00031092 0.00000000
1.39098617 0.68515156 -0.00108938 0.00000000
4.40115561 1.90392043 -0.00125716 0.00000000
0.73300000 0.88795587 -0.00455273 0.00000000
1.55002673 1.65666788 0.00160255 0.00000000
4.27804929 1.82604594 -0.00383965 0.00000000
3.21534223 0.80963560 -0.00047111 0.00000000
0.97878383 0.02222221 -0.00057274 0.00000000
2.25409350 1.55718654 -0.00136864 0.00000000
2.18319674 1.30487212 0.00277346 0.00000000
1.57131013 0.84847479 -0.00250682 0.00000000
1.53437420 0.34074161 -0.00169038 0.00000000
4.03352318 1.01791783 -0.00040322 0.00000000
3.36898042 0.68682789 -0.00169083 0.00000000
0.50593954 1.54901095 -0.00235373 0.00000000
0.95761186 1.68064888 0.00068029 0.00000000
2.57538895 0.35145177 0.00117382 0.00000000
1.06787265 1.59451990 0.00171669 0.00000000
4.70144065 0.92550377 0.00127525 0.00000000
1.77185089 1.26056066 0.00211363 0.00000000
0.44967193 0.42882648 0.00219075 0.00000000
3.59511498 1.29093056 -0.00197417 0.00000000
3.53595769 1.17132790 0.00695839 0.00000000
4.59032791 1.17998704 0.00314799 0.00000000
3.38233851 1.60125386 0.00001416 0.00000000
0.55431967 1.78138975 0.00016521 0.00000000
4.45519417 1.07770791 -0.00000597 0.00000000
3.26853322 0.23966520 0.00481409 0.00000000
0.60414441 0.94918579 0.00075003 0.00000000
0.27453901 0.32603677 -0.00060283 0.00000000
0.32413268 0.26422702 0.00067535 0.00000000
0.60228705 0.01305140 -0.00035850 0.00000000
3.69113882 0.28640023 -0.00392327 0.00000000
2.56020841 0.28966662 0.00284746 0.00000000
2.19612451 0.83715250 0.00508887 0.00000000
0.40767392 1.69214654 0.00040788 0.00000000
3.37426178 1.15733997 -0.00009485 0.00000000
1.20730056 0.71489017 -0.00139879 0.00000000
3.47378771 1.04766368 0.00520251 0.00000000
3.99345838 1.39326572 -0.00171349 0.00000000
2.33700667 0.62189960 0.00197840 0.00000000
1.13702665 1.74663720 -0.00366084 0.00000000
0.88622653 1.45215247 0.00147561 0.00000000
4.63839181 1.71118227 0.00205676 0.00000000
4.46248062 0.82664074 0.00079283 0.00000000
2.58079854 0.96531004 0.00258614 0.00000000
0.71255612 0.59671225 0.00311006 0.00000000
0.35646642 1.41569697 0.00034162 0.00000000
4.23332502 1.60306131 0.00216825 0.00000000
4.12609578 0.52019732 0.00207774 0.00000000
4.21081101 1.30698898 -0.00097233 0.00000000
0.11968553 0.55001109 -0.00312954 0.00000000
2.96748627 1.61648202 -0.00262403 0.00000000
3.46751117 1.76619981 0.00169575 0.00000000
3.35112865 1.32886210 -0.00458567 0.00000000
1.44258040 0.21830907 0.00312780 0.00000000
1.14540065 1.84639674 0.00793252 0.00000000
4.26224542 1.10441614 0.00030956 0.00000000
1.28823675 1.71518048 -0.00048889 0.00000000
4.58271492 0.79848959 0.00557687 0.00000000
0.19025809 0.17192258 -0.00293307 0.00000000
3.53921106 1.89826864 -0.00042737 0.00000000
0.41590164 0.61133526 0.00043663 0.00000000
3.32649197 0.95494644 0.00112600 0.00000000
4.20467994 0.83979589 0.00172170 0.00000000
2.99859976 1.79944505 0.00205280 0.00000000
2.87597225 1.10439518 -0.00115141 0.00000000
1.07752636 1.44012808 -0.00335135 0.00000000
3.16907164 0.79740116 -0.00160284 0.00000000
0.86755980 0.61866726 -0.00073707 0.00000000
2.22086364 1.54636983 0.00200222 0.00000000
0.32894065 1.24558967 -0.00103868 0.00000000
4.20232877 0.53062503 0.00187980 0.00000000
2.40363618 1.31962146 0.00146201 0.00000000
0.53089728 0.30957200 -0.00132261 0.00000000
3.68482019 0.45515375 -0.00052109 0.00000000
3.76395475 0.37065865 0.00377900 0.00000000
0.40057864 0.25204690 0.00033183 0.00000000
1.96409514 1.78084860 0.00248426 0.00000000
2.65206592 0.39720282 0.00073232 0.00000000
1.58593132 1.28442201 0.00461491 0.00000000
2.43446765 1.86847280 -0.00348183 0.00000000
4.46299731 1.80584922 -0.00371717 0.00000000
0.02420425 0.02833201 -0.00268811 0.00000000
3.62637482 0.08420145 -0.00349516 0.00000000
1.65830154 0.24283936 0.00305109 0.00000000
1.34916189 0.55270508 0.00105566 0.00000000
4.40735873 0.85592477 -0.00194932 0.00000000
2.10203647 1.75404661 0.00049210 0.00000000
3.58692421 1.66695390 0.00516642 0.00000000
2.79153229 0.87224293 0.00179243 0.00000000
0.88625339 0.29682724 -0.00005536 0.00000000
2.51104679 0.86500303 0.00305557 0.00000000
3.71357872 1.42513689 -0.00262773 0.00000000
2.09965522 1.15451236 0.00013832 0.00000000
1.30124917 0.61962523 0.00098146 0.00000000
1.02869607 1.74427597 0.00421626 0.00000000
2.69976195 0.56884016 -0.00204851 0.00000000
1.01329846 1.26930917 0.00293883 0.00000000
1.06868652 0.91713787 0.00168859 0.00000000
3.82177518 1.88670719 0.00074052 0.00000000
3.80385512 0.10823891 -0.00338780 0.00000000
0.44000861 1.83313815 0.00073511 0.00000000
0.30970820 0.68979568 0.00133067 0.00000000
0.38307929 0.63301023 0.00020651 0.00000000
4.67708662 1.71768249 0.00303361 0.00000000
4.11563686 1.82253059 -0.00069497 0.00000000
0.62550904 1.62304857 0.00056424 0.00000000
1.11710293 1.83181061 -0.00110664 0.00000000
4.35443973 0.62049951 0.00239881 0.00000000
4.09819238 0.48901644 -0.00019924 0.00000000
3.51120891 0.88410535 0.00155665 0.00000000
4.33532618 0.06993255 0.00305950 0.00000000
0.50431649 0.85160972 0.00222146 0.00000000
0.26571975 1.11996806 -0.00492587 0.00000000
1.06223890 0.57217599 0.00349328 0.00000000
3.45073089 0.46361955 0.00097808 0.00000000
2.68938453 0.36585996 -0.00107024 0.00000000
1.07184485 0.91028227 0.00241888 0.00000000
2.46143406 0.42292378 -0.00269735 0.00000000
2.11328974 1.42717423 0.00247300 0.00000000
2.23505383 0.34561198 -0.00001501 0.00000000
1.28278904 0.17355761 -0.00140767 0.00000000
2.33302824 0.57285262 -0.00153903 0.00000000
3.22678448 0.07368543 -0.00077756 0.00000000
1.27770920 1.85181313 0.00052275 0.00000000
3.24753329 0.60931135 -0.00426036 0.00000000
1.59578247 0.20966615 0.00253507 0.00000000
2.80252888 1.60221183 0.00313521 0.00000000
4.20998412 0.34668712 0.00011290 0.00000000
3.01993341 1.11607229 -0.00074116 0.00000000
1.31141928 1.71157270 -0.00457367 0.00000000
3.90617513 1.71820889 0.00128810 0.00000000
3.46263198 0.95771583 0.00159275 0.00000000
1.51181315 1.78581769 -0.00014347 0.00000000
3.43052545 1.65560366 0.00238480 0.00000000
2.79481703 0.32492421 0.00038519 0.00000000
2.54807296 1.69469192 -0.00277467 0.00000000
3.18927592 1.40699123 -0.00011583 0.00000000
1.35112226 1.27418031 -0.00119453 0.00000000
0.33657357 0.65878158 -0.00133845 0.00000000
2.64594315 0.82772152 0.00182232 0.00000000
0.86095650 1.10228220 0.00056796 0.00000000
1.27178300 1.29247971 0.00597115 0.00000000
3.87966581 1.37283358 -0.00218240 0.00000000
1.01101375 1.02987394 0.00156862 0.00000000
0.38778370 0.25784600 0.00344998 0.00000000
4.57064642 1.37803552 0.00416258 0.00000000
0.81229444 0.27443886 0.00201987 0.00000000
0.37599845 1.77228250 -0.00039163 0.00000000
4.64424986 1.03125888 0.00392094 0.00000000
2.88999410 1.67322837 -0.00109913 0.00000000
2.40311924 0.78739116 -0.00150495 0.00000000
3.39952352 1.26212330 -0.00185692 0.00000000
0.30674994 1.36809751 0.00042210 0.00000000
4.47374538 0.48912982 0.00024886 0.00000000
2.54092860 0.35503442 -0.00525500 0.00000000
0.24908784 0.38796924 -0.00587112 0.00000000
2.47306941 1.79183244 -0.00191824 0.00000000
2.83255914 1.63378891 -0.00051231 0.00000000
2.65668273 0.91443300 -0.00012850 0.00000000
0.05230435 1.83334954 0.00147732 0.00000000
1.64419715 1.19154366 -0.00349076 0.00000000
3.46132852 0.18406222 -0.00360259 0.00000000
0.02900358 1.17607352 0.00080056 0.00000000
2.78304190 1.36234469 -0.00453044 0.00000000
0.47043470 1.35576949 -0.00171163 0.00000000
2.93282996 0.39455278 0.00407545 0.00000000
1.40506094 1.14248260 0.00058221 0.00000000
1.68353494 0.24510008 0.00609790 0.00000000
0.94365778 0.25697830 0.00080608 0.00000000
0.30240449 0.94403859 -0.00250034 0.00000000
2.68878966 0.51589459 0.00446479 0.00000000
3.96611894 0.70811800 0.00021257 0.00000000
4.42118609 1.87086101 -0.00010966 0.00000000
4.06789563 0.28427347 0.00354546 0.00000000
1.48403157 0.20402648 -0.00085363 0.00000000
3.81105393 1.83623339 0.00144378 0.00000000
2.28613710 0.03957396 0.00203236 0.00000000
3.52329060 0.85554325 0.00645634 0.00000000
3.68399585 0.94083329 -0.00030413 0.00000000
4.37736114 0.37429033 0.00067418 0.00000000
2.26380944 1.10095611 0.00050951 0.00000000
1.53784067 0.21499040 -0.00642415 0.00000000
3.37933681 0.82835050 0.00059337 0.00000000
2.91429200 0.92206988 -0.00161854 0.00000000
3.62676764 1.63956423 -0.00031956 0.00000000
1.08190034 0.79786494 -0.00176021 0.00000000
4.44419664 0.71355359 -0.00017895 0.00000000
1.85793639 1.56554172 0.00099544 0.00000000
3.56969045 0.48882937 0.00206391 0.00000000
2.02201300 1.44297599 0.00070908 0.00000000
2.16246254 0.61494506 0.00161694 0.00000000
1.71108409 1.26482929 0.00238490 0.00000000
1.14319717 0.04705242 -0.00150991 0.00000000
0.82394407 1.34778188 0.00195014 0.00000000
4.03210092 1.29560239 0.00284059 0.00000000
0.45328618 0.25092333 -0.00029788 0.00000000
4.12803557 0.59975082 -0.00246705 0.00000000
4.16902108 1.66763106 -0.00136311 0.00000000
0.69358557 1.47353040 -0.00107742 0.00000000
4.22529257 1.44231789 0.00204910 0.00000000
2.60015608 0.14206685 0.00210416 0.00000000
1.31943498 1.00602125 0.00017230 0.00000000
2.44683390 1.50140560 -0.00167273 0.00000000
1.94677233 1.36050460 -0.00204314 0.00000000
4.33946219 0.57460821 -0.00071599 0.00000000
3.58965054 1.12788930 0.00174804 0.00000000
1.89718138 0.41491356 -0.00083543 0.00000000
2.74318535 0.79604144 -0.00239659 0.00000000
4.37839761 0.38318872 0.00181781 0.00000000
0.70816092 0.61778385 -0.00316857 0.00000000
0.91001899 1.76003004 -0.00267038 0.00000000
2.00616330 1.81907415 0.00167019 0.00000000
2.90881277 1.00784826 -0.00122706 0.00000000
0.99355808 1.78773572 0.00142165 0.00000000
2.12135120 1.41661629 -0.00272608 0.00000000
2.20814715 1.48644213 -0.00074271 0.00000000
0.38182278 1.77458938 -0.00075137 0.00000000
3.86320523 0.39167950 0.00552978 0.00000000
4.22013204 0.44099592 -0.00318793 0.00000000
2.74287320 0.11094194 0.00019977 0.00000000
2.00019922 1.35581146 -0.00567866 0.00000000
3.21044288 1.55724495 -0.00123958 0.00000000
0.30431540 0.84654122 0.00190081 0.00000000
3.93363679 0.30390112 -0.00254029 0.00000000
