0.875894 1.698769 0.003192 0.0
4.417281 0.086184 -0.000686 0.0
2.809615 1.351012 0.000694 0.0
0.935656 1.712297 0.000967 0.0
2.805955 0.142923 -0.004478 0.0
0.046344 1.387213 -0.000890 0.0
4.087000 0.633478 0.002918 0.0
4.304155 0.049519 0.007429 0.0
4.280174 0.790656 0.000534 0.0
2.281704 1.435128 0.000825 0.0
1.167256 0.247407 0.001451 0.0
3.042458 0.844304 0.000559 0.0
3.675028 0.362490 0.003523 0.0
2.001555 1.749250 0.002285 0.0
0.940223 0.927050 -0.000820 0.0
4.069709 1.180145 -0.002412 0.0
1.461786 0.910967 -0.004458 0.0
0.550695 1.576460 -0.001618 0.0
3.549653 1.276742 0.001588 0.0
1.856043 1.704299 0.004012 0.0
0.602024 1.130301 -0.000524 0.0
0.321305 0.733072 0.002802 0.0
3.269056 1.078477 -0.005170 0.0
0.165016 1.731174 0.001361 0.0
2.550711 0.726829 0.001566 0.0
1.415246 1.621626 0.000456 0.0
3.661946 1.755528 -0.000985 0.0
3.634540 0.199271 0.002913 0.0
1.868025 1.550458 -0.001475 0.0
0.159575 1.102339 0.003363 0.0
4.540056 0.026972 0.003249 0.0
2.565897 0.176007 -0.001802 0.0
2.031994 1.548837 -0.002142 0.0
0.727627 1.611641 0.005948 0.0
1.779877 1.374158 0.002518 0.0
3.009465 1.457852 0.000649 0.0
3.479798 0.252185 0.001460 0.0
0.758991 1.248916 -0.001934 0.0
1.466794 0.024163 0.002193 0.0
4.168266 0.651414 0.001550 0.0
3.466036 1.275233 -0.002327 0.0
4.358495 1.081866 -0.000472 0.0
1.042048 1.073810 -0.005329 0.0
3.839638 0.099888 0.000139 0.0
0.251001 1.242856 0.001626 0.0
0.207253 1.757975 -0.000585 0.0
0.796386 0.138983 -0.001585 0.0
4.325192 1.714415 0.001651 0.0
1.543595 1.219697 -0.004504 0.0
2.929398 1.152199 0.002640 0.0
0.202267 0.337708 -0.002156 0.0
0.412333 0.414950 -0.000171 0.0
1.477385 0.786516 0.001154 0.0
3.037294 0.240847 0.002934 0.0
3.639253 0.205477 0.004182 0.0
2.323909 1.186174 0.000762 0.0
1.913392 0.304555 0.002450 0.0
0.038889 0.711313 0.002827 0.0
3.503433 1.798830 -0.003285 0.0
0.630315 0.978044 -0.001220 0.0
1.913623 0.578796 0.002036 0.0
3.955672 1.213580 0.000545 0.0
2.069691 0.247998 -0.001916 0.0
2.935099 0.166211 0.003987 0.0
1.219421 0.848417 0.002888 0.0
1.097457 0.977427 0.002896 0.0
2.463135 0.122919 -0.002327 0.0
3.532496 0.097801 0.002176 0.0
0.675384 0.238175 0.000545 0.0
0.675086 1.023238 -0.004345 0.0
4.063622 1.716138 -0.003223 0.0
2.891146 1.515288 -0.001472 0.0
2.378254 0.146302 0.000209 0.0
1.250091 0.022699 -0.000147 0.0
1.490836 1.499335 -0.000474 0.0
1.746412 1.335931 0.000715 0.0
0.603276 0.712639 0.000947 0.0
1.459584 1.003514 0.001684 0.0
1.327992 1.664897 -0.006277 0.0
2.058626 0.062783 0.003932 0.0
0.551183 1.655108 -0.005740 0.0
2.148934 1.458013 -0.004854 0.0
4.256989 0.157900 0.000722 0.0
0.817141 0.194849 0.003474 0.0
0.676610 0.787280 -0.001023 0.0
0.582135 0.935254 -0.002302 0.0
3.897118 0.826761 0.001196 0.0
0.356172 1.406861 -0.001436 0.0
2.344961 0.179904 0.003303 0.0
4.325908 1.753852 0.000993 0.0
4.413953 1.199708 -0.003480 0.0
2.138870 0.567465 -0.004298 0.0
0.940723 1.365421 -0.002861 0.0
1.033392 0.625289 0.001792 0.0
2.661000 1.573144 -0.003308 0.0
3.993055 1.551412 -0.000626 0.0
4.017084 1.706461 0.001341 0.0
0.368573 1.112734 -0.007141 0.0
0.998501 1.573936 -0.001744 0.0
4.123182 1.737585 0.000772 0.0
3.082661 0.416037 0.001403 0.0
1.769802 1.743711 0.003289 0.0
0.468474 1.390718 -0.004289 0.0
4.208813 1.750206 0.001062 0.0
3.874970 1.346582 0.000398 0.0
4.425278 1.242647 0.001691 0.0
3.102355 1.205782 -0.000436 0.0
1.292634 0.220687 -0.004512 0.0
1.626354 1.679416 -0.003854 0.0
0.159705 1.244334 -0.002284 0.0
0.315653 1.628091 -0.004146 0.0
1.355715 1.079233 0.001115 0.0
0.356811 0.047316 0.001149 0.0
1.627954 0.992724 0.001148 0.0
0.472038 0.349319 0.000877 0.0
0.710447 1.383543 -0.000998 0.0
1.090467 0.857731 0.000311 0.0
2.310003 0.291424 0.000954 0.0
0.928667 1.291554 -0.000921 0.0
2.996017 1.088704 0.000943 0.0
1.793318 1.351064 -0.003733 0.0
2.665219 0.276903 -0.002268 0.0
0.010660 1.060405 -0.001857 0.0
0.174883 1.261123 -0.002116 0.0
2.620555 0.814145 0.000151 0.0
0.974562 1.447889 0.000840 0.0
4.502258 1.781734 -0.000283 0.0
3.089174 1.645464 -0.002916 0.0
3.164852 0.885339 0.001295 0.0
2.436284 1.331844 -0.000502 0.0
1.296434 1.708173 0.003149 0.0
2.480357 1.109302 0.001081 0.0
0.087283 1.263870 -0.000870 0.0
2.785725 0.410735 0.002935 0.0
3.636920 0.955891 -0.000611 0.0
2.215238 0.934202 -0.002403 0.0
4.028998 0.640715 0.001697 0.0
4.182786 0.369877 0.005194 0.0
3.812534 1.330902 -0.002049 0.0
0.335478 0.430757 0.002688 0.0
3.645434 0.147696 0.001928 0.0
3.016723 1.723701 -0.004020 0.0
1.758268 1.698349 -0.003056 0.0
1.654456 1.480348 0.002264 0.0
1.350496 0.871482 0.003141 0.0
2.362105 1.687540 -0.004370 0.0
0.763472 1.334856 0.001424 0.0
0.035619 1.186110 0.000988 0.0
0.663619 1.643781 0.001164 0.0
4.482709 1.460512 -0.003507 0.0
3.453400 0.646561 -0.001481 0.0
2.317073 1.030227 -0.002211 0.0
1.221134 0.240009 0.001894 0.0
2.974500 0.462488 0.000409 0.0
4.005610 1.011673 0.000021 0.0
0.710737 1.692677 0.001469 0.0
3.848691 0.084074 0.000905 0.0
3.809353 1.547083 -0.001385 0.0
3.240759 0.842652 -0.003037 0.0
1.439526 1.547107 -0.002025 0.0
0.578523 0.578543 0.000415 0.0
2.131093 1.131682 0.004435 0.0
4.100365 0.195374 -0.000516 0.0
1.776809 0.794621 -0.001332 0.0
2.937542 1.557777 0.000486 0.0
0.807159 0.652510 0.004548 0.0
0.074941 0.954148 -0.001970 0.0
0.059604 1.322309 -0.001372 0.0
0.142046 1.206294 -0.003179 0.0
1.300070 1.422646 0.000000 0.0
2.519038 1.048033 0.001188 0.0
3.893187 0.300652 -0.004405 0.0
3.488871 1.721287 -0.004921 0.0
1.596956 0.133018 -0.000836 0.0
0.619618 0.622970 -0.001787 0.0
3.772215 1.476063 -0.000826 0.0
4.150954 1.712253 -0.002028 0.0
2.871030 1.242476 0.005481 0.0
3.593502 0.695763 0.003612 0.0
0.675059 1.676487 0.003860 0.0
1.906627 0.978427 0.000767 0.0
1.676226 1.764405 0.001537 0.0
4.283328 0.452083 -0.001601 0.0
3.843280 1.149547 -0.002449 0.0
2.742819 1.504886 0.002368 0.0
1.355325 1.187200 0.000477 0.0
2.366038 1.192124 -0.003333 0.0
3.958987 1.155387 -0.000483 0.0
4.284725 1.068646 -0.005960 0.0
0.134212 0.516293 -0.001407 0.0
4.407179 1.689366 0.000650 0.0
3.598887 1.571338 0.000389 0.0
0.250023 0.461605 0.000036 0.0
0.721118 0.486849 0.002408 0.0
2.774215 0.417352 -0.000538 0.0
1.003840 1.581589 -0.001137 0.0
3.813583 1.298539 -0.003033 0.0
1.537347 0.567579 -0.001332 0.0
1.194319 1.727648 -0.000429 0.0
2.983107 1.344554 0.000301 0.0
1.610443 0.364015 -0.001750 0.0
3.652944 0.730887 0.002251 0.0
1.069046 1.333419 -0.000487 0.0
1.825494 1.013029 -0.005675 0.0
2.673409 0.932063 -0.000075 0.0
2.325096 0.169398 -0.000554 0.0
3.537774 1.405864 -0.002791 0.0
1.820327 0.713494 0.002124 0.0
2.203963 1.029083 0.001325 0.0
3.815597 1.427299 -0.002062 0.0
0.685136 0.560254 0.001840 0.0
4.493492 1.559916 -0.001020 0.0
3.081970 1.520338 0.000565 0.0
2.416062 1.077500 -0.002991 0.0
0.562223 1.493875 -0.002843 0.0
2.345734 1.416895 -0.000624 0.0
4.529884 1.655672 -0.001602 0.0
0.267604 1.562298 -0.000722 0.0
0.913691 1.406021 -0.003491 0.0
1.580473 1.034559 -0.003855 0.0
3.933412 0.389649 0.000794 0.0
3.440049 1.711122 0.005238 0.0
3.613966 0.986449 0.003490 0.0
3.601722 0.779431 -0.002628 0.0
1.235811 1.787018 0.002847 0.0
3.705607 0.328676 -0.000355 0.0
0.781969 0.911130 -0.005303 0.0
0.361964 0.318993 0.002546 0.0
4.409539 0.088338 0.003290 0.0
0.281175 0.946092 -0.004275 0.0
2.900944 1.251708 0.001868 0.0
3.639018 1.493040 -0.000837 0.0
4.103721 1.423069 -0.000178 0.0
1.272919 1.303072 0.003154 0.0
3.295034 1.607414 -0.003726 0.0
1.160051 0.268421 0.001815 0.0
3.900869 0.616394 0.001815 0.0
2.649984 1.394881 -0.003033 0.0
0.786220 0.307438 -0.000550 0.0
0.175258 0.135149 -0.001105 0.0
1.895810 1.143417 0.002988 0.0
0.148591 0.978167 -0.002852 0.0
1.121465 1.592677 0.001250 0.0
3.169299 0.167655 0.002293 0.0
1.422632 0.323659 0.006202 0.0
4.139777 0.673604 0.002719 0.0
2.729749 0.839597 0.003783 0.0
1.181684 0.951512 0.000020 0.0
2.763154 0.301853 0.000528 0.0
4.392270 0.431372 0.001860 0.0
4.409796 0.392052 0.005242 0.0
1.161060 1.717962 0.002859 0.0
3.984341 1.428305 -0.001848 0.0
1.688262 0.327283 0.002062 0.0
4.143763 1.567205 0.000813 0.0
1.378639 0.783780 -0.000481 0.0
1.251942 1.711400 0.000098 0.0
4.358470 0.657225 0.004850 0.0
2.393938 0.187399 0.003550 0.0
0.272034 1.105014 0.001744 0.0
1.855653 0.790007 0.000982 0.0
1.868641 0.854388 -0.002170 0.0
0.361754 1.763079 0.001530 0.0
1.831204 1.039840 0.000099 0.0
2.723811 1.433325 -0.000557 0.0
3.885093 0.954228 0.001739 0.0
1.961965 0.393591 0.001445 0.0
4.400912 1.155273 0.001727 0.0
1.985027 0.653307 0.003521 0.0
3.588439 1.093917 -0.001915 0.0
1.810475 1.480317 -0.001974 0.0
4.482110 0.864782 0.002453 0.0
3.505395 1.001688 0.003529 0.0
3.633739 1.671181 -0.002209 0.0
2.537890 0.234627 0.001122 0.0
2.500438 1.138350 0.000674 0.0
2.057547 1.721367 0.002260 0.0
0.848051 1.412523 0.004089 0.0
2.742737 1.485879 0.000334 0.0
0.467828 1.052244 0.001317 0.0
3.347544 0.566806 -0.000937 0.0
1.531583 0.953666 0.002512 0.0
1.003794 1.109834 0.000166 0.0
1.835065 1.413743 -0.002763 0.0
0.594529 1.711641 0.001681 0.0
3.848833 1.017791 -0.001671 0.0
1.218870 0.237895 -0.000844 0.0
1.059313 1.479805 0.000346 0.0
1.075256 0.944793 -0.000103 0.0
2.529387 0.742532 0.002834 0.0
1.217972 1.644465 -0.001785 0.0
4.024999 0.173901 0.000974 0.0
1.180761 0.126228 0.002954 0.0
3.775769 0.271139 0.002567 0.0
1.512085 1.498516 0.001268 0.0
4.136305 0.589314 -0.005331 0.0
0.161005 1.352373 0.000701 0.0
0.668060 0.029490 -0.001579 0.0
3.867648 0.182745 0.000634 0.0
1.106518 1.019607 0.001441 0.0
0.991275 1.633858 -0.001616 0.0
0.100523 0.046368 -0.002993 0.0
1.297792 1.382718 0.002150 0.0
1.035303 1.118872 -0.002340 0.0
1.838392 1.314660 0.002118 0.0
2.244837 1.514700 0.002442 0.0
2.433226 0.074603 -0.002675 0.0
1.733061 1.718986 -0.002990 0.0
3.838406 1.734994 -0.000130 0.0
2.315999 0.413958 -0.001997 0.0
1.749891 0.343169 0.000251 0.0
2.489331 1.085542 0.000505 0.0
1.131989 0.828517 -0.000665 0.0
2.257147 1.102527 -0.005502 0.0
0.140384 0.872242 -0.000236 0.0
0.685054 0.224603 -0.000636 0.0
3.816145 1.059802 -0.006117 0.0
2.780982 0.704135 -0.001825 0.0
2.880855 0.561211 -0.003345 0.0
2.002033 0.534242 0.000922 0.0
2.364464 1.700263 0.000562 0.0
2.910276 0.931908 -0.000182 0.0
2.033563 0.382917 -0.003252 0.0
3.886206 1.730567 0.004576 0.0
2.908881 0.124639 0.000106 0.0
1.457546 0.174425 0.001482 0.0
0.944866 1.017553 0.004788 0.0
0.270057 1.342552 0.000188 0.0
3.485859 0.349325 -0.002073 0.0
1.765602 0.768675 -0.001930 0.0
2.965337 1.736798 -0.001739 0.0
0.044206 1.086753 -0.003112 0.0
1.842328 0.634042 -0.002085 0.0
1.164408 1.789263 -0.003644 0.0
2.381180 0.667909 -0.001588 0.0
3.373007 1.008540 0.000818 0.0
0.176878 0.767273 -0.000337 0.0
3.373228 0.919349 -0.002184 0.0
1.949994 0.164482 0.000754 0.0
1.527683 1.058252 0.003014 0.0
0.213121 0.475972 0.000467 0.0
3.493049 1.223933 0.001900 0.0
3.042645 0.616562 -0.000098 0.0
1.802497 0.749821 -0.003009 0.0
0.719473 0.696781 -0.002256 0.0
3.852440 1.384181 0.000695 0.0
3.971412 1.614740 0.002028 0.0
3.873090 1.405100 -0.002246 0.0
2.455874 0.023779 0.000551 0.0
2.219159 0.066421 0.002656 0.0
3.210829 1.061831 0.000812 0.0
0.936081 0.551647 -0.001888 0.0
4.561705 1.393054 -0.001618 0.0
2.486525 0.197622 0.002984 0.0
3.200514 1.584059 -0.002292 0.0
3.159987 0.782086 0.000034 0.0
3.577738 1.574116 -0.004839 0.0
1.381944 0.467246 0.002447 0.0
4.330546 0.955259 0.000045 0.0
2.857229 0.662373 -0.000829 0.0
1.019534 1.182296 -0.002364 0.0
1.556903 1.577488 0.003516 0.0
4.282450 0.989218 0.007905 0.0
1.850029 1.191818 -0.000730 0.0
0.527555 1.437886 0.001293 0.0
1.073582 1.392353 -0.001496 0.0
2.509903 1.768869 -0.002076 0.0
3.934887 0.429015 -0.001561 0.0
3.736826 1.033118 -0.000328 0.0
4.058235 1.546722 -0.000143 0.0
0.915800 0.144572 -0.003864 0.0
2.929040 1.360368 0.002175 0.0
3.220310 1.116963 -0.000728 0.0
4.067564 0.289402 -0.004505 0.0
1.171013 1.403834 0.000150 0.0
1.077114 0.284484 -0.000119 0.0
3.173203 0.806909 0.000387 0.0
4.288741 0.244854 0.003167 0.0
3.817806 0.974781 0.002132 0.0
3.962406 1.160011 -0.003438 0.0
1.893588 1.526063 0.002050 0.0
3.038199 1.280246 0.003217 0.0
4.056692 0.476839 0.000537 0.0
3.674612 0.350301 0.007068 0.0
3.372285 0.924376 0.003205 0.0
1.800733 1.038202 -0.004905 0.0
4.217614 1.508978 0.000906 0.0
2.068919 0.559153 0.001209 0.0
0.652941 1.498173 -0.000242 0.0
1.875656 0.059814 0.000191 0.0
1.072247 0.070528 0.002430 0.0
4.454669 0.527437 -0.001367 0.0
2.511841 0.427503 0.000001 0.0
0.307842 0.907208 0.004675 0.0
2.206781 1.511404 0.000990 0.0
2.961340 0.691021 0.006612 0.0
2.286930 1.613428 0.002166 0.0
3.022222 0.022849 -0.001154 0.0
0.833590 0.874864 -0.000969 0.0
3.847222 1.780383 0.001126 0.0
0.112819 0.549257 0.001976 0.0
4.455244 1.794580 0.001969 0.0
3.705334 0.410292 -0.000868 0.0
0.230723 1.384996 0.000918 0.0
0.892696 0.558072 0.004691 0.0
0.196690 1.192260 0.003775 0.0
3.893018 0.417375 -0.005738 0.0
1.779431 1.215989 -0.002102 0.0
0.087573 1.525361 0.000749 0.0
2.685421 1.113297 0.002487 0.0
4.236556 0.858710 -0.000137 0.0
0.487213 1.200097 -0.002494 0.0
3.336195 1.430603 0.000383 0.0
4.008343 1.518569 0.000116 0.0
3.783220 1.756530 -0.002210 0.0
3.753236 0.951753 0.002338 0.0
1.318037 1.469340 -0.001123 0.0
0.430644 0.081078 -0.000476 0.0
2.251882 1.587648 0.005763 0.0
3.586405 1.460475 0.002129 0.0
2.486082 0.569756 0.002946 0.0
0.382098 1.255291 0.002615 0.0
1.466377 1.243546 0.001491 0.0
1.147945 0.492584 -0.000119 0.0
3.962379 0.204943 0.003704 0.0
3.438254 0.795265 0.002755 0.0
1.701591 0.297121 -0.001491 0.0
2.713768 0.944176 0.003812 0.0
2.107273 0.152238 -0.001929 0.0
0.752288 0.784499 -0.000453 0.0
1.179888 0.806334 -0.000521 0.0
0.601409 0.059115 -0.000686 0.0
3.196853 0.268632 0.002865 0.0
2.357604 1.161847 0.001074 0.0
1.248662 0.828566 -0.004193 0.0
0.381504 0.126164 -0.000087 0.0
2.655254 1.272327 0.000901 0.0
2.760882 0.681782 -0.000749 0.0
2.439956 1.806648 -0.001065 0.0
2.048688 0.076107 0.001300 0.0
1.274466 1.414650 0.000569 0.0
3.874793 0.878478 -0.000625 0.0
3.252768 0.763365 -0.000151 0.0
2.795531 1.269581 -0.003152 0.0
0.388400 0.561297 -0.002084 0.0
4.077322 1.788608 0.000262 0.0
1.620534 0.622993 0.001820 0.0
3.005874 0.399802 -0.002621 0.0
2.198467 0.514853 -0.000791 0.0
3.841979 1.588421 0.003551 0.0
3.614510 0.746190 0.000359 0.0
1.908067 0.634901 0.000391 0.0
3.000447 0.819319 0.001250 0.0
0.193393 1.392445 -0.003418 0.0
1.003227 0.811700 0.003444 0.0
4.506419 0.756555 -0.000931 0.0
1.378751 0.073028 0.002649 0.0
1.648077 0.471473 0.003078 0.0
0.615363 0.028542 0.002792 0.0
0.360947 0.342363 0.000632 0.0
0.834909 1.050718 -0.003682 0.0
2.389642 1.588483 -0.003383 0.0
4.373737 1.018128 0.002532 0.0
2.515780 0.274891 -0.003732 0.0
0.969511 0.658444 -0.003421 0.0
1.539810 0.343007 -0.000207 0.0
3.285386 1.113901 0.002989 0.0
2.249492 0.679023 -0.002217 0.0
2.053819 1.581849 -0.004189 0.0
0.498562 1.766972 -0.002034 0.0
4.403426 1.779108 0.000974 0.0
2.607246 0.401395 -0.000311 0.0
2.222088 0.543726 -0.004252 0.0
3.076422 0.889169 0.004268 0.0
1.075008 1.175425 -0.001349 0.0
4.252286 0.943301 0.001456 0.0
3.969809 1.005558 0.001441 0.0
1.442589 0.963393 -0.000385 0.0
2.557577 0.093411 -0.000094 0.0
3.155155 0.987851 -0.002398 0.0
0.055155 0.685060 -0.002701 0.0
3.619291 1.411803 0.000357 0.0
0.970116 1.453209 -0.001245 0.0
1.378793 0.098149 0.002032 0.0
0.632435 1.340816 -0.001863 0.0
3.368057 1.538010 0.000983 0.0
2.741628 1.231072 -0.000934 0.0
3.767105 1.664389 0.005841 0.0
0.239711 0.790830 -0.001336 0.0
0.894679 0.675073 -0.000413 0.0
0.337695 1.486123 -0.000271 0.0
3.460192 1.499099 0.001203 0.0
1.388198 1.329684 0.001005 0.0
2.449920 0.985559 0.001854 0.0
4.401879 1.643194 0.000592 0.0
1.561526 1.136500 0.001891 0.0
4.021350 0.215870 0.001226 0.0
4.293523 0.770379 -0.001169 0.0
2.508090 0.361401 0.001602 0.0
1.667281 1.382737 0.003285 0.0
1.550479 0.773312 -0.001518 0.0
1.552655 0.392867 0.001318 0.0
3.095885 0.059575 -0.003427 0.0
4.524714 0.640892 -0.002911 0.0
1.524783 1.388304 -0.001381 0.0
0.190057 0.875361 -0.001271 0.0
0.476877 1.547378 0.001869 0.0
2.312370 0.493606 0.003209 0.0
0.878596 0.483248 -0.000439 0.0
0.836809 0.359342 0.000301 0.0
3.831293 1.228792 -0.002517 0.0
2.220500 0.319241 0.001936 0.0
1.697127 1.215429 -0.003227 0.0
1.062456 1.302864 0.000212 0.0
1.014426 0.829433 -0.002392 0.0
3.904815 0.336564 0.000955 0.0
2.286876 1.375147 0.004239 0.0
0.451395 1.394809 -0.001261 0.0
1.196118 0.495504 -0.000683 0.0
2.225223 1.568127 0.000522 0.0
0.404720 0.066365 0.003009 0.0
0.539007 1.695406 -0.000382 0.0
3.500291 0.675515 0.000061 0.0
1.456438 0.850697 -0.001224 0.0
0.515094 0.950001 0.001283 0.0
1.160256 1.690769 0.001120 0.0
3.715928 0.783104 -0.001255 0.0
1.126702 1.601865 0.003258 0.0
2.805997 0.677342 -0.004490 0.0
3.763007 0.671771 -0.001829 0.0
3.632836 0.302834 -0.002006 0.0
2.993129 1.717340 0.000911 0.0
2.732099 1.615091 0.001848 0.0
2.074812 0.056225 0.000709 0.0
4.451313 1.585330 -0.000191 0.0
4.544579 1.155799 -0.002172 0.0
3.511365 0.789732 -0.003280 0.0
1.811071 0.369193 0.004081 0.0
2.570195 0.771362 -0.000790 0.0
1.833511 0.156201 -0.001099 0.0
0.747029 1.517782 -0.001572 0.0
1.158918 0.571596 0.002178 0.0
2.918691 1.616163 0.000566 0.0
0.283905 1.099483 0.004105 0.0
0.211164 0.891879 0.001668 0.0
3.685416 0.705558 -0.001511 0.0
1.581968 1.172694 0.001417 0.0
3.176331 0.247179 0.003633 0.0
0.763902 1.219856 0.001003 0.0
0.102728 0.584493 -0.001824 0.0
3.049591 0.736238 -0.000635 0.0
3.362264 0.028413 0.001466 0.0
0.831530 0.764241 -0.002891 0.0
2.930613 0.176678 -0.002967 0.0
4.476210 1.166196 -0.002198 0.0
3.728137 0.381119 -0.001367 0.0
3.457732 0.556149 0.000252 0.0
1.351758 1.102601 0.001650 0.0
2.755147 1.291369 -0.000396 0.0
0.496249 1.177528 0.004247 0.0
4.231837 1.061088 -0.002604 0.0
1.059791 1.025140 -0.000233 0.0
4.068876 0.605347 0.000825 0.0
0.406876 0.320442 -0.000138 0.0
1.858460 0.791081 -0.002100 0.0
1.007320 0.709076 0.005754 0.0
3.969434 0.997239 -0.002965 0.0
0.829740 1.085699 -0.000464 0.0
2.245217 0.817426 -0.003629 0.0
4.142146 1.269242 0.002807 0.0
3.315572 1.533331 0.002365 0.0
2.847038 0.335450 -0.000907 0.0
1.191117 0.159961 -0.001494 0.0
3.054921 0.191436 0.000743 0.0
2.796264 0.560664 -0.001757 0.0
0.565707 1.336047 0.001029 0.0
3.812334 0.657069 -0.001165 0.0
0.259330 0.350108 -0.000811 0.0
1.804120 0.637022 -0.002662 0.0
3.659125 0.157578 -0.002533 0.0
0.357452 1.526557 0.000654 0.0
1.779178 0.000171 -0.000481 0.0
1.009085 0.302480 0.003320 0.0
3.369134 1.094454 -0.001375 0.0
2.112185 0.056820 0.002228 0.0
1.757283 0.915007 0.002621 0.0
4.077032 0.442064 0.000860 0.0
3.528860 1.109381 0.001615 0.0
1.883443 1.741589 0.001714 0.0
3.862789 1.104161 -0.002370 0.0
1.362400 0.040405 0.000144 0.0
1.334469 0.539596 0.002389 0.0
3.411185 1.711053 -0.000532 0.0
0.067454 0.665357 -0.002161 0.0
0.406101 0.570744 0.005039 0.0
1.948320 1.100589 -0.001110 0.0
0.799760 1.576887 0.001625 0.0
0.646904 1.577431 0.000502 0.0
2.529461 0.661766 -0.002154 0.0
3.307802 0.905139 0.001358 0.0
3.941446 0.361982 0.002460 0.0
2.495314 0.195495 -0.003702 0.0
1.650374 0.404481 -0.000714 0.0
0.811824 0.287500 0.003035 0.0
1.035353 1.661199 -0.001799 0.0
0.027432 0.909869 -0.005318 0.0
2.648859 1.439269 -0.002591 0.0
0.627733 0.202609 -0.002026 0.0
3.002383 1.148576 0.001998 0.0
1.481264 0.044648 -0.000661 0.0
2.636937 1.588274 -0.001726 0.0
1.790730 0.149500 -0.000607 0.0
2.668252 0.821642 0.002090 0.0
1.663617 0.390938 -0.001575 0.0
0.463548 1.367298 0.000075 0.0
3.630475 0.953202 -0.003254 0.0
1.859865 1.181331 0.005064 0.0
1.436838 0.237192 -0.001328 0.0
1.353403 0.946308 0.001840 0.0
1.953372 1.490087 0.001580 0.0
3.657855 1.220790 -0.002136 0.0
2.945253 0.089386 0.000746 0.0
0.838461 1.580254 0.004288 0.0
1.332955 1.723081 0.001931 0.0
2.502682 0.650621 -0.003784 0.0
1.216646 0.764100 -0.003326 0.0
2.299593 0.449104 0.004114 0.0
2.174740 1.761034 0.000558 0.0
0.141637 1.497208 -0.001305 0.0
1.392699 0.099395 -0.001630 0.0
0.225472 1.369380 -0.008446 0.0
0.952643 1.710246 -0.000786 0.0
0.811419 1.053111 -0.004844 0.0
2.097366 1.312194 0.000890 0.0
1.590656 0.859059 0.000581 0.0
0.268764 0.682505 0.002567 0.0
3.264152 0.357879 -0.000652 0.0
2.826966 0.599338 0.000687 0.0
3.727783 1.790564 -0.002160 0.0
1.281817 0.779723 -0.000577 0.0
1.240707 0.152185 -0.000421 0.0
2.056744 0.823539 -0.002135 0.0
0.235840 0.897334 -0.000908 0.0
0.148936 0.379715 0.000295 0.0
2.817248 1.475705 0.000472 0.0
3.650842 0.307244 0.000432 0.0
4.009233 1.226676 0.005424 0.0
1.526153 0.254595 0.000925 0.0
3.539825 0.402597 0.000191 0.0
3.032692 1.459108 0.000896 0.0
1.668738 0.482058 0.001191 0.0
1.729449 0.012935 0.001063 0.0
2.737981 1.344062 -0.000293 0.0
4.537455 0.050345 -0.000762 0.0
2.132318 0.281033 0.002503 0.0
0.517531 0.044542 -0.000238 0.0
3.297166 0.459966 0.001797 0.0
3.437560 1.322403 -0.001372 0.0
2.985091 1.043864 -0.001845 0.0
1.265281 0.653216 -0.001317 0.0
0.227894 0.257991 0.001975 0.0
4.242754 0.635002 0.000079 0.0
3.972428 1.322732 -0.003289 0.0
4.330215 0.090064 -0.001792 0.0
2.450696 1.414506 0.004216 0.0
0.975445 0.017023 -0.002487 0.0
3.407355 0.795997 0.002698 0.0
1.139390 1.431808 0.002794 0.0
3.169508 1.493890 -0.000011 0.0
1.961829 0.237866 0.001237 0.0
1.244297 1.389688 0.000696 0.0
0.794610 0.812574 0.000142 0.0
3.113640 1.167367 0.001127 0.0
3.098843 0.724381 0.000685 0.0
2.459809 1.418404 0.007555 0.0
1.451702 1.444201 -0.001940 0.0
1.305901 1.030221 0.003860 0.0
1.515704 1.493316 0.002970 0.0
1.043148 0.799772 0.001718 0.0
4.354532 1.122417 -0.002017 0.0
4.001732 1.032852 0.002256 0.0
3.758067 1.081430 -0.000622 0.0
4.167380 1.703216 -0.002866 0.0
0.187562 0.919653 -0.001840 0.0
0.253336 0.487288 -0.000914 0.0
2.287206 0.198082 0.001214 0.0
1.374455 0.106017 0.000347 0.0
2.150352 0.670481 0.001845 0.0
0.771092 1.480804 0.003632 0.0
2.617650 0.366460 0.000511 0.0
0.861353 0.618272 0.001840 0.0
4.142975 0.514325 -0.002872 0.0
0.388809 0.676369 -0.001157 0.0
2.886223 0.915742 0.003346 0.0
2.511060 1.542644 -0.002119 0.0
0.556174 0.910208 -0.001923 0.0
2.209477 1.601754 0.005220 0.0
2.135635 0.903890 -0.001152 0.0
3.483673 1.260581 -0.002429 0.0
3.902513 0.346610 0.002294 0.0
3.857573 1.538876 0.002294 0.0
3.670863 0.985768 -0.004111 0.0
3.232702 0.304052 0.001758 0.0
3.358734 1.037349 -0.003325 0.0
4.003532 0.462332 0.000730 0.0
2.049401 1.807891 0.000905 0.0
4.137716 0.675388 -0.003028 0.0
1.100672 0.818942 -0.002997 0.0
1.761923 1.074978 -0.001055 0.0
0.587809 0.644109 0.000778 0.0
0.887372 0.593539 -0.001658 0.0
3.631770 0.966861 -0.003665 0.0
2.611354 0.585424 0.000815 0.0
4.002761 0.392179 -0.000213 0.0
3.957021 1.231757 -0.002140 0.0
4.129259 1.036510 -0.003512 0.0
1.027757 0.339186 -0.001062 0.0
2.809831 0.192113 -0.002840 0.0
4.019435 0.422410 0.001236 0.0
2.849919 1.735277 -0.000809 0.0
2.176936 0.477601 0.001405 0.0
1.323855 1.101917 -0.001308 0.0
0.812707 1.403047 -0.002287 0.0
4.092484 0.190516 -0.003179 0.0
3.930167 1.494436 -0.001373 0.0
2.822652 0.645688 -0.001296 0.0
3.617343 1.626936 -0.001967 0.0
1.839771 0.939143 0.000380 0.0
2.628923 1.338657 0.006480 0.0
3.836979 1.127727 0.000985 0.0
3.159391 1.278392 0.000334 0.0
2.253450 0.902556 0.001150 0.0
3.192424 1.541874 -0.000877 0.0
0.432048 0.630768 0.001505 0.0
2.428122 1.719836 0.002245 0.0
2.127786 0.116659 -0.000341 0.0
1.596211 0.035293 -0.001256 0.0
4.547944 0.299811 0.001206 0.0
2.613167 1.506766 0.003521 0.0
1.190266 1.385534 -0.001370 0.0
1.394771 0.502700 -0.000035 0.0
2.868744 0.789725 0.000778 0.0
1.359676 1.777766 -0.000647 0.0
2.283484 0.029066 -0.002266 0.0
1.447919 0.965661 -0.000148 0.0
3.651747 1.199416 -0.002220 0.0
1.573302 1.410763 -0.001298 0.0
0.536329 1.514927 0.000272 0.0
3.641139 1.168574 0.000377 0.0
0.445887 0.676279 0.001935 0.0
3.816353 0.663204 -0.001255 0.0
0.567066 1.116198 -0.002703 0.0
2.987114 0.384145 0.006756 0.0
0.197897 0.808815 0.002256 0.0
1.471805 1.431400 -0.004157 0.0
1.210029 0.256612 -0.000544 0.0
4.522079 1.680092 -0.003029 0.0
0.141301 0.344384 -0.000830 0.0
0.100081 0.452646 -0.004399 0.0
2.902072 1.779885 -0.002742 0.0
1.593839 1.115112 0.000608 0.0
3.422857 0.119441 -0.000852 0.0
2.659180 0.155203 0.001467 0.0
2.284807 0.390112 0.002699 0.0
0.202122 0.766221 -0.006772 0.0
1.894500 0.841889 0.004310 0.0
1.614607 0.719887 0.002703 0.0
0.041576 1.655155 0.000694 0.0
1.456853 1.306051 -0.001226 0.0
3.251108 0.087183 -0.003102 0.0
3.122976 1.213636 0.002545 0.0
1.071543 1.472150 -0.001383 0.0
3.835402 1.121881 -0.001651 0.0
0.431794 0.847514 0.000064 0.0
3.131223 0.041394 -0.000128 0.0
1.236072 0.605350 0.003770 0.0
0.618159 0.582540 0.000727 0.0
0.308005 0.687474 0.004076 0.0
1.316000 0.588148 -0.003090 0.0
0.988964 1.633651 0.001207 0.0
2.152291 0.102961 0.002060 0.0
1.718095 0.407114 -0.002365 0.0
3.928513 0.476521 0.001316 0.0
1.849210 0.194991 -0.006270 0.0
1.656664 0.801171 0.004583 0.0
3.994180 1.166899 -0.001816 0.0
1.934880 0.333624 0.002013 0.0
4.399118 0.188544 -0.000700 0.0
3.050034 1.482247 -0.001598 0.0
1.320293 1.613351 0.001490 0.0
0.877896 1.517093 0.002051 0.0
3.230112 1.572816 0.001218 0.0
3.085905 0.799033 -0.002769 0.0
4.128638 0.224791 0.001333 0.0
1.423851 1.557210 -0.001215 0.0
1.435089 0.260343 0.005735 0.0
0.134998 0.763551 0.002228 0.0
0.547316 0.454152 -0.003465 0.0
3.054670 1.696967 -0.000068 0.0
2.744830 0.652705 0.003305 0.0
2.453879 1.761242 0.002047 0.0
2.144854 0.505627 -0.000320 0.0
2.089466 1.649164 -0.000555 0.0
4.061495 1.484162 0.000910 0.0
2.189326 1.301728 0.000145 0.0
3.604556 1.457210 -0.001799 0.0
0.028003 1.177507 0.001586 0.0
0.893366 1.162133 -0.002456 0.0
2.216841 0.578745 -0.004077 0.0
2.272019 0.040757 0.001417 0.0
4.337887 0.684753 0.000274 0.0
3.727906 1.182522 0.000459 0.0
0.881382 1.734476 -0.000025 0.0
1.296472 1.225337 -0.002151 0.0
1.061915 0.877321 -0.001955 0.0
4.118824 0.555500 0.001778 0.0
4.383341 1.612694 0.001715 0.0
2.682521 1.283628 0.002683 0.0
3.155722 0.981780 -0.001079 0.0
1.043722 0.861077 -0.000094 0.0
2.282021 0.989011 -0.001232 0.0
2.496497 1.638095 0.004347 0.0
1.917552 0.373528 -0.001173 0.0
4.547751 1.122320 0.000899 0.0
1.353454 0.877689 -0.000707 0.0
3.250186 1.312400 0.002019 0.0
0.285454 0.115107 -0.000389 0.0
3.337832 0.414103 0.001277 0.0
2.101320 1.234308 0.001051 0.0
0.075523 0.300057 -0.001748 0.0
2.883882 0.758139 -0.002814 0.0
1.309476 0.514746 -0.000191 0.0
1.866863 0.529042 0.001597 0.0
4.502363 1.138841 0.000820 0.0
0.371767 1.113207 0.002724 0.0
0.691376 0.551604 0.002409 0.0
3.622201 0.069776 0.001432 0.0
1.823723 0.576340 0.000872 0.0
1.276253 0.115948 0.001003 0.0
3.071287 0.887866 -0.001812 0.0
2.654397 0.106542 0.001922 0.0
0.414085 1.458200 0.001505 0.0
2.024000 1.251490 0.002107 0.0
0.972645 1.187267 0.003836 0.0
3.332722 0.005131 0.003285 0.0
0.028604 0.694014 -0.000520 0.0
3.116848 0.902403 -0.002780 0.0
1.937543 1.715614 0.000474 0.0
2.048007 0.563261 -0.004296 0.0
1.280760 1.336298 0.005675 0.0
0.151351 0.708807 -0.000339 0.0
0.958504 1.129499 0.000311 0.0
2.317444 1.621064 0.000624 0.0
0.516318 0.427490 -0.002216 0.0
3.254569 1.067313 -0.000384 0.0
0.746639 1.380445 -0.006125 0.0
3.768213 1.316925 0.001830 0.0
0.382964 1.388762 0.004059 0.0
2.477454 1.566349 -0.001048 0.0
1.945385 0.607011 0.002981 0.0
0.030120 0.300714 0.000634 0.0
0.582670 1.107819 -0.001780 0.0
1.183175 1.202152 0.001840 0.0
2.109060 0.110073 -0.000820 0.0
2.256053 0.906067 0.000607 0.0
1.597447 0.578074 0.002992 0.0
0.595238 0.554868 -0.000426 0.0
2.091989 1.621173 -0.000793 0.0
4.081949 0.855411 -0.004756 0.0
2.987254 1.028055 0.004100 0.0
0.720608 0.318320 -0.000636 0.0
2.848648 0.220151 -0.000586 0.0
3.097905 0.511768 0.002186 0.0
2.314937 0.092496 0.002550 0.0
1.458014 1.648522 0.000996 0.0
1.958694 1.331119 -0.000324 0.0
0.602737 0.343024 -0.001209 0.0
3.181150 0.871941 0.003495 0.0
4.038264 0.981490 -0.001747 0.0
1.094618 1.386126 -0.002174 0.0
0.209483 1.243003 0.004470 0.0
3.539514 0.826051 -0.000452 0.0
3.125583 0.066265 -0.002311 0.0
1.682977 1.538398 -0.003260 0.0
4.183719 0.353643 0.000748 0.0
3.833049 0.951154 -0.000576 0.0
1.841037 0.061383 -0.001161 0.0
3.599883 1.736098 -0.000516 0.0
1.381642 1.801368 0.003141 0.0
0.349058 0.200774 0.006448 0.0
0.053837 0.002983 0.002689 0.0
1.913759 0.018850 -0.000372 0.0
2.229027 1.078914 0.001586 0.0
3.503679 1.436488 -0.002495 0.0
0.798326 1.718010 -0.000772 0.0
3.286405 1.012096 0.000994 0.0
2.453420 1.135919 -0.000517 0.0
0.703132 1.098451 0.003137 0.0
4.532176 1.005764 0.000580 0.0
2.472375 0.119262 0.001987 0.0
4.079892 0.479617 -0.001048 0.0
1.213003 1.075846 0.001482 0.0
4.175397 1.297808 -0.004954 0.0
1.528521 1.651755 0.002746 0.0
3.171849 0.841355 -0.003502 0.0
3.988388 0.542086 -0.000932 0.0
1.987712 0.669730 -0.002921 0.0
0.004150 0.899097 0.003728 0.0
1.314590 1.349742 -0.001646 0.0
2.884313 1.537816 0.003926 0.0
2.200483 0.136412 0.000923 0.0
2.575483 1.524306 0.001533 0.0
4.418674 1.287694 0.000714 0.0
2.773722 0.483819 0.002798 0.0
1.771271 1.687636 -0.000153 0.0
0.636983 1.220881 -0.000515 0.0
3.668958 0.092356 0.001108 0.0
0.885072 1.302781 -0.001605 0.0
0.177817 0.486853 0.000771 0.0
1.461696 1.701621 -0.004370 0.0
0.184124 0.950455 0.001212 0.0
3.008926 0.327385 -0.000261 0.0
2.301662 1.030135 0.000855 0.0
1.296508 0.600495 -0.003422 0.0
1.565199 0.349612 -0.000031 0.0
3.150014 0.937233 0.002638 0.0
4.012877 0.732752 -0.001518 0.0
1.197036 0.222772 -0.000994 0.0
0.082301 0.366537 -0.002858 0.0
3.532268 1.221398 -0.002126 0.0
2.169091 1.143082 0.003930 0.0
1.775543 0.520460 0.001918 0.0
3.994076 1.015992 0.005623 0.0
2.157184 0.661973 -0.000319 0.0
3.578329 0.405363 0.003378 0.0
2.598791 0.425126 0.002395 0.0
1.521804 1.284364 0.000464 0.0
0.530838 1.623075 0.000799 0.0
0.141190 0.160812 -0.001491 0.0
3.389394 1.738729 0.000299 0.0
1.443756 0.249220 -0.001184 0.0
3.247435 0.207470 0.005741 0.0
0.306084 0.875613 0.003239 0.0
4.025579 0.717133 -0.002161 0.0
4.350600 0.480892 -0.004618 0.0
1.593795 0.775404 0.003371 0.0
0.329639 0.363508 -0.002437 0.0
3.127777 1.514600 0.001606 0.0
2.155922 0.670079 0.000695 0.0
2.662348 0.494246 0.003176 0.0
0.278419 1.695590 0.006299 0.0
0.988177 0.506006 -0.004057 0.0
0.030501 0.173365 0.005692 0.0
2.555821 0.833677 0.001785 0.0
1.522593 0.557015 -0.001508 0.0
1.107109 0.090410 0.002782 0.0
2.340828 0.955698 -0.000995 0.0
3.025585 0.792020 0.001365 0.0
1.260986 0.985131 0.002834 0.0
1.354574 0.718101 0.001063 0.0
2.654428 1.193264 0.002468 0.0
0.844695 1.759010 -0.001453 0.0
0.453391 0.808962 0.002577 0.0
1.342343 0.732212 -0.001366 0.0
4.035916 1.145308 0.001051 0.0
0.131148 0.708520 0.001734 0.0
3.300848 0.871596 -0.000377 0.0
0.753717 1.692194 -0.000732 0.0
2.089152 0.311298 -0.003377 0.0
2.315082 0.834822 -0.002128 0.0
1.471208 0.458164 0.007656 0.0
3.145732 1.443671 -0.000313 0.0
4.263121 0.155271 0.002480 0.0
2.956406 0.029515 0.002659 0.0
0.844711 0.152266 0.000263 0.0
0.305480 0.019280 0.000707 0.0
2.484182 1.526125 0.000598 0.0
4.217551 0.741060 0.001568 0.0
0.560105 0.858898 -0.002386 0.0
2.528261 1.597647 0.001451 0.0
2.688759 0.542190 -0.001623 0.0
2.445189 0.267615 0.001451 0.0
3.664763 1.504017 0.003190 0.0
0.889936 0.787214 0.002023 0.0
2.333787 1.335261 0.000141 0.0
0.115010 0.165567 -0.003415 0.0
1.025497 0.113345 0.001478 0.0
3.189114 0.998142 0.002610 0.0
0.136635 0.197391 -0.003167 0.0
0.860466 0.547094 -0.001364 0.0
3.903114 1.696288 0.002265 0.0
0.949535 1.680184 0.003407 0.0
4.490646 0.934310 -0.001863 0.0
2.546281 0.873641 -0.002557 0.0
1.223292 0.380326 -0.000680 0.0
3.797645 1.639120 -0.001324 0.0
0.341525 0.465856 0.000260 0.0
1.803688 0.429237 0.002918 0.0
1.006496 1.761007 -0.000494 0.0
-0.000575 0.395215 0.002132 0.0
4.182943 1.226464 -0.002121 0.0
4.476373 0.865386 0.000288 0.0
0.784649 0.295410 0.002174 0.0
2.266668 0.875896 -0.002998 0.0
2.020064 1.632896 -0.002317 0.0
1.105401 0.306208 0.001078 0.0
1.674168 0.337543 -0.001454 0.0
0.680084 1.108426 -0.000473 0.0
3.657957 1.651183 0.003723 0.0
2.684594 1.639257 0.000966 0.0
4.070913 0.761926 -0.002406 0.0
1.643290 0.938691 0.000832 0.0
1.606030 1.194708 -0.002217 0.0
0.283664 0.724859 -0.000958 0.0
1.503594 0.839825 0.001126 0.0
0.213915 1.778327 0.003316 0.0
1.427277 0.229765 0.000691 0.0
4.101385 1.445431 0.002465 0.0
0.937975 1.426347 -0.000217 0.0
0.574886 0.311202 0.003655 0.0
3.037864 0.998833 0.003891 0.0
2.852703 0.622110 -0.005524 0.0
2.555912 0.526124 -0.000458 0.0
0.937952 1.433855 0.000712 0.0
3.545042 1.078729 0.004492 0.0
1.102184 0.872737 0.003874 0.0
3.485536 0.643274 -0.002537 0.0
4.077301 1.196467 -0.003134 0.0
0.944516 1.252634 -0.000077 0.0
3.014687 0.082427 -0.001073 0.0
0.076292 1.494023 -0.004217 0.0
1.885304 1.712845 -0.000010 0.0
3.916660 0.336822 -0.003591 0.0
3.464555 0.277101 0.003926 0.0
3.235144 1.512101 0.001939 0.0
0.890579 0.600739 0.001300 0.0
4.397512 0.109890 0.003671 0.0
2.136905 1.298592 -0.003629 0.0
3.418901 0.511622 -0.000153 0.0
1.829762 0.803971 0.000155 0.0
3.140569 1.783245 -0.003591 0.0
0.104785 0.248024 -0.000258 0.0
1.497685 1.434069 0.001910 0.0
3.260561 1.602573 0.000511 0.0
1.255183 0.748209 -0.000762 0.0
0.708424 0.505075 0.001864 0.0
3.692896 1.395248 -0.001948 0.0
2.728853 1.314637 -0.000070 0.0
0.915344 0.234218 0.001360 0.0
0.910603 1.363019 0.003520 0.0
1.295565 0.894190 -0.002257 0.0
2.892224 0.059513 -0.001238 0.0
3.929263 0.570969 -0.001564 0.0
2.324566 1.145454 -0.002771 0.0
4.445924 1.133723 0.000896 0.0
2.087313 0.768254 0.002240 0.0
0.149561 0.177859 -0.001287 0.0
1.527940 0.276890 -0.000023 0.0
4.239579 0.926202 -0.000844 0.0
1.336842 0.310474 0.003523 0.0
3.157991 1.301000 0.000197 0.0
4.557533 0.773516 0.000657 0.0
4.303059 0.592079 0.002077 0.0
3.290506 0.410386 0.002627 0.0
3.330936 0.136691 -0.001182 0.0
1.977448 1.563518 0.001228 0.0
3.822827 0.100672 -0.002309 0.0
1.967530 1.454168 -0.002092 0.0
0.485510 0.158961 -0.000701 0.0
3.756355 0.719779 0.001513 0.0
3.905950 1.137392 0.001269 0.0
3.295973 1.351264 -0.003386 0.0
2.861076 1.333803 -0.003036 0.0
1.272341 1.538341 -0.002657 0.0
3.851764 0.489686 0.002801 0.0
1.861456 0.881961 -0.001686 0.0
2.683096 0.110533 0.002349 0.0
0.675955 0.237021 -0.006033 0.0
1.010686 0.904029 0.001614 0.0
1.473005 0.229478 -0.002140 0.0
3.164655 0.304491 0.003240 0.0
3.977529 1.382765 0.002302 0.0
3.826234 0.246271 -0.001824 0.0
4.083424 1.160021 -0.003782 0.0
2.246608 1.545861 -0.000694 0.0
0.861423 0.659510 -0.001458 0.0
1.800063 0.149938 0.004413 0.0
1.674909 1.285167 -0.000006 0.0
3.036113 0.048177 0.000803 0.0
1.548018 1.266015 -0.006944 0.0
1.997711 0.583108 0.001514 0.0
3.969239 0.052764 0.004642 0.0
0.078483 0.352972 0.000441 0.0
0.473484 0.037234 -0.000256 0.0
2.980806 0.520548 0.000212 0.0
3.382148 1.478091 0.000986 0.0
1.820433 1.513829 -0.004559 0.0
0.763125 1.345731 -0.001829 0.0
2.452835 1.689581 -0.003555 0.0
3.231785 0.284498 0.002705 0.0
0.794331 1.547708 -0.004878 0.0
0.848458 0.743989 0.000427 0.0
2.831781 1.099381 -0.001454 0.0
1.678120 0.819717 0.000515 0.0
4.497011 1.496422 0.000225 0.0
3.444379 1.445720 0.003538 0.0
3.881660 0.415571 -0.001870 0.0
4.411835 1.070752 0.000861 0.0
0.786125 1.023827 -0.003775 0.0
1.346683 1.435602 -0.004408 0.0
3.860904 0.247045 0.002641 0.0
4.508237 0.048347 0.001808 0.0
0.387911 0.449690 -0.005411 0.0
4.018993 1.191448 0.006889 0.0
0.873240 1.608666 0.002913 0.0
4.302819 1.248178 -0.000193 0.0
2.509569 1.511568 0.000774 0.0
2.798688 0.012347 0.003117 0.0
1.220726 0.840768 -0.002638 0.0
2.112974 0.862161 -0.001333 0.0
0.068917 0.292517 0.004018 0.0
1.735669 1.532190 0.000837 0.0
4.539949 0.815765 -0.004012 0.0
1.883307 0.901050 -0.000143 0.0
0.906043 0.436966 -0.002439 0.0
3.531207 0.385026 0.000391 0.0
3.390389 0.786708 0.002446 0.0
1.681403 0.504005 0.005484 0.0
3.999071 0.902373 -0.001388 0.0
2.912862 0.632140 -0.001683 0.0
2.402129 1.740986 -0.000178 0.0
1.831295 1.442824 0.003612 0.0
0.462399 1.319422 0.003575 0.0
1.696811 1.799899 0.003459 0.0
0.396563 0.818453 -0.001480 0.0
0.741085 0.019499 0.001821 0.0
1.694875 0.075655 0.005308 0.0
0.452222 0.544341 -0.004978 0.0
0.585728 1.704829 -0.002731 0.0
3.161740 1.247810 0.003608 0.0
0.322837 1.183989 -0.000390 0.0
4.005968 0.906530 -0.000550 0.0
4.332508 0.179158 -0.004405 0.0
3.248286 0.530775 0.000308 0.0
0.243639 0.031151 -0.000921 0.0
3.118722 0.312921 -0.002343 0.0
3.819378 1.097227 -0.000591 0.0
0.663679 0.124973 -0.002874 0.0
2.853226 1.107751 0.000938 0.0
1.493801 0.171003 0.002561 0.0
0.557208 1.685557 -0.000714 0.0
3.515271 0.377608 0.000662 0.0
2.426412 0.823723 -0.003970 0.0
1.657198 0.823289 -0.003681 0.0
0.469310 0.809637 -0.001567 0.0
4.062397 0.225065 0.001362 0.0
4.318083 1.059728 0.001729 0.0
3.231857 0.599308 0.000828 0.0
4.558605 1.451956 -0.001112 0.0
2.477037 0.747322 -0.001976 0.0
0.421939 1.286908 -0.001352 0.0
4.143667 0.356512 0.001723 0.0
3.581547 1.677726 -0.000699 0.0
0.671178 1.411130 0.004650 0.0
2.517883 0.945865 -0.004041 0.0
2.729739 0.221317 0.003264 0.0
2.893305 0.187972 0.003621 0.0
1.276464 0.437471 -0.001700 0.0
2.804283 0.920463 -0.001462 0.0
4.385501 1.655125 -0.001680 0.0
4.452856 1.367705 -0.002209 0.0
2.066228 1.028323 -0.004351 0.0
4.394939 1.088996 0.003555 0.0
4.536876 0.977142 -0.002797 0.0
2.393322 0.922913 -0.002481 0.0
3.982151 0.115859 -0.001466 0.0
0.636015 0.081626 0.001270 0.0
2.930907 1.432542 -0.000613 0.0
3.000404 0.831648 -0.002771 0.0
3.408581 0.475289 0.000110 0.0
3.592251 0.816161 -0.001334 0.0
2.003182 1.418892 0.001819 0.0
1.088134 1.088265 -0.000078 0.0
4.328877 0.291038 0.003430 0.0
2.265930 0.946452 -0.000300 0.0
0.686075 0.996940 -0.005215 0.0
4.228821 1.574447 -0.003402 0.0
2.219817 0.940858 -0.003199 0.0
2.819873 0.913478 0.003169 0.0
1.646808 1.588738 -0.002429 0.0
0.280207 0.436130 0.001375 0.0
3.355711 0.456994 0.002442 0.0
0.970697 0.487454 0.001173 0.0
3.192151 0.299302 0.000045 0.0
3.914103 0.287823 0.001591 0.0
4.509805 0.036277 -0.004112 0.0
2.121229 0.888052 -0.001664 0.0
2.543786 1.303243 0.000973 0.0
0.037858 1.736342 0.002057 0.0
0.352846 0.786925 -0.001008 0.0
0.527641 1.128672 0.002074 0.0
3.537875 0.571595 -0.000540 0.0
1.340346 1.189555 -0.000481 0.0
2.167655 0.973294 -0.000261 0.0
2.570138 1.037483 -0.003869 0.0
2.608389 0.699937 0.000697 0.0
4.366220 1.115157 0.002034 0.0
3.259346 1.494942 -0.001866 0.0
1.002791 1.240497 0.000916 0.0
3.772105 1.202638 -0.000147 0.0
3.887029 1.292253 0.002883 0.0
0.609509 0.412856 0.000033 0.0
3.528990 0.693522 -0.000115 0.0
3.410063 1.220274 -0.001235 0.0
2.083723 1.282229 -0.003119 0.0
0.757426 0.022675 -0.003896 0.0
4.315844 1.521389 0.000575 0.0
2.449264 0.461302 0.001525 0.0
1.380786 0.456092 -0.003244 0.0
1.753276 0.272868 0.001043 0.0
2.766121 0.705003 -0.001812 0.0
2.030349 1.441730 -0.002049 0.0
1.566026 0.284709 -0.000309 0.0
4.013940 0.076812 -0.000668 0.0
3.895861 1.481924 -0.004530 0.0
0.726043 1.314599 0.000394 0.0
2.443915 1.427329 0.000745 0.0
1.033377 0.144229 0.003150 0.0
4.075882 1.606319 -0.003023 0.0
3.677356 0.869648 -0.002279 0.0
2.089669 0.907567 0.003511 0.0
3.917276 1.534587 -0.000561 0.0
2.320811 1.086541 0.005093 0.0
3.826656 0.003544 0.005101 0.0
0.445785 1.155166 0.001749 0.0
2.376879 1.484762 -0.000430 0.0
2.410433 0.095350 -0.003081 0.0
3.790358 1.421156 -0.000701 0.0
4.021497 0.000498 0.001991 0.0
2.118029 1.029769 -0.000073 0.0
2.751220 1.088609 -0.004620 0.0
2.698397 1.239577 0.000804 0.0
3.552140 1.379237 0.000780 0.0
0.894527 0.639925 -0.003160 0.0
0.638701 0.132998 -0.001259 0.0
4.060909 0.100338 -0.001538 0.0
0.148834 0.776913 0.000589 0.0
3.903758 1.512554 0.000298 0.0
0.798098 1.353786 -0.001353 0.0
0.332499 0.133369 -0.000528 0.0
1.111531 1.379054 0.001519 0.0
2.822449 0.631895 -0.000090 0.0
0.942198 0.325193 -0.003640 0.0
2.210832 1.118468 0.002569 0.0
3.635877 1.779896 0.000210 0.0
1.167212 1.273962 0.002711 0.0
4.038225 0.076484 -0.003929 0.0
1.512422 1.766411 0.001908 0.0
3.578670 0.067372 0.005586 0.0
2.061303 1.022551 0.005367 0.0
2.749773 0.445459 -0.001272 0.0
1.098650 1.245016 0.000595 0.0
2.736604 1.146322 -0.000322 0.0
2.417859 1.036526 -0.005073 0.0
3.972923 1.483203 0.000079 0.0
0.321513 0.068900 -0.003973 0.0
2.506715 0.560102 -0.000164 0.0
1.514351 1.799342 0.001599 0.0
1.111072 1.033031 -0.001026 0.0
1.544907 1.521068 -0.002084 0.0
1.533871 0.238933 -0.000548 0.0
0.025934 0.887293 0.000131 0.0
2.592323 0.313852 -0.000511 0.0
0.420075 0.758461 0.003263 0.0
3.235275 0.170898 -0.001721 0.0
1.926488 0.518382 -0.002102 0.0
0.139823 1.299276 0.003967 0.0
1.239773 1.130282 -0.000153 0.0
2.868967 1.201754 0.003620 0.0
3.629123 0.212281 -0.001927 0.0
4.162522 0.341159 0.002328 0.0
0.903542 1.111028 0.003701 0.0
2.817632 1.474692 0.000860 0.0
1.068086 0.424466 -0.001113 0.0
4.104983 0.087675 0.002013 0.0
0.741180 0.711130 0.002162 0.0
2.986283 0.636593 -0.001506 0.0
3.026788 0.733287 0.000906 0.0
3.049067 0.113767 0.006292 0.0
3.091359 1.506763 0.000017 0.0
0.632375 0.414567 -0.001923 0.0
1.568208 1.146060 0.001216 0.0
2.675445 0.290833 0.002461 0.0
3.592146 0.764366 0.001037 0.0
1.756748 1.708992 0.001035 0.0
0.781308 0.250223 0.001479 0.0
3.713168 1.235179 -0.002221 0.0
2.533268 0.298985 0.000904 0.0
4.173387 0.551094 -0.000147 0.0
1.095010 1.104558 0.002246 0.0
0.943964 1.525966 -0.002011 0.0
0.146032 0.020638 -0.000054 0.0
2.038703 0.277257 -0.002787 0.0
4.274397 0.437873 -0.002823 0.0
2.772737 1.037542 0.003247 0.0
1.999864 0.655958 0.001654 0.0
0.007469 1.335673 0.001677 0.0
0.612760 1.657410 -0.003584 0.0
4.104101 1.788199 0.001242 0.0
3.764840 0.795606 -0.002061 0.0
2.680051 1.303964 0.004460 0.0
3.144882 1.209613 -0.000722 0.0
2.974495 0.538913 -0.001096 0.0
4.390136 1.040890 -0.001266 0.0
0.464085 0.473245 0.000758 0.0
0.557073 0.047492 0.000875 0.0
1.645888 1.479398 0.003110 0.0
1.279250 1.608550 0.002777 0.0
1.860102 0.351529 -0.001109 0.0
1.487326 1.139833 -0.001318 0.0
3.548053 0.440187 -0.000953 0.0
1.159114 0.037962 -0.000358 0.0
0.494164 1.672598 0.004813 0.0
4.125066 0.132421 0.001935 0.0
4.549708 1.546734 0.000376 0.0
2.133866 0.394810 0.001185 0.0
1.299728 1.026102 -0.001402 0.0
0.779054 0.769910 -0.003885 0.0
0.671813 0.692400 0.000784 0.0
3.269880 1.155900 0.000384 0.0
4.528519 0.554279 -0.001252 0.0
1.883761 0.259843 0.002822 0.0
1.496665 1.008587 -0.000057 0.0
3.816490 0.606504 0.000713 0.0
2.367652 0.656021 -0.003206 0.0
2.391298 0.978979 0.000599 0.0
1.315865 0.316965 -0.000458 0.0
2.334705 1.083342 0.001629 0.0
0.769904 0.126102 -0.001807 0.0
3.645924 1.629361 -0.004138 0.0
1.191938 1.507523 0.001872 0.0
0.024103 1.149123 0.006540 0.0
3.875781 0.391237 0.003404 0.0
2.561022 0.468519 0.001704 0.0
3.363284 1.685870 0.001280 0.0
1.985015 1.269524 0.001503 0.0
4.509151 0.152232 -0.000332 0.0
1.073829 0.546450 0.002373 0.0
0.651346 1.531675 0.001275 0.0
3.075513 0.568043 0.003855 0.0
0.870763 1.688546 -0.005651 0.0
4.116418 1.681963 -0.002715 0.0
3.776271 0.494480 0.001329 0.0
2.165145 0.527935 -0.002269 0.0
4.314115 1.273671 0.001532 0.0
0.568305 0.425350 -0.000892 0.0
0.345568 1.096170 -0.001746 0.0
4.009384 1.302946 0.001810 0.0
0.519603 0.574444 -0.001632 0.0
0.008232 0.085123 -0.003068 0.0
1.501794 0.069609 0.001291 0.0
1.165676 0.186835 -0.000914 0.0
3.321804 0.308268 -0.002319 0.0
2.233530 0.012601 -0.001816 0.0
2.021737 0.474368 -0.002467 0.0
4.511471 0.044680 -0.000698 0.0
3.683237 0.984969 0.000539 0.0
3.983949 0.049530 -0.001167 0.0
4.226730 1.146374 -0.001006 0.0
1.127303 0.925351 0.002311 0.0
2.068684 0.720915 0.001299 0.0
0.582654 0.796225 -0.000603 0.0
1.560222 0.361621 -0.000538 0.0
2.634838 0.982600 0.000328 0.0
1.586046 0.310424 0.000104 0.0
4.386444 0.711521 -0.000995 0.0
0.638057 1.223636 0.000244 0.0
2.532672 1.665659 0.001923 0.0
0.678641 0.704788 0.002101 0.0
3.764661 1.790775 -0.001960 0.0
1.777479 0.593583 0.000693 0.0
3.447411 0.432799 -0.000065 0.0
2.165965 1.163964 0.003221 0.0
0.862932 1.745534 0.001534 0.0
0.157690 1.038040 -0.000746 0.0
3.597539 0.547146 0.000348 0.0
3.367384 1.288900 -0.003488 0.0
4.266300 1.767794 0.002737 0.0
0.606738 1.150153 -0.003311 0.0
0.703220 1.728278 0.001467 0.0
3.589713 0.192224 -0.004546 0.0
1.853492 1.749699 0.000159 0.0
0.602275 0.777815 0.001705 0.0
2.337822 0.194885 -0.000710 0.0
3.474145 1.299198 0.000527 0.0
2.846807 1.020712 0.001240 0.0
0.478705 1.643635 -0.002911 0.0
1.305992 1.685708 0.000223 0.0
1.359827 0.051033 0.000322 0.0
0.948395 0.083380 0.002097 0.0
1.854383 0.642593 0.004160 0.0
0.199017 0.641312 -0.000660 0.0
1.942191 0.595296 0.001575 0.0
3.501636 0.443171 0.003435 0.0
0.879963 0.149764 0.002253 0.0
4.473464 1.430353 -0.002156 0.0
2.685330 1.427617 -0.005917 0.0
4.167528 1.328319 0.007681 0.0
0.332315 0.144537 0.001549 0.0
0.650181 1.348999 0.002268 0.0
3.690019 0.179323 -0.000392 0.0
1.265950 0.932248 0.000625 0.0
3.544300 0.539073 -0.001554 0.0
0.553837 0.511655 0.001843 0.0
1.767091 0.021627 -0.004964 0.0
4.393261 0.169113 0.001131 0.0
0.125014 0.922042 0.001013 0.0
1.789125 0.440401 -0.001939 0.0
3.031834 1.289830 -0.001615 0.0
1.381544 1.044396 0.000643 0.0
3.800656 1.227347 0.001040 0.0
4.558139 1.798214 -0.002678 0.0
0.469148 1.779602 0.000635 0.0
0.843315 1.141944 -0.004998 0.0
4.077745 0.120223 0.002217 0.0
1.637066 1.217629 -0.002203 0.0
0.903006 0.141932 0.003033 0.0
0.243770 1.264025 -0.000823 0.0
1.763301 1.474234 -0.002322 0.0
2.758680 0.021300 -0.000137 0.0
4.324651 0.625186 -0.001747 0.0
4.204882 0.080427 -0.000072 0.0
3.176401 0.533130 0.000441 0.0
2.494859 0.039457 -0.001080 0.0
1.946826 0.452429 0.003259 0.0
3.445905 0.813424 -0.003241 0.0
3.555481 1.614850 -0.000919 0.0
2.845868 1.775522 0.000810 0.0
0.496433 1.702254 -0.001139 0.0
0.209368 0.444632 0.002161 0.0
3.408306 0.638889 0.003084 0.0
1.855477 0.212897 -0.000116 0.0
0.023506 1.541193 0.001226 0.0
1.533065 1.319417 -0.000478 0.0
0.337777 1.052112 -0.002189 0.0
3.471355 0.194917 0.003653 0.0
1.780508 0.787291 -0.000129 0.0
1.312175 0.752323 -0.001691 0.0
0.228540 1.695003 -0.000607 0.0
3.610868 0.739732 0.000563 0.0
3.727320 0.140166 0.003404 0.0
0.086722 0.893439 0.001921 0.0
2.096972 1.052433 -0.004459 0.0
1.559297 0.480507 0.000902 0.0
1.516423 0.185563 0.000498 0.0
2.347796 0.983355 0.000762 0.0
0.188776 1.066581 -0.002165 0.0
3.508976 0.292809 -0.003525 0.0
1.019751 1.522205 0.000248 0.0
1.425931 0.749135 -0.000279 0.0
0.197456 0.569655 -0.002647 0.0
3.825087 0.996596 -0.000129 0.0
2.341841 1.179241 0.002712 0.0
4.543434 0.923294 -0.005641 0.0
2.368310 0.126848 0.004375 0.0
1.279853 0.385694 -0.003408 0.0
2.350389 0.186492 0.002615 0.0
3.114695 1.456157 0.001667 0.0
4.299793 1.172505 0.002245 0.0
3.884846 0.558071 0.000930 0.0
3.379920 1.467055 0.001243 0.0
0.002329 0.108538 -0.001109 0.0
2.232555 1.712841 0.000823 0.0
0.068593 1.563091 0.001393 0.0
4.241574 0.229536 0.001394 0.0
1.292677 1.743715 0.000925 0.0
0.565866 1.676028 -0.000235 0.0
1.127622 0.327828 -0.002820 0.0
0.904573 0.404529 -0.001003 0.0
3.010861 1.517399 0.004865 0.0
2.071008 1.227698 0.001978 0.0
2.822020 0.765356 0.002819 0.0
3.427517 1.706202 0.002037 0.0
3.167416 0.565415 -0.000687 0.0
4.303368 0.893120 0.000818 0.0
3.785975 0.171901 0.002225 0.0
1.195439 1.169443 -0.001325 0.0
0.856019 0.239151 0.002653 0.0
2.863143 1.616345 0.001520 0.0
0.023354 1.324820 -0.001393 0.0
1.629788 1.763235 -0.002114 0.0
4.041546 1.118252 0.001478 0.0
2.188492 0.793905 0.000320 0.0
1.331733 0.587483 0.000724 0.0
2.650000 1.286364 -0.005543 0.0
1.090296 1.252252 0.001841 0.0
2.945372 0.412180 -0.000291 0.0
2.125136 1.703682 -0.001062 0.0
3.106550 0.536754 -0.000179 0.0
2.863925 1.140136 0.000718 0.0
2.010952 0.941327 -0.000470 0.0
3.027701 0.006290 -0.000955 0.0
3.972555 1.058185 -0.001437 0.0
0.500065 0.807466 0.000153 0.0
2.097281 0.848484 -0.001934 0.0
3.833827 1.195675 -0.001455 0.0
2.555929 0.608540 -0.001652 0.0
0.858149 0.176300 0.001906 0.0
3.945082 0.564133 0.002713 0.0
3.294252 1.368023 0.001209 0.0
0.018693 0.950678 -0.002760 0.0
2.096222 1.258888 -0.002045 0.0
0.594832 0.470592 -0.000335 0.0
0.617078 1.512347 -0.002883 0.0
0.592486 0.917739 0.000132 0.0
3.875805 0.172606 -0.002477 0.0
4.015378 1.355607 0.001110 0.0
3.489184 0.410876 0.000945 0.0
4.177247 1.113302 0.000737 0.0
3.363391 0.368924 -0.000053 0.0
3.668186 0.893666 -0.000996 0.0
0.869486 0.293702 -0.001299 0.0
1.338760 0.314385 0.000091 0.0
2.598020 0.252176 -0.000885 0.0
