0.73050629 0.19280512 0.00224549 0.00000000
0.57556888 0.53664838 0.00603802 0.00000000
0.16283920 0.38404729 0.00037903 0.00000000
3.48675753 1.27876966 0.00079665 0.00000000
4.17939491 0.17339338 -0.00144910 0.00000000
4.61076676 0.12081391 -0.00047229 0.00000000
3.46091449 1.16185970 0.00162777 0.00000000
4.62641577 0.54599944 -0.00064782 0.00000000
0.43082868 0.61848291 0.00077915 0.00000000
2.92806489 0.86814442 0.00214600 0.00000000
4.09785489 1.41697420 0.00088452 0.00000000
4.11173495 0.86471731 -0.00046183 0.00000000
2.03541579 1.12841051 0.00200683 0.00000000
1.03842696 0.33831691 -0.00404137 0.00000000
1.21458804 0.86888671 0.00282007 0.00000000
2.76044808 1.08570592 0.00099436 0.00000000
3.18703092 0.34742324 -0.00520141 0.00000000
2.15267821 0.46233575 0.00200443 0.00000000
2.32070481 0.15515926 0.00164225 0.00000000
4.05710218 0.21761859 -0.00101335 0.00000000
1.68632304 1.15134889 0.00329040 0.00000000
4.66045213 1.53975360 0.00278811 0.00000000
2.64563263 0.03507637 -0.00389937 0.00000000
0.00019350 1.24237852 -0.00113524 0.00000000
3.14664310 0.06114073 0.00237829 0.00000000
1.61719276 0.46259478 0.00371453 0.00000000
3.31572099 1.51755911 -0.00121224 0.00000000
0.21117102 1.09092914 -0.00061958 0.00000000
4.17308328 0.92383547 0.00037420 0.00000000
4.11300462 0.36709544 -0.00164311 0.00000000
2.18674066 1.52875741 -0.00024170 0.00000000
3.33396591 0.37702041 0.00206768 0.00000000
2.31643858 0.58941891 -0.00098036 0.00000000
1.43545061 0.18513554 0.00260540 0.00000000
1.27725575 0.69375189 -0.00074695 0.00000000
0.23651117 1.41157836 0.00373652 0.00000000
2.66764005 0.71683704 -0.00132464 0.00000000
0.20795592 1.26699412 -0.00131624 0.00000000
2.60800209 1.37731411 -0.00208768 0.00000000
3.76514395 0.22754277 0.00474944 0.00000000
1.02204067 1.21440324 -0.00075668 0.00000000
0.24833052 0.58753013 0.00103490 0.00000000
2.64565999 0.50680052 -0.00197615 0.00000000
0.77230935 1.00381512 -0.00061577 0.00000000
0.51173170 0.73890659 -0.00371853 0.00000000
2.62931558 1.39557649 -0.00154791 0.00000000
4.63963513 1.18215799 -0.00252482 0.00000000
2.01467772 0.42133348 -0.00448208 0.00000000
3.88373469 0.13932359 0.00407496 0.00000000
3.63549745 0.46257161 0.00465041 0.00000000
1.20411296 0.38766746 0.00325439 0.00000000
2.89435964 0.62073503 -0.00028515 0.00000000
4.46327858 1.47531729 0.00077783 0.00000000
0.30534460 1.44207470 -0.00200793 0.00000000
1.71710467 0.40252476 -0.00001357 0.00000000
1.69169165 0.83244063 -0.00323449 0.00000000
2.73230587 1.29181939 0.00083737 0.00000000
4.38702593 0.06212690 0.00165068 0.00000000
2.63820228 1.48939199 0.00034779 0.00000000
2.93132198 1.03174426 -0.00272291 0.00000000
1.13267524 0.98575094 0.00235419 0.00000000
3.81697557 0.27248874 0.00247699 0.00000000
0.91965171 1.46097154 0.00118958 0.00000000
3.62742920 0.77790251 0.00155419 0.00000000
3.66413974 1.40856264 0.00021013 0.00000000
2.72943940 0.47751937 -0.00243771 0.00000000
3.50823443 0.07168883 -0.00033982 0.00000000
2.13440492 0.59433643 0.00139503 0.00000000
2.67778204 1.00687769 -0.00324570 0.00000000
4.37097876 0.42378153 -0.00065496 0.00000000
2.50588504 0.02679976 -0.00080925 0.00000000
2.59676691 0.56005642 -0.00402923 0.00000000
0.12231507 0.27097201 0.00516615 0.00000000
2.60673624 0.42118256 -0.00104874 0.00000000
1.99251508 0.38038034 0.00028394 0.00000000
3.18896316 0.67307014 0.00267275 0.00000000
1.50219157 1.45745276 -0.00552484 0.00000000
4.55233253 0.35123509 0.00025632 0.00000000
1.87649245 0.70078764 0.00050313 0.00000000
4.27224618 1.25353363 0.00094640 0.00000000
4.41192667 0.13407027 0.00366226 0.00000000
1.80217038 0.27357505 0.00169038 0.00000000
3.86826279 0.51163692 0.00157823 0.00000000
1.10328264 1.48210634 -0.00285364 0.00000000
0.65021451 1.44542888 -0.00159205 0.00000000
0.71207529 1.40155704 0.00030776 0.00000000
2.33202412 1.18098160 0.00066040 0.00000000
1.72358266 0.25910075 0.00277742 0.00000000
1.91814360 0.06459609 -0.00024580 0.00000000
2.11610833 1.01299230 0.00234887 0.00000000
4.42092255 0.83179818 0.00137704 0.00000000
3.61143474 0.06225847 -0.00132464 0.00000000
0.22452228 0.55953871 -0.00162783 0.00000000
0.92848527 0.78835598 -0.00087161 0.00000000
4.02706437 0.29141796 -0.00113829 0.00000000
1.47567938 1.41841185 0.00142194 0.00000000
1.85219630 1.14597880 -0.00324362 0.00000000
1.53862725 1.21809930 0.00355715 0.00000000
4.05352829 0.40491098 -0.00261476 0.00000000
2.89701263 0.29154533 0.00010796 0.00000000
1.81152710 0.67284125 0.00160879 0.00000000
0.35623545 0.33433082 -0.00141690 0.00000000
0.05710609 0.95179149 -0.00192541 0.00000000
2.77733672 0.77792575 0.00305129 0.00000000
3.98333086 0.87840891 0.00018417 0.00000000
2.01719833 0.17234749 0.00054003 0.00000000
1.09534799 0.14197361 0.00039710 0.00000000
2.05682074 0.40680093 0.00338604 0.00000000
4.17556353 1.42049535 -0.00155083 0.00000000
0.50640125 1.24264424 -0.00265403 0.00000000
0.41233577 0.14973398 0.00176469 0.00000000
4.36784830 1.36613635 -0.00081833 0.00000000
1.97961874 0.06988429 -0.00166628 0.00000000
3.86710172 0.10483139 0.00046642 0.00000000
3.01172011 0.31677054 0.00215375 0.00000000
1.20125930 0.07445156 0.00375030 0.00000000
1.10363729 1.21249584 0.00347104 0.00000000
1.35715903 0.68919729 0.00127395 0.00000000
3.62185681 0.23895744 0.00075420 0.00000000
2.43129650 0.00612238 -0.00423941 0.00000000
4.37309104 0.59675109 -0.00041063 0.00000000
3.49706249 1.48730053 -0.00448972 0.00000000
1.86455373 1.22622974 0.00377778 0.00000000
3.27723452 0.07834354 -0.00012306 0.00000000
4.01092368 0.86685380 -0.00036884 0.00000000
3.78634864 0.76318704 0.00027867 0.00000000
0.65356918 0.96584479 -0.00374585 0.00000000
3.59872801 0.51783407 -0.00131692 0.00000000
4.14761865 0.28681896 0.00190480 0.00000000
2.11751510 1.38611101 -0.00228135 0.00000000
3.28748973 0.78555457 0.00036024 0.00000000
1.77246774 0.89489834 0.00097121 0.00000000
4.23585731 0.44947061 0.00006488 0.00000000
3.25126432 0.24171656 0.00110605 0.00000000
0.69715549 0.20971476 0.00031433 0.00000000
3.10769733 1.34217469 -0.00016790 0.00000000
0.32535002 0.45782386 -0.00291932 0.00000000
2.49763614 1.00886608 -0.00164806 0.00000000
0.15444526 1.51608709 -0.00074318 0.00000000
2.81924604 1.54487178 -0.00330634 0.00000000
4.49232176 0.33505234 -0.00281956 0.00000000
2.24569443 0.71918357 -0.00273933 0.00000000
1.77577112 0.27871190 -0.00285601 0.00000000
1.84815882 0.28092625 -0.00150033 0.00000000
1.58195153 1.49728159 -0.00006505 0.00000000
0.09814463 0.59717938 0.00056174 0.00000000
3.76110748 0.47512982 0.00041719 0.00000000
0.55672730 0.67814734 -0.00090350 0.00000000
4.28069386 0.11968188 0.00047426 0.00000000
0.70216969 1.46651493 0.00073516 0.00000000
1.26031830 1.14491400 0.00191766 0.00000000
2.67443315 1.46139424 -0.00072659 0.00000000
3.96893236 0.50373721 0.00086725 0.00000000
2.22742794 0.96729144 0.00220941 0.00000000
0.45559024 0.73854127 0.00360465 0.00000000
4.41470080 1.28805032 -0.00332452 0.00000000
4.26186782 0.23109531 0.00356659 0.00000000
3.49093753 0.10532535 0.00150632 0.00000000
4.18778779 1.36593982 -0.00057793 0.00000000
3.57597976 1.19365101 0.00046622 0.00000000
2.26183589 1.53829187 0.00145689 0.00000000
4.22311017 1.17365401 -0.00016837 0.00000000
0.78067781 1.01158345 -0.00212610 0.00000000
2.49118392 1.39443275 -0.00258755 0.00000000
0.39445728 1.30893896 -0.00030967 0.00000000
2.05179626 0.29882904 -0.00161137 0.00000000
4.61237632 1.23092213 -0.00222212 0.00000000
4.10827396 0.52050254 -0.00187822 0.00000000
3.01800574 1.53545909 0.00369346 0.00000000
2.97293886 0.88706979 0.00275093 0.00000000
2.44795369 0.88966579 -0.00111451 0.00000000
4.42758135 0.42468472 -0.00376147 0.00000000
0.36698017 0.67804556 -0.00142038 0.00000000
2.11405813 1.15186898 -0.00255732 0.00000000
4.57879588 0.10202889 0.00081281 0.00000000
3.98872954 0.58789261 0.00092895 0.00000000
3.42461325 0.97102667 -0.00060827 0.00000000
2.28593327 0.40788774 0.00082484 0.00000000
0.39578918 0.34363637 0.00197689 0.00000000
4.26910700 1.08314342 0.00043445 0.00000000
0.84691548 0.00039066 0.00221915 0.00000000
2.17801415 0.03558072 -0.00089016 0.00000000
3.72492946 0.12127726 0.00107927 0.00000000
4.65219823 0.88560505 0.00051994 0.00000000
1.38729157 0.24584105 0.00251882 0.00000000
1.44080497 0.45321616 0.00016592 0.00000000
0.66050992 0.48559278 0.00059629 0.00000000
1.39719638 1.49517517 0.00141419 0.00000000
2.34381698 0.15102563 -0.00511929 0.00000000
2.50358066 1.29712899 0.00171147 0.00000000
2.99101736 1.48305876 0.00235128 0.00000000
2.46066234 0.80270444 0.00082269 0.00000000
1.81260847 0.68692859 -0.00051126 0.00000000
1.84670594 1.05491622 0.00429914 0.00000000
2.42152528 0.76643220 -0.00373334 0.00000000
0.72340404 1.49249920 -0.00020852 0.00000000
3.48561759 0.05780340 0.00323610 0.00000000
2.71537573 0.44086598 -0.00112084 0.00000000
0.03708148 0.01521827 -0.00039417 0.00000000
3.43118848 0.87494023 -0.00180054 0.00000000
0.43790020 0.94840272 -0.00305094 0.00000000
1.94753878 1.21936255 -0.00276657 0.00000000
3.18310068 1.27128745 0.00362059 0.00000000
0.74192979 1.16187713 0.00732014 0.00000000
3.64744517 0.37429968 -0.00011897 0.00000000
3.42867214 0.77921513 -0.00421319 0.00000000
2.47187719 0.01528020 0.00258265 0.00000000
2.71928993 0.93921021 0.00222995 0.00000000
2.67690927 0.76453142 -0.00308837 0.00000000
2.16875586 0.14538901 -0.00080144 0.00000000
0.15609634 0.33946024 0.00286022 0.00000000
0.11387325 0.04426007 0.00163148 0.00000000
3.94315617 1.54347531 0.00190914 0.00000000
0.15539842 0.68710300 -0.00314936 0.00000000
2.15977758 0.50336200 0.00154517 0.00000000
0.55298973 1.10532659 0.00032863 0.00000000
3.35874121 1.29699707 -0.00385890 0.00000000
1.07689838 1.32848569 0.00187050 0.00000000
2.06313509 1.08524806 -0.00142420 0.00000000
0.50769982 0.37208473 0.00097309 0.00000000
3.32695323 0.74419040 -0.00226482 0.00000000
2.76185139 0.16168491 -0.00353091 0.00000000
1.72479588 0.06315172 -0.00073200 0.00000000
4.10085502 0.55335122 0.00445196 0.00000000
3.80805893 1.06937337 0.00164487 0.00000000
0.13984847 0.10575270 -0.00382127 0.00000000
0.37520185 1.35549954 0.00136425 0.00000000
3.88096755 1.45469321 -0.00080231 0.00000000
1.04263509 1.39883083 -0.00232601 0.00000000
3.26502100 1.40506637 0.00405318 0.00000000
1.57944479 0.67366465 -0.00124075 0.00000000
4.00501511 0.71790867 0.00618070 0.00000000
4.51867591 1.37642712 -0.00155619 0.00000000
1.19233669 0.36895700 0.00213079 0.00000000
0.39006953 1.01580474 0.00109598 0.00000000
1.54592786 0.96630985 -0.00236536 0.00000000
4.27517027 1.48831629 -0.00583762 0.00000000
3.79112550 0.79344980 -0.00419469 0.00000000
1.82914649 0.93299854 -0.00162398 0.00000000
2.69300122 1.39978639 0.00040655 0.00000000
3.51793738 0.14912257 0.00098068 0.00000000
4.32630743 1.28762545 0.00191773 0.00000000
1.00835343 0.38897838 0.00220151 0.00000000
2.58364043 1.04096731 -0.00071309 0.00000000
1.40525069 0.19722613 0.00143403 0.00000000
2.05286648 1.50930157 -0.00037591 0.00000000
3.19421687 0.80812117 -0.00067363 0.00000000
2.45302463 1.23033766 -0.00218445 0.00000000
4.36209298 0.85495076 -0.00175116 0.00000000
2.26598585 0.85722105 0.00259898 0.00000000
2.77284421 0.25277148 -0.00064145 0.00000000
2.35817411 0.62392399 0.00105760 0.00000000
2.60937911 1.38971424 0.00532045 0.00000000
0.65476079 0.28124843 -0.00070568 0.00000000
2.28085933 0.53754272 0.00337228 0.00000000
1.00615003 0.81570742 -0.00685416 0.00000000
1.55189423 0.07956492 -0.00081616 0.00000000
1.36303413 0.05686874 -0.00508029 0.00000000
3.96477917 0.14837571 -0.00043165 0.00000000
3.81198103 1.19914152 -0.00101469 0.00000000
3.38232441 0.46016069 -0.00537846 0.00000000
2.61754088 0.89428296 -0.00297252 0.00000000
2.53779159 0.88635321 -0.00217534 0.00000000
0.77370351 0.18849090 -0.00352957 0.00000000
0.00820488 0.53209672 0.00010167 0.00000000
2.95006969 0.88552892 -0.00208454 0.00000000
2.98889312 0.88671905 0.00206564 0.00000000
2.82384247 1.41093224 0.00209606 0.00000000
2.19240758 1.18171195 -0.00276043 0.00000000
0.50627987 1.07472730 -0.00197126 0.00000000
2.37531363 0.83839601 -0.00044124 0.00000000
2.50180905 0.24771594 -0.00648153 0.00000000
2.03039084 1.42027080 -0.00054948 0.00000000
1.27867880 0.61547001 -0.00277263 0.00000000
1.07969051 0.17602666 -0.00381006 0.00000000
4.14472725 0.44637314 0.00132094 0.00000000
0.83923948 0.73669590 0.00048702 0.00000000
1.24553260 0.50118968 0.00887252 0.00000000
0.90850633 0.04454647 0.00440610 0.00000000
0.38785140 0.83479530 -0.00044636 0.00000000
3.70818385 0.13203162 0.00014952 0.00000000
3.87755465 0.01389090 0.00281523 0.00000000
4.32639791 0.88769826 -0.00078386 0.00000000
1.72954338 0.84016554 -0.00250306 0.00000000
0.92718852 1.35457049 -0.00223164 0.00000000
0.77118875 0.77976274 0.00239708 0.00000000
4.30772251 0.76164519 -0.00001530 0.00000000
3.65151399 1.00476794 0.00066833 0.00000000
0.13231220 1.31761848 0.00456506 0.00000000
2.23627424 0.44144127 0.00234207 0.00000000
4.38398764 0.24974438 -0.00077966 0.00000000
1.00942658 1.18005594 0.00302088 0.00000000
3.07722939 1.04532805 -0.00104952 0.00000000
1.49654889 1.25049112 -0.00093034 0.00000000
0.79877447 1.11404717 -0.00311656 0.00000000
2.90144378 1.51375133 -0.00037492 0.00000000
4.57429837 1.19006320 -0.00181104 0.00000000
2.93005508 1.32552540 -0.00176190 0.00000000
0.46045895 0.36212215 -0.00142482 0.00000000
3.46464418 0.09506422 -0.00625422 0.00000000
2.28966456 0.55017402 -0.00279196 0.00000000
3.49924946 0.93172830 0.00303438 0.00000000
1.56932382 1.24365734 0.00162951 0.00000000
3.52552919 0.76555240 0.00016680 0.00000000
1.26824442 1.36025711 -0.00463105 0.00000000
3.62903813 0.50318664 0.00119322 0.00000000
4.28344498 0.12984009 -0.00219803 0.00000000
1.47295500 1.15617262 -0.00494058 0.00000000
2.51974656 0.61208432 -0.00241607 0.00000000
2.02491154 1.43198624 0.00058362 0.00000000
4.54591572 1.17618951 -0.00202480 0.00000000
2.15613572 0.04378873 -0.00017600 0.00000000
4.12656791 0.27489117 0.00018341 0.00000000
2.78395401 1.06848234 0.00339480 0.00000000
4.65109299 1.12980048 -0.00193212 0.00000000
2.82321886 0.28543952 0.00234326 0.00000000
3.52164231 1.29522285 -0.00076713 0.00000000
0.53655329 1.29137942 -0.00280147 0.00000000
2.89044194 1.19673444 -0.00491056 0.00000000
1.98728710 0.13207326 -0.00205807 0.00000000
4.56484841 0.52523276 -0.00154814 0.00000000
0.32303604 0.76317109 -0.00438292 0.00000000
4.43240815 0.97259629 0.00132907 0.00000000
3.51701657 0.57467452 0.00262810 0.00000000
0.38376704 0.86753668 0.00138631 0.00000000
4.46635274 0.10612275 0.00210011 0.00000000
3.19511257 1.49455267 -0.00045227 0.00000000
2.18242001 1.18899058 0.00100243 0.00000000
0.03844645 1.35242163 -0.00007208 0.00000000
4.16462386 1.26060647 -0.00114617 0.00000000
0.72303642 1.42768596 -0.00404187 0.00000000
1.85351858 0.35423724 -0.00092030 0.00000000
2.96789989 0.06082960 0.00621364 0.00000000
4.10671020 1.29934564 0.00027073 0.00000000
3.74524963 1.41165827 -0.00100106 0.00000000
1.82949435 1.23077653 0.00358747 0.00000000
3.10822353 0.92266891 -0.00168378 0.00000000
3.93391021 1.27099528 -0.00206019 0.00000000
1.86870044 1.10907206 0.00517347 0.00000000
2.52170943 0.66820394 -0.00819591 0.00000000
4.43550066 0.64488068 0.00010895 0.00000000
0.35343467 1.00646615 0.00369524 0.00000000
1.57397774 1.06535903 -0.00029318 0.00000000
1.26783504 0.49312957 -0.00123624 0.00000000
2.37075015 1.11816990 -0.00189650 0.00000000
1.12616551 0.05949620 0.00011238 0.00000000
1.82568560 0.27241003 -0.00130770 0.00000000
2.81832094 1.17553163 -0.00399492 0.00000000
1.91630636 1.39824644 0.00334945 0.00000000
3.34870787 1.08133794 0.00108894 0.00000000
1.46367161 0.32437185 0.00009330 0.00000000
0.93569717 0.59837329 -0.00169278 0.00000000
0.81380736 1.25585106 -0.00195514 0.00000000
3.86805869 0.46501729 0.00216116 0.00000000
3.56893884 0.66076138 -0.00039722 0.00000000
2.87472470 0.02901098 0.00336092 0.00000000
1.14500147 1.53281121 -0.00206146 0.00000000
4.10128310 1.28183636 -0.00140880 0.00000000
4.24844825 1.49810076 -0.00049943 0.00000000
2.33118326 0.98693199 -0.00214319 0.00000000
3.32592927 1.43908443 -0.00014718 0.00000000
2.30099868 0.63511222 -0.00140119 0.00000000
2.88864152 1.06510155 -0.00322681 0.00000000
3.87798448 0.96697338 -0.00290516 0.00000000
0.80184496 0.89124306 -0.00037605 0.00000000
2.83783952 1.42557101 0.00074217 0.00000000
1.54266057 1.23602948 -0.00118171 0.00000000
0.30617996 1.15982275 0.00222743 0.00000000
0.37324004 1.33163619 0.00117071 0.00000000
2.25930792 0.34862638 -0.00092359 0.00000000
0.22295655 0.81210884 0.00111278 0.00000000
0.62159129 1.51568944 0.00148236 0.00000000
4.45620032 0.02569636 0.00208117 0.00000000
2.50640031 0.86074437 0.00544396 0.00000000
0.71556370 0.49260262 -0.00093234 0.00000000
2.56461068 0.81775261 0.00053582 0.00000000
1.49943625 0.05973163 0.00198596 0.00000000
1.66907026 1.11287711 -0.00382670 0.00000000
1.28699681 1.05411192 0.00345996 0.00000000
3.02847770 1.41261132 0.00489036 0.00000000
0.02693886 0.87358583 0.00313869 0.00000000
1.76605896 1.12917344 0.00006292 0.00000000
2.81023382 1.50830442 -0.00182770 0.00000000
0.50772355 0.65769461 0.00109824 0.00000000
4.15564941 0.15548110 -0.00105590 0.00000000
4.13234362 0.57355913 -0.00117696 0.00000000
4.65063770 0.46283674 -0.00358422 0.00000000
3.78269399 1.51569208 0.00063852 0.00000000
2.76684471 1.21147341 -0.00174912 0.00000000
1.52034207 0.69989755 -0.00253210 0.00000000
1.85848613 0.77233257 -0.00068552 0.00000000
3.63465267 1.37894054 0.00160521 0.00000000
3.34513884 0.47732898 -0.00081288 0.00000000
2.07585477 0.20903307 -0.00299358 0.00000000
2.14586486 1.21083565 -0.00092298 0.00000000
3.89814657 0.90414352 -0.00137767 0.00000000
2.52689122 1.00561682 -0.00083019 0.00000000
4.26373310 0.74835079 -0.00166817 0.00000000
3.57608542 0.96738827 0.00443808 0.00000000
0.35291216 1.30738228 0.00054186 0.00000000
0.86490255 0.11129269 -0.00130460 0.00000000
3.66384043 0.83709523 0.00184981 0.00000000
0.92551180 0.45128690 -0.00355719 0.00000000
0.11258915 1.27963782 -0.00240681 0.00000000
1.64768771 0.42287246 -0.00274960 0.00000000
2.98996132 1.09737248 -0.00006768 0.00000000
3.82955381 0.02727602 -0.00259582 0.00000000
3.50438359 0.43182780 0.00049932 0.00000000
4.16211260 1.47519583 -0.00068913 0.00000000
3.07436750 1.33632803 0.00233352 0.00000000
0.09919147 0.41405757 -0.00193709 0.00000000
0.73775928 0.75087216 -0.00496952 0.00000000
1.53828866 0.91247247 -0.00476289 0.00000000
0.19451195 1.32610000 0.00000280 0.00000000
2.00990979 1.19190993 0.00183642 0.00000000
2.87949136 0.64432630 -0.00334558 0.00000000
2.00380865 1.03812328 0.00139762 0.00000000
2.38113038 0.65389922 0.00404089 0.00000000
1.70435849 1.46254016 -0.00159874 0.00000000
2.07677106 0.72148684 0.00027585 0.00000000
4.61560525 0.73206668 0.00488974 0.00000000
0.70357105 1.24284823 0.00344273 0.00000000
0.36483451 0.98288728 -0.00156994 0.00000000
1.97156724 0.34170423 -0.00151345 0.00000000
3.28463198 0.29489325 0.00019349 0.00000000
0.82875751 0.93827918 -0.00049524 0.00000000
2.01966992 1.08018783 -0.00045204 0.00000000
3.33551718 0.13623162 -0.00036945 0.00000000
4.04800520 0.55909834 -0.00102668 0.00000000
0.95624062 0.71939176 0.00068765 0.00000000
3.06303135 0.88837346 -0.00195354 0.00000000
2.12931324 1.42777846 0.00172642 0.00000000
2.33856643 0.90314408 -0.00503266 0.00000000
0.70061721 1.50218654 -0.00500287 0.00000000
1.05919783 0.71803445 -0.00106010 0.00000000
0.55639188 1.44684012 0.00185258 0.00000000
2.93463088 0.15096006 0.00138060 0.00000000
3.88593652 0.69170636 -0.00044127 0.00000000
3.15052401 1.14956759 0.00077981 0.00000000
3.31954872 0.00235141 0.00222234 0.00000000
0.77618450 0.14564309 -0.00141023 0.00000000
1.60609516 1.52182201 0.00045548 0.00000000
3.04898621 0.85213995 -0.00211519 0.00000000
4.35089975 0.84036396 -0.00042071 0.00000000
1.17007254 1.40143648 0.00500544 0.00000000
1.57485669 0.53381271 0.00126729 0.00000000
1.05821231 1.11837512 0.00135877 0.00000000
3.04993875 1.20296600 0.00206230 0.00000000
0.47045893 0.25775523 0.00220505 0.00000000
2.65606405 1.41075186 0.00078554 0.00000000
2.13025447 0.52189020 -0.00176165 0.00000000
3.87430650 0.60099035 0.00336831 0.00000000
2.20677944 0.42454368 0.00295106 0.00000000
3.37918613 0.75957185 -0.00686570 0.00000000
0.77604279 0.12891271 -0.00040649 0.00000000
2.54921057 1.08600073 0.00234983 0.00000000
2.87646444 0.58618563 -0.00157465 0.00000000
0.57225048 1.45895794 0.00357375 0.00000000
1.26961325 1.12500660 -0.00476263 0.00000000
2.65489511 1.45367652 0.00330042 0.00000000
4.63448759 1.23417963 0.00271363 0.00000000
0.25101200 0.46035077 0.00084232 0.00000000
0.71783900 0.53803803 0.00320228 0.00000000
2.73710567 1.35798434 -0.00294098 0.00000000
3.21266608 0.52207105 -0.00007648 0.00000000
1.48072647 1.22344579 0.00160600 0.00000000
1.75698160 1.47030524 -0.00190135 0.00000000
4.42660083 0.59742323 -0.00316882 0.00000000
1.24573256 0.14297333 0.00403928 0.00000000
3.99245482 1.26547445 0.00179915 0.00000000
2.47741086 1.47230575 -0.00410856 0.00000000
1.71815439 1.49424561 -0.00364084 0.00000000
0.70354567 1.51206755 0.00226193 0.00000000
4.45736464 0.07960947 0.00384726 0.00000000
2.22362173 1.34654675 0.00092570 0.00000000
1.43339879 0.20615521 -0.00083237 0.00000000
0.03544906 1.05037178 -0.00282530 0.00000000
0.93538137 0.85118055 0.00066629 0.00000000
1.64103724 0.16473354 -0.00128840 0.00000000
3.22702361 0.96807607 -0.00109353 0.00000000
2.40999651 1.18599643 -0.00130146 0.00000000
0.71477477 0.30565813 -0.00377751 0.00000000
1.30115519 0.54484433 -0.00318802 0.00000000
4.15504330 0.45353747 -0.00294011 0.00000000
2.18544437 1.02573459 0.00348308 0.00000000
0.23328052 0.54787338 -0.00354005 0.00000000
2.46500796 0.96579754 -0.00113806 0.00000000
1.52473581 0.47444668 -0.00026674 0.00000000
0.46577586 0.08225333 0.00011496 0.00000000
0.05766252 0.88510205 -0.00392176 0.00000000
1.90029299 1.16297743 -0.00151676 0.00000000
2.77576336 1.45275632 -0.00509996 0.00000000
0.04493397 0.99293017 0.00223786 0.00000000
1.85535890 1.22339623 -0.00234805 0.00000000
3.38404902 1.23967875 -0.00160185 0.00000000
0.76396756 1.05804839 -0.00348689 0.00000000
2.77897925 0.84168115 -0.00303877 0.00000000
3.48138496 1.14294919 -0.00457960 0.00000000
2.82417745 0.75556304 0.00133042 0.00000000
3.04257724 1.36114162 0.00203034 0.00000000
2.37105037 1.06785959 0.00081124 0.00000000
2.72797541 0.37294433 0.00147038 0.00000000
2.75497266 0.44703399 -0.00041559 0.00000000
3.26670532 0.27112967 0.00148063 0.00000000
4.32364574 0.39559153 -0.00034443 0.00000000
0.58715791 0.09522057 -0.00100470 0.00000000
1.46941562 1.31136914 0.00000643 0.00000000
3.18087781 1.23145518 0.00428211 0.00000000
2.47876279 0.05791103 0.00333125 0.00000000
1.73744579 0.88920476 -0.00138804 0.00000000
2.53725900 0.36912623 -0.00348445 0.00000000
3.89238606 0.37677747 0.00044491 0.00000000
4.32170588 0.04107742 -0.00139957 0.00000000
4.40543244 0.90284812 -0.00189645 0.00000000
1.63282951 0.03739043 -0.00176100 0.00000000
1.51789707 0.99128099 -0.00386294 0.00000000
0.41614390 1.32279973 -0.00066701 0.00000000
3.13825262 0.29375331 0.00234959 0.00000000
1.42190596 0.76349525 -0.00072380 0.00000000
0.33078951 1.47479813 -0.00063236 0.00000000
3.43043369 1.42887281 -0.00688495 0.00000000
2.64631326 1.03899958 0.00112877 0.00000000
4.49330573 0.15141789 -0.00168953 0.00000000
2.51950056 0.26403541 -0.00029159 0.00000000
3.11676653 0.49772208 0.00031971 0.00000000
1.93405623 0.72463342 -0.00059191 0.00000000
1.95635000 1.48654629 0.00129887 0.00000000
4.30703629 0.06842624 0.00164387 0.00000000
4.53351891 0.22887857 0.00127622 0.00000000
3.25058251 0.32977089 0.00220091 0.00000000
1.26441416 1.49174095 0.00322939 0.00000000
0.48607795 0.32870740 0.00075750 0.00000000
0.54992537 1.35308388 -0.00105830 0.00000000
1.97004204 0.12438361 -0.00188749 0.00000000
3.00886216 0.84835562 0.00475258 0.00000000
0.09286349 0.96617533 -0.00296429 0.00000000
0.97783995 0.00965074 -0.00259398 0.00000000
0.19008287 0.07371073 0.00398922 0.00000000
0.40479164 1.53486337 -0.00128584 0.00000000
0.07063843 1.30356631 0.00109334 0.00000000
4.15963457 1.43327798 -0.00366422 0.00000000
2.47993138 0.40437761 0.00134007 0.00000000
3.94928635 0.02199799 0.00220728 0.00000000
2.18592095 0.65315941 0.00067212 0.00000000
2.28807700 1.54199067 -0.00382566 0.00000000
1.53489862 0.59347300 0.00011445 0.00000000
0.38424519 0.25805920 0.00086278 0.00000000
4.03980005 0.81469783 -0.00187412 0.00000000
0.44112245 0.11500194 0.00032999 0.00000000
3.80561346 0.32654431 0.00135746 0.00000000
0.70489663 0.22926257 -0.00060139 0.00000000
0.54296497 1.14623405 0.00099229 0.00000000
2.25000889 1.15732205 0.00562279 0.00000000
0.12754107 0.91027801 0.00458214 0.00000000
4.43743421 0.76983236 0.00351418 0.00000000
0.84787839 1.07947784 0.00106140 0.00000000
3.68902003 0.97239116 -0.00197331 0.00000000
2.49629641 0.06072542 -0.00194454 0.00000000
3.86683385 0.15146051 0.00571977 0.00000000
3.37729081 0.62268105 0.00076169 0.00000000
0.61007629 0.49315911 -0.00098216 0.00000000
1.56511408 0.70065647 0.00157287 0.00000000
1.72917736 0.98694841 0.00240081 0.00000000
4.46543115 1.24133834 -0.00112141 0.00000000
0.19010748 1.21751294 0.00132249 0.00000000
3.90601812 0.58046164 -0.00146352 0.00000000
2.59555708 0.88116681 -0.00373913 0.00000000
1.74708043 1.28925448 0.00098556 0.00000000
0.90466955 1.42260870 0.00217841 0.00000000
2.15242256 1.28500534 -0.00063584 0.00000000
1.06610438 0.43908671 0.00119887 0.00000000
0.76363278 0.77973416 0.00432833 0.00000000
1.20972838 0.33713492 -0.00005434 0.00000000
2.95669849 1.33931308 0.00335806 0.00000000
1.20588515 0.50174098 -0.00135760 0.00000000
0.95025366 1.40093389 0.00266437 0.00000000
3.51079825 0.78324107 -0.00406374 0.00000000
2.10656951 0.38239063 0.00185110 0.00000000
1.66128121 1.02456169 -0.00404076 0.00000000
1.98287997 0.29066706 0.00218424 0.00000000
2.53132641 0.06874329 0.00434518 0.00000000
3.76939189 0.81235761 -0.00066209 0.00000000
0.93615465 1.35408428 -0.00108711 0.00000000
1.95452910 0.14553176 0.00282904 0.00000000
2.88695559 0.55031802 0.00291046 0.00000000
3.41308912 0.69941539 0.00556763 0.00000000
2.70094048 1.44900349 0.00117703 0.00000000
1.86272039 0.86358273 0.00076286 0.00000000
4.30326011 1.29154571 0.00157882 0.00000000
3.63889234 0.49758284 -0.00254344 0.00000000
4.64670101 1.42048926 -0.00016363 0.00000000
1.84558579 0.54271497 -0.00083903 0.00000000
0.85042701 1.36458858 -0.00311242 0.00000000
2.78788403 1.41803209 0.00551086 0.00000000
4.34513195 0.44139584 0.00336387 0.00000000
2.69634338 0.50839187 0.00337123 0.00000000
0.54589454 0.38821953 -0.00075582 0.00000000
1.42599620 1.08392870 -0.00062115 0.00000000
1.96319217 1.04598801 0.00652136 0.00000000
2.88910758 0.38420523 0.00448194 0.00000000
0.14857096 0.60326800 0.00112369 0.00000000
0.53067815 0.35032346 -0.00132216 0.00000000
0.02159558 0.04391467 -0.00464170 0.00000000
0.95562131 1.07951452 -0.00107436 0.00000000
2.48760498 1.07817970 -0.00176231 0.00000000
3.89402697 0.21634986 -0.00403621 0.00000000
4.64840314 1.06592403 0.00334030 0.00000000
3.34537371 0.08913814 0.00252356 0.00000000
3.04697983 0.97509877 -0.00586491 0.00000000
1.21105436 0.76250545 0.00125535 0.00000000
4.42195553 0.26185659 -0.00068234 0.00000000
1.73263630 1.52569009 0.00167714 0.00000000
2.23155538 0.40793664 0.00682762 0.00000000
0.48968722 1.22427388 -0.00385747 0.00000000
0.28708903 1.29643063 0.00047576 0.00000000
1.35408347 1.26059170 0.00207454 0.00000000
0.16732571 0.02267198 0.00338721 0.00000000
2.97065072 0.56198821 -0.00055056 0.00000000
3.61281543 0.59941128 0.00169474 0.00000000
0.57829932 1.26313758 0.00156625 0.00000000
3.93018977 1.06992193 -0.00175423 0.00000000
2.63453844 0.99326258 0.00202728 0.00000000
0.49711918 0.38457949 0.00389034 0.00000000
3.79994862 0.76224014 -0.00393464 0.00000000
0.22160406 0.86587445 -0.00127596 0.00000000
0.12042715 1.28419171 0.00027216 0.00000000
1.56979037 1.39587104 0.00759333 0.00000000
3.06870519 1.44676631 -0.00237066 0.00000000
2.16174449 0.96530261 -0.00101224 0.00000000
1.91368955 1.14655440 0.00015283 0.00000000
1.48574147 1.51950696 0.00110092 0.00000000
2.55808013 1.32365401 0.00398663 0.00000000
4.10095346 0.99342146 0.00125017 0.00000000
4.19972139 1.08922892 0.00064182 0.00000000
3.19696052 0.48283850 -0.00192904 0.00000000
3.16944685 0.84634773 0.00339709 0.00000000
0.75000948 0.05325416 -0.00043023 0.00000000
4.44269380 0.72452521 -0.00183559 0.00000000
0.26208173 0.76425528 0.00292405 0.00000000
0.49513031 0.81631729 -0.00430434 0.00000000
0.99963025 0.48153351 0.00220335 0.00000000
0.41106915 0.53539608 -0.00272971 0.00000000
2.98001749 1.40133403 0.00256220 0.00000000
4.05520263 0.44662964 -0.00289209 0.00000000
2.42651526 1.42636916 0.00106068 0.00000000
4.19789975 0.35529909 -0.00227992 0.00000000
0.54321941 0.66980679 0.00284239 0.00000000
0.26643097 1.15719634 -0.00244398 0.00000000
4.04175315 0.10025626 0.00116581 0.00000000
0.77464451 0.85709454 0.00090952 0.00000000
2.66950957 0.30486302 0.00280047 0.00000000
3.65934768 0.95529355 -0.00388405 0.00000000
3.23782175 0.07861867 0.00299554 0.00000000
3.76280390 0.30214209 0.00151972 0.00000000
2.28133282 0.92877378 0.00067597 0.00000000
2.98218911 0.43790195 -0.00119934 0.00000000
1.50294973 0.80691420 -0.00246875 0.00000000
2.70014865 1.22064391 0.00086521 0.00000000
2.84014762 0.87493580 -0.00014277 0.00000000
2.29370044 0.84419951 0.00532924 0.00000000
4.56441998 1.52400340 0.00128535 0.00000000
3.77520405 0.59700455 -0.00161573 0.00000000
2.84171162 0.70128235 0.00193620 0.00000000
2.31846127 0.99195645 -0.00023825 0.00000000
1.90474931 1.08245910 0.00188374 0.00000000
2.23785014 0.16420450 -0.00083629 0.00000000
2.08058716 1.53048579 0.00133058 0.00000000
3.48438177 1.04503291 0.00086886 0.00000000
4.47776878 0.18828876 0.00130647 0.00000000
4.14959600 0.93753573 0.00040874 0.00000000
0.59047338 1.07702241 -0.00070987 0.00000000
3.40305139 0.09471957 0.00297608 0.00000000
1.71196790 1.19783811 0.00122326 0.00000000
1.15375991 1.35980724 -0.00237370 0.00000000
1.78674106 1.32380042 0.00132455 0.00000000
1.42528975 0.54399479 0.00160718 0.00000000
0.10159643 0.63287464 -0.00363351 0.00000000
2.99025305 0.52477031 0.00002755 0.00000000
3.34766394 0.40025984 -0.00034990 0.00000000
2.83869780 1.15612723 -0.00036691 0.00000000
4.48034785 1.07467642 0.00055053 0.00000000
2.56298158 0.83099170 -0.00177554 0.00000000
0.87602868 0.20862360 -0.00436890 0.00000000
1.34795549 1.16417836 0.00575275 0.00000000
2.06832310 1.50221142 -0.00222596 0.00000000
0.53430324 0.65943776 0.00261979 0.00000000
4.64982266 1.14076870 0.00114741 0.00000000
0.07097264 1.14289439 0.00183302 0.00000000
4.07794757 1.13681164 -0.00266216 0.00000000
0.00933146 0.62764178 0.00180702 0.00000000
3.36915290 1.39889215 -0.00095762 0.00000000
0.82129231 1.28881124 0.00320708 0.00000000
3.92110250 0.38908358 -0.00132095 0.00000000
2.56145117 1.39568896 -0.00193032 0.00000000
3.37844569 1.15040134 0.00016474 0.00000000
3.59971627 0.91801394 -0.00050228 0.00000000
3.72835102 0.18550492 -0.00069088 0.00000000
3.92284421 0.80152952 -0.00428828 0.00000000
1.76084528 0.33285803 -0.00158814 0.00000000
4.16357437 0.69302205 -0.00006320 0.00000000
3.27082208 0.81400753 -0.00368939 0.00000000
1.43206178 0.17170090 0.00023688 0.00000000
1.69167152 0.60922703 -0.00169312 0.00000000
2.29218740 1.15747503 0.00097458 0.00000000
0.14765505 0.91003823 0.00413487 0.00000000
1.06200261 0.35195847 0.00143171 0.00000000
0.32860834 0.81801022 0.00502061 0.00000000
3.81088055 0.86004883 -0.00357009 0.00000000
3.28732051 1.46396741 0.00329125 0.00000000
1.84835147 0.51258816 -0.00390433 0.00000000
3.89113961 0.74512879 0.00036191 0.00000000
2.90131060 0.49547872 -0.00188236 0.00000000
3.99447042 0.92112507 -0.00069164 0.00000000
0.43896001 0.94544505 -0.00122488 0.00000000
2.33901470 0.47612465 0.00182704 0.00000000
3.58309172 1.04844769 -0.00073701 0.00000000
2.09180722 0.10413978 0.00287161 0.00000000
2.21848298 1.00043603 -0.00104493 0.00000000
1.42731165 0.66285731 -0.00189388 0.00000000
3.06754933 0.68072084 -0.00191723 0.00000000
4.06977592 1.11715824 -0.00104368 0.00000000
2.75552090 0.49340318 -0.00139035 0.00000000
2.17464506 0.16619519 0.00330955 0.00000000
3.72206046 1.17892998 -0.00091271 0.00000000
2.66517365 0.81401830 0.00019095 0.00000000
3.29944413 1.31387739 -0.00067375 0.00000000
1.25570130 0.45359417 0.00223393 0.00000000
3.57360725 0.12300965 0.00089482 0.00000000
2.57784393 0.14096096 0.00174796 0.00000000
2.52721913 1.13494788 0.00121618 0.00000000
0.35408179 0.33562750 -0.00162026 0.00000000
0.91118720 0.03753818 0.00022114 0.00000000
1.09570242 0.05218139 -0.00229037 0.00000000
1.25545581 0.27738871 0.00047078 0.00000000
0.15887919 0.64612212 -0.00393151 0.00000000
1.48848452 1.37695406 0.00381314 0.00000000
3.33007943 1.09526063 -0.00370681 0.00000000
3.08701277 0.98480906 0.00015368 0.00000000
3.26121806 1.40259912 -0.00209743 0.00000000
2.45561861 0.00476817 0.00057097 0.00000000
0.76236251 1.02742870 0.00064337 0.00000000
2.65800160 0.71282664 0.00188665 0.00000000
0.39334829 1.25384221 -0.00146440 0.00000000
3.27383428 0.18387139 -0.00263474 0.00000000
3.25097589 1.42674997 -0.00280561 0.00000000
1.52481517 1.23076769 0.00293397 0.00000000
1.77275154 0.14085088 -0.00460423 0.00000000
0.47491268 1.34484981 -0.00191600 0.00000000
2.38500423 0.39517736 0.00187693 0.00000000
4.17574632 1.37415106 0.00355962 0.00000000
3.60427930 0.52032646 0.00104682 0.00000000
2.68927740 0.07725179 -0.00015801 0.00000000
4.16708361 0.87594722 0.00032626 0.00000000
2.85675723 1.52230759 0.00397626 0.00000000
0.93821605 0.14279970 -0.00013217 0.00000000
2.14554257 1.05972284 0.00291562 0.00000000
0.92712635 1.03870444 -0.00039382 0.00000000
3.87631824 0.14254022 0.00206527 0.00000000
0.44909178 0.73134269 -0.00331724 0.00000000
2.60550598 1.13204519 0.00071524 0.00000000
4.39037698 0.28231501 -0.00204898 0.00000000
1.24637710 1.52811529 -0.00122785 0.00000000
3.67253701 0.29629643 0.00156397 0.00000000
1.56244294 1.26751897 0.00243324 0.00000000
3.73189772 1.09819329 0.00677188 0.00000000
4.53573553 0.42068125 -0.00150932 0.00000000
2.28387000 0.74556157 -0.00164388 0.00000000
1.82409148 1.28702319 -0.00323528 0.00000000
0.17409199 1.20487113 -0.00004169 0.00000000
1.62877776 1.17398419 0.00206749 0.00000000
4.51630809 0.84745756 -0.00246067 0.00000000
2.62307440 0.09040836 0.00092392 0.00000000
3.05666666 1.25025000 -0.00213388 0.00000000
4.14684902 0.39853083 0.00365622 0.00000000
1.50325282 0.73378319 -0.00055474 0.00000000
3.68443694 0.07849964 0.00059612 0.00000000
4.29052749 0.73440533 0.00238018 0.00000000
1.72151048 1.44925671 -0.00012380 0.00000000
1.54089422 0.45401616 -0.00299706 0.00000000
4.47582324 1.12539207 -0.00416491 0.00000000
2.66905296 0.63196719 -0.00371469 0.00000000
3.93674753 0.10161313 0.00077261 0.00000000
0.37942494 0.56390403 -0.00027408 0.00000000
0.90080862 0.96329626 -0.00067010 0.00000000
1.52917514 0.87401847 -0.00231396 0.00000000
1.40806627 0.42542946 0.00184739 0.00000000
3.65972440 1.46320312 0.00119552 0.00000000
0.69939034 1.37194297 -0.00179788 0.00000000
4.34755239 0.88232975 0.00233721 0.00000000
1.10495975 1.48946268 0.00033662 0.00000000
1.46479258 0.59159991 0.00071551 0.00000000
2.98378363 1.52120676 -0.00189216 0.00000000
1.71175202 0.03215328 -0.00131712 0.00000000
2.02398746 0.64223025 0.00274871 0.00000000
2.44998439 0.27128349 0.00376772 0.00000000
2.56022913 1.01352414 0.00495774 0.00000000
2.25105906 0.19851253 -0.00083524 0.00000000
4.61631867 0.18912548 0.00161283 0.00000000
0.86083509 0.32551616 -0.00473549 0.00000000
1.15645688 0.64910804 0.00112314 0.00000000
1.71382618 0.55066330 0.00321977 0.00000000
4.15842233 0.93874746 -0.00146854 0.00000000
3.94536649 0.79571418 -0.00000643 0.00000000
3.52967222 1.50023700 0.00381759 0.00000000
0.86379618 1.15981739 -0.00014125 0.00000000
2.36378489 0.69823591 -0.00142152 0.00000000
0.61560580 0.68335261 0.00155908 0.00000000
0.96408238 0.01133668 -0.00509772 0.00000000
4.29719436 1.48434058 0.00216423 0.00000000
4.07567749 0.14401443 -0.00034845 0.00000000
0.44764771 0.97808390 0.00345453 0.00000000
4.63013116 1.52644788 0.00015622 0.00000000
2.36652478 0.41589818 0.00235727 0.00000000
3.57890608 0.88767492 0.00317076 0.00000000
3.87275726 0.14042365 -0.00405028 0.00000000
1.85558341 0.94943227 -0.00055101 0.00000000
1.59458163 0.12519332 0.00039048 0.00000000
1.97199019 0.02701681 -0.00051828 0.00000000
2.86082188 1.13629301 0.00257810 0.00000000
0.66418747 0.39293980 0.00059688 0.00000000
3.40480127 0.07625144 0.00328175 0.00000000
1.08517102 1.31095875 -0.00069136 0.00000000
1.99461989 0.97331432 0.00083559 0.00000000
0.11858992 1.17998366 -0.00250707 0.00000000
3.57858196 0.17291847 0.00269858 0.00000000
1.58509886 0.22292381 -0.00078627 0.00000000
4.11360654 1.16197599 -0.00084241 0.00000000
3.09696832 0.06659178 -0.00198228 0.00000000
2.67313353 0.84559316 0.00629723 0.00000000
4.08223349 0.62150429 -0.00342550 0.00000000
2.25420599 0.57120030 0.00246292 0.00000000
2.29894936 1.07103246 -0.00151280 0.00000000
1.78512366 1.19553435 0.00009256 0.00000000
2.04096896 0.64773948 -0.00291541 0.00000000
0.31808829 0.28547917 -0.00171558 0.00000000
4.03381955 1.31773937 0.00392584 0.00000000
1.50345401 0.08523272 -0.00119576 0.00000000
3.10178646 1.23420012 0.00103694 0.00000000
0.98324812 1.29496918 -0.00107529 0.00000000
1.41490887 0.36371341 -0.00194570 0.00000000
1.25666522 0.57047067 -0.00373619 0.00000000
3.97402386 1.04649396 0.00055778 0.00000000
3.78676012 1.17917280 0.00064606 0.00000000
0.96234198 1.16146416 0.00048107 0.00000000
1.79361353 0.86230670 -0.00157105 0.00000000
2.11321312 0.50688936 0.00161977 0.00000000
4.24490845 0.64583248 0.00233929 0.00000000
0.88225631 0.21930225 0.00211390 0.00000000
4.13845975 1.39177780 0.00129513 0.00000000
2.16453651 0.91846902 0.00282839 0.00000000
1.19345338 0.07197826 0.00704474 0.00000000
0.08301906 0.53518651 -0.00114206 0.00000000
3.90190648 0.09318837 0.00102736 0.00000000
3.30922949 0.73755849 0.00164684 0.00000000
0.94146741 1.31007604 0.00437733 0.00000000
3.96490520 0.56395733 0.00054638 0.00000000
0.39007157 1.28682060 -0.00002808 0.00000000
3.88235764 0.68692555 0.00580209 0.00000000
3.63811524 0.76539238 -0.00210026 0.00000000
1.76040806 1.23010903 -0.00144397 0.00000000
1.65986812 0.02010410 0.00506368 0.00000000
2.72111171 0.40343385 -0.00074837 0.00000000
4.43202406 0.23810754 -0.00019186 0.00000000
4.42417414 0.92612987 -0.00141217 0.00000000
0.91390055 0.59103794 -0.00155902 0.00000000
2.43396755 0.63035081 -0.00302695 0.00000000
3.93784695 1.12118677 -0.00538417 0.00000000
1.02824406 0.47194206 0.00462942 0.00000000
3.45322414 0.58810282 -0.00159155 0.00000000
2.90561970 0.10783728 -0.00780851 0.00000000
0.85634172 0.80202137 0.00291774 0.00000000
4.28166047 0.29548626 0.00344371 0.00000000
0.00656523 1.43269412 -0.00080872 0.00000000
3.25531045 0.22677780 -0.00283648 0.00000000
2.68115997 0.89138091 -0.00069562 0.00000000
4.07883267 0.94795964 0.00014115 0.00000000
3.10229305 1.46632069 -0.00165239 0.00000000
4.51784568 0.30413452 0.00167886 0.00000000
0.06143938 0.17470818 0.00204100 0.00000000
1.38774031 0.31151417 -0.00045066 0.00000000
3.19554893 1.46373128 0.00129924 0.00000000
2.14161458 0.93470363 0.00222992 0.00000000
2.41820600 1.30139728 0.00204809 0.00000000
2.92004247 0.79377908 0.00128938 0.00000000
2.50578950 1.24694775 0.00030609 0.00000000
3.68479291 0.26632256 0.00030378 0.00000000
3.74091016 0.72357349 -0.00017101 0.00000000
2.40747574 0.58062980 -0.00307303 0.00000000
2.10624117 1.39705363 -0.00232343 0.00000000
4.32026509 0.96039006 -0.00049364 0.00000000
3.24781061 1.52417647 -0.00078098 0.00000000
2.92880928 0.47196060 0.00304113 0.00000000
0.84336223 0.20674258 -0.00115560 0.00000000
2.37576987 0.18813395 0.00071729 0.00000000
1.74501591 1.11186197 0.00348125 0.00000000
3.68828292 0.93522911 0.00355936 0.00000000
2.68141500 0.87997727 -0.00121456 0.00000000
3.63683581 1.22745173 -0.00208151 0.00000000
2.26998126 0.00363243 0.00677353 0.00000000
1.99853126 1.29787189 0.00048405 0.00000000
4.09326940 0.71648353 0.00111806 0.00000000
2.89674732 0.18110464 -0.00029830 0.00000000
0.65061048 0.16428571 -0.00442942 0.00000000
1.09950484 0.34056467 -0.00155437 0.00000000
0.30220370 1.00861321 0.00731119 0.00000000
3.41845523 0.35922625 0.00237711 0.00000000
2.73082221 0.34100549 -0.00016188 0.00000000
0.81545091 0.03704781 0.00198933 0.00000000
2.50460338 1.47836108 0.00392389 0.00000000
4.18885917 1.20226058 0.00169468 0.00000000
1.67781222 0.17314584 -0.00128977 0.00000000
0.89902295 1.07656787 -0.00201361 0.00000000
3.40838074 1.39281369 0.00297489 0.00000000
0.01760989 0.49028771 -0.00155020 0.00000000
3.46317467 0.53220164 -0.00174914 0.00000000
3.92767555 0.38914472 0.00078487 0.00000000
4.60177472 0.16360176 0.00218045 0.00000000
4.61395904 0.14309219 -0.00228105 0.00000000
3.33964138 0.68227877 0.00194822 0.00000000
3.14285111 0.29366566 -0.00127262 0.00000000
2.68261190 1.39951738 -0.00093268 0.00000000
2.50959184 0.59372783 -0.00128926 0.00000000
0.12191234 0.96341958 0.00477001 0.00000000
3.77710198 1.45040304 -0.00549386 0.00000000
4.15996682 0.45302966 -0.00297538 0.00000000
3.93114531 0.80289847 -0.00303917 0.00000000
0.09565125 0.35188146 -0.00050092 0.00000000
1.03647377 1.02016783 -0.00247588 0.00000000
2.43521819 0.41345169 0.00210452 0.00000000
3.81107108 1.23789327 -0.00015922 0.00000000
2.23764789 0.14780698 -0.00004078 0.00000000
1.63386166 0.69178881 -0.00004636 0.00000000
0.07430278 1.45795763 0.00146869 0.00000000
1.07689371 1.28764881 -0.00030558 0.00000000
3.96321514 0.40989947 0.00042529 0.00000000
2.71570310 1.36835340 0.00514915 0.00000000
2.67816986 0.61739469 0.00296921 0.00000000
2.19061211 0.80032673 -0.00040525 0.00000000
3.18008476 1.00896526 0.00525140 0.00000000
1.23160393 0.37777471 0.00305948 0.00000000
1.64489271 0.18428531 0.00022801 0.00000000
4.63072786 0.51567414 0.00198435 0.00000000
4.21109161 1.30968780 -0.00126698 0.00000000
1.27759593 0.24869076 -0.00485467 0.00000000
4.17306026 0.19462669 0.00137059 0.00000000
1.10745897 1.15476019 0.00279596 0.00000000
2.14974358 0.92329229 0.00153612 0.00000000
1.95219872 0.90216339 0.00134521 0.00000000
0.30414302 0.87463599 -0.00214380 0.00000000
2.59814812 0.61857286 0.00475532 0.00000000
3.48268367 0.74312535 -0.00035448 0.00000000
1.07528942 1.35360717 0.00045161 0.00000000
0.84003351 1.00730921 -0.00360720 0.00000000
3.34952381 1.31302197 0.00043945 0.00000000
3.35881749 0.35522915 -0.00292435 0.00000000
1.39267244 0.52666879 0.00457322 0.00000000
2.08810052 0.81867422 -0.00399128 0.00000000
0.57404181 0.19949873 -0.00206396 0.00000000
3.97533282 0.96999250 -0.00052579 0.00000000
1.37379982 1.43443902 0.00047295 0.00000000
1.91052973 1.32141201 -0.00357389 0.00000000
0.16015896 0.55263593 -0.00078593 0.00000000
3.79833515 1.51219490 0.00253062 0.00000000
3.67752103 0.35917377 -0.00209929 0.00000000
3.35633582 1.03921611 -0.00229121 0.00000000
2.00361184 1.15567555 0.00268630 0.00000000
3.91300006 1.17768251 0.00133126 0.00000000
0.91074845 0.57793862 0.00121098 0.00000000
0.37388975 1.04901069 0.00275909 0.00000000
3.84554874 0.37985763 -0.00142529 0.00000000
3.92270432 0.30446153 -0.00183419 0.00000000
1.25802336 0.83177600 -0.00365204 0.00000000
4.64069104 0.42051323 0.00072178 0.00000000
2.31131880 0.40402295 0.00229482 0.00000000
0.96225922 0.05139592 -0.00146282 0.00000000
1.33077058 0.74349131 0.00191111 0.00000000
1.49847252 1.07975814 -0.00307402 0.00000000
3.22200865 0.54212261 -0.00444417 0.00000000
1.38076098 0.83037279 -0.00125168 0.00000000
4.57073395 1.35843895 0.00346252 0.00000000
4.05912816 0.77205439 -0.00236711 0.00000000
4.12395091 0.91610263 -0.00331223 0.00000000
1.55904986 0.20832381 0.00058624 0.00000000
2.66297520 0.53984491 -0.00100326 0.00000000
0.57313845 0.22196548 -0.00081204 0.00000000
2.57483561 1.48936436 0.00109898 0.00000000
2.92596295 0.80679538 0.00019598 0.00000000
4.41245792 1.07965914 0.00058178 0.00000000
3.94537003 0.29700610 -0.00061361 0.00000000
2.10727189 0.69066400 -0.00040171 0.00000000
4.52206745 1.23183488 -0.00144434 0.00000000
3.16661363 1.32282614 0.00098534 0.00000000
1.29896149 0.93098108 -0.00260879 0.00000000
3.35101635 0.15999308 -0.00377866 0.00000000
2.49548553 1.21973180 0.00192120 0.00000000
0.25025309 0.48049430 0.00161484 0.00000000
3.56086117 1.02273854 0.00132110 0.00000000
2.20123726 0.47465792 0.00182271 0.00000000
4.18211302 1.16740939 -0.00150947 0.00000000
3.15302432 0.23594283 -0.00047776 0.00000000
4.36245705 1.05652737 -0.00129337 0.00000000
4.30199307 1.00482198 -0.00080922 0.00000000
2.47128133 0.04140140 0.00063940 0.00000000
1.82801491 0.66494153 -0.00234226 0.00000000
0.99115195 1.06660126 -0.00043661 0.00000000
4.43202349 0.99272124 0.00057441 0.00000000
1.57990261 0.30610555 0.00052485 0.00000000
0.96339901 0.42719062 -0.00318884 0.00000000
1.11017354 0.43293288 -0.00004528 0.00000000
3.49194483 0.75512404 -0.00619475 0.00000000
0.12501250 0.70148437 0.00043648 0.00000000
1.77252099 0.71001741 0.00724444 0.00000000
1.21565396 0.57810876 0.00128164 0.00000000
1.48613646 0.49663944 -0.00117978 0.00000000
2.39546932 0.94067414 0.00047656 0.00000000
2.15257989 0.07261942 -0.00571421 0.00000000
4.49679065 1.36467768 0.00034705 0.00000000
2.17334588 0.24491339 0.00131669 0.00000000
0.21218746 1.41115025 -0.00512178 0.00000000
4.32447131 1.16873378 -0.00359640 0.00000000
1.21107425 0.99925812 -0.00210372 0.00000000
3.14758745 1.44554350 0.00167689 0.00000000
2.42444675 0.53925558 -0.00054564 0.00000000
4.23935114 1.10804551 0.00031848 0.00000000
4.17959667 0.15696684 0.00009589 0.00000000
2.27376817 0.40938249 -0.00274629 0.00000000
4.50185351 0.66484780 -0.00191535 0.00000000
0.69502203 0.90056205 0.00219166 0.00000000
2.63186924 0.78353066 0.00151426 0.00000000
3.36068339 0.93146257 -0.00125646 0.00000000
2.24293636 1.18736031 0.00020213 0.00000000
3.07432353 0.12423581 -0.00035827 0.00000000
1.58172355 1.10501768 -0.00358473 0.00000000
3.04357349 0.82553995 -0.00422232 0.00000000
1.38138782 1.43895097 -0.00127459 0.00000000
3.64899364 0.19420724 -0.00222493 0.00000000
2.52045744 0.21639309 0.00550116 0.00000000
2.93357606 0.25443492 -0.00296637 0.00000000
1.94433216 1.06609828 0.00338284 0.00000000
1.69302355 1.09934998 -0.00353586 0.00000000
0.39878440 0.25813051 -0.00416619 0.00000000
2.28521762 1.20536150 -0.00150219 0.00000000
4.28191281 0.63488501 -0.00482291 0.00000000
4.03934458 0.90320626 -0.00250549 0.00000000
3.39143946 1.34557193 -0.00093545 0.00000000
3.52470841 0.60014057 -0.00088524 0.00000000
2.57624261 0.77999554 0.00243401 0.00000000
3.64976951 0.10194446 -0.00072052 0.00000000
3.53014272 1.17341185 -0.00307576 0.00000000
3.55442262 0.00901439 0.00021671 0.00000000
4.14473297 0.34479911 -0.00302539 0.00000000
4.58888479 1.34455768 -0.00379845 0.00000000
0.24658299 1.51539112 0.00104319 0.00000000
1.51582844 0.71794381 -0.00199024 0.00000000
4.14595199 0.35554176 0.00034482 0.00000000
0.96376894 0.93857068 0.00261959 0.00000000
1.80056501 1.39568755 -0.00408495 0.00000000
1.72229137 0.54583122 -0.00069247 0.00000000
1.67714205 0.00467871 -0.00203107 0.00000000
0.03404983 1.25423200 0.00030298 0.00000000
1.66919528 0.35986013 -0.00195073 0.00000000
0.03904030 0.66017682 0.00133817 0.00000000
0.14419994 0.00324229 0.00147143 0.00000000
3.48372390 0.86802858 0.00271355 0.00000000
0.09419200 0.99835658 0.00071508 0.00000000
2.29594278 1.45918914 -0.00259783 0.00000000
1.87794900 0.50883663 -0.00077022 0.00000000
2.47851502 1.45810155 -0.00201037 0.00000000
2.22995357 1.12357607 -0.00311935 0.00000000
3.47469572 0.16397415 -0.00061171 0.00000000
4.62539378 0.14896159 0.00132723 0.00000000
2.91999693 0.94127546 -0.00195753 0.00000000
2.53718872 0.99113622 0.00241975 0.00000000
2.39692454 0.62086814 -0.00013383 0.00000000
0.51098186 1.48954013 0.00119443 0.00000000
1.70607233 1.36168032 -0.00093219 0.00000000
2.04667116 0.27937232 -0.00138349 0.00000000
2.47916278 0.66219980 -0.00266731 0.00000000
