4.32710510 0.25971238 -0.00534312 0.00000000
3.70202240 1.37914180 0.00079934 0.00000000
0.95673163 0.78596297 0.00088106 0.00000000
3.18951195 0.87012356 0.00004622 0.00000000
3.69252252 0.16388410 0.00040491 0.00000000
1.27492099 0.01413722 0.00120210 0.00000000
1.61176619 0.42264242 0.00281917 0.00000000
4.80622611 0.91499735 -0.00010971 0.00000000
0.73056705 1.11599961 0.00270800 0.00000000
2.79361427 0.52618988 0.00315839 0.00000000
2.98393063 1.56485601 -0.00659472 0.00000000
1.91610951 0.50924862 -0.00197883 0.00000000
2.98891263 0.84013618 0.00267601 0.00000000
0.15665598 0.54892700 0.00131716 0.00000000
3.83838894 1.08811136 -0.00066390 0.00000000
0.76767975 1.41760189 0.00305309 0.00000000
3.23228824 0.93474424 -0.00508421 0.00000000
4.88058799 1.04896244 0.00273048 0.00000000
1.57421232 0.58491394 -0.00182502 0.00000000
0.13820178 0.30994609 0.00055338 0.00000000
0.60183237 1.41980133 0.00771808 0.00000000
2.44656574 0.54452173 -0.00148830 0.00000000
2.05850095 0.40644953 -0.00082404 0.00000000
4.48484230 0.25008307 0.00362384 0.00000000
2.37417540 1.07763293 0.00558445 0.00000000
4.22189242 0.57676857 -0.00058879 0.00000000
4.41471845 0.38671775 0.00113289 0.00000000
4.84989253 0.95438398 0.00277929 0.00000000
3.82843690 0.50158820 0.00375654 0.00000000
4.97489692 1.11206085 -0.00334158 0.00000000
1.28705286 0.47084097 0.00334739 0.00000000
3.56796912 1.18700544 0.00086455 0.00000000
2.82706752 0.70875655 0.00257027 0.00000000
2.13951987 1.63681661 0.00212367 0.00000000
2.68493409 1.15750647 -0.00180465 0.00000000
2.17694089 1.49501842 0.00153432 0.00000000
1.40309179 0.88496113 -0.00080030 0.00000000
1.77063237 0.53219949 -0.00419700 0.00000000
3.57499381 0.02655788 0.00124539 0.00000000
0.64782232 0.01640157 -0.00310659 0.00000000
1.51468036 0.62292691 -0.00014735 0.00000000
0.92628641 1.29317799 0.00078174 0.00000000
4.52427231 1.18926571 -0.00247516 0.00000000
3.48156805 1.56688736 0.00083210 0.00000000
4.51608711 0.49832111 -0.00248722 0.00000000
4.14526796 0.03393969 -0.00065833 0.00000000
3.32931025 0.84487436 0.00336786 0.00000000
4.00228578 1.39190408 0.00282447 0.00000000
2.85779301 1.18470867 0.00080799 0.00000000
0.33709384 1.52227339 -0.00108889 0.00000000
0.36539123 1.30695526 0.00085182 0.00000000
4.63067655 0.11472145 -0.00224480 0.00000000
1.69302309 0.57833589 -0.00399204 0.00000000
3.43963674 0.88282117 0.00500256 0.00000000
1.60696919 0.58774926 -0.00420698 0.00000000
4.65592360 1.47211481 -0.00341601 0.00000000
3.53938972 1.22493393 0.00346010 0.00000000
3.28563314 1.24956245 -0.00236439 0.00000000
4.22958998 1.52236018 -0.00196619 0.00000000
0.64882192 0.72737204 -0.00148976 0.00000000
4.81018133 1.22741738 0.00418207 0.00000000
3.19072660 0.25109379 0.00491842 0.00000000
3.99207336 0.30779763 -0.00151540 0.00000000
0.61651056 1.03010049 0.00329257 0.00000000
1.68698915 0.87263486 0.00246508 0.00000000
2.56720163 1.01211155 -0.00205093 0.00000000
3.89157097 1.46950400 -0.00174975 0.00000000
3.78880419 0.46975834 0.00579675 0.00000000
4.48789295 0.19721837 -0.00417006 0.00000000
4.59593123 1.54976306 0.00151363 0.00000000
2.79754098 0.06504558 -0.00069407 0.00000000
4.44839847 1.48382294 0.00163234 0.00000000
3.53946382 0.62372274 0.00272695 0.00000000
2.76948908 1.13393025 -0.00248893 0.00000000
3.23927989 1.66180880 0.00040958 0.00000000
1.79924994 0.97028899 0.00024043 0.00000000
1.26169454 1.49677584 0.00287235 0.00000000
1.03329103 0.92757546 0.00081198 0.00000000
4.41892009 1.59255143 -0.00103272 0.00000000
1.02790920 0.80290424 -0.00011388 0.00000000
1.48858765 1.15709794 0.00323965 0.00000000
3.07534518 1.26631043 0.00216779 0.00000000
1.63871074 1.14536904 -0.00007063 0.00000000
2.48718772 0.11239047 0.00023411 0.00000000
2.06814098 0.02680552 0.00112680 0.00000000
2.21221241 1.07623292 0.00007660 0.00000000
3.08720247 0.75186293 -0.00586065 0.00000000
2.48728521 1.18649837 -0.00222346 0.00000000
1.68341508 0.83288041 0.00035694 0.00000000
1.43055828 0.25671995 0.00062467 0.00000000
1.04407700 0.50530150 0.00018071 0.00000000
3.13103828 1.19008476 0.00029983 0.00000000
4.79421894 0.87188055 -0.00052455 0.00000000
4.32879232 0.72073766 0.00032095 0.00000000
2.47657627 0.55959548 0.00238994 0.00000000
1.94625207 0.85509411 0.00022613 0.00000000
2.37261746 0.22857564 -0.00421311 0.00000000
4.23366397 1.56249393 -0.00124537 0.00000000
4.85218550 0.94555008 0.00194827 0.00000000
0.55401826 0.16804887 -0.00022055 0.00000000
4.91856359 1.51367255 -0.00169965 0.00000000
1.70597814 1.09792490 -0.00198028 0.00000000
1.99075806 1.34860129 -0.00313603 0.00000000
4.03563697 1.07093665 -0.00425343 0.00000000
3.72576168 0.85051167 -0.00444331 0.00000000
0.92867013 0.27449485 -0.00012106 0.00000000
1.40059901 0.19073697 0.00205861 0.00000000
0.74641126 1.39037512 -0.00216384 0.00000000
2.64514861 1.21254452 0.00013326 0.00000000
2.61514552 0.30816647 -0.00159566 0.00000000
0.58139049 0.50616433 0.00455950 0.00000000
1.36673397 1.26274224 -0.00017626 0.00000000
0.51990037 1.52971531 -0.00335571 0.00000000
3.54340972 0.17969908 0.00076130 0.00000000
0.98565961 0.95871475 0.00140976 0.00000000
3.46185149 1.16575287 -0.00036236 0.00000000
2.46791548 0.91700144 0.00113257 0.00000000
2.25252036 1.17222597 0.00236478 0.00000000
1.27998942 0.10594848 -0.00048809 0.00000000
0.59103476 1.15713306 -0.00436245 0.00000000
4.22908640 0.10117267 -0.00148149 0.00000000
2.71767704 0.71373788 -0.00021516 0.00000000
3.92506857 0.82878744 0.00173714 0.00000000
1.12027713 0.87032750 -0.00477544 0.00000000
2.68469198 1.38551470 -0.00459901 0.00000000
3.21157126 1.11942807 0.00137236 0.00000000
2.87597238 1.31747942 0.00250889 0.00000000
0.69874495 1.47573202 -0.00171230 0.00000000
0.85803956 1.48319379 -0.00223114 0.00000000
2.96047568 0.67586190 0.00043470 0.00000000
2.23677785 1.28649525 0.00332280 0.00000000
0.56349942 1.68087052 -0.00103739 0.00000000
1.86944309 1.31374226 -0.00436791 0.00000000
1.66965788 0.89484973 -0.00194891 0.00000000
0.20662654 0.49499744 -0.00122374 0.00000000
3.64385338 1.39476068 -0.00209136 0.00000000
2.90122514 0.30882071 -0.00068989 0.00000000
1.17272650 1.17637687 -0.00220923 0.00000000
3.71471674 1.46271998 -0.00033560 0.00000000
1.90536731 1.39037110 0.00586044 0.00000000
0.10968256 1.56044197 0.00357909 0.00000000
1.75651722 1.16511637 -0.00363049 0.00000000
3.25063445 1.23241612 -0.00076410 0.00000000
0.30653301 1.65799068 -0.00464717 0.00000000
0.84938296 0.89606010 -0.00227691 0.00000000
3.43245162 0.42909571 0.00320553 0.00000000
4.25057930 0.71196425 -0.00433050 0.00000000
2.54829013 0.20025346 -0.00191175 0.00000000
2.93085991 1.13806966 0.00147867 0.00000000
1.98704807 0.34296624 0.00354848 0.00000000
3.61881438 1.01554300 -0.00149246 0.00000000
0.76373332 1.60055430 0.00111945 0.00000000
3.90654634 1.38804331 -0.00110393 0.00000000
3.60457785 1.48809885 0.00031997 0.00000000
0.67360259 0.62614650 -0.00010184 0.00000000
3.07410857 0.84920013 -0.00100595 0.00000000
3.68575817 0.92205512 -0.00310581 0.00000000
2.57209203 1.24923332 0.00179414 0.00000000
2.74081625 0.76239558 -0.00249537 0.00000000
1.03629084 0.34275879 -0.00043866 0.00000000
0.78732574 0.57918179 0.00317656 0.00000000
3.57841692 1.15831910 -0.00389962 0.00000000
0.69393393 0.30949057 -0.00019842 0.00000000
1.34421262 1.17022664 -0.00281498 0.00000000
0.36324917 1.56341492 -0.00300023 0.00000000
4.89465399 1.41117806 -0.00238489 0.00000000
2.09210976 0.68778073 0.00407966 0.00000000
4.91933178 0.98541159 -0.00167713 0.00000000
1.53050209 1.46265332 0.00203473 0.00000000
4.07224074 0.44641374 -0.00013329 0.00000000
3.92825050 0.95662988 0.00284465 0.00000000
0.36526897 0.46510581 0.00437605 0.00000000
1.90112594 0.53665182 0.00041758 0.00000000
4.26795042 1.11991143 0.00042825 0.00000000
2.99212875 0.20689824 -0.00224991 0.00000000
3.93722712 0.70933738 -0.00088973 0.00000000
1.49873949 0.83256349 0.00101472 0.00000000
4.61183811 0.67553257 -0.00112123 0.00000000
3.08180664 1.19436097 0.00164807 0.00000000
0.75164662 0.47667181 -0.00052007 0.00000000
2.14112096 0.53794007 0.00229449 0.00000000
1.79364821 1.49566640 0.00702630 0.00000000
2.91880486 0.14366189 -0.00209078 0.00000000
3.40390106 1.13503134 -0.00106272 0.00000000
4.14101325 1.51035866 -0.00060450 0.00000000
4.48623995 0.37677711 0.00035734 0.00000000
2.90546609 0.36947658 -0.00376815 0.00000000
2.56037045 1.15814659 -0.00165589 0.00000000
3.20732965 0.93264409 -0.00132139 0.00000000
0.27478772 0.89502337 -0.00055514 0.00000000
0.47982207 1.19526910 -0.00300613 0.00000000
1.61165634 1.27325100 0.00510380 0.00000000
1.83034254 1.66873537 0.00231287 0.00000000
1.39022032 0.99597868 -0.00027226 0.00000000
1.47003137 0.13056626 0.00521620 0.00000000
1.26472048 0.98691665 0.00312701 0.00000000
1.70177639 0.25234976 -0.00336803 0.00000000
4.06370324 0.79756976 0.00343088 0.00000000
3.59750587 0.37267672 0.00689776 0.00000000
1.41309218 0.25977138 -0.00213153 0.00000000
1.86464361 1.46974100 0.00174405 0.00000000
4.84987574 1.70954972 0.00213998 0.00000000
1.65381311 1.30961254 -0.00200419 0.00000000
3.05365890 1.59131577 -0.00029438 0.00000000
1.72303341 0.22179592 -0.00158726 0.00000000
3.89523468 1.06974457 0.00041732 0.00000000
0.71386751 0.85930535 -0.00242939 0.00000000
1.50546908 0.05256115 -0.00403982 0.00000000
1.04952046 1.54405022 -0.00216590 0.00000000
2.27148195 1.47790448 -0.00021433 0.00000000
0.94129740 0.82237290 0.00543454 0.00000000
2.89853471 1.33313325 -0.00464464 0.00000000
3.19902933 1.05294343 0.00377741 0.00000000
0.66112382 1.40788113 0.00230202 0.00000000
1.62684330 1.06561723 0.00069345 0.00000000
1.12141049 1.02421196 0.00159964 0.00000000
1.11146390 0.67372243 0.00090685 0.00000000
3.78998381 1.27909119 -0.00168745 0.00000000
3.73294780 1.12886473 -0.00396414 0.00000000
4.46624406 0.02624579 0.00346267 0.00000000
3.08377122 0.21076227 0.00312059 0.00000000
3.98394579 0.32179999 0.00000445 0.00000000
0.68656820 1.34764901 0.00152527 0.00000000
1.55622009 0.12099337 -0.00489312 0.00000000
2.24391247 0.10419936 0.00284035 0.00000000
4.59403954 1.23700929 -0.00054728 0.00000000
0.41092502 0.78585827 0.00176088 0.00000000
1.51214843 1.14830433 0.00171679 0.00000000
1.58716311 0.31536223 -0.00082018 0.00000000
2.50758805 0.07877266 -0.00282497 0.00000000
2.33844987 1.05758734 0.00228851 0.00000000
0.75766236 0.56393076 -0.00151893 0.00000000
1.65138270 0.24957755 -0.00439612 0.00000000
2.44035246 1.28585536 0.00509432 0.00000000
2.62364330 0.39538733 0.00038371 0.00000000
1.90442876 0.73081938 0.00269167 0.00000000
1.10436182 0.91849916 0.00246120 0.00000000
3.19233182 1.35627155 -0.00135820 0.00000000
2.19031617 0.95294819 0.00003038 0.00000000
3.81453218 0.11071406 -0.00109629 0.00000000
1.63672479 1.22587346 0.00006792 0.00000000
3.06002254 1.40014409 0.00213292 0.00000000
2.87523618 0.29413039 -0.00486148 0.00000000
2.01315711 0.81742474 0.00230794 0.00000000
0.17083308 0.56679334 -0.00120767 0.00000000
0.90273956 0.69571490 0.00015209 0.00000000
4.07879719 0.63311790 -0.00027013 0.00000000
1.63950409 0.48336004 -0.00120785 0.00000000
4.94666122 0.15667742 0.00142805 0.00000000
2.71469220 1.09859608 0.00065979 0.00000000
2.71229080 1.15934614 -0.00374850 0.00000000
1.78764054 1.15401421 0.00001366 0.00000000
0.09168985 0.30127103 -0.00578556 0.00000000
3.41977123 1.30660990 0.00671439 0.00000000
0.16274188 0.00141180 -0.00406561 0.00000000
0.71490982 0.21490020 -0.00143748 0.00000000
3.49330417 0.54683564 0.00651397 0.00000000
4.09192233 1.08475043 0.00001785 0.00000000
1.00393736 1.57070511 -0.00171475 0.00000000
3.04364539 0.18501842 0.00121619 0.00000000
3.70779672 1.07413071 0.00183100 0.00000000
1.53657649 1.24137398 -0.00003079 0.00000000
2.48271661 1.60157296 -0.00004222 0.00000000
3.76001751 1.47138198 0.00079505 0.00000000
4.28240987 1.45683794 -0.00153919 0.00000000
1.67927000 0.71979707 -0.00031577 0.00000000
1.42794077 1.68618356 0.00124749 0.00000000
0.01016550 0.79394461 -0.00262151 0.00000000
4.93219089 0.16279579 0.00153308 0.00000000
0.35189248 0.38879815 -0.00356074 0.00000000
4.08077184 0.16230595 -0.00112204 0.00000000
4.68660700 0.97842215 0.00085428 0.00000000
4.50998589 0.20483244 -0.00005712 0.00000000
2.20873357 0.07817845 -0.00001921 0.00000000
2.74768226 1.24698218 0.00060199 0.00000000
3.43397055 0.61175644 -0.00156116 0.00000000
3.22348578 1.42849974 -0.00155028 0.00000000
2.55332518 1.37354839 -0.00017256 0.00000000
0.59054397 0.54757422 0.00040304 0.00000000
3.95502114 0.01288140 0.00447504 0.00000000
0.56440744 1.29532285 -0.00129465 0.00000000
2.17500366 1.03258397 -0.00345978 0.00000000
4.65827062 1.33665755 -0.00251570 0.00000000
1.33305299 1.14014636 -0.00686886 0.00000000
2.78201328 0.91722403 0.00086498 0.00000000
0.80255122 1.46742959 0.00119790 0.00000000
3.22407003 0.45170117 -0.00541737 0.00000000
1.35635909 0.74180134 0.00273621 0.00000000
3.90474705 0.08859330 0.00154739 0.00000000
1.44098500 0.77090680 -0.00012026 0.00000000
1.67978851 1.16769513 -0.00157000 0.00000000
4.25937381 0.30208486 -0.00215250 0.00000000
1.90148873 0.47934000 -0.00025024 0.00000000
1.41323339 0.90919537 0.00082113 0.00000000
2.83430335 1.20497433 -0.00034593 0.00000000
3.30065752 1.64813571 0.00363347 0.00000000
3.12009207 0.25513274 0.00015073 0.00000000
3.00548982 0.82081662 -0.00155223 0.00000000
3.12580160 1.10191357 -0.00073205 0.00000000
4.62347888 1.33845802 0.00125253 0.00000000
0.38967505 1.63866478 -0.00040459 0.00000000
0.88188424 1.29172500 0.00170191 0.00000000
1.31541884 0.88237479 0.00376249 0.00000000
4.10514300 1.07970799 0.00396220 0.00000000
3.71369820 1.13902776 0.00198215 0.00000000
0.80751388 0.35743526 -0.00113721 0.00000000
3.45184288 1.36565481 -0.00411620 0.00000000
1.52818814 0.63086780 -0.00450350 0.00000000
1.87044613 1.38261590 -0.00059364 0.00000000
1.94966195 1.12889878 0.00095469 0.00000000
2.78479593 1.61490376 0.00168617 0.00000000
3.92295698 0.18364177 -0.00505904 0.00000000
4.69966231 1.44669909 0.00000489 0.00000000
4.28076560 1.08459357 0.00101787 0.00000000
0.62048741 0.36683659 -0.00012191 0.00000000
2.80962159 0.95674549 -0.00446285 0.00000000
4.61077940 0.64239803 0.00168305 0.00000000
3.17358935 0.28015974 -0.00098194 0.00000000
2.58810824 1.43606686 -0.00323192 0.00000000
1.15702559 0.30549919 0.00246406 0.00000000
4.42089080 0.42162754 -0.00062076 0.00000000
0.31047441 0.21176806 0.00075283 0.00000000
4.70221133 1.31620583 -0.00433293 0.00000000
1.63212493 1.46886476 0.00516421 0.00000000
4.37768734 0.00884326 0.00196950 0.00000000
0.80785963 1.36561570 0.00113683 0.00000000
3.48178619 1.07825254 0.00156678 0.00000000
1.63407923 0.56806606 0.00070653 0.00000000
3.27476765 0.65173081 -0.00331890 0.00000000
0.04076302 0.11813408 0.00274656 0.00000000
4.38849423 0.49939338 0.00440516 0.00000000
3.18219707 1.16142854 0.00215204 0.00000000
4.78671607 0.68403502 0.00194412 0.00000000
3.75231879 0.12328088 -0.00047501 0.00000000
2.83221533 0.23106753 -0.00229814 0.00000000
4.17671369 0.67802643 -0.00026720 0.00000000
0.21208846 1.51094862 0.00320406 0.00000000
4.22428102 1.62574709 0.00103713 0.00000000
0.48243811 1.59254077 -0.00096100 0.00000000
2.13970018 0.50775014 -0.00008898 0.00000000
2.08381005 0.57664828 -0.00034510 0.00000000
2.87645635 0.62607279 0.00110707 0.00000000
0.58183787 1.53000032 0.00046187 0.00000000
1.05358578 1.53878007 0.00436168 0.00000000
1.94892337 1.18658981 -0.00159465 0.00000000
4.40204034 0.89735216 -0.00019901 0.00000000
1.47478506 1.69737107 -0.00069584 0.00000000
2.58902414 0.15803772 -0.00088161 0.00000000
2.73651301 1.07241770 0.00345838 0.00000000
1.75046800 0.64284167 -0.00077203 0.00000000
0.78238735 1.66175386 0.00075141 0.00000000
3.75334122 0.16975501 -0.00267517 0.00000000
1.72626876 0.75486421 -0.00371520 0.00000000
2.03261823 0.08652102 -0.00121055 0.00000000
1.60945095 0.62556391 0.00241111 0.00000000
3.81521866 0.40720104 0.00063262 0.00000000
3.47341917 0.19560458 0.00360180 0.00000000
1.15963354 0.93238571 -0.00032290 0.00000000
3.75909008 1.40033037 -0.00042582 0.00000000
2.56356308 0.68297300 0.00024816 0.00000000
4.83198474 1.52443237 0.00341825 0.00000000
3.78929082 0.38511779 0.00206453 0.00000000
4.40947644 0.06783136 -0.00366984 0.00000000
0.71555215 1.50543997 -0.00139933 0.00000000
2.71433994 0.50279788 -0.00108072 0.00000000
2.70576025 1.30303806 -0.00434525 0.00000000
0.32205089 1.49451632 0.00220511 0.00000000
3.42007191 0.38512712 -0.00327670 0.00000000
0.88140801 0.08667430 -0.00034281 0.00000000
2.72282318 0.71359158 0.00205961 0.00000000
1.01820199 1.62491730 0.00146537 0.00000000
4.72517460 0.07699036 -0.00327695 0.00000000
0.95144163 0.03929634 -0.00336661 0.00000000
4.18160803 0.87108392 0.00201630 0.00000000
0.09286924 1.40029390 -0.00123508 0.00000000
2.60884898 0.63180662 0.00182660 0.00000000
4.70537606 0.95038647 -0.00490816 0.00000000
0.27777655 1.60827186 -0.00259797 0.00000000
4.21808023 0.21046033 -0.00011988 0.00000000
1.26661158 1.45699380 0.00165514 0.00000000
1.48113232 0.35254940 -0.00233722 0.00000000
4.24231645 1.68252174 -0.00451897 0.00000000
3.59597564 0.01871670 -0.00441027 0.00000000
4.99304986 1.47631385 0.00349401 0.00000000
1.11906725 0.83304196 -0.00194696 0.00000000
3.51176074 0.39596552 -0.00010619 0.00000000
3.81248894 1.69417314 0.00093662 0.00000000
0.28896816 0.44915276 0.00003942 0.00000000
2.36293428 0.48920998 -0.00207893 0.00000000
2.20190705 1.59283864 0.00114217 0.00000000
4.97393739 0.26772160 -0.00262629 0.00000000
0.87829229 1.02729263 0.00253020 0.00000000
1.38563420 1.29511385 -0.00524925 0.00000000
1.41250129 0.68728728 0.00219048 0.00000000
4.98096826 1.10995326 -0.00088764 0.00000000
0.79301207 1.51592481 0.00099941 0.00000000
2.05625395 1.07609046 -0.00120763 0.00000000
4.85589635 1.69930244 0.00092056 0.00000000
1.85375706 0.73168306 -0.00205088 0.00000000
1.20596398 1.58826472 -0.00127209 0.00000000
0.79041163 1.36091969 0.00707417 0.00000000
2.51391250 0.41778370 0.00517751 0.00000000
1.10608070 0.22357665 0.00086959 0.00000000
3.75474284 0.81818875 -0.00106573 0.00000000
4.17706935 0.63416527 0.00012764 0.00000000
4.73832818 1.06685712 -0.00256136 0.00000000
3.83710750 0.57702358 0.00037975 0.00000000
4.27078582 1.05187557 -0.00196061 0.00000000
0.30944275 1.57147337 -0.00252717 0.00000000
2.42696988 0.55189917 0.00096496 0.00000000
2.58126983 1.67802616 0.00079346 0.00000000
1.27866770 1.03940671 -0.00324673 0.00000000
2.98828180 1.07136839 -0.00352176 0.00000000
1.43558977 0.91887575 -0.00321844 0.00000000
1.76965274 0.45782190 0.00306536 0.00000000
4.29732259 1.34506927 0.00420723 0.00000000
3.20571613 0.13665934 -0.00285253 0.00000000
3.29798794 0.08734753 -0.00473848 0.00000000
3.33624773 1.18097459 0.00098111 0.00000000
4.67530731 0.41802651 0.00105802 0.00000000
1.92005997 0.78513761 0.00211709 0.00000000
4.95490925 1.08554653 -0.00035425 0.00000000
2.07165960 0.91369664 0.00082225 0.00000000
3.49038612 0.05471831 0.00018970 0.00000000
3.50207148 0.76261058 -0.00176044 0.00000000
3.66002299 0.47345650 0.00549534 0.00000000
0.31446460 1.43564117 0.00133517 0.00000000
2.33105502 0.48871788 -0.00263061 0.00000000
4.57208920 1.14117409 -0.00362609 0.00000000
3.58174336 1.05879297 0.00357648 0.00000000
2.66007257 0.32494752 -0.00121351 0.00000000
3.01681804 0.47551721 0.00118978 0.00000000
0.77031002 0.12197766 0.00216398 0.00000000
4.36916082 0.32481465 0.00153021 0.00000000
1.04891995 0.36667424 -0.00365387 0.00000000
2.05020051 1.36617943 0.00062605 0.00000000
4.76865549 0.30850455 0.00323027 0.00000000
0.12449734 1.51452661 -0.00017464 0.00000000
1.11092437 1.19592842 -0.00121577 0.00000000
1.80704763 0.32301630 0.00065463 0.00000000
2.59831470 1.60379850 -0.00317403 0.00000000
3.75616492 1.27353484 0.00107050 0.00000000
2.06580191 0.62899047 -0.00160649 0.00000000
0.02346633 0.96038837 -0.00047658 0.00000000
4.85740525 0.91344068 -0.00004451 0.00000000
4.10890302 1.05608550 0.00415462 0.00000000
4.92652948 1.61487766 0.00188734 0.00000000
4.05777182 0.70913628 0.00636256 0.00000000
0.73632527 0.39455281 0.00014634 0.00000000
3.87178602 0.38570903 0.00001580 0.00000000
2.37051014 1.62488954 0.00211172 0.00000000
0.41890267 0.73840190 -0.00093963 0.00000000
2.04733780 0.67569733 0.00096901 0.00000000
2.47566082 0.41214226 -0.00221142 0.00000000
0.23200689 1.59786775 -0.00394885 0.00000000
0.79081255 0.29169207 0.00203741 0.00000000
3.77490401 0.89614957 -0.00055933 0.00000000
3.24143067 1.70902091 -0.00347871 0.00000000
0.85168297 0.47380637 -0.00105572 0.00000000
4.32684669 0.32622393 0.00008796 0.00000000
1.53044375 0.32793735 -0.00184495 0.00000000
3.47344296 1.10482518 0.00211651 0.00000000
1.05205121 1.44298190 0.00019563 0.00000000
1.93089267 1.54391662 0.00216226 0.00000000
2.21701429 0.95139961 0.00139945 0.00000000
4.67373248 0.25107459 -0.00104200 0.00000000
4.76780515 0.98832588 0.00119271 0.00000000
1.81320034 0.55325572 -0.00183352 0.00000000
2.37096830 0.93837846 0.00168481 0.00000000
1.86444453 0.34919364 0.00284333 0.00000000
4.77701461 1.46837644 -0.00368702 0.00000000
3.98608086 0.09868545 -0.00178579 0.00000000
1.72850091 0.69305270 0.00460957 0.00000000
2.61962791 1.31121669 0.00144819 0.00000000
2.71572886 1.01881326 -0.00098826 0.00000000
1.70423678 1.36557784 -0.00058619 0.00000000
0.09284446 1.00274915 0.00398358 0.00000000
2.31627943 1.31961754 -0.00397611 0.00000000
3.90651204 0.55202066 0.00412602 0.00000000
0.42078540 1.52646713 -0.00345589 0.00000000
0.39301987 0.50541276 -0.00062008 0.00000000
4.19847036 1.18581412 0.00054704 0.00000000
2.22281489 0.68509664 0.00026947 0.00000000
1.15001772 0.65781060 0.00114651 0.00000000
3.10782780 0.27403007 0.00078191 0.00000000
1.38330263 1.34939383 -0.00175186 0.00000000
1.82470979 0.69236119 0.00088171 0.00000000
4.15814119 1.14328640 0.00080741 0.00000000
0.39266013 0.84223198 0.00454845 0.00000000
3.65141093 0.03540391 0.00336361 0.00000000
1.63082852 0.43581502 0.00130994 0.00000000
4.79907498 0.05641990 0.00193468 0.00000000
3.12509806 0.42227384 0.00247941 0.00000000
0.27106918 1.12073689 0.00313959 0.00000000
0.11389971 1.67099327 0.00358404 0.00000000
1.90274474 0.00529963 0.00567889 0.00000000
4.36597694 0.13900864 0.00005657 0.00000000
2.50364800 0.26021319 -0.00200146 0.00000000
4.63524846 0.13498595 0.00451649 0.00000000
1.58263248 1.70042771 0.00221865 0.00000000
2.31404644 0.45534495 -0.00209653 0.00000000
3.53456718 0.02764048 -0.00084704 0.00000000
4.04402319 1.48923212 0.00122826 0.00000000
4.10186565 0.30809705 -0.00155931 0.00000000
0.95003737 1.16080690 -0.00593286 0.00000000
3.33314294 1.64281186 0.00004183 0.00000000
4.80140421 1.54014233 -0.00112104 0.00000000
1.83593585 0.40639904 -0.00160405 0.00000000
3.52947353 1.26902768 -0.00059182 0.00000000
2.20914125 0.50074804 -0.00195288 0.00000000
2.71860466 1.11275668 -0.00087470 0.00000000
4.59061474 1.64366989 -0.00217726 0.00000000
0.42946036 1.59065602 0.00296699 0.00000000
1.85131468 1.14691123 -0.00341397 0.00000000
2.54973716 1.06211199 0.00136646 0.00000000
2.69610559 0.48078584 0.00050485 0.00000000
3.34807040 0.26658884 -0.00007727 0.00000000
4.95440835 1.02394618 0.00297491 0.00000000
4.87493401 1.62982179 0.00084395 0.00000000
3.45589270 1.57511914 0.00086027 0.00000000
0.85771439 1.37471934 0.00158317 0.00000000
1.18435698 1.03111133 0.00031234 0.00000000
4.90192037 1.52436698 -0.00516354 0.00000000
1.76257321 0.87583183 0.00140865 0.00000000
4.57000474 0.45315352 0.00022508 0.00000000
3.78118990 0.14668152 0.00432514 0.00000000
2.18604162 0.31512792 -0.00386219 0.00000000
2.84483760 0.21858111 -0.00191800 0.00000000
3.21297052 0.63161310 0.00341178 0.00000000
1.03283453 1.58269101 0.00328032 0.00000000
2.71780271 1.08541479 -0.00320166 0.00000000
1.62909180 0.47647088 -0.00133299 0.00000000
3.21922075 0.83429471 0.00079659 0.00000000
4.29565179 1.37148472 -0.00048995 0.00000000
3.56254366 0.50399450 0.00107636 0.00000000
1.24327886 1.68322499 0.00323729 0.00000000
1.96686357 0.62618339 0.00023021 0.00000000
2.43735937 0.46600910 -0.00635473 0.00000000
3.19130344 0.56814250 -0.00261833 0.00000000
0.35921922 0.11413261 0.00245664 0.00000000
4.42939581 1.35073792 0.00230744 0.00000000
1.65938983 1.34005535 -0.00657969 0.00000000
3.14102025 1.47752983 0.00182561 0.00000000
0.20988714 0.09665966 -0.00015904 0.00000000
1.02753630 0.31771888 0.00094315 0.00000000
4.40608390 1.06149756 0.00102588 0.00000000
2.68001997 0.99977890 -0.00096855 0.00000000
1.64566226 1.64655457 -0.00777672 0.00000000
4.86824605 1.16332737 -0.00230175 0.00000000
4.34702476 0.95589088 -0.00070061 0.00000000
4.82622929 0.17994051 0.00320036 0.00000000
0.76550912 0.91385186 -0.00390415 0.00000000
3.84886909 1.00115082 0.00158796 0.00000000
1.39490814 1.06020373 -0.00040046 0.00000000
4.97336481 0.89089374 -0.00387983 0.00000000
4.15237588 0.91047292 -0.00079676 0.00000000
2.97359600 0.62872012 -0.00127842 0.00000000
2.15173669 1.52835224 0.00138670 0.00000000
4.77594747 0.38937442 0.00084906 0.00000000
0.26647077 0.85979229 0.00642093 0.00000000
4.96328156 1.55445263 0.00351053 0.00000000
2.82443845 1.30052603 0.00004912 0.00000000
2.57105903 1.13305434 -0.00216315 0.00000000
0.42986210 1.30871122 -0.00168104 0.00000000
2.42522657 0.92754035 -0.00370024 0.00000000
0.91912206 1.10185404 -0.00088583 0.00000000
0.47309890 1.45272843 0.00240983 0.00000000
1.14982337 0.14907132 0.00100283 0.00000000
4.96547787 0.80740674 -0.00167764 0.00000000
2.01839817 1.47234171 -0.00047044 0.00000000
1.19371545 0.47347197 -0.00003297 0.00000000
2.29190005 0.57977627 -0.00342064 0.00000000
0.90960602 0.54026960 -0.00600281 0.00000000
3.14550236 0.09011616 0.00148223 0.00000000
2.90810891 1.50305236 -0.00169543 0.00000000
3.88083850 0.74066668 -0.00173704 0.00000000
1.04433768 0.02036293 -0.00353678 0.00000000
4.88454132 0.54262326 0.00278701 0.00000000
2.42875356 0.84582926 -0.00032139 0.00000000
4.74445276 1.66913153 0.00261473 0.00000000
3.58743345 1.23952417 0.00261766 0.00000000
1.14735057 1.45421014 0.00330840 0.00000000
4.05607006 0.70804856 -0.00131891 0.00000000
4.57833146 1.18788249 0.00018806 0.00000000
3.41712389 1.25285746 0.00332174 0.00000000
3.47687599 0.98406923 0.00441234 0.00000000
2.64761653 1.23765369 -0.00096055 0.00000000
3.81070640 1.27426677 0.00129943 0.00000000
0.58697027 0.85618108 0.00166810 0.00000000
2.43750722 0.16024022 0.00352980 0.00000000
2.03409195 0.28762913 0.00138164 0.00000000
1.14443896 1.47533139 -0.00260078 0.00000000
0.28337686 0.66355254 -0.00261721 0.00000000
4.90907991 1.38771571 -0.00297143 0.00000000
3.47032418 1.48405610 0.00119969 0.00000000
2.27153401 1.02050272 0.00469662 0.00000000
2.51830740 1.37667392 0.00426283 0.00000000
2.36629701 0.36177580 0.00019865 0.00000000
2.35355681 1.49698520 -0.00221134 0.00000000
1.24130458 1.11099149 -0.00023659 0.00000000
1.16720620 0.96484730 -0.00044727 0.00000000
0.85507774 1.56204635 -0.00135846 0.00000000
3.53780755 1.13395728 -0.00066228 0.00000000
4.41304886 0.59908093 0.00255246 0.00000000
4.05029215 0.96180221 -0.00037304 0.00000000
0.88924524 0.72864880 -0.00086689 0.00000000
2.98441936 1.48141281 -0.00321020 0.00000000
3.89770099 1.13644099 0.00047097 0.00000000
3.84035093 0.81864627 0.00138031 0.00000000
0.12701964 0.15232466 -0.00099640 0.00000000
0.78152996 0.14640627 0.00132114 0.00000000
0.09317335 1.05508942 0.00180909 0.00000000
1.83841925 0.66009330 0.00188238 0.00000000
0.62356811 0.44580449 -0.00490815 0.00000000
4.44129482 0.19710948 0.00296950 0.00000000
2.65959518 1.12380088 -0.00434737 0.00000000
0.11925634 1.55941354 0.00350493 0.00000000
4.63608726 1.64714474 0.00202372 0.00000000
4.01600182 1.60470717 -0.00125746 0.00000000
2.72016040 1.64598077 0.00207155 0.00000000
1.68031484 0.07103603 -0.00050887 0.00000000
1.52452944 1.42248227 0.00363996 0.00000000
2.71530240 1.09392578 -0.00003510 0.00000000
1.60341431 0.29945730 -0.00391991 0.00000000
3.74545803 1.62431793 0.00145377 0.00000000
4.58657654 1.18646060 -0.00393000 0.00000000
0.75015082 0.20249093 -0.00160732 0.00000000
0.65215531 1.14830060 0.00042656 0.00000000
2.42688684 0.08458244 0.00035025 0.00000000
1.45775632 1.34370454 0.00120566 0.00000000
3.83423660 0.79150524 -0.00163607 0.00000000
4.07480715 0.77494343 -0.00167538 0.00000000
1.66653820 0.02672562 0.00230826 0.00000000
0.55653804 1.09866952 -0.00151707 0.00000000
1.79951342 0.19525478 -0.00218317 0.00000000
2.11602829 1.12624820 0.00451474 0.00000000
1.63280939 0.65151875 -0.00056981 0.00000000
1.68984981 0.21296306 0.00152627 0.00000000
3.35578938 0.64341223 -0.00104557 0.00000000
4.83651413 1.31551174 -0.00121721 0.00000000
1.35949106 0.66537799 0.00821666 0.00000000
1.09619807 0.52954180 -0.00347806 0.00000000
3.81030592 1.31728741 -0.00161260 0.00000000
2.64699268 0.19905925 -0.00219726 0.00000000
4.39263010 1.43253058 -0.00046492 0.00000000
3.55088369 1.56518513 -0.00110631 0.00000000
2.44227776 0.95789565 -0.00128178 0.00000000
3.91470133 0.42326184 0.00174365 0.00000000
3.38122529 0.41255625 -0.00107633 0.00000000
0.38246331 1.28884868 -0.00030089 0.00000000
1.79511844 1.03154492 -0.00015225 0.00000000
4.37817688 0.12655141 -0.00082485 0.00000000
3.02885981 0.96582027 0.00285681 0.00000000
4.88256823 1.20176858 0.00266441 0.00000000
0.66914222 0.21627826 -0.00244551 0.00000000
4.30097878 1.61515030 -0.00328218 0.00000000
2.83226243 1.57279651 -0.00479713 0.00000000
3.86335975 0.24888887 0.00194177 0.00000000
2.00244941 0.34428333 0.00066650 0.00000000
0.78369253 0.38584329 -0.00336758 0.00000000
1.40834295 0.58032106 0.00340425 0.00000000
0.51066143 0.99032814 -0.00345487 0.00000000
2.19420380 0.38156971 -0.00293360 0.00000000
1.20496691 1.57707609 -0.00170613 0.00000000
3.30509030 0.20381703 -0.00144504 0.00000000
2.24815176 1.41518629 0.00370098 0.00000000
0.14881089 0.74400273 -0.00017890 0.00000000
0.86064854 1.67191797 -0.00014188 0.00000000
2.28554112 0.54564941 -0.00106787 0.00000000
4.14324198 1.34496815 -0.00367024 0.00000000
1.18518240 0.71078478 -0.00244596 0.00000000
1.37066569 0.82085478 -0.00304140 0.00000000
3.52878654 1.58012027 0.00610296 0.00000000
4.76879108 1.05310026 -0.00271087 0.00000000
2.24079624 1.41324017 0.00302520 0.00000000
3.96088355 0.55888546 0.00118014 0.00000000
3.63974452 1.24853532 -0.00386286 0.00000000
3.91209444 1.63424142 -0.00150787 0.00000000
0.28914308 0.17875448 0.00254154 0.00000000
1.96267818 1.44609873 0.00160172 0.00000000
0.95145431 0.49699839 0.00064791 0.00000000
1.58900818 1.07366064 -0.00094005 0.00000000
0.01961164 1.47271573 0.00050980 0.00000000
0.70365648 0.46764891 0.00373870 0.00000000
0.93501125 0.55958531 0.00155473 0.00000000
1.96955580 1.37787491 -0.00321804 0.00000000
0.80041317 0.88675024 -0.00492009 0.00000000
4.48747270 0.08198085 0.00320941 0.00000000
0.64636099 1.00686656 0.00042659 0.00000000
3.01348928 0.85841125 -0.00156217 0.00000000
1.68695835 1.67932957 -0.00517709 0.00000000
4.78866764 0.53771199 -0.00099798 0.00000000
3.47154395 1.42373266 -0.00168443 0.00000000
1.45999605 1.05327591 -0.00340019 0.00000000
2.33291934 0.59480005 -0.00273257 0.00000000
0.69071927 0.95161662 -0.00131827 0.00000000
0.47233890 1.35793130 0.00262517 0.00000000
4.56732160 0.23740562 -0.00305039 0.00000000
3.99652799 1.17616513 -0.00016353 0.00000000
0.33263125 0.93562651 -0.00175070 0.00000000
1.73649195 1.34737452 0.00017404 0.00000000
1.70614767 0.76607729 0.00246463 0.00000000
0.34950268 0.69036251 -0.00525377 0.00000000
4.25649388 1.19939678 -0.00531844 0.00000000
1.10036893 1.52184560 -0.00053256 0.00000000
4.56007088 1.09702439 0.00234879 0.00000000
0.53135363 0.22534558 -0.00294263 0.00000000
4.01470048 1.43274989 0.00043974 0.00000000
4.43868777 0.02408412 0.00205829 0.00000000
4.23606097 1.10292887 0.00125010 0.00000000
2.74357643 0.22003566 0.00102640 0.00000000
1.26228929 0.68908354 -0.00071750 0.00000000
4.99086735 0.73650159 -0.00179191 0.00000000
3.52625781 1.30879608 0.00312563 0.00000000
3.27480477 0.45176614 -0.00036015 0.00000000
3.90999828 0.26290916 0.00308604 0.00000000
2.88682754 0.90570919 -0.00217405 0.00000000
4.11914823 1.16098434 -0.00302982 0.00000000
0.94274661 0.98492855 0.00532131 0.00000000
1.80168688 1.47426356 -0.00208393 0.00000000
2.61085161 0.23921258 -0.00261054 0.00000000
2.57544129 0.50732104 0.00085375 0.00000000
1.90700486 0.96174599 -0.00153751 0.00000000
1.86252896 1.27253130 0.00286984 0.00000000
0.75035260 0.04294401 0.00774234 0.00000000
0.97766655 1.20154994 0.00022132 0.00000000
3.04510185 0.34995375 -0.00140314 0.00000000
3.30368448 0.55099595 -0.00119973 0.00000000
3.17901224 0.51491715 0.00365659 0.00000000
2.36343643 0.90803556 0.00375371 0.00000000
2.75847630 1.62745107 -0.00110691 0.00000000
3.95053889 0.28653751 0.00190983 0.00000000
4.89830636 0.23546559 0.00116836 0.00000000
3.84397188 0.42055621 -0.00152917 0.00000000
2.56799566 0.09538023 -0.00378469 0.00000000
1.98334222 1.58802431 -0.00471663 0.00000000
0.71504804 0.35309302 -0.00163842 0.00000000
4.15906298 0.50992455 0.00258143 0.00000000
0.58111217 0.90189643 0.00197341 0.00000000
3.33944606 1.23347313 -0.00467113 0.00000000
1.37570496 1.61509861 0.00138950 0.00000000
2.65264965 0.06364473 -0.00337397 0.00000000
3.24190515 0.78184561 0.00155747 0.00000000
0.01348454 0.71691769 0.00367655 0.00000000
4.23296790 1.60591277 -0.00378027 0.00000000
0.79581906 1.52571406 0.00164147 0.00000000
4.28731392 1.63594846 0.00220593 0.00000000
3.09357162 0.98660463 0.00200222 0.00000000
3.28806783 0.85929146 -0.00108824 0.00000000
1.98166494 0.25913649 0.00125681 0.00000000
1.07756260 1.64814862 0.00394940 0.00000000
2.92883500 1.62513235 0.00152234 0.00000000
3.47618465 0.51129884 -0.00488094 0.00000000
4.13978976 1.71591158 0.00126956 0.00000000
4.62621847 0.03633069 0.00150083 0.00000000
2.24824864 1.01064589 -0.00183613 0.00000000
3.79327957 1.45031919 -0.00131385 0.00000000
2.82737543 1.39625327 0.00116258 0.00000000
1.23934808 1.37431429 0.00076783 0.00000000
2.66693519 0.18958984 0.00434118 0.00000000
1.36746088 1.31689740 -0.00088143 0.00000000
4.09958047 0.62398878 0.00031235 0.00000000
3.86677688 0.14768121 0.00211987 0.00000000
3.76418747 1.24388890 -0.00449266 0.00000000
1.24285482 0.47988064 -0.00373851 0.00000000
3.96945780 0.07301724 -0.00077408 0.00000000
3.98352694 1.24621280 0.00190453 0.00000000
0.42155357 0.78998423 0.00036666 0.00000000
1.44559448 1.68576694 -0.00346122 0.00000000
2.48226260 0.66316739 0.00566762 0.00000000
3.51803360 1.53466266 0.00123140 0.00000000
3.45784168 1.32910740 0.00209319 0.00000000
1.61428076 1.30337259 0.00315941 0.00000000
4.67697466 1.51524301 0.00130547 0.00000000
0.45136013 1.57131042 -0.00259641 0.00000000
1.43421057 0.06038292 0.00058798 0.00000000
0.64779727 1.66890367 -0.00061947 0.00000000
1.21763815 0.92223172 0.00296438 0.00000000
3.11750362 1.39475238 -0.00235104 0.00000000
2.14349546 0.50812560 0.00169045 0.00000000
0.37818186 0.44173603 -0.00378059 0.00000000
0.18657493 0.84489405 0.00423406 0.00000000
1.10413788 1.32422819 -0.00560967 0.00000000
0.42208295 0.38643635 -0.00674524 0.00000000
3.74859302 0.53563116 0.00033545 0.00000000
2.93689882 0.87956140 -0.00239019 0.00000000
0.97245306 0.27172566 0.00551146 0.00000000
4.65065648 1.01275200 -0.00281941 0.00000000
4.24660337 1.34807297 -0.00139595 0.00000000
4.40299249 1.26160515 0.00032570 0.00000000
0.55473709 1.44366260 0.00261562 0.00000000
3.77339746 1.10217314 0.00395820 0.00000000
2.12316162 1.26685188 -0.00383066 0.00000000
2.96795501 0.17156632 0.00576528 0.00000000
1.93411773 0.13537215 0.00085470 0.00000000
4.74592271 1.51276964 0.00069086 0.00000000
2.24509785 1.11533363 -0.00065388 0.00000000
0.15479928 1.41045097 -0.00279876 0.00000000
1.71741129 0.31560448 0.00221349 0.00000000
2.93540420 1.24733966 0.00126091 0.00000000
1.85783920 0.81303352 0.00011211 0.00000000
2.69067818 0.21177548 -0.00224070 0.00000000
4.08730265 0.93395770 0.00079422 0.00000000
1.29610698 0.05604760 0.00399703 0.00000000
4.80749196 0.11794983 -0.00230702 0.00000000
3.55214193 1.25701199 0.00174293 0.00000000
3.11297560 0.57347430 0.00090815 0.00000000
1.67767794 0.28701680 -0.00159719 0.00000000
4.11535347 0.89549641 -0.00383303 0.00000000
0.33160857 0.70034148 0.00052325 0.00000000
1.28055833 1.57495861 0.00389415 0.00000000
2.77928029 0.43784497 0.00153336 0.00000000
0.81999258 0.13945330 0.00103311 0.00000000
1.39450698 0.13348643 0.00170390 0.00000000
4.29507184 0.04769223 0.00054589 0.00000000
1.42331009 1.05580294 0.00007922 0.00000000
4.69738742 0.01037984 -0.00022144 0.00000000
3.52753598 1.40656308 0.00044943 0.00000000
2.49035263 0.16584967 0.00985633 0.00000000
2.38299406 1.01666440 0.00134898 0.00000000
0.84669009 0.30643979 -0.00159115 0.00000000
2.96225441 1.29299548 -0.00032390 0.00000000
4.14726858 0.78753762 0.00136864 0.00000000
3.71487774 0.24787837 0.00071525 0.00000000
1.76979582 0.87257570 0.00362512 0.00000000
2.50606870 0.55081045 -0.00120886 0.00000000
1.61345876 0.10265198 0.00088769 0.00000000
1.04943724 1.41000505 -0.00549744 0.00000000
3.64256715 1.57106794 -0.00388326 0.00000000
3.67407746 0.20114763 -0.00152135 0.00000000
2.70723566 1.62327989 0.00452373 0.00000000
4.79120292 0.92451702 -0.00045469 0.00000000
2.96793080 0.77792436 -0.00136928 0.00000000
0.52740976 0.46785003 0.00057363 0.00000000
2.35243499 1.61851698 -0.00204825 0.00000000
4.18699861 1.48480464 -0.00555839 0.00000000
0.85422319 0.51795408 0.00143188 0.00000000
2.40993971 0.08059250 0.00178801 0.00000000
3.02194445 0.16185059 -0.00184662 0.00000000
0.87360406 0.15784367 0.00040138 0.00000000
0.03764236 1.29919062 -0.00149142 0.00000000
4.14761124 0.72024324 -0.00101920 0.00000000
0.41601170 0.23546800 0.00399519 0.00000000
4.78147750 0.17346673 0.00210682 0.00000000
3.22994412 0.39044585 0.00307734 0.00000000
1.90121446 0.15216773 -0.00049577 0.00000000
2.52201717 0.54669475 -0.00322138 0.00000000
1.16679401 1.29204101 -0.00284505 0.00000000
0.67399358 1.68834394 0.00350475 0.00000000
0.25046054 0.30161682 -0.00104459 0.00000000
0.96971096 0.82525293 0.00125514 0.00000000
3.63271587 1.58007899 0.00026315 0.00000000
0.84825758 1.62141240 -0.00642928 0.00000000
0.39599969 0.92047992 -0.00051711 0.00000000
3.34171311 0.80472916 0.00122347 0.00000000
0.89261342 1.18207703 -0.00237626 0.00000000
0.38651561 1.35080040 0.00371078 0.00000000
4.68708204 0.40202763 -0.00343465 0.00000000
1.68151307 1.61498045 -0.00126312 0.00000000
1.18109700 0.72090217 0.00094424 0.00000000
3.66393865 0.27866253 0.00326199 0.00000000
4.24053638 1.26117998 -0.00133907 0.00000000
4.11192190 1.46556146 0.00398912 0.00000000
2.85002748 1.07784119 -0.00286123 0.00000000
3.50321650 1.58280696 0.00213510 0.00000000
2.29438530 0.55714846 0.00185892 0.00000000
0.51730767 0.45737314 -0.00116540 0.00000000
1.78337803 0.94156399 0.00113601 0.00000000
3.74175539 0.30841200 -0.00579952 0.00000000
0.42400095 0.13186539 0.00163190 0.00000000
4.49575444 0.30306131 0.00128139 0.00000000
0.00195236 0.25203869 0.00326498 0.00000000
2.57281545 1.45101713 -0.00324964 0.00000000
4.05659920 0.48653030 -0.00289773 0.00000000
4.02631789 1.19738182 0.00195341 0.00000000
1.08324052 1.37824857 0.00387349 0.00000000
0.79928977 1.48184076 0.00145689 0.00000000
2.89928341 1.29019724 -0.00176939 0.00000000
3.92194018 0.91776840 0.00424191 0.00000000
0.92894505 1.31285723 0.00191319 0.00000000
0.64029946 1.44001334 0.00076288 0.00000000
2.54249510 0.85587891 -0.00082838 0.00000000
1.03433478 1.70630494 -0.00181070 0.00000000
3.51092842 0.50602295 0.00444229 0.00000000
3.35930086 1.14889806 -0.00156655 0.00000000
1.51527689 0.52580742 -0.00395568 0.00000000
0.92709170 1.33616158 0.00000899 0.00000000
3.26373798 0.78996387 0.00200744 0.00000000
4.53150119 1.22688038 0.00100379 0.00000000
3.62363013 1.36906439 0.00379388 0.00000000
0.10212813 0.18978922 -0.00242617 0.00000000
0.29195641 1.70536214 -0.00413430 0.00000000
1.69177817 0.57573887 -0.00328491 0.00000000
1.69087317 1.04478076 0.00345239 0.00000000
0.12081804 1.01713348 -0.00085253 0.00000000
1.90177330 0.23669231 0.00327390 0.00000000
3.44203158 0.15833561 -0.00354404 0.00000000
2.87918022 0.84199012 0.00406456 0.00000000
1.71547444 1.63333638 -0.00415959 0.00000000
3.73911463 0.81774695 0.00410718 0.00000000
1.02615379 0.67222769 -0.00211932 0.00000000
4.33407241 0.92683806 0.00383908 0.00000000
0.73828415 0.06435703 0.00272556 0.00000000
0.72946645 1.07897667 0.00205154 0.00000000
3.96162753 1.14682718 0.00141234 0.00000000
2.66613475 0.21152207 -0.00029930 0.00000000
3.06054229 0.31495534 -0.00125939 0.00000000
1.58015177 1.65702432 -0.00055957 0.00000000
4.15334481 0.33221123 -0.00198189 0.00000000
0.08687210 1.66990498 -0.00239016 0.00000000
0.24716358 1.16813424 -0.00157107 0.00000000
4.61933858 0.06743406 -0.00264708 0.00000000
2.37035357 1.57069049 -0.00147896 0.00000000
2.58671292 1.67945736 0.00114678 0.00000000
1.91030820 0.97192473 -0.00451501 0.00000000
3.68505951 0.58779877 -0.00260606 0.00000000
0.84497909 0.74630845 -0.00308070 0.00000000
3.08520513 1.36381849 -0.00171967 0.00000000
4.55676655 1.17773076 0.00467715 0.00000000
0.49104131 0.77475325 0.00456702 0.00000000
0.02495811 0.40705124 0.00106707 0.00000000
4.40665284 0.34235342 0.00164593 0.00000000
3.10968666 1.01310803 0.00297004 0.00000000
4.05422675 0.25459035 -0.00482254 0.00000000
2.60466198 0.60135077 0.00205666 0.00000000
2.54441070 0.50415554 0.00372197 0.00000000
4.47767609 1.51398965 -0.00210180 0.00000000
1.12631893 1.08112603 0.00082121 0.00000000
1.77682018 0.74419452 -0.00424699 0.00000000
2.01642973 1.19729010 -0.00246308 0.00000000
4.07813330 0.70953140 -0.00138224 0.00000000
4.25339672 0.76201873 0.00346064 0.00000000
0.51429975 0.04006223 -0.00040041 0.00000000
4.32521964 1.36901788 0.00265575 0.00000000
2.87386215 0.90879143 0.00002433 0.00000000
2.98509225 0.65408818 0.00148089 0.00000000
4.32350423 0.80897271 -0.00391786 0.00000000
1.31817635 0.92479392 -0.00067428 0.00000000
2.17302567 0.30655601 0.00198517 0.00000000
4.28742496 1.65242538 0.00016194 0.00000000
4.32833404 1.65450237 -0.00003048 0.00000000
4.69395083 0.39357808 0.00049721 0.00000000
0.87424884 0.16827211 0.00128801 0.00000000
3.42045052 1.55926430 -0.00421580 0.00000000
2.37942935 1.41367709 0.00415919 0.00000000
4.61594398 0.48341501 -0.00113067 0.00000000
4.78534538 0.65147427 0.00058190 0.00000000
2.59029509 1.70405390 -0.00339480 0.00000000
0.51292648 1.48144441 -0.00024319 0.00000000
0.19592568 0.55549397 -0.00298925 0.00000000
0.24999230 0.24503371 -0.00244166 0.00000000
2.15709186 1.44824597 -0.00529776 0.00000000
4.01488369 0.68798689 0.00105820 0.00000000
0.67990875 0.28502366 0.00014009 0.00000000
1.98867677 1.27849093 -0.00038027 0.00000000
1.91778789 1.62593047 0.00219481 0.00000000
3.83209787 0.78572677 0.00172070 0.00000000
3.00205847 1.60743610 -0.00396533 0.00000000
0.01634328 1.50981174 0.00200195 0.00000000
0.37119010 0.91072763 -0.00494025 0.00000000
2.69347852 0.54601238 0.00432092 0.00000000
1.33434544 1.42000637 0.00100860 0.00000000
0.10407621 1.45077123 0.00349924 0.00000000
3.94664326 0.40860139 0.00244733 0.00000000
3.09271669 1.34221336 0.00236006 0.00000000
3.37803655 1.08489764 -0.00052778 0.00000000
0.26071345 0.04646293 -0.00229748 0.00000000
1.00131464 0.68483422 0.00203648 0.00000000
1.05638303 0.60298681 -0.00190237 0.00000000
4.18531911 0.15128347 0.00079588 0.00000000
1.34787285 0.74634726 -0.00233693 0.00000000
4.25642331 0.10547936 0.00602634 0.00000000
4.33629824 0.04097204 -0.00119876 0.00000000
0.79866435 0.87772071 0.00282142 0.00000000
3.50662329 0.74629559 0.00280020 0.00000000
4.91660551 1.20910286 0.00461816 0.00000000
1.19145453 1.63310811 0.00139997 0.00000000
2.93787547 1.09126582 0.00015309 0.00000000
2.32226167 0.10826734 -0.00403128 0.00000000
4.41225434 0.76913250 -0.00174281 0.00000000
4.41423762 0.66617626 -0.00180014 0.00000000
3.38522288 1.24654359 0.00359398 0.00000000
1.67470593 1.46803229 -0.00523591 0.00000000
4.24201182 0.10246096 -0.00068681 0.00000000
1.27868675 1.51785920 -0.00284683 0.00000000
4.75526229 1.09316049 -0.00093280 0.00000000
3.35138951 0.89067819 -0.00152735 0.00000000
2.19665129 0.48386149 0.00267187 0.00000000
1.50622107 0.58861775 -0.00034945 0.00000000
2.70945285 0.35551506 -0.00420768 0.00000000
1.64441521 0.24184721 -0.00013068 0.00000000
1.70688070 0.63871292 -0.00373113 0.00000000
3.59598208 0.56735350 0.00323967 0.00000000
0.61699227 0.12152653 -0.00282106 0.00000000
4.40742637 0.98009301 0.00143634 0.00000000
3.29464580 1.55468375 -0.00408451 0.00000000
0.10312436 0.46125008 0.00639491 0.00000000
4.67951940 1.18523982 0.00020572 0.00000000
1.89534952 0.92126620 0.00161993 0.00000000
2.36833231 1.16148880 0.00416146 0.00000000
0.13775678 0.05323979 0.00375122 0.00000000
0.55317381 1.62715377 -0.00177961 0.00000000
2.50820866 0.58947003 0.00184425 0.00000000
1.42676740 1.36415888 -0.00000829 0.00000000
1.50217175 1.36612998 0.00020287 0.00000000
1.29288885 0.73268137 0.00153066 0.00000000
3.71524258 1.33461151 0.00168162 0.00000000
4.79337292 0.02762586 0.00099471 0.00000000
1.70655607 0.24150719 -0.00336166 0.00000000
3.33743152 1.69864736 -0.00444734 0.00000000
3.13893222 0.57122200 -0.00091395 0.00000000
1.68211288 0.35499874 0.00265919 0.00000000
3.57921851 1.32496417 -0.00344162 0.00000000
0.68300213 0.50415446 -0.00152442 0.00000000
2.87051851 1.16653206 0.00268232 0.00000000
2.93326124 1.09280627 0.00038640 0.00000000
2.49083412 0.59691934 0.00023426 0.00000000
4.28856482 1.03024586 -0.00000187 0.00000000
4.61212559 1.70951122 0.00093413 0.00000000
4.63560498 1.45232713 0.00146824 0.00000000
2.20548776 0.49357798 -0.00362746 0.00000000
2.47466682 1.35056306 0.00190275 0.00000000
0.24883079 0.79645276 0.00412864 0.00000000
3.04314995 0.85513088 0.00036892 0.00000000
3.61303622 1.38854344 -0.00023049 0.00000000
0.57210518 0.20453390 0.00033899 0.00000000
0.75493724 1.48741090 0.00271809 0.00000000
2.78427451 0.27942031 -0.00062953 0.00000000
1.24034507 1.11647935 -0.00288295 0.00000000
4.74126554 1.68328742 -0.00054607 0.00000000
2.46841525 0.90278461 -0.00275680 0.00000000
2.66529932 1.31986975 0.00180732 0.00000000
1.72823779 1.42518888 0.00151155 0.00000000
0.84079338 1.32965144 0.00033582 0.00000000
4.95733574 1.66087141 0.00346228 0.00000000
3.19856183 1.36617340 -0.00092032 0.00000000
2.48533792 0.89843675 0.00057654 0.00000000
0.15392178 0.79038447 0.00052618 0.00000000
1.06824788 1.11920137 0.00038544 0.00000000
4.35239705 1.09011701 -0.00128863 0.00000000
3.65667839 0.59703788 0.00093824 0.00000000
2.07207625 0.06002342 0.00500084 0.00000000
4.08422406 1.33683249 -0.00402335 0.00000000
4.03094544 0.87944567 -0.00419784 0.00000000
2.37399475 0.55488570 0.00186898 0.00000000
2.33137892 1.41864323 0.00086330 0.00000000
0.87449777 0.71849874 -0.00067875 0.00000000
1.03188854 1.05420686 -0.00168784 0.00000000
0.50458972 0.77262554 -0.00216837 0.00000000
1.33810660 1.11065401 0.00383517 0.00000000
1.03229935 0.40322766 -0.00286612 0.00000000
3.99211837 0.53867670 -0.00141478 0.00000000
4.36182690 0.01111246 -0.00145803 0.00000000
4.67765050 0.99344431 0.00026564 0.00000000
4.59132296 1.34577180 -0.00182584 0.00000000
4.42490968 0.53401405 -0.00098602 0.00000000
4.39228052 0.13662342 0.00662635 0.00000000
4.23316264 0.13560710 -0.00210598 0.00000000
1.75544925 0.19963688 -0.00338833 0.00000000
1.09377253 0.90536026 -0.00021313 0.00000000
2.00161665 0.34060375 -0.00271116 0.00000000
0.68499187 1.23840066 0.00432525 0.00000000
1.81105126 0.73391589 0.00281669 0.00000000
4.80852265 0.74128419 -0.00252270 0.00000000
4.83826301 0.91084347 0.00326287 0.00000000
4.71462951 0.68179900 0.00123442 0.00000000
1.70183871 0.00275290 0.00092515 0.00000000
2.20169347 1.13130982 -0.00101537 0.00000000
0.76500740 0.64690113 -0.00061558 0.00000000
0.61130701 1.07722493 0.00434882 0.00000000
2.40241750 1.55651682 -0.00304471 0.00000000
3.85569057 1.54229440 0.00153873 0.00000000
2.14594074 0.91316928 -0.00130219 0.00000000
1.74668880 0.87871278 -0.00140037 0.00000000
4.56240150 0.70837761 0.00510231 0.00000000
0.45579497 0.28328092 0.00023385 0.00000000
1.24468512 1.17341130 -0.00282433 0.00000000
4.84787607 0.59666645 0.00051497 0.00000000
