0.480467 0.534795 0.001719 0.0
2.373666 1.333429 0.000502 0.0
3.228532 1.480246 -0.002107 0.0
3.120333 0.056094 0.000728 0.0
1.892621 0.325379 -0.003177 0.0
0.123060 0.935385 0.002269 0.0
2.772354 0.295404 -0.003267 0.0
4.660910 0.561836 -0.002325 0.0
0.898465 0.278299 0.002092 0.0
1.075260 1.163522 0.000371 0.0
2.859824 0.557225 0.002051 0.0
2.570796 1.514695 0.001867 0.0
1.260368 1.496780 -0.000192 0.0
4.332366 0.951818 -0.002919 0.0
2.598608 1.336156 0.003181 0.0
0.633531 0.076550 0.002624 0.0
1.927637 0.974412 -0.000394 0.0
3.320410 0.160311 0.003637 0.0
0.787263 1.419620 0.002058 0.0
2.484713 0.492786 -0.000088 0.0
1.479040 0.616542 -0.003650 0.0
3.693668 1.297208 -0.002324 0.0
2.673815 0.956227 0.000752 0.0
4.841987 0.192620 -0.002910 0.0
3.835127 0.495108 -0.001609 0.0
3.500677 1.531623 -0.003787 0.0
2.814486 0.637734 0.003345 0.0
2.916091 0.384923 0.002632 0.0
1.896903 1.667459 -0.001227 0.0
4.406693 0.489428 -0.000091 0.0
2.584995 0.026512 -0.004067 0.0
1.462517 0.795101 0.001922 0.0
3.063825 1.055869 0.002375 0.0
4.129816 0.738851 -0.003395 0.0
3.313081 1.585939 -0.003856 0.0
2.629392 0.206820 -0.003217 0.0
0.196418 0.042976 -0.002172 0.0
3.917850 1.322008 -0.000248 0.0
0.609623 0.516234 0.000400 0.0
3.699148 1.111310 0.003059 0.0
4.845006 1.498585 0.001820 0.0
2.585234 0.154896 -0.003659 0.0
1.666053 0.684901 0.001922 0.0
3.959321 0.114496 -0.005193 0.0
2.835167 0.965465 -0.001753 0.0
3.206137 0.174631 -0.002438 0.0
0.099288 0.787651 0.002374 0.0
2.590262 0.006231 0.000767 0.0
3.151037 0.021561 -0.000836 0.0
1.336464 0.260432 -0.000239 0.0
0.196216 1.551854 0.000667 0.0
3.014736 0.574469 -0.000412 0.0
4.345014 0.725884 -0.006689 0.0
4.826860 0.988392 -0.001197 0.0
0.577164 0.254606 -0.000791 0.0
3.253848 0.293626 -0.002631 0.0
1.643352 0.619972 0.001626 0.0
4.070831 0.713656 0.002518 0.0
4.476509 1.085627 -0.000541 0.0
3.949200 1.290541 0.002657 0.0
4.656063 0.513383 0.000880 0.0
4.337874 0.969393 -0.000237 0.0
3.271640 1.334376 0.002777 0.0
2.366113 0.577135 0.004078 0.0
0.389342 0.644908 -0.003788 0.0
1.167810 1.363393 -0.000089 0.0
3.970015 1.608085 0.000385 0.0
2.177175 1.101718 0.002507 0.0
4.057858 0.289842 0.001753 0.0
4.022938 0.326349 -0.000822 0.0
1.887399 1.216106 0.002585 0.0
1.029827 0.898030 0.000149 0.0
1.761936 0.663213 -0.003491 0.0
3.756551 1.077696 -0.002519 0.0
1.107079 0.220363 -0.002295 0.0
1.954002 1.296966 0.000587 0.0
3.856854 0.871585 0.003869 0.0
2.622985 0.749853 0.002467 0.0
1.526820 1.633605 0.002985 0.0
0.781718 0.880147 0.002012 0.0
2.097629 0.367544 -0.003575 0.0
0.225713 0.666005 -0.002016 0.0
4.618998 1.313135 -0.002669 0.0
0.471387 0.464768 -0.001964 0.0
3.577340 0.441597 -0.001566 0.0
4.452091 0.897391 0.000692 0.0
0.444747 0.613933 -0.000548 0.0
2.157931 0.008648 -0.001093 0.0
4.911543 1.213758 0.001068 0.0
3.841544 1.467161 -0.000482 0.0
1.422227 0.469948 0.001582 0.0
2.042250 0.131471 -0.000853 0.0
1.353158 1.229769 -0.003715 0.0
1.389367 1.587275 0.005813 0.0
0.061805 0.952518 -0.004306 0.0
1.718965 0.958114 0.006105 0.0
0.711713 1.651588 -0.000429 0.0
4.085027 1.506032 0.002348 0.0
4.174497 0.867701 0.000903 0.0
3.950551 1.298807 -0.000952 0.0
3.218429 0.338193 -0.004203 0.0
4.417398 0.949800 0.001889 0.0
2.477787 0.635601 0.002754 0.0
2.970319 0.995406 -0.003131 0.0
4.887502 1.523053 0.003092 0.0
2.702246 0.660144 -0.000600 0.0
4.019243 1.464522 0.000866 0.0
4.008707 0.655911 -0.001575 0.0
2.691986 0.613743 -0.004635 0.0
1.623311 0.583251 0.001309 0.0
3.163014 0.467793 0.000934 0.0
1.269181 0.750136 0.002426 0.0
4.229806 0.491627 0.001504 0.0
1.444075 0.650054 0.002203 0.0
3.383834 1.325617 0.003867 0.0
2.182264 0.703005 -0.002133 0.0
2.599974 0.070078 0.001362 0.0
3.315112 1.130688 -0.000722 0.0
1.627208 0.436458 0.001623 0.0
2.425594 0.859567 0.000341 0.0
3.844087 1.030501 0.003720 0.0
3.717366 1.086912 -0.001696 0.0
4.595356 1.318146 0.000643 0.0
2.303250 1.119529 -0.001887 0.0
2.302927 1.651699 -0.000981 0.0
4.147644 0.281144 0.001009 0.0
0.820563 0.718757 -0.001299 0.0
0.461606 1.133562 -0.003467 0.0
3.967968 1.210998 0.001952 0.0
3.393160 0.853399 0.001755 0.0
4.420008 0.496323 0.000995 0.0
0.311508 1.325522 0.003734 0.0
0.855364 0.126621 0.000272 0.0
2.296258 0.625802 0.001254 0.0
1.252876 0.312534 -0.005415 0.0
2.413657 0.463655 0.002066 0.0
4.460737 0.031686 0.002532 0.0
0.940439 0.497855 0.001398 0.0
0.490405 1.504804 -0.000796 0.0
3.977364 1.628989 -0.001012 0.0
1.352418 1.445759 -0.004110 0.0
3.346523 1.116949 0.002650 0.0
4.398171 1.349149 -0.000702 0.0
0.541884 1.216496 0.000395 0.0
4.041353 1.178817 -0.000948 0.0
0.340991 0.870342 -0.000744 0.0
0.124908 1.618075 0.002565 0.0
1.481507 0.459965 0.001039 0.0
4.615022 1.256100 -0.000365 0.0
4.083681 1.006143 0.004984 0.0
2.371939 0.830645 -0.001337 0.0
3.899076 1.534024 0.006363 0.0
0.732794 0.773826 0.000679 0.0
2.521843 1.663908 0.000408 0.0
4.815715 1.494967 -0.002233 0.0
3.522634 1.610735 0.001495 0.0
2.414326 0.498737 -0.003674 0.0
4.920219 1.090302 0.003565 0.0
1.863009 0.314338 0.005045 0.0
1.731497 1.613765 -0.002171 0.0
3.786986 1.277211 0.001763 0.0
4.925264 1.630877 0.000032 0.0
0.377203 0.032287 0.003955 0.0
3.423691 0.148845 0.000047 0.0
2.313492 1.490066 -0.000554 0.0
1.975590 1.533129 -0.002051 0.0
3.313686 0.978623 -0.000954 0.0
1.366047 1.203359 -0.001838 0.0
0.911302 1.294503 0.003694 0.0
4.159061 0.270210 0.000127 0.0
0.488333 1.336415 -0.001163 0.0
3.975118 0.285477 0.000677 0.0
2.153009 0.168129 0.001931 0.0
3.524809 0.803188 -0.000076 0.0
1.231015 0.939264 0.000114 0.0
0.651115 0.290385 0.000566 0.0
2.033462 0.995828 0.002677 0.0
2.561357 1.276708 0.000145 0.0
0.021454 1.467035 0.000242 0.0
1.696386 0.852261 -0.001342 0.0
3.128773 0.639751 -0.000664 0.0
2.676558 1.491584 0.002605 0.0
4.404648 0.112432 -0.004026 0.0
3.526317 0.469202 -0.001914 0.0
1.410038 1.413793 0.000280 0.0
1.796807 0.751890 -0.002495 0.0
0.226890 0.862177 -0.001189 0.0
1.580680 1.363712 0.004031 0.0
0.857096 1.648697 0.001607 0.0
1.808264 1.276128 0.002843 0.0
0.671999 0.479555 0.004411 0.0
4.626547 1.645874 -0.002311 0.0
3.519917 0.220331 0.001770 0.0
1.625653 1.176664 -0.002840 0.0
2.727389 0.972831 -0.002078 0.0
3.893989 1.410669 -0.004085 0.0
4.790518 1.173819 -0.002036 0.0
0.567473 1.283623 -0.003751 0.0
0.754300 0.994674 0.003160 0.0
1.029022 1.512426 -0.000113 0.0
1.070448 1.010011 0.004532 0.0
3.031961 1.653563 0.002442 0.0
0.488565 0.642563 0.001742 0.0
2.048850 0.350652 0.001801 0.0
2.106990 1.677820 -0.000956 0.0
4.233090 0.570100 -0.002121 0.0
0.027823 0.380709 -0.002672 0.0
2.216939 0.384366 0.005845 0.0
2.240216 1.424014 0.005791 0.0
2.093907 1.183122 0.002660 0.0
2.449458 1.639615 -0.001349 0.0
3.662867 0.969324 0.002153 0.0
4.065180 1.364998 0.000058 0.0
4.582723 1.621003 -0.000978 0.0
2.274050 1.437660 -0.000880 0.0
2.060229 0.365628 0.001528 0.0
3.309548 0.752969 0.000104 0.0
2.213585 0.529467 0.000198 0.0
4.781611 0.010897 0.004020 0.0
1.242245 0.753463 0.000134 0.0
0.337942 1.072218 -0.000409 0.0
0.573770 0.213707 0.002806 0.0
4.409828 0.398123 -0.000155 0.0
0.269018 0.982642 0.001580 0.0
1.956068 1.649184 0.000001 0.0
1.825818 0.646112 -0.004141 0.0
0.279796 1.222365 0.000217 0.0
3.914360 0.357361 0.002158 0.0
0.086623 0.254094 0.002383 0.0
3.700485 1.474988 0.003155 0.0
1.026013 0.291697 -0.001660 0.0
0.590434 0.156362 0.002168 0.0
3.008284 0.953463 -0.001286 0.0
4.717443 0.813191 -0.001060 0.0
0.381084 0.303504 -0.002385 0.0
1.836023 0.728653 0.002016 0.0
1.131608 0.231625 0.003294 0.0
4.455403 0.508080 0.000484 0.0
1.992327 0.636764 0.004292 0.0
3.341749 1.605486 0.000501 0.0
2.515961 1.148279 0.001199 0.0
2.006591 1.647545 -0.002650 0.0
2.161702 0.000658 -0.003001 0.0
-0.001983 1.281141 0.000690 0.0
4.165343 0.467046 -0.000555 0.0
3.271027 1.623224 0.003732 0.0
4.423947 0.531719 0.003387 0.0
3.866519 1.098517 -0.001983 0.0
0.266732 1.173085 0.001920 0.0
3.416552 0.755437 0.001502 0.0
2.050489 1.275757 0.002051 0.0
2.316718 0.446383 -0.004230 0.0
4.123349 1.473861 0.001529 0.0
1.711486 1.266653 -0.000359 0.0
3.207563 1.262124 0.000236 0.0
4.362180 1.389742 0.003137 0.0
1.740979 0.385781 0.001593 0.0
0.696643 0.414104 -0.000272 0.0
0.535070 0.900010 0.002958 0.0
1.123360 0.966663 -0.000728 0.0
2.414750 0.429047 0.005098 0.0
1.821137 0.945320 -0.000402 0.0
4.673887 1.139761 -0.000637 0.0
3.946725 1.318629 0.001711 0.0
2.276723 0.530265 0.003673 0.0
0.518574 0.405491 0.002131 0.0
1.806428 0.834863 0.001699 0.0
1.688556 0.745665 0.000020 0.0
4.575118 0.606844 -0.000776 0.0
3.282985 0.060943 0.000424 0.0
3.480920 1.004964 0.001040 0.0
3.406974 1.640793 0.002701 0.0
0.351365 0.416391 -0.000159 0.0
3.352030 0.775667 0.002416 0.0
1.024519 0.177326 -0.002429 0.0
2.230798 0.429518 0.003123 0.0
4.772480 0.794422 -0.000892 0.0
2.816319 1.278787 0.001370 0.0
1.018409 0.399407 -0.000224 0.0
4.848264 1.524998 -0.002479 0.0
1.697916 1.345401 0.001096 0.0
3.574547 0.241292 -0.001153 0.0
1.908901 1.615275 0.002008 0.0
4.547189 1.648316 0.001405 0.0
2.625045 0.387146 0.004559 0.0
2.428828 0.974237 0.003714 0.0
4.371442 1.087066 0.000861 0.0
3.441266 0.167290 0.002202 0.0
3.825659 1.052922 -0.001454 0.0
4.253657 1.020585 -0.000539 0.0
4.600799 1.457325 -0.004008 0.0
0.674818 0.370512 -0.006201 0.0
2.202549 0.448209 0.000742 0.0
4.188464 0.288429 -0.002602 0.0
2.788621 1.539170 0.001036 0.0
4.389280 1.455008 -0.003182 0.0
1.085474 0.976288 -0.000843 0.0
0.842127 1.193639 0.002331 0.0
2.026551 1.168186 -0.003945 0.0
1.342634 0.174086 0.001087 0.0
4.488109 0.966340 0.002156 0.0
1.644052 1.365933 -0.001412 0.0
2.007816 0.515894 -0.000504 0.0
3.605657 0.916147 -0.005608 0.0
2.539999 1.574725 0.001218 0.0
0.228466 1.447273 0.002539 0.0
4.055963 1.585794 -0.001889 0.0
2.226949 0.615207 -0.003030 0.0
2.170887 0.089544 -0.002140 0.0
4.584104 1.684315 -0.002317 0.0
4.534477 0.151946 0.000539 0.0
3.472326 1.601676 0.005798 0.0
0.276162 1.532427 0.000548 0.0
4.896069 0.722199 -0.000677 0.0
3.866994 0.052392 0.001813 0.0
2.645870 1.502152 -0.000675 0.0
2.860427 0.403112 -0.002651 0.0
1.618701 1.250801 0.000645 0.0
2.608917 0.666344 -0.000904 0.0
4.332164 0.992036 0.003227 0.0
2.357259 0.426928 0.001367 0.0
1.897379 0.140974 0.000430 0.0
2.315948 0.127020 0.002712 0.0
1.688862 1.469326 0.002522 0.0
3.145148 0.996819 0.001856 0.0
4.858654 0.115915 -0.001405 0.0
2.210075 1.580199 0.003559 0.0
2.938012 1.116619 0.002992 0.0
0.688453 0.292417 -0.000350 0.0
1.225071 0.928813 -0.001726 0.0
0.725359 0.789248 0.000919 0.0
1.180652 0.140794 -0.001459 0.0
1.123353 0.500810 0.006236 0.0
0.162317 1.376300 -0.001572 0.0
1.163424 0.059685 -0.005369 0.0
1.265143 0.019563 -0.001956 0.0
1.833635 0.937167 -0.002293 0.0
1.499346 1.502621 0.003130 0.0
1.712918 0.770002 0.005270 0.0
3.512714 0.088033 -0.000684 0.0
0.608881 0.119905 0.004622 0.0
1.248005 1.291793 -0.000483 0.0
2.834087 0.100089 -0.001468 0.0
3.186098 0.586458 0.001901 0.0
3.100524 0.868655 0.000474 0.0
0.416164 1.116762 0.000547 0.0
2.665903 1.647899 -0.001396 0.0
0.150516 1.411732 0.002268 0.0
3.905813 0.206938 -0.001328 0.0
0.150792 1.035595 -0.001199 0.0
3.594773 0.157890 -0.000843 0.0
2.211605 0.072720 0.002249 0.0
2.931986 0.358258 -0.007494 0.0
1.173824 0.863052 -0.004404 0.0
1.340838 0.581688 0.000352 0.0
1.963447 1.098600 -0.003298 0.0
0.090018 0.646578 -0.001172 0.0
1.931120 0.540596 0.002686 0.0
0.942053 1.195975 -0.000779 0.0
0.020735 0.534766 0.002627 0.0
4.710390 1.301508 -0.000225 0.0
3.419084 0.746950 0.000544 0.0
1.936829 0.599072 0.002321 0.0
2.885702 1.195732 0.000156 0.0
3.778804 0.991937 -0.001334 0.0
0.680712 0.581255 -0.002002 0.0
3.070213 0.610486 0.000073 0.0
1.081515 0.040608 0.002984 0.0
4.399941 1.064243 0.001996 0.0
0.025346 0.028119 0.005205 0.0
1.379580 1.315824 -0.000896 0.0
1.384989 0.041459 -0.002720 0.0
0.682887 1.651383 0.002615 0.0
1.962305 0.667266 -0.002720 0.0
1.211882 0.628873 -0.001618 0.0
3.489472 1.681337 0.000502 0.0
0.201749 0.961057 -0.000975 0.0
3.867609 0.353529 0.000436 0.0
2.501321 0.723665 -0.000466 0.0
1.219629 0.245771 -0.003935 0.0
3.133041 1.126850 0.000413 0.0
0.869370 0.358293 -0.004389 0.0
0.877027 0.963105 0.000181 0.0
0.209236 0.572761 0.006578 0.0
4.014009 0.601109 0.002365 0.0
4.035748 0.903147 -0.002665 0.0
3.815562 1.345279 0.002183 0.0
1.009870 1.643548 -0.005368 0.0
3.193515 1.073111 0.001845 0.0
0.833043 0.045673 -0.001566 0.0
3.311133 1.514065 0.000597 0.0
3.752435 0.106288 -0.000126 0.0
2.360715 0.728195 0.005420 0.0
4.076560 0.497314 0.003525 0.0
0.986591 0.722491 -0.002726 0.0
4.409830 0.072851 0.001548 0.0
2.660525 0.864715 -0.002480 0.0
3.065153 1.506190 -0.003792 0.0
4.415080 0.108405 -0.001890 0.0
1.961582 0.466817 0.002396 0.0
2.503816 1.546538 0.001456 0.0
0.895267 0.191863 -0.000943 0.0
4.581622 1.356174 -0.000586 0.0
1.888998 1.062246 -0.002947 0.0
0.265887 1.504967 -0.000707 0.0
1.487234 0.552976 0.000325 0.0
0.508025 1.027612 0.000656 0.0
3.832280 1.334826 0.000504 0.0
1.934146 0.834378 -0.000582 0.0
3.191756 1.266242 0.002964 0.0
4.651849 0.257517 0.001697 0.0
4.367446 1.038067 -0.001907 0.0
0.049736 1.482689 -0.000544 0.0
4.269119 0.787417 -0.001213 0.0
4.791080 1.072521 -0.001959 0.0
3.757424 0.714712 -0.000446 0.0
0.542756 0.758471 0.001933 0.0
1.732979 1.308823 0.003272 0.0
3.874893 1.601047 0.001758 0.0
1.039382 1.462820 -0.005689 0.0
4.176151 1.107267 0.001173 0.0
0.752212 0.944938 -0.000069 0.0
3.810962 1.614771 -0.001892 0.0
1.117097 0.066084 -0.002625 0.0
1.129179 0.429736 -0.000709 0.0
4.186832 0.404423 -0.000095 0.0
3.961944 0.634891 -0.003095 0.0
3.787343 1.155828 0.001985 0.0
1.970045 1.165004 0.000289 0.0
4.692811 0.873665 0.002047 0.0
2.283990 0.933172 0.001765 0.0
0.839871 0.348116 0.000808 0.0
4.070113 0.857060 0.000177 0.0
0.927018 1.378516 0.001911 0.0
3.286754 1.208971 -0.000812 0.0
4.090937 0.132056 0.002788 0.0
1.148474 1.484527 -0.004848 0.0
0.234996 0.730920 -0.001976 0.0
0.705095 0.415538 0.001526 0.0
4.458747 0.853457 -0.002382 0.0
0.185179 0.123429 -0.004273 0.0
0.926009 0.478765 -0.000309 0.0
0.973308 1.454670 0.005058 0.0
3.924522 1.122719 0.003028 0.0
2.186865 1.555006 0.002611 0.0
3.138088 1.291806 0.007021 0.0
1.294661 1.033110 0.003046 0.0
2.413950 1.634966 -0.000431 0.0
2.519933 1.217933 0.001717 0.0
0.751159 1.487708 -0.003058 0.0
0.980239 1.671091 0.000137 0.0
1.118490 0.061879 0.003735 0.0
4.752500 0.711452 0.002910 0.0
2.048502 1.363633 -0.002041 0.0
4.331999 1.013150 0.005034 0.0
1.517409 0.275844 0.001094 0.0
4.713488 0.679225 -0.001635 0.0
0.746334 1.646575 0.002050 0.0
1.621299 1.005023 0.000985 0.0
2.969039 0.664765 -0.000123 0.0
3.900955 1.384595 -0.001407 0.0
3.324352 0.171431 -0.004527 0.0
4.756001 1.359290 0.000950 0.0
2.461529 0.329607 -0.000877 0.0
3.782341 0.220378 -0.000883 0.0
1.990689 0.952964 -0.000169 0.0
0.697854 0.577180 0.002163 0.0
1.345744 0.166380 0.002936 0.0
4.422963 0.939704 -0.000523 0.0
1.776278 1.079350 0.002332 0.0
1.107484 0.778431 0.001554 0.0
1.876833 0.575421 0.003921 0.0
4.818885 1.307960 -0.001577 0.0
3.025561 0.233753 0.003391 0.0
2.973745 0.137808 0.003937 0.0
0.964016 0.105013 -0.008032 0.0
2.939850 0.150177 0.001583 0.0
4.018970 0.605696 -0.000118 0.0
1.997000 1.167041 -0.000687 0.0
4.465456 0.134745 0.002370 0.0
4.786567 1.044341 -0.000229 0.0
1.199780 1.248113 0.000773 0.0
3.093421 1.471359 0.002999 0.0
1.790417 0.276240 0.002044 0.0
3.476678 0.303321 0.002231 0.0
2.614071 0.639629 0.000715 0.0
3.458275 0.017065 -0.003739 0.0
1.619830 0.680475 -0.004291 0.0
4.803122 1.087380 -0.001048 0.0
2.605299 0.659839 -0.000196 0.0
2.357031 0.979194 0.000565 0.0
2.671543 1.451372 0.001274 0.0
4.347714 1.119736 -0.000737 0.0
4.475201 1.032930 0.000348 0.0
2.255317 0.151893 -0.001150 0.0
1.507347 0.295602 -0.000838 0.0
2.274043 0.748030 0.003059 0.0
2.946722 1.101629 0.006019 0.0
3.592246 1.474788 0.003987 0.0
4.418754 0.703447 0.000901 0.0
0.721025 0.128662 -0.000999 0.0
4.124928 0.292088 0.001231 0.0
3.436751 0.142474 0.004471 0.0
0.588663 0.190744 0.002299 0.0
3.482742 0.808951 0.000813 0.0
1.811480 1.176279 -0.000956 0.0
0.241078 0.833608 -0.000998 0.0
2.353269 1.110691 -0.000358 0.0
3.063326 0.678891 0.000702 0.0
4.647728 0.100237 0.001453 0.0
0.174959 1.352885 -0.000866 0.0
0.675687 0.238168 -0.000086 0.0
2.198451 1.683737 -0.001070 0.0
3.393244 1.160839 0.000501 0.0
1.149900 1.594164 -0.002491 0.0
0.931117 0.627837 -0.001586 0.0
0.813326 1.533343 -0.001659 0.0
3.654939 0.721678 -0.001553 0.0
1.829563 0.791855 0.001188 0.0
3.064865 1.301477 -0.005441 0.0
0.873480 0.692169 -0.001671 0.0
0.269537 0.877502 0.002969 0.0
2.771606 1.664323 0.002534 0.0
2.911531 0.986525 0.002947 0.0
0.206543 0.414493 0.001008 0.0
1.733851 1.120618 -0.004671 0.0
3.417610 0.255049 0.000409 0.0
4.645043 0.222157 0.000651 0.0
4.097656 0.013720 0.004878 0.0
3.118480 0.067389 -0.000118 0.0
1.834894 0.959521 -0.002798 0.0
3.596020 0.265221 0.004547 0.0
1.095380 0.232134 -0.002770 0.0
2.416839 1.029956 0.000780 0.0
3.158301 0.228885 -0.003632 0.0
2.929465 0.222870 -0.001029 0.0
3.588142 1.539977 -0.002963 0.0
3.739054 0.636458 0.006811 0.0
2.855863 0.339387 0.000648 0.0
0.245771 1.034115 0.000549 0.0
0.421146 1.643581 -0.004268 0.0
0.364274 0.649154 -0.001841 0.0
0.255129 1.372997 0.001465 0.0
0.829973 0.189991 0.000334 0.0
2.523063 1.605155 0.000510 0.0
3.088207 1.227829 0.001603 0.0
3.797865 1.023583 -0.001963 0.0
3.675912 0.392838 0.000480 0.0
1.310181 1.011697 0.002720 0.0
2.864292 0.713638 -0.002348 0.0
2.948479 0.754523 0.002175 0.0
3.065265 0.827495 -0.001256 0.0
2.558837 0.577407 -0.002604 0.0
1.954431 0.543824 -0.002230 0.0
1.015088 1.433982 -0.006789 0.0
3.616105 0.729762 -0.000213 0.0
3.516169 0.792282 -0.006578 0.0
0.295231 1.454245 -0.002090 0.0
3.750197 1.306589 0.002608 0.0
0.647179 0.336684 0.001088 0.0
2.811071 1.468953 0.000470 0.0
3.015818 1.536004 0.002055 0.0
1.000598 0.780538 -0.003646 0.0
2.454378 0.749532 0.003452 0.0
0.197206 1.634035 -0.004200 0.0
0.077692 0.350658 -0.000529 0.0
0.614273 1.283730 -0.004522 0.0
1.976064 0.844023 0.003377 0.0
0.821947 0.021905 0.000736 0.0
3.930582 0.171437 -0.001128 0.0
2.193428 1.105976 -0.000223 0.0
4.707343 1.180361 -0.003361 0.0
0.760774 1.475259 -0.000294 0.0
0.805925 1.606987 -0.000115 0.0
1.710315 0.950419 -0.004663 0.0
0.603126 1.472775 0.001021 0.0
2.164764 0.859363 0.001415 0.0
1.946251 1.493754 0.003777 0.0
1.881052 1.076287 0.001914 0.0
0.491885 1.448072 0.000329 0.0
0.292267 1.214274 -0.000791 0.0
3.724229 0.874138 0.004665 0.0
2.665930 0.041511 0.001615 0.0
0.928294 1.063914 0.000099 0.0
1.662626 1.614421 -0.002651 0.0
2.245423 0.426400 0.000117 0.0
2.855151 0.099687 0.002090 0.0
0.216609 -0.000087 0.001040 0.0
1.097056 1.476883 -0.002965 0.0
3.964314 1.282277 0.002018 0.0
4.208897 1.413737 -0.000397 0.0
1.519429 1.221372 -0.000211 0.0
4.112842 1.668681 -0.002288 0.0
2.625832 1.161642 0.000550 0.0
0.852524 0.262853 -0.002222 0.0
0.344937 1.120621 -0.003531 0.0
0.827346 0.878665 0.001802 0.0
2.385337 0.797940 0.001850 0.0
4.338305 0.400474 0.002823 0.0
1.512038 0.702645 -0.000993 0.0
1.418350 0.130791 0.000685 0.0
4.471083 0.802462 0.000263 0.0
3.462975 1.449904 0.004780 0.0
4.148414 0.254942 0.004628 0.0
0.760880 0.076737 0.000677 0.0
4.314542 0.486770 -0.001451 0.0
1.874336 0.108926 -0.001715 0.0
1.577110 1.536125 -0.003153 0.0
4.855213 0.807224 0.000578 0.0
4.557805 0.094751 0.001976 0.0
1.592220 1.357564 -0.002602 0.0
2.178579 0.339841 0.002644 0.0
3.466369 0.522606 0.004595 0.0
0.429596 0.342916 -0.004275 0.0
3.866033 0.079290 -0.000994 0.0
2.816745 1.252554 0.000854 0.0
1.260296 0.052460 -0.001120 0.0
3.823211 1.528306 -0.000826 0.0
1.538776 1.323849 0.000100 0.0
3.655425 0.501524 0.002872 0.0
3.676493 0.353018 -0.000517 0.0
0.864202 1.645617 -0.003577 0.0
4.498723 0.655805 0.000052 0.0
2.024337 1.228223 0.000819 0.0
2.918476 1.143957 -0.001367 0.0
0.251199 0.201997 0.000934 0.0
1.536086 1.070958 -0.001265 0.0
4.109808 0.692013 -0.000822 0.0
2.027484 0.507751 0.006504 0.0
2.783301 0.523054 0.000686 0.0
3.700644 1.318685 -0.000748 0.0
4.387373 0.149743 0.001109 0.0
2.205497 0.684700 -0.000544 0.0
2.895503 1.108399 0.000713 0.0
1.672082 0.772512 -0.002112 0.0
2.910735 0.474913 -0.001012 0.0
4.480727 0.904536 -0.001386 0.0
0.528462 1.358133 -0.003210 0.0
0.227483 1.073798 -0.001536 0.0
2.975360 1.525557 -0.002349 0.0
0.419182 0.411713 0.003010 0.0
0.145776 0.282222 0.002049 0.0
4.297340 1.134628 0.003651 0.0
4.070421 1.347032 -0.001267 0.0
2.936769 1.058916 -0.001371 0.0
3.092897 0.982588 -0.001414 0.0
4.218691 0.533109 0.004316 0.0
1.927717 1.199910 0.000089 0.0
2.164207 1.439812 -0.003804 0.0
2.063596 1.041189 0.002326 0.0
0.320902 0.921993 -0.005572 0.0
0.245720 0.652363 -0.001477 0.0
2.095553 0.925742 -0.001771 0.0
0.243202 1.074624 -0.001358 0.0
0.290543 0.702252 -0.002502 0.0
2.708053 0.163417 0.000282 0.0
1.434014 0.024029 -0.004982 0.0
2.523759 0.220625 0.000660 0.0
2.873949 0.148377 -0.003116 0.0
2.375208 0.692145 0.001989 0.0
0.871145 1.276035 -0.002889 0.0
4.627594 0.444770 -0.002472 0.0
3.945564 0.286740 -0.002699 0.0
3.159846 0.406141 0.001879 0.0
0.690995 0.273019 0.000846 0.0
3.566551 0.186610 -0.000700 0.0
3.094156 0.115709 -0.001477 0.0
1.245777 0.264374 -0.001095 0.0
2.743459 0.530297 -0.001311 0.0
1.788863 0.289044 0.001996 0.0
4.241826 1.517228 -0.002635 0.0
2.271402 1.093694 -0.001512 0.0
2.869515 0.344400 -0.001209 0.0
4.028471 0.219221 0.000811 0.0
1.249444 0.913660 0.003653 0.0
1.641039 1.103247 0.000056 0.0
2.512957 0.092616 0.000326 0.0
2.972963 1.145266 0.001957 0.0
2.006977 1.655705 -0.003994 0.0
0.150242 0.568161 -0.001988 0.0
2.209040 0.612511 -0.000519 0.0
2.059710 1.500307 -0.002779 0.0
4.486734 1.321641 0.000211 0.0
0.677245 1.236478 -0.000758 0.0
4.133996 1.081620 -0.000685 0.0
4.756385 0.912681 -0.003305 0.0
4.085827 1.127639 -0.000546 0.0
2.929757 0.817657 0.001088 0.0
4.377538 0.637022 -0.004154 0.0
0.534117 1.631672 -0.004323 0.0
0.618821 0.609512 -0.000344 0.0
4.727443 1.477407 0.001919 0.0
3.581993 0.165426 -0.000663 0.0
0.387496 0.384532 0.001288 0.0
3.036719 0.472415 -0.000240 0.0
3.477153 0.520556 -0.000789 0.0
0.982011 0.495732 0.000704 0.0
2.557668 1.659554 0.001841 0.0
4.520054 0.452284 0.000778 0.0
2.477581 0.082560 -0.000640 0.0
3.275761 0.082036 -0.000504 0.0
3.741756 1.217843 0.003076 0.0
4.551516 1.315076 -0.000112 0.0
3.982710 0.158812 -0.000072 0.0
4.465292 1.436725 0.005160 0.0
3.442111 0.145941 0.001121 0.0
4.657523 1.274553 -0.000847 0.0
3.627577 0.520361 -0.000975 0.0
0.892667 0.094661 0.000909 0.0
0.772638 1.460664 -0.004130 0.0
1.670232 0.643309 -0.000834 0.0
0.511018 1.286456 0.001011 0.0
4.012334 1.657446 -0.000280 0.0
2.785853 0.762495 -0.001047 0.0
1.561511 0.358319 -0.002247 0.0
0.371495 0.320920 -0.006669 0.0
2.121074 0.808126 0.003493 0.0
3.600668 1.152486 0.000125 0.0
2.623026 1.578007 -0.002512 0.0
0.476796 0.968328 -0.001318 0.0
4.232823 1.047511 -0.000822 0.0
4.010446 0.619301 0.001625 0.0
0.389151 0.585313 -0.000436 0.0
1.668878 0.889598 0.000539 0.0
1.095356 1.448917 0.002109 0.0
2.283652 0.740538 -0.003880 0.0
4.239383 1.091429 0.000210 0.0
1.482884 1.011633 0.001832 0.0
0.690686 0.678276 -0.003138 0.0
0.214551 0.393104 -0.006002 0.0
3.087737 1.160292 0.000872 0.0
3.686160 1.515725 0.001912 0.0
3.610188 0.618566 -0.002766 0.0
4.810012 0.734432 0.004651 0.0
3.057940 1.431455 -0.004297 0.0
2.221335 0.600267 0.000468 0.0
1.457539 1.360802 0.002746 0.0
2.254939 0.989367 0.001163 0.0
1.563218 0.558834 -0.002314 0.0
1.369455 1.268704 -0.002772 0.0
3.905521 0.693550 0.002030 0.0
2.926254 0.550686 -0.001117 0.0
3.755496 0.775571 0.000004 0.0
3.398839 -0.000853 0.000666 0.0
4.827988 1.150394 0.001806 0.0
2.796891 0.145954 -0.000421 0.0
0.367782 1.673607 0.000141 0.0
3.997670 0.879515 -0.000563 0.0
0.968625 0.071915 -0.000239 0.0
2.912472 0.894036 -0.000802 0.0
3.233773 1.323736 -0.000150 0.0
4.417168 0.957848 -0.003137 0.0
3.715993 1.101832 0.002524 0.0
2.803873 0.345841 0.004578 0.0
1.612925 0.269442 -0.002256 0.0
1.366853 1.583216 -0.003721 0.0
0.788615 0.463399 -0.003579 0.0
0.046237 1.353000 -0.000842 0.0
0.694233 1.641510 -0.001309 0.0
1.147750 0.859815 0.002759 0.0
1.590898 1.503798 0.001834 0.0
0.564127 0.320656 0.004053 0.0
3.914628 1.519925 0.001486 0.0
2.676569 0.067795 0.001391 0.0
0.640362 1.504911 -0.004222 0.0
2.614964 0.220727 -0.001252 0.0
0.883099 1.230950 -0.003302 0.0
1.028074 1.365941 -0.000600 0.0
1.094101 1.545940 0.000539 0.0
2.036847 1.577112 0.000425 0.0
4.860595 0.674824 0.001520 0.0
3.324436 1.486119 0.002036 0.0
3.203711 0.746613 -0.001277 0.0
2.276522 1.204436 -0.000389 0.0
4.468355 0.340938 -0.001999 0.0
2.373471 0.333749 -0.002818 0.0
3.443729 1.512930 -0.003967 0.0
3.450532 0.184243 -0.001614 0.0
0.727593 0.525062 0.001136 0.0
1.905320 0.730711 0.002593 0.0
2.354202 1.152229 -0.003102 0.0
4.276131 1.404138 0.002840 0.0
4.835905 0.244610 0.000184 0.0
4.265902 0.220482 -0.002013 0.0
0.106337 0.393325 -0.000062 0.0
4.084986 0.266566 0.004026 0.0
1.331329 0.230975 -0.000942 0.0
1.291084 0.541084 0.002227 0.0
1.541617 1.645095 0.000004 0.0
1.353369 1.179650 0.003909 0.0
1.847704 0.632262 -0.001549 0.0
4.803912 0.746969 -0.003712 0.0
0.961884 1.564798 -0.002742 0.0
2.836925 0.725029 0.000721 0.0
0.833209 1.242992 0.000230 0.0
1.131083 0.768952 -0.001750 0.0
1.397934 0.829935 -0.002692 0.0
1.154206 0.763730 0.002083 0.0
3.410605 0.121560 -0.003348 0.0
1.529744 1.670720 0.001093 0.0
1.380677 0.235543 0.000091 0.0
4.359181 0.214742 0.000794 0.0
1.398242 0.857076 -0.000841 0.0
4.077142 0.467099 -0.000724 0.0
2.525658 0.496395 -0.000334 0.0
1.420861 1.493699 0.001407 0.0
4.708023 1.631711 0.002116 0.0
0.992850 0.359776 0.000745 0.0
3.714895 0.347028 0.000919 0.0
1.948099 0.334038 0.001871 0.0
3.011662 1.124867 -0.001663 0.0
4.788148 1.191018 -0.002348 0.0
4.557201 0.574951 -0.000145 0.0
0.846231 0.757014 0.000387 0.0
1.306444 1.666509 -0.003531 0.0
1.536877 1.388331 0.000767 0.0
4.437233 0.001989 0.003227 0.0
4.255876 0.957874 0.001877 0.0
0.505685 0.744483 -0.002359 0.0
0.326492 0.307962 -0.001071 0.0
1.247400 0.086890 0.000352 0.0
0.785864 0.385287 -0.002085 0.0
2.660801 1.152083 0.000416 0.0
2.913241 1.636725 -0.002121 0.0
0.855175 1.052178 -0.001630 0.0
0.816030 0.796662 -0.002459 0.0
2.809888 1.167218 -0.003616 0.0
4.531459 0.318059 0.000447 0.0
2.210622 0.074036 0.002808 0.0
1.142413 0.064813 -0.005978 0.0
2.409742 0.810197 -0.000594 0.0
0.147882 1.408998 -0.000319 0.0
2.683764 1.181052 -0.000000 0.0
3.241544 0.783775 0.002234 0.0
1.300720 1.095980 0.001869 0.0
0.680101 0.414683 0.002729 0.0
0.627354 0.293810 0.000328 0.0
2.778699 0.748821 0.006541 0.0
4.199546 1.309247 0.003138 0.0
4.514825 1.043116 0.003869 0.0
0.385507 1.677942 0.001834 0.0
4.043471 0.993027 0.001374 0.0
4.129712 1.205906 -0.000737 0.0
0.383971 0.085991 0.000065 0.0
1.295773 1.491818 -0.001185 0.0
4.069212 0.166198 -0.000278 0.0
0.914418 0.581096 0.002698 0.0
4.087509 0.823099 0.001803 0.0
0.348784 0.407503 0.003269 0.0
2.786970 0.771189 -0.000749 0.0
1.637638 1.344232 0.001330 0.0
1.357496 1.100626 0.002228 0.0
1.058874 0.061148 0.000957 0.0
1.134285 1.246490 -0.002962 0.0
1.378910 0.955039 0.002401 0.0
2.275476 1.413026 0.002348 0.0
0.785702 1.091489 -0.001589 0.0
1.617951 1.609627 -0.003627 0.0
4.386863 0.598472 -0.000562 0.0
3.852409 0.601580 0.001436 0.0
1.697699 0.870459 -0.007066 0.0
2.984971 0.524340 -0.003076 0.0
0.099437 1.329588 0.000064 0.0
4.651370 0.525216 -0.000458 0.0
3.549227 1.421726 0.000644 0.0
1.986776 0.225875 0.003035 0.0
3.876910 1.543197 0.003170 0.0
4.683261 0.611580 -0.004877 0.0
2.077700 0.030746 -0.001789 0.0
1.205096 0.739303 0.000126 0.0
0.575117 0.896385 -0.002590 0.0
4.355329 0.473004 0.000652 0.0
2.176311 0.451047 0.001606 0.0
0.796870 0.027169 0.000052 0.0
3.250038 0.228755 0.000964 0.0
2.164616 0.893261 0.001910 0.0
2.142372 0.051321 -0.003790 0.0
3.298971 0.758595 -0.002580 0.0
3.049344 1.452059 -0.001615 0.0
4.037015 0.822390 0.004481 0.0
0.142646 0.376440 0.001096 0.0
4.637631 0.490295 0.000093 0.0
1.669877 1.183028 0.003863 0.0
2.233252 1.588389 0.003672 0.0
3.623428 0.689877 0.001934 0.0
3.224514 0.841129 -0.003020 0.0
0.662762 1.455459 0.005825 0.0
0.656200 1.255452 0.000069 0.0
0.134895 0.493196 0.003306 0.0
2.540099 1.672241 0.003329 0.0
1.267968 0.323989 -0.000830 0.0
0.043659 1.574355 0.002528 0.0
4.014763 1.169248 -0.002042 0.0
0.298349 0.908288 0.001396 0.0
3.132448 0.947485 -0.000745 0.0
2.493700 0.311401 0.001295 0.0
4.562993 1.029227 -0.002991 0.0
3.746833 0.699595 0.000896 0.0
1.025182 0.671920 -0.003726 0.0
0.465224 0.248985 -0.000121 0.0
4.910640 0.009232 0.001189 0.0
4.785414 0.179338 0.001670 0.0
0.326461 1.134151 -0.002765 0.0
0.627674 1.011286 -0.001005 0.0
4.877766 1.151660 0.000047 0.0
4.509127 1.637202 0.001234 0.0
0.579398 0.113799 -0.002027 0.0
0.678548 0.421804 0.000460 0.0
0.563839 1.301098 -0.006185 0.0
0.067419 1.471391 -0.001590 0.0
1.520175 1.466391 0.000546 0.0
1.965536 1.507700 -0.000274 0.0
2.241750 0.454683 0.000947 0.0
3.417904 0.787825 -0.000364 0.0
4.169185 0.584186 0.000118 0.0
1.690192 0.087638 -0.000235 0.0
2.978279 1.040548 -0.001999 0.0
0.973328 1.064644 -0.005599 0.0
0.992378 0.302661 -0.000038 0.0
3.185640 0.654794 -0.001531 0.0
0.906754 1.207444 0.001523 0.0
2.456158 1.431032 0.000640 0.0
2.103243 0.161096 0.001878 0.0
2.212097 1.561430 -0.000334 0.0
4.374302 1.494419 0.000337 0.0
1.770600 1.581554 0.000615 0.0
4.370295 1.272330 -0.000440 0.0
4.016876 0.163889 -0.000186 0.0
3.148684 1.065967 -0.000811 0.0
3.815454 1.075676 -0.000536 0.0
1.048441 0.095668 -0.003532 0.0
3.202628 0.411416 0.000471 0.0
2.655858 0.628498 0.000744 0.0
2.855091 0.147461 0.002727 0.0
4.437012 0.399851 -0.001197 0.0
2.129372 1.382939 -0.001895 0.0
2.880457 1.288506 0.002562 0.0
1.206289 0.374508 0.000522 0.0
1.684351 0.696939 -0.000594 0.0
4.417008 0.983730 0.001172 0.0
2.313474 1.646745 -0.001315 0.0
2.332278 1.445816 -0.003908 0.0
4.088611 0.836975 0.000845 0.0
1.254255 0.247447 0.002698 0.0
0.662667 0.322310 -0.002961 0.0
2.581652 1.626716 -0.000838 0.0
1.535816 0.576746 0.003656 0.0
0.602254 0.506928 -0.003178 0.0
2.117158 0.120425 -0.000607 0.0
3.032579 0.407746 -0.001383 0.0
0.210549 0.411990 -0.002425 0.0
3.627771 0.807597 0.005469 0.0
1.187630 1.582915 0.000152 0.0
2.233771 0.362054 0.001815 0.0
4.135549 1.173351 0.000920 0.0
1.215948 0.044527 -0.001962 0.0
0.549147 0.705299 -0.001893 0.0
0.134689 1.077596 0.000269 0.0
3.626605 0.105980 0.002608 0.0
4.406562 0.568001 0.000408 0.0
4.364080 1.356990 -0.001143 0.0
4.333141 0.513945 -0.004435 0.0
2.473457 0.225057 -0.003379 0.0
1.324973 1.205059 0.000618 0.0
0.966103 0.521143 0.000631 0.0
3.252798 0.893716 -0.000216 0.0
3.215342 0.663455 -0.004672 0.0
2.697765 1.204047 0.001470 0.0
0.664770 0.979163 -0.003789 0.0
4.006597 0.996196 0.002478 0.0
0.304144 0.010915 -0.000173 0.0
1.652987 0.143299 -0.001495 0.0
3.582665 0.357842 0.001452 0.0
3.970586 0.752811 0.000685 0.0
2.845857 0.573957 -0.006240 0.0
4.659443 0.403432 -0.006391 0.0
0.277825 1.195647 0.000642 0.0
2.198703 0.399993 -0.003343 0.0
3.613676 0.635708 0.006171 0.0
0.806343 1.669607 0.001962 0.0
1.096765 0.262938 0.001000 0.0
3.842017 0.683029 0.002842 0.0
3.744800 1.572603 0.003221 0.0
1.997399 0.105257 0.004071 0.0
2.571213 0.196270 0.000314 0.0
0.308799 1.407141 -0.001262 0.0
0.425103 0.846887 -0.003123 0.0
0.439693 0.253859 0.004295 0.0
3.637445 0.182099 -0.005966 0.0
1.891620 1.522369 -0.000001 0.0
0.659567 0.457138 0.006935 0.0
0.402216 0.563687 -0.000305 0.0
3.046775 1.447502 -0.000459 0.0
1.510628 0.218355 -0.001206 0.0
0.925257 0.011610 0.002249 0.0
2.670853 0.459059 0.001235 0.0
4.029677 0.886619 0.000513 0.0
2.460552 0.841834 0.002581 0.0
4.733769 0.909444 0.002103 0.0
4.772393 0.738926 0.000719 0.0
0.013000 0.556549 0.002714 0.0
3.231427 1.454264 -0.003370 0.0
1.658888 0.928507 0.000864 0.0
2.483028 0.757081 0.001054 0.0
4.297891 0.513680 -0.004188 0.0
1.821060 1.622139 -0.003097 0.0
2.191934 0.957692 -0.000155 0.0
4.238637 1.066787 -0.004098 0.0
2.024896 0.607255 0.000626 0.0
1.806498 1.173603 0.005932 0.0
4.888749 0.359460 0.000469 0.0
4.223201 1.205419 0.000154 0.0
4.485533 0.933651 -0.001497 0.0
4.546931 1.259352 0.000600 0.0
2.786447 1.556409 0.002228 0.0
3.167490 1.687312 0.003287 0.0
4.744560 1.424995 -0.000913 0.0
4.628262 1.495128 -0.004718 0.0
0.632150 1.164462 0.001844 0.0
1.016128 0.368335 -0.001044 0.0
4.533379 0.254452 0.002205 0.0
4.515112 0.244182 -0.002103 0.0
3.002611 0.995864 0.001461 0.0
2.225327 0.818180 -0.000294 0.0
0.598595 0.304870 -0.001356 0.0
0.312716 0.222766 0.004815 0.0
4.244271 0.504020 0.004658 0.0
3.887214 0.494751 0.000707 0.0
0.331759 1.134025 -0.001680 0.0
1.315889 0.392927 -0.004898 0.0
4.210466 1.048391 0.001017 0.0
3.763609 0.805126 -0.004353 0.0
4.841178 1.094382 0.001566 0.0
2.892782 1.587368 0.001316 0.0
2.679614 1.247458 -0.002084 0.0
4.072773 1.569753 -0.001612 0.0
4.660320 1.537466 -0.002494 0.0
0.732089 1.157095 0.003860 0.0
2.504097 0.883585 -0.000085 0.0
3.328167 0.480614 0.000536 0.0
2.481929 0.294746 0.000421 0.0
4.775522 0.636833 0.003731 0.0
1.475365 0.965598 -0.002256 0.0
1.193487 0.807339 -0.002548 0.0
0.213083 1.249493 0.002480 0.0
4.217056 1.355217 0.003534 0.0
4.862443 0.797030 0.002018 0.0
3.570294 1.304902 0.002096 0.0
3.224363 0.599140 0.002991 0.0
4.417325 0.761366 -0.000792 0.0
3.738401 0.960553 -0.003122 0.0
0.172680 1.058014 -0.002510 0.0
1.337053 0.927296 0.002057 0.0
2.699791 0.274480 -0.002055 0.0
2.562418 1.478054 -0.002339 0.0
3.067483 1.499065 0.000604 0.0
2.849552 0.664774 -0.006254 0.0
1.494071 1.228197 0.002024 0.0
0.211398 1.254056 -0.004171 0.0
2.726595 0.148256 0.004135 0.0
3.064344 0.148164 0.001106 0.0
3.056918 1.174228 0.000464 0.0
0.781301 0.966814 0.001763 0.0
1.806723 1.368679 -0.001296 0.0
0.461158 0.186052 0.002944 0.0
0.346307 0.687196 -0.000198 0.0
0.520014 0.722498 0.002992 0.0
4.213070 0.505976 -0.000089 0.0
1.844767 1.247137 0.000145 0.0
0.551326 0.897526 -0.006154 0.0
2.526931 1.179959 0.000811 0.0
3.242214 1.100876 -0.002118 0.0
0.771386 0.554100 -0.003473 0.0
2.891657 0.473505 0.002801 0.0
0.039730 0.708614 0.003409 0.0
4.228873 0.741440 0.001061 0.0
3.394755 1.370629 -0.001006 0.0
1.232845 0.605982 0.002938 0.0
2.991261 0.898860 -0.004583 0.0
3.392348 1.104702 -0.001686 0.0
2.473874 0.172392 0.000258 0.0
3.794904 0.995325 -0.001672 0.0
1.604575 0.475799 -0.000422 0.0
0.344081 1.370514 -0.002516 0.0
2.669161 1.247449 -0.003692 0.0
2.266210 0.665944 -0.001012 0.0
1.303435 0.854328 -0.004822 0.0
1.733158 0.301296 -0.001154 0.0
2.116582 0.204831 0.002009 0.0
2.154664 0.139161 -0.000374 0.0
2.351859 0.647134 -0.000092 0.0
3.926463 0.395951 0.006324 0.0
1.919001 0.365290 0.000022 0.0
4.360157 0.544319 0.001047 0.0
2.223968 1.312870 -0.003055 0.0
4.099488 1.373212 -0.001011 0.0
0.995136 1.075561 -0.007488 0.0
4.598686 0.608631 -0.002845 0.0
0.102001 0.772589 0.000062 0.0
0.799610 0.721424 -0.001136 0.0
2.785212 1.141947 -0.004072 0.0
3.450904 0.575600 0.001760 0.0
0.200295 1.220573 0.001013 0.0
2.440785 0.355003 -0.000798 0.0
4.894326 0.238252 0.001964 0.0
4.360063 0.366504 0.001738 0.0
3.066349 0.377025 -0.003238 0.0
4.391565 0.996007 0.003420 0.0
2.912910 0.777060 0.005559 0.0
4.109770 1.120254 -0.002419 0.0
1.730137 0.616611 -0.002542 0.0
1.555833 1.578011 -0.002344 0.0
2.916003 0.876534 -0.000904 0.0
1.160761 0.633470 -0.003334 0.0
2.437047 0.094881 -0.002165 0.0
3.019563 0.166014 0.001284 0.0
4.443673 1.020038 -0.003529 0.0
0.505532 1.035590 0.000569 0.0
0.929733 1.386959 0.002349 0.0
4.051362 1.446743 -0.000620 0.0
4.082162 0.177485 -0.001577 0.0
2.708085 1.628622 0.002915 0.0
0.575389 1.328297 -0.002290 0.0
3.507159 1.288774 -0.004413 0.0
4.493424 0.292958 -0.001496 0.0
2.999426 0.210778 -0.000144 0.0
4.881323 0.513692 -0.003483 0.0
4.633941 0.474459 -0.000739 0.0
1.472834 0.480725 0.001081 0.0
2.126288 1.516467 0.001980 0.0
2.404759 0.626820 0.003490 0.0
3.981493 1.022138 0.001474 0.0
0.187005 1.014357 -0.000514 0.0
3.840975 0.747562 -0.000364 0.0
4.690200 0.535259 0.002018 0.0
4.714770 0.222668 0.001345 0.0
1.800766 0.939381 -0.000412 0.0
4.528549 1.253504 0.001689 0.0
3.362938 1.663191 0.004502 0.0
4.058472 1.285026 0.000731 0.0
3.961620 0.921976 0.001060 0.0
0.390936 0.471541 -0.000098 0.0
1.050939 1.425093 0.001243 0.0
1.415964 0.963877 0.001571 0.0
1.965554 0.603070 0.002454 0.0
3.275095 0.224136 0.001329 0.0
3.138768 1.672998 0.002361 0.0
3.079239 0.298408 0.000988 0.0
1.054572 1.479948 0.002488 0.0
4.124877 0.026595 -0.003090 0.0
2.580793 0.453117 0.001919 0.0
3.762577 0.377903 0.004957 0.0
0.481730 0.993532 0.002988 0.0
2.965227 1.610195 -0.003482 0.0
0.505318 0.525197 0.001613 0.0
2.870827 0.847094 0.000914 0.0
1.137354 1.680856 0.003072 0.0
1.518913 0.035393 -0.002552 0.0
3.787569 1.583601 -0.000273 0.0
3.183728 0.433695 0.001165 0.0
4.700135 0.335962 -0.001533 0.0
2.130234 0.712497 -0.004034 0.0
0.586396 0.446749 -0.003048 0.0
2.253254 1.117565 0.002120 0.0
2.911250 0.702802 0.003210 0.0
3.132978 0.921368 -0.001677 0.0
2.351963 1.340174 0.000893 0.0
1.004183 0.715299 -0.001505 0.0
0.010602 0.980102 -0.001115 0.0
1.658454 0.525787 -0.003380 0.0
3.459269 0.911856 -0.000490 0.0
4.234095 0.221155 0.003883 0.0
1.067151 0.743105 0.000372 0.0
0.572206 0.123446 0.003235 0.0
1.184111 0.205415 -0.002433 0.0
1.073342 0.263563 0.001161 0.0
0.534359 0.730104 -0.003122 0.0
3.272941 0.060191 -0.000682 0.0
4.854029 1.344139 -0.000677 0.0
3.067832 0.879534 0.000286 0.0
0.890373 0.169762 0.002907 0.0
4.835890 0.001246 -0.000761 0.0
1.668726 0.817888 0.004746 0.0
2.149057 1.501138 0.000574 0.0
2.990542 1.282893 -0.003333 0.0
1.587050 0.155379 -0.000291 0.0
3.933064 0.440672 -0.003275 0.0
2.346772 0.869495 0.003578 0.0
2.425901 1.157571 0.001381 0.0
2.860287 0.841933 -0.001175 0.0
2.015140 0.789110 -0.004447 0.0
3.363172 1.613368 -0.002108 0.0
1.571050 0.565497 -0.001956 0.0
2.635408 0.359856 0.000708 0.0
3.985734 0.893652 -0.007029 0.0
2.294362 1.590747 -0.000427 0.0
1.569215 0.428186 0.000329 0.0
1.834140 0.582934 -0.002614 0.0
1.510989 1.349355 -0.001826 0.0
4.729811 0.560999 0.000531 0.0
4.891635 0.210865 -0.001389 0.0
4.260097 0.048759 -0.003401 0.0
4.701938 1.153373 0.002441 0.0
0.404982 0.755976 0.002487 0.0
3.459802 0.622313 -0.000134 0.0
2.780730 1.408935 -0.000354 0.0
0.122445 1.669518 -0.002870 0.0
1.704904 0.934598 -0.000669 0.0
4.052286 0.754212 0.000392 0.0
1.867876 0.100049 -0.004393 0.0
3.716199 0.494984 -0.001216 0.0
2.846848 0.908185 0.001315 0.0
0.887975 0.279283 0.001058 0.0
0.942484 1.487676 0.005942 0.0
0.062086 1.614231 -0.002141 0.0
2.264414 1.129753 0.001164 0.0
3.792856 1.429799 0.000199 0.0
1.577788 0.320620 0.003520 0.0
1.749278 0.505897 0.000748 0.0
0.394607 0.494818 0.003267 0.0
3.856034 0.363630 0.001686 0.0
4.677795 1.401659 -0.001553 0.0
3.176332 0.918708 0.002969 0.0
1.591667 0.995828 -0.003656 0.0
4.208101 1.195585 0.001527 0.0
3.169422 0.331375 0.003018 0.0
2.112240 0.723223 0.004699 0.0
3.793502 1.094735 0.002551 0.0
2.480749 0.479488 -0.002387 0.0
3.079700 1.304046 0.003292 0.0
1.867617 0.894488 0.001511 0.0
2.051929 0.646631 -0.003952 0.0
1.917116 1.435912 -0.004017 0.0
0.111663 0.905913 -0.003993 0.0
0.598556 0.867891 -0.000708 0.0
4.247093 0.322590 -0.003525 0.0
3.511532 1.485128 -0.002950 0.0
4.488654 0.418994 0.002234 0.0
1.245284 1.439456 0.002266 0.0
0.424403 0.471831 -0.000688 0.0
3.483896 0.828541 0.000454 0.0
3.012637 1.487168 0.001324 0.0
2.476126 0.352829 0.004131 0.0
1.424386 0.899118 0.000166 0.0
1.072091 1.226009 0.001626 0.0
0.509779 1.414922 0.001292 0.0
3.663955 0.407399 0.000145 0.0
4.251125 0.057167 -0.004547 0.0
4.618254 0.198950 0.003899 0.0
1.089066 0.306583 0.000875 0.0
2.469339 1.320870 0.001034 0.0
2.636752 1.010145 0.001119 0.0
1.296173 0.686018 -0.003245 0.0
0.285565 1.083091 -0.000173 0.0
1.248083 0.026280 -0.003967 0.0
2.030455 1.109143 0.000027 0.0
3.781790 0.397773 -0.006033 0.0
0.093839 0.454864 0.002741 0.0
1.882478 1.395857 -0.006269 0.0
0.179782 1.144981 0.002662 0.0
1.791252 0.238265 -0.002263 0.0
0.601218 0.752115 0.000749 0.0
3.574388 1.452942 0.002040 0.0
4.515492 1.557573 -0.006783 0.0
2.877111 0.614180 0.001297 0.0
0.504485 1.479527 0.000426 0.0
2.240812 1.438256 -0.001423 0.0
2.649013 0.700543 -0.001795 0.0
0.784690 1.308947 -0.001715 0.0
3.999131 0.313507 0.004496 0.0
4.021506 1.304161 -0.000813 0.0
1.481554 0.612461 -0.005320 0.0
3.825066 1.545113 -0.002785 0.0
0.632917 0.493182 0.000986 0.0
2.475712 0.145950 0.000674 0.0
4.217842 1.241819 0.001210 0.0
4.546249 1.418713 -0.002640 0.0
3.243969 1.450365 0.003974 0.0
3.028833 1.342358 0.002620 0.0
2.252616 0.240582 -0.003902 0.0
4.017238 0.432213 0.000135 0.0
4.574873 0.549540 0.000619 0.0
4.773165 0.815222 0.001797 0.0
1.009812 1.520326 -0.000470 0.0
3.698225 0.469885 0.000176 0.0
2.444538 0.720399 -0.001405 0.0
1.532418 1.075446 -0.001691 0.0
1.806765 1.624265 0.000941 0.0
4.125275 0.017362 0.000268 0.0
1.136350 1.031855 -0.000452 0.0
1.783202 0.294855 0.004076 0.0
4.527884 1.225057 0.004255 0.0
3.536436 1.419064 -0.003354 0.0
2.959989 1.247499 0.000854 0.0
2.367111 0.823171 -0.006677 0.0
4.414630 0.262433 -0.000724 0.0
1.237708 1.048351 -0.001310 0.0
4.760786 1.329224 -0.000530 0.0
1.635084 1.407778 -0.002934 0.0
0.743592 1.275601 0.005190 0.0
0.792535 0.730722 -0.003387 0.0
0.611429 0.621169 -0.000806 0.0
0.013048 0.477625 0.002402 0.0
2.285978 1.197527 0.001612 0.0
2.996901 0.315943 0.004248 0.0
2.112953 1.683574 0.000242 0.0
2.543445 0.353345 -0.001593 0.0
4.529722 0.881840 0.003341 0.0
1.165876 0.764779 0.000607 0.0
4.383185 1.204876 0.003339 0.0
4.683564 1.408982 0.001626 0.0
4.766897 0.876063 0.000286 0.0
1.102139 0.803299 -0.000804 0.0
3.411315 0.714622 0.002441 0.0
2.161250 0.135437 -0.002550 0.0
2.958731 1.482575 -0.001058 0.0
3.515237 0.744745 -0.002900 0.0
3.157737 0.325087 0.001441 0.0
0.990235 1.278841 0.002097 0.0
0.993085 0.899924 -0.004101 0.0
1.067239 0.211962 -0.000496 0.0
4.474970 0.234317 0.001098 0.0
2.673082 0.398144 0.000920 0.0
3.074418 1.237624 0.000373 0.0
2.066953 0.921822 0.000533 0.0
4.697974 0.794526 -0.002708 0.0
0.731973 1.665246 0.000258 0.0
1.959819 1.049506 -0.001343 0.0
3.228026 0.417250 -0.002560 0.0
0.025844 0.593835 -0.006051 0.0
2.623848 1.579429 0.001406 0.0
4.391532 1.207003 -0.001989 0.0
2.878094 1.674657 -0.001816 0.0
0.558845 1.081620 0.000266 0.0
2.595291 1.470791 0.001459 0.0
1.284936 0.959582 -0.000352 0.0
1.063970 0.702190 -0.001609 0.0
1.009644 1.509574 0.001647 0.0
3.638104 0.449385 -0.000934 0.0
4.810578 1.066248 0.000153 0.0
4.018915 1.437654 -0.000424 0.0
3.531736 1.112317 -0.000758 0.0
0.989420 1.211886 0.002477 0.0
1.676358 1.442598 0.001999 0.0
4.154146 0.141977 -0.000725 0.0
1.948023 0.585985 -0.000935 0.0
0.866090 1.011221 -0.001896 0.0
4.670271 0.313253 -0.001974 0.0
2.086689 0.345366 -0.001877 0.0
4.678960 0.381317 0.005789 0.0
4.274396 0.069158 0.003778 0.0
4.259278 0.129406 -0.000960 0.0
3.353620 1.130421 -0.000699 0.0
4.761384 1.204914 -0.001265 0.0
1.945695 1.533269 -0.000889 0.0
4.775700 1.536343 0.000585 0.0
4.721287 1.127182 -0.000023 0.0
1.436150 0.861547 0.004175 0.0
0.079060 0.195375 -0.002388 0.0
2.977640 0.321673 0.000295 0.0
2.018285 1.415630 0.000508 0.0
3.654295 0.178834 0.002707 0.0
0.175177 1.362882 0.001043 0.0
4.170368 0.297040 0.001266 0.0
0.411876 0.436110 0.002085 0.0
2.823698 0.804753 -0.002069 0.0
1.368970 1.135127 -0.000240 0.0
0.916950 1.046537 -0.000011 0.0
0.408835 0.888396 -0.002365 0.0
0.959388 0.451223 -0.001188 0.0
4.358385 0.025822 0.003033 0.0
3.847340 0.554877 -0.005047 0.0
2.903538 0.204506 -0.005282 0.0
0.833270 0.091173 0.001329 0.0
0.231102 0.713383 -0.000366 0.0
3.230403 1.659945 -0.004494 0.0
2.241234 0.197321 0.000871 0.0
0.290840 1.519912 0.002673 0.0
0.253599 0.512993 -0.000981 0.0
0.329289 0.479887 0.002875 0.0
1.078710 0.735368 -0.003284 0.0
0.050817 1.577281 -0.002099 0.0
0.026986 0.494521 -0.003717 0.0
3.756142 0.986072 0.001090 0.0
2.621675 0.832474 -0.001068 0.0
1.642919 1.446658 0.002334 0.0
0.362006 1.489813 -0.000351 0.0
1.650554 1.648540 0.002619 0.0
2.353436 1.598039 0.001617 0.0
2.466384 0.678043 0.002217 0.0
4.599522 1.100718 0.004256 0.0
3.319575 0.812266 -0.004199 0.0
4.742678 0.054901 0.002764 0.0
4.666964 1.470171 -0.005294 0.0
2.947423 0.754913 -0.001487 0.0
2.073219 0.906198 0.001093 0.0
1.067155 1.301250 0.006137 0.0
2.291407 0.810178 -0.002526 0.0
4.585423 0.216869 -0.001837 0.0
0.171671 0.135951 -0.001028 0.0
2.208897 1.496793 0.004519 0.0
2.865875 1.226920 -0.005709 0.0
2.931162 1.658475 -0.001451 0.0
2.864949 0.716481 0.002767 0.0
0.116629 1.371963 -0.004890 0.0
3.057628 1.615326 0.002381 0.0
1.441351 0.140796 -0.001082 0.0
4.511180 0.118786 0.000938 0.0
0.314964 0.014209 0.001094 0.0
1.011804 1.310780 0.003849 0.0
3.883677 0.548868 0.000892 0.0
1.370037 0.739878 0.004135 0.0
0.389065 1.603726 -0.001466 0.0
4.183163 0.091474 -0.003018 0.0
1.236515 0.763741 0.000837 0.0
0.930876 0.068341 -0.003427 0.0
4.554820 0.524493 -0.001990 0.0
3.729517 0.972827 0.000917 0.0
0.126526 0.175931 -0.001391 0.0
4.578833 0.249959 0.002486 0.0
1.325783 0.994991 -0.001315 0.0
2.625195 0.223896 0.000600 0.0
1.914958 1.426350 0.000378 0.0
2.569593 1.224321 -0.001435 0.0
3.258708 0.449290 -0.002419 0.0
1.580297 1.019398 -0.002363 0.0
3.503376 1.614005 0.003530 0.0
1.258209 1.075967 -0.001574 0.0
0.632423 0.518015 0.002645 0.0
3.478829 0.064947 0.001719 0.0
1.021018 1.279997 -0.001191 0.0
2.974186 0.847498 -0.002541 0.0
1.794033 1.545586 -0.001435 0.0
3.343758 0.092678 0.002408 0.0
2.561276 1.524663 0.002090 0.0
0.345290 0.677412 0.000797 0.0
1.397766 1.654927 0.001104 0.0
4.485339 1.236376 -0.001750 0.0
3.625816 0.670673 0.000344 0.0
3.806241 0.962957 -0.001108 0.0
1.996047 1.144338 -0.004226 0.0
1.036895 0.762899 -0.002532 0.0
3.348526 1.224476 -0.002623 0.0
0.138939 0.562637 0.002593 0.0
2.389277 1.218125 -0.001156 0.0
2.307308 1.402600 0.000291 0.0
2.724949 1.060539 0.003001 0.0
0.062708 0.978397 0.001312 0.0
2.027777 0.594100 -0.003021 0.0
4.543398 0.902937 0.004256 0.0
0.820779 1.490839 0.003429 0.0
3.141388 1.619276 -0.000574 0.0
2.606555 1.043610 -0.002787 0.0
4.873840 1.073946 0.000521 0.0
2.792870 0.347708 0.001891 0.0
3.911661 1.679962 -0.000391 0.0
2.206853 0.876317 -0.000789 0.0
4.879037 0.693248 0.000053 0.0
0.360580 1.657373 0.000758 0.0
2.212835 1.279027 0.000003 0.0
0.421926 1.427938 0.002250 0.0
0.488240 0.762195 0.000138 0.0
0.180449 0.245668 -0.001261 0.0
4.599026 1.285291 0.003723 0.0
4.398276 0.788177 0.005183 0.0
2.584243 1.431724 -0.000630 0.0
1.208126 0.348145 0.000346 0.0
3.852141 0.701720 0.000641 0.0
2.375802 0.545783 -0.003077 0.0
1.916522 0.498367 0.001390 0.0
2.988156 0.496387 0.000435 0.0
3.102362 0.620869 0.001951 0.0
1.263612 1.058178 -0.001225 0.0
1.030720 1.451837 -0.004586 0.0
3.005487 1.261278 0.001736 0.0
1.230477 0.232656 0.003362 0.0
1.166767 0.593332 -0.002143 0.0
0.925140 1.431341 0.000965 0.0
3.593773 0.488712 -0.004615 0.0
0.044425 0.000981 -0.000207 0.0
2.421110 1.488843 -0.004748 0.0
1.041691 0.786595 0.001025 0.0
4.026332 0.790799 -0.001474 0.0
3.194285 0.510884 0.001574 0.0
1.189403 0.303615 0.000042 0.0
0.504353 1.227996 -0.005479 0.0
0.503745 1.195035 0.001900 0.0
3.021061 0.022823 0.002309 0.0
4.044790 0.889407 0.002253 0.0
1.034062 0.089037 0.002299 0.0
2.566869 1.275083 -0.000755 0.0
0.343373 0.754033 -0.001383 0.0
3.267052 1.300623 -0.000003 0.0
1.225004 1.381706 0.005218 0.0
3.734197 0.925449 0.005831 0.0
1.571586 1.484643 0.001863 0.0
1.654502 1.648394 0.001050 0.0
2.162967 0.586940 -0.001537 0.0
3.855618 0.417617 -0.002299 0.0
3.037516 1.559808 0.000297 0.0
4.490193 1.070932 -0.003419 0.0
0.811353 0.879220 -0.001240 0.0
3.377841 0.371929 0.000368 0.0
3.768444 0.956985 -0.003364 0.0
0.554070 0.150502 0.002055 0.0
4.111878 0.626317 -0.000158 0.0
4.723457 1.556052 -0.000452 0.0
1.442564 0.354161 -0.002065 0.0
3.774732 1.087895 0.001537 0.0
2.979674 0.962290 0.002110 0.0
3.425961 0.663080 0.002385 0.0
1.988308 0.514877 0.001008 0.0
3.344802 1.282478 -0.001087 0.0
1.067614 1.667072 -0.001674 0.0
3.335223 1.414632 -0.002764 0.0
2.781977 0.333517 -0.003178 0.0
3.722810 1.303608 0.005210 0.0
2.289843 0.424748 0.004920 0.0
3.326762 0.289530 0.001489 0.0
2.955363 0.176194 -0.001333 0.0
3.933386 0.048505 -0.000544 0.0
2.543731 0.164603 -0.000343 0.0
4.878651 1.357432 0.001432 0.0
0.674841 0.776453 -0.004415 0.0
