1.63750968 0.99722353 0.00009807 0.00000000
3.90429412 0.01073524 0.00080090 0.00000000
1.85286775 0.93324359 0.00276374 0.00000000
0.18059138 1.81676887 0.00347955 0.00000000
3.61270653 0.20853838 -0.00102012 0.00000000
2.86837450 1.37470177 0.00251255 0.00000000
1.95144192 0.46818462 0.00329134 0.00000000
2.96854007 1.49220844 -0.00107040 0.00000000
0.60149019 0.42961327 -0.00178430 0.00000000
3.50019519 0.28165965 -0.00021700 0.00000000
1.54612734 0.22185986 -0.00362841 0.00000000
0.10398621 0.00870766 0.00167471 0.00000000
0.39381979 1.73051353 0.00106248 0.00000000
3.92722256 0.12574154 -0.00204244 0.00000000
1.81976633 0.65098750 -0.00433858 0.00000000
4.12654924 0.33578846 0.00097532 0.00000000
2.15454966 1.11824655 -0.00386572 0.00000000
3.56683084 0.04137967 0.00266480 0.00000000
0.80747355 1.30761122 0.00145155 0.00000000
2.71944375 1.84899771 -0.00073363 0.00000000
3.99323352 1.60596255 0.00036401 0.00000000
3.85103778 1.42186806 -0.00347769 0.00000000
1.15738830 1.38691811 0.00232930 0.00000000
2.96582068 0.46870244 -0.00044674 0.00000000
2.07874258 1.63017567 -0.00022875 0.00000000
2.23524150 0.85648594 -0.00799626 0.00000000
3.28030267 0.85289111 0.00370884 0.00000000
4.01513467 1.68049635 -0.00272709 0.00000000
1.19036349 1.03869419 -0.00472510 0.00000000
3.10258307 0.73213436 0.00170614 0.00000000
1.57496751 0.70076185 -0.00188156 0.00000000
3.08241213 0.96120872 0.00131679 0.00000000
0.17353518 1.71599602 0.00194519 0.00000000
3.37763589 0.23041194 -0.00131271 0.00000000
3.37307342 1.10304317 -0.00439293 0.00000000
3.96731361 1.42029524 -0.00037481 0.00000000
2.02799501 0.68152084 -0.00279479 0.00000000
2.41982645 0.90488620 0.00061159 0.00000000
0.29523428 0.41900536 -0.00324679 0.00000000
3.67106569 1.51484141 -0.00115229 0.00000000
1.35631536 0.12947055 -0.00238407 0.00000000
2.45103077 1.00636892 -0.00087438 0.00000000
3.67471535 0.58206635 -0.00081474 0.00000000
3.29415037 0.63588119 -0.00072508 0.00000000
2.39848996 0.58498437 0.00193923 0.00000000
1.55304327 1.08119689 0.00103409 0.00000000
1.23337662 0.52121579 -0.00517887 0.00000000
3.87150340 0.94449769 0.00229094 0.00000000
1.11344448 0.20102766 0.00058513 0.00000000
0.82146620 1.06375836 0.00048565 0.00000000
2.73892432 1.17746258 -0.00036828 0.00000000
0.34340616 1.16786428 0.00232121 0.00000000
2.12051825 0.43830925 -0.00075160 0.00000000
4.07255525 0.77401539 0.00020388 0.00000000
0.69585760 1.64430574 -0.00126266 0.00000000
1.02335017 1.38093962 0.00101893 0.00000000
0.82060993 1.25088258 -0.00183872 0.00000000
1.41935903 0.18171347 0.00036757 0.00000000
1.20176012 0.95725739 -0.00328462 0.00000000
1.04883262 0.64729558 -0.00042626 0.00000000
2.96598057 1.40359165 0.00204295 0.00000000
2.01010201 1.58540632 -0.00391223 0.00000000
1.59158187 0.62969170 0.00313325 0.00000000
1.75177226 0.06859763 -0.00170129 0.00000000
2.21327248 0.57997214 0.00090132 0.00000000
1.18449537 0.83355663 -0.00174514 0.00000000
0.13922500 1.51833726 0.00122750 0.00000000
0.45388844 0.44503303 -0.00185288 0.00000000
3.17395929 1.20639900 -0.00061936 0.00000000
1.97631539 0.40830427 0.00729048 0.00000000
0.05917092 0.89996751 -0.00060262 0.00000000
1.93558874 1.11821660 0.00004720 0.00000000
2.61629296 0.33208220 -0.00146629 0.00000000
3.93152609 0.19760934 0.00234331 0.00000000
1.08157001 0.75756463 0.00416809 0.00000000
2.97260355 1.12957371 0.00058091 0.00000000
3.77079505 0.99809213 -0.00240030 0.00000000
2.73072723 1.71065158 0.00239826 0.00000000
2.27784118 0.64828570 0.00054289 0.00000000
2.00590971 1.19885051 -0.00237175 0.00000000
0.41067965 0.51883627 -0.00314551 0.00000000
1.89620850 1.41921424 0.00035336 0.00000000
3.59530263 1.57937405 -0.00060385 0.00000000
0.28395521 0.02307420 -0.00175650 0.00000000
0.26617452 1.17344102 -0.00147263 0.00000000
2.93268630 1.45518658 0.00427322 0.00000000
2.18018002 1.65605914 -0.00109141 0.00000000
2.19009465 0.07334272 0.00504126 0.00000000
4.16455132 1.10704518 -0.00297087 0.00000000
0.71776977 1.56849394 -0.00143294 0.00000000
4.01338393 0.35297662 -0.00179533 0.00000000
1.23956403 1.71949311 -0.00100608 0.00000000
3.66192705 1.60939295 0.00317575 0.00000000
1.05821225 1.47789533 0.00241934 0.00000000
2.22003105 0.17164912 -0.00048804 0.00000000
1.45595923 1.81418670 -0.00180638 0.00000000
2.17447032 1.85782914 0.00372211 0.00000000
0.13079056 1.09750828 -0.00374177 0.00000000
3.58686090 0.26820276 -0.00029575 0.00000000
1.35442394 1.16531185 0.00117104 0.00000000
3.03502417 0.59717841 -0.00039788 0.00000000
0.22063467 0.22807734 0.00098166 0.00000000
3.86943171 1.83454775 -0.00080584 0.00000000
3.76149922 0.31077181 0.00063609 0.00000000
2.12091873 1.29822120 0.00378709 0.00000000
2.02121848 0.04428705 0.00645674 0.00000000
2.71918890 0.54409843 -0.00073444 0.00000000
3.94605709 1.41410319 -0.00063634 0.00000000
2.65882489 0.97079765 0.00206258 0.00000000
0.25626592 0.09073297 -0.00022168 0.00000000
2.06743297 0.28269839 -0.00046100 0.00000000
4.10717016 0.47110433 -0.00961766 0.00000000
0.48156174 1.84789827 0.00114150 0.00000000
4.02349982 1.53545845 -0.00160749 0.00000000
2.02716737 0.02667903 0.00190267 0.00000000
0.35950056 0.71794829 0.00294835 0.00000000
1.90127609 1.22993485 -0.00140996 0.00000000
2.73872321 1.46762585 -0.00033639 0.00000000
1.37669897 1.38458282 0.00212993 0.00000000
3.28771145 0.83850817 -0.00296840 0.00000000
3.89137968 1.81505734 0.00177739 0.00000000
3.61324540 0.39847279 -0.00312485 0.00000000
3.51142702 1.71287385 -0.00130945 0.00000000
2.31874477 1.43984865 0.00169285 0.00000000
4.17475025 1.07384671 -0.00024805 0.00000000
1.47912529 0.87466850 0.00629676 0.00000000
1.54872964 0.72420911 0.00255277 0.00000000
1.09556353 1.31513135 -0.00082561 0.00000000
0.07923723 0.02298690 -0.00190891 0.00000000
0.12885060 0.73207841 0.00175757 0.00000000
2.82188413 0.19159217 0.00043621 0.00000000
1.48564754 1.69691705 0.00160689 0.00000000
1.29916297 0.95523006 0.00022574 0.00000000
2.59012362 1.00116159 -0.00365967 0.00000000
2.84527786 1.16254063 0.00115759 0.00000000
3.48652381 0.64889381 0.00349646 0.00000000
3.83956956 0.20601528 0.00504389 0.00000000
4.03926535 1.36684343 0.00078297 0.00000000
1.29108497 0.34653164 -0.00001157 0.00000000
0.88798544 1.72898993 0.00190752 0.00000000
1.91824308 1.77697606 0.00304992 0.00000000
2.26070998 0.16823588 -0.00287185 0.00000000
2.49772596 0.92919510 -0.00012676 0.00000000
2.57973061 0.71819458 0.00078130 0.00000000
3.93110530 0.60399222 0.00024133 0.00000000
2.83036451 0.41682158 0.00125999 0.00000000
3.24059473 0.54218831 -0.00366953 0.00000000
1.76586177 0.44328255 -0.00248304 0.00000000
3.64226087 0.18455434 0.00386027 0.00000000
1.10793227 1.44752546 -0.00275208 0.00000000
0.27235705 1.08329377 0.00193803 0.00000000
1.29676852 0.53027508 -0.00150204 0.00000000
3.75582848 0.60597174 -0.00139781 0.00000000
2.03430722 1.68624408 -0.00081219 0.00000000
2.41778599 0.15157109 -0.00169595 0.00000000
3.82867579 1.06667942 -0.00073042 0.00000000
1.44369617 1.72921830 0.00169250 0.00000000
1.16720736 0.81456110 0.00069998 0.00000000
3.11150522 1.83213291 -0.00077099 0.00000000
2.85093096 0.80678530 0.00042876 0.00000000
1.70961358 0.22015859 -0.00121045 0.00000000
3.07408722 1.47438785 -0.00429726 0.00000000
3.93920938 0.29101034 -0.00262981 0.00000000
2.76516010 0.92797358 -0.00269157 0.00000000
3.68691975 1.30853039 -0.00198061 0.00000000
0.61132815 0.05127341 0.00563291 0.00000000
0.99681901 1.07595569 0.00208254 0.00000000
3.84455348 1.74321466 0.00073536 0.00000000
1.04306867 1.35727079 0.00114429 0.00000000
0.85092122 1.07295603 -0.00368768 0.00000000
2.55605778 1.28228774 0.00104920 0.00000000
2.05574094 0.82713880 0.00057933 0.00000000
3.91024326 1.05188492 -0.00101121 0.00000000
1.67542069 1.70128720 0.00295830 0.00000000
2.88345829 0.52338979 0.00243279 0.00000000
0.48862231 1.89759552 -0.00012382 0.00000000
1.91514947 0.69511849 0.00019989 0.00000000
1.38552374 1.80653352 -0.00331708 0.00000000
3.26250767 1.76066440 -0.00425291 0.00000000
2.37776443 0.17542764 -0.00190867 0.00000000
0.85443531 1.43991848 -0.00396082 0.00000000
0.36705996 0.69084338 0.00088595 0.00000000
0.76591523 1.26914680 -0.00190346 0.00000000
2.15355057 0.59841367 0.00235426 0.00000000
3.12940887 0.57658171 -0.00349839 0.00000000
0.94980519 0.39782875 0.00640530 0.00000000
2.72638705 1.70551475 0.00070658 0.00000000
0.35657187 0.84232669 -0.00582371 0.00000000
1.83239540 0.68661996 0.00291085 0.00000000
1.91882647 0.18848252 -0.00090379 0.00000000
1.82555712 0.75564947 0.00155173 0.00000000
0.06187571 1.37500682 0.00334064 0.00000000
1.65152830 1.22115241 -0.00118881 0.00000000
2.98937569 0.95190929 -0.00364884 0.00000000
2.94810851 0.95963530 -0.00184618 0.00000000
2.20727480 1.45746531 0.00263918 0.00000000
1.72766075 0.85860016 0.00242403 0.00000000
0.52262469 0.13704294 -0.00203346 0.00000000
0.99309910 1.55201078 -0.00127326 0.00000000
1.43445925 0.49514301 -0.00052983 0.00000000
2.49308195 0.65703768 0.00268687 0.00000000
0.30803507 0.82600773 -0.00256294 0.00000000
2.82114896 1.75996328 0.00528218 0.00000000
3.21595301 1.44770520 0.00259061 0.00000000
2.07657828 0.69360059 -0.00429933 0.00000000
2.80342082 1.41461934 0.00214441 0.00000000
3.28545273 1.16121758 -0.00299821 0.00000000
3.19552975 0.13427243 -0.00129508 0.00000000
0.50589031 0.78870157 -0.00370759 0.00000000
1.58391768 0.76635544 -0.00010562 0.00000000
1.67919852 0.72151088 -0.00088977 0.00000000
2.08471887 1.05186167 -0.00003778 0.00000000
0.21430037 0.84392798 -0.00418611 0.00000000
1.15314897 0.36627638 -0.00035442 0.00000000
0.15336674 0.09021912 0.00137195 0.00000000
1.81883249 1.05955252 0.00213042 0.00000000
4.09069352 1.71096421 0.00442441 0.00000000
3.67709014 1.30389906 -0.00330858 0.00000000
3.29481972 0.53120111 0.00072944 0.00000000
0.14369515 0.19204618 -0.00318078 0.00000000
1.51410398 0.94942731 -0.00065490 0.00000000
1.18859993 1.46671053 0.00311477 0.00000000
2.70643223 1.70590220 0.00190171 0.00000000
1.69148270 1.19242000 0.00240235 0.00000000
3.79433360 0.09147225 0.00085812 0.00000000
2.45036829 0.02737717 -0.00146932 0.00000000
2.30513532 0.93400501 -0.00302583 0.00000000
2.33883680 0.28764901 0.00060717 0.00000000
0.12093930 1.58822444 -0.00484317 0.00000000
1.34718238 0.42920719 0.00161452 0.00000000
2.37233777 0.83586399 -0.00220483 0.00000000
3.00239285 0.01110224 0.00324431 0.00000000
3.25075140 0.96320998 -0.00236660 0.00000000
1.76456963 0.03409682 -0.00141256 0.00000000
2.00392329 1.39547816 0.00068766 0.00000000
3.73312100 1.80908654 0.00585791 0.00000000
0.35677229 1.11370840 -0.00011987 0.00000000
2.49794087 0.90860057 0.00084871 0.00000000
3.57553110 0.25708310 0.00063550 0.00000000
3.15567716 0.53459932 0.00109068 0.00000000
2.20430233 0.76452650 -0.00172982 0.00000000
3.92998758 0.55153458 0.00229326 0.00000000
2.90286064 1.78729487 0.00042618 0.00000000
3.58048266 0.89703839 -0.00146920 0.00000000
0.97814393 1.43299522 -0.00007147 0.00000000
3.58651586 0.20976448 0.00028340 0.00000000
3.41177917 1.29273893 0.00021242 0.00000000
3.64172917 1.78300375 0.00041363 0.00000000
0.93966396 0.71677993 -0.00027199 0.00000000
0.67237627 0.86940428 0.00447219 0.00000000
2.42935743 1.72654136 0.00272556 0.00000000
0.19805512 1.87023683 -0.00047911 0.00000000
0.64411680 0.38560498 -0.00155976 0.00000000
3.92103649 1.58178463 0.00219511 0.00000000
0.36327210 0.88238409 -0.00014538 0.00000000
3.09322883 0.26831623 0.00331430 0.00000000
2.71240877 0.38339528 0.00422265 0.00000000
1.55332658 1.79668202 -0.00016111 0.00000000
3.09924037 0.48198361 0.00094559 0.00000000
3.82643597 1.32068820 0.00026027 0.00000000
2.25084204 0.68945204 -0.00009358 0.00000000
1.59238991 0.63723754 0.00138066 0.00000000
1.12623483 1.14458364 0.00238153 0.00000000
2.43124969 1.33229687 0.00293069 0.00000000
3.02787163 0.92504359 -0.00227324 0.00000000
1.74177153 0.44287824 0.00003019 0.00000000
3.05228241 0.26768686 0.00157268 0.00000000
3.41549433 0.66857685 0.00422366 0.00000000
3.87436357 1.50392460 0.00117219 0.00000000
3.26505186 1.76075802 0.00347495 0.00000000
3.07112142 0.08879795 0.00113989 0.00000000
1.87722397 0.47647177 -0.00162318 0.00000000
3.42408752 1.08043823 -0.00274423 0.00000000
3.36787550 0.92469284 -0.00825543 0.00000000
2.25646140 1.72776948 0.00133956 0.00000000
0.14219656 1.24966958 -0.00185280 0.00000000
3.88083870 0.70531386 0.00527661 0.00000000
0.18076248 0.96101334 0.00118840 0.00000000
3.22720022 1.85867487 0.00180418 0.00000000
1.03165484 0.05198378 0.00228684 0.00000000
2.38021366 1.52223934 0.00259304 0.00000000
1.57204206 1.12137134 0.00265459 0.00000000
3.69329845 1.75703182 0.00133261 0.00000000
2.97636387 0.17965253 0.00025991 0.00000000
0.67950061 1.49043436 -0.00002336 0.00000000
2.89368129 0.44443300 -0.00049516 0.00000000
3.41261259 1.36099467 -0.00279414 0.00000000
1.57829102 0.46621393 -0.00143196 0.00000000
0.64093399 0.31709897 -0.00378119 0.00000000
0.86793731 0.29351476 -0.00013518 0.00000000
0.16958942 0.03723293 0.00459710 0.00000000
0.31087384 1.47003588 0.00291265 0.00000000
2.85722915 1.88699906 -0.00152291 0.00000000
4.01249216 1.26089333 -0.00416232 0.00000000
1.75831185 0.31596132 -0.00161458 0.00000000
0.93448314 1.05937469 0.00357071 0.00000000
1.65710871 0.35953665 0.00369352 0.00000000
2.86888010 0.61135837 0.00269930 0.00000000
0.92053490 0.21499860 -0.00241129 0.00000000
3.89470823 0.94752804 -0.00127986 0.00000000
0.51268270 1.54033116 0.00004671 0.00000000
0.96344279 1.54810782 -0.00104515 0.00000000
2.34587987 1.80847009 -0.00028826 0.00000000
1.96599942 0.00119435 0.00300979 0.00000000
3.30235874 0.27897422 -0.00274179 0.00000000
3.19274367 1.10139172 -0.00076162 0.00000000
2.05068485 0.00652238 0.00236942 0.00000000
2.82193786 1.32748781 0.00484394 0.00000000
1.66509079 1.41050733 0.00069359 0.00000000
3.99662774 1.59926299 0.00263119 0.00000000
0.16280909 0.98889580 -0.00537005 0.00000000
1.01073341 1.63744473 -0.00312473 0.00000000
2.31495904 0.50646657 0.00245490 0.00000000
3.82054476 1.31682603 -0.00209731 0.00000000
1.62972690 1.59581898 0.00172514 0.00000000
2.81609948 0.98147890 0.00279524 0.00000000
3.94845730 1.77324811 0.00355270 0.00000000
1.37821823 1.81884059 0.00150512 0.00000000
3.38696275 0.30132869 0.00244642 0.00000000
3.23177515 1.41388208 -0.00029904 0.00000000
1.16146387 0.84165820 0.00385945 0.00000000
2.51659745 0.73810788 -0.00462755 0.00000000
1.56890164 0.42327054 0.00143379 0.00000000
2.58676785 0.61056533 0.00232868 0.00000000
0.85038995 1.62837103 -0.00763197 0.00000000
2.90786045 0.22352377 -0.00197854 0.00000000
3.83165122 1.46082402 0.00110575 0.00000000
0.59601335 1.48251152 -0.00182653 0.00000000
0.34842015 1.85232118 0.00374381 0.00000000
0.94739740 1.46952621 0.00270161 0.00000000
0.12064678 0.13443155 0.00036923 0.00000000
2.93890773 1.24082879 -0.00089374 0.00000000
2.11081450 0.53675795 -0.00302061 0.00000000
2.56342142 1.44312847 0.00145370 0.00000000
1.02641354 0.67048654 0.00083368 0.00000000
4.06911275 0.52992375 0.00093338 0.00000000
1.06710968 0.25333040 0.00013091 0.00000000
2.12800757 0.90040706 0.00519772 0.00000000
1.65528819 0.99070780 0.00394765 0.00000000
2.01091618 0.15506571 -0.00032191 0.00000000
1.98308137 0.22572755 -0.00407530 0.00000000
2.32854252 1.27810641 0.00063733 0.00000000
1.35552186 0.05259794 -0.00449338 0.00000000
0.56416771 1.11917838 0.00138638 0.00000000
1.58659163 0.45191476 -0.00197825 0.00000000
3.81844331 1.39305628 -0.00101120 0.00000000
2.98522708 0.62168006 0.00282639 0.00000000
0.59354159 1.64507047 0.00331659 0.00000000
0.12223226 1.11306154 -0.00237392 0.00000000
3.87292521 1.84921972 -0.00123070 0.00000000
3.16308773 0.36686456 0.00137769 0.00000000
0.19862771 0.69988961 -0.00247826 0.00000000
2.72772490 0.44344173 0.00239696 0.00000000
0.80366373 0.69329283 -0.00221996 0.00000000
0.28410626 1.00214256 0.00491901 0.00000000
3.67134124 1.50164014 0.00288218 0.00000000
1.31898906 1.40806514 0.00487787 0.00000000
3.55621307 0.79836478 0.00467588 0.00000000
1.44820867 1.06794653 0.00124018 0.00000000
3.98450402 1.75144833 0.00097336 0.00000000
0.43187890 1.58563501 0.00136721 0.00000000
1.80624303 0.59631886 -0.00486835 0.00000000
2.58441653 1.20681796 0.00436909 0.00000000
1.16832640 0.15475887 0.00094936 0.00000000
0.39170125 1.42317724 -0.00230901 0.00000000
3.40757264 0.93590064 -0.00142454 0.00000000
2.22023004 1.63455480 -0.00012566 0.00000000
1.69284658 1.76766868 0.00133559 0.00000000
1.43817434 0.19802656 -0.00376803 0.00000000
0.97721233 0.06936787 0.00406552 0.00000000
0.89459215 0.35363935 -0.00023933 0.00000000
2.29703270 0.45677823 0.00038642 0.00000000
3.94473768 0.61414871 0.00282924 0.00000000
1.30352887 1.73289505 -0.00042477 0.00000000
0.97367563 0.78005323 0.00129340 0.00000000
0.25269606 0.30151118 0.00058801 0.00000000
1.93102911 0.71533389 -0.00159279 0.00000000
2.70033265 0.61128649 0.00373236 0.00000000
0.91338629 1.57613912 -0.00215723 0.00000000
3.08786124 1.35879198 -0.00632155 0.00000000
0.51033466 1.58368104 0.00052127 0.00000000
2.23667093 1.27014745 -0.00245525 0.00000000
0.91010169 1.37537688 -0.00103067 0.00000000
0.26687089 1.44282662 0.00123994 0.00000000
0.61184576 1.18544849 0.00117236 0.00000000
1.47860687 0.29600408 -0.00238808 0.00000000
1.60412508 0.87019793 -0.00209706 0.00000000
1.03156028 1.06176177 -0.00466540 0.00000000
3.16099725 1.09373804 -0.00002981 0.00000000
4.06763866 1.01522939 0.00353526 0.00000000
3.20902293 1.58806344 0.00123338 0.00000000
0.91501178 0.37738540 -0.00206654 0.00000000
2.08933892 1.27986424 0.00175687 0.00000000
2.81766774 1.65975447 -0.00192294 0.00000000
1.75724808 0.44130451 0.00007817 0.00000000
0.19544347 1.10409975 -0.00193992 0.00000000
0.21919440 1.29782567 0.00367781 0.00000000
0.40296628 0.40907546 0.00224102 0.00000000
2.69451536 0.56945223 0.00269662 0.00000000
0.38626256 0.21197818 -0.00238961 0.00000000
3.91531052 0.27698391 -0.00176723 0.00000000
0.01279111 1.61518553 -0.00033275 0.00000000
2.47831941 0.23644027 0.00210674 0.00000000
2.08589640 0.57260840 -0.00454589 0.00000000
3.24738540 1.02693543 0.00388478 0.00000000
3.96355472 0.01078037 -0.00201511 0.00000000
3.09524264 1.23680989 0.00001039 0.00000000
2.95178832 1.00758348 0.00474987 0.00000000
0.26984098 1.71369625 -0.00391876 0.00000000
2.46467549 0.25273828 0.00079115 0.00000000
1.41476346 0.70749721 -0.00094823 0.00000000
4.09099746 1.30717717 0.00148545 0.00000000
3.38958698 1.63752264 -0.00203451 0.00000000
0.30583596 0.32764244 -0.00111863 0.00000000
3.02810253 0.07998537 0.00304458 0.00000000
0.74786062 0.27268112 0.00329620 0.00000000
0.65049181 1.53875338 -0.00279511 0.00000000
2.75373110 0.84201267 -0.00344359 0.00000000
1.58790220 1.85512332 -0.00307879 0.00000000
1.93204566 0.16527707 -0.00013579 0.00000000
2.64007948 1.52226319 0.00055498 0.00000000
1.26735596 0.56188246 0.00043190 0.00000000
1.30960794 0.36603808 0.00088598 0.00000000
1.12193422 0.56054390 0.00010749 0.00000000
3.12039342 0.09225376 0.00072828 0.00000000
1.28291291 1.82096559 -0.00151594 0.00000000
1.20050191 0.66974160 -0.00758804 0.00000000
4.05817126 0.96067901 -0.00135386 0.00000000
1.99123899 0.65186926 0.00285720 0.00000000
1.16288119 1.82679831 -0.00314309 0.00000000
4.18281229 0.76575861 -0.00275381 0.00000000
2.63969350 0.81653567 0.00126489 0.00000000
1.08932124 0.11738180 -0.00178629 0.00000000
0.04835276 1.11620296 0.00132071 0.00000000
2.51549482 1.40929613 0.00343590 0.00000000
2.84239652 0.63177887 -0.00224455 0.00000000
0.45084839 0.92369309 -0.00133181 0.00000000
3.59055363 0.20471082 0.00190348 0.00000000
0.95073795 0.70593140 -0.00124413 0.00000000
3.02104906 0.01514528 0.00208682 0.00000000
1.52790544 0.51399820 0.00767110 0.00000000
1.25467584 0.69795724 0.00485684 0.00000000
0.75361845 1.09980475 -0.00151472 0.00000000
2.99206628 0.37260897 -0.00019494 0.00000000
0.30136059 0.18746123 -0.00322569 0.00000000
3.47511972 1.21978916 0.00218657 0.00000000
2.76445724 0.24972209 -0.00010319 0.00000000
2.77345126 0.37952505 -0.00017530 0.00000000
0.83426394 1.53732938 -0.00089308 0.00000000
3.23232575 0.15701013 0.00159727 0.00000000
3.16272020 0.78827715 -0.00276368 0.00000000
0.15162526 0.78249528 0.00041548 0.00000000
2.20907470 0.73417235 -0.00156830 0.00000000
4.17366388 1.76972075 -0.00104409 0.00000000
1.63827819 0.21573200 0.00495774 0.00000000
0.96038283 1.34020504 -0.00234695 0.00000000
1.20640379 0.66780062 -0.00084349 0.00000000
3.85710335 1.76075600 0.00597887 0.00000000
1.41747792 1.10329775 0.00025113 0.00000000
2.95234378 0.93989634 0.00161139 0.00000000
0.94024888 0.04025320 -0.00115652 0.00000000
0.72107346 0.37876753 0.00309585 0.00000000
3.35388863 1.58417822 -0.00217490 0.00000000
2.96747699 1.50996711 -0.00403224 0.00000000
0.90183364 0.16277151 -0.00227504 0.00000000
2.88183655 0.54719028 0.00305327 0.00000000
1.48433051 0.10119165 0.00288680 0.00000000
3.78748727 0.06734661 -0.00010162 0.00000000
2.58206344 0.06039268 -0.00443670 0.00000000
2.14442055 1.34598170 0.00206057 0.00000000
1.81784277 1.71590077 -0.00100992 0.00000000
3.09022018 0.25279327 -0.00100197 0.00000000
2.88290370 1.79024368 -0.00318841 0.00000000
1.18702722 0.12776349 -0.00179105 0.00000000
2.24120469 1.20214987 0.00067122 0.00000000
3.46702435 0.06394933 0.00128696 0.00000000
1.34217356 1.50181292 -0.00293820 0.00000000
1.20883270 0.94080054 0.00152563 0.00000000
2.46670519 1.03175277 0.00264252 0.00000000
3.64530959 0.08191613 0.00235716 0.00000000
0.80815882 1.40367490 -0.00141029 0.00000000
3.39830294 0.25507131 -0.00315510 0.00000000
3.70023210 1.27759266 -0.00298326 0.00000000
1.15270129 1.47443024 -0.00209558 0.00000000
1.91024105 1.05659247 0.00109594 0.00000000
1.81091123 1.78094493 0.00328435 0.00000000
0.56102529 1.31614283 -0.00021311 0.00000000
3.72195286 1.58000658 -0.00305640 0.00000000
2.12791187 0.93861720 -0.00546535 0.00000000
0.25320273 0.30922721 -0.00009379 0.00000000
3.14497386 1.09035598 -0.00252682 0.00000000
1.10537349 0.63355477 0.00139835 0.00000000
1.96778902 0.77315877 -0.00161709 0.00000000
1.90668163 0.49148026 0.00370361 0.00000000
1.35438514 1.04089421 0.00060966 0.00000000
1.23108864 1.84596884 -0.00287125 0.00000000
0.21967537 0.97735563 -0.00460126 0.00000000
3.15345303 1.74895085 -0.00031734 0.00000000
1.85395810 1.61019397 -0.00379413 0.00000000
1.59178291 1.52473971 0.00192848 0.00000000
2.35434228 0.87115987 -0.00155471 0.00000000
0.48296040 0.65324121 -0.00175050 0.00000000
0.36639747 0.66948746 -0.00366819 0.00000000
0.06190762 1.77360253 -0.00271999 0.00000000
0.51998081 0.51174088 -0.00072230 0.00000000
2.67467163 0.51732217 -0.00135795 0.00000000
0.84991788 1.00657971 -0.00349484 0.00000000
2.14481574 1.49554743 0.00466444 0.00000000
0.35300575 1.77508157 0.00275700 0.00000000
1.47530327 1.20407079 -0.00099099 0.00000000
0.51111787 1.46714436 -0.00094326 0.00000000
1.48629547 0.01128154 -0.00304954 0.00000000
0.64671791 0.61267148 0.00231949 0.00000000
1.27086944 1.13845340 0.00126699 0.00000000
2.96367408 0.94710643 0.00061083 0.00000000
2.77544333 1.68531150 -0.00237704 0.00000000
1.63068241 1.45725074 0.00600087 0.00000000
2.71015748 0.11065049 0.00121159 0.00000000
0.55861972 0.23952949 0.00024429 0.00000000
3.09694232 1.29826978 -0.00021193 0.00000000
0.35421912 1.35488672 0.00101212 0.00000000
2.08803057 1.13018984 0.00290637 0.00000000
1.83743095 1.21245768 0.00309128 0.00000000
3.38705478 0.90711786 -0.00248514 0.00000000
3.11089647 1.85154007 -0.00175710 0.00000000
1.81506783 0.31875635 0.00165430 0.00000000
0.28238435 1.51811841 -0.00052292 0.00000000
2.38968359 1.48384948 -0.00291654 0.00000000
2.84528399 0.95705103 0.00052621 0.00000000
2.15156126 0.04553517 -0.00344697 0.00000000
3.46615645 0.70255747 -0.00448377 0.00000000
2.63367906 1.67884021 -0.00030546 0.00000000
3.68224521 1.71348438 -0.00158055 0.00000000
3.25637045 0.88821692 -0.00174186 0.00000000
1.24039445 1.73490137 0.00154490 0.00000000
2.75621555 0.96515420 0.00277109 0.00000000
2.56068709 1.07534689 -0.00081099 0.00000000
2.51792530 0.51117170 0.00025505 0.00000000
0.21143077 0.79121804 -0.00056236 0.00000000
0.93773239 1.67275308 -0.00078863 0.00000000
2.76953249 0.51442310 0.00197160 0.00000000
0.25400578 1.28598781 0.00144029 0.00000000
2.24173424 0.40218801 -0.00488275 0.00000000
1.38249829 0.24569809 0.00309895 0.00000000
2.28236018 0.47599925 -0.00050802 0.00000000
3.36014474 0.91413857 -0.00189526 0.00000000
3.94357762 0.36707815 0.00126562 0.00000000
1.64519357 0.92398175 0.00069273 0.00000000
4.06657009 0.27845101 -0.00030247 0.00000000
1.61706734 1.59920413 -0.00219351 0.00000000
2.58381895 1.00934598 -0.00301522 0.00000000
3.43781109 0.59500650 -0.00798161 0.00000000
3.27871164 1.41266416 0.00171666 0.00000000
0.34028075 0.75709167 0.00692007 0.00000000
1.45207017 0.80292843 0.00063935 0.00000000
0.91760576 1.44335256 0.00256414 0.00000000
0.27141569 1.53167134 0.00362367 0.00000000
3.70936107 0.01884919 -0.00235266 0.00000000
3.19024540 1.50446308 -0.00043215 0.00000000
4.07193339 0.17164297 0.00097773 0.00000000
0.96140070 0.97862537 0.00446673 0.00000000
2.50205399 0.66141635 0.00257524 0.00000000
1.15942419 0.45261809 -0.00159456 0.00000000
0.99355754 1.71939629 -0.00049494 0.00000000
3.23211450 0.94777225 -0.00195544 0.00000000
3.73209596 0.76036446 0.00262153 0.00000000
2.42469468 0.00271800 0.00021771 0.00000000
3.87923025 1.68072156 -0.00172020 0.00000000
3.87751649 0.50670601 -0.00592620 0.00000000
0.70060717 0.01489916 0.00230524 0.00000000
0.84061793 1.82036227 -0.00122493 0.00000000
3.85278115 1.89933089 0.00303854 0.00000000
3.30887802 0.77955129 0.00583828 0.00000000
3.88072616 0.13043692 0.00024865 0.00000000
0.40889679 0.64054949 -0.00549380 0.00000000
2.43286505 1.46352197 -0.00007791 0.00000000
1.70729838 1.25792331 0.00210559 0.00000000
1.16682515 0.01416011 0.00303515 0.00000000
2.60916324 0.35447926 -0.00269867 0.00000000
4.03014255 0.84024794 -0.00083277 0.00000000
0.23728205 0.04718055 0.00077310 0.00000000
1.93154821 1.18174713 0.00251257 0.00000000
4.11616807 1.06444160 -0.00105391 0.00000000
2.56560349 1.23254867 0.00065855 0.00000000
1.21526796 0.45530868 -0.00006538 0.00000000
0.63176610 0.54936916 -0.00041280 0.00000000
1.70270325 1.19724088 0.00028721 0.00000000
4.03176309 1.13726166 -0.00017707 0.00000000
0.80461505 0.46024969 0.00315049 0.00000000
1.13409754 0.48281957 -0.00626739 0.00000000
1.27423453 0.09475883 -0.00021271 0.00000000
3.19201323 1.77904134 0.00187028 0.00000000
0.23655975 1.45383066 -0.00061247 0.00000000
2.33310124 0.31877965 -0.00308414 0.00000000
3.34558365 0.63522730 0.00044454 0.00000000
0.03493046 0.27354320 -0.00255634 0.00000000
2.48613924 1.43135523 0.00063831 0.00000000
0.84106546 0.59551437 -0.00311407 0.00000000
0.37216803 1.28604006 -0.00057362 0.00000000
3.80182930 1.28668458 0.00002430 0.00000000
2.69219486 0.19851626 0.00118978 0.00000000
0.85760518 0.82565999 0.00019226 0.00000000
2.00242717 0.87057461 0.00240557 0.00000000
2.36016958 1.58637180 0.00154786 0.00000000
0.82980833 0.05005546 0.00060805 0.00000000
0.65004089 1.54177836 0.00087429 0.00000000
1.42707458 1.52071101 -0.00209021 0.00000000
2.66239312 0.07900187 -0.00055871 0.00000000
4.06737104 0.70815599 -0.00108336 0.00000000
4.08777332 1.03565808 -0.00265679 0.00000000
2.04975358 0.16060285 0.00052408 0.00000000
1.68919621 1.06497762 -0.00155233 0.00000000
3.08892771 0.06015840 0.00441375 0.00000000
1.56713579 0.78762713 0.00321368 0.00000000
3.75394865 1.37271725 -0.00097806 0.00000000
3.06080074 0.23647150 0.00223720 0.00000000
0.82754633 0.58499988 -0.00038898 0.00000000
2.44587794 0.24279193 -0.00235429 0.00000000
1.38393606 0.90408138 -0.00427741 0.00000000
2.25134385 0.08585145 0.00227049 0.00000000
1.81078164 1.60346303 0.00199284 0.00000000
1.06012872 1.84810677 0.00069509 0.00000000
3.82856067 0.05807825 -0.00199252 0.00000000
0.31488703 0.89940054 -0.00291645 0.00000000
3.54510730 1.54129856 0.00214622 0.00000000
0.36763046 0.40152305 0.00398073 0.00000000
2.09232983 0.56546717 -0.00030963 0.00000000
3.87195669 1.14939571 0.00054869 0.00000000
2.61251167 1.39379814 0.00070780 0.00000000
1.34569136 1.87786363 -0.00139510 0.00000000
2.35745209 0.54762119 -0.00033678 0.00000000
0.97204776 1.15018134 0.00291097 0.00000000
3.78037338 1.62788296 -0.00349584 0.00000000
1.28135541 0.57520768 -0.00039392 0.00000000
0.69555300 1.75200412 -0.00215874 0.00000000
1.73523053 0.36842358 -0.00292199 0.00000000
0.03080386 1.71566719 0.00000035 0.00000000
0.35570182 0.04119660 -0.00057862 0.00000000
2.56133316 1.52885034 0.00065330 0.00000000
1.19409686 1.78043228 -0.00009424 0.00000000
2.91821927 1.80727162 0.00258827 0.00000000
2.17510155 0.80866021 0.00318143 0.00000000
2.72690771 1.25619315 0.00084464 0.00000000
4.08736421 0.84821185 -0.00084753 0.00000000
1.52110238 1.79364787 -0.00487164 0.00000000
2.85437875 1.44368139 -0.00010464 0.00000000
3.09406608 0.32582222 -0.00229602 0.00000000
0.96113527 1.08350277 0.00229814 0.00000000
0.85371963 1.30379522 0.00135529 0.00000000
0.76361225 0.61901445 0.00406430 0.00000000
3.66936021 0.10531376 -0.00076978 0.00000000
3.27171033 1.66067700 0.00132510 0.00000000
2.70725435 0.28343990 -0.00187190 0.00000000
0.18068700 1.74619510 -0.00177734 0.00000000
3.15331083 1.50876825 0.00070839 0.00000000
2.67368059 1.79751465 0.00067551 0.00000000
1.66872494 0.31383705 -0.00181887 0.00000000
4.11096896 0.04073678 0.00112921 0.00000000
1.81673500 1.60032616 0.00082955 0.00000000
1.36995467 0.96453983 0.00237093 0.00000000
2.39497265 0.34729282 -0.00318639 0.00000000
2.14929305 0.96410250 -0.00120295 0.00000000
0.35935426 0.97931289 -0.00545668 0.00000000
3.28608671 0.31198358 -0.00236925 0.00000000
0.11446309 0.24589004 -0.00428660 0.00000000
1.54346848 1.12648352 -0.00223821 0.00000000
1.93956340 1.62401588 -0.00053042 0.00000000
3.77980606 0.86407959 0.00272239 0.00000000
3.04763890 0.40814060 -0.00156048 0.00000000
2.67436396 0.80383385 0.00009319 0.00000000
0.34526448 1.68802469 0.00065618 0.00000000
1.47963798 1.58481426 -0.00561365 0.00000000
0.98041402 0.04404897 -0.00338035 0.00000000
0.21165148 1.48873689 0.00102541 0.00000000
2.42881681 0.82667957 0.00115992 0.00000000
2.92966716 1.79643161 -0.00022030 0.00000000
2.72155617 1.73876970 -0.00392691 0.00000000
0.28098086 0.17988759 -0.00189604 0.00000000
3.55139253 0.75097004 0.00184009 0.00000000
0.77962299 1.14785631 -0.00386500 0.00000000
2.69965878 0.85364669 0.00386907 0.00000000
2.26228373 0.50045077 0.00267994 0.00000000
2.80646133 1.26946201 0.00132324 0.00000000
3.75984796 0.72093386 0.00313728 0.00000000
4.00147272 1.54344907 -0.00240454 0.00000000
0.85588329 1.06169214 0.00317781 0.00000000
0.38739775 1.75993340 0.00017103 0.00000000
2.68750539 1.76815641 -0.00083608 0.00000000
2.84355612 1.80457568 0.00029784 0.00000000
1.93558653 0.79057088 0.00076436 0.00000000
1.63139110 0.39367374 0.00093317 0.00000000
2.26198497 1.77768300 0.00181124 0.00000000
1.84867353 0.14048393 -0.00036003 0.00000000
2.41928578 1.75898549 -0.00027409 0.00000000
2.25771953 0.52973476 -0.00235407 0.00000000
2.64961153 1.65482133 0.00038573 0.00000000
2.48054658 0.76350871 -0.00080816 0.00000000
1.05352620 0.68589333 -0.00266237 0.00000000
1.68023344 1.86846479 -0.00003888 0.00000000
1.53422509 0.58889173 -0.00057044 0.00000000
0.99389577 1.37807237 -0.00108323 0.00000000
1.53408444 0.98573557 -0.00009775 0.00000000
1.97139390 1.40240485 0.00204296 0.00000000
0.82549018 0.14449181 -0.00233838 0.00000000
2.90589017 1.67454575 0.00072885 0.00000000
2.24482909 1.65371886 -0.00020360 0.00000000
0.47988453 0.49200905 -0.00004064 0.00000000
3.45758286 0.48094391 0.00601418 0.00000000
2.71839093 1.54271125 0.00014846 0.00000000
0.29514790 0.37087955 -0.00421994 0.00000000
3.38439008 1.16859493 -0.00011234 0.00000000
3.69238282 0.09438074 0.00189245 0.00000000
3.80187312 1.67658538 -0.00110773 0.00000000
1.72315650 1.60000721 0.00132855 0.00000000
3.03631013 0.97211510 -0.00181768 0.00000000
0.52563768 1.41972419 -0.00049377 0.00000000
4.18009910 0.89780608 0.00159608 0.00000000
1.33486191 0.41662878 0.00013096 0.00000000
1.93467717 0.98162801 0.00085572 0.00000000
1.04922073 1.45865833 -0.00181617 0.00000000
2.89346485 0.66180390 0.00270980 0.00000000
2.70882974 0.20636534 -0.00273884 0.00000000
0.86018484 0.15709614 -0.00108986 0.00000000
3.29722160 1.02787941 -0.00300521 0.00000000
0.78305774 1.63865400 0.00267618 0.00000000
4.02599227 1.45984139 0.00439296 0.00000000
1.21821329 1.05602805 -0.00049501 0.00000000
2.79875302 1.01602939 0.00235439 0.00000000
3.49759732 0.68157611 -0.00193779 0.00000000
2.48404568 1.30540672 -0.00281846 0.00000000
3.47630037 0.51709520 0.00000895 0.00000000
2.91843787 1.19172503 0.00104524 0.00000000
1.49395512 0.30979122 -0.00299210 0.00000000
2.26805158 1.20374469 -0.00191944 0.00000000
4.07889512 0.82522652 -0.00133940 0.00000000
3.00934624 1.31790555 -0.00337008 0.00000000
2.40263450 1.62479263 -0.00111379 0.00000000
1.27368152 1.07532378 0.00286860 0.00000000
1.69218133 1.74627878 0.00553585 0.00000000
1.84739006 0.75529959 0.00057839 0.00000000
3.72223362 0.88891559 -0.00207734 0.00000000
3.81676523 0.47369315 -0.00071286 0.00000000
2.13850757 0.17973988 0.00260190 0.00000000
2.53699345 0.29334890 0.00053434 0.00000000
3.57120302 1.28302168 -0.00104295 0.00000000
0.50472033 0.76922692 -0.00067738 0.00000000
2.49857456 0.34139208 -0.00060499 0.00000000
3.30351342 0.56379071 0.00199522 0.00000000
4.12788118 0.51502809 0.00101349 0.00000000
1.02372504 0.71311078 -0.00120775 0.00000000
1.47325693 1.39720896 -0.00262462 0.00000000
2.52326739 0.15425244 -0.00122159 0.00000000
3.32294380 1.66312991 -0.00094125 0.00000000
4.09131719 0.01327929 -0.00124180 0.00000000
3.48444110 1.51813496 -0.00078461 0.00000000
2.18698098 0.12785533 -0.00221346 0.00000000
3.34479474 1.82616046 0.00165447 0.00000000
1.45634015 0.15652857 -0.00044817 0.00000000
3.63748185 0.28561262 -0.00231825 0.00000000
3.91682726 0.94420679 -0.00102087 0.00000000
3.77615484 1.39442444 -0.00024912 0.00000000
1.71365329 1.79741571 0.00425219 0.00000000
2.93752845 1.86211908 0.00548473 0.00000000
2.33932275 1.67917597 0.00097817 0.00000000
2.77737240 1.22164175 0.00130870 0.00000000
3.07389911 0.91893206 0.00608659 0.00000000
2.44613007 0.69011948 0.00296044 0.00000000
3.29463319 0.68276649 -0.00289287 0.00000000
0.77352067 1.71989225 -0.00035293 0.00000000
0.28072682 0.55134975 -0.00123206 0.00000000
2.91473563 0.09359327 0.00304975 0.00000000
2.57250071 1.24816592 -0.00805669 0.00000000
1.46875340 1.43848214 0.00052075 0.00000000
2.16007692 0.00416424 0.00008933 0.00000000
2.09804706 0.92275525 0.00022829 0.00000000
1.82645368 1.68994706 -0.00172921 0.00000000
4.15168952 1.09161232 -0.00568204 0.00000000
2.90831541 0.66627470 0.00310253 0.00000000
0.87121245 0.61272115 0.00232710 0.00000000
4.11183160 0.52484602 0.00042287 0.00000000
1.06814958 1.80045288 0.00149038 0.00000000
0.51484958 1.30158679 -0.00054620 0.00000000
2.45730775 0.73354754 0.00143552 0.00000000
0.25474949 1.52401875 0.00244467 0.00000000
2.58047695 1.12588407 0.00557426 0.00000000
0.63760081 1.87079556 0.00482760 0.00000000
2.27991257 1.24971082 -0.00301612 0.00000000
2.35890387 0.61396894 -0.00524591 0.00000000
3.48660058 1.32025921 -0.00343608 0.00000000
2.83432774 0.46760530 -0.00285645 0.00000000
1.34025069 1.01057820 0.00011541 0.00000000
0.49449504 1.14439727 0.00182569 0.00000000
2.12738145 0.67832032 -0.00147877 0.00000000
1.69199495 1.61393231 -0.00265023 0.00000000
1.04086853 1.83332172 0.00166787 0.00000000
1.66093437 0.54636927 -0.00037985 0.00000000
3.42933679 1.68980222 0.00132809 0.00000000
1.15903312 0.32366218 0.00204814 0.00000000
2.99794350 1.16234086 -0.00028446 0.00000000
2.56735851 0.15110468 0.00099386 0.00000000
2.91654861 0.53370529 0.00358994 0.00000000
1.20369732 1.06677379 -0.00160521 0.00000000
3.38551148 1.08060911 0.00204309 0.00000000
3.69800028 1.42705675 -0.00287811 0.00000000
4.13598693 0.99969051 0.00078616 0.00000000
0.94561000 0.61097813 -0.00007467 0.00000000
0.77949638 0.36655741 0.00074413 0.00000000
4.16362783 1.87356236 0.00539676 0.00000000
1.14869351 1.33471095 -0.00131315 0.00000000
4.03687129 1.36179495 -0.00185634 0.00000000
3.83654275 1.36612995 -0.00789436 0.00000000
1.74900517 1.63291263 0.00158365 0.00000000
3.08681655 0.99946687 0.00029015 0.00000000
0.45601330 0.83563820 0.00118343 0.00000000
2.62604205 0.62834404 0.00194482 0.00000000
0.44113969 1.77663101 -0.00079624 0.00000000
0.80251282 0.55454778 -0.00124633 0.00000000
0.77212192 0.76243437 0.00215642 0.00000000
1.49183709 0.66202853 -0.00228461 0.00000000
0.37561397 0.54467781 -0.00323774 0.00000000
0.77273280 0.54520133 -0.00065577 0.00000000
1.05040638 1.61521974 0.00119225 0.00000000
2.32201947 0.69933184 0.00203705 0.00000000
1.33328818 1.83059309 0.00021357 0.00000000
1.44438145 0.22685971 -0.00094628 0.00000000
3.07023271 0.12587090 0.00174839 0.00000000
0.54942457 0.63493247 -0.00424963 0.00000000
2.56583342 1.70821042 0.00088005 0.00000000
3.77711069 0.14401000 -0.00153073 0.00000000
0.91241606 1.41420853 -0.00350237 0.00000000
2.77402521 0.58688795 -0.00038634 0.00000000
0.08423332 1.53773957 0.00275530 0.00000000
0.82075245 1.17461485 -0.00134006 0.00000000
0.02746623 0.99033972 -0.00115356 0.00000000
2.72066252 1.80530500 -0.00105283 0.00000000
3.46567394 1.43293349 0.00493788 0.00000000
1.51413452 1.75042367 0.00130958 0.00000000
2.34268618 1.21376757 0.00307178 0.00000000
4.05637914 1.28313769 -0.00292187 0.00000000
3.41712118 0.58609281 -0.00047705 0.00000000
1.91672879 0.05236207 -0.00598785 0.00000000
2.97500147 0.92155663 -0.00141311 0.00000000
3.18914801 1.44266028 -0.00493064 0.00000000
2.55086774 1.00299044 -0.00434873 0.00000000
0.19691728 1.16979072 0.00568391 0.00000000
3.07923446 1.81694044 -0.00313038 0.00000000
0.51228341 0.78711048 -0.00115409 0.00000000
1.35971894 0.54739059 0.00403411 0.00000000
0.34141793 0.82890895 0.00106701 0.00000000
1.18960748 0.01054145 -0.00737765 0.00000000
0.07655862 1.53006549 0.00173971 0.00000000
1.44160534 0.58689864 0.00191376 0.00000000
1.88894820 0.67913896 -0.00313023 0.00000000
3.01864125 1.17430099 0.00260935 0.00000000
2.47860150 1.28592490 -0.00547218 0.00000000
0.08298764 0.75231120 0.00542723 0.00000000
3.17464645 1.30030349 0.00428354 0.00000000
0.75210572 0.41480181 0.00087993 0.00000000
1.68204419 1.78102611 0.00255038 0.00000000
4.09190783 0.50907176 -0.00046277 0.00000000
1.85030664 0.82905624 -0.00109347 0.00000000
3.23961269 1.15152648 0.00490139 0.00000000
2.39478466 1.54450414 -0.00229976 0.00000000
0.74094521 0.98610294 0.00359052 0.00000000
3.54813136 0.87680695 0.00417537 0.00000000
3.60250709 1.59015480 0.00426316 0.00000000
2.89693131 0.11883546 -0.00350972 0.00000000
2.29509734 1.71468217 -0.00057377 0.00000000
1.96284467 0.93857135 0.00010648 0.00000000
2.43156308 1.63396127 0.00057427 0.00000000
1.46327717 1.52167937 0.00030955 0.00000000
0.94608519 0.03887651 -0.00357161 0.00000000
1.22437684 0.47846970 -0.00100820 0.00000000
0.45049666 0.06815772 -0.00181752 0.00000000
0.28800062 1.60226956 0.00238578 0.00000000
0.60292023 0.85323951 -0.00649479 0.00000000
4.14626343 0.63317092 0.00350621 0.00000000
1.83946276 0.56241008 -0.00010070 0.00000000
1.40094731 1.77075217 -0.00491369 0.00000000
0.08780443 1.74138112 -0.00236492 0.00000000
0.71322635 1.04443276 0.00409259 0.00000000
1.63247557 1.83651014 0.00155458 0.00000000
3.07607872 1.65898273 0.00157319 0.00000000
1.73547498 1.34600829 0.00259188 0.00000000
2.16401979 0.05264803 0.00145605 0.00000000
0.82260020 0.52484832 0.00232575 0.00000000
3.65605039 0.35779029 0.00059806 0.00000000
0.70825963 1.09489659 -0.00220396 0.00000000
0.33009753 0.84286220 0.00170301 0.00000000
1.91198354 1.72376685 0.00256374 0.00000000
3.98909599 0.09914483 0.00110258 0.00000000
1.48717762 0.16406382 -0.00105994 0.00000000
1.49663098 0.11871456 -0.00063348 0.00000000
2.46347203 1.54164608 0.00290173 0.00000000
3.24034078 1.48237238 -0.00208069 0.00000000
0.03641699 0.55966093 -0.00121213 0.00000000
3.60854122 1.32498639 0.00248638 0.00000000
0.86824785 0.26321459 0.00195914 0.00000000
3.40239390 0.78587970 0.00243220 0.00000000
2.70920871 0.59054250 0.00226795 0.00000000
3.09779287 1.38308651 -0.00292182 0.00000000
1.32579225 0.05425849 0.00178881 0.00000000
1.26114712 1.27040353 -0.00124135 0.00000000
0.91837160 0.28221922 0.00386010 0.00000000
2.25856458 0.19281869 -0.00099898 0.00000000
2.56159699 0.90132403 0.00091208 0.00000000
1.55900429 1.16446496 0.00064017 0.00000000
1.08048143 0.89803919 -0.00103505 0.00000000
0.87768969 1.69864594 0.00262982 0.00000000
3.98632758 0.73366119 0.00347277 0.00000000
0.07589778 0.03963939 0.00163545 0.00000000
3.97451169 0.96379781 0.00220429 0.00000000
2.60627973 1.65767276 -0.00577635 0.00000000
2.22274177 0.65764094 0.00057960 0.00000000
2.07818214 1.63172009 0.00070214 0.00000000
3.42814766 0.53887613 -0.00049167 0.00000000
0.06980792 1.18979361 0.00171645 0.00000000
3.84945882 1.67181131 0.00233087 0.00000000
2.42116894 1.79582057 0.00140523 0.00000000
1.48309800 0.01664012 -0.00193149 0.00000000
3.74359173 1.76734884 -0.00133695 0.00000000
1.74826922 0.62339631 -0.00228572 0.00000000
3.18960691 1.36322445 0.00033455 0.00000000
2.93573358 1.60204976 0.00009633 0.00000000
1.77455545 0.67483883 0.00411024 0.00000000
0.43393722 0.83673491 -0.00003877 0.00000000
3.50707056 0.04453538 -0.00378621 0.00000000
0.66929056 1.36029494 0.00317004 0.00000000
3.06675123 0.48613901 -0.00570171 0.00000000
0.36808538 0.42568523 -0.00157641 0.00000000
0.52105600 1.70914799 0.00063214 0.00000000
0.98802207 1.42507688 -0.00218744 0.00000000
0.31665283 1.72278994 0.00478625 0.00000000
1.38688155 1.17863754 -0.00189880 0.00000000
2.74355585 1.23225274 0.00199725 0.00000000
1.36553478 1.76766472 -0.00243197 0.00000000
3.23577248 0.61253971 0.00041457 0.00000000
0.21250457 1.51513547 -0.00235543 0.00000000
1.80128322 0.07788145 -0.00453847 0.00000000
2.05240259 1.66874493 -0.00255166 0.00000000
3.64903701 0.50098664 0.00256190 0.00000000
0.50970896 1.22133228 -0.00371966 0.00000000
1.87131960 1.40268315 -0.00000966 0.00000000
1.47226715 0.23425914 0.00017327 0.00000000
1.88264536 1.68341312 0.00076673 0.00000000
1.72630280 0.25669129 -0.00173141 0.00000000
3.73547762 1.73435196 -0.00110859 0.00000000
2.75295172 1.53403538 -0.00139358 0.00000000
1.19582150 0.70211962 -0.00390434 0.00000000
3.04138115 1.04938911 0.00044161 0.00000000
3.88405721 0.66840137 0.00039389 0.00000000
2.83920869 0.15884574 -0.00067053 0.00000000
0.63013441 0.01471599 -0.00432313 0.00000000
3.38052509 0.29322676 0.00091861 0.00000000
0.88718310 0.76991105 -0.00426104 0.00000000
2.80547842 1.37217763 -0.00082051 0.00000000
3.82392130 0.84832674 -0.00467974 0.00000000
0.36222818 1.89281147 0.00024845 0.00000000
4.11516463 0.59819076 0.00185144 0.00000000
1.22349831 0.18988982 0.00415426 0.00000000
2.04728418 0.78963423 -0.00408517 0.00000000
3.93616995 1.02150726 -0.00125460 0.00000000
3.84337385 0.95197159 -0.00022911 0.00000000
3.65857943 1.37238390 -0.00098001 0.00000000
2.24227871 1.14095072 -0.00178857 0.00000000
2.21655014 1.39328392 -0.00106657 0.00000000
3.16078319 1.54245027 0.00131772 0.00000000
1.79769526 0.74917347 -0.00033159 0.00000000
3.29926086 1.77725255 0.00143867 0.00000000
1.75339401 0.58099917 0.00050293 0.00000000
2.99711122 1.42559418 -0.00137673 0.00000000
1.19095219 1.80486310 -0.00178299 0.00000000
0.86019988 1.41185704 -0.00397558 0.00000000
1.21136078 1.57107116 -0.00546306 0.00000000
2.96295342 1.49530240 0.00161376 0.00000000
0.37385137 1.63517856 0.00576473 0.00000000
4.03862569 1.48059339 -0.00159245 0.00000000
3.44502251 0.23429933 0.00071637 0.00000000
0.12536431 0.31163254 0.00118347 0.00000000
1.02071390 0.58711104 -0.00028981 0.00000000
1.44431045 0.70149589 -0.00173503 0.00000000
2.71753734 1.70069669 -0.00103301 0.00000000
0.24622256 1.88062909 -0.00050859 0.00000000
1.72725777 1.11198208 -0.00341829 0.00000000
0.16133390 1.84280618 -0.00198307 0.00000000
3.31889291 1.19170861 0.00171371 0.00000000
1.59162828 1.39365546 0.00054111 0.00000000
2.05918776 0.08974536 0.00047502 0.00000000
3.20982859 1.63110072 0.00150294 0.00000000
0.97753024 1.53335951 0.00199199 0.00000000
0.22193432 0.59787043 -0.00147219 0.00000000
3.47076054 0.48325479 0.00049282 0.00000000
4.07340190 1.76750265 -0.00215840 0.00000000
3.48955496 0.45390963 0.00150640 0.00000000
3.96432753 1.75598650 0.00565941 0.00000000
0.86915068 0.79420155 0.00163869 0.00000000
0.27835505 0.37403125 -0.00093462 0.00000000
0.40662081 1.65899474 -0.00019879 0.00000000
4.01892783 1.53662183 -0.00019716 0.00000000
2.35908530 0.49779234 0.00059906 0.00000000
4.12093260 0.12395587 -0.00162463 0.00000000
0.13357455 0.65027944 -0.00093040 0.00000000
2.10995396 0.03664898 -0.00231173 0.00000000
4.12754101 1.59273963 -0.00176316 0.00000000
0.57938356 1.44173564 0.00185455 0.00000000
3.24552849 1.88396424 0.00333218 0.00000000
3.92301204 1.75583918 0.00072597 0.00000000
1.82532939 0.94387950 0.00179909 0.00000000
0.60782703 0.55135884 -0.00113357 0.00000000
3.01902479 1.74308855 0.00107247 0.00000000
3.85294199 0.73064919 -0.00177196 0.00000000
1.49918657 0.27246673 0.00010838 0.00000000
3.85008713 1.83508344 0.00216865 0.00000000
0.96485544 1.65112643 0.00171448 0.00000000
1.18237073 0.62028988 -0.00216924 0.00000000
0.67869011 1.32620692 -0.00500476 0.00000000
1.08784101 1.18257782 -0.00301737 0.00000000
0.08494607 1.88331408 0.00426364 0.00000000
1.51776109 0.55666772 0.00128694 0.00000000
2.43210889 0.24727422 0.00333928 0.00000000
2.05864992 0.22667296 -0.00085133 0.00000000
3.50601553 1.33682967 -0.00154958 0.00000000
2.64338354 1.05884411 0.00245403 0.00000000
1.88667832 0.94618214 -0.00035607 0.00000000
1.19800057 1.61090814 -0.00406219 0.00000000
0.22507298 0.19001922 -0.00373980 0.00000000
4.15287008 0.25599357 0.00009845 0.00000000
0.94041649 1.86598889 0.00354378 0.00000000
2.41055790 0.74021332 0.00338357 0.00000000
0.82492440 0.48777069 -0.00359850 0.00000000
3.19119639 1.79411853 0.00196886 0.00000000
4.00417294 0.63502644 -0.00060571 0.00000000
1.34292342 0.73480249 -0.00112944 0.00000000
0.63196278 0.82383321 0.00110442 0.00000000
2.05753609 1.17006088 -0.00544940 0.00000000
3.64499746 0.12019280 0.00090031 0.00000000
1.57887357 0.56559230 0.00027418 0.00000000
1.02918549 1.77670443 -0.00056815 0.00000000
1.96199046 0.83419166 -0.00086152 0.00000000
2.14871148 0.02887401 -0.00387402 0.00000000
2.75674391 0.93135775 0.00203965 0.00000000
2.92291826 0.27242651 -0.00314587 0.00000000
3.03204306 0.89150846 -0.00096962 0.00000000
2.67623291 0.14075209 -0.00293255 0.00000000
0.93356709 0.96365590 0.00134557 0.00000000
2.50297621 0.14008509 0.00307794 0.00000000
3.98678399 0.47178814 0.00316862 0.00000000
3.60198369 0.86808569 -0.00005684 0.00000000
3.66310754 0.81606428 -0.00283587 0.00000000
0.39361206 0.06999640 0.00155288 0.00000000
3.69529625 1.21758224 0.00245348 0.00000000
3.55493825 0.85530146 -0.00185471 0.00000000
3.63599920 0.93307027 0.00212509 0.00000000
1.43619339 1.21609696 -0.00138507 0.00000000
2.97849518 0.41188801 0.00155739 0.00000000
2.49774117 0.57392804 -0.00453014 0.00000000
2.74521182 1.27109155 -0.00240007 0.00000000
0.08104971 1.44953455 -0.00066337 0.00000000
1.93773676 1.33850723 0.00004369 0.00000000
0.24386006 1.19758625 -0.00036888 0.00000000
0.30706205 0.00095985 0.00202774 0.00000000
1.20336274 0.87009116 0.00086524 0.00000000
3.62664141 1.46879277 -0.00161766 0.00000000
2.39568578 0.46415725 -0.00458941 0.00000000
0.31136762 0.60235347 -0.00555298 0.00000000
2.31805063 0.17581602 0.00469854 0.00000000
2.10144546 0.45383563 0.00073175 0.00000000
1.75806744 0.77598696 -0.00463868 0.00000000
0.14142348 1.78915634 0.00174376 0.00000000
2.04659387 1.55550181 -0.00080492 0.00000000
3.29272269 0.58403131 -0.00594572 0.00000000
1.13970643 1.32561297 0.00426605 0.00000000
2.61429282 0.74953328 0.00141508 0.00000000
2.62267074 1.66875604 0.00025667 0.00000000
2.40382456 0.46213521 0.00169149 0.00000000
3.95909213 0.97306413 0.00243992 0.00000000
1.48472325 0.78792872 -0.00005897 0.00000000
1.97936472 0.85456963 0.00044808 0.00000000
