4.227505 0.620432 0.000914 0.0
1.600828 0.888421 0.003328 0.0
1.710117 0.305273 0.001174 0.0
3.389423 0.420113 -0.003743 0.0
0.139945 0.040862 -0.003812 0.0
0.890914 0.995654 0.000982 0.0
0.300102 0.814247 0.001934 0.0
2.180474 1.460492 0.003950 0.0
4.627856 0.288003 -0.001454 0.0
2.141908 1.260101 0.002100 0.0
2.708311 0.553157 0.000830 0.0
4.457395 0.525291 0.002229 0.0
1.772149 1.594773 -0.002101 0.0
3.643203 1.185439 -0.000907 0.0
0.522116 0.486125 -0.001507 0.0
4.213028 0.706228 0.000780 0.0
2.934595 0.350926 0.003114 0.0
3.605987 0.546975 -0.002154 0.0
1.543342 1.155444 -0.003141 0.0
2.998539 1.420234 -0.001661 0.0
0.089428 1.130854 0.003727 0.0
3.006651 1.659888 0.005501 0.0
2.324400 0.488796 -0.000391 0.0
0.278882 0.893365 -0.000207 0.0
1.691460 0.693270 -0.002209 0.0
0.929342 1.579542 0.002509 0.0
2.891886 0.396748 0.000322 0.0
2.332953 0.056781 -0.001766 0.0
0.505522 0.009346 0.003820 0.0
3.039227 0.563733 0.000747 0.0
1.072618 1.435917 -0.001410 0.0
3.037783 0.620542 0.002131 0.0
3.032688 1.359550 0.003164 0.0
0.549632 0.972766 -0.000480 0.0
0.590519 1.283652 0.001778 0.0
4.625826 1.081304 -0.002075 0.0
4.828309 0.598953 -0.001270 0.0
1.984704 1.140228 -0.004867 0.0
1.777203 0.093766 0.004773 0.0
0.086009 0.942946 -0.002199 0.0
1.150453 0.652919 -0.000566 0.0
2.316504 0.716655 0.001935 0.0
0.260334 0.591459 -0.002214 0.0
4.545942 0.967935 0.001343 0.0
0.116294 1.568399 -0.000782 0.0
2.554558 1.207146 -0.003335 0.0
2.798887 1.133066 0.001310 0.0
1.370091 1.187437 0.003718 0.0
0.071214 0.292334 0.002068 0.0
2.961153 0.282142 -0.001009 0.0
3.147383 1.220507 -0.003474 0.0
0.403861 1.577723 -0.004666 0.0
0.470025 0.294784 0.001203 0.0
4.771239 0.245259 0.002155 0.0
0.734062 1.675007 0.005411 0.0
4.588734 1.159054 -0.000648 0.0
0.155809 1.324919 -0.000991 0.0
3.088615 0.038839 0.001725 0.0
4.730871 0.794254 0.000083 0.0
3.917074 0.043842 -0.004039 0.0
2.241057 1.193482 -0.000461 0.0
4.826133 0.567329 0.001593 0.0
4.603058 0.887767 0.003201 0.0
1.491921 1.445942 -0.003592 0.0
3.087601 0.432685 -0.001091 0.0
2.342007 0.119320 0.002748 0.0
0.245137 1.096401 0.002247 0.0
2.100252 1.093282 0.000220 0.0
0.372071 1.317538 -0.000768 0.0
3.236490 0.930943 -0.000471 0.0
1.603392 1.068193 0.000908 0.0
2.033231 0.025347 -0.000414 0.0
0.203276 1.222191 0.002892 0.0
3.451557 0.030394 0.005078 0.0
1.469935 0.104949 -0.001776 0.0
3.273857 0.413618 0.000524 0.0
1.341060 0.243369 0.002026 0.0
3.047110 0.914468 0.000873 0.0
1.159154 0.306764 0.002630 0.0
2.382343 1.575009 -0.000032 0.0
0.631634 0.340549 -0.002659 0.0
3.972882 0.641013 -0.000947 0.0
1.752210 0.422401 0.003098 0.0
0.785362 0.731239 0.002036 0.0
2.403380 1.014670 0.002026 0.0
4.739901 0.476014 -0.001401 0.0
1.361999 0.541895 0.001873 0.0
4.709820 0.113336 0.002274 0.0
2.774330 1.163302 0.001237 0.0
2.808361 0.202757 -0.001628 0.0
2.115342 0.736833 0.000440 0.0
2.870113 0.161861 -0.000623 0.0
3.580090 1.021407 0.000753 0.0
3.637431 1.327890 0.001309 0.0
1.433076 0.111405 -0.000499 0.0
0.502272 1.256034 -0.000312 0.0
4.064847 0.066978 0.005805 0.0
2.613049 0.084469 -0.003713 0.0
1.233877 0.972986 0.002905 0.0
0.691753 1.358283 -0.003313 0.0
1.899081 0.452214 0.003411 0.0
1.380198 1.417518 0.000165 0.0
4.119828 0.161248 -0.001009 0.0
4.430382 1.545175 0.000242 0.0
3.137833 0.695876 -0.002364 0.0
4.477583 0.505049 -0.000790 0.0
3.929500 0.620053 -0.000199 0.0
2.945228 0.645878 -0.002816 0.0
4.008218 0.059013 -0.002481 0.0
2.460578 0.979816 0.000133 0.0
3.423622 1.661013 -0.004592 0.0
4.161580 0.052072 -0.000454 0.0
4.029595 1.574481 -0.001704 0.0
0.874908 0.282737 0.001184 0.0
3.324710 0.638378 0.000081 0.0
1.027894 1.358121 -0.003051 0.0
1.262358 0.865892 0.002858 0.0
0.709368 1.122317 0.003379 0.0
4.214289 0.604720 0.002627 0.0
4.478807 1.676020 -0.001124 0.0
2.024289 0.340634 0.001049 0.0
3.908565 0.666151 0.000035 0.0
3.547120 0.101907 -0.001652 0.0
1.985877 1.207939 -0.000537 0.0
1.234721 0.867588 0.002269 0.0
3.230367 1.145569 0.000737 0.0
4.359470 1.080202 -0.003113 0.0
3.149416 1.162007 0.001268 0.0
3.234002 0.376628 -0.003368 0.0
2.071255 1.239786 -0.002744 0.0
3.480722 0.025184 0.000896 0.0
2.416195 0.139175 -0.000407 0.0
2.607033 1.141348 -0.001001 0.0
1.208738 1.043364 0.003060 0.0
2.319769 0.881786 -0.001209 0.0
2.102486 0.312853 0.001035 0.0
0.626676 0.843242 -0.000584 0.0
2.261023 1.130306 -0.003228 0.0
4.257919 1.269222 0.001181 0.0
4.695021 0.770283 0.003351 0.0
3.357612 1.237165 0.000258 0.0
4.642856 1.381992 0.000853 0.0
3.112651 1.290035 -0.000177 0.0
1.720498 1.704776 0.001120 0.0
2.894768 0.205993 -0.000646 0.0
1.168385 0.760045 0.003507 0.0
0.828610 0.094400 -0.003022 0.0
0.916163 1.007083 -0.000469 0.0
4.828854 0.009636 -0.002450 0.0
0.862520 0.024850 -0.000534 0.0
0.948513 1.483694 -0.004099 0.0
3.183174 0.483244 -0.002359 0.0
2.123894 0.419482 0.001227 0.0
0.659544 1.171942 0.001513 0.0
2.515593 1.194508 0.000442 0.0
4.722597 0.986443 0.001021 0.0
2.259346 0.998237 -0.003135 0.0
1.248931 1.579139 0.000826 0.0
1.753884 1.275978 0.000991 0.0
4.311252 0.331880 0.000476 0.0
3.292826 1.322634 -0.000957 0.0
2.347963 0.399693 0.001067 0.0
0.723306 1.638259 -0.000925 0.0
4.616328 1.430662 -0.001382 0.0
2.811075 0.497516 0.001659 0.0
1.417876 1.315976 0.000168 0.0
2.383745 0.605734 0.004253 0.0
4.651547 1.355416 0.003108 0.0
1.500947 0.390769 0.002524 0.0
2.481413 0.966366 0.000638 0.0
1.550167 0.405450 0.002501 0.0
1.199204 1.140035 0.001841 0.0
1.561182 0.631668 0.003040 0.0
1.422331 1.302181 -0.001826 0.0
1.244261 0.346972 -0.000233 0.0
2.952026 1.701450 0.001717 0.0
0.513515 1.137792 -0.000461 0.0
2.961609 0.387503 -0.002062 0.0
4.243173 0.118172 0.001684 0.0
3.501559 0.083260 0.003042 0.0
0.277711 0.680134 0.001759 0.0
3.699200 0.021082 0.001626 0.0
3.344611 0.105875 0.004271 0.0
2.682040 0.494212 0.002422 0.0
1.733219 0.039785 0.002148 0.0
1.311875 1.532561 -0.002222 0.0
0.823405 1.267059 0.002758 0.0
1.205034 1.069082 0.004093 0.0
4.646588 0.756291 -0.002072 0.0
3.296953 0.649174 -0.000084 0.0
1.633250 0.333605 -0.001458 0.0
3.207475 1.039782 0.000184 0.0
2.379700 0.982545 -0.001712 0.0
1.805921 1.618226 -0.001446 0.0
2.555347 1.572757 -0.000895 0.0
1.678825 0.515936 -0.001099 0.0
4.462112 0.180673 -0.005271 0.0
1.212207 0.864049 -0.001803 0.0
3.882605 1.349118 -0.002991 0.0
1.616828 0.215613 0.008090 0.0
4.699385 1.143814 -0.003364 0.0
4.366316 0.757841 0.000474 0.0
0.820243 1.332261 0.000529 0.0
0.989223 1.691056 -0.003751 0.0
2.152740 0.207771 -0.000190 0.0
1.768154 1.620349 -0.003487 0.0
0.505127 1.175061 0.001289 0.0
2.415958 0.648443 -0.002135 0.0
1.118455 0.663338 0.000971 0.0
4.223103 0.224533 0.001796 0.0
3.769123 1.290433 -0.003770 0.0
0.682270 0.031237 -0.000176 0.0
2.129639 1.649423 -0.000749 0.0
3.522450 1.619410 0.002452 0.0
2.205041 1.148766 0.002218 0.0
3.039401 1.010233 -0.000963 0.0
3.698591 1.259520 -0.002143 0.0
4.002116 1.698097 -0.001370 0.0
2.113830 0.899740 0.004076 0.0
0.953278 0.689724 0.001442 0.0
4.810313 1.407012 -0.001909 0.0
4.806493 1.613319 -0.000602 0.0
4.694954 0.502012 -0.000455 0.0
0.617519 0.212528 0.001423 0.0
2.355933 1.027455 0.000814 0.0
4.483441 1.097157 0.001070 0.0
0.651393 0.898575 0.002709 0.0
4.128140 1.707028 0.004886 0.0
2.238485 1.390730 0.001790 0.0
2.712473 1.610011 -0.003065 0.0
2.663468 1.678001 -0.000500 0.0
1.005960 1.317848 0.001327 0.0
3.621035 0.826946 0.003339 0.0
2.549313 0.516891 0.001860 0.0
2.278864 1.570541 -0.004831 0.0
2.429629 1.134683 0.003593 0.0
2.949362 0.892179 0.004757 0.0
4.909882 0.009364 -0.003654 0.0
2.137301 0.410097 0.002823 0.0
4.043626 0.811099 -0.003146 0.0
1.133521 1.003450 -0.002794 0.0
3.688627 0.608533 0.003464 0.0
2.799075 1.433203 -0.001303 0.0
2.300344 0.426143 -0.003026 0.0
2.561362 0.368050 0.004709 0.0
4.843494 0.656369 -0.003234 0.0
2.516772 1.046732 0.000037 0.0
2.038826 0.760289 0.002794 0.0
1.354701 0.689698 -0.003563 0.0
2.488236 0.937983 -0.001058 0.0
3.123716 0.663056 -0.002491 0.0
4.239481 0.824657 -0.003524 0.0
1.346128 1.079062 -0.001065 0.0
4.179647 1.629787 -0.002032 0.0
3.165158 1.205536 0.001832 0.0
2.631737 1.251465 -0.003945 0.0
0.479330 1.430096 -0.001481 0.0
4.305889 1.151095 0.003629 0.0
1.625345 1.202420 0.006273 0.0
0.989811 0.866215 -0.001308 0.0
2.028473 0.227109 0.000610 0.0
2.538733 0.819950 -0.002326 0.0
4.253322 1.170128 -0.000737 0.0
3.397393 1.616280 -0.002059 0.0
3.352929 1.106023 -0.002548 0.0
0.812956 0.730154 -0.000732 0.0
3.098837 1.260000 -0.002870 0.0
3.261904 1.190897 0.001857 0.0
0.499105 1.031743 -0.002400 0.0
3.085170 0.026061 -0.002570 0.0
4.748042 0.470138 0.003184 0.0
3.235976 0.198241 0.000076 0.0
3.805868 0.165541 -0.000955 0.0
2.664133 0.259439 0.003406 0.0
3.201162 0.058101 0.001055 0.0
3.827762 0.864363 0.001324 0.0
0.190662 0.063415 -0.001165 0.0
0.237739 1.429518 0.003425 0.0
2.123829 0.196957 -0.004215 0.0
3.060259 0.282352 -0.002946 0.0
4.915318 0.665465 -0.000330 0.0
0.535223 0.992843 0.003946 0.0
4.464071 1.436990 -0.003949 0.0
2.201081 0.616072 -0.002461 0.0
0.400508 0.341438 0.000049 0.0
0.018514 0.695642 -0.001466 0.0
4.453342 0.989025 -0.001953 0.0
4.370743 0.225145 0.000129 0.0
3.136398 0.188840 0.002722 0.0
2.772203 0.372810 0.003227 0.0
1.506243 1.313412 0.004004 0.0
0.966771 1.253540 -0.003010 0.0
3.000473 1.007224 -0.000672 0.0
3.173006 0.106304 -0.000196 0.0
3.314117 1.132806 -0.006073 0.0
3.763899 0.947023 0.007012 0.0
4.849955 0.490164 0.003203 0.0
1.608659 0.151901 0.000191 0.0
2.341652 0.642823 0.001248 0.0
4.524777 0.366103 -0.003560 0.0
2.047597 1.509250 -0.000789 0.0
3.595886 0.197508 0.003579 0.0
3.284954 1.171635 -0.001292 0.0
1.887756 0.540471 -0.005636 0.0
3.632115 1.296524 0.001824 0.0
2.025704 1.096269 -0.002324 0.0
1.558304 1.117675 -0.000976 0.0
0.243192 0.904258 0.001478 0.0
1.685042 1.338579 -0.001584 0.0
1.436840 0.592476 -0.001286 0.0
3.563975 0.152228 0.001795 0.0
2.872449 1.143649 -0.000800 0.0
2.483822 1.378293 -0.004074 0.0
4.185613 0.821844 0.000202 0.0
0.415545 1.267283 0.001188 0.0
3.224715 0.175982 0.001203 0.0
1.637751 0.539524 0.000673 0.0
0.591593 1.013733 -0.001228 0.0
4.868133 1.522628 0.001548 0.0
3.382058 1.555963 0.002108 0.0
3.430135 0.395439 -0.000463 0.0
2.329494 1.561588 -0.001127 0.0
0.656952 0.500116 -0.001797 0.0
1.729516 1.557543 0.001870 0.0
1.279605 0.466075 -0.007992 0.0
1.876171 0.228857 -0.000953 0.0
1.450056 0.336682 0.000044 0.0
3.787397 1.096682 0.000824 0.0
3.242864 1.516232 0.005844 0.0
3.853594 0.342581 0.000382 0.0
1.050960 0.122327 0.001443 0.0
1.618556 0.583756 0.000196 0.0
1.793632 0.091324 -0.001732 0.0
0.339936 1.030042 0.000240 0.0
1.923085 1.307643 -0.003247 0.0
4.613904 1.492829 0.001254 0.0
2.161976 0.780738 0.000530 0.0
2.231132 1.684504 -0.001055 0.0
4.435228 0.060282 -0.004342 0.0
2.635714 1.335783 -0.002954 0.0
4.110879 0.543862 -0.002282 0.0
0.584183 0.527758 0.002496 0.0
4.237210 1.319790 -0.001044 0.0
3.486467 0.455069 -0.002282 0.0
3.925298 1.599712 0.005418 0.0
0.432454 0.707872 -0.004043 0.0
4.541526 1.362222 -0.002736 0.0
2.426734 1.350157 0.004952 0.0
0.622070 0.050414 0.000057 0.0
4.431390 1.185677 0.000155 0.0
3.922499 1.094364 -0.002721 0.0
3.841570 1.446540 0.002965 0.0
0.988169 0.117164 0.006796 0.0
3.243256 0.281931 -0.001610 0.0
0.486170 0.903839 0.002993 0.0
1.506475 1.386475 0.001771 0.0
0.864689 0.893259 0.000676 0.0
2.139959 0.661536 -0.001829 0.0
0.369052 0.662952 0.002202 0.0
2.103437 0.704904 -0.000427 0.0
2.023052 0.326367 -0.002929 0.0
0.832351 0.002224 -0.004817 0.0
0.709498 0.555537 0.002632 0.0
0.339341 1.446282 -0.002398 0.0
4.169584 1.371484 -0.003076 0.0
0.900783 0.682940 -0.002005 0.0
3.625363 0.895634 0.000512 0.0
0.791323 0.758341 0.002186 0.0
0.903652 0.852703 0.000342 0.0
1.522618 0.960001 0.000290 0.0
4.597196 1.479516 0.003862 0.0
3.435066 0.659185 -0.003370 0.0
2.051990 1.375231 0.000911 0.0
1.382860 0.147795 0.004203 0.0
4.241840 0.215030 0.001668 0.0
4.766804 0.014679 -0.002340 0.0
1.661024 0.363232 0.000968 0.0
4.031830 1.015642 -0.002152 0.0
0.777175 0.744791 0.002813 0.0
2.091808 0.090665 0.000417 0.0
0.594397 1.147332 -0.002473 0.0
2.543774 0.141491 -0.002529 0.0
4.438755 0.995932 -0.000220 0.0
4.203703 1.531421 0.002412 0.0
0.137774 1.061653 -0.006847 0.0
2.529899 1.450382 0.002818 0.0
4.205700 1.310590 0.003400 0.0
4.664971 0.026260 0.002653 0.0
2.726003 1.212155 0.001773 0.0
1.497709 1.178519 -0.003047 0.0
1.862390 1.350085 0.002278 0.0
1.530174 0.077740 0.000689 0.0
3.610965 0.628238 -0.000400 0.0
4.519899 1.012651 -0.003600 0.0
1.778021 1.292259 -0.001720 0.0
2.242974 0.154860 -0.002952 0.0
1.802237 0.655139 0.001978 0.0
4.356510 0.886267 0.003768 0.0
2.809871 0.840096 -0.005750 0.0
4.792765 1.093608 -0.001195 0.0
4.419528 1.073867 -0.004240 0.0
1.347425 0.393681 0.000363 0.0
0.302285 1.692755 -0.002660 0.0
3.792509 1.618805 -0.003632 0.0
1.507759 0.548242 0.001663 0.0
1.606981 0.203829 0.001264 0.0
4.155646 0.895710 -0.001250 0.0
0.768213 0.066607 -0.002867 0.0
4.060928 1.010354 -0.002005 0.0
1.486055 0.374273 0.002268 0.0
4.058199 0.313017 0.000233 0.0
3.355192 1.574408 -0.007323 0.0
0.806576 0.010847 -0.001142 0.0
0.561643 1.319018 0.000298 0.0
0.159155 0.460461 -0.001982 0.0
4.509023 0.109650 -0.000079 0.0
1.419331 1.445131 -0.001367 0.0
2.782453 0.758846 0.000212 0.0
2.418081 1.471286 0.002695 0.0
1.886824 0.026524 -0.003176 0.0
0.379068 1.070181 0.000533 0.0
0.467488 0.282239 -0.001181 0.0
3.507638 1.156202 0.002129 0.0
4.407514 1.664764 0.000301 0.0
0.790998 0.326158 0.001627 0.0
2.987382 0.155475 0.000047 0.0
2.930512 1.083049 -0.001466 0.0
1.350783 1.506029 0.003108 0.0
4.117410 1.455318 -0.001087 0.0
1.962788 0.490404 0.002165 0.0
2.214230 0.887561 0.002713 0.0
0.291138 1.551758 0.002890 0.0
3.573623 0.303386 0.003768 0.0
3.516943 0.834647 0.004658 0.0
1.191868 1.374477 0.000403 0.0
4.040221 1.389299 -0.004936 0.0
4.332208 0.648360 0.002240 0.0
3.971233 0.428568 -0.000609 0.0
2.879615 1.075393 -0.000927 0.0
3.845375 0.496956 0.002956 0.0
3.307246 1.072024 -0.002713 0.0
3.586566 1.084494 0.000014 0.0
0.222035 0.575787 -0.000386 0.0
0.617758 1.040731 -0.001430 0.0
1.258364 0.225672 -0.000640 0.0
3.148494 0.524613 0.000838 0.0
0.458368 0.398452 0.002124 0.0
3.182851 1.214515 -0.001765 0.0
2.200023 0.720109 -0.002388 0.0
1.765327 1.524490 0.000739 0.0
0.881181 1.119903 0.002565 0.0
4.358166 0.317506 0.001155 0.0
4.790196 0.042264 -0.001573 0.0
3.434881 0.932220 -0.005006 0.0
0.208282 0.164791 -0.001127 0.0
0.973676 0.087547 -0.000866 0.0
4.272440 1.142576 -0.000565 0.0
1.848179 0.668474 0.003708 0.0
0.811919 1.062347 -0.001069 0.0
4.061325 1.171869 0.002037 0.0
3.407523 0.344985 0.002538 0.0
4.303972 1.358221 0.001241 0.0
3.850072 0.148700 0.002590 0.0
1.332299 0.915366 0.002175 0.0
4.935971 0.902190 -0.001533 0.0
1.497703 1.344001 -0.001992 0.0
1.353266 0.581574 -0.000985 0.0
0.446786 0.138965 -0.001702 0.0
4.779224 0.689056 -0.002737 0.0
4.035015 0.699716 -0.004901 0.0
3.150564 1.343579 -0.000353 0.0
3.247688 0.085304 -0.002434 0.0
3.459249 1.612557 -0.000199 0.0
2.291695 0.409098 -0.002514 0.0
4.019657 1.526519 0.002691 0.0
3.711666 1.435254 -0.004056 0.0
1.035342 0.862882 -0.001993 0.0
2.600052 1.269639 -0.003860 0.0
3.772972 0.881193 -0.000385 0.0
0.424983 1.038942 0.003465 0.0
2.027453 0.470128 0.003113 0.0
1.729416 0.771051 0.001067 0.0
1.020063 0.765077 0.002498 0.0
2.314063 1.090425 -0.000636 0.0
0.190653 1.134404 -0.000887 0.0
1.879045 0.271822 0.003918 0.0
2.112555 0.916229 -0.000893 0.0
0.196355 0.780311 -0.000347 0.0
1.529278 0.570066 -0.002802 0.0
0.700239 1.052600 0.002110 0.0
0.651942 0.909532 -0.000393 0.0
2.769625 1.374187 0.000527 0.0
2.331895 1.425685 0.000611 0.0
2.686317 0.431086 -0.003464 0.0
3.481133 1.382216 0.001104 0.0
4.344700 0.215401 -0.001298 0.0
1.668393 0.774842 0.003945 0.0
2.731345 0.207543 0.000422 0.0
3.121003 0.947487 0.001987 0.0
2.251956 1.368213 0.003687 0.0
4.933607 1.672057 -0.002149 0.0
2.031230 0.667313 -0.000112 0.0
1.834615 1.388773 -0.002002 0.0
3.316789 0.191187 0.004106 0.0
2.681135 0.224643 0.001820 0.0
2.719477 1.296825 -0.002239 0.0
1.587696 0.897718 0.001726 0.0
2.451438 0.538449 -0.003732 0.0
1.802535 0.918479 -0.002349 0.0
2.335696 0.554270 -0.000641 0.0
3.353953 0.550307 0.001514 0.0
3.590078 0.568042 0.001521 0.0
3.060605 0.365810 0.000951 0.0
1.046515 1.268798 0.002270 0.0
4.364454 0.448914 0.000343 0.0
0.851593 0.183239 0.001711 0.0
1.607726 0.751703 -0.000009 0.0
1.098795 0.826428 0.000114 0.0
1.445040 1.374923 0.002117 0.0
3.313682 1.152802 0.002075 0.0
1.910785 1.530590 -0.001883 0.0
4.926370 0.926487 0.000841 0.0
0.875896 0.551525 -0.000236 0.0
0.511985 1.327621 0.001767 0.0
4.567254 0.749201 -0.000597 0.0
4.877378 0.115884 -0.001280 0.0
0.904850 1.398772 -0.000604 0.0
3.291036 0.184582 0.003666 0.0
2.432997 1.690763 0.004780 0.0
2.298838 0.710197 -0.003791 0.0
2.769822 0.544590 0.006000 0.0
2.236295 0.937418 -0.000640 0.0
3.001801 -0.000941 -0.001700 0.0
1.990984 1.668034 0.004806 0.0
0.732716 0.489933 -0.001408 0.0
0.056864 0.098600 -0.002669 0.0
3.521849 0.599480 -0.002506 0.0
0.944876 1.673791 -0.002097 0.0
1.399654 0.430377 0.000721 0.0
2.415435 1.049717 0.002961 0.0
0.361696 1.146771 -0.005138 0.0
4.324131 0.124387 -0.002145 0.0
0.138034 0.742686 0.001189 0.0
4.314581 1.596692 -0.001164 0.0
2.204073 1.574680 0.003982 0.0
0.863702 0.544620 0.001054 0.0
0.157826 0.650213 0.001810 0.0
2.266969 0.906589 0.000638 0.0
4.718934 0.911587 0.000921 0.0
2.361834 1.670878 0.001525 0.0
3.743965 0.579121 0.001931 0.0
2.493504 1.321593 0.003382 0.0
4.503188 1.108248 -0.000135 0.0
4.061241 1.691898 0.001356 0.0
4.576938 0.746831 -0.000710 0.0
2.961669 0.718794 -0.002853 0.0
1.287972 0.696616 0.005454 0.0
2.943203 0.638310 0.003719 0.0
3.096720 0.329003 -0.000116 0.0
3.151103 0.787752 0.004108 0.0
4.086312 1.556492 -0.002397 0.0
1.355434 1.371155 0.001396 0.0
2.332721 1.205280 -0.000499 0.0
1.809387 1.058554 -0.001949 0.0
0.508745 1.234060 0.001617 0.0
1.807230 0.320982 0.002283 0.0
2.452406 0.734851 -0.001637 0.0
2.927202 0.655942 0.000122 0.0
1.625012 0.800928 -0.003532 0.0
1.872914 1.516352 0.000431 0.0
2.205185 1.631873 0.002972 0.0
0.172135 1.524297 0.004519 0.0
4.273504 1.586668 -0.000872 0.0
2.795653 1.395039 -0.000269 0.0
0.903617 1.045742 -0.000486 0.0
2.277635 0.429126 0.003405 0.0
0.526143 0.648376 0.002801 0.0
0.962228 0.324356 0.001232 0.0
0.335248 1.035059 0.001632 0.0
0.774577 0.694335 -0.001032 0.0
0.586676 0.662213 0.001017 0.0
1.410299 0.678219 -0.002049 0.0
0.166864 0.374984 -0.003181 0.0
4.155584 1.083919 -0.000562 0.0
3.957922 1.064847 -0.006460 0.0
0.847416 1.479366 0.002041 0.0
3.319718 1.607369 -0.001512 0.0
3.383963 1.439743 -0.003818 0.0
3.640898 1.535385 -0.000009 0.0
1.569333 1.203652 0.003247 0.0
2.963816 1.275361 0.002483 0.0
1.072914 0.252393 -0.001997 0.0
3.981742 1.170829 -0.000606 0.0
2.800037 1.431790 0.002009 0.0
0.388683 0.521607 0.000653 0.0
1.712625 1.016945 0.003694 0.0
3.399705 1.278872 -0.000864 0.0
2.714571 1.243391 0.001409 0.0
0.335864 0.174982 -0.003004 0.0
1.768171 0.342426 0.003448 0.0
4.753213 1.172033 0.001066 0.0
1.078818 0.019653 0.004042 0.0
0.360691 0.529957 0.000642 0.0
1.990105 0.885189 -0.001805 0.0
2.482265 1.324571 -0.001768 0.0
0.380043 1.618819 -0.000447 0.0
4.690633 0.446347 -0.000396 0.0
4.833107 1.406857 0.000460 0.0
4.089945 1.311726 -0.000831 0.0
0.291529 1.525470 -0.000774 0.0
2.483130 0.488639 -0.002433 0.0
2.091875 1.312742 0.000386 0.0
4.035857 0.525611 -0.000682 0.0
3.175722 1.158964 0.000337 0.0
1.567764 1.207120 0.007394 0.0
4.755465 1.182228 -0.000406 0.0
1.736224 1.142376 -0.000736 0.0
0.117604 0.568743 0.001551 0.0
2.275885 1.147073 0.003334 0.0
0.276554 1.619958 -0.000872 0.0
3.535889 0.593530 -0.001151 0.0
0.643483 0.691627 0.003743 0.0
3.892807 0.673698 0.004081 0.0
0.088824 0.193491 0.002947 0.0
0.493322 1.205219 0.001952 0.0
1.840584 1.665149 0.001484 0.0
3.514385 1.528123 0.000300 0.0
3.474890 0.405908 -0.001724 0.0
2.078328 0.329722 -0.003087 0.0
4.539012 0.961485 -0.002228 0.0
4.592551 0.083523 -0.002921 0.0
2.681468 0.605188 -0.000974 0.0
3.560443 0.533812 -0.000242 0.0
4.710812 0.548317 -0.000182 0.0
0.473598 0.424045 0.001445 0.0
1.899656 1.129306 0.002891 0.0
2.019725 0.643690 -0.002894 0.0
2.364845 0.790788 0.001502 0.0
2.988884 1.435479 0.007393 0.0
3.339636 1.600490 -0.002576 0.0
2.089069 0.294780 0.001283 0.0
1.831106 0.313253 -0.001093 0.0
1.599111 0.271968 -0.001172 0.0
3.451526 0.556701 -0.001069 0.0
0.190961 0.868745 -0.002728 0.0
3.558447 0.055816 -0.000427 0.0
4.498454 0.341916 0.000518 0.0
0.568257 0.819681 0.002120 0.0
1.496242 1.058584 0.000806 0.0
4.433470 0.415615 -0.001676 0.0
3.386270 0.475904 -0.000308 0.0
4.182663 1.114859 0.002928 0.0
1.582269 0.267239 -0.001778 0.0
3.449934 0.083014 0.000602 0.0
0.805917 1.630475 0.001222 0.0
0.996413 1.037943 -0.002760 0.0
0.189850 0.917472 0.003764 0.0
4.805141 0.370472 -0.000731 0.0
0.886487 0.688942 0.002275 0.0
4.724479 0.970073 0.002088 0.0
0.924647 0.513937 -0.001381 0.0
0.018356 0.750955 -0.000043 0.0
0.744762 0.439222 -0.001716 0.0
4.070274 0.364418 0.002533 0.0
2.542283 0.130857 -0.002512 0.0
0.473973 0.105885 0.003722 0.0
2.880214 0.055343 -0.003448 0.0
0.139329 0.024679 -0.001340 0.0
1.271364 1.641611 0.000828 0.0
4.755011 1.245320 -0.001928 0.0
4.839284 0.247159 -0.000824 0.0
3.973788 0.462006 0.002194 0.0
4.008253 1.514316 0.001349 0.0
1.303422 0.268911 -0.002924 0.0
1.524600 0.103737 -0.003634 0.0
0.851326 0.169415 -0.000023 0.0
4.639186 1.090757 0.000106 0.0
2.851619 0.942277 0.000247 0.0
2.392197 1.338108 0.000332 0.0
0.189881 0.041831 -0.003889 0.0
4.945779 0.851102 0.000124 0.0
4.825304 1.406604 -0.002256 0.0
1.050210 1.671078 0.000028 0.0
0.123571 1.662623 -0.001062 0.0
1.951662 0.885776 -0.000925 0.0
3.770134 0.357055 -0.002335 0.0
4.567513 0.922691 -0.001307 0.0
0.758741 1.392879 0.000683 0.0
0.920474 1.330663 -0.000241 0.0
2.444190 1.631157 0.002884 0.0
3.525535 0.332279 0.001554 0.0
2.747222 0.522551 0.000314 0.0
3.223781 0.829106 0.000509 0.0
1.833595 0.473909 0.000347 0.0
4.477770 0.128504 0.000065 0.0
4.361223 1.075368 0.003976 0.0
3.168296 1.564511 -0.001083 0.0
0.754473 0.522681 -0.002877 0.0
0.268377 0.857175 -0.000691 0.0
2.351120 1.705447 0.000779 0.0
0.856967 0.195460 0.000455 0.0
1.577619 1.479770 0.001914 0.0
0.246695 0.562061 0.001450 0.0
0.682085 0.825489 -0.000660 0.0
3.954689 0.577577 -0.000135 0.0
3.685550 1.140023 -0.002204 0.0
2.635582 0.450772 -0.001265 0.0
3.637060 0.920640 -0.001963 0.0
3.555256 0.870479 -0.004319 0.0
4.120356 1.432010 -0.002243 0.0
2.400779 1.473730 0.001809 0.0
1.953623 0.626824 0.004601 0.0
1.266782 1.304073 0.001564 0.0
3.842874 0.111685 0.002829 0.0
2.712035 0.004793 -0.000758 0.0
4.721226 1.542273 0.000711 0.0
2.822848 0.475347 -0.003174 0.0
2.669824 1.128593 0.002309 0.0
3.830174 0.111504 0.002538 0.0
3.417196 0.765455 -0.001412 0.0
1.762223 0.839739 0.000961 0.0
4.164816 0.968878 -0.002162 0.0
4.579472 1.404105 0.002860 0.0
3.983471 1.386301 -0.002120 0.0
3.211647 0.644813 -0.003896 0.0
1.151857 0.261403 0.002607 0.0
1.697436 1.359341 -0.001070 0.0
0.891319 1.638272 0.001353 0.0
0.270609 1.448622 -0.002877 0.0
4.162448 1.591705 -0.001641 0.0
3.536955 0.245445 -0.001865 0.0
2.059916 0.937371 -0.000748 0.0
0.058503 0.188723 0.000473 0.0
2.044771 1.536781 -0.002924 0.0
4.655116 1.341457 -0.001957 0.0
2.572194 1.554639 -0.001690 0.0
3.377442 1.593041 0.002820 0.0
2.334003 1.429506 -0.001346 0.0
0.065417 1.217767 0.000856 0.0
0.218005 0.231936 0.000044 0.0
4.705653 0.736822 0.000698 0.0
3.305473 0.305454 -0.003286 0.0
0.069303 0.390464 0.001457 0.0
3.109872 1.082683 -0.000968 0.0
1.561065 0.409234 0.002990 0.0
1.476496 0.379476 0.003472 0.0
3.268052 0.179822 0.000102 0.0
2.890249 0.829558 -0.004406 0.0
1.218370 1.399929 0.001236 0.0
0.092126 0.810808 0.002294 0.0
0.739054 1.337902 0.003940 0.0
0.359431 0.774207 -0.004113 0.0
4.690757 0.247728 0.000680 0.0
0.518851 0.722950 0.002285 0.0
3.143300 0.372235 0.000654 0.0
3.889202 1.527733 -0.001127 0.0
3.709990 0.789041 0.003341 0.0
1.901370 0.639714 -0.001803 0.0
4.528253 0.770743 0.000251 0.0
0.267012 1.216064 -0.000305 0.0
2.284193 1.607846 0.001908 0.0
4.199585 0.253511 0.001474 0.0
3.513665 1.479631 0.000429 0.0
1.940151 0.803349 0.001331 0.0
3.739894 0.153307 -0.003402 0.0
0.110618 0.874539 -0.002288 0.0
4.164077 0.329056 0.001598 0.0
0.579146 0.366253 -0.000315 0.0
3.275849 0.990607 -0.003148 0.0
2.025332 0.506592 0.002326 0.0
0.346669 1.404783 0.000880 0.0
0.131306 0.947249 -0.001812 0.0
4.100452 0.760892 0.000136 0.0
2.468328 0.747443 0.005180 0.0
3.207663 0.075419 -0.003621 0.0
2.850073 0.428534 -0.003373 0.0
1.993640 1.599190 0.000402 0.0
2.371510 1.344608 0.001147 0.0
0.284809 0.609361 -0.000000 0.0
2.593855 1.277049 0.002444 0.0
0.214685 0.110298 0.001064 0.0
1.576231 0.087365 -0.002276 0.0
3.828697 1.394852 0.004836 0.0
2.635469 0.679876 -0.000115 0.0
1.029435 1.614879 0.002487 0.0
4.927617 0.459182 -0.000373 0.0
2.612011 1.698520 -0.001838 0.0
3.714999 1.676902 0.003588 0.0
1.999541 1.666582 0.005840 0.0
1.366543 1.639622 -0.003302 0.0
2.112679 1.663815 0.002583 0.0
0.411990 1.339513 0.002147 0.0
0.868267 1.319051 0.005817 0.0
2.491360 0.313428 0.001778 0.0
3.419093 0.898471 -0.000167 0.0
0.665006 0.152870 0.000402 0.0
2.203369 1.216823 -0.001317 0.0
3.609381 0.789436 0.001811 0.0
2.364709 0.196187 -0.001168 0.0
2.694867 1.087213 0.002362 0.0
0.110064 1.653941 -0.000533 0.0
3.248085 0.417035 0.002924 0.0
0.088905 0.653534 0.000153 0.0
3.133482 1.576537 0.001421 0.0
1.545765 0.904948 -0.001984 0.0
1.404029 0.558037 -0.000112 0.0
4.342216 0.957680 -0.001510 0.0
2.692854 0.294224 0.002292 0.0
4.121782 1.136583 -0.001950 0.0
1.011843 0.444577 -0.002014 0.0
4.693460 0.973636 -0.000491 0.0
4.444143 1.705132 -0.002401 0.0
4.009548 0.204669 -0.000496 0.0
1.624228 0.237534 -0.001008 0.0
4.340837 0.489579 0.001118 0.0
0.523315 0.259296 -0.000236 0.0
2.002342 1.301736 0.000619 0.0
4.652855 0.825030 0.001168 0.0
2.310481 0.782786 -0.002417 0.0
2.648852 0.231744 0.000161 0.0
1.803095 0.913910 -0.007887 0.0
4.263531 1.437947 -0.003041 0.0
3.959562 0.372394 0.002565 0.0
4.175965 1.566884 -0.000734 0.0
0.041178 0.461791 0.003531 0.0
3.172647 0.904077 0.002551 0.0
2.509860 0.508671 -0.001004 0.0
0.407772 0.239051 0.000871 0.0
3.416602 1.638938 -0.000885 0.0
3.864370 0.530028 -0.002846 0.0
2.395626 0.461023 0.000637 0.0
2.037724 0.796686 -0.004527 0.0
1.678509 0.864551 0.001854 0.0
2.793589 0.103641 0.003176 0.0
2.667567 0.499682 -0.000263 0.0
0.009823 0.496782 -0.002454 0.0
3.479302 1.156120 -0.000607 0.0
0.345525 0.631363 -0.006560 0.0
2.385804 0.690917 -0.002756 0.0
2.618242 0.091466 0.004306 0.0
4.549965 1.150886 0.000696 0.0
1.261085 0.480784 -0.004866 0.0
2.148178 1.485300 -0.001872 0.0
0.442061 0.487293 0.000726 0.0
3.669448 0.876088 0.001335 0.0
1.469878 1.670416 -0.001711 0.0
4.372324 0.552995 -0.002015 0.0
0.230700 1.515963 -0.000714 0.0
2.949153 0.282156 -0.000048 0.0
0.182280 1.221281 -0.003152 0.0
4.388999 1.391110 0.001324 0.0
0.351285 1.645382 0.000321 0.0
0.154046 0.773030 0.000309 0.0
2.789763 1.048692 0.000266 0.0
4.175522 0.490078 -0.002262 0.0
1.114825 0.666517 0.000181 0.0
2.563138 1.653289 -0.004240 0.0
0.341157 1.138875 -0.000273 0.0
4.783087 0.330852 -0.004892 0.0
4.697885 0.062922 -0.001726 0.0
2.380244 1.657976 0.001194 0.0
0.446815 1.677177 0.006197 0.0
4.903441 0.802129 -0.000413 0.0
4.188824 0.853820 0.006984 0.0
1.109742 0.593022 0.001178 0.0
3.255875 0.738537 -0.004063 0.0
0.711267 0.007918 0.002362 0.0
4.185728 0.828637 -0.001536 0.0
4.836255 1.388481 -0.001979 0.0
4.252194 0.985545 -0.003932 0.0
1.273641 0.370183 0.000841 0.0
1.427263 0.352431 0.005447 0.0
3.804650 1.545436 -0.006926 0.0
4.400716 0.490408 -0.002520 0.0
3.698812 0.952379 0.003118 0.0
3.842819 0.207489 -0.003146 0.0
4.947716 1.502689 -0.001258 0.0
2.964552 0.028691 -0.000903 0.0
1.269646 0.451758 0.000691 0.0
3.525238 0.406680 0.003860 0.0
0.303628 0.246291 0.002801 0.0
0.146585 1.410036 0.003937 0.0
0.206620 1.595861 0.002812 0.0
4.278686 1.082778 0.005350 0.0
3.810947 0.695247 -0.000408 0.0
4.380206 0.209605 0.003140 0.0
3.389575 0.111938 -0.002660 0.0
4.754315 1.417096 0.000622 0.0
1.782883 0.217129 0.000626 0.0
0.493533 1.512584 -0.000607 0.0
4.306898 0.115773 0.002946 0.0
0.236073 0.852928 -0.000061 0.0
3.602268 0.959462 -0.001715 0.0
2.945951 0.283156 -0.004456 0.0
2.937768 0.120548 -0.000924 0.0
3.607762 0.415245 0.002906 0.0
0.693825 0.793369 -0.000190 0.0
1.611995 0.133102 -0.000567 0.0
4.672502 0.580305 0.000317 0.0
1.626307 1.092067 -0.001748 0.0
3.397225 1.691262 -0.001688 0.0
1.184837 0.753820 0.000092 0.0
2.524574 0.932062 0.004974 0.0
4.853697 0.920584 -0.007238 0.0
0.635513 1.699437 -0.001052 0.0
2.911483 0.872075 0.000940 0.0
0.441694 0.367345 0.002595 0.0
2.875944 1.276254 0.001970 0.0
2.365299 0.128772 0.003962 0.0
3.067110 0.785497 0.004018 0.0
4.187068 1.672881 -0.000153 0.0
3.168711 0.357354 0.003012 0.0
1.825441 0.569017 0.000145 0.0
1.480522 0.836366 -0.002364 0.0
3.383077 1.013147 0.000346 0.0
1.824331 1.097116 -0.005289 0.0
0.525393 0.086694 -0.002562 0.0
2.390350 1.075430 -0.000181 0.0
0.675375 0.400401 -0.002120 0.0
3.370936 0.678596 0.001732 0.0
3.465891 0.979837 -0.004245 0.0
0.982918 1.378959 0.002218 0.0
3.647512 0.345512 -0.000058 0.0
0.540676 1.615579 -0.001875 0.0
3.640891 1.120611 0.002972 0.0
1.941673 1.330501 -0.002382 0.0
1.396048 1.706366 -0.002834 0.0
1.483586 0.518720 0.000584 0.0
3.643319 0.902978 -0.001849 0.0
2.277778 0.101174 0.009200 0.0
2.265917 0.634152 0.001551 0.0
2.302544 0.553070 -0.002653 0.0
0.846181 1.369059 0.003464 0.0
1.054620 1.164164 0.003252 0.0
2.012062 0.341226 -0.003249 0.0
1.072526 1.396843 -0.000677 0.0
1.341151 0.911137 -0.000633 0.0
3.243246 1.288536 0.001318 0.0
1.159724 0.922888 0.002301 0.0
4.310605 1.482248 0.001133 0.0
3.329906 0.947851 0.000464 0.0
3.572369 0.749895 -0.002344 0.0
1.326540 1.405169 -0.002999 0.0
0.427939 0.865791 -0.000514 0.0
2.890694 0.616768 0.001723 0.0
4.660330 0.870075 0.003818 0.0
3.201503 0.171368 -0.002508 0.0
4.340808 1.234297 -0.003141 0.0
0.983601 1.448481 -0.001714 0.0
0.270842 0.428100 0.000408 0.0
1.506801 0.049277 0.001726 0.0
1.745991 0.985548 0.002208 0.0
4.289068 1.203481 -0.000897 0.0
0.382795 1.464236 -0.004044 0.0
3.469578 0.648363 -0.000721 0.0
3.030081 0.708404 0.001396 0.0
4.641284 0.629876 0.000242 0.0
1.688044 1.155900 -0.005274 0.0
1.638118 0.804927 0.000176 0.0
3.601840 1.432934 0.001973 0.0
3.014671 0.572101 0.002252 0.0
1.328666 1.352779 0.001433 0.0
1.928617 1.589228 -0.000229 0.0
3.426261 0.953405 0.001211 0.0
2.822905 0.998365 -0.000221 0.0
0.754165 1.614695 0.008198 0.0
0.324303 1.208774 0.000746 0.0
3.915113 1.440243 0.000300 0.0
2.633756 0.301477 0.004450 0.0
3.282814 0.663569 0.000677 0.0
3.204104 0.289836 0.000969 0.0
1.846452 0.313613 -0.000214 0.0
0.752743 1.639411 -0.001781 0.0
4.938969 0.781378 -0.001016 0.0
4.035383 0.618273 -0.001553 0.0
2.779462 0.017497 -0.000781 0.0
4.623567 1.381496 -0.000747 0.0
0.406783 1.382927 -0.000015 0.0
1.133571 1.348928 -0.001593 0.0
0.549408 0.201118 0.003275 0.0
0.824185 0.911705 -0.002890 0.0
2.100632 1.675879 0.002473 0.0
3.848228 1.315012 -0.004056 0.0
1.638563 0.493061 0.007266 0.0
4.005120 0.533807 -0.003950 0.0
3.039277 0.058674 0.000721 0.0
0.491284 1.377996 0.004722 0.0
3.057339 0.426454 -0.002037 0.0
0.822352 1.366660 -0.003590 0.0
1.392341 1.359273 -0.003628 0.0
0.110152 0.090774 -0.004125 0.0
4.034887 0.912133 0.001233 0.0
4.743682 0.474507 -0.006350 0.0
2.145786 1.548704 0.002761 0.0
4.871350 0.000779 0.003241 0.0
1.028549 0.817672 0.003469 0.0
0.441798 0.902947 -0.003549 0.0
4.736336 0.229318 -0.005694 0.0
0.462323 0.191544 0.001266 0.0
0.759264 0.261559 -0.001656 0.0
1.479957 1.677908 -0.001003 0.0
1.674249 0.379809 0.003307 0.0
3.933198 0.646864 -0.002347 0.0
2.341463 1.682707 0.003437 0.0
1.702290 0.143562 0.005692 0.0
2.791001 0.630585 -0.001535 0.0
0.700290 0.581025 -0.000125 0.0
3.112124 1.232751 -0.002014 0.0
1.754912 0.462920 -0.001066 0.0
0.238570 0.604797 -0.001092 0.0
4.550870 1.563584 -0.001854 0.0
0.701325 0.556984 0.004333 0.0
4.683328 1.628348 -0.000793 0.0
0.875136 0.728323 0.001650 0.0
2.933517 0.994339 -0.001528 0.0
1.852477 1.478098 -0.000865 0.0
1.900969 1.321974 -0.000867 0.0
1.903942 1.053244 -0.002270 0.0
4.644143 1.547494 0.000943 0.0
1.725614 1.452453 0.000612 0.0
4.626468 1.275755 -0.001044 0.0
4.623016 1.597790 0.001494 0.0
3.496342 1.326127 -0.002594 0.0
3.780323 0.670778 -0.006268 0.0
3.403231 1.367311 0.003001 0.0
1.468025 0.886264 -0.000901 0.0
1.430001 0.851139 0.001241 0.0
1.221458 1.674576 0.000139 0.0
3.283175 1.697096 -0.001797 0.0
2.924664 1.310481 -0.001174 0.0
4.484180 1.259878 -0.001726 0.0
3.422952 0.654471 0.000833 0.0
3.784607 0.133740 0.002030 0.0
4.133814 1.035288 -0.003720 0.0
1.866184 1.050963 0.000610 0.0
0.659617 0.885968 0.002894 0.0
0.351867 1.637734 0.001707 0.0
-0.001395 1.407061 -0.006759 0.0
1.934010 1.328047 0.001945 0.0
0.352215 0.717937 -0.001924 0.0
2.030432 0.390735 0.001059 0.0
1.167486 0.914536 0.004356 0.0
2.338493 0.165829 0.000848 0.0
2.379244 0.424111 0.001735 0.0
1.509490 1.210972 0.002169 0.0
0.820654 1.472577 0.008667 0.0
0.115619 0.170475 -0.000564 0.0
0.115238 0.942124 0.002124 0.0
1.115105 1.314310 -0.000109 0.0
3.493254 1.010461 -0.002296 0.0
4.194970 0.602980 -0.002200 0.0
2.828677 0.628712 -0.002606 0.0
4.833982 1.592668 -0.000382 0.0
2.917373 0.300977 -0.001024 0.0
1.100178 1.307001 -0.004888 0.0
3.147223 0.228536 0.002501 0.0
2.575844 1.154868 0.001605 0.0
3.283510 1.229572 -0.003168 0.0
0.603834 0.150923 -0.001534 0.0
0.678768 0.737734 -0.000116 0.0
0.329895 0.539911 -0.004294 0.0
2.846862 1.420963 -0.001245 0.0
0.007178 1.357320 0.001062 0.0
0.152082 1.447869 -0.004283 0.0
3.274853 0.577057 -0.002074 0.0
0.016359 1.623279 0.002560 0.0
0.276498 1.100937 -0.000823 0.0
1.680341 0.696779 -0.003200 0.0
2.109354 1.538551 -0.004330 0.0
4.286138 0.114657 0.000156 0.0
4.344679 1.157199 0.001780 0.0
2.825999 0.295485 0.004396 0.0
4.896497 1.430783 0.000367 0.0
1.341968 0.995363 -0.002129 0.0
4.134235 1.454007 0.002733 0.0
2.559259 1.588188 -0.003744 0.0
0.889574 0.320463 0.005193 0.0
3.252414 1.590191 -0.004234 0.0
4.061008 0.052039 0.000929 0.0
4.132333 1.196821 -0.003417 0.0
4.172253 0.276231 -0.002209 0.0
4.037526 1.198381 -0.002509 0.0
1.050307 0.109154 0.002500 0.0
1.562154 1.408852 0.001249 0.0
1.543026 0.285018 0.001640 0.0
1.059141 0.974440 -0.002294 0.0
1.555471 0.163213 0.000176 0.0
4.197805 1.178167 0.000189 0.0
4.522580 1.347742 -0.002546 0.0
0.163771 0.094181 -0.003831 0.0
1.384199 0.364572 0.000954 0.0
4.941702 1.686915 0.000029 0.0
2.825348 1.170769 0.001193 0.0
1.598344 0.736655 -0.000775 0.0
2.174897 1.062453 0.000838 0.0
1.163523 1.555320 0.000544 0.0
0.756314 0.798870 0.002772 0.0
2.352570 0.646888 -0.001578 0.0
2.185445 0.126693 0.002062 0.0
2.566789 0.276047 0.000992 0.0
1.593423 1.610596 0.001844 0.0
1.605384 0.311471 0.003562 0.0
1.646230 0.415499 0.003298 0.0
4.884267 1.191701 0.001377 0.0
3.617554 1.534412 -0.000058 0.0
2.883043 1.538389 -0.001349 0.0
4.789972 0.000069 -0.001223 0.0
4.067508 0.281404 0.000209 0.0
1.516807 1.159368 0.002597 0.0
3.642149 0.790916 0.000464 0.0
3.470831 0.567570 0.002802 0.0
1.962362 0.972178 -0.004666 0.0
1.796381 0.464470 -0.000799 0.0
1.709855 1.566817 0.001436 0.0
4.381546 0.183220 -0.000354 0.0
3.456945 0.542576 0.002274 0.0
4.285481 1.536405 -0.000887 0.0
0.225620 0.994859 -0.004483 0.0
2.605940 0.838685 -0.002478 0.0
0.131683 0.270534 -0.000654 0.0
2.060061 0.460981 -0.001442 0.0
1.782695 0.155510 -0.003890 0.0
4.803519 0.938627 -0.002166 0.0
4.819251 1.206865 -0.000283 0.0
0.339391 1.124934 -0.001391 0.0
2.204893 0.196804 -0.004758 0.0
4.414732 0.236075 -0.000639 0.0
3.845738 1.634051 -0.002877 0.0
4.474114 1.010266 0.000341 0.0
0.455637 0.824931 -0.004107 0.0
2.807413 1.139412 0.001728 0.0
2.865410 1.168205 0.003571 0.0
3.063376 0.585032 -0.001717 0.0
2.323738 1.697125 -0.001733 0.0
1.408510 0.624147 -0.000349 0.0
3.192325 0.959646 -0.002290 0.0
4.775092 1.250364 0.001878 0.0
2.398662 0.762449 -0.000951 0.0
4.856714 1.593308 -0.002942 0.0
3.184372 0.364517 0.004626 0.0
4.520707 0.480454 -0.002428 0.0
0.551777 1.140715 -0.000963 0.0
0.410471 1.697305 0.002066 0.0
4.679473 0.149403 -0.001771 0.0
2.237453 0.059977 0.003176 0.0
0.656775 0.259698 0.000553 0.0
3.869181 0.059436 0.003924 0.0
1.783522 0.540974 -0.003846 0.0
0.678043 1.576606 0.002665 0.0
3.185380 1.000178 0.003196 0.0
0.105446 0.066694 0.002579 0.0
0.358420 0.961169 -0.002256 0.0
0.090944 1.346242 0.000669 0.0
3.298064 0.071711 -0.000126 0.0
0.286132 0.767705 -0.000517 0.0
3.786467 0.994492 0.001677 0.0
3.427368 0.690455 0.004353 0.0
4.271623 0.575479 -0.005439 0.0
4.272277 0.611204 0.001845 0.0
3.914350 0.360790 -0.002541 0.0
3.072740 1.638627 -0.001731 0.0
0.065508 1.284941 0.004738 0.0
3.204952 0.224776 -0.001827 0.0
1.111733 0.285232 -0.002640 0.0
1.163068 1.026454 0.003143 0.0
4.454487 1.166157 -0.001662 0.0
1.600299 0.487996 0.000506 0.0
2.128055 1.507018 0.003450 0.0
3.191995 0.161910 -0.001609 0.0
3.109752 0.829984 -0.001332 0.0
1.679412 1.000829 -0.002100 0.0
2.498413 1.427719 -0.002061 0.0
4.432029 0.356583 -0.004076 0.0
0.496228 0.661796 -0.003344 0.0
4.393086 1.171079 -0.001269 0.0
3.224799 0.731082 0.001986 0.0
2.034231 0.799233 -0.005585 0.0
4.407995 0.385068 0.000947 0.0
4.824356 0.723573 0.001158 0.0
3.296517 0.289309 0.001802 0.0
3.894040 0.756583 0.003897 0.0
1.124220 1.429565 -0.002435 0.0
2.601317 1.309519 -0.000717 0.0
1.326142 0.421871 0.000369 0.0
2.827524 0.383982 0.002856 0.0
1.082135 0.528270 0.000999 0.0
0.967127 0.393036 0.001803 0.0
4.353205 0.085571 0.000412 0.0
2.738895 1.203483 0.003618 0.0
1.411537 0.807232 -0.001164 0.0
4.105682 1.541965 0.000354 0.0
0.339386 0.795854 -0.001623 0.0
4.039187 1.579469 0.000224 0.0
4.022515 1.400776 0.000592 0.0
2.810224 1.032092 -0.002838 0.0
0.898953 0.751754 0.003028 0.0
0.547215 1.342965 0.000310 0.0
2.049462 1.554305 0.000390 0.0
0.657451 0.306048 -0.000153 0.0
3.488630 0.421939 -0.001789 0.0
2.506992 1.542858 0.001349 0.0
3.743254 0.621280 -0.004183 0.0
4.187047 1.516992 0.000407 0.0
2.332403 0.608124 0.000687 0.0
2.532685 1.576461 0.000883 0.0
3.450481 0.261923 0.003784 0.0
0.333515 0.369459 0.002643 0.0
4.927318 0.720391 -0.001950 0.0
1.910718 1.569761 0.001999 0.0
2.367766 1.213060 0.003855 0.0
1.355007 1.076344 0.005274 0.0
1.025476 0.433287 -0.000591 0.0
0.529573 0.860180 0.004269 0.0
0.113594 0.766074 -0.000166 0.0
0.781451 1.196754 -0.001422 0.0
1.112040 1.269121 0.000692 0.0
1.814192 1.618312 -0.001121 0.0
4.456964 0.471645 0.001686 0.0
3.152682 0.078193 0.000579 0.0
2.504226 0.455423 -0.004531 0.0
2.811649 1.565972 -0.002656 0.0
4.346642 0.976727 0.002022 0.0
3.550930 1.195103 0.001399 0.0
1.699722 1.020480 -0.000763 0.0
2.049272 1.664991 -0.001703 0.0
3.070889 0.110129 0.004013 0.0
0.889567 0.616171 -0.000690 0.0
1.431225 1.325173 -0.001153 0.0
4.190001 0.946637 0.000524 0.0
2.048189 0.360929 0.003410 0.0
0.317035 1.483930 0.001648 0.0
4.800830 1.297255 0.003928 0.0
3.660668 0.182909 -0.003234 0.0
2.180293 0.004370 -0.001638 0.0
1.898633 0.729885 0.000317 0.0
2.525286 0.143593 -0.000710 0.0
4.615574 1.704820 -0.002093 0.0
2.823211 1.454045 0.002815 0.0
1.550006 1.007202 0.003350 0.0
1.406888 0.350162 0.000582 0.0
3.186218 0.005017 0.000274 0.0
3.698166 1.094156 0.000218 0.0
2.639171 1.507132 -0.002690 0.0
4.482309 0.491627 0.000771 0.0
1.286078 0.826287 -0.000164 0.0
0.862050 1.027048 -0.000900 0.0
1.380226 0.466462 0.003253 0.0
1.713741 1.367800 0.002984 0.0
0.753605 1.039141 -0.000922 0.0
0.579498 0.555973 0.001893 0.0
4.276061 0.103959 0.003555 0.0
2.418002 0.531857 -0.002167 0.0
3.436759 0.877410 0.003282 0.0
4.178351 0.025362 0.002062 0.0
4.788175 0.718870 0.004901 0.0
4.707260 0.007386 0.003479 0.0
2.736617 1.166197 0.000832 0.0
3.367255 0.330329 0.001012 0.0
0.869394 0.895367 0.004365 0.0
2.986746 1.523174 0.000771 0.0
0.457669 0.688431 -0.000920 0.0
4.064732 0.022112 0.002702 0.0
1.635377 0.195675 0.002431 0.0
2.945077 1.169311 -0.002334 0.0
3.250635 0.688721 0.005831 0.0
2.632542 0.334523 -0.002424 0.0
2.519063 1.617210 0.001127 0.0
3.808082 0.098964 0.002581 0.0
0.876356 0.866541 0.001072 0.0
0.310182 1.415628 -0.004972 0.0
3.745041 1.173755 -0.001750 0.0
2.367462 0.436623 0.002130 0.0
2.470636 0.097420 -0.003987 0.0
3.177963 1.553744 -0.002493 0.0
0.848310 0.382811 -0.001528 0.0
2.916364 1.253857 -0.001380 0.0
3.805427 1.563622 0.001455 0.0
1.398600 1.136813 -0.002153 0.0
1.222003 0.792589 -0.004138 0.0
3.799465 0.730248 0.002838 0.0
2.724315 1.494473 0.001103 0.0
1.974923 1.001783 0.001120 0.0
0.135874 0.336164 -0.001943 0.0
0.657914 0.034064 -0.000143 0.0
3.088933 0.347411 0.001021 0.0
2.406180 0.413860 -0.003936 0.0
3.603457 1.192217 -0.000869 0.0
0.205439 1.701344 -0.000379 0.0
4.679060 1.274646 0.002820 0.0
1.232948 0.801941 0.000737 0.0
1.466076 0.155952 0.000077 0.0
2.956214 0.021590 -0.002199 0.0
4.071809 1.559996 -0.000574 0.0
3.342310 0.256417 0.002074 0.0
4.455857 0.981473 -0.002627 0.0
2.241267 0.764853 0.002110 0.0
3.465520 1.552280 -0.001412 0.0
3.073895 0.057013 0.001283 0.0
4.848960 0.962005 0.000385 0.0
4.100728 0.447117 0.001360 0.0
4.790556 0.260886 -0.003091 0.0
1.968168 0.605563 0.001084 0.0
4.294750 1.344373 -0.000795 0.0
0.489334 0.163586 -0.000562 0.0
3.061262 0.320025 -0.001672 0.0
0.674879 0.660234 0.004034 0.0
3.257267 0.272557 -0.005135 0.0
0.752103 1.108964 -0.002751 0.0
2.877373 0.922930 0.004101 0.0
1.115019 1.297106 0.001348 0.0
4.182568 1.607268 0.001302 0.0
3.517386 1.105704 0.003084 0.0
4.783313 0.124108 -0.002123 0.0
0.702627 0.184035 -0.000625 0.0
3.682500 1.456449 0.000649 0.0
2.348367 1.675516 -0.000563 0.0
4.374532 0.131414 0.002976 0.0
3.029955 0.995458 -0.002215 0.0
2.631540 1.212436 -0.005866 0.0
3.984289 0.758561 -0.002700 0.0
2.470435 0.659833 0.004053 0.0
0.581108 1.103720 -0.000943 0.0
3.550428 1.105618 0.002799 0.0
1.681232 0.033247 -0.000765 0.0
4.086568 1.545736 -0.000408 0.0
3.951055 0.230587 0.001138 0.0
4.251929 0.667165 -0.000374 0.0
3.695152 0.367376 -0.005998 0.0
1.899131 0.274096 0.001756 0.0
3.938292 0.316538 -0.001819 0.0
2.537551 1.310906 0.001302 0.0
0.661424 0.271680 -0.003835 0.0
3.770523 1.449863 0.001445 0.0
0.132835 0.678358 0.000153 0.0
1.328458 0.804460 -0.001273 0.0
1.428761 1.417603 0.000676 0.0
2.332595 1.659286 0.001114 0.0
1.687297 0.066959 -0.000914 0.0
3.682585 0.230558 -0.000572 0.0
2.070340 1.373838 0.004116 0.0
1.985440 0.419180 0.000186 0.0
3.253669 1.459579 0.001418 0.0
3.326436 1.056104 -0.001139 0.0
2.558030 0.383677 0.002313 0.0
2.414817 1.189131 -0.000619 0.0
4.508634 1.410357 -0.001706 0.0
1.728959 0.801541 0.000358 0.0
1.819601 0.922439 0.001977 0.0
4.140178 0.879430 -0.001312 0.0
0.155996 0.615585 -0.003913 0.0
2.604629 1.563136 -0.001320 0.0
4.450544 1.097367 0.002599 0.0
1.874837 1.471784 -0.001936 0.0
1.784859 1.700554 -0.000089 0.0
1.036248 1.530368 -0.001747 0.0
2.707974 0.738017 -0.000620 0.0
1.231908 0.782099 0.000851 0.0
3.168071 0.307959 -0.002796 0.0
2.879117 0.952694 -0.002245 0.0
2.850463 1.228172 -0.001771 0.0
0.090812 1.239370 0.005554 0.0
1.473646 0.538998 0.002709 0.0
3.054634 0.602982 0.002937 0.0
2.645795 1.151200 -0.002252 0.0
3.871818 1.664263 0.003247 0.0
0.395466 0.680302 0.001563 0.0
4.873462 1.608416 -0.000314 0.0
1.942761 0.390567 0.000958 0.0
2.188887 0.723608 -0.001477 0.0
0.386805 0.968893 0.003300 0.0
0.913111 0.323915 -0.002455 0.0
2.845610 1.306286 0.000645 0.0
4.473435 0.615312 -0.001052 0.0
3.996763 0.646836 0.000827 0.0
1.617993 1.231714 0.001353 0.0
1.270255 1.571901 0.001914 0.0
4.015002 0.599764 0.003371 0.0
0.787345 0.864960 -0.000286 0.0
0.704474 0.986242 0.003948 0.0
0.662694 1.017364 -0.000029 0.0
0.949575 0.032920 -0.000081 0.0
2.340774 0.541881 -0.001762 0.0
2.909249 0.854792 0.001080 0.0
3.911476 1.525493 -0.003251 0.0
4.696772 0.466454 -0.002845 0.0
4.787975 0.775261 -0.002339 0.0
3.873668 1.636201 -0.001912 0.0
1.152134 1.336766 0.004150 0.0
0.987438 0.128442 0.005818 0.0
2.953336 1.409235 0.001607 0.0
4.458281 1.033434 0.002682 0.0
0.995099 1.645037 0.002209 0.0
0.364761 0.237423 -0.002472 0.0
2.486245 0.006859 -0.000953 0.0
1.106509 1.049690 -0.000665 0.0
4.625266 0.372462 0.004812 0.0
2.199036 0.849589 -0.000827 0.0
3.170527 0.632710 -0.001753 0.0
2.640697 0.979390 -0.003349 0.0
0.002542 1.520310 -0.000548 0.0
4.591976 0.339659 0.001493 0.0
0.749449 0.845603 -0.000551 0.0
3.398771 0.465739 0.000240 0.0
1.875072 0.527829 0.000178 0.0
3.532646 1.326689 -0.000118 0.0
3.912718 1.543859 -0.001717 0.0
4.286942 0.620612 0.003544 0.0
1.930418 0.780366 0.004301 0.0
3.326134 1.576558 -0.003911 0.0
2.014080 1.366867 0.000376 0.0
0.809534 0.321210 0.005498 0.0
0.203085 0.863362 -0.002389 0.0
1.276570 1.577534 0.000199 0.0
4.926568 0.029647 -0.000905 0.0
0.665933 1.065741 -0.000778 0.0
3.208161 0.679197 0.000851 0.0
2.856816 1.051197 0.002692 0.0
4.459937 0.606301 0.002288 0.0
4.687442 0.143542 0.000857 0.0
1.437963 0.217074 0.001160 0.0
3.093219 0.121292 -0.000564 0.0
1.263850 0.151049 -0.000926 0.0
2.676636 1.345293 -0.000289 0.0
2.067844 1.476329 -0.002911 0.0
1.092281 0.739684 0.000987 0.0
2.740753 0.787944 0.002783 0.0
0.577239 0.715456 0.002326 0.0
1.702625 1.574139 -0.002048 0.0
2.365276 1.544471 0.001620 0.0
3.788556 0.394443 0.003837 0.0
0.664458 0.477746 0.003950 0.0
1.174046 0.026990 -0.002007 0.0
4.906324 1.476174 0.004131 0.0
1.183471 1.492386 0.002770 0.0
3.706653 0.594496 -0.000734 0.0
4.430611 1.529856 -0.002283 0.0
2.787105 0.820174 0.001148 0.0
4.053133 0.538044 0.000946 0.0
1.241951 1.539904 -0.003621 0.0
4.707482 0.940720 0.004666 0.0
2.140923 0.056157 -0.001164 0.0
4.368746 0.236302 -0.000065 0.0
0.453063 1.275713 0.000704 0.0
4.766274 1.678951 0.003049 0.0
1.917966 0.667694 -0.006695 0.0
2.538175 1.563296 0.003581 0.0
2.725528 0.436084 0.000713 0.0
0.358151 1.367021 0.003475 0.0
2.059385 1.515721 0.003739 0.0
4.912175 0.775622 -0.001518 0.0
3.650079 1.464653 0.001581 0.0
0.839937 0.480433 -0.002385 0.0
4.895251 0.309312 -0.005120 0.0
3.372560 0.027639 -0.001374 0.0
1.779448 0.607327 0.006522 0.0
4.051666 1.226002 0.000224 0.0
1.312150 0.578807 -0.000285 0.0
0.357174 1.526937 -0.001200 0.0
3.487078 0.735391 -0.003194 0.0
4.197199 1.298669 -0.000144 0.0
2.631030 0.692528 -0.000796 0.0
3.536552 0.090103 0.011623 0.0
1.400069 0.027961 0.002910 0.0
4.369540 0.410971 0.002619 0.0
1.746498 1.382677 0.002317 0.0
4.834842 0.745257 -0.000979 0.0
2.254080 0.341567 -0.002345 0.0
3.443216 0.593277 -0.003416 0.0
4.359747 1.016180 -0.002965 0.0
3.669775 0.602598 -0.002779 0.0
4.537825 1.561336 -0.002250 0.0
2.853192 0.695516 -0.001730 0.0
0.949006 0.116951 -0.002415 0.0
2.116676 1.251158 0.000420 0.0
4.425545 1.654183 -0.006842 0.0
2.129200 0.901622 0.001419 0.0
3.053975 1.210410 -0.000477 0.0
0.672265 1.308888 0.001661 0.0
2.897967 0.788552 0.002120 0.0
1.519820 0.469763 -0.005767 0.0
2.327761 0.234573 0.000172 0.0
2.898529 0.151796 0.001839 0.0
4.445553 1.305975 -0.002071 0.0
2.861870 0.181985 -0.004458 0.0
1.351043 0.584779 0.001930 0.0
0.368890 0.908010 -0.000122 0.0
4.917217 0.978325 -0.003375 0.0
1.528170 1.562610 0.002029 0.0
1.199191 0.394149 -0.001277 0.0
0.262355 0.966497 -0.001238 0.0
1.891404 0.734499 -0.002872 0.0
2.421611 0.448700 -0.000007 0.0
1.446839 0.130373 0.003071 0.0
2.923131 0.783217 -0.003042 0.0
0.622304 1.351140 -0.000126 0.0
3.425255 0.777207 0.005240 0.0
1.675679 0.499475 0.003462 0.0
4.075949 0.294142 0.001353 0.0
3.334927 1.346087 0.000991 0.0
2.427131 0.028612 0.001511 0.0
3.183553 0.569156 -0.002928 0.0
1.026355 1.197028 -0.000535 0.0
3.195028 0.742188 0.002134 0.0
1.952845 1.173059 0.000996 0.0
3.527625 0.475302 -0.001532 0.0
1.861723 1.690383 -0.000656 0.0
3.213990 1.420356 -0.001758 0.0
4.821076 1.134910 -0.000437 0.0
4.074392 0.413643 -0.006157 0.0
4.029999 0.288238 -0.004366 0.0
4.764965 0.811692 -0.001207 0.0
1.888340 0.901604 0.000699 0.0
2.359696 0.570022 0.001059 0.0
0.547171 0.664235 0.000048 0.0
0.268536 0.119215 0.002705 0.0
1.456166 0.932598 0.002254 0.0
3.099433 0.367833 0.002295 0.0
0.920718 1.349842 0.003357 0.0
1.360545 1.642209 -0.001320 0.0
4.257066 1.303175 0.001239 0.0
4.422085 1.501382 0.000320 0.0
3.600186 -0.001209 0.002289 0.0
0.652075 0.878696 -0.000369 0.0
