3.24871928 0.31119057 -0.00039715 0.00000000
4.58141225 0.38442292 -0.00078549 0.00000000
4.21330230 1.96785917 0.00202445 0.00000000
3.97374155 0.12731570 -0.00364245 0.00000000
0.03631592 1.20733665 0.00112171 0.00000000
1.99204447 1.54407790 -0.00601151 0.00000000
2.99940769 0.91873136 -0.00171819 0.00000000
1.99139057 1.98152464 -0.00307892 0.00000000
0.84395126 1.25092945 -0.00188152 0.00000000
3.65338509 1.96342051 -0.00112790 0.00000000
3.66233690 1.10284110 0.00239180 0.00000000
1.07323912 0.86689751 0.00122326 0.00000000
2.24502283 1.92828764 0.00120053 0.00000000
3.41918188 1.27695712 0.00262911 0.00000000
1.98236090 0.50282969 -0.00003327 0.00000000
3.89402008 0.02710400 0.00010039 0.00000000
1.13698841 1.99903755 -0.00179433 0.00000000
1.40961213 2.17339208 -0.00410195 0.00000000
2.59272971 0.37305394 0.00004576 0.00000000
1.74135851 0.48317860 0.00419517 0.00000000
4.53911487 0.04351555 0.00253996 0.00000000
0.56725728 0.24263406 0.00221525 0.00000000
2.04057957 0.88978201 0.00031571 0.00000000
4.54058771 0.79943670 -0.00126261 0.00000000
0.67660445 1.68720881 -0.00149263 0.00000000
4.51504762 1.12175128 0.00187976 0.00000000
0.90394244 0.47096798 -0.00045254 0.00000000
3.70866840 2.14314866 -0.00091416 0.00000000
0.17970689 1.11143021 -0.00097026 0.00000000
0.38660360 0.99331990 0.00014677 0.00000000
2.08838733 0.31679224 -0.00152498 0.00000000
1.41613552 0.62062814 0.00272700 0.00000000
2.96513999 1.12090873 -0.00035214 0.00000000
2.42954531 1.27367550 0.00254897 0.00000000
4.00011423 1.56543361 -0.00158057 0.00000000
3.19242484 1.06960044 -0.00017851 0.00000000
0.15302093 0.78640595 0.00241350 0.00000000
3.48564703 1.61867217 -0.00037782 0.00000000
0.72019473 1.53458460 -0.00465068 0.00000000
2.54573234 1.81073716 0.00183399 0.00000000
0.66255696 1.69523752 0.00432086 0.00000000
2.59288030 0.59486397 -0.00199124 0.00000000
2.13673560 1.10201740 0.00057489 0.00000000
2.87263493 1.59491288 0.00045093 0.00000000
3.54242575 0.43811040 -0.00240531 0.00000000
3.04649064 0.70826423 0.00132325 0.00000000
0.77698663 1.41845135 0.00326164 0.00000000
3.45028055 0.58998635 -0.00022206 0.00000000
1.75605318 1.26550464 0.00097860 0.00000000
0.56456708 0.33293171 -0.00158262 0.00000000
1.04443200 2.14127440 0.00315555 0.00000000
4.56224100 2.20616845 0.00083546 0.00000000
1.55577724 1.88395156 0.00773900 0.00000000
3.98885619 1.55164581 -0.00217804 0.00000000
3.50009336 1.71623144 -0.00153732 0.00000000
0.43888409 1.48157991 0.00064738 0.00000000
2.54796098 1.85861852 -0.00179161 0.00000000
3.48237973 0.83983343 0.00145844 0.00000000
4.40404417 1.98814339 0.00202483 0.00000000
2.42090666 1.95643881 -0.00308845 0.00000000
3.30411121 1.05753327 -0.00070718 0.00000000
1.62817945 0.66965357 0.00038340 0.00000000
4.76683861 0.53548362 0.00188025 0.00000000
0.49036304 2.10491224 -0.00705225 0.00000000
2.98095792 0.37506896 -0.00119679 0.00000000
1.66087790 1.67991113 0.00230869 0.00000000
1.68304515 0.28135895 0.00599836 0.00000000
1.62907550 1.69130902 -0.00421463 0.00000000
1.09349809 0.40629511 -0.00060398 0.00000000
1.60232028 0.79527360 -0.00026910 0.00000000
1.92958566 0.09984850 -0.00056695 0.00000000
3.88987208 0.24711590 0.00033709 0.00000000
3.39115740 0.00454654 -0.00024899 0.00000000
1.03559334 1.71328230 0.00068272 0.00000000
1.01496994 1.66860702 -0.00418064 0.00000000
4.54867459 1.60693897 0.00175288 0.00000000
0.90771012 1.52964775 -0.00362313 0.00000000
2.85531548 1.76196854 -0.00585703 0.00000000
3.54103939 0.92995527 -0.00407244 0.00000000
0.88566386 0.14140818 0.00228831 0.00000000
1.22287500 0.42264333 0.00101092 0.00000000
2.05580579 0.05936927 0.00040053 0.00000000
0.50960501 2.23287458 0.00033318 0.00000000
4.64397601 1.79488845 -0.00149294 0.00000000
0.05083421 0.30314181 0.00289581 0.00000000
1.26616267 1.63077657 -0.00194495 0.00000000
4.50263910 2.16924130 -0.00151377 0.00000000
4.24202748 1.24893127 -0.00271710 0.00000000
2.55557523 1.31046930 0.00259220 0.00000000
3.23605305 1.51475864 0.00427165 0.00000000
3.32041921 1.53521143 0.00126471 0.00000000
4.10386991 1.83268742 -0.00324239 0.00000000
2.83126239 1.65025973 -0.00260644 0.00000000
1.36187939 0.81449757 0.00164468 0.00000000
0.84181254 0.94094715 -0.00066468 0.00000000
2.05005956 0.09691241 0.00013732 0.00000000
2.81931867 1.33236354 0.00096130 0.00000000
0.57800287 0.48626032 -0.00356091 0.00000000
1.15702321 0.24779614 -0.00002024 0.00000000
1.44867381 1.91612625 0.00029575 0.00000000
4.02929137 0.78109412 -0.00220143 0.00000000
0.37677554 0.13921228 -0.00036881 0.00000000
0.32764182 0.28129917 -0.00432529 0.00000000
3.91568459 1.16535847 0.00155222 0.00000000
1.69286674 1.46913409 -0.00281675 0.00000000
3.73766220 0.05127605 0.00086247 0.00000000
0.49616161 0.89124484 0.00056970 0.00000000
3.12535452 0.44416626 -0.00078666 0.00000000
3.49705311 1.92925633 -0.00027721 0.00000000
0.68829158 1.63858784 -0.00258460 0.00000000
2.09708334 2.15434740 -0.00270481 0.00000000
4.52374052 1.62294167 -0.00141150 0.00000000
1.22133803 1.03029644 -0.00048990 0.00000000
0.75590527 2.00627860 0.00012040 0.00000000
0.78010907 2.13591545 0.00164428 0.00000000
4.47229882 1.11309910 -0.00184133 0.00000000
1.60322700 2.04603464 -0.00047267 0.00000000
3.26031630 0.38158503 -0.00578761 0.00000000
4.61827138 1.37387940 0.00362499 0.00000000
1.80406932 1.65990029 0.00071316 0.00000000
0.84307442 1.27275743 -0.00005341 0.00000000
2.44170288 0.22227960 0.00308335 0.00000000
2.50532477 1.33431997 0.00269687 0.00000000
1.22417228 0.00405064 -0.00034983 0.00000000
4.83591201 0.00987790 0.00383567 0.00000000
1.60435527 0.44655419 0.00063311 0.00000000
3.98366278 1.64348117 -0.00057476 0.00000000
1.29624377 1.02742780 -0.00069389 0.00000000
4.18506490 1.65769199 0.00060553 0.00000000
0.97449060 1.76180194 -0.00220536 0.00000000
1.69652157 1.38401926 0.00150217 0.00000000
2.56000868 0.83121852 0.00070482 0.00000000
4.70228149 1.49493473 -0.00358950 0.00000000
2.23114792 0.81067008 0.00096048 0.00000000
4.76692602 1.28312197 0.00209098 0.00000000
3.12225031 1.17015879 0.00532519 0.00000000
2.99616642 0.69449417 0.00910478 0.00000000
2.81314485 0.81691668 0.00046475 0.00000000
1.75028040 1.34442031 0.00024720 0.00000000
1.13418163 1.03256559 -0.00119965 0.00000000
4.37487348 1.54430933 -0.00390537 0.00000000
2.44657384 0.78676469 -0.00446948 0.00000000
3.26934194 1.59843755 0.00115192 0.00000000
4.17584800 0.05455525 -0.00162725 0.00000000
3.56689619 1.17014029 0.00104519 0.00000000
0.83496754 0.50947689 -0.00000325 0.00000000
1.39595209 1.14349351 0.00150264 0.00000000
4.55062552 0.62271471 -0.00373291 0.00000000
1.98809967 1.74323998 -0.00167754 0.00000000
4.49856997 1.84382253 -0.00409147 0.00000000
4.15385701 0.27923493 0.00370920 0.00000000
4.41965556 2.12211248 0.00040478 0.00000000
0.88930563 0.72151195 -0.00327665 0.00000000
3.00725489 0.16075007 -0.00157560 0.00000000
3.83130138 2.21329565 0.00189681 0.00000000
4.30837968 0.57538889 -0.00253269 0.00000000
1.42370293 1.69201904 -0.00422909 0.00000000
3.62346349 0.77227471 0.00077033 0.00000000
3.16377968 0.64018118 0.00111861 0.00000000
0.12331873 0.13553555 0.00011646 0.00000000
0.10243741 1.07932792 0.00117479 0.00000000
4.77119683 0.32959690 0.00320848 0.00000000
2.81120258 1.37835004 0.00062398 0.00000000
1.10107197 0.22707115 -0.00038524 0.00000000
1.61125355 0.72072976 -0.00076814 0.00000000
1.90597743 1.34972644 0.00254266 0.00000000
2.08118480 1.80852147 -0.00020511 0.00000000
0.62265356 1.48510043 0.00649748 0.00000000
0.44503179 0.25376204 0.00468420 0.00000000
1.06001283 0.28632741 -0.00387420 0.00000000
3.50938238 0.12006804 0.00297891 0.00000000
3.27818689 1.63870918 0.00049565 0.00000000
4.01934164 2.20788573 -0.00064664 0.00000000
3.07678859 1.35244150 0.00271445 0.00000000
3.82312764 2.03409161 0.00379496 0.00000000
3.99443737 0.61548724 0.00117123 0.00000000
1.68149182 0.77679339 -0.00178671 0.00000000
2.33313903 0.50842030 -0.00003911 0.00000000
0.60915394 0.61948001 -0.00203366 0.00000000
1.34538241 1.03025450 -0.00373344 0.00000000
2.13886215 2.13558909 -0.00171178 0.00000000
4.09289907 1.59653463 0.00506457 0.00000000
1.09939798 2.13043225 -0.00027240 0.00000000
0.60142535 0.32040932 -0.00000231 0.00000000
2.40379199 2.22849580 0.00225021 0.00000000
3.62968444 2.15925222 -0.00327832 0.00000000
1.21575203 0.74122609 0.00452070 0.00000000
3.97037252 1.11625486 -0.00276125 0.00000000
3.24264526 1.23292573 0.00199907 0.00000000
1.61428239 0.52272314 -0.00098302 0.00000000
0.26614379 1.48636537 0.00297220 0.00000000
1.99836112 0.52594353 -0.00061502 0.00000000
0.46449382 0.45893354 0.00138027 0.00000000
3.68052858 0.22483465 -0.00029296 0.00000000
2.71428320 0.02779326 -0.00068530 0.00000000
3.93035150 1.76112357 0.00118259 0.00000000
4.61783204 0.86462919 0.00013297 0.00000000
1.38765517 1.19561623 -0.00524208 0.00000000
3.99376224 1.38735775 -0.00201644 0.00000000
3.97757463 1.85015089 0.00119522 0.00000000
2.74444925 0.10832451 -0.00095788 0.00000000
3.80409166 2.09749155 -0.00501451 0.00000000
0.84791582 1.23879287 0.00229828 0.00000000
2.29335329 1.78877436 -0.00105542 0.00000000
3.77107656 0.82680897 -0.00097138 0.00000000
0.58894527 0.93913873 0.00176984 0.00000000
3.73184122 0.59092170 -0.00055293 0.00000000
3.23539043 0.76993917 -0.00073941 0.00000000
0.49429028 0.30219521 -0.00259212 0.00000000
3.65269402 1.73651795 -0.00155234 0.00000000
1.14034543 1.95645980 -0.00508456 0.00000000
1.95883269 1.13138869 0.00372612 0.00000000
3.71144189 0.67812824 0.00262136 0.00000000
4.72087067 0.04462695 -0.00359555 0.00000000
4.05591797 0.91003502 -0.00260272 0.00000000
1.99561881 1.56414093 -0.00171104 0.00000000
2.37261253 1.00185718 0.00006025 0.00000000
1.48041238 0.37662234 -0.00241304 0.00000000
3.93154379 0.38783202 -0.00308164 0.00000000
3.50252188 0.44812283 0.00156561 0.00000000
4.33458684 1.25578907 -0.00192361 0.00000000
3.68011580 2.08740592 0.00244934 0.00000000
1.34873150 0.30575960 0.00078670 0.00000000
1.13111887 1.80061856 0.00047030 0.00000000
2.24833095 1.62241889 -0.00093889 0.00000000
2.23057983 0.60001496 -0.00376651 0.00000000
1.11753902 0.89269979 0.00574994 0.00000000
0.93254899 0.28886948 0.00267170 0.00000000
3.48000023 0.50551737 -0.00094647 0.00000000
3.88248124 1.81436377 0.00130293 0.00000000
4.17093808 1.92561747 0.00094010 0.00000000
0.14078153 1.60902033 -0.00171299 0.00000000
0.04009789 1.48019323 -0.00284251 0.00000000
0.01102435 1.97205968 -0.00395318 0.00000000
3.52729078 1.45062306 -0.00242184 0.00000000
0.39207204 0.07280008 0.00106673 0.00000000
0.45472399 1.54579446 -0.00023589 0.00000000
0.01190576 0.49291091 0.00244855 0.00000000
1.76686196 0.37495625 -0.00866083 0.00000000
4.42057887 1.42899352 -0.00248193 0.00000000
1.34243718 0.97056683 -0.00482541 0.00000000
3.41664330 0.18330490 0.00088369 0.00000000
0.98007366 1.58445222 0.00063678 0.00000000
4.28000581 1.37858998 0.00416861 0.00000000
1.49371292 1.18881036 -0.00092775 0.00000000
2.06424375 0.81847076 -0.00188571 0.00000000
2.90253671 0.74570137 0.00219500 0.00000000
2.87812854 0.80015621 -0.00502469 0.00000000
2.73088328 0.56661948 -0.00251936 0.00000000
1.67118579 0.27149516 -0.00174713 0.00000000
3.99039352 0.68688100 0.00105496 0.00000000
2.93079626 1.60303339 -0.00447193 0.00000000
4.19178874 0.56200026 0.00228944 0.00000000
4.73502965 0.71788107 0.00085846 0.00000000
0.36188847 2.15363339 -0.00022139 0.00000000
0.16121763 1.56220272 0.00008821 0.00000000
4.21584757 1.93071384 -0.00318767 0.00000000
2.22926549 1.51405450 -0.00222785 0.00000000
2.78418012 0.21441491 0.00269084 0.00000000
0.41461294 0.38896231 -0.00289765 0.00000000
0.32325121 1.40541409 -0.00045271 0.00000000
3.88725296 2.21377068 0.00380190 0.00000000
1.88773019 0.23251350 -0.00285802 0.00000000
2.86165265 0.46374412 -0.00016189 0.00000000
1.54254252 0.58828189 0.00292649 0.00000000
3.85638242 1.22622104 -0.00272083 0.00000000
4.75927704 2.08315644 0.00052441 0.00000000
4.33228436 2.19963521 0.00081184 0.00000000
3.52105035 2.04457233 -0.00047052 0.00000000
1.52162798 1.29296260 -0.00142258 0.00000000
1.63656498 1.28653003 -0.00125795 0.00000000
4.43088383 0.46241499 0.00027515 0.00000000
4.72266319 1.56630388 0.00483360 0.00000000
2.82735759 2.23986291 -0.00442367 0.00000000
2.97143781 2.00921035 0.00460355 0.00000000
2.29933835 0.42554806 -0.00484387 0.00000000
0.37596912 2.12700000 -0.00124995 0.00000000
1.85715591 1.61062230 0.00181048 0.00000000
0.32549299 1.97898819 0.00196622 0.00000000
2.57680186 0.95584012 0.00063020 0.00000000
1.71687806 0.28611740 0.00084284 0.00000000
0.72212832 0.32416689 -0.00153845 0.00000000
1.74852627 0.17282905 -0.00002941 0.00000000
0.90812793 0.18936395 0.00079704 0.00000000
0.59350441 1.34009499 0.00781562 0.00000000
1.05761822 1.20056082 -0.00039385 0.00000000
4.04273275 1.19536394 -0.00287694 0.00000000
1.83066349 0.09962035 -0.00397682 0.00000000
2.41869534 0.70791637 0.00078419 0.00000000
4.73154263 1.47538522 -0.00222097 0.00000000
3.78282894 0.73979351 -0.00119413 0.00000000
0.62723387 1.00741504 -0.00130866 0.00000000
3.76542601 1.23750680 -0.00221609 0.00000000
0.09657038 1.97616799 -0.00017439 0.00000000
0.87957371 0.73004075 0.00202456 0.00000000
1.21995392 1.94821359 0.00055498 0.00000000
4.49992986 1.83828305 -0.00047920 0.00000000
3.97502559 0.35762513 -0.00085111 0.00000000
4.47817951 0.10547873 0.00166129 0.00000000
2.26942862 1.00394409 -0.00248178 0.00000000
2.80055157 0.54835116 0.00135134 0.00000000
4.28133041 1.20404159 -0.00051075 0.00000000
4.50762741 1.98556437 -0.00092738 0.00000000
2.13479469 2.14234748 -0.00047016 0.00000000
0.27278781 0.26244284 0.00219323 0.00000000
4.37343860 0.99428093 -0.00323236 0.00000000
0.89064428 0.09195701 0.00048080 0.00000000
1.46272830 1.37213988 0.00548957 0.00000000
4.68480193 1.33080291 0.00136031 0.00000000
0.44362390 1.68267472 0.00144502 0.00000000
3.46468899 2.12932633 0.00089216 0.00000000
1.71388327 0.08710594 -0.00099819 0.00000000
0.54367805 1.61929420 -0.00106235 0.00000000
0.13324510 1.67254012 0.00296319 0.00000000
2.17059386 2.07926988 -0.00181013 0.00000000
3.83589441 0.46628809 0.00379476 0.00000000
1.89997874 1.90356597 0.00224416 0.00000000
1.73227887 0.22436960 0.00220140 0.00000000
1.35765494 0.72551035 -0.00197695 0.00000000
4.25487793 1.67254621 -0.00150214 0.00000000
0.42043106 2.06449591 0.00352669 0.00000000
4.43456695 0.56644687 0.00052865 0.00000000
0.00349814 1.24539933 -0.00200022 0.00000000
1.46262837 1.98393096 -0.00038502 0.00000000
1.74196256 1.36396977 -0.00349797 0.00000000
0.81409581 0.77956602 0.00025417 0.00000000
0.37720722 0.72781567 0.00350451 0.00000000
2.15230187 1.23024827 -0.00440667 0.00000000
1.24178802 0.04758956 -0.00198630 0.00000000
3.25243061 2.18414361 -0.00120358 0.00000000
2.57821265 0.35894452 -0.00278300 0.00000000
2.05042042 1.78395592 0.00259142 0.00000000
3.96692733 0.21379992 0.00049409 0.00000000
4.40001595 1.66598498 -0.00137090 0.00000000
2.72370530 1.44431979 -0.00041108 0.00000000
2.19493771 2.15920310 0.00010781 0.00000000
1.95448649 1.27401949 0.00242689 0.00000000
0.52960868 0.31920018 -0.00104677 0.00000000
2.48589813 1.18345788 -0.00132378 0.00000000
2.33453748 1.88643603 0.00218971 0.00000000
3.67917572 1.59932172 0.00123780 0.00000000
3.26694383 1.68382688 0.00168211 0.00000000
0.64645087 1.71698289 -0.00084457 0.00000000
1.62364971 1.58042740 0.00315852 0.00000000
3.42323057 0.53502877 -0.00397256 0.00000000
2.67742130 1.20827707 -0.00121383 0.00000000
1.76487734 0.41159006 0.00003495 0.00000000
3.15183439 0.47607054 -0.00111489 0.00000000
2.80945884 1.10582896 0.00097076 0.00000000
4.02233429 0.55481896 0.00232310 0.00000000
2.62412228 0.86801343 0.00287056 0.00000000
3.10568290 1.30188440 -0.00052040 0.00000000
2.47257423 0.02575420 -0.00123876 0.00000000
1.97208753 1.26716585 -0.00368550 0.00000000
3.21347505 1.60391615 -0.00172675 0.00000000
2.01339803 1.19279504 0.00049337 0.00000000
1.37130148 0.24152242 -0.00179187 0.00000000
3.70173217 0.01184419 -0.00147343 0.00000000
0.88287789 1.42192032 0.00113854 0.00000000
3.19161605 1.46031782 -0.00039133 0.00000000
2.88755842 1.80026609 -0.00112505 0.00000000
2.43025796 1.85101226 0.00047593 0.00000000
2.23517313 1.42471416 0.00034480 0.00000000
0.41551557 0.27791228 -0.00253139 0.00000000
1.71510837 0.58486076 0.00189106 0.00000000
1.73264502 1.16601206 0.00379718 0.00000000
4.79671825 2.19895680 0.00055743 0.00000000
2.15598298 0.68697505 -0.00160307 0.00000000
2.39887945 0.23956431 0.00461327 0.00000000
3.33160575 0.30483206 -0.00322498 0.00000000
1.31932421 1.76801558 0.00339908 0.00000000
2.13205675 0.08229546 -0.00207735 0.00000000
1.96897358 1.17777081 0.00057148 0.00000000
4.26011303 1.07008314 -0.00166438 0.00000000
0.41949706 0.47267349 -0.00008241 0.00000000
0.46715482 1.50697012 -0.00196337 0.00000000
3.79532221 0.98078315 0.00456612 0.00000000
2.19872263 0.44879029 0.00105998 0.00000000
3.05181777 2.19537766 -0.00029615 0.00000000
4.20942813 0.29457464 -0.00082421 0.00000000
3.69721519 1.64324652 0.00134149 0.00000000
0.61978713 0.74878950 0.00148011 0.00000000
2.34379536 1.63966220 -0.00167862 0.00000000
0.30157349 0.48608127 0.00038545 0.00000000
0.53930510 2.03920064 -0.00170137 0.00000000
3.38136111 0.65832834 -0.00045801 0.00000000
3.97411271 1.11425567 0.00035003 0.00000000
1.06439603 1.29060934 -0.00300086 0.00000000
0.58689825 0.96836369 -0.00334265 0.00000000
4.17215222 2.20491814 0.00310917 0.00000000
2.07184474 1.79630156 -0.00086987 0.00000000
0.29994838 1.26380865 -0.00099620 0.00000000
1.26061109 0.42900645 -0.00159077 0.00000000
2.31796777 1.32512610 0.00639539 0.00000000
3.61033693 1.95543682 -0.00419307 0.00000000
0.64673562 0.96482360 -0.00178814 0.00000000
1.63897758 1.95123567 -0.00100639 0.00000000
1.82330553 1.72924384 -0.00083519 0.00000000
4.79425189 0.32447148 0.00303843 0.00000000
1.97337838 1.63790836 0.00556716 0.00000000
1.59221221 1.00513967 -0.00179542 0.00000000
0.18970079 2.01222581 -0.00404724 0.00000000
2.61267058 2.06948118 -0.00281769 0.00000000
1.74940847 1.93082704 0.00217782 0.00000000
4.47798579 1.69859755 0.00372178 0.00000000
1.72711164 0.15602643 -0.00265685 0.00000000
1.38870015 0.88784411 -0.00072291 0.00000000
4.53282617 1.33745268 0.00470262 0.00000000
3.23394646 0.21613854 0.00406647 0.00000000
1.19448453 1.10728377 0.00057422 0.00000000
1.98553266 0.77283387 0.00194370 0.00000000
3.22892180 0.25761574 -0.00279514 0.00000000
0.04629710 0.47702779 -0.00104063 0.00000000
3.30751180 1.27881562 0.00127862 0.00000000
3.11203053 0.82779284 0.00033884 0.00000000
2.37311204 2.20187551 -0.00024643 0.00000000
4.28690839 1.48553759 0.00047357 0.00000000
2.74141402 1.92822795 0.00363805 0.00000000
1.25941620 0.66650287 0.00212231 0.00000000
1.35264879 0.79869716 -0.00082905 0.00000000
3.84547108 0.10740166 0.00372450 0.00000000
0.47234395 2.00838759 0.00055872 0.00000000
1.50531301 1.11687827 -0.00092491 0.00000000
3.10915641 0.16043806 0.00421470 0.00000000
4.40359817 1.95764164 -0.00313482 0.00000000
2.52372366 0.21970135 -0.00117006 0.00000000
0.26988415 1.24232893 -0.00190946 0.00000000
2.87148009 0.43990119 0.00248925 0.00000000
1.23403246 0.36957162 0.00041001 0.00000000
4.78555007 0.87784874 -0.00385396 0.00000000
4.06998199 0.66346571 0.00051521 0.00000000
1.47200200 0.28900205 0.00144079 0.00000000
3.92400043 0.97892645 -0.00198904 0.00000000
2.24520413 2.20285212 -0.00084423 0.00000000
1.45784341 2.00132220 -0.00292916 0.00000000
2.03950402 2.11179261 -0.00258178 0.00000000
1.16368742 1.14665878 0.00170305 0.00000000
1.81582034 1.45391625 -0.00032789 0.00000000
4.25356994 1.43754366 0.00114082 0.00000000
2.13497100 1.65317823 -0.00044849 0.00000000
0.31027933 1.10811282 0.00254242 0.00000000
4.38969769 1.16323566 0.00100844 0.00000000
4.81298484 0.92397190 -0.00057163 0.00000000
0.44746517 1.91183741 0.00180133 0.00000000
4.12492638 1.48519792 -0.00037063 0.00000000
1.77108136 1.94742109 0.00083145 0.00000000
2.15735724 1.17540649 0.00100420 0.00000000
0.81429924 0.21967730 0.00111317 0.00000000
1.70304759 0.93025287 0.00172704 0.00000000
3.20178130 1.20465825 0.00196741 0.00000000
0.58645490 1.75790933 -0.00026233 0.00000000
1.12196165 0.28491906 0.00136694 0.00000000
1.39882460 1.72273932 0.00104981 0.00000000
1.86886870 2.02690570 -0.00337892 0.00000000
1.01627492 0.39995427 0.00042330 0.00000000
2.90838506 1.88644849 -0.00163414 0.00000000
0.42458013 0.24213220 -0.00012579 0.00000000
4.23984134 1.64066852 0.00186294 0.00000000
1.12884115 0.77863908 -0.00008950 0.00000000
1.18206721 1.05310929 -0.00091137 0.00000000
3.97857555 2.10183722 -0.00266347 0.00000000
1.92134024 0.53591156 -0.00348507 0.00000000
1.68839563 1.48780874 0.00616048 0.00000000
4.40318515 0.15274357 -0.00450537 0.00000000
4.31334528 1.99567431 -0.00042842 0.00000000
3.04544344 1.35377903 0.00474815 0.00000000
2.38479243 1.73927320 -0.00197102 0.00000000
4.76293362 1.09123772 0.00229892 0.00000000
2.74002953 1.29202532 0.00034520 0.00000000
0.90086244 1.72610030 0.00196032 0.00000000
3.71300908 2.21903572 0.00016456 0.00000000
0.39268011 1.10776780 -0.00392593 0.00000000
3.64975486 1.69357188 -0.00085923 0.00000000
4.09538016 1.66020557 -0.00032274 0.00000000
1.65428997 1.63837930 -0.00013134 0.00000000
3.30880498 1.81820215 -0.00213057 0.00000000
3.59293518 0.21114684 -0.00137048 0.00000000
3.01800832 2.13473892 0.00119947 0.00000000
3.47701036 1.14658898 -0.00069558 0.00000000
2.60939313 0.03151004 -0.00363093 0.00000000
3.40190262 0.68442471 -0.00082639 0.00000000
4.60067966 0.53441891 -0.00104322 0.00000000
1.03992249 1.31744436 0.00282562 0.00000000
3.64755172 0.13338256 -0.00289679 0.00000000
4.00846577 2.03101404 0.00187504 0.00000000
4.38984156 0.70393734 0.00125041 0.00000000
2.70512181 1.19741028 0.00205517 0.00000000
1.06796943 1.47015797 -0.00260410 0.00000000
4.32143512 1.11936207 -0.00075137 0.00000000
0.12919093 0.85048751 0.00097056 0.00000000
4.74268474 1.14126352 0.00280636 0.00000000
3.40245389 1.04455712 0.00483651 0.00000000
3.80680801 0.26698636 0.00302755 0.00000000
4.63730056 0.61305225 0.00174195 0.00000000
2.56372107 0.45389406 0.00418402 0.00000000
3.99255640 0.47973796 0.00044375 0.00000000
3.49544603 0.83268596 0.00730307 0.00000000
4.72791877 1.96565621 0.00361768 0.00000000
0.78543033 0.35575577 0.00217351 0.00000000
0.31755609 2.15755222 0.00036814 0.00000000
3.06998147 0.54844820 0.00180031 0.00000000
0.94300775 0.63617108 -0.00180538 0.00000000
2.03782289 0.21472919 -0.00284906 0.00000000
3.56243512 0.06472332 -0.00033253 0.00000000
0.78767950 1.01143585 0.00063140 0.00000000
4.69053152 1.03015847 0.00479170 0.00000000
3.76566841 1.76040399 0.00170210 0.00000000
1.50593604 0.79074487 0.00125145 0.00000000
1.81381552 1.05196747 0.00301253 0.00000000
4.82715024 1.68110709 -0.00142154 0.00000000
1.41261065 1.10155463 -0.00173069 0.00000000
1.25531699 1.39522436 0.00029018 0.00000000
2.28935945 0.39308469 0.00396093 0.00000000
1.57662910 0.35727140 -0.00100414 0.00000000
3.18108681 1.56945309 0.00034801 0.00000000
3.33799008 1.49590574 -0.00169103 0.00000000
2.47745249 0.55140562 0.00080733 0.00000000
2.83244128 0.11853219 0.00464987 0.00000000
3.07123762 1.16297448 -0.00556256 0.00000000
2.64436778 0.96630836 -0.00086637 0.00000000
3.51505866 1.98824546 0.00359867 0.00000000
0.79714332 2.07241380 -0.00038985 0.00000000
3.06325141 1.93561120 -0.00206399 0.00000000
1.70130825 1.25365687 -0.00186838 0.00000000
0.05511720 1.18715741 0.00042180 0.00000000
2.71952207 1.31606442 -0.00054923 0.00000000
4.82917241 0.56696182 0.00131560 0.00000000
1.78593377 0.81599498 -0.00183147 0.00000000
3.99408221 0.45152234 -0.00181271 0.00000000
2.35618241 0.15113619 -0.00097127 0.00000000
0.02430925 1.04690103 0.00314669 0.00000000
3.05278870 0.44638843 0.00110835 0.00000000
3.20781136 0.19771220 -0.00218064 0.00000000
1.95955467 0.90092890 -0.00271749 0.00000000
2.46660560 0.13826636 -0.00043939 0.00000000
1.02221820 0.41771917 0.00001617 0.00000000
2.99488658 0.20991498 -0.00452236 0.00000000
4.00516925 1.65769329 0.00058644 0.00000000
2.41537387 2.11462421 -0.00318394 0.00000000
2.74021515 0.00508682 -0.00296016 0.00000000
2.93773672 1.06456345 0.00041127 0.00000000
3.31894326 2.01905439 0.00191223 0.00000000
4.51757919 0.72965705 0.00060213 0.00000000
2.08321252 1.94267382 0.00297219 0.00000000
2.83957192 2.22038299 -0.00134027 0.00000000
4.80586830 1.94392978 -0.00343323 0.00000000
3.65407543 1.47096211 0.00458088 0.00000000
1.80807039 1.34579689 0.00519580 0.00000000
3.66156854 1.78877073 -0.00038100 0.00000000
2.62066791 2.09955012 0.00057295 0.00000000
0.37552072 1.23369405 -0.00190434 0.00000000
3.22543764 1.96735017 -0.00009806 0.00000000
4.85855993 1.24299260 0.00064390 0.00000000
4.80333970 0.60352022 -0.00240506 0.00000000
0.09683219 1.59145324 -0.00416419 0.00000000
1.54067936 0.70067222 0.00244353 0.00000000
3.21774472 2.04058426 0.00055443 0.00000000
1.56085805 1.94261531 0.00323896 0.00000000
1.59722728 0.64540577 -0.00245693 0.00000000
2.00883162 1.70795812 0.00114050 0.00000000
3.47268281 2.22319104 0.00238990 0.00000000
1.31450372 1.67825155 0.00157203 0.00000000
4.48050665 1.69232245 0.00283420 0.00000000
2.22537521 1.56877718 -0.00261461 0.00000000
1.15290753 1.87137985 -0.00158530 0.00000000
4.07446761 1.11709240 -0.00023113 0.00000000
2.55522387 0.32800607 -0.00089137 0.00000000
0.82798167 2.06515146 -0.00114836 0.00000000
2.24235522 0.43950984 0.00067472 0.00000000
3.03991177 0.75311935 -0.00270035 0.00000000
4.02871406 1.12937740 0.00376273 0.00000000
0.20590707 1.23035496 -0.00393221 0.00000000
3.14893426 0.98408276 0.00115883 0.00000000
0.71586095 0.14381922 0.00752164 0.00000000
4.68102806 1.83885685 0.00190045 0.00000000
1.61661576 1.79155067 -0.00202665 0.00000000
1.49351317 0.88823467 0.00133338 0.00000000
0.52207155 0.43634622 0.00362685 0.00000000
3.09255320 0.59990661 0.00227591 0.00000000
0.88235771 1.13172248 -0.00215885 0.00000000
4.03328735 2.20990538 -0.00265446 0.00000000
1.22082812 1.65901934 0.00240762 0.00000000
4.11040335 0.47417706 -0.00202168 0.00000000
1.26198243 2.08391697 -0.00086147 0.00000000
3.20906119 1.66211559 -0.00215991 0.00000000
3.21515746 1.48669937 -0.00298664 0.00000000
2.28213217 1.29803423 0.00039744 0.00000000
2.26480930 0.37387860 -0.00034424 0.00000000
4.28804314 0.75960108 0.00245230 0.00000000
3.84015794 1.87501021 -0.00162221 0.00000000
3.87305778 1.22676741 -0.00110113 0.00000000
4.09554308 1.97505894 -0.00093214 0.00000000
3.81453621 0.62789203 0.00036168 0.00000000
0.12817488 0.08683553 -0.00385909 0.00000000
2.43085695 0.72748406 -0.00332693 0.00000000
3.17435407 0.51266516 0.00320783 0.00000000
3.46264749 1.49188343 -0.00104793 0.00000000
1.00660647 1.80539762 0.00093285 0.00000000
3.78635764 2.06753499 -0.00168327 0.00000000
2.06060246 0.97664642 -0.00259737 0.00000000
4.10381663 1.10624625 -0.00181844 0.00000000
2.37944936 1.44773750 -0.00174517 0.00000000
4.40738449 0.07120431 -0.00015668 0.00000000
2.68710855 0.05197734 0.00048508 0.00000000
4.14201031 0.08629340 0.00078798 0.00000000
2.09707517 1.17522678 -0.00018933 0.00000000
0.99332443 1.64513304 0.00031032 0.00000000
0.80868006 0.08651686 -0.00339247 0.00000000
4.11516815 0.42637332 0.00245973 0.00000000
4.28640098 2.10561002 -0.00483607 0.00000000
2.37521030 0.15144215 0.00041865 0.00000000
1.17849336 0.32298594 0.00134727 0.00000000
4.71957732 2.13884632 -0.00212831 0.00000000
1.18891526 0.94411135 0.00296596 0.00000000
4.44380083 2.04226082 -0.00858385 0.00000000
2.73846242 2.10996428 -0.00007355 0.00000000
0.96586653 1.69784708 0.00073015 0.00000000
4.10038583 1.51355207 0.00127742 0.00000000
1.30714385 0.40771903 -0.00227528 0.00000000
3.84618156 1.75583900 -0.00273565 0.00000000
1.20453995 0.73143978 -0.00118355 0.00000000
2.39745657 1.13260977 -0.00310929 0.00000000
0.41870269 0.85376327 0.00323019 0.00000000
4.00711394 1.48796919 -0.00177215 0.00000000
4.31364267 0.67225555 0.00138934 0.00000000
3.31821512 0.71792459 0.00034201 0.00000000
3.85802462 2.20368303 -0.00365398 0.00000000
1.35313070 1.93685314 -0.00061181 0.00000000
3.24211114 1.15817282 -0.00199217 0.00000000
4.36411507 1.50219412 -0.00039907 0.00000000
0.10630625 0.86111846 -0.00023107 0.00000000
3.26068843 2.20012611 -0.00258754 0.00000000
2.27227259 1.47341413 -0.00004518 0.00000000
2.76659777 0.92029003 0.00018772 0.00000000
1.10513998 0.05259414 0.00076049 0.00000000
1.56641631 1.64972405 0.00366590 0.00000000
3.85504448 0.51509677 0.00060428 0.00000000
0.67468818 1.30218747 -0.00317736 0.00000000
3.69255504 0.56865502 0.00035695 0.00000000
0.48993667 1.44455864 0.00029001 0.00000000
1.40775633 0.94417732 0.00090260 0.00000000
1.20241156 2.09780035 0.00485140 0.00000000
1.83525428 1.00378901 0.00092854 0.00000000
2.67936477 1.17238352 0.00046911 0.00000000
2.71957644 0.53074872 0.00845531 0.00000000
0.66449860 2.12430294 -0.00005698 0.00000000
0.60435028 1.61378610 -0.00138183 0.00000000
3.23123294 2.21161290 -0.00311141 0.00000000
3.94935441 2.16669575 -0.00113715 0.00000000
4.01745449 1.22140655 -0.00021539 0.00000000
0.87548404 0.69786908 0.00208010 0.00000000
4.37353919 0.25054250 0.00333437 0.00000000
0.06359078 1.34629597 -0.00150881 0.00000000
0.15545815 1.12951940 0.00524097 0.00000000
2.73858174 1.79518665 -0.00176139 0.00000000
0.87860647 1.14811515 0.00313749 0.00000000
0.40199348 0.14665847 0.00298539 0.00000000
4.14505341 0.65860415 0.00090407 0.00000000
2.01903859 1.74386110 0.00130569 0.00000000
3.41995102 0.58023561 0.00194900 0.00000000
0.96199122 1.75718519 0.00237184 0.00000000
2.45205799 1.71066791 -0.00119000 0.00000000
2.67842374 0.71736758 -0.00127254 0.00000000
3.11580350 0.88603231 0.00076069 0.00000000
2.96332535 0.13041204 0.00360886 0.00000000
2.15147487 1.84173889 0.00219413 0.00000000
2.72544648 1.37249283 -0.00131609 0.00000000
2.62087335 0.81572617 -0.00121899 0.00000000
4.30772976 0.78003162 -0.00045277 0.00000000
3.43064976 0.32308152 0.00362064 0.00000000
1.88004152 1.79813598 -0.00210912 0.00000000
0.08493482 0.60940901 0.00010794 0.00000000
1.01470811 1.36600610 -0.00264197 0.00000000
2.55547315 0.14649646 0.00504314 0.00000000
4.77093692 0.17472071 0.00151374 0.00000000
3.68705349 1.09568855 0.00385700 0.00000000
2.10911586 1.37817434 -0.00070743 0.00000000
0.20015470 0.20710122 -0.00533863 0.00000000
3.92471769 0.42309860 -0.00542251 0.00000000
0.10814615 0.85076149 -0.00066443 0.00000000
1.08589049 1.59031474 0.00518400 0.00000000
2.10583279 0.61056045 -0.00196485 0.00000000
1.20646263 0.79153841 0.00086705 0.00000000
2.86908719 0.64531041 -0.00172803 0.00000000
3.19338523 2.04319166 0.00083152 0.00000000
0.91760047 0.51132988 -0.00108693 0.00000000
3.25749465 1.69856007 -0.00043454 0.00000000
0.66367711 0.18828762 0.00295575 0.00000000
3.52315332 2.11164223 -0.00322179 0.00000000
1.05364101 0.86286567 0.00234157 0.00000000
2.31473744 0.71443977 -0.00237705 0.00000000
2.40502645 1.10625488 -0.00135561 0.00000000
4.01490755 0.07661041 0.00024410 0.00000000
1.94742974 0.45886816 0.00125790 0.00000000
3.53952858 1.71631677 -0.00128471 0.00000000
3.20320220 0.71113849 0.00150521 0.00000000
2.83559539 1.45330825 0.00112751 0.00000000
0.24171896 0.43432480 -0.00030278 0.00000000
1.82489803 1.25158061 0.00146015 0.00000000
0.96631772 2.08988109 -0.00206525 0.00000000
2.81824903 1.78614394 -0.00064269 0.00000000
3.90988913 0.18542161 0.00284523 0.00000000
2.36194585 2.05931155 -0.00214824 0.00000000
3.26594004 0.14390615 0.00025488 0.00000000
1.55841154 0.61592872 -0.00267467 0.00000000
1.36403041 1.76596848 0.00150908 0.00000000
2.45960744 0.20412833 0.00355714 0.00000000
2.50027691 0.71683461 0.00088062 0.00000000
1.91082765 1.53386623 0.00303998 0.00000000
4.83443030 1.40069012 0.00301269 0.00000000
0.57401703 1.33557728 -0.00153205 0.00000000
1.92166784 0.33471730 0.00077080 0.00000000
3.70673445 1.34725038 -0.00237932 0.00000000
4.51318595 0.73891469 -0.00209407 0.00000000
0.09352209 2.12017910 -0.00001200 0.00000000
1.76909038 1.05174246 0.00230481 0.00000000
1.75630693 0.73976281 -0.00150331 0.00000000
2.29756311 0.04082231 -0.00039371 0.00000000
3.63949338 0.74943734 0.00389551 0.00000000
0.76737052 1.71725723 -0.00173096 0.00000000
1.24316753 1.23885995 -0.00008373 0.00000000
0.90429001 0.52892104 -0.00526931 0.00000000
1.25159214 0.59976670 0.00158514 0.00000000
3.86151843 0.50176660 -0.00027502 0.00000000
1.02288302 1.82648048 0.00129472 0.00000000
4.15896975 0.01355917 0.00384925 0.00000000
3.21839384 0.74396029 -0.00049181 0.00000000
3.77453261 1.22185177 -0.00248877 0.00000000
3.24087567 0.26072042 0.00009724 0.00000000
0.59718119 0.59311924 0.00385693 0.00000000
4.65486761 1.09451345 0.00068714 0.00000000
0.06799265 1.83994053 -0.00219561 0.00000000
3.33880800 0.74718590 0.00160137 0.00000000
2.04669575 0.36484880 -0.00050323 0.00000000
4.81313164 2.14685736 0.00401998 0.00000000
4.45587920 0.02128780 0.00153778 0.00000000
2.88992488 2.08234496 0.00032397 0.00000000
0.34131707 1.39302980 0.00507263 0.00000000
3.26142585 2.21221463 -0.00338251 0.00000000
1.05312292 1.35221592 -0.00236318 0.00000000
2.52439156 2.03770249 0.00306509 0.00000000
4.56405225 0.54929867 0.00139593 0.00000000
1.52962843 0.15464739 -0.00064927 0.00000000
0.14221131 0.64664143 0.00066749 0.00000000
0.47295097 0.47482334 -0.00197787 0.00000000
1.61099138 0.01747279 0.00346123 0.00000000
2.58575662 2.09699279 0.00175830 0.00000000
4.60033448 0.26540403 -0.00200570 0.00000000
0.24586701 1.25984673 -0.00273960 0.00000000
2.53890198 2.01770325 -0.00087107 0.00000000
4.25965533 0.63398049 -0.00014682 0.00000000
3.37936507 2.14415608 -0.00265639 0.00000000
3.36317776 0.73407606 0.00083522 0.00000000
3.81534424 0.99816071 0.00123712 0.00000000
0.69504411 0.94639116 -0.00185527 0.00000000
1.11851662 0.07877188 0.00004682 0.00000000
2.98473649 1.47590407 -0.00081786 0.00000000
1.88475265 1.84037876 -0.00353963 0.00000000
0.59279986 1.29841633 -0.00049724 0.00000000
4.84399110 1.59724395 -0.00003530 0.00000000
2.11506486 2.18730104 -0.00164536 0.00000000
2.91615599 1.72733539 0.00274911 0.00000000
1.30051226 2.20742889 -0.00087533 0.00000000
4.07798730 1.21538473 -0.00243027 0.00000000
0.29030691 0.06677474 -0.00068082 0.00000000
2.54165698 0.17626758 0.00224407 0.00000000
0.44029808 1.26485968 -0.00473819 0.00000000
3.58513098 0.52947532 -0.00264287 0.00000000
3.57479883 2.22490825 0.00181315 0.00000000
3.86030129 1.33528832 -0.00310566 0.00000000
0.44442811 0.37587028 0.00387960 0.00000000
2.34549919 1.55662382 0.00482063 0.00000000
4.72612840 1.73990232 -0.00255628 0.00000000
1.01525818 2.03571301 0.00109696 0.00000000
2.07969445 0.29644317 0.00376531 0.00000000
4.77808277 0.82282237 -0.00127169 0.00000000
4.42502215 1.76055289 -0.00017561 0.00000000
3.29003945 0.65102085 -0.00029505 0.00000000
4.84161325 0.24672031 0.00074267 0.00000000
2.96908518 0.86028355 0.00131980 0.00000000
3.87589998 0.12714980 -0.00186440 0.00000000
0.05713986 0.70145091 0.00549803 0.00000000
1.04144753 0.00015125 0.00199052 0.00000000
2.02400711 0.32268404 -0.00108995 0.00000000
3.49209096 0.35122755 0.00206917 0.00000000
4.50707283 1.57178047 0.00334182 0.00000000
0.19762343 0.42565339 -0.00249078 0.00000000
4.30800054 0.48509854 -0.00195116 0.00000000
0.21347532 0.16884511 -0.00361686 0.00000000
3.14338287 0.50585116 -0.00185979 0.00000000
3.18323779 0.99904306 0.00137454 0.00000000
4.20013989 1.15137202 -0.00227326 0.00000000
0.28446670 0.29718158 -0.00287254 0.00000000
2.41843751 1.92940973 0.00044247 0.00000000
4.31674822 1.70386580 -0.00168251 0.00000000
1.24050672 1.18949970 -0.00287216 0.00000000
3.44997515 2.10690860 -0.00112104 0.00000000
4.16326350 1.69241206 -0.00031864 0.00000000
0.49355191 2.19446442 -0.00566210 0.00000000
1.99913270 2.14270679 -0.00041079 0.00000000
2.90209239 0.63817209 0.00204156 0.00000000
3.17193852 0.46192501 -0.00225717 0.00000000
2.68149041 0.29878834 0.00318628 0.00000000
2.62629859 0.24906050 -0.00435567 0.00000000
3.70030158 2.20456289 0.00038562 0.00000000
0.41744848 1.02411568 -0.00109614 0.00000000
1.05281878 0.94814044 0.00021717 0.00000000
0.78323415 1.26916911 -0.00406150 0.00000000
0.07793181 2.04580883 0.00157523 0.00000000
0.73056048 0.08278515 -0.00148391 0.00000000
4.24493128 0.29029848 -0.00219232 0.00000000
3.93447759 0.02853780 -0.00019942 0.00000000
0.03049708 0.43280397 -0.00173392 0.00000000
4.84677725 1.62284144 0.00237185 0.00000000
2.67323707 2.04665901 -0.00190820 0.00000000
3.31500045 1.41560133 0.00272919 0.00000000
1.36277382 0.77740715 0.00166579 0.00000000
1.09314801 0.38876063 0.00016428 0.00000000
4.15815530 2.06379334 0.00291357 0.00000000
0.88465486 0.58007227 -0.00100677 0.00000000
1.90807837 0.26423342 -0.00635542 0.00000000
4.51849766 0.65338268 -0.00316842 0.00000000
3.60569017 0.19640203 -0.00406452 0.00000000
2.91281740 2.23893629 0.00263852 0.00000000
0.28316639 0.31029542 -0.00050219 0.00000000
0.55696285 0.48985180 -0.00035997 0.00000000
1.76768391 1.53286023 -0.00336115 0.00000000
1.50899668 1.13070061 0.00662911 0.00000000
1.30554792 0.09988859 0.00187781 0.00000000
4.37520491 1.94932008 -0.00104280 0.00000000
4.67944301 0.81319255 -0.00028665 0.00000000
2.58610339 2.22066877 -0.00130956 0.00000000
3.32023992 1.04654319 -0.00203945 0.00000000
1.32703762 1.89051993 0.00030433 0.00000000
3.61200837 1.57889729 0.00061362 0.00000000
1.56944974 1.66669597 0.00423618 0.00000000
1.97297252 1.75369218 -0.00244314 0.00000000
1.35075596 0.30612306 -0.00062125 0.00000000
1.45535478 1.74829027 -0.00081980 0.00000000
0.37239436 1.50539101 -0.00439167 0.00000000
3.89116209 2.01844185 -0.00025769 0.00000000
4.15084692 1.63019828 -0.00033698 0.00000000
0.58741748 0.88943368 -0.00259762 0.00000000
4.24003800 1.32708760 0.00416175 0.00000000
3.74613345 1.95974331 -0.00063583 0.00000000
4.49701004 1.60471903 -0.00423230 0.00000000
0.80286713 1.93957637 -0.00113554 0.00000000
2.38064066 1.90844255 -0.00092567 0.00000000
4.06639188 1.89509470 -0.00309273 0.00000000
1.35563754 2.01293304 0.00258339 0.00000000
4.82480335 0.27804939 -0.00194981 0.00000000
1.96950103 1.90378294 -0.00273868 0.00000000
1.44250719 1.57284652 -0.00138261 0.00000000
0.44029351 0.06689845 -0.00346524 0.00000000
4.43394271 1.34141928 0.00027159 0.00000000
2.66029791 0.17718912 -0.00130196 0.00000000
3.01898417 1.33525628 0.00254996 0.00000000
1.23563375 1.29718143 -0.00194541 0.00000000
2.48326658 1.31009489 0.00067862 0.00000000
4.78326993 0.24950693 -0.00135177 0.00000000
0.34745934 0.67369091 0.00143907 0.00000000
0.42641888 1.60799871 -0.00141564 0.00000000
3.64412569 1.13885617 -0.00229016 0.00000000
0.48562354 0.48239993 -0.00250722 0.00000000
4.41503671 1.32757340 0.00112566 0.00000000
2.76278001 1.21020190 -0.00166387 0.00000000
1.57964575 1.89370397 -0.00271887 0.00000000
4.85775486 1.79430360 0.00151326 0.00000000
3.93857236 1.05622821 -0.00131444 0.00000000
1.56623323 0.86376978 -0.00098114 0.00000000
1.42485752 0.69361270 0.00222593 0.00000000
1.69801057 1.29088156 0.00259772 0.00000000
3.99588148 0.41573466 -0.00192332 0.00000000
1.69007464 1.79949177 0.00003338 0.00000000
1.08925660 0.64332629 -0.00065904 0.00000000
1.78907922 2.10145994 0.00013320 0.00000000
2.35768106 0.98982137 -0.00362567 0.00000000
0.05771327 2.19200538 0.00207416 0.00000000
1.12821346 1.09533942 0.00207636 0.00000000
3.38094856 1.03927765 -0.00237508 0.00000000
3.41013529 1.62935859 -0.00084082 0.00000000
2.60188200 2.00262797 -0.00157319 0.00000000
1.25265772 0.71759263 0.00205743 0.00000000
3.26872378 1.34072685 -0.00233964 0.00000000
1.52049113 1.20504055 0.00109554 0.00000000
2.73569506 0.58184938 -0.00384394 0.00000000
0.61741160 1.80691899 0.00141154 0.00000000
1.52714437 1.18537581 -0.00369927 0.00000000
0.80110053 1.31652327 -0.00064611 0.00000000
4.29513682 0.55976286 0.00316028 0.00000000
3.12243561 1.52829602 0.00146486 0.00000000
1.65438276 1.14579885 0.00433134 0.00000000
0.27485249 1.49533687 -0.00112750 0.00000000
2.30271605 0.91633758 -0.00022715 0.00000000
0.09910430 0.35107435 0.00024725 0.00000000
4.20094324 0.12056365 0.00361605 0.00000000
0.79412020 0.49596411 0.00009041 0.00000000
0.83402923 0.53456324 -0.00180849 0.00000000
1.40060943 0.16134466 0.00393962 0.00000000
0.63162738 1.41088431 0.00311672 0.00000000
1.30742296 0.81063321 0.00301040 0.00000000
1.26312749 2.14848763 0.00200894 0.00000000
3.62433432 0.55439444 0.00533443 0.00000000
1.30304627 2.19053486 0.00415305 0.00000000
0.53336515 0.41258222 -0.00324274 0.00000000
1.56339810 1.54235812 -0.00131825 0.00000000
2.11939825 0.82138006 0.00121595 0.00000000
2.29711305 0.92761864 0.00402006 0.00000000
1.16655963 1.65365511 -0.00259618 0.00000000
0.67645703 2.14339580 0.00124253 0.00000000
4.37789375 1.25023165 0.00233539 0.00000000
1.91511149 1.15545023 -0.00183360 0.00000000
1.51747001 0.15018216 -0.00289025 0.00000000
3.66683875 0.02194529 0.00050759 0.00000000
0.72430976 1.43891614 -0.00106939 0.00000000
1.19434585 0.57079963 -0.00114398 0.00000000
4.52401775 0.50854669 -0.00018254 0.00000000
3.71369702 2.19218701 -0.00218800 0.00000000
3.80998852 2.02257600 -0.00369488 0.00000000
4.16140529 0.22984315 -0.00286571 0.00000000
3.99227881 1.70869979 0.00097987 0.00000000
1.65417143 2.07257011 0.00064548 0.00000000
4.61604700 0.68263720 -0.00078259 0.00000000
3.09270619 1.41989280 -0.00135190 0.00000000
4.28094022 0.74136231 0.00235413 0.00000000
4.51824689 0.39070003 0.00296171 0.00000000
4.05377316 2.10588285 0.00022527 0.00000000
1.93694776 0.03460119 0.00203035 0.00000000
3.79872794 1.70915352 0.00280782 0.00000000
4.19902526 0.81078218 0.00250808 0.00000000
0.41916997 0.72643209 -0.00155165 0.00000000
4.43646151 1.37596187 0.00114996 0.00000000
1.48551758 0.70250280 -0.00024680 0.00000000
4.05821738 1.59591111 -0.00145775 0.00000000
0.70509875 0.02975405 -0.00446990 0.00000000
0.28782133 1.29750109 0.00145368 0.00000000
3.31656439 1.80334942 -0.00037620 0.00000000
0.65479178 0.32714390 -0.00250512 0.00000000
2.04135758 0.30202084 -0.00301846 0.00000000
0.60605426 1.76209468 -0.00113354 0.00000000
1.32599293 0.55875882 0.00331761 0.00000000
1.14587714 1.78838033 0.00140676 0.00000000
1.78863641 0.67507632 -0.00080161 0.00000000
3.39652457 1.29861353 0.00246287 0.00000000
2.76368125 1.25606218 -0.00163552 0.00000000
4.84782071 2.17665674 0.00030656 0.00000000
1.56882674 0.79808997 0.00410888 0.00000000
1.17864587 0.47595603 -0.00371416 0.00000000
4.07857218 1.11008450 -0.00064999 0.00000000
0.59350105 0.87341280 0.00159923 0.00000000
0.52833997 0.44446499 0.00340570 0.00000000
0.64033062 0.10492054 -0.00032185 0.00000000
4.82088259 0.79808613 -0.00088508 0.00000000
2.04738399 1.02118695 0.00054340 0.00000000
3.39151097 1.82977598 0.00361877 0.00000000
1.27051161 0.16823988 -0.00057286 0.00000000
2.55112905 0.30086074 0.00125312 0.00000000
4.70681548 1.58034679 0.00367600 0.00000000
4.25492865 0.88515935 -0.00302426 0.00000000
4.46307990 0.72096200 0.00180639 0.00000000
0.96950567 1.48665675 -0.00082331 0.00000000
1.43366966 2.22691081 -0.00308476 0.00000000
3.49783814 2.02220120 0.00479675 0.00000000
2.20991261 1.07103239 0.00159593 0.00000000
1.94285490 1.12793065 -0.00190396 0.00000000
3.50779019 2.18171467 0.00398894 0.00000000
3.36672178 0.72498358 0.00028141 0.00000000
2.64046169 1.84851536 0.00127202 0.00000000
0.00071218 0.02115952 -0.00375620 0.00000000
0.30491369 1.09691284 -0.00087598 0.00000000
1.44277328 0.20423748 0.00308341 0.00000000
1.24402781 0.83909265 -0.00089315 0.00000000
0.41637738 0.47966589 -0.00295982 0.00000000
4.64328156 0.17441419 0.00287055 0.00000000
1.99762381 1.68993162 0.00133908 0.00000000
0.04324896 1.83468978 -0.00419595 0.00000000
2.18853288 1.08891337 0.00282626 0.00000000
2.84075201 1.63221438 -0.00258244 0.00000000
3.48942242 2.21762589 0.00012498 0.00000000
1.73538282 2.13676031 -0.00065478 0.00000000
4.57381525 1.85523459 0.00375402 0.00000000
2.57680906 1.96262753 -0.00089350 0.00000000
0.87536307 1.80995879 -0.00041201 0.00000000
4.41847768 2.22304486 -0.00457699 0.00000000
2.07729165 1.99979316 -0.00292410 0.00000000
3.62698714 1.74248316 0.00339878 0.00000000
0.19220862 1.79930932 -0.00165143 0.00000000
4.78457485 0.35411790 -0.00036041 0.00000000
1.37830939 0.15832581 -0.00437922 0.00000000
3.21639547 1.28714849 0.00004788 0.00000000
4.38969607 1.77125160 0.00113750 0.00000000
1.78728640 2.01230474 -0.00419378 0.00000000
3.00159508 1.25750370 0.00015191 0.00000000
2.05538307 0.13168789 0.00038420 0.00000000
2.58305525 1.62990492 0.00022042 0.00000000
4.66608113 0.73181448 0.00058757 0.00000000
2.85158232 1.53284546 0.00241360 0.00000000
3.58541749 0.88566755 0.00037867 0.00000000
3.94111989 1.26288680 0.00147428 0.00000000
0.72622017 1.05315225 0.00016107 0.00000000
3.76705707 0.04619607 0.00292017 0.00000000
1.63298686 1.50780516 -0.00353132 0.00000000
4.17038722 2.00979539 -0.00039342 0.00000000
2.18565911 1.55800733 0.00413173 0.00000000
1.02969175 2.10214575 0.00039296 0.00000000
1.49868498 1.63678028 -0.00049981 0.00000000
4.75400825 1.87000487 -0.00268533 0.00000000
3.65363717 0.50521517 0.00114736 0.00000000
1.71489022 1.50785150 -0.00643952 0.00000000
1.18587495 1.83888841 0.00282693 0.00000000
2.27010287 1.12123682 -0.00143290 0.00000000
3.58097059 0.74824400 -0.00047699 0.00000000
1.98377811 1.55328561 0.00035707 0.00000000
4.67372526 1.35953954 -0.00155234 0.00000000
1.32981759 0.39898441 -0.00085617 0.00000000
3.93398383 1.46581540 -0.00557127 0.00000000
2.82849423 2.23689115 0.00100354 0.00000000
4.01109769 1.55601582 0.00111736 0.00000000
0.85771261 0.12286030 0.00051113 0.00000000
2.72024447 0.90888731 0.00495751 0.00000000
1.35264028 0.66532814 0.00580715 0.00000000
2.99397109 1.46144857 -0.00005674 0.00000000
4.63392220 0.41410886 0.00133554 0.00000000
4.43202192 0.79714944 0.00221021 0.00000000
1.63098394 1.03568011 0.00131721 0.00000000
1.08028242 0.98839343 -0.00389893 0.00000000
2.61577837 1.94638828 -0.00107445 0.00000000
2.45815528 0.96739858 0.00122478 0.00000000
4.31643185 2.18723714 -0.00046303 0.00000000
1.09236030 0.13064412 0.00266781 0.00000000
4.05343262 1.37864072 -0.00125978 0.00000000
3.10980885 1.35535484 -0.00328990 0.00000000
2.60643718 1.96323622 -0.00207950 0.00000000
2.45972196 1.45607253 0.00253168 0.00000000
1.03888393 1.79475654 0.00037708 0.00000000
3.30121483 2.04096980 0.00297399 0.00000000
0.19627882 0.74319338 -0.00313569 0.00000000
1.77628245 0.59899356 -0.00166513 0.00000000
1.47471849 1.35737256 0.00596183 0.00000000
1.01211036 1.95421934 0.00097426 0.00000000
2.25532275 0.75713214 0.00144846 0.00000000
0.15619000 0.59480511 0.00126810 0.00000000
4.75891345 0.38968760 -0.00120098 0.00000000
1.31745448 1.38140778 0.00183433 0.00000000
1.38968279 0.47313542 -0.00260552 0.00000000
4.49808494 1.17133271 0.00370641 0.00000000
2.30391253 1.73117827 -0.00001724 0.00000000
1.41497653 1.06379868 -0.00053253 0.00000000
0.54122269 1.55482715 -0.00535477 0.00000000
2.66441608 1.35880770 -0.00393039 0.00000000
0.38738372 0.03198540 -0.00055236 0.00000000
1.89212323 0.80186732 -0.00140374 0.00000000
2.10178756 2.10083679 0.00095211 0.00000000
0.40041936 0.02102628 -0.00128544 0.00000000
3.57689087 0.79247036 0.00314703 0.00000000
0.67369766 0.22843282 -0.00274006 0.00000000
3.66881053 0.06804381 -0.00060557 0.00000000
3.37861224 1.42365705 0.00249722 0.00000000
2.97498984 1.54111401 -0.00183736 0.00000000
3.00505851 0.82395610 -0.00011539 0.00000000
1.02995460 0.60318775 0.00418240 0.00000000
2.97855052 1.02011915 -0.00063627 0.00000000
0.11903883 1.49090398 0.00005906 0.00000000
2.97638236 1.20842580 -0.00015156 0.00000000
2.16417115 0.05550286 -0.00118435 0.00000000
2.05199747 1.84197464 -0.00290414 0.00000000
4.17064016 1.45136955 0.00018257 0.00000000
4.34609865 0.77469722 0.00115551 0.00000000
0.95184062 1.55822515 -0.00183959 0.00000000
3.91516449 2.13576963 -0.00343428 0.00000000
3.36631924 1.17822026 0.00038496 0.00000000
0.17355294 0.65887049 -0.00018809 0.00000000
4.67746571 0.31599986 -0.00166938 0.00000000
4.78560239 0.94491916 -0.00123403 0.00000000
0.26863903 1.49348611 0.00485849 0.00000000
3.98872310 0.19064787 -0.00107415 0.00000000
2.79247573 1.03629031 -0.00141584 0.00000000
0.00913798 1.88139616 0.00143875 0.00000000
