1.85357286 0.10320338 0.00433626 0.00000000
1.61954914 0.06127164 0.00236530 0.00000000
2.40530722 1.65432650 0.00497436 0.00000000
1.26277831 0.83410894 0.00067192 0.00000000
0.67086898 0.36534818 -0.00209520 0.00000000
4.42932610 0.74153696 0.00207736 0.00000000
3.40048992 0.71795485 -0.00106959 0.00000000
2.22512600 1.02228723 -0.00347653 0.00000000
3.93908830 1.15211638 0.00086289 0.00000000
2.05996204 0.53863066 0.00553119 0.00000000
1.11360252 0.41751489 0.00348672 0.00000000
3.64307308 0.43662341 -0.00319933 0.00000000
2.42052123 1.55673275 -0.00077568 0.00000000
2.72096489 0.86242119 0.00233978 0.00000000
1.65909614 0.33471709 0.00446830 0.00000000
4.19248093 0.57514040 -0.00342817 0.00000000
3.40283947 1.08587942 -0.00042423 0.00000000
1.44951813 1.63418571 0.00079882 0.00000000
4.45883462 0.91106358 -0.00068776 0.00000000
3.59104381 0.85077528 -0.00183625 0.00000000
1.46631066 1.41588457 -0.00130178 0.00000000
3.46288993 0.42166884 -0.00220579 0.00000000
1.07703162 1.34943171 0.00232941 0.00000000
4.48494828 0.95397570 0.00155454 0.00000000
2.79252563 1.06270011 0.00102934 0.00000000
3.50310346 1.37692839 -0.00034240 0.00000000
2.80198375 0.30753646 -0.00018307 0.00000000
0.28540682 0.96124365 -0.00044294 0.00000000
1.10009869 0.36336690 0.00163210 0.00000000
1.54478037 1.55743535 -0.00036856 0.00000000
3.56429307 1.43963014 -0.00386887 0.00000000
0.53429191 1.55006638 -0.00264504 0.00000000
1.59184391 0.20948831 -0.00034701 0.00000000
0.77330260 1.57107584 0.00250280 0.00000000
2.37494080 1.06190344 0.00355016 0.00000000
3.22270153 1.34708841 0.00148208 0.00000000
2.17484937 0.89783039 0.00098238 0.00000000
0.40219743 0.43016262 0.00250499 0.00000000
1.19116355 0.06526931 0.00370211 0.00000000
0.51690008 1.21600103 -0.00042280 0.00000000
1.80115836 0.90327411 -0.00254759 0.00000000
4.12180981 1.50170910 0.00339868 0.00000000
0.24793835 1.03586362 -0.00220445 0.00000000
3.75063388 0.82351079 0.00123770 0.00000000
0.99719233 0.60925487 -0.00120742 0.00000000
2.10184192 0.80139268 0.00059880 0.00000000
2.18683183 0.90213072 0.00472310 0.00000000
4.42083470 0.11540956 0.00210182 0.00000000
4.49700462 0.18906980 -0.00026689 0.00000000
2.83812603 1.28545266 -0.00073965 0.00000000
1.11601602 0.41486077 -0.00160155 0.00000000
4.37031181 0.95248498 -0.00439289 0.00000000
2.90140345 0.83400374 0.00350709 0.00000000
0.41230616 0.82171812 0.00145214 0.00000000
0.43090779 0.88232041 -0.00224128 0.00000000
2.94096493 1.20688011 -0.00245976 0.00000000
2.01297566 0.23013324 0.00391384 0.00000000
4.38917915 1.54527246 0.00632516 0.00000000
2.19815227 0.30476151 0.00170391 0.00000000
4.34498324 1.44676869 0.00254283 0.00000000
1.71092781 0.65841553 0.00286568 0.00000000
3.69661000 0.58003555 -0.00234351 0.00000000
3.57355395 0.03829762 -0.00026523 0.00000000
0.92209786 0.52372564 -0.00314725 0.00000000
0.51713862 0.69369897 -0.00252036 0.00000000
1.40469420 1.30528401 -0.00380479 0.00000000
0.40882764 1.37377792 -0.00194692 0.00000000
0.48088598 1.29111884 -0.00374269 0.00000000
3.57892117 0.97617401 -0.00402240 0.00000000
2.70321166 0.35430011 0.00076321 0.00000000
4.22287132 1.22583853 0.00230384 0.00000000
0.82375267 1.56347682 0.00580208 0.00000000
1.43055043 0.35593490 -0.00170481 0.00000000
1.61779211 1.49285383 -0.00217382 0.00000000
1.68325660 1.49743968 0.00277522 0.00000000
3.83064405 0.46117653 -0.00287547 0.00000000
0.83464938 1.42250843 -0.00610336 0.00000000
2.01986356 1.14125651 0.00040706 0.00000000
3.56263716 0.88615730 0.00041912 0.00000000
1.14012419 1.52428137 0.00274319 0.00000000
2.51032484 0.83852275 -0.00579615 0.00000000
3.69866721 1.43043275 0.00144327 0.00000000
3.30425319 0.66190354 0.00079140 0.00000000
3.35438401 1.46411863 0.00059543 0.00000000
2.86478561 1.02748176 0.00091123 0.00000000
1.00579253 1.17504589 -0.00247750 0.00000000
2.75276401 1.53915974 -0.00265491 0.00000000
0.98038714 0.07472173 0.00326219 0.00000000
4.54933086 0.71573272 0.00020482 0.00000000
1.30735269 0.69511444 0.00430751 0.00000000
1.32082271 0.46522018 -0.00327030 0.00000000
0.96521455 0.13359067 -0.00370247 0.00000000
0.06807561 1.37764234 -0.00192729 0.00000000
4.21455949 1.28468416 0.00256225 0.00000000
4.50073705 0.16461321 -0.00054786 0.00000000
4.28311279 0.63172879 0.00097178 0.00000000
2.17233698 1.57045733 -0.00436036 0.00000000
0.39246466 1.25033783 0.00186379 0.00000000
1.29286910 1.07850913 0.00415845 0.00000000
3.09135493 0.04965090 0.00230198 0.00000000
4.49283796 0.41725260 -0.00177065 0.00000000
2.73203493 0.87515777 -0.00464193 0.00000000
1.86285785 1.40780507 -0.00072708 0.00000000
1.73341105 0.61905088 -0.00475607 0.00000000
3.10764553 1.70946820 0.00021956 0.00000000
3.49793477 1.26477050 -0.00218305 0.00000000
3.82122520 0.51231411 -0.00094930 0.00000000
4.46936185 0.80746769 0.00403066 0.00000000
1.10713490 1.13585640 -0.00094842 0.00000000
2.14755707 0.12675064 0.00509652 0.00000000
3.47088163 1.57997253 -0.00337788 0.00000000
4.35309314 1.12273590 -0.00364606 0.00000000
2.39189167 0.53896361 -0.00189174 0.00000000
2.68672920 1.14194077 0.00338880 0.00000000
3.79832547 0.86385630 0.00040984 0.00000000
0.25504573 1.64401952 -0.00139751 0.00000000
0.04796436 1.18583720 -0.00159701 0.00000000
0.64146569 0.86408177 0.00212241 0.00000000
3.10484969 1.45185851 0.00027373 0.00000000
3.66628387 1.69257584 0.00080636 0.00000000
0.63005169 1.50558321 -0.00181172 0.00000000
0.66395608 1.66932148 0.00008766 0.00000000
2.49398036 0.97231409 0.00299452 0.00000000
4.49865083 0.34814835 0.00039291 0.00000000
2.01145594 0.96925289 -0.00284761 0.00000000
2.26831665 0.00139961 -0.00484792 0.00000000
3.04578885 1.00519383 0.00312654 0.00000000
2.02258975 0.15959489 0.00015635 0.00000000
0.24649729 0.75734423 -0.00357697 0.00000000
3.65618305 1.53649151 0.00345393 0.00000000
4.26789067 0.49928923 0.00171691 0.00000000
1.62159598 0.82747991 -0.00220925 0.00000000
2.97365690 1.10872111 -0.00049576 0.00000000
1.28971567 1.32820429 0.00047345 0.00000000
1.90650512 0.51692735 -0.00404531 0.00000000
2.09188914 0.34039360 0.00128256 0.00000000
0.12448626 1.01987188 -0.00279125 0.00000000
1.47276157 0.23002706 -0.00179178 0.00000000
3.73943195 1.47373878 -0.00296044 0.00000000
1.95266421 0.44860272 0.00284768 0.00000000
3.89769026 0.70060530 0.00029015 0.00000000
3.21493995 0.40287773 -0.00263943 0.00000000
0.52811480 1.37930145 -0.00572687 0.00000000
3.00984034 1.56532977 -0.00096373 0.00000000
0.87399583 1.45825980 -0.00089058 0.00000000
2.86226435 1.28097200 -0.00128083 0.00000000
1.54771335 0.77771021 0.00054904 0.00000000
0.98294638 1.54250042 -0.00101566 0.00000000
3.40162015 0.22794994 -0.00141306 0.00000000
1.32596887 0.46429044 0.00254783 0.00000000
4.24793151 0.14603462 -0.00420474 0.00000000
2.66100418 0.63372401 0.00018991 0.00000000
1.63445842 0.53579914 -0.00229285 0.00000000
2.65156665 0.38017783 -0.00311289 0.00000000
1.69905092 0.43543062 -0.00165631 0.00000000
1.45748612 0.27054687 0.00226951 0.00000000
4.41359336 0.87988238 -0.00052703 0.00000000
1.27215732 1.21346887 0.00032183 0.00000000
3.96128580 1.70446951 -0.00205061 0.00000000
3.99152486 1.22171724 -0.00215973 0.00000000
2.95552400 1.60675301 -0.00111019 0.00000000
3.65448026 1.12735314 0.00090341 0.00000000
3.73355247 1.38809212 -0.00167789 0.00000000
3.50087187 0.47765218 0.00215363 0.00000000
1.71835147 1.20434366 -0.00058547 0.00000000
3.33069318 0.07095426 0.00284557 0.00000000
2.75065051 1.25900119 -0.00082168 0.00000000
0.69683732 0.83241230 0.00016641 0.00000000
3.18202347 0.70985510 -0.00493429 0.00000000
1.83065830 0.20098174 -0.00230064 0.00000000
3.54031260 0.89067142 0.00089928 0.00000000
2.51046585 1.49456626 -0.00324950 0.00000000
2.79069785 1.10664766 0.00370641 0.00000000
2.81724857 0.03047678 0.00097222 0.00000000
1.33198404 0.48540627 0.00178815 0.00000000
2.51523403 0.46757272 0.00084397 0.00000000
3.47056171 0.81934859 0.00069679 0.00000000
2.19413922 0.81022211 -0.00186147 0.00000000
0.57618570 1.32575056 -0.00254302 0.00000000
0.03108537 0.80294830 0.00174345 0.00000000
1.21874279 1.67594515 -0.00124099 0.00000000
3.45670714 0.95850785 -0.00014871 0.00000000
3.78845195 0.55714417 0.00225612 0.00000000
2.32983819 0.77726314 0.00168577 0.00000000
3.45734969 1.11991507 0.00020280 0.00000000
1.36739029 0.41056834 -0.00152923 0.00000000
4.29975019 0.27369647 -0.00065968 0.00000000
2.90616725 1.20484922 -0.00195149 0.00000000
0.55962599 1.28496933 0.00186400 0.00000000
1.15126167 1.42895652 -0.00022982 0.00000000
3.46044235 1.44318044 0.00016230 0.00000000
1.60955767 0.28826789 0.00174650 0.00000000
1.61033965 0.34555579 0.00011261 0.00000000
3.14435520 1.36163948 -0.00316765 0.00000000
4.39142955 0.60727014 -0.00131570 0.00000000
2.30555440 0.83418412 0.00359945 0.00000000
0.29177972 1.04638619 -0.00076937 0.00000000
0.45280391 0.41304822 -0.00012241 0.00000000
1.53844749 0.34210020 -0.00010948 0.00000000
4.49884721 1.52800888 0.00031083 0.00000000
4.57097527 0.12260219 0.00133528 0.00000000
0.75461362 0.05284009 -0.00007115 0.00000000
2.16250752 0.78264439 0.00084844 0.00000000
2.24097327 0.15684263 -0.00047702 0.00000000
0.20064891 0.04726498 0.00178783 0.00000000
1.99959778 0.91251007 -0.00395755 0.00000000
2.49196469 0.26674207 -0.00311893 0.00000000
1.52692125 1.55712177 0.00226017 0.00000000
0.79446050 1.33111835 -0.00383124 0.00000000
3.61896623 1.04433644 0.00246977 0.00000000
1.55364789 1.02405203 0.00262861 0.00000000
1.83127168 1.56569947 -0.00208059 0.00000000
2.23338858 0.80495440 -0.00057806 0.00000000
0.70944877 1.55519665 0.00365666 0.00000000
0.86370324 0.53469254 -0.00189481 0.00000000
2.08042624 0.23016355 -0.00576907 0.00000000
2.21486689 1.09691640 -0.00323264 0.00000000
3.54771456 0.66540592 0.00361997 0.00000000
3.57532176 0.85581881 0.00603091 0.00000000
0.01230634 0.05400231 0.00074971 0.00000000
3.94700923 0.49512951 -0.00219109 0.00000000
1.60195776 0.21285059 0.00684200 0.00000000
3.80099931 1.35282048 0.00067240 0.00000000
2.48907035 1.33929816 -0.00203542 0.00000000
1.30337680 0.39710456 -0.00077112 0.00000000
4.18377258 0.88554470 -0.00109257 0.00000000
3.30935868 1.38006956 0.00053324 0.00000000
3.67408771 0.13259419 -0.00370567 0.00000000
4.02788567 0.78712116 -0.00004601 0.00000000
0.62236156 1.36594316 -0.00127291 0.00000000
4.19537044 0.27598945 -0.00344984 0.00000000
3.41941056 1.42802285 0.00138505 0.00000000
2.67795797 1.57635447 -0.00182990 0.00000000
2.01519248 1.03955522 0.00099136 0.00000000
4.37387499 1.16376549 0.00126894 0.00000000
3.89539428 0.32878124 0.00060629 0.00000000
3.47185931 0.11591327 -0.00825784 0.00000000
1.98601331 0.31526658 -0.00143664 0.00000000
1.64874583 0.59519856 -0.00131534 0.00000000
3.67298229 1.43945536 0.00077010 0.00000000
1.50994053 0.26250149 -0.00048272 0.00000000
0.26640961 0.16058602 -0.00320272 0.00000000
0.48557226 0.75497129 0.00133574 0.00000000
3.35967364 1.08875712 0.00100339 0.00000000
0.00235943 0.24699499 0.00248058 0.00000000
1.91749371 0.51484685 -0.00273531 0.00000000
3.84937989 1.47839019 0.00050705 0.00000000
0.72175434 0.44535245 0.00033171 0.00000000
4.57743512 1.11700247 0.00289573 0.00000000
3.27743448 0.16760866 -0.00079191 0.00000000
1.32475876 0.16577789 0.00167929 0.00000000
3.35682307 1.24520084 -0.00341242 0.00000000
2.01048440 1.16926004 -0.00138567 0.00000000
4.03596300 1.19597236 0.00040957 0.00000000
2.02933104 0.56850107 -0.00109499 0.00000000
3.39856479 0.95094362 -0.00164470 0.00000000
1.61389291 0.33203973 0.00353577 0.00000000
3.87190578 0.47367302 0.00160343 0.00000000
1.71529122 0.99004344 -0.00474259 0.00000000
3.37365205 1.31296059 -0.00304949 0.00000000
0.40223239 0.46733798 -0.00224650 0.00000000
1.41318113 0.56097799 0.00485907 0.00000000
0.65077450 0.51872967 0.00501232 0.00000000
0.37549149 0.67856781 -0.00238714 0.00000000
1.33963996 1.13933844 -0.00390433 0.00000000
3.49614137 0.37330173 -0.00049140 0.00000000
3.39149841 0.71022566 -0.00063780 0.00000000
0.51536844 0.34122978 -0.00028008 0.00000000
3.01035224 0.81954195 -0.00283893 0.00000000
2.06055808 1.07476108 0.00298389 0.00000000
3.15250483 0.04014120 0.00113898 0.00000000
1.42938680 0.91208520 -0.00235873 0.00000000
1.34230053 1.51265646 -0.00218454 0.00000000
1.27653063 0.44388143 -0.00156835 0.00000000
0.14061582 1.63241022 -0.00107852 0.00000000
1.16470447 0.14200565 0.00253967 0.00000000
0.20039148 0.01536705 -0.00275832 0.00000000
0.31587571 0.80818524 0.00077039 0.00000000
1.33234360 0.45256345 0.00004063 0.00000000
2.48549530 0.10100372 0.00194503 0.00000000
1.57737417 1.63925788 -0.00265484 0.00000000
1.59753258 0.21745785 -0.00183737 0.00000000
1.77474623 0.28874054 0.00064146 0.00000000
3.52568343 0.96133273 0.00003408 0.00000000
3.88075264 0.65520264 -0.00141340 0.00000000
4.25618614 0.94210564 -0.00053811 0.00000000
0.74542713 0.06179960 -0.00004269 0.00000000
4.56050870 0.73503577 -0.00306570 0.00000000
4.28997626 0.30755208 0.00140976 0.00000000
0.98664522 1.56423475 0.00460741 0.00000000
2.10615455 0.02477784 -0.00380575 0.00000000
0.84114776 1.01721454 0.00267282 0.00000000
3.39778577 1.47543877 0.00297926 0.00000000
4.03624673 1.05769217 -0.00100803 0.00000000
1.08988572 1.36721546 0.00321630 0.00000000
3.90485193 0.62243416 0.00154477 0.00000000
3.12103343 0.51665871 -0.00166469 0.00000000
3.62177968 1.14080572 -0.00001782 0.00000000
1.76534877 0.00376147 0.00171333 0.00000000
3.81387674 1.31735179 0.00693038 0.00000000
2.56182268 0.66283908 -0.00061528 0.00000000
0.08743610 0.52554072 -0.00218678 0.00000000
3.18998097 0.06349294 -0.00296214 0.00000000
1.24284405 1.11792536 -0.00009804 0.00000000
0.99551421 0.81864128 0.00197430 0.00000000
1.91922619 0.74729193 0.00109353 0.00000000
2.23193915 1.18383178 -0.00032922 0.00000000
3.78266054 0.83032147 0.00052626 0.00000000
1.38006536 1.49211015 0.00433565 0.00000000
2.31906159 1.59158177 0.00027957 0.00000000
0.15636766 0.76920740 0.00338228 0.00000000
1.59517605 0.95359343 -0.00269815 0.00000000
0.24137668 1.35379804 -0.00124249 0.00000000
4.13333312 0.33651383 -0.00030596 0.00000000
0.47462520 1.22835118 -0.00034036 0.00000000
4.14396625 0.10224704 -0.00214173 0.00000000
4.57179450 0.20014013 -0.00255867 0.00000000
3.23959373 0.36937043 -0.00306114 0.00000000
3.16369472 1.12022455 -0.00250790 0.00000000
1.49188168 0.81388393 -0.00291378 0.00000000
1.25308634 0.72946677 0.00089740 0.00000000
2.52979190 0.97125211 -0.00191964 0.00000000
2.63878880 0.36341740 0.00378877 0.00000000
0.69015685 0.15831983 0.00092621 0.00000000
4.11324231 0.44392100 0.00315023 0.00000000
3.77120395 0.95458207 -0.00123351 0.00000000
2.75007537 1.14148321 0.00684262 0.00000000
2.80629694 0.77472482 0.00324071 0.00000000
0.60388786 1.62154261 -0.00060872 0.00000000
2.48898706 1.61705913 -0.00228054 0.00000000
0.84276690 1.41548812 0.00114270 0.00000000
0.77295971 0.91370843 0.00349035 0.00000000
2.74810877 0.34751073 0.00185033 0.00000000
0.74536683 1.27322778 0.00123737 0.00000000
0.58054336 1.15961654 0.00118104 0.00000000
2.93734771 0.83114492 -0.00131876 0.00000000
3.54290031 0.09472365 -0.00178794 0.00000000
0.48952815 0.43141141 0.00385880 0.00000000
3.45030635 1.04070590 -0.00455296 0.00000000
3.60338773 0.00028283 -0.00196732 0.00000000
0.86407270 0.68054592 -0.00158006 0.00000000
3.77107210 0.73374765 -0.00001640 0.00000000
0.71909464 0.34995487 -0.00259858 0.00000000
3.47299122 1.53575134 -0.00310885 0.00000000
3.88895162 1.21355044 -0.00104954 0.00000000
1.24666693 1.03792848 0.00122312 0.00000000
2.04204426 1.69240758 0.00251831 0.00000000
0.13821796 1.16427818 -0.00496126 0.00000000
1.40836009 0.65785975 -0.00164521 0.00000000
1.21439477 0.58565342 0.00117869 0.00000000
0.22512174 0.74917602 0.00062281 0.00000000
2.16214999 0.92983239 0.00582541 0.00000000
2.08898242 0.26291417 0.00096059 0.00000000
2.33090051 0.19935649 -0.00155655 0.00000000
1.07900015 0.26990977 -0.00163308 0.00000000
4.34031908 1.28386429 0.00256819 0.00000000
4.49776663 0.85083728 0.00001153 0.00000000
3.22042554 0.14330440 0.00100723 0.00000000
4.10371644 1.09927466 -0.00144499 0.00000000
2.18727467 1.07065756 -0.00038415 0.00000000
0.60663301 1.17375852 -0.00263124 0.00000000
1.53377883 1.04488419 -0.00143253 0.00000000
3.16756732 0.50210301 0.00114793 0.00000000
1.55414182 0.61168309 0.00043972 0.00000000
3.36927758 0.38392815 0.00116728 0.00000000
3.40887055 1.02399969 -0.00417909 0.00000000
1.15633007 1.07043077 -0.00165073 0.00000000
1.49661225 1.01701541 -0.00205430 0.00000000
0.63743415 1.24208692 -0.00134850 0.00000000
1.98714145 0.30164949 0.00044925 0.00000000
1.45440911 1.68300325 -0.00480305 0.00000000
4.58750873 1.31927119 -0.00023265 0.00000000
2.14019950 1.47335098 0.00093805 0.00000000
1.22861046 0.79276722 -0.00189383 0.00000000
4.19901772 1.46490852 0.00344404 0.00000000
0.98152109 1.46765829 -0.00104483 0.00000000
1.29592501 1.12294223 0.00098583 0.00000000
4.36384093 0.69635968 0.00109254 0.00000000
1.32844283 1.47119735 0.00050183 0.00000000
4.15671636 0.65550776 0.00115326 0.00000000
1.55341062 1.67251399 -0.00119033 0.00000000
2.54926497 0.89799451 0.00147251 0.00000000
2.70343056 0.77816413 0.00410439 0.00000000
2.14049788 0.52848287 0.00188197 0.00000000
1.98123348 0.33366709 0.00180552 0.00000000
0.98595024 1.64892789 -0.00119940 0.00000000
0.43163021 1.04575097 0.00014506 0.00000000
3.43843212 1.12744739 -0.00434845 0.00000000
2.00246115 1.64642697 -0.00046917 0.00000000
3.98771031 0.78199703 -0.00532745 0.00000000
0.24266914 1.55836275 -0.00005642 0.00000000
0.50179038 1.56108646 -0.00153536 0.00000000
0.71979937 0.56926383 0.00032070 0.00000000
1.58753120 1.55846494 0.00095701 0.00000000
3.53437837 1.29356250 0.00362475 0.00000000
2.05331228 1.50826329 0.00107686 0.00000000
3.15000501 0.73275316 -0.00081846 0.00000000
3.39680779 0.20291705 0.00271761 0.00000000
2.30065663 0.39899012 -0.00075501 0.00000000
3.92437514 0.00322377 -0.00338887 0.00000000
3.05737463 1.59817237 -0.00154900 0.00000000
2.09766962 1.28966333 -0.00149719 0.00000000
4.19947958 1.39309356 0.00420363 0.00000000
3.38271251 0.73005440 0.00001735 0.00000000
0.96443972 1.45900444 -0.00040112 0.00000000
0.14078405 1.65226793 0.00234887 0.00000000
0.15686382 0.43712317 0.00022275 0.00000000
0.58712007 1.45412942 -0.00101565 0.00000000
1.84765518 1.03567821 0.00136362 0.00000000
3.72561629 1.19203905 0.00167526 0.00000000
1.56898937 0.42970892 0.00167434 0.00000000
0.48702646 1.08561427 0.00289522 0.00000000
1.98717966 1.60426033 -0.00477713 0.00000000
2.08099583 1.54301665 -0.00134264 0.00000000
1.62894192 0.98062592 0.00212163 0.00000000
4.54764811 0.98969685 0.00011797 0.00000000
0.12182964 0.75102540 -0.00260132 0.00000000
0.04653455 0.52389986 -0.00399986 0.00000000
2.06248148 1.69580676 -0.00157847 0.00000000
1.92617190 1.20027263 0.00460944 0.00000000
0.04536750 0.10644583 0.00026927 0.00000000
2.34720868 0.30807234 0.00136511 0.00000000
0.31821617 1.18591192 0.00020471 0.00000000
0.78781162 1.18144601 0.00090408 0.00000000
3.58487310 0.51559971 -0.00118720 0.00000000
0.34287051 0.43616190 -0.00018685 0.00000000
3.23781224 0.76920937 0.00094105 0.00000000
4.12428427 0.78120935 -0.00056658 0.00000000
1.38622038 0.80630137 0.00031299 0.00000000
1.05813414 1.24195066 0.00375141 0.00000000
3.91173471 1.58374163 -0.00105198 0.00000000
3.01330685 0.43052282 -0.00045676 0.00000000
0.98106140 0.42855953 -0.00307374 0.00000000
0.70796195 0.45883798 0.00542830 0.00000000
3.86093213 0.03125830 -0.00114401 0.00000000
2.43461851 0.08208645 0.00080632 0.00000000
3.84586953 1.36121355 0.00062557 0.00000000
3.95667748 0.71128878 0.00087038 0.00000000
3.79890277 0.92046699 0.00269805 0.00000000
0.14590283 1.50669301 -0.00422654 0.00000000
3.64876927 0.29121467 -0.00505909 0.00000000
1.85930390 1.23530205 0.00216482 0.00000000
1.39614774 0.01330343 -0.00148855 0.00000000
3.05397668 0.35973534 -0.00422259 0.00000000
1.10516451 1.60310747 -0.00169028 0.00000000
0.04746076 1.11453306 -0.00058997 0.00000000
2.57867083 1.49831642 0.00106629 0.00000000
3.53524848 0.41023001 0.00053717 0.00000000
2.26889246 0.21922061 0.00300885 0.00000000
3.79900970 0.95293639 0.00121607 0.00000000
3.93590126 1.18747315 0.00238562 0.00000000
4.57802392 1.09395650 -0.00206966 0.00000000
1.27151086 1.03860957 0.00136088 0.00000000
2.27528241 0.94166534 0.00193702 0.00000000
0.34432303 0.21007637 -0.00076334 0.00000000
1.27475300 1.44879504 0.00307939 0.00000000
4.23447012 0.41119050 0.00101177 0.00000000
3.50824374 0.84600203 0.00239328 0.00000000
0.11168406 0.84228444 -0.00189039 0.00000000
0.24338221 1.23511265 0.00088542 0.00000000
3.43532833 0.11989256 0.00408093 0.00000000
0.68609228 0.19093441 -0.00293690 0.00000000
0.56608077 0.29937669 -0.00157947 0.00000000
2.86754233 1.59046638 0.00230328 0.00000000
2.91223721 0.62585035 -0.00288398 0.00000000
2.61329280 0.16216416 -0.00146374 0.00000000
0.99295944 0.55309463 -0.00075538 0.00000000
1.67752337 0.73403777 -0.00203275 0.00000000
2.70939932 1.63017706 -0.00082084 0.00000000
0.55175047 0.80224836 0.00037610 0.00000000
1.55915252 0.25269064 -0.00397696 0.00000000
2.50983886 0.49266384 -0.00147557 0.00000000
2.15394241 0.14211954 -0.00253196 0.00000000
2.85523245 0.31051041 -0.00000224 0.00000000
3.67195505 1.68979863 -0.00151314 0.00000000
2.86054656 0.52322006 -0.00210229 0.00000000
2.65273372 1.54098852 -0.00094976 0.00000000
2.38418113 1.45733258 -0.00046645 0.00000000
4.58279865 0.78060736 -0.00089181 0.00000000
0.14490447 1.32514958 -0.00336827 0.00000000
2.79168504 0.41455227 0.00288033 0.00000000
1.83001306 1.38730766 -0.00542945 0.00000000
0.52819303 1.25210578 0.00041184 0.00000000
3.54625124 1.19112342 -0.00246228 0.00000000
0.28112200 1.67212443 -0.00012509 0.00000000
0.38253737 0.36967826 0.00214298 0.00000000
1.85563830 0.74283161 0.00297642 0.00000000
4.46705955 0.71664249 0.00083513 0.00000000
3.82678726 0.61868511 0.00020875 0.00000000
0.13232889 1.38211469 0.00119340 0.00000000
1.80580205 0.75333447 -0.00509308 0.00000000
2.04429363 0.59624465 -0.00261776 0.00000000
0.52522553 0.96268612 -0.00203601 0.00000000
2.82194035 0.96854722 -0.00129409 0.00000000
4.49287372 1.67511160 0.00043670 0.00000000
2.47376263 1.33893603 -0.00008130 0.00000000
1.62163649 1.62233960 0.00118965 0.00000000
2.17754675 1.03374530 0.00003266 0.00000000
0.81489424 0.66138833 0.00247718 0.00000000
3.49886500 0.13978606 -0.00253441 0.00000000
1.44599495 0.99534736 -0.00378803 0.00000000
0.51411841 0.68561091 0.00222651 0.00000000
1.46898045 0.07037182 0.00048296 0.00000000
3.73048115 0.74231213 -0.00057374 0.00000000
2.64548407 1.68247059 0.00172138 0.00000000
1.97954031 1.70402576 0.00024060 0.00000000
0.49845519 0.44315711 0.00092288 0.00000000
0.75454505 0.10094204 0.00093358 0.00000000
0.23309699 1.63485876 -0.00542042 0.00000000
2.11773012 0.13750899 0.00242100 0.00000000
0.34802005 1.49715060 0.00176021 0.00000000
0.33428554 0.02857267 -0.00182341 0.00000000
2.58086094 0.10082912 0.00287819 0.00000000
4.46132851 1.68620494 0.00287728 0.00000000
4.37146039 1.10521324 -0.00544357 0.00000000
0.99788603 0.86533908 -0.00044138 0.00000000
2.17600999 0.94250246 -0.00414302 0.00000000
0.62158429 0.40309785 -0.00079528 0.00000000
2.33917574 0.58994242 0.00022085 0.00000000
2.86264357 0.61649779 0.00041675 0.00000000
0.59813081 0.00768615 -0.00455756 0.00000000
3.99034142 1.05930328 -0.00171609 0.00000000
3.26341601 1.11374250 0.00275341 0.00000000
2.26911553 1.22066822 0.00072467 0.00000000
4.54396961 0.99214808 -0.00214257 0.00000000
4.13072532 1.61490990 -0.00196302 0.00000000
3.98991883 0.90099617 -0.00237565 0.00000000
2.28000833 0.98859083 0.00228588 0.00000000
1.52248279 1.25678768 -0.00037558 0.00000000
3.65094475 0.42714810 -0.00140981 0.00000000
1.27234498 0.23608292 0.00341344 0.00000000
2.84722246 0.38635927 0.00405313 0.00000000
2.57775512 0.50704005 -0.00206239 0.00000000
0.75564038 1.60563143 -0.00500840 0.00000000
2.94885941 0.73417483 -0.00144064 0.00000000
3.08818230 0.11560000 -0.00157703 0.00000000
2.79951649 0.68614948 -0.00188054 0.00000000
4.38760565 1.03586057 0.00167171 0.00000000
0.67957532 0.23066869 0.00061603 0.00000000
2.41616865 0.30062994 0.00075916 0.00000000
3.29381532 0.23981432 0.00241392 0.00000000
0.48941886 0.04886133 -0.00164448 0.00000000
0.42601138 0.80443302 -0.00508240 0.00000000
3.20760689 1.18154126 -0.00274322 0.00000000
0.96058945 1.71061720 -0.00213532 0.00000000
0.47966890 0.96227962 0.00379593 0.00000000
1.18425074 1.41348297 0.00214118 0.00000000
1.63632694 0.78323736 -0.00232982 0.00000000
2.36285013 1.40061606 -0.00219281 0.00000000
2.25821605 0.41699097 0.00169801 0.00000000
2.65214492 0.77242730 -0.00136590 0.00000000
3.92840498 1.21221791 0.00015937 0.00000000
3.40930277 1.50322148 0.00215134 0.00000000
4.24098805 0.44068818 -0.00006204 0.00000000
0.30923702 1.05410670 -0.00349047 0.00000000
2.33527607 1.33515963 -0.00178217 0.00000000
1.45627803 0.77688078 0.00406458 0.00000000
2.07789081 0.92054228 0.00150486 0.00000000
0.21770899 1.60593209 -0.00225076 0.00000000
2.16630496 0.75461394 -0.00238380 0.00000000
2.00181676 1.48317280 -0.00432714 0.00000000
0.96501073 1.60706829 0.00095688 0.00000000
1.67435139 0.96807000 -0.00221508 0.00000000
0.93145499 0.08406365 -0.00309182 0.00000000
0.81177952 1.47985870 -0.00114934 0.00000000
4.12227583 0.99164566 -0.00299400 0.00000000
3.20953703 0.83963852 0.00155094 0.00000000
2.28140590 0.59302989 -0.00010428 0.00000000
1.43671150 0.93816352 0.00393620 0.00000000
3.09183472 0.69560106 -0.00274029 0.00000000
0.04222555 1.49764884 0.00175616 0.00000000
1.24626486 0.17391867 0.00263996 0.00000000
3.31412017 0.09947204 0.00318580 0.00000000
3.75751415 0.29763653 0.00379897 0.00000000
1.30735414 1.64018580 -0.00312732 0.00000000
0.23048217 1.54455919 -0.00406294 0.00000000
0.73578034 0.13307914 0.00008368 0.00000000
2.80553630 0.74030999 -0.00006666 0.00000000
2.08353973 1.27630700 -0.00723882 0.00000000
4.16144857 0.97570872 -0.00226026 0.00000000
3.43852570 0.52034688 -0.00085851 0.00000000
2.84253813 0.43530474 -0.00033309 0.00000000
2.25281879 1.53050707 0.00260264 0.00000000
2.03478615 1.56366249 -0.00206356 0.00000000
0.21849547 0.16856283 -0.00267685 0.00000000
1.67954499 0.05401945 -0.00106698 0.00000000
2.34133897 1.05126420 0.00284598 0.00000000
1.64732453 1.64626672 -0.00455439 0.00000000
0.21751479 1.13641726 0.00276639 0.00000000
1.63286119 0.70802715 0.00615209 0.00000000
1.73988342 0.00051951 0.00079065 0.00000000
2.66320424 1.12007532 -0.00181551 0.00000000
2.57955064 1.16933492 -0.00215096 0.00000000
0.79509921 1.42913749 -0.00439238 0.00000000
0.99695367 1.67206401 -0.00255770 0.00000000
1.19097502 1.30083551 -0.00046738 0.00000000
1.53025911 0.17658537 -0.00227977 0.00000000
4.06870548 1.06902886 -0.00193745 0.00000000
3.27351958 1.15279976 -0.00389319 0.00000000
4.49519378 0.97755728 0.00026010 0.00000000
4.49714693 0.50975285 0.00033291 0.00000000
2.62926608 0.48082280 0.00073948 0.00000000
2.65303644 0.70004890 -0.00375320 0.00000000
2.00186827 1.39794010 -0.00185622 0.00000000
4.16726872 0.63997003 -0.00022424 0.00000000
2.57768241 1.47981153 -0.00088708 0.00000000
4.35889345 1.49818857 -0.00112312 0.00000000
3.28492074 0.24737330 0.00102778 0.00000000
0.54396952 0.05456680 -0.00032129 0.00000000
0.70419041 0.98781232 -0.00374206 0.00000000
1.63535892 0.11942500 -0.00042334 0.00000000
2.20765633 1.32926332 0.00279487 0.00000000
2.21735275 0.95579193 0.00019703 0.00000000
3.14348679 0.97676874 0.00186870 0.00000000
2.64656018 1.01704155 0.00229150 0.00000000
0.59431006 1.49362705 0.00408679 0.00000000
3.89130302 0.36819757 0.00216238 0.00000000
1.57236770 0.88085139 -0.00377835 0.00000000
0.08203217 0.53391634 -0.00099951 0.00000000
3.53202230 0.44232856 0.00335035 0.00000000
3.24719260 0.60174874 0.00103845 0.00000000
4.01296695 0.31047047 0.00459860 0.00000000
1.08173038 0.29059520 -0.00191973 0.00000000
3.17752395 1.22306353 0.00047313 0.00000000
0.22428952 0.58767960 0.00207139 0.00000000
2.16268299 0.21497214 -0.00090101 0.00000000
0.77491873 1.38172825 -0.00089855 0.00000000
0.84777523 1.71136892 -0.00166393 0.00000000
4.02476100 1.08337796 -0.00089771 0.00000000
2.02001053 1.39863494 -0.00217730 0.00000000
0.24102487 0.80838965 0.00016852 0.00000000
3.68645113 0.27400032 0.00159659 0.00000000
3.23127706 1.27652517 0.00038794 0.00000000
0.61045129 0.11146938 0.00033177 0.00000000
4.38160472 1.64035345 -0.00487272 0.00000000
3.21728019 0.39906510 -0.00588055 0.00000000
1.35332667 0.47140687 -0.00303616 0.00000000
2.88057138 1.24558892 -0.00122520 0.00000000
3.99023397 0.09225343 -0.00272234 0.00000000
2.63257519 0.37492176 -0.00040779 0.00000000
1.64142903 1.21046574 -0.00106298 0.00000000
0.70383855 0.33295729 -0.00017161 0.00000000
2.74149928 0.06736326 0.00449175 0.00000000
2.42051682 0.84592907 -0.00044468 0.00000000
3.89787936 0.91987228 0.00220490 0.00000000
3.27718889 0.87616436 0.00047601 0.00000000
4.37017164 0.09637235 0.00135723 0.00000000
1.11831750 0.56894511 -0.00194476 0.00000000
0.06643582 0.39009110 0.00056321 0.00000000
0.68641040 0.03523144 0.00033969 0.00000000
1.86309825 1.64952172 0.00009123 0.00000000
0.69753865 0.02580294 -0.00003836 0.00000000
0.86928252 1.65716443 0.00079698 0.00000000
4.11605197 1.14490415 0.00150737 0.00000000
3.19456400 0.40114419 -0.00315441 0.00000000
0.80290027 0.98158594 -0.00185526 0.00000000
1.48869951 0.42161176 -0.00330792 0.00000000
2.98923433 0.12323052 0.00266077 0.00000000
0.63782570 1.03114726 0.00289890 0.00000000
0.38213053 1.14371587 -0.00154479 0.00000000
1.59405342 1.25073048 0.00161256 0.00000000
0.40805695 0.61568651 -0.00169214 0.00000000
0.28970651 0.74302364 0.00068430 0.00000000
3.30572440 0.60050676 0.00188878 0.00000000
2.60382614 1.22608869 0.00244390 0.00000000
2.42167211 0.70986680 -0.00032263 0.00000000
3.80881350 0.46950253 0.00184106 0.00000000
4.03727707 0.78989308 -0.00144240 0.00000000
0.74124505 0.91704819 -0.00153216 0.00000000
3.98749803 1.65940992 -0.00095286 0.00000000
4.28173002 1.17073104 0.00099091 0.00000000
0.12966729 0.81501964 0.00219219 0.00000000
1.33335651 0.19383888 0.00381147 0.00000000
2.88904428 0.18145647 0.00098399 0.00000000
2.68986375 1.04125156 0.00332463 0.00000000
1.51843234 0.54245121 -0.00016136 0.00000000
2.64711564 0.83679592 0.00176550 0.00000000
2.07172620 0.28878805 0.00156973 0.00000000
3.07863012 1.06246234 0.00128284 0.00000000
0.58897776 0.01846970 -0.00061744 0.00000000
0.80452080 0.76170393 0.00126126 0.00000000
4.18424715 0.55362865 -0.00307553 0.00000000
2.47450517 0.61806330 -0.00149262 0.00000000
0.91898120 1.17070821 0.00204845 0.00000000
0.90886214 1.59164035 -0.00123665 0.00000000
0.72440810 0.02938177 -0.00266137 0.00000000
3.31750231 1.53319456 -0.00209190 0.00000000
4.55698906 0.04345097 -0.00097742 0.00000000
2.28925310 0.17239135 -0.00371264 0.00000000
3.98988273 1.44485349 0.00002882 0.00000000
0.64691639 1.02887581 0.00102904 0.00000000
0.91263779 0.24003285 0.00214211 0.00000000
3.72421079 0.70090290 -0.00716619 0.00000000
0.52524309 1.58286678 -0.00422427 0.00000000
2.09381289 0.71218439 0.00112819 0.00000000
1.98538755 1.62502529 -0.00407262 0.00000000
4.48128796 0.69837390 -0.00106681 0.00000000
0.64976204 1.58486220 -0.00047373 0.00000000
2.03983660 0.64681989 -0.00256143 0.00000000
1.45232815 0.60255227 -0.00139890 0.00000000
0.85198377 0.92677200 0.00281825 0.00000000
0.24323341 1.59585354 -0.00158439 0.00000000
4.56245932 0.30265065 0.00430306 0.00000000
2.05312816 1.02430115 -0.00212956 0.00000000
1.22895504 0.53344270 -0.00236607 0.00000000
4.45203834 1.16761224 -0.00403537 0.00000000
0.60025229 0.01004101 0.00141882 0.00000000
3.66334704 0.45326034 0.00160234 0.00000000
2.10154998 0.07708448 -0.00185949 0.00000000
0.78475103 0.93564802 -0.00002663 0.00000000
4.28625402 0.81451152 -0.00022325 0.00000000
0.57524896 1.47603660 -0.00086617 0.00000000
1.60084293 0.10778838 0.00238561 0.00000000
1.75572278 0.83219995 -0.00193880 0.00000000
0.87490898 0.25311003 0.00297614 0.00000000
0.05184309 1.70547425 -0.00128268 0.00000000
1.45655260 0.13610634 -0.00216960 0.00000000
3.82656516 1.15760669 -0.00036840 0.00000000
3.77936793 1.16283812 -0.00130571 0.00000000
0.26291519 1.17286104 -0.00385486 0.00000000
2.65516359 0.91756775 0.00252557 0.00000000
3.29649755 0.73420562 0.00462574 0.00000000
1.25688992 0.09494990 0.00022014 0.00000000
1.32645304 1.31110726 0.00104580 0.00000000
2.90695171 1.63432770 0.00532685 0.00000000
1.48700117 0.76739493 -0.00252039 0.00000000
2.75300024 0.62338991 -0.00165512 0.00000000
2.35925251 1.59135900 -0.00152674 0.00000000
4.25267094 1.06530159 -0.00330093 0.00000000
1.00747306 0.89248281 0.00326498 0.00000000
3.97002843 1.45470217 -0.00029330 0.00000000
2.12340038 1.13283423 0.00114498 0.00000000
4.08481351 0.06721027 -0.00131774 0.00000000
2.51144211 0.28200799 -0.00291008 0.00000000
0.07333154 0.32560167 0.00009673 0.00000000
3.55282623 0.28620469 0.00350186 0.00000000
1.74464574 1.38374788 -0.00164250 0.00000000
3.88981396 0.91413939 -0.00123264 0.00000000
2.99239663 0.28094535 -0.00032405 0.00000000
2.88760543 0.02982008 -0.00292061 0.00000000
3.88136740 1.26597654 0.00103811 0.00000000
4.04881011 1.53911778 0.00247038 0.00000000
2.27281300 0.71569658 -0.00463034 0.00000000
2.82682483 0.69777238 -0.00066737 0.00000000
3.48312854 1.20724653 -0.00116290 0.00000000
2.38919377 1.32784573 0.00328321 0.00000000
1.52411047 1.04986264 -0.00240220 0.00000000
0.73342167 1.37831980 -0.00209610 0.00000000
0.80393113 0.96429002 0.00235529 0.00000000
1.04811424 0.09268465 -0.00160991 0.00000000
3.85308923 0.11203586 -0.00317823 0.00000000
3.81104515 0.79500771 -0.00279741 0.00000000
1.79849685 1.70427044 -0.00314267 0.00000000
1.42316871 0.74583089 0.00075335 0.00000000
2.36611076 1.23766325 -0.00381289 0.00000000
3.33751756 1.27557111 0.00092747 0.00000000
2.70254827 0.03535523 0.00400631 0.00000000
0.01251369 1.01317542 -0.00219451 0.00000000
1.22929818 0.15827291 0.00161420 0.00000000
0.96315974 1.04141524 -0.00260580 0.00000000
2.96486744 0.99766641 0.00339194 0.00000000
4.50062954 0.97515425 -0.00584533 0.00000000
3.68770984 0.65312272 -0.00224218 0.00000000
3.64470912 1.36644367 -0.00094558 0.00000000
3.63307007 1.65632306 0.00185241 0.00000000
2.45008901 0.51428634 0.00426378 0.00000000
2.77494259 1.64312678 -0.00136361 0.00000000
3.41728912 0.22533312 -0.00239657 0.00000000
1.50812751 1.49063612 -0.00299667 0.00000000
4.00672039 0.39109434 0.00326376 0.00000000
3.17038847 0.68039874 0.00156657 0.00000000
1.07076786 0.02292633 -0.00728124 0.00000000
1.71850778 0.47612729 -0.00303332 0.00000000
0.03044674 1.01654359 0.00076535 0.00000000
2.47196477 1.13390255 -0.00442023 0.00000000
1.58217990 1.69723779 0.00107564 0.00000000
3.35677148 0.85111005 0.00120604 0.00000000
4.14226293 0.86548131 -0.00263509 0.00000000
4.20481016 1.64832700 0.00177341 0.00000000
3.40219379 0.68494949 0.00507341 0.00000000
3.92194260 1.24662717 -0.00171788 0.00000000
2.20905414 1.30374195 -0.00050369 0.00000000
2.49134870 0.03555918 0.00165197 0.00000000
0.08881536 0.93402712 0.00138879 0.00000000
0.94093978 0.30088732 -0.00233920 0.00000000
3.31798538 0.27474897 -0.00338180 0.00000000
1.41624104 0.24391345 -0.00116186 0.00000000
3.84773438 1.57064821 0.00189700 0.00000000
0.36035485 0.31138737 -0.00097005 0.00000000
3.35294715 0.77046382 0.00174042 0.00000000
0.67279045 0.10864539 -0.00050305 0.00000000
3.53235726 0.72555048 -0.00175130 0.00000000
3.88354700 0.60742730 -0.00092632 0.00000000
4.05041365 1.12892371 0.00045597 0.00000000
2.28610521 0.94910622 -0.00171848 0.00000000
3.00691991 0.25759964 -0.00211252 0.00000000
1.33672432 0.86082107 0.00005471 0.00000000
0.94532377 1.51930071 0.00131272 0.00000000
2.89492258 0.93157122 -0.00083380 0.00000000
4.19279764 0.23150058 0.00576955 0.00000000
4.22269868 1.57232429 0.00343462 0.00000000
2.83089924 0.18364079 0.00023140 0.00000000
3.58394468 1.00099054 -0.00127964 0.00000000
3.49414323 1.60657426 -0.00210047 0.00000000
3.62967247 0.04541140 0.00288721 0.00000000
0.37987814 0.60016024 0.00193041 0.00000000
1.64855477 1.14895279 0.00526313 0.00000000
0.18845608 0.25852532 0.00012125 0.00000000
1.45281389 0.84407077 0.00215342 0.00000000
0.68661271 0.50870236 -0.00151784 0.00000000
2.11676750 0.32835274 0.00021244 0.00000000
2.67524241 1.54417327 0.00322818 0.00000000
3.44980442 1.68607190 -0.00207333 0.00000000
4.08533716 0.85486262 0.00156275 0.00000000
2.93605247 0.41575776 0.00531283 0.00000000
2.61513693 1.43643207 -0.00444078 0.00000000
2.05308321 0.10790189 -0.00221074 0.00000000
0.22717677 0.40823459 0.00220130 0.00000000
1.94993630 0.89568412 -0.00202176 0.00000000
2.68370708 1.14508425 0.00109306 0.00000000
2.66683911 0.61347693 0.00124988 0.00000000
4.10433803 1.52593477 0.00126218 0.00000000
1.05015220 1.21366641 -0.00031176 0.00000000
0.36557870 1.10562913 0.00575089 0.00000000
3.90018471 1.28673636 0.00193116 0.00000000
0.62673755 0.06254019 0.00089002 0.00000000
1.01596793 0.04695180 0.00296459 0.00000000
3.02301944 0.58381881 -0.00003416 0.00000000
3.07169308 0.99396712 0.00157385 0.00000000
0.92101841 0.11567539 0.00566721 0.00000000
3.56049897 0.10470972 -0.00107923 0.00000000
3.07452845 1.22724961 -0.00368931 0.00000000
2.06445531 1.01388779 -0.00130498 0.00000000
3.08140137 0.04522810 0.00270357 0.00000000
1.40234571 1.01964871 0.00186421 0.00000000
2.52739532 0.45482835 0.00075007 0.00000000
3.37228509 1.41528068 -0.00158839 0.00000000
2.56601605 0.34409107 0.00311361 0.00000000
1.12141765 1.17288642 -0.00639704 0.00000000
1.15831706 1.49687947 0.00107794 0.00000000
0.69631955 1.57080185 -0.00077612 0.00000000
4.52229458 1.49138817 0.00332117 0.00000000
2.69496046 1.65605414 0.00008598 0.00000000
2.98558572 0.17125013 0.00232956 0.00000000
0.68669951 0.44368631 -0.00106240 0.00000000
2.49441753 1.44072245 -0.00241133 0.00000000
3.16596342 1.41790315 0.00040446 0.00000000
2.10104152 1.40069948 0.00269129 0.00000000
1.10246219 0.12114060 -0.00079309 0.00000000
0.60847404 0.21753817 -0.00357103 0.00000000
4.35892383 1.08092538 -0.00142747 0.00000000
3.34334977 1.10064082 -0.00332099 0.00000000
3.14389051 0.12650985 -0.00079976 0.00000000
3.64665791 0.72153244 0.00265232 0.00000000
1.87074989 1.20266241 -0.00033106 0.00000000
1.82247280 1.11058376 0.00079034 0.00000000
2.28036226 1.01808437 -0.00227122 0.00000000
2.56545767 0.83306808 -0.00095622 0.00000000
1.02119376 1.64387317 0.00284048 0.00000000
3.70678154 1.39588034 0.00211692 0.00000000
2.78783360 0.49829641 -0.00007671 0.00000000
4.03075475 0.38183875 0.00080001 0.00000000
2.78046113 1.33162493 0.00281649 0.00000000
2.44671265 0.34054220 0.00101096 0.00000000
1.95148567 0.74342724 0.00573433 0.00000000
3.83655418 0.80092184 0.00312700 0.00000000
1.97881963 0.17010638 -0.00108531 0.00000000
3.37188017 0.76644221 0.00114440 0.00000000
2.73669878 0.64545009 -0.00016975 0.00000000
1.23561394 0.53864845 0.00360531 0.00000000
3.62254100 0.53588133 -0.00317921 0.00000000
1.97189694 1.50981638 0.00241955 0.00000000
3.58882890 1.21965720 0.00356174 0.00000000
1.16171586 0.92550741 -0.00268956 0.00000000
2.37653770 1.58228537 0.00284918 0.00000000
2.47985033 1.69463052 0.00159876 0.00000000
1.90926415 0.56077634 -0.00033890 0.00000000
2.02587974 1.55106450 -0.00066423 0.00000000
1.46146022 1.25235485 0.00103446 0.00000000
3.29338893 0.29762675 0.00378260 0.00000000
1.35614543 0.54926207 -0.00066170 0.00000000
2.11305421 1.13095888 0.00104898 0.00000000
0.29752056 0.80490742 -0.00169402 0.00000000
0.64832028 0.62640628 -0.00252245 0.00000000
1.55193898 1.15333801 0.00050436 0.00000000
2.15503250 0.35302699 0.00422714 0.00000000
2.02650641 0.44572727 -0.00146516 0.00000000
0.18176958 0.23347674 0.00197598 0.00000000
1.91230850 0.59204457 -0.00079819 0.00000000
0.72928552 0.99447133 0.00065652 0.00000000
1.83804284 1.19297851 -0.00077926 0.00000000
2.88219656 0.61264067 -0.00173889 0.00000000
0.16598943 1.01500741 0.00351784 0.00000000
3.97434683 0.05243019 0.00194823 0.00000000
0.29240485 0.90979201 0.00069629 0.00000000
3.10829593 1.30743122 0.00338178 0.00000000
2.55408066 1.09906659 0.00639087 0.00000000
2.31046901 0.45283566 -0.00143376 0.00000000
3.72118027 0.49114630 -0.00147342 0.00000000
3.06560986 0.24608307 0.00373217 0.00000000
1.88367354 0.52902062 0.00055426 0.00000000
0.38206322 0.52148965 0.00280432 0.00000000
1.36875410 1.14302889 -0.00210259 0.00000000
1.45151949 1.61114270 -0.00022880 0.00000000
3.36064142 0.98431073 -0.00275568 0.00000000
1.24244592 1.57511236 -0.00107228 0.00000000
3.13304450 1.13768163 -0.00212822 0.00000000
0.31628345 0.82176748 0.00040536 0.00000000
2.91939794 1.51057023 0.00167628 0.00000000
0.43701840 1.16069633 0.00051199 0.00000000
0.67982741 0.20531079 0.00065957 0.00000000
0.21723800 0.45834560 -0.00828961 0.00000000
1.84689500 1.29218487 0.00414519 0.00000000
3.08318556 0.67563586 -0.00300614 0.00000000
2.79473274 0.16838984 0.00130257 0.00000000
0.80738068 0.22044476 0.00342439 0.00000000
1.70396854 1.22531924 -0.00024425 0.00000000
0.31942276 1.43887546 -0.00493932 0.00000000
3.02590811 1.15765567 -0.00207509 0.00000000
3.84101074 0.74599494 -0.00083049 0.00000000
3.16780863 0.59461546 0.00040140 0.00000000
1.36983567 0.15501627 -0.00459362 0.00000000
2.11029807 1.26250005 0.00206597 0.00000000
0.34193032 0.07077261 0.00340201 0.00000000
1.05520937 0.32132811 0.00008964 0.00000000
3.32873036 1.36036735 0.00285464 0.00000000
0.45331536 1.11408225 -0.00041812 0.00000000
1.88224393 1.41077679 -0.00052188 0.00000000
4.15193949 1.07862638 -0.00414515 0.00000000
3.71853874 1.65788660 -0.00263714 0.00000000
2.05501321 1.37421964 -0.00145750 0.00000000
3.64539105 1.07479722 0.00153027 0.00000000
1.44794661 0.64348328 0.00047637 0.00000000
0.02316392 1.45310228 -0.00353008 0.00000000
4.18470693 0.01343658 0.00313121 0.00000000
4.15946635 1.09398994 -0.00195207 0.00000000
3.69725542 1.21140669 0.00097723 0.00000000
2.30573475 1.19136893 -0.00110173 0.00000000
1.01106893 1.64038764 -0.00205378 0.00000000
2.05072227 1.03826815 -0.00420982 0.00000000
3.29143385 1.21691526 -0.00466304 0.00000000
2.88156972 0.03178776 -0.00094076 0.00000000
1.46323730 0.85061614 -0.00185498 0.00000000
3.98239737 0.53594604 0.00174755 0.00000000
2.86357051 0.15420707 -0.00486655 0.00000000
1.00276919 0.49311540 0.00130459 0.00000000
2.25073961 0.03585477 -0.00246748 0.00000000
2.14172873 1.08618443 0.00084896 0.00000000
3.10231514 1.41843956 -0.00327211 0.00000000
3.23145781 1.13870576 0.00454700 0.00000000
4.21956136 0.10302789 0.00128462 0.00000000
1.54653643 1.61880388 0.00079763 0.00000000
1.35525830 0.32572339 -0.00042224 0.00000000
1.79745665 1.57800091 -0.00013720 0.00000000
3.26322670 0.23103696 0.00359868 0.00000000
0.33717807 1.52925208 0.00475660 0.00000000
1.25183340 1.48366269 0.00276468 0.00000000
2.37776161 1.08517062 0.00184618 0.00000000
1.98243006 0.90198290 -0.00470532 0.00000000
0.04498950 0.25976292 -0.00117327 0.00000000
3.56998340 0.52507969 -0.00041474 0.00000000
2.83434412 1.32712199 -0.00140888 0.00000000
1.43066019 1.48407260 -0.00290617 0.00000000
3.14946087 1.25527390 0.00263922 0.00000000
1.04764348 0.73982360 0.00113970 0.00000000
0.35984669 0.05404547 -0.00419432 0.00000000
0.74944337 0.07932491 0.00245218 0.00000000
1.33709602 0.50122073 -0.00128290 0.00000000
2.37493125 0.71365479 -0.00149120 0.00000000
3.39084316 1.06045670 -0.00022905 0.00000000
2.84912578 0.48524597 -0.00052463 0.00000000
1.78912828 1.39226268 0.00161326 0.00000000
0.37609656 0.38528373 -0.00273793 0.00000000
1.26316447 1.04937038 0.00079204 0.00000000
1.96032223 0.50875663 0.00193969 0.00000000
3.59142307 0.05809920 -0.00139672 0.00000000
0.64578078 0.99998908 0.00022134 0.00000000
4.01569543 0.88585691 0.00103295 0.00000000
0.95867622 0.95834835 -0.00199480 0.00000000
4.08751763 0.89423187 -0.00281734 0.00000000
0.88779506 0.97627557 0.00036203 0.00000000
3.47972552 0.91974293 -0.00526405 0.00000000
0.34966312 0.98883761 0.00216483 0.00000000
1.43734862 1.22196980 -0.00670588 0.00000000
3.46143192 1.46933655 0.00107775 0.00000000
0.46089184 1.00653211 -0.00478128 0.00000000
4.15791665 0.24761970 0.00441158 0.00000000
2.66283794 1.03097002 -0.00228470 0.00000000
0.25091492 1.46072454 0.00241043 0.00000000
0.86463002 1.27827111 0.00223781 0.00000000
3.34296743 0.74627593 0.00055114 0.00000000
1.00508094 1.16449503 0.00394078 0.00000000
2.40336937 0.39933813 0.00089985 0.00000000
3.69212653 1.02796799 -0.00127053 0.00000000
3.52264507 0.07963050 -0.00315933 0.00000000
1.61142363 1.04841768 0.00468448 0.00000000
2.65238667 0.47706549 -0.00352980 0.00000000
4.58533354 0.73256191 0.00291709 0.00000000
4.17423718 0.80831530 0.00350617 0.00000000
0.37179652 0.05140325 0.00128445 0.00000000
4.30218072 0.88946430 -0.00405053 0.00000000
2.64379574 1.66469879 0.00129244 0.00000000
1.02631842 0.19473086 0.00230215 0.00000000
0.37417176 0.97653796 -0.00256232 0.00000000
1.30332748 1.34644940 -0.00578032 0.00000000
4.37431682 0.48863749 0.00130851 0.00000000
1.55340807 0.86020596 -0.00004802 0.00000000
1.26243031 0.05433193 0.00020114 0.00000000
0.17473240 0.50481229 -0.00034776 0.00000000
1.80237807 1.07311208 -0.00015256 0.00000000
0.25610571 0.93181289 0.00118367 0.00000000
3.98977287 0.53266674 -0.00209568 0.00000000
2.47241610 0.91305526 -0.00178800 0.00000000
2.29159234 0.67719397 -0.00093447 0.00000000
0.97169070 0.26553648 0.00658984 0.00000000
3.50229858 1.07454000 0.00091455 0.00000000
2.86078374 1.64431327 -0.00510342 0.00000000
1.26813848 0.58008747 -0.00184038 0.00000000
1.43983656 1.12700134 -0.00288797 0.00000000
3.25004178 1.60367802 -0.00387004 0.00000000
1.39867620 1.43083600 0.00103709 0.00000000
3.64564947 0.25839049 -0.00230310 0.00000000
3.67894858 1.65301371 0.00010322 0.00000000
2.47036377 1.50064343 -0.00213411 0.00000000
1.66894052 0.36374342 -0.00115692 0.00000000
2.44617007 0.07721541 -0.00208303 0.00000000
4.50558982 0.94027811 0.00153676 0.00000000
3.88734431 1.63272789 -0.00046068 0.00000000
1.37784708 1.43427914 -0.00054659 0.00000000
4.12128418 1.68349588 -0.00291498 0.00000000
0.58589026 1.02748965 -0.00332217 0.00000000
4.14918404 0.26968409 0.00246854 0.00000000
3.29619301 0.44098800 0.00073576 0.00000000
2.48206878 1.11911901 -0.00132366 0.00000000
3.83138106 0.83122890 -0.00222027 0.00000000
2.82801648 0.42473794 -0.00214347 0.00000000
0.32460108 1.39246030 0.00309395 0.00000000
3.48915963 0.62697460 -0.00045574 0.00000000
2.30791516 1.63768474 -0.00145165 0.00000000
1.36344400 0.75642994 0.00084109 0.00000000
0.47070403 0.74919533 0.00201414 0.00000000
4.35247994 0.61081042 -0.00074795 0.00000000
2.54620016 1.10169703 0.00232767 0.00000000
1.13994991 0.73207626 0.00057088 0.00000000
3.25232422 0.76005120 0.00315798 0.00000000
2.59066153 0.11169472 -0.00008811 0.00000000
2.53188074 1.16796202 -0.00178480 0.00000000
1.48289804 0.14317223 0.00309584 0.00000000
0.75306428 0.82552499 -0.00115547 0.00000000
3.65690568 0.18432712 0.00065368 0.00000000
1.03114594 1.31024370 -0.00137499 0.00000000
3.19010690 0.72007247 -0.00054630 0.00000000
4.31255825 1.19439556 0.00444030 0.00000000
2.23094889 1.27403351 0.00021012 0.00000000
1.82643873 1.18204449 0.00105049 0.00000000
3.73076899 0.36722724 -0.00446410 0.00000000
3.12936381 1.13429896 -0.00204216 0.00000000
3.57998197 1.53126362 -0.00007079 0.00000000
2.89392941 1.71198748 0.00221391 0.00000000
0.67824375 0.80698708 -0.00049108 0.00000000
3.69942198 1.50949919 0.00382160 0.00000000
1.86011794 1.28416155 0.00149521 0.00000000
0.72066029 1.51368409 -0.00151703 0.00000000
0.47859738 0.92732340 0.00352809 0.00000000
1.43304978 0.07336704 -0.00174564 0.00000000
1.85730406 1.47415718 -0.00289065 0.00000000
2.20576666 0.55890463 0.00184788 0.00000000
2.06943408 0.78954141 -0.00065151 0.00000000
4.15682210 1.43900779 0.00153859 0.00000000
0.53345908 0.02311015 -0.00040196 0.00000000
1.60650273 1.69298449 0.00039044 0.00000000
0.63862290 0.96391996 0.00250341 0.00000000
2.70234487 1.04034520 0.00097025 0.00000000
4.04390537 0.37015850 0.00377373 0.00000000
0.08690119 0.17109914 -0.00046443 0.00000000
2.63146062 0.87585286 -0.00187204 0.00000000
0.63194957 0.64285435 -0.00006055 0.00000000
1.93169984 1.43895035 -0.00282136 0.00000000
