0.906382 1.387011 -0.000100 0.0
2.314985 1.441138 -0.002467 0.0
1.960854 0.125851 0.003600 0.0
3.351724 0.903391 0.000469 0.0
0.673234 0.834700 0.001269 0.0
1.521657 1.282372 -0.002255 0.0
0.064527 0.141221 0.001024 0.0
4.227501 0.613348 -0.001397 0.0
0.369506 0.166379 0.001478 0.0
1.263291 0.705268 -0.003837 0.0
4.087665 0.990103 0.000217 0.0
3.309255 0.343751 -0.001401 0.0
2.138761 0.851279 -0.000043 0.0
2.656567 1.845087 -0.001168 0.0
1.312302 0.328237 -0.001213 0.0
3.492528 1.034752 -0.001127 0.0
4.523172 1.614782 0.007357 0.0
2.925429 1.669606 0.001610 0.0
2.992791 0.213742 -0.000174 0.0
0.351902 0.599654 -0.002287 0.0
2.736536 1.803042 -0.002315 0.0
1.650294 1.437214 -0.006902 0.0
1.237545 1.850106 -0.000804 0.0
1.880243 1.740581 0.002382 0.0
1.327530 1.063899 -0.001699 0.0
2.752794 1.269833 -0.000696 0.0
1.082028 0.600402 -0.004731 0.0
4.153817 0.840954 0.000602 0.0
3.431836 0.306254 0.003161 0.0
3.890205 0.963925 -0.004106 0.0
0.021050 0.038473 -0.000614 0.0
4.216836 0.130973 0.002930 0.0
1.094004 0.289359 -0.006190 0.0
4.371292 0.309406 -0.001238 0.0
3.378157 1.711401 -0.001324 0.0
2.382645 1.094499 0.002208 0.0
1.378453 0.911016 -0.000277 0.0
0.880222 0.713725 -0.003394 0.0
2.583195 1.567320 -0.001284 0.0
2.494218 1.208787 0.002562 0.0
3.512463 1.668839 -0.000628 0.0
3.296868 0.756296 0.003097 0.0
3.346928 1.435521 0.003745 0.0
0.809937 0.500706 0.002402 0.0
3.009165 0.793636 0.005032 0.0
1.649680 0.592188 -0.001521 0.0
3.001613 0.527850 0.000379 0.0
3.749500 1.299860 -0.000662 0.0
0.208120 1.130348 -0.000263 0.0
2.204957 1.251463 -0.002346 0.0
0.825424 0.604381 0.000937 0.0
1.458306 0.738007 0.001707 0.0
4.528324 1.838603 0.002812 0.0
2.203737 1.569920 0.003017 0.0
1.056658 1.023545 -0.001297 0.0
0.288200 1.131090 -0.001512 0.0
0.779700 0.022332 0.001901 0.0
3.212709 0.691369 -0.003315 0.0
2.348044 0.870150 0.003402 0.0
2.094953 1.545521 -0.001123 0.0
0.368301 1.504778 -0.002579 0.0
4.345795 0.522233 0.001357 0.0
2.668197 1.778116 0.002538 0.0
3.704022 0.082662 0.003699 0.0
3.489220 0.755169 -0.001175 0.0
2.398182 0.075891 0.002681 0.0
3.870054 0.104443 0.001453 0.0
2.140113 0.276764 0.002501 0.0
0.156256 1.364276 -0.002040 0.0
3.993876 0.007323 -0.002365 0.0
1.834666 1.567229 0.001644 0.0
2.099977 1.426948 0.002021 0.0
1.119293 0.076322 -0.000565 0.0
4.412130 1.766650 -0.001698 0.0
4.518962 0.871623 0.000677 0.0
2.054284 0.820430 0.000157 0.0
1.034961 1.286448 -0.000941 0.0
3.293741 1.139540 -0.001245 0.0
3.689846 1.829497 -0.001928 0.0
4.099870 0.575322 -0.001254 0.0
3.095482 0.300994 0.002605 0.0
4.477289 1.466777 0.000371 0.0
1.331600 1.748305 0.001021 0.0
0.676382 0.256822 0.003551 0.0
2.864146 1.644686 0.000572 0.0
2.939519 1.074642 0.001986 0.0
3.954036 0.255313 0.000652 0.0
3.639449 0.119904 -0.003792 0.0
1.274095 1.636741 0.000625 0.0
1.100399 0.654631 0.002536 0.0
1.324107 1.799026 0.000440 0.0
1.922581 1.435550 -0.002465 0.0
2.539249 1.079703 0.001121 0.0
4.190809 0.900142 0.001458 0.0
0.526363 0.762161 -0.000650 0.0
1.581312 0.235352 -0.000341 0.0
0.546673 0.934298 -0.000477 0.0
3.523720 0.859726 -0.003448 0.0
1.074139 1.456183 -0.000093 0.0
0.953523 0.330486 0.000587 0.0
3.264165 0.746959 -0.001104 0.0
3.696041 1.155306 -0.002725 0.0
0.780905 1.680644 -0.001377 0.0
2.980456 0.173208 0.003240 0.0
2.296450 0.878591 0.000249 0.0
2.610770 1.423026 0.000541 0.0
0.216558 0.056835 0.000493 0.0
0.689883 0.923877 -0.003962 0.0
3.780866 1.497873 0.002234 0.0
3.799111 0.977602 0.003071 0.0
0.863078 0.149056 -0.000376 0.0
3.099581 1.656782 -0.004563 0.0
2.727059 0.314835 -0.001364 0.0
0.409082 0.967470 -0.001746 0.0
0.150701 0.484067 -0.002878 0.0
4.502429 1.713115 0.001947 0.0
3.149232 1.461858 0.004783 0.0
0.002862 1.807002 0.000785 0.0
1.301319 1.249952 0.002815 0.0
2.793688 1.030933 0.001414 0.0
3.690549 0.342459 -0.000868 0.0
3.488418 1.508112 -0.001074 0.0
2.914032 0.532831 -0.004015 0.0
2.333708 1.341112 0.000784 0.0
4.423930 1.427249 0.001958 0.0
0.517956 1.780551 0.001789 0.0
2.212115 0.324917 0.000819 0.0
2.825419 0.791364 -0.000424 0.0
0.766669 0.352550 0.001603 0.0
4.536631 0.217466 -0.000957 0.0
4.204851 0.604700 0.001106 0.0
0.827602 0.470446 0.001180 0.0
4.043508 1.226211 0.000131 0.0
1.026184 1.563580 -0.000950 0.0
2.091241 1.856282 0.004042 0.0
2.906130 0.061007 0.001842 0.0
2.361260 1.790380 -0.003147 0.0
0.939160 0.381600 0.000653 0.0
0.598296 1.425221 -0.000894 0.0
2.256584 1.384555 -0.000719 0.0
3.928980 1.724001 0.002343 0.0
2.669088 0.296954 -0.000325 0.0
1.292182 0.174130 0.001022 0.0
2.643326 1.126516 -0.000369 0.0
1.507558 1.013569 -0.005940 0.0
3.694968 0.223867 -0.006255 0.0
3.761217 0.901561 0.000752 0.0
2.075671 1.774322 -0.000654 0.0
4.015511 1.858233 0.000839 0.0
1.663974 0.231064 0.000427 0.0
4.232949 0.422994 0.002794 0.0
3.726632 1.826441 0.000219 0.0
2.340558 0.429515 -0.001133 0.0
0.444726 1.086317 -0.001804 0.0
3.809796 0.700381 -0.002912 0.0
0.529931 0.558872 -0.006453 0.0
1.573192 0.961273 0.001038 0.0
0.965387 1.701482 0.003034 0.0
3.532886 0.137858 -0.000568 0.0
2.268020 1.634529 -0.003750 0.0
4.235396 0.350061 0.001952 0.0
1.748154 0.742692 0.005106 0.0
1.611579 0.225096 0.002854 0.0
1.533229 0.774203 0.003151 0.0
3.332285 0.700080 -0.002610 0.0
1.476384 0.624193 0.003638 0.0
0.657168 0.792949 -0.000749 0.0
1.896354 1.545019 -0.002451 0.0
2.084677 1.840203 -0.004490 0.0
1.345774 0.250569 -0.002441 0.0
4.208698 1.554415 -0.001630 0.0
2.978816 0.260710 0.000745 0.0
2.729815 1.483820 -0.000173 0.0
3.466330 1.606385 0.005134 0.0
3.801465 0.863354 0.000202 0.0
2.279328 1.636684 -0.000941 0.0
1.268653 1.182036 0.002545 0.0
2.424981 0.710064 -0.003099 0.0
2.458635 0.029221 -0.001084 0.0
0.553646 1.387241 -0.000191 0.0
1.793785 0.698371 0.001065 0.0
1.744032 1.136815 0.002777 0.0
4.430502 1.708479 -0.000982 0.0
1.589063 0.626122 -0.004248 0.0
2.181516 1.866783 0.000843 0.0
4.401538 1.510880 0.006655 0.0
3.606180 0.988631 0.003472 0.0
0.096188 1.156452 0.004029 0.0
1.928791 0.286393 0.002868 0.0
2.801248 0.844374 0.000302 0.0
0.185624 0.369115 -0.004860 0.0
3.879495 1.872326 0.004410 0.0
1.641261 0.527875 0.003781 0.0
3.333957 0.471208 -0.000921 0.0
4.291415 0.757197 -0.001184 0.0
0.881438 1.180636 -0.001501 0.0
2.942618 0.237979 -0.003145 0.0
0.760685 0.144072 0.001140 0.0
1.091005 1.804025 -0.002476 0.0
3.446598 0.980859 0.001984 0.0
3.620306 0.695308 -0.002819 0.0
1.897460 0.740645 0.001873 0.0
2.468667 1.642714 0.004271 0.0
3.179983 0.368396 -0.001549 0.0
2.176553 1.107258 0.001094 0.0
3.857431 1.351874 0.004212 0.0
1.941579 0.519055 -0.004451 0.0
1.453738 0.064968 -0.002612 0.0
0.451607 0.899819 -0.003470 0.0
3.908158 0.281834 -0.000271 0.0
0.326160 1.773341 0.003662 0.0
2.564415 1.635451 -0.000987 0.0
4.062150 -0.001042 -0.001303 0.0
0.176516 1.519562 -0.004568 0.0
4.540948 1.757589 -0.005397 0.0
3.642302 1.425783 0.001434 0.0
1.172563 0.235710 0.000867 0.0
3.435152 1.697190 0.000974 0.0
3.952094 1.497279 -0.000269 0.0
3.491751 0.535972 -0.000985 0.0
4.247702 1.132282 -0.002594 0.0
1.612658 0.534526 -0.001598 0.0
1.374609 1.465197 0.001963 0.0
0.290316 0.605726 0.000314 0.0
0.386189 1.148773 -0.002266 0.0
0.180088 1.263540 -0.000967 0.0
3.162843 0.913757 -0.005523 0.0
3.962252 0.131291 -0.002430 0.0
3.053132 1.733514 0.001323 0.0
1.654480 0.989078 -0.002667 0.0
1.567483 0.954567 -0.003373 0.0
2.762161 1.034643 -0.000178 0.0
0.795581 1.109068 -0.001934 0.0
2.732597 0.141190 0.000703 0.0
1.466251 0.577507 0.001461 0.0
2.191321 1.361192 -0.003268 0.0
4.540506 0.595563 -0.002978 0.0
3.047507 1.278910 -0.000184 0.0
2.407802 1.682996 0.000890 0.0
4.337100 0.716845 0.002717 0.0
0.188385 0.129496 -0.002833 0.0
4.297739 0.248650 0.000981 0.0
0.933464 0.694399 -0.001158 0.0
0.068794 0.675623 -0.000472 0.0
2.613892 0.964553 -0.003307 0.0
1.873055 0.516565 -0.000889 0.0
2.330909 0.480086 -0.002364 0.0
0.566442 0.053262 0.002959 0.0
3.414857 0.587161 -0.000229 0.0
3.658082 1.241692 0.000274 0.0
1.412659 1.098025 0.001694 0.0
1.297648 0.623369 0.002834 0.0
4.539609 1.339728 -0.000744 0.0
1.889395 0.987100 -0.000736 0.0
3.029774 1.040237 -0.000995 0.0
1.600048 1.315324 0.001535 0.0
0.263003 0.266522 -0.000488 0.0
1.606634 1.711623 0.001113 0.0
2.833647 1.523170 -0.003356 0.0
1.650868 0.771460 -0.003203 0.0
1.450515 1.458347 0.000190 0.0
0.785292 1.074210 0.000621 0.0
3.760723 1.524073 -0.004381 0.0
4.110031 0.315968 -0.001665 0.0
4.183293 0.735297 0.002827 0.0
1.908996 0.249468 0.000281 0.0
0.818911 0.954108 -0.000929 0.0
1.490042 0.641427 -0.002608 0.0
1.247201 1.608326 0.002492 0.0
0.589700 1.654560 0.001586 0.0
0.880198 0.725877 -0.003126 0.0
3.047347 1.817747 -0.004431 0.0
0.224932 1.406498 0.004451 0.0
2.883959 0.309283 0.000410 0.0
2.396869 0.801273 0.002719 0.0
1.410152 1.699413 0.001684 0.0
4.347134 1.052950 0.002380 0.0
0.261823 0.530389 -0.003645 0.0
1.775405 0.124986 0.000998 0.0
1.763157 0.427473 0.000528 0.0
2.921552 0.285660 0.001632 0.0
3.061889 0.245931 -0.001543 0.0
1.081226 0.784372 -0.001037 0.0
0.961799 1.296586 0.002049 0.0
1.511537 1.104473 0.000313 0.0
1.977202 1.418310 0.001813 0.0
1.728126 1.461358 0.001812 0.0
2.428643 1.265260 -0.003558 0.0
1.187547 -0.001195 -0.000258 0.0
2.039756 1.401829 -0.002372 0.0
4.031728 1.488426 -0.001645 0.0
0.956179 0.666162 -0.001313 0.0
3.905642 0.342836 0.000401 0.0
2.815913 0.313427 -0.002810 0.0
4.307164 0.048544 -0.002006 0.0
1.305750 1.136115 -0.004822 0.0
2.956844 1.071866 -0.000394 0.0
3.767798 0.935133 -0.001603 0.0
3.317802 1.827661 0.003820 0.0
2.184939 0.035185 -0.001702 0.0
1.624211 0.222061 -0.002109 0.0
1.391724 1.533496 0.001094 0.0
3.950906 1.193967 0.002356 0.0
3.585526 0.698056 -0.001068 0.0
3.071902 1.041849 0.005101 0.0
2.671410 1.035924 -0.001515 0.0
3.444184 1.808676 -0.000080 0.0
0.771116 0.006529 -0.002381 0.0
3.788189 1.792726 -0.002905 0.0
0.831174 0.656692 0.001642 0.0
0.359174 0.521442 -0.000816 0.0
4.131272 1.447823 0.001830 0.0
2.958838 0.506943 0.003161 0.0
0.508220 0.459050 0.000313 0.0
3.406111 1.162882 0.000562 0.0
2.850414 0.885001 0.002031 0.0
3.753102 1.233843 -0.003279 0.0
0.333223 1.288521 0.005200 0.0
2.014404 0.853836 0.001981 0.0
3.962684 1.676169 -0.002618 0.0
2.255703 0.560322 -0.001497 0.0
3.685675 0.151558 -0.003048 0.0
4.546530 1.061125 -0.002903 0.0
0.380756 0.476156 -0.001143 0.0
1.413837 0.755173 -0.005227 0.0
2.284381 0.738224 0.000441 0.0
4.345651 0.347844 -0.002882 0.0
3.750712 1.754285 -0.005898 0.0
4.379084 0.064414 -0.000277 0.0
0.284154 1.656267 0.003564 0.0
2.889680 0.067288 0.005635 0.0
1.082099 0.192971 0.002314 0.0
0.624832 1.666005 0.006018 0.0
2.713836 0.827908 0.003080 0.0
4.069065 1.508305 0.000885 0.0
3.561291 0.946597 0.002950 0.0
0.071588 1.320420 0.002991 0.0
0.876985 0.704643 0.001791 0.0
2.128543 1.730948 0.001426 0.0
0.109148 0.851222 -0.004872 0.0
1.369739 1.199886 0.003759 0.0
3.924528 1.712028 0.000537 0.0
0.700763 1.530642 0.003343 0.0
4.231402 1.197768 -0.001430 0.0
1.137634 1.745820 0.002760 0.0
1.431701 0.743114 -0.001656 0.0
3.188955 1.362443 -0.000953 0.0
1.796847 0.888312 0.003040 0.0
3.636809 1.336725 0.001726 0.0
2.565871 1.382150 0.003642 0.0
0.441967 0.074267 -0.001337 0.0
2.386956 0.140038 0.003983 0.0
3.273157 1.066276 -0.000618 0.0
1.902176 0.202765 0.001958 0.0
1.968949 0.639669 -0.002215 0.0
4.104527 1.785525 0.003536 0.0
3.719201 0.509982 -0.000011 0.0
0.570026 0.027873 -0.003644 0.0
1.403421 0.121366 0.000869 0.0
3.589062 0.955970 -0.001553 0.0
2.847650 1.858416 0.002439 0.0
1.927991 1.358012 -0.000695 0.0
2.241724 0.506377 0.002722 0.0
1.188323 1.073882 -0.000085 0.0
2.968329 1.519130 0.000183 0.0
2.049275 1.351784 -0.001439 0.0
3.963923 1.578816 0.002417 0.0
1.620072 0.960731 0.003951 0.0
4.539256 1.297554 0.004278 0.0
4.184665 0.395684 -0.003157 0.0
1.010329 0.558709 0.002467 0.0
3.724487 0.510257 -0.002470 0.0
4.505929 1.357319 -0.001955 0.0
3.307055 0.116829 -0.003332 0.0
0.776832 0.717961 0.003165 0.0
2.036256 1.805580 0.005467 0.0
0.985954 0.960786 -0.002519 0.0
0.003987 1.287949 -0.003191 0.0
3.649086 1.629384 -0.000203 0.0
2.621389 1.029804 -0.004883 0.0
1.066896 1.759429 -0.001215 0.0
2.172608 1.146193 -0.000880 0.0
2.152768 0.119450 0.001879 0.0
2.008095 0.079757 -0.003621 0.0
1.590606 0.266108 -0.001728 0.0
0.362923 0.169434 -0.002110 0.0
4.507227 1.755866 0.002623 0.0
0.736610 0.121411 0.001601 0.0
1.939304 0.089394 0.002126 0.0
1.553057 0.472441 -0.000843 0.0
4.268016 0.348558 0.002170 0.0
0.388448 0.969796 0.006654 0.0
2.736796 1.713986 -0.004103 0.0
3.554685 0.006613 -0.000192 0.0
2.473107 0.078660 -0.001114 0.0
1.547911 0.967870 -0.002605 0.0
3.144628 1.308511 -0.001137 0.0
1.288994 0.550383 -0.002183 0.0
1.227442 0.936220 -0.002502 0.0
0.334088 0.910803 0.000554 0.0
2.023596 0.817490 -0.001036 0.0
0.469442 0.179230 -0.000190 0.0
1.337838 1.693461 0.004631 0.0
1.079164 0.443570 0.000003 0.0
0.631696 0.639855 0.005807 0.0
0.664972 0.183751 -0.002088 0.0
2.485200 0.326917 -0.003353 0.0
1.445554 0.116121 0.002864 0.0
3.884541 1.085337 0.003864 0.0
2.460114 0.114162 -0.000390 0.0
2.894138 1.040828 0.001821 0.0
2.955607 0.539078 0.002165 0.0
3.276725 0.647359 0.000414 0.0
2.129194 0.648455 -0.001480 0.0
1.471809 0.852038 0.004318 0.0
2.594699 1.856926 -0.002059 0.0
0.077437 1.228374 0.001753 0.0
4.388649 0.435896 0.000189 0.0
1.613831 0.184398 -0.002619 0.0
0.976001 0.123131 -0.002574 0.0
0.463884 1.318450 -0.001242 0.0
1.153548 1.755637 0.001079 0.0
1.129725 1.718214 -0.001499 0.0
0.078982 0.601969 -0.000551 0.0
3.483200 0.844852 -0.002914 0.0
0.781970 0.404871 -0.001415 0.0
0.997017 0.681779 -0.000628 0.0
2.680885 1.089503 0.000443 0.0
2.130417 1.605500 -0.000434 0.0
0.671927 0.725807 -0.002728 0.0
1.283630 1.794186 0.001739 0.0
4.540685 0.475994 0.001654 0.0
4.402856 0.353899 -0.003893 0.0
1.367560 0.798126 0.001212 0.0
3.892776 0.070220 -0.000857 0.0
0.743990 1.608103 0.002338 0.0
3.363823 0.411571 0.000123 0.0
0.559910 1.670122 0.000260 0.0
3.650435 0.884579 -0.000201 0.0
0.370306 0.878599 -0.003296 0.0
2.956866 0.836244 -0.002940 0.0
1.966080 1.137387 0.005323 0.0
0.322090 0.834061 0.002435 0.0
0.062913 1.181374 -0.003908 0.0
1.798919 1.002055 0.000136 0.0
4.493057 1.207734 0.001160 0.0
4.133850 1.267706 -0.000513 0.0
1.797384 0.461468 0.004744 0.0
0.091370 0.536434 0.003103 0.0
2.917367 0.310582 0.002255 0.0
3.367888 0.579826 0.000789 0.0
4.270382 0.920369 0.000218 0.0
1.764597 1.524107 -0.000439 0.0
2.378790 1.135287 -0.001996 0.0
0.649413 0.147981 0.002140 0.0
1.339662 0.587488 -0.004485 0.0
1.326292 1.355393 0.001414 0.0
2.602769 0.145891 -0.001835 0.0
3.208089 0.002967 -0.002813 0.0
3.514808 0.185403 -0.001312 0.0
0.967173 1.272220 -0.003298 0.0
3.664448 1.383380 -0.000480 0.0
3.624068 1.264720 -0.001477 0.0
1.701244 1.803110 -0.000790 0.0
4.215232 0.348721 -0.002154 0.0
2.527481 0.806022 -0.000751 0.0
2.833030 1.647690 0.000966 0.0
2.868282 0.847760 -0.002996 0.0
3.795291 1.419380 0.000930 0.0
3.187094 0.335355 0.000706 0.0
4.507646 1.365719 0.000597 0.0
0.853238 0.503411 0.002763 0.0
1.925128 1.271401 -0.000691 0.0
3.864860 0.424502 -0.002592 0.0
2.126792 0.058896 -0.001004 0.0
0.118123 1.462471 0.000992 0.0
2.203863 1.626563 -0.000679 0.0
3.124310 1.643682 0.002490 0.0
3.850579 0.953288 0.000119 0.0
2.913799 0.736706 0.000047 0.0
4.143470 1.290977 -0.001531 0.0
3.668115 1.797976 -0.001611 0.0
1.842363 0.229671 0.000666 0.0
0.273626 0.350894 -0.001835 0.0
0.721122 0.525288 0.001962 0.0
3.520753 0.714662 0.000762 0.0
3.581943 1.245277 0.001739 0.0
4.176389 0.360477 0.000707 0.0
0.650094 1.284011 -0.000497 0.0
2.368122 1.492886 0.000669 0.0
0.477571 1.469470 -0.000265 0.0
1.735591 0.417291 0.001319 0.0
2.343863 0.612195 0.001551 0.0
0.481841 0.949669 -0.000656 0.0
3.539121 1.294234 -0.000941 0.0
1.806860 1.219503 0.000567 0.0
0.049314 0.420183 -0.003682 0.0
2.364729 0.767738 -0.000085 0.0
1.504035 1.297043 0.002276 0.0
0.895509 0.905179 0.000578 0.0
0.612903 1.536546 0.000121 0.0
2.651875 1.029135 0.000119 0.0
1.829666 1.300275 -0.003682 0.0
4.024488 1.323026 0.000587 0.0
0.354333 1.355966 0.000916 0.0
3.939834 0.272508 0.002718 0.0
1.503884 1.612609 0.001140 0.0
0.496458 1.558235 -0.002345 0.0
1.557936 0.031638 0.004683 0.0
1.663479 1.174711 0.001927 0.0
0.188241 1.005723 0.002166 0.0
2.050153 1.059352 0.002223 0.0
4.468179 0.757638 -0.001204 0.0
2.440047 0.195271 -0.003489 0.0
1.042426 1.740571 -0.004898 0.0
1.912564 1.844596 -0.000668 0.0
1.184002 0.278481 0.000729 0.0
3.616624 0.009954 -0.004640 0.0
2.592802 1.157605 0.002619 0.0
3.054023 1.092809 -0.000428 0.0
4.337331 1.755289 0.001280 0.0
0.465007 1.029285 0.000266 0.0
1.954442 0.047563 -0.001477 0.0
2.478503 1.575109 -0.004107 0.0
4.262716 0.851159 -0.000617 0.0
3.167422 1.095133 0.000301 0.0
0.810326 0.174494 0.002397 0.0
0.586475 0.934250 0.002387 0.0
4.448086 0.217690 0.001037 0.0
3.083823 1.427096 0.000801 0.0
3.857287 1.256439 -0.000859 0.0
1.460067 0.259151 0.003050 0.0
0.781776 0.573539 0.000912 0.0
2.100334 0.571325 -0.004470 0.0
0.102103 0.078730 0.001963 0.0
2.283198 0.438642 0.005458 0.0
1.694966 1.585774 -0.001081 0.0
1.267168 0.123636 0.000599 0.0
0.323268 0.224049 0.004999 0.0
2.092003 0.096749 -0.002083 0.0
1.853058 0.181434 -0.004141 0.0
2.418467 1.216300 -0.002516 0.0
4.116403 0.922762 -0.000488 0.0
0.287246 1.755229 0.000365 0.0
3.014684 0.591981 -0.002202 0.0
3.919964 0.038866 0.000012 0.0
3.460707 0.526241 -0.001466 0.0
2.363857 1.660636 0.000611 0.0
1.093795 1.189322 -0.000854 0.0
2.225348 0.526084 0.002673 0.0
0.726661 0.434585 0.000290 0.0
0.108414 0.724348 -0.001154 0.0
1.102094 1.661172 -0.002955 0.0
0.854992 1.357876 0.001363 0.0
4.537868 1.144593 -0.005725 0.0
1.043578 1.569011 0.000572 0.0
2.256113 0.657279 0.000141 0.0
0.876801 1.308786 -0.000098 0.0
2.383666 1.618033 0.002057 0.0
0.490339 0.662499 -0.001572 0.0
4.161152 1.233756 -0.004199 0.0
0.546469 1.440789 0.004697 0.0
2.470670 0.401766 -0.004010 0.0
3.955147 1.521438 0.001878 0.0
1.794255 1.834839 0.001228 0.0
3.261344 1.307171 0.002144 0.0
2.513080 0.116033 -0.000035 0.0
3.354478 1.671564 -0.001139 0.0
2.560471 0.022339 0.001233 0.0
3.801459 0.082895 0.000248 0.0
3.993657 0.945889 0.001317 0.0
0.247534 0.354906 -0.000374 0.0
2.611621 0.732397 -0.005659 0.0
1.262240 1.438549 0.000548 0.0
3.900667 0.861389 -0.004360 0.0
1.809422 0.742328 0.002641 0.0
2.671360 0.788676 -0.003243 0.0
1.955885 1.013618 -0.000734 0.0
3.099129 1.717573 -0.000100 0.0
0.384656 1.459346 0.000687 0.0
3.680839 0.079992 -0.001245 0.0
2.840325 0.971589 0.005660 0.0
2.663705 0.878597 -0.003571 0.0
1.346375 0.266871 0.002781 0.0
1.510878 0.783694 0.001111 0.0
2.498790 1.846037 -0.001966 0.0
0.410889 0.624938 0.000322 0.0
2.254198 0.409712 -0.003786 0.0
0.272390 1.166635 -0.002861 0.0
2.568758 1.505283 0.001122 0.0
1.805657 0.742045 0.001486 0.0
2.019927 1.286672 0.003082 0.0
2.308388 0.329932 0.000221 0.0
1.516154 0.932131 -0.001913 0.0
2.320120 0.157304 -0.001642 0.0
1.810439 1.715518 0.001182 0.0
4.373268 1.428143 -0.000618 0.0
1.026109 0.755644 0.003727 0.0
1.798992 0.662988 -0.000981 0.0
3.045979 1.760477 0.002828 0.0
0.500339 0.461201 0.000726 0.0
2.666330 0.698983 0.003246 0.0
4.287732 0.255478 0.000997 0.0
4.067064 0.648771 0.002252 0.0
0.186465 1.623379 -0.001533 0.0
0.543165 0.396894 0.001319 0.0
2.945516 0.414337 -0.004405 0.0
0.911323 0.254159 -0.004242 0.0
2.402657 1.864480 -0.002215 0.0
2.109843 0.999673 -0.004320 0.0
1.904110 0.486502 0.000759 0.0
4.371787 0.671820 -0.000276 0.0
2.562765 0.315654 -0.003961 0.0
3.002835 1.051149 -0.005051 0.0
3.476387 0.154941 -0.002149 0.0
1.357857 0.849987 -0.002994 0.0
3.789572 0.868505 -0.001137 0.0
2.943990 1.269641 0.000397 0.0
0.576003 1.036418 0.002003 0.0
1.628849 0.074059 0.003140 0.0
0.684527 0.001351 -0.001473 0.0
3.649598 1.623723 -0.001962 0.0
1.146613 1.293759 -0.001223 0.0
4.006728 1.717767 -0.004261 0.0
1.878457 -0.000488 -0.000806 0.0
1.703508 1.351158 -0.004452 0.0
0.022172 1.803633 0.004719 0.0
3.627763 0.910381 0.002049 0.0
3.153955 0.043325 0.000252 0.0
0.703083 0.822125 0.005310 0.0
2.117020 1.448454 -0.000345 0.0
3.161571 0.653065 -0.000214 0.0
0.071931 1.749223 0.000105 0.0
1.305270 1.296673 -0.002806 0.0
0.590613 0.679861 -0.001569 0.0
3.116266 0.681789 0.000803 0.0
3.016664 0.536972 -0.000673 0.0
1.892232 0.331058 0.002230 0.0
4.325660 0.689806 -0.001909 0.0
4.258291 0.892996 -0.000364 0.0
1.039640 0.630117 0.002212 0.0
2.765628 1.618875 0.000112 0.0
3.267103 0.830970 0.000065 0.0
0.756116 0.320567 0.000638 0.0
1.484614 1.702381 -0.001632 0.0
2.802283 1.582234 -0.000003 0.0
0.407089 1.111618 0.001834 0.0
4.130394 0.590396 -0.003480 0.0
0.498098 1.706325 -0.003271 0.0
3.659586 1.619022 -0.000495 0.0
1.608115 0.623895 0.000341 0.0
0.032606 0.896809 -0.000073 0.0
4.182133 0.008569 -0.004348 0.0
3.394083 1.781410 0.000506 0.0
0.894084 0.261399 0.003045 0.0
2.230708 0.689324 -0.001982 0.0
1.456316 0.372608 -0.000248 0.0
3.500577 1.848838 -0.001272 0.0
1.788703 1.774426 -0.004990 0.0
3.976197 1.128419 0.000040 0.0
3.861881 1.639362 -0.002530 0.0
0.490476 0.457654 0.000766 0.0
2.662207 0.650465 0.001600 0.0
0.438038 0.060714 -0.001648 0.0
3.706027 0.387400 0.001161 0.0
0.598560 0.241246 0.000157 0.0
3.218045 1.536723 -0.001862 0.0
3.212463 1.166842 -0.000655 0.0
1.446226 1.344599 -0.002798 0.0
2.640496 0.261049 -0.001957 0.0
3.793733 1.252800 0.002191 0.0
4.140378 0.756753 -0.000371 0.0
2.704276 1.348003 -0.005333 0.0
0.297684 0.606859 0.000593 0.0
0.274948 1.182206 -0.000472 0.0
3.127811 1.017763 -0.000324 0.0
2.998472 0.308569 0.002461 0.0
2.559141 1.583720 -0.004146 0.0
1.937713 1.097029 0.000528 0.0
2.590817 0.663308 0.004614 0.0
0.696399 0.106347 0.004218 0.0
4.186034 1.717701 -0.001425 0.0
3.579131 0.118134 0.001183 0.0
3.843650 0.627205 0.001196 0.0
4.511230 1.670361 0.003081 0.0
2.638381 1.525445 0.001347 0.0
0.414413 1.739742 0.000972 0.0
2.557872 0.120913 -0.002778 0.0
1.172274 1.088945 -0.004612 0.0
3.896589 1.206445 -0.001512 0.0
0.527634 0.080853 -0.000309 0.0
3.940943 1.567289 0.001625 0.0
4.562598 1.723810 0.001272 0.0
3.451346 1.702770 -0.001264 0.0
0.105672 0.200216 0.004188 0.0
1.359767 1.800312 0.002593 0.0
4.385125 1.499172 -0.002777 0.0
1.623412 0.401325 -0.003069 0.0
0.017255 1.302079 0.001804 0.0
0.356039 1.240249 -0.001377 0.0
3.075748 0.642172 0.001953 0.0
1.478667 1.704878 0.001058 0.0
0.570999 0.090186 0.002165 0.0
2.185545 0.614034 -0.000175 0.0
3.361226 1.070494 0.000300 0.0
1.341538 0.356594 -0.001983 0.0
4.237134 1.176995 0.001959 0.0
4.402780 1.386033 0.003605 0.0
2.674957 0.708857 0.000939 0.0
0.443544 0.485832 -0.002409 0.0
0.459493 1.837595 0.001472 0.0
1.739435 1.012629 0.002427 0.0
1.167771 1.229021 0.004512 0.0
4.079870 0.251366 0.005778 0.0
3.616344 1.069880 0.000376 0.0
3.698234 0.359684 0.000695 0.0
0.747263 0.426549 -0.002486 0.0
2.697162 1.121650 -0.000090 0.0
4.295954 0.707857 -0.006119 0.0
2.101017 1.014278 -0.002474 0.0
2.954218 1.786420 0.001762 0.0
4.289259 0.026118 0.001908 0.0
3.531454 0.197770 0.001080 0.0
2.044744 0.910009 0.000750 0.0
1.925297 1.673951 -0.002298 0.0
3.068063 0.884065 0.000414 0.0
1.913847 0.558610 -0.003503 0.0
3.899950 0.999538 0.002794 0.0
2.769277 0.433029 0.001267 0.0
3.280907 0.028313 0.000398 0.0
0.456985 0.551280 0.004741 0.0
1.325101 1.342779 -0.001017 0.0
2.120404 -0.000900 -0.000565 0.0
0.971621 0.933555 -0.001461 0.0
0.359891 1.801519 -0.000074 0.0
2.190333 0.236166 -0.004848 0.0
0.523571 0.129188 -0.000948 0.0
2.025607 0.245063 0.003005 0.0
4.418189 0.293068 0.000675 0.0
4.493749 1.567963 0.001537 0.0
0.751588 1.115419 -0.003633 0.0
0.633237 1.816665 0.003322 0.0
3.766940 0.560468 0.000178 0.0
2.275409 1.132027 -0.001052 0.0
1.720877 1.271582 0.004138 0.0
4.411755 0.354467 0.003275 0.0
2.239436 0.512273 -0.000686 0.0
1.673652 1.342704 0.000406 0.0
2.556911 0.428256 -0.000165 0.0
0.902295 0.117722 0.001146 0.0
4.429132 0.790746 0.001504 0.0
2.767111 0.891225 0.001831 0.0
1.467877 0.914896 0.000315 0.0
0.899549 0.251844 -0.003280 0.0
2.094098 0.815907 0.001589 0.0
1.726624 0.309295 0.004378 0.0
0.668740 1.751610 -0.002705 0.0
1.992056 0.515188 -0.002024 0.0
1.301705 1.577451 0.002733 0.0
0.659901 0.452566 -0.001590 0.0
4.484755 0.235599 -0.005158 0.0
3.033350 0.038669 0.002177 0.0
1.972677 0.093942 -0.002417 0.0
1.034383 0.081634 -0.004967 0.0
1.640150 0.607563 -0.002653 0.0
0.356294 0.659340 0.002839 0.0
3.232694 0.276145 0.002062 0.0
0.358470 0.148230 -0.000130 0.0
4.178774 0.262259 -0.002241 0.0
3.011795 1.594764 -0.001397 0.0
0.127730 1.604161 0.003495 0.0
2.468795 1.585201 -0.001409 0.0
2.252689 1.227424 -0.001816 0.0
2.535418 0.671308 -0.000634 0.0
4.238475 1.837360 -0.002506 0.0
3.932739 0.500821 -0.002492 0.0
2.921766 0.173172 -0.002011 0.0
0.719509 0.743588 -0.001738 0.0
1.230874 0.199841 -0.000045 0.0
1.137877 0.759303 0.004171 0.0
2.823225 1.068562 0.001281 0.0
2.688117 0.054847 -0.001682 0.0
2.759863 1.574909 0.003488 0.0
4.286363 0.687579 0.001191 0.0
2.118815 0.363476 -0.000988 0.0
0.751965 0.333154 -0.002226 0.0
0.328933 0.454514 0.000297 0.0
1.627549 0.826383 -0.000164 0.0
0.250242 1.356569 0.000927 0.0
3.180747 0.206988 0.003778 0.0
0.522372 0.430014 -0.001730 0.0
1.706847 1.575585 -0.006142 0.0
3.360810 0.115295 -0.001965 0.0
4.129615 0.692139 -0.003876 0.0
0.145594 1.584512 0.000356 0.0
0.163112 0.141472 0.000287 0.0
1.458355 0.694392 0.001941 0.0
1.928267 1.769133 0.000526 0.0
2.048666 0.681091 0.002011 0.0
3.845442 0.563412 0.000599 0.0
0.132358 1.004533 0.000042 0.0
3.756374 0.012876 -0.000784 0.0
1.469878 0.907555 0.001142 0.0
2.638364 1.073183 0.001780 0.0
0.154468 0.860640 -0.002733 0.0
1.505069 0.959744 0.004576 0.0
0.251114 0.105743 -0.003130 0.0
0.697112 0.036360 -0.000557 0.0
1.484122 1.851511 0.000174 0.0
2.503192 0.628765 0.001117 0.0
2.528529 0.742434 0.000211 0.0
0.094738 1.262996 -0.001598 0.0
0.517659 0.796642 0.000516 0.0
4.476253 0.172324 0.001641 0.0
0.175401 0.127307 0.002233 0.0
1.376178 0.104072 -0.000105 0.0
4.273208 1.350860 0.005361 0.0
2.690137 0.255474 -0.000061 0.0
3.978002 1.461880 0.003592 0.0
2.573422 1.272197 0.000213 0.0
1.772603 0.434741 0.002753 0.0
2.434873 1.135654 -0.000536 0.0
0.885346 0.724518 -0.000827 0.0
3.888879 1.719101 0.002499 0.0
3.494824 1.206233 -0.003800 0.0
1.178534 1.049796 -0.002342 0.0
2.689105 0.971697 -0.002486 0.0
4.094456 1.048246 0.001442 0.0
2.418368 0.408815 0.002448 0.0
4.157135 0.379861 -0.003475 0.0
1.805149 0.033638 0.000818 0.0
3.033025 1.043469 -0.002842 0.0
1.044085 1.002944 -0.000688 0.0
0.406069 0.456049 -0.000409 0.0
0.014053 0.267472 0.002708 0.0
4.168785 1.570138 -0.000095 0.0
3.323220 1.241140 -0.001479 0.0
0.307866 1.512746 0.002095 0.0
3.537194 1.337294 0.001605 0.0
2.993451 0.271897 -0.002428 0.0
4.162668 1.784393 0.001470 0.0
4.115926 1.479398 -0.001558 0.0
2.750231 0.009352 -0.002856 0.0
3.480299 1.290166 0.000537 0.0
2.634637 0.920266 0.000923 0.0
0.567561 0.140988 -0.002035 0.0
1.227279 0.531249 0.001490 0.0
2.566370 0.299090 -0.000662 0.0
4.357063 0.981593 -0.001199 0.0
2.823470 0.304914 -0.000773 0.0
0.208276 1.078020 -0.001729 0.0
4.137031 0.248172 -0.002760 0.0
4.278480 1.480024 -0.000065 0.0
4.421566 0.875514 -0.000413 0.0
3.202597 0.686837 -0.001337 0.0
4.347923 0.728949 -0.002570 0.0
3.089675 1.248701 -0.003325 0.0
1.197084 1.825177 -0.001970 0.0
4.392185 1.239788 0.001539 0.0
2.312672 0.897904 0.004532 0.0
4.368563 0.059402 0.001271 0.0
0.496246 0.280237 -0.002014 0.0
3.781332 0.687803 -0.001173 0.0
2.125177 0.034664 -0.000016 0.0
0.968947 1.391716 0.000169 0.0
2.777775 1.223768 -0.001716 0.0
3.228124 0.144788 -0.006530 0.0
0.038043 1.857843 0.001162 0.0
0.092235 0.242798 -0.003192 0.0
3.466717 1.441778 0.001315 0.0
2.682631 0.835454 0.000092 0.0
0.023581 0.621232 0.001978 0.0
0.679596 1.492094 0.001866 0.0
0.966148 1.436822 0.003174 0.0
0.992160 0.974065 -0.000159 0.0
3.457834 0.146571 -0.001342 0.0
0.491121 0.078735 -0.000859 0.0
2.050169 0.764917 0.001979 0.0
1.762027 0.979742 0.000408 0.0
0.073606 0.667412 0.001659 0.0
1.338246 0.540597 0.005571 0.0
1.520709 1.093010 -0.002920 0.0
2.576311 1.682881 -0.000775 0.0
2.342191 1.152890 0.003612 0.0
2.195348 0.678868 -0.001159 0.0
3.377962 0.045587 -0.000309 0.0
0.121350 0.662072 -0.000923 0.0
2.251025 0.760123 0.001858 0.0
2.651247 0.387401 0.000571 0.0
3.424854 1.392010 0.000231 0.0
0.326831 0.233050 0.003572 0.0
2.912994 1.565464 0.002705 0.0
2.667475 0.157601 0.001136 0.0
2.939327 1.629668 -0.001839 0.0
2.345771 0.175904 -0.001627 0.0
1.918794 0.557856 0.000067 0.0
2.263361 1.260370 0.003869 0.0
1.809257 1.673429 -0.000394 0.0
4.083027 1.739049 0.005728 0.0
2.544246 0.548782 0.000367 0.0
2.969410 0.545778 0.001067 0.0
1.130591 1.633996 0.001713 0.0
0.667170 0.946549 0.002107 0.0
3.198543 0.528344 -0.005068 0.0
4.400897 0.667034 0.001221 0.0
4.432378 0.882139 -0.002154 0.0
0.334610 1.489039 0.003835 0.0
0.506896 0.314674 0.001237 0.0
0.712441 0.439930 -0.002298 0.0
0.375079 0.030774 0.001239 0.0
4.450052 1.003609 -0.001266 0.0
4.549977 0.028211 -0.001339 0.0
1.320797 0.174857 -0.002208 0.0
2.338329 0.913885 -0.003362 0.0
3.776230 1.510594 -0.000056 0.0
3.267640 1.734634 0.000973 0.0
2.054568 0.134241 -0.000531 0.0
0.373414 1.628271 -0.002258 0.0
4.101510 0.851938 -0.002844 0.0
4.465784 0.022017 0.001867 0.0
4.280931 0.002482 0.059358 0.0
4.078857 0.003592 0.062483 0.0
1.285726 0.003006 0.139209 0.0
0.083470 0.004765 0.112237 0.0
2.309145 -0.000503 0.045110 0.0
2.466022 0.003451 0.081146 0.0
3.485923 0.003075 0.028175 0.0
2.665490 0.000988 0.129233 0.0
3.445710 0.000901 0.123368 0.0
4.453014 0.004637 0.149829 0.0
2.887786 0.004037 0.107300 0.0
4.371944 0.006136 0.083783 0.0
2.865880 0.001762 0.161953 0.0
2.139665 0.009910 0.169242 0.0
1.884275 -0.001880 0.026214 0.0
3.689275 0.000845 0.157252 0.0
0.513601 0.001618 0.069870 0.0
0.401349 0.002159 0.146902 0.0
4.306777 0.001932 0.143327 0.0
2.739831 0.001785 0.049053 0.0
3.446285 0.004436 0.101543 0.0
3.090191 0.000902 0.100173 0.0
3.345055 -0.001419 0.064896 0.0
2.017618 0.001349 0.079137 0.0
2.056109 0.000363 0.145133 0.0
4.498257 0.003216 0.127365 0.0
1.938603 0.006268 0.041996 0.0
1.342692 0.002281 0.069226 0.0
2.385990 0.002165 0.055521 0.0
2.429571 0.000668 0.095268 0.0
3.409787 0.000262 0.076835 0.0
3.299448 0.001951 0.067381 0.0
4.054569 -0.003664 0.010475 0.0
3.046986 0.007122 0.148667 0.0
1.391280 0.000065 0.109426 0.0
2.097022 0.004081 0.032390 0.0
2.485167 0.005796 0.040211 0.0
0.730490 -0.005494 0.045079 0.0
3.780811 -0.002583 0.071509 0.0
1.767651 0.001093 0.086026 0.0
3.055200 0.004278 0.034876 0.0
3.532496 0.003457 0.007522 0.0
0.174051 0.001185 0.009305 0.0
2.311554 0.009400 0.121983 0.0
0.539235 0.002859 0.116826 0.0
2.576414 0.002669 0.116552 0.0
0.188851 -0.000636 0.009105 0.0
2.131897 -0.000252 0.041738 0.0
3.598206 0.006393 0.144835 0.0
2.600525 0.002402 0.080108 0.0
3.062147 0.001682 0.148207 0.0
1.724257 0.001507 0.004180 0.0
1.286124 0.000342 0.037000 0.0
0.176886 0.000497 0.012802 0.0
3.547357 0.003944 0.154255 0.0
3.398402 0.005439 0.151787 0.0
2.623391 0.004153 0.056841 0.0
3.870670 0.004575 0.018577 0.0
0.047116 -0.000450 0.056590 0.0
4.372946 -0.001778 0.029485 0.0
2.730001 0.005692 -0.006769 0.0
1.260508 0.001203 0.069041 0.0
3.432116 0.003969 0.094966 0.0
1.315507 -0.001262 0.027195 0.0
3.060698 0.005107 0.037274 0.0
2.635874 0.002028 0.116728 0.0
0.135294 -0.000625 0.052088 0.0
2.060927 0.002752 0.079744 0.0
0.973254 0.006361 0.169008 0.0
1.872950 0.000358 0.022358 0.0
2.786933 0.006370 0.129503 0.0
0.381906 0.002226 0.082940 0.0
2.606505 0.005330 0.120003 0.0
2.764955 0.002269 0.143317 0.0
1.779262 -0.000040 0.108072 0.0
2.682005 0.004038 0.094938 0.0
4.440407 0.003516 0.097350 0.0
4.316030 0.004695 0.014434 0.0
0.944206 0.003623 0.025524 0.0
3.314296 0.002848 0.106784 0.0
1.917798 0.000743 0.024243 0.0
1.289925 0.000325 0.006448 0.0
4.161917 0.001917 0.039563 0.0
0.150258 0.005379 0.032649 0.0
0.422275 -0.000726 0.022057 0.0
1.587840 0.003628 0.159836 0.0
0.691469 0.005448 0.171828 0.0
0.350874 0.001946 0.103616 0.0
0.042336 -0.001115 0.028341 0.0
0.127934 0.000036 0.099437 0.0
1.080705 0.003737 0.146632 0.0
0.292501 0.005677 0.159855 0.0
2.061784 0.003054 0.158501 0.0
2.323502 0.002441 0.061587 0.0
0.940614 0.003840 0.104750 0.0
0.463246 0.004420 0.166453 0.0
0.778592 0.003605 0.020661 0.0
3.491739 -0.001572 0.002929 0.0
0.598252 0.001651 0.118059 0.0
3.940280 0.000648 0.023334 0.0
1.798725 0.001583 0.055801 0.0
3.439689 0.005127 0.122852 0.0
0.827698 -0.003099 0.095317 0.0
4.391108 -0.000042 0.011247 0.0
3.207174 0.005619 0.155612 0.0
2.652277 0.000714 0.054689 0.0
0.127550 0.005172 0.119121 0.0
3.987399 0.002895 0.158915 0.0
0.219664 0.002728 0.099567 0.0
4.138047 -0.004726 0.100181 0.0
1.657655 -0.000357 0.128501 0.0
2.415231 -0.000539 0.070362 0.0
1.136835 0.002540 0.083494 0.0
2.790332 0.002435 0.093085 0.0
1.312578 0.003878 0.012927 0.0
0.342923 -0.001028 0.039459 0.0
4.251046 0.000523 0.107226 0.0
4.016258 0.005809 0.161642 0.0
4.085690 -0.000057 0.104693 0.0
2.098371 0.003102 0.134663 0.0
1.442917 0.001376 0.104268 0.0
3.642207 0.003659 0.151307 0.0
1.911014 0.004481 0.088341 0.0
3.575760 0.002765 0.117769 0.0
2.470585 0.000667 0.102057 0.0
3.230149 0.004068 0.075205 0.0
1.915247 0.003425 0.113300 0.0
2.250881 0.003467 0.045891 0.0
2.394483 0.000334 0.127654 0.0
3.928640 -0.001302 0.146709 0.0
1.939977 0.005117 0.147719 0.0
3.205340 0.005620 0.101668 0.0
1.347323 -0.004919 0.016840 0.0
3.179728 0.000316 0.133111 0.0
2.280699 0.005341 0.027040 0.0
2.498107 0.003333 0.065895 0.0
4.372242 -0.000066 0.094557 0.0
1.040509 0.001708 0.109460 0.0
4.459946 -0.003374 0.087837 0.0
1.200957 0.004000 0.119499 0.0
0.302042 0.002762 0.150925 0.0
1.040442 0.006113 0.130812 0.0
3.628092 -0.004094 0.112507 0.0
2.774495 -0.000686 0.095607 0.0
0.927357 0.007020 0.167620 0.0
2.589669 -0.000831 0.012043 0.0
1.517008 0.007370 0.115987 0.0
0.738222 0.003025 0.030102 0.0
2.752899 0.002169 0.128083 0.0
0.003425 0.002041 0.057959 0.0
1.333198 0.002088 0.041287 0.0
0.815569 0.001074 0.069343 0.0
0.022138 0.001005 0.002870 0.0
0.254229 0.001219 0.003084 0.0
3.966188 0.002365 0.060598 0.0
3.252183 0.005254 0.153420 0.0
3.684901 -0.000265 0.011041 0.0
2.236097 0.000283 0.025446 0.0
0.618000 0.003298 0.135140 0.0
0.276658 0.005527 0.086962 0.0
2.459224 0.002792 0.112529 0.0
1.629137 0.001874 0.098849 0.0
0.820929 0.002494 0.046551 0.0
2.958449 -0.000081 -0.001039 0.0
3.218165 -0.004481 0.055752 0.0
3.600872 0.003033 0.058594 0.0
2.197199 0.003034 0.091008 0.0
0.249781 0.005887 0.084075 0.0
1.307677 -0.002330 0.047593 0.0
4.132716 -0.001062 0.054424 0.0
0.559754 0.003384 0.097060 0.0
0.225074 -0.000205 0.101911 0.0
1.236123 0.005220 0.017855 0.0
0.529999 0.003783 0.033931 0.0
3.040405 0.003328 0.151133 0.0
4.145212 0.005111 0.168636 0.0
4.460229 0.000349 0.029888 0.0
3.821574 -0.001439 0.039813 0.0
0.878769 0.004940 0.070131 0.0
2.350095 0.007090 0.109810 0.0
2.548884 0.003970 0.127912 0.0
4.326073 0.001803 0.091552 0.0
1.548585 0.004722 0.126627 0.0
3.499197 0.002008 0.102190 0.0
0.990929 -0.000888 0.057354 0.0
2.543400 0.002809 0.044076 0.0
0.187940 0.004030 0.155912 0.0
4.019029 0.004766 0.068648 0.0
4.257303 -0.001281 0.001450 0.0
1.958001 -0.000069 0.015583 0.0
0.917278 0.002373 0.074390 0.0
1.608273 0.004807 0.154684 0.0
1.266758 0.002633 0.154193 0.0
0.285575 -0.000351 0.138067 0.0
0.885279 0.001282 0.070812 0.0
0.480669 0.004971 0.158487 0.0
4.256335 0.002468 0.119668 0.0
3.887778 0.001584 0.075451 0.0
1.882914 0.006857 0.103247 0.0
1.001318 0.003467 0.035682 0.0
3.381498 0.002070 0.012602 0.0
3.262558 -0.000846 0.080392 0.0
1.615463 0.002378 -0.003777 0.0
2.910309 0.001705 0.083425 0.0
2.834170 0.006731 0.146058 0.0
2.209505 -0.000736 0.053550 0.0
1.949671 0.006746 0.092708 0.0
2.592078 0.000818 0.013754 0.0
0.369493 0.002281 0.169050 0.0
0.594773 0.002484 0.073977 0.0
1.487483 0.003153 0.097377 0.0
1.597823 0.001187 0.043745 0.0
3.571250 0.000756 0.148080 0.0
2.022621 0.003302 0.098880 0.0
1.641130 -0.002630 0.159393 0.0
0.955749 0.001718 0.085684 0.0
2.292624 -0.001645 0.045774 0.0
4.523087 0.006096 0.145299 0.0
3.259779 0.006032 0.098954 0.0
1.856831 -0.000594 -0.002752 0.0
1.877927 0.002676 0.061945 0.0
3.653479 0.003439 0.058536 0.0
2.423487 -0.003605 0.007589 0.0
3.988820 0.005045 0.151506 0.0
4.364638 0.000300 0.075341 0.0
2.806117 0.000469 0.060663 0.0
1.508929 -0.001146 0.010374 0.0
4.089181 -0.001483 0.089872 0.0
1.958618 0.001788 0.093988 0.0
1.454430 0.002619 0.067964 0.0
2.323209 -0.003957 0.074734 0.0
1.978348 0.004196 0.047543 0.0
1.112789 0.004696 0.156509 0.0
3.700183 0.001278 0.082497 0.0
2.072154 0.005776 0.143837 0.0
4.108891 0.004284 0.096609 0.0
4.286266 0.002376 0.051400 0.0
3.254171 -0.000064 0.102340 0.0
0.467773 0.006194 0.089340 0.0
0.100315 0.001000 0.159958 0.0
3.310664 0.001495 0.022252 0.0
4.293915 0.000336 0.056339 0.0
0.196077 0.004865 0.146454 0.0
4.231016 0.006570 0.036827 0.0
4.001110 0.000313 0.086276 0.0
2.801454 0.001219 0.160064 0.0
2.248867 -0.001676 0.022068 0.0
2.060923 0.002888 0.096857 0.0
3.633433 -0.000040 0.023911 0.0
0.170852 0.001602 0.047544 0.0
4.242919 -0.002669 0.020970 0.0
1.436930 0.002193 0.052229 0.0
1.794768 0.003593 0.106747 0.0
2.369004 0.000135 0.074055 0.0
2.951926 0.000710 0.025000 0.0
3.985763 -0.001396 0.043898 0.0
2.106278 -0.003185 0.023892 0.0
1.513892 0.003624 0.109439 0.0
2.089777 0.004812 0.098241 0.0
0.119551 -0.003057 0.059471 0.0
3.429488 0.007668 0.119393 0.0
3.359156 0.002568 0.065063 0.0
1.277681 -0.001137 0.031296 0.0
0.774860 0.001084 0.108829 0.0
4.521070 -0.000980 0.068415 0.0
3.279802 0.002419 0.050146 0.0
0.257893 0.001087 0.147033 0.0
0.577405 -0.002392 0.113559 0.0
3.520987 0.005207 0.013532 0.0
1.310553 0.002554 0.075789 0.0
3.034393 -0.003492 0.030707 0.0
1.325387 0.005132 0.169952 0.0
4.067173 0.006057 0.037485 0.0
0.289626 0.000983 0.152267 0.0
2.094674 -0.002578 0.002792 0.0
0.997463 -0.001667 0.104509 0.0
4.081530 -0.000350 0.052689 0.0
3.263928 0.003685 0.048763 0.0
1.458835 0.003193 0.147674 0.0
3.203984 0.004142 0.063229 0.0
2.546928 0.000232 0.131758 0.0
1.612972 0.002542 0.118328 0.0
1.702743 0.005808 0.157611 0.0
1.072934 0.002903 0.108689 0.0
2.453786 -0.000787 0.063720 0.0
3.710855 -0.003273 0.016993 0.0
3.670906 0.000994 0.039297 0.0
3.447940 0.004431 0.153259 0.0
3.024247 0.003945 0.157651 0.0
1.615025 -0.001064 0.134175 0.0
3.630356 0.004725 0.146649 0.0
4.293522 0.003710 0.089935 0.0
2.814081 0.004297 0.166718 0.0
2.316344 0.005425 0.081280 0.0
4.124984 -0.001388 0.005608 0.0
2.717649 -0.000660 0.033091 0.0
0.824712 0.000674 0.148572 0.0
3.164547 0.002089 0.112664 0.0
2.268217 -0.000604 0.002651 0.0
3.558658 0.007649 0.160346 0.0
4.230235 0.006915 0.170027 0.0
0.854418 0.003139 0.097461 0.0
4.289039 0.003403 0.021620 0.0
3.262830 0.003921 0.151818 0.0
1.641320 0.001096 0.081477 0.0
3.007063 0.005112 0.118577 0.0
2.364152 0.003512 0.147085 0.0
4.233937 0.001960 0.041493 0.0
1.942447 0.004631 0.146745 0.0
0.069160 -0.002986 0.008989 0.0
3.380605 0.000011 0.057684 0.0
1.045347 -0.002322 0.023065 0.0
3.168065 0.004753 0.140251 0.0
1.255147 0.009268 0.159199 0.0
4.125587 0.007929 0.150369 0.0
1.270882 -0.001661 0.050663 0.0
0.268352 0.003967 0.145960 0.0
2.373214 0.002935 0.156784 0.0
3.173868 0.001922 0.046569 0.0
4.489893 0.006912 0.125055 0.0
3.986557 0.000592 0.026281 0.0
0.280777 0.005019 0.134697 0.0
2.832922 0.003613 0.024427 0.0
0.275294 0.001977 0.050516 0.0
0.343622 0.004406 0.017162 0.0
2.207863 0.002678 0.074766 0.0
3.560381 0.004741 0.109231 0.0
4.014508 0.002197 0.154551 0.0
2.140470 -0.004600 0.009260 0.0
2.784320 0.000167 0.047317 0.0
3.079179 0.003127 0.149084 0.0
0.407031 0.005042 0.116818 0.0
0.867623 0.001361 0.062122 0.0
0.499893 -0.001697 0.081343 0.0
0.685087 0.000759 0.096324 0.0
3.855797 0.009593 0.165007 0.0
4.105407 -0.000851 0.048153 0.0
0.059207 0.000950 0.148810 0.0
1.594540 0.005990 0.103229 0.0
2.300638 0.001646 0.034155 0.0
0.060393 0.002489 0.066377 0.0
2.736262 0.004294 0.137085 0.0
0.314957 0.000179 0.057236 0.0
3.482414 0.004681 0.168060 0.0
3.226754 -0.000691 0.029265 0.0
1.163355 -0.002046 0.024372 0.0
0.017994 0.003854 0.151510 0.0
1.303493 0.000994 0.055927 0.0
1.930284 0.002861 0.159638 0.0
3.602468 -0.000616 0.002705 0.0
3.276240 0.006587 0.107951 0.0
0.487943 0.003839 0.065910 0.0
3.469496 0.002695 0.151566 0.0
2.977706 0.004602 0.114618 0.0
4.248734 0.001161 0.101020 0.0
3.454795 -0.001838 0.027314 0.0
3.550354 0.007512 0.099184 0.0
2.066033 -0.000909 0.111735 0.0
3.783548 -0.000560 0.096156 0.0
4.350594 -0.000905 0.124075 0.0
1.305538 0.000433 0.087957 0.0
3.157350 -0.002469 0.082363 0.0
2.887382 0.002366 0.133936 0.0
3.553680 0.009027 0.085043 0.0
4.491465 -0.000056 0.117382 0.0
0.792126 0.006272 0.131990 0.0
0.588491 -0.003718 0.022143 0.0
0.782495 0.004735 0.043094 0.0
1.071747 0.003627 0.109639 0.0
2.174710 -0.001701 0.015404 0.0
3.578230 0.001656 0.154633 0.0
1.924279 0.001538 0.060413 0.0
4.063035 0.003787 0.031358 0.0
2.390461 0.004662 0.144149 0.0
1.780180 -0.000452 0.041748 0.0
0.332130 0.007210 0.148571 0.0
3.729740 0.004937 0.035428 0.0
3.300113 0.006439 0.135742 0.0
4.253110 -0.003861 0.038194 0.0
2.609763 -0.001463 0.030789 0.0
0.882556 0.004439 0.159287 0.0
1.884580 0.001951 0.055123 0.0
0.309933 0.005459 0.138627 0.0
1.189695 0.001437 0.173336 0.0
1.744055 0.002238 0.102944 0.0
3.895124 0.004137 0.104619 0.0
2.643586 -0.000763 0.000827 0.0
3.780181 -0.001683 0.044464 0.0
3.455569 0.001425 0.040481 0.0
0.684479 0.004006 0.088904 0.0
0.318539 0.002234 0.006644 0.0
2.235088 0.001131 0.027417 0.0
4.509613 0.000509 0.133461 0.0
0.531059 0.002142 0.044793 0.0
3.815206 -0.000534 0.028961 0.0
4.252131 0.003851 0.074076 0.0
3.338643 0.002485 0.162734 0.0
1.844006 0.002384 0.133449 0.0
0.158706 -0.000508 0.012706 0.0
4.243173 0.004080 0.159013 0.0
4.058281 0.003413 0.034111 0.0
3.783884 -0.000511 0.017933 0.0
3.780436 0.004345 0.068669 0.0
2.165540 -0.000868 0.058513 0.0
3.525015 0.003254 0.082361 0.0
2.641739 0.006306 0.148558 0.0
2.739558 0.004250 0.102936 0.0
4.360448 0.005208 0.162863 0.0
1.632226 0.004078 0.147648 0.0
2.490771 0.006354 0.087250 0.0
4.098997 0.000811 0.142081 0.0
2.902770 0.001859 0.120291 0.0
1.698316 -0.003844 0.025257 0.0
1.284825 0.002082 0.133280 0.0
0.004138 -0.002702 0.027204 0.0
2.829510 0.005232 0.082142 0.0
3.103308 0.001438 0.117121 0.0
4.457426 0.001485 0.089892 0.0
1.404776 -0.004521 0.005883 0.0
2.542557 0.007718 0.038551 0.0
2.276901 0.002067 0.021046 0.0
2.059498 0.004629 0.134838 0.0
2.936667 -0.002840 0.026857 0.0
1.868663 0.004262 0.101777 0.0
1.307091 -0.000603 0.117744 0.0
2.220016 0.003563 0.131469 0.0
3.122088 0.003900 0.157607 0.0
2.897697 0.005987 0.092050 0.0
3.548517 0.004564 0.102115 0.0
2.139353 -0.002088 0.030872 0.0
0.344953 0.000915 0.124166 0.0
1.734458 0.006830 0.055946 0.0
4.243175 0.004427 0.065705 0.0
4.239130 0.001684 0.025158 0.0
4.046086 0.000389 0.069426 0.0
4.046922 0.004117 0.130731 0.0
3.271019 0.005984 0.062466 0.0
0.509229 -0.000038 0.015645 0.0
0.644902 0.002568 0.117556 0.0
0.380502 0.004823 0.143841 0.0
0.294571 -0.000961 0.012795 0.0
1.952522 0.004535 0.120421 0.0
0.479310 0.002042 0.158957 0.0
4.165410 0.005191 0.160213 0.0
1.153082 0.000425 0.053131 0.0
2.632917 0.001893 0.053543 0.0
4.240795 0.000656 0.088574 0.0
3.000053 0.003587 0.141814 0.0
4.449845 0.006156 0.117891 0.0
3.156565 0.007409 0.073279 0.0
0.778395 0.002387 0.019212 0.0
3.321993 0.000089 0.033412 0.0
1.032558 -0.000321 0.127015 0.0
1.475725 0.001942 0.026125 0.0
1.827911 0.000389 0.128378 0.0
0.533507 -0.001074 0.007782 0.0
1.187104 -0.001083 0.120367 0.0
0.983360 0.001741 0.085228 0.0
4.266769 -0.002634 0.110639 0.0
3.929751 0.000011 0.130741 0.0
0.698268 0.002269 0.019703 0.0
1.297942 -0.001299 0.001240 0.0
3.851207 0.001970 0.092853 0.0
1.749816 -0.004663 0.002673 0.0
1.873128 0.004548 0.098832 0.0
1.730872 -0.000172 0.029332 0.0
3.521607 -0.000362 0.032904 0.0
0.345788 0.004363 0.062527 0.0
2.066756 0.002662 0.031564 0.0
3.984303 0.005818 0.128194 0.0
3.844719 0.003430 0.091654 0.0
3.745992 -0.000595 0.009575 0.0
0.339080 -0.000481 0.124148 0.0
3.179288 0.003028 0.159687 0.0
0.702253 0.005585 0.163802 0.0
1.681039 0.001706 0.150575 0.0
4.388474 -0.000484 0.047683 0.0
3.676000 0.002756 0.137479 0.0
2.357202 0.002523 0.134413 0.0
1.595028 0.002268 0.121381 0.0
1.345092 0.003113 0.137366 0.0
1.189350 0.005346 0.089172 0.0
0.165694 -0.004376 0.026161 0.0
3.935146 0.001992 0.066682 0.0
1.879153 0.001996 0.138319 0.0
4.292197 0.003185 0.167910 0.0
1.647200 0.006629 0.097344 0.0
2.294853 0.003409 0.110789 0.0
0.719626 0.001926 0.029960 0.0
4.146100 -0.000463 -0.003230 0.0
2.964884 -0.002991 0.002463 0.0
2.725788 0.003685 0.126999 0.0
3.622895 0.001184 0.070317 0.0
0.152602 0.005037 0.082331 0.0
4.184921 -0.004676 0.063292 0.0
1.852177 -0.000162 0.092242 0.0
2.169462 -0.000978 0.157518 0.0
2.550684 0.000887 0.046911 0.0
3.702069 0.002878 0.051741 0.0
2.154017 0.001915 0.058017 0.0
3.890442 -0.000493 0.012656 0.0
4.399751 0.005789 0.136242 0.0
2.308699 0.001044 0.056937 0.0
0.050204 0.002301 0.166280 0.0
2.367480 0.001532 0.098769 0.0
1.399038 0.002480 0.059977 0.0
2.613672 0.003197 0.003951 0.0
2.958346 0.000042 0.085094 0.0
1.983496 0.003979 0.142631 0.0
3.311988 0.001238 0.171771 0.0
1.313192 0.001139 0.024380 0.0
3.880901 0.002319 0.088126 0.0
1.131487 -0.000776 0.055090 0.0
0.804326 0.002766 0.022381 0.0
2.291806 0.003187 0.165888 0.0
3.006253 -0.000161 0.015896 0.0
1.124032 0.003672 0.149550 0.0
2.384641 -0.001407 0.124059 0.0
0.159071 0.000862 0.142796 0.0
4.265959 0.002021 0.088032 0.0
3.917862 0.003693 0.102773 0.0
3.208428 0.000244 0.062064 0.0
3.821020 0.003347 0.093892 0.0
3.251767 -0.000833 0.021658 0.0
2.071475 0.004900 0.053787 0.0
2.103147 0.004592 0.148683 0.0
1.083925 0.004785 0.107307 0.0
0.327661 0.005086 0.075789 0.0
1.566677 -0.000150 0.031486 0.0
1.778090 0.001931 0.128102 0.0
1.584812 0.002596 0.048263 0.0
2.730990 -0.000242 0.060217 0.0
2.002819 0.001625 0.149087 0.0
2.395549 -0.002565 0.027986 0.0
1.928444 0.003744 0.146682 0.0
1.373610 0.008127 0.073106 0.0
0.327628 0.005934 0.149134 0.0
4.110915 0.004515 0.168941 0.0
1.682311 -0.001908 0.006519 0.0
3.454080 0.003042 0.083048 0.0
1.829593 0.001426 0.006894 0.0
4.020802 -0.000934 0.033781 0.0
0.012822 0.003449 0.042261 0.0
2.303759 0.003424 0.035977 0.0
1.783429 -0.005428 0.082450 0.0
1.221916 0.003781 0.069396 0.0
0.282951 0.000582 0.058333 0.0
3.468769 0.007695 0.117832 0.0
4.276861 0.002491 0.161611 0.0
2.493229 -0.002701 0.039519 0.0
3.025408 0.001061 0.079280 0.0
0.889525 0.003826 0.035205 0.0
3.663129 0.003269 0.147721 0.0
2.136179 -0.001457 0.092416 0.0
4.440974 0.001750 0.069404 0.0
0.010049 0.005561 0.162420 0.0
3.839496 0.001904 0.086924 0.0
4.439494 0.002365 0.104093 0.0
1.582773 -0.000127 0.002252 0.0
1.344979 -0.004376 0.070176 0.0
4.362489 0.004448 0.066135 0.0
3.541208 -0.001985 0.031342 0.0
0.570561 0.002185 0.053514 0.0
0.688580 0.005122 0.055891 0.0
0.621664 0.000934 0.086081 0.0
2.318093 -0.005797 0.117281 0.0
0.622732 -0.000699 0.137063 0.0
1.654831 0.001159 0.067984 0.0
0.756873 0.004059 0.160315 0.0
0.725594 0.003607 0.067850 0.0
0.777011 0.007406 0.144082 0.0
1.916992 -0.001903 0.156223 0.0
2.797857 0.002900 0.033327 0.0
0.697482 0.000910 0.034064 0.0
3.628619 -0.001559 0.146520 0.0
1.680433 0.003619 0.066424 0.0
0.597849 0.000147 0.063746 0.0
3.636343 0.000355 0.092689 0.0
3.193365 -0.001535 0.099212 0.0
3.813166 0.004909 0.165830 0.0
1.558641 0.002455 0.098339 0.0
2.441322 0.004453 0.017341 0.0
1.318648 0.003475 0.016764 0.0
2.280842 -0.001601 0.065435 0.0
4.388418 -0.000725 0.089285 0.0
2.271411 0.002760 0.007345 0.0
2.862939 0.003308 0.041843 0.0
3.993413 0.002831 0.060232 0.0
2.765328 -0.004048 0.171689 0.0
3.081061 0.007404 0.077281 0.0
0.433066 0.005529 0.021992 0.0
4.324527 -0.003045 0.007428 0.0
3.996522 0.007723 0.151175 0.0
3.164788 0.001922 0.137253 0.0
1.864401 0.003207 0.051720 0.0
2.467997 0.000137 0.027109 0.0
0.378877 0.001187 0.032465 0.0
1.249552 0.005302 0.128224 0.0
0.331009 0.000524 0.148422 0.0
3.907646 0.000501 0.038985 0.0
2.274676 0.007952 0.064228 0.0
3.308311 0.007149 0.091050 0.0
1.506341 0.004051 0.075180 0.0
1.715821 0.005397 0.146314 0.0
0.575229 0.005884 0.114836 0.0
3.699766 0.002668 0.136754 0.0
0.785715 0.003257 0.020224 0.0
0.881316 -0.000437 0.008313 0.0
