0.65860500 1.71049129 -0.00090081 0.00000000
1.23588855 0.46730546 -0.00146425 0.00000000
3.54378001 0.95220467 0.00038323 0.00000000
2.38039907 1.48645410 -0.00377590 0.00000000
4.44976779 0.07653769 0.00712450 0.00000000
0.65845465 1.68108504 0.00001756 0.00000000
0.33452135 0.49749408 -0.00444679 0.00000000
0.14148345 0.55890713 0.00136750 0.00000000
3.69865974 1.29532479 0.00220632 0.00000000
3.59852853 1.55880161 -0.00080521 0.00000000
1.93291144 1.18972347 0.00187758 0.00000000
0.98274346 1.75817118 0.00441139 0.00000000
0.73177836 0.51460388 -0.00224734 0.00000000
0.30848696 1.72779906 0.00023828 0.00000000
3.30604010 0.37110193 0.00163414 0.00000000
4.10229195 0.05747358 0.00007168 0.00000000
4.22785611 0.26864857 0.00110581 0.00000000
1.91682199 2.08762818 -0.00191367 0.00000000
2.31449990 2.14488178 0.00166814 0.00000000
1.77472904 0.22798666 0.00100951 0.00000000
0.93584766 1.01056859 -0.00300386 0.00000000
3.81600030 0.87274554 -0.00460405 0.00000000
3.54585500 0.46837469 -0.00116276 0.00000000
2.43433448 0.94163674 -0.00357638 0.00000000
0.38151079 1.41269731 0.00060038 0.00000000
0.30695362 1.55609468 0.00588668 0.00000000
2.76606220 1.08667388 -0.00106651 0.00000000
2.65943642 0.97885479 0.00306340 0.00000000
3.81614961 1.59974350 0.00319623 0.00000000
1.11479298 0.34957251 0.00042085 0.00000000
4.24177296 0.67565607 0.00058805 0.00000000
3.40539874 0.05145870 0.00424790 0.00000000
4.13345679 1.85581606 0.00473921 0.00000000
3.51858484 1.56167869 -0.00395996 0.00000000
2.28439566 1.78139744 -0.00148703 0.00000000
3.05033700 1.76084868 -0.00482772 0.00000000
2.77165876 2.15390428 0.00117489 0.00000000
1.94166786 1.13356161 0.00097353 0.00000000
3.08042553 1.49502945 0.00104496 0.00000000
4.33315833 2.05265849 0.00032923 0.00000000
2.14113961 0.54694490 -0.00034776 0.00000000
3.09132071 0.96872476 -0.00080372 0.00000000
0.13433585 1.94885230 -0.00125134 0.00000000
3.81757563 2.13733276 -0.00428682 0.00000000
0.54911075 0.36783100 -0.00183317 0.00000000
2.92104811 1.45128629 0.00137764 0.00000000
0.92891387 1.81210899 0.00033488 0.00000000
0.94035487 1.01821126 0.00199428 0.00000000
2.73641252 0.20519367 0.00059494 0.00000000
1.02211068 2.04471888 -0.00284178 0.00000000
3.18465369 0.57554730 -0.00126561 0.00000000
0.13195866 0.61487240 -0.00468780 0.00000000
1.73125702 1.74072877 0.00570770 0.00000000
3.76708839 0.07386000 -0.00156997 0.00000000
0.40215520 1.18745947 -0.00416131 0.00000000
3.27563171 0.23330543 -0.00513653 0.00000000
3.05757813 0.50396069 0.00178842 0.00000000
1.56127573 0.38441710 -0.00090589 0.00000000
1.60214859 1.99999877 -0.00032314 0.00000000
2.53897852 1.41550835 0.00234941 0.00000000
3.15092229 1.34555318 0.00031774 0.00000000
4.47085062 1.26796787 -0.00025646 0.00000000
2.92082014 1.39827171 0.00163647 0.00000000
2.99539399 0.62285255 0.00053287 0.00000000
0.91984047 1.43298458 -0.00291308 0.00000000
3.43111251 1.00318282 0.00435925 0.00000000
1.16074128 1.69632368 0.00287012 0.00000000
0.33832801 1.65030256 -0.00276776 0.00000000
1.82519638 1.93297334 -0.00071970 0.00000000
0.97533701 0.16035776 -0.00049628 0.00000000
0.84551898 1.92198573 0.00336918 0.00000000
3.74174753 1.30024871 0.00102359 0.00000000
1.30530658 0.45209106 0.00436817 0.00000000
4.28816630 0.18479852 0.00068573 0.00000000
0.63440110 1.54986421 -0.00437841 0.00000000
1.88598310 0.94117878 0.00033347 0.00000000
3.84653299 1.88812479 0.00400648 0.00000000
1.58326665 0.04017725 -0.00656309 0.00000000
1.40562897 0.13674605 0.00195589 0.00000000
2.53714479 0.63568055 0.00066070 0.00000000
3.55050235 0.77776487 -0.00005223 0.00000000
1.78975035 1.36527689 -0.00000857 0.00000000
0.19543822 1.75326406 -0.00228736 0.00000000
2.06542689 1.25306741 0.00449719 0.00000000
1.79244463 0.04054219 0.00155348 0.00000000
2.29601703 0.57197662 -0.00327074 0.00000000
2.85273771 0.03705560 0.00026092 0.00000000
1.74426525 1.50673305 -0.00039421 0.00000000
0.15201068 0.75469997 -0.00322079 0.00000000
1.30998292 0.78850487 0.00158203 0.00000000
1.01253517 1.97530730 0.00029016 0.00000000
1.46073542 1.76320147 -0.00269370 0.00000000
1.49462535 1.57399877 0.00239439 0.00000000
3.25773006 1.36294229 -0.00120992 0.00000000
1.62611045 1.80613778 -0.00028089 0.00000000
4.39125305 0.18890114 -0.00076850 0.00000000
1.06385142 2.01560678 -0.00244278 0.00000000
3.48742730 0.48620166 -0.00308783 0.00000000
1.27044235 0.45447406 0.00119497 0.00000000
0.91861815 1.40216726 -0.00134565 0.00000000
4.46098521 1.17876182 -0.00205924 0.00000000
1.63996315 1.19146453 -0.00165515 0.00000000
0.87168031 0.59607104 -0.00101743 0.00000000
1.03839547 0.72970975 0.00055429 0.00000000
4.47334661 2.04226473 -0.00106516 0.00000000
1.31405366 1.94240096 0.00226990 0.00000000
2.66359983 0.40787256 -0.00131816 0.00000000
4.04711927 0.82563509 -0.00066689 0.00000000
3.91682798 0.64311440 -0.00037785 0.00000000
1.96298241 1.16429129 -0.00211955 0.00000000
2.04956395 1.73179725 -0.00297995 0.00000000
4.36034283 0.84984757 0.00267489 0.00000000
3.13172724 1.57621709 0.00059220 0.00000000
3.75307101 0.33663286 0.00336888 0.00000000
1.55746856 1.13317893 -0.00329458 0.00000000
2.99488425 1.69471498 0.00294255 0.00000000
0.95538852 1.60960366 0.00662354 0.00000000
2.82282284 0.43290159 0.00146169 0.00000000
2.30042101 0.88386510 -0.00381111 0.00000000
2.63606606 1.73368165 -0.00147621 0.00000000
3.84997590 0.51754313 0.00194053 0.00000000
3.24488344 2.00841605 0.00286172 0.00000000
1.48771650 1.38088827 0.00136922 0.00000000
3.48624015 1.84933363 0.00243670 0.00000000
0.23429754 1.03107889 -0.00362320 0.00000000
3.04551226 0.54555789 0.00323571 0.00000000
1.87346057 1.95663919 -0.00368576 0.00000000
2.20558234 0.50551332 0.00160741 0.00000000
2.30166770 0.90744973 0.00200045 0.00000000
2.70270683 1.27890094 0.00010385 0.00000000
0.95541900 0.75141077 0.00091778 0.00000000
2.54524776 0.89969700 -0.00132493 0.00000000
2.69300281 1.47394606 0.00262018 0.00000000
2.39460010 0.05964379 -0.00196806 0.00000000
2.16256286 1.31939417 0.00259308 0.00000000
1.44340868 1.98520645 -0.00362867 0.00000000
3.11111739 0.71756215 0.00129473 0.00000000
2.47485241 0.29442600 -0.00165908 0.00000000
2.11487413 1.31174881 0.00124689 0.00000000
0.58084421 0.26407554 0.00092886 0.00000000
4.22809214 1.60228156 0.00212393 0.00000000
3.38130321 1.04026289 0.00371349 0.00000000
4.48416195 0.51248217 0.00070088 0.00000000
0.55291687 1.98816646 0.00289759 0.00000000
1.42149892 1.30525946 -0.00274067 0.00000000
0.75981052 0.21268423 0.00294104 0.00000000
3.16862323 1.36931774 0.00198537 0.00000000
3.40304277 2.06895487 0.00251768 0.00000000
0.25053810 1.91681203 0.00116898 0.00000000
0.80158114 0.61403661 -0.00056764 0.00000000
4.20447172 1.86249007 0.00125685 0.00000000
2.74721039 1.48296795 0.00118399 0.00000000
3.00275256 0.16369370 0.00136346 0.00000000
3.79463602 0.38959429 -0.00007265 0.00000000
2.47626988 0.52098572 0.00012898 0.00000000
3.87498571 0.43251969 0.00289312 0.00000000
1.41409646 0.80011760 -0.00271815 0.00000000
2.95441437 0.21929136 -0.00391532 0.00000000
1.73082635 1.82007109 -0.00256784 0.00000000
3.35998406 0.77862514 -0.00516162 0.00000000
4.29425007 0.98746984 -0.00137492 0.00000000
2.44477588 0.33420560 -0.00356651 0.00000000
3.53454825 0.45594925 0.00038750 0.00000000
1.08683593 1.27340705 0.00133218 0.00000000
2.56674745 1.04475291 -0.00229552 0.00000000
3.27683598 0.28780432 -0.00394587 0.00000000
2.66273883 0.78256621 0.00175738 0.00000000
4.05773185 0.05651856 0.00150496 0.00000000
3.30116003 0.80322671 -0.00354773 0.00000000
1.70037604 0.86455389 0.00027876 0.00000000
3.44694349 0.36971626 0.00453166 0.00000000
3.54379426 2.08896631 -0.00425006 0.00000000
4.18231356 1.71956205 -0.00315373 0.00000000
3.32071888 0.87186799 -0.00148034 0.00000000
2.62855512 0.14063038 0.00292578 0.00000000
0.81994969 1.64919423 -0.00186927 0.00000000
1.21584386 2.11670186 0.00036619 0.00000000
1.24618008 2.15131118 -0.00016713 0.00000000
2.31822509 0.40422654 -0.00021950 0.00000000
3.98916477 0.08692105 -0.00189355 0.00000000
0.22812824 1.95650257 0.00022331 0.00000000
3.52659094 1.38743329 0.00104035 0.00000000
1.61118165 1.36928025 -0.00432960 0.00000000
3.18310828 0.40822982 0.00381459 0.00000000
1.03460137 1.25088048 0.00233058 0.00000000
2.36833036 0.97493423 0.00213508 0.00000000
1.36975056 1.13143180 -0.00224264 0.00000000
3.58511831 1.69216141 -0.00187044 0.00000000
1.31324626 2.04463695 0.00417590 0.00000000
0.78550426 1.11336491 -0.00075087 0.00000000
3.93754257 0.99484732 -0.00267960 0.00000000
0.47109669 1.49814872 -0.00107148 0.00000000
2.77572815 2.08277045 -0.00123689 0.00000000
0.96479272 1.94512617 -0.00008138 0.00000000
3.00855963 0.43970230 0.00279496 0.00000000
2.22169514 0.54343734 -0.00111616 0.00000000
2.18567485 1.48649799 -0.00197567 0.00000000
0.55408125 2.07175594 0.00170786 0.00000000
4.01939189 0.97821846 0.00342097 0.00000000
1.31970623 0.54122592 0.00034354 0.00000000
1.13418130 0.12370372 -0.00028605 0.00000000
2.27654837 1.37073508 -0.00166530 0.00000000
1.65242771 0.38598281 0.00341446 0.00000000
2.11347435 1.81986402 0.00301521 0.00000000
0.69119879 1.61629233 -0.00248595 0.00000000
3.45642440 2.06304215 -0.00014866 0.00000000
0.89684906 0.79440542 -0.00036374 0.00000000
1.54001184 1.93244631 0.00507514 0.00000000
3.36550926 1.86668324 -0.00485073 0.00000000
3.78100840 0.81787250 -0.00163149 0.00000000
3.05674426 1.02793910 -0.00032095 0.00000000
3.13729704 0.79399615 -0.00077419 0.00000000
3.55475149 0.11577475 0.00185958 0.00000000
4.03011263 0.45262952 0.00038173 0.00000000
1.57006638 1.54676659 -0.00045089 0.00000000
0.26562804 2.11161058 -0.00056720 0.00000000
4.06457536 1.05214736 -0.00037547 0.00000000
2.42894731 1.31234578 -0.00019886 0.00000000
2.64805163 0.12489162 -0.00125350 0.00000000
0.17595327 0.54715299 0.00281339 0.00000000
0.07949664 2.07970007 0.00298628 0.00000000
1.72893849 0.71434930 0.00006028 0.00000000
3.59802417 0.80391650 0.00313092 0.00000000
3.15116838 1.68148519 -0.00117444 0.00000000
1.02591312 1.80454361 0.00445383 0.00000000
4.10148607 1.31203271 0.00252482 0.00000000
3.54922225 0.87071561 -0.00073778 0.00000000
2.12559193 0.52126598 -0.00037848 0.00000000
3.62639093 0.08259544 0.00046860 0.00000000
1.66386176 0.89570282 0.00221471 0.00000000
1.61179467 0.85450335 0.00292277 0.00000000
2.72352321 0.17824386 0.00128725 0.00000000
2.69285007 0.62351295 0.00363734 0.00000000
0.57943278 0.94556710 -0.00099193 0.00000000
1.68178060 1.42306538 0.00065574 0.00000000
0.40120180 0.89393520 0.00207395 0.00000000
2.15271242 0.41497866 -0.00271384 0.00000000
1.20082721 0.19813558 -0.00057625 0.00000000
1.61671432 0.64296975 0.00091648 0.00000000
1.71531353 1.49949498 0.00299562 0.00000000
3.15453734 1.18347574 -0.00341825 0.00000000
1.16845740 0.13892982 -0.00040099 0.00000000
1.11510905 1.14972726 -0.00021463 0.00000000
2.11750832 0.96377698 -0.00204801 0.00000000
1.28902202 1.57988354 -0.00283124 0.00000000
2.85897523 1.36238861 0.00157457 0.00000000
1.25788777 1.32031103 0.00182607 0.00000000
3.80870692 1.62686291 0.00179238 0.00000000
3.99218284 0.02916689 0.00406431 0.00000000
2.71856888 2.15314228 -0.00398604 0.00000000
1.62852465 0.37831695 -0.00277977 0.00000000
2.12301742 0.67318326 0.00373721 0.00000000
1.09200153 0.13657334 -0.00340487 0.00000000
1.63276649 0.10990432 -0.00056244 0.00000000
2.56508681 0.14012603 -0.00583169 0.00000000
1.03491354 0.62713716 0.00010600 0.00000000
4.16736926 0.79899632 -0.00167214 0.00000000
2.63097228 0.51612000 0.00249789 0.00000000
0.52547165 2.05611316 0.00492360 0.00000000
2.25528140 0.85418880 -0.00166824 0.00000000
1.94689692 0.51494686 -0.00061397 0.00000000
4.08088746 1.22417876 0.00375065 0.00000000
3.22512395 0.18299830 0.00137572 0.00000000
4.39724385 1.43842387 0.00429961 0.00000000
2.90347921 0.03495786 0.00123019 0.00000000
0.13945997 0.61265103 0.00152041 0.00000000
1.46918156 1.58893647 -0.00038963 0.00000000
0.63175334 1.70013608 -0.00125031 0.00000000
3.00690053 0.17269908 -0.00082147 0.00000000
1.38969635 0.01791368 -0.00326014 0.00000000
2.48177240 0.81010491 0.00107445 0.00000000
0.21880376 1.83760906 -0.00638969 0.00000000
0.53613237 1.39568711 -0.00106523 0.00000000
4.17326221 1.09915885 0.00098181 0.00000000
0.15529924 0.56893382 0.00241029 0.00000000
1.54140460 0.46011573 0.00052801 0.00000000
0.63635469 0.11234405 0.00051823 0.00000000
0.65407547 1.10218040 0.00094469 0.00000000
3.24009004 1.06395413 -0.00131153 0.00000000
4.22343435 0.49628613 -0.00076550 0.00000000
2.35945410 1.43507252 0.00212715 0.00000000
1.46142148 0.56393420 -0.00174325 0.00000000
2.18579529 0.04355778 -0.00377518 0.00000000
2.12583880 0.09962128 -0.00022533 0.00000000
0.93044476 1.39989189 -0.00060793 0.00000000
3.27638187 0.54794444 -0.00254237 0.00000000
0.83012853 1.26821412 -0.00349081 0.00000000
3.62635259 0.40868334 0.00744222 0.00000000
1.27818410 0.05813588 -0.00360206 0.00000000
0.27912826 1.16187637 0.00012838 0.00000000
1.66028923 1.94079664 0.00047371 0.00000000
3.23333421 0.31475410 -0.00354536 0.00000000
3.75224815 0.34890682 -0.00115932 0.00000000
4.15780063 2.07862151 0.00145837 0.00000000
0.75037638 0.64371301 0.00135789 0.00000000
3.67030700 0.51574394 -0.00097005 0.00000000
3.78880658 0.81972650 0.00032386 0.00000000
2.40941655 1.33810309 -0.00634212 0.00000000
2.64344117 1.17208346 0.00317840 0.00000000
0.29201353 0.06362856 -0.00122196 0.00000000
1.81457692 0.31883964 -0.00164631 0.00000000
0.97486902 2.10973078 -0.00090144 0.00000000
1.51625728 1.97113613 -0.00180870 0.00000000
0.72405770 1.68105305 0.00033429 0.00000000
0.91203031 0.84877440 -0.00118426 0.00000000
2.90041130 0.48965411 -0.00245777 0.00000000
2.14843056 1.82537164 0.00374461 0.00000000
3.53583070 0.53713343 -0.00095275 0.00000000
0.72297767 1.10523684 -0.00134117 0.00000000
1.31709933 0.12494522 -0.00008288 0.00000000
1.99528716 1.74350378 -0.00178480 0.00000000
2.85929883 1.50226760 -0.00086255 0.00000000
1.65093918 0.28944703 0.00015312 0.00000000
0.79107296 1.79955791 0.00039786 0.00000000
3.57805692 1.69004222 0.00552975 0.00000000
2.84386647 1.96380201 0.00414782 0.00000000
0.14049167 0.34938127 -0.00029148 0.00000000
1.62430273 1.55037672 -0.00266187 0.00000000
2.02252613 1.86421649 -0.00147784 0.00000000
3.94485081 0.24507011 -0.00013205 0.00000000
1.45608457 0.92301634 -0.00490975 0.00000000
1.98262997 1.31304322 -0.00141172 0.00000000
3.06285027 0.14099860 0.00450583 0.00000000
0.46807826 0.46002988 0.00371063 0.00000000
0.04556803 1.47967921 0.00558191 0.00000000
3.19249439 0.67854321 0.00123317 0.00000000
2.68652672 1.75754391 -0.00228073 0.00000000
3.76192727 2.03712201 0.00103180 0.00000000
3.59254377 0.49014715 -0.00075240 0.00000000
3.40597978 2.14107155 0.00352866 0.00000000
3.66110013 0.28457614 -0.00231978 0.00000000
1.60187688 0.94897317 0.00101706 0.00000000
3.24384000 1.89108305 -0.00532836 0.00000000
3.41154324 1.77919666 0.00530742 0.00000000
3.77151950 1.79668333 0.00116003 0.00000000
1.07483344 1.22261541 0.00346582 0.00000000
3.78157154 0.80463740 -0.00019579 0.00000000
0.41649999 1.26426934 -0.00182829 0.00000000
1.48993119 0.07053292 0.00127156 0.00000000
4.01380339 0.91427980 0.00182829 0.00000000
1.74416862 0.42431982 -0.00112541 0.00000000
0.08012326 1.78455839 0.00112126 0.00000000
4.19597885 1.16599921 -0.00352224 0.00000000
3.07421770 1.85656651 -0.00648775 0.00000000
3.89272803 1.05084562 0.00100159 0.00000000
3.93284703 0.49173904 -0.00195629 0.00000000
4.35804236 0.42156436 -0.00224738 0.00000000
0.62132076 1.97481381 -0.00102040 0.00000000
2.84427819 0.07625245 -0.00146349 0.00000000
3.33487435 0.89595926 0.00088108 0.00000000
0.93241382 2.02007664 -0.00337799 0.00000000
3.42245623 1.65356313 -0.00657347 0.00000000
0.67161179 0.58193675 0.00201132 0.00000000
0.06017154 0.65728932 -0.00013581 0.00000000
0.91977399 0.54945738 0.00557076 0.00000000
3.49337352 1.27023501 -0.00344201 0.00000000
3.98866167 1.67010510 0.00292983 0.00000000
2.17898445 0.51989095 0.00051252 0.00000000
3.15475603 0.23205681 0.00210058 0.00000000
0.38174003 0.46532844 -0.00488750 0.00000000
3.23668310 0.35565004 0.00063862 0.00000000
1.05500816 1.40005544 -0.00026418 0.00000000
2.36373106 0.02782636 -0.00015870 0.00000000
1.22667185 0.73940956 -0.00292107 0.00000000
2.18767376 1.94255437 -0.00074500 0.00000000
3.01560819 0.06170615 -0.00012309 0.00000000
0.60583538 1.70407616 -0.00144759 0.00000000
1.52882397 2.13048635 -0.00084783 0.00000000
1.56392089 0.07619623 0.00178947 0.00000000
0.03841936 1.80002353 -0.00056409 0.00000000
2.79159388 1.67799682 0.00059193 0.00000000
2.96684984 0.96128058 -0.00013964 0.00000000
3.17749334 0.19165585 0.00005780 0.00000000
1.27684473 1.46140352 0.00152350 0.00000000
2.56811850 2.09503098 -0.00176992 0.00000000
0.34534733 0.14395645 0.00216843 0.00000000
4.43740659 0.16549882 0.00342935 0.00000000
4.08544661 2.09865998 -0.00190308 0.00000000
0.56787400 0.52783595 -0.00039545 0.00000000
4.05382804 1.59945098 -0.00192400 0.00000000
2.75206359 0.95681314 -0.00041018 0.00000000
0.06258653 0.52491424 0.00232998 0.00000000
0.55209024 0.05074876 -0.00025471 0.00000000
0.17959017 0.50271495 0.00325955 0.00000000
1.55214458 2.15781185 0.00391057 0.00000000
0.73228310 0.50267132 -0.00513019 0.00000000
3.89543900 2.00090262 -0.00109486 0.00000000
1.29724684 1.56364062 -0.00010037 0.00000000
2.23431525 1.01941104 -0.00093336 0.00000000
0.78160695 0.27588800 0.00181027 0.00000000
2.32531606 1.65855944 0.00186494 0.00000000
2.06038130 0.22840682 -0.00064107 0.00000000
1.06906136 0.50331394 0.00415770 0.00000000
3.68942286 0.41208757 0.00117988 0.00000000
3.10589695 2.09581886 0.00606544 0.00000000
0.30247091 1.27709851 -0.00364083 0.00000000
2.49141442 1.38392787 0.00020547 0.00000000
0.73428183 1.16323306 0.00353660 0.00000000
3.31697851 0.43178370 0.00126273 0.00000000
1.09933549 1.81884025 -0.00030274 0.00000000
0.24813955 1.20477918 0.00218225 0.00000000
0.83635000 2.13142682 -0.00278898 0.00000000
1.76758663 1.84890007 -0.00462151 0.00000000
3.07569703 1.92005409 -0.00296790 0.00000000
0.61664129 1.36759973 0.00180837 0.00000000
3.44043889 1.31210200 -0.00248142 0.00000000
3.63608101 0.17152378 -0.00279571 0.00000000
3.07021526 1.41218744 -0.00263100 0.00000000
3.94684012 0.96432002 0.00135017 0.00000000
1.37900398 0.40878171 -0.00331202 0.00000000
3.55021829 0.69910806 -0.00137928 0.00000000
2.77164256 1.42827407 0.00044135 0.00000000
3.35180669 0.51332720 0.00228253 0.00000000
0.08854444 0.19771259 0.00163888 0.00000000
2.34841643 1.31938907 0.00212789 0.00000000
4.02300145 2.06169761 0.00250673 0.00000000
1.40020944 1.71799365 -0.00082819 0.00000000
4.24899697 0.15129718 -0.00084871 0.00000000
1.95922925 2.04496819 -0.00012449 0.00000000
0.55406233 1.92415896 -0.00035310 0.00000000
0.71451778 2.02380077 -0.00072822 0.00000000
2.24356725 1.51869338 0.00050534 0.00000000
1.14526156 0.07287729 0.00175656 0.00000000
3.88748450 0.33743692 0.00234012 0.00000000
1.36336124 0.89892499 -0.00156369 0.00000000
4.32016225 1.96890513 -0.00066618 0.00000000
1.47031064 0.90436078 -0.00233607 0.00000000
4.02462891 2.13556076 0.00133586 0.00000000
2.27154812 1.20685586 0.00447043 0.00000000
2.40907660 1.65920524 -0.00397324 0.00000000
2.40755181 0.73137264 -0.00055300 0.00000000
2.93887303 1.78429973 0.00184575 0.00000000
2.90266342 1.03699621 -0.00194240 0.00000000
0.38278677 1.93752565 -0.00348933 0.00000000
2.79157247 0.87915930 -0.00102575 0.00000000
2.73811211 1.47042894 0.00322191 0.00000000
4.30447061 1.34907324 0.00395435 0.00000000
1.42343252 0.29144287 0.00131024 0.00000000
3.76472062 1.74546224 0.00528558 0.00000000
4.45673137 1.71380140 0.00261354 0.00000000
2.59285673 0.25650703 0.00431497 0.00000000
2.00368898 0.28870818 0.00075986 0.00000000
0.99502514 0.02494086 0.00135319 0.00000000
0.37387848 1.97748067 -0.00005969 0.00000000
2.86234502 2.08121781 -0.00351195 0.00000000
2.09931739 1.94128362 0.00303890 0.00000000
1.77265748 2.09093372 0.00032411 0.00000000
3.50184429 1.56363103 0.00110581 0.00000000
3.83821526 0.58980868 0.00386458 0.00000000
2.18564289 0.82016263 0.00400042 0.00000000
4.17638347 1.39804391 0.00057128 0.00000000
1.24924405 1.79389667 -0.00278198 0.00000000
3.48723258 0.13298686 -0.00019751 0.00000000
0.75955450 0.04142887 0.00102418 0.00000000
2.01682279 0.02444370 -0.00425908 0.00000000
3.13014777 0.39270583 -0.00344948 0.00000000
2.09994001 0.41408041 -0.00082163 0.00000000
3.58630194 0.32506262 0.00377435 0.00000000
2.48326675 1.49735416 -0.00404082 0.00000000
1.36183224 1.98027835 0.00407847 0.00000000
0.01796701 1.24760933 -0.00200131 0.00000000
3.84734806 0.64165896 0.00007145 0.00000000
2.40056151 0.95453410 0.00117884 0.00000000
2.33762645 0.42789109 0.00102198 0.00000000
3.77655111 1.47621781 -0.00095242 0.00000000
1.06259930 1.68902227 -0.00082081 0.00000000
0.52523373 0.95161190 0.00324709 0.00000000
3.14714849 0.14262277 -0.00115999 0.00000000
3.89514669 1.49332151 -0.00189487 0.00000000
1.70047294 0.02917106 0.00042955 0.00000000
2.78526475 0.03724748 -0.00260666 0.00000000
3.60656925 1.48778932 -0.00544087 0.00000000
0.12507112 0.89927283 0.00222269 0.00000000
3.47209012 0.68580066 0.00361529 0.00000000
3.49917319 1.40965449 -0.00539821 0.00000000
2.56003671 0.26465818 -0.00504303 0.00000000
1.97544689 0.05305372 -0.00104711 0.00000000
3.63800874 0.73801031 -0.00219871 0.00000000
2.94386395 1.91447013 -0.00065394 0.00000000
4.34802244 1.91387018 -0.00014888 0.00000000
3.25301692 1.71479346 0.00174114 0.00000000
3.28958325 2.14875675 0.00061355 0.00000000
3.26529107 1.99248280 -0.00357098 0.00000000
1.78390807 1.68004863 -0.00301168 0.00000000
1.30737359 0.05832813 0.00065067 0.00000000
3.87954590 1.85442489 -0.00395215 0.00000000
1.24940670 1.29572646 -0.00388575 0.00000000
2.15641934 1.05149377 -0.00276776 0.00000000
2.81659446 1.77765493 0.00402475 0.00000000
3.84774384 0.70211577 -0.00185537 0.00000000
2.71818430 1.18082788 -0.00337365 0.00000000
1.72388801 0.20007278 0.00026835 0.00000000
4.37330917 0.04419284 -0.00044046 0.00000000
1.38638419 1.70995951 -0.00096128 0.00000000
2.71298749 0.25721220 0.00290507 0.00000000
1.87854430 0.19156751 0.00074993 0.00000000
1.00768547 1.94681200 -0.00116283 0.00000000
3.17530687 0.58600126 0.00021276 0.00000000
1.27215364 0.95008095 0.00382505 0.00000000
3.44880737 0.80275777 0.00209825 0.00000000
2.28346769 0.88469115 0.00284462 0.00000000
2.77944878 1.95009971 0.00072000 0.00000000
3.40356157 0.96513831 -0.00102704 0.00000000
1.52623159 1.35343779 -0.00470593 0.00000000
0.81555328 1.30138780 -0.00068115 0.00000000
2.37113544 0.54679934 -0.00084660 0.00000000
0.69829918 0.11166819 -0.00276363 0.00000000
3.13198363 1.66774172 -0.00121513 0.00000000
1.61783575 0.78998513 -0.00348688 0.00000000
2.61933999 1.30945618 -0.00438115 0.00000000
1.44448258 1.77440243 0.00049276 0.00000000
1.17402405 1.58690091 0.00165981 0.00000000
3.47424557 0.55183554 -0.00671891 0.00000000
0.76188545 0.53733267 0.00146647 0.00000000
4.07058190 0.98317068 0.00222436 0.00000000
1.63756903 0.81481433 -0.00199340 0.00000000
3.94020467 0.90706337 -0.00167747 0.00000000
1.96732230 0.53863444 -0.00578804 0.00000000
1.62450366 0.08556538 -0.00254607 0.00000000
1.63877324 1.63890733 0.00143324 0.00000000
2.08456458 1.74627869 0.00634877 0.00000000
3.06167789 1.36053538 0.00098315 0.00000000
1.50207704 0.48406050 0.00352491 0.00000000
2.75664377 0.82824571 -0.00124415 0.00000000
1.29112855 1.06183874 0.00504529 0.00000000
0.95281401 1.97837738 0.00042370 0.00000000
2.67637674 0.61934974 -0.00759996 0.00000000
3.97283032 0.02417593 0.00086222 0.00000000
1.62001951 0.80788583 -0.00267031 0.00000000
1.71375793 1.22415739 -0.00355414 0.00000000
0.30878438 0.84226634 0.00137474 0.00000000
2.89515038 0.77602993 0.00442644 0.00000000
3.33133078 1.32886732 0.00073392 0.00000000
0.28971786 0.46149278 -0.00000936 0.00000000
0.86170801 0.20725555 -0.00403973 0.00000000
0.57454850 1.15454536 -0.00001575 0.00000000
3.74351039 0.88451006 -0.00507069 0.00000000
0.34570710 0.96072414 -0.00076363 0.00000000
1.33345097 1.53230735 -0.00301413 0.00000000
2.98399457 1.69676592 -0.00192109 0.00000000
2.61764509 1.08246034 -0.00123816 0.00000000
4.17110820 2.11622025 -0.00178761 0.00000000
4.41792647 0.81385763 -0.00542203 0.00000000
1.44297821 0.04386036 0.00335372 0.00000000
3.47638698 0.24567447 0.00278836 0.00000000
0.78100951 1.09839684 -0.00210124 0.00000000
2.24536026 1.35777711 0.00109502 0.00000000
3.62233595 2.06627584 0.00516707 0.00000000
2.31898862 1.79515589 0.00036421 0.00000000
2.49864395 0.47537240 -0.00114248 0.00000000
0.85919374 0.77522514 -0.00029507 0.00000000
3.12116394 0.28490278 -0.00132223 0.00000000
3.86454749 1.41994664 0.00130971 0.00000000
3.04878157 0.40097219 -0.00008776 0.00000000
3.10328967 1.04417781 0.00271746 0.00000000
3.19834632 0.63477547 -0.00099734 0.00000000
3.44711292 1.29921739 0.00194500 0.00000000
3.22173888 0.04235883 0.00280895 0.00000000
0.39713165 0.61753559 0.00033814 0.00000000
0.76326707 0.47757623 0.00125131 0.00000000
3.21095079 1.40302684 -0.00225263 0.00000000
3.20079572 0.31601662 0.00123415 0.00000000
1.53610503 1.62238854 -0.00458496 0.00000000
1.36385807 1.15574429 -0.00053536 0.00000000
3.75619198 0.15187987 -0.00275841 0.00000000
1.21507127 2.05356258 0.00272616 0.00000000
0.67950013 0.15360752 -0.00603671 0.00000000
4.49253456 0.41523777 -0.00400727 0.00000000
3.55369823 1.85359804 -0.00029084 0.00000000
3.90064500 1.57676163 0.00542109 0.00000000
2.26120911 1.26528370 -0.00131542 0.00000000
2.53199293 0.25961636 -0.00061858 0.00000000
1.83174549 0.89366582 -0.00362633 0.00000000
4.13456923 0.84054169 -0.00265508 0.00000000
3.81798485 1.91278223 0.00028861 0.00000000
4.19226826 0.72560769 0.00121386 0.00000000
1.74322493 0.97546991 0.00399711 0.00000000
0.92191367 1.05222528 0.00722917 0.00000000
3.89012292 1.26036515 -0.00415455 0.00000000
1.77901828 0.58368504 0.00099099 0.00000000
3.26549048 1.85462914 -0.00420856 0.00000000
0.04499605 1.75520087 0.00153823 0.00000000
3.36883630 1.42556714 -0.00315115 0.00000000
3.98946259 2.03795696 0.00104027 0.00000000
1.40230823 1.42310652 0.00249803 0.00000000
2.82085125 0.58378079 0.00276680 0.00000000
3.03914313 1.25770405 -0.00251839 0.00000000
1.32741721 1.56392856 0.00077597 0.00000000
0.01122658 0.71107351 -0.00002654 0.00000000
1.88731676 1.92025478 0.00131260 0.00000000
1.72125792 0.38541208 0.00160974 0.00000000
3.47618001 2.07499458 0.00244876 0.00000000
2.12867711 1.80640382 -0.00090589 0.00000000
4.44957660 0.38507296 -0.00137275 0.00000000
2.65401279 0.18000040 -0.00171021 0.00000000
1.52367654 1.80785279 0.00763560 0.00000000
2.66228094 1.80615884 0.00465445 0.00000000
1.77690045 0.04439990 -0.00143337 0.00000000
2.79324082 0.35073437 0.00042342 0.00000000
2.03942654 1.70106981 0.00122890 0.00000000
0.89624127 0.33665324 0.00005272 0.00000000
0.58550408 1.35039925 -0.00301143 0.00000000
1.85831918 0.99053118 0.00347802 0.00000000
3.64699619 0.53522608 -0.00062332 0.00000000
2.02352216 0.67421925 0.00163118 0.00000000
0.06335290 0.44496850 -0.00468816 0.00000000
1.29606148 0.83035274 0.00307135 0.00000000
2.87300728 0.61982496 -0.00019922 0.00000000
1.61958236 0.01811421 0.00253162 0.00000000
1.49690642 1.97608836 -0.00026182 0.00000000
0.38545572 1.83442565 -0.00049024 0.00000000
0.60926732 1.86185990 -0.00099728 0.00000000
3.29959761 1.34339273 0.00065183 0.00000000
4.31003515 0.77249566 -0.00225860 0.00000000
3.67519393 1.28393027 -0.00329169 0.00000000
2.92896517 1.76388642 -0.00081062 0.00000000
3.44468415 0.78560121 -0.00091234 0.00000000
3.80898944 0.33012532 -0.00346617 0.00000000
2.91139092 2.13955252 -0.00000171 0.00000000
1.48747583 1.11285377 -0.00127063 0.00000000
3.65448357 1.74110831 0.00198353 0.00000000
0.21540289 1.71815900 -0.00260964 0.00000000
0.93363002 0.01107485 -0.00164239 0.00000000
4.13924289 0.92970019 -0.00138800 0.00000000
0.01968461 0.89254219 0.00127709 0.00000000
1.34121142 0.91082546 0.00076792 0.00000000
0.11011474 1.07259638 0.00253434 0.00000000
4.38398212 0.87594558 -0.00290514 0.00000000
3.38792090 0.94973151 -0.00182684 0.00000000
3.22991874 1.51558930 0.00122061 0.00000000
3.50669399 2.10008176 -0.00095734 0.00000000
1.04801814 1.75941333 -0.00142517 0.00000000
1.83013488 2.07078179 -0.00013213 0.00000000
1.09162211 1.42677576 0.00435338 0.00000000
1.11526430 0.72745189 -0.00191921 0.00000000
3.24552171 1.87812235 0.00310463 0.00000000
0.35109852 1.89240563 -0.00295218 0.00000000
0.53865810 2.02451963 0.00382566 0.00000000
1.81020642 0.27259946 -0.00247294 0.00000000
3.79097593 1.12477578 0.00527083 0.00000000
4.11572829 0.08384747 0.00164502 0.00000000
1.72331151 1.87243881 0.00725448 0.00000000
1.34211478 0.17703215 0.00184203 0.00000000
1.53028041 1.68439277 0.00037402 0.00000000
3.27337282 0.59813121 -0.00346353 0.00000000
3.33871026 0.08148945 0.00123796 0.00000000
2.03240410 1.89446272 -0.00127619 0.00000000
2.16805473 1.37482447 0.00135453 0.00000000
1.67219371 1.48653628 -0.00210257 0.00000000
0.04764652 0.47699690 -0.00175790 0.00000000
3.23688308 1.76989670 -0.00159154 0.00000000
1.53370453 1.08542602 -0.00069845 0.00000000
4.34936525 1.45760910 -0.00398868 0.00000000
2.41069695 1.97952571 -0.00092284 0.00000000
3.03779655 0.00357248 -0.00260378 0.00000000
4.30796254 0.44449942 -0.00070517 0.00000000
4.32936280 1.28678098 -0.00378113 0.00000000
1.78280636 2.15344081 -0.00078728 0.00000000
3.43583693 1.80207018 -0.00008652 0.00000000
3.05709277 0.29943234 -0.00146050 0.00000000
0.07240336 2.11310636 -0.00053430 0.00000000
4.16923924 1.82049818 0.00104311 0.00000000
0.87803033 0.85744257 0.00025881 0.00000000
2.00466583 1.04226937 0.00660132 0.00000000
1.32276263 0.08168712 -0.00109987 0.00000000
1.40118499 2.14087944 0.00195155 0.00000000
4.44341206 1.33364896 -0.00435990 0.00000000
0.79763286 0.97646722 -0.00128563 0.00000000
3.16009861 1.43791960 0.00012286 0.00000000
1.16240259 0.95988968 -0.00023395 0.00000000
1.75792025 1.63162469 0.00042091 0.00000000
2.22740565 2.15550496 -0.00343294 0.00000000
0.44155656 1.67061691 -0.00126631 0.00000000
0.09646662 0.56229160 0.00305855 0.00000000
1.35279412 0.53051284 0.00305903 0.00000000
2.85659019 0.65130794 -0.00059980 0.00000000
4.04823034 0.77634395 -0.00140920 0.00000000
4.28194370 0.10284129 -0.00215189 0.00000000
0.20758732 0.44755124 -0.00373286 0.00000000
2.15658179 1.22338198 -0.00447780 0.00000000
1.24109728 2.01693067 -0.00092958 0.00000000
3.47869070 1.09496572 0.00028462 0.00000000
1.96349819 0.70396729 -0.00054150 0.00000000
2.61429597 0.47769726 -0.00021142 0.00000000
1.78809731 1.40980513 0.00231723 0.00000000
3.57984052 1.76419526 -0.00094578 0.00000000
0.84015094 2.12722671 -0.00375638 0.00000000
3.67296869 0.88575488 -0.00103501 0.00000000
3.41133652 1.17543362 -0.00174487 0.00000000
2.38797801 1.00441670 -0.00136076 0.00000000
2.39387945 1.74249034 0.00071730 0.00000000
0.44954468 1.69110685 -0.00319825 0.00000000
1.88410870 1.76687421 0.00351935 0.00000000
3.37968469 2.02241847 0.00213080 0.00000000
2.67564051 0.96662744 -0.00017266 0.00000000
3.91066877 1.01937228 -0.00102196 0.00000000
2.25189363 0.98301842 0.00233204 0.00000000
4.09657499 0.67033729 -0.00028227 0.00000000
0.29515201 1.07048931 0.00332441 0.00000000
2.87843397 1.84663734 0.00443034 0.00000000
3.49156279 0.31232529 -0.00124599 0.00000000
3.54883352 1.69262384 -0.00095745 0.00000000
1.67382954 2.08843213 0.00052687 0.00000000
0.46610832 1.78578075 0.00215684 0.00000000
4.12215464 0.98641305 0.00348694 0.00000000
1.71471483 0.74892115 -0.00354635 0.00000000
1.61460264 1.14674861 0.00007936 0.00000000
3.60222283 1.12329670 0.00176265 0.00000000
3.53154670 0.32353653 -0.00017690 0.00000000
2.25569032 1.65521067 0.00092731 0.00000000
3.52042800 1.22293620 0.00143270 0.00000000
4.22175744 0.78715571 0.00143063 0.00000000
3.37802340 2.11159321 0.00237935 0.00000000
1.62412354 0.03025604 -0.00114267 0.00000000
1.16359747 0.79513606 0.00108297 0.00000000
3.39368170 1.15835093 0.00214759 0.00000000
1.73697332 1.46478348 0.00118564 0.00000000
3.89490285 1.63505540 0.00317671 0.00000000
1.43341858 1.77048659 -0.00092625 0.00000000
1.68782944 0.11907835 -0.00541551 0.00000000
0.66935169 1.95187283 0.00084610 0.00000000
2.02909957 0.80098727 0.00067650 0.00000000
1.42442300 0.41905341 -0.00600957 0.00000000
2.60121224 0.23197364 -0.00014019 0.00000000
1.58435693 1.99828962 -0.00249128 0.00000000
3.68274112 0.80157714 0.00030865 0.00000000
0.71918783 0.97717659 0.00177322 0.00000000
3.29957001 0.00041607 -0.00011279 0.00000000
3.76627253 1.40192913 -0.00349385 0.00000000
0.55771431 1.50725381 0.00074321 0.00000000
2.42703900 1.69952152 0.00163085 0.00000000
1.64909721 0.40013551 0.00156381 0.00000000
3.24652152 0.66464777 -0.00123112 0.00000000
0.35103619 1.12099362 0.00324069 0.00000000
2.15730754 0.89881692 -0.00743275 0.00000000
0.70487757 1.66267042 0.00028854 0.00000000
3.27616518 0.13402349 0.00489163 0.00000000
1.61008942 0.51846471 0.00003577 0.00000000
2.12986572 0.00863353 -0.00053315 0.00000000
4.31868435 2.06747051 0.00268288 0.00000000
3.07274150 1.00476856 -0.00038018 0.00000000
2.59475090 1.78784791 -0.00012070 0.00000000
0.93792635 0.50182836 -0.00110410 0.00000000
4.13421478 0.87330478 0.00440878 0.00000000
4.18741119 0.31240566 0.00271654 0.00000000
3.16265789 0.86668736 -0.00124545 0.00000000
3.73269434 0.25109382 -0.00454486 0.00000000
3.35425797 1.21168927 -0.00025131 0.00000000
1.93359468 1.95777710 0.00078519 0.00000000
0.48829025 0.98846591 -0.00002901 0.00000000
0.53519813 0.78051708 -0.00444356 0.00000000
4.32362901 1.11371351 0.00413090 0.00000000
3.13918789 1.09223081 -0.00091514 0.00000000
3.74516060 0.00143415 -0.00067751 0.00000000
4.34609261 1.13121432 -0.00688371 0.00000000
0.67069760 0.73600818 0.00136914 0.00000000
0.15539044 0.65376238 -0.00490346 0.00000000
2.21553375 0.79012407 -0.00000660 0.00000000
2.22640349 1.72070263 0.00019412 0.00000000
0.21226167 0.67143862 0.00098440 0.00000000
0.22878052 1.66791478 0.00247832 0.00000000
1.83210643 1.26381259 -0.00073850 0.00000000
2.56910633 0.12782666 0.00192812 0.00000000
2.92584886 1.06110251 0.00143703 0.00000000
2.78098278 1.77790531 0.00030343 0.00000000
0.92759428 1.67019264 -0.00408895 0.00000000
0.46261201 0.99122265 0.00133861 0.00000000
4.12317016 2.14731365 -0.00172548 0.00000000
3.95677278 1.45693028 0.00220216 0.00000000
4.06351624 0.70969528 -0.00349242 0.00000000
1.08621619 0.71475914 0.00223671 0.00000000
3.90149239 0.87643311 0.00454600 0.00000000
2.33405279 0.69415790 0.00189701 0.00000000
0.58091172 0.63675774 -0.00049679 0.00000000
0.28374528 0.33083208 0.00536436 0.00000000
2.16946247 1.53150292 -0.00177940 0.00000000
2.31500729 1.21251343 -0.00131652 0.00000000
2.38779543 1.00130362 0.00119383 0.00000000
3.89049829 1.14238072 0.00191296 0.00000000
1.45820034 1.12914247 0.00038120 0.00000000
1.27488623 0.99798680 -0.00460327 0.00000000
0.76467477 1.71244858 0.00030724 0.00000000
4.17848226 0.92725921 0.00354747 0.00000000
0.80563780 1.37082271 -0.00237636 0.00000000
1.66594237 1.91513353 -0.00140558 0.00000000
2.96876328 0.81584384 0.00260299 0.00000000
2.07257189 1.08806468 -0.00236804 0.00000000
4.34390365 0.71866315 -0.00263761 0.00000000
2.34181136 1.66270172 0.00110851 0.00000000
1.76893264 1.78698308 0.00290895 0.00000000
2.74824712 0.31816229 -0.00059290 0.00000000
3.12486142 0.67931346 0.00259850 0.00000000
2.70592699 0.12559817 0.00214683 0.00000000
1.63958316 0.69793778 0.00094661 0.00000000
1.23651020 1.23779333 -0.00229539 0.00000000
0.27792984 1.73947278 -0.00216377 0.00000000
2.36795177 0.46562091 -0.00028894 0.00000000
0.56102625 2.10713012 -0.00230976 0.00000000
1.16772223 2.06583729 0.00259994 0.00000000
1.21157883 1.94651563 -0.00317041 0.00000000
0.77207547 0.74570806 -0.00428944 0.00000000
0.63766595 0.61586025 -0.00478973 0.00000000
3.91494393 1.11319351 0.00063884 0.00000000
0.86047973 1.59232321 -0.00507907 0.00000000
3.96773466 1.21806684 0.00234952 0.00000000
1.47192004 1.17664617 -0.00099742 0.00000000
3.13714127 0.11524301 0.00043617 0.00000000
0.00060987 1.73466969 -0.00022285 0.00000000
1.79054706 1.05928565 -0.00213354 0.00000000
1.24199833 0.59709737 -0.00111498 0.00000000
2.17010644 1.87178998 0.00057382 0.00000000
0.51949239 1.10787633 0.00228428 0.00000000
2.45206100 1.76143892 -0.00227784 0.00000000
1.05366668 0.76035922 -0.00092429 0.00000000
3.63365128 0.41603057 0.00187559 0.00000000
0.56911128 0.38819704 0.00052398 0.00000000
0.10524310 1.45168940 -0.00018505 0.00000000
0.55972060 2.10717893 -0.00198473 0.00000000
3.09344520 0.65620354 -0.00348425 0.00000000
2.00480437 0.66684822 -0.00436019 0.00000000
3.56013250 1.84659476 0.00207706 0.00000000
1.35224559 1.23923517 0.00150043 0.00000000
3.11263736 0.33153927 -0.00068939 0.00000000
1.41929287 1.41586270 -0.00021603 0.00000000
3.44529885 2.04771994 -0.00278494 0.00000000
0.10447925 1.77310978 0.00300028 0.00000000
1.65285789 1.84164805 0.00119018 0.00000000
1.21861570 0.89907486 0.00578713 0.00000000
0.84922553 0.13404946 -0.00207040 0.00000000
0.31944448 2.00280694 -0.00071082 0.00000000
1.66189973 1.92473943 0.00051318 0.00000000
3.83345005 0.73487367 0.00060542 0.00000000
1.44632845 0.99949477 0.00580838 0.00000000
1.15306462 2.12281331 -0.00095529 0.00000000
1.03258105 0.12272611 0.00548767 0.00000000
3.31337724 2.06335281 0.00015004 0.00000000
4.03667556 1.29484231 0.00593660 0.00000000
0.98611010 0.38031336 0.00162015 0.00000000
3.98166734 0.33515656 0.00065974 0.00000000
2.78258652 0.31384191 0.00217596 0.00000000
3.70813363 1.90625987 0.00009184 0.00000000
2.55520219 2.15325584 -0.00296635 0.00000000
0.56417902 0.80765168 -0.00198059 0.00000000
1.08752816 0.50563447 -0.00254462 0.00000000
4.01515608 0.21241125 0.00327823 0.00000000
3.31229940 0.06138838 -0.00191319 0.00000000
1.69054798 0.81772774 0.00181854 0.00000000
2.18274617 0.71946029 0.00117636 0.00000000
3.14465837 1.61032031 0.00101824 0.00000000
1.37206305 1.86357538 0.00057750 0.00000000
2.12984099 0.23296289 0.00463432 0.00000000
0.98047875 1.78995974 -0.00149719 0.00000000
4.25139855 2.03553566 -0.00316264 0.00000000
3.53647699 1.22367863 -0.00476967 0.00000000
3.41949685 0.76161995 -0.00212859 0.00000000
4.48246869 0.19335137 0.00122281 0.00000000
0.82907709 0.81327110 0.00264912 0.00000000
1.96029884 0.33581896 0.00430106 0.00000000
0.46400999 0.50130158 -0.00230692 0.00000000
1.36502208 2.15286630 -0.00569346 0.00000000
2.95389137 1.97849647 -0.00054508 0.00000000
0.48888389 1.56979662 -0.00264270 0.00000000
0.97715570 1.27235856 -0.00042361 0.00000000
1.93006000 1.84212572 -0.00147046 0.00000000
1.63428214 1.88016780 -0.00208730 0.00000000
1.66318370 2.02016652 -0.00243884 0.00000000
1.76894142 0.80910803 0.00301325 0.00000000
2.99353215 0.24562954 0.00243802 0.00000000
1.23274822 1.99863694 0.00416253 0.00000000
0.62745984 0.63310967 -0.00419715 0.00000000
1.01066830 0.26568963 -0.00172165 0.00000000
1.58770855 0.55689275 0.00120968 0.00000000
2.88668191 1.35948753 -0.00045943 0.00000000
1.46240005 0.91293121 0.00460725 0.00000000
2.64678333 0.40900728 -0.00501767 0.00000000
3.95629305 0.86402116 -0.00171609 0.00000000
2.57519868 0.50561834 -0.00122202 0.00000000
2.01076883 1.55406981 0.00005924 0.00000000
0.12897368 1.19678092 -0.00137820 0.00000000
2.20194574 2.13067259 -0.00119475 0.00000000
0.48871413 0.52645331 -0.00204789 0.00000000
0.43354591 1.22691318 0.00282067 0.00000000
0.94173019 1.74253210 -0.00353947 0.00000000
1.02010371 1.21082202 0.00128063 0.00000000
0.73550627 1.48911772 0.00253922 0.00000000
3.90324943 0.52688911 -0.00146819 0.00000000
0.88071597 0.48824859 -0.00436117 0.00000000
0.62425867 2.02645842 -0.00154056 0.00000000
3.38178472 1.51454339 -0.00261368 0.00000000
1.94607445 0.11136967 0.00177174 0.00000000
1.75037602 0.06166000 -0.00216797 0.00000000
4.10538239 1.87855828 -0.00166495 0.00000000
2.71191146 0.02966458 0.00242492 0.00000000
1.13590645 0.47166872 -0.00198955 0.00000000
2.86981558 0.99207036 0.00183468 0.00000000
1.69764616 0.63336417 -0.00012334 0.00000000
2.57927013 0.01761348 -0.00106716 0.00000000
3.27459388 0.46790032 0.00228140 0.00000000
2.58834898 1.64067427 0.00115115 0.00000000
3.95737730 1.34210466 -0.00368801 0.00000000
3.22608610 1.44569919 -0.00050933 0.00000000
1.20118991 0.28451432 0.00136797 0.00000000
1.11273874 0.44116677 -0.00192722 0.00000000
0.39064300 0.84785703 -0.00448079 0.00000000
0.26771171 1.55979587 -0.00354771 0.00000000
2.52175780 1.38344463 -0.00164390 0.00000000
0.41307724 1.82158711 -0.00263978 0.00000000
0.33972447 0.62142109 -0.00212121 0.00000000
1.80491143 2.12531202 0.00426672 0.00000000
1.15092159 0.30543156 0.00327096 0.00000000
1.61023026 0.79169123 0.00165131 0.00000000
4.05416008 0.22215862 -0.00254199 0.00000000
2.15472807 1.99970076 -0.00109000 0.00000000
1.68857919 1.49408588 -0.00160511 0.00000000
1.10171634 1.02532170 0.00154924 0.00000000
2.35943919 1.30009498 0.00150041 0.00000000
2.91023349 0.44982091 -0.00271000 0.00000000
1.55145677 1.61053111 0.00257320 0.00000000
3.28407143 0.55982694 -0.00084850 0.00000000
1.27407800 0.83228544 -0.00017354 0.00000000
1.96072433 2.12156451 -0.00351774 0.00000000
1.56710611 0.63474913 0.00088110 0.00000000
1.21892602 0.45873868 0.00336568 0.00000000
1.27723984 0.56352088 -0.00153107 0.00000000
1.96580982 0.77017266 -0.00254814 0.00000000
2.12530615 1.98085616 0.00207087 0.00000000
4.45303777 1.47551750 0.00040497 0.00000000
1.75176980 1.61614596 -0.00273436 0.00000000
0.42323401 0.51367230 0.00284476 0.00000000
0.47392226 1.90167766 -0.00237306 0.00000000
2.31215303 0.18132458 0.00164224 0.00000000
2.77969662 1.10958618 -0.00359272 0.00000000
2.33541517 0.63171585 0.00036384 0.00000000
4.46519642 0.65866114 0.00149866 0.00000000
0.83459945 0.00031871 0.00279408 0.00000000
0.05837196 1.50181573 -0.00164942 0.00000000
4.41432669 1.12980087 -0.00066775 0.00000000
1.91078877 1.38413620 -0.00293714 0.00000000
1.26140059 1.79155758 0.00223135 0.00000000
2.31278359 1.62747051 -0.00240504 0.00000000
3.84242673 0.32939253 0.00089829 0.00000000
2.85078218 1.65280230 -0.00272408 0.00000000
2.17282504 0.88693545 0.00103580 0.00000000
1.28787815 0.88523893 -0.00115775 0.00000000
1.37973528 0.72788006 -0.00058778 0.00000000
0.22101739 0.58862184 0.00432749 0.00000000
0.65386610 2.03957035 -0.00342360 0.00000000
2.02186133 1.48460348 0.00079819 0.00000000
0.03648810 1.42164427 0.00100568 0.00000000
2.82984857 1.96219178 -0.00248304 0.00000000
3.05894618 1.95853030 0.00317046 0.00000000
1.57861372 1.62704672 -0.00025877 0.00000000
2.19323664 0.86502459 0.00225244 0.00000000
3.66745388 1.02193304 -0.00178084 0.00000000
0.15760164 1.69465821 0.00072144 0.00000000
4.28166885 0.68740849 -0.00170235 0.00000000
3.38634248 0.10290197 0.00037406 0.00000000
1.96630640 0.35312171 -0.00141656 0.00000000
1.20842814 2.11192107 0.00015695 0.00000000
1.93579829 0.17013702 0.00211122 0.00000000
2.08138606 0.65307728 -0.00118338 0.00000000
4.45546436 0.79517113 0.00018144 0.00000000
0.44299397 2.01595001 0.00511401 0.00000000
0.56151233 1.41611217 0.00033292 0.00000000
0.30052734 1.52113768 -0.00510645 0.00000000
1.48357651 0.64363211 0.00243521 0.00000000
0.12151939 0.47080871 -0.00098638 0.00000000
2.01476195 1.10761356 0.00059870 0.00000000
1.14732202 1.30661948 0.00006705 0.00000000
3.08516021 1.61906149 0.00183876 0.00000000
2.73464077 0.88273977 -0.00174148 0.00000000
0.05492493 0.03166927 -0.00209455 0.00000000
1.71822349 0.59783955 0.00076793 0.00000000
3.79257847 0.16018443 -0.00145707 0.00000000
3.95764649 0.80116561 0.00051651 0.00000000
3.44485180 0.12514834 0.00480573 0.00000000
1.10022038 0.82600189 -0.00375898 0.00000000
0.28660621 0.60178154 0.00359401 0.00000000
0.58946607 2.12509153 -0.00070822 0.00000000
2.74872117 1.13651457 0.00046637 0.00000000
0.84357692 0.55249381 0.00223488 0.00000000
1.93273045 0.88274237 -0.00035179 0.00000000
1.50438579 1.20476890 -0.00188210 0.00000000
0.65404027 0.98444959 -0.00064348 0.00000000
3.94922044 0.29212879 -0.00262499 0.00000000
1.01562559 0.47861109 -0.00100539 0.00000000
2.63943993 0.04500134 -0.00093301 0.00000000
1.64595538 1.87817197 -0.00016605 0.00000000
4.34148806 1.92529494 0.00256433 0.00000000
1.98676453 1.35476007 0.00192061 0.00000000
3.64053977 1.39655679 0.00081551 0.00000000
2.13845234 1.32323107 0.00134301 0.00000000
0.62017645 1.72761184 -0.00085659 0.00000000
1.06894098 0.93480366 0.00283324 0.00000000
4.40125224 1.56249130 -0.00251625 0.00000000
0.89615721 0.30108107 0.00052529 0.00000000
2.98241368 2.09728326 -0.00099335 0.00000000
4.26301905 1.87201927 0.00210305 0.00000000
2.67180535 1.56698632 0.00112325 0.00000000
2.14007211 0.19591672 -0.00332309 0.00000000
0.33862174 0.71122540 -0.00038125 0.00000000
4.42945299 1.81191833 0.00150091 0.00000000
1.04685139 1.34254601 -0.00272841 0.00000000
3.79019595 0.97719204 0.00183411 0.00000000
3.79028671 1.83913718 0.00507369 0.00000000
2.09807523 0.19262803 0.00106031 0.00000000
4.23884310 1.08865547 -0.00387438 0.00000000
1.33837118 1.29975503 0.00036720 0.00000000
0.40491733 2.02974401 -0.00168560 0.00000000
1.96285807 0.11106631 0.00167504 0.00000000
0.36493994 1.15246012 0.00479681 0.00000000
2.15500606 1.94383829 0.00246563 0.00000000
0.92045643 1.70948555 0.00245570 0.00000000
3.18062112 0.65304403 -0.00160607 0.00000000
2.25235653 1.08511547 0.00111028 0.00000000
2.12337624 1.83806386 -0.00451168 0.00000000
0.91539348 1.32911203 0.00230146 0.00000000
3.53818400 1.59638970 -0.00012068 0.00000000
2.83941859 1.71282702 -0.00140120 0.00000000
2.23153592 0.94667556 -0.00061473 0.00000000
0.18897458 0.01941963 -0.00016759 0.00000000
3.25073332 2.05084428 -0.00212839 0.00000000
1.72047547 0.70405856 0.00040066 0.00000000
2.92711369 1.48795935 0.00127600 0.00000000
3.77561829 1.48497252 -0.00255992 0.00000000
2.82256825 1.69386457 0.00269315 0.00000000
0.25172817 2.01287200 0.00026951 0.00000000
0.68901619 0.13224816 0.00506352 0.00000000
3.67447382 0.93782761 0.00218120 0.00000000
3.39796404 0.08025691 0.00055599 0.00000000
4.47503546 2.04112414 -0.00059564 0.00000000
3.40001503 0.22279546 -0.00174986 0.00000000
2.64912641 1.21552349 -0.00067184 0.00000000
1.58406782 0.04406323 0.00406694 0.00000000
2.75493324 0.80522593 0.00054359 0.00000000
3.24628427 1.57986845 -0.00363761 0.00000000
0.85592745 0.48452492 -0.00038920 0.00000000
0.08276222 1.80063664 0.00191844 0.00000000
4.11360986 1.16048558 0.00017416 0.00000000
2.23308625 0.27359559 0.00063038 0.00000000
2.76479608 2.10706635 -0.00137022 0.00000000
3.02164129 0.48136026 -0.00193179 0.00000000
0.65284914 1.50120198 -0.00117894 0.00000000
4.19083620 0.44267130 0.00147752 0.00000000
0.56071571 0.65225780 -0.00357917 0.00000000
0.15198622 0.64855024 0.00261796 0.00000000
2.79858113 1.79028388 0.00204108 0.00000000
3.05972424 0.03383548 -0.00105808 0.00000000
2.74349783 1.93061615 -0.00298066 0.00000000
3.39148842 0.01110354 -0.00362565 0.00000000
1.66068900 1.81832656 -0.00062031 0.00000000
4.24338311 1.52146931 -0.00061376 0.00000000
3.43558402 1.05078089 0.00243738 0.00000000
0.27419892 1.10349299 -0.00373196 0.00000000
3.02772649 1.72952892 -0.00193382 0.00000000
3.44746458 0.33941802 -0.00217936 0.00000000
0.96626094 0.72828599 -0.00193025 0.00000000
2.32354373 2.14977739 -0.00130285 0.00000000
4.15379876 0.77978715 -0.00304879 0.00000000
1.07791135 2.02622526 -0.00232822 0.00000000
0.03373600 0.81741487 -0.00187525 0.00000000
4.10276778 0.21666423 -0.00042619 0.00000000
3.41851478 0.71871911 0.00282393 0.00000000
0.74624039 1.38834051 -0.00184469 0.00000000
2.27100396 1.18055750 0.00001992 0.00000000
3.25052819 1.73288793 -0.00319206 0.00000000
3.12380469 0.10658167 0.00510587 0.00000000
3.00108027 0.35742088 -0.00241354 0.00000000
1.92571675 1.55648497 -0.00229317 0.00000000
0.43903976 0.31678310 -0.00037501 0.00000000
4.18114670 0.43629062 0.00034761 0.00000000
0.89789737 0.94946294 -0.00282643 0.00000000
3.35011917 1.77430908 -0.00251380 0.00000000
0.67930764 2.15356602 0.00115656 0.00000000
2.18785571 1.23956149 -0.00016667 0.00000000
1.01418884 1.54996759 -0.00259261 0.00000000
1.89719800 1.83538244 -0.00417649 0.00000000
