2.098792 0.970297 -0.000163 0.0
2.157573 0.972802 -0.002084 0.0
0.630415 1.530223 0.001171 0.0
0.202024 2.367144 0.002292 0.0
2.949833 1.151060 -0.003030 0.0
0.698494 0.678123 0.000797 0.0
1.223014 0.819048 -0.002499 0.0
3.748062 0.056305 -0.000325 0.0
1.396119 2.179459 0.001381 0.0
0.391819 1.645765 0.001351 0.0
1.934600 0.650709 0.003793 0.0
3.746540 0.525248 -0.004249 0.0
3.014880 0.346930 -0.001670 0.0
2.552696 0.292889 0.005217 0.0
1.511790 2.480451 0.000745 0.0
0.908745 1.050250 0.000706 0.0
1.647023 0.290320 -0.001231 0.0
3.130113 0.245257 -0.002371 0.0
0.526687 2.147246 0.000504 0.0
3.919779 2.368021 -0.002154 0.0
1.619106 2.097809 0.001566 0.0
3.609058 0.287751 0.003375 0.0
3.196436 0.175129 -0.000753 0.0
0.727859 0.764702 -0.001523 0.0
1.777753 1.850283 -0.002103 0.0
1.952764 1.398382 0.003069 0.0
2.087297 0.516414 -0.001042 0.0
4.004859 1.451707 0.004537 0.0
0.631629 2.464912 0.002398 0.0
0.621028 1.656013 0.003494 0.0
0.968665 0.323348 -0.004055 0.0
1.405123 2.476129 -0.002400 0.0
0.040790 1.604681 -0.003170 0.0
1.357009 2.462277 -0.002108 0.0
3.238116 0.314342 -0.001189 0.0
0.718593 1.068094 -0.002888 0.0
3.585201 1.162702 0.000850 0.0
2.377081 1.387537 -0.001318 0.0
2.525448 0.793798 0.002272 0.0
0.718859 1.623237 0.000477 0.0
2.907496 1.165641 0.001916 0.0
1.351570 1.209594 0.001447 0.0
0.390596 1.578132 -0.004915 0.0
2.712271 2.088728 -0.001464 0.0
1.974948 0.480706 -0.001022 0.0
2.220535 0.857217 -0.002311 0.0
1.772165 2.334557 0.000718 0.0
3.956151 1.429666 0.000139 0.0
0.108184 1.273017 -0.001433 0.0
2.183069 0.555690 -0.000407 0.0
2.079402 0.076167 -0.001497 0.0
2.917196 0.410787 -0.000417 0.0
1.360216 2.168657 0.001835 0.0
3.886763 0.577820 -0.001831 0.0
0.407311 2.026370 0.000534 0.0
2.594876 0.189140 -0.001906 0.0
1.593494 2.183319 -0.001579 0.0
2.539299 1.530722 0.004419 0.0
0.799103 0.296060 -0.004479 0.0
0.665154 0.080036 0.000596 0.0
2.663318 2.087368 0.001338 0.0
2.698374 0.836863 0.000169 0.0
0.306156 0.896178 -0.000433 0.0
2.151928 2.027153 0.002405 0.0
2.030623 0.211692 -0.004660 0.0
2.199198 0.429602 0.001506 0.0
0.066437 1.665297 0.000898 0.0
2.433243 2.252338 0.003585 0.0
2.016332 1.785669 -0.000200 0.0
2.027685 0.559982 0.001516 0.0
2.551367 0.520141 -0.004520 0.0
3.601909 0.626585 -0.000122 0.0
3.975266 0.198712 0.000695 0.0
0.924299 1.480628 -0.001048 0.0
2.527658 0.424163 0.000426 0.0
0.410074 0.772230 -0.000053 0.0
2.660219 1.634148 0.000005 0.0
1.150311 2.153703 0.000637 0.0
1.003028 1.599889 0.000471 0.0
2.873885 0.364728 0.004056 0.0
1.938157 0.928042 -0.000450 0.0
1.754351 1.434354 -0.001286 0.0
3.324903 1.057408 -0.000175 0.0
3.608941 0.242897 0.006996 0.0
2.068710 0.780259 0.002801 0.0
2.857300 1.524483 -0.001114 0.0
3.458413 1.831895 0.000549 0.0
2.547243 1.632425 0.002741 0.0
1.601975 2.244560 0.004214 0.0
1.485880 0.430173 -0.005214 0.0
0.416114 0.534330 0.005478 0.0
0.885259 0.140329 -0.001291 0.0
1.526990 0.417170 0.001973 0.0
1.742235 0.589716 0.001982 0.0
2.090731 0.273788 -0.003752 0.0
0.043569 0.541393 -0.002299 0.0
0.002781 0.017631 -0.000753 0.0
1.725937 0.811755 -0.002120 0.0
1.011075 0.659337 0.000978 0.0
3.767017 0.108315 -0.001740 0.0
2.359753 0.614325 -0.000856 0.0
2.350301 0.066658 -0.002999 0.0
3.181883 1.924506 -0.001735 0.0
0.548230 1.176778 0.002636 0.0
1.743807 2.134422 -0.005923 0.0
1.165354 1.154217 0.002257 0.0
1.164072 1.462505 -0.001120 0.0
1.507699 2.438785 0.000212 0.0
0.382693 2.465368 0.000331 0.0
0.923900 1.402517 0.001553 0.0
3.582561 1.431622 -0.004063 0.0
0.422247 0.531595 0.001917 0.0
2.053921 1.675457 0.001386 0.0
2.435922 0.156608 0.002105 0.0
3.265275 2.435610 0.002998 0.0
3.140682 0.219241 0.000302 0.0
1.799225 0.065183 0.003510 0.0
3.064599 0.116372 0.002934 0.0
0.874249 1.153971 0.000036 0.0
1.506265 0.260637 0.002604 0.0
2.613495 2.454534 0.002235 0.0
2.609344 0.880254 -0.001778 0.0
1.311575 1.108388 -0.000938 0.0
3.516333 0.484715 -0.002542 0.0
3.563067 0.638319 0.002586 0.0
3.809803 1.348256 -0.002065 0.0
1.065608 0.135588 -0.001992 0.0
0.188339 1.872484 -0.000208 0.0
2.793603 0.073207 -0.003162 0.0
0.896787 1.119254 0.000760 0.0
3.553221 0.240383 -0.001232 0.0
1.629189 0.193244 -0.002742 0.0
0.138099 2.422271 0.004009 0.0
2.651146 1.218779 0.004352 0.0
1.241951 0.524113 -0.000652 0.0
0.145443 0.146703 -0.003666 0.0
0.728760 1.710917 -0.000056 0.0
1.567951 0.298336 0.003450 0.0
1.223012 1.803387 0.000834 0.0
3.759607 2.075142 -0.000852 0.0
2.340623 0.518915 0.001443 0.0
3.353114 1.011571 -0.002778 0.0
0.801720 1.130985 -0.003525 0.0
1.144302 1.559024 -0.003224 0.0
0.325091 0.056437 0.000703 0.0
0.917669 1.395649 0.000892 0.0
1.513349 1.438691 0.002065 0.0
0.213297 1.649848 0.004230 0.0
1.761788 2.002428 -0.003327 0.0
2.848084 0.044583 0.002561 0.0
2.050369 1.341742 0.002113 0.0
1.424965 2.047946 -0.003105 0.0
2.570603 1.724292 -0.002180 0.0
2.753447 1.145948 -0.000735 0.0
3.145800 1.330747 0.000644 0.0
2.752548 0.989967 0.007151 0.0
0.531123 0.343660 -0.000971 0.0
1.356104 1.205208 -0.000104 0.0
0.829851 1.645411 0.005618 0.0
2.757153 0.801775 0.002738 0.0
2.224830 1.134242 -0.000765 0.0
0.348980 0.355615 -0.000208 0.0
1.616825 0.310163 0.000610 0.0
0.166490 0.462431 0.003657 0.0
3.283472 0.272137 -0.001939 0.0
0.769063 1.004203 0.001513 0.0
2.018849 0.866762 -0.003572 0.0
1.353341 0.322861 -0.002009 0.0
0.472978 0.192821 -0.003196 0.0
0.273976 0.005525 0.001498 0.0
3.514581 1.595206 0.003154 0.0
3.362841 0.268766 0.007230 0.0
3.873272 0.555944 0.001264 0.0
0.920197 2.104224 0.003235 0.0
0.497084 1.931405 0.000619 0.0
0.441697 1.946687 -0.001917 0.0
1.170884 0.638801 0.000812 0.0
3.168767 2.239564 -0.000822 0.0
3.128996 2.195055 0.000476 0.0
1.950528 2.166421 -0.001865 0.0
1.707100 1.925264 0.000891 0.0
0.129098 2.146254 -0.004118 0.0
0.351077 1.000025 0.000320 0.0
2.322263 1.928622 0.005367 0.0
3.505135 0.688214 0.002766 0.0
2.860657 1.873370 0.001103 0.0
3.541047 2.330609 0.003031 0.0
1.951412 1.251952 0.000331 0.0
1.466822 1.064460 -0.000595 0.0
0.764076 0.880989 0.000656 0.0
2.033491 1.679048 -0.004273 0.0
2.348265 2.352991 -0.000800 0.0
3.573061 0.506412 0.002234 0.0
0.406198 1.269416 0.002664 0.0
1.853100 0.351781 -0.000355 0.0
3.869362 0.456951 -0.000531 0.0
4.009454 0.357625 -0.002156 0.0
3.396088 2.101691 0.004843 0.0
1.043562 1.588762 -0.002125 0.0
3.911744 2.195605 0.000201 0.0
1.448421 1.625001 -0.004528 0.0
3.933754 1.591476 0.000274 0.0
0.182680 1.557709 -0.002815 0.0
0.281351 1.754770 -0.003960 0.0
0.492129 0.421593 -0.001978 0.0
2.948031 2.372675 -0.003067 0.0
2.996412 2.359891 0.000574 0.0
1.295135 2.178947 -0.001032 0.0
2.117503 2.203418 0.000255 0.0
0.573889 2.084131 -0.001495 0.0
0.855420 2.448714 -0.002124 0.0
1.374933 2.157736 -0.000957 0.0
3.207530 2.024884 0.004114 0.0
2.417212 2.098843 0.002913 0.0
2.018096 2.433206 -0.001816 0.0
2.117524 1.521870 0.000678 0.0
2.774563 1.496366 0.004024 0.0
3.853340 1.638527 0.001114 0.0
2.141951 1.532998 0.001450 0.0
3.393434 0.589012 0.001449 0.0
0.972793 2.461495 -0.000567 0.0
2.560353 0.722651 -0.002303 0.0
2.385097 0.175965 0.001888 0.0
0.094638 1.178085 0.002348 0.0
1.087067 1.435992 -0.001748 0.0
3.539986 2.090536 0.003091 0.0
1.956506 0.569015 -0.000991 0.0
3.222379 2.369725 -0.001086 0.0
3.574970 0.972383 -0.003549 0.0
3.261452 0.102684 0.005732 0.0
1.869359 1.139656 -0.004142 0.0
3.057591 0.440929 0.000562 0.0
2.647862 0.315708 -0.000152 0.0
0.892035 2.263882 -0.000386 0.0
1.363876 0.359049 0.004836 0.0
1.205468 0.756928 0.000830 0.0
3.208885 2.296040 0.001401 0.0
3.050872 2.069557 -0.001973 0.0
2.387195 1.901171 0.002057 0.0
3.364941 2.020870 0.002817 0.0
1.671136 0.300714 -0.002771 0.0
0.259022 1.426105 0.000983 0.0
2.215566 1.842056 -0.003493 0.0
2.821844 0.499878 0.003980 0.0
0.922465 0.618404 -0.001938 0.0
0.612079 1.140107 0.002633 0.0
0.437748 1.673050 -0.005611 0.0
2.992274 1.336543 -0.002947 0.0
1.587519 0.562853 -0.000710 0.0
0.162689 0.541725 -0.000305 0.0
2.136361 1.551714 -0.005162 0.0
1.010831 1.116974 0.002712 0.0
1.662843 2.192130 -0.000460 0.0
3.042502 1.931691 -0.000133 0.0
0.300867 0.816822 -0.001702 0.0
3.900484 1.511295 -0.001458 0.0
1.813065 0.020209 -0.000773 0.0
0.836752 1.317783 -0.003381 0.0
0.080966 0.676783 -0.002937 0.0
3.750757 0.659663 -0.001150 0.0
1.617110 0.031694 0.003334 0.0
0.491231 1.901149 0.003501 0.0
3.617231 0.574302 -0.001800 0.0
1.744825 0.138614 -0.000925 0.0
1.944174 2.179440 0.002338 0.0
1.806092 1.383738 -0.003590 0.0
0.897976 2.324553 -0.001225 0.0
3.315994 2.341593 -0.001937 0.0
0.264822 2.103361 -0.000016 0.0
2.593345 1.503666 -0.000951 0.0
1.819831 0.530044 -0.001714 0.0
2.823334 1.682751 -0.001891 0.0
3.094006 0.575966 0.000149 0.0
0.550007 1.287188 -0.001455 0.0
3.397444 2.177744 0.001433 0.0
1.323142 1.702546 0.000587 0.0
4.003724 1.979054 0.003948 0.0
3.075205 2.252369 0.000274 0.0
0.941983 1.693206 0.000747 0.0
3.436733 1.837324 -0.000284 0.0
0.618096 1.917291 -0.000174 0.0
0.417957 1.654550 -0.002061 0.0
3.128230 1.313455 -0.000320 0.0
3.645897 2.280639 -0.002005 0.0
1.980805 1.804128 0.002893 0.0
3.256962 0.255571 0.003035 0.0
0.086168 0.916460 -0.001143 0.0
2.694343 0.797644 0.002226 0.0
3.977385 0.675529 0.000988 0.0
1.717536 2.224937 -0.001684 0.0
4.029325 0.166207 -0.001817 0.0
0.314217 0.470289 0.000208 0.0
0.746582 0.675703 0.000458 0.0
2.001974 1.070149 0.001267 0.0
0.017819 2.240144 0.000255 0.0
1.327355 1.979804 -0.002768 0.0
2.507369 2.287054 -0.003273 0.0
2.367019 2.247196 0.005175 0.0
2.152031 2.004192 0.001549 0.0
1.637748 0.131651 0.001228 0.0
1.462431 0.633598 0.002983 0.0
0.084013 2.275821 0.000107 0.0
2.643548 0.664537 -0.001805 0.0
1.558927 0.393430 0.003774 0.0
3.862347 1.082405 -0.004416 0.0
0.949595 0.694672 0.005634 0.0
4.022890 2.144617 -0.003496 0.0
3.189909 2.352840 -0.003007 0.0
2.355177 0.727429 0.001691 0.0
3.016425 2.439588 0.000765 0.0
3.678880 0.215735 -0.000050 0.0
0.385727 2.366413 0.003924 0.0
2.796485 1.874174 -0.003461 0.0
1.774879 1.636786 -0.000439 0.0
1.562309 0.597660 0.001544 0.0
2.574795 2.154519 0.001959 0.0
2.073039 1.663848 -0.003858 0.0
0.443887 1.999560 -0.002267 0.0
1.415018 0.606689 -0.002255 0.0
3.701057 2.039668 0.001489 0.0
0.049190 0.016670 -0.000764 0.0
0.735599 0.026169 0.001236 0.0
2.631195 0.803987 0.000137 0.0
0.346547 2.373621 -0.000125 0.0
0.694589 1.191943 -0.001177 0.0
0.616487 2.345191 0.001596 0.0
1.607315 1.926244 0.004375 0.0
1.450310 2.357225 0.004989 0.0
3.818720 2.452560 -0.001361 0.0
2.552722 0.683755 -0.003632 0.0
0.448480 0.516104 0.003283 0.0
1.580801 1.385048 0.002696 0.0
3.114216 0.866179 0.002456 0.0
3.277840 0.909154 0.000182 0.0
3.828091 0.314961 -0.005594 0.0
1.854034 0.278989 -0.000434 0.0
0.373645 1.170467 0.000531 0.0
0.091274 0.112115 0.003555 0.0
3.253081 0.732897 0.001410 0.0
3.153171 1.354363 -0.001279 0.0
2.697121 0.896505 -0.004670 0.0
0.193688 1.675581 -0.001954 0.0
0.261530 0.359696 -0.003550 0.0
1.371914 2.068774 0.002969 0.0
0.068186 2.424700 0.001368 0.0
0.869433 1.886703 -0.001492 0.0
0.073322 1.258339 -0.001681 0.0
2.287530 2.482066 -0.002143 0.0
2.378379 1.403332 0.000989 0.0
0.742574 1.765753 0.001282 0.0
2.723523 0.478126 0.001718 0.0
2.648087 0.453492 0.001710 0.0
2.963249 1.588688 0.002837 0.0
3.310763 0.952424 -0.001354 0.0
0.126246 1.944539 -0.001683 0.0
3.602379 1.325125 -0.003597 0.0
1.211000 2.091318 -0.001991 0.0
3.091457 1.755359 0.003335 0.0
0.651074 0.201294 0.000064 0.0
3.083993 1.777790 -0.002261 0.0
2.610822 0.551033 -0.000950 0.0
2.435305 0.826623 0.002242 0.0
3.319685 2.393774 0.001007 0.0
1.270759 1.441502 -0.000145 0.0
2.881259 0.516073 -0.002902 0.0
1.814492 1.879201 0.003689 0.0
1.913708 2.235987 -0.000866 0.0
1.838675 0.660778 -0.003523 0.0
3.737466 1.037840 0.001031 0.0
1.756773 0.139811 0.000134 0.0
0.586849 0.782123 0.001948 0.0
3.645651 2.308423 0.001501 0.0
1.870143 1.616527 0.000704 0.0
1.348843 1.532256 0.004486 0.0
0.757046 0.353334 0.002562 0.0
0.207629 1.753833 -0.001415 0.0
1.057218 0.920174 0.001912 0.0
2.608366 2.330095 0.000607 0.0
3.824210 1.215813 0.001106 0.0
0.957088 2.215052 -0.001686 0.0
1.303835 0.546287 0.000306 0.0
0.672194 0.774931 0.003878 0.0
3.527778 1.051678 -0.001143 0.0
1.548834 0.215697 0.001447 0.0
2.560225 2.362334 0.003740 0.0
0.980257 1.435287 -0.001355 0.0
3.194971 2.049940 0.001021 0.0
1.641389 1.974862 -0.002548 0.0
3.211253 1.281524 0.000229 0.0
3.865261 1.384480 -0.005644 0.0
3.017814 2.363500 -0.001288 0.0
2.226033 0.917198 0.000062 0.0
0.114263 0.040773 -0.000871 0.0
3.751049 1.671765 0.002310 0.0
1.374420 1.018209 -0.000812 0.0
0.709635 0.095804 0.004506 0.0
1.486640 0.497036 0.001188 0.0
0.097337 2.249585 -0.000140 0.0
1.868615 1.021411 -0.000175 0.0
3.322704 2.046815 -0.001860 0.0
2.856666 2.210137 0.000461 0.0
3.557812 2.052277 0.001003 0.0
3.771690 0.333321 0.001956 0.0
2.048623 0.082398 0.005118 0.0
1.435087 1.800475 -0.001401 0.0
0.582522 0.155810 -0.003245 0.0
1.390679 1.413531 -0.001531 0.0
1.748441 1.319183 0.000390 0.0
0.816245 2.442446 -0.005301 0.0
3.852234 0.443564 0.001692 0.0
0.420575 1.289899 -0.001230 0.0
0.634195 2.191784 0.002882 0.0
1.150469 0.640239 0.005000 0.0
1.488975 2.119540 0.003965 0.0
2.694470 1.578188 -0.003476 0.0
1.788946 0.564006 -0.000085 0.0
3.014661 0.297186 -0.001034 0.0
1.283981 0.679531 0.000177 0.0
0.641713 1.390210 -0.000337 0.0
2.815963 2.090610 0.001276 0.0
0.576834 1.253811 -0.002236 0.0
1.235415 0.565652 0.001831 0.0
3.170181 1.003346 -0.002832 0.0
2.833851 0.034814 0.001290 0.0
1.884004 2.314506 -0.001538 0.0
2.165442 1.638861 0.003289 0.0
2.371569 0.599408 -0.000196 0.0
1.661238 1.371853 -0.001356 0.0
1.955373 2.471018 0.001255 0.0
0.605197 1.145445 0.001431 0.0
1.113632 2.239946 0.002887 0.0
0.512771 0.337935 -0.002018 0.0
2.740075 1.446988 -0.001459 0.0
4.020716 2.298541 0.002309 0.0
0.416057 0.049300 0.000575 0.0
3.370907 0.874615 -0.001586 0.0
2.004987 0.248563 0.000040 0.0
3.862480 0.388714 -0.001411 0.0
1.417815 2.375189 0.000663 0.0
2.201132 1.675951 0.001993 0.0
1.397054 2.056386 -0.000759 0.0
2.590926 1.303406 -0.000704 0.0
1.499193 0.823439 -0.002781 0.0
3.284332 0.847689 0.000123 0.0
1.869146 0.362093 0.000867 0.0
1.488914 2.013352 0.001576 0.0
2.756176 2.069613 -0.001215 0.0
3.103916 0.238826 0.001299 0.0
0.290294 0.972151 -0.000054 0.0
2.116196 1.287831 -0.001036 0.0
1.819742 2.391336 0.001497 0.0
3.756545 1.719961 -0.001514 0.0
1.262865 0.129581 -0.000889 0.0
2.432198 2.076472 0.003545 0.0
2.819311 2.265938 -0.001259 0.0
3.514300 0.485499 0.003263 0.0
1.319923 0.834940 0.000608 0.0
1.540177 1.701830 0.000298 0.0
3.807249 0.263364 0.003016 0.0
1.105046 2.160828 -0.001456 0.0
0.504367 1.400447 -0.001991 0.0
0.308852 0.335443 0.000329 0.0
0.639794 1.573388 0.002242 0.0
0.693817 1.610390 -0.000137 0.0
1.773580 0.019479 -0.002837 0.0
2.326109 2.282954 -0.000312 0.0
2.098896 2.258851 -0.002138 0.0
1.483161 2.116284 0.005074 0.0
0.708082 1.404316 -0.003116 0.0
1.717165 1.539573 -0.002148 0.0
0.660017 0.416252 -0.003072 0.0
1.622742 0.475400 -0.000453 0.0
0.426315 2.157132 0.000009 0.0
1.473177 0.838201 0.003838 0.0
3.942934 2.366675 0.002411 0.0
3.444283 1.868273 -0.003364 0.0
2.524787 0.144423 0.001717 0.0
2.038173 0.223162 0.000709 0.0
3.958293 2.178076 0.002253 0.0
0.268145 0.484275 -0.000616 0.0
3.500860 0.796269 -0.000479 0.0
3.721841 0.124523 -0.001351 0.0
2.619348 1.163176 0.000218 0.0
3.938756 0.038074 0.002983 0.0
0.011338 1.056253 0.001394 0.0
3.457635 2.103730 -0.003216 0.0
1.274314 2.139409 -0.001434 0.0
0.478819 1.126756 0.001582 0.0
3.189463 1.263862 -0.001186 0.0
0.271883 1.152629 0.001010 0.0
2.926823 2.275550 0.002449 0.0
2.746887 2.152360 -0.001583 0.0
3.617545 0.660138 0.000893 0.0
2.624319 2.214366 0.001409 0.0
1.848362 0.860381 -0.001498 0.0
1.382250 1.383277 0.002071 0.0
3.654036 2.206393 -0.001309 0.0
1.592251 0.262625 0.002260 0.0
0.677608 0.828491 0.002474 0.0
0.240499 2.274917 0.002080 0.0
0.077131 -0.001856 0.003518 0.0
0.311178 0.291994 0.000423 0.0
4.007196 1.653245 0.000645 0.0
0.791154 0.612128 0.001488 0.0
1.282423 0.529299 -0.000453 0.0
0.824145 1.597835 -0.002846 0.0
1.731762 1.037499 0.003054 0.0
0.867368 0.181773 0.002035 0.0
0.969257 0.992952 0.000406 0.0
2.062002 1.683297 0.003702 0.0
1.880384 1.294206 -0.000387 0.0
0.310059 2.345097 -0.001664 0.0
2.068640 0.546778 -0.003000 0.0
3.434215 1.027678 -0.001560 0.0
2.937551 0.264850 0.002113 0.0
2.273221 0.133941 0.001870 0.0
2.226071 1.925953 -0.003608 0.0
2.199312 1.205373 -0.002457 0.0
1.932955 2.344419 0.000026 0.0
3.019676 1.812530 -0.002192 0.0
2.167818 2.379693 -0.000506 0.0
2.262075 1.823959 -0.000926 0.0
2.460652 1.591217 -0.002844 0.0
0.450859 1.142090 0.001339 0.0
1.283879 1.331283 -0.000120 0.0
2.747812 1.646639 0.000958 0.0
2.272556 1.851383 0.000667 0.0
3.118530 0.787461 0.002187 0.0
2.187127 2.316151 0.000100 0.0
2.111869 1.773969 0.000211 0.0
3.735704 0.498166 -0.000842 0.0
1.026578 1.876524 -0.000872 0.0
3.881224 0.873368 0.003639 0.0
0.917484 0.288700 -0.001156 0.0
3.839762 2.407678 -0.000265 0.0
4.027342 0.443983 0.002273 0.0
1.547848 1.919180 -0.000696 0.0
3.216537 1.521935 0.003249 0.0
3.065917 1.601103 0.002341 0.0
1.954503 1.102988 0.003346 0.0
1.414034 0.496139 0.005110 0.0
0.157920 1.162322 0.001653 0.0
0.783472 2.223983 0.002752 0.0
2.430046 2.034755 -0.001256 0.0
4.034072 2.282802 0.002739 0.0
0.764728 1.897363 -0.001505 0.0
3.074396 1.611936 -0.000307 0.0
3.861239 1.407164 -0.006379 0.0
1.688038 2.048001 -0.003132 0.0
3.404991 2.353784 -0.001361 0.0
2.543908 1.236323 -0.003541 0.0
3.483113 1.625786 0.003245 0.0
1.993884 0.554589 0.001335 0.0
1.576119 0.547801 0.000065 0.0
1.984505 0.444338 0.002011 0.0
2.471388 1.475885 -0.001762 0.0
0.090605 0.133399 0.003401 0.0
2.077952 0.553915 -0.002419 0.0
3.694170 1.549693 -0.001179 0.0
1.545402 0.046859 -0.001607 0.0
0.830034 2.362547 -0.000300 0.0
0.659078 1.509234 -0.002599 0.0
0.210601 0.199282 0.001852 0.0
1.461139 1.781958 -0.002249 0.0
2.108811 2.193890 0.003079 0.0
2.186425 1.883895 -0.002004 0.0
0.871322 2.109612 0.002719 0.0
0.976497 1.376383 0.000100 0.0
0.797484 1.649697 0.000503 0.0
2.720573 1.053371 -0.002747 0.0
2.502836 0.568423 0.000192 0.0
2.204767 2.351939 -0.004234 0.0
2.546954 0.335292 0.000072 0.0
3.857833 1.319921 -0.001010 0.0
1.446509 0.228976 -0.006162 0.0
0.951886 0.207948 -0.001010 0.0
3.887686 0.548597 -0.001863 0.0
1.451379 0.020237 -0.001323 0.0
2.675121 0.595476 0.000403 0.0
2.921504 0.463390 -0.003413 0.0
2.573067 0.473063 0.001202 0.0
0.434288 2.335127 -0.001393 0.0
0.409243 1.815052 -0.001849 0.0
1.640923 1.387578 -0.000590 0.0
1.446742 0.988556 0.002288 0.0
0.372091 0.720848 0.002156 0.0
1.759966 1.143456 -0.003273 0.0
1.596535 2.060497 -0.000517 0.0
1.119514 1.605267 0.003376 0.0
1.395053 2.312910 0.000433 0.0
2.092776 1.930219 -0.000244 0.0
0.767765 0.472174 -0.001661 0.0
0.735895 0.413698 -0.000900 0.0
0.765224 0.567024 -0.001302 0.0
3.794383 0.207173 -0.000939 0.0
0.001737 0.331813 0.000601 0.0
1.068543 1.426739 0.000471 0.0
0.520682 0.748491 -0.000688 0.0
2.013443 2.428112 -0.001165 0.0
2.390468 2.042293 -0.000568 0.0
0.105675 1.054152 -0.000421 0.0
0.286103 2.324882 0.001006 0.0
3.608248 1.500583 -0.001496 0.0
0.925855 1.151459 -0.001853 0.0
2.781236 2.347749 -0.000645 0.0
1.438435 2.470695 -0.000512 0.0
3.505973 0.210697 0.007259 0.0
1.838332 2.101742 -0.003884 0.0
0.372740 0.218188 -0.000441 0.0
0.849514 0.554482 -0.000726 0.0
1.721401 2.466276 0.002651 0.0
2.158690 1.990782 -0.001351 0.0
1.037884 1.283599 0.001419 0.0
3.466247 0.761700 0.003677 0.0
3.149664 1.502982 0.001424 0.0
2.661047 0.018329 0.000848 0.0
2.110416 1.631681 0.001786 0.0
1.871860 2.340550 -0.001741 0.0
1.413047 1.812530 -0.003082 0.0
3.701691 1.717361 -0.002501 0.0
2.488966 1.658639 -0.003083 0.0
0.390802 0.378460 -0.000253 0.0
0.033639 1.017768 0.001522 0.0
3.914031 1.042295 -0.002351 0.0
2.994277 0.190623 -0.003136 0.0
0.920516 0.776945 -0.002202 0.0
2.170033 0.749460 -0.000169 0.0
1.284567 0.177874 0.000790 0.0
3.177599 2.428129 0.003148 0.0
0.205031 0.224083 -0.000224 0.0
1.242876 0.294108 -0.000868 0.0
3.288445 1.495632 -0.000740 0.0
3.832857 1.117247 -0.000625 0.0
0.756887 0.426753 -0.000495 0.0
1.181394 1.473668 0.001921 0.0
1.888402 1.099414 -0.002120 0.0
3.095369 1.082474 -0.000609 0.0
3.779299 1.765273 0.002796 0.0
1.663270 0.942922 -0.003144 0.0
2.266628 1.062023 -0.000364 0.0
0.878940 0.934378 -0.002283 0.0
0.485078 0.294172 -0.001336 0.0
0.229425 1.064950 -0.001663 0.0
1.943873 0.592663 -0.001800 0.0
2.280714 1.056833 0.002271 0.0
2.659272 2.045611 -0.003339 0.0
0.624734 1.575882 -0.001267 0.0
2.776323 0.188321 -0.000510 0.0
1.568365 0.143181 -0.002982 0.0
2.445548 0.163334 0.001857 0.0
1.938602 2.239425 -0.000246 0.0
2.987762 2.476536 0.003002 0.0
1.434826 1.009130 -0.001919 0.0
1.727888 0.561601 0.001935 0.0
0.186430 0.864423 0.000373 0.0
1.365694 2.241936 0.003112 0.0
0.791706 1.589900 -0.000442 0.0
3.540452 0.549504 0.000221 0.0
3.242131 1.820157 -0.002916 0.0
3.596905 0.696357 -0.001794 0.0
2.226745 2.229084 0.001797 0.0
2.690137 2.171157 -0.000917 0.0
1.427377 2.349677 -0.003768 0.0
1.511336 2.178647 -0.001681 0.0
2.702589 1.056327 0.002178 0.0
3.541948 0.796341 -0.002521 0.0
0.958223 1.357846 -0.004414 0.0
3.960487 2.299881 0.000718 0.0
2.646681 2.316925 0.004193 0.0
1.657426 2.363487 0.000176 0.0
3.176695 0.729451 -0.000366 0.0
1.302645 1.039398 0.001344 0.0
2.149729 0.972158 -0.000016 0.0
4.031689 1.629854 0.003577 0.0
0.730288 0.758992 0.001810 0.0
0.366421 0.657258 -0.002059 0.0
3.440199 2.066465 0.000235 0.0
2.093065 1.583847 -0.000386 0.0
2.126445 0.645786 0.000939 0.0
4.017794 2.107488 -0.000055 0.0
1.552775 2.161365 0.000221 0.0
0.707028 2.255458 -0.001337 0.0
3.828140 1.427072 0.000065 0.0
2.671050 2.145988 -0.003233 0.0
2.066497 0.418829 -0.002039 0.0
1.294476 1.711783 0.002320 0.0
1.525211 1.815360 -0.001322 0.0
1.195063 0.420611 -0.000650 0.0
2.264742 2.277961 0.000180 0.0
2.730622 0.690245 -0.002643 0.0
2.557711 1.987001 0.000370 0.0
2.434128 2.247668 0.004316 0.0
2.076626 1.907369 0.001398 0.0
1.854650 1.269182 -0.002796 0.0
3.981892 0.385813 0.001992 0.0
0.834925 0.950221 0.000699 0.0
0.076186 1.618092 0.000847 0.0
3.218714 1.787868 0.002306 0.0
0.084940 0.375042 0.000399 0.0
3.796379 0.005216 -0.002456 0.0
3.493817 1.036989 -0.001661 0.0
0.768139 1.883997 -0.000994 0.0
0.738599 0.001103 -0.002450 0.0
3.412503 0.160069 -0.001608 0.0
2.523931 1.447843 0.001360 0.0
1.218994 2.360613 0.005100 0.0
3.300683 0.476243 0.005690 0.0
2.011912 1.536846 0.001186 0.0
2.976879 1.417681 -0.003158 0.0
2.988195 0.523292 -0.000116 0.0
0.598522 1.698131 -0.001067 0.0
0.071414 1.284229 -0.000391 0.0
3.608407 0.831394 0.001308 0.0
2.840146 1.598430 0.002166 0.0
0.359701 0.522788 -0.000012 0.0
0.683631 0.460569 0.000445 0.0
1.433416 1.271080 0.007573 0.0
3.188452 1.911514 0.002984 0.0
0.401579 0.082317 -0.000772 0.0
0.896795 0.450150 0.001883 0.0
1.457018 1.444404 0.002018 0.0
1.655845 1.175713 0.003252 0.0
1.444905 1.126795 0.002979 0.0
0.516930 0.676186 0.001949 0.0
2.896725 0.717273 0.004507 0.0
1.614288 2.067404 -0.000400 0.0
2.041991 1.417612 0.002445 0.0
2.867985 2.200893 0.004169 0.0
1.627301 2.297718 -0.000699 0.0
0.083011 2.237996 -0.003012 0.0
0.592974 0.654267 -0.000962 0.0
1.255471 0.683204 0.006900 0.0
1.686594 0.554724 -0.003599 0.0
1.083410 1.946345 0.000944 0.0
3.495682 2.074149 -0.000847 0.0
0.284785 0.734304 -0.008650 0.0
1.630048 1.263747 0.001504 0.0
0.954984 1.559692 0.002935 0.0
2.090924 1.268773 -0.001937 0.0
0.491234 0.409433 0.003049 0.0
3.065117 2.422488 0.001888 0.0
3.411058 1.482570 0.002800 0.0
0.356045 1.729739 0.002026 0.0
0.489749 0.612623 0.001303 0.0
1.563424 1.615142 -0.004314 0.0
0.117448 0.957743 0.001021 0.0
2.925606 2.164471 -0.004403 0.0
3.251726 1.072217 0.003994 0.0
1.544907 0.593057 0.002079 0.0
3.816835 2.139974 0.007603 0.0
1.277649 1.315782 0.003835 0.0
2.924867 0.467966 0.004344 0.0
1.367256 2.133423 -0.001244 0.0
2.335700 1.878226 0.002165 0.0
0.774576 0.859302 -0.002029 0.0
0.374587 2.003049 -0.001576 0.0
1.258843 2.449488 -0.000279 0.0
0.191827 2.362116 0.000678 0.0
0.823351 1.275620 -0.006125 0.0
2.197472 1.470508 -0.002894 0.0
2.216043 0.111726 -0.002899 0.0
1.871040 2.058610 0.000466 0.0
0.732640 1.740128 -0.002794 0.0
0.780797 0.587330 0.000116 0.0
3.833599 0.472066 0.001042 0.0
0.432407 1.882987 -0.004123 0.0
2.115246 2.043272 0.001504 0.0
3.721444 1.027936 -0.001186 0.0
3.681920 1.414313 -0.000919 0.0
0.455058 2.315830 -0.000835 0.0
1.228235 2.339005 -0.003720 0.0
0.511599 2.068019 -0.004158 0.0
3.528563 0.914327 0.004407 0.0
1.504415 1.066771 0.002260 0.0
2.399185 2.122502 0.003668 0.0
2.875889 0.375348 -0.001752 0.0
1.596318 0.010721 -0.002088 0.0
3.121205 1.724612 -0.001036 0.0
2.377243 1.954640 0.000744 0.0
0.702238 0.940239 -0.000660 0.0
1.674357 0.294031 0.001614 0.0
1.505018 0.585778 0.000944 0.0
3.340862 1.594407 -0.003377 0.0
2.770309 1.539718 0.003740 0.0
3.529869 2.436774 0.002621 0.0
3.395638 0.996700 0.003865 0.0
3.426578 1.389824 0.003460 0.0
1.914526 1.573556 -0.000662 0.0
0.884318 0.444305 0.005258 0.0
3.775256 0.544534 0.000878 0.0
1.971343 1.556962 -0.001427 0.0
3.497261 0.770891 0.006737 0.0
0.292138 1.884814 0.000868 0.0
3.961828 1.338132 -0.001118 0.0
1.951787 2.287070 -0.000159 0.0
2.602551 0.058214 -0.000339 0.0
2.400517 1.471676 0.001391 0.0
3.941598 0.125796 -0.003556 0.0
1.656137 1.003033 0.002900 0.0
2.806179 1.808690 0.001355 0.0
0.544981 1.406372 -0.002204 0.0
3.341892 0.053628 0.000808 0.0
3.472092 0.344593 -0.002896 0.0
3.116120 1.628760 0.000978 0.0
3.934990 2.352709 -0.000607 0.0
0.412256 0.911962 0.000143 0.0
2.093289 0.906425 -0.000992 0.0
1.558265 1.418203 0.002648 0.0
0.035718 0.556682 0.001123 0.0
1.578122 0.645972 -0.001702 0.0
2.968083 2.236633 0.000082 0.0
2.075717 1.642901 -0.000064 0.0
1.767618 1.301457 -0.004618 0.0
3.463974 0.431268 0.003629 0.0
1.165045 1.990433 0.003614 0.0
2.524267 2.447927 -0.001456 0.0
1.056671 2.256719 0.001243 0.0
3.116175 1.808900 -0.001274 0.0
1.732047 0.044518 0.003180 0.0
0.893750 0.183444 -0.000040 0.0
2.209971 0.544428 -0.002450 0.0
3.434286 0.059165 -0.002045 0.0
2.481222 0.242974 0.000632 0.0
3.507276 1.310285 0.002124 0.0
2.793145 1.316817 0.000954 0.0
2.265583 1.680553 0.003886 0.0
1.931168 0.840478 -0.001796 0.0
0.565344 0.527716 0.000913 0.0
3.260200 0.042483 0.005943 0.0
1.778955 2.084164 -0.001238 0.0
1.459274 0.948308 -0.000272 0.0
0.268982 1.411364 -0.002441 0.0
1.745434 2.285356 0.000075 0.0
0.573631 0.493992 0.000954 0.0
2.707732 1.993334 -0.002083 0.0
0.242871 1.510143 0.000482 0.0
3.616878 0.406974 -0.003228 0.0
0.530194 0.100292 0.003521 0.0
2.018520 2.195411 -0.006378 0.0
1.609170 2.039515 0.000919 0.0
2.144669 1.297996 -0.002196 0.0
1.425165 1.524962 0.003332 0.0
0.470250 1.279740 -0.000717 0.0
1.029395 0.338094 0.000718 0.0
2.840057 1.829676 0.001100 0.0
3.295712 0.209179 -0.002687 0.0
1.884471 1.792071 -0.001717 0.0
0.063781 1.862542 -0.000984 0.0
3.258541 0.892066 -0.003083 0.0
1.612599 0.333756 0.001663 0.0
0.367082 0.594602 0.000429 0.0
2.000054 2.325040 -0.001500 0.0
4.021078 1.701980 -0.001640 0.0
0.885011 2.472197 -0.001114 0.0
2.490426 0.142540 0.000115 0.0
1.084288 1.071455 -0.000572 0.0
1.328995 1.995533 -0.000701 0.0
3.162570 2.271195 -0.001371 0.0
0.737991 1.376842 0.002802 0.0
0.509574 1.921874 0.001229 0.0
2.413529 0.117015 0.002043 0.0
3.146292 1.292637 -0.001493 0.0
0.696684 2.141727 -0.002385 0.0
1.484322 2.449016 0.005490 0.0
3.842834 0.877688 -0.001081 0.0
0.122836 1.122731 0.002091 0.0
2.454570 0.493363 -0.001848 0.0
1.106797 0.417280 -0.002816 0.0
1.349750 2.372932 0.002056 0.0
3.908049 1.686598 0.000558 0.0
3.510232 0.061606 0.001224 0.0
3.600292 1.929085 0.003113 0.0
0.341038 1.444359 0.003576 0.0
1.808926 1.916368 -0.001575 0.0
0.726182 1.922688 0.000702 0.0
3.417607 1.610039 -0.002852 0.0
0.344126 1.148334 0.007623 0.0
1.449873 1.423223 0.002269 0.0
2.661738 1.633966 -0.006923 0.0
2.541588 1.990268 -0.003334 0.0
2.290673 1.852785 0.001799 0.0
1.253664 2.098640 -0.002803 0.0
1.368830 0.975644 -0.000635 0.0
2.506490 2.444721 -0.003282 0.0
2.335836 0.445452 -0.002742 0.0
2.419244 0.243681 0.001055 0.0
3.451710 0.410550 -0.002834 0.0
0.810514 1.572128 -0.005345 0.0
3.646101 0.075652 -0.001696 0.0
0.339629 1.407368 0.003861 0.0
1.243660 1.216028 -0.003969 0.0
3.123265 1.658650 0.002456 0.0
0.952272 1.153670 0.000531 0.0
1.460253 0.892967 0.000984 0.0
1.309523 2.046776 0.002348 0.0
3.166752 2.085530 -0.001739 0.0
0.697933 0.202776 0.000863 0.0
3.020143 1.512234 0.001323 0.0
0.207104 2.474290 -0.000256 0.0
1.876347 0.689699 0.002012 0.0
2.959832 1.199634 0.003113 0.0
3.574962 1.388918 -0.004280 0.0
0.375434 1.889407 -0.002715 0.0
0.290019 1.668809 0.000096 0.0
0.274972 1.222015 -0.001099 0.0
0.131604 0.179591 -0.001551 0.0
2.018210 2.019045 -0.000333 0.0
1.813439 0.147842 0.000975 0.0
3.642937 1.070761 0.000565 0.0
1.122465 2.208703 -0.000796 0.0
3.781715 1.168491 0.002785 0.0
3.889226 0.919154 0.000395 0.0
1.507519 0.798820 -0.002825 0.0
1.446772 1.457300 -0.002468 0.0
1.886542 1.837654 -0.000235 0.0
2.135719 2.420768 0.002487 0.0
1.900560 0.500662 0.001082 0.0
1.355452 1.680659 -0.000576 0.0
0.075130 0.631945 -0.000834 0.0
2.507468 1.398576 -0.003048 0.0
2.422291 1.308350 0.001041 0.0
2.457888 1.692138 0.001481 0.0
3.607048 1.208751 0.007172 0.0
2.713316 0.713300 0.000146 0.0
0.091561 0.620573 0.000066 0.0
2.216934 2.166435 0.001293 0.0
3.623964 0.902810 -0.000635 0.0
0.802672 0.055060 -0.003557 0.0
0.276669 0.642073 -0.001651 0.0
2.804448 1.676603 -0.001515 0.0
2.985902 0.771929 0.002488 0.0
1.539739 2.367863 -0.000119 0.0
0.887306 1.507474 -0.003355 0.0
1.218777 1.510770 0.000568 0.0
0.041471 2.396331 0.001930 0.0
3.355405 1.664687 0.001648 0.0
2.503822 1.474121 0.000465 0.0
2.080145 1.481017 0.000536 0.0
0.933187 1.134603 0.003258 0.0
3.250929 2.109849 -0.004836 0.0
2.799801 0.107450 0.002546 0.0
0.034148 1.832868 -0.001538 0.0
2.785468 0.436774 -0.006357 0.0
0.913336 0.044530 0.006317 0.0
0.951764 0.913102 0.001101 0.0
2.917803 0.328233 0.002691 0.0
3.910713 1.299201 -0.000039 0.0
0.002025 1.567119 0.000101 0.0
1.131053 2.063151 -0.001341 0.0
1.003246 1.705696 0.001857 0.0
1.281050 0.987120 -0.000624 0.0
2.807465 1.686683 0.002922 0.0
2.021802 1.389834 -0.000180 0.0
0.594809 1.420587 -0.000805 0.0
1.094784 0.504952 0.000070 0.0
2.025667 0.031296 0.003488 0.0
3.880745 1.339455 -0.005112 0.0
3.698019 0.430270 -0.000327 0.0
2.144137 2.284379 0.002002 0.0
1.577683 0.095098 0.002549 0.0
0.043338 0.026982 0.000217 0.0
2.144559 0.229190 -0.002700 0.0
1.623098 0.408340 0.002425 0.0
0.705681 2.152172 0.002182 0.0
2.874172 2.444680 0.001504 0.0
0.877323 0.796412 -0.001947 0.0
3.254969 0.666463 0.000214 0.0
2.296952 1.135058 -0.001491 0.0
2.001593 1.828316 0.002023 0.0
2.915499 1.333457 0.002472 0.0
0.440362 2.476708 0.002591 0.0
1.385293 1.155063 -0.000623 0.0
2.954201 1.938370 -0.003258 0.0
2.394178 0.935825 0.001513 0.0
1.414043 0.145555 0.002865 0.0
0.227380 1.850508 0.000376 0.0
3.084153 2.056241 0.002837 0.0
0.301813 0.685575 0.000571 0.0
3.915845 1.375769 -0.000953 0.0
3.873577 0.553435 -0.001127 0.0
2.646475 2.308921 0.002611 0.0
2.361577 2.020110 0.002851 0.0
3.925667 1.290284 0.003709 0.0
3.727855 0.341714 -0.003290 0.0
3.621374 1.494241 -0.000679 0.0
2.066189 1.689544 -0.001948 0.0
2.094960 0.122347 -0.000121 0.0
1.119226 0.921707 -0.003524 0.0
1.377276 1.136862 0.001206 0.0
2.431449 1.049454 0.003978 0.0
3.942018 0.535958 0.000297 0.0
2.075888 0.648683 0.001145 0.0
0.530764 0.723658 0.000782 0.0
1.199797 1.860705 -0.000419 0.0
0.875939 1.708031 0.002570 0.0
1.478342 1.169909 0.004077 0.0
1.935208 2.035617 0.002076 0.0
3.957307 1.597590 0.001002 0.0
1.862016 0.165290 0.004256 0.0
3.381941 0.594726 -0.001844 0.0
3.559981 1.366454 -0.002006 0.0
1.235262 1.168954 0.000418 0.0
1.204104 0.589423 -0.000814 0.0
2.326656 1.458186 0.002192 0.0
2.678780 1.913745 -0.001122 0.0
0.791172 1.688113 -0.001485 0.0
2.204570 0.675354 0.003047 0.0
2.305646 1.651509 -0.003576 0.0
0.144666 0.297525 -0.006964 0.0
2.162874 1.527800 0.000291 0.0
3.909379 0.551139 0.000495 0.0
0.649547 0.545714 0.003369 0.0
1.217997 1.064445 0.000759 0.0
0.794347 0.432606 -0.003611 0.0
2.280493 1.190513 -0.001634 0.0
1.720016 0.631586 0.000218 0.0
3.661259 2.073259 -0.007034 0.0
0.543690 2.329283 0.000593 0.0
0.660523 0.247954 -0.000644 0.0
1.989447 1.461416 0.001747 0.0
2.384019 0.279982 -0.002942 0.0
2.313237 0.057830 0.001152 0.0
3.322596 1.199813 -0.000295 0.0
3.893275 0.865823 -0.001246 0.0
0.815055 2.039243 -0.001054 0.0
2.884968 2.006366 0.000813 0.0
0.028287 1.772759 0.000575 0.0
1.294874 0.855619 -0.003585 0.0
0.306660 0.506551 -0.004480 0.0
0.360073 0.260037 -0.001924 0.0
1.739691 0.584020 0.000414 0.0
1.493481 1.476716 -0.003772 0.0
2.227385 0.278622 0.001225 0.0
1.582306 0.998537 -0.000487 0.0
2.305733 0.836772 -0.000570 0.0
3.600005 2.180963 0.001152 0.0
0.112775 2.329996 -0.000359 0.0
3.347719 0.914210 0.001135 0.0
0.930015 2.206942 0.000634 0.0
1.353582 0.791131 0.004260 0.0
1.918492 0.847788 0.000512 0.0
0.294985 1.879552 -0.001413 0.0
3.145174 1.671762 -0.001380 0.0
1.796143 2.454247 0.001499 0.0
3.727172 1.973960 -0.003132 0.0
2.762195 2.443474 0.003574 0.0
4.025846 0.774693 0.004130 0.0
0.301606 0.604889 0.001627 0.0
0.678660 2.015734 -0.002699 0.0
1.083546 1.004738 -0.000922 0.0
2.931414 0.311992 -0.005592 0.0
2.984554 0.082598 -0.000101 0.0
1.305568 1.504134 0.003240 0.0
0.654676 0.210127 0.001369 0.0
2.604033 0.007470 0.002111 0.0
3.846201 1.605224 -0.005788 0.0
3.270231 1.987212 -0.006162 0.0
1.433322 1.920574 -0.001431 0.0
1.441669 1.001362 -0.001198 0.0
3.241514 2.454350 -0.002660 0.0
3.528641 1.639303 0.002487 0.0
2.235485 1.249139 0.002689 0.0
1.941402 1.769098 0.001478 0.0
1.381239 2.319152 -0.002927 0.0
3.948567 1.470889 0.002480 0.0
1.841997 1.327824 -0.002236 0.0
1.767988 1.072477 -0.003953 0.0
2.015802 1.225329 0.000924 0.0
1.995432 0.729753 0.001460 0.0
3.347494 0.545276 0.000040 0.0
0.575247 2.282500 -0.000653 0.0
1.277413 1.369777 0.001393 0.0
3.631761 0.090676 -0.001960 0.0
2.281230 0.606291 -0.003386 0.0
3.231981 0.688183 0.004215 0.0
3.610045 1.747949 -0.004469 0.0
2.541836 2.228627 -0.004493 0.0
1.134922 1.224350 -0.005428 0.0
3.143379 1.396859 -0.000689 0.0
3.510998 1.561765 0.002919 0.0
3.726941 0.405202 0.003066 0.0
0.206095 1.654994 0.003215 0.0
0.990191 0.458414 -0.003164 0.0
1.919629 0.063975 -0.002608 0.0
1.498584 0.862380 -0.002030 0.0
3.699038 1.068530 0.000865 0.0
3.161335 2.030534 0.000136 0.0
0.927034 0.897086 -0.001704 0.0
1.896998 2.052253 -0.000583 0.0
3.853737 2.480870 -0.006267 0.0
0.842379 0.889556 0.002292 0.0
3.704391 1.450440 0.003111 0.0
0.278029 0.393755 -0.002472 0.0
1.253691 1.297248 -0.001002 0.0
1.193608 1.814640 0.000814 0.0
1.097031 0.483615 0.000696 0.0
1.429424 0.216730 -0.003925 0.0
3.869826 0.042584 -0.004423 0.0
0.538399 0.652976 -0.007004 0.0
1.009841 1.733917 0.002036 0.0
3.911568 2.153774 0.000522 0.0
0.938935 1.043547 -0.003613 0.0
3.883220 1.802239 -0.000164 0.0
3.594807 1.541672 -0.004853 0.0
1.702461 1.889439 -0.001608 0.0
3.035573 1.095215 0.000943 0.0
1.715464 0.672402 0.002049 0.0
0.183139 2.109489 -0.001270 0.0
2.112547 0.037711 0.000121 0.0
1.580179 0.563490 0.005834 0.0
3.753158 1.179510 -0.002962 0.0
0.073676 0.014904 -0.004865 0.0
2.748798 1.463583 0.002378 0.0
1.557629 0.707453 0.003777 0.0
3.329299 0.671087 -0.006803 0.0
1.698136 1.839230 0.002037 0.0
3.818358 0.917093 0.003213 0.0
2.432457 0.197121 -0.001669 0.0
1.539603 0.321561 0.001852 0.0
3.505883 0.155737 -0.000807 0.0
1.231656 0.934703 -0.003792 0.0
0.788941 0.397556 -0.001277 0.0
3.681071 0.796113 -0.002447 0.0
1.364643 2.315897 -0.000265 0.0
2.704145 1.934553 -0.003619 0.0
1.447894 1.192483 0.001814 0.0
3.527884 1.633274 0.001300 0.0
1.261359 0.056491 0.000512 0.0
1.424116 0.010994 -0.000068 0.0
1.179002 1.909998 0.002231 0.0
1.493703 0.371039 0.004985 0.0
1.275212 0.719543 0.000536 0.0
0.539669 1.958619 0.000525 0.0
3.565895 1.023994 0.001414 0.0
2.982401 0.964911 0.002077 0.0
2.441418 2.104609 -0.000576 0.0
3.024139 0.672774 -0.001319 0.0
1.916309 2.366899 -0.002567 0.0
3.573465 1.222667 -0.001984 0.0
1.678103 0.444089 0.001240 0.0
2.893629 2.226478 0.001700 0.0
1.043448 1.395338 -0.000875 0.0
0.171673 0.654775 0.002500 0.0
2.539156 0.299173 -0.000919 0.0
3.218207 0.340811 0.000581 0.0
1.118330 1.349650 0.005202 0.0
2.276099 2.033726 0.003940 0.0
0.835729 1.438244 0.001064 0.0
1.640557 0.219102 0.003392 0.0
3.589903 2.134167 -0.008166 0.0
0.373771 1.872985 -0.000133 0.0
0.867972 2.136337 0.002365 0.0
1.696242 1.815025 -0.002232 0.0
1.274872 1.204266 0.000132 0.0
1.134334 0.771194 -0.002246 0.0
3.241178 2.403958 0.000727 0.0
0.534470 0.177978 0.000808 0.0
3.825541 0.199254 0.001154 0.0
3.338910 1.018672 0.000146 0.0
3.512180 0.266481 -0.000235 0.0
0.481453 1.040287 -0.000728 0.0
2.118327 2.072835 0.004448 0.0
3.086925 0.862823 0.001704 0.0
1.879412 1.956426 -0.003475 0.0
3.585033 0.308761 0.001983 0.0
0.433850 2.254602 -0.002494 0.0
2.016220 1.845975 -0.001911 0.0
3.536489 1.129326 0.000781 0.0
3.404230 2.438254 -0.001983 0.0
3.944053 1.927472 -0.001814 0.0
3.733743 0.425564 -0.002985 0.0
2.353349 1.549032 0.005552 0.0
2.986140 0.227247 0.000454 0.0
3.674668 1.392620 0.001997 0.0
3.318985 0.913772 0.001001 0.0
1.366784 1.335027 0.005016 0.0
3.007014 2.309619 0.002954 0.0
0.833433 1.681312 -0.002683 0.0
1.517436 0.367031 0.000142 0.0
3.751035 0.643694 0.003603 0.0
2.570169 2.398052 0.007981 0.0
3.304099 1.680557 -0.000094 0.0
2.389542 1.543502 -0.000962 0.0
2.441932 1.034492 -0.001497 0.0
0.319395 0.168605 0.002057 0.0
2.625991 2.447943 0.003580 0.0
1.007165 2.381794 -0.002848 0.0
2.844923 1.961423 0.000329 0.0
0.401733 0.167795 -0.000713 0.0
1.770048 0.324546 0.000398 0.0
3.030681 1.308108 -0.000947 0.0
2.884750 2.466610 0.002916 0.0
1.662482 0.425918 -0.000900 0.0
2.153757 2.451212 0.000623 0.0
3.870884 2.419042 -0.001370 0.0
3.559020 0.812499 -0.000588 0.0
2.515903 1.398481 -0.001212 0.0
1.278111 1.422426 -0.005279 0.0
3.183474 1.927707 0.002300 0.0
0.496990 1.715930 0.002559 0.0
0.343491 0.513467 -0.005378 0.0
1.180165 1.509113 -0.000897 0.0
0.002403 0.106555 -0.004015 0.0
3.440750 2.145754 -0.001176 0.0
2.556547 0.339382 -0.004713 0.0
0.856824 2.186631 0.001268 0.0
1.651173 0.409446 0.001976 0.0
0.367919 0.151806 0.000430 0.0
3.347859 0.755084 0.000767 0.0
1.718389 1.090569 0.001779 0.0
3.256325 0.772659 -0.001319 0.0
2.234929 0.328662 -0.000096 0.0
2.911574 2.171490 0.000162 0.0
2.009555 0.866248 -0.002009 0.0
2.029465 1.238357 -0.000195 0.0
0.645601 2.006678 0.001759 0.0
1.732981 1.853130 0.000335 0.0
0.327282 1.142140 -0.001292 0.0
2.994968 0.996818 -0.003017 0.0
3.258557 1.173523 0.002352 0.0
0.120741 1.816338 0.000742 0.0
0.963296 2.008207 -0.001776 0.0
1.710121 1.942481 0.006126 0.0
3.601344 1.338281 0.004074 0.0
3.388651 1.375174 0.001023 0.0
2.595463 1.865016 -0.001366 0.0
0.013057 0.820937 -0.002451 0.0
0.554158 2.452670 0.000695 0.0
0.331450 2.200403 -0.001869 0.0
1.609591 0.601898 0.002838 0.0
1.243306 0.342482 0.004162 0.0
2.885019 1.949465 -0.001782 0.0
0.339715 1.630294 0.004218 0.0
1.918041 2.244334 -0.000277 0.0
1.949313 1.598586 0.002714 0.0
0.015996 2.329083 0.003436 0.0
0.052605 0.557559 0.000084 0.0
3.372025 1.967802 0.001086 0.0
2.642687 2.253142 -0.002080 0.0
0.167670 1.379597 0.000178 0.0
1.733624 0.546896 -0.002914 0.0
3.129113 2.050253 0.001828 0.0
1.412235 1.220591 -0.002118 0.0
3.144781 1.521949 -0.000347 0.0
1.762181 0.564463 0.000103 0.0
0.913864 0.040322 -0.002365 0.0
2.047557 2.373119 -0.000559 0.0
3.079337 2.361550 -0.004450 0.0
1.965733 0.570372 0.001222 0.0
2.503683 0.702343 -0.001632 0.0
0.099604 1.867363 -0.002087 0.0
2.175966 0.205894 -0.002116 0.0
0.974256 2.411049 0.002595 0.0
0.762803 0.067925 -0.000516 0.0
0.785702 1.751094 -0.002714 0.0
0.499964 0.254716 0.002308 0.0
2.313427 1.450402 0.000939 0.0
0.105872 1.599858 0.006016 0.0
2.004829 1.840293 0.005885 0.0
1.915747 1.171035 -0.002242 0.0
2.170532 0.605818 0.005154 0.0
3.476349 1.111645 -0.001913 0.0
0.675639 0.058910 -0.003094 0.0
1.082074 1.593090 -0.005476 0.0
1.947434 1.774265 0.000446 0.0
0.609902 1.316103 -0.000720 0.0
1.288944 1.495722 -0.000026 0.0
2.857669 2.046528 -0.001366 0.0
0.731318 0.528283 -0.000950 0.0
2.413749 0.466954 0.000246 0.0
1.460567 1.250945 -0.003481 0.0
2.344874 0.497976 0.002253 0.0
2.865730 0.875833 0.001506 0.0
1.591398 1.114160 -0.001687 0.0
0.916357 1.002181 -0.004996 0.0
1.411792 1.106682 0.001416 0.0
1.171071 0.568801 -0.004430 0.0
0.019554 0.756947 0.003937 0.0
0.903433 1.435876 0.006691 0.0
2.776106 0.313133 -0.000950 0.0
0.800223 0.118812 0.002884 0.0
3.184816 0.528208 0.002327 0.0
2.047982 1.632961 0.002356 0.0
1.131959 0.696507 -0.000902 0.0
0.530468 0.705997 -0.001354 0.0
1.611135 0.622789 0.002076 0.0
1.952997 0.910798 -0.002439 0.0
0.400766 1.714308 -0.004659 0.0
1.022172 2.340374 -0.005674 0.0
1.336170 1.883235 -0.002519 0.0
1.749244 0.571101 -0.002430 0.0
3.791870 0.847186 0.003703 0.0
2.079211 1.851089 -0.000150 0.0
0.952368 1.685954 -0.002260 0.0
0.291415 1.127882 0.002635 0.0
0.231062 0.982267 -0.001898 0.0
0.494867 0.401258 0.000237 0.0
0.252537 0.541098 0.001055 0.0
2.867225 0.498770 -0.003800 0.0
0.295691 0.787426 0.001115 0.0
3.172756 1.624218 0.002134 0.0
1.336219 0.091213 0.001216 0.0
3.113081 1.937719 0.000361 0.0
3.052586 1.997920 0.000649 0.0
2.529452 0.382371 0.000543 0.0
1.453746 0.137104 -0.000898 0.0
0.144756 0.361087 0.000851 0.0
3.365696 1.727138 0.002610 0.0
2.525601 2.337290 -0.001275 0.0
0.041154 1.649602 0.000625 0.0
3.698510 2.053719 -0.001556 0.0
0.201939 0.247060 0.003981 0.0
2.508658 0.029291 -0.002293 0.0
3.628221 2.018362 0.002010 0.0
0.280900 2.213757 0.002231 0.0
0.569020 1.202684 0.000247 0.0
0.612630 0.345948 -0.000193 0.0
3.910036 1.088142 0.001999 0.0
3.417389 2.224298 0.001891 0.0
3.041001 1.419499 0.000477 0.0
2.202844 1.052730 0.005174 0.0
3.508982 1.212402 -0.003500 0.0
2.768837 1.747585 -0.001739 0.0
2.228836 1.376891 0.001273 0.0
0.207954 0.212322 -0.000643 0.0
0.792285 2.034706 0.001456 0.0
1.915217 0.519248 0.001753 0.0
1.437609 1.388188 0.002458 0.0
1.703276 1.138179 -0.002594 0.0
3.396240 0.166987 -0.003048 0.0
2.164329 1.725891 -0.003530 0.0
1.995710 1.727170 0.000746 0.0
1.561848 1.092378 0.003044 0.0
0.681047 0.190506 0.001513 0.0
0.753350 1.569620 0.002996 0.0
2.119858 0.414271 0.001516 0.0
3.366858 0.865328 -0.000102 0.0
3.751467 1.966538 0.001173 0.0
2.803118 1.940347 -0.001298 0.0
3.796770 1.842981 -0.001223 0.0
2.918552 2.146243 0.001603 0.0
2.635998 0.387309 -0.002232 0.0
1.029317 1.440091 -0.002859 0.0
2.044949 0.425890 0.000030 0.0
0.241217 2.259222 0.002301 0.0
2.090776 2.265775 0.002070 0.0
0.894336 1.410185 0.000012 0.0
1.938968 0.957336 -0.002138 0.0
2.349796 1.381722 -0.001294 0.0
2.941224 0.582068 0.005191 0.0
0.830652 1.604180 -0.000840 0.0
0.705606 1.299395 -0.000588 0.0
2.213644 0.871255 0.001447 0.0
2.344789 0.410375 -0.003386 0.0
1.588203 1.707821 0.000586 0.0
0.880087 2.012128 -0.001133 0.0
3.637132 1.325971 -0.000296 0.0
0.977751 2.068826 -0.000131 0.0
0.529044 1.850320 0.001132 0.0
3.731063 1.819394 -0.003005 0.0
3.704908 2.473525 -0.004598 0.0
3.261906 0.969392 -0.000652 0.0
1.146069 0.179789 0.004578 0.0
3.370392 1.146195 0.002093 0.0
2.157708 0.690284 -0.000203 0.0
3.687570 2.386164 0.000214 0.0
1.794958 2.479969 -0.000284 0.0
1.731780 1.546484 0.000695 0.0
3.070699 1.717525 -0.001543 0.0
1.879594 1.955183 0.001645 0.0
1.069830 2.204731 -0.002046 0.0
3.924874 0.770394 0.003143 0.0
0.504507 1.063224 0.002052 0.0
0.677318 1.135932 -0.001568 0.0
3.684009 2.335304 -0.004387 0.0
1.707740 0.123550 0.002061 0.0
3.450019 1.099934 -0.000569 0.0
1.839957 1.776929 -0.001165 0.0
3.959680 0.736070 -0.000683 0.0
3.691655 1.342061 0.006722 0.0
3.515625 1.299058 0.002691 0.0
2.370645 0.901000 0.000288 0.0
3.350805 0.215110 -0.002151 0.0
3.460736 1.817644 -0.000263 0.0
2.935252 0.002736 0.000041 0.0
3.500124 1.113792 0.000997 0.0
3.039237 1.374518 0.003552 0.0
0.760879 2.080170 0.004316 0.0
3.384973 0.346446 -0.001155 0.0
1.019110 2.146716 -0.001293 0.0
3.213817 0.543000 0.003013 0.0
3.641672 1.474927 -0.000701 0.0
2.632589 2.194988 0.000642 0.0
2.136079 1.069814 0.000496 0.0
0.628937 2.421607 -0.004506 0.0
0.227548 1.111187 0.001916 0.0
3.243713 2.175549 -0.001358 0.0
2.115682 0.827768 -0.000617 0.0
3.579443 2.390345 0.001175 0.0
3.988111 0.595150 0.001283 0.0
0.824772 0.187489 0.000006 0.0
1.889356 2.048315 0.000010 0.0
1.738904 2.163601 0.000425 0.0
0.656766 2.291239 0.000162 0.0
2.441470 0.163690 -0.000736 0.0
1.119501 2.008451 -0.004116 0.0
0.803736 1.961012 -0.001854 0.0
1.237765 1.751808 -0.000643 0.0
2.697649 0.141954 0.003495 0.0
2.934078 0.996065 0.000667 0.0
1.889725 2.129504 -0.003509 0.0
1.866486 0.824784 -0.003096 0.0
0.318436 0.884481 -0.000636 0.0
3.647334 2.180422 -0.002549 0.0
2.542302 1.747933 -0.002061 0.0
1.867441 2.370477 0.000474 0.0
3.681829 1.235013 -0.000385 0.0
0.851724 1.276879 -0.000844 0.0
1.902847 0.651327 -0.001319 0.0
1.927417 0.657345 0.002088 0.0
0.027278 1.779489 -0.000419 0.0
0.711337 1.696935 -0.003619 0.0
2.921222 0.692666 0.003229 0.0
3.505752 0.730063 0.002575 0.0
0.159760 0.795053 -0.000378 0.0
3.559203 0.688616 0.000840 0.0
1.506561 1.622142 0.003582 0.0
1.955642 1.881203 -0.003483 0.0
1.109997 1.400309 -0.000519 0.0
2.809406 0.930248 -0.000874 0.0
0.710619 1.782012 -0.003057 0.0
0.582942 2.245819 -0.001687 0.0
0.410864 0.027709 0.002150 0.0
1.546160 2.332116 0.000842 0.0
1.622329 0.920415 0.006817 0.0
2.794472 0.271076 0.000520 0.0
3.288390 1.121731 0.000778 0.0
3.114522 1.505257 -0.000398 0.0
3.717173 1.949398 -0.002427 0.0
1.368904 1.950977 -0.000005 0.0
1.473706 0.759306 -0.002288 0.0
1.510634 0.326789 -0.004822 0.0
0.256997 0.357660 0.003052 0.0
1.504298 0.410060 0.005363 0.0
0.919723 1.715118 0.002745 0.0
1.470710 0.217384 0.004557 0.0
3.898968 2.026953 0.001110 0.0
0.015315 1.119337 -0.000577 0.0
1.051323 0.858566 -0.002911 0.0
3.046778 1.589776 0.000329 0.0
0.925852 0.286623 -0.003401 0.0
0.901777 0.891824 0.000500 0.0
0.512661 1.058847 0.001672 0.0
4.027743 0.426215 0.003546 0.0
3.824875 1.576889 -0.000429 0.0
0.227629 0.847698 0.003612 0.0
2.401464 0.250409 -0.002954 0.0
2.830470 2.138951 -0.000810 0.0
1.432402 0.343629 0.004619 0.0
3.736576 1.883327 -0.001008 0.0
2.789181 0.337429 -0.000667 0.0
3.931175 0.062692 -0.000066 0.0
0.899665 1.409006 -0.001995 0.0
2.730584 1.479264 -0.002227 0.0
1.162513 2.433550 -0.000583 0.0
2.587383 0.590303 0.004990 0.0
2.596452 0.193023 0.000725 0.0
3.087698 0.205291 -0.001936 0.0
3.106131 0.716072 -0.001748 0.0
3.195416 1.549413 0.001975 0.0
1.668653 0.008698 0.001173 0.0
0.798660 2.044512 0.001019 0.0
2.912717 0.025107 0.003710 0.0
0.518215 1.711800 0.002110 0.0
1.700767 1.701648 0.002581 0.0
2.664795 1.002979 0.002527 0.0
0.038630 1.936592 0.000983 0.0
3.065476 1.970204 0.001312 0.0
3.998977 1.608615 0.001872 0.0
0.599322 1.133256 -0.000793 0.0
1.260161 1.624416 -0.001484 0.0
2.424170 1.679765 -0.000807 0.0
2.238816 0.986725 -0.001162 0.0
3.193200 0.029148 -0.001259 0.0
1.849131 0.387232 -0.002633 0.0
3.852487 1.294530 -0.000815 0.0
3.822685 0.412385 0.001216 0.0
0.508621 0.242600 -0.003348 0.0
3.806014 0.765965 0.001829 0.0
3.880932 0.628426 0.002659 0.0
1.063875 0.901280 0.003251 0.0
3.263189 1.081029 -0.000113 0.0
0.553745 2.446594 -0.003886 0.0
0.216186 0.233644 0.001999 0.0
2.004920 1.361691 -0.000902 0.0
3.456178 2.359958 0.000238 0.0
3.362035 0.373014 -0.001430 0.0
0.040502 1.196460 -0.000288 0.0
3.948370 1.237564 -0.002283 0.0
3.509382 0.543715 -0.000901 0.0
2.908411 2.390114 -0.003662 0.0
3.225650 1.055706 -0.001318 0.0
2.627201 0.429732 -0.001981 0.0
1.252716 0.293963 0.001484 0.0
0.721375 1.130513 0.000305 0.0
3.293719 1.199691 0.001504 0.0
0.453482 1.161631 0.004171 0.0
3.135559 1.539236 -0.000705 0.0
0.769439 2.233258 -0.002300 0.0
3.157410 1.477545 -0.008771 0.0
1.954964 0.433471 0.000784 0.0
0.163182 1.809459 -0.000743 0.0
3.256216 1.091236 -0.001318 0.0
1.361373 2.128783 0.003292 0.0
3.356279 0.371047 0.003137 0.0
0.375750 0.099048 0.000403 0.0
0.974282 0.392133 0.001385 0.0
3.502042 1.932149 0.005099 0.0
0.999789 0.041900 0.001707 0.0
1.749165 0.007242 -0.001331 0.0
1.389072 1.059286 0.001570 0.0
3.823959 0.982296 -0.000880 0.0
1.506651 0.845177 0.000039 0.0
