0.592965 0.891361 -0.001753 0.0
0.351890 0.514795 0.000810 0.0
3.134363 1.958738 0.001220 0.0
2.792377 1.825887 -0.000818 0.0
3.695830 1.251440 0.002383 0.0
3.474966 1.222655 0.000678 0.0
1.073960 0.845490 0.004003 0.0
2.637010 0.418433 0.003319 0.0
3.747638 1.186699 -0.000826 0.0
1.291125 0.746497 0.001267 0.0
1.465381 0.286821 -0.000911 0.0
1.347992 0.378252 0.000158 0.0
3.440793 1.980341 -0.002118 0.0
3.567939 0.201235 0.000015 0.0
3.676451 0.401868 0.001009 0.0
3.621292 0.472811 0.006195 0.0
3.319143 0.172738 0.004965 0.0
0.829013 0.759792 0.005055 0.0
1.245885 1.197269 -0.000375 0.0
0.203199 1.460473 0.003070 0.0
0.900116 2.029855 -0.005357 0.0
1.121758 0.599429 -0.000319 0.0
1.178760 2.158442 0.002395 0.0
1.289712 0.759290 0.004781 0.0
3.618149 1.585883 -0.000040 0.0
3.102829 0.798288 0.001446 0.0
0.049600 1.115814 0.003464 0.0
0.270924 1.602659 0.004151 0.0
3.586065 2.095550 -0.003633 0.0
1.422902 2.121024 0.005308 0.0
2.058164 0.762983 -0.003072 0.0
0.878937 0.693963 -0.000000 0.0
3.114686 0.093577 0.002210 0.0
3.870393 0.601676 -0.000733 0.0
1.020952 1.039571 0.001671 0.0
3.004075 1.210218 0.001212 0.0
3.050540 1.124023 -0.001695 0.0
3.204602 1.031374 -0.005068 0.0
0.025860 0.915469 -0.001425 0.0
1.917810 1.087011 0.001711 0.0
2.119735 1.226517 -0.002886 0.0
2.450216 0.246725 -0.001411 0.0
3.126484 0.392909 0.003156 0.0
0.316740 1.409435 -0.000973 0.0
1.085804 1.173599 0.002594 0.0
2.686936 0.699235 0.003426 0.0
3.132091 2.189925 -0.003669 0.0
2.817979 1.151957 -0.001207 0.0
2.971093 0.305804 0.002195 0.0
2.963843 0.799015 0.001024 0.0
3.003086 0.630144 0.005473 0.0
3.454953 1.793785 0.002006 0.0
2.853156 0.333698 0.002972 0.0
2.941357 1.920904 -0.002497 0.0
2.980691 1.594347 -0.002329 0.0
1.402709 0.372544 0.001692 0.0
1.190470 0.741027 -0.001452 0.0
3.170285 1.698582 -0.006054 0.0
3.310442 0.701552 0.000188 0.0
0.410708 1.490395 0.003962 0.0
3.921349 1.414743 0.002343 0.0
2.107439 0.831234 -0.003733 0.0
2.786199 0.350310 -0.000590 0.0
3.659156 0.937851 0.003377 0.0
3.120658 0.559625 0.002913 0.0
2.557777 1.985144 -0.001875 0.0
3.327358 1.676024 -0.000196 0.0
3.354545 0.029204 -0.002487 0.0
0.272996 1.248661 -0.001477 0.0
1.049237 0.096101 0.002619 0.0
1.782357 0.189645 -0.004646 0.0
0.042969 1.405601 -0.000243 0.0
2.987085 1.038674 -0.002446 0.0
2.482636 2.034871 -0.001556 0.0
0.542832 1.868341 -0.000995 0.0
0.083745 0.383902 0.000635 0.0
0.386035 0.992166 0.002226 0.0
1.485224 1.923253 -0.001236 0.0
2.709362 1.951419 0.001478 0.0
2.978198 1.857722 0.003003 0.0
1.844223 0.482477 -0.002809 0.0
1.002146 2.070604 -0.001549 0.0
2.036236 0.731384 0.002124 0.0
3.903446 0.544458 -0.002194 0.0
0.449668 0.507077 -0.000170 0.0
2.276578 0.907080 -0.001247 0.0
1.943737 2.105127 0.000321 0.0
1.712519 1.404003 0.001274 0.0
2.306717 2.003149 -0.002070 0.0
1.834748 0.493311 -0.000873 0.0
0.076935 0.550543 0.001805 0.0
1.053953 0.313683 -0.001619 0.0
2.280511 1.135165 -0.001251 0.0
3.464712 1.052086 -0.002036 0.0
3.900509 1.703094 -0.000792 0.0
2.498725 1.790092 -0.001861 0.0
1.529299 0.998640 -0.002201 0.0
0.370280 0.204730 0.000746 0.0
1.919186 1.389689 -0.000798 0.0
3.740709 0.974200 0.001403 0.0
3.291552 0.318688 -0.003018 0.0
1.700692 1.228197 -0.003025 0.0
0.536481 0.540594 -0.001596 0.0
0.339905 1.911910 0.004232 0.0
0.151600 1.734631 -0.000055 0.0
1.655571 0.587651 -0.000547 0.0
4.001100 1.285723 0.005065 0.0
0.281597 0.696785 0.000064 0.0
3.542340 1.245945 -0.003246 0.0
0.383055 0.072251 -0.000304 0.0
2.089437 2.168132 0.000533 0.0
0.271160 1.507972 -0.003084 0.0
3.044879 1.817701 -0.002254 0.0
1.717649 2.029454 -0.001769 0.0
3.213854 0.031156 0.002557 0.0
1.493120 0.129361 0.002531 0.0
1.396308 1.690422 0.002898 0.0
0.493999 0.761845 -0.002122 0.0
3.998198 1.810067 0.002899 0.0
1.495342 0.299288 0.002626 0.0
1.807227 0.201896 0.001028 0.0
2.093557 1.096667 -0.001322 0.0
1.017081 1.161784 0.004267 0.0
2.152561 1.218613 0.004298 0.0
2.490982 0.509291 0.005504 0.0
0.006456 0.914879 0.002333 0.0
1.980142 2.029122 -0.000727 0.0
0.906466 1.063906 0.001209 0.0
2.145406 0.567835 -0.001163 0.0
3.202153 1.987395 -0.002125 0.0
0.745368 0.268133 -0.000558 0.0
2.430967 -0.000260 0.000861 0.0
2.614802 1.975849 -0.002024 0.0
1.813797 1.104235 -0.001481 0.0
3.844303 0.818581 0.001936 0.0
0.889424 0.058082 -0.002478 0.0
3.182225 1.296945 0.003805 0.0
2.086936 0.979391 0.005030 0.0
0.749805 0.355063 0.003135 0.0
3.590782 0.855974 -0.001599 0.0
2.442953 0.859031 -0.001548 0.0
0.947556 0.781866 0.000370 0.0
3.815588 0.381324 -0.001913 0.0
2.941323 0.279847 -0.000225 0.0
2.208371 0.538085 -0.000326 0.0
2.732251 1.589843 -0.003963 0.0
0.843524 1.557307 -0.000854 0.0
1.853164 0.406184 -0.000643 0.0
2.915696 1.368299 -0.000890 0.0
3.845682 2.073697 0.006357 0.0
3.084899 0.085666 -0.000006 0.0
0.360719 0.779341 0.000485 0.0
2.732993 1.927729 0.002588 0.0
2.879660 0.085398 -0.000144 0.0
2.272831 1.967539 -0.002634 0.0
0.271229 1.093893 -0.001452 0.0
3.288949 1.794450 -0.003404 0.0
3.327965 1.762899 -0.001008 0.0
1.243076 0.058334 0.004783 0.0
2.697843 2.178451 -0.003355 0.0
1.345954 0.573974 0.002939 0.0
0.064705 2.089100 0.001474 0.0
0.376100 0.182918 0.000391 0.0
2.608207 1.920386 0.000852 0.0
3.335410 0.486892 -0.002853 0.0
1.028288 0.199863 -0.002404 0.0
1.295970 0.952645 0.004527 0.0
1.712021 1.077468 0.003650 0.0
2.366764 0.236108 0.001495 0.0
1.948664 1.316144 -0.003963 0.0
3.301000 0.161924 -0.000606 0.0
3.124038 0.201077 0.001482 0.0
1.823414 0.572956 -0.003731 0.0
0.467265 0.096740 0.002959 0.0
3.037294 0.131313 -0.002477 0.0
3.307667 1.488223 0.002945 0.0
1.868163 0.102354 -0.000482 0.0
3.824089 1.534743 0.000812 0.0
0.417598 0.338737 -0.000296 0.0
3.689397 0.722532 -0.000449 0.0
0.557104 0.424906 -0.002146 0.0
2.214433 1.892061 0.003516 0.0
2.697218 1.279873 -0.000700 0.0
2.308133 0.288473 0.000122 0.0
2.848809 1.786920 0.004083 0.0
1.259351 0.319298 0.000950 0.0
3.508590 1.162688 -0.001084 0.0
1.799460 0.536747 -0.000115 0.0
1.654623 1.151997 -0.004389 0.0
2.580140 2.046742 -0.003322 0.0
3.730483 1.744404 -0.003198 0.0
1.387038 0.072023 0.002934 0.0
2.397119 1.387553 -0.001762 0.0
2.840014 0.051846 0.000822 0.0
1.493657 0.570597 -0.001869 0.0
2.648640 0.194886 -0.001162 0.0
3.619760 0.524912 0.003686 0.0
3.165585 0.864435 0.001492 0.0
2.843626 0.743567 -0.001420 0.0
0.150161 1.186286 0.002373 0.0
0.449378 0.314180 0.002855 0.0
0.207390 0.831986 -0.002412 0.0
3.983662 1.307474 0.000629 0.0
1.457689 1.322050 -0.000311 0.0
1.238753 1.441696 0.001263 0.0
3.361905 0.153925 0.000003 0.0
0.839181 0.090186 0.002206 0.0
0.911786 1.606188 0.001883 0.0
2.551050 0.162875 -0.002353 0.0
0.955980 2.010757 -0.001628 0.0
3.090567 1.568233 0.003142 0.0
3.094159 0.917896 0.002187 0.0
0.473873 1.603356 0.002360 0.0
3.476398 1.565022 -0.000416 0.0
3.371323 1.742304 0.000911 0.0
3.575854 1.419177 -0.000345 0.0
3.663197 2.138860 0.000306 0.0
2.773396 0.053477 0.001208 0.0
1.280497 1.574806 -0.003724 0.0
2.054823 0.858433 -0.003375 0.0
3.840300 0.520285 0.000396 0.0
3.552380 1.051390 -0.003804 0.0
3.444949 2.086021 -0.001527 0.0
0.711327 1.791875 0.004090 0.0
2.724214 0.739187 0.000195 0.0
0.251130 0.635182 -0.002850 0.0
0.730755 0.630051 0.000490 0.0
0.960819 1.226215 -0.001168 0.0
3.348649 0.880026 0.002932 0.0
1.350278 2.119919 0.003772 0.0
2.013237 0.412335 0.000069 0.0
2.242493 0.228585 -0.001773 0.0
3.691939 0.499405 -0.002836 0.0
0.354595 0.378400 0.005035 0.0
1.591298 2.076562 0.001056 0.0
2.032923 0.192033 0.001500 0.0
0.924606 0.990127 -0.003230 0.0
1.464336 1.723166 0.000318 0.0
1.748789 2.093057 0.000141 0.0
0.591234 1.253126 0.001828 0.0
1.776958 0.090871 0.001663 0.0
1.470367 0.832882 -0.003121 0.0
2.828737 0.679996 -0.003455 0.0
2.031175 0.987180 -0.001150 0.0
2.670310 0.078635 -0.003428 0.0
3.708034 0.329252 0.002544 0.0
0.619785 1.412464 0.000642 0.0
0.139028 0.110923 0.002707 0.0
2.057795 0.317115 -0.001664 0.0
1.718519 0.841663 0.001427 0.0
2.108595 1.761546 -0.000439 0.0
1.933721 1.686633 0.001729 0.0
2.134557 1.730495 -0.000645 0.0
2.630244 0.588688 -0.002504 0.0
3.338963 1.675813 0.000010 0.0
0.143141 2.141526 0.002047 0.0
2.025500 1.611211 0.000128 0.0
1.035289 1.928859 0.005013 0.0
1.847871 0.090071 -0.002710 0.0
0.613575 1.816466 -0.001169 0.0
2.031292 0.429892 -0.000563 0.0
2.382788 1.673615 0.000303 0.0
3.176298 1.161233 -0.002411 0.0
3.302971 0.518233 -0.005848 0.0
2.329426 0.415484 -0.002670 0.0
3.043756 1.319464 -0.001391 0.0
3.904060 1.293808 -0.001735 0.0
3.440135 1.252134 -0.002197 0.0
1.343509 1.519973 0.002408 0.0
2.254948 0.483962 -0.000599 0.0
3.315912 0.933699 0.002208 0.0
3.084419 0.996529 0.002843 0.0
2.793900 0.477271 0.000448 0.0
0.718569 0.217326 -0.001011 0.0
3.004769 1.900859 0.000949 0.0
0.399393 1.294019 -0.003923 0.0
0.991685 0.452180 0.000917 0.0
3.840745 0.811029 0.001469 0.0
3.162945 1.212458 0.001677 0.0
3.170934 0.698497 -0.000387 0.0
0.298875 0.466644 0.001083 0.0
0.072364 0.524060 0.002459 0.0
1.261978 1.204409 0.004433 0.0
3.323866 0.374052 -0.000067 0.0
0.809328 0.727475 0.000070 0.0
3.606986 0.705385 -0.000983 0.0
0.833750 0.342600 -0.000263 0.0
3.847148 0.012786 0.002188 0.0
2.732960 1.212493 -0.003941 0.0
0.180020 1.416361 0.001971 0.0
3.673539 1.558601 -0.001545 0.0
3.527892 1.014577 -0.002064 0.0
1.793319 0.829480 0.003510 0.0
2.252288 1.400577 0.000071 0.0
1.992990 1.052102 0.000862 0.0
0.717286 0.445385 -0.004185 0.0
2.642862 2.161560 0.000644 0.0
1.610259 1.261509 -0.000752 0.0
0.664998 0.459632 0.003520 0.0
3.480364 0.540933 -0.002958 0.0
1.616984 0.117773 -0.001910 0.0
2.157667 0.205795 -0.002108 0.0
2.968673 1.567509 0.001556 0.0
2.663835 0.893316 0.000791 0.0
1.269793 0.936481 0.000601 0.0
2.317735 1.859249 0.000904 0.0
1.187627 0.467161 -0.000731 0.0
2.963393 0.307882 -0.002713 0.0
3.407190 0.671613 -0.001714 0.0
0.766935 1.031235 0.000659 0.0
0.865106 0.780361 0.000489 0.0
1.731526 0.563252 0.001820 0.0
3.174851 1.552837 0.001089 0.0
0.315214 1.521577 0.000277 0.0
1.017006 0.952236 -0.000737 0.0
2.415604 1.030793 -0.004244 0.0
3.128289 2.191237 0.001113 0.0
0.682059 1.048317 0.004954 0.0
2.928531 0.950904 0.000650 0.0
0.113024 0.379786 0.000509 0.0
0.568987 1.924778 0.003940 0.0
1.301296 0.721161 -0.001465 0.0
3.928821 0.148403 0.004685 0.0
1.176359 1.859637 -0.002546 0.0
2.088122 0.285918 -0.002614 0.0
1.704363 1.771088 0.004825 0.0
1.317471 0.794255 0.006057 0.0
1.823673 1.733749 -0.004432 0.0
0.398416 1.861037 0.003003 0.0
1.349908 0.722824 0.004118 0.0
1.807295 0.229239 0.003140 0.0
3.093920 1.534128 -0.004676 0.0
1.948622 1.670590 -0.004560 0.0
0.254234 0.149288 0.002210 0.0
2.434050 0.851101 0.003275 0.0
1.806358 0.243595 -0.001671 0.0
2.039737 1.057797 -0.000204 0.0
2.311785 0.140208 0.003304 0.0
1.936565 0.253765 -0.002986 0.0
2.836836 0.328194 -0.002802 0.0
1.360434 1.272786 -0.001486 0.0
0.167628 0.940735 0.000212 0.0
3.278504 1.827392 -0.000999 0.0
3.069987 1.338937 0.000755 0.0
0.472940 0.962940 -0.000454 0.0
3.749331 1.361721 -0.005858 0.0
1.308330 1.998951 -0.000370 0.0
2.004618 0.136794 0.001363 0.0
1.418011 0.913948 0.006566 0.0
1.233425 1.377187 -0.001282 0.0
0.515498 1.168232 -0.004256 0.0
3.355030 0.425828 -0.005788 0.0
3.086603 1.115731 0.000959 0.0
1.209498 1.707738 -0.001639 0.0
0.721730 1.977926 0.000155 0.0
0.793210 2.138183 -0.001290 0.0
3.356594 0.300721 -0.000626 0.0
1.818704 1.241966 0.000209 0.0
1.919418 1.614604 0.002594 0.0
0.360800 0.107925 0.003147 0.0
3.342337 0.234050 0.000385 0.0
3.779089 2.136624 0.000502 0.0
3.050037 0.348890 0.002156 0.0
1.750078 1.311779 0.002582 0.0
2.578727 0.516362 -0.000527 0.0
1.315074 1.410472 0.000094 0.0
1.957698 0.504426 -0.002370 0.0
0.246824 1.207783 -0.004477 0.0
2.412271 1.241918 -0.000005 0.0
3.788107 0.774853 0.001986 0.0
3.142318 0.370344 0.001554 0.0
1.167083 0.487199 0.003126 0.0
2.826320 1.314149 -0.001681 0.0
0.363708 1.349674 -0.001323 0.0
1.580424 0.665889 -0.001063 0.0
1.306219 1.477303 -0.003213 0.0
0.897804 1.877200 0.004951 0.0
3.921944 0.931351 -0.000623 0.0
0.085352 1.592155 -0.000527 0.0
1.977162 0.409053 -0.000616 0.0
2.050593 1.608513 0.002707 0.0
2.263050 1.743996 -0.003303 0.0
0.403776 1.357898 -0.000540 0.0
3.563510 1.845853 -0.002090 0.0
1.624663 1.416496 -0.001574 0.0
3.050245 1.532330 -0.003024 0.0
2.777898 0.012395 -0.005108 0.0
3.628466 1.687076 0.003459 0.0
1.885084 1.683690 -0.002702 0.0
1.259442 0.673120 0.001703 0.0
2.645329 0.524203 -0.001436 0.0
0.564580 1.585448 0.000733 0.0
0.215531 0.753987 -0.000069 0.0
2.445436 1.765229 0.003170 0.0
3.475808 0.715344 -0.003141 0.0
2.299094 1.071366 -0.000022 0.0
0.977236 1.468358 -0.000896 0.0
1.381417 0.620292 0.002695 0.0
1.961506 2.099395 0.002119 0.0
1.432593 0.682449 0.001151 0.0
0.038026 1.335432 0.000459 0.0
2.966768 0.783515 0.004568 0.0
1.908068 1.188606 -0.000193 0.0
2.947539 1.850690 -0.002754 0.0
0.492406 1.681924 -0.000230 0.0
3.186563 1.358385 -0.001287 0.0
0.895742 2.161764 0.002450 0.0
3.430348 1.308606 0.002101 0.0
3.536213 0.037626 -0.000044 0.0
0.389545 0.425562 0.000241 0.0
0.439300 0.368075 0.006367 0.0
1.752552 0.183012 -0.000014 0.0
0.665180 0.087939 0.001010 0.0
0.117287 0.456215 -0.005274 0.0
0.015339 1.777117 0.004212 0.0
2.274871 0.639450 0.004304 0.0
2.671609 0.885360 0.001431 0.0
0.613621 0.409966 -0.000675 0.0
1.499324 0.786442 -0.005411 0.0
1.326392 1.315330 0.002796 0.0
0.263559 0.124633 -0.002902 0.0
2.171490 0.359188 0.000523 0.0
3.742602 1.055644 0.000718 0.0
3.083156 0.214253 -0.002997 0.0
0.570573 0.315672 0.000354 0.0
0.622352 1.456033 0.000497 0.0
0.628689 0.771828 0.003918 0.0
3.076306 0.322096 0.000180 0.0
3.341572 1.637572 -0.000655 0.0
1.788217 0.704094 0.000727 0.0
0.311509 1.061378 0.001235 0.0
2.161965 1.406081 0.002884 0.0
1.528165 0.193217 0.001678 0.0
3.229156 2.047575 0.001711 0.0
2.831018 0.357384 -0.003274 0.0
0.703505 1.756029 0.000697 0.0
2.207911 0.939730 -0.001493 0.0
0.080071 1.151538 -0.000727 0.0
3.579280 0.543523 0.004168 0.0
0.494048 1.033483 -0.003404 0.0
2.552382 1.611048 0.000059 0.0
0.499687 1.364449 -0.000347 0.0
1.990799 0.995654 -0.000858 0.0
3.837966 2.094460 0.001198 0.0
0.132071 0.067141 -0.002684 0.0
2.869247 0.668426 0.000160 0.0
0.667018 2.151475 0.002108 0.0
3.101242 0.202795 0.000341 0.0
1.160489 1.837208 0.000949 0.0
1.541245 0.739908 0.002721 0.0
0.770769 2.029006 -0.000151 0.0
0.550936 0.738400 0.002617 0.0
0.899617 0.312711 0.002646 0.0
1.893647 0.089774 0.002890 0.0
0.368457 1.620746 0.003207 0.0
2.630482 1.213484 0.000375 0.0
0.211233 1.519113 -0.001176 0.0
1.779241 1.195836 -0.000306 0.0
2.013617 0.151017 0.003594 0.0
0.273910 1.091325 0.001351 0.0
0.490247 0.435622 0.000364 0.0
3.070268 1.033143 0.003536 0.0
2.071190 1.122752 0.003471 0.0
0.180659 1.368825 0.003157 0.0
1.916471 0.822163 -0.000589 0.0
2.495981 0.501198 0.004349 0.0
2.389194 1.883400 -0.000434 0.0
2.223146 1.365198 -0.000820 0.0
0.450293 1.956102 -0.000810 0.0
0.958749 0.458591 -0.002281 0.0
0.488290 1.332115 -0.003549 0.0
0.471691 1.588372 -0.003603 0.0
2.614372 1.054679 -0.004202 0.0
0.618667 1.798797 -0.002762 0.0
0.356829 1.574568 0.002276 0.0
2.841077 1.717724 0.005098 0.0
0.992639 0.046524 0.000294 0.0
1.842887 0.206470 -0.001013 0.0
0.475929 1.778687 -0.002374 0.0
2.534171 2.126048 0.001133 0.0
0.952510 1.661482 -0.000224 0.0
1.104627 1.247919 0.000560 0.0
1.980340 1.562820 0.000941 0.0
1.074710 1.352939 0.000690 0.0
1.751662 2.012434 -0.000647 0.0
2.195488 1.868688 -0.000499 0.0
0.426568 1.677490 0.000814 0.0
2.927722 1.263804 -0.001028 0.0
2.438905 1.675405 -0.003394 0.0
1.867202 0.071864 0.001198 0.0
1.637530 1.496434 -0.001751 0.0
1.136761 1.863542 0.004301 0.0
0.948307 1.516032 0.000703 0.0
3.835712 0.823199 0.000762 0.0
1.634639 2.100783 0.002814 0.0
1.956409 1.639130 0.001225 0.0
2.928087 1.927288 -0.001337 0.0
3.485858 0.834867 0.003871 0.0
3.947336 0.428034 0.001459 0.0
0.952549 0.400560 0.001705 0.0
2.893017 0.568885 0.004280 0.0
0.285721 0.157452 -0.002923 0.0
1.829769 1.195043 0.004803 0.0
1.493649 0.173470 -0.003946 0.0
2.183761 2.033546 -0.000378 0.0
1.593684 0.766446 0.002077 0.0
1.878811 0.623560 -0.001260 0.0
1.125810 2.140431 -0.001180 0.0
2.309529 1.458975 0.000142 0.0
0.906477 1.526950 -0.000257 0.0
0.391777 0.596113 0.004254 0.0
3.991668 0.345075 0.000939 0.0
2.572287 1.663834 0.000373 0.0
3.035502 1.302922 0.002115 0.0
0.383082 2.097391 0.005484 0.0
2.858480 1.477787 0.005121 0.0
3.170870 1.635595 -0.003783 0.0
1.315635 0.566169 -0.000779 0.0
1.404419 1.902070 -0.001225 0.0
0.745910 0.676018 0.001242 0.0
1.027030 1.981524 -0.001089 0.0
2.491542 1.071410 0.002843 0.0
0.467562 2.063264 0.002645 0.0
3.429584 0.649393 -0.000041 0.0
2.480186 1.218819 -0.000803 0.0
3.698373 2.130455 0.000619 0.0
0.547473 2.070394 -0.000718 0.0
3.350959 0.883139 0.004160 0.0
1.300290 1.582667 -0.002177 0.0
1.963227 1.839689 0.001551 0.0
3.990780 1.566111 -0.004007 0.0
2.453357 0.786490 0.000101 0.0
1.786213 0.607527 0.002204 0.0
2.851951 1.748166 -0.004492 0.0
1.541212 1.505227 -0.002055 0.0
0.422024 0.775011 0.002136 0.0
1.878203 1.699054 0.002400 0.0
0.287282 1.878311 0.001320 0.0
2.387308 1.355798 0.001154 0.0
3.483678 1.822240 0.000202 0.0
2.664364 0.624705 -0.003867 0.0
2.202689 1.547223 0.002690 0.0
2.501107 0.647500 -0.002698 0.0
3.202444 0.985182 -0.000918 0.0
2.346861 0.127024 0.001353 0.0
3.273631 0.408794 0.004409 0.0
0.023935 0.853338 -0.003667 0.0
2.298718 2.136189 0.000165 0.0
0.857001 1.891312 -0.001462 0.0
2.566570 1.871086 -0.002651 0.0
2.536971 1.242277 0.000629 0.0
0.037455 0.040321 0.000776 0.0
1.736341 2.023900 -0.002495 0.0
0.323457 0.333220 -0.003939 0.0
0.211303 2.063807 0.000942 0.0
1.573878 0.034041 0.000180 0.0
3.429839 1.494952 -0.002577 0.0
3.736570 0.419082 -0.002235 0.0
0.419248 0.691755 -0.004250 0.0
1.163079 0.002025 0.003633 0.0
1.217948 0.319799 -0.000010 0.0
1.335773 1.899663 0.001845 0.0
1.872663 1.879390 -0.003471 0.0
1.797407 1.602126 0.000023 0.0
1.244696 1.056156 -0.001081 0.0
2.485052 0.368199 0.001173 0.0
1.986679 1.123663 0.002183 0.0
1.532733 0.261230 0.002700 0.0
3.901440 1.347948 -0.004055 0.0
0.043625 1.596921 -0.002928 0.0
2.768044 0.597331 0.001369 0.0
1.316325 0.470119 -0.002273 0.0
3.794026 1.850187 -0.001555 0.0
3.505019 0.369268 0.002814 0.0
0.767572 0.938856 -0.000454 0.0
1.780843 1.709797 -0.001374 0.0
1.768031 0.871164 -0.004074 0.0
1.799532 1.147074 0.001084 0.0
2.976646 0.281059 0.000878 0.0
0.682023 1.646892 -0.001565 0.0
3.908520 1.795923 -0.001983 0.0
0.439174 1.124563 -0.002649 0.0
1.234673 0.379283 -0.001494 0.0
2.233957 1.392821 0.000934 0.0
0.084833 2.179570 -0.002339 0.0
1.669347 0.772530 0.002568 0.0
0.356409 1.841234 0.000072 0.0
3.613454 1.251230 0.000524 0.0
1.283932 1.282651 -0.002676 0.0
2.352861 0.026323 -0.002617 0.0
0.707993 0.689562 -0.005050 0.0
3.235812 1.955863 -0.000600 0.0
3.274784 0.082150 0.001121 0.0
3.309349 0.164927 -0.001626 0.0
3.589894 1.196101 0.001643 0.0
3.919755 1.549278 0.000646 0.0
3.089543 1.151907 -0.000309 0.0
1.820563 1.329250 0.002163 0.0
1.085120 1.846357 -0.001225 0.0
0.082064 0.223767 0.002195 0.0
2.938899 0.261367 -0.000742 0.0
0.827140 0.169723 -0.002478 0.0
1.727582 1.341257 -0.001684 0.0
3.045243 2.134111 0.004863 0.0
3.586274 0.352655 -0.000631 0.0
3.473000 0.018792 0.001279 0.0
0.399505 0.150886 -0.000710 0.0
3.568014 0.652781 0.003058 0.0
2.152360 0.744429 -0.002117 0.0
2.643211 1.061044 0.000909 0.0
3.092978 0.360272 -0.001014 0.0
2.873605 1.776484 0.000100 0.0
3.817043 0.266095 0.002023 0.0
0.194969 1.636973 0.000090 0.0
2.658469 0.782155 0.001055 0.0
2.797960 1.583012 0.000417 0.0
2.683005 1.865412 -0.000923 0.0
3.808151 0.135922 0.001466 0.0
2.233804 1.518213 0.001428 0.0
1.186649 0.462585 -0.002086 0.0
2.452800 1.067590 0.002021 0.0
2.174332 1.332134 0.001193 0.0
3.941154 1.635543 -0.001852 0.0
0.120652 1.469162 0.001051 0.0
1.446103 0.379945 -0.002531 0.0
1.740948 2.045691 0.002184 0.0
3.006323 0.630182 -0.001256 0.0
3.866735 0.890844 -0.004633 0.0
2.434593 1.466532 0.005606 0.0
3.849840 0.417627 -0.000686 0.0
2.727528 1.713129 0.001910 0.0
1.581999 1.055191 0.003758 0.0
0.143653 1.446218 -0.000276 0.0
3.687746 0.468226 -0.004953 0.0
0.077624 2.149917 0.002945 0.0
1.238531 1.066253 0.002321 0.0
2.017764 1.755842 0.001023 0.0
1.361042 2.041866 -0.000045 0.0
3.884745 0.504020 0.001171 0.0
0.774825 0.038569 -0.000774 0.0
0.848720 0.216793 -0.000532 0.0
0.752821 0.294387 0.000328 0.0
0.450892 1.489637 0.000486 0.0
1.218428 0.265677 -0.000195 0.0
0.258878 1.529817 -0.000097 0.0
0.204794 1.507410 0.000449 0.0
0.920980 0.017449 -0.000556 0.0
0.695309 1.265022 0.002592 0.0
0.129127 2.094150 -0.000822 0.0
2.012209 0.165568 0.002112 0.0
0.808411 1.576853 0.001066 0.0
1.566971 1.457291 -0.000678 0.0
0.306015 0.378008 0.000112 0.0
0.676641 0.763977 -0.000805 0.0
0.218972 0.286139 -0.002264 0.0
0.700870 2.056116 0.003466 0.0
1.560965 1.789226 0.002241 0.0
3.576439 1.949491 0.003008 0.0
0.246231 0.803981 -0.002350 0.0
0.064679 0.318873 -0.002956 0.0
2.904143 2.173124 0.003076 0.0
3.101088 2.054260 -0.001740 0.0
2.476929 2.096688 0.000894 0.0
2.998917 0.271537 0.003022 0.0
3.210990 0.022344 0.003917 0.0
1.756861 2.120974 0.001756 0.0
0.341283 0.577902 0.001109 0.0
1.561302 0.163019 0.000271 0.0
0.005286 1.133423 0.001767 0.0
1.668949 1.560678 -0.002477 0.0
2.947406 1.503900 -0.001370 0.0
2.753697 2.175747 -0.003003 0.0
2.773657 0.869287 0.005707 0.0
0.914743 0.658426 0.001907 0.0
0.217450 0.349142 -0.000385 0.0
3.857514 1.687806 0.003577 0.0
1.673260 0.238460 0.000376 0.0
2.469210 0.312854 -0.001970 0.0
2.284810 1.557401 -0.001319 0.0
2.346781 2.164044 0.003576 0.0
1.161289 0.175292 0.002313 0.0
0.091263 2.065922 -0.002979 0.0
2.718800 1.030185 0.004833 0.0
2.455380 1.424598 0.001481 0.0
0.760791 1.646035 -0.004929 0.0
3.663859 2.029435 -0.002838 0.0
0.187443 0.266063 -0.001663 0.0
1.321955 1.580386 0.000622 0.0
2.534563 1.021188 -0.003300 0.0
0.129162 2.060950 0.001795 0.0
1.457811 1.720755 -0.002414 0.0
1.980117 0.987334 -0.000056 0.0
0.633105 0.521276 0.000989 0.0
3.574718 1.244121 -0.002138 0.0
2.956571 0.894542 -0.000618 0.0
2.928791 1.744177 -0.001623 0.0
3.237539 1.349631 0.002814 0.0
3.728617 0.518724 -0.004260 0.0
2.366132 0.880570 0.002062 0.0
3.260645 0.564305 0.001440 0.0
0.988544 2.171523 0.002987 0.0
2.675631 1.198437 0.005461 0.0
3.713931 1.809981 -0.005058 0.0
1.276856 1.719295 -0.000382 0.0
0.892600 0.494543 -0.003261 0.0
0.356653 0.181084 0.001856 0.0
1.789532 0.075786 -0.001050 0.0
1.724900 2.178586 0.000744 0.0
2.003609 0.164304 0.004090 0.0
2.842891 0.967460 0.003143 0.0
0.149795 1.957044 -0.000600 0.0
0.431936 0.439391 -0.002612 0.0
2.959386 0.224426 -0.003521 0.0
3.301171 1.595483 0.001662 0.0
2.360429 1.425073 -0.000215 0.0
3.212068 0.331956 -0.001038 0.0
0.178543 0.106501 0.000794 0.0
3.348496 1.701170 -0.000521 0.0
1.112316 1.984116 0.001270 0.0
2.123197 1.549229 0.000480 0.0
0.508893 2.154016 -0.004292 0.0
0.297777 2.184640 -0.000090 0.0
1.085472 0.795058 -0.002275 0.0
3.683993 0.430327 0.001133 0.0
3.617364 0.605742 0.001684 0.0
3.307954 2.114058 -0.000083 0.0
3.384468 0.102138 -0.003689 0.0
3.800283 1.897205 -0.001956 0.0
3.930313 0.641777 -0.002603 0.0
3.223471 1.896706 0.005572 0.0
3.933539 1.244537 -0.005171 0.0
1.526967 0.862412 0.002596 0.0
1.694954 1.467054 0.000431 0.0
2.558127 1.371330 0.000283 0.0
2.997578 0.149966 -0.002072 0.0
0.135278 0.949997 -0.000952 0.0
1.077749 1.042299 0.001675 0.0
2.604751 1.354381 0.001626 0.0
0.056787 1.354540 -0.005833 0.0
2.795611 0.281173 -0.004897 0.0
1.661437 0.311532 0.002661 0.0
2.884527 0.424200 0.001823 0.0
0.076218 1.240264 0.001471 0.0
1.426654 0.352180 0.001273 0.0
0.780475 0.020184 -0.001359 0.0
3.077865 1.816046 0.000479 0.0
0.440844 1.651344 -0.002536 0.0
0.958714 1.080673 0.002720 0.0
0.043200 0.365458 -0.002550 0.0
2.230238 0.819306 -0.004806 0.0
3.661631 0.417845 0.000652 0.0
0.668645 0.784328 -0.002678 0.0
0.515168 0.333016 -0.002945 0.0
1.382671 0.717550 -0.000956 0.0
0.139377 0.284318 -0.000094 0.0
2.974242 0.466600 -0.001133 0.0
1.195966 1.084936 0.002405 0.0
1.495638 1.155551 0.000936 0.0
3.336656 0.897564 0.003023 0.0
3.879154 1.412856 0.001986 0.0
1.415857 1.579016 -0.001730 0.0
2.190183 2.127294 -0.003488 0.0
3.798874 1.212667 -0.003297 0.0
3.806179 0.498731 0.000247 0.0
1.691785 1.662771 -0.004267 0.0
4.005737 1.832874 0.000423 0.0
3.009911 0.617791 -0.001839 0.0
2.375663 2.176159 -0.002427 0.0
2.299590 0.723074 -0.000445 0.0
2.497250 0.979136 0.004281 0.0
2.293193 0.435954 0.002664 0.0
0.910341 2.002111 0.000427 0.0
0.524558 1.002201 0.002072 0.0
3.409886 0.617346 -0.000942 0.0
0.896700 1.952598 0.002864 0.0
3.974709 0.222753 -0.003289 0.0
1.816754 0.108112 0.001244 0.0
0.148516 0.113032 0.000798 0.0
1.507016 1.958989 0.003385 0.0
3.566378 0.980246 0.000803 0.0
1.158172 1.666473 -0.001690 0.0
0.802786 1.489384 0.001107 0.0
1.881522 1.714817 0.001312 0.0
1.745845 1.925748 -0.001409 0.0
3.615344 1.632994 -0.000081 0.0
3.597018 1.328580 0.001535 0.0
2.959524 1.878729 0.005041 0.0
1.983180 1.062894 -0.002934 0.0
1.808852 1.268633 0.000712 0.0
0.580321 1.473319 0.000033 0.0
0.197499 0.842825 0.000706 0.0
1.214547 1.298752 -0.002963 0.0
1.989982 0.000496 0.003507 0.0
1.038406 0.299006 -0.001900 0.0
3.361376 1.817494 -0.000736 0.0
3.451635 0.489002 -0.003508 0.0
0.683866 0.298892 0.004277 0.0
2.786319 0.601766 0.001939 0.0
1.891573 0.158483 -0.001081 0.0
1.079489 1.583111 0.000958 0.0
3.556856 1.615086 -0.002552 0.0
0.032618 0.665766 0.000895 0.0
1.172230 1.486795 -0.000464 0.0
0.526930 0.747196 -0.001722 0.0
3.087348 2.003339 -0.000110 0.0
2.898958 1.122995 0.003289 0.0
1.762760 0.718782 0.000320 0.0
2.492478 1.829032 -0.001499 0.0
0.192479 0.119948 -0.002337 0.0
1.552040 1.722239 -0.001522 0.0
3.472105 0.185692 -0.000729 0.0
0.591590 0.013212 -0.001712 0.0
1.439067 0.970660 -0.002692 0.0
0.300819 0.175273 0.002118 0.0
2.769439 0.311576 -0.000060 0.0
3.248447 0.354387 0.001692 0.0
2.625876 1.106358 -0.004749 0.0
1.441957 1.356454 0.002762 0.0
0.033068 0.698531 0.000971 0.0
2.485451 0.184338 0.002476 0.0
1.938790 0.616036 -0.002389 0.0
1.584628 1.573463 0.001342 0.0
1.866224 1.777318 0.003057 0.0
0.174596 0.568058 -0.001637 0.0
0.998708 0.396067 0.001209 0.0
1.945658 1.797344 -0.001616 0.0
3.888117 1.746670 -0.000563 0.0
2.107522 0.510306 -0.000548 0.0
3.742173 0.330596 0.003375 0.0
2.867956 1.040585 -0.000635 0.0
3.686226 1.995192 0.002040 0.0
2.892072 0.780253 -0.001176 0.0
0.890098 0.083682 -0.000639 0.0
3.828216 0.153625 -0.000664 0.0
1.353909 0.559037 -0.003017 0.0
1.132329 0.755614 -0.002684 0.0
0.701321 1.220161 0.000703 0.0
2.577851 0.878512 -0.001039 0.0
2.884528 0.194209 -0.001815 0.0
1.093421 1.369403 0.002814 0.0
1.540497 1.053208 -0.002785 0.0
0.118593 0.819575 -0.001077 0.0
2.393229 0.481741 -0.001575 0.0
3.351568 1.163051 -0.002880 0.0
2.768361 1.880924 -0.000518 0.0
2.760473 1.099441 -0.001474 0.0
2.252884 1.050610 0.001588 0.0
2.286512 2.083607 -0.002473 0.0
0.538390 0.752528 0.001372 0.0
3.575886 0.388932 0.000102 0.0
1.578105 0.540426 0.001760 0.0
1.789470 1.583979 0.003198 0.0
0.229680 1.534817 0.004299 0.0
3.575868 2.057997 0.003739 0.0
3.433422 0.170598 0.002067 0.0
0.654666 1.569732 0.000662 0.0
2.243524 0.045793 0.001830 0.0
0.410515 0.870443 -0.001108 0.0
2.768693 1.231365 -0.005903 0.0
0.961314 1.693353 -0.001683 0.0
1.937199 1.009879 -0.002313 0.0
1.896112 1.763093 0.000746 0.0
3.817722 1.010119 -0.000183 0.0
0.928991 0.367683 0.001363 0.0
1.377168 0.186003 -0.003547 0.0
1.773879 1.579096 0.001139 0.0
1.283637 1.228086 -0.000802 0.0
2.308290 1.092924 -0.002358 0.0
3.062983 1.496457 -0.001142 0.0
3.783071 1.830291 0.003365 0.0
2.013423 0.620463 -0.001575 0.0
0.678789 1.880398 0.001770 0.0
2.206609 0.727775 0.000774 0.0
2.043901 0.626202 -0.001247 0.0
2.010519 1.776402 0.000521 0.0
0.776301 1.009816 0.005256 0.0
3.448815 0.516874 0.000985 0.0
0.952489 0.485097 -0.001021 0.0
2.076182 0.080760 -0.001282 0.0
0.566584 0.042864 0.002874 0.0
3.165773 0.883482 -0.002489 0.0
0.194538 0.900844 -0.000850 0.0
2.780453 1.483800 0.002058 0.0
0.877933 1.412035 -0.001423 0.0
3.925605 0.969613 -0.002188 0.0
3.044056 0.687238 -0.001059 0.0
2.630137 1.200149 -0.000633 0.0
1.285435 1.285272 -0.000144 0.0
0.555238 1.708109 0.001725 0.0
2.505806 0.143703 -0.003297 0.0
1.343383 2.008407 0.002820 0.0
0.745337 0.941323 -0.002465 0.0
0.765419 1.642280 -0.000557 0.0
1.518147 0.199951 0.000416 0.0
3.566578 1.445448 -0.001775 0.0
0.573660 0.135210 0.006744 0.0
0.111312 0.978854 0.001379 0.0
2.828596 1.778672 0.000162 0.0
0.463876 0.515861 0.002582 0.0
3.199174 0.038358 0.000510 0.0
0.918638 1.378652 -0.000917 0.0
3.754777 1.276265 -0.001961 0.0
0.379596 2.104316 -0.001517 0.0
3.499193 0.604946 0.000716 0.0
3.360134 0.101578 -0.003236 0.0
0.993977 1.971997 -0.005234 0.0
1.323939 0.574644 0.000908 0.0
1.567447 0.214340 0.000466 0.0
2.344939 0.234227 -0.000518 0.0
2.069099 1.718741 0.001106 0.0
3.887673 0.459150 -0.001918 0.0
0.607642 1.152575 0.001105 0.0
3.199303 1.226617 -0.000717 0.0
1.264492 1.292025 -0.005087 0.0
1.385473 0.229218 -0.001980 0.0
0.242086 1.050779 -0.001119 0.0
3.230373 1.780941 0.000097 0.0
0.189270 0.347963 -0.003663 0.0
3.539026 1.803405 0.001183 0.0
2.501665 1.486643 0.003804 0.0
3.159703 1.163792 0.000251 0.0
3.981744 1.629378 -0.004974 0.0
0.476392 0.695582 -0.001957 0.0
3.648986 2.025354 -0.000151 0.0
3.163824 0.353526 -0.000085 0.0
1.426867 0.832149 0.000157 0.0
1.718610 1.139436 0.002950 0.0
3.043088 0.705628 -0.001406 0.0
3.859922 0.884505 0.004165 0.0
1.968368 0.127539 -0.002987 0.0
3.014425 1.724262 0.000453 0.0
0.921557 0.590763 0.002317 0.0
1.179501 1.133328 -0.000978 0.0
0.214818 1.773212 -0.003439 0.0
1.186033 0.012295 -0.000627 0.0
2.668946 1.572470 0.002865 0.0
1.302287 0.579742 -0.001921 0.0
0.236871 0.934592 -0.001014 0.0
2.464749 0.169716 0.001782 0.0
1.923767 0.437602 0.001991 0.0
0.827638 1.565730 -0.001479 0.0
0.217056 0.114219 -0.001637 0.0
0.023608 0.006249 -0.001782 0.0
1.854695 0.492366 0.001268 0.0
3.405707 1.365029 -0.001294 0.0
3.833087 2.000408 -0.003335 0.0
2.738963 0.887387 -0.000330 0.0
3.406537 0.499981 -0.002846 0.0
1.858319 0.035590 0.002520 0.0
0.260038 1.290138 0.000038 0.0
1.345525 1.557229 0.000858 0.0
1.496729 1.302229 0.003853 0.0
2.593021 1.538144 -0.003310 0.0
2.687081 0.309679 0.001321 0.0
2.851467 0.619935 0.001038 0.0
1.331308 1.053913 0.001221 0.0
0.606482 0.985456 -0.000240 0.0
2.626093 1.504377 0.000849 0.0
2.843518 0.852613 -0.001813 0.0
0.947438 1.663255 0.001197 0.0
0.718867 1.380713 -0.001768 0.0
2.260730 0.894208 -0.000097 0.0
0.723222 1.598096 -0.002003 0.0
1.787400 1.148630 0.001746 0.0
1.717803 0.212132 0.000964 0.0
1.178546 0.010032 0.000892 0.0
2.137705 1.731047 0.000694 0.0
3.938706 1.202573 0.000461 0.0
3.949013 1.207068 0.001788 0.0
1.126114 1.654746 0.003393 0.0
0.605128 0.094214 -0.000106 0.0
2.894557 1.255329 -0.000105 0.0
0.116471 0.024072 -0.005258 0.0
2.930077 1.021754 0.001878 0.0
1.622001 0.177705 0.003842 0.0
2.275771 1.552105 0.006726 0.0
3.390325 0.442645 -0.000549 0.0
0.133669 0.286707 -0.000395 0.0
2.433051 2.116706 0.001094 0.0
3.549738 2.146868 -0.001570 0.0
3.346528 1.186484 0.002832 0.0
0.757442 1.690234 0.000268 0.0
3.041093 1.348981 0.000988 0.0
0.284893 0.643050 0.001252 0.0
2.198506 1.517564 0.001919 0.0
2.648450 0.451254 0.000827 0.0
0.010701 1.120893 -0.001835 0.0
2.842307 0.323762 0.001264 0.0
1.994166 0.327511 -0.004235 0.0
1.701301 0.086367 0.001393 0.0
0.150264 0.759577 0.001619 0.0
1.421358 0.517412 -0.001359 0.0
1.466185 0.958902 0.006482 0.0
0.055251 1.534197 0.001657 0.0
2.106148 1.863679 0.000011 0.0
3.022014 2.032548 0.001381 0.0
0.663676 0.214236 -0.004886 0.0
3.579480 0.302919 -0.002811 0.0
3.208582 1.718678 0.002182 0.0
1.896825 0.412987 0.000383 0.0
3.818436 2.157427 -0.002528 0.0
3.206110 1.841163 -0.004127 0.0
1.326212 0.429799 0.001202 0.0
0.013072 0.205302 0.002270 0.0
2.454769 1.971617 0.001495 0.0
2.459540 0.692935 0.000450 0.0
0.168897 1.345255 -0.003283 0.0
1.682646 0.324223 -0.003619 0.0
1.767399 0.456616 -0.002060 0.0
2.169945 0.676660 0.001824 0.0
2.214957 1.743557 0.001947 0.0
0.337330 2.186416 0.003801 0.0
2.055634 0.817487 0.000360 0.0
3.883978 1.704193 0.002235 0.0
2.655030 1.102572 -0.000489 0.0
1.754726 2.025217 -0.002495 0.0
0.819745 0.000234 -0.000704 0.0
2.526495 0.137116 -0.001383 0.0
3.175353 0.417852 -0.001032 0.0
3.318702 0.019983 0.002091 0.0
3.256445 0.924674 -0.002280 0.0
1.277394 2.184785 -0.000982 0.0
3.524785 0.313669 0.001929 0.0
2.159363 1.431454 -0.000442 0.0
3.114667 2.062124 -0.001818 0.0
2.838747 1.690434 -0.000198 0.0
2.128783 1.946427 -0.001661 0.0
3.373472 1.057147 -0.000719 0.0
1.833393 1.497387 -0.004118 0.0
2.562476 0.397291 -0.001508 0.0
0.623355 1.587466 0.002166 0.0
3.313841 1.516461 0.000594 0.0
3.396682 1.585157 0.001136 0.0
0.215865 0.702520 -0.000272 0.0
3.775289 1.107536 0.000108 0.0
3.452318 2.087687 0.000434 0.0
3.594502 0.208145 0.003176 0.0
0.377463 1.783336 0.006343 0.0
0.909406 0.039607 -0.000495 0.0
1.183465 1.924789 -0.001535 0.0
1.700165 0.100054 -0.002422 0.0
3.543369 1.312068 -0.006047 0.0
0.965230 0.418449 0.000518 0.0
1.744797 0.118640 0.002484 0.0
0.290299 1.040916 -0.002552 0.0
0.899958 0.289231 0.002385 0.0
2.542730 2.044645 -0.000621 0.0
3.715217 1.265590 0.005596 0.0
1.502063 0.742814 0.003060 0.0
2.339562 0.150563 -0.004574 0.0
2.265346 0.728533 0.001673 0.0
0.850729 0.367630 0.005324 0.0
1.281625 0.704120 0.001380 0.0
0.064924 0.889232 -0.002517 0.0
1.224458 2.183094 0.000690 0.0
1.877012 1.741841 0.001920 0.0
0.131264 2.157232 -0.003510 0.0
3.444731 1.330469 -0.000313 0.0
3.309869 0.315760 0.001770 0.0
2.503448 0.291514 -0.002275 0.0
3.223157 2.167461 0.002746 0.0
1.391224 1.703214 -0.000694 0.0
2.901365 0.083223 0.001245 0.0
0.580903 1.849021 0.001057 0.0
2.560149 1.044623 -0.003056 0.0
0.488543 0.016318 -0.004506 0.0
1.024988 1.629574 -0.000791 0.0
0.949600 1.217076 -0.002621 0.0
0.491026 0.528654 -0.002709 0.0
2.636377 0.859414 0.004542 0.0
0.701482 1.686869 0.000634 0.0
0.463959 1.412588 -0.000083 0.0
3.326990 1.974861 -0.002869 0.0
3.139034 1.564539 -0.000880 0.0
1.627573 0.137493 0.001811 0.0
3.007273 0.285192 0.001935 0.0
0.036133 0.682245 -0.005531 0.0
0.889246 0.662808 -0.000895 0.0
1.248733 0.171274 0.002598 0.0
3.277735 0.501167 0.005120 0.0
1.818959 0.632113 0.001759 0.0
0.863675 0.956506 0.000703 0.0
3.765980 1.826258 0.002633 0.0
1.192746 0.759520 -0.003025 0.0
3.995223 0.115986 -0.006660 0.0
2.344714 1.018386 -0.001905 0.0
1.098440 0.006808 0.000330 0.0
1.446579 0.286005 -0.003034 0.0
2.118695 1.824620 -0.002119 0.0
1.397496 1.809064 -0.000580 0.0
0.388541 0.086784 0.001204 0.0
1.051371 1.287788 -0.003355 0.0
0.895811 2.124197 -0.000723 0.0
0.861283 0.759971 -0.003534 0.0
1.360480 0.946539 0.002949 0.0
2.364893 0.224054 0.000544 0.0
1.608015 1.467701 0.001495 0.0
2.429715 1.787129 -0.003593 0.0
0.436937 1.493222 0.002558 0.0
3.845243 0.593452 -0.000140 0.0
2.848295 0.592745 -0.000672 0.0
3.782671 1.437113 0.001314 0.0
0.773799 0.641941 -0.003622 0.0
1.702872 0.194326 0.000406 0.0
3.907998 -0.003066 -0.000643 0.0
3.634623 0.985171 0.001014 0.0
0.092071 1.189197 0.002103 0.0
3.860236 1.991646 0.003228 0.0
3.771010 2.135790 0.001242 0.0
2.181336 1.209212 -0.003207 0.0
2.122569 0.728256 -0.000382 0.0
0.500862 0.911903 -0.002284 0.0
0.010105 1.146280 0.003789 0.0
3.557313 0.203870 -0.001766 0.0
2.652621 1.041401 -0.000406 0.0
3.060503 0.935826 0.002511 0.0
3.955831 1.818446 0.001934 0.0
1.377389 1.827033 0.001839 0.0
3.183295 1.964854 0.000643 0.0
0.740646 1.847599 0.000725 0.0
0.813183 1.274457 -0.001148 0.0
1.147793 0.383443 0.004523 0.0
0.164539 1.411402 -0.003406 0.0
0.057012 1.689433 0.004240 0.0
1.106543 1.098737 -0.005289 0.0
3.700871 0.935542 0.001117 0.0
2.214104 1.786042 0.001534 0.0
3.365862 1.490133 0.002661 0.0
1.393231 0.621254 0.002079 0.0
2.361963 1.495604 -0.000107 0.0
1.599341 0.078557 0.002742 0.0
0.019607 2.023655 -0.004947 0.0
1.495531 0.104368 0.001681 0.0
2.001922 0.415846 0.004724 0.0
3.138704 0.718920 0.002140 0.0
0.766239 2.179906 -0.003574 0.0
2.489609 0.485327 -0.000016 0.0
0.654001 2.073022 0.002890 0.0
0.285035 1.091666 -0.001966 0.0
3.119996 2.116023 0.001631 0.0
2.851133 1.519581 -0.001244 0.0
0.656221 0.042710 0.002870 0.0
3.455356 0.144873 0.003366 0.0
0.273757 1.473861 0.001791 0.0
3.793882 1.137517 0.002567 0.0
1.534917 1.783760 0.003061 0.0
2.301740 0.837124 0.002339 0.0
1.204004 0.064420 -0.001649 0.0
1.067799 2.010770 -0.001415 0.0
2.532705 1.407203 -0.002163 0.0
3.903234 2.054098 0.002136 0.0
1.979159 0.127574 -0.005794 0.0
3.444289 1.498621 0.001191 0.0
0.112411 0.873645 0.000987 0.0
1.139519 1.972952 0.004120 0.0
3.622473 1.197390 0.002128 0.0
2.956512 1.269741 0.002913 0.0
1.781856 0.177024 -0.002471 0.0
2.061245 1.512211 -0.004234 0.0
3.774493 0.275940 -0.001695 0.0
0.703493 1.947819 -0.005167 0.0
0.357578 0.004823 0.000138 0.0
3.166177 0.839014 -0.000607 0.0
0.551150 0.782225 -0.000507 0.0
0.301544 0.407977 -0.000311 0.0
3.344353 1.484096 0.000439 0.0
2.425448 0.132002 -0.002871 0.0
3.339097 0.587123 -0.000262 0.0
3.740291 1.286255 0.000175 0.0
0.961881 0.177162 0.000153 0.0
1.061140 1.240892 0.001957 0.0
2.381836 1.673382 -0.000564 0.0
1.150464 1.446337 -0.003801 0.0
2.412755 1.763117 -0.001052 0.0
1.270094 0.621240 0.001943 0.0
3.135003 0.591848 -0.003222 0.0
1.069316 1.844379 -0.002491 0.0
2.152360 1.289698 -0.001635 0.0
2.293709 1.151286 -0.005888 0.0
0.513330 0.795346 -0.001123 0.0
0.759562 1.252108 -0.002737 0.0
2.397698 1.515120 -0.001771 0.0
0.822711 0.035947 -0.002798 0.0
0.796379 1.208850 0.002290 0.0
3.958850 1.318383 0.001836 0.0
2.724587 1.877749 -0.002342 0.0
2.456976 0.878360 -0.005952 0.0
1.204994 1.811838 -0.003053 0.0
1.481896 1.567752 -0.005484 0.0
0.084472 1.577314 -0.001314 0.0
3.084067 1.361562 0.002106 0.0
3.048497 0.380149 0.005273 0.0
1.711702 0.786553 0.001515 0.0
2.359326 2.121357 0.003233 0.0
2.387409 2.112620 0.000855 0.0
3.970875 1.934486 0.002317 0.0
3.665948 2.028781 -0.000056 0.0
1.966230 0.127225 0.000698 0.0
3.915410 0.310528 -0.000558 0.0
0.393098 1.670690 0.003268 0.0
3.394702 0.203240 -0.002242 0.0
2.373076 2.014240 -0.003359 0.0
2.846955 0.606935 0.003133 0.0
2.632817 1.473522 -0.003025 0.0
2.723407 1.837867 -0.000838 0.0
2.109245 0.969844 0.004318 0.0
1.755268 1.459002 -0.001761 0.0
1.816191 0.872044 -0.003618 0.0
3.397158 0.167344 0.001368 0.0
1.724897 1.449888 0.001465 0.0
3.650483 1.616226 -0.001065 0.0
0.902366 1.781375 0.000926 0.0
3.005245 1.231591 0.001581 0.0
3.362891 2.156531 -0.001560 0.0
0.241122 0.287952 0.000354 0.0
3.267117 2.014793 0.000867 0.0
2.493292 2.012893 0.003679 0.0
2.858263 0.228355 0.001346 0.0
2.983778 1.517802 0.000023 0.0
0.783114 1.836547 -0.000576 0.0
0.758966 1.912832 -0.001666 0.0
3.300337 1.826598 0.001495 0.0
2.170388 1.945810 -0.003905 0.0
0.454839 1.735352 -0.000514 0.0
0.982402 1.793604 -0.001128 0.0
3.301708 1.288234 -0.000896 0.0
0.651294 0.559525 0.001403 0.0
0.633220 2.161552 -0.000507 0.0
3.392562 1.924161 0.003159 0.0
0.003136 0.473306 0.000606 0.0
3.722986 1.249615 0.001245 0.0
2.529879 0.913854 -0.000527 0.0
1.784133 0.205740 -0.000171 0.0
0.451595 0.372527 -0.000307 0.0
1.746168 1.953893 -0.000018 0.0
2.906554 1.784790 -0.003288 0.0
3.170957 1.300970 -0.002589 0.0
3.164553 0.567294 0.000398 0.0
3.523097 1.602531 0.001158 0.0
0.945909 1.949130 0.001784 0.0
2.125381 0.215816 -0.000246 0.0
1.198470 0.319663 0.002034 0.0
1.337903 1.182910 0.000754 0.0
0.413418 0.630088 -0.002156 0.0
3.402837 0.660554 -0.000071 0.0
1.575700 1.298970 -0.000878 0.0
2.092580 0.325690 -0.001616 0.0
3.631572 0.739777 0.001269 0.0
3.458807 1.110810 0.001561 0.0
0.720068 2.038290 0.001603 0.0
3.379045 0.921959 0.001014 0.0
0.556925 0.613457 0.001006 0.0
1.941209 1.552268 -0.000054 0.0
0.189212 1.891433 -0.001330 0.0
1.100515 1.763303 -0.000238 0.0
1.481011 1.834416 0.005204 0.0
0.426064 0.262994 0.002043 0.0
3.789557 1.241216 -0.003972 0.0
1.314782 0.577728 0.000684 0.0
1.430837 2.122509 -0.002643 0.0
2.259847 0.789348 -0.001073 0.0
0.828644 0.167951 -0.004149 0.0
0.286013 1.112506 0.000697 0.0
2.951016 1.514420 -0.000853 0.0
1.583846 1.178863 -0.000092 0.0
1.524665 2.178315 -0.000992 0.0
1.519447 0.348306 0.000165 0.0
2.729046 0.011872 0.002104 0.0
0.114579 1.816159 -0.001246 0.0
0.283275 0.844445 0.000351 0.0
1.255823 1.060618 -0.001166 0.0
0.004952 1.519813 0.001447 0.0
1.916129 0.849107 -0.002849 0.0
0.735457 0.491984 0.001017 0.0
1.980287 2.110317 0.000435 0.0
1.793770 0.283905 0.000893 0.0
3.887417 1.181125 0.001379 0.0
2.247949 0.329200 -0.004219 0.0
1.031367 1.752528 -0.001769 0.0
0.631214 1.859048 0.000450 0.0
0.516899 1.881720 0.000878 0.0
0.528117 1.906536 -0.003332 0.0
2.719755 0.327854 0.000228 0.0
3.719651 1.315123 -0.002332 0.0
1.644233 1.599222 0.000360 0.0
0.948983 1.543053 0.001592 0.0
1.836420 0.852000 0.001062 0.0
0.008456 0.753109 -0.000444 0.0
2.655128 1.281933 -0.002558 0.0
1.029960 0.025276 -0.002687 0.0
0.766871 0.042010 0.002700 0.0
1.899073 0.896039 0.001203 0.0
2.269597 0.515215 0.000577 0.0
4.005374 1.365068 0.004353 0.0
3.992827 0.225047 0.000360 0.0
3.487584 1.883208 -0.002018 0.0
3.885651 0.296451 0.001153 0.0
0.935500 0.276947 -0.003412 0.0
2.926040 1.648611 -0.002843 0.0
3.616998 2.035120 -0.000635 0.0
3.049205 0.076182 0.001088 0.0
1.484185 1.418961 0.001192 0.0
1.769607 1.106783 0.000700 0.0
1.463712 0.328133 -0.002222 0.0
0.431443 1.330377 -0.001976 0.0
2.999786 0.634859 0.000443 0.0
3.789987 1.450957 0.001555 0.0
2.464038 0.366444 -0.002014 0.0
1.138540 0.024617 -0.002234 0.0
3.831140 1.259342 -0.000260 0.0
2.282156 0.577191 0.000269 0.0
2.744096 1.881243 -0.001416 0.0
0.023100 1.398777 -0.003100 0.0
1.774884 1.646002 0.003052 0.0
3.686304 0.650851 0.001006 0.0
3.817998 0.282119 -0.005303 0.0
1.694289 0.306860 -0.002489 0.0
1.846034 1.775242 0.003235 0.0
1.605494 0.951457 0.001718 0.0
3.650572 2.063913 -0.000794 0.0
1.022572 0.099560 -0.002609 0.0
3.124906 2.124684 -0.000097 0.0
3.082501 1.445437 -0.000328 0.0
1.246198 1.874140 0.003056 0.0
2.855206 0.039532 0.001153 0.0
1.518651 1.500885 -0.003325 0.0
3.499471 0.866053 -0.003367 0.0
2.930382 0.897851 -0.003921 0.0
2.641056 0.724113 0.002569 0.0
1.560035 0.469282 -0.002110 0.0
1.523392 1.856615 0.000655 0.0
2.803132 1.272584 -0.000051 0.0
3.162843 0.998937 0.000262 0.0
3.344357 1.552978 -0.004559 0.0
0.388071 1.806456 0.001599 0.0
1.316687 2.112985 -0.000240 0.0
3.039597 0.744618 -0.000244 0.0
3.247935 2.049054 -0.002698 0.0
0.554746 0.041845 -0.000538 0.0
0.866287 2.000384 0.001266 0.0
3.023781 1.631080 -0.002634 0.0
1.264596 0.662183 -0.001493 0.0
1.419341 2.106726 0.000543 0.0
3.002963 1.948075 -0.001482 0.0
2.617960 1.407120 0.000334 0.0
2.169213 0.826509 0.001161 0.0
0.331182 0.390375 -0.000008 0.0
0.047567 1.961869 -0.001791 0.0
0.949079 0.222661 0.003457 0.0
1.950047 2.048297 -0.002146 0.0
0.840656 1.238985 0.002561 0.0
0.440817 0.189223 -0.003676 0.0
3.997983 0.861398 -0.002190 0.0
3.862155 0.724645 0.003133 0.0
3.835861 1.838054 0.004204 0.0
1.357937 1.126644 -0.000786 0.0
2.643185 0.871218 0.000140 0.0
3.332424 0.891589 0.003056 0.0
2.565155 1.745778 -0.000793 0.0
1.905182 0.009474 -0.001778 0.0
2.305565 1.100427 0.003262 0.0
0.767698 1.415409 -0.000645 0.0
1.312111 0.010444 -0.001134 0.0
2.161097 2.004346 0.001283 0.0
2.063379 1.484770 0.003744 0.0
2.756544 0.419294 -0.000042 0.0
1.325686 1.186522 0.000288 0.0
0.529935 2.046611 -0.000637 0.0
0.940192 1.739467 -0.000281 0.0
2.967596 1.183572 0.001675 0.0
0.691312 2.150783 -0.000394 0.0
1.341625 1.244542 -0.002946 0.0
3.371719 0.164021 -0.005787 0.0
2.435787 1.833381 0.002043 0.0
2.595890 0.278275 0.000903 0.0
1.014851 1.309208 0.003630 0.0
1.135008 2.147087 -0.000044 0.0
0.385608 1.925568 0.000383 0.0
3.764999 1.067663 0.001335 0.0
1.901405 1.030088 -0.000402 0.0
1.946467 1.394055 -0.002667 0.0
3.768045 1.154424 -0.001556 0.0
3.128531 2.043312 0.003372 0.0
3.130190 1.487446 -0.003884 0.0
3.349817 1.197814 0.001323 0.0
2.016970 2.087307 0.003147 0.0
2.380062 0.104281 0.001324 0.0
2.495568 1.306599 0.002681 0.0
2.922639 1.116861 0.001574 0.0
2.129542 1.195277 -0.002396 0.0
3.800179 0.506593 0.002643 0.0
1.186009 0.243199 -0.000133 0.0
3.249346 1.418167 0.000377 0.0
0.973475 0.055857 -0.002646 0.0
2.496376 1.362729 -0.002815 0.0
1.937813 2.060046 -0.000754 0.0
3.098738 1.727345 0.001786 0.0
1.732722 0.014580 -0.000930 0.0
2.148024 1.333276 0.001651 0.0
3.510459 1.293496 0.001377 0.0
1.914542 0.194341 -0.002076 0.0
3.208105 0.907342 0.004464 0.0
2.769034 0.527551 -0.000609 0.0
0.436955 1.473096 -0.003398 0.0
2.578320 1.466893 0.000342 0.0
0.098677 1.072622 -0.000928 0.0
2.888218 0.183558 0.000943 0.0
2.567366 1.571851 0.002457 0.0
3.297268 2.148832 0.003734 0.0
1.021432 1.114934 -0.002132 0.0
3.011339 1.884835 -0.000680 0.0
2.022139 0.950282 0.002850 0.0
2.310243 0.664479 -0.001430 0.0
1.391088 2.143425 0.002668 0.0
1.971180 0.971983 0.002365 0.0
2.206603 0.923673 -0.002286 0.0
0.667318 1.496748 0.000651 0.0
2.821652 1.330465 -0.002099 0.0
3.296745 1.328445 0.002420 0.0
2.447702 1.455109 -0.002523 0.0
2.144197 0.825234 0.002701 0.0
2.027635 1.017199 0.000214 0.0
1.131023 0.504518 0.000685 0.0
0.486114 0.791841 -0.000299 0.0
1.653176 1.712343 0.000560 0.0
0.728939 2.043868 -0.002651 0.0
0.892674 0.785413 0.007313 0.0
3.358047 1.283113 -0.001859 0.0
3.473012 2.174207 -0.001741 0.0
0.531298 1.502789 0.000365 0.0
3.764271 0.082328 0.001703 0.0
3.385729 1.213578 0.002302 0.0
2.978951 1.029755 -0.001841 0.0
3.110884 0.817892 -0.000280 0.0
3.946020 0.671789 -0.005719 0.0
0.972007 1.267491 0.005218 0.0
2.366417 0.364403 0.002028 0.0
3.264974 0.569141 0.002958 0.0
1.348164 1.748361 0.000511 0.0
2.290328 0.809789 -0.004228 0.0
3.122786 1.133037 0.001030 0.0
1.393832 1.341995 -0.002224 0.0
3.508762 1.031397 0.000874 0.0
3.246464 0.557968 -0.002883 0.0
0.904628 1.996440 -0.001601 0.0
1.972672 1.263848 -0.000174 0.0
2.275300 0.994315 -0.003499 0.0
2.192864 1.906747 0.002751 0.0
0.492734 1.599531 0.002154 0.0
1.725128 1.382961 0.000308 0.0
3.951614 0.805658 -0.003195 0.0
2.067797 0.100537 -0.001742 0.0
1.309294 0.896295 -0.003488 0.0
3.363164 0.348950 -0.006486 0.0
0.800728 2.016588 0.001291 0.0
2.514087 1.905900 -0.000789 0.0
0.972560 -0.001895 -0.001618 0.0
3.148448 0.852972 -0.001788 0.0
3.827788 1.615473 -0.000886 0.0
1.038772 2.077459 0.002690 0.0
0.743155 0.398014 0.000618 0.0
1.341855 0.812101 -0.000384 0.0
1.811554 0.517139 0.001727 0.0
0.239147 1.109009 0.002939 0.0
1.629420 0.384969 -0.003526 0.0
2.168221 0.747941 -0.006676 0.0
2.953103 1.895478 -0.002276 0.0
3.746940 1.123318 0.000632 0.0
1.572896 1.556201 0.000019 0.0
2.433622 0.710254 0.002460 0.0
2.560664 1.493142 0.000690 0.0
3.832999 1.556325 0.002236 0.0
0.239777 0.210502 -0.002011 0.0
2.414978 1.914438 -0.002878 0.0
3.980428 1.314214 -0.000204 0.0
2.087006 2.059629 0.003187 0.0
0.286008 0.896225 0.003231 0.0
1.859343 0.549080 -0.000421 0.0
3.215624 1.293929 0.001270 0.0
0.839176 0.338325 0.001404 0.0
0.224880 1.230885 0.000920 0.0
1.286874 1.191141 -0.001037 0.0
3.456428 1.901090 -0.005504 0.0
0.184741 1.547933 0.002318 0.0
2.410732 0.889643 -0.001409 0.0
2.173227 0.278897 0.001577 0.0
2.629070 0.197386 -0.000610 0.0
3.168144 2.154033 0.001239 0.0
0.706919 1.998105 0.000164 0.0
3.338974 0.353612 -0.003309 0.0
3.134463 2.051542 -0.002578 0.0
2.793831 1.779543 0.001634 0.0
1.173105 0.779258 0.001859 0.0
2.194675 0.075238 -0.001443 0.0
2.117599 0.158015 0.004030 0.0
1.585031 0.922274 0.000764 0.0
0.131144 1.171611 0.000995 0.0
1.062557 1.883288 0.000391 0.0
1.249643 1.861215 -0.002209 0.0
1.183900 1.604509 0.001556 0.0
3.414627 1.140666 -0.000931 0.0
2.713745 1.137427 0.002585 0.0
1.108520 0.232708 -0.002883 0.0
1.228623 1.565537 -0.000246 0.0
2.458355 1.981243 -0.002947 0.0
2.121205 2.083287 -0.001412 0.0
0.654731 0.842424 -0.001470 0.0
3.155548 0.686805 -0.000330 0.0
0.255953 1.311068 0.000584 0.0
0.291621 1.886290 -0.001336 0.0
0.444626 0.518994 -0.000172 0.0
0.123569 2.192527 0.000461 0.0
0.105630 0.241720 -0.002469 0.0
2.013816 0.483491 0.000715 0.0
2.704607 1.448139 -0.000740 0.0
1.657221 1.150418 -0.001116 0.0
2.998516 0.618978 -0.003103 0.0
2.455010 0.356316 -0.005863 0.0
3.690419 0.025036 0.004995 0.0
3.418941 1.836746 0.002615 0.0
2.994000 0.661841 0.000557 0.0
2.103395 0.647018 0.000348 0.0
3.391451 0.255633 -0.001248 0.0
