1.521074 1.822291 0.001757 0.0
0.258297 1.449425 -0.002487 0.0
1.092853 1.199394 -0.005478 0.0
1.102731 0.869046 -0.004262 0.0
4.127805 1.957650 0.005977 0.0
1.655764 0.412419 0.003142 0.0
1.471315 0.161435 -0.001099 0.0
0.054936 1.824901 -0.001190 0.0
0.288275 0.113645 0.001283 0.0
2.970791 0.669550 -0.000198 0.0
2.753265 0.956289 0.002873 0.0
3.106019 1.683585 0.001813 0.0
3.202323 0.825189 0.002212 0.0
3.383326 1.201405 -0.000197 0.0
0.542438 0.070337 0.004008 0.0
2.444439 0.352736 -0.001434 0.0
2.748276 2.019144 -0.000080 0.0
2.458578 0.984372 0.002633 0.0
1.328758 0.364317 -0.003294 0.0
0.887331 1.539759 0.001427 0.0
2.384440 2.111214 0.001544 0.0
4.151023 2.076593 -0.001487 0.0
1.035409 0.996641 0.002569 0.0
0.697672 1.925816 0.000634 0.0
0.483808 0.619635 0.001145 0.0
4.095094 0.623531 0.001863 0.0
0.084877 0.331819 -0.000263 0.0
3.549471 1.902833 -0.001014 0.0
2.062840 1.035325 0.002430 0.0
1.118031 1.094998 -0.000786 0.0
1.089427 1.060917 0.004485 0.0
3.047153 0.781558 -0.002742 0.0
2.039916 0.799907 -0.001193 0.0
1.574188 1.801002 -0.001288 0.0
4.192777 0.158974 0.003110 0.0
3.822031 1.318446 0.000647 0.0
3.036051 1.514104 0.002356 0.0
1.223886 1.405689 -0.000703 0.0
0.658241 0.774491 -0.000886 0.0
4.074715 1.963355 0.003816 0.0
3.615416 0.022247 0.001229 0.0
1.582148 1.042697 -0.002884 0.0
3.829176 2.094165 0.001411 0.0
2.081165 0.850118 0.002008 0.0
3.714231 1.534965 -0.001226 0.0
0.307309 1.038258 0.002754 0.0
2.878815 0.282444 -0.000282 0.0
1.072869 0.460837 -0.002944 0.0
3.222875 0.808245 -0.001449 0.0
2.016075 0.756234 -0.000391 0.0
0.023986 0.364533 -0.001500 0.0
0.672869 0.578205 0.005666 0.0
4.203078 1.516381 0.001573 0.0
2.418188 0.921187 -0.000257 0.0
4.335226 1.061288 -0.001265 0.0
1.193680 0.827365 -0.000470 0.0
4.020917 1.976664 -0.001203 0.0
1.666524 0.761296 -0.004106 0.0
3.579238 1.210192 0.004481 0.0
3.431593 0.855575 -0.000432 0.0
3.988375 1.994947 -0.002335 0.0
1.922766 0.753123 -0.001650 0.0
2.087278 1.582907 -0.003042 0.0
3.050679 1.025940 -0.002482 0.0
2.393152 1.925649 0.002188 0.0
0.001608 0.512911 0.001860 0.0
2.177654 0.870926 0.004331 0.0
3.908283 0.845651 -0.000238 0.0
1.033677 0.015905 0.003607 0.0
2.636462 0.555910 0.000940 0.0
2.344696 1.837235 0.002455 0.0
1.605783 1.023793 -0.005271 0.0
0.138965 0.794482 0.007187 0.0
1.389157 0.375953 -0.000848 0.0
3.902776 0.506692 -0.003175 0.0
1.920562 0.197089 0.002555 0.0
0.003641 0.166340 0.001408 0.0
1.947352 0.133985 -0.001196 0.0
2.396628 0.678041 0.003029 0.0
3.690320 0.178020 0.001508 0.0
2.183562 0.479776 0.001746 0.0
1.028889 0.083788 -0.006729 0.0
0.481888 1.745432 0.000557 0.0
3.872385 0.300263 0.001324 0.0
1.152977 1.133317 0.004989 0.0
3.903421 2.006064 -0.000868 0.0
1.108399 0.450933 0.000681 0.0
2.696082 1.753088 0.000954 0.0
1.906977 0.688915 -0.001524 0.0
2.105762 1.855926 0.003165 0.0
2.645059 1.364419 -0.001282 0.0
0.097070 0.334783 -0.002133 0.0
1.142388 1.853643 -0.000587 0.0
2.010283 1.857832 0.002642 0.0
3.460574 1.696530 -0.002108 0.0
4.073056 0.332912 0.000984 0.0
1.540474 1.616258 0.000730 0.0
0.628446 0.268282 -0.000600 0.0
0.723637 1.388281 -0.003616 0.0
4.338063 1.006518 0.005258 0.0
2.743196 1.030068 -0.000905 0.0
1.164341 1.134970 -0.000743 0.0
2.107726 2.059893 -0.002819 0.0
0.172554 2.061850 0.004107 0.0
3.351219 2.056028 -0.005311 0.0
3.146315 1.831450 -0.001422 0.0
4.388684 1.010873 -0.002893 0.0
2.263128 1.262146 -0.000010 0.0
1.355788 1.740731 0.001164 0.0
2.616321 1.584743 -0.005898 0.0
0.093059 0.848270 0.001915 0.0
0.763437 0.201275 0.001061 0.0
4.324330 1.124183 -0.005306 0.0
1.787376 0.215766 0.000124 0.0
0.962856 1.870827 0.002180 0.0
2.991477 0.334138 -0.002493 0.0
3.444314 0.886384 0.001113 0.0
2.782256 1.506854 -0.001645 0.0
0.078978 1.947524 -0.000756 0.0
1.040771 1.080745 0.001154 0.0
0.814937 0.503168 0.001065 0.0
0.350186 0.410882 0.004667 0.0
1.250391 1.834289 0.002133 0.0
1.392062 0.320741 -0.000474 0.0
1.219246 0.755741 0.000556 0.0
1.666933 1.676780 0.001167 0.0
4.003882 1.249135 0.000935 0.0
0.167378 0.105158 0.005488 0.0
3.390745 0.491938 -0.002253 0.0
3.611459 0.407906 -0.002329 0.0
2.128723 0.063479 -0.002657 0.0
1.067000 0.867461 0.004498 0.0
3.363471 0.689646 -0.004603 0.0
1.787601 0.089571 0.003593 0.0
1.764833 1.596405 0.002442 0.0
2.888331 0.789587 0.000965 0.0
1.290613 1.548972 -0.003763 0.0
2.573570 0.365837 -0.002536 0.0
0.427542 1.551023 -0.000431 0.0
2.775523 0.547175 -0.000251 0.0
1.632227 1.844460 0.000616 0.0
1.124540 1.840872 0.001845 0.0
0.549961 0.944534 0.003333 0.0
1.393521 0.612415 0.001835 0.0
4.016782 1.114884 -0.003535 0.0
4.007840 0.558291 -0.001190 0.0
1.817429 0.308197 0.002692 0.0
0.790304 0.204652 0.003835 0.0
3.368246 0.172926 -0.003651 0.0
0.188835 0.815772 0.000564 0.0
1.836073 1.087892 0.000003 0.0
3.065854 1.545360 -0.002419 0.0
3.185072 1.754167 0.000455 0.0
1.049291 1.484964 0.000292 0.0
0.208487 1.975850 0.002427 0.0
2.916145 0.654788 -0.003482 0.0
3.148018 0.263870 -0.001725 0.0
0.448810 0.752220 -0.002293 0.0
0.939151 0.104152 -0.001812 0.0
3.498204 1.629029 0.003221 0.0
1.433379 0.161315 0.000215 0.0
1.941664 0.672915 -0.000546 0.0
3.150179 1.773230 -0.001086 0.0
2.390325 1.101817 0.000369 0.0
0.360038 0.020642 -0.001808 0.0
1.915394 1.788728 -0.000545 0.0
2.874826 1.017048 0.000839 0.0
0.721968 0.534242 0.001321 0.0
0.684480 2.099153 -0.001393 0.0
4.230435 0.593972 -0.002480 0.0
3.127421 1.042419 0.000999 0.0
0.203038 0.282498 0.000686 0.0
0.770141 0.515102 0.001066 0.0
0.180444 1.482123 -0.004404 0.0
1.476559 0.994811 -0.001312 0.0
2.863540 0.005045 0.001393 0.0
3.190850 1.329842 0.001418 0.0
2.261621 0.233971 0.003676 0.0
4.114344 1.724409 -0.000864 0.0
2.587841 0.972304 0.002160 0.0
4.317876 1.665053 0.000801 0.0
4.210755 1.086484 0.002982 0.0
3.915953 0.254323 -0.000367 0.0
1.404913 1.517133 0.002821 0.0
2.692852 0.068168 0.000802 0.0
0.921867 0.515104 -0.001056 0.0
0.275105 1.900186 0.004020 0.0
1.178664 0.426181 -0.000073 0.0
0.222979 0.733473 -0.006065 0.0
1.786616 1.696821 -0.003470 0.0
1.507770 0.276811 -0.000289 0.0
1.855297 0.977489 -0.000433 0.0
1.164609 1.226918 -0.000710 0.0
2.877558 0.068112 0.000044 0.0
2.304188 0.288809 -0.002933 0.0
3.900338 0.321806 -0.001470 0.0
2.584976 0.905050 -0.001649 0.0
3.136359 2.023305 -0.003019 0.0
3.532601 0.382130 0.004204 0.0
2.610819 1.516038 0.001950 0.0
0.828165 0.714169 0.001950 0.0
0.121645 1.488610 0.002067 0.0
4.119651 1.039195 0.001684 0.0
0.635070 1.802106 -0.002745 0.0
2.801073 1.912915 0.000040 0.0
3.342399 1.563791 -0.001662 0.0
0.777475 1.155248 -0.000229 0.0
3.433330 0.205046 -0.002668 0.0
0.687493 0.419513 -0.001760 0.0
2.228052 0.928187 -0.001327 0.0
3.340955 0.699135 0.004136 0.0
3.843405 1.522517 -0.002312 0.0
1.492160 1.713621 0.001333 0.0
2.561834 0.310771 0.000084 0.0
1.849529 2.057895 -0.000777 0.0
2.328166 1.863391 0.002060 0.0
4.190531 1.176942 0.001937 0.0
2.568363 0.530223 -0.003114 0.0
0.221535 1.603525 -0.001139 0.0
0.030334 2.041139 0.000312 0.0
0.689559 0.977807 0.001701 0.0
2.023020 1.147180 -0.001624 0.0
3.189891 0.900504 0.003066 0.0
2.966736 1.873272 -0.000079 0.0
1.043416 1.682234 0.000844 0.0
3.773838 0.530770 -0.004091 0.0
2.056779 1.175712 -0.001440 0.0
2.825490 0.196672 0.000642 0.0
2.850097 1.906567 0.000867 0.0
3.231356 0.890659 -0.001502 0.0
1.876404 0.238472 -0.002757 0.0
1.189870 0.476024 0.001533 0.0
4.291040 1.344372 -0.001543 0.0
0.992452 0.780743 0.000104 0.0
1.452247 0.472513 -0.001562 0.0
1.863620 1.719843 0.000107 0.0
0.874824 1.609545 0.004196 0.0
3.116470 1.670216 0.002475 0.0
1.654235 0.868984 -0.001059 0.0
4.013251 1.176841 -0.000294 0.0
3.582423 1.674340 0.004554 0.0
3.904637 0.155169 0.001590 0.0
1.916465 0.966552 0.001930 0.0
1.763942 0.028926 -0.003570 0.0
2.385987 1.425782 0.003649 0.0
4.179183 1.536278 -0.000575 0.0
2.877838 1.489600 -0.001489 0.0
3.441772 1.639450 -0.000377 0.0
4.263289 0.534741 -0.000916 0.0
4.295918 1.899841 0.001103 0.0
2.360723 1.921963 0.001790 0.0
2.736823 0.420874 0.000852 0.0
1.252885 1.105222 0.000080 0.0
0.981650 1.663473 -0.002755 0.0
0.574999 0.736548 0.001973 0.0
0.697135 1.470266 0.000022 0.0
2.420148 1.919215 -0.003789 0.0
0.942366 1.936705 -0.001106 0.0
1.002359 0.879258 -0.000940 0.0
2.538345 1.551505 0.000528 0.0
3.276582 0.430107 -0.001178 0.0
3.935992 1.929431 -0.002324 0.0
3.572530 1.620021 -0.002657 0.0
3.895894 1.412004 0.001116 0.0
1.496908 0.759699 -0.001076 0.0
1.809234 1.512400 0.000185 0.0
1.522149 0.513492 0.002411 0.0
3.316003 0.429725 0.002953 0.0
3.831498 1.996933 0.005758 0.0
1.192014 0.917277 0.000979 0.0
2.581533 0.591517 -0.000934 0.0
3.760404 1.622802 -0.002117 0.0
0.303018 1.355299 0.002075 0.0
1.453029 0.277405 0.002586 0.0
3.516040 0.622170 0.002555 0.0
1.416475 0.433208 -0.002847 0.0
2.542141 1.777283 0.000795 0.0
2.586591 1.301054 0.001574 0.0
0.348748 0.870412 -0.002135 0.0
1.029981 1.759098 -0.001803 0.0
2.744248 1.219134 0.004599 0.0
3.301340 1.922070 0.000421 0.0
0.448321 0.669156 0.002035 0.0
3.016839 0.399053 0.001422 0.0
2.369701 1.197959 0.001089 0.0
0.836499 0.688131 0.000068 0.0
1.967140 1.453953 0.001513 0.0
1.505995 0.730792 0.000017 0.0
2.379063 1.500325 -0.000288 0.0
3.548206 0.854980 -0.000527 0.0
3.207671 0.719858 0.001255 0.0
2.099240 0.586096 0.002476 0.0
3.934400 1.868587 0.001541 0.0
3.054720 0.562884 0.001597 0.0
0.342906 1.411762 0.001748 0.0
2.080428 1.509806 0.000308 0.0
0.514224 1.620783 0.002044 0.0
2.781300 0.277085 -0.000905 0.0
0.918485 0.242223 0.003699 0.0
1.710607 0.907239 0.000094 0.0
2.046608 1.161806 -0.003717 0.0
3.898967 0.774518 -0.000493 0.0
0.607583 1.395159 -0.001119 0.0
3.698382 1.461346 0.001558 0.0
0.245377 0.564492 -0.000851 0.0
0.810649 0.828772 -0.001468 0.0
0.913762 0.595149 0.000479 0.0
1.304442 2.107563 0.000067 0.0
3.275703 1.343553 0.000865 0.0
0.722415 0.899094 -0.002754 0.0
0.976368 0.820151 -0.004163 0.0
1.310319 0.599483 -0.000507 0.0
3.330284 0.544415 0.004563 0.0
1.203819 0.180260 0.001280 0.0
3.175017 0.295798 0.001012 0.0
0.228017 1.972973 -0.002407 0.0
0.006691 0.114680 -0.001558 0.0
1.414135 0.820097 -0.004155 0.0
2.417892 1.996640 0.002455 0.0
3.751474 1.984134 0.000451 0.0
1.722184 0.178856 -0.000762 0.0
3.119881 1.357722 -0.002077 0.0
0.689693 1.892904 0.002571 0.0
1.966765 0.313408 0.002977 0.0
0.347396 0.537681 0.000018 0.0
1.256608 1.268016 0.000263 0.0
4.232390 1.470791 -0.002265 0.0
0.688403 0.872522 0.001020 0.0
0.447465 1.081055 -0.000689 0.0
0.169000 1.475721 -0.005330 0.0
0.928909 1.605912 -0.003734 0.0
1.323811 1.245840 -0.006588 0.0
1.893520 0.751828 0.000405 0.0
3.571810 1.402574 -0.000227 0.0
1.336750 1.877992 -0.001305 0.0
1.295514 0.148925 -0.000140 0.0
0.751671 1.765058 0.001365 0.0
1.807932 0.416858 -0.001916 0.0
2.762195 0.291086 0.001569 0.0
4.260784 0.827915 0.000044 0.0
0.396131 1.654407 -0.001876 0.0
1.162313 1.192574 -0.000027 0.0
3.213574 1.292388 -0.000479 0.0
2.598278 0.161014 0.000371 0.0
0.338390 0.810061 0.000211 0.0
2.990261 0.197218 -0.004153 0.0
1.423791 0.722281 0.002040 0.0
0.486793 1.536376 0.006002 0.0
0.485842 0.550102 0.002536 0.0
1.651549 1.948850 -0.002130 0.0
2.808145 1.569124 -0.002208 0.0
1.956064 1.982633 0.000867 0.0
3.700270 2.070272 0.000787 0.0
1.150496 1.047094 0.000087 0.0
4.319215 0.562246 -0.001237 0.0
0.594339 1.137187 0.000843 0.0
2.710688 0.921897 0.000122 0.0
1.400120 0.790744 -0.000074 0.0
3.551577 0.576452 -0.004536 0.0
2.679290 1.395659 0.002268 0.0
0.452969 1.867798 0.000742 0.0
0.787924 1.942778 -0.000735 0.0
0.241928 1.278818 -0.001053 0.0
2.134931 1.784443 -0.001126 0.0
1.237640 1.705255 -0.005055 0.0
0.545347 2.001694 -0.000603 0.0
0.832103 0.818054 0.002623 0.0
3.742152 0.357402 0.004760 0.0
2.655650 1.473790 -0.000908 0.0
4.037241 0.852755 0.001833 0.0
1.284129 0.879229 -0.000610 0.0
2.345824 0.191300 -0.001439 0.0
2.955881 0.789663 0.002326 0.0
0.668371 0.402961 -0.003351 0.0
0.876777 1.859192 0.002016 0.0
3.358494 1.015896 0.000195 0.0
4.137817 0.961651 -0.000719 0.0
4.000221 1.735946 -0.002960 0.0
0.088304 1.129833 0.002993 0.0
3.902000 2.056740 -0.000830 0.0
2.813397 1.650470 0.001670 0.0
1.792283 0.730937 -0.000386 0.0
2.479911 0.688535 -0.003187 0.0
1.788439 0.862814 0.000896 0.0
3.340567 1.009050 -0.003281 0.0
3.402480 0.628644 -0.002562 0.0
2.829475 0.245293 0.005438 0.0
2.429168 1.713134 0.001123 0.0
2.315736 0.068073 0.000210 0.0
2.784300 1.770900 -0.001592 0.0
0.200987 0.313939 -0.001706 0.0
1.261098 1.116261 0.002018 0.0
4.087230 0.500205 -0.002120 0.0
1.400508 0.773986 -0.001299 0.0
2.945560 1.172830 -0.001789 0.0
0.069031 1.406961 -0.001433 0.0
1.409768 0.179239 0.001953 0.0
0.314340 0.798419 0.000969 0.0
0.490097 0.507124 -0.002889 0.0
2.013475 0.905240 0.000488 0.0
3.137896 1.223426 0.000469 0.0
3.059367 0.264283 -0.001310 0.0
3.650289 1.681053 -0.001436 0.0
4.163376 0.259545 0.005970 0.0
3.812715 1.780835 -0.004172 0.0
3.298221 1.729787 0.001969 0.0
4.134769 0.062605 -0.002779 0.0
3.283169 1.068357 -0.001731 0.0
3.953933 1.792475 0.001868 0.0
0.411113 1.148937 0.001303 0.0
3.259626 2.003915 -0.001543 0.0
0.073542 0.575686 0.002653 0.0
3.075670 0.853682 -0.001637 0.0
1.158517 0.025631 0.001201 0.0
3.414238 1.430759 -0.001553 0.0
0.324501 1.284582 -0.001400 0.0
1.478151 1.042353 0.000234 0.0
4.342556 1.396795 -0.001664 0.0
1.561165 0.627365 0.000992 0.0
1.678919 1.491236 -0.000120 0.0
4.048841 1.911436 0.000880 0.0
0.251405 0.517727 -0.000093 0.0
3.197621 0.189150 0.000290 0.0
4.231554 1.325335 0.002771 0.0
0.106857 0.712745 -0.002259 0.0
3.089313 1.006615 0.003016 0.0
3.538521 1.377113 0.003686 0.0
1.505034 0.041477 -0.001301 0.0
0.805745 2.110550 -0.002369 0.0
0.586559 1.815749 -0.001108 0.0
1.954227 1.782356 0.006000 0.0
0.456256 1.929906 -0.003033 0.0
2.165518 1.250504 0.003716 0.0
0.543603 1.321378 -0.002647 0.0
0.522545 1.636607 0.003036 0.0
1.326620 0.955252 -0.002010 0.0
0.245090 0.509194 -0.007028 0.0
4.102970 0.856193 -0.002262 0.0
2.983191 1.024903 -0.000707 0.0
1.758139 0.361553 -0.000336 0.0
1.941592 0.693294 -0.000967 0.0
1.836597 1.230445 -0.000097 0.0
0.377620 1.925825 -0.000428 0.0
0.565581 1.390444 0.001174 0.0
1.948291 0.590417 -0.002818 0.0
3.335537 1.563950 -0.002204 0.0
1.524414 0.490322 0.002117 0.0
0.306606 2.053760 -0.001658 0.0
2.132227 1.755740 0.001402 0.0
2.405076 1.962586 -0.000626 0.0
1.919020 1.108969 0.004439 0.0
3.694103 0.570791 0.003007 0.0
2.967069 0.918096 -0.000273 0.0
0.625392 0.743575 -0.000986 0.0
2.375231 0.532714 0.001476 0.0
4.032355 2.039061 0.000110 0.0
1.653054 0.231856 -0.002135 0.0
2.565778 1.987733 0.002318 0.0
2.516616 1.217017 0.003695 0.0
4.084136 0.719879 -0.001545 0.0
3.084275 1.066065 0.001746 0.0
2.261480 1.754742 0.002422 0.0
3.922876 1.852617 0.000385 0.0
1.289407 1.320227 -0.002166 0.0
2.143978 1.885202 0.003446 0.0
4.293008 1.070440 -0.000109 0.0
2.229653 0.757506 -0.000876 0.0
2.435089 1.960271 0.003092 0.0
3.581685 1.240569 -0.001887 0.0
1.684672 0.118894 0.001206 0.0
0.781860 0.137994 -0.001655 0.0
0.360024 0.523603 0.000650 0.0
2.686260 2.095093 0.006414 0.0
2.611296 0.579608 -0.001692 0.0
1.248493 0.351697 -0.000921 0.0
2.382301 2.089389 0.001688 0.0
3.414342 1.275165 -0.001699 0.0
3.721543 0.283554 0.000201 0.0
2.224537 1.773175 0.000882 0.0
3.593692 0.835762 0.001228 0.0
0.119706 -0.001264 0.003369 0.0
1.564851 0.825813 0.000037 0.0
3.129277 1.211295 -0.000744 0.0
3.431239 1.676375 -0.002732 0.0
0.598647 0.122440 0.001739 0.0
3.321334 0.460144 0.000171 0.0
3.686762 0.510969 0.002043 0.0
2.439944 1.392718 0.001212 0.0
0.274046 0.104519 0.002769 0.0
3.186756 1.110938 0.001983 0.0
4.379198 1.222666 0.003605 0.0
0.039231 1.203461 0.001691 0.0
1.483072 0.470407 0.001623 0.0
0.417625 0.758380 -0.006178 0.0
1.163261 2.062227 0.002044 0.0
2.253329 0.767902 0.003608 0.0
3.860356 2.052463 -0.002663 0.0
3.237501 0.111188 0.002922 0.0
1.470289 0.423314 -0.001732 0.0
3.738954 1.665053 0.000012 0.0
1.847825 0.334459 0.003706 0.0
0.837079 1.055797 0.000723 0.0
1.934558 0.173177 -0.004132 0.0
4.255333 0.660985 -0.002107 0.0
2.034230 1.095753 0.001463 0.0
3.610281 0.339471 0.000590 0.0
1.963724 0.851849 -0.000601 0.0
3.351760 0.549577 -0.001480 0.0
0.607017 0.298302 0.002199 0.0
0.950605 0.800154 0.002435 0.0
1.455219 2.096794 0.000308 0.0
0.464494 1.925470 -0.001105 0.0
0.115739 0.800776 -0.004999 0.0
2.143520 1.894304 -0.000663 0.0
1.592217 0.687408 0.002937 0.0
2.393010 0.578612 0.001880 0.0
1.080015 1.931371 -0.002131 0.0
2.119688 2.112474 0.000534 0.0
1.483369 1.395329 -0.002377 0.0
4.093975 0.015333 -0.001825 0.0
2.795494 0.780534 0.000300 0.0
3.774537 1.207461 -0.001793 0.0
4.256868 1.808870 0.000191 0.0
3.290930 0.215486 0.002244 0.0
3.962501 0.235561 0.002758 0.0
0.322199 0.433572 -0.003710 0.0
0.240785 2.040620 0.002197 0.0
1.791375 2.041161 -0.001506 0.0
3.911409 0.566874 -0.002610 0.0
1.959471 1.006246 0.001162 0.0
0.968642 0.995149 -0.002443 0.0
0.270061 1.690453 -0.000410 0.0
0.016491 0.854495 -0.001442 0.0
2.465139 1.697608 0.006693 0.0
1.757144 1.938386 0.000262 0.0
0.785335 1.470663 -0.000325 0.0
1.737930 1.645393 0.001274 0.0
3.735062 1.840169 -0.002487 0.0
0.290099 1.718529 0.001716 0.0
1.987843 0.949273 0.003057 0.0
0.088076 1.084046 0.001560 0.0
3.247681 1.944322 -0.001061 0.0
3.446202 1.268222 -0.000138 0.0
3.610397 1.054096 0.002598 0.0
1.051805 1.772880 0.001416 0.0
0.353187 0.893262 0.006039 0.0
4.266132 0.359336 0.001076 0.0
1.627613 0.648799 0.005328 0.0
0.455516 1.329225 -0.000066 0.0
1.945986 0.849278 0.002915 0.0
3.979665 0.624246 0.000516 0.0
2.030264 1.825193 -0.000203 0.0
3.672608 0.323295 -0.002100 0.0
3.903176 0.280969 0.003864 0.0
0.151814 1.941238 -0.000060 0.0
1.088238 1.154751 0.003194 0.0
3.116278 0.138942 -0.001699 0.0
3.558674 1.849901 0.003037 0.0
1.990398 1.083409 0.001025 0.0
2.194630 1.520138 0.002017 0.0
0.035179 0.760637 0.000220 0.0
0.582712 0.959872 -0.001101 0.0
3.499153 1.177238 0.001436 0.0
1.912585 0.427770 0.000742 0.0
3.354747 0.335271 -0.002096 0.0
3.481723 1.363325 0.004593 0.0
0.731505 0.240269 -0.001566 0.0
1.307064 1.562935 0.003260 0.0
3.561940 0.048089 0.000725 0.0
2.202374 0.192295 0.001668 0.0
4.226433 0.112110 -0.003104 0.0
2.774421 0.928115 0.002463 0.0
3.462261 1.383837 -0.000964 0.0
2.429648 0.005956 0.004540 0.0
2.297174 0.927046 -0.002681 0.0
3.396519 0.332114 -0.000138 0.0
1.656665 1.340485 0.001187 0.0
4.140754 0.539699 -0.004745 0.0
4.298338 1.358537 0.001110 0.0
1.054644 1.941536 -0.004392 0.0
1.013781 1.588564 -0.002852 0.0
3.841348 1.756783 -0.000759 0.0
0.101210 2.061785 0.000185 0.0
1.942800 0.994792 -0.002451 0.0
3.622817 1.586923 0.000219 0.0
2.081402 1.212181 0.000528 0.0
2.424300 0.218719 -0.001310 0.0
1.312686 0.967367 0.001715 0.0
2.427374 0.114042 0.002189 0.0
1.744663 1.695937 -0.002433 0.0
0.331955 1.730047 -0.001010 0.0
2.105077 0.531276 0.001597 0.0
3.232934 1.766427 -0.005188 0.0
2.767231 0.401175 0.000632 0.0
4.225223 0.249818 -0.000796 0.0
2.055592 0.743595 0.002519 0.0
0.331568 1.045308 -0.002288 0.0
3.309506 1.670718 -0.006296 0.0
0.349923 0.316510 -0.000422 0.0
0.229679 0.162050 0.000282 0.0
2.848171 1.777736 -0.003165 0.0
4.324328 0.683540 -0.000583 0.0
0.682425 1.795848 -0.000321 0.0
2.435588 0.780527 -0.004481 0.0
3.632480 1.840457 0.003789 0.0
2.294171 0.739305 -0.002348 0.0
1.544156 0.881564 -0.000962 0.0
1.068404 1.644025 -0.004013 0.0
1.196787 1.744988 0.003688 0.0
1.403011 1.014103 -0.002832 0.0
4.083429 0.693438 -0.000614 0.0
1.841978 0.652981 -0.001932 0.0
1.661071 1.054097 0.002424 0.0
0.852814 1.426263 -0.000402 0.0
2.735917 0.037718 0.002198 0.0
0.397093 0.914775 0.002891 0.0
1.921736 1.262451 0.001051 0.0
0.285528 0.641438 -0.000604 0.0
3.962750 1.227694 0.001499 0.0
1.379101 1.079073 -0.000416 0.0
3.935009 0.042374 -0.006284 0.0
0.150952 1.286507 0.000873 0.0
0.477866 0.034596 -0.006023 0.0
3.002593 0.027596 -0.002894 0.0
2.321010 0.841766 0.001113 0.0
3.878793 1.416191 0.001718 0.0
1.563548 0.405838 -0.003375 0.0
1.984906 1.287812 0.002074 0.0
1.958737 0.115436 0.003068 0.0
3.045484 1.641530 0.000815 0.0
0.695933 0.635688 0.003605 0.0
3.746884 0.170670 -0.002216 0.0
0.864508 0.462075 -0.006656 0.0
1.041847 0.934473 -0.000158 0.0
1.187397 0.214784 -0.001801 0.0
1.335125 1.495126 -0.003892 0.0
1.632086 1.742505 0.000647 0.0
2.116461 0.271436 0.003327 0.0
1.742524 0.846534 0.005944 0.0
2.495874 1.741918 0.000927 0.0
1.285383 0.345612 0.001657 0.0
2.115062 0.604650 0.006153 0.0
4.065126 1.386617 0.002262 0.0
2.760515 1.533629 0.002916 0.0
2.136265 0.052776 0.003548 0.0
2.427630 0.589260 0.004829 0.0
3.626025 1.093786 -0.003868 0.0
3.040622 0.861080 0.001879 0.0
2.021956 0.728571 0.002211 0.0
0.274109 1.980494 0.001137 0.0
0.854574 1.709253 0.000669 0.0
1.702310 0.697739 0.002723 0.0
4.135459 1.874933 -0.000951 0.0
1.782779 1.600324 0.000784 0.0
0.885133 1.592991 -0.000678 0.0
1.592551 1.661299 0.000814 0.0
2.042131 0.616777 -0.000116 0.0
1.762232 1.317017 -0.001570 0.0
1.849874 0.153410 0.001379 0.0
2.761398 0.580992 0.003486 0.0
2.459669 -0.002059 0.005416 0.0
0.828446 0.170562 0.003615 0.0
2.431419 0.471259 0.003764 0.0
1.648068 0.225372 0.002741 0.0
3.110409 1.194350 -0.001124 0.0
3.562202 0.109400 -0.000814 0.0
0.258900 0.526673 -0.003141 0.0
0.241330 1.658013 0.002847 0.0
0.489472 0.007838 0.000088 0.0
2.137907 1.352086 -0.003489 0.0
1.504512 1.163027 -0.000432 0.0
0.363255 1.310456 0.003080 0.0
2.490658 1.936811 -0.004259 0.0
0.499130 0.938553 -0.000288 0.0
0.793436 0.203985 -0.002470 0.0
0.902299 0.843482 -0.001263 0.0
0.029228 0.621905 0.000419 0.0
3.475570 0.342521 -0.001898 0.0
2.498791 1.785125 -0.002135 0.0
3.716979 0.278529 0.002086 0.0
2.359615 1.856164 0.003584 0.0
2.703588 0.276605 0.000789 0.0
3.345637 1.905408 -0.001181 0.0
3.964832 0.522595 0.000396 0.0
3.763116 0.652065 0.001002 0.0
1.771584 0.912614 -0.000901 0.0
4.031269 0.174305 -0.000338 0.0
1.730063 1.696361 -0.001864 0.0
0.025241 0.352706 0.001770 0.0
2.781377 1.718891 0.003358 0.0
0.952912 1.946329 -0.004970 0.0
1.995850 1.177757 -0.001621 0.0
1.734667 1.478240 0.000033 0.0
3.845801 0.842253 0.002381 0.0
2.647502 0.032177 0.003849 0.0
2.174126 1.615277 0.003046 0.0
2.269903 1.203020 -0.001327 0.0
0.280953 0.651007 0.000505 0.0
0.536704 0.719827 0.003173 0.0
2.555421 1.430442 -0.000800 0.0
1.537317 1.865940 0.001978 0.0
2.229615 2.008289 -0.001820 0.0
4.347665 0.104605 0.002240 0.0
2.313318 1.620361 -0.003201 0.0
1.345078 0.945994 -0.003782 0.0
2.487333 0.495038 0.004481 0.0
3.832087 0.939778 0.002947 0.0
1.782881 1.191417 -0.001561 0.0
2.676034 2.009968 0.000153 0.0
0.483399 1.391403 0.000113 0.0
3.412807 1.400553 0.000281 0.0
3.384190 2.038191 0.000062 0.0
2.220434 1.808100 -0.002761 0.0
4.307059 0.943922 0.000469 0.0
2.591243 1.322271 0.000946 0.0
0.664750 0.262569 -0.002051 0.0
1.764714 1.749652 -0.003149 0.0
2.608599 1.739257 -0.001975 0.0
0.549874 1.634863 0.000624 0.0
0.011953 1.722412 -0.002757 0.0
0.905033 0.112082 0.004177 0.0
3.470598 0.361008 0.002033 0.0
1.541238 0.296603 0.001078 0.0
1.178814 1.002438 0.000273 0.0
4.398636 0.729173 0.002685 0.0
3.420351 0.254430 0.002775 0.0
1.983800 2.045570 0.001145 0.0
2.242256 1.542926 -0.000454 0.0
2.364558 1.923088 0.001231 0.0
3.480252 0.300409 -0.000693 0.0
3.639545 1.334566 -0.003138 0.0
0.174613 0.488838 0.000014 0.0
3.007804 0.271573 0.001451 0.0
1.141884 2.076838 0.003150 0.0
1.859088 1.253378 -0.003247 0.0
1.890571 0.339269 -0.004043 0.0
1.397428 0.373725 0.002332 0.0
3.734811 0.620467 0.002945 0.0
1.269899 1.180036 0.000056 0.0
1.053155 1.595577 -0.003713 0.0
1.409772 1.007998 0.000146 0.0
1.723453 1.254951 0.002581 0.0
2.506583 1.517865 0.001653 0.0
3.928963 1.414185 0.001103 0.0
0.162098 0.723254 -0.001617 0.0
0.687546 1.758468 0.000761 0.0
1.979985 0.491333 0.001178 0.0
1.681395 1.904626 0.000116 0.0
0.423152 0.926212 -0.000039 0.0
2.798921 0.564972 0.001173 0.0
0.940489 0.979084 -0.001260 0.0
4.078239 0.013201 -0.000367 0.0
1.121232 1.565224 -0.000184 0.0
3.737133 1.039110 -0.002899 0.0
2.124015 0.248540 0.002450 0.0
1.579475 1.258332 -0.000413 0.0
2.691897 1.828627 -0.000765 0.0
1.378088 1.032333 0.000593 0.0
2.050319 0.702111 -0.003629 0.0
1.288682 0.650602 0.001496 0.0
0.690319 0.778891 0.002239 0.0
3.472806 1.752975 0.002476 0.0
2.055960 0.591185 0.001994 0.0
1.611401 1.427318 -0.004958 0.0
2.704086 0.190037 -0.001438 0.0
0.161026 1.672362 -0.002146 0.0
0.936752 1.095930 -0.001088 0.0
3.870105 0.741938 0.003134 0.0
1.909917 1.951070 0.001695 0.0
2.419302 0.512433 0.002734 0.0
1.941098 1.601241 -0.002431 0.0
4.064367 1.327765 0.001663 0.0
3.583157 0.534733 0.002951 0.0
2.731296 0.181595 0.002161 0.0
1.248003 1.308330 0.002252 0.0
3.697824 0.414182 -0.003266 0.0
0.003824 1.239694 -0.002987 0.0
1.941629 0.333933 0.001567 0.0
1.388813 2.062035 -0.000784 0.0
1.546604 1.979005 -0.003834 0.0
4.333669 0.834593 -0.000796 0.0
1.993382 1.072374 0.004505 0.0
1.596923 0.360826 0.003821 0.0
2.558099 0.370053 0.001847 0.0
3.473838 1.890101 -0.004567 0.0
3.951713 1.318391 -0.003542 0.0
3.117738 0.255715 -0.001326 0.0
0.274101 0.157935 -0.001632 0.0
3.151538 0.789461 0.003383 0.0
3.952509 0.181302 -0.001079 0.0
4.388684 2.003712 -0.000045 0.0
2.641233 1.701750 -0.001153 0.0
1.664636 0.038493 0.004016 0.0
2.438337 0.058412 -0.000945 0.0
2.377330 0.645449 0.000797 0.0
3.369304 0.772887 0.000460 0.0
2.903453 1.073467 -0.004173 0.0
2.175890 1.278025 0.001540 0.0
2.052370 1.830428 -0.003645 0.0
3.843567 0.588888 0.002046 0.0
3.449020 0.913918 0.002058 0.0
3.003670 1.144886 -0.005253 0.0
3.615432 1.624817 0.002284 0.0
2.539923 1.132329 -0.000694 0.0
4.037961 1.440873 0.003514 0.0
2.188114 0.841381 0.000439 0.0
2.092940 1.082746 0.003444 0.0
0.350826 0.825918 0.000826 0.0
4.233768 0.517981 -0.004373 0.0
2.315785 1.279709 0.002346 0.0
1.776120 0.187145 -0.001446 0.0
0.345023 0.722352 0.001376 0.0
4.050558 0.978698 -0.002030 0.0
4.036169 2.066443 0.001923 0.0
3.396876 0.091641 0.002154 0.0
0.074933 1.774691 0.002061 0.0
3.220639 1.949123 -0.002270 0.0
3.071964 1.666161 -0.005359 0.0
0.799073 0.107517 0.005148 0.0
3.975405 0.525310 0.000805 0.0
4.118621 1.046825 0.000056 0.0
2.415101 0.032084 0.003145 0.0
3.152562 1.718358 0.001607 0.0
1.058811 0.258666 0.003453 0.0
2.880690 0.611133 -0.003074 0.0
2.409132 1.135785 -0.003105 0.0
4.364861 1.787764 0.000828 0.0
2.811678 1.682499 0.001137 0.0
2.433206 0.631446 -0.000763 0.0
3.425436 1.980511 0.003810 0.0
0.181342 0.175406 0.000019 0.0
2.651238 0.597192 -0.000329 0.0
2.763590 1.318169 -0.000913 0.0
0.242950 0.458945 -0.001863 0.0
1.886296 1.044765 0.000485 0.0
3.283686 1.837205 0.000587 0.0
2.274888 1.542152 0.001599 0.0
2.680388 0.497027 -0.000956 0.0
3.137228 0.122959 0.001860 0.0
0.129941 0.588477 -0.003362 0.0
2.440718 1.611873 -0.000889 0.0
3.257364 0.264476 0.001330 0.0
0.972916 0.137693 -0.001847 0.0
1.712338 0.160652 0.001748 0.0
3.173855 1.654512 -0.001999 0.0
2.517188 0.321705 -0.001756 0.0
1.581566 1.408343 -0.000221 0.0
0.582996 0.809589 0.003049 0.0
2.165916 1.931295 -0.002549 0.0
0.230407 1.991662 0.000932 0.0
1.111011 1.800086 -0.001557 0.0
1.594090 1.293354 -0.003467 0.0
0.182655 1.210581 -0.000161 0.0
0.261418 2.099980 -0.001944 0.0
2.929381 1.130431 -0.002400 0.0
2.612201 0.922963 0.001478 0.0
4.205941 0.837464 -0.001134 0.0
3.269372 1.202522 0.000977 0.0
0.955909 0.987825 0.002304 0.0
2.750017 0.802930 0.000766 0.0
0.558044 0.825039 -0.001678 0.0
4.109947 0.377237 0.004170 0.0
3.560322 1.554197 -0.002475 0.0
1.547295 0.061137 -0.002247 0.0
2.037452 0.606443 -0.000007 0.0
0.217500 1.282811 0.003612 0.0
4.168394 0.830801 0.000341 0.0
3.462036 1.541393 0.005477 0.0
1.762503 1.651420 0.001941 0.0
3.239511 0.980127 0.002669 0.0
2.153341 0.398385 0.003705 0.0
0.121303 0.827200 -0.000223 0.0
2.030194 0.222438 -0.001239 0.0
2.907589 1.972768 -0.000252 0.0
4.009264 2.006747 0.000989 0.0
3.326543 0.969985 -0.003733 0.0
0.888005 1.164196 0.000165 0.0
2.244883 0.213013 0.002328 0.0
1.791332 1.914266 -0.001666 0.0
2.664482 1.736915 0.001321 0.0
3.577819 0.760677 -0.003275 0.0
3.174876 1.315900 0.001081 0.0
0.212707 1.423518 -0.001316 0.0
1.952414 1.692939 0.002907 0.0
1.341017 1.997455 0.000887 0.0
0.319121 0.738113 0.002050 0.0
2.534724 1.650049 -0.006169 0.0
1.646282 1.028864 0.000891 0.0
1.116109 0.925186 -0.001541 0.0
3.532516 1.952246 0.002321 0.0
0.140967 0.898052 0.001582 0.0
1.504270 0.312755 0.000414 0.0
3.087799 0.999728 -0.000722 0.0
2.056392 1.156942 -0.001356 0.0
2.387413 0.935634 0.000041 0.0
3.025668 1.001348 -0.005861 0.0
3.119075 0.860579 -0.000503 0.0
1.333377 1.265941 0.003263 0.0
4.273489 2.101501 -0.002556 0.0
2.888695 0.498465 -0.001217 0.0
3.910626 0.739390 -0.002941 0.0
0.740959 1.076722 0.003349 0.0
2.175007 0.920635 -0.002268 0.0
1.518179 1.822829 0.003889 0.0
0.201270 0.697058 0.000130 0.0
0.836773 2.080453 -0.001835 0.0
2.800289 0.433972 -0.000574 0.0
3.283455 1.161188 0.003634 0.0
2.737388 0.652409 0.004634 0.0
3.380490 1.556330 -0.000992 0.0
1.222022 0.891523 0.003841 0.0
0.297259 1.564026 0.005446 0.0
2.994491 0.475982 0.000075 0.0
1.957533 1.923137 0.000166 0.0
1.349971 2.054874 -0.000439 0.0
1.384719 1.170501 0.001082 0.0
2.759190 1.664827 -0.006246 0.0
3.012567 0.214908 -0.000532 0.0
3.977672 0.926540 -0.000889 0.0
3.571640 0.297209 -0.002000 0.0
2.329787 1.170968 -0.000376 0.0
2.190210 0.947608 0.002736 0.0
3.114620 1.866955 -0.003216 0.0
0.453827 0.882099 -0.004597 0.0
3.258000 1.441453 -0.002309 0.0
4.121130 1.663897 0.004956 0.0
4.174493 1.045926 0.000902 0.0
0.736178 0.885613 0.003312 0.0
0.527994 1.350527 -0.002138 0.0
3.849774 1.523974 -0.003203 0.0
0.234134 0.004804 -0.005079 0.0
1.766441 2.004884 -0.005911 0.0
0.536643 1.822972 0.003216 0.0
1.488603 0.128284 0.003571 0.0
4.013589 1.243970 0.002534 0.0
0.209569 0.931903 -0.000556 0.0
3.103212 1.323373 -0.001580 0.0
1.718861 1.823206 0.000091 0.0
0.859180 0.402557 -0.003864 0.0
4.373514 0.035133 -0.001191 0.0
3.181324 1.472435 0.003315 0.0
1.475708 1.121939 -0.000114 0.0
0.392494 1.541600 0.000706 0.0
3.860085 1.307362 -0.000984 0.0
2.755034 1.976059 -0.002954 0.0
0.476587 0.130486 -0.002509 0.0
3.065145 1.367274 0.001455 0.0
0.018890 1.684695 -0.002452 0.0
2.295519 0.283602 -0.000436 0.0
2.929579 0.820000 0.001173 0.0
4.019869 1.976923 0.001567 0.0
2.356261 1.616318 -0.003560 0.0
3.555502 1.225968 -0.003166 0.0
1.758515 1.222951 0.003389 0.0
0.616270 1.600470 0.000223 0.0
1.677953 0.364282 -0.004054 0.0
3.318319 0.487989 0.000060 0.0
2.102687 0.602143 0.000256 0.0
1.472131 0.728150 -0.000393 0.0
0.403493 1.639612 0.005136 0.0
3.181731 2.062017 0.000852 0.0
3.360819 1.611337 -0.001231 0.0
3.366192 0.760212 0.000732 0.0
2.760879 0.921579 0.000556 0.0
1.397950 1.085210 -0.000441 0.0
3.639107 0.484978 0.002333 0.0
4.145741 0.185453 0.000946 0.0
0.453437 1.921613 0.004399 0.0
2.251780 1.676029 -0.002684 0.0
1.684853 0.958603 -0.003289 0.0
0.744504 1.470306 -0.000781 0.0
2.696975 0.118363 0.001191 0.0
3.542702 1.085349 0.001129 0.0
2.207298 0.333116 -0.001851 0.0
0.852034 0.620256 -0.000905 0.0
2.624665 0.910881 -0.001050 0.0
1.833825 1.326653 -0.002187 0.0
2.959545 2.031023 0.001788 0.0
3.987433 0.075965 -0.003594 0.0
1.097043 2.069380 -0.001159 0.0
4.074662 1.682792 -0.000556 0.0
3.889690 0.558114 0.000224 0.0
4.339344 2.078023 -0.002053 0.0
2.411466 1.367024 -0.001056 0.0
0.180457 1.342074 -0.000636 0.0
2.590381 0.660221 0.004288 0.0
0.014300 1.840507 0.001042 0.0
2.982739 1.057384 -0.000066 0.0
1.831771 1.647373 0.000736 0.0
0.892231 1.203301 0.001851 0.0
0.523028 1.161461 0.004018 0.0
3.794301 0.877741 0.004344 0.0
1.106575 0.633968 -0.001682 0.0
2.068365 1.835049 -0.003908 0.0
1.574943 2.030116 0.001368 0.0
0.317789 0.156931 0.001288 0.0
1.199599 2.010636 -0.001281 0.0
2.950840 1.047605 0.003472 0.0
3.915442 1.416992 0.000962 0.0
2.463786 0.544763 0.003142 0.0
3.662275 0.283122 -0.002495 0.0
1.609814 0.187264 -0.000426 0.0
0.084884 1.749590 0.001942 0.0
0.751127 1.459590 0.001903 0.0
1.206709 0.213671 -0.001473 0.0
3.079471 1.686503 -0.000207 0.0
4.161052 0.078165 -0.001596 0.0
2.498205 1.082476 -0.002072 0.0
1.234267 1.053376 0.002596 0.0
2.363707 1.465648 0.000109 0.0
0.956677 1.552154 0.000031 0.0
1.124114 0.771172 0.002494 0.0
0.631464 1.744283 -0.003758 0.0
3.953560 0.329562 -0.001187 0.0
3.771359 0.350645 -0.000082 0.0
1.187165 0.904920 0.000916 0.0
3.399089 0.265295 0.002969 0.0
2.725786 1.428086 0.001197 0.0
2.827831 1.574719 -0.001737 0.0
2.890495 0.490055 0.000210 0.0
3.078768 1.414325 0.000794 0.0
2.806883 1.744147 -0.002698 0.0
1.477736 1.040772 0.000292 0.0
2.564627 1.702859 0.001483 0.0
3.441175 0.655392 0.003477 0.0
0.334441 0.884682 0.000380 0.0
0.043025 1.832199 0.000070 0.0
1.575931 0.997931 0.000058 0.0
3.440114 1.034054 -0.001168 0.0
0.080173 1.423585 -0.001284 0.0
2.220289 1.003628 -0.000076 0.0
4.257193 1.099012 -0.000949 0.0
0.778461 0.868830 0.000047 0.0
4.083837 0.735037 0.002381 0.0
2.964380 0.067450 -0.001862 0.0
0.878358 0.794169 -0.000765 0.0
1.258933 1.674871 -0.001992 0.0
1.712403 0.035209 -0.002602 0.0
0.398960 0.018102 0.001891 0.0
3.740336 1.714563 -0.000315 0.0
0.525959 0.753160 0.000428 0.0
3.067897 0.199091 -0.002006 0.0
0.068951 0.628320 0.001015 0.0
4.298266 1.475858 -0.003476 0.0
1.004268 1.499597 -0.000460 0.0
1.798458 1.055035 -0.000939 0.0
2.747905 1.104058 -0.000834 0.0
2.746959 1.984243 0.002591 0.0
2.370958 1.498969 0.002096 0.0
2.067294 1.251251 0.001109 0.0
3.923048 1.511101 -0.002073 0.0
2.289504 1.390283 0.001201 0.0
3.119648 2.023647 0.003977 0.0
1.246001 1.356465 0.000856 0.0
0.252895 0.365872 0.000480 0.0
3.657512 0.002037 0.002380 0.0
0.346092 0.442135 -0.000784 0.0
4.324751 1.069975 -0.002379 0.0
0.529594 0.644511 -0.001342 0.0
2.223154 0.314181 -0.004265 0.0
1.658671 0.548881 0.003153 0.0
3.544857 0.651363 -0.006458 0.0
2.581924 0.822761 0.000849 0.0
0.734732 0.537837 -0.000521 0.0
3.972478 0.498416 -0.004000 0.0
3.768987 0.617260 -0.003281 0.0
2.264684 0.038268 -0.002554 0.0
1.687334 0.767628 -0.000050 0.0
3.189204 1.749886 -0.000135 0.0
3.292809 0.625665 -0.000796 0.0
2.220476 0.963493 -0.002066 0.0
2.628696 0.056790 0.005280 0.0
3.457559 0.218347 -0.001419 0.0
3.635946 0.639495 0.001423 0.0
1.174988 1.178434 0.001248 0.0
3.469166 1.684171 0.000708 0.0
3.155668 0.521715 0.004163 0.0
1.550794 1.199458 0.000601 0.0
0.977719 1.295066 0.005154 0.0
3.102425 0.061224 -0.001991 0.0
3.829620 1.233599 0.001422 0.0
2.884705 1.083189 0.000085 0.0
0.585475 1.363481 -0.000122 0.0
3.999597 0.035736 -0.001569 0.0
1.050553 0.765281 -0.001210 0.0
0.278046 1.032977 -0.002164 0.0
0.334685 1.166846 0.000975 0.0
0.776427 1.821379 0.002551 0.0
1.694240 1.487017 -0.002504 0.0
0.123029 0.657522 -0.000056 0.0
2.613634 0.423666 -0.000752 0.0
4.327870 1.229980 0.002732 0.0
2.699959 0.819231 0.000048 0.0
1.152121 1.418624 0.001560 0.0
1.241549 2.092436 -0.000094 0.0
1.913213 1.279256 0.000179 0.0
1.750992 1.959747 -0.000818 0.0
4.122097 1.879992 -0.001262 0.0
2.383234 1.497150 -0.003892 0.0
2.771226 0.347606 0.000014 0.0
0.120778 2.018087 -0.003007 0.0
1.173939 1.081565 -0.002714 0.0
0.253776 0.475575 -0.000920 0.0
2.243821 0.262685 0.003966 0.0
3.288604 1.453187 0.002494 0.0
0.439875 1.838065 -0.002431 0.0
1.444177 1.064755 -0.001439 0.0
3.023283 1.779096 0.001193 0.0
4.228794 1.781184 0.005307 0.0
1.587894 1.017499 -0.000818 0.0
0.581963 0.473390 0.000844 0.0
3.260309 0.867487 0.001159 0.0
3.617847 1.607403 0.003803 0.0
0.783694 1.274793 -0.003390 0.0
2.898097 1.314295 -0.002563 0.0
0.850589 2.113027 0.002087 0.0
2.608963 0.899676 -0.002941 0.0
0.426222 0.254976 -0.000522 0.0
2.082948 1.198734 0.002516 0.0
2.276170 1.354695 -0.000501 0.0
3.778813 2.037045 -0.002213 0.0
2.204122 1.775293 0.000416 0.0
3.188317 1.598518 -0.003375 0.0
2.925000 0.143248 -0.001489 0.0
3.202895 1.389943 -0.003800 0.0
3.168941 0.164331 0.002488 0.0
1.305004 2.076476 0.001852 0.0
0.873059 0.801400 -0.000039 0.0
1.674945 1.087939 0.000893 0.0
3.722198 0.938394 -0.003239 0.0
0.757649 0.749214 0.000386 0.0
4.298812 1.427014 -0.000245 0.0
0.843254 0.640758 -0.002172 0.0
4.343525 0.283157 0.000805 0.0
2.247274 1.403689 0.005248 0.0
0.648554 0.134563 -0.000712 0.0
2.094992 1.653865 0.001400 0.0
3.611884 1.094249 0.000785 0.0
0.238930 1.460721 0.005507 0.0
2.664726 0.445109 -0.000714 0.0
1.806097 1.155328 -0.002471 0.0
3.859219 -0.003227 -0.002507 0.0
3.376485 1.382424 0.001416 0.0
0.230665 0.687759 -0.003380 0.0
1.447021 0.407726 0.004966 0.0
3.469007 2.100303 0.003238 0.0
2.105959 0.200427 -0.002222 0.0
4.173112 0.868838 -0.000611 0.0
0.536659 1.773128 -0.002195 0.0
1.134624 2.030683 -0.000314 0.0
2.461202 1.660044 0.001548 0.0
1.498559 0.042602 0.001449 0.0
3.329080 1.425002 -0.002615 0.0
1.347022 2.063307 -0.000266 0.0
1.722681 1.247181 -0.000490 0.0
1.227884 1.932333 0.005212 0.0
1.118251 0.700781 0.003178 0.0
2.961088 0.394824 -0.000655 0.0
1.233259 0.581264 0.001693 0.0
3.489948 0.349586 0.000344 0.0
2.399935 1.867876 -0.002008 0.0
1.806701 2.006891 -0.003129 0.0
2.751188 1.428693 -0.002619 0.0
2.614113 1.861615 0.003975 0.0
2.794443 1.507132 0.000813 0.0
1.254432 0.861367 -0.000351 0.0
0.773464 1.229317 0.005594 0.0
1.223746 0.982029 -0.001910 0.0
0.064253 2.065762 -0.001382 0.0
2.174644 1.449354 -0.001852 0.0
1.958024 0.740567 -0.004246 0.0
1.709577 0.638066 0.000935 0.0
1.637642 1.675826 0.000648 0.0
0.332334 1.796032 -0.000884 0.0
2.459669 0.825448 0.000209 0.0
1.803503 1.431010 -0.003936 0.0
1.833521 1.761438 -0.002149 0.0
3.970573 1.571011 0.002742 0.0
1.498396 0.569570 -0.002084 0.0
4.336394 0.089896 -0.002070 0.0
0.787050 1.060655 -0.003072 0.0
3.666136 1.977248 -0.003793 0.0
1.877131 2.073165 0.001465 0.0
4.013549 0.371727 0.003374 0.0
2.974057 0.210040 -0.000560 0.0
3.965056 2.043295 -0.001767 0.0
4.342842 1.434041 -0.002300 0.0
1.363578 1.728726 0.003413 0.0
1.874237 0.053242 -0.002333 0.0
1.298776 0.852352 -0.000030 0.0
4.362977 1.824609 0.002739 0.0
3.321729 0.189561 0.000560 0.0
2.009657 0.023587 0.000539 0.0
1.166697 0.176584 -0.000421 0.0
2.676864 1.169222 -0.002489 0.0
2.396992 1.056742 -0.001573 0.0
2.212921 1.257994 0.000376 0.0
3.572838 0.241832 0.002973 0.0
0.546098 0.212795 0.001055 0.0
0.738605 0.596505 0.004629 0.0
4.275241 0.310525 -0.000211 0.0
1.408488 0.480610 0.007018 0.0
2.752827 1.372013 0.000847 0.0
1.224530 1.077355 0.001546 0.0
0.684688 0.116871 -0.005295 0.0
3.562566 1.313119 -0.003527 0.0
1.687898 1.641903 -0.004443 0.0
3.420242 1.551001 0.000874 0.0
1.281374 1.961944 -0.001621 0.0
2.296187 0.978844 -0.002486 0.0
3.699615 0.419070 -0.000257 0.0
1.228879 0.194565 0.001798 0.0
3.448217 1.147754 -0.000392 0.0
0.853073 1.950865 -0.001711 0.0
3.245355 0.299683 0.000231 0.0
0.816486 1.347286 0.002976 0.0
3.701422 0.653137 0.000881 0.0
2.199609 0.933551 -0.003116 0.0
3.248273 0.206616 0.001590 0.0
0.251721 1.689843 0.002736 0.0
1.753423 1.223964 0.000439 0.0
0.066655 0.722105 0.003915 0.0
1.329324 2.015940 -0.000897 0.0
1.022011 0.906226 0.000802 0.0
2.237570 1.599026 0.000165 0.0
1.549935 1.344370 0.000503 0.0
3.189432 0.742569 0.004822 0.0
3.056449 0.063220 0.006548 0.0
1.151531 0.592423 -0.000897 0.0
3.561448 1.230025 0.001984 0.0
0.047613 1.160867 -0.003812 0.0
3.802050 1.257677 -0.001211 0.0
2.745744 0.610529 0.000180 0.0
0.603418 0.134292 -0.000153 0.0
0.815166 0.548885 -0.004477 0.0
1.942555 0.718604 -0.001646 0.0
2.875343 0.064047 -0.000646 0.0
2.879102 1.851610 -0.003363 0.0
4.028360 1.057818 0.004637 0.0
0.643123 0.969821 0.000839 0.0
1.600316 0.573842 0.004024 0.0
3.222874 1.333787 -0.002814 0.0
0.794598 1.004049 -0.003575 0.0
2.766689 1.480075 -0.000931 0.0
3.061721 1.545483 0.002254 0.0
1.053075 2.104686 0.000955 0.0
1.815479 0.784562 0.002187 0.0
0.739954 0.440122 -0.001424 0.0
0.134080 1.498073 -0.007027 0.0
0.660218 0.283467 0.002782 0.0
1.840796 2.024398 -0.002087 0.0
1.461080 1.683367 0.000094 0.0
3.882593 1.520915 -0.003963 0.0
2.382345 0.964884 0.000297 0.0
1.243577 0.792567 -0.001742 0.0
0.108388 0.926584 -0.002347 0.0
2.147230 1.171201 -0.004268 0.0
1.722380 0.204421 -0.001740 0.0
2.908048 0.384424 0.001522 0.0
1.639941 1.562831 0.001415 0.0
4.198099 1.493003 0.005344 0.0
2.168033 1.886085 0.000684 0.0
2.131742 0.513892 0.000588 0.0
2.994245 0.367926 0.000472 0.0
0.293589 1.295717 -0.000650 0.0
2.975500 0.803081 0.002012 0.0
0.288908 0.012721 0.003000 0.0
1.929860 0.643689 0.000661 0.0
1.867574 1.110297 -0.003743 0.0
1.363673 0.425606 -0.000455 0.0
2.369041 1.185233 -0.000622 0.0
1.175193 1.571400 -0.002815 0.0
1.395103 0.114156 -0.002222 0.0
3.436013 1.038874 -0.003708 0.0
3.602860 2.097458 -0.002157 0.0
1.937399 1.122638 -0.003495 0.0
3.116774 1.271092 -0.003687 0.0
1.193485 0.912838 0.005594 0.0
3.926661 1.487942 -0.001639 0.0
0.363912 1.615092 -0.005488 0.0
3.015934 2.025952 -0.000265 0.0
2.353455 1.941200 0.000141 0.0
1.747353 0.261250 -0.000347 0.0
3.820016 1.328322 -0.002224 0.0
0.487623 0.103047 -0.001259 0.0
0.133540 1.817441 0.001002 0.0
3.332121 0.167091 -0.005011 0.0
2.229629 1.824255 -0.001014 0.0
0.652509 2.061573 0.001388 0.0
2.890468 1.200843 -0.000410 0.0
3.533358 0.329269 0.000852 0.0
2.745967 1.408303 0.001561 0.0
2.742828 0.145927 -0.002446 0.0
0.529460 1.788987 0.000078 0.0
2.466046 1.858133 0.001049 0.0
4.300876 0.097691 -0.003325 0.0
2.081955 1.375647 -0.002263 0.0
0.477758 0.056572 -0.001891 0.0
1.141761 1.416891 -0.001985 0.0
0.580096 2.065737 -0.000060 0.0
4.087141 1.763720 -0.003927 0.0
0.718687 1.568012 -0.001390 0.0
4.059460 0.382812 -0.002772 0.0
0.791630 1.920531 -0.002025 0.0
3.784669 1.283254 -0.003602 0.0
0.096214 1.098922 -0.002668 0.0
3.965500 0.557981 -0.004591 0.0
3.955191 1.542946 -0.000200 0.0
4.261985 1.585266 0.003691 0.0
4.036168 1.128385 0.002198 0.0
1.606643 0.411507 0.000957 0.0
4.178635 1.720896 0.000445 0.0
1.897452 0.707507 -0.000685 0.0
3.389440 1.803741 -0.001496 0.0
1.688595 1.941787 0.000374 0.0
1.883140 0.563899 0.002425 0.0
0.417502 0.641012 -0.000016 0.0
1.889795 1.924592 -0.003953 0.0
0.214470 0.693261 0.000881 0.0
4.125751 0.365432 0.000407 0.0
0.292994 0.150342 0.002226 0.0
0.297370 1.207296 0.001631 0.0
0.461637 1.525268 0.002937 0.0
1.519947 1.923682 -0.007255 0.0
3.670272 0.627394 0.003727 0.0
1.350246 0.716773 -0.004578 0.0
2.316629 0.783009 -0.000675 0.0
1.325352 0.969167 0.003332 0.0
2.399252 1.596359 0.000228 0.0
2.840773 1.188840 0.000296 0.0
1.365187 0.522174 -0.000508 0.0
2.381061 0.472475 -0.002425 0.0
2.638234 1.413240 -0.003203 0.0
4.377324 1.232973 -0.001558 0.0
2.625743 1.023904 0.002794 0.0
1.459384 2.094869 0.001786 0.0
3.217948 1.830473 0.005665 0.0
3.415494 1.938459 0.001667 0.0
1.007041 0.787980 -0.002855 0.0
1.416737 0.273753 -0.000549 0.0
1.579706 1.758514 0.001293 0.0
1.557580 0.063228 0.000803 0.0
1.032298 1.234002 0.001214 0.0
0.146257 0.720946 -0.000298 0.0
3.143306 0.132762 0.001101 0.0
2.994184 2.000015 0.001001 0.0
3.731210 0.972957 0.000690 0.0
2.589277 0.722729 -0.003686 0.0
2.123184 0.581341 0.002715 0.0
1.273261 1.536814 0.000898 0.0
4.366010 1.276272 -0.001277 0.0
4.026699 0.676406 -0.004758 0.0
1.699169 0.801054 -0.000168 0.0
2.964776 0.123542 -0.002268 0.0
3.366229 1.451783 0.003487 0.0
1.071859 1.478928 -0.001884 0.0
2.772633 0.909726 -0.001614 0.0
1.039790 0.206100 0.000036 0.0
3.640599 1.277199 -0.001705 0.0
2.855203 1.839154 0.002558 0.0
2.791390 1.138910 0.001189 0.0
0.555074 0.422801 0.001572 0.0
1.696794 1.349502 -0.000620 0.0
1.902672 1.398283 0.000729 0.0
2.629905 0.909206 0.003967 0.0
3.468305 1.143045 -0.000621 0.0
3.123000 1.629982 0.001495 0.0
3.405765 0.116026 -0.001973 0.0
0.459217 0.133243 -0.002089 0.0
2.184249 0.263399 -0.002911 0.0
0.607093 1.547116 -0.000324 0.0
3.500604 1.857498 0.003923 0.0
0.442369 0.562179 0.002273 0.0
4.404007 1.257223 0.001652 0.0
2.086524 1.704916 -0.004601 0.0
3.831059 1.855023 -0.001145 0.0
2.728064 2.030521 0.000727 0.0
2.155221 1.707145 0.002595 0.0
1.478536 0.965171 -0.001580 0.0
2.616204 0.718770 0.001427 0.0
1.717936 1.938854 0.003583 0.0
0.750192 1.822634 0.003859 0.0
3.901889 0.248652 0.001089 0.0
3.205063 1.352634 0.000889 0.0
4.174429 0.141953 -0.001518 0.0
3.623010 0.131122 -0.001742 0.0
2.392668 0.170564 -0.001332 0.0
2.952753 1.749009 -0.001698 0.0
2.709489 0.985748 -0.002134 0.0
3.897966 0.943153 0.001771 0.0
3.140981 0.481097 0.002123 0.0
4.255502 1.975361 0.003331 0.0
0.731464 1.030304 -0.001477 0.0
1.395409 0.172916 0.004522 0.0
0.850330 0.866127 0.002319 0.0
2.173157 1.034055 -0.002402 0.0
1.508210 1.224620 0.001733 0.0
4.334989 0.445215 0.003577 0.0
3.076327 1.094468 -0.003466 0.0
1.033588 1.230704 -0.000596 0.0
3.481047 1.834717 0.003025 0.0
4.229971 0.886282 -0.002435 0.0
0.481563 1.251209 0.001060 0.0
2.298426 0.823053 -0.002064 0.0
3.073283 0.523919 -0.001169 0.0
3.328681 2.061443 -0.003780 0.0
1.529474 0.539258 0.002907 0.0
2.954044 0.387846 0.000833 0.0
0.825556 1.461756 0.001707 0.0
3.743934 1.935247 -0.000305 0.0
1.996641 1.228066 -0.005035 0.0
1.944900 1.778283 -0.001290 0.0
2.481993 1.545881 -0.002403 0.0
1.733227 0.646287 -0.000207 0.0
1.597253 0.924138 0.000244 0.0
4.245347 0.731682 0.000148 0.0
2.774436 0.224670 -0.001937 0.0
0.989810 1.601747 0.003159 0.0
1.909277 0.483143 0.003583 0.0
3.187272 1.938002 -0.000706 0.0
0.280076 1.505246 -0.001334 0.0
0.853072 0.150161 -0.000071 0.0
4.118475 1.133156 0.001152 0.0
3.969992 0.986449 -0.002757 0.0
3.548008 1.871554 0.003818 0.0
0.383990 1.483158 -0.003439 0.0
2.147945 0.935017 -0.001595 0.0
2.383763 0.707071 -0.005114 0.0
0.680339 1.025741 -0.001298 0.0
3.476983 1.438175 0.002053 0.0
3.078864 0.986595 -0.004015 0.0
0.028155 1.105939 0.001751 0.0
2.899667 1.988329 -0.001798 0.0
3.072779 1.597863 0.001022 0.0
3.793647 0.755815 -0.000320 0.0
1.408295 1.892396 0.003414 0.0
0.634283 0.755682 0.000520 0.0
0.980301 0.396774 -0.001423 0.0
3.568433 1.434412 0.003084 0.0
2.291945 0.124120 0.000445 0.0
2.280977 0.250546 -0.000486 0.0
3.548001 1.588558 -0.003778 0.0
0.807314 1.933105 0.001291 0.0
1.654188 1.619783 -0.003551 0.0
4.119359 1.167226 -0.000745 0.0
2.232117 0.649855 -0.000733 0.0
3.700464 2.021784 0.000692 0.0
1.529936 1.794489 -0.000062 0.0
2.461080 1.330327 -0.000137 0.0
3.457949 0.567547 0.000616 0.0
3.553898 0.699540 -0.001517 0.0
4.224268 0.345690 -0.000298 0.0
1.830235 1.838276 0.005542 0.0
2.512862 0.955832 -0.002296 0.0
1.579248 0.702368 0.000106 0.0
1.265680 1.214266 -0.000543 0.0
2.042455 1.019925 0.007285 0.0
0.623492 0.966033 -0.001227 0.0
3.107611 0.066959 0.006528 0.0
3.064222 0.733797 -0.002476 0.0
3.569809 0.554258 0.001600 0.0
0.816186 0.737946 0.000265 0.0
0.502186 0.002304 -0.001578 0.0
0.737635 1.419531 0.002141 0.0
4.193702 0.979167 0.000538 0.0
3.887324 1.271751 -0.000083 0.0
3.531082 0.808700 -0.003846 0.0
0.031035 1.688967 0.000022 0.0
2.105786 1.659096 0.000191 0.0
0.161376 0.451034 0.001781 0.0
4.403141 2.011498 -0.001323 0.0
2.408622 0.238093 -0.001182 0.0
0.658241 0.562957 -0.005381 0.0
1.992434 0.133898 0.002379 0.0
2.893031 0.623299 0.000702 0.0
3.750727 0.854888 -0.000118 0.0
1.607853 1.695923 0.003280 0.0
1.338629 0.380845 -0.000623 0.0
2.217768 0.979986 -0.003580 0.0
3.831879 1.863589 -0.000272 0.0
2.832083 0.318869 -0.003587 0.0
2.967340 1.786320 -0.007200 0.0
3.437703 1.798054 0.000768 0.0
2.037819 0.205077 0.000533 0.0
2.658609 2.046244 -0.000550 0.0
3.301515 1.427210 -0.001265 0.0
3.211702 1.942256 0.000092 0.0
2.893085 1.684346 -0.004007 0.0
1.395343 0.021155 0.001515 0.0
0.134314 0.817201 0.000916 0.0
3.604046 1.567930 0.001894 0.0
0.160062 0.543624 -0.002720 0.0
2.262198 1.570409 -0.000808 0.0
1.901724 1.973115 0.004360 0.0
0.802808 0.499923 0.001079 0.0
4.170231 1.651786 -0.002130 0.0
2.663516 0.432617 0.001486 0.0
1.713833 1.728929 -0.000773 0.0
2.306536 0.890847 0.003328 0.0
4.020033 0.146903 -0.000193 0.0
2.908533 1.410539 0.000471 0.0
0.058427 1.046154 0.003747 0.0
0.010132 1.008393 -0.002468 0.0
3.635383 0.527767 0.002100 0.0
0.246704 1.340191 0.003620 0.0
2.289763 1.530622 0.001059 0.0
3.056716 2.003941 0.002813 0.0
1.263053 0.190692 -0.003297 0.0
3.308005 1.921129 -0.000605 0.0
2.420718 2.088548 -0.003577 0.0
3.911043 0.538918 0.003210 0.0
3.906328 0.861653 -0.003946 0.0
3.160330 0.379670 0.000138 0.0
2.710440 1.691201 -0.001110 0.0
2.081623 0.745078 -0.004586 0.0
0.283803 1.025958 -0.001083 0.0
4.054638 0.007490 -0.001406 0.0
2.256950 1.876381 -0.003857 0.0
1.234436 0.636730 -0.001368 0.0
4.210758 0.774223 0.003533 0.0
4.137470 1.164432 0.001074 0.0
0.648429 1.934362 0.002941 0.0
2.981588 1.904149 0.001932 0.0
3.092359 0.526123 0.000587 0.0
