1.253705 1.856259 0.004011 0.0
0.774527 1.436988 0.001518 0.0
1.673191 1.781333 -0.003240 0.0
2.772588 0.797371 0.002054 0.0
2.702743 0.218978 0.000992 0.0
1.332703 1.114473 0.000511 0.0
0.700609 0.263225 0.000159 0.0
4.045649 1.182656 -0.001745 0.0
3.355484 0.528539 -0.000013 0.0
4.383276 0.205903 0.001096 0.0
3.646862 0.480775 -0.001877 0.0
0.651057 0.444990 0.001614 0.0
4.834947 1.113623 -0.000042 0.0
4.447760 1.211665 -0.001017 0.0
0.066763 1.955141 0.003462 0.0
0.360401 0.529955 0.002164 0.0
3.841807 1.511660 -0.002453 0.0
0.799578 1.213967 -0.000717 0.0
4.403570 0.639157 -0.000603 0.0
1.888110 0.320079 0.000422 0.0
3.798452 2.018394 0.001658 0.0
1.750434 1.282013 -0.001662 0.0
0.177206 1.350629 -0.000143 0.0
2.922756 0.414901 0.001945 0.0
0.132914 0.985246 0.000295 0.0
4.643369 0.010468 -0.002393 0.0
2.892406 1.195610 0.005274 0.0
0.062362 1.992872 0.000364 0.0
2.668433 0.084394 0.001569 0.0
0.313665 1.548273 0.002977 0.0
2.112468 1.483133 -0.000607 0.0
1.158152 1.247411 0.001707 0.0
3.111774 0.055112 0.001171 0.0
3.845308 1.267893 0.000691 0.0
4.366684 1.360328 0.001642 0.0
2.167698 0.459123 0.003885 0.0
0.587425 0.976589 -0.000091 0.0
2.991565 1.253858 -0.002123 0.0
0.194307 0.653348 0.002952 0.0
1.709188 0.178209 0.003173 0.0
2.940885 0.246015 0.002820 0.0
1.860317 1.685055 -0.002339 0.0
2.467615 1.735984 -0.000777 0.0
2.513552 0.741867 0.000651 0.0
2.359933 1.642322 -0.002010 0.0
2.632097 0.670720 -0.000764 0.0
1.428765 1.773080 0.001311 0.0
4.060678 1.358429 -0.001241 0.0
3.693893 1.038821 -0.002094 0.0
1.474432 1.351908 -0.003387 0.0
4.180758 1.338591 0.002897 0.0
1.646630 0.925323 0.002109 0.0
1.422242 1.948138 0.002271 0.0
4.413019 0.372676 -0.001613 0.0
3.249040 0.233322 -0.001994 0.0
2.283722 0.102836 -0.001999 0.0
1.350820 1.795244 0.000917 0.0
2.698402 1.736508 -0.004067 0.0
3.169689 1.914161 0.002937 0.0
0.263918 0.223402 0.002602 0.0
1.898327 1.358572 0.001441 0.0
2.063802 1.129024 -0.000891 0.0
4.431726 0.191849 0.000574 0.0
0.187173 1.611263 -0.002861 0.0
2.491601 1.173916 -0.001647 0.0
2.922397 1.868199 0.006365 0.0
3.327445 0.805676 0.001222 0.0
1.890705 1.344093 0.002518 0.0
2.738269 1.298528 0.003080 0.0
1.355313 0.732638 -0.002921 0.0
4.086225 0.179814 -0.000467 0.0
2.430201 0.920966 0.001129 0.0
4.594619 0.744253 0.003596 0.0
0.865631 1.679127 0.001485 0.0
2.215739 0.227297 -0.006052 0.0
2.930929 0.677308 0.003200 0.0
3.047601 0.153319 -0.003160 0.0
1.298553 1.149291 0.004318 0.0
2.085246 1.101774 0.002474 0.0
0.602890 0.083775 0.001028 0.0
3.553820 0.010377 -0.001067 0.0
4.542377 0.621491 -0.000804 0.0
0.916493 1.061001 0.003640 0.0
2.607782 0.168628 -0.000697 0.0
2.885049 0.839336 -0.000396 0.0
1.721953 1.337709 0.003280 0.0
3.815011 1.335054 0.001944 0.0
1.917805 0.869858 -0.001641 0.0
2.346324 1.468838 0.002884 0.0
1.520399 1.894808 -0.001009 0.0
1.476577 1.917380 0.003358 0.0
0.914038 1.305615 0.003848 0.0
1.836042 0.706025 0.001458 0.0
3.574913 1.855312 -0.002472 0.0
4.196472 0.922618 -0.005391 0.0
2.933118 1.235700 0.000664 0.0
2.358488 0.338412 0.006966 0.0
1.227652 1.149392 -0.003961 0.0
1.006917 1.916921 -0.005602 0.0
0.265966 1.920557 0.004282 0.0
0.301911 1.359436 0.001850 0.0
1.206338 1.797245 0.002487 0.0
1.323042 0.019056 0.002830 0.0
3.315803 1.414235 0.002084 0.0
2.122581 1.657685 0.004539 0.0
1.944536 0.836040 -0.001179 0.0
2.649561 1.112640 -0.001649 0.0
0.721532 0.974687 0.003958 0.0
4.145605 1.529454 -0.002582 0.0
0.745056 1.275954 -0.001072 0.0
3.001036 0.795918 0.003602 0.0
2.956810 0.718157 0.002804 0.0
3.118854 1.181975 -0.000699 0.0
3.457453 1.515348 -0.001221 0.0
0.807533 0.158797 0.001385 0.0
3.836155 1.529828 0.001943 0.0
2.338290 1.383103 0.000480 0.0
0.285088 0.762851 0.002736 0.0
4.167089 1.490774 -0.003696 0.0
4.476766 1.680373 0.000960 0.0
1.610375 1.690817 -0.000369 0.0
3.518948 0.933168 0.001277 0.0
3.774497 0.250695 -0.000441 0.0
1.234088 0.269952 0.002785 0.0
1.677437 0.839382 -0.001739 0.0
4.497333 1.186649 -0.004201 0.0
3.037035 1.692892 0.001953 0.0
1.907281 0.905705 -0.001698 0.0
2.430898 0.893461 0.000939 0.0
0.783957 0.297061 -0.000276 0.0
4.775270 1.904013 0.002177 0.0
1.218007 1.845243 -0.000035 0.0
2.411763 1.845037 0.001701 0.0
4.008320 1.968641 -0.002970 0.0
4.220301 0.613061 0.001115 0.0
0.741920 0.030567 -0.000304 0.0
2.221640 0.290861 0.000279 0.0
4.433160 1.396652 0.000250 0.0
3.688827 0.032677 0.000819 0.0
1.699019 0.503574 0.003118 0.0
1.756530 1.467719 0.000822 0.0
0.115062 1.513574 0.001272 0.0
4.085535 1.920139 -0.005155 0.0
1.201624 0.907230 -0.003108 0.0
1.938560 1.730463 0.001856 0.0
4.640484 0.548385 -0.002509 0.0
1.380547 1.895041 0.000714 0.0
0.595075 1.272795 -0.003592 0.0
3.214040 0.049295 -0.000124 0.0
2.391422 1.764933 -0.004862 0.0
0.564883 1.728840 -0.002020 0.0
1.129815 0.407824 0.000426 0.0
0.687724 0.990939 0.001765 0.0
0.475369 0.869703 -0.000178 0.0
0.137446 0.712570 -0.003052 0.0
3.096953 1.245732 0.000862 0.0
0.302807 1.779989 0.001167 0.0
3.769647 1.810194 -0.000122 0.0
0.212811 0.021090 0.005521 0.0
4.065545 1.412708 0.005717 0.0
4.037670 0.800486 -0.000125 0.0
1.520774 1.816805 -0.002087 0.0
3.779537 0.452474 0.002357 0.0
2.717476 1.740518 -0.002722 0.0
2.406730 0.928646 -0.004731 0.0
1.163168 0.347995 0.001987 0.0
3.284747 0.366010 -0.005629 0.0
0.795823 1.275037 0.003838 0.0
4.850331 1.269882 -0.000201 0.0
4.523655 1.076540 -0.000230 0.0
4.375801 1.107437 0.003837 0.0
2.278283 0.228327 0.002264 0.0
3.418344 2.054901 0.004029 0.0
2.073837 0.400666 -0.002368 0.0
2.318398 0.678010 0.003640 0.0
0.581945 1.703303 -0.004394 0.0
2.902068 1.467052 -0.002361 0.0
3.747601 1.171609 0.004365 0.0
0.739335 0.423897 0.001670 0.0
0.509402 1.628604 -0.001872 0.0
0.723406 1.588815 -0.001960 0.0
2.265953 0.877601 -0.001059 0.0
0.382201 0.979452 0.002226 0.0
3.434648 1.513006 -0.002929 0.0
1.388942 0.426647 -0.002487 0.0
3.448166 0.513612 -0.000268 0.0
2.565938 1.471936 -0.000496 0.0
1.083311 1.736066 0.003231 0.0
2.394531 1.801180 0.000377 0.0
2.479959 0.247296 0.000127 0.0
4.220036 1.392184 -0.000055 0.0
1.422368 1.991302 0.004101 0.0
2.427913 0.380702 0.001887 0.0
2.932673 0.409962 0.002542 0.0
3.679226 0.890188 -0.004085 0.0
1.300633 0.563075 -0.000660 0.0
0.865460 1.942402 0.000827 0.0
0.993471 0.755225 0.001582 0.0
1.147809 0.207446 -0.001256 0.0
4.751041 0.377312 0.000860 0.0
3.654026 1.559686 0.002798 0.0
4.777717 1.485852 -0.000484 0.0
1.580813 1.226819 0.000369 0.0
2.995735 0.838158 -0.000487 0.0
2.938515 1.884096 0.001196 0.0
4.163841 1.214001 -0.001396 0.0
4.784347 1.654756 0.000939 0.0
0.501245 1.387934 -0.000632 0.0
1.935598 1.802234 0.004045 0.0
2.917081 0.987918 0.000458 0.0
3.037609 1.209346 -0.001429 0.0
1.129456 1.896059 -0.000721 0.0
3.072859 0.521837 0.003485 0.0
0.006777 0.550739 0.000572 0.0
4.705756 1.239420 0.002981 0.0
3.825065 0.269737 0.000928 0.0
1.942708 1.064635 0.003162 0.0
1.753736 0.656319 -0.000945 0.0
3.674350 1.134690 0.001296 0.0
2.151199 0.878216 0.004113 0.0
4.116958 1.223412 -0.002003 0.0
2.439732 1.442447 0.003472 0.0
1.284808 1.356020 0.002021 0.0
3.258069 0.371421 -0.002193 0.0
0.796302 0.766168 -0.000549 0.0
0.128131 0.617550 -0.001187 0.0
2.987358 1.212965 0.000151 0.0
1.118309 0.641953 -0.001782 0.0
2.615355 1.967463 -0.003788 0.0
0.475820 0.013464 0.000419 0.0
1.190444 1.710026 -0.001041 0.0
0.141679 0.091609 0.003949 0.0
0.990862 0.597260 0.002817 0.0
4.567441 0.290455 -0.000377 0.0
2.113546 1.085966 -0.002320 0.0
1.089069 0.508783 0.000223 0.0
0.338703 0.528243 -0.000105 0.0
3.218487 0.761271 0.002593 0.0
3.209551 1.591502 -0.001611 0.0
3.499740 1.690296 -0.000975 0.0
4.129543 1.641993 -0.003616 0.0
4.129998 0.809567 0.002203 0.0
1.876257 1.768613 0.000881 0.0
2.625298 0.213341 -0.000496 0.0
1.947819 1.601642 0.003016 0.0
4.788493 1.433884 0.000525 0.0
3.684263 0.905082 -0.002339 0.0
2.066462 1.007761 0.001679 0.0
2.887328 1.950868 0.000293 0.0
2.800926 1.106685 -0.000338 0.0
2.341723 0.256881 -0.005748 0.0
3.409856 1.523525 0.000850 0.0
2.227244 0.520191 0.002873 0.0
4.320605 0.556611 -0.005124 0.0
1.870621 0.372303 0.003817 0.0
3.370776 1.156702 -0.003501 0.0
3.070344 0.238655 0.000935 0.0
0.161011 1.623431 0.001107 0.0
3.515876 0.342112 -0.000732 0.0
2.312289 0.504349 0.003341 0.0
3.903045 0.067085 0.002038 0.0
1.733548 1.773495 -0.000244 0.0
3.452224 0.901956 0.000972 0.0
3.033290 1.169845 0.000576 0.0
2.992190 0.756301 -0.001902 0.0
4.538983 0.651646 0.001011 0.0
1.040110 0.288790 0.000207 0.0
2.213438 1.756783 -0.001910 0.0
0.945511 1.175224 0.003045 0.0
4.217406 1.930397 0.000695 0.0
1.700657 0.458669 0.003812 0.0
4.858361 1.318312 -0.000083 0.0
0.164715 0.472935 0.000707 0.0
2.685454 1.213810 0.000383 0.0
4.147631 1.692248 0.000254 0.0
2.670985 0.904343 -0.000768 0.0
2.999431 1.801732 0.000073 0.0
0.498329 0.837263 0.001221 0.0
4.775335 0.829980 0.001843 0.0
1.755464 0.899490 -0.000076 0.0
1.144132 0.144724 -0.004177 0.0
1.526243 1.210936 -0.004857 0.0
2.824561 0.321457 0.000635 0.0
3.213902 0.500512 -0.001760 0.0
3.143985 0.310228 0.002590 0.0
3.484358 0.889378 -0.001553 0.0
2.401934 1.033268 0.002590 0.0
2.731637 1.784714 0.000778 0.0
0.811645 1.540199 -0.003229 0.0
2.510280 0.010619 0.008477 0.0
3.418711 0.015163 0.000469 0.0
3.164444 1.669632 0.000635 0.0
4.734481 0.710180 0.001818 0.0
1.467374 1.746746 0.003136 0.0
0.667948 0.931192 0.000765 0.0
3.268945 2.064686 -0.000433 0.0
2.158787 0.046085 0.001657 0.0
4.655551 0.502666 -0.001990 0.0
4.180445 0.773758 -0.000689 0.0
4.748059 0.674327 0.002053 0.0
1.310366 0.627067 0.000605 0.0
2.463039 1.777555 -0.002487 0.0
2.110569 0.866133 0.003637 0.0
2.305597 0.391762 -0.001224 0.0
1.824459 1.220608 -0.000591 0.0
4.030538 1.341860 -0.001467 0.0
4.415475 0.652033 -0.000676 0.0
2.946727 1.874472 -0.004626 0.0
1.614357 1.675374 -0.004186 0.0
0.746437 0.487937 -0.001866 0.0
2.141974 0.125797 -0.000680 0.0
4.084496 0.026611 -0.000786 0.0
2.220700 1.786736 -0.000594 0.0
4.443421 1.264137 0.005614 0.0
1.346623 0.642555 0.001647 0.0
0.304186 1.100868 0.004286 0.0
2.855341 1.685091 0.001437 0.0
1.524712 1.688630 0.000555 0.0
2.512174 1.716735 0.005896 0.0
3.883971 0.016261 -0.000191 0.0
4.430946 1.790298 -0.001253 0.0
2.869549 0.067889 -0.000884 0.0
2.965703 1.674546 -0.002719 0.0
4.744554 1.278985 0.002121 0.0
2.201269 1.257156 -0.003426 0.0
3.330418 0.149264 -0.000014 0.0
4.530105 1.424812 -0.001030 0.0
4.834020 1.018078 0.001761 0.0
4.299117 1.681372 0.000226 0.0
3.279586 0.751832 0.002042 0.0
3.832394 1.739124 -0.002615 0.0
0.901330 1.937201 0.001264 0.0
2.840827 1.588495 -0.000848 0.0
0.953949 1.853007 -0.002629 0.0
0.592662 0.938219 0.001837 0.0
4.733104 0.879074 -0.003081 0.0
4.830873 0.604410 -0.002085 0.0
2.045069 2.012074 0.003907 0.0
4.504336 0.360230 0.000130 0.0
1.508425 1.130813 -0.002082 0.0
1.997775 0.878986 -0.000208 0.0
3.210803 0.566074 0.006047 0.0
3.988651 0.843128 -0.001483 0.0
3.765779 1.447530 -0.000225 0.0
2.006555 1.477722 0.002791 0.0
3.719043 0.494559 0.002689 0.0
2.884259 0.089217 -0.002796 0.0
0.683310 0.624268 -0.003255 0.0
2.311557 0.167939 -0.000801 0.0
4.694764 0.249431 -0.004607 0.0
0.156071 1.511611 -0.004175 0.0
4.480668 1.564547 -0.003787 0.0
4.617959 0.007126 0.000257 0.0
4.905045 2.023282 0.000931 0.0
2.206197 1.735352 0.000571 0.0
4.268540 0.744030 0.000292 0.0
4.124974 1.587538 0.006135 0.0
2.655380 0.744620 -0.002085 0.0
3.640402 1.830354 0.001572 0.0
0.837602 1.296286 -0.000944 0.0
4.139897 1.619433 -0.003039 0.0
1.400144 1.646856 -0.003251 0.0
0.771090 0.351628 -0.004018 0.0
-0.001480 0.735028 0.000983 0.0
0.906638 0.440370 -0.002839 0.0
3.142441 1.445905 -0.000574 0.0
4.544795 0.415198 0.000444 0.0
3.237999 0.073407 -0.006623 0.0
4.349820 1.712581 -0.001905 0.0
4.746615 1.769859 -0.002407 0.0
4.382228 1.981556 -0.004687 0.0
2.168297 1.310279 0.000089 0.0
3.420089 1.833470 -0.002476 0.0
0.469564 1.181680 -0.002460 0.0
1.788625 1.093291 0.000980 0.0
2.407242 1.113501 0.000604 0.0
1.230257 0.649075 -0.005373 0.0
1.735568 1.676769 -0.000314 0.0
1.980252 1.877099 -0.002123 0.0
2.678511 1.125663 -0.000422 0.0
2.984475 0.792222 0.002628 0.0
0.540295 1.590859 -0.000195 0.0
0.855573 0.807455 -0.000495 0.0
2.855814 1.534554 -0.000970 0.0
0.964348 0.822306 0.000386 0.0
3.218401 0.345592 0.000186 0.0
3.816075 0.792201 -0.004350 0.0
1.685361 0.192339 0.000856 0.0
3.571909 0.849520 -0.000984 0.0
4.719004 0.121976 0.000658 0.0
2.562311 0.365105 -0.003721 0.0
1.165171 1.093045 -0.000529 0.0
3.409624 0.268634 0.002119 0.0
3.088012 0.578386 -0.000540 0.0
2.084277 1.335896 -0.002280 0.0
1.176066 1.821270 -0.002991 0.0
0.796247 0.137608 -0.002435 0.0
3.758327 1.322246 0.001600 0.0
0.204898 0.840666 0.001618 0.0
3.237324 1.781182 0.000917 0.0
2.068248 1.563312 0.001974 0.0
3.445867 0.356693 -0.000150 0.0
4.537707 1.362426 0.000804 0.0
2.277037 1.123373 0.000137 0.0
3.761698 0.380150 -0.001448 0.0
0.668314 1.040537 -0.001842 0.0
0.073879 0.730277 -0.000152 0.0
0.689506 1.723194 0.001264 0.0
2.425136 0.555579 0.001163 0.0
2.622651 0.037623 -0.002575 0.0
2.296376 0.690664 -0.006105 0.0
3.469613 0.992943 0.002532 0.0
2.986641 0.324111 -0.000094 0.0
2.538548 2.061528 -0.003075 0.0
3.519044 0.657676 0.000673 0.0
2.781737 1.008293 -0.000988 0.0
2.633104 0.275755 -0.001386 0.0
4.661555 0.608198 -0.000510 0.0
0.597929 0.818872 0.001892 0.0
0.003464 1.291678 -0.003674 0.0
4.631874 0.777559 0.005069 0.0
0.396240 1.695116 -0.000651 0.0
3.475238 0.075371 -0.000832 0.0
1.086136 1.326154 0.004473 0.0
2.388544 1.762649 -0.003118 0.0
3.916615 1.406177 -0.002856 0.0
2.896605 0.220726 -0.002085 0.0
2.899888 1.602594 0.002739 0.0
0.238898 1.585082 0.005223 0.0
1.408937 0.015397 0.003192 0.0
1.908690 0.503540 0.002846 0.0
3.299862 0.483770 -0.002896 0.0
2.385644 0.151839 -0.000906 0.0
4.127258 0.201244 -0.000355 0.0
3.481440 1.606306 0.002649 0.0
4.859829 1.917485 -0.001785 0.0
2.536376 0.294796 0.001053 0.0
4.886206 0.658023 -0.003722 0.0
1.892277 0.882306 -0.000664 0.0
3.232355 0.819816 -0.001315 0.0
4.293489 0.453930 0.000354 0.0
1.758252 1.138593 0.000556 0.0
3.562529 0.073337 0.002649 0.0
1.803110 1.441325 -0.004408 0.0
3.680507 1.255073 0.004807 0.0
1.928340 1.609166 0.002903 0.0
4.007779 0.306175 0.002018 0.0
1.464465 1.322368 -0.003619 0.0
0.645468 1.792485 0.001215 0.0
4.717934 0.050315 0.001165 0.0
1.155711 0.830795 0.001183 0.0
1.103948 1.876358 0.000805 0.0
1.696565 0.058805 0.004408 0.0
0.831090 0.575939 -0.002600 0.0
3.944298 1.054383 0.001247 0.0
0.968183 1.111053 0.002485 0.0
1.655178 1.244291 0.000621 0.0
4.555097 1.016318 0.000487 0.0
3.781357 1.217112 0.001132 0.0
2.680677 1.267227 0.003462 0.0
0.150155 0.409345 -0.004805 0.0
4.308344 0.728728 0.000389 0.0
1.186865 0.801178 -0.002388 0.0
0.431143 0.004585 -0.003774 0.0
3.132599 1.787921 -0.000309 0.0
0.374803 0.128120 -0.000005 0.0
1.836512 1.343446 -0.004697 0.0
0.547302 1.698149 0.001481 0.0
4.406936 0.044319 0.002188 0.0
0.021177 1.376317 0.000997 0.0
1.545048 0.724322 -0.003673 0.0
1.627976 1.105287 -0.002412 0.0
2.711780 0.174010 0.000950 0.0
4.814785 0.679974 -0.002187 0.0
4.524086 0.286176 0.005471 0.0
0.534689 1.908403 -0.002233 0.0
1.297103 1.671190 -0.001007 0.0
1.089245 1.673902 0.001414 0.0
1.124255 0.296700 0.001829 0.0
2.413559 1.317252 0.003313 0.0
2.175101 0.676689 -0.000679 0.0
3.307857 1.442205 -0.005025 0.0
3.989608 1.157925 0.004010 0.0
4.162130 1.171202 0.001261 0.0
3.683344 0.724149 -0.005620 0.0
1.541232 0.989924 0.001188 0.0
2.943770 1.673105 -0.001541 0.0
1.430576 1.555401 -0.000860 0.0
3.844388 0.071653 -0.001684 0.0
3.881597 1.768611 -0.001129 0.0
1.803647 1.953651 -0.002111 0.0
2.292266 1.933789 -0.001108 0.0
3.073715 1.756677 0.000807 0.0
2.905225 0.933761 0.000875 0.0
3.627699 1.263455 -0.000967 0.0
1.099542 0.261890 0.002032 0.0
4.410663 0.174080 -0.003543 0.0
3.747870 0.249505 -0.001838 0.0
4.026633 1.454839 0.000910 0.0
1.341431 1.254046 0.004450 0.0
3.194479 0.981069 0.000773 0.0
1.132368 0.409241 -0.004716 0.0
1.808741 0.454324 -0.000285 0.0
1.941896 1.740640 -0.000614 0.0
4.713333 1.832613 0.000352 0.0
2.443738 0.130045 0.000605 0.0
4.643409 0.513725 0.000498 0.0
0.537903 1.266678 -0.006862 0.0
0.933539 1.605966 0.001220 0.0
2.398326 0.785088 0.005967 0.0
3.162499 0.882562 -0.000745 0.0
4.389402 0.945121 -0.001602 0.0
2.086971 1.819137 0.000620 0.0
3.281153 1.102903 -0.001136 0.0
4.428214 0.986954 -0.001242 0.0
2.896255 1.115333 0.002022 0.0
4.898133 0.726573 0.000254 0.0
3.517297 1.508193 0.000287 0.0
0.401752 1.234722 0.001025 0.0
0.477410 1.466868 0.001087 0.0
3.404404 1.871985 -0.000379 0.0
2.308382 1.649048 -0.000756 0.0
0.267012 1.298672 0.001028 0.0
3.958267 1.739846 -0.003874 0.0
2.352589 0.951911 -0.001687 0.0
1.845210 1.945576 0.003110 0.0
2.653200 2.001395 -0.002132 0.0
3.093898 2.029598 0.000121 0.0
0.232476 1.376101 0.002548 0.0
2.094064 0.405243 -0.003304 0.0
3.484768 1.698210 -0.000509 0.0
1.563011 1.486201 -0.002499 0.0
3.593425 1.995280 -0.001844 0.0
4.022296 1.772963 -0.002044 0.0
4.488957 0.088368 0.000315 0.0
4.906868 0.402162 -0.000270 0.0
0.133197 1.574512 0.001297 0.0
1.189403 0.252105 -0.001933 0.0
4.326527 1.390018 -0.001036 0.0
0.069121 1.183078 -0.002856 0.0
3.276218 0.613116 0.003001 0.0
2.319082 0.305899 0.000124 0.0
2.665682 1.145575 0.003505 0.0
2.501567 0.639727 0.003904 0.0
0.206110 0.502706 0.000467 0.0
1.538770 1.554877 -0.003721 0.0
2.467570 0.519176 0.001533 0.0
3.569935 0.582011 0.001229 0.0
2.167757 1.809414 0.005213 0.0
1.516453 1.128235 0.000571 0.0
2.221492 0.545970 -0.000980 0.0
1.543811 0.840257 0.001256 0.0
2.787014 0.468499 -0.000281 0.0
1.896341 1.537340 -0.001269 0.0
4.536410 1.700618 0.002110 0.0
2.825008 1.907509 -0.003652 0.0
2.001022 0.427627 0.001859 0.0
3.353439 1.607844 0.000343 0.0
1.568257 1.634989 0.000176 0.0
1.099108 0.148504 0.004424 0.0
2.227765 0.694379 -0.001370 0.0
3.871982 0.790126 -0.004419 0.0
2.472871 0.551285 -0.001028 0.0
0.156728 0.016267 0.001290 0.0
3.329239 0.041947 0.000703 0.0
3.824814 1.810008 0.003395 0.0
3.495129 0.268977 0.000188 0.0
2.416914 0.901468 -0.001789 0.0
2.850666 1.351550 0.002754 0.0
2.123162 0.786232 0.001359 0.0
2.736518 1.995729 -0.002461 0.0
4.886227 1.088887 0.004219 0.0
2.889832 0.195298 -0.005449 0.0
1.996783 1.801150 -0.001233 0.0
1.695555 0.195413 0.005745 0.0
4.341773 0.849616 0.002300 0.0
4.860019 0.132799 0.001182 0.0
0.746011 0.659103 -0.002446 0.0
0.360924 0.724835 0.003996 0.0
0.717668 0.645350 -0.001366 0.0
0.207838 0.169030 -0.004431 0.0
4.583424 1.114143 0.000678 0.0
1.517912 1.402926 -0.001631 0.0
1.095173 0.699189 0.000254 0.0
3.175889 0.202729 0.002569 0.0
4.697435 0.495607 -0.002652 0.0
1.184086 0.100995 0.000016 0.0
2.556064 0.621596 0.003455 0.0
1.413849 0.265048 -0.001638 0.0
0.538733 0.878963 0.002227 0.0
2.122250 1.529366 -0.002192 0.0
1.049718 0.028343 -0.001573 0.0
3.342788 1.703010 -0.002197 0.0
3.421016 1.239956 -0.001801 0.0
1.604531 2.041331 -0.001353 0.0
3.936977 1.357376 -0.000444 0.0
0.196554 0.861384 0.000143 0.0
3.709486 1.211524 -0.007478 0.0
2.945233 1.024870 -0.000490 0.0
0.474819 1.222246 -0.003069 0.0
3.327453 0.466350 0.002322 0.0
1.300332 0.686569 0.002726 0.0
1.405791 0.694688 -0.004232 0.0
4.748390 0.055961 0.001309 0.0
3.497809 1.512815 -0.003914 0.0
1.950322 0.220027 -0.004102 0.0
4.147058 1.980434 -0.000477 0.0
2.438345 1.730530 -0.000235 0.0
4.330754 1.716784 0.000256 0.0
0.844359 0.943403 0.000600 0.0
2.592129 0.118571 -0.000942 0.0
2.722642 1.363325 0.002736 0.0
2.086278 1.699701 -0.001800 0.0
4.192387 1.781294 -0.004164 0.0
4.648799 0.070582 -0.000609 0.0
1.009055 0.993233 0.004898 0.0
0.050690 0.855925 0.002959 0.0
1.692803 1.833339 0.001771 0.0
4.756846 0.822784 0.000863 0.0
2.471542 2.006157 -0.002598 0.0
4.182832 0.855636 0.006808 0.0
1.514904 0.304199 -0.001360 0.0
4.577390 0.998853 0.002589 0.0
3.956670 0.693995 -0.001116 0.0
3.215847 0.968773 0.000519 0.0
1.011662 0.484800 -0.004091 0.0
4.657635 0.968773 -0.002320 0.0
3.592146 0.311906 0.001182 0.0
3.968879 0.170642 0.002614 0.0
0.585831 1.562678 0.003419 0.0
2.309629 1.033745 0.003073 0.0
0.320292 0.145702 -0.002063 0.0
2.336139 1.421666 -0.002757 0.0
4.907924 1.728235 -0.001842 0.0
2.664555 0.476836 0.003724 0.0
3.453715 0.613221 0.002577 0.0
1.933310 1.373147 0.000428 0.0
2.446538 1.086992 0.001982 0.0
4.077385 0.620685 0.001165 0.0
0.171302 1.749324 -0.000215 0.0
0.996738 1.408425 0.001288 0.0
1.009665 0.647321 -0.006009 0.0
1.720985 1.849730 -0.000881 0.0
4.054781 0.325053 -0.000359 0.0
2.920757 1.548291 -0.001775 0.0
4.627211 0.594688 -0.000394 0.0
3.398074 1.701167 0.005588 0.0
4.767459 0.979797 -0.000174 0.0
1.367605 1.898233 0.004584 0.0
3.559656 2.040435 0.001144 0.0
1.891877 0.628872 0.001990 0.0
3.784997 1.928467 -0.000132 0.0
0.168876 1.899173 0.002734 0.0
2.611310 0.607247 -0.001845 0.0
0.670767 2.030300 0.003853 0.0
2.239973 1.481106 0.002473 0.0
4.594764 1.428782 0.005298 0.0
3.662952 0.740915 -0.000354 0.0
1.690058 1.756419 0.002920 0.0
3.434711 0.580255 -0.000836 0.0
2.255760 0.373282 -0.001302 0.0
2.116919 0.913837 0.001498 0.0
4.168758 1.613597 -0.003295 0.0
1.934318 0.578335 -0.000231 0.0
1.769694 1.595794 0.000227 0.0
3.323265 0.437483 -0.001559 0.0
0.151436 0.074774 0.000471 0.0
3.423645 0.602558 0.003258 0.0
1.002921 0.568106 -0.000511 0.0
0.759447 0.436420 0.000730 0.0
2.345597 0.860675 0.001692 0.0
0.929990 0.878212 0.002540 0.0
3.395233 0.809525 0.002065 0.0
4.854975 0.438477 -0.001723 0.0
4.714244 0.675078 0.000859 0.0
1.265879 1.310799 -0.000786 0.0
0.557905 1.271072 0.002983 0.0
3.365458 0.066871 -0.007033 0.0
3.777341 1.584780 0.002931 0.0
4.899766 0.685829 0.006916 0.0
1.449697 1.714426 -0.000776 0.0
0.321217 1.482990 0.002504 0.0
2.348350 1.088340 -0.004414 0.0
4.391645 0.205853 0.003140 0.0
2.638937 0.959512 -0.004024 0.0
2.566076 1.951139 -0.004865 0.0
3.911117 1.124024 -0.000768 0.0
2.580263 0.451079 -0.001086 0.0
1.566476 0.905572 0.001547 0.0
0.720998 1.232835 0.002329 0.0
1.675632 0.013825 -0.002108 0.0
3.906698 0.447096 -0.000466 0.0
0.664997 0.848918 -0.000091 0.0
1.779966 0.632687 0.003252 0.0
0.138751 0.972497 -0.003435 0.0
1.933242 0.628054 0.001235 0.0
0.239939 1.973711 0.005146 0.0
3.906212 0.528794 -0.002330 0.0
1.428750 1.192305 0.002634 0.0
2.578601 1.254333 0.003103 0.0
4.733029 0.418011 0.001783 0.0
1.369555 1.999461 -0.000809 0.0
2.493164 1.572876 0.005345 0.0
2.725536 0.827045 -0.000494 0.0
1.427121 1.685737 -0.002800 0.0
2.939249 0.249088 -0.003070 0.0
3.242940 0.502375 -0.001734 0.0
1.935105 1.686138 -0.000516 0.0
3.441587 1.170292 0.001935 0.0
4.656000 0.551305 0.000501 0.0
3.830507 1.601788 0.002915 0.0
3.205104 0.390984 0.001516 0.0
3.484547 1.056345 -0.003978 0.0
4.871974 0.958041 0.001857 0.0
4.666765 1.854484 0.001019 0.0
2.126621 1.101307 0.000009 0.0
3.131721 1.656980 0.002722 0.0
4.446873 1.949276 0.002243 0.0
0.212269 1.244167 -0.003834 0.0
0.394733 1.200527 -0.003106 0.0
1.608730 1.017770 -0.001071 0.0
3.738459 0.856419 0.002031 0.0
0.876606 1.110539 -0.002940 0.0
3.434244 0.450379 -0.002202 0.0
0.359932 0.032628 0.002181 0.0
1.378896 0.235351 -0.000149 0.0
3.783008 0.918294 0.000434 0.0
4.738653 0.385629 -0.002618 0.0
1.300389 1.957905 -0.001063 0.0
4.711433 1.002340 0.002929 0.0
4.891359 0.128869 -0.000641 0.0
1.899299 1.652557 -0.004818 0.0
4.513139 0.355689 -0.005951 0.0
4.121906 1.396934 -0.001534 0.0
1.998540 0.198672 0.001334 0.0
2.054844 1.269725 -0.005544 0.0
4.806917 0.489634 0.000744 0.0
3.274911 1.165437 -0.000412 0.0
2.791625 1.890284 0.001584 0.0
2.918785 0.592593 0.006460 0.0
0.638361 1.183043 0.001062 0.0
1.955849 0.178231 0.001382 0.0
4.035098 1.405638 -0.002737 0.0
3.358284 1.089961 0.000368 0.0
4.221386 1.914367 0.002014 0.0
3.845740 0.109357 -0.000784 0.0
2.907040 0.943906 0.001765 0.0
1.255187 0.737769 -0.000386 0.0
4.904663 1.568272 -0.001281 0.0
2.033981 1.659410 0.000891 0.0
3.432330 0.164987 0.001052 0.0
4.228379 1.730015 0.003732 0.0
1.884146 0.035458 0.000859 0.0
4.695900 0.424514 -0.000243 0.0
1.274047 0.406303 0.000111 0.0
0.506256 1.253790 0.001705 0.0
1.499912 1.337573 0.003212 0.0
1.101905 0.430874 -0.002925 0.0
2.398110 1.975366 0.006493 0.0
3.861561 0.460312 -0.002484 0.0
1.547042 1.969371 -0.000321 0.0
3.904075 0.627009 0.003964 0.0
2.259372 1.256942 -0.003263 0.0
3.620600 0.337052 0.002247 0.0
0.806273 0.209284 -0.000930 0.0
0.892100 2.038704 0.006206 0.0
2.592224 0.813636 -0.000302 0.0
1.797160 0.553037 -0.004781 0.0
3.403017 1.697004 -0.000303 0.0
3.900213 1.989104 -0.000585 0.0
2.074025 1.921906 -0.001422 0.0
0.933474 1.237955 -0.001811 0.0
2.119123 1.095422 -0.002474 0.0
3.840042 0.061239 -0.001761 0.0
2.057520 0.641596 0.002559 0.0
1.962195 1.842792 -0.002352 0.0
2.054200 1.635625 0.002912 0.0
4.520455 0.318155 -0.000343 0.0
1.210404 1.054226 -0.004101 0.0
3.538451 1.307644 0.002144 0.0
4.498642 0.554999 0.000718 0.0
1.343449 1.705468 -0.002616 0.0
4.552075 0.368021 -0.001512 0.0
1.990720 0.890898 0.001508 0.0
1.762320 1.002987 0.001675 0.0
1.352476 0.578962 -0.001063 0.0
0.649224 0.036538 -0.001468 0.0
0.478368 1.382988 0.004238 0.0
1.326603 1.078152 -0.001588 0.0
1.720440 1.019623 -0.000977 0.0
4.502089 0.080606 0.003054 0.0
1.037609 0.376544 -0.000244 0.0
0.438234 1.541000 -0.002526 0.0
1.951173 0.526405 0.004791 0.0
1.634896 1.965711 0.001595 0.0
2.143383 1.919783 0.000195 0.0
3.942339 1.077172 0.001535 0.0
1.303576 1.457936 0.002081 0.0
1.770533 0.245920 0.001374 0.0
2.860956 1.117650 -0.000803 0.0
3.490932 1.135839 0.000060 0.0
0.031167 0.072852 0.000833 0.0
2.382982 1.837858 -0.002869 0.0
0.065648 1.366461 0.002040 0.0
4.389169 1.087875 0.001332 0.0
4.585903 0.634994 0.001480 0.0
2.889317 0.436894 -0.001234 0.0
0.106640 0.408412 0.000894 0.0
2.142593 1.931023 0.001572 0.0
2.939093 0.143002 -0.001533 0.0
1.015860 0.719512 -0.000022 0.0
4.236086 0.016306 0.003729 0.0
2.403335 0.280730 -0.006270 0.0
0.526247 1.921291 -0.000375 0.0
4.491918 0.194419 -0.001126 0.0
0.818544 1.723527 -0.001581 0.0
1.347174 0.247756 -0.006230 0.0
0.793406 0.641606 0.000294 0.0
0.831918 1.197574 -0.003334 0.0
3.359039 1.197757 0.000141 0.0
2.427100 1.351917 -0.000026 0.0
2.603558 0.641078 0.000833 0.0
1.946417 0.557099 0.002148 0.0
2.222447 1.230920 0.001753 0.0
2.255033 0.896514 0.002277 0.0
4.529739 1.531192 0.000087 0.0
4.569641 0.361881 0.000784 0.0
3.346103 1.824755 0.002683 0.0
2.884394 0.751873 -0.001391 0.0
4.694883 1.426198 0.000092 0.0
4.767338 0.369910 0.000572 0.0
3.887106 1.495050 -0.001560 0.0
3.988444 2.006220 0.001738 0.0
4.911891 1.888684 0.000393 0.0
4.386550 0.955760 0.001956 0.0
3.782002 1.392641 0.005751 0.0
4.853135 1.002753 -0.002189 0.0
3.164232 1.861396 -0.003101 0.0
1.365983 0.766876 -0.001128 0.0
0.882666 1.689659 0.001248 0.0
1.147420 1.896951 0.000841 0.0
2.964590 1.072577 0.002635 0.0
4.061610 1.921399 -0.004038 0.0
2.660913 0.132535 0.001124 0.0
1.571804 1.939985 -0.001259 0.0
1.675517 1.083125 0.006617 0.0
3.980460 0.159847 -0.000938 0.0
3.213265 1.379610 0.000441 0.0
3.320623 0.183608 0.002882 0.0
4.336893 1.994299 -0.001698 0.0
2.551794 0.159152 0.001022 0.0
1.048254 1.206345 -0.000594 0.0
1.477698 0.112407 0.005227 0.0
3.326827 1.380086 -0.001614 0.0
3.601591 1.523398 0.002842 0.0
0.653288 0.077489 -0.002119 0.0
4.798069 0.394832 0.000433 0.0
3.367169 1.421710 -0.003982 0.0
0.938731 1.223714 -0.003975 0.0
3.592829 2.055525 0.003018 0.0
3.363377 0.718008 -0.001390 0.0
4.449013 0.972192 -0.004367 0.0
1.322027 0.710130 -0.002447 0.0
0.133460 0.829654 -0.003740 0.0
1.059788 1.198811 0.000502 0.0
2.811194 0.174493 -0.001477 0.0
2.686646 1.764121 0.002038 0.0
4.760921 1.656262 0.003473 0.0
4.794727 0.500702 -0.000228 0.0
0.267679 1.289414 0.003927 0.0
1.446042 1.313883 -0.002277 0.0
4.245631 0.148042 -0.001930 0.0
1.296658 0.599777 -0.003146 0.0
2.457767 0.566244 0.001425 0.0
0.359109 0.729501 0.003967 0.0
2.817291 1.499604 -0.001599 0.0
2.292273 0.220362 0.002980 0.0
0.007516 0.474790 -0.003492 0.0
1.446963 0.117376 -0.000465 0.0
4.319077 1.677550 -0.003748 0.0
1.925764 1.129223 0.001467 0.0
1.324483 1.902701 -0.002665 0.0
1.470442 1.864334 0.004126 0.0
2.564918 1.681360 -0.001906 0.0
3.093657 1.599264 -0.001575 0.0
1.623654 1.622520 0.000286 0.0
4.818272 1.239933 -0.002518 0.0
0.962946 1.734531 0.003054 0.0
3.063764 0.441854 -0.002532 0.0
2.568520 0.882839 0.000551 0.0
2.251041 0.478817 0.000872 0.0
0.833800 1.303368 0.003052 0.0
4.617055 0.542844 0.001021 0.0
1.542245 0.142765 0.008021 0.0
0.308148 1.639280 -0.001962 0.0
1.635751 0.984804 -0.003876 0.0
0.416991 1.817992 0.002130 0.0
4.563762 0.689519 -0.001803 0.0
3.226506 1.566895 0.001887 0.0
2.729500 0.953175 0.002122 0.0
0.956012 1.173436 -0.000304 0.0
2.714741 0.767171 -0.002814 0.0
1.134856 1.721679 -0.000805 0.0
1.483383 0.107484 -0.005393 0.0
1.237551 1.070427 0.003001 0.0
0.406111 1.664927 -0.001967 0.0
1.759015 1.644031 -0.001314 0.0
2.834932 1.868735 -0.000109 0.0
4.139679 1.083292 -0.000243 0.0
4.060925 1.481998 -0.000194 0.0
4.065368 2.034976 0.001094 0.0
1.600669 1.582738 -0.002598 0.0
3.729016 0.735996 0.000118 0.0
1.332390 1.905067 0.003964 0.0
4.651774 1.821387 0.001655 0.0
3.576520 0.736012 -0.000916 0.0
4.626457 1.993376 0.005138 0.0
1.306073 1.920645 0.004048 0.0
1.272223 1.008620 0.000734 0.0
1.940120 0.138502 0.006231 0.0
3.727159 0.091186 -0.002443 0.0
1.762189 0.087367 -0.000716 0.0
2.535398 0.489037 0.004509 0.0
4.517432 0.279268 -0.002268 0.0
1.203533 1.249688 0.003015 0.0
4.715923 1.007336 0.003380 0.0
4.810248 1.032952 -0.000212 0.0
3.845236 1.341947 0.001059 0.0
1.595466 1.575641 -0.000451 0.0
0.394519 0.772185 0.002238 0.0
3.121180 0.740243 0.000558 0.0
1.767802 1.483607 0.003195 0.0
3.729651 0.951655 -0.001733 0.0
3.022601 1.137889 -0.000288 0.0
0.435736 1.965137 -0.000205 0.0
2.796723 0.687356 0.000692 0.0
1.703332 0.554719 -0.000684 0.0
2.737501 1.214707 0.000015 0.0
2.816312 0.609761 -0.001080 0.0
0.522677 2.017946 0.000273 0.0
0.792632 0.476798 0.001861 0.0
1.764028 1.719734 0.000218 0.0
0.215101 0.573371 0.003748 0.0
0.945976 0.334037 0.000623 0.0
1.878414 0.640457 0.000320 0.0
1.789927 1.311414 -0.001018 0.0
2.048857 1.277908 0.003055 0.0
2.283551 1.096094 0.000435 0.0
1.548542 1.726714 -0.001539 0.0
4.911341 0.112744 -0.002760 0.0
3.548306 0.691163 0.005195 0.0
4.083477 1.679737 0.000615 0.0
4.668197 0.148431 -0.001228 0.0
0.774627 0.449489 0.001133 0.0
4.401974 2.011028 -0.003074 0.0
3.577014 1.966604 -0.001819 0.0
1.036797 0.775911 0.001012 0.0
3.091739 1.041142 -0.001387 0.0
0.348353 1.683489 -0.000141 0.0
2.217585 1.804007 -0.001918 0.0
3.963358 0.674151 -0.005356 0.0
4.566127 1.761122 0.002632 0.0
4.062427 1.285927 -0.003092 0.0
3.470380 1.711855 0.000311 0.0
1.859832 0.612352 -0.001165 0.0
3.935957 0.612341 0.001902 0.0
2.138410 1.250536 0.004433 0.0
4.171017 0.825152 0.000247 0.0
0.389925 0.320530 0.001332 0.0
3.138900 2.034027 0.000112 0.0
3.052297 0.833244 -0.000683 0.0
3.739284 1.736808 -0.001508 0.0
3.063525 0.309703 0.000043 0.0
0.372439 0.484960 0.000560 0.0
4.448338 1.290817 -0.001501 0.0
2.787110 1.046714 0.003481 0.0
3.560730 0.236033 -0.000102 0.0
3.079724 0.175785 -0.005356 0.0
3.184052 0.285930 -0.001208 0.0
1.000031 1.293690 -0.000582 0.0
0.408265 0.900679 -0.000937 0.0
1.956041 1.393567 0.000514 0.0
4.032372 1.358996 0.003737 0.0
3.483024 1.523469 0.000334 0.0
4.177358 1.363099 -0.003071 0.0
2.715800 1.703751 -0.001784 0.0
2.280246 1.869442 0.001215 0.0
3.864287 0.678907 -0.000582 0.0
3.539048 0.428893 0.004641 0.0
2.311361 0.675028 0.001657 0.0
4.395974 0.021968 0.001661 0.0
1.002455 0.093306 -0.006683 0.0
3.653296 1.958947 -0.000549 0.0
1.168558 0.385376 0.000752 0.0
4.135619 1.988827 -0.001025 0.0
2.169081 1.223367 -0.001003 0.0
3.503507 0.761245 0.000302 0.0
3.111280 2.027947 -0.002273 0.0
0.247714 1.019429 -0.000214 0.0
2.530726 1.527657 -0.000965 0.0
1.407305 1.968465 -0.001657 0.0
3.989228 0.273822 -0.000685 0.0
3.452678 1.958508 0.002577 0.0
3.225981 1.640400 0.000866 0.0
4.760868 1.258563 0.001324 0.0
3.097845 0.832363 0.003059 0.0
2.298106 1.175884 0.000189 0.0
4.624075 1.376235 0.002218 0.0
1.488144 1.250607 -0.000301 0.0
1.501308 1.484875 0.004645 0.0
0.701382 0.580231 0.004169 0.0
2.873265 0.531702 -0.003790 0.0
1.821730 0.206315 0.001635 0.0
0.508034 1.647642 -0.000226 0.0
4.043897 1.298449 -0.001076 0.0
0.185957 0.749325 0.000318 0.0
2.538257 1.450848 0.004636 0.0
4.691436 1.102912 0.000382 0.0
1.052218 1.264866 -0.000478 0.0
4.105081 1.768838 0.000668 0.0
2.314535 0.397814 0.002207 0.0
2.608232 0.379213 -0.001843 0.0
0.032718 0.826804 -0.001028 0.0
4.705957 0.438216 -0.001588 0.0
4.563698 1.219415 0.003137 0.0
3.290068 1.060745 -0.000824 0.0
4.020190 0.019789 0.001415 0.0
1.395547 1.679720 0.000391 0.0
2.461560 1.323185 -0.002725 0.0
3.076093 1.282935 0.002416 0.0
3.615985 1.244055 0.003365 0.0
0.350451 0.297552 -0.001388 0.0
0.950971 1.845220 0.003259 0.0
4.818851 0.123859 -0.001283 0.0
2.487509 0.094079 0.002065 0.0
0.104321 0.819062 0.001280 0.0
2.680056 0.813436 0.005392 0.0
3.924616 0.155383 -0.001466 0.0
2.595598 1.437054 -0.001424 0.0
0.145096 1.266034 0.001631 0.0
0.579041 2.059005 -0.002735 0.0
0.177059 0.231071 -0.000965 0.0
0.930534 0.083165 0.003393 0.0
3.077079 1.763671 0.000867 0.0
1.080439 1.818184 -0.000397 0.0
1.352773 0.926090 0.001174 0.0
3.727233 0.711683 -0.000328 0.0
1.027972 1.630192 0.002067 0.0
0.860142 1.030574 -0.001570 0.0
1.947070 1.432613 -0.001088 0.0
0.393127 0.514224 0.000733 0.0
0.565977 0.858711 -0.002802 0.0
0.345926 1.257390 0.001326 0.0
2.254962 1.806915 -0.001920 0.0
2.430081 0.973229 -0.002972 0.0
4.504549 1.781210 -0.004403 0.0
4.190655 0.684573 -0.002860 0.0
0.861890 0.510727 0.001210 0.0
3.224794 0.051569 -0.002451 0.0
2.980880 0.541454 -0.001770 0.0
2.768833 0.211802 -0.000891 0.0
3.992786 1.917096 -0.001014 0.0
0.175806 1.972042 0.002064 0.0
2.145853 1.768442 -0.002566 0.0
0.810715 0.088383 0.000319 0.0
4.541468 1.439041 0.000905 0.0
0.544572 0.271005 0.000934 0.0
3.402624 0.879435 0.000516 0.0
4.066169 0.884816 -0.002007 0.0
2.297399 0.937671 0.004552 0.0
4.841004 0.880970 0.000399 0.0
2.107467 0.691662 -0.003891 0.0
4.093372 0.179917 -0.000355 0.0
3.443895 0.370555 -0.000281 0.0
4.570909 0.868784 0.000941 0.0
0.075435 1.502593 -0.000519 0.0
1.440501 1.765419 0.002007 0.0
0.891568 0.846106 0.002990 0.0
0.604533 0.882521 0.002877 0.0
4.012478 1.714713 0.000314 0.0
0.822991 0.414018 -0.002376 0.0
4.782486 0.335652 -0.000906 0.0
1.752946 1.049844 -0.000418 0.0
4.529611 0.841633 0.003392 0.0
0.294824 2.025067 0.003010 0.0
3.737888 0.937444 -0.001006 0.0
0.549382 1.140517 -0.001054 0.0
0.004299 0.899341 -0.004101 0.0
1.562286 1.406174 -0.000169 0.0
1.089179 1.121183 0.000978 0.0
0.997887 1.744311 -0.002027 0.0
3.011430 1.186957 0.000719 0.0
4.553155 1.683784 0.001097 0.0
4.394314 0.092726 -0.000041 0.0
3.224850 1.866999 -0.001972 0.0
2.145185 0.042710 0.004402 0.0
1.019586 1.589430 0.000332 0.0
0.280125 1.873421 -0.001104 0.0
4.054120 0.190588 0.000230 0.0
4.714614 1.449096 0.000087 0.0
0.817923 0.545844 0.002996 0.0
4.298142 0.630264 -0.003339 0.0
4.914298 0.797442 -0.000590 0.0
1.550760 1.131510 0.002308 0.0
4.153955 1.323830 0.001300 0.0
0.478116 0.808275 0.002128 0.0
1.599386 1.744219 -0.001327 0.0
2.557827 0.049678 0.000528 0.0
0.843780 1.076229 -0.001184 0.0
4.518961 0.503913 -0.003404 0.0
1.740459 0.415396 0.000834 0.0
4.614682 1.224674 -0.004923 0.0
4.147508 0.691240 -0.000745 0.0
1.637387 1.574475 0.002167 0.0
2.179545 2.027521 -0.003370 0.0
0.693838 1.278231 -0.004028 0.0
0.397563 1.520436 0.002109 0.0
4.095109 0.522707 0.002261 0.0
3.292144 0.925140 -0.001447 0.0
4.170476 0.073777 0.001155 0.0
3.799632 1.022473 -0.000354 0.0
0.023031 1.634799 0.002354 0.0
0.940013 0.027098 -0.000304 0.0
0.054140 0.904112 0.000304 0.0
2.942912 0.830046 0.001123 0.0
1.561039 1.391175 0.006626 0.0
1.079401 1.890107 -0.002871 0.0
2.220698 1.491430 0.001295 0.0
2.578849 0.738836 -0.001198 0.0
1.326890 0.312761 -0.003347 0.0
3.381540 1.109343 0.002036 0.0
4.457920 0.874237 0.000317 0.0
4.552417 1.336858 0.000084 0.0
3.434311 1.118144 -0.002992 0.0
4.187761 1.095187 -0.004599 0.0
3.858342 1.836989 0.001675 0.0
4.088920 0.904253 -0.002523 0.0
2.687711 0.835784 -0.000443 0.0
3.057064 0.030764 -0.000160 0.0
1.496744 0.566449 -0.003697 0.0
2.927322 0.356102 -0.002354 0.0
4.294333 2.052248 -0.001916 0.0
1.656147 1.985393 0.001302 0.0
3.565478 1.232737 -0.004700 0.0
1.563727 1.013218 -0.003643 0.0
0.553915 1.132936 -0.004386 0.0
1.946528 0.643763 -0.000589 0.0
4.680121 0.502792 0.002007 0.0
2.380994 0.420029 0.002018 0.0
2.724054 0.588838 -0.004356 0.0
3.319275 0.152135 0.002783 0.0
4.548483 1.895542 0.002515 0.0
3.941445 0.650039 -0.005007 0.0
0.945946 1.648855 0.001116 0.0
2.621105 1.884302 0.001911 0.0
3.861972 1.953770 0.004069 0.0
2.212871 0.996180 0.000228 0.0
4.473271 0.120345 0.001896 0.0
4.789245 0.002597 0.000823 0.0
1.810016 0.442852 0.002149 0.0
1.242980 1.753263 -0.004012 0.0
2.485854 0.478966 -0.002504 0.0
0.419978 1.460711 -0.002593 0.0
1.195328 0.842710 0.005418 0.0
0.283320 1.876917 0.002616 0.0
1.819712 1.328461 0.004358 0.0
0.376884 2.057751 0.002712 0.0
4.133014 0.615175 -0.001295 0.0
1.392692 1.077264 -0.000744 0.0
2.998509 1.540147 -0.002785 0.0
2.795314 0.313961 0.002167 0.0
3.001509 1.788711 -0.001055 0.0
1.700311 1.863047 -0.001221 0.0
1.842997 1.579996 0.000320 0.0
0.868215 1.282351 -0.002094 0.0
2.230272 0.437890 0.003143 0.0
0.748328 0.673645 -0.002309 0.0
1.860473 2.029345 -0.001458 0.0
3.033733 0.978457 -0.001136 0.0
4.054891 0.852400 -0.002737 0.0
4.868293 1.352705 0.002752 0.0
0.103411 2.059526 -0.005777 0.0
2.526761 0.954249 -0.001969 0.0
1.775065 1.524056 0.001388 0.0
0.643125 0.838175 -0.003605 0.0
0.772590 0.173291 -0.000753 0.0
2.407029 0.333941 0.000257 0.0
4.140943 0.332906 0.001086 0.0
1.818764 0.214840 -0.000886 0.0
3.160396 0.672385 -0.002594 0.0
0.355561 1.983802 0.000069 0.0
4.901495 0.157280 0.001725 0.0
2.515526 1.613929 -0.000720 0.0
0.683730 1.826797 0.000051 0.0
1.332239 0.829210 0.004529 0.0
1.477372 0.562346 0.000960 0.0
4.802546 2.037486 -0.002495 0.0
2.327100 1.478149 0.003353 0.0
0.614111 0.123185 0.002741 0.0
3.120467 0.501414 -0.000713 0.0
2.634044 1.194529 -0.001768 0.0
1.184710 0.891581 0.002255 0.0
4.479407 0.773434 0.003869 0.0
3.490648 0.160340 0.000069 0.0
2.720920 1.867665 0.003085 0.0
2.572992 1.321028 -0.000216 0.0
3.533397 0.556116 -0.004942 0.0
4.738677 1.324244 -0.001967 0.0
3.935490 1.122253 -0.000477 0.0
4.701058 1.722823 -0.001963 0.0
2.694939 1.409247 -0.000550 0.0
2.391426 0.592454 -0.000097 0.0
3.739124 1.126776 -0.002481 0.0
2.610284 1.928369 -0.002879 0.0
4.860617 0.988382 -0.001489 0.0
3.951016 1.912413 -0.004871 0.0
3.218159 0.475704 -0.002426 0.0
4.185793 1.008421 0.007503 0.0
2.931659 1.398491 -0.002551 0.0
0.691041 0.639700 0.000873 0.0
4.347770 1.941257 0.002416 0.0
4.115336 1.957467 0.000461 0.0
3.582697 0.546404 -0.001145 0.0
2.680422 1.962261 -0.001471 0.0
3.606665 1.768076 0.000928 0.0
4.776884 0.098279 -0.001831 0.0
1.867596 0.147865 -0.002212 0.0
1.172128 0.814431 0.001963 0.0
2.804058 1.054826 -0.001115 0.0
1.760444 1.764963 -0.002860 0.0
4.871664 0.080559 0.001029 0.0
4.078715 1.571729 0.002390 0.0
4.280803 0.072427 0.001524 0.0
2.759868 1.038151 -0.002885 0.0
1.387464 0.961120 0.001089 0.0
2.980059 0.161829 -0.000888 0.0
3.745455 1.424858 -0.002836 0.0
2.973099 0.039077 0.001487 0.0
3.958290 0.997686 0.001271 0.0
4.251357 0.539195 0.000246 0.0
3.015545 0.580626 0.002018 0.0
2.928145 1.085459 -0.002200 0.0
2.612459 1.630389 0.002600 0.0
4.098808 1.575021 0.000064 0.0
0.813294 0.057057 -0.004491 0.0
4.356700 1.537946 0.000166 0.0
2.995156 2.034913 0.000697 0.0
4.032704 1.736645 -0.000920 0.0
4.664912 0.884888 0.003108 0.0
4.505691 1.236172 -0.003457 0.0
1.819974 1.755997 -0.000035 0.0
3.451414 0.468261 -0.004051 0.0
0.643279 1.401766 -0.002242 0.0
1.488347 0.734002 0.000519 0.0
4.066282 0.596167 0.000832 0.0
1.547827 1.860950 0.000077 0.0
3.413826 0.393466 -0.001814 0.0
2.236641 0.575860 0.001575 0.0
2.311398 0.352368 -0.001950 0.0
0.897313 1.870714 0.000934 0.0
0.377474 1.311792 -0.002540 0.0
2.859948 0.466437 0.000682 0.0
3.988967 0.525541 0.000721 0.0
2.988718 0.441980 0.000315 0.0
1.331976 0.933321 0.002748 0.0
1.092639 1.919717 -0.001923 0.0
4.365868 0.997675 0.005503 0.0
0.391522 0.016145 -0.002258 0.0
2.155040 1.177120 -0.001576 0.0
0.492542 1.596478 0.003412 0.0
1.413702 0.762256 -0.003423 0.0
2.725239 0.114474 -0.000650 0.0
2.565761 0.618654 0.003363 0.0
4.047078 1.316709 -0.000086 0.0
0.171125 0.236120 -0.005152 0.0
2.885956 0.102230 0.002255 0.0
3.998008 1.707555 -0.001583 0.0
4.569213 0.783642 0.000211 0.0
0.829835 1.016003 -0.004116 0.0
0.973277 1.021016 0.000584 0.0
4.867469 0.052610 0.000231 0.0
1.942296 1.828043 0.000623 0.0
4.429402 0.643853 -0.000349 0.0
1.201113 0.532834 -0.003509 0.0
1.889992 0.523735 0.000714 0.0
3.297522 1.295046 0.000590 0.0
0.070423 0.197324 -0.003681 0.0
0.565191 0.318453 0.000521 0.0
0.852027 0.162235 -0.000540 0.0
1.773679 0.936398 -0.002013 0.0
4.243211 0.443116 0.000786 0.0
3.791207 1.159022 0.001222 0.0
4.115675 1.067141 -0.002265 0.0
3.982054 1.587320 0.001280 0.0
4.389554 1.263985 0.001326 0.0
1.806615 1.699845 -0.001959 0.0
2.501216 0.107205 -0.000509 0.0
2.964296 1.827299 0.000351 0.0
3.105857 0.028580 -0.001773 0.0
0.180638 1.637594 -0.001343 0.0
2.542001 0.468413 -0.004089 0.0
4.210103 0.141073 -0.000075 0.0
2.525055 1.008426 -0.003056 0.0
2.356149 0.769736 0.000096 0.0
4.294983 0.904210 -0.000464 0.0
1.401373 0.109574 -0.000856 0.0
0.937456 2.050203 -0.002018 0.0
2.488767 1.511814 -0.002689 0.0
3.751069 1.554799 0.002217 0.0
3.204110 0.531888 0.004088 0.0
4.183646 1.198720 0.000470 0.0
2.672326 1.482016 -0.005084 0.0
3.100984 1.376018 -0.000790 0.0
0.815051 0.297209 0.004009 0.0
1.683057 1.395844 0.001990 0.0
2.847362 1.132766 -0.001853 0.0
1.869939 0.177305 -0.002409 0.0
3.717211 1.574299 -0.000124 0.0
0.127694 1.973539 0.004599 0.0
4.154000 1.930866 -0.003467 0.0
2.039777 0.241686 0.001329 0.0
4.038206 0.631882 0.003147 0.0
2.200491 0.625637 -0.001033 0.0
3.108911 0.598527 -0.001750 0.0
1.474175 0.863941 0.002540 0.0
1.749443 1.941538 -0.000622 0.0
0.180796 1.525091 0.001812 0.0
2.858780 0.605139 0.001328 0.0
0.733516 1.877568 0.001379 0.0
0.375291 0.002750 -0.001731 0.0
1.911721 0.834674 -0.002842 0.0
4.275267 0.107128 0.000770 0.0
3.020821 0.465595 -0.001433 0.0
3.495949 0.220995 0.003136 0.0
0.806948 0.364274 -0.002293 0.0
2.210031 1.134808 0.001301 0.0
4.882357 1.735242 -0.002469 0.0
3.610225 1.031683 -0.003680 0.0
1.504997 1.089652 0.001427 0.0
0.600038 1.763855 -0.001048 0.0
3.875527 0.035888 0.003609 0.0
3.253992 0.379375 0.000791 0.0
1.300299 1.002941 0.001645 0.0
0.455605 1.385293 0.000641 0.0
0.047245 0.995955 -0.000726 0.0
0.114357 0.357731 0.002329 0.0
3.443931 0.928315 0.000801 0.0
1.909826 1.121049 0.001888 0.0
0.188235 0.489194 -0.000425 0.0
0.815342 1.500421 0.001981 0.0
0.345902 1.976486 -0.001111 0.0
2.568984 2.007248 0.001082 0.0
0.881047 0.996572 -0.006835 0.0
4.324384 1.869212 0.000744 0.0
0.784899 1.571672 0.001339 0.0
0.068910 1.558316 0.001217 0.0
1.302648 0.986505 -0.000981 0.0
4.588293 1.269411 -0.001534 0.0
1.369741 0.382828 -0.001179 0.0
2.017357 0.621811 0.000323 0.0
2.730244 1.352054 0.000047 0.0
3.115421 0.749461 0.004552 0.0
3.675806 1.821526 -0.000303 0.0
3.842226 1.816598 -0.002218 0.0
0.456155 0.202617 0.001882 0.0
3.600061 0.943912 -0.001143 0.0
4.477254 0.459726 -0.000740 0.0
1.375928 1.703420 0.001438 0.0
3.952830 1.276520 0.004041 0.0
2.478736 0.498060 -0.000956 0.0
0.423720 0.265576 0.000337 0.0
4.397916 0.674283 -0.002806 0.0
3.258967 0.895887 0.003112 0.0
2.927341 1.669984 0.005322 0.0
3.781268 1.969239 -0.000973 0.0
3.782975 1.009661 -0.004349 0.0
2.891602 0.693183 -0.003404 0.0
3.587634 0.609427 0.002945 0.0
2.705951 1.570257 0.003312 0.0
3.501579 1.830349 0.006178 0.0
3.460194 0.435488 -0.004216 0.0
1.428241 1.108043 -0.000412 0.0
3.470766 1.025139 0.001418 0.0
1.403423 1.058267 0.000820 0.0
0.102738 0.958084 -0.001356 0.0
0.414746 0.353914 -0.001561 0.0
4.333069 0.056877 0.001169 0.0
3.019608 0.123236 -0.001890 0.0
3.045068 1.232378 0.002549 0.0
2.130840 0.020872 0.002425 0.0
4.328704 1.794205 0.002357 0.0
0.904207 1.376763 -0.003569 0.0
2.840580 0.088032 -0.001640 0.0
3.479661 0.694981 -0.005289 0.0
2.136177 0.184142 -0.001861 0.0
2.565408 1.617011 0.000649 0.0
1.038663 1.937484 0.003345 0.0
1.106927 1.213626 0.000714 0.0
3.685192 1.556085 0.002383 0.0
4.225356 1.730733 -0.003584 0.0
0.339779 0.905693 0.001948 0.0
4.279374 2.001854 -0.003576 0.0
2.480135 0.700725 0.000852 0.0
2.311750 1.619630 -0.000302 0.0
1.960860 1.266430 0.001744 0.0
0.010222 1.128745 0.002588 0.0
4.516930 1.212236 -0.000169 0.0
3.082056 0.299617 0.000176 0.0
2.239232 1.771164 0.003308 0.0
1.139260 1.169973 0.003952 0.0
1.087638 0.426905 0.001545 0.0
3.527496 1.138634 -0.001532 0.0
1.339375 0.371306 -0.000910 0.0
1.900492 0.756270 0.001271 0.0
1.729601 0.856091 0.001198 0.0
2.639169 1.799664 -0.001915 0.0
1.992432 0.636323 0.000814 0.0
0.040748 0.145273 -0.000818 0.0
2.094026 0.414364 -0.003418 0.0
0.447929 0.957939 0.001148 0.0
4.285983 1.310936 0.003714 0.0
3.937409 0.985783 0.001360 0.0
2.060057 0.023837 -0.004422 0.0
0.487594 0.999815 0.002349 0.0
1.868116 1.876945 0.000676 0.0
2.320108 1.917329 0.003577 0.0
1.737569 1.055157 0.000501 0.0
1.641741 0.883508 0.001555 0.0
1.620366 1.184214 0.002229 0.0
1.387705 0.545426 -0.003569 0.0
2.195395 1.268899 0.005036 0.0
1.692942 0.246626 -0.003098 0.0
3.110397 0.580420 -0.001306 0.0
0.120591 1.254308 0.002978 0.0
4.685782 0.700214 -0.001702 0.0
0.206517 0.284980 0.003788 0.0
4.170037 0.585224 -0.001559 0.0
2.589814 1.161000 0.000953 0.0
1.467565 0.349765 -0.000013 0.0
4.773458 0.635273 -0.002614 0.0
2.239818 2.010631 0.003743 0.0
0.471854 0.722477 0.003288 0.0
0.382746 1.046583 0.001718 0.0
1.102245 1.038029 0.000706 0.0
2.827514 1.351157 0.000334 0.0
0.791699 1.830512 -0.000639 0.0
1.489613 1.512971 -0.002347 0.0
4.294447 0.659955 0.001314 0.0
4.176988 1.560215 -0.000739 0.0
4.192591 0.748840 -0.000217 0.0
2.619244 0.800498 -0.001129 0.0
4.119249 0.871003 -0.002217 0.0
2.542577 1.690985 0.000097 0.0
2.330892 0.075936 0.000711 0.0
1.722819 0.339197 -0.001988 0.0
0.660611 1.813198 0.001371 0.0
3.752345 1.304327 -0.000362 0.0
4.773661 1.756080 -0.000361 0.0
4.024340 1.850898 -0.002320 0.0
4.427312 1.867358 -0.001307 0.0
0.401928 1.315371 -0.001283 0.0
0.565041 0.610528 0.000944 0.0
2.641191 1.828605 -0.000921 0.0
2.508852 0.967704 0.001113 0.0
1.639735 1.220170 -0.003653 0.0
1.129618 1.020756 -0.004207 0.0
2.945729 1.198351 0.002144 0.0
1.051598 1.557394 0.004432 0.0
2.756887 0.206729 0.000631 0.0
0.724413 1.093556 0.003024 0.0
3.183318 1.863753 -0.001737 0.0
3.691300 1.538973 -0.001684 0.0
3.812873 0.429506 0.003634 0.0
2.539115 1.744446 0.001708 0.0
1.061946 1.342019 -0.000098 0.0
0.781165 1.901055 -0.000548 0.0
4.328250 0.997621 0.001670 0.0
2.037883 1.510181 -0.002247 0.0
1.818301 0.279845 -0.001012 0.0
3.073733 0.343358 -0.000309 0.0
0.710232 0.162813 0.000883 0.0
0.022226 1.727485 0.000580 0.0
2.171642 1.368296 -0.003408 0.0
1.742555 0.316547 -0.002448 0.0
3.559315 0.709304 0.004874 0.0
3.643023 1.374856 -0.001024 0.0
1.463490 1.188755 0.001290 0.0
0.107439 0.783325 -0.000043 0.0
2.835628 1.076777 0.002665 0.0
2.627281 0.243395 0.002075 0.0
1.634286 1.808218 -0.000612 0.0
3.229261 0.287820 -0.000240 0.0
0.205492 0.715460 -0.001065 0.0
3.121392 0.464949 0.003583 0.0
0.717875 1.912287 0.001562 0.0
1.541792 1.779345 0.000623 0.0
0.131707 0.629928 -0.003848 0.0
2.818785 0.868187 -0.002334 0.0
1.382559 1.623071 -0.000557 0.0
1.669075 1.684102 -0.001468 0.0
4.764516 0.150127 0.001390 0.0
2.488832 1.266360 -0.000297 0.0
1.141881 0.920048 0.001459 0.0
4.350446 0.277398 -0.005024 0.0
0.175332 0.151728 0.001992 0.0
1.481549 2.034538 -0.000298 0.0
3.008377 0.621804 0.002052 0.0
1.547071 0.876818 0.004055 0.0
1.526195 2.027105 -0.003000 0.0
2.983809 1.206180 -0.003611 0.0
0.084156 0.067439 -0.003719 0.0
4.213597 1.556080 -0.000441 0.0
2.653262 0.953650 0.000542 0.0
3.240536 0.955098 0.000624 0.0
1.946475 1.454763 -0.002522 0.0
3.227674 1.455473 0.002755 0.0
4.887256 0.674668 -0.001535 0.0
4.122242 1.815302 0.003678 0.0
2.607900 0.723400 -0.004280 0.0
0.617245 0.578828 0.000417 0.0
4.088731 0.752880 0.004670 0.0
3.758416 0.190480 -0.002992 0.0
1.283734 0.456584 0.000239 0.0
3.716885 1.107759 0.004392 0.0
