2.27843265 0.16245427 -0.00330652 0.00000000
0.68882416 1.35225842 0.00061739 0.00000000
4.54720965 0.83483377 -0.00052388 0.00000000
0.47672182 2.05341034 -0.00250065 0.00000000
2.87826100 0.50765168 -0.00243799 0.00000000
0.72328554 1.80346211 -0.00047463 0.00000000
4.03861901 1.03683678 -0.00405404 0.00000000
4.75065876 0.75069155 0.00202916 0.00000000
0.70955444 0.76007369 -0.00047138 0.00000000
0.35823765 0.30458539 -0.00031026 0.00000000
2.05995846 1.66224040 0.00155308 0.00000000
2.02988927 2.01179254 -0.00343815 0.00000000
2.48292242 0.64020997 -0.00220034 0.00000000
1.65970781 1.82888639 -0.00082971 0.00000000
4.54895026 1.25958134 -0.00091672 0.00000000
2.03165347 0.57394407 -0.00083358 0.00000000
3.64210605 0.05918635 0.00201840 0.00000000
4.13326856 0.42934178 0.00218160 0.00000000
2.50699123 1.31237105 -0.00025827 0.00000000
1.81362494 0.60663052 -0.00048724 0.00000000
1.14231215 1.78224087 0.00163890 0.00000000
2.34759395 0.52202088 0.00321835 0.00000000
1.68592853 0.31560615 -0.00148363 0.00000000
0.84956787 0.89118994 0.00247577 0.00000000
3.51291519 2.23495372 0.00004277 0.00000000
0.07173649 0.01143077 -0.00287435 0.00000000
1.32265405 2.18605220 0.00102481 0.00000000
2.61103421 0.24769320 0.00167232 0.00000000
1.65647637 1.84475476 0.00390299 0.00000000
4.69739874 0.93808758 0.00167750 0.00000000
4.65972479 0.81832806 -0.00064576 0.00000000
3.04990959 1.73684313 -0.00027124 0.00000000
4.10254090 0.22788882 -0.00149534 0.00000000
4.51816980 0.77384393 0.00209723 0.00000000
2.15991259 1.94887983 0.00283628 0.00000000
3.09613031 2.25359373 0.00224064 0.00000000
4.70658721 0.35129604 -0.00356484 0.00000000
3.68932546 0.68005274 0.00038100 0.00000000
3.25488634 1.65220774 -0.00052177 0.00000000
2.92501609 0.33521104 0.00130278 0.00000000
4.76842228 1.60991963 0.00570156 0.00000000
3.82250291 0.86038119 -0.00014020 0.00000000
4.15502655 0.88464901 0.00172289 0.00000000
1.53276482 1.52616927 -0.00008159 0.00000000
0.49674755 0.39699657 -0.00188710 0.00000000
4.44989694 0.77056607 0.00156040 0.00000000
4.83037213 0.19130694 0.00015585 0.00000000
2.08616603 1.15170124 0.00393867 0.00000000
0.72272586 1.44312650 -0.00172556 0.00000000
3.40562391 0.81503994 -0.00004478 0.00000000
0.32589794 1.45811885 0.00058914 0.00000000
0.54085364 1.40690643 0.00122898 0.00000000
0.70647686 0.85431780 0.00640997 0.00000000
2.41930999 1.89873603 0.00230639 0.00000000
2.18210878 1.49583308 -0.00041748 0.00000000
3.33502481 1.82118543 -0.00065915 0.00000000
1.15457893 1.68060323 0.00173430 0.00000000
1.48151564 1.47615715 0.00323605 0.00000000
1.02441575 1.89262361 -0.00526369 0.00000000
4.22751215 0.25355302 -0.00426259 0.00000000
4.39938976 0.53201707 0.00420815 0.00000000
1.47048823 0.61077523 0.00253890 0.00000000
4.55072819 1.23368123 -0.00007864 0.00000000
4.18769778 1.50375212 -0.00200851 0.00000000
0.00263588 0.92034636 0.00585740 0.00000000
1.25492418 1.02236623 -0.00112638 0.00000000
1.40169090 1.70796509 0.00034821 0.00000000
1.13770939 1.25585970 -0.00150279 0.00000000
1.86853852 0.90858388 -0.00189541 0.00000000
2.71857155 2.25656945 -0.00269088 0.00000000
0.37626648 1.58420612 -0.00097826 0.00000000
2.57870823 0.63004233 -0.00345298 0.00000000
2.27434093 0.65526034 -0.00104006 0.00000000
3.98130765 0.94111924 -0.00210902 0.00000000
3.70739506 2.20631153 -0.00112153 0.00000000
1.44155133 1.01664507 -0.00221363 0.00000000
1.02428869 1.31662098 -0.00030840 0.00000000
4.59837667 0.17347727 -0.00416512 0.00000000
2.35956912 0.68979518 -0.00178938 0.00000000
4.53185320 0.48845008 0.00061710 0.00000000
2.24006813 1.88570697 0.00119317 0.00000000
3.75044741 0.85136660 0.00164270 0.00000000
3.31844121 0.65738040 0.00188982 0.00000000
0.64187131 1.34691073 -0.00229746 0.00000000
3.13754924 1.05772090 0.00038405 0.00000000
0.44673719 1.90984600 0.00000354 0.00000000
0.97024327 1.95417542 0.00266251 0.00000000
0.40134799 0.88301077 -0.00145495 0.00000000
3.64120750 1.39480807 -0.00213818 0.00000000
1.24153391 1.84789035 0.00054315 0.00000000
2.10206029 1.68200225 0.00257249 0.00000000
3.06980145 0.26471521 0.00256764 0.00000000
2.99981008 0.34464344 -0.00026010 0.00000000
1.22386875 1.76143020 0.00048264 0.00000000
2.80309704 0.81913961 -0.00077433 0.00000000
2.82602554 0.59348943 -0.00058565 0.00000000
1.56179708 1.38639404 -0.00203647 0.00000000
2.41135905 0.36705518 0.00002307 0.00000000
3.54514916 0.99968869 -0.00048652 0.00000000
4.57201440 1.68544618 -0.00093445 0.00000000
3.95880159 0.00701323 -0.00383995 0.00000000
1.55521758 1.02299296 -0.00030391 0.00000000
3.73337893 0.96614354 0.00146800 0.00000000
2.04216055 1.74298867 -0.00046582 0.00000000
0.92972248 2.17603994 -0.00221859 0.00000000
4.63741311 1.63852540 -0.00573676 0.00000000
1.25363357 1.38444418 0.00015638 0.00000000
2.48756822 1.65009968 0.00031067 0.00000000
3.42007312 2.11442988 -0.00015881 0.00000000
4.82396966 1.77822846 0.00308833 0.00000000
2.47482710 1.97321048 -0.00131780 0.00000000
2.13787351 2.21116336 -0.00140977 0.00000000
4.83395478 0.32891602 0.00041775 0.00000000
4.49822758 0.01974505 0.00082101 0.00000000
4.72534109 1.97867734 -0.00159004 0.00000000
0.21222944 0.81338069 0.00187573 0.00000000
0.12053349 2.17304529 0.00283358 0.00000000
3.70671548 2.02367946 0.00250407 0.00000000
1.52905800 1.55529465 0.00378829 0.00000000
4.23956645 0.84483925 0.00093101 0.00000000
3.04538512 2.05196451 0.00313652 0.00000000
3.13831185 0.58346489 -0.00174641 0.00000000
0.13103480 0.24817036 0.00436478 0.00000000
3.07805526 1.69177371 -0.00112268 0.00000000
1.63556116 1.87402034 -0.00035416 0.00000000
4.50748415 1.76201419 -0.00766662 0.00000000
4.84730299 1.93597220 -0.00425086 0.00000000
2.60644299 0.52745965 0.00405035 0.00000000
4.40641619 1.04168334 0.00112323 0.00000000
4.30055800 0.42243481 -0.00121466 0.00000000
2.74926123 0.79913765 -0.00094243 0.00000000
0.83086126 0.12490106 -0.00378825 0.00000000
0.35717331 0.29914102 -0.00175191 0.00000000
0.02515275 0.32048462 0.00041865 0.00000000
1.37060380 1.68238378 0.00167268 0.00000000
3.83504747 2.05428126 0.00219390 0.00000000
2.09157848 0.02526103 -0.00227192 0.00000000
3.09193022 1.04997371 0.00134331 0.00000000
1.16377939 0.67604729 -0.00325737 0.00000000
3.63401367 0.83903551 0.00067655 0.00000000
2.85193774 2.22308392 -0.00269444 0.00000000
2.38146605 0.10051874 -0.00213968 0.00000000
3.08515600 1.23325171 -0.00147728 0.00000000
1.47215273 1.37306583 -0.00367343 0.00000000
2.44276258 1.30689542 0.00425673 0.00000000
2.16616408 1.76885333 -0.00076460 0.00000000
3.98128587 0.66184834 0.00394225 0.00000000
0.09365209 1.04333787 0.00353020 0.00000000
3.60774461 1.21995313 -0.00543732 0.00000000
2.26756763 0.12054961 0.00328887 0.00000000
0.62517167 1.01906363 -0.00025304 0.00000000
4.58515779 1.48090882 0.00219183 0.00000000
3.66765253 1.81583371 -0.00099568 0.00000000
0.67254504 1.02864176 -0.00085864 0.00000000
1.47168852 1.71504812 0.00276612 0.00000000
1.60819097 1.89261142 0.00066545 0.00000000
1.02028610 2.22718931 -0.00181939 0.00000000
0.98628111 0.20593622 0.00296202 0.00000000
0.15411911 0.92951525 0.00285277 0.00000000
4.27597964 0.21717651 0.00174331 0.00000000
1.96472400 1.91242212 0.00181078 0.00000000
1.57037344 0.20368749 -0.00046085 0.00000000
0.07770354 0.96584158 0.00068042 0.00000000
0.64580146 1.49843870 0.00012966 0.00000000
3.62680505 1.37433378 -0.00463976 0.00000000
2.31001893 0.87631325 -0.00131051 0.00000000
1.37730568 0.31554741 0.00278186 0.00000000
0.27691784 1.23458743 -0.00112505 0.00000000
2.72361603 1.62028508 -0.00143635 0.00000000
1.54752268 0.74415676 0.00245615 0.00000000
2.94620816 0.35846971 0.00131033 0.00000000
2.39325545 1.72150683 -0.00196307 0.00000000
1.64733676 0.24442295 -0.00010596 0.00000000
3.95218218 0.93050193 0.00154248 0.00000000
4.67116944 1.39324862 0.00123194 0.00000000
4.05636654 0.91838125 0.00240710 0.00000000
2.91944030 1.81858266 0.00572080 0.00000000
1.76479419 0.51704957 0.00201952 0.00000000
4.30498021 0.28903347 -0.00027869 0.00000000
3.59481819 1.64033076 -0.00191767 0.00000000
3.97230118 2.17565498 0.00373314 0.00000000
2.53850455 0.30082638 0.00111069 0.00000000
0.52691847 1.32164272 0.00398051 0.00000000
0.46114269 0.15539542 0.00141472 0.00000000
0.87864976 1.52175689 -0.00018504 0.00000000
1.14513562 2.21012663 0.00314994 0.00000000
2.76396234 2.24682781 0.00341530 0.00000000
1.96145800 1.77925274 -0.00692704 0.00000000
4.75415741 1.51967483 0.00404056 0.00000000
3.06487748 0.89595092 0.00396714 0.00000000
0.91129620 0.52362198 -0.00531019 0.00000000
3.08679390 2.10688516 0.00349175 0.00000000
3.51286851 1.20724764 -0.00015647 0.00000000
4.33527262 2.09199235 0.00133517 0.00000000
1.70081854 2.04064255 0.00101668 0.00000000
1.72315300 0.65907968 -0.00402015 0.00000000
0.29739516 0.58973475 -0.00174767 0.00000000
3.95000146 1.58130681 -0.00227865 0.00000000
2.67852650 1.01430379 -0.00052353 0.00000000
0.35418775 0.00507706 0.00073608 0.00000000
2.49114091 0.23627057 -0.00039989 0.00000000
2.10884813 0.80202801 0.00368799 0.00000000
0.72971959 2.18590296 0.00041274 0.00000000
2.13997218 0.73467224 0.00287640 0.00000000
2.40343218 1.99006118 -0.00054100 0.00000000
1.25313227 0.26566839 0.00106575 0.00000000
4.66693413 1.99472310 -0.00378021 0.00000000
1.15515064 1.64114472 0.00371640 0.00000000
0.52720328 0.40904678 0.00394675 0.00000000
0.63501121 2.22066682 -0.00107512 0.00000000
3.39167989 1.78400320 0.00297835 0.00000000
0.99887751 0.19034733 -0.00064676 0.00000000
1.41436716 0.80978189 -0.00224972 0.00000000
1.48862829 0.70943030 -0.00001558 0.00000000
3.86833767 0.23706853 0.00468756 0.00000000
0.77769256 0.95492474 -0.00190956 0.00000000
2.52156738 1.82739048 0.00050058 0.00000000
2.35633293 2.06543699 0.00021098 0.00000000
1.54025791 1.35983692 -0.00054600 0.00000000
3.47878964 0.22784642 -0.00273705 0.00000000
4.26033978 0.35918437 0.00130255 0.00000000
2.13671390 1.45003126 -0.00414276 0.00000000
0.43144935 0.75156524 0.00643867 0.00000000
2.27790416 2.22167176 0.00275950 0.00000000
3.26566606 0.58947360 0.00101128 0.00000000
0.00149080 2.09112867 0.00096479 0.00000000
3.53295644 2.04072678 -0.00038581 0.00000000
2.06376077 1.14713383 0.00461272 0.00000000
3.73208280 2.01448985 -0.00359218 0.00000000
1.52392264 1.61178657 -0.00192186 0.00000000
3.11989019 2.10366269 0.00025936 0.00000000
0.89433713 0.20974912 0.00049261 0.00000000
0.06210903 1.54290413 0.00278220 0.00000000
2.56999820 0.84561601 -0.00346601 0.00000000
2.58167498 1.28213209 -0.00027244 0.00000000
0.57847940 2.18631629 0.00192719 0.00000000
0.31976908 0.35869410 -0.00377075 0.00000000
0.47845578 0.94285195 -0.00221859 0.00000000
3.09946477 1.12196256 0.00058003 0.00000000
3.56240964 0.12983240 0.00170086 0.00000000
1.17378305 0.95190356 -0.00056519 0.00000000
1.87728445 0.02524272 0.00082648 0.00000000
1.61789035 1.96681937 0.00021939 0.00000000
1.43196567 2.01810866 -0.00151783 0.00000000
2.73918430 1.18209693 0.00575715 0.00000000
1.01935189 0.74338080 0.00784014 0.00000000
2.16143244 2.24376308 0.00236780 0.00000000
2.72902005 0.81615009 0.00076253 0.00000000
0.75646156 1.20476720 0.00176198 0.00000000
4.52645480 1.47626481 0.00279386 0.00000000
3.59828220 2.04960695 -0.00108294 0.00000000
1.25821628 0.77091819 0.00021250 0.00000000
2.74109155 0.05264577 -0.00224980 0.00000000
4.56843870 0.41287653 0.00030613 0.00000000
4.45553335 0.61471421 0.00194517 0.00000000
0.60860099 0.90744394 0.00110882 0.00000000
3.05427867 1.15417439 -0.00162165 0.00000000
4.10427541 1.73698685 0.00202599 0.00000000
2.11397062 2.22819984 0.00170298 0.00000000
1.73797646 0.55048600 0.00088706 0.00000000
4.56607447 0.51708479 0.00061389 0.00000000
3.14487230 1.69709612 0.00116215 0.00000000
0.98645832 1.38944073 0.00017424 0.00000000
1.12400034 1.48923632 -0.00105643 0.00000000
1.83127623 1.35594901 -0.00124067 0.00000000
0.80143316 2.21110475 -0.00205551 0.00000000
4.14556338 0.12420519 0.00091694 0.00000000
1.77988678 2.00898300 0.00192629 0.00000000
1.91547922 2.05683831 -0.00424317 0.00000000
1.16220620 1.88176375 0.00061526 0.00000000
0.93805251 0.05801240 -0.00270297 0.00000000
1.55263469 2.07465979 -0.00324778 0.00000000
3.48426364 1.24111932 0.00037387 0.00000000
3.12974487 0.85288085 -0.00005557 0.00000000
3.06653644 2.01071262 -0.00075801 0.00000000
0.99455971 1.94914786 0.00070930 0.00000000
4.01899878 1.77090043 0.00357504 0.00000000
3.37247870 0.10046823 0.00080770 0.00000000
2.85096452 0.74351710 0.00081792 0.00000000
0.85457051 1.50098310 0.00324429 0.00000000
1.06616336 1.07647829 0.00172177 0.00000000
1.05140589 0.49755284 0.00401941 0.00000000
0.14987389 0.37883191 0.00448756 0.00000000
1.09822641 0.83813707 -0.00207536 0.00000000
2.38258344 0.93731839 0.00097436 0.00000000
4.18249926 0.03302055 0.00292913 0.00000000
2.77108662 1.90837177 -0.00063590 0.00000000
1.85137826 1.99504920 -0.00235718 0.00000000
2.86925127 1.95845331 0.00207098 0.00000000
0.28820458 1.23135471 -0.00225075 0.00000000
3.75556236 1.69877878 0.00195441 0.00000000
0.55901994 0.31947416 0.00173150 0.00000000
3.57480658 0.17830280 -0.00237076 0.00000000
4.71136761 0.47383825 -0.00117284 0.00000000
4.13247672 1.07095969 -0.00317274 0.00000000
0.30631991 1.12783254 0.00215748 0.00000000
1.53357443 1.74098633 0.00533913 0.00000000
1.55922950 2.09997388 -0.00513237 0.00000000
0.79829733 1.90127573 -0.00101684 0.00000000
2.70391680 1.05787816 0.00112347 0.00000000
3.24083686 0.63413026 0.00108505 0.00000000
0.04220097 0.04581968 0.00075555 0.00000000
1.64250553 0.39879672 -0.00184007 0.00000000
3.94867737 0.05457750 0.00007964 0.00000000
0.52640719 1.72439695 -0.00028590 0.00000000
2.36421931 2.01566483 -0.00067200 0.00000000
3.85156712 0.08718248 -0.00128000 0.00000000
0.24265094 1.91162811 0.00131622 0.00000000
3.47872554 1.90696952 0.00259791 0.00000000
2.24931804 0.43411716 -0.00520354 0.00000000
3.53889055 1.33432851 0.00132632 0.00000000
2.24719270 0.95540670 0.00048400 0.00000000
4.37971744 0.93825232 0.00220944 0.00000000
2.98830316 2.26267826 0.00037265 0.00000000
3.71625761 0.11753370 -0.00276387 0.00000000
1.81947239 0.61148169 -0.00068963 0.00000000
0.92118014 2.23735469 -0.00026430 0.00000000
2.35835270 1.52094719 0.00176826 0.00000000
0.95761580 0.48629971 -0.00119199 0.00000000
1.04780643 0.45797006 0.00352262 0.00000000
3.06543020 1.09591202 0.00443595 0.00000000
0.99036632 1.37133098 -0.00016066 0.00000000
1.55388086 1.40505353 0.00293241 0.00000000
1.71008785 1.94209210 -0.00135870 0.00000000
1.03589111 1.97971746 0.00103278 0.00000000
1.58149515 1.23703098 0.00575103 0.00000000
3.41811074 1.33331995 0.00261683 0.00000000
2.73377438 1.79276944 -0.00139837 0.00000000
1.83398069 1.97699257 0.00096696 0.00000000
2.80719202 0.54388223 0.00078677 0.00000000
1.52494206 0.30764104 0.00049265 0.00000000
4.17753038 0.58273312 0.00128871 0.00000000
1.53974980 2.16528859 0.00144628 0.00000000
4.05970833 0.04962817 -0.00250700 0.00000000
2.81820571 1.64342073 -0.00089344 0.00000000
1.06948981 0.23098279 -0.00275133 0.00000000
4.25102624 0.52395896 0.00221450 0.00000000
1.01370806 2.12202308 0.00480670 0.00000000
0.88708936 1.79759675 0.00031687 0.00000000
2.27574453 0.08800965 -0.00344755 0.00000000
4.16881419 0.42494791 -0.00261301 0.00000000
3.10063453 1.25458292 0.00391400 0.00000000
0.29606710 0.92782134 0.00005711 0.00000000
0.10288637 1.68492006 -0.00307728 0.00000000
3.37187776 0.06779865 -0.00023671 0.00000000
2.91393745 1.93249413 -0.00247232 0.00000000
0.95420009 0.99185160 0.00147096 0.00000000
2.54130906 0.89486164 0.00235408 0.00000000
3.57733247 1.49373046 -0.00399018 0.00000000
4.73629074 0.89238495 0.00120058 0.00000000
0.05285886 2.14254707 0.00040747 0.00000000
4.74779807 0.27890666 -0.00529104 0.00000000
3.23808999 2.19249429 -0.00088266 0.00000000
4.27372232 0.78445880 0.00082036 0.00000000
4.01315439 2.21965005 -0.00031552 0.00000000
4.00539581 0.73585858 0.00201620 0.00000000
3.81057669 2.18370234 -0.00132677 0.00000000
1.14775041 0.08207699 0.00001411 0.00000000
1.52293208 0.88789491 0.00150723 0.00000000
4.73020396 1.79334348 0.00040677 0.00000000
2.48334457 1.74340681 0.00048995 0.00000000
2.22661173 0.11163773 -0.00467533 0.00000000
2.25532729 0.99905262 -0.00201748 0.00000000
2.43496262 0.01998189 -0.00064971 0.00000000
3.22978680 0.65659627 0.00563800 0.00000000
4.55077314 1.28785251 0.00142618 0.00000000
3.88320683 0.11216817 0.00260077 0.00000000
2.63753568 2.18907449 0.00118563 0.00000000
2.49726508 1.27938671 -0.00508652 0.00000000
0.31344488 1.50022675 -0.00169385 0.00000000
1.84874136 1.89988223 -0.00002505 0.00000000
2.30914264 1.37717182 0.00220853 0.00000000
1.59400856 1.37577419 -0.00276956 0.00000000
2.86881818 0.24442418 -0.00027368 0.00000000
0.55715719 2.11476525 0.00160792 0.00000000
0.79775574 1.39566333 -0.00119935 0.00000000
2.24407171 0.89073659 0.00270495 0.00000000
3.27990374 1.54829351 -0.00371050 0.00000000
1.78823622 0.22785964 -0.00046884 0.00000000
2.07852746 0.82890593 0.00172318 0.00000000
0.40298904 2.07523889 -0.00121128 0.00000000
4.70164179 1.47084343 0.00069097 0.00000000
4.46696376 1.25277713 0.00075771 0.00000000
2.21552442 0.28560677 -0.00233473 0.00000000
2.03534504 1.83291120 0.00001844 0.00000000
2.20648024 1.17163166 -0.00047369 0.00000000
0.29598751 1.68478070 -0.00579969 0.00000000
0.18569768 2.21762862 0.00049396 0.00000000
0.36986526 0.50104289 0.00112828 0.00000000
2.98627935 2.12960274 -0.00239264 0.00000000
0.82382559 1.34252869 -0.00101773 0.00000000
1.44466491 1.89398652 0.00745290 0.00000000
0.77477473 1.18641718 0.00241529 0.00000000
3.62831368 2.06055097 0.00149306 0.00000000
1.88646866 0.89642897 -0.00154432 0.00000000
4.67469825 0.02224556 0.00257872 0.00000000
0.31093205 1.70629136 -0.00337688 0.00000000
2.34637175 2.03221068 0.00236881 0.00000000
0.01550214 1.22846214 0.00262953 0.00000000
0.44165934 2.16110511 -0.00351919 0.00000000
3.96793475 1.50622685 -0.00184475 0.00000000
3.00762974 0.58825217 0.00264846 0.00000000
3.71386456 1.46064484 -0.00017966 0.00000000
0.65647981 0.39293888 0.00041611 0.00000000
2.64436361 1.62148937 -0.00135705 0.00000000
2.21167206 0.34686208 0.00250467 0.00000000
3.30504668 0.63761744 0.00115673 0.00000000
2.64218095 0.59644108 0.00144083 0.00000000
3.67749912 0.94767814 0.00394491 0.00000000
2.72819436 0.62804619 0.00226335 0.00000000
3.99131823 2.17332925 0.00138440 0.00000000
4.69111757 0.83312761 -0.00280335 0.00000000
3.69626288 0.72646045 -0.00314809 0.00000000
2.27285367 1.90954373 0.00150943 0.00000000
3.33640423 1.41628670 0.00226089 0.00000000
2.25292800 1.39199567 0.00039370 0.00000000
2.74844572 0.68631750 -0.00204597 0.00000000
4.45640642 1.37137614 0.00381790 0.00000000
3.97986959 0.14915532 -0.00178016 0.00000000
1.57694986 2.00497370 -0.00068033 0.00000000
3.88899888 0.48216155 0.00181584 0.00000000
2.30250163 1.95565720 0.00260666 0.00000000
0.16211050 0.31674913 -0.00158095 0.00000000
2.61873934 1.76997015 -0.00055081 0.00000000
2.00125661 1.75078087 0.00091901 0.00000000
4.71076360 0.91255362 0.00028028 0.00000000
2.85725486 0.38235424 0.00080158 0.00000000
4.16418209 2.11500206 -0.00224436 0.00000000
1.58390649 1.10529999 -0.00383636 0.00000000
3.45283685 0.73330346 -0.00177856 0.00000000
4.42633652 0.22627616 -0.00162550 0.00000000
4.17416769 0.87836245 0.00043318 0.00000000
4.24199175 1.29494472 -0.00359903 0.00000000
1.82234077 0.53200378 -0.00220072 0.00000000
2.99484987 2.16718923 0.00281606 0.00000000
0.82944126 0.88813581 -0.00222270 0.00000000
4.34911783 0.29680373 -0.00211391 0.00000000
4.02252316 2.13527791 0.00211192 0.00000000
2.33735415 2.07700048 -0.00171375 0.00000000
4.14607835 2.13800285 -0.00097116 0.00000000
2.20702444 0.81858597 -0.00060899 0.00000000
0.59848956 1.06424921 0.00409806 0.00000000
4.81925555 1.94762757 0.00357063 0.00000000
2.64861768 1.08037638 0.00264660 0.00000000
3.83721133 0.86724314 0.00243784 0.00000000
2.29900797 0.25153608 0.00060707 0.00000000
4.04893319 0.18943097 0.00001724 0.00000000
3.75103739 1.36155015 -0.00225668 0.00000000
4.65699914 0.73326820 -0.00134774 0.00000000
0.93983475 0.08102662 0.00022885 0.00000000
2.90457541 0.37810090 0.00252473 0.00000000
3.69247814 0.92353815 0.00113730 0.00000000
1.65720538 1.27228703 0.00148116 0.00000000
0.10578441 1.40019789 -0.00141028 0.00000000
1.54094513 0.15598628 -0.00135428 0.00000000
0.68450041 2.22453532 -0.00378643 0.00000000
2.45184626 0.47738802 -0.00035312 0.00000000
3.50195520 1.87837796 -0.00042308 0.00000000
3.49399671 0.82575425 0.00075505 0.00000000
3.77710142 0.47620772 -0.00042876 0.00000000
1.58895117 1.92898166 -0.00313646 0.00000000
4.41478327 1.30836903 -0.00293665 0.00000000
3.87391772 1.58993131 0.00069466 0.00000000
1.64556514 2.08775286 0.00022039 0.00000000
0.05537908 0.00425315 0.00086668 0.00000000
2.38658102 1.94181018 -0.00133765 0.00000000
2.38480448 2.09280853 0.00043320 0.00000000
4.05377198 2.01119054 0.00151890 0.00000000
4.72720421 1.29626749 -0.00134885 0.00000000
0.51320568 1.85800323 -0.00118735 0.00000000
0.84231149 0.17948731 0.00089949 0.00000000
4.26090855 0.92913479 -0.00055548 0.00000000
2.33691124 1.22000328 0.00242149 0.00000000
0.53819811 0.74509166 -0.00046913 0.00000000
0.57675482 2.12636840 -0.00007110 0.00000000
3.52185264 2.26290274 0.00114491 0.00000000
0.63013153 1.87895389 -0.00293666 0.00000000
1.03081603 1.00236260 -0.00338093 0.00000000
3.29282298 1.08382529 0.00253541 0.00000000
4.31082810 0.83996967 -0.00206728 0.00000000
2.65657406 0.15409021 0.00104463 0.00000000
0.57976903 1.67170267 0.00292045 0.00000000
1.73781177 1.69433540 -0.00162897 0.00000000
4.00496581 0.01939479 -0.00288830 0.00000000
3.56573539 0.17292670 0.00324271 0.00000000
1.82518062 1.07886115 0.00185897 0.00000000
2.75208636 1.43910518 0.00091895 0.00000000
3.93352299 0.97636912 0.00097088 0.00000000
0.38497542 1.69876408 -0.00052606 0.00000000
1.17999603 1.78931304 0.00059670 0.00000000
4.73019522 1.14357077 -0.00040108 0.00000000
4.04485565 1.92852152 0.00083213 0.00000000
1.51115940 1.71125286 0.00055578 0.00000000
0.01296069 0.63399598 -0.00116869 0.00000000
4.24708924 1.57610399 0.00206341 0.00000000
3.23840161 0.54715180 -0.00175544 0.00000000
1.54977963 0.54343028 -0.00115881 0.00000000
1.74636188 1.32073749 0.00439745 0.00000000
2.47693102 2.12570248 0.00023270 0.00000000
0.64386231 0.17981365 -0.00281370 0.00000000
1.05878365 2.17144730 -0.00256554 0.00000000
3.94754137 0.43184116 -0.00126276 0.00000000
0.48466089 1.68889304 0.00079877 0.00000000
2.73259390 0.49895308 -0.00021623 0.00000000
4.80390323 2.13082139 0.00111411 0.00000000
2.74722350 1.20843519 0.00378474 0.00000000
1.00980267 1.79872831 0.00387098 0.00000000
0.00488925 2.23991916 -0.00116899 0.00000000
1.63928905 2.19417850 -0.00152962 0.00000000
2.81803148 1.57440541 -0.00185798 0.00000000
3.71358193 1.91820665 -0.00175824 0.00000000
3.46932484 0.97781498 -0.00033277 0.00000000
4.31781265 0.33601268 0.00163095 0.00000000
1.01579972 1.27719268 0.00117987 0.00000000
1.67807587 1.20846994 -0.00005318 0.00000000
3.35940575 0.41989581 -0.00388708 0.00000000
3.74902208 1.91034757 0.00347754 0.00000000
4.13724768 1.01008565 0.00265036 0.00000000
4.33749304 2.07638483 -0.00282934 0.00000000
1.60725407 1.27337721 -0.00467219 0.00000000
2.67211669 1.97650471 0.00356232 0.00000000
3.60488515 2.17092232 -0.00051868 0.00000000
1.95648651 2.05959340 -0.00664675 0.00000000
4.49448185 0.03935912 -0.00213269 0.00000000
2.03403773 0.65604383 0.00242232 0.00000000
0.65182722 2.03384932 -0.00121207 0.00000000
3.17001547 1.51383235 0.00063196 0.00000000
1.95558483 0.96832387 -0.00076223 0.00000000
4.58306303 1.03714558 -0.00390365 0.00000000
1.19451613 0.68108888 -0.00180332 0.00000000
2.84568363 2.02709120 -0.00124140 0.00000000
2.66270421 1.45896923 -0.00272602 0.00000000
4.30982277 2.20281401 0.00062383 0.00000000
4.15505944 1.02278071 0.00190915 0.00000000
1.35920659 1.86862789 0.00233011 0.00000000
3.97898501 0.13299043 -0.00239118 0.00000000
4.65643765 1.24729583 -0.00051318 0.00000000
3.61122817 1.96610634 -0.00200584 0.00000000
0.80878231 1.74879063 0.00012138 0.00000000
1.35733078 0.46196648 -0.00033911 0.00000000
2.87582334 2.26079091 0.00038429 0.00000000
1.49025484 1.27350923 -0.00414080 0.00000000
1.60668221 1.34517787 -0.00046488 0.00000000
2.31424520 0.07350612 -0.00466171 0.00000000
1.12919919 0.78318488 -0.00032971 0.00000000
2.89549130 1.41585023 -0.00218213 0.00000000
0.30832974 0.89984158 -0.00129424 0.00000000
3.58819394 0.35569599 0.00114885 0.00000000
1.40267257 1.39333355 -0.00044329 0.00000000
2.47538944 0.43871428 -0.00068311 0.00000000
3.45256617 2.27700768 0.00456511 0.00000000
0.35658639 1.48633693 -0.00338491 0.00000000
4.62371098 2.04813947 -0.00376489 0.00000000
0.76540021 0.84837977 0.00249425 0.00000000
2.39122832 1.12184164 -0.00008625 0.00000000
0.05333837 0.83295606 0.00157576 0.00000000
1.84418798 0.73955749 0.00228430 0.00000000
1.17910407 1.83897145 0.00024758 0.00000000
1.70096318 0.12577658 -0.00479705 0.00000000
4.79115823 1.36001556 0.00041408 0.00000000
0.32461539 1.87412946 -0.00159603 0.00000000
1.17302820 0.68599221 0.00237287 0.00000000
1.28911735 1.27889939 0.00357755 0.00000000
4.26933589 1.74802694 0.00252907 0.00000000
4.12222631 2.20124480 0.00041174 0.00000000
2.36281802 1.57815639 -0.00147901 0.00000000
3.32147476 0.45481781 -0.00147177 0.00000000
2.97306610 1.52384568 -0.00062420 0.00000000
3.73094075 1.32680048 -0.00541989 0.00000000
3.91329264 2.03425292 -0.00061653 0.00000000
3.11927350 1.05725493 0.00211945 0.00000000
1.31984775 0.58646192 0.00112028 0.00000000
0.41107025 2.10755928 0.00154932 0.00000000
2.74922927 1.48275551 0.00241203 0.00000000
0.34150895 2.19324906 0.00169628 0.00000000
1.62643109 0.86232312 0.00391420 0.00000000
2.01094870 0.92275137 0.00489354 0.00000000
2.20207770 0.26056481 -0.00180011 0.00000000
2.11983226 0.72611148 0.00150886 0.00000000
3.47608819 0.30118499 -0.00076354 0.00000000
0.11251456 1.93012966 0.00098988 0.00000000
0.79738840 1.81562648 0.00404577 0.00000000
0.84028099 0.63127975 -0.00188177 0.00000000
0.85071589 0.46546026 0.00285525 0.00000000
1.88409839 0.52632638 0.00094759 0.00000000
3.75857251 0.51794784 -0.00005675 0.00000000
3.53877470 0.24826103 0.00256971 0.00000000
0.42243923 0.88953975 0.00218159 0.00000000
2.42430281 0.15193902 0.00672978 0.00000000
3.34613886 0.40194208 0.00298190 0.00000000
2.66020232 1.20010073 -0.00010881 0.00000000
0.95528327 0.63265382 -0.00298308 0.00000000
0.19172567 1.74615572 -0.00229425 0.00000000
1.87066159 1.58642457 -0.00331437 0.00000000
0.81316160 1.85331052 -0.00021834 0.00000000
1.16873812 1.55840290 0.00119598 0.00000000
0.21329861 2.10164283 -0.00012836 0.00000000
0.96738783 1.94828452 -0.00218378 0.00000000
2.74125623 0.14520849 -0.00373792 0.00000000
1.15094816 1.70948132 0.00221333 0.00000000
1.20397653 1.35842987 0.00184591 0.00000000
0.26962531 1.11357386 -0.00242404 0.00000000
1.87858207 2.10864798 0.00079539 0.00000000
4.16063275 2.08565050 0.00178850 0.00000000
4.10506441 1.21227924 -0.00487273 0.00000000
2.85129554 1.26510205 0.00157198 0.00000000
2.08853398 1.13281139 -0.00068601 0.00000000
3.44238715 0.95622489 -0.00149465 0.00000000
2.76929903 0.14000849 -0.00184111 0.00000000
0.09278357 1.38666640 0.00114249 0.00000000
0.67338412 1.90492896 0.00187658 0.00000000
0.50812817 2.01163056 0.00078543 0.00000000
2.02129896 1.62394320 0.00307356 0.00000000
0.97416897 1.77487855 0.00030479 0.00000000
2.42729396 0.17303891 0.00173966 0.00000000
4.07033131 1.73724340 0.00380257 0.00000000
2.32263338 0.69952589 -0.00665004 0.00000000
0.91960269 1.38509048 0.00267724 0.00000000
3.91720399 1.74650366 -0.00408206 0.00000000
1.74785960 0.22839702 -0.00066477 0.00000000
1.98222585 2.02717060 -0.00342773 0.00000000
1.05424484 0.46066381 0.00079070 0.00000000
2.19501744 1.53398150 -0.00239765 0.00000000
4.23441167 1.36822928 -0.00243810 0.00000000
0.64004325 1.89411244 0.00075079 0.00000000
3.57041018 0.29487924 0.00181655 0.00000000
1.40039855 1.39623215 0.00374049 0.00000000
2.70659684 0.01444592 -0.00089440 0.00000000
4.59571022 0.27972125 -0.00126175 0.00000000
4.76223776 0.31801225 0.00381497 0.00000000
2.95335140 1.39078652 0.00099301 0.00000000
0.58563775 0.04448926 0.00366538 0.00000000
0.40831149 0.85718375 0.00069243 0.00000000
2.63387022 0.48213053 0.00003084 0.00000000
4.31284767 1.44805751 0.00049687 0.00000000
2.99702005 0.54926233 0.01041549 0.00000000
3.71517423 1.09349057 -0.00010771 0.00000000
1.93468981 2.22655831 -0.00109271 0.00000000
1.97247323 1.38295038 -0.00070918 0.00000000
1.14757673 1.46582227 0.00110444 0.00000000
4.46781686 0.24899814 0.00231278 0.00000000
0.57728458 1.97837808 -0.00274954 0.00000000
1.62630386 0.46800482 0.00191229 0.00000000
4.45273371 0.99287191 0.00000923 0.00000000
0.78127394 1.11331007 -0.00343139 0.00000000
1.43517793 0.73174943 -0.00048918 0.00000000
1.57639866 0.49234078 0.00431399 0.00000000
3.30316137 0.73572448 -0.00069469 0.00000000
4.61126647 0.20640497 0.00173651 0.00000000
4.28068433 0.05093682 -0.00145383 0.00000000
3.96243367 1.48816545 0.00319260 0.00000000
0.45485364 0.53574978 -0.00582763 0.00000000
2.40556649 2.15337310 0.00051570 0.00000000
4.29130124 2.08204696 0.00156150 0.00000000
4.40406608 0.69283821 -0.00142107 0.00000000
3.68857415 0.70714802 0.00148327 0.00000000
3.81478052 1.35020543 0.00358384 0.00000000
0.86125219 1.16000103 0.00024049 0.00000000
3.41098518 0.56080387 0.00165003 0.00000000
3.54321323 1.77728095 0.00426884 0.00000000
2.84785174 0.43342907 -0.00232614 0.00000000
2.89189535 1.85902542 0.00255942 0.00000000
1.87191297 1.50677964 0.00550792 0.00000000
3.35270979 1.44377292 -0.00065521 0.00000000
4.70719592 1.00140567 -0.00039431 0.00000000
4.21456540 0.38892838 -0.00223983 0.00000000
3.55659427 0.88332622 -0.00107321 0.00000000
1.25811064 0.22621280 -0.00067955 0.00000000
1.20619941 1.77703455 -0.00079206 0.00000000
4.52438233 1.01238676 -0.00091778 0.00000000
4.09458337 1.06075495 -0.00308571 0.00000000
2.40904307 0.05179109 0.00008791 0.00000000
0.19261275 0.34371825 0.00378042 0.00000000
0.45099088 0.75323892 -0.00626176 0.00000000
1.85010945 0.98010265 0.00181799 0.00000000
0.36297343 0.16272080 0.00233568 0.00000000
0.14033097 0.70316277 -0.00096757 0.00000000
4.06487978 0.66355452 -0.00303057 0.00000000
1.15529809 1.82545550 -0.00120361 0.00000000
0.10182866 2.23875178 0.00131634 0.00000000
0.47678882 1.95851932 -0.00214483 0.00000000
1.06743042 1.74069438 -0.00134384 0.00000000
3.23381359 1.49041472 0.00233083 0.00000000
0.69672506 0.96372686 -0.00232008 0.00000000
1.81718129 1.28713784 0.00000383 0.00000000
2.66848799 1.53027032 -0.00034632 0.00000000
4.02772741 0.19603310 -0.00025310 0.00000000
3.04996156 0.07372094 -0.00049506 0.00000000
2.64220553 2.03706250 -0.00133296 0.00000000
2.44499487 0.85512295 0.00457941 0.00000000
1.12988415 0.13210714 0.00108395 0.00000000
2.05856508 1.63302194 0.00360883 0.00000000
3.32148913 1.77702889 0.00181430 0.00000000
0.54780886 2.27430545 -0.00266668 0.00000000
3.85446513 1.40137565 -0.00153563 0.00000000
3.40407069 1.94579054 -0.00047425 0.00000000
2.82056110 0.27686642 -0.00075986 0.00000000
1.09370223 2.17176355 -0.00269143 0.00000000
3.95577290 1.57942714 -0.00042070 0.00000000
3.75071202 1.86842354 0.00113361 0.00000000
2.94207047 1.42173566 -0.00147982 0.00000000
4.61877455 1.39129185 -0.00052646 0.00000000
3.79436272 1.66377187 -0.00096867 0.00000000
3.46594854 0.42644066 -0.00058279 0.00000000
1.11897859 0.63327573 0.00441252 0.00000000
0.64306338 0.78708152 -0.00240223 0.00000000
0.29058109 1.22814937 -0.00093943 0.00000000
4.08276298 0.94728707 -0.00116838 0.00000000
3.38838539 1.90536173 -0.00009003 0.00000000
2.08403464 2.01954037 -0.00369721 0.00000000
1.52399849 1.67067501 -0.00115762 0.00000000
4.12521138 0.53187152 0.00115125 0.00000000
0.21594682 0.92209234 -0.00347500 0.00000000
4.67554887 0.92790872 0.00079079 0.00000000
0.80937646 0.90860292 -0.00014821 0.00000000
3.30141073 1.60263965 -0.00261462 0.00000000
2.97225775 1.01102028 -0.00148719 0.00000000
3.65594234 0.75197403 0.00229066 0.00000000
4.64849135 0.33521399 0.00107698 0.00000000
4.32984890 1.60108351 0.00266721 0.00000000
4.21261318 0.62312280 -0.00033990 0.00000000
1.69900899 0.22246967 -0.00220876 0.00000000
3.72904548 1.72383162 0.00100360 0.00000000
3.70234947 0.26443045 -0.00056964 0.00000000
3.90897806 1.97660886 0.00404034 0.00000000
3.86631413 0.05498896 0.00276925 0.00000000
0.34144000 0.43725598 0.00042138 0.00000000
1.50615002 1.91013477 0.00246009 0.00000000
1.20087780 0.16135237 0.00376029 0.00000000
4.13806170 0.60982693 -0.00051100 0.00000000
0.33221432 1.50717193 -0.00422672 0.00000000
1.79287332 0.02972615 0.00284134 0.00000000
1.91026456 1.79914796 -0.00052918 0.00000000
0.24548500 1.94357582 -0.00016545 0.00000000
1.82298498 0.43413384 -0.00027328 0.00000000
1.48804249 0.64121296 -0.00050745 0.00000000
2.37574978 0.46942502 0.00544041 0.00000000
2.41757608 0.47667482 0.00141070 0.00000000
4.28892730 0.16081236 0.00163152 0.00000000
0.96798580 2.04493441 0.00189651 0.00000000
4.50525652 0.36909449 0.00006768 0.00000000
3.51787060 0.31814696 0.00377165 0.00000000
4.61849139 1.39253346 0.00181009 0.00000000
0.52640650 1.35683454 -0.00221871 0.00000000
4.77924592 1.88905810 -0.00444074 0.00000000
4.60264887 0.18982824 0.00228114 0.00000000
0.67253226 0.26023127 0.00073926 0.00000000
0.37964962 1.67846159 -0.00096563 0.00000000
2.85946798 0.01207773 -0.00372154 0.00000000
2.97868848 1.61140453 -0.00642285 0.00000000
1.43062967 2.02637294 0.00095099 0.00000000
4.78001551 0.70669694 -0.00089190 0.00000000
1.46371007 0.28517708 0.00516680 0.00000000
4.69748088 0.44694290 -0.00413263 0.00000000
4.13626450 0.40609235 0.00249056 0.00000000
1.19591567 1.94792750 -0.00076162 0.00000000
4.60337786 0.21383641 -0.00090395 0.00000000
4.07396787 1.00415127 0.00003873 0.00000000
3.65169081 0.92646042 -0.00187957 0.00000000
2.83775850 2.19741327 -0.00253196 0.00000000
1.02200079 2.00249986 -0.00084552 0.00000000
4.03813647 1.16534205 -0.00193244 0.00000000
4.77221208 0.40391007 0.00121008 0.00000000
1.49982595 1.86709626 -0.00030913 0.00000000
3.88664152 0.69136340 -0.00388284 0.00000000
0.94684800 2.06464622 -0.00001494 0.00000000
2.90239081 1.85339962 0.00122467 0.00000000
3.18763052 0.52346150 -0.00312181 0.00000000
4.19035387 1.51553580 0.00019257 0.00000000
3.29879882 1.74249549 -0.00073532 0.00000000
1.32783670 2.19015586 0.00086225 0.00000000
1.69578609 0.42120862 0.00102624 0.00000000
0.19721990 0.68680847 -0.00270307 0.00000000
0.73153103 1.09260714 -0.00385816 0.00000000
1.39167692 0.37339432 0.00164953 0.00000000
0.26096281 2.11472190 -0.00254381 0.00000000
0.99102146 1.63673678 -0.00076346 0.00000000
0.50636974 1.52087088 0.00061880 0.00000000
0.11021819 2.03277865 0.00252666 0.00000000
4.75393090 1.62601894 -0.00374128 0.00000000
4.54872777 1.24231472 -0.00138504 0.00000000
3.41278486 1.61906463 0.00272649 0.00000000
4.57259467 0.72097549 -0.00172386 0.00000000
3.05208975 0.56054864 0.00232878 0.00000000
4.62571378 1.24317123 0.00056426 0.00000000
1.72386603 1.17504109 0.00160467 0.00000000
1.14407289 0.02692363 0.00104373 0.00000000
3.97939711 1.05284843 0.00028966 0.00000000
0.55090071 0.89554718 0.00344143 0.00000000
0.15366023 0.29975450 -0.00008635 0.00000000
3.19131364 0.88262391 -0.00047515 0.00000000
1.92399360 0.57365633 -0.00283630 0.00000000
3.97598805 1.43226968 0.00178470 0.00000000
3.02267001 1.26020040 -0.00227115 0.00000000
0.12042110 0.69730946 -0.00092883 0.00000000
4.80453814 0.52464563 0.00158048 0.00000000
2.23284454 0.48396089 0.00438273 0.00000000
0.14428058 1.32497608 0.00269370 0.00000000
0.05740775 1.36456725 -0.00011704 0.00000000
3.61847091 1.74983642 0.00035532 0.00000000
2.45601498 1.84343109 -0.00388038 0.00000000
1.56028645 2.26815583 0.00082519 0.00000000
1.19079977 1.81784103 -0.00290457 0.00000000
3.71683147 0.24983458 -0.00105082 0.00000000
4.28883636 2.27093364 0.00005869 0.00000000
2.76923226 0.55630314 0.00349549 0.00000000
3.68901652 0.49209427 -0.00007729 0.00000000
3.31229189 0.58546264 -0.00007187 0.00000000
4.28944884 0.88229126 0.00110906 0.00000000
0.31516397 1.52348196 -0.00289816 0.00000000
1.53466337 0.95672271 0.00074855 0.00000000
4.12355727 1.73938785 -0.00483396 0.00000000
4.41159698 0.75769114 -0.00182715 0.00000000
3.38799817 1.26035257 -0.00388480 0.00000000
0.60824413 2.27494283 0.00353780 0.00000000
4.51579013 0.77552815 -0.00114613 0.00000000
0.84336015 1.64338243 -0.00209390 0.00000000
3.07383684 1.70413990 0.00013398 0.00000000
2.77557922 0.88113328 0.00355116 0.00000000
1.65751742 0.55446458 -0.00299092 0.00000000
2.37693288 1.75014409 0.00058075 0.00000000
0.13685655 0.36926782 -0.00179770 0.00000000
2.10244160 1.04007114 0.00107022 0.00000000
0.35446239 0.80748889 0.00184038 0.00000000
3.45046482 0.20336886 0.00078805 0.00000000
3.55812361 1.64169437 -0.00151088 0.00000000
1.35216524 1.40378500 -0.00231736 0.00000000
1.99459791 0.25777464 0.00242745 0.00000000
3.53966570 2.21541536 0.00350423 0.00000000
1.48552507 0.49213403 0.00057847 0.00000000
1.91400911 2.26229441 0.00420437 0.00000000
4.49600872 0.75466764 0.00111174 0.00000000
3.25652337 1.97130753 0.00159841 0.00000000
1.09275150 0.57124566 0.00006901 0.00000000
2.20537390 0.28653029 0.00055780 0.00000000
1.50141019 1.62983516 -0.00141593 0.00000000
4.29760138 1.80448646 0.00296914 0.00000000
3.94758667 0.03608463 0.00119966 0.00000000
2.41770646 0.84401352 -0.00143885 0.00000000
1.31991837 0.37238525 -0.00313066 0.00000000
3.72170448 0.51448213 -0.00110749 0.00000000
0.33710836 1.02176920 -0.00169175 0.00000000
0.32397956 0.47167242 0.00049460 0.00000000
0.44171526 1.53425667 0.00051389 0.00000000
0.61038113 0.90508322 0.00089275 0.00000000
3.98884732 1.81205941 0.00221093 0.00000000
4.75660173 1.44868137 0.00176288 0.00000000
0.90333578 2.13033800 0.00339163 0.00000000
3.31190700 1.95540744 0.00692676 0.00000000
3.25613017 2.16517214 -0.00240540 0.00000000
0.94580818 1.35703518 -0.00338491 0.00000000
1.60087446 0.30206663 -0.00344969 0.00000000
3.36762916 0.13610732 -0.00156871 0.00000000
3.60801158 0.28876328 0.00098012 0.00000000
1.65613432 1.43952232 0.00184644 0.00000000
1.27220245 0.86280648 0.00232910 0.00000000
3.79180854 1.27424824 0.00596890 0.00000000
2.88185112 2.26211909 0.00251582 0.00000000
1.40168925 0.11803276 -0.00042162 0.00000000
2.39755757 0.12041274 -0.00145992 0.00000000
3.01932486 0.47944399 0.00194874 0.00000000
1.12916429 0.39064413 0.00334517 0.00000000
2.87388226 0.26528055 0.00034157 0.00000000
0.83856713 2.10576251 0.00079469 0.00000000
1.35571725 2.05177252 0.00430567 0.00000000
3.02700073 2.17989377 -0.00142153 0.00000000
3.16871936 1.21298045 -0.00015515 0.00000000
1.62376599 1.55149640 -0.00786510 0.00000000
3.69806620 1.00080363 0.00099068 0.00000000
2.20757724 1.34099465 0.00143479 0.00000000
0.15360701 0.61659081 0.00035292 0.00000000
0.41144486 1.27176613 -0.00231140 0.00000000
3.45212222 1.69418175 0.00144296 0.00000000
0.41207355 0.96374111 0.00184523 0.00000000
3.73317387 1.92868897 0.00212428 0.00000000
1.99468876 1.54646868 -0.00376475 0.00000000
2.16904727 0.73400612 0.00016783 0.00000000
4.18777068 0.11469817 -0.00244964 0.00000000
0.54203286 1.42713666 0.00433395 0.00000000
1.32450733 1.26948898 -0.00072424 0.00000000
1.34050423 2.21437841 0.00306985 0.00000000
1.56143966 0.48547667 -0.00071128 0.00000000
3.04214473 0.58263573 0.00142073 0.00000000
0.60884779 1.57729078 -0.00205146 0.00000000
2.56863796 1.59089763 -0.00031860 0.00000000
2.86788064 2.08205454 0.00019339 0.00000000
3.81405374 0.25390231 -0.00099320 0.00000000
0.28352427 1.55133848 -0.00361186 0.00000000
2.77979647 0.25830095 0.00118776 0.00000000
1.56191901 1.25816456 0.00036297 0.00000000
1.58033614 0.02605760 0.00460640 0.00000000
3.25754504 2.10176780 -0.00174924 0.00000000
1.08836468 0.01727431 -0.00401306 0.00000000
3.42243705 1.66344923 -0.00045138 0.00000000
3.20986019 0.84475523 -0.00291104 0.00000000
1.11881739 0.01359305 -0.00300164 0.00000000
2.45733704 0.25997993 0.00397124 0.00000000
2.88595754 2.28112179 0.00477389 0.00000000
1.26982452 0.78689953 0.00457797 0.00000000
2.39148150 1.65610025 0.00285727 0.00000000
0.03018906 1.98166731 -0.00051437 0.00000000
3.43798916 1.89861604 -0.00516424 0.00000000
0.83458792 2.18271960 -0.00122553 0.00000000
3.30622019 0.69410590 -0.00094665 0.00000000
4.07092409 0.01000464 0.00043703 0.00000000
1.49623583 1.81008333 0.00115615 0.00000000
0.12694322 1.07409353 0.00254142 0.00000000
3.44994740 2.26584195 0.00122112 0.00000000
2.11384057 2.23506823 0.00092144 0.00000000
4.72824570 1.69602048 -0.00226354 0.00000000
1.30676714 1.65620814 0.00098030 0.00000000
2.53073284 1.15892883 0.00285150 0.00000000
3.70907675 1.07397295 0.00266494 0.00000000
3.99070705 0.94628635 0.00139817 0.00000000
3.01997633 1.87631617 0.00069393 0.00000000
2.13529817 0.87306641 -0.00138155 0.00000000
0.15367656 2.03716891 0.00190552 0.00000000
1.29461734 0.77115790 -0.00420310 0.00000000
3.99175192 1.17612442 -0.00018901 0.00000000
1.11739293 1.50546828 0.00133940 0.00000000
0.55245646 0.52707032 -0.00012847 0.00000000
4.38894598 0.14293490 -0.00327565 0.00000000
4.77168513 1.03808032 0.00067740 0.00000000
1.85613578 1.26383013 -0.00138656 0.00000000
2.53605065 1.59865140 -0.00139458 0.00000000
4.13915590 1.55693292 -0.00435920 0.00000000
4.55325048 1.43774353 0.00002898 0.00000000
1.70612450 1.57478303 -0.00287197 0.00000000
0.81331771 0.35441233 -0.00453468 0.00000000
2.74010346 0.59233630 0.00036236 0.00000000
3.89350914 2.06757120 -0.00092021 0.00000000
4.37040242 0.15561381 -0.00185843 0.00000000
0.56738253 0.14470669 0.00380184 0.00000000
3.03987170 0.46269939 0.00448598 0.00000000
1.17951291 1.69626573 0.00559991 0.00000000
0.42614167 0.69820144 -0.00226962 0.00000000
4.04053184 0.84522785 0.00314226 0.00000000
3.47054729 1.95086253 0.00159159 0.00000000
4.37890875 1.69501869 -0.00004263 0.00000000
0.93868107 0.71395793 0.00356379 0.00000000
3.44060928 1.42721296 0.00009073 0.00000000
4.18146748 1.97910023 0.00176635 0.00000000
1.54668385 0.70183475 0.00160689 0.00000000
0.98301989 1.14468018 -0.00315365 0.00000000
2.33989641 0.86810584 0.00348908 0.00000000
2.69869294 0.32625972 -0.00071830 0.00000000
4.62628686 0.80889738 -0.00050514 0.00000000
4.30304895 2.24615766 0.00238635 0.00000000
0.84025940 1.90239556 0.00465253 0.00000000
0.61373333 1.78415484 -0.00418852 0.00000000
3.96100409 0.91654017 0.00392672 0.00000000
4.02629748 0.83103516 0.00066507 0.00000000
2.26174460 0.79091598 -0.00035139 0.00000000
4.64303693 0.82564667 -0.00028902 0.00000000
4.65140289 1.69405234 -0.00173823 0.00000000
0.76783296 0.28717055 -0.00018917 0.00000000
0.52736381 1.95305208 -0.00023052 0.00000000
1.02867603 1.68399187 -0.00094940 0.00000000
3.00384200 1.56843692 -0.00122589 0.00000000
0.73020018 0.92270946 0.00478554 0.00000000
1.52714816 1.04937971 0.00201971 0.00000000
1.51881509 1.71045327 0.00293049 0.00000000
2.42341419 0.16121852 -0.00167198 0.00000000
3.22578494 1.91062690 0.00135088 0.00000000
0.17901181 0.19452035 -0.00294486 0.00000000
1.46211584 1.90244800 0.00055010 0.00000000
2.49683537 2.21704602 -0.00117102 0.00000000
1.40895780 0.00257379 -0.00092795 0.00000000
2.49149016 1.78843983 0.00007380 0.00000000
1.36813821 2.02611437 -0.00016167 0.00000000
2.15219735 2.00941456 -0.00102887 0.00000000
1.06352909 2.23034416 0.00403030 0.00000000
4.47907033 0.39857179 0.00002504 0.00000000
0.18865608 0.31276928 -0.00119873 0.00000000
1.05818718 1.08851229 0.00159465 0.00000000
0.28166570 1.56197860 -0.00150626 0.00000000
3.10516760 1.53124851 -0.00076194 0.00000000
0.16634146 1.39365672 -0.00322987 0.00000000
3.45745185 0.49677131 0.00241844 0.00000000
2.27195289 2.27968932 0.00211086 0.00000000
0.97821006 1.61107555 0.00194379 0.00000000
2.89301338 0.74945690 -0.00453406 0.00000000
3.32559151 2.10739887 -0.00170771 0.00000000
3.75771028 0.71923765 -0.00228564 0.00000000
2.16974200 0.14006504 -0.00360236 0.00000000
2.04117671 0.33346888 -0.00332066 0.00000000
0.12309737 0.24937349 -0.00194203 0.00000000
3.14036931 1.22582606 -0.00287167 0.00000000
2.73073739 1.27055748 -0.00063691 0.00000000
4.50530572 0.41941665 -0.00046375 0.00000000
3.80597379 0.58086785 0.00104294 0.00000000
1.73764712 1.40240873 -0.00010918 0.00000000
4.20786803 1.63233146 -0.00003959 0.00000000
4.63249405 1.43236315 -0.00208127 0.00000000
4.63154399 1.85052685 -0.00024058 0.00000000
2.27447703 1.82781445 0.00036076 0.00000000
3.80325563 0.51703888 0.00007589 0.00000000
0.20383449 2.18067760 0.00172841 0.00000000
2.11615314 0.42807327 0.00064861 0.00000000
3.62861243 1.49881434 0.00023097 0.00000000
2.45822762 0.59424724 -0.00165683 0.00000000
3.71061329 2.04546283 -0.00420628 0.00000000
3.93866439 0.00551377 0.00061377 0.00000000
3.98659766 1.36691443 -0.00264612 0.00000000
1.25470296 0.15021458 0.00221308 0.00000000
1.68811900 0.43119647 0.00111739 0.00000000
4.37509117 1.14813975 -0.00046515 0.00000000
2.10746130 1.75554453 0.00166917 0.00000000
2.80324046 0.00891613 0.00363732 0.00000000
4.56283419 1.80894427 0.00029341 0.00000000
3.20070215 0.52769670 -0.00132731 0.00000000
0.97980311 1.37642016 0.00277689 0.00000000
1.19603568 1.56786225 0.00227471 0.00000000
3.20954226 1.39593593 0.00173303 0.00000000
4.71512450 0.30673299 0.00066754 0.00000000
2.38216144 1.56235989 -0.00216794 0.00000000
4.59229644 1.37050767 0.00066039 0.00000000
2.31634370 1.30660359 -0.00020987 0.00000000
1.10514144 1.18447798 -0.00130483 0.00000000
4.71864143 1.90470448 -0.00020484 0.00000000
1.11551528 1.23920895 0.00028515 0.00000000
2.87837326 1.66759969 -0.00002037 0.00000000
1.63533927 0.67650706 0.00090425 0.00000000
1.81117660 0.06391504 -0.00002567 0.00000000
1.07369084 0.22039018 -0.00361552 0.00000000
3.36238167 1.77976180 -0.00133136 0.00000000
0.58141233 1.11685134 0.00041790 0.00000000
4.38743742 0.77693303 0.00030588 0.00000000
0.22425566 0.01313923 0.00161670 0.00000000
3.06261344 2.26201093 0.00534325 0.00000000
3.78266298 1.07884292 0.00319911 0.00000000
1.20219716 1.08051123 -0.00142100 0.00000000
4.18655755 1.98577108 -0.00068261 0.00000000
2.23592198 2.04181436 0.00055892 0.00000000
3.32037166 1.38675430 0.00168205 0.00000000
4.48923429 1.75120089 -0.00218106 0.00000000
2.26257936 1.34482316 -0.00094739 0.00000000
1.00346569 0.63270120 0.00633737 0.00000000
2.57051080 0.87400417 0.00429322 0.00000000
2.98837757 0.94771256 0.00031905 0.00000000
0.06909259 0.98937673 0.00128430 0.00000000
1.46328963 1.56868038 -0.00009188 0.00000000
3.97215183 0.56438854 -0.00557338 0.00000000
3.02690081 2.00696010 -0.00034018 0.00000000
2.80975504 0.68626437 -0.00206580 0.00000000
1.55654001 2.04524698 -0.00307427 0.00000000
4.26048514 1.08443157 -0.00164081 0.00000000
4.09234754 1.05193227 -0.00192279 0.00000000
0.32518744 1.66127692 -0.00443341 0.00000000
4.04273746 2.23458614 -0.00026529 0.00000000
4.64490180 2.19844807 -0.00054107 0.00000000
4.62896157 1.14620839 0.00050508 0.00000000
0.98727658 1.23917236 0.00196200 0.00000000
3.91949127 0.11217751 0.00018948 0.00000000
3.37067055 1.18120115 -0.00026768 0.00000000
4.58232474 0.09661709 -0.00049689 0.00000000
2.64121119 0.79856297 -0.00332056 0.00000000
1.77021582 2.16220318 -0.00139755 0.00000000
4.28294028 2.26693241 0.00208843 0.00000000
3.42393296 1.46040338 -0.00132947 0.00000000
4.61964886 0.33774872 -0.00315150 0.00000000
2.44712884 0.18549514 -0.00404411 0.00000000
4.71654292 0.45829954 0.00075984 0.00000000
2.99862951 0.55690210 0.00288090 0.00000000
0.27369595 1.92704995 -0.00146409 0.00000000
0.02455390 1.55212758 0.00386619 0.00000000
3.33439080 0.18273992 0.00201487 0.00000000
2.50656609 1.20029482 0.00643881 0.00000000
0.45173050 1.89974477 0.00379796 0.00000000
0.75253659 1.84027856 -0.00081589 0.00000000
1.17074651 1.76791697 0.00183377 0.00000000
1.01436444 0.54353192 -0.00262067 0.00000000
2.30736466 2.01343018 -0.00048818 0.00000000
2.95398204 0.39232415 -0.00542415 0.00000000
2.72181273 0.62157418 0.00043415 0.00000000
4.14987769 1.13651069 -0.00176385 0.00000000
1.54834905 1.15814674 0.00529989 0.00000000
2.33870116 2.24700421 -0.00316011 0.00000000
