2.550614 1.745282 -0.000655 0.0
0.184529 1.829200 -0.001711 0.0
2.664405 1.384123 0.003619 0.0
0.449386 2.490860 0.001420 0.0
3.477992 0.326123 -0.001528 0.0
2.644415 1.211039 0.001273 0.0
3.065293 0.484445 -0.001926 0.0
4.289644 0.796428 0.002121 0.0
1.735887 2.201932 -0.000565 0.0
3.593830 0.123511 -0.001105 0.0
0.748644 2.144661 0.001381 0.0
2.745476 0.883770 -0.001966 0.0
3.605187 0.035727 0.002246 0.0
2.588208 0.227953 -0.000478 0.0
1.897916 1.875774 -0.001217 0.0
0.143111 0.105763 -0.000771 0.0
4.209069 0.388613 -0.000323 0.0
2.930988 0.332219 -0.001797 0.0
0.439045 2.482988 -0.004676 0.0
2.060413 0.467653 -0.001429 0.0
1.000589 0.210179 -0.001137 0.0
2.665924 2.103922 -0.000600 0.0
2.986837 1.623729 -0.002821 0.0
1.743130 2.116672 0.001243 0.0
1.640464 0.942671 0.002603 0.0
1.570148 0.030216 -0.002080 0.0
2.540429 0.731070 0.002961 0.0
0.004788 1.878941 -0.001226 0.0
1.432957 0.942774 0.001730 0.0
1.201546 1.775489 0.002083 0.0
1.768260 0.783086 -0.002903 0.0
2.188773 0.947002 -0.003296 0.0
2.360953 1.560537 0.002841 0.0
3.986086 0.049936 -0.000683 0.0
4.374836 1.153800 -0.002343 0.0
2.677348 0.239184 0.001143 0.0
4.506334 0.559460 0.000399 0.0
3.503765 1.026563 -0.001800 0.0
3.980008 0.047887 -0.000710 0.0
2.084289 1.336398 0.001713 0.0
3.503660 0.653261 -0.002384 0.0
4.406695 1.215531 -0.002700 0.0
4.031636 2.483485 -0.002118 0.0
3.442010 1.350504 -0.002121 0.0
1.204431 1.977970 -0.002343 0.0
4.094241 2.006786 -0.004053 0.0
2.967260 1.375617 -0.004681 0.0
3.539389 2.456857 0.003013 0.0
1.704883 2.029560 -0.000795 0.0
3.487406 2.158379 0.001971 0.0
0.900404 0.433414 0.001316 0.0
0.542095 0.372345 -0.003131 0.0
1.642650 1.085619 0.001411 0.0
4.210293 0.286433 0.001660 0.0
0.944489 0.098275 0.003104 0.0
0.723035 1.333010 0.002439 0.0
1.646672 2.016470 0.001659 0.0
2.595571 0.308677 -0.000406 0.0
2.908284 1.685023 -0.000985 0.0
2.339442 1.037244 -0.000777 0.0
0.553061 0.876229 -0.002972 0.0
1.202836 1.377767 0.000339 0.0
2.581349 0.660166 -0.001410 0.0
2.388076 0.372483 -0.002015 0.0
0.780228 2.254061 0.001045 0.0
1.173170 1.121742 -0.004581 0.0
1.660891 1.196898 0.001279 0.0
1.339331 0.769376 0.003505 0.0
3.955884 0.932347 0.001311 0.0
1.091133 0.524954 -0.002878 0.0
3.371977 0.787853 -0.001995 0.0
3.922848 1.504477 -0.001844 0.0
4.160146 1.600460 0.002436 0.0
3.317043 0.857141 0.001001 0.0
0.863814 2.156934 -0.001378 0.0
0.589617 1.693275 0.003065 0.0
2.519635 2.401535 -0.001289 0.0
4.336584 1.768352 0.003235 0.0
4.041735 1.052965 0.000239 0.0
2.688982 0.891375 0.000285 0.0
3.327714 0.875822 0.003236 0.0
0.321147 1.831720 0.002797 0.0
0.854655 1.017675 0.003134 0.0
2.172274 0.475042 -0.001291 0.0
3.861103 0.070633 -0.004408 0.0
3.736990 1.975384 0.001437 0.0
0.371389 0.241110 -0.000176 0.0
2.537089 1.618138 -0.004289 0.0
4.068499 2.229657 0.001429 0.0
3.765646 1.961615 -0.002395 0.0
0.787711 0.637265 0.000310 0.0
0.005023 0.327865 0.002935 0.0
0.223417 2.459036 -0.001965 0.0
2.296998 2.002392 0.004960 0.0
0.289809 1.147302 -0.002194 0.0
3.206959 1.168150 -0.001238 0.0
2.112718 0.137459 -0.000046 0.0
4.428513 2.091984 -0.001755 0.0
0.788542 1.183525 -0.001649 0.0
4.350207 0.462969 -0.002336 0.0
1.334473 0.138403 -0.001425 0.0
4.278442 1.239722 -0.002172 0.0
3.342847 2.160425 -0.003342 0.0
2.836323 2.337302 -0.002320 0.0
4.042948 1.125051 -0.000219 0.0
1.041448 1.740575 -0.003249 0.0
2.165435 2.103964 -0.000544 0.0
2.204015 0.158720 0.001028 0.0
0.641186 2.468826 0.001694 0.0
0.859509 0.108972 0.000110 0.0
2.783565 2.048509 -0.004421 0.0
3.400798 1.445855 -0.000504 0.0
0.436795 2.405650 0.002110 0.0
1.674521 0.911576 -0.004129 0.0
3.324045 2.379962 -0.003109 0.0
4.457106 0.877278 -0.001215 0.0
3.325254 1.985190 0.000072 0.0
2.914025 1.022305 -0.002715 0.0
2.881233 1.364556 -0.001705 0.0
2.336430 0.241284 -0.003091 0.0
1.699469 1.854103 0.000961 0.0
1.579048 0.857631 -0.004781 0.0
2.972533 2.474214 -0.000527 0.0
0.826119 0.137319 -0.000732 0.0
3.132520 0.794324 0.001679 0.0
2.845269 0.558196 0.003191 0.0
1.007607 0.571878 -0.006909 0.0
2.418769 0.174011 -0.000059 0.0
2.974233 1.068183 0.003133 0.0
2.631136 1.901198 0.002131 0.0
0.933088 2.166600 -0.006019 0.0
2.930448 0.885578 0.001559 0.0
4.002138 1.586306 -0.003932 0.0
2.488329 0.490304 -0.000558 0.0
2.739372 0.642590 -0.000311 0.0
4.153706 0.375257 -0.000661 0.0
3.238819 1.824591 0.002056 0.0
0.811090 0.921484 -0.003692 0.0
4.250038 0.825883 0.000429 0.0
0.372654 0.723104 0.001047 0.0
2.709917 0.280831 -0.000227 0.0
3.637878 2.292482 0.001103 0.0
3.459599 1.985757 0.005802 0.0
3.515143 1.288148 0.002075 0.0
2.383844 1.329747 -0.002190 0.0
3.890154 1.475032 -0.000094 0.0
2.776738 1.197020 0.000334 0.0
2.615906 1.951278 -0.001755 0.0
1.218229 1.321670 -0.000712 0.0
3.198981 0.827634 -0.002176 0.0
0.854594 0.203950 -0.002519 0.0
3.054260 1.158248 0.000199 0.0
3.018726 1.394715 0.003512 0.0
1.128116 0.770913 0.002113 0.0
2.062788 1.054714 -0.000577 0.0
1.470582 1.113717 -0.002194 0.0
4.291057 0.651365 -0.000460 0.0
0.688058 1.794517 -0.005077 0.0
2.214514 1.143166 -0.000577 0.0
3.410474 1.869569 -0.002081 0.0
2.228482 0.733138 0.001402 0.0
2.069077 0.458002 0.004879 0.0
0.528627 0.420654 -0.002660 0.0
2.207722 1.993083 0.002112 0.0
1.330872 2.275221 -0.003624 0.0
3.951385 2.205186 0.003920 0.0
1.745056 0.851543 0.000850 0.0
1.958085 2.206453 0.002956 0.0
3.717565 1.144560 0.002810 0.0
0.826048 0.627924 -0.003583 0.0
1.005971 0.775819 -0.002012 0.0
3.908275 0.384788 0.007954 0.0
3.042318 1.974187 -0.000286 0.0
3.423577 0.168102 0.002832 0.0
0.240690 1.121189 -0.000293 0.0
4.000744 0.705982 -0.003214 0.0
4.199164 0.277422 -0.000413 0.0
1.737389 2.413112 -0.000256 0.0
0.671200 2.228513 -0.002672 0.0
3.507766 1.852744 -0.002415 0.0
0.561541 2.145644 -0.002119 0.0
0.502161 2.040721 -0.003543 0.0
2.903144 0.396684 0.000747 0.0
1.266841 0.908585 0.002792 0.0
3.190262 1.812596 -0.002155 0.0
3.743908 0.107952 -0.000465 0.0
0.282907 1.528387 -0.001671 0.0
2.125303 0.728792 0.000741 0.0
3.562692 1.814478 0.005611 0.0
1.835404 1.951082 0.002948 0.0
3.622292 1.484431 -0.002583 0.0
0.265476 1.891596 -0.001668 0.0
2.270960 0.492749 0.003933 0.0
1.729112 0.155297 -0.002306 0.0
0.716345 0.241282 0.002492 0.0
1.665270 0.976301 -0.004945 0.0
2.285042 1.486773 0.000325 0.0
0.324628 1.036471 -0.000100 0.0
0.765403 2.458531 0.000387 0.0
0.305742 0.688515 -0.002482 0.0
4.405168 0.867139 0.001294 0.0
2.067085 0.798310 -0.000527 0.0
0.273260 0.948520 -0.006190 0.0
0.051153 1.585478 -0.005649 0.0
0.997375 1.980629 0.000543 0.0
3.789624 0.901862 -0.000943 0.0
1.602291 0.508911 -0.001482 0.0
0.999645 2.308876 -0.000395 0.0
0.458385 0.805227 0.002888 0.0
2.136872 1.367332 0.001451 0.0
0.061106 1.316051 0.003550 0.0
1.648699 0.972439 -0.004154 0.0
0.744787 0.570156 -0.001975 0.0
2.881063 1.841883 -0.000028 0.0
1.896361 0.691654 -0.003143 0.0
3.159114 0.881968 -0.002180 0.0
1.868040 1.778418 0.002139 0.0
2.223569 0.681916 -0.000903 0.0
3.678386 2.247048 0.002221 0.0
1.601818 2.152174 0.000847 0.0
0.015108 0.163630 0.003049 0.0
2.105191 2.196489 -0.000443 0.0
2.895027 0.565102 -0.001885 0.0
1.080083 0.690624 -0.001289 0.0
1.005598 0.884282 -0.000187 0.0
1.542435 0.577505 -0.000656 0.0
4.135186 2.275835 -0.000456 0.0
3.738870 1.439872 0.001563 0.0
2.679660 1.219769 -0.000485 0.0
1.005189 0.755358 -0.001770 0.0
0.854347 1.554199 -0.000115 0.0
4.114572 1.865222 0.000297 0.0
0.943083 1.955906 -0.002882 0.0
0.418728 1.659213 0.005396 0.0
2.766005 1.742994 0.001862 0.0
0.709941 0.531441 -0.001060 0.0
1.143635 1.994851 -0.000201 0.0
0.821071 1.405966 0.002795 0.0
0.420693 0.789244 -0.000534 0.0
1.492030 1.389392 -0.000193 0.0
2.171906 1.522670 0.002905 0.0
3.546710 2.103303 -0.001702 0.0
4.451304 0.127400 0.000024 0.0
4.085012 2.020021 -0.000966 0.0
4.276223 2.443604 -0.002587 0.0
2.934900 0.765427 -0.002232 0.0
0.997064 0.533235 0.000886 0.0
1.618611 1.339935 0.000273 0.0
1.575036 0.644682 0.000077 0.0
0.547861 0.672242 -0.000777 0.0
3.685719 1.405205 0.001311 0.0
2.960994 1.292513 -0.000159 0.0
0.836766 1.057150 0.003257 0.0
2.531951 1.405700 -0.000007 0.0
3.550162 0.462522 -0.000372 0.0
3.385054 1.772823 0.004425 0.0
4.230068 1.852129 0.003331 0.0
1.964959 1.057202 0.002467 0.0
0.046456 1.605081 -0.000550 0.0
4.157129 1.005391 0.001105 0.0
4.161790 0.827788 -0.006198 0.0
2.126868 1.449581 -0.000185 0.0
0.843508 1.319671 0.000339 0.0
2.434528 1.828831 0.000122 0.0
0.802365 1.965914 -0.000291 0.0
4.164392 0.065066 -0.000180 0.0
4.383108 1.400602 0.000561 0.0
0.542963 0.220905 -0.000672 0.0
0.487133 0.299461 -0.003648 0.0
3.276292 2.045780 -0.001515 0.0
2.995599 2.412000 0.004455 0.0
3.642107 0.100672 0.003195 0.0
0.476718 1.443743 -0.003149 0.0
1.531716 2.481446 -0.004311 0.0
2.219952 0.459358 0.000738 0.0
1.860207 1.493942 0.000311 0.0
1.480558 0.190903 -0.001337 0.0
0.664045 1.086458 0.001496 0.0
3.670746 2.275573 0.001163 0.0
0.965226 0.428339 0.000476 0.0
0.711215 1.028633 0.002627 0.0
4.078528 1.878299 -0.003617 0.0
2.550752 1.197226 -0.001932 0.0
1.485900 1.398836 -0.000307 0.0
4.470648 0.254209 0.000711 0.0
3.087090 1.422374 0.001678 0.0
3.712991 1.616184 -0.002876 0.0
4.257095 0.312613 0.000134 0.0
4.021375 1.472539 0.003263 0.0
2.455923 1.375663 0.000279 0.0
3.157287 1.332890 0.005557 0.0
0.694115 1.346251 0.001462 0.0
1.075010 0.792477 -0.004525 0.0
1.895733 1.723064 0.001733 0.0
2.050942 2.247482 -0.000352 0.0
1.069874 1.192946 0.002321 0.0
2.925653 0.602570 -0.004085 0.0
4.053885 0.548986 0.001859 0.0
2.115475 2.392568 -0.000375 0.0
2.830451 1.732969 0.003132 0.0
3.857066 2.159649 -0.002097 0.0
1.556460 0.627263 -0.000277 0.0
4.189532 1.006865 0.001463 0.0
3.885149 0.712073 0.001889 0.0
1.009415 2.199297 0.004579 0.0
1.182377 1.349584 0.000356 0.0
2.839668 2.126385 0.003087 0.0
4.054206 1.759247 -0.001547 0.0
4.480537 1.632060 -0.006554 0.0
0.811506 0.784003 -0.001527 0.0
1.895541 0.667871 -0.003902 0.0
3.395998 0.453050 0.003821 0.0
3.642276 0.638895 -0.002032 0.0
4.394470 0.812424 -0.004251 0.0
2.995884 0.656953 0.000612 0.0
1.378861 0.783667 0.001968 0.0
0.160898 2.009501 0.004164 0.0
3.647832 2.177607 -0.001302 0.0
0.131259 0.498028 -0.002989 0.0
4.088186 2.122355 0.001612 0.0
2.807205 2.250870 -0.002105 0.0
1.236055 0.391060 0.000344 0.0
3.788899 0.058764 -0.002011 0.0
1.622307 1.657066 -0.002777 0.0
1.139329 0.187583 -0.000318 0.0
4.401234 1.206940 -0.000196 0.0
1.884796 1.057176 -0.003786 0.0
1.253015 2.009788 0.001768 0.0
3.457438 0.938649 0.003234 0.0
3.414168 2.478196 0.003290 0.0
3.504925 0.025815 -0.000029 0.0
1.368062 1.259889 -0.002783 0.0
2.816498 2.066206 0.001590 0.0
1.827981 0.389192 -0.003891 0.0
0.120471 1.980957 -0.000385 0.0
1.634240 2.336706 -0.000778 0.0
2.740995 1.018726 -0.000953 0.0
2.049673 0.493301 0.001124 0.0
1.142686 1.958598 -0.000450 0.0
4.374918 0.896131 -0.001351 0.0
1.125542 1.624496 -0.002198 0.0
1.841255 0.518146 0.000495 0.0
3.297190 0.630664 0.003805 0.0
0.093244 0.397624 0.002608 0.0
1.001120 1.985174 -0.004090 0.0
3.718600 0.589572 0.000308 0.0
2.260445 2.193400 -0.001229 0.0
1.718289 1.160464 -0.003504 0.0
0.651750 1.751964 0.000179 0.0
3.759967 0.373675 -0.000477 0.0
4.425741 1.486302 0.003160 0.0
2.195763 1.546190 0.003036 0.0
3.814571 1.665274 0.002400 0.0
2.105332 1.816186 -0.000695 0.0
1.947869 2.021145 -0.001734 0.0
3.633599 1.548340 -0.005045 0.0
2.211743 0.716142 0.003254 0.0
4.074198 1.314401 0.002374 0.0
0.771685 0.110878 -0.003859 0.0
1.317336 2.234218 -0.001041 0.0
2.217317 1.539313 -0.001173 0.0
2.667249 0.473061 -0.000031 0.0
1.239327 1.101339 -0.001749 0.0
2.078214 0.242959 -0.001727 0.0
2.474846 1.637814 0.000494 0.0
2.472467 0.554368 -0.001538 0.0
4.009385 0.734952 -0.000447 0.0
3.660577 0.289869 0.002404 0.0
2.261098 0.065575 -0.003219 0.0
4.047411 0.861239 -0.001256 0.0
2.188434 2.215310 -0.001714 0.0
2.186070 0.922588 -0.000618 0.0
4.265998 2.086503 0.000209 0.0
3.898048 0.051080 0.000450 0.0
1.799085 2.160802 -0.000337 0.0
0.357840 2.494016 -0.000426 0.0
0.452157 1.737853 -0.001562 0.0
0.513160 1.863864 0.002274 0.0
4.386313 0.135939 0.001564 0.0
2.148328 2.407071 0.001880 0.0
0.733856 1.799421 0.005374 0.0
3.350510 1.418409 0.001968 0.0
0.269939 2.048248 0.003152 0.0
2.529165 0.933955 -0.000562 0.0
4.056714 1.191699 -0.002217 0.0
4.343695 2.199002 -0.000267 0.0
4.036615 1.191449 0.000840 0.0
3.847164 2.063659 0.006830 0.0
2.312386 1.339620 -0.001909 0.0
4.030926 0.577943 0.002125 0.0
4.044531 1.009249 -0.001538 0.0
3.374658 1.908316 -0.002901 0.0
2.174451 1.259496 -0.000373 0.0
4.218083 2.074051 0.001574 0.0
4.337206 0.462153 -0.001192 0.0
4.026988 2.265007 -0.001082 0.0
1.227562 1.639265 0.001289 0.0
2.836535 1.393419 -0.001841 0.0
0.188100 0.884758 0.002439 0.0
2.410741 2.235071 0.000930 0.0
4.113976 1.943644 0.005080 0.0
4.109343 1.140828 -0.002206 0.0
3.058243 0.864074 -0.000508 0.0
3.710232 1.118689 0.003529 0.0
1.961533 0.624368 0.002412 0.0
2.521795 0.802650 0.001931 0.0
1.069689 1.158463 -0.001657 0.0
2.262649 0.307475 0.000620 0.0
4.513890 0.408546 -0.004238 0.0
2.952416 0.039599 0.000106 0.0
3.033978 0.456215 0.006174 0.0
4.477383 2.254995 -0.000137 0.0
1.611671 2.169108 -0.000371 0.0
2.012919 1.888298 -0.004069 0.0
4.313254 2.250666 -0.004040 0.0
2.536347 1.784817 0.002354 0.0
3.727919 0.096171 0.001280 0.0
1.932543 0.416385 0.000719 0.0
0.972935 0.904811 0.001861 0.0
1.966659 1.023122 0.001511 0.0
3.705468 1.247927 0.001312 0.0
1.678336 0.471445 0.000288 0.0
0.728470 1.756751 -0.001900 0.0
3.701460 0.137895 -0.001250 0.0
3.324733 1.885236 0.002286 0.0
1.966447 0.946324 -0.000537 0.0
0.936167 2.239498 -0.006073 0.0
4.374187 1.546873 0.000582 0.0
1.336837 2.401463 -0.001770 0.0
0.578977 1.698600 0.001565 0.0
3.465817 1.516300 0.002159 0.0
3.646451 0.150015 -0.001017 0.0
2.165254 0.216628 -0.000108 0.0
2.998483 1.855642 0.001297 0.0
2.477699 0.735897 -0.002762 0.0
2.367176 1.386567 0.001455 0.0
0.669284 1.202566 -0.003793 0.0
2.723415 0.185979 -0.004310 0.0
4.071954 2.003897 -0.003722 0.0
3.993558 2.283409 -0.000110 0.0
0.984695 2.190841 -0.001340 0.0
3.346682 2.272997 -0.001708 0.0
0.004098 1.317733 -0.000887 0.0
1.438919 1.675359 -0.000244 0.0
2.430854 1.728389 0.002846 0.0
2.433190 0.118407 0.000892 0.0
2.935531 1.182558 -0.000958 0.0
2.704716 0.545064 0.002516 0.0
3.048797 1.824392 0.003219 0.0
2.640225 1.488824 -0.000496 0.0
2.289657 0.540426 -0.000411 0.0
0.398602 1.142771 -0.003894 0.0
0.120392 0.841998 -0.003753 0.0
3.545718 1.779529 -0.001637 0.0
3.074382 0.721897 -0.000382 0.0
0.753364 0.587205 -0.004838 0.0
2.504835 2.155026 -0.001010 0.0
4.473006 0.139496 0.002467 0.0
1.077879 1.981907 0.002172 0.0
4.139029 0.654363 0.000616 0.0
0.204643 1.146934 0.001683 0.0
1.410192 0.371406 0.004891 0.0
0.890437 1.309894 -0.003782 0.0
3.835752 1.517938 0.003291 0.0
4.424743 1.840807 0.001340 0.0
3.470704 2.081227 -0.000530 0.0
0.126080 0.341031 0.003243 0.0
0.916132 0.627585 -0.003144 0.0
4.264460 1.729314 -0.002185 0.0
2.420903 1.220581 0.004025 0.0
4.341545 2.414842 -0.000578 0.0
1.378443 0.083654 -0.002379 0.0
1.481185 1.182974 0.002806 0.0
2.179865 1.364184 0.000827 0.0
4.196891 0.645691 -0.002123 0.0
3.058933 2.183256 0.001622 0.0
2.122398 0.750911 0.002920 0.0
4.367533 1.036732 -0.000078 0.0
0.992985 0.487789 0.001258 0.0
4.498483 1.723481 0.000213 0.0
2.237940 2.146066 -0.001700 0.0
3.945669 0.012960 0.001297 0.0
0.260552 1.791664 -0.000996 0.0
4.149540 1.172199 0.001767 0.0
1.273449 0.706595 0.001936 0.0
2.571953 0.006765 -0.001194 0.0
0.432791 1.353080 0.000363 0.0
1.909176 1.847816 -0.000559 0.0
3.188311 0.366142 -0.001414 0.0
0.237304 0.798946 -0.001278 0.0
2.522912 0.778506 0.001793 0.0
2.468432 0.731454 0.000992 0.0
2.573105 0.799472 0.002592 0.0
3.501190 1.877576 -0.003418 0.0
0.338909 0.325602 -0.002466 0.0
3.624508 1.615101 -0.000349 0.0
0.368391 0.566325 0.002519 0.0
0.581193 0.877330 -0.005298 0.0
0.339367 2.256676 0.008868 0.0
4.255639 1.983181 0.000735 0.0
3.273144 0.611283 0.001120 0.0
0.248715 2.199576 0.003025 0.0
2.673075 1.421464 -0.002713 0.0
4.306183 1.131637 0.000927 0.0
2.462204 0.421499 -0.001996 0.0
2.030772 1.714783 0.000623 0.0
2.230937 2.417773 0.000617 0.0
3.485310 1.605085 0.001167 0.0
3.825006 1.619445 -0.001662 0.0
0.467792 0.594530 -0.000982 0.0
0.376978 0.133821 0.000767 0.0
0.581544 0.138268 -0.000237 0.0
0.668245 0.966194 0.003581 0.0
1.416540 0.857734 -0.001112 0.0
3.253191 1.674458 0.003535 0.0
4.059857 1.176159 -0.001117 0.0
2.618472 0.509474 -0.000532 0.0
3.590325 1.685994 -0.000306 0.0
0.362413 0.728279 -0.000504 0.0
0.688439 1.209328 0.001241 0.0
0.743477 0.466392 0.003514 0.0
0.332038 0.609051 -0.002349 0.0
3.325883 1.459152 -0.000633 0.0
0.487717 0.986124 -0.004957 0.0
1.696542 1.183047 0.001465 0.0
3.723421 0.956724 -0.007190 0.0
0.062176 1.184959 0.002953 0.0
1.398836 1.920499 0.000218 0.0
4.332211 1.143596 0.000148 0.0
1.014529 2.331799 -0.000962 0.0
0.531872 2.445610 -0.002982 0.0
1.784125 1.978737 -0.004487 0.0
2.152914 2.471815 -0.001748 0.0
2.143670 2.320201 -0.000522 0.0
3.714152 0.373559 0.002260 0.0
2.539589 1.102240 -0.003037 0.0
2.346976 0.280913 0.000010 0.0
0.967049 1.725669 -0.002368 0.0
0.150924 1.825032 0.002898 0.0
1.489197 1.296999 0.004416 0.0
0.001454 1.059966 0.001971 0.0
1.946005 1.900090 -0.001182 0.0
1.411588 0.261121 0.001642 0.0
1.870007 2.126662 0.003556 0.0
0.407872 0.764198 -0.000787 0.0
4.045566 2.484434 0.000161 0.0
0.508218 0.877665 -0.005144 0.0
4.008397 1.303113 0.002208 0.0
3.017577 1.308083 -0.003394 0.0
0.133282 2.013105 0.001712 0.0
1.255569 0.526709 -0.000241 0.0
0.594371 1.553180 0.002901 0.0
4.459330 0.713833 0.003476 0.0
3.595800 1.233746 0.002972 0.0
3.484945 0.029103 0.000098 0.0
0.806583 2.301347 -0.000660 0.0
3.126917 1.228522 0.000598 0.0
0.345839 2.331084 -0.000293 0.0
3.687969 1.200255 -0.003502 0.0
3.793619 1.831789 -0.000383 0.0
0.901355 0.336066 0.003409 0.0
0.462778 1.413967 -0.002025 0.0
1.106017 2.234960 -0.004355 0.0
2.490840 0.142100 0.001188 0.0
0.749767 0.185610 -0.000114 0.0
0.833479 1.964570 0.001957 0.0
0.043989 2.083712 0.004097 0.0
3.659154 0.602808 -0.000279 0.0
1.078483 0.656817 0.000622 0.0
4.403576 0.708796 -0.001137 0.0
4.483562 1.118614 -0.005938 0.0
4.039335 2.333287 -0.001372 0.0
1.151214 0.049338 -0.001781 0.0
3.827925 1.872976 0.001139 0.0
3.880834 1.943912 -0.001988 0.0
1.201595 1.682208 0.002404 0.0
1.913820 1.757582 0.000311 0.0
2.495417 1.982456 -0.002042 0.0
1.451916 0.905862 -0.001114 0.0
0.582405 1.256040 -0.002547 0.0
0.808496 1.503019 -0.001211 0.0
4.058157 1.030930 0.000451 0.0
1.412008 1.745696 0.003742 0.0
2.386683 0.995066 0.001878 0.0
2.126273 0.885480 -0.002599 0.0
0.853221 2.186263 -0.000632 0.0
2.586301 1.412272 0.000984 0.0
3.075027 2.256999 0.000547 0.0
2.336676 0.547802 0.001683 0.0
0.044574 1.963989 0.003276 0.0
4.282250 2.484529 0.000678 0.0
0.599123 0.708858 0.004221 0.0
1.655396 2.276546 0.000175 0.0
1.836211 1.146944 0.006233 0.0
0.867220 0.708944 0.005298 0.0
1.752773 2.373060 0.001755 0.0
3.736601 0.880111 0.003253 0.0
2.572568 0.650931 -0.003208 0.0
2.954741 2.460339 0.001241 0.0
2.029795 2.355214 -0.001239 0.0
2.162689 1.871712 0.000713 0.0
3.797670 1.032691 0.001213 0.0
2.909794 1.096174 0.000080 0.0
3.369838 1.906968 0.002589 0.0
0.276886 0.704835 0.000638 0.0
4.296579 1.473869 0.002100 0.0
2.459126 2.437601 0.002022 0.0
3.388862 2.011033 -0.001362 0.0
4.436133 1.483090 0.002628 0.0
1.437675 1.090682 -0.000949 0.0
4.315839 0.027027 0.003246 0.0
2.999488 0.762061 0.002630 0.0
2.008808 2.398021 -0.001813 0.0
4.331064 1.027296 -0.002610 0.0
0.325670 1.631188 -0.001606 0.0
0.512336 1.708139 -0.000703 0.0
2.818866 0.518679 -0.001946 0.0
2.902857 0.802905 -0.004550 0.0
2.040626 0.672171 -0.003512 0.0
3.721791 1.310641 -0.001306 0.0
4.155450 0.556421 -0.002715 0.0
3.755546 2.459921 -0.003461 0.0
4.210744 1.572756 0.000608 0.0
1.612993 1.973040 0.002082 0.0
0.006943 2.420003 -0.000978 0.0
0.385249 0.118957 -0.000155 0.0
1.132432 0.607486 0.003224 0.0
4.218745 0.798182 -0.003085 0.0
2.133692 1.480103 0.004014 0.0
0.551133 1.634416 0.002285 0.0
0.315318 0.667665 -0.002531 0.0
3.425571 2.318758 0.000847 0.0
2.949018 2.325834 0.001556 0.0
3.199384 2.196708 -0.002592 0.0
1.726359 2.173693 0.002377 0.0
3.740258 1.921189 -0.000376 0.0
2.944373 0.511079 0.000191 0.0
3.616431 0.452504 -0.000121 0.0
3.720070 1.507952 -0.000593 0.0
3.033919 0.528698 0.001661 0.0
2.509090 2.041540 -0.001312 0.0
0.526511 1.023674 0.004646 0.0
3.056304 2.011776 0.001704 0.0
4.276368 1.009153 -0.005062 0.0
4.219465 0.254644 -0.004982 0.0
2.896246 1.529841 -0.003945 0.0
0.218369 1.151907 -0.002145 0.0
0.531004 1.011475 0.000633 0.0
2.638496 1.148357 0.001038 0.0
1.608429 1.087894 -0.004512 0.0
3.463322 0.646047 0.000989 0.0
2.858243 1.668357 0.002547 0.0
1.368153 1.028497 -0.000578 0.0
2.360901 1.591428 0.006024 0.0
2.861306 1.834029 0.001238 0.0
1.171586 0.435693 0.000506 0.0
2.616148 1.113854 -0.000454 0.0
2.862834 2.421283 -0.000748 0.0
0.069708 0.876401 0.000600 0.0
2.408581 1.753855 -0.004313 0.0
0.176027 1.962362 -0.003674 0.0
3.336572 1.385147 0.002359 0.0
1.854085 0.086256 0.001680 0.0
0.578311 0.110188 0.000397 0.0
3.564767 1.443927 0.001393 0.0
0.548086 1.303446 0.004740 0.0
0.795237 1.754791 -0.001734 0.0
3.760935 1.541257 -0.000241 0.0
2.319128 2.273346 0.001319 0.0
1.671340 0.963119 -0.001976 0.0
4.040067 1.655068 0.001117 0.0
0.422998 1.701575 0.000007 0.0
0.247408 1.524492 0.003359 0.0
0.586003 1.041607 -0.001401 0.0
0.378742 0.524098 0.000959 0.0
0.916693 0.309592 -0.000377 0.0
0.350464 0.557006 0.003324 0.0
3.421671 2.008188 -0.004382 0.0
1.928958 1.158637 0.002780 0.0
1.378654 2.395506 0.000229 0.0
3.978786 1.629765 -0.002545 0.0
4.460839 0.759387 0.003384 0.0
1.011889 2.284922 0.002547 0.0
1.818606 2.356943 0.006730 0.0
0.746367 1.920508 0.000028 0.0
1.323476 1.101034 -0.001229 0.0
1.414090 0.205658 -0.001234 0.0
3.963401 0.590518 -0.005455 0.0
1.601809 0.121694 -0.000597 0.0
3.125803 0.455761 0.000415 0.0
0.515890 1.392531 -0.001995 0.0
0.677956 1.512339 -0.000402 0.0
3.301737 1.188980 -0.000043 0.0
3.917642 1.702118 -0.003351 0.0
0.335361 2.083004 -0.000331 0.0
3.223732 1.155672 -0.001340 0.0
1.018588 2.013269 0.000293 0.0
2.363593 0.993435 0.005298 0.0
1.770183 2.458421 -0.003881 0.0
2.588541 2.337726 -0.005814 0.0
1.467305 2.282883 0.004925 0.0
0.619578 2.477679 0.004368 0.0
3.664111 2.124205 0.002528 0.0
2.772803 0.614460 -0.003361 0.0
4.122353 0.416058 0.008216 0.0
2.546359 2.148117 -0.000618 0.0
4.467547 1.014424 0.001431 0.0
2.545208 0.339490 -0.001770 0.0
3.383130 1.761885 0.002463 0.0
3.210246 1.742897 0.000939 0.0
3.243816 2.463217 0.002308 0.0
0.952230 1.578770 -0.003133 0.0
0.535672 0.085949 0.001696 0.0
2.361702 1.042573 -0.003560 0.0
2.591842 2.092334 -0.001320 0.0
2.478944 1.803178 -0.000099 0.0
4.405107 1.882778 0.002155 0.0
0.182412 2.271651 -0.000457 0.0
0.305660 0.457528 -0.000221 0.0
3.744365 1.544809 0.000957 0.0
1.079609 2.262155 -0.005888 0.0
3.030364 2.431041 0.001424 0.0
1.820805 1.236597 -0.000789 0.0
2.361155 1.004571 0.002043 0.0
0.400911 0.713781 0.000352 0.0
3.279906 2.130701 0.003282 0.0
2.977143 0.338018 -0.006228 0.0
1.465661 0.572808 -0.003249 0.0
4.448504 0.501231 -0.000773 0.0
0.347667 1.618229 -0.001466 0.0
2.882861 2.374697 0.002881 0.0
4.449772 0.417376 0.004396 0.0
4.167839 0.736213 0.003337 0.0
3.550828 2.040669 -0.006557 0.0
1.809687 0.649369 -0.000714 0.0
1.617817 0.319443 0.001468 0.0
2.082305 0.173993 -0.001943 0.0
1.545536 0.980138 0.000330 0.0
2.950157 1.112048 -0.002443 0.0
1.805149 1.325100 -0.001770 0.0
0.272503 1.101624 -0.001272 0.0
1.028305 0.613445 0.000751 0.0
3.007696 0.939283 0.001239 0.0
2.044006 1.306194 0.000329 0.0
4.319960 0.561285 0.001300 0.0
3.185604 0.918439 -0.006442 0.0
2.584833 0.704008 -0.001425 0.0
3.817516 0.284819 0.005677 0.0
0.315910 0.554631 -0.002155 0.0
1.241796 0.581356 -0.002797 0.0
3.517898 1.004985 0.000151 0.0
3.073704 1.087749 0.004567 0.0
0.907046 0.131434 0.003261 0.0
2.446692 1.890055 -0.000796 0.0
2.379706 0.640676 -0.000269 0.0
3.685209 2.460005 -0.000235 0.0
2.245956 0.432296 0.000370 0.0
2.212800 1.243331 0.003516 0.0
1.651231 0.009803 0.004256 0.0
3.167266 1.096548 0.004387 0.0
1.607222 1.709697 -0.000284 0.0
0.801048 1.604309 -0.005641 0.0
3.504553 1.682926 -0.001318 0.0
0.194785 1.425613 0.002377 0.0
0.261043 1.204412 -0.001029 0.0
3.503473 2.435210 -0.000650 0.0
2.311770 0.376125 -0.000556 0.0
3.769131 0.447181 -0.001975 0.0
2.646008 1.208019 -0.002543 0.0
0.950179 1.353589 0.000282 0.0
4.499554 2.454588 -0.003022 0.0
1.148535 2.163291 0.002057 0.0
2.078220 0.994933 0.001048 0.0
3.095250 0.660574 0.003140 0.0
2.220525 1.081439 -0.002132 0.0
1.574850 0.436825 0.002201 0.0
1.043324 2.414394 -0.000856 0.0
3.626192 0.434748 -0.001161 0.0
4.282767 0.232512 -0.003777 0.0
2.539091 0.663476 -0.003077 0.0
3.381656 2.182409 0.000951 0.0
2.239558 0.902346 -0.003390 0.0
2.949318 0.110604 0.000129 0.0
3.984578 1.544254 -0.000866 0.0
0.141283 1.607364 -0.004254 0.0
2.910154 1.969206 0.001816 0.0
1.868188 2.228491 -0.000579 0.0
4.335888 0.748262 -0.000437 0.0
0.946209 1.331036 0.001668 0.0
3.147675 2.145735 -0.001400 0.0
1.989506 0.298872 0.000874 0.0
0.157846 2.061329 -0.000395 0.0
1.228842 0.872464 0.001555 0.0
0.845427 2.203110 -0.002231 0.0
3.143850 1.135245 -0.000302 0.0
0.644179 1.179996 -0.000577 0.0
2.202852 1.760480 0.004623 0.0
0.884813 1.687881 -0.002927 0.0
1.436667 1.693766 -0.000069 0.0
0.883584 0.750198 0.002257 0.0
1.970811 2.415625 0.003103 0.0
1.774129 1.740524 0.001054 0.0
3.911365 1.648750 0.001124 0.0
1.387271 0.764178 0.005374 0.0
2.064133 2.182552 -0.002229 0.0
3.778733 0.576791 0.001856 0.0
0.679207 1.490357 0.000055 0.0
1.911459 1.630307 -0.001590 0.0
0.521931 0.073772 -0.004237 0.0
4.018018 0.621269 -0.002055 0.0
4.320670 1.989614 0.002283 0.0
3.004515 0.042605 -0.000775 0.0
0.680766 2.159325 -0.000474 0.0
0.029400 0.236929 -0.001350 0.0
0.297182 2.051396 0.000509 0.0
0.950560 0.595878 -0.003271 0.0
2.787367 1.127548 0.002377 0.0
2.754602 1.559845 -0.003129 0.0
3.395630 1.434214 -0.002809 0.0
1.086685 2.450542 -0.001531 0.0
2.232330 1.235149 0.002344 0.0
2.633297 2.240117 0.005704 0.0
2.396122 1.516685 -0.002207 0.0
0.671119 2.457452 -0.000042 0.0
2.472041 0.641099 -0.000599 0.0
0.775812 0.976906 0.001413 0.0
0.199651 0.988356 -0.001074 0.0
0.753590 2.130268 0.001913 0.0
1.942730 0.915536 0.003003 0.0
1.782121 2.326002 0.002079 0.0
3.338017 0.412892 0.000999 0.0
2.706915 2.302483 0.000882 0.0
1.009447 1.205737 -0.003570 0.0
0.023201 2.486701 0.001983 0.0
2.892202 2.371477 0.005545 0.0
1.120115 1.714303 0.000785 0.0
2.129185 1.743481 0.000450 0.0
2.405698 0.887969 0.000314 0.0
4.472019 0.298566 0.001345 0.0
0.387458 1.851705 0.001244 0.0
3.562393 2.111240 0.001136 0.0
0.363573 1.517725 0.005776 0.0
1.759016 1.063055 0.001080 0.0
2.020121 0.764797 0.000320 0.0
2.663608 1.329585 0.001313 0.0
2.335281 1.906222 -0.001085 0.0
1.177340 1.324836 -0.000097 0.0
4.258529 0.277219 -0.001995 0.0
3.161933 1.987997 -0.002623 0.0
3.685468 0.956553 0.005414 0.0
3.837050 1.140474 0.001269 0.0
2.143742 0.876853 0.002849 0.0
2.198040 0.901515 0.000596 0.0
3.696933 1.154037 0.001229 0.0
1.991549 0.526302 0.000648 0.0
1.441553 0.332061 -0.003149 0.0
0.415561 0.724640 -0.000816 0.0
2.397411 0.326417 -0.001202 0.0
3.852046 0.055424 0.001862 0.0
1.824823 0.127223 -0.000555 0.0
0.956020 0.971775 0.001864 0.0
3.612108 1.810306 0.004935 0.0
2.934216 0.960814 0.003340 0.0
1.517980 0.237728 -0.000824 0.0
0.604781 2.178141 0.001228 0.0
2.210173 0.826301 -0.000165 0.0
3.876905 1.619666 -0.000864 0.0
4.118774 1.838077 0.005684 0.0
2.239241 2.011651 0.000312 0.0
4.003533 0.494567 0.000859 0.0
0.933234 1.594031 0.003150 0.0
2.228914 2.265340 0.001694 0.0
4.307918 0.075275 -0.002011 0.0
1.608692 1.941703 -0.001244 0.0
2.566077 1.769850 -0.002879 0.0
1.034906 0.234665 0.003776 0.0
3.200134 1.729609 0.005847 0.0
1.543820 1.527044 0.001557 0.0
1.112136 2.243543 0.003812 0.0
1.003917 2.192026 -0.000026 0.0
1.135554 1.700495 -0.002782 0.0
2.869258 0.059975 -0.003139 0.0
2.455084 1.061185 0.000899 0.0
3.082544 0.993993 -0.001749 0.0
3.678289 1.857248 -0.000175 0.0
0.234379 1.127226 0.004622 0.0
1.639965 1.139693 -0.000373 0.0
4.340268 2.289900 0.001041 0.0
3.437508 0.866002 -0.001954 0.0
4.235893 2.309047 -0.000963 0.0
3.480915 2.291395 0.000901 0.0
3.740289 0.371832 -0.003136 0.0
3.308563 1.328370 0.000134 0.0
4.460086 0.768303 0.001984 0.0
3.789349 0.520719 -0.002728 0.0
3.690940 1.594135 0.000381 0.0
4.216559 1.372402 0.003049 0.0
0.198565 0.590001 0.000174 0.0
2.030819 2.187427 -0.001147 0.0
0.408327 2.309903 0.002358 0.0
3.012112 1.812621 0.001279 0.0
2.904420 1.436805 -0.000325 0.0
1.683725 1.616143 -0.000609 0.0
3.498227 2.220828 0.002016 0.0
3.190336 2.319126 0.001963 0.0
0.471619 1.825760 0.000694 0.0
2.952607 1.744312 -0.000785 0.0
0.234084 0.517729 0.002932 0.0
3.665948 0.854894 0.001092 0.0
1.290041 1.523868 0.001508 0.0
0.010653 1.759326 -0.001341 0.0
0.233395 0.523114 0.002919 0.0
2.429524 2.364152 0.001561 0.0
1.523523 2.250010 -0.001159 0.0
0.549156 1.345452 0.000360 0.0
1.541935 2.076982 -0.001959 0.0
1.809455 1.916652 0.000480 0.0
2.332033 1.340810 0.006022 0.0
0.373369 0.202655 -0.000400 0.0
0.831613 0.068906 -0.003801 0.0
4.423054 2.363486 0.002724 0.0
1.973591 0.621551 0.000102 0.0
0.643516 2.385665 0.001585 0.0
0.104489 2.405084 -0.003419 0.0
2.374261 1.667199 0.000619 0.0
2.140114 2.283710 0.001003 0.0
4.224578 0.138358 0.000697 0.0
0.240338 1.116764 0.001921 0.0
3.356032 1.707019 0.000751 0.0
3.205040 1.298435 -0.003410 0.0
1.495843 2.116802 -0.002389 0.0
2.559440 2.412303 -0.001332 0.0
3.654563 1.631105 0.002011 0.0
0.545234 2.146151 0.000117 0.0
1.310035 1.090034 -0.001018 0.0
3.096962 1.824313 0.002764 0.0
1.959735 0.305988 0.000543 0.0
3.194470 2.291742 0.003839 0.0
3.067483 0.765068 -0.004576 0.0
1.473301 0.282444 -0.002556 0.0
1.422750 0.203730 -0.004825 0.0
1.134708 2.077399 -0.004277 0.0
1.764600 0.002279 0.001025 0.0
0.207711 2.096184 -0.001344 0.0
0.103067 0.513999 -0.000796 0.0
0.776182 1.482049 -0.002120 0.0
4.240416 1.905976 0.000898 0.0
2.066986 2.359701 0.004904 0.0
1.063205 2.332502 0.000898 0.0
3.141114 1.159565 -0.003961 0.0
0.500179 0.895117 -0.000408 0.0
1.729237 1.280754 -0.001046 0.0
1.903841 1.772549 -0.001692 0.0
0.986640 0.208475 0.002441 0.0
2.610721 0.816108 0.002147 0.0
0.947856 1.005568 -0.000426 0.0
0.283850 0.449642 0.002060 0.0
3.359615 1.327379 0.000687 0.0
3.544285 0.083748 -0.003040 0.0
0.529832 1.002501 0.000486 0.0
0.560344 0.105008 0.000991 0.0
2.596400 0.519553 0.000537 0.0
3.778482 1.909484 0.001292 0.0
3.414845 0.986663 0.001116 0.0
3.383582 0.042673 -0.000940 0.0
2.115933 0.207835 -0.004364 0.0
0.441688 0.816068 0.002567 0.0
4.272661 2.098257 -0.002726 0.0
4.503519 1.680919 -0.002066 0.0
4.304156 0.293947 0.000919 0.0
0.606002 0.110306 -0.001841 0.0
2.577790 1.578644 -0.000830 0.0
3.808162 0.400398 0.001158 0.0
4.244341 0.549580 -0.007269 0.0
1.656659 0.475525 -0.002723 0.0
2.257486 2.065244 0.001617 0.0
0.519594 1.558692 0.001743 0.0
3.079094 1.375338 0.000569 0.0
2.021758 0.905797 -0.004058 0.0
4.293268 0.420898 -0.002444 0.0
3.148453 0.451925 -0.000685 0.0
1.259405 0.359309 0.002675 0.0
3.414415 0.401832 -0.003824 0.0
3.144820 1.102053 0.000529 0.0
2.013192 0.587925 -0.001324 0.0
0.523992 1.886263 -0.000060 0.0
0.560228 1.122243 -0.004055 0.0
0.901722 0.450797 -0.000889 0.0
3.056280 0.858034 0.003515 0.0
1.804646 1.490250 -0.001590 0.0
1.095310 0.644065 -0.002318 0.0
3.599960 0.142355 0.003200 0.0
4.187437 0.875567 -0.002580 0.0
3.805659 1.592468 0.006419 0.0
3.889882 1.353666 -0.002420 0.0
3.557619 1.672625 0.001863 0.0
3.685983 0.135456 0.000414 0.0
4.112758 1.909833 -0.004664 0.0
3.220931 1.439932 -0.002835 0.0
3.670872 1.924771 -0.002768 0.0
1.591524 0.183707 -0.001946 0.0
0.349577 0.252072 0.002300 0.0
0.334239 2.274056 0.001350 0.0
1.861314 1.207127 -0.001304 0.0
0.489033 1.434168 0.000415 0.0
0.663363 0.010125 0.003057 0.0
0.353136 0.451962 -0.002158 0.0
2.692084 1.065281 -0.002545 0.0
1.605604 1.277378 0.000320 0.0
3.039355 1.121692 -0.001628 0.0
3.338893 1.872858 0.001264 0.0
0.292430 1.094771 0.001877 0.0
0.555405 1.242203 -0.000190 0.0
1.650075 0.904731 -0.003825 0.0
3.222067 1.358465 0.001181 0.0
1.042832 2.473027 -0.001500 0.0
2.215315 0.651949 -0.002618 0.0
0.570292 1.729007 -0.001178 0.0
1.885377 1.410629 0.001184 0.0
3.675191 1.906088 0.003020 0.0
0.635284 2.137408 -0.004895 0.0
1.307512 1.622114 -0.002892 0.0
2.958479 1.324203 -0.001993 0.0
0.644685 0.106997 -0.000463 0.0
0.445647 0.638513 0.000082 0.0
1.308262 1.409935 -0.001012 0.0
1.254641 0.225885 -0.001232 0.0
0.459915 1.510351 0.004338 0.0
1.480810 0.993311 0.001588 0.0
0.518807 0.725799 0.002036 0.0
3.270037 0.621003 -0.000490 0.0
3.497383 1.832872 0.003387 0.0
2.972284 1.688332 -0.000136 0.0
1.120971 1.722841 0.002813 0.0
3.251664 0.583270 -0.000377 0.0
1.088466 2.025724 0.000577 0.0
3.403472 2.253738 -0.002352 0.0
1.352220 0.793045 -0.000874 0.0
1.929125 0.040216 0.000779 0.0
1.993809 2.440216 0.001364 0.0
3.364134 0.257467 0.000455 0.0
4.305193 0.499750 0.000737 0.0
3.083174 0.272210 0.002132 0.0
2.285886 1.628881 0.004053 0.0
1.836271 1.369488 -0.000545 0.0
4.340455 1.663463 -0.002667 0.0
3.695370 2.157120 0.001478 0.0
1.459662 0.774833 0.002236 0.0
0.717098 0.509667 0.001860 0.0
0.700957 0.601198 0.000551 0.0
1.498352 0.969894 -0.001575 0.0
2.911313 0.614655 -0.000000 0.0
1.275514 0.278868 -0.002134 0.0
2.652816 2.314348 -0.000466 0.0
3.360691 1.755097 0.000523 0.0
3.240922 0.989313 -0.000970 0.0
4.062391 2.145620 0.002472 0.0
0.262943 2.403982 0.002166 0.0
2.951905 2.500175 0.000525 0.0
4.451475 0.650508 -0.001639 0.0
2.855258 1.730699 0.003227 0.0
0.466000 0.861510 0.006603 0.0
2.788685 1.337217 0.001388 0.0
0.061294 0.985890 -0.002632 0.0
3.272615 2.043870 -0.005370 0.0
0.624036 0.998118 -0.002829 0.0
1.370750 2.418731 0.003230 0.0
3.301667 1.233903 -0.001023 0.0
0.658420 1.222015 -0.000311 0.0
0.695846 2.088046 -0.001036 0.0
1.476920 0.395153 0.001966 0.0
0.678345 2.368898 -0.001835 0.0
2.136081 1.322154 -0.002399 0.0
3.076522 2.086513 -0.003865 0.0
1.649637 1.501532 0.000175 0.0
1.836508 0.875929 -0.000442 0.0
0.483010 1.407507 0.002234 0.0
0.648339 1.551644 -0.002382 0.0
3.177436 2.119932 0.004515 0.0
1.751064 1.738090 -0.001246 0.0
0.171807 0.237198 0.002540 0.0
0.140810 0.983073 -0.003174 0.0
1.746834 1.866458 0.002009 0.0
1.004334 1.737727 0.001884 0.0
2.879791 2.390648 -0.004671 0.0
0.106641 2.341206 0.003247 0.0
1.740012 0.791189 0.003425 0.0
1.384951 0.001673 0.000354 0.0
2.382440 0.862828 0.000614 0.0
4.092806 2.441649 -0.000461 0.0
1.279220 0.103605 -0.000196 0.0
4.216362 1.713818 -0.001613 0.0
4.389445 2.202255 0.003932 0.0
2.179875 0.924994 0.001214 0.0
2.775269 1.805475 -0.002247 0.0
3.683295 2.280516 -0.000900 0.0
2.222971 1.630894 -0.002340 0.0
0.616667 1.820624 -0.000698 0.0
2.113059 2.467420 -0.000113 0.0
1.294466 2.185041 0.003432 0.0
3.264596 0.585536 0.000418 0.0
0.312820 0.468252 -0.000650 0.0
1.138804 1.821591 -0.003577 0.0
0.956060 1.904798 -0.001291 0.0
4.500460 0.678615 -0.001888 0.0
0.570219 1.985485 0.002832 0.0
2.712619 1.418682 -0.000160 0.0
3.650730 1.034025 0.001656 0.0
4.272692 2.255100 0.001591 0.0
3.867526 1.320110 0.005611 0.0
3.439147 2.159268 0.003934 0.0
0.510282 2.329891 0.001997 0.0
0.217135 1.653219 0.006000 0.0
0.995151 2.166896 0.002511 0.0
0.851688 1.103211 -0.003901 0.0
3.275828 0.469950 -0.007652 0.0
1.285892 0.285275 0.000922 0.0
2.577236 2.198568 -0.004586 0.0
1.635352 1.338493 -0.000131 0.0
4.230616 0.391586 0.002023 0.0
0.781230 1.487690 -0.003097 0.0
3.438852 1.140821 -0.003180 0.0
3.763569 2.218134 -0.001909 0.0
0.820287 1.291434 0.000229 0.0
3.174360 1.105151 0.001544 0.0
1.195474 2.249458 0.001162 0.0
1.990896 2.443297 0.001003 0.0
2.666967 0.074247 -0.000944 0.0
4.213651 2.065784 -0.000808 0.0
2.015256 0.430702 0.004386 0.0
3.215479 2.400173 -0.000473 0.0
2.777827 1.991697 0.002171 0.0
2.212319 0.918261 0.004467 0.0
3.375576 0.633152 0.002835 0.0
2.029837 0.127842 0.002406 0.0
0.365408 2.035746 -0.000255 0.0
3.055077 1.224872 0.001835 0.0
1.773820 1.866070 -0.002509 0.0
0.986945 1.678835 -0.002291 0.0
2.134258 0.238181 -0.002162 0.0
0.915088 1.430419 0.000919 0.0
1.028908 1.102095 0.000426 0.0
4.052264 1.870181 -0.002699 0.0
2.003125 1.655230 -0.002591 0.0
0.307080 1.924718 0.002225 0.0
2.156734 1.476672 -0.003980 0.0
4.491668 1.456522 0.001763 0.0
0.910379 1.876373 -0.003538 0.0
4.217635 0.739427 0.002030 0.0
2.041451 0.568613 -0.000096 0.0
0.420085 2.107674 -0.001148 0.0
0.018182 1.587764 0.000561 0.0
1.230332 1.855403 -0.000692 0.0
0.456072 1.297456 -0.005176 0.0
0.184368 1.683806 0.002485 0.0
3.799342 0.196683 -0.001739 0.0
1.185179 1.259824 -0.001855 0.0
3.374713 2.300296 0.003710 0.0
4.436555 0.389032 0.000806 0.0
4.459437 1.774107 0.001469 0.0
0.452949 0.963181 -0.000574 0.0
2.041948 2.330697 0.001115 0.0
0.069958 1.935395 0.002189 0.0
1.088944 0.913078 -0.006327 0.0
1.508158 1.200490 -0.001431 0.0
3.509062 1.540448 0.002920 0.0
1.043568 0.543427 0.000514 0.0
3.466411 2.140252 -0.001880 0.0
0.717313 0.198955 -0.003811 0.0
0.058759 1.790559 -0.000658 0.0
1.127871 1.464671 0.001763 0.0
0.698428 2.490114 0.003027 0.0
0.807471 0.897597 0.000809 0.0
4.370371 1.258495 0.005614 0.0
1.014005 1.981166 -0.000809 0.0
0.120545 2.263282 0.001558 0.0
2.557011 1.882054 0.002067 0.0
3.932522 2.244044 -0.001078 0.0
1.272969 1.658520 0.001378 0.0
2.243240 1.150822 -0.000453 0.0
4.098022 2.185327 0.003615 0.0
4.507026 2.300529 -0.004018 0.0
2.721422 1.756407 0.002186 0.0
2.250973 2.299547 0.000929 0.0
4.480310 1.259093 0.001844 0.0
0.919154 1.587751 0.004846 0.0
3.047797 1.795484 -0.000590 0.0
0.469057 2.465929 0.002724 0.0
0.683649 0.094671 0.002093 0.0
0.382076 1.489895 -0.000519 0.0
3.385593 2.359386 -0.001424 0.0
0.827564 1.811694 -0.000040 0.0
0.535264 0.768921 0.004145 0.0
4.410469 0.712339 0.003846 0.0
0.846976 0.068044 -0.003219 0.0
2.042649 1.927660 -0.003950 0.0
2.076679 0.930615 -0.000461 0.0
3.991338 1.863659 -0.003806 0.0
4.323783 2.201035 -0.000447 0.0
3.507727 1.370518 -0.000740 0.0
2.960847 1.129125 -0.001102 0.0
0.267705 1.120209 -0.002214 0.0
0.884660 1.119729 -0.000061 0.0
3.382732 0.308550 0.000133 0.0
1.066263 2.108205 -0.002007 0.0
1.286974 2.239020 -0.001151 0.0
3.531123 1.918997 -0.002435 0.0
3.834142 0.134720 0.003164 0.0
3.904831 0.124128 0.005567 0.0
3.946720 2.307132 0.003376 0.0
3.709575 1.940902 0.004036 0.0
2.159720 0.590814 0.002737 0.0
0.495031 0.329738 -0.000928 0.0
0.513435 1.321041 0.002128 0.0
2.602977 0.748203 0.005530 0.0
0.379665 1.612654 0.000305 0.0
2.049968 2.278168 -0.002987 0.0
2.134657 0.083684 -0.001607 0.0
4.203970 0.945749 0.000953 0.0
3.494617 0.445517 -0.002530 0.0
4.307390 1.242640 -0.003723 0.0
3.060799 2.107567 0.003007 0.0
3.029608 0.711409 -0.002431 0.0
3.021220 0.052895 -0.001162 0.0
1.965141 0.939794 -0.001809 0.0
0.067629 2.226760 -0.006455 0.0
0.227869 2.270406 -0.001291 0.0
1.087741 1.728778 -0.002834 0.0
2.885085 1.106025 0.000812 0.0
3.743990 1.770179 0.001526 0.0
0.625652 1.795148 -0.000363 0.0
4.346530 2.210788 0.000605 0.0
0.531538 2.013079 0.002611 0.0
0.201315 0.095060 0.001620 0.0
2.429279 2.390861 -0.002172 0.0
3.702838 2.224912 0.000721 0.0
3.721205 2.391875 -0.000791 0.0
0.336403 2.165334 0.001425 0.0
4.439054 1.922047 -0.000876 0.0
2.368981 1.338101 0.003962 0.0
0.126142 1.506045 0.000350 0.0
3.736498 1.261492 0.001450 0.0
3.931835 0.073961 -0.000929 0.0
1.436650 0.635201 -0.001420 0.0
1.377145 1.838910 0.001454 0.0
2.813639 2.195705 0.005571 0.0
4.169006 0.804292 -0.001304 0.0
1.460816 0.614465 0.000997 0.0
1.432205 0.951539 -0.001036 0.0
0.168015 0.741889 0.002151 0.0
3.455274 1.151244 0.005363 0.0
4.332276 1.000496 0.000444 0.0
2.322708 0.319128 -0.002191 0.0
1.752137 1.816468 0.002508 0.0
3.588243 1.911471 -0.006296 0.0
1.289890 1.382376 0.001285 0.0
4.105869 1.651844 -0.002826 0.0
1.217221 1.116101 0.002916 0.0
0.007485 1.050576 -0.000274 0.0
2.355143 1.225627 -0.000768 0.0
1.542946 1.027699 -0.000291 0.0
2.964637 2.275052 -0.000796 0.0
0.944934 0.961639 0.000727 0.0
2.717199 0.294621 0.000614 0.0
3.906553 1.515623 -0.003772 0.0
3.606887 1.994927 0.003307 0.0
3.129446 0.538608 -0.003102 0.0
2.865185 0.953388 0.000364 0.0
0.841944 0.416276 0.001572 0.0
0.104865 1.145442 -0.000977 0.0
1.241442 1.357533 -0.002259 0.0
1.301645 0.528149 0.001083 0.0
4.506923 1.287085 0.000438 0.0
2.468536 2.064401 -0.001738 0.0
0.166023 1.483876 -0.001301 0.0
3.668567 1.716434 -0.000153 0.0
3.415422 1.284067 0.001113 0.0
2.437080 0.758396 0.004248 0.0
1.196031 1.798606 0.001352 0.0
3.301246 2.466399 -0.000196 0.0
0.088839 1.700926 -0.001800 0.0
1.216005 1.154181 0.001521 0.0
0.195792 1.616108 0.003564 0.0
1.969915 1.737750 -0.001721 0.0
0.199945 0.993976 0.000197 0.0
3.081675 0.569883 -0.000778 0.0
1.825305 1.326598 -0.001274 0.0
2.562904 0.897537 0.001019 0.0
1.903242 1.996704 -0.000812 0.0
3.500410 1.801412 -0.001584 0.0
4.055138 1.301024 0.001082 0.0
3.854140 1.058066 0.001770 0.0
1.948782 2.106260 0.003445 0.0
3.288377 0.085597 0.001243 0.0
0.690749 -0.001456 0.111394 0.0
3.480168 0.001112 0.014920 0.0
0.154930 0.000612 0.077436 0.0
2.222811 0.000556 0.109821 0.0
3.907659 0.002706 0.234135 0.0
2.317998 0.002473 0.148659 0.0
2.091363 0.002212 0.221843 0.0
0.191104 0.001696 0.190483 0.0
1.455347 0.000551 0.187296 0.0
0.356007 0.004058 0.225815 0.0
0.612818 0.002745 0.167941 0.0
1.261673 0.006279 0.247726 0.0
3.014579 -0.000957 0.072034 0.0
3.512406 0.001127 0.158461 0.0
2.780549 0.003618 0.179004 0.0
1.754560 0.004796 0.088256 0.0
2.877855 0.000013 0.083855 0.0
0.840904 0.003702 0.233124 0.0
0.947387 0.004252 0.147598 0.0
2.191580 0.004034 0.175468 0.0
2.164612 0.004349 0.074688 0.0
3.302598 0.007756 0.244026 0.0
4.135280 0.000411 0.149481 0.0
1.906246 0.004677 0.087352 0.0
3.407252 0.001136 0.036372 0.0
2.707368 0.001054 0.208110 0.0
2.517212 0.001343 0.106715 0.0
3.008703 -0.000182 0.004102 0.0
3.429903 0.002552 0.099071 0.0
4.251234 -0.000999 0.082851 0.0
1.340255 0.005556 0.091449 0.0
4.447839 0.002187 0.149039 0.0
0.977783 0.002721 0.010342 0.0
1.457206 0.004849 0.192355 0.0
4.130546 -0.002126 0.158516 0.0
4.455564 0.001649 0.064466 0.0
3.979303 -0.002764 0.151524 0.0
1.288902 -0.001490 0.096032 0.0
0.349769 -0.001333 0.069043 0.0
3.624215 0.005740 0.210641 0.0
3.906129 0.002051 0.231500 0.0
3.881973 0.002867 0.049309 0.0
2.551450 0.004169 0.164709 0.0
0.194611 0.003641 0.028347 0.0
3.248192 -0.007750 0.026414 0.0
3.407381 0.000316 0.017037 0.0
4.394876 0.000617 0.182870 0.0
1.936426 0.003153 0.111349 0.0
0.849147 0.001232 0.061784 0.0
1.687336 0.002610 0.208110 0.0
3.654233 0.002544 0.182650 0.0
2.688635 0.002468 0.152783 0.0
3.603984 0.001451 0.124744 0.0
2.321558 0.002703 0.168720 0.0
4.108293 0.001834 0.097283 0.0
3.181168 -0.000248 0.095227 0.0
4.164029 0.002766 0.135491 0.0
0.818241 0.005532 0.057591 0.0
3.777403 -0.000427 0.002008 0.0
1.580688 0.002662 0.036439 0.0
0.986487 0.001534 0.029442 0.0
2.331072 0.002074 0.216885 0.0
1.740284 0.002720 0.091658 0.0
1.012248 -0.000680 0.179599 0.0
0.457954 0.002912 -0.002494 0.0
4.121286 -0.000465 0.092941 0.0
0.856154 0.003734 0.145139 0.0
0.270690 -0.000605 0.236961 0.0
3.468535 -0.000230 0.160190 0.0
4.010448 -0.001109 0.083138 0.0
2.280457 0.008121 0.245692 0.0
3.923536 0.001655 0.028536 0.0
2.675045 0.002221 0.212592 0.0
3.876455 0.000709 0.015470 0.0
0.094076 0.000274 0.210020 0.0
2.917004 -0.003654 0.032392 0.0
3.775567 -0.000715 0.113838 0.0
2.890464 -0.000734 0.026947 0.0
2.219471 0.001810 0.210743 0.0
2.298002 0.002761 0.064982 0.0
2.960240 -0.000082 0.037197 0.0
1.799891 -0.001033 0.135793 0.0
1.950093 -0.001948 0.117869 0.0
1.142388 -0.001484 0.002394 0.0
3.719618 0.002204 0.111972 0.0
0.916288 -0.002220 0.029754 0.0
2.543333 -0.001760 0.004036 0.0
2.688203 -0.000281 0.235401 0.0
4.190368 0.005095 0.079249 0.0
0.550879 0.000456 0.175103 0.0
4.481291 0.001322 0.030017 0.0
0.591210 0.000386 0.121665 0.0
0.488249 0.003026 0.088595 0.0
4.284804 0.002791 0.097780 0.0
2.795123 0.001309 0.033754 0.0
1.920841 0.001759 0.226883 0.0
2.053133 0.005883 0.189503 0.0
4.008066 0.002110 0.122730 0.0
1.647997 0.001175 0.184727 0.0
1.479216 -0.005070 0.027002 0.0
0.199165 -0.000798 0.042243 0.0
4.451330 0.003684 0.049373 0.0
1.881121 0.000683 0.116366 0.0
2.051690 0.000860 0.208592 0.0
2.369514 0.002285 0.167909 0.0
0.127252 0.004417 0.199887 0.0
4.494182 -0.000692 0.035752 0.0
3.681980 0.004080 0.000831 0.0
2.537461 -0.002652 0.232343 0.0
4.145321 0.001848 0.157933 0.0
2.139997 0.001621 0.114375 0.0
3.067489 0.003305 0.096302 0.0
1.331927 0.001983 0.097648 0.0
4.496119 0.003383 0.063280 0.0
1.035935 0.004076 0.198064 0.0
2.596756 0.001007 0.098715 0.0
2.674526 0.002007 0.210188 0.0
3.153004 0.005275 0.170916 0.0
2.260768 0.002853 0.239224 0.0
3.751199 0.003786 0.208561 0.0
2.646871 0.002273 0.205243 0.0
0.220472 -0.000096 0.239244 0.0
0.963796 0.000476 0.073449 0.0
1.301490 0.005749 0.197787 0.0
3.250239 0.001359 0.024849 0.0
0.749351 0.005035 0.175607 0.0
3.877712 -0.003410 0.025466 0.0
3.496199 0.001241 0.077427 0.0
0.197117 -0.003790 0.024703 0.0
0.424277 0.000095 0.139813 0.0
2.269798 0.003315 0.079076 0.0
2.599893 0.000144 0.011551 0.0
2.519789 0.003734 0.138073 0.0
2.773772 0.004490 0.205063 0.0
1.152992 0.003488 0.014569 0.0
3.746986 -0.005965 0.001864 0.0
4.401775 -0.003334 0.093761 0.0
3.177316 0.003412 0.208910 0.0
4.197545 0.000458 0.076723 0.0
0.727540 -0.000950 0.193447 0.0
2.840980 0.002107 0.098740 0.0
0.774569 -0.000178 0.055212 0.0
0.320333 0.003610 0.185212 0.0
0.806498 0.003567 0.062645 0.0
2.034154 0.002768 0.088992 0.0
3.955200 0.005701 0.051199 0.0
0.775804 0.001178 0.071940 0.0
0.059480 0.001908 0.157627 0.0
1.495469 -0.001804 0.072831 0.0
0.746347 0.001737 0.045073 0.0
2.708009 0.002472 0.230434 0.0
2.162551 0.000575 0.031404 0.0
0.355025 0.004341 0.073010 0.0
1.332414 0.001710 0.014032 0.0
1.892940 0.000923 0.207616 0.0
3.586841 0.003141 0.131675 0.0
1.922860 0.001115 0.175356 0.0
2.705350 -0.002243 0.034489 0.0
4.103930 -0.002537 0.052701 0.0
0.386820 0.001739 0.159046 0.0
1.108788 0.003853 0.132482 0.0
3.116500 0.003424 0.165453 0.0
0.101688 -0.000749 0.019357 0.0
0.265242 0.003356 0.050659 0.0
2.502362 0.003999 0.196292 0.0
1.614009 0.003568 0.172683 0.0
3.305191 0.002761 0.214166 0.0
4.003583 0.002015 0.143882 0.0
1.033732 -0.000112 0.203566 0.0
0.065671 0.000741 0.026520 0.0
4.229752 0.005194 0.238583 0.0
0.993057 0.004744 0.053676 0.0
3.849817 -0.000725 0.202261 0.0
1.428202 -0.002213 0.048276 0.0
4.102196 0.000321 0.006557 0.0
1.677946 -0.003204 0.077350 0.0
1.782636 0.004062 0.234954 0.0
1.603525 0.000863 0.099160 0.0
3.518535 0.001478 0.043661 0.0
0.422254 0.002691 0.085427 0.0
1.892826 0.004026 0.241206 0.0
0.527729 -0.001540 0.019142 0.0
2.895466 0.002565 0.170985 0.0
4.033972 0.004070 0.004974 0.0
0.856282 0.002161 0.124594 0.0
2.364454 0.004674 0.223578 0.0
1.653942 -0.000135 0.162791 0.0
4.152767 0.000939 0.037055 0.0
1.229451 0.000381 0.085870 0.0
4.406289 -0.005309 0.030582 0.0
2.976772 0.001292 0.239604 0.0
2.523763 0.001305 0.211962 0.0
3.535775 -0.000351 0.027717 0.0
1.572819 0.003772 0.136510 0.0
0.379242 -0.003368 0.005300 0.0
1.991207 0.003234 0.116424 0.0
4.398832 -0.000330 0.090657 0.0
3.715901 0.003467 0.216852 0.0
3.312302 0.001359 0.170226 0.0
3.028433 0.005443 0.085385 0.0
1.979340 -0.001100 0.003446 0.0
2.398487 0.005097 0.173886 0.0
2.231774 0.002930 0.126057 0.0
3.367401 0.000284 0.229625 0.0
4.020554 0.000658 0.209712 0.0
1.865034 0.001936 0.103753 0.0
2.184321 0.003718 0.222414 0.0
2.972248 0.001057 0.014392 0.0
2.557979 0.003653 0.201783 0.0
3.977697 0.002625 0.022137 0.0
0.969187 0.003007 0.232978 0.0
2.528435 0.004384 0.129255 0.0
0.057945 0.001302 0.035125 0.0
0.558124 0.002325 0.227505 0.0
2.817312 -0.001870 0.014203 0.0
1.667879 -0.002014 0.003901 0.0
0.854088 0.000836 0.083892 0.0
2.418630 -0.001818 0.177652 0.0
0.211897 0.002317 0.124087 0.0
2.231778 0.002294 0.059720 0.0
1.290243 0.003588 0.225839 0.0
0.868318 0.002506 0.121930 0.0
3.430354 -0.000686 0.010849 0.0
2.037962 0.001990 0.238165 0.0
4.428590 0.005934 0.158254 0.0
2.636573 -0.001256 0.035545 0.0
2.791538 0.004067 0.136256 0.0
0.588594 0.001120 0.171361 0.0
2.495064 0.002986 0.209625 0.0
2.493034 0.002329 0.247835 0.0
3.400169 0.002594 0.046220 0.0
