0.725452 1.018293 -0.000093 0.0
1.295864 2.128870 0.007088 0.0
2.972605 0.223091 0.001482 0.0
1.901279 1.056738 0.001129 0.0
1.683371 0.478563 -0.000536 0.0
3.908674 1.714586 0.002303 0.0
1.133033 1.229866 -0.000390 0.0
3.623891 1.233695 -0.003372 0.0
2.105319 0.268194 0.004760 0.0
2.978027 2.280220 -0.000087 0.0
3.174274 1.661054 0.002362 0.0
1.314908 1.852118 0.000677 0.0
0.376398 0.460288 0.002698 0.0
2.614801 0.529874 -0.000459 0.0
1.147554 1.004169 0.002271 0.0
2.375760 0.952952 0.002319 0.0
3.029164 1.249990 -0.000817 0.0
1.360456 1.605968 -0.000878 0.0
3.589921 0.004873 0.005058 0.0
3.516141 1.551214 -0.004119 0.0
4.235081 2.002501 -0.001504 0.0
0.587303 0.570297 0.002156 0.0
0.297615 1.001405 -0.005139 0.0
0.569705 1.076457 0.002204 0.0
4.081850 2.338512 0.000531 0.0
4.008922 0.768572 0.000052 0.0
2.824845 0.364336 -0.000399 0.0
3.017971 0.345490 -0.000523 0.0
3.900353 1.418232 0.002524 0.0
3.785942 1.679926 0.006261 0.0
1.991518 0.156406 -0.000166 0.0
0.549756 1.215800 -0.003002 0.0
1.682494 2.211037 -0.001329 0.0
3.370856 0.492259 -0.002576 0.0
2.331663 1.836586 -0.000874 0.0
3.967536 2.259012 0.006121 0.0
3.123163 0.672700 0.001330 0.0
0.185507 2.066818 -0.002580 0.0
3.547378 1.605284 0.000122 0.0
0.875890 1.776701 -0.000475 0.0
3.935561 1.029872 -0.001956 0.0
0.911764 0.639226 0.000440 0.0
1.686691 0.733760 0.001449 0.0
1.798610 1.447323 0.000173 0.0
1.547046 0.157563 -0.003028 0.0
0.364836 0.827655 0.000681 0.0
2.794828 1.743599 0.003262 0.0
3.493149 1.486580 -0.004070 0.0
1.655608 0.812662 0.000557 0.0
2.614478 0.238744 -0.001698 0.0
4.098392 1.132872 -0.000811 0.0
3.927601 0.614314 -0.002693 0.0
2.808638 0.161483 -0.002570 0.0
4.191739 0.608936 -0.003450 0.0
0.466026 1.076474 -0.002143 0.0
2.710984 1.387968 -0.001309 0.0
0.613722 2.427262 -0.000500 0.0
2.535782 0.330023 0.001726 0.0
0.251487 0.436469 -0.002958 0.0
3.179537 0.365495 0.004977 0.0
0.246826 0.216145 0.000891 0.0
2.759776 2.225633 0.002066 0.0
0.948911 0.402181 -0.001503 0.0
1.981534 1.107444 -0.004387 0.0
3.300269 0.642335 0.004213 0.0
0.413474 1.635259 -0.000030 0.0
2.842567 1.647765 0.004636 0.0
1.176070 0.541417 0.001102 0.0
3.814006 1.167145 0.000720 0.0
1.182792 0.027059 -0.003229 0.0
1.548034 0.605421 -0.001083 0.0
2.748312 2.126164 0.003705 0.0
0.688300 0.143859 -0.000627 0.0
2.744457 2.013496 0.001456 0.0
3.778636 0.274172 0.002676 0.0
0.026123 1.455995 -0.001666 0.0
2.819412 0.096486 0.001696 0.0
1.346731 0.232943 0.002702 0.0
2.247468 1.832820 0.003573 0.0
2.860376 0.344555 0.001562 0.0
3.992982 1.203255 -0.000013 0.0
2.568235 0.933798 0.003251 0.0
0.819484 1.907227 0.000146 0.0
3.785574 1.794356 0.003373 0.0
2.351688 1.889449 0.002309 0.0
2.230215 2.341954 -0.000497 0.0
1.007812 0.460152 0.001301 0.0
3.555501 1.157141 -0.003120 0.0
0.192042 1.899598 0.000436 0.0
3.831703 0.194964 -0.004050 0.0
3.129957 0.504760 0.001916 0.0
3.481898 0.323303 -0.001373 0.0
0.308837 0.403323 -0.001085 0.0
0.445173 1.690395 -0.006766 0.0
2.057142 2.304488 0.002286 0.0
2.873974 2.369932 -0.000317 0.0
0.269578 1.342662 0.000233 0.0
1.002374 0.859553 -0.001851 0.0
3.498565 1.485023 -0.001493 0.0
1.588088 0.435079 -0.000689 0.0
1.569797 2.014293 0.003870 0.0
0.347233 2.155071 0.001736 0.0
2.878813 1.171264 0.000269 0.0
2.716127 1.281728 0.002596 0.0
3.092219 1.760777 -0.004204 0.0
1.995179 2.197584 0.004414 0.0
1.115977 0.742016 -0.001523 0.0
4.183226 1.606513 -0.000510 0.0
3.150660 2.385858 0.000687 0.0
0.806007 2.161599 -0.001072 0.0
0.878757 2.217783 0.002997 0.0
3.780248 0.997932 0.002775 0.0
1.161735 0.908627 0.003186 0.0
0.665126 0.117767 -0.000104 0.0
1.663862 0.492494 0.001385 0.0
0.826177 2.180956 0.003518 0.0
2.641821 1.916778 -0.002098 0.0
0.145712 0.781723 0.001231 0.0
3.290726 1.640066 0.000750 0.0
0.024797 0.794392 -0.001322 0.0
3.703205 0.437461 -0.001467 0.0
3.081170 1.679008 -0.006129 0.0
3.957917 0.342646 -0.001623 0.0
2.063100 2.395115 -0.001253 0.0
1.722196 0.813498 -0.000978 0.0
0.090976 0.993402 0.000725 0.0
0.154385 0.162817 0.001482 0.0
0.214417 0.514480 -0.000211 0.0
2.216304 0.741726 -0.001670 0.0
0.409359 0.909220 0.002050 0.0
3.327318 2.349739 -0.002367 0.0
1.360832 0.779320 0.001573 0.0
4.012156 0.026941 0.001139 0.0
0.927338 1.363655 0.001386 0.0
0.236441 1.475970 -0.000010 0.0
2.929058 2.374588 -0.006957 0.0
1.894922 2.205790 0.001947 0.0
2.079199 0.760099 -0.003055 0.0
0.926228 0.312342 -0.001036 0.0
2.894277 1.350310 -0.007020 0.0
2.476910 0.856758 0.003163 0.0
3.290026 1.034650 0.000066 0.0
2.397263 1.276412 -0.001486 0.0
3.826648 2.008071 0.005114 0.0
3.857123 0.060103 0.001970 0.0
1.613799 1.875292 -0.003830 0.0
1.618961 1.741015 -0.001454 0.0
3.264217 2.330935 0.004044 0.0
0.263736 0.142319 0.000009 0.0
3.364083 1.370721 -0.001798 0.0
3.465211 0.923287 -0.001195 0.0
1.374570 0.448679 -0.005390 0.0
1.192887 1.789817 -0.002342 0.0
3.889206 0.793628 0.000946 0.0
1.672702 0.364805 -0.001323 0.0
2.962498 0.499886 -0.001088 0.0
0.055503 1.615772 0.003861 0.0
0.103825 1.199911 0.001085 0.0
3.148809 0.430013 0.003467 0.0
2.650818 2.331275 0.003562 0.0
1.518017 1.200251 -0.000035 0.0
3.688033 0.473346 -0.001512 0.0
1.004878 0.123761 0.000558 0.0
1.348704 1.010731 0.003239 0.0
3.402248 2.055361 0.003611 0.0
0.326309 1.058453 0.003013 0.0
0.899857 0.895290 0.001752 0.0
0.659271 2.171334 0.001172 0.0
1.304468 0.094470 0.000699 0.0
0.576307 1.812163 0.001068 0.0
2.011316 2.404684 0.000546 0.0
0.859200 2.292263 0.000381 0.0
1.509126 0.528982 0.001971 0.0
0.848868 1.651061 -0.003095 0.0
1.245657 2.325775 -0.003981 0.0
2.220205 0.657537 0.005022 0.0
1.919880 0.313561 -0.000368 0.0
0.620258 0.969820 0.000484 0.0
2.814067 0.917827 -0.004262 0.0
0.871725 2.187644 -0.003061 0.0
0.198306 1.429165 0.000387 0.0
2.581063 1.137026 0.004307 0.0
1.041288 1.191331 -0.002133 0.0
1.634589 2.371733 0.002034 0.0
1.356082 1.516081 0.000955 0.0
0.600453 1.746138 -0.004402 0.0
3.842501 1.228811 -0.000359 0.0
3.475788 2.319289 -0.003414 0.0
2.791682 1.236199 0.000266 0.0
2.813229 0.854891 0.001025 0.0
1.049479 0.999316 -0.002688 0.0
1.444704 1.972507 0.001459 0.0
3.266561 1.280452 0.000579 0.0
2.119635 0.133363 -0.003124 0.0
0.214647 0.917317 -0.000067 0.0
4.155331 1.232638 0.003077 0.0
3.814072 2.269296 0.001430 0.0
2.752528 0.578393 0.000269 0.0
3.516681 1.992062 0.000567 0.0
0.038498 0.228736 -0.000548 0.0
2.812964 0.349930 0.002769 0.0
3.913853 1.182974 -0.001166 0.0
0.286048 0.424804 -0.002950 0.0
2.077159 0.391440 -0.000868 0.0
0.182183 1.640549 0.000907 0.0
2.525358 0.751690 -0.001890 0.0
1.621101 0.523010 0.002155 0.0
4.113056 0.262411 -0.000070 0.0
3.412402 1.949991 0.004744 0.0
2.606623 0.003789 -0.000218 0.0
0.036123 1.829906 0.002720 0.0
2.851674 0.254019 -0.001455 0.0
2.321072 1.393006 0.002901 0.0
2.211783 0.642465 -0.000982 0.0
0.022644 1.069030 -0.000049 0.0
1.368273 0.520549 0.004217 0.0
1.116358 0.743726 0.002933 0.0
3.106051 1.313947 -0.003032 0.0
2.044240 2.140077 -0.003551 0.0
3.727002 1.147875 -0.001626 0.0
2.419067 0.224711 0.005877 0.0
3.279105 0.912011 -0.000292 0.0
4.140281 1.488751 -0.000050 0.0
3.289765 0.530356 -0.001704 0.0
0.294023 1.340847 -0.002587 0.0
0.253520 2.195452 -0.002156 0.0
2.331580 0.331586 0.004937 0.0
2.461846 1.731610 -0.001812 0.0
2.023637 0.033425 -0.002769 0.0
0.912438 0.690347 -0.001886 0.0
2.910936 0.239999 0.002139 0.0
3.343020 1.730087 0.000330 0.0
1.939112 1.538206 0.001775 0.0
1.545742 1.457982 -0.002077 0.0
1.520647 0.632261 0.002438 0.0
3.195058 0.128167 0.000338 0.0
3.901350 1.967785 0.001398 0.0
3.543565 0.071522 0.001913 0.0
0.607916 0.044822 0.001967 0.0
1.246589 2.243288 0.000886 0.0
0.691318 1.099196 0.002574 0.0
3.402374 0.372998 -0.003804 0.0
1.721638 1.769584 -0.001088 0.0
2.179923 1.531034 0.000250 0.0
1.072333 1.915903 0.003736 0.0
2.028388 1.346550 -0.003496 0.0
0.152720 1.688626 -0.002568 0.0
0.564013 0.613597 0.001292 0.0
3.996357 1.393521 -0.002484 0.0
3.773165 0.998366 0.000426 0.0
2.161060 0.150332 0.002717 0.0
1.017950 1.776490 0.001506 0.0
4.175475 0.904400 -0.001366 0.0
3.446631 1.154558 0.000496 0.0
0.982927 0.123529 0.001566 0.0
0.498316 1.645613 0.001082 0.0
3.329320 2.093685 0.004954 0.0
1.616481 0.449212 0.001394 0.0
3.401908 2.204442 -0.003002 0.0
3.447289 2.440400 -0.002213 0.0
4.103730 1.887751 -0.000968 0.0
3.687308 0.627412 0.000841 0.0
1.133335 0.826043 0.000357 0.0
1.443260 2.390027 -0.003630 0.0
4.211845 0.507699 0.002588 0.0
3.301712 0.574394 0.001560 0.0
2.336803 1.345698 -0.001088 0.0
2.222829 0.953976 -0.001033 0.0
1.070994 1.254639 -0.001552 0.0
4.145699 1.206566 0.001671 0.0
3.157135 1.108434 0.000291 0.0
1.185185 2.257818 -0.001463 0.0
3.905007 2.016102 0.006826 0.0
3.066679 1.545930 0.000089 0.0
2.970669 1.521441 -0.000476 0.0
1.658924 1.657719 0.000250 0.0
2.159766 2.040369 0.001222 0.0
3.137034 1.413830 -0.000838 0.0
3.397651 0.853801 0.001067 0.0
1.989437 1.143702 0.000523 0.0
0.590426 0.503906 -0.007304 0.0
2.936149 0.602834 -0.000022 0.0
1.016076 1.013595 0.000848 0.0
2.428734 0.797326 0.002982 0.0
0.266802 0.106794 -0.001255 0.0
3.776259 0.703611 -0.001757 0.0
3.490554 0.028749 0.000017 0.0
2.465270 0.131647 0.001175 0.0
2.261770 1.263858 -0.004463 0.0
1.967510 1.367672 0.000247 0.0
1.016638 1.259004 0.001705 0.0
2.501037 0.371451 0.004132 0.0
0.588913 0.630040 -0.003937 0.0
2.127480 2.270847 0.000002 0.0
3.469859 2.110340 -0.002529 0.0
1.755803 1.505575 0.000554 0.0
0.938906 1.900251 0.002330 0.0
1.775179 2.438609 -0.000259 0.0
2.946652 0.410179 -0.001047 0.0
1.254361 0.844215 -0.002624 0.0
1.077382 2.383035 -0.000295 0.0
2.255949 0.953303 0.003790 0.0
0.893394 0.821599 0.000663 0.0
3.105931 0.193307 0.001330 0.0
3.452030 0.808003 -0.001384 0.0
0.426758 0.097954 -0.001749 0.0
1.059458 1.512991 -0.000673 0.0
0.003649 0.177716 -0.001734 0.0
1.321543 1.943157 -0.001263 0.0
0.089948 1.637920 0.001487 0.0
0.237766 0.303612 -0.001343 0.0
0.016454 0.670297 0.000946 0.0
0.208687 0.758642 -0.001094 0.0
3.722455 0.096585 0.004492 0.0
2.027571 0.966870 -0.001160 0.0
0.995778 0.094407 -0.001784 0.0
0.352442 1.510365 -0.000860 0.0
2.442846 1.000793 -0.000882 0.0
1.699739 2.172407 -0.003408 0.0
2.796995 0.525966 -0.001285 0.0
2.826231 1.493458 -0.003166 0.0
1.921177 2.441541 0.001160 0.0
2.331782 2.208870 -0.001149 0.0
1.179641 0.141822 0.000512 0.0
0.912016 1.823680 -0.005562 0.0
0.635049 1.119778 0.004871 0.0
2.487545 1.288905 0.000537 0.0
1.297030 0.021070 0.002788 0.0
1.501062 0.222410 0.000716 0.0
1.383696 2.025203 0.001863 0.0
3.471673 2.153669 -0.001356 0.0
2.117439 1.122035 -0.000991 0.0
2.013238 1.630679 -0.000927 0.0
3.724264 0.748319 0.002460 0.0
3.795342 0.017503 0.001113 0.0
3.225420 2.321680 0.002277 0.0
1.333776 1.878931 0.002221 0.0
2.159797 2.033869 0.000102 0.0
3.725066 2.145776 0.003374 0.0
4.169707 2.145755 0.004029 0.0
2.713657 0.422431 0.001237 0.0
4.122937 0.278559 -0.002614 0.0
2.209851 1.321456 -0.004524 0.0
4.231414 0.317122 -0.000970 0.0
2.740543 1.700942 -0.001539 0.0
4.203086 1.720617 -0.003525 0.0
4.123342 0.352028 0.000937 0.0
2.972598 0.999043 0.001647 0.0
0.859775 2.192213 0.000703 0.0
4.085825 2.349103 0.003042 0.0
0.721416 0.061656 0.002635 0.0
4.049794 1.119165 0.001129 0.0
0.318568 0.762065 0.000510 0.0
1.180418 1.008611 0.002020 0.0
2.318212 1.533442 0.000873 0.0
1.439412 1.782526 0.001451 0.0
0.770865 1.565961 -0.004091 0.0
3.670803 1.848673 -0.001065 0.0
2.568105 0.929304 0.002878 0.0
2.915778 1.848568 -0.000499 0.0
1.517877 2.260723 0.003677 0.0
0.965300 2.205275 0.000863 0.0
0.712590 2.205314 0.004236 0.0
4.237719 2.068246 0.002195 0.0
1.843497 1.835234 0.003638 0.0
3.038690 1.793737 -0.000458 0.0
3.281778 1.076604 -0.000671 0.0
0.447650 0.297962 -0.000840 0.0
4.093296 0.481522 -0.003055 0.0
3.752110 1.679965 0.000959 0.0
0.083502 0.168513 0.000699 0.0
0.880908 0.795659 -0.001990 0.0
2.416649 1.890743 -0.000957 0.0
0.502194 2.002761 0.000696 0.0
0.814939 2.298965 0.002764 0.0
1.856205 1.966275 0.001366 0.0
0.735729 1.102515 -0.001427 0.0
2.398774 0.819625 0.001716 0.0
2.167056 1.458936 -0.000397 0.0
0.338500 1.018934 0.003143 0.0
4.208495 1.769668 -0.000009 0.0
2.324502 0.459563 -0.001889 0.0
1.595925 2.085123 0.001608 0.0
2.718513 0.628410 -0.001799 0.0
0.172662 0.486908 -0.001786 0.0
0.118011 1.644107 0.000531 0.0
2.328509 1.914066 -0.001075 0.0
3.360423 1.177879 -0.001484 0.0
3.860239 2.147800 0.002204 0.0
1.480558 2.154940 0.003312 0.0
1.787075 1.208360 0.001570 0.0
0.332136 1.920208 0.002563 0.0
1.641301 1.983851 -0.004553 0.0
0.572984 1.217219 0.000123 0.0
1.821567 1.004862 -0.003040 0.0
2.293515 1.708303 -0.002301 0.0
0.618748 2.170542 -0.002010 0.0
0.374620 0.063389 0.000759 0.0
1.598438 2.403387 0.000553 0.0
3.130732 1.785962 -0.000046 0.0
2.743734 0.914515 0.000284 0.0
1.681088 0.482255 0.000323 0.0
3.870611 0.465885 -0.001959 0.0
0.083820 1.730045 0.004694 0.0
0.046595 1.276016 -0.003720 0.0
2.231719 1.383316 -0.001751 0.0
1.530879 0.330502 0.000423 0.0
3.685375 1.972364 -0.004610 0.0
2.205441 0.868742 -0.000134 0.0
3.921082 0.159796 0.002837 0.0
0.233930 0.017854 0.001455 0.0
0.546873 2.287178 0.000437 0.0
3.083085 2.332101 0.001098 0.0
1.570870 1.851582 0.000957 0.0
3.936809 0.450333 0.000857 0.0
0.093897 0.510696 0.003210 0.0
2.648973 0.576219 -0.004172 0.0
4.019945 1.841215 0.001451 0.0
1.448451 0.447664 0.001299 0.0
4.213373 1.939278 0.002303 0.0
1.236623 1.553963 0.000925 0.0
0.232638 1.142877 -0.001286 0.0
1.288460 1.796369 -0.002557 0.0
2.990938 0.117645 0.001286 0.0
0.669510 0.314395 0.001591 0.0
2.789072 0.342046 -0.000564 0.0
2.445899 1.544171 -0.001381 0.0
3.114494 1.741292 -0.001162 0.0
1.878963 0.715072 -0.002530 0.0
0.037477 2.043547 -0.001927 0.0
2.671534 0.385357 0.001540 0.0
3.599121 2.399915 0.000773 0.0
3.527640 1.362504 0.005576 0.0
1.316132 1.142427 0.002794 0.0
1.801703 0.194850 0.002321 0.0
0.742500 0.065924 -0.002159 0.0
2.321089 0.855692 -0.000554 0.0
0.025517 0.485865 0.001682 0.0
1.308107 1.170220 0.000149 0.0
1.030025 0.456278 0.000243 0.0
2.481877 1.199738 -0.000338 0.0
0.565589 1.585155 0.003643 0.0
1.101770 1.918250 -0.001132 0.0
1.629606 2.064542 0.003707 0.0
0.173644 0.427563 0.001495 0.0
3.891784 0.410873 0.001082 0.0
4.008484 0.995148 0.001497 0.0
2.976738 1.913712 -0.000433 0.0
1.077488 2.189399 -0.002935 0.0
1.659360 2.307570 -0.000874 0.0
1.942912 0.777454 -0.001887 0.0
3.210824 0.867605 -0.002913 0.0
1.515643 2.336106 0.001282 0.0
2.684339 0.390762 -0.003084 0.0
3.662803 0.429002 -0.000365 0.0
2.303093 1.074880 0.000749 0.0
3.055199 1.136203 -0.005673 0.0
1.635512 1.671344 0.000532 0.0
2.666648 1.528794 -0.001203 0.0
1.007261 0.226914 0.001312 0.0
2.053296 0.118784 -0.003827 0.0
0.047552 1.734276 0.003269 0.0
2.549434 2.355354 -0.002504 0.0
2.746346 2.113235 -0.000452 0.0
1.392429 1.864809 0.005602 0.0
3.813195 0.333457 -0.002432 0.0
0.724241 0.032420 0.001605 0.0
4.108523 0.168347 -0.003646 0.0
0.478078 1.833801 0.001405 0.0
2.427921 1.826527 -0.003370 0.0
1.342241 0.847649 -0.002275 0.0
3.615440 2.003564 -0.003012 0.0
1.609630 0.478863 0.001335 0.0
3.900529 0.285748 0.000215 0.0
1.232416 0.656140 -0.002623 0.0
2.254829 0.424839 -0.004769 0.0
1.019624 1.981728 -0.001215 0.0
3.024441 1.213780 0.002011 0.0
2.759781 1.865789 0.001031 0.0
3.540867 1.006529 -0.000864 0.0
1.848489 1.860833 0.003001 0.0
3.363806 2.391658 0.001235 0.0
2.268491 0.825442 -0.003293 0.0
2.169013 0.745768 0.004814 0.0
0.406316 1.007039 0.001017 0.0
4.139199 0.325573 0.004514 0.0
2.565966 1.808790 0.001736 0.0
2.504418 2.177399 -0.003007 0.0
1.106759 0.468000 -0.001548 0.0
3.525578 1.609327 -0.000946 0.0
2.095583 2.450566 -0.000508 0.0
0.014094 0.859014 0.003999 0.0
3.584476 1.507274 -0.002948 0.0
2.315392 0.509037 0.000271 0.0
2.474022 0.295184 -0.007247 0.0
1.281922 1.426589 0.000678 0.0
1.034040 0.548521 -0.004908 0.0
0.648029 0.925764 -0.000314 0.0
2.827773 0.080764 -0.000376 0.0
0.897157 1.128281 -0.000516 0.0
0.210664 2.102517 -0.002576 0.0
1.769997 0.121628 0.001684 0.0
1.531775 2.235093 -0.003387 0.0
3.286442 2.314455 0.001910 0.0
2.941000 0.177507 -0.000880 0.0
0.819202 1.386874 -0.002769 0.0
2.048272 1.929499 0.002877 0.0
3.631371 0.677149 0.000389 0.0
0.901506 1.924918 -0.004684 0.0
1.538610 2.097414 0.001457 0.0
2.840568 1.694641 -0.003021 0.0
3.060229 2.210450 0.003026 0.0
2.736489 0.986217 0.001122 0.0
2.891856 0.401987 0.002213 0.0
0.561188 1.912506 -0.002737 0.0
0.180677 0.920562 -0.000137 0.0
1.543172 0.226581 -0.002713 0.0
3.795513 0.191389 -0.001278 0.0
2.091092 0.866879 -0.002159 0.0
1.350094 1.548463 0.000176 0.0
3.394779 0.395470 0.000402 0.0
3.454643 0.320406 -0.000129 0.0
1.773292 0.747160 -0.003780 0.0
2.241056 0.475633 -0.000021 0.0
0.842860 0.464288 0.002069 0.0
3.442731 0.558393 0.001338 0.0
1.682474 0.164563 0.000129 0.0
2.427326 0.433423 -0.003532 0.0
0.431032 1.446554 0.003981 0.0
0.073777 1.157245 0.000789 0.0
1.879868 1.903786 -0.000371 0.0
3.440195 2.042286 -0.000774 0.0
2.631402 1.928076 -0.000719 0.0
0.460008 0.390645 -0.000598 0.0
0.962009 0.836345 0.000606 0.0
1.154225 2.030547 0.005451 0.0
1.982085 2.422457 0.000120 0.0
3.572617 2.214660 0.000380 0.0
1.808986 1.788217 0.003344 0.0
0.005966 1.808420 -0.000703 0.0
2.466805 1.630441 0.002504 0.0
1.959335 2.005748 0.000015 0.0
1.251132 1.586493 -0.002663 0.0
2.908141 1.369220 0.002422 0.0
3.529063 0.570749 0.003658 0.0
3.013935 0.631331 -0.000181 0.0
2.476103 1.790618 -0.001614 0.0
2.078754 2.305265 0.003123 0.0
0.441301 2.288444 -0.001969 0.0
0.962562 1.944423 -0.006254 0.0
0.299219 2.038346 -0.000864 0.0
1.551050 0.680060 0.000013 0.0
2.274022 1.610165 0.002687 0.0
3.833877 0.281827 -0.000987 0.0
4.083950 0.644924 0.005152 0.0
3.987412 1.777377 -0.000546 0.0
2.586806 2.255477 -0.007371 0.0
2.448552 0.774909 -0.000582 0.0
2.828227 2.035780 -0.000038 0.0
2.599523 1.807110 -0.001322 0.0
2.896734 0.684987 0.001981 0.0
2.593874 1.605563 0.001649 0.0
1.682948 2.297497 0.000238 0.0
2.008114 0.418839 -0.000358 0.0
0.219621 0.302745 0.002680 0.0
2.880332 0.590319 0.003222 0.0
1.454595 1.755793 -0.002238 0.0
3.644498 0.588174 0.000297 0.0
1.434540 2.204328 0.000648 0.0
1.036685 1.232776 0.004041 0.0
2.871683 0.270581 -0.002168 0.0
1.425098 1.980268 0.000717 0.0
3.354359 0.855009 -0.003275 0.0
1.849907 1.234169 0.001134 0.0
4.156764 0.394269 -0.002470 0.0
0.336919 1.390670 0.000345 0.0
3.381331 1.589477 0.000512 0.0
3.091265 1.713924 0.002658 0.0
2.404350 0.216039 0.001548 0.0
2.186891 0.538134 0.000133 0.0
4.167861 1.973471 0.002439 0.0
1.228456 0.191659 0.000487 0.0
4.144358 1.979976 -0.000463 0.0
1.250735 0.705556 -0.002882 0.0
2.024489 0.269903 0.002790 0.0
3.900455 0.824958 0.001594 0.0
0.902229 2.354782 -0.000075 0.0
1.774905 1.731883 -0.000688 0.0
3.824250 2.283073 0.002326 0.0
2.966936 0.718554 0.002523 0.0
3.608531 2.325742 -0.002264 0.0
0.405585 2.157953 -0.001147 0.0
3.511357 1.950271 -0.002044 0.0
0.110343 0.952872 0.000637 0.0
1.130077 1.166539 0.002223 0.0
0.679373 1.255172 0.003939 0.0
3.944813 1.341295 -0.000067 0.0
1.415517 0.949891 0.000665 0.0
2.841494 1.085038 -0.002614 0.0
3.051437 0.227492 -0.000971 0.0
1.171339 0.174590 0.000075 0.0
1.932037 2.202208 0.002077 0.0
1.323105 0.341636 0.000465 0.0
1.542959 0.969957 0.005786 0.0
0.566706 0.233793 0.000333 0.0
1.620303 0.030453 0.002202 0.0
1.995891 1.931693 -0.001949 0.0
3.935492 0.387818 -0.002339 0.0
0.965934 2.060138 0.002300 0.0
3.740954 2.104647 -0.000099 0.0
4.247502 0.919384 -0.000533 0.0
2.856663 1.650626 -0.002211 0.0
0.039390 2.343021 0.003308 0.0
2.491708 1.198454 -0.001116 0.0
3.674178 1.546627 -0.001575 0.0
0.813691 1.436053 0.004351 0.0
0.879539 1.272512 0.002881 0.0
3.692802 0.011866 -0.000080 0.0
1.706757 0.494003 0.002831 0.0
0.023294 0.226875 -0.000113 0.0
1.680509 1.656060 0.001106 0.0
0.452570 1.106517 0.002226 0.0
1.215980 0.335293 0.007471 0.0
2.835816 1.105794 -0.004293 0.0
0.494229 1.842529 -0.003136 0.0
3.273801 1.941824 0.001884 0.0
3.802881 1.279442 0.001401 0.0
3.569533 0.861079 -0.000146 0.0
2.470567 1.769515 -0.001809 0.0
1.638583 0.305500 -0.002538 0.0
4.227043 1.005520 -0.000102 0.0
1.460450 1.920917 -0.000179 0.0
3.309436 1.849338 0.003179 0.0
3.562778 0.600205 0.003690 0.0
2.933539 0.494776 -0.003088 0.0
2.167564 1.945137 0.002647 0.0
0.973077 0.439137 -0.002239 0.0
2.589097 1.156483 0.002182 0.0
3.391279 0.815314 0.001064 0.0
0.802173 0.380506 0.002715 0.0
0.714832 0.188413 -0.001479 0.0
1.708198 0.358799 0.006053 0.0
0.671922 2.133944 -0.003349 0.0
2.461919 1.465982 -0.004340 0.0
3.571023 2.029736 -0.003339 0.0
0.657847 2.353036 -0.002525 0.0
1.245918 2.393341 0.000132 0.0
0.564210 1.393903 0.002033 0.0
1.439555 1.764438 0.000441 0.0
4.016775 1.710072 -0.003347 0.0
3.882769 0.286042 0.002779 0.0
2.211266 2.337500 0.001210 0.0
2.446095 1.364119 -0.000748 0.0
1.959325 0.878227 0.004630 0.0
2.614445 2.053635 -0.002727 0.0
3.952915 1.475050 0.001707 0.0
1.402384 0.075048 -0.003672 0.0
3.122787 1.478556 0.002754 0.0
2.813865 0.705892 -0.003510 0.0
2.585359 2.271072 -0.000498 0.0
1.503685 0.269912 0.001057 0.0
3.403447 0.402686 -0.002742 0.0
0.840120 1.714143 0.003025 0.0
3.532919 2.050493 -0.002584 0.0
0.491856 2.402305 0.003780 0.0
0.679437 1.050847 -0.001931 0.0
2.290470 0.786238 -0.000799 0.0
0.805782 1.768502 -0.000488 0.0
2.436017 1.701543 -0.001457 0.0
2.934053 1.172194 0.000823 0.0
2.982670 0.950968 0.003315 0.0
2.929889 0.891636 -0.001277 0.0
2.450098 0.236266 -0.002255 0.0
0.202774 2.296234 -0.001598 0.0
2.675801 1.954960 -0.002568 0.0
2.287475 1.905974 0.007821 0.0
1.773459 2.246647 0.001221 0.0
0.716105 0.214474 -0.000618 0.0
2.514810 0.086317 -0.005197 0.0
3.165393 0.752521 -0.000638 0.0
1.897660 0.148003 -0.001050 0.0
2.312132 0.878253 0.000139 0.0
2.094776 0.386551 -0.000046 0.0
1.075243 1.306220 0.002122 0.0
3.031853 0.273006 -0.001332 0.0
1.996474 1.679730 -0.002903 0.0
1.660093 1.252439 0.004009 0.0
1.896975 1.528747 -0.000752 0.0
1.500377 0.450498 0.002194 0.0
1.549187 1.371106 -0.000027 0.0
3.962246 1.144113 -0.003024 0.0
2.950710 2.024855 0.001568 0.0
1.167977 1.690664 0.000037 0.0
3.592607 1.051813 0.001386 0.0
3.831233 0.033247 -0.000723 0.0
3.434431 1.517512 -0.002727 0.0
2.914991 0.766219 -0.002223 0.0
0.799986 2.084272 -0.000283 0.0
3.225379 0.579973 -0.001865 0.0
1.565333 0.087048 -0.001900 0.0
2.756506 0.287676 0.002143 0.0
1.064615 2.296889 0.000383 0.0
4.105308 1.690019 0.000133 0.0
1.545199 1.486917 0.002873 0.0
0.325925 0.074328 -0.005820 0.0
2.414945 0.816884 -0.003345 0.0
4.180482 2.072239 0.001105 0.0
0.068310 1.927584 -0.005903 0.0
2.984117 0.089714 0.003217 0.0
2.154708 0.252846 -0.001727 0.0
1.591917 0.714490 -0.001180 0.0
3.125562 1.332848 -0.001932 0.0
3.860200 0.372378 -0.005677 0.0
1.881138 0.100987 0.000925 0.0
0.594061 2.410284 -0.000863 0.0
1.159553 2.439868 -0.001885 0.0
0.641868 2.149462 0.001443 0.0
3.029508 1.674015 -0.001622 0.0
3.942506 0.932057 0.004138 0.0
1.835156 0.646730 0.000454 0.0
0.137115 0.563611 0.002066 0.0
2.630790 1.592509 0.000992 0.0
2.807809 2.399046 -0.004873 0.0
0.172253 1.789683 0.001460 0.0
3.453044 1.078692 0.000434 0.0
2.276185 1.536106 0.000457 0.0
2.758528 2.078239 -0.001549 0.0
0.454278 0.798693 -0.003261 0.0
0.826945 0.718568 0.002026 0.0
2.134872 1.035366 -0.001163 0.0
2.083237 0.181915 0.003309 0.0
1.629465 2.247552 0.004474 0.0
4.208263 0.780597 0.000517 0.0
3.096017 1.533188 0.000185 0.0
1.853230 2.241677 0.002381 0.0
3.666805 0.578383 0.002359 0.0
3.539876 0.771162 0.001640 0.0
1.114416 0.279362 0.003814 0.0
4.095569 1.039626 0.003316 0.0
2.235342 1.740618 0.000462 0.0
3.424899 0.875483 -0.000639 0.0
1.879016 1.110456 -0.002598 0.0
0.687542 0.924518 0.002904 0.0
3.357948 0.941862 -0.001701 0.0
0.704609 0.628724 0.000690 0.0
3.006166 0.400549 -0.001636 0.0
0.439001 2.394056 0.002490 0.0
2.582226 1.849986 -0.002268 0.0
4.109992 1.998234 -0.001616 0.0
3.600633 1.962822 0.002146 0.0
0.421338 2.360872 0.000714 0.0
4.209846 0.694252 0.000493 0.0
2.427298 0.303933 0.003070 0.0
3.000832 0.929803 -0.000749 0.0
2.860450 0.388428 0.003983 0.0
1.148263 0.361020 0.002182 0.0
1.139462 0.169245 -0.000677 0.0
0.942066 0.141716 -0.000605 0.0
3.202294 1.977148 -0.000744 0.0
1.577910 1.255243 0.002877 0.0
2.240017 0.436346 0.004282 0.0
2.207917 1.427833 0.001537 0.0
1.031072 1.473502 0.002199 0.0
3.686410 1.668459 0.001353 0.0
3.998777 1.612670 -0.001419 0.0
2.540883 0.705027 0.003829 0.0
4.229210 0.022540 -0.002522 0.0
1.488781 0.548158 -0.001218 0.0
1.554731 0.845910 0.000173 0.0
1.227853 2.353965 0.001946 0.0
3.884247 2.081635 0.003365 0.0
2.434322 1.997839 -0.000151 0.0
2.949103 2.396469 -0.002597 0.0
4.059516 1.770557 -0.000910 0.0
3.285175 0.212308 -0.002239 0.0
1.301323 1.495953 0.002550 0.0
0.380949 1.253872 0.002614 0.0
3.932111 1.552677 -0.000137 0.0
0.648074 0.960638 -0.002408 0.0
1.500838 2.217223 -0.001247 0.0
0.700716 0.445505 0.003057 0.0
3.379754 0.931669 0.002173 0.0
3.999190 1.571498 -0.000824 0.0
2.051769 2.352005 -0.005288 0.0
1.534335 1.362147 -0.005424 0.0
2.842060 0.621038 0.000956 0.0
4.155961 1.629233 -0.003253 0.0
1.134160 0.740531 0.003157 0.0
2.852518 2.033478 -0.000421 0.0
0.881083 2.229697 0.001944 0.0
0.671989 0.331931 -0.006133 0.0
2.104348 0.604372 0.002423 0.0
2.558381 1.573921 0.001225 0.0
4.214391 1.491539 -0.003563 0.0
1.947518 2.153393 -0.000321 0.0
1.978828 1.645101 0.000358 0.0
0.718393 1.409821 0.004806 0.0
1.400406 1.965837 0.000910 0.0
0.713097 1.225910 0.002245 0.0
1.402968 1.399531 0.000486 0.0
3.081298 0.747296 0.002294 0.0
0.963877 0.434295 0.002309 0.0
2.249218 0.347252 -0.000667 0.0
0.061285 1.041978 0.004028 0.0
1.367348 0.311549 -0.003499 0.0
0.581101 1.507107 0.000123 0.0
2.654944 0.733768 -0.000797 0.0
3.542146 2.278874 -0.000009 0.0
2.653899 1.941886 0.000187 0.0
0.047576 2.355244 -0.001633 0.0
3.559103 0.235245 -0.001020 0.0
3.014537 0.803566 0.002813 0.0
3.786137 2.013973 0.000674 0.0
3.666346 1.688654 -0.002375 0.0
4.216244 1.893152 -0.002021 0.0
1.816151 1.065503 0.001291 0.0
1.991397 1.964478 0.003011 0.0
1.142386 0.643429 0.000814 0.0
3.565770 1.089294 0.001707 0.0
1.880261 1.351329 0.000286 0.0
3.584463 0.389201 -0.004823 0.0
3.229787 1.302298 -0.000993 0.0
0.609468 0.893144 -0.005008 0.0
1.879561 0.908827 0.000814 0.0
0.923720 1.479399 0.002496 0.0
3.334759 1.818545 -0.000853 0.0
3.995401 2.205161 0.000642 0.0
0.652605 0.806584 0.001892 0.0
2.015840 1.532909 -0.002865 0.0
3.282680 1.092022 0.000356 0.0
2.386857 0.316644 0.003893 0.0
0.494585 1.059719 0.001293 0.0
1.081891 0.963807 0.000664 0.0
1.815789 2.306976 -0.002390 0.0
1.986182 1.642785 0.000463 0.0
1.673197 1.126294 0.003330 0.0
3.030976 1.410642 -0.004030 0.0
3.420150 1.560784 0.000079 0.0
0.371774 2.000569 -0.001224 0.0
3.300882 2.080808 -0.000274 0.0
2.500745 1.627097 -0.002416 0.0
3.755021 1.583231 0.000725 0.0
1.753086 0.086271 -0.001765 0.0
3.093158 0.184099 0.002603 0.0
0.175714 1.588059 -0.002036 0.0
0.806712 2.343534 -0.002417 0.0
3.207430 2.316187 -0.000499 0.0
3.166818 1.218355 -0.000735 0.0
2.866775 0.013749 -0.002190 0.0
1.900380 1.566026 -0.001876 0.0
2.977102 1.820708 0.006531 0.0
0.818135 2.078185 -0.005873 0.0
1.623344 1.010646 0.002472 0.0
2.094774 1.150785 -0.000130 0.0
0.383657 2.029844 -0.005510 0.0
1.181737 1.508765 -0.001391 0.0
0.632166 1.281801 0.002234 0.0
2.135819 1.445576 0.002406 0.0
2.053805 1.549499 0.001489 0.0
1.818577 2.165533 0.001229 0.0
4.070352 0.545243 0.001718 0.0
0.795283 2.155028 -0.001942 0.0
3.181715 2.368195 0.001744 0.0
2.097329 0.947555 -0.001873 0.0
3.301221 2.107633 0.003107 0.0
0.198639 2.163714 0.000360 0.0
0.342684 0.256131 0.003071 0.0
2.198257 2.054001 -0.000169 0.0
3.239817 2.270594 -0.000257 0.0
1.590568 2.370285 0.002083 0.0
0.935442 0.353932 -0.002661 0.0
2.482909 0.209685 0.001236 0.0
0.853928 0.987221 -0.000349 0.0
2.231841 0.871249 0.002930 0.0
0.356104 1.074491 0.001107 0.0
0.054231 0.068965 -0.000614 0.0
3.340082 0.737768 -0.000074 0.0
0.137940 2.024198 -0.001206 0.0
0.486199 0.806159 0.003755 0.0
4.114152 2.401078 -0.001043 0.0
0.805463 0.293880 -0.002207 0.0
4.230637 0.870007 -0.004279 0.0
4.023253 0.794561 -0.000546 0.0
1.846499 1.802292 -0.001284 0.0
3.728268 1.833667 -0.000678 0.0
2.714749 1.454648 -0.002669 0.0
3.493189 1.870708 -0.001265 0.0
1.527606 1.063113 -0.002670 0.0
1.977799 2.307304 -0.002005 0.0
3.070714 2.112366 -0.000054 0.0
2.062962 1.271132 0.001140 0.0
2.567299 0.722091 0.002761 0.0
3.906890 0.473457 0.001280 0.0
3.403890 0.970931 0.001089 0.0
3.722802 2.002631 -0.002091 0.0
0.124427 2.193626 0.002374 0.0
0.090085 0.851552 -0.001912 0.0
1.560096 1.597209 0.001383 0.0
3.319755 0.942545 0.003213 0.0
2.416897 1.856086 0.003066 0.0
1.982549 1.107139 -0.003248 0.0
2.582002 2.235812 -0.002681 0.0
2.437586 0.394872 -0.003868 0.0
1.690143 1.263788 0.003881 0.0
1.561872 0.400103 -0.000815 0.0
1.066215 1.469772 0.000394 0.0
2.003617 0.756585 0.001191 0.0
2.270546 1.197623 0.002710 0.0
0.479369 1.447952 0.002891 0.0
0.760514 0.744248 0.000579 0.0
0.140803 1.687327 0.000677 0.0
0.509521 2.032770 0.001644 0.0
0.559014 0.826353 0.002668 0.0
4.102327 1.226970 -0.002383 0.0
3.441792 0.093148 0.000374 0.0
3.738737 0.603303 -0.000811 0.0
3.788219 1.349830 -0.005695 0.0
2.919976 2.219702 0.000940 0.0
4.230747 1.743896 0.002741 0.0
2.589797 1.604449 -0.000587 0.0
1.074880 0.488162 0.000974 0.0
2.404153 2.399118 -0.003837 0.0
2.523434 2.338515 -0.004416 0.0
2.864868 1.782126 0.001284 0.0
3.359236 0.512599 0.001650 0.0
2.961410 0.375565 -0.000749 0.0
3.933003 2.242791 -0.003373 0.0
3.574523 1.898151 0.000912 0.0
2.857660 0.679149 -0.000379 0.0
0.279507 0.969985 -0.000679 0.0
3.237005 1.826695 0.000332 0.0
2.563265 0.359119 0.002912 0.0
1.834859 0.832059 0.004347 0.0
0.098277 2.351303 -0.004569 0.0
0.646179 1.928397 0.000297 0.0
2.602747 2.026825 0.001590 0.0
2.899274 2.257921 0.002338 0.0
0.778863 0.892895 -0.000570 0.0
3.824919 0.023400 0.003461 0.0
2.043986 2.032209 -0.001630 0.0
4.146427 0.294371 -0.001382 0.0
1.285347 2.437733 -0.002499 0.0
1.822934 0.095767 0.000393 0.0
3.146963 1.786713 0.000970 0.0
1.000560 1.079164 -0.001180 0.0
1.815810 1.663033 -0.000908 0.0
2.277371 1.645171 -0.002857 0.0
2.351729 2.338510 0.004280 0.0
3.426699 0.385715 -0.002317 0.0
0.251575 2.128892 -0.003528 0.0
0.583407 0.707997 0.001594 0.0
3.397122 1.796022 -0.005977 0.0
0.476690 2.139948 0.002029 0.0
3.711802 0.346351 0.000487 0.0
0.210621 1.953231 0.000479 0.0
3.622183 1.205324 0.001705 0.0
2.208747 0.017693 0.000147 0.0
2.321509 0.859396 -0.002583 0.0
2.899967 0.410093 0.004834 0.0
0.144735 0.385234 -0.000873 0.0
0.045331 1.037710 0.002593 0.0
0.109725 0.421883 -0.003183 0.0
2.733512 1.860015 0.002310 0.0
2.169939 0.486433 -0.006284 0.0
0.789679 2.418440 0.001910 0.0
3.708477 2.097023 0.000849 0.0
3.500128 2.161238 0.001715 0.0
2.213084 2.021967 0.002260 0.0
3.217550 2.003497 -0.004787 0.0
2.028996 1.347469 0.002089 0.0
0.264268 2.255850 -0.000640 0.0
0.845393 2.398366 0.002031 0.0
3.641250 0.437426 0.001199 0.0
2.534646 1.943491 -0.001320 0.0
1.297061 1.086628 -0.001441 0.0
1.390927 0.855715 -0.000779 0.0
1.648469 0.442635 0.002915 0.0
0.833166 0.001885 -0.001444 0.0
0.406656 1.280668 0.000182 0.0
3.949416 0.207853 0.002572 0.0
0.139348 2.164345 0.002577 0.0
0.318142 2.194609 0.000327 0.0
1.653289 0.532631 -0.000680 0.0
3.741910 1.539485 -0.000734 0.0
3.015024 0.700549 -0.001264 0.0
3.345811 1.974321 0.000040 0.0
3.184560 2.425745 0.002708 0.0
0.129257 1.477267 0.000001 0.0
1.168284 1.720313 -0.000060 0.0
1.894185 1.775818 0.002088 0.0
3.838890 2.095808 0.003030 0.0
3.886493 1.516040 -0.002778 0.0
2.507678 0.406012 0.003868 0.0
0.457454 2.235912 0.002668 0.0
0.139175 1.098529 -0.000704 0.0
3.644681 2.147790 0.000252 0.0
1.826203 2.317248 0.002114 0.0
3.848056 2.313994 -0.000601 0.0
1.243459 0.949196 0.003189 0.0
1.604785 0.447674 -0.000002 0.0
1.701002 0.760201 0.001270 0.0
2.626373 2.195247 -0.001239 0.0
1.018981 1.614774 -0.001958 0.0
2.220514 0.146376 -0.004976 0.0
2.184206 1.848356 -0.001179 0.0
3.754744 2.201142 -0.000406 0.0
0.053392 1.241763 -0.003545 0.0
0.122248 1.969364 -0.002510 0.0
2.794796 2.399108 -0.004908 0.0
1.766658 0.193481 -0.001420 0.0
0.284821 0.762474 -0.005847 0.0
4.144411 0.869393 -0.000125 0.0
3.018851 0.302441 0.001645 0.0
0.218048 1.109163 -0.004307 0.0
0.834809 1.069370 0.000452 0.0
3.175225 1.590229 0.002543 0.0
0.158797 0.809606 -0.005301 0.0
0.731259 0.888886 0.000218 0.0
3.502614 0.979964 0.001667 0.0
1.742011 1.694620 -0.004249 0.0
0.167150 0.341889 0.000923 0.0
1.320367 0.208364 0.002573 0.0
1.509880 0.704481 -0.005375 0.0
1.824794 2.316806 -0.000870 0.0
3.659543 2.266205 0.000215 0.0
2.753228 1.191755 0.002235 0.0
1.911038 0.730961 -0.001503 0.0
0.255734 2.348876 -0.002361 0.0
3.417388 1.219185 0.003918 0.0
0.566502 0.296155 0.002127 0.0
2.299897 0.084812 0.000320 0.0
3.402304 1.477832 0.002849 0.0
2.949029 2.099942 -0.000413 0.0
1.856596 1.455666 -0.005229 0.0
2.010035 0.963450 -0.001222 0.0
2.187995 1.676294 -0.001395 0.0
1.826418 0.406642 0.002563 0.0
1.034825 0.982052 -0.000920 0.0
0.751851 1.284926 -0.001273 0.0
0.308135 1.635523 -0.002116 0.0
2.314252 1.308173 -0.000219 0.0
1.232667 1.219784 -0.000491 0.0
2.848137 1.625977 -0.001887 0.0
1.379416 2.191292 -0.005183 0.0
1.539914 0.706068 -0.001888 0.0
2.897948 2.038305 0.000621 0.0
2.408390 0.708010 0.002725 0.0
1.137372 2.105511 -0.004859 0.0
1.818043 1.149701 0.001384 0.0
1.538441 0.954470 -0.000002 0.0
4.217224 1.884676 -0.001777 0.0
2.722383 1.539281 -0.001921 0.0
0.710715 1.456776 0.002093 0.0
1.849309 2.406751 0.003323 0.0
4.184863 0.445140 -0.002286 0.0
2.727200 2.104144 -0.000569 0.0
2.860052 2.376747 0.003898 0.0
1.142048 0.175911 -0.003581 0.0
0.454906 2.004281 0.002828 0.0
0.366059 1.963804 0.001685 0.0
3.261973 1.012386 -0.003965 0.0
1.111890 1.767313 0.000264 0.0
3.040215 1.916097 0.000240 0.0
0.447668 1.740686 -0.000097 0.0
2.661272 1.833442 -0.000578 0.0
0.899231 1.196597 -0.002483 0.0
0.370393 0.761378 -0.000784 0.0
1.871380 2.397577 0.003440 0.0
0.384070 1.636248 0.002705 0.0
3.499362 0.338188 -0.002227 0.0
2.213542 2.103081 0.004702 0.0
0.285446 0.633301 -0.001782 0.0
2.145122 1.952140 0.001201 0.0
3.772514 0.375966 0.000162 0.0
0.163214 0.859895 0.001768 0.0
2.886481 1.866911 -0.002087 0.0
0.191285 1.392252 0.001318 0.0
2.938939 0.228124 -0.000107 0.0
1.755733 0.679544 -0.000674 0.0
1.321148 2.399557 -0.001710 0.0
3.491528 1.495357 0.002462 0.0
0.535430 1.813305 0.003146 0.0
3.513598 0.570873 -0.000727 0.0
2.366450 0.185043 0.000821 0.0
0.766832 1.503439 -0.003793 0.0
3.668385 0.572065 0.003142 0.0
3.569092 0.227486 0.002757 0.0
3.157021 0.166851 0.003813 0.0
1.223641 0.106628 -0.003214 0.0
1.293060 1.560029 0.001389 0.0
4.213554 0.013768 -0.000752 0.0
2.158090 1.873295 -0.000778 0.0
0.488045 0.330230 -0.001369 0.0
1.206461 0.525361 0.001030 0.0
4.187246 1.111864 0.003589 0.0
3.935582 1.836387 0.001377 0.0
3.600696 1.668435 0.004854 0.0
3.186887 2.438512 0.001611 0.0
1.158676 1.244196 0.003275 0.0
4.223739 2.042405 -0.007615 0.0
2.153696 1.966028 0.001810 0.0
2.334786 0.161838 0.000410 0.0
3.347090 1.694749 -0.001129 0.0
0.485278 0.942057 -0.000311 0.0
3.379646 0.197848 0.000609 0.0
1.482728 2.207573 -0.000033 0.0
0.050444 2.411981 -0.001813 0.0
2.792715 2.057560 -0.003902 0.0
1.866606 0.751912 0.000616 0.0
2.649747 2.132854 -0.001787 0.0
0.534241 2.397971 -0.002127 0.0
2.473192 0.885305 -0.001872 0.0
0.713728 1.936994 0.002358 0.0
3.739640 1.911595 -0.003651 0.0
0.241972 1.027742 0.001142 0.0
2.971889 0.261097 -0.000830 0.0
2.661864 1.699735 -0.000313 0.0
3.205477 1.569051 -0.001313 0.0
0.913900 2.213388 0.000620 0.0
2.808072 0.009597 -0.000431 0.0
0.723198 0.811819 -0.001756 0.0
0.322124 0.059683 -0.004425 0.0
2.355701 0.469573 0.000147 0.0
2.301030 2.132595 0.000508 0.0
3.985792 1.362341 0.002963 0.0
3.033616 1.219636 -0.004128 0.0
0.040263 0.433233 -0.005126 0.0
4.187564 0.308896 -0.000590 0.0
2.275734 1.104155 0.004859 0.0
2.138422 0.468807 0.000945 0.0
1.744658 1.860829 -0.000816 0.0
0.214338 1.480849 -0.001246 0.0
0.249245 1.118837 0.001858 0.0
3.814223 1.438987 -0.001065 0.0
0.890559 0.211058 -0.001657 0.0
3.840824 0.114751 0.001275 0.0
3.445904 1.367692 -0.000955 0.0
4.058951 1.376641 -0.003126 0.0
3.652840 1.332409 -0.002077 0.0
0.578097 2.428223 0.000840 0.0
1.126544 0.224848 -0.003262 0.0
1.898099 1.409013 -0.002398 0.0
2.592362 1.521096 -0.000846 0.0
2.855374 2.410594 -0.000511 0.0
1.018771 1.324495 -0.001202 0.0
0.785070 0.435213 -0.003512 0.0
1.487289 1.888860 0.001963 0.0
1.974042 0.599499 0.003370 0.0
1.037069 0.526563 -0.002412 0.0
2.072214 0.999951 0.001774 0.0
1.489948 0.300198 -0.002579 0.0
2.950945 0.711125 -0.000334 0.0
4.178527 1.191541 0.004088 0.0
3.374664 0.331406 -0.000886 0.0
3.420594 0.014738 0.002859 0.0
1.060333 0.056576 -0.000084 0.0
3.328143 1.694641 -0.001804 0.0
3.323815 1.054997 0.000395 0.0
3.188808 1.399896 0.002898 0.0
0.099817 0.042504 0.001529 0.0
2.149145 2.071025 0.000139 0.0
1.256515 2.122239 -0.002552 0.0
3.957542 0.691099 -0.000296 0.0
0.715395 2.328014 -0.000212 0.0
3.150161 2.296311 0.002044 0.0
1.386149 1.911015 0.000586 0.0
3.688373 1.311897 0.002329 0.0
0.661133 2.176177 0.004783 0.0
3.783110 2.088807 0.001595 0.0
0.044011 0.820577 -0.000739 0.0
3.682996 1.557521 -0.002875 0.0
1.269158 1.068021 -0.000819 0.0
1.027727 1.818608 -0.004939 0.0
2.361839 1.793254 -0.000827 0.0
3.284546 1.678948 0.001768 0.0
3.127648 2.347301 0.003311 0.0
1.509387 0.535025 -0.001359 0.0
4.206939 2.278971 0.002185 0.0
3.850117 2.157476 0.002584 0.0
2.672546 0.650265 -0.000355 0.0
1.455213 0.290297 -0.000296 0.0
2.951101 1.762022 0.001047 0.0
3.656946 2.178217 -0.002270 0.0
4.032632 1.827131 0.003273 0.0
0.548396 0.613012 -0.004623 0.0
2.381082 2.192918 0.003220 0.0
0.390762 1.398629 0.002293 0.0
1.946301 1.569416 -0.002253 0.0
2.029723 0.299185 -0.003657 0.0
4.192620 1.504693 0.001598 0.0
0.481918 1.490656 0.001527 0.0
3.799929 1.179121 0.000389 0.0
0.914227 2.096421 0.001028 0.0
0.812287 1.848815 -0.000480 0.0
3.836550 2.237986 0.000683 0.0
3.966502 0.171928 0.001416 0.0
2.455404 0.468524 -0.001005 0.0
3.754156 1.139198 -0.003846 0.0
3.621714 1.797639 -0.002529 0.0
1.887835 2.337242 -0.001740 0.0
0.106796 1.803950 -0.000079 0.0
2.227566 0.845588 -0.003466 0.0
4.038933 2.356080 -0.000063 0.0
0.966567 1.876630 0.000602 0.0
0.741346 0.531877 -0.000384 0.0
2.109627 0.918082 -0.000822 0.0
4.106647 0.614453 0.004416 0.0
1.386026 1.669636 -0.001344 0.0
0.697294 1.244563 -0.000726 0.0
1.287849 0.125993 0.000476 0.0
3.128916 0.254432 0.002997 0.0
4.186442 0.828743 -0.002062 0.0
3.068190 0.276438 0.001753 0.0
3.373051 1.433695 0.000048 0.0
0.777384 2.289284 -0.000873 0.0
4.117169 0.286398 -0.000799 0.0
1.579113 1.017117 0.000812 0.0
3.276244 0.226321 -0.000121 0.0
1.918585 0.691763 0.005559 0.0
3.594846 1.364822 0.000169 0.0
3.887605 1.282271 -0.002549 0.0
3.431197 0.787763 0.002616 0.0
1.073917 1.313690 -0.002868 0.0
2.883608 1.211794 0.001065 0.0
1.977103 0.235593 0.001259 0.0
0.581650 0.634720 0.000607 0.0
1.830428 1.012610 -0.000107 0.0
1.079562 1.734332 0.000372 0.0
2.966361 2.076667 0.004800 0.0
4.062411 0.947191 -0.002955 0.0
1.440219 2.216602 0.000168 0.0
1.372825 0.664406 -0.000887 0.0
3.991139 0.120684 -0.004819 0.0
1.827331 2.263983 0.001023 0.0
3.505109 1.057294 0.002000 0.0
1.253499 1.072096 0.003964 0.0
1.974650 2.317527 -0.000031 0.0
1.862009 1.474743 0.000259 0.0
3.412598 1.644091 -0.002585 0.0
0.348593 1.334637 -0.001980 0.0
1.997356 1.173673 0.001142 0.0
3.142620 0.353063 -0.002163 0.0
2.134674 1.298865 0.001019 0.0
0.014657 1.289767 0.002645 0.0
3.661007 0.763795 -0.001943 0.0
0.215631 1.056264 -0.003490 0.0
0.389378 2.082672 -0.001357 0.0
4.241292 0.698407 0.003197 0.0
2.144435 1.046475 0.002990 0.0
1.582565 0.710108 0.003310 0.0
3.177328 2.087222 -0.002077 0.0
1.202955 2.093167 0.004216 0.0
3.105641 2.331066 0.004624 0.0
3.325875 2.343414 0.002659 0.0
0.673591 0.786878 0.000418 0.0
1.098391 2.244440 0.000738 0.0
3.820341 0.611652 -0.004261 0.0
1.660245 1.860055 -0.004374 0.0
1.849465 2.145228 0.004697 0.0
0.037839 1.697509 -0.000579 0.0
0.236580 1.648374 -0.003664 0.0
1.665036 1.250619 -0.000362 0.0
2.589791 0.367607 0.006946 0.0
2.544932 0.910328 -0.001136 0.0
3.410437 1.002200 -0.001881 0.0
3.262621 0.024560 0.000404 0.0
1.318012 1.309417 0.003481 0.0
3.079479 2.342250 0.000965 0.0
0.248872 0.371198 0.004189 0.0
4.182161 0.189587 -0.001115 0.0
3.497714 0.201775 -0.003358 0.0
3.343687 1.464505 0.000780 0.0
0.908812 1.574315 -0.000182 0.0
1.740259 0.453747 -0.001621 0.0
1.854946 0.703996 0.001468 0.0
2.502549 1.192853 -0.000714 0.0
2.008325 2.232446 0.002263 0.0
3.702842 0.841534 -0.001081 0.0
3.686645 1.769246 -0.000699 0.0
2.881773 0.590329 0.002145 0.0
3.330306 0.484197 -0.002018 0.0
3.966577 0.451837 0.004285 0.0
0.005685 0.068336 0.002003 0.0
3.181189 2.033036 -0.001772 0.0
0.976117 2.163132 0.002956 0.0
0.979062 1.728200 0.005288 0.0
1.700061 1.287119 -0.003174 0.0
2.037810 1.563484 -0.001995 0.0
1.208510 2.305370 -0.004364 0.0
0.525290 0.487001 0.000187 0.0
0.828585 0.113440 -0.000414 0.0
1.830662 1.322773 -0.002871 0.0
0.919364 0.320305 -0.003207 0.0
3.343560 2.194681 0.002252 0.0
4.069163 2.057382 -0.002211 0.0
1.101454 1.951349 -0.005514 0.0
3.759006 1.010633 0.004281 0.0
3.611253 1.481025 -0.002341 0.0
0.452388 1.684756 0.002712 0.0
2.729485 1.069641 0.002342 0.0
3.949160 1.847247 -0.000148 0.0
3.048530 0.759676 0.001137 0.0
1.182956 1.047897 0.000633 0.0
3.875041 1.617535 -0.001014 0.0
2.655021 0.936742 -0.000429 0.0
3.646656 2.351865 -0.000977 0.0
2.963870 1.772009 -0.003358 0.0
2.421090 1.753226 0.000616 0.0
0.755240 2.318148 0.000570 0.0
3.086628 1.548361 0.002620 0.0
0.688248 2.357251 0.004170 0.0
1.591368 1.666197 0.000235 0.0
1.412581 1.627930 0.003377 0.0
3.213928 0.729920 -0.002703 0.0
3.099034 1.169405 0.001177 0.0
1.616234 1.421360 0.002576 0.0
1.150726 0.898685 0.000711 0.0
1.200283 1.928333 0.001850 0.0
4.206461 0.364185 0.003482 0.0
0.251558 1.551984 0.000651 0.0
2.468804 0.673718 -0.001672 0.0
1.111869 0.244921 0.000188 0.0
1.422424 2.016968 0.001259 0.0
3.943990 2.022327 0.001653 0.0
0.473723 0.762111 -0.002117 0.0
3.165989 0.928861 0.001296 0.0
0.899384 2.205592 -0.000922 0.0
2.495866 0.994998 0.004271 0.0
2.585475 0.894780 -0.001098 0.0
3.260701 0.368606 0.000514 0.0
3.762313 1.688862 -0.002693 0.0
3.790875 0.420285 -0.002997 0.0
1.847822 2.044952 -0.004379 0.0
2.241410 1.429393 0.001039 0.0
2.996701 1.657697 0.001283 0.0
1.052282 1.415992 0.002270 0.0
1.131263 2.331596 -0.000429 0.0
1.631254 0.954791 0.000399 0.0
2.809276 1.461880 0.000123 0.0
2.285009 0.840352 -0.000582 0.0
2.401193 2.128788 0.000278 0.0
2.009725 1.089515 0.001388 0.0
2.976193 1.915441 0.000442 0.0
1.403007 0.249813 0.002729 0.0
0.825345 2.364988 -0.002163 0.0
-0.003202 0.922161 -0.000141 0.0
3.132283 0.109182 -0.000533 0.0
0.989356 0.840471 0.003070 0.0
3.005602 1.992736 0.003836 0.0
3.406326 0.008962 -0.001563 0.0
3.879877 1.885134 -0.002235 0.0
3.559232 0.810778 0.001648 0.0
3.133533 1.003830 -0.000021 0.0
2.565265 2.359664 0.001269 0.0
2.325384 1.193537 -0.003680 0.0
1.911204 0.118817 -0.002031 0.0
1.144924 1.995260 0.001211 0.0
3.031711 0.825558 0.001195 0.0
1.099179 0.140755 -0.004632 0.0
1.998442 1.440737 0.003937 0.0
2.076418 0.807644 0.000139 0.0
3.238899 1.757103 0.004161 0.0
2.039695 1.439831 -0.002948 0.0
0.047221 2.232135 0.003797 0.0
1.768943 2.070667 -0.000339 0.0
2.386945 1.936859 0.000872 0.0
0.518522 0.987038 -0.004702 0.0
3.018323 1.789485 0.001279 0.0
2.170560 0.692589 -0.002529 0.0
3.726194 1.741547 -0.000145 0.0
2.952558 0.874224 0.000415 0.0
3.265410 0.583703 0.000182 0.0
3.310552 0.340210 -0.000328 0.0
1.708967 0.564819 -0.003286 0.0
1.937309 1.881703 0.004998 0.0
2.160018 2.316792 -0.001690 0.0
1.632231 1.094658 -0.002520 0.0
1.140435 1.161702 0.000620 0.0
3.288974 2.128030 0.001176 0.0
3.009233 0.491927 -0.000381 0.0
4.094203 0.154451 -0.003964 0.0
3.671175 1.265836 0.004717 0.0
2.286788 2.052229 0.000602 0.0
0.835857 2.039317 0.002796 0.0
3.283159 1.371281 -0.001898 0.0
3.270791 2.312200 -0.001098 0.0
1.902320 0.769472 -0.001458 0.0
4.176876 0.022349 0.002870 0.0
1.890320 0.288219 -0.004345 0.0
2.530837 1.385905 -0.003196 0.0
0.651829 1.741978 0.002310 0.0
3.326563 0.780603 0.006867 0.0
3.028556 0.853239 -0.001631 0.0
2.928886 0.344791 0.000014 0.0
3.270399 0.769014 0.002898 0.0
2.683308 0.772076 0.006190 0.0
2.383443 1.336522 -0.000830 0.0
2.279107 2.198769 0.000096 0.0
3.411450 2.065562 -0.002213 0.0
2.295970 2.306204 0.000609 0.0
2.033014 1.929847 -0.002755 0.0
1.401992 1.678495 0.001014 0.0
1.319742 0.813163 -0.003471 0.0
3.632672 0.302249 0.000106 0.0
2.193116 0.474068 0.005910 0.0
2.496944 2.250974 0.000748 0.0
0.279833 1.003730 -0.003459 0.0
2.700591 0.868478 0.000673 0.0
4.222657 1.550903 -0.001718 0.0
2.399102 0.212829 0.000804 0.0
2.974559 2.227696 0.000101 0.0
3.844903 0.799003 -0.002375 0.0
3.507424 2.033410 0.004491 0.0
0.798334 1.542546 -0.000308 0.0
1.983997 0.752514 0.005635 0.0
3.216703 1.836474 -0.000900 0.0
1.298069 1.774819 0.002473 0.0
3.538826 1.817256 0.007330 0.0
4.249707 0.663538 0.001849 0.0
2.013079 0.604651 0.000087 0.0
2.787433 0.325763 -0.003066 0.0
1.237093 0.844995 -0.001416 0.0
2.059313 2.093009 -0.002088 0.0
0.607250 0.913646 -0.001373 0.0
1.896454 0.864441 -0.000743 0.0
1.483869 0.524752 -0.003583 0.0
2.887623 1.290385 -0.002385 0.0
2.211873 1.813269 -0.002432 0.0
1.614424 1.026125 0.003612 0.0
4.246682 1.408455 -0.002796 0.0
1.687882 0.653985 0.000592 0.0
0.980623 2.364821 0.000724 0.0
2.579361 2.284175 0.003123 0.0
2.880106 0.777644 -0.002448 0.0
3.620254 0.787089 -0.000891 0.0
4.227621 1.590730 0.002064 0.0
0.854256 0.435009 -0.002548 0.0
2.532116 1.819622 0.000441 0.0
3.912869 0.223774 0.001492 0.0
1.658396 1.830143 -0.002963 0.0
0.085083 1.678208 -0.000238 0.0
0.648908 1.031567 0.002444 0.0
3.902324 1.926935 0.003235 0.0
2.790305 0.543157 0.000700 0.0
0.947527 0.739733 0.000670 0.0
0.345264 1.082257 0.000337 0.0
1.467200 1.730417 -0.001342 0.0
0.599735 1.977178 -0.000845 0.0
0.108236 1.447978 0.002437 0.0
2.212779 0.540570 0.000709 0.0
2.324351 0.054398 0.000093 0.0
0.791318 0.811514 -0.003833 0.0
3.266096 2.418527 -0.002035 0.0
3.584345 0.838351 0.001611 0.0
0.429349 1.597954 -0.000773 0.0
3.270610 0.384652 -0.001139 0.0
1.836955 1.541505 0.001081 0.0
0.156399 1.536761 0.002819 0.0
1.493355 0.017565 -0.001987 0.0
2.606837 0.757185 -0.000473 0.0
4.034565 1.828916 0.001822 0.0
0.373668 1.199674 -0.000108 0.0
0.198003 1.572619 0.001665 0.0
2.272175 0.514491 0.001938 0.0
1.521945 1.128118 0.003152 0.0
3.844335 2.263094 -0.001194 0.0
0.430940 1.970130 0.001013 0.0
1.039874 1.374767 0.006140 0.0
3.494382 1.357078 0.005562 0.0
2.359149 2.195716 0.000673 0.0
1.876858 0.059320 0.006065 0.0
0.651904 2.360533 -0.002612 0.0
1.113101 0.851110 0.001963 0.0
1.286794 1.155173 0.000104 0.0
2.690164 1.031312 0.003020 0.0
4.123868 1.798749 0.006077 0.0
3.983466 2.137912 -0.002707 0.0
0.159895 1.032908 0.000606 0.0
2.503705 0.593728 -0.002889 0.0
1.692655 2.157965 0.000098 0.0
4.138340 0.168470 -0.001548 0.0
1.845556 2.301880 0.000038 0.0
1.490369 1.734870 0.001095 0.0
2.499309 0.395079 -0.000901 0.0
0.893055 1.939269 0.000510 0.0
1.431461 0.536888 0.000690 0.0
1.896544 0.184596 0.002574 0.0
4.107421 0.258422 0.004252 0.0
0.227222 1.353252 0.001411 0.0
3.636268 1.727093 0.000383 0.0
4.071020 0.678002 -0.003855 0.0
1.609888 1.612609 0.002917 0.0
3.955285 2.338956 -0.001251 0.0
1.625981 1.969691 -0.001803 0.0
3.787522 2.038355 -0.000106 0.0
1.771011 1.284672 -0.001289 0.0
0.292717 1.847289 -0.000976 0.0
3.372051 2.003181 -0.001002 0.0
0.832070 1.586004 0.003944 0.0
0.692624 1.018599 0.001394 0.0
3.021664 0.852542 -0.001688 0.0
1.966912 1.730388 -0.002541 0.0
1.582169 1.665129 -0.002651 0.0
2.336375 1.774420 0.004084 0.0
2.488954 0.559800 -0.004035 0.0
1.512147 2.029891 -0.001635 0.0
0.559742 0.423681 0.001380 0.0
1.097738 1.236062 -0.000195 0.0
0.964401 2.300487 -0.000336 0.0
4.223776 2.037731 -0.001006 0.0
3.032790 0.220374 0.000281 0.0
1.290268 0.631993 0.004047 0.0
1.484819 1.864408 -0.002744 0.0
0.106363 1.531755 -0.000554 0.0
2.163309 2.430551 0.001316 0.0
0.236832 1.124481 0.001842 0.0
1.980446 1.701980 0.001021 0.0
1.343844 1.743147 0.001345 0.0
4.075676 1.695664 -0.005261 0.0
0.256565 1.484893 -0.001994 0.0
0.884696 1.363130 0.000569 0.0
3.874899 1.106735 0.001148 0.0
3.027518 1.817589 -0.001192 0.0
3.067591 1.599510 0.003728 0.0
