1.248488 1.170762 0.002216 0.0
0.037244 1.223258 0.003795 0.0
0.806754 1.371942 0.005278 0.0
0.632623 1.483861 0.000467 0.0
1.705498 0.113908 -0.001524 0.0
1.272142 1.699655 0.000805 0.0
1.936789 1.825494 0.001314 0.0
2.179392 2.224130 -0.002882 0.0
3.329619 0.930969 -0.000132 0.0
3.660256 0.068644 -0.006640 0.0
4.722608 1.438370 0.002077 0.0
2.883952 2.183628 -0.002304 0.0
3.122818 0.827709 0.001823 0.0
0.121470 0.849727 -0.000245 0.0
3.812630 1.598761 -0.003043 0.0
3.067767 1.368941 -0.003059 0.0
2.158137 1.112752 -0.000950 0.0
2.897184 0.683665 -0.004800 0.0
3.467373 2.180267 0.001166 0.0
0.025700 2.147363 -0.004836 0.0
2.333468 1.963514 0.000871 0.0
2.689216 1.360321 0.001684 0.0
0.999470 2.476028 -0.005979 0.0
0.799613 1.228184 -0.005201 0.0
4.847506 1.948114 -0.001797 0.0
4.636262 1.795554 0.002459 0.0
4.166611 0.548838 -0.000531 0.0
3.474924 0.718423 0.003209 0.0
1.278704 1.664168 0.000906 0.0
2.427765 1.511556 0.003518 0.0
1.928839 1.956071 0.000455 0.0
0.282456 2.258991 0.001132 0.0
2.743233 2.304296 0.003081 0.0
4.815692 2.208329 -0.002003 0.0
2.748281 0.631195 -0.002803 0.0
4.353470 0.214956 -0.000006 0.0
0.494586 1.643926 0.002056 0.0
0.644061 1.237893 -0.001828 0.0
1.985220 2.293742 -0.002315 0.0
2.070344 1.876186 -0.000231 0.0
3.921763 1.615985 0.001100 0.0
0.946506 2.042523 -0.003032 0.0
4.325484 2.074960 0.002914 0.0
2.823169 1.365433 -0.003766 0.0
2.491310 0.462088 -0.002226 0.0
4.819580 1.037668 -0.000669 0.0
3.741987 1.974053 0.002948 0.0
4.317183 2.423310 0.001781 0.0
1.696873 1.661657 -0.001678 0.0
1.968567 0.088005 0.002336 0.0
3.742811 0.797444 -0.002771 0.0
0.355728 0.386929 0.000335 0.0
4.427047 1.832603 -0.003032 0.0
0.006753 1.410673 -0.002712 0.0
2.703145 1.616065 0.004113 0.0
0.088096 2.061336 -0.003068 0.0
1.899663 1.151241 -0.000893 0.0
1.835996 1.728980 -0.003362 0.0
2.915181 0.171890 -0.002226 0.0
0.554604 2.111479 0.002082 0.0
3.595215 1.480454 -0.000930 0.0
3.057240 1.790757 -0.000276 0.0
4.591834 0.065142 -0.000122 0.0
2.889776 1.397790 0.000214 0.0
4.298313 1.360324 0.000118 0.0
3.446144 0.466692 0.001261 0.0
2.808716 1.625680 0.000542 0.0
4.756253 2.140573 -0.001030 0.0
1.865272 0.706239 0.000781 0.0
3.827913 0.540616 -0.000930 0.0
1.528373 0.979326 -0.004504 0.0
2.828337 1.183268 -0.002001 0.0
3.008501 1.619731 -0.000676 0.0
4.237864 1.572310 0.005106 0.0
1.253570 1.443527 -0.001371 0.0
3.723078 0.133358 -0.004279 0.0
1.423861 0.406978 -0.000566 0.0
2.111558 1.033639 -0.001390 0.0
0.888605 1.478362 -0.001532 0.0
0.692984 1.239381 0.000405 0.0
2.427129 0.413742 -0.000526 0.0
3.310386 0.947526 -0.003235 0.0
3.972270 1.243371 -0.001136 0.0
2.434241 1.326764 0.002442 0.0
0.900222 1.780553 0.001585 0.0
0.329597 0.346807 0.001420 0.0
4.403912 1.254000 0.003629 0.0
2.250390 0.476809 0.000041 0.0
1.245232 0.142753 -0.000122 0.0
0.509498 0.828769 -0.000913 0.0
0.922559 0.285700 0.001928 0.0
4.409048 0.632301 -0.002198 0.0
3.313067 0.702131 0.001552 0.0
4.404423 0.369911 0.000751 0.0
4.788599 0.235828 0.000744 0.0
4.305065 1.684947 0.006041 0.0
4.728634 1.615286 0.003494 0.0
0.008468 1.723240 0.004863 0.0
1.723339 1.245137 0.001042 0.0
4.330939 1.799415 -0.006097 0.0
2.285865 0.652518 -0.001326 0.0
2.565236 1.502845 -0.002575 0.0
0.113383 0.132566 0.000650 0.0
3.102639 1.438267 -0.000673 0.0
3.852110 0.269579 0.000627 0.0
4.425157 2.109686 -0.000159 0.0
2.385739 0.882681 -0.000639 0.0
4.190075 2.410320 -0.000737 0.0
0.209517 2.337936 0.002843 0.0
3.304336 1.059206 0.001649 0.0
0.734740 0.746432 -0.001524 0.0
4.750606 1.673736 0.000623 0.0
0.496872 0.105838 0.003770 0.0
0.690059 1.341681 -0.000412 0.0
4.213969 2.101647 0.001122 0.0
1.779203 0.672415 -0.000978 0.0
3.983887 2.236504 -0.002228 0.0
3.287832 0.552755 0.002474 0.0
3.983956 0.655459 0.001569 0.0
2.172245 2.306252 0.001856 0.0
0.686772 1.233936 -0.002275 0.0
2.966485 0.829253 -0.001988 0.0
4.774107 0.330225 -0.000332 0.0
0.498832 0.583104 -0.002079 0.0
3.004462 1.406841 0.006252 0.0
2.469717 1.128894 0.000485 0.0
2.806968 0.675337 -0.002788 0.0
4.795918 1.942397 0.001901 0.0
3.104183 0.034514 0.000467 0.0
3.505445 0.467197 -0.002248 0.0
0.460570 2.242711 0.003499 0.0
3.950505 0.025594 0.000594 0.0
2.744696 2.080237 -0.000662 0.0
0.918984 2.118967 -0.004010 0.0
2.678550 1.141316 0.001475 0.0
4.667346 0.907193 0.001560 0.0
2.349913 1.197671 0.000398 0.0
2.158099 1.188498 -0.000725 0.0
1.677441 0.264695 -0.000325 0.0
3.699442 1.940658 0.003428 0.0
0.057788 1.173470 0.002314 0.0
0.481780 0.905671 -0.000064 0.0
3.901795 1.152361 -0.000828 0.0
1.646076 1.912481 -0.002227 0.0
1.705603 1.121434 0.005244 0.0
0.231833 0.797342 0.000690 0.0
3.813838 0.778819 -0.002053 0.0
3.697319 0.950096 0.002442 0.0
4.637132 1.713218 -0.001556 0.0
2.199865 1.552757 0.001367 0.0
3.491596 1.518589 -0.001927 0.0
4.008947 2.385544 0.001079 0.0
0.052121 0.607670 0.004197 0.0
1.287799 2.025692 0.002199 0.0
4.417623 0.971031 0.000702 0.0
3.669544 1.152753 -0.003681 0.0
4.541759 1.884214 -0.003746 0.0
4.101585 1.986754 0.002248 0.0
3.165866 2.280984 0.000907 0.0
0.404301 0.210324 0.001264 0.0
0.767415 2.035343 0.001005 0.0
2.555836 0.640162 -0.000486 0.0
4.281817 1.597747 0.000659 0.0
4.754056 0.439616 -0.000933 0.0
2.982571 1.560901 0.001312 0.0
3.989672 1.255725 0.002579 0.0
3.997905 1.704325 -0.004396 0.0
3.163289 1.916697 -0.001712 0.0
4.405039 1.465751 0.000330 0.0
2.245489 0.069449 0.000609 0.0
4.071153 0.884439 -0.002957 0.0
2.149882 0.656276 0.001911 0.0
3.630569 1.202994 0.003296 0.0
1.100014 0.943048 -0.000427 0.0
2.612970 0.285943 -0.000833 0.0
3.113782 2.173881 -0.000311 0.0
0.165855 0.372762 -0.000121 0.0
2.147300 0.947121 -0.001298 0.0
0.106062 0.289763 -0.002405 0.0
0.240662 2.436126 0.000137 0.0
2.697308 2.250486 -0.000138 0.0
3.143856 0.600559 0.000127 0.0
3.754635 2.023795 0.005920 0.0
0.185068 0.342776 0.002119 0.0
1.428719 0.531809 -0.001659 0.0
4.337172 0.783011 0.002888 0.0
2.092654 1.275684 0.002049 0.0
0.379628 2.183309 -0.001992 0.0
4.515671 1.289095 0.002037 0.0
3.131695 1.739970 -0.001667 0.0
3.210866 2.274698 -0.000163 0.0
3.535314 1.421109 -0.003687 0.0
2.030079 2.088940 -0.002776 0.0
3.977686 0.815967 0.000454 0.0
3.689661 2.405297 0.002145 0.0
3.536497 0.566105 -0.001646 0.0
0.080253 1.192428 0.002629 0.0
3.934606 1.511824 0.005523 0.0
0.436501 1.352321 0.001223 0.0
4.589567 1.026972 0.004743 0.0
4.514186 2.206418 0.000174 0.0
1.337206 0.624550 -0.001316 0.0
1.103312 0.491737 -0.004664 0.0
1.265746 2.326457 -0.001140 0.0
2.502123 1.246008 0.000074 0.0
4.364368 1.594965 -0.001116 0.0
0.873013 0.555179 0.002228 0.0
2.986491 2.080623 0.005276 0.0
3.638526 1.131134 0.003005 0.0
0.974288 1.884413 0.000000 0.0
0.643512 2.127608 -0.005668 0.0
1.003919 2.147606 -0.000522 0.0
4.553815 0.144715 -0.001681 0.0
0.559243 0.347283 0.002649 0.0
3.940613 1.707049 -0.003565 0.0
1.458040 1.471815 0.001583 0.0
1.428879 1.673251 -0.001867 0.0
1.431376 2.342270 -0.002017 0.0
0.712601 2.450522 -0.006006 0.0
2.200791 2.298484 0.003001 0.0
3.567588 2.455625 0.002274 0.0
2.094413 1.714901 -0.000486 0.0
0.135303 1.252479 0.001107 0.0
3.139760 0.907138 -0.002595 0.0
0.949388 0.931297 0.000234 0.0
4.733705 0.699148 -0.003335 0.0
1.409582 1.542502 -0.000617 0.0
3.015670 1.820877 0.001454 0.0
1.744284 2.076719 -0.001933 0.0
1.803919 1.972045 -0.001427 0.0
2.221291 2.296669 0.000458 0.0
0.519436 0.220985 0.002795 0.0
2.054424 1.982824 0.004430 0.0
2.662650 0.662288 0.003354 0.0
3.831300 0.748636 0.003578 0.0
4.160778 1.909686 0.001609 0.0
4.777240 0.640834 -0.003574 0.0
0.992842 0.077398 -0.000442 0.0
2.996304 0.943885 0.001956 0.0
1.460849 2.024978 0.002861 0.0
4.552577 1.155061 -0.001193 0.0
1.136201 1.272420 0.001306 0.0
3.188937 2.038031 0.000129 0.0
3.416723 2.278345 0.002384 0.0
3.291598 1.519831 0.002951 0.0
3.664280 1.535046 -0.000200 0.0
2.759482 0.664332 0.002894 0.0
2.268415 2.428349 0.000322 0.0
2.833300 1.598596 -0.002334 0.0
3.032437 1.389729 0.001728 0.0
4.681983 2.025487 -0.004782 0.0
1.989303 1.894392 -0.004115 0.0
4.417205 2.027087 0.002704 0.0
1.102767 0.427406 0.001600 0.0
3.690107 0.442518 -0.000343 0.0
4.725087 2.390359 0.003779 0.0
2.841615 1.557542 0.003538 0.0
1.959725 0.218707 0.001621 0.0
2.837916 1.114068 0.000681 0.0
4.185351 1.138033 0.000219 0.0
4.352582 1.898868 -0.003171 0.0
3.218908 1.919157 -0.002923 0.0
0.642503 2.189638 -0.000244 0.0
3.319046 0.929412 -0.001396 0.0
1.387677 1.237043 -0.001605 0.0
4.260040 2.488881 0.002916 0.0
0.748192 1.810099 -0.000191 0.0
2.212288 1.590039 0.003067 0.0
0.490882 1.758710 -0.002652 0.0
1.552864 0.223143 0.002675 0.0
3.765420 0.400761 -0.002410 0.0
2.223047 0.018952 -0.002283 0.0
0.152446 1.566644 -0.003051 0.0
4.364647 1.933777 0.001295 0.0
2.666050 1.947046 0.001109 0.0
2.459424 2.130937 -0.001694 0.0
1.145345 1.153592 0.002708 0.0
1.031405 1.118165 -0.002193 0.0
0.658456 1.048150 -0.000711 0.0
2.124653 1.460268 -0.001381 0.0
2.253940 0.440031 -0.000960 0.0
1.857238 0.532647 0.000429 0.0
3.358829 0.470252 0.001926 0.0
3.828161 0.319175 -0.000657 0.0
3.901906 1.964278 0.004673 0.0
2.310826 1.839945 -0.004150 0.0
2.726427 0.691112 -0.001577 0.0
2.310798 0.189903 -0.000731 0.0
3.274220 0.054280 0.003237 0.0
4.143350 1.103635 -0.004197 0.0
2.328558 1.034360 -0.001255 0.0
2.020435 1.606237 0.000460 0.0
2.730250 0.183529 -0.000029 0.0
1.681260 0.874955 -0.001281 0.0
1.071912 1.792423 -0.000966 0.0
0.484072 0.316696 0.000344 0.0
1.322114 1.541878 0.002235 0.0
0.620189 1.374897 0.003686 0.0
4.736516 0.550499 0.002784 0.0
2.043699 1.724966 0.001104 0.0
0.636886 1.171701 -0.000700 0.0
0.276776 0.037252 0.000472 0.0
1.156277 1.144577 -0.000114 0.0
4.658292 0.671662 0.000264 0.0
0.208469 1.461254 -0.002232 0.0
1.145303 2.303044 0.005176 0.0
1.049567 0.877017 -0.001866 0.0
2.727029 1.558840 -0.001072 0.0
1.047651 0.383443 0.001477 0.0
1.303477 0.193834 -0.000761 0.0
4.609969 0.895050 0.003707 0.0
0.999058 2.053163 -0.000452 0.0
4.707045 0.566802 0.003388 0.0
4.235901 0.225723 -0.004808 0.0
2.946936 0.821447 -0.000144 0.0
1.032162 1.121185 -0.000021 0.0
1.980843 1.511592 -0.006069 0.0
2.524706 1.349690 -0.000324 0.0
4.803835 0.910598 -0.001958 0.0
1.837884 0.833229 0.001692 0.0
3.411894 0.827575 -0.000700 0.0
2.237313 1.044474 -0.000740 0.0
2.627542 1.805246 0.000543 0.0
1.715386 0.796256 -0.000370 0.0
2.983827 1.526608 -0.000654 0.0
0.383249 1.655564 -0.001497 0.0
3.175608 1.709195 0.004544 0.0
0.972725 1.126481 0.000921 0.0
0.873860 1.668958 -0.001392 0.0
1.290652 2.217933 -0.003787 0.0
1.418908 1.720193 -0.001420 0.0
3.401025 0.908251 -0.002676 0.0
2.859045 0.730914 -0.002972 0.0
4.503471 2.147171 0.001461 0.0
1.968370 2.288516 0.001916 0.0
4.090757 1.566297 0.002072 0.0
3.786712 1.084204 0.002031 0.0
4.549499 2.480032 0.001377 0.0
2.850900 1.030262 -0.002281 0.0
0.114890 0.608400 -0.001098 0.0
4.679956 0.468471 -0.001022 0.0
1.148873 1.904293 0.000919 0.0
4.502099 2.183087 0.000394 0.0
0.054078 0.705843 -0.002817 0.0
2.038382 1.402002 -0.001328 0.0
1.168478 2.194228 0.002094 0.0
4.635944 1.056691 0.005918 0.0
4.177540 0.211161 -0.002534 0.0
1.928118 0.445952 0.000043 0.0
1.671174 2.284338 0.002170 0.0
2.330809 1.456265 -0.003163 0.0
1.797498 0.219161 -0.000054 0.0
0.169143 2.261585 0.000794 0.0
2.080135 2.468970 0.002543 0.0
2.583752 0.692206 0.003389 0.0
2.435023 1.126461 0.000790 0.0
3.172756 0.578135 -0.000054 0.0
1.715196 1.133694 -0.001873 0.0
4.640131 2.117071 -0.000890 0.0
3.916239 0.690769 -0.002525 0.0
2.001455 0.942515 0.003053 0.0
4.578860 0.893916 0.003060 0.0
0.661525 0.819517 -0.000440 0.0
4.648370 1.114788 0.002444 0.0
2.796265 2.046295 -0.000721 0.0
1.927648 2.122343 -0.000540 0.0
0.828729 1.622439 -0.001304 0.0
0.243718 0.175943 -0.000331 0.0
2.056242 1.878090 -0.000822 0.0
1.487740 0.219342 -0.001206 0.0
2.270960 1.824269 0.000708 0.0
0.982514 0.789429 0.002136 0.0
3.565734 0.032341 0.002735 0.0
2.114813 0.316542 0.002637 0.0
0.181663 0.716862 0.000395 0.0
4.448045 1.616835 -0.001967 0.0
0.421455 0.926550 -0.003205 0.0
1.567053 2.045929 -0.001546 0.0
1.287912 1.489449 -0.003420 0.0
3.195801 1.466074 0.002250 0.0
3.802637 1.348906 -0.003535 0.0
1.874398 1.087579 -0.002221 0.0
0.262286 1.974603 -0.003028 0.0
0.478700 0.926679 -0.003219 0.0
4.426417 0.163367 -0.001483 0.0
3.568740 2.259899 0.001040 0.0
1.271664 1.750737 0.001823 0.0
4.788824 0.453154 -0.000056 0.0
0.677091 0.382528 -0.000992 0.0
4.840853 1.800003 -0.001451 0.0
2.868977 2.417483 0.000831 0.0
4.588381 1.018971 -0.001669 0.0
2.041946 0.967285 -0.002372 0.0
1.324419 0.970809 0.000892 0.0
0.685619 0.467806 -0.002080 0.0
1.778856 0.126501 0.005489 0.0
0.331653 2.410823 0.000035 0.0
1.981289 0.314302 -0.000018 0.0
4.023350 1.507032 0.002402 0.0
2.708277 0.203235 0.001530 0.0
1.859074 0.283476 0.001170 0.0
3.289423 1.764549 0.002107 0.0
2.648115 0.294999 0.006750 0.0
0.901937 1.343047 -0.001007 0.0
1.640019 1.751049 -0.002215 0.0
4.694018 2.309966 0.000589 0.0
1.680525 1.229649 -0.003902 0.0
2.543190 2.104483 0.003513 0.0
0.759171 0.107198 -0.000745 0.0
1.922489 1.072643 0.002176 0.0
0.212103 1.443289 0.002946 0.0
3.893972 1.171148 0.000588 0.0
2.806652 0.778451 -0.001483 0.0
3.283667 0.380919 0.000046 0.0
1.158955 0.563685 -0.000644 0.0
4.829499 0.894897 0.003152 0.0
3.300668 1.642728 0.002272 0.0
3.890972 1.734145 0.000911 0.0
2.206530 0.644996 -0.001760 0.0
0.127706 2.257280 0.002377 0.0
4.473479 0.285595 -0.000266 0.0
4.370638 1.499685 0.000476 0.0
4.052783 1.951073 0.004203 0.0
3.024567 0.018319 -0.001058 0.0
3.997985 0.268702 0.001821 0.0
2.090613 0.532352 0.004370 0.0
2.406009 0.831822 0.002875 0.0
3.522652 1.720191 -0.001526 0.0
4.696711 1.408786 -0.003504 0.0
2.959417 1.932628 -0.000278 0.0
1.639266 1.477289 -0.005072 0.0
2.529195 0.439873 0.003818 0.0
2.717451 1.879220 -0.003724 0.0
1.530034 0.686521 -0.002690 0.0
1.785803 0.272832 0.003326 0.0
2.874639 0.775941 0.005059 0.0
3.740758 1.250725 0.000718 0.0
3.273907 2.113324 -0.002346 0.0
0.015414 2.018530 0.001280 0.0
3.255481 0.311665 0.003542 0.0
2.522515 0.898111 -0.000212 0.0
2.282088 1.195390 0.001926 0.0
1.427939 2.107278 -0.000663 0.0
1.156778 0.219625 0.000760 0.0
1.887351 1.675037 -0.003543 0.0
4.854057 2.376369 -0.000597 0.0
1.122854 1.156838 -0.001209 0.0
2.144582 0.218054 0.005274 0.0
3.077434 1.016093 0.003323 0.0
2.108660 0.770768 0.001828 0.0
2.561837 0.749238 0.001350 0.0
0.924878 1.633189 0.000705 0.0
1.060713 0.590045 -0.002366 0.0
1.842263 1.522653 0.000162 0.0
2.238469 2.058015 -0.002923 0.0
4.822752 1.476115 -0.000752 0.0
0.235916 0.414562 -0.001792 0.0
2.149759 0.878344 0.001557 0.0
1.541203 0.445435 0.002624 0.0
0.224101 0.315940 -0.003718 0.0
1.604167 1.895859 0.000869 0.0
3.535933 1.139751 -0.000745 0.0
3.126150 0.608173 0.001750 0.0
2.725371 0.345465 0.001280 0.0
2.873835 0.399327 0.000125 0.0
0.183916 1.684437 -0.001129 0.0
4.129714 1.808024 0.007254 0.0
2.161757 0.972065 -0.000634 0.0
3.496871 1.540721 -0.003795 0.0
4.023513 2.088759 0.000649 0.0
2.086493 1.454417 0.001715 0.0
2.957165 2.189625 0.001201 0.0
0.707627 1.190007 0.002987 0.0
3.920862 2.209058 -0.000413 0.0
0.671714 0.747611 0.000124 0.0
2.506989 2.205873 0.000070 0.0
0.474017 1.019417 0.003175 0.0
1.543618 0.107901 -0.002929 0.0
1.737513 2.188731 -0.002665 0.0
2.578551 2.008525 0.001643 0.0
1.479876 0.368000 0.002960 0.0
4.864871 0.472411 -0.001449 0.0
1.138469 2.442335 0.000415 0.0
2.551907 1.815174 0.000184 0.0
3.055149 1.171608 0.000031 0.0
0.630810 0.983994 0.001429 0.0
0.497356 1.888097 -0.001967 0.0
4.145092 0.033408 0.004016 0.0
0.545858 1.758749 0.002464 0.0
1.360682 1.530652 0.000281 0.0
0.971528 0.224947 0.001279 0.0
0.542802 0.494344 -0.001326 0.0
1.783688 0.041026 -0.002856 0.0
2.038279 1.097249 -0.002440 0.0
1.286419 0.242969 -0.002424 0.0
3.411569 1.043911 -0.002513 0.0
2.510470 0.796376 -0.000241 0.0
4.539218 0.450899 0.002032 0.0
1.313887 2.402890 -0.001948 0.0
4.269816 1.358153 -0.000454 0.0
2.588714 0.567941 0.003539 0.0
3.712381 2.143310 0.000765 0.0
1.144128 1.810726 0.000077 0.0
4.726507 1.788456 -0.001854 0.0
2.195669 0.332128 -0.000789 0.0
3.588737 0.645623 -0.000427 0.0
1.688097 2.175990 -0.001219 0.0
4.676810 1.816378 0.004618 0.0
1.816977 0.876882 -0.001547 0.0
3.763646 2.293988 -0.002687 0.0
4.346165 1.862021 -0.001748 0.0
1.189590 1.045117 0.003363 0.0
0.946562 0.761890 -0.003703 0.0
1.979287 1.797848 -0.001035 0.0
3.251835 1.078093 0.002727 0.0
1.457026 0.729416 -0.003072 0.0
0.228622 1.822620 -0.003200 0.0
2.011546 2.480451 -0.003129 0.0
2.978882 0.734468 -0.001740 0.0
4.252650 2.205758 0.002372 0.0
1.201605 0.116304 -0.000545 0.0
1.569253 1.495849 -0.000069 0.0
2.272540 1.364182 0.000350 0.0
1.057897 1.088156 0.001509 0.0
4.436650 2.284172 0.000161 0.0
0.079607 0.866747 0.000775 0.0
4.036989 1.854504 -0.000181 0.0
4.159861 0.565316 -0.001565 0.0
0.630671 0.984884 0.000671 0.0
3.388112 2.422333 -0.000618 0.0
0.055318 1.913114 0.005522 0.0
0.360504 1.271119 -0.001658 0.0
2.675662 0.248708 -0.000422 0.0
1.791999 1.628699 -0.004081 0.0
0.836676 0.082872 -0.001910 0.0
1.913610 1.132902 0.004518 0.0
3.029406 0.559804 0.000673 0.0
4.833061 2.326580 -0.004571 0.0
4.722435 0.930304 0.003684 0.0
4.469990 0.586220 -0.001604 0.0
4.077513 1.056466 -0.001930 0.0
0.304451 1.835061 0.000110 0.0
1.432797 0.539807 0.000710 0.0
0.317883 2.336891 -0.005712 0.0
4.242772 2.465987 0.001729 0.0
2.853687 0.899038 0.001837 0.0
1.971034 0.514442 -0.002819 0.0
3.470604 0.871934 -0.000324 0.0
0.132388 1.442892 0.001843 0.0
3.785300 1.219482 0.002137 0.0
1.360930 1.671173 -0.000307 0.0
0.060735 2.344397 0.001315 0.0
1.915864 1.051057 0.002745 0.0
3.814678 0.156068 -0.003188 0.0
3.658289 1.921418 -0.001856 0.0
0.926298 1.290983 -0.000352 0.0
1.126473 0.534486 -0.000253 0.0
1.953399 0.337338 -0.002628 0.0
0.544356 0.508358 0.004213 0.0
4.179155 0.034881 0.005882 0.0
0.186468 2.411577 -0.000964 0.0
3.796159 0.173296 0.000901 0.0
2.852359 1.962485 0.003789 0.0
2.981300 1.946418 -0.003811 0.0
3.466746 0.706717 -0.001947 0.0
3.631693 0.425259 0.001444 0.0
4.821973 1.192686 -0.002254 0.0
0.164249 0.457382 0.000217 0.0
3.184602 0.733676 -0.000598 0.0
2.763003 0.735726 0.000537 0.0
2.916565 0.543982 0.000680 0.0
4.575260 0.193870 0.000377 0.0
1.851993 1.708236 -0.002424 0.0
2.486971 1.856688 -0.000604 0.0
0.040799 0.842628 0.003346 0.0
0.856431 1.257870 0.001671 0.0
1.131256 0.464653 -0.001119 0.0
0.942990 1.294695 -0.002608 0.0
1.835932 2.280961 -0.000088 0.0
4.521694 2.063918 -0.003849 0.0
4.128978 1.975457 -0.001194 0.0
3.318736 2.289875 0.002009 0.0
4.247519 2.148014 0.003194 0.0
3.863645 1.832644 -0.000179 0.0
0.838533 0.489259 -0.000585 0.0
4.104130 2.457520 -0.000764 0.0
3.821760 1.462349 0.004517 0.0
3.927668 0.082225 0.000501 0.0
0.861016 1.902890 -0.003209 0.0
3.596651 0.811937 -0.000673 0.0
1.694427 0.819280 0.004707 0.0
0.904281 0.134749 -0.000942 0.0
1.809713 0.592078 0.001730 0.0
3.293043 0.945695 0.003664 0.0
2.378299 1.217477 -0.006467 0.0
0.002057 2.151318 -0.002723 0.0
4.490361 0.056674 0.002273 0.0
0.563043 0.898665 0.001968 0.0
2.225720 0.109388 0.002888 0.0
0.351223 0.985965 0.000111 0.0
3.975949 0.225995 -0.002184 0.0
2.422097 2.378260 -0.001705 0.0
4.837793 1.671270 0.000370 0.0
4.837436 1.289000 -0.001444 0.0
4.474235 2.253952 0.002785 0.0
0.457636 0.888837 0.000834 0.0
2.489214 0.085251 0.000639 0.0
0.963063 0.179830 0.003223 0.0
4.162048 0.083816 0.003557 0.0
3.656824 1.300972 -0.004195 0.0
3.196979 1.970131 0.002038 0.0
3.449667 0.279880 0.001104 0.0
3.699755 0.744832 0.002010 0.0
0.469341 1.642237 0.000858 0.0
2.386438 0.747478 0.001432 0.0
1.690862 0.536174 0.002186 0.0
3.516831 0.405357 0.003683 0.0
1.484516 0.577750 0.004044 0.0
1.951214 1.426732 0.000102 0.0
1.293862 0.971678 -0.001978 0.0
0.499756 0.836963 -0.001751 0.0
4.239966 1.877036 -0.003648 0.0
4.297241 0.132997 -0.001198 0.0
4.453516 2.164281 0.001070 0.0
2.813433 1.642704 0.001847 0.0
3.111477 1.611222 -0.001645 0.0
3.265901 2.180338 0.000123 0.0
0.025056 1.258359 -0.000914 0.0
1.548108 2.417057 0.001089 0.0
1.624265 0.242795 0.001283 0.0
1.087609 2.200075 -0.000773 0.0
0.121738 1.421408 -0.001277 0.0
1.365127 2.366100 0.001119 0.0
4.504269 0.540581 -0.002450 0.0
1.385872 0.883704 0.001181 0.0
3.745759 0.670831 0.001858 0.0
3.383430 0.988192 0.000599 0.0
1.234917 0.363124 -0.003305 0.0
1.127032 0.786225 -0.002543 0.0
0.245847 0.248086 -0.004060 0.0
3.668140 1.880436 -0.001327 0.0
1.155187 2.440415 0.001814 0.0
4.381209 0.387695 -0.000796 0.0
4.290643 2.135586 0.001237 0.0
2.195973 0.958120 -0.003976 0.0
3.721598 1.643757 0.000823 0.0
3.450106 0.853004 0.007032 0.0
2.815674 0.525865 -0.004466 0.0
1.159916 0.306565 -0.001773 0.0
3.161318 1.403783 -0.006596 0.0
2.219564 1.683414 0.001551 0.0
2.303473 1.246083 -0.002095 0.0
2.156460 0.916286 -0.002384 0.0
2.358911 2.409296 0.001741 0.0
2.627286 1.802122 0.002217 0.0
1.174266 0.091257 0.001021 0.0
4.392896 0.750796 -0.001923 0.0
2.684330 0.355446 -0.001855 0.0
0.706757 1.271565 0.004230 0.0
3.087160 0.320558 -0.003032 0.0
1.926373 2.253254 -0.003338 0.0
1.614873 0.076719 0.001798 0.0
3.463541 0.038262 -0.003853 0.0
4.430295 0.562024 -0.001046 0.0
0.854786 2.277911 -0.001911 0.0
2.014870 1.916083 -0.000519 0.0
4.682615 2.276192 -0.004006 0.0
3.687973 2.275523 -0.000440 0.0
2.502502 0.807485 0.000638 0.0
1.001048 2.173430 -0.000273 0.0
4.124705 0.015424 0.000044 0.0
3.166836 0.209269 0.001935 0.0
2.152408 0.414295 -0.002921 0.0
0.048446 0.094237 0.000751 0.0
4.124059 2.382642 -0.001930 0.0
3.051821 1.018642 -0.001006 0.0
2.475312 0.947254 0.005658 0.0
1.969393 1.075097 0.002783 0.0
2.052973 1.937476 -0.001603 0.0
0.631829 1.848975 -0.000595 0.0
0.369656 1.904233 0.001613 0.0
3.380566 0.592314 -0.002115 0.0
0.589527 1.724217 0.002853 0.0
3.954317 0.212393 0.002900 0.0
2.611171 2.215812 0.002115 0.0
0.167316 2.206216 -0.000773 0.0
4.701709 0.262567 -0.000124 0.0
1.833770 0.597096 -0.006470 0.0
3.577882 0.462215 0.001993 0.0
4.120844 0.396080 0.002119 0.0
3.808075 2.271461 0.000535 0.0
1.499531 1.871919 -0.002618 0.0
4.174303 1.507955 0.000901 0.0
0.107258 2.004102 0.002526 0.0
1.567116 2.391936 0.002869 0.0
0.044980 0.236544 0.001004 0.0
3.387409 0.714325 0.003708 0.0
1.367725 2.361189 -0.002318 0.0
0.270966 1.427328 -0.001180 0.0
0.241220 0.402405 -0.003914 0.0
0.673051 2.455995 0.002412 0.0
1.646131 1.125891 -0.000423 0.0
2.711867 1.143243 -0.001797 0.0
3.470842 0.401514 0.004161 0.0
0.697347 0.551780 0.003126 0.0
1.775638 2.349642 0.006158 0.0
0.846274 0.091700 -0.000772 0.0
1.141867 0.270526 -0.004378 0.0
0.539492 1.875976 -0.000202 0.0
2.446456 0.712898 -0.001435 0.0
2.189347 0.622029 0.002021 0.0
0.804428 1.550351 -0.003924 0.0
1.073695 2.437156 0.000496 0.0
0.922634 2.476676 -0.000419 0.0
2.335505 1.575758 -0.002963 0.0
0.168751 1.353675 -0.000722 0.0
4.102885 1.325672 -0.000990 0.0
2.497779 1.208512 -0.004263 0.0
0.256516 0.089849 0.003600 0.0
2.600582 1.989361 -0.000528 0.0
3.055156 1.132319 0.000441 0.0
0.068544 0.514798 0.002961 0.0
0.536627 0.305816 -0.001096 0.0
0.080059 0.897559 0.001047 0.0
2.447891 2.158210 -0.004830 0.0
0.910274 0.720218 0.001549 0.0
0.561588 0.395061 -0.000526 0.0
4.071332 0.396504 0.002175 0.0
1.031726 0.533213 0.001405 0.0
3.453463 0.787561 0.003796 0.0
4.313500 0.011731 0.002368 0.0
4.775674 2.280599 -0.000649 0.0
2.074371 1.430393 -0.000125 0.0
1.573694 1.950270 0.000514 0.0
1.177766 1.300795 -0.001417 0.0
1.874519 0.218986 -0.003928 0.0
4.662500 2.234031 -0.002975 0.0
3.556595 0.424602 -0.000808 0.0
3.358407 1.988053 0.004091 0.0
1.652186 0.134460 -0.001082 0.0
4.501957 0.957801 -0.000433 0.0
1.299812 0.245777 -0.000059 0.0
1.113674 1.030875 -0.003170 0.0
1.069793 2.349611 0.006531 0.0
1.604995 2.154337 0.002528 0.0
3.202733 0.483441 -0.002797 0.0
0.819755 1.422182 0.002338 0.0
0.998670 1.648174 0.001524 0.0
4.198562 1.940224 0.000645 0.0
3.944436 1.626856 -0.000735 0.0
3.644423 1.462358 -0.002497 0.0
2.967976 0.303237 -0.002301 0.0
1.029655 1.281335 0.001451 0.0
2.162621 1.627625 0.001928 0.0
2.655748 0.915856 0.003260 0.0
0.299076 2.153006 -0.000202 0.0
4.528820 2.343159 0.001198 0.0
4.781971 0.011785 0.001552 0.0
1.835064 2.470345 0.001219 0.0
1.192805 1.389613 -0.000256 0.0
2.590776 0.682382 -0.000672 0.0
0.985303 0.172287 -0.000531 0.0
1.043577 2.383178 -0.001894 0.0
1.831747 0.027778 0.001763 0.0
3.135451 0.268990 0.000956 0.0
1.385511 1.922530 -0.000648 0.0
1.866070 0.930657 0.000016 0.0
2.144025 0.553045 0.001844 0.0
2.349278 1.886629 -0.000311 0.0
4.299085 0.552704 0.001098 0.0
2.842499 1.846201 0.000052 0.0
4.833454 0.657386 -0.002238 0.0
2.858250 2.161893 0.004834 0.0
0.036805 1.199230 0.000174 0.0
0.879357 0.549502 -0.002238 0.0
4.166251 1.252826 0.001497 0.0
4.328380 1.069197 0.003388 0.0
0.991634 1.995523 -0.003467 0.0
1.020768 1.765792 -0.000776 0.0
1.172002 0.527521 0.000768 0.0
3.037152 1.213569 0.003429 0.0
1.253454 0.551939 0.002874 0.0
3.718791 0.134311 -0.001580 0.0
1.471202 2.053962 -0.002511 0.0
0.185205 0.767575 0.000588 0.0
0.456137 0.467727 0.000594 0.0
3.615602 2.414231 0.002676 0.0
4.586995 2.350777 -0.004416 0.0
0.810379 2.294653 0.001719 0.0
0.297707 2.349578 -0.000539 0.0
0.380460 0.069961 -0.000654 0.0
2.675793 1.886553 0.001317 0.0
0.820655 0.535886 -0.004082 0.0
3.141250 0.331700 -0.004880 0.0
0.705919 1.745712 -0.001919 0.0
3.611857 1.241504 0.000155 0.0
4.035672 0.902801 -0.000344 0.0
3.631491 1.018940 0.000187 0.0
2.763609 1.580254 -0.002260 0.0
4.539182 0.808873 -0.000385 0.0
3.764696 2.271463 -0.000662 0.0
3.496084 1.595437 -0.002715 0.0
3.015974 0.865650 -0.000385 0.0
2.403676 2.472823 0.002605 0.0
1.499681 1.777263 0.000632 0.0
3.456908 0.341128 -0.001252 0.0
3.815447 1.030329 -0.002244 0.0
3.375745 0.553617 0.000491 0.0
4.810103 1.298934 -0.002619 0.0
1.124220 0.189683 0.004115 0.0
3.082271 1.648532 0.000184 0.0
2.722161 1.624703 -0.001384 0.0
1.784181 2.131464 0.000362 0.0
2.987753 0.746849 -0.004119 0.0
0.792370 0.062722 -0.004812 0.0
3.897071 1.471297 0.000313 0.0
3.266002 2.357067 -0.000791 0.0
1.702128 1.374899 -0.002743 0.0
4.347801 1.502041 -0.002643 0.0
0.194960 2.473234 -0.000341 0.0
3.528132 1.921892 0.000364 0.0
2.820287 1.892281 -0.001242 0.0
2.494005 0.070308 0.004391 0.0
2.632772 0.457949 -0.000344 0.0
3.489589 1.352667 0.000852 0.0
1.508634 0.938987 -0.000540 0.0
1.889286 1.786528 0.004597 0.0
1.057344 2.409772 0.005466 0.0
1.923034 1.873048 -0.000983 0.0
3.517358 0.212556 0.001154 0.0
0.919243 0.770922 0.000050 0.0
3.292947 0.337592 -0.002615 0.0
3.119476 1.716815 -0.003407 0.0
2.117269 0.677001 0.001559 0.0
1.980839 1.477269 0.004946 0.0
1.137173 1.207136 -0.000133 0.0
2.158945 0.308958 -0.004788 0.0
3.220972 2.484877 -0.000975 0.0
3.515036 0.653026 0.004168 0.0
2.795412 2.054259 0.002250 0.0
3.373008 1.989315 -0.000268 0.0
0.490879 2.001783 0.000875 0.0
4.133046 2.355680 0.002702 0.0
3.222090 0.162322 -0.000058 0.0
0.275503 0.742111 0.000862 0.0
0.473158 0.043422 -0.003702 0.0
2.896389 0.915792 0.003049 0.0
0.671402 2.158964 0.002943 0.0
2.058253 2.430414 -0.005094 0.0
0.630489 0.151987 0.001382 0.0
2.885325 0.385559 0.002088 0.0
2.800576 0.162062 -0.001386 0.0
3.461921 1.084217 0.000205 0.0
0.730801 2.420947 0.002720 0.0
3.692647 0.751478 0.002604 0.0
0.125662 1.451162 -0.001728 0.0
4.558858 2.229443 0.001008 0.0
1.109410 2.125260 0.005764 0.0
2.570960 1.473403 -0.000607 0.0
2.497179 1.547478 0.003774 0.0
0.138918 2.241294 -0.003102 0.0
1.317809 1.552594 -0.000088 0.0
4.841162 2.121223 -0.004154 0.0
0.698033 2.187606 0.001511 0.0
2.258162 1.072521 -0.004532 0.0
1.283475 0.604511 -0.002837 0.0
0.162372 0.688269 -0.000385 0.0
0.132214 0.432941 0.002273 0.0
3.724988 0.423107 -0.001958 0.0
2.612263 1.134703 0.000741 0.0
0.459301 0.623508 -0.001614 0.0
0.006980 0.402204 -0.000618 0.0
0.739754 1.889080 0.001709 0.0
2.070378 1.924524 -0.000074 0.0
3.709573 0.397820 -0.003898 0.0
4.026592 0.197303 0.004659 0.0
1.229997 1.618983 0.002267 0.0
1.477994 0.924323 0.001657 0.0
1.477974 0.146362 0.001170 0.0
3.875409 1.830848 -0.000160 0.0
3.718837 2.090540 -0.002233 0.0
3.551188 1.407589 0.000995 0.0
1.565772 1.189619 0.001165 0.0
0.596961 1.354828 -0.001356 0.0
0.560968 0.865382 0.000449 0.0
3.289343 1.822263 -0.002236 0.0
4.551427 0.201125 0.001302 0.0
2.355122 -0.001182 0.001727 0.0
1.193663 1.368458 0.003250 0.0
0.573003 0.714428 0.000829 0.0
0.248550 0.810514 0.002281 0.0
0.966695 2.252432 -0.002268 0.0
4.070979 1.941885 -0.000380 0.0
1.250049 0.577897 0.001827 0.0
3.172572 1.245147 -0.000981 0.0
3.688234 1.237579 0.001213 0.0
2.499816 0.816409 0.001712 0.0
0.140000 2.031173 -0.001706 0.0
0.815904 1.277307 0.000858 0.0
2.591069 1.542116 0.002307 0.0
0.853332 1.700540 0.003870 0.0
0.149574 1.105293 0.001881 0.0
3.857490 1.084438 0.000671 0.0
1.659228 0.884123 0.002677 0.0
1.122427 0.478485 -0.000185 0.0
4.301280 2.141204 0.001662 0.0
4.588604 0.520763 0.003828 0.0
1.358374 1.606966 0.004306 0.0
0.613980 0.976494 -0.000005 0.0
4.601528 2.317552 -0.000592 0.0
1.370097 2.218318 0.003376 0.0
3.011304 2.266088 -0.000626 0.0
3.152376 1.018567 0.002619 0.0
4.686761 2.064595 0.000175 0.0
0.343582 2.310754 0.001048 0.0
3.688657 0.668147 0.001023 0.0
4.801281 0.296604 -0.000114 0.0
2.275823 1.733124 -0.001783 0.0
2.215342 0.611150 0.001760 0.0
0.976465 0.352358 -0.001928 0.0
2.657012 1.197975 -0.002528 0.0
2.000949 1.564734 -0.005083 0.0
0.304451 1.756231 0.000464 0.0
1.274609 1.301983 -0.004600 0.0
4.206816 0.882943 0.001950 0.0
0.395388 2.065113 0.001475 0.0
2.428357 1.562387 0.002117 0.0
4.766735 1.589398 0.006883 0.0
2.322620 1.315790 -0.000721 0.0
4.132477 2.004283 0.000212 0.0
4.225821 1.777980 -0.003410 0.0
2.178383 1.611971 0.000062 0.0
1.203973 2.456999 -0.000454 0.0
4.195642 0.258326 -0.001875 0.0
1.147666 1.302989 0.001628 0.0
4.094554 0.855109 0.004216 0.0
3.441309 0.564421 -0.001485 0.0
3.235770 0.625436 -0.004139 0.0
3.572451 1.048622 0.002916 0.0
4.570195 1.117276 0.001825 0.0
4.544943 0.335492 0.004105 0.0
0.440859 1.834097 -0.003013 0.0
0.456235 1.901148 -0.002040 0.0
4.515856 0.469752 -0.001872 0.0
0.060239 1.696910 0.002802 0.0
2.202193 1.145805 -0.003757 0.0
0.794792 0.606455 0.000937 0.0
0.149970 1.353619 0.001699 0.0
3.198719 1.105430 0.000175 0.0
4.572385 1.125523 -0.000355 0.0
4.792731 0.377348 -0.001022 0.0
3.692701 1.220481 -0.003627 0.0
0.127528 2.422212 -0.003231 0.0
2.932569 0.106418 0.002192 0.0
1.744086 2.342096 -0.000302 0.0
2.687531 1.741967 -0.001454 0.0
2.724535 0.533225 -0.005274 0.0
0.945652 1.304866 0.002238 0.0
4.651439 1.317964 -0.003251 0.0
4.848084 1.720525 0.000545 0.0
3.950495 2.111615 0.002018 0.0
1.842100 1.023368 0.000171 0.0
4.009828 2.040319 -0.002928 0.0
0.765706 1.403825 0.002174 0.0
3.386892 2.351493 0.005511 0.0
3.817239 0.803002 0.005041 0.0
2.270009 2.156071 -0.000973 0.0
3.627460 1.726938 0.001350 0.0
2.727340 1.361994 0.000830 0.0
3.267032 1.385338 0.001823 0.0
1.898082 0.452274 -0.001589 0.0
2.739474 1.738484 -0.004085 0.0
0.616092 1.137803 -0.002203 0.0
0.456994 0.960109 0.002391 0.0
3.355147 1.323798 -0.000084 0.0
3.402997 2.188542 0.001201 0.0
2.123137 0.387168 -0.000760 0.0
2.350360 0.667365 -0.000109 0.0
2.172733 0.087106 -0.005144 0.0
2.247163 2.361522 0.005882 0.0
1.718954 2.006267 0.000373 0.0
1.050816 1.657406 -0.003617 0.0
0.960239 1.957353 0.000617 0.0
3.526783 2.427615 0.000275 0.0
2.558443 0.336205 -0.002602 0.0
0.512170 2.451844 0.000509 0.0
2.261097 0.047718 -0.002330 0.0
0.764269 0.235079 -0.004908 0.0
3.435840 0.976151 0.003403 0.0
3.616287 0.503204 0.000790 0.0
1.323060 0.578395 -0.002088 0.0
1.454457 2.487625 0.000749 0.0
4.458168 0.645337 -0.000200 0.0
2.185971 1.886374 0.000361 0.0
0.500055 2.465015 0.000896 0.0
3.301601 0.864913 -0.001528 0.0
1.918392 2.341392 -0.003245 0.0
2.414689 0.158270 0.000898 0.0
4.730663 0.898169 0.003995 0.0
0.323421 0.864737 -0.003369 0.0
0.069413 0.189133 0.001196 0.0
2.535602 2.294683 -0.004210 0.0
2.640287 0.304356 0.002169 0.0
4.747839 0.510678 -0.004122 0.0
1.259548 0.315142 -0.002763 0.0
1.166257 1.390360 -0.000432 0.0
3.719420 0.526776 -0.000556 0.0
0.748830 2.161764 0.000343 0.0
4.136925 1.924771 0.000283 0.0
1.109098 0.015126 -0.001141 0.0
2.998515 0.288133 -0.004069 0.0
2.701651 0.627723 -0.002336 0.0
3.667713 0.505844 -0.002274 0.0
0.074867 0.820668 -0.001157 0.0
2.292010 0.245095 -0.000582 0.0
0.790373 0.876787 0.000806 0.0
3.855488 0.119332 -0.002234 0.0
1.983005 2.083905 -0.002852 0.0
1.271775 0.092313 -0.001575 0.0
0.966154 0.043018 0.003635 0.0
4.078252 0.627267 -0.002686 0.0
4.172561 2.485200 -0.005542 0.0
1.160099 0.300142 -0.001615 0.0
0.640610 2.357790 0.001108 0.0
2.528522 1.344147 -0.000718 0.0
1.434502 0.033087 -0.001352 0.0
4.204878 0.877167 -0.003806 0.0
0.702654 1.329081 0.003781 0.0
1.786956 2.415808 -0.001738 0.0
1.984610 1.957740 0.001430 0.0
4.488128 0.988941 0.004512 0.0
2.377800 1.116230 0.001270 0.0
1.220551 0.845239 -0.002860 0.0
1.163271 1.921074 0.003821 0.0
0.234162 1.184814 -0.004113 0.0
0.052491 0.537086 0.001024 0.0
2.147473 0.880545 -0.000350 0.0
0.111152 0.502275 -0.000953 0.0
2.689427 0.923951 -0.001235 0.0
3.363426 1.974375 0.000802 0.0
2.193836 1.648105 0.000177 0.0
3.131810 1.592041 0.001765 0.0
2.967200 0.830102 -0.000510 0.0
4.595369 2.178302 -0.000078 0.0
2.235964 1.738939 0.004066 0.0
3.305909 1.998923 -0.001940 0.0
4.727326 0.809117 -0.005717 0.0
1.686642 1.175955 0.000381 0.0
4.140748 1.857470 -0.002846 0.0
3.582815 2.135645 -0.002474 0.0
1.872593 0.971051 0.001189 0.0
4.095903 1.757759 0.005493 0.0
4.631573 2.339179 0.005422 0.0
1.963291 1.193855 -0.000265 0.0
0.810808 1.979858 0.001168 0.0
0.039258 0.694971 0.000202 0.0
2.110719 1.254328 0.005372 0.0
3.194125 0.164196 0.001124 0.0
3.357699 1.399524 -0.004017 0.0
4.336785 2.096714 0.005024 0.0
1.176736 2.185831 0.004738 0.0
1.150288 0.620580 0.001562 0.0
4.523511 1.561698 -0.004897 0.0
0.308128 1.450446 -0.004122 0.0
2.805927 1.848375 0.001349 0.0
1.253824 2.281436 -0.004264 0.0
1.422150 1.724329 -0.002803 0.0
2.610720 0.507888 -0.002983 0.0
3.899255 1.551264 -0.003382 0.0
4.231969 0.789432 -0.000569 0.0
3.492261 1.899977 0.002068 0.0
3.980682 1.874840 -0.000233 0.0
2.149553 1.863346 0.001293 0.0
2.611826 0.309250 0.000637 0.0
0.803940 1.861425 0.000269 0.0
3.596407 2.096201 -0.000971 0.0
4.329809 2.020850 -0.001652 0.0
1.523871 2.130094 -0.005092 0.0
1.201807 0.842938 0.001834 0.0
0.123727 0.738999 0.002759 0.0
2.213711 1.020070 -0.000847 0.0
2.101021 1.784432 0.000460 0.0
1.016791 0.631660 0.003257 0.0
2.270106 0.765285 0.006633 0.0
3.134027 1.301639 -0.005876 0.0
3.667018 0.074643 -0.003415 0.0
2.651933 1.505747 -0.005062 0.0
0.423704 1.375288 -0.004162 0.0
4.440062 1.551957 0.001241 0.0
0.359350 0.876445 -0.000521 0.0
1.435132 1.220765 0.001138 0.0
1.371753 2.143814 0.002001 0.0
0.828708 0.605210 0.002405 0.0
4.784770 1.214250 -0.003631 0.0
0.269451 2.397407 -0.004668 0.0
0.506432 0.064883 -0.002971 0.0
1.915812 0.973798 -0.001220 0.0
1.904398 0.342674 -0.004984 0.0
3.383398 2.073016 -0.002371 0.0
1.472587 2.277838 0.000354 0.0
1.393221 2.050124 -0.003810 0.0
1.802956 0.683602 -0.002357 0.0
2.894335 1.701159 -0.001011 0.0
0.797158 1.147188 0.006037 0.0
3.010110 1.307196 0.000615 0.0
0.125243 1.705845 0.004379 0.0
0.654687 1.475345 -0.000485 0.0
4.039076 2.036782 -0.002827 0.0
1.347333 0.084606 0.004750 0.0
4.198458 0.287473 0.000062 0.0
4.205873 0.698282 0.002284 0.0
2.199501 0.538193 -0.001909 0.0
2.831503 2.491140 -0.001152 0.0
3.194278 1.095956 0.000944 0.0
3.150660 1.039153 -0.004432 0.0
1.405713 2.029066 -0.001737 0.0
1.154773 2.265350 0.001051 0.0
3.718740 2.151888 -0.000027 0.0
1.713350 2.108203 0.000252 0.0
0.302186 1.678510 0.002550 0.0
0.280270 1.011194 -0.000587 0.0
4.799798 2.029951 0.000001 0.0
0.999963 0.762679 0.002098 0.0
2.366093 0.143758 0.001036 0.0
4.760428 1.677806 -0.001465 0.0
2.898035 0.642120 0.003764 0.0
3.849724 1.166100 -0.002735 0.0
3.082694 1.692806 0.001347 0.0
0.494135 0.422766 0.002997 0.0
2.495585 1.461178 0.001119 0.0
3.728327 2.373368 -0.000641 0.0
4.569691 2.251653 0.003770 0.0
1.104539 0.258995 -0.000556 0.0
3.289979 1.061269 -0.000632 0.0
1.171047 0.129277 -0.000413 0.0
0.041011 2.346871 0.000174 0.0
1.733850 0.885362 -0.003091 0.0
3.139705 1.020571 0.000341 0.0
0.205133 1.793028 0.001722 0.0
1.198190 1.737281 -0.000045 0.0
1.849062 0.843948 -0.002492 0.0
4.543612 2.471789 0.000217 0.0
2.860661 0.382988 0.001407 0.0
2.253222 1.891709 -0.001907 0.0
2.209344 0.988633 0.000892 0.0
1.016185 2.140754 -0.001937 0.0
3.596156 0.242178 -0.000171 0.0
3.262645 1.102697 -0.000496 0.0
2.596136 1.472704 0.002637 0.0
3.399111 1.301117 0.002369 0.0
2.686200 2.015825 0.004899 0.0
1.394231 2.083063 -0.004228 0.0
4.800328 1.118131 -0.000549 0.0
1.235724 2.335997 -0.000762 0.0
1.025734 1.490754 0.000616 0.0
0.864097 1.107056 0.001113 0.0
3.718941 0.825271 -0.001965 0.0
4.789900 1.341378 0.002575 0.0
2.948849 2.158576 0.000365 0.0
2.868499 1.080041 -0.002381 0.0
1.523683 0.673861 0.000253 0.0
0.484617 0.970124 -0.003612 0.0
0.041615 0.895426 -0.000196 0.0
4.667385 1.780748 0.002710 0.0
3.159279 0.102556 0.003178 0.0
1.748089 0.724435 -0.003277 0.0
3.952292 0.854532 0.002642 0.0
2.910244 2.313254 0.001645 0.0
3.182992 1.386075 0.000025 0.0
3.345015 2.394315 0.001234 0.0
1.419449 0.467753 0.002363 0.0
4.624442 2.001546 0.003413 0.0
1.847375 2.430494 -0.000487 0.0
2.089844 1.276893 0.000303 0.0
3.832414 1.975695 0.000423 0.0
3.826844 2.149884 0.003307 0.0
3.824315 2.417260 0.002967 0.0
4.496411 1.345888 0.002221 0.0
2.505227 0.173376 0.001961 0.0
3.096748 0.010557 -0.002789 0.0
2.223836 2.124824 0.000454 0.0
0.628298 1.551622 -0.002998 0.0
2.318720 1.832307 0.002583 0.0
1.637583 1.840946 0.000827 0.0
1.887222 0.967753 0.002854 0.0
0.367465 0.391031 -0.000961 0.0
2.323217 0.693406 0.002374 0.0
0.487062 1.391960 0.005122 0.0
0.057881 0.755189 -0.000553 0.0
4.222778 2.288442 0.000148 0.0
0.906659 2.060979 0.000697 0.0
3.750197 1.071774 0.000500 0.0
3.099229 0.985251 -0.000922 0.0
1.121887 1.259672 -0.002618 0.0
2.744865 0.018994 0.000732 0.0
0.045219 0.686914 0.000034 0.0
1.420624 0.094703 -0.001943 0.0
3.068263 0.992764 0.000535 0.0
3.657764 2.073215 -0.003985 0.0
0.620955 0.267070 -0.005133 0.0
2.050108 0.896368 0.001500 0.0
1.527623 1.054005 0.002359 0.0
2.797805 2.348624 -0.002182 0.0
2.843502 0.251953 0.002365 0.0
3.071946 0.093362 0.000013 0.0
2.953324 1.836073 -0.001109 0.0
1.814671 0.403576 -0.000149 0.0
3.216553 1.365446 -0.001269 0.0
2.233371 0.137737 -0.005694 0.0
1.624568 1.688854 -0.003422 0.0
2.504928 1.006590 -0.003173 0.0
2.186588 1.675083 -0.003903 0.0
1.948106 0.953069 -0.000218 0.0
2.395509 0.764294 -0.005583 0.0
1.766662 1.685365 -0.002041 0.0
4.332411 0.738299 -0.002156 0.0
0.464463 0.449036 0.003112 0.0
0.074414 0.800788 -0.002354 0.0
2.653347 2.139655 0.001093 0.0
1.817024 0.275184 0.000261 0.0
3.787102 1.407737 0.006156 0.0
0.481755 0.337891 -0.002848 0.0
2.773499 0.826270 -0.004840 0.0
3.188826 1.261176 0.003031 0.0
2.761955 1.792312 -0.006586 0.0
3.228234 1.263317 0.000971 0.0
1.582290 1.732068 -0.001143 0.0
3.066520 2.482062 -0.004273 0.0
2.437777 2.153666 -0.000412 0.0
3.497655 0.390445 -0.001608 0.0
0.225440 0.462424 0.001704 0.0
1.945588 2.018449 -0.001360 0.0
3.670938 1.996907 -0.001308 0.0
2.773158 0.907085 0.001800 0.0
0.480730 1.486184 -0.002945 0.0
1.115677 0.045972 0.001011 0.0
2.740333 1.223186 0.004692 0.0
3.300356 1.689470 -0.001562 0.0
0.103179 0.213751 0.001863 0.0
3.471254 1.896990 -0.003056 0.0
4.051639 2.373829 -0.001066 0.0
0.343808 1.278786 -0.000027 0.0
4.069673 0.450521 -0.000674 0.0
3.027559 1.068799 -0.000077 0.0
0.594935 0.157871 -0.001091 0.0
1.698123 2.457442 -0.002861 0.0
2.727919 0.919911 -0.005697 0.0
2.189112 1.233985 -0.004337 0.0
1.694884 0.801673 0.000041 0.0
3.867178 1.501121 -0.001364 0.0
4.604396 0.671544 -0.000635 0.0
4.366089 0.044863 0.001609 0.0
3.326035 1.183454 -0.003174 0.0
4.183993 0.876900 -0.005874 0.0
1.758522 0.847814 -0.001802 0.0
3.507231 1.743846 0.000791 0.0
2.693469 0.100917 0.000295 0.0
3.261269 0.912470 -0.000314 0.0
1.604599 0.164477 0.001891 0.0
1.986372 1.597923 0.000742 0.0
1.677732 1.583337 -0.000460 0.0
0.773543 0.521210 0.000325 0.0
3.521920 1.784819 0.001426 0.0
1.850287 1.038348 -0.000863 0.0
2.807451 0.041704 -0.001831 0.0
0.280995 0.177937 -0.001538 0.0
3.165501 1.137812 0.004085 0.0
4.585131 0.950556 -0.000401 0.0
1.594461 2.444841 -0.003305 0.0
4.678450 0.852203 0.002250 0.0
3.687605 0.307312 -0.001816 0.0
0.485478 0.921112 -0.000182 0.0
2.112561 0.212864 -0.000327 0.0
3.448269 2.237831 0.000574 0.0
4.798108 0.269352 -0.000898 0.0
0.190225 1.695174 -0.003623 0.0
1.336589 1.876554 -0.000462 0.0
0.755994 1.549742 0.000575 0.0
2.853535 2.159444 0.001101 0.0
4.667204 1.750560 0.003756 0.0
3.558916 1.375566 0.001943 0.0
2.730038 0.830612 -0.003920 0.0
4.286126 0.374052 -0.001187 0.0
1.171769 1.766059 -0.002472 0.0
2.830336 1.121726 -0.001520 0.0
2.653551 1.400085 0.001549 0.0
2.054959 0.464473 0.002883 0.0
3.401772 1.947894 0.001499 0.0
1.964434 1.362279 -0.001926 0.0
3.606121 0.738707 0.001483 0.0
4.161005 1.845970 -0.000503 0.0
0.735208 0.809878 0.000749 0.0
0.770108 0.672998 0.000563 0.0
0.943131 1.644908 0.004246 0.0
3.536028 1.807314 -0.001682 0.0
3.800598 1.895722 0.004914 0.0
4.491355 2.352611 0.003520 0.0
3.278229 1.902587 0.003636 0.0
2.441503 0.202222 -0.003954 0.0
4.824221 0.501065 0.000367 0.0
2.646111 0.643510 0.003734 0.0
3.774938 0.961295 -0.000468 0.0
1.382997 2.247290 0.002148 0.0
1.893726 2.310812 -0.002796 0.0
0.025607 1.287037 -0.000029 0.0
0.268172 1.908582 -0.000233 0.0
1.447232 0.143075 -0.003085 0.0
0.413181 0.548815 -0.000379 0.0
1.866896 1.417153 -0.000118 0.0
1.971715 0.128500 -0.000383 0.0
1.762207 0.986624 0.003713 0.0
3.908439 0.329061 -0.000324 0.0
2.980908 0.602038 -0.001355 0.0
4.717027 1.246820 -0.004053 0.0
4.845607 1.375212 -0.001348 0.0
1.978310 2.115484 0.000483 0.0
3.626548 0.719318 -0.002617 0.0
0.817713 0.471898 0.002403 0.0
0.083389 1.105895 -0.000095 0.0
3.613142 1.765094 -0.003388 0.0
4.404977 0.976562 0.000878 0.0
3.194717 0.509155 -0.002897 0.0
1.649410 0.453895 -0.009504 0.0
1.346192 2.371749 -0.000680 0.0
2.255702 2.427503 0.000935 0.0
3.792217 0.650978 0.002981 0.0
4.694718 0.579160 -0.002856 0.0
3.010124 0.870377 -0.000506 0.0
3.599855 1.529076 -0.001681 0.0
1.116957 1.642417 -0.001781 0.0
4.162011 1.690112 -0.001558 0.0
1.118170 0.527825 0.000586 0.0
3.327879 2.240404 0.000090 0.0
0.357091 1.857288 0.000622 0.0
3.569970 0.642258 -0.001020 0.0
3.775752 2.368727 0.000626 0.0
3.105254 0.493167 0.004642 0.0
2.249754 1.603806 0.001237 0.0
3.006866 0.525922 0.000986 0.0
0.415628 2.130828 -0.004009 0.0
3.840343 0.648633 -0.001325 0.0
2.962915 1.760228 0.000536 0.0
1.641089 0.879164 0.004587 0.0
2.020409 0.328725 0.002092 0.0
3.939648 1.142570 0.001752 0.0
1.549729 1.720413 -0.003394 0.0
0.183562 2.472613 -0.003259 0.0
2.127434 2.097099 -0.002003 0.0
3.292340 0.395461 -0.004112 0.0
0.871303 0.360273 0.001303 0.0
1.999635 1.631556 0.001555 0.0
3.613851 1.828086 -0.001111 0.0
0.868122 1.020881 0.003285 0.0
2.835288 1.318324 0.002079 0.0
2.050068 1.826684 0.000269 0.0
2.489880 0.826377 0.003539 0.0
0.697621 1.975523 0.000589 0.0
1.178406 1.523824 0.001150 0.0
1.639004 1.572401 -0.000392 0.0
3.882915 2.188219 0.000709 0.0
0.033309 0.425449 0.001807 0.0
1.009097 2.412895 -0.001281 0.0
1.428080 1.426465 -0.001179 0.0
2.645500 0.224475 -0.002472 0.0
2.739600 0.153748 -0.000343 0.0
1.680472 1.275633 0.001347 0.0
2.478526 1.855369 0.006292 0.0
3.003345 0.310624 -0.002871 0.0
4.642461 0.246131 -0.004749 0.0
3.957224 1.145284 -0.000478 0.0
4.480540 0.170133 -0.001335 0.0
3.523549 0.037902 0.001571 0.0
1.969382 1.873517 -0.002110 0.0
2.613397 2.342411 0.003432 0.0
3.903619 0.699840 -0.001620 0.0
2.032139 2.370049 -0.002121 0.0
2.774847 1.149338 -0.000306 0.0
2.778585 1.237003 -0.002226 0.0
2.918353 1.422439 0.000205 0.0
1.788359 1.040581 -0.000478 0.0
0.928890 0.573687 -0.003756 0.0
0.043326 0.431485 0.003219 0.0
1.344368 2.074056 -0.000995 0.0
2.443870 2.376828 -0.002678 0.0
3.011033 0.195141 0.004020 0.0
3.521228 0.701941 -0.003397 0.0
3.757281 0.343865 0.002258 0.0
2.104454 1.338214 -0.001119 0.0
1.150016 0.176713 -0.002029 0.0
4.670924 1.549534 -0.003115 0.0
3.919110 2.231418 -0.001430 0.0
2.601709 1.443623 -0.000168 0.0
4.607110 1.579450 0.002805 0.0
4.221330 1.690095 -0.002089 0.0
3.567039 2.061880 0.001727 0.0
3.866776 2.202061 -0.005676 0.0
1.544525 0.857680 0.000488 0.0
0.542568 1.334224 -0.000815 0.0
1.990362 1.485136 0.001178 0.0
2.209248 1.948260 0.000449 0.0
3.748036 0.936202 -0.001496 0.0
3.320398 0.777962 -0.001573 0.0
3.160119 0.745003 0.000894 0.0
4.608382 0.557696 -0.001997 0.0
4.546543 0.229442 0.001017 0.0
2.501537 2.070303 0.000014 0.0
0.570482 0.129798 -0.003273 0.0
4.522450 0.347425 0.004871 0.0
0.998498 2.417961 -0.002809 0.0
1.213406 1.241353 -0.003233 0.0
4.186400 0.545161 0.000678 0.0
2.153499 1.723965 -0.003509 0.0
0.147114 0.711154 -0.002687 0.0
1.720151 1.314054 -0.001092 0.0
4.834780 0.218478 -0.002297 0.0
3.178156 1.888034 0.000746 0.0
2.685121 1.534053 0.002148 0.0
1.404379 0.007462 0.003286 0.0
3.930279 1.617353 0.000890 0.0
0.534427 2.302172 0.004029 0.0
2.002438 2.096729 0.003686 0.0
1.799913 0.890260 -0.001610 0.0
3.829415 0.578151 -0.000902 0.0
1.695439 1.002462 -0.000853 0.0
0.902354 1.804156 0.002316 0.0
2.517541 2.385309 0.002567 0.0
4.182167 2.353035 -0.000610 0.0
3.812460 0.637851 0.001259 0.0
1.569971 2.031070 0.003732 0.0
0.514538 1.558416 -0.002290 0.0
4.149077 0.215853 0.001892 0.0
1.226615 0.803402 -0.001553 0.0
1.799620 1.268804 0.000639 0.0
0.988500 1.035090 -0.001899 0.0
0.741903 2.113402 -0.004264 0.0
4.240668 0.353080 -0.001785 0.0
3.686674 0.263831 0.001857 0.0
1.379172 2.041862 0.007240 0.0
2.815843 2.228311 -0.000312 0.0
1.628149 0.233961 -0.001648 0.0
4.799815 1.821344 0.000460 0.0
3.580664 1.667134 -0.003487 0.0
1.999014 0.844717 0.006053 0.0
3.752463 1.601310 0.002270 0.0
4.381740 0.436356 -0.002699 0.0
2.941698 1.525505 0.001084 0.0
4.574772 0.360860 0.002268 0.0
0.196485 2.108932 0.001224 0.0
2.535832 0.364495 -0.000659 0.0
2.796734 2.455598 -0.000002 0.0
2.753554 0.246599 -0.002473 0.0
3.937772 0.051653 0.004719 0.0
4.080195 2.406883 -0.000377 0.0
1.345111 2.471729 -0.000913 0.0
1.376218 1.007325 -0.002018 0.0
0.089994 0.564988 0.002157 0.0
3.414245 1.081455 -0.001676 0.0
4.285816 1.637202 0.001214 0.0
4.300771 0.511783 -0.001579 0.0
1.293780 2.027041 0.001429 0.0
4.567209 0.486580 0.003202 0.0
1.383248 0.591468 -0.001431 0.0
3.467577 0.105796 0.001259 0.0
4.404602 1.163811 0.001999 0.0
2.280295 0.797834 0.000886 0.0
0.820031 0.958457 0.001511 0.0
4.670486 0.778187 0.002119 0.0
1.315139 1.052122 -0.001089 0.0
4.437548 1.926528 -0.001611 0.0
1.176098 1.902465 -0.000358 0.0
0.238179 2.179289 -0.005955 0.0
2.512396 0.420123 -0.001351 0.0
3.003958 1.021456 0.004109 0.0
3.601076 0.058138 -0.000705 0.0
4.238749 1.047535 0.002762 0.0
0.769700 1.231319 0.000413 0.0
3.815159 1.276584 0.005081 0.0
3.615011 0.630751 0.000682 0.0
1.707543 2.161321 0.005537 0.0
4.245341 1.755101 -0.000222 0.0
0.136943 1.115336 -0.002453 0.0
-0.000215 0.685824 0.000953 0.0
0.297364 0.250531 0.002460 0.0
1.829433 1.308717 0.000175 0.0
1.054730 1.570986 -0.005024 0.0
0.161856 0.546057 0.002422 0.0
2.157742 1.156548 -0.003208 0.0
4.580628 1.665792 0.001530 0.0
4.610243 1.933622 0.000301 0.0
3.231886 1.226258 -0.001335 0.0
0.150242 1.833354 -0.003277 0.0
4.075924 0.297042 -0.001766 0.0
2.435730 0.983114 0.002607 0.0
1.368141 0.088485 0.002070 0.0
3.330563 0.124567 0.000800 0.0
2.384065 1.856416 0.002415 0.0
4.376014 1.129241 -0.003344 0.0
0.702135 1.122234 -0.001396 0.0
1.717581 1.863837 0.001245 0.0
1.312179 1.183855 0.002077 0.0
3.626619 1.220805 0.000121 0.0
4.030749 2.255929 0.004130 0.0
2.040826 0.753656 0.000784 0.0
0.509661 0.321652 0.000100 0.0
1.034941 1.352624 -0.000650 0.0
2.011010 1.485096 -0.003224 0.0
0.135885 2.353314 -0.001260 0.0
0.852415 0.016773 -0.005442 0.0
0.345691 2.286910 -0.000233 0.0
2.133653 0.649001 0.003894 0.0
0.976802 1.639322 -0.000018 0.0
1.547584 1.156147 0.004206 0.0
1.530669 1.353448 -0.001603 0.0
0.145175 2.154965 -0.002389 0.0
4.482307 2.006554 -0.000304 0.0
3.520310 0.101557 -0.003556 0.0
0.523973 1.964975 -0.002239 0.0
3.780398 0.051192 0.002359 0.0
2.762619 2.369479 -0.001114 0.0
1.879097 2.098080 -0.000912 0.0
2.515353 2.190206 0.000573 0.0
0.226451 1.776194 -0.000578 0.0
2.427369 0.860106 0.000541 0.0
