1.23253416 0.55580199 0.00133667 0.00000000
3.12483675 0.32902544 0.00244537 0.00000000
0.62221453 1.80104561 -0.00268708 0.00000000
3.14476586 1.50499480 -0.00054902 0.00000000
3.53803401 0.03158515 0.00214387 0.00000000
2.45450437 0.01192689 -0.00004458 0.00000000
2.03943483 0.88173956 -0.00015283 0.00000000
2.98129141 1.60647721 -0.00110552 0.00000000
1.46238149 1.37580295 -0.00079966 0.00000000
0.87349596 0.33074113 -0.00388600 0.00000000
2.15173251 0.72256636 -0.00033277 0.00000000
3.74294151 0.33136051 -0.00205102 0.00000000
2.25434637 1.00952676 -0.00210628 0.00000000
2.11195953 0.97710742 -0.00127958 0.00000000
0.26241440 1.35723862 -0.00241883 0.00000000
1.23396108 1.51456140 0.00195004 0.00000000
0.73349908 1.73580125 0.00105984 0.00000000
2.20445962 1.23313545 -0.00330133 0.00000000
3.98389112 0.96670528 -0.00354182 0.00000000
2.17148567 0.81814711 0.00477371 0.00000000
0.78326838 1.51649875 0.00046576 0.00000000
3.28590295 1.02215791 0.00171493 0.00000000
2.14108316 0.83089846 0.00408760 0.00000000
2.81858238 0.90911178 -0.00278251 0.00000000
4.04353437 0.61181995 0.00136903 0.00000000
0.04093732 1.76450774 0.00068242 0.00000000
1.10386441 1.76230158 -0.00034696 0.00000000
2.97695886 0.89083933 -0.00083321 0.00000000
0.92112791 0.84629961 0.00323624 0.00000000
1.06994726 0.06316322 0.00195165 0.00000000
1.15520627 0.55098165 0.00080813 0.00000000
3.69405124 0.18958235 0.00471521 0.00000000
3.47721964 0.95775532 0.00074225 0.00000000
3.53869893 0.21117522 -0.00230561 0.00000000
1.24152732 1.32874712 0.00015059 0.00000000
0.83880176 1.34998610 -0.00868696 0.00000000
0.16579537 1.74690125 -0.00211624 0.00000000
3.55854862 1.43513946 -0.00028425 0.00000000
1.46725639 0.13922713 -0.00041670 0.00000000
1.97894623 1.14338506 -0.00329683 0.00000000
0.62958721 1.55446043 0.00420629 0.00000000
1.49630041 0.76815873 0.00042546 0.00000000
1.68465666 1.39453413 0.00045450 0.00000000
3.67405383 1.09617881 -0.00402211 0.00000000
3.23845029 1.28684180 -0.00143470 0.00000000
2.05723860 0.36627042 0.00129160 0.00000000
2.41835518 1.17078641 -0.00381405 0.00000000
2.57004802 1.22676029 0.00231830 0.00000000
1.79878768 0.82722204 -0.00170964 0.00000000
1.46323067 0.82302061 -0.00050978 0.00000000
2.25104195 0.78164183 0.00075839 0.00000000
1.93841132 0.57207426 -0.00031567 0.00000000
2.68041011 0.90423217 -0.00170908 0.00000000
0.83512662 1.19212642 0.00025934 0.00000000
3.81913522 0.02241244 0.00114496 0.00000000
2.54110157 0.35595747 -0.00346780 0.00000000
2.29891377 1.52287557 0.00149882 0.00000000
4.04041923 0.78098323 0.00153439 0.00000000
3.78006775 1.77471852 -0.00103806 0.00000000
2.60270694 0.76696803 -0.00072976 0.00000000
3.70336276 0.21764754 0.00066659 0.00000000
3.71160902 0.85801496 0.00495150 0.00000000
0.54984431 1.06715069 0.00136964 0.00000000
1.91193736 0.57368722 -0.00310953 0.00000000
3.56630877 0.80199615 0.00185569 0.00000000
0.72843392 0.47756423 0.00096857 0.00000000
0.77728215 0.09970341 0.00290621 0.00000000
2.26713420 0.22310097 0.00024888 0.00000000
1.66848595 0.81605498 -0.00490790 0.00000000
0.34626399 1.01306446 0.00094502 0.00000000
3.03946732 0.90813399 0.00167349 0.00000000
2.84957108 1.32763725 -0.00366563 0.00000000
2.08255010 1.33458566 0.00067961 0.00000000
1.98735265 0.53487880 -0.00411176 0.00000000
2.57137320 1.39838707 -0.00263605 0.00000000
2.56690624 1.49914898 0.00111675 0.00000000
2.78770512 1.37222332 0.00199023 0.00000000
3.31745043 1.30545558 0.00065988 0.00000000
1.67841391 0.05366895 0.00245365 0.00000000
2.39082915 1.60352642 0.00296261 0.00000000
2.54870670 0.91608605 0.00308202 0.00000000
0.90002893 1.23039130 0.00068413 0.00000000
3.60761284 1.32341129 0.00044229 0.00000000
1.59240470 0.56098349 0.00174863 0.00000000
0.97407350 0.63481910 0.00236281 0.00000000
0.75127776 1.44845414 0.00076884 0.00000000
0.58179842 1.20027564 -0.00295894 0.00000000
1.31141945 1.05916473 0.00180783 0.00000000
1.90612506 1.06061272 0.00219140 0.00000000
0.46435359 0.98539441 0.00004045 0.00000000
1.72925257 1.50684924 0.00477145 0.00000000
3.42678790 0.05627532 -0.00231174 0.00000000
2.97516461 0.39574099 -0.00075449 0.00000000
1.52065387 0.92167887 0.00211989 0.00000000
3.75524742 1.36540016 0.00259310 0.00000000
1.13570552 1.06544884 0.00234243 0.00000000
3.07134843 0.11686377 -0.00431082 0.00000000
3.64557764 1.24604484 0.00263941 0.00000000
0.64133933 0.08931414 -0.00464680 0.00000000
3.42797178 0.05159101 0.00383098 0.00000000
2.59085554 1.68583713 -0.00048824 0.00000000
1.56615378 1.78338364 -0.00182008 0.00000000
3.52841971 0.83787259 0.00088634 0.00000000
3.92005934 1.31700120 -0.00205217 0.00000000
1.57566157 1.31187150 -0.00413144 0.00000000
3.28489733 1.29862577 0.00106629 0.00000000
1.00337929 0.29131241 -0.00095725 0.00000000
0.17903593 1.67147756 -0.00143936 0.00000000
3.36061676 0.49554333 -0.00356493 0.00000000
0.45089620 0.51971998 -0.00462341 0.00000000
3.84399896 1.09611348 -0.00009808 0.00000000
1.07699952 1.46878757 0.00174636 0.00000000
3.01377803 0.13373277 0.00142360 0.00000000
3.53500063 0.49058870 -0.00043676 0.00000000
3.54666079 1.37408934 0.00226610 0.00000000
2.99406665 1.64421436 -0.00149721 0.00000000
3.66710538 0.14163426 0.00020571 0.00000000
1.89280137 0.85265011 -0.00210767 0.00000000
1.04469056 0.69226903 -0.00088838 0.00000000
0.79047397 0.67449292 0.00090773 0.00000000
0.21112284 0.72453959 -0.00343928 0.00000000
0.73116012 1.08669975 0.00173606 0.00000000
0.92421241 1.73766226 0.00502877 0.00000000
0.76248798 0.62596253 0.00033655 0.00000000
3.29202764 0.37643908 0.00344604 0.00000000
1.35685297 0.74343494 -0.00242237 0.00000000
0.68309749 0.11393905 0.00032906 0.00000000
0.54591296 1.30889270 -0.00071500 0.00000000
3.15962871 0.76541808 -0.00249322 0.00000000
0.63031598 1.21795902 0.00139299 0.00000000
2.25756419 1.27940554 -0.00010904 0.00000000
3.22146152 0.38409036 -0.00478442 0.00000000
0.08501250 0.46488731 -0.00099831 0.00000000
0.73366536 1.32427781 0.00014164 0.00000000
3.42189082 0.71018797 0.00473993 0.00000000
1.43692988 0.28741715 -0.00324747 0.00000000
3.75648775 0.48522647 -0.00175153 0.00000000
3.61580011 0.62168618 0.00062028 0.00000000
0.45698391 1.56925785 -0.00137589 0.00000000
0.12659296 0.21235288 -0.00127508 0.00000000
0.55133541 0.47185447 -0.00213554 0.00000000
2.69668303 1.17838744 -0.00244014 0.00000000
1.36473893 0.12734353 -0.00433566 0.00000000
2.17740670 0.14725716 -0.00071842 0.00000000
3.21189869 0.81519950 0.00231407 0.00000000
2.86180434 0.21647794 -0.00107506 0.00000000
0.93085598 1.27351566 -0.00286753 0.00000000
3.28518007 0.00751782 0.00218208 0.00000000
1.49852821 1.63121669 -0.00073097 0.00000000
0.76267223 0.43354304 0.00175526 0.00000000
2.33141953 1.72066722 0.00178348 0.00000000
3.25932773 0.73029824 -0.00009466 0.00000000
0.29682563 0.86648127 0.00356805 0.00000000
1.50208721 1.05173417 0.00329108 0.00000000
1.08110333 0.39870078 0.00179445 0.00000000
1.24740516 0.95410389 0.00059685 0.00000000
0.11998068 0.19164135 0.00184457 0.00000000
2.52216128 0.67505571 0.00153671 0.00000000
3.17422563 1.54298113 -0.00010248 0.00000000
0.81243731 1.54366194 0.00243551 0.00000000
0.79364052 1.35946874 -0.00135605 0.00000000
2.04783799 1.28852217 0.00351645 0.00000000
3.83622354 0.78075435 0.00510920 0.00000000
3.75537856 1.69624069 -0.00041631 0.00000000
1.45868943 1.03166230 -0.00092982 0.00000000
2.51868421 0.06261202 0.00086608 0.00000000
3.32740794 0.33492712 0.00401563 0.00000000
1.50149304 1.00082120 0.00229155 0.00000000
3.42586017 1.71821326 0.00102599 0.00000000
3.71686343 1.29205465 -0.00004089 0.00000000
1.37295201 1.39943374 -0.00186286 0.00000000
2.12018446 0.53236018 -0.00503790 0.00000000
0.80060839 0.82450897 -0.00093876 0.00000000
0.34974736 1.38971226 0.00133444 0.00000000
0.11474407 0.58680204 -0.00055832 0.00000000
0.56774676 1.19535967 -0.00096595 0.00000000
3.89542806 1.63403696 -0.00063249 0.00000000
1.34688085 0.67742472 0.00008171 0.00000000
3.09469232 0.76536329 -0.00044918 0.00000000
2.45943851 1.77007614 0.00049740 0.00000000
0.58167420 0.18313890 0.00089639 0.00000000
3.54440354 1.38858973 0.00042467 0.00000000
3.71810272 1.51155759 0.00311299 0.00000000
0.89447695 1.06470791 0.00111761 0.00000000
3.71728958 1.01352754 -0.00109439 0.00000000
3.65510993 1.72105226 0.00019886 0.00000000
2.45304908 0.12012367 -0.00335810 0.00000000
2.03829662 1.44202126 0.00237498 0.00000000
0.70675851 0.30144755 -0.00134087 0.00000000
0.58069360 0.67975760 0.00065515 0.00000000
1.21522849 0.81540252 -0.00037895 0.00000000
1.02359333 0.78403813 -0.00362237 0.00000000
0.03867450 0.26319228 -0.00071591 0.00000000
3.00267634 1.11538305 0.00149808 0.00000000
2.25005313 1.32258034 0.00070173 0.00000000
3.28994281 0.95627108 -0.00301039 0.00000000
2.46626921 1.61597994 0.00166025 0.00000000
1.12263986 0.34058288 0.00156085 0.00000000
3.55421062 0.27731721 0.00151469 0.00000000
3.81410427 0.62022674 -0.00513919 0.00000000
0.57719040 0.56253014 0.00150629 0.00000000
3.87559334 0.54657919 0.00122293 0.00000000
1.35541351 1.03717032 -0.00607819 0.00000000
2.30661050 1.36130164 -0.00520490 0.00000000
2.54586773 0.92837145 0.00006641 0.00000000
0.11799025 1.08769077 -0.00379875 0.00000000
1.25324229 0.77585953 0.00271020 0.00000000
0.31220967 0.65098776 0.00032708 0.00000000
2.90183364 0.56174477 0.00058472 0.00000000
0.37885508 0.08494151 0.00033802 0.00000000
1.51720827 0.02823198 0.00414259 0.00000000
0.37244828 1.75036889 0.00287762 0.00000000
2.41163283 0.32740217 -0.00233654 0.00000000
0.45141008 1.37714033 -0.00118627 0.00000000
0.55658974 0.69505825 0.00154052 0.00000000
2.00846485 1.30175848 -0.00090973 0.00000000
3.85053776 1.69974348 -0.00199186 0.00000000
1.08061576 1.68032331 0.00009628 0.00000000
1.22051253 1.62626717 0.00199956 0.00000000
1.56991171 1.27045402 -0.00137272 0.00000000
2.88067532 0.33107718 -0.00500932 0.00000000
3.35321113 1.23493209 0.00325259 0.00000000
0.08843225 1.41726919 -0.00011855 0.00000000
1.17272007 0.45305715 -0.00086947 0.00000000
2.54080498 0.18508139 0.00396472 0.00000000
1.55920967 0.11441528 -0.00078114 0.00000000
0.78530696 0.51075927 -0.00159898 0.00000000
3.18061205 0.59096674 0.00444470 0.00000000
0.07324456 0.35895457 -0.00186165 0.00000000
1.56454449 1.55987088 0.00068889 0.00000000
4.02849081 0.93852785 0.00101719 0.00000000
3.18997766 1.18657714 -0.00378560 0.00000000
1.10157963 0.51605023 0.00006150 0.00000000
1.09560174 0.97827860 0.00155553 0.00000000
1.51445895 0.74654851 -0.00528250 0.00000000
2.30695729 1.45371459 -0.00251174 0.00000000
2.83408449 1.77924907 -0.00438972 0.00000000
3.96559569 0.81744229 -0.00230039 0.00000000
1.26479590 0.64195248 -0.00117698 0.00000000
3.07473319 0.08130966 0.00001491 0.00000000
3.94960417 1.31872269 0.00133617 0.00000000
3.47885948 1.54727369 -0.00025061 0.00000000
3.64151438 1.02492837 0.00034925 0.00000000
2.26860807 1.01204462 0.00307506 0.00000000
1.09260557 0.51700247 -0.00229259 0.00000000
4.01278776 0.81001677 -0.00044141 0.00000000
1.00268626 1.02322627 0.00036741 0.00000000
2.07656705 1.10481731 0.00059252 0.00000000
2.84621800 0.50215744 0.00049729 0.00000000
2.31783045 0.46465011 -0.00164185 0.00000000
1.34904422 0.44108363 -0.00030448 0.00000000
2.24756957 1.00271939 -0.00273740 0.00000000
1.47974881 0.32491369 -0.00049494 0.00000000
2.44453716 0.70415674 -0.00310991 0.00000000
2.19480199 1.03947297 0.00124571 0.00000000
3.49119163 1.29817345 -0.00124028 0.00000000
1.59842425 0.76580982 -0.00154445 0.00000000
1.09759169 1.67167412 -0.00225022 0.00000000
1.29023846 1.20790945 -0.00149695 0.00000000
4.03419714 1.79028066 0.00372416 0.00000000
3.42378610 0.11659645 -0.00033722 0.00000000
3.38682692 0.08842801 0.00270080 0.00000000
3.88871387 1.19759978 0.00102632 0.00000000
0.80907686 1.07027949 -0.00201671 0.00000000
3.41864459 0.87440766 0.00064041 0.00000000
3.84351491 1.06445079 -0.00103740 0.00000000
3.99524310 1.61925159 0.00272936 0.00000000
2.14581856 0.62865614 0.00170880 0.00000000
3.48481241 1.78592127 -0.00062939 0.00000000
0.49451901 1.79118522 0.00217958 0.00000000
2.94911972 0.69648976 0.00052988 0.00000000
2.91691772 1.53139472 -0.00104401 0.00000000
2.11829452 1.74191235 0.00172105 0.00000000
1.32767864 1.54231042 0.00705852 0.00000000
0.62743086 0.63046944 -0.00103995 0.00000000
0.19079896 0.12076780 -0.00174283 0.00000000
2.99705506 1.12351897 0.00027795 0.00000000
0.85247752 0.92907983 -0.00135660 0.00000000
2.16790335 0.93625561 0.00114809 0.00000000
3.07617941 1.75189395 -0.00130069 0.00000000
2.13563981 1.56378903 -0.00035140 0.00000000
3.98406937 0.10605538 -0.00057786 0.00000000
1.98119799 1.27179959 -0.00212899 0.00000000
0.35956186 1.62932025 0.00035532 0.00000000
2.33283009 1.50770738 -0.00456734 0.00000000
4.05114668 1.21149703 0.00071142 0.00000000
0.83335705 1.07589461 -0.00043595 0.00000000
2.92292067 1.64683023 -0.00180517 0.00000000
0.28241011 0.50211362 0.00364433 0.00000000
2.92239014 0.83696743 -0.00278817 0.00000000
3.15982447 1.29619584 0.00167355 0.00000000
3.48270388 0.68376779 0.00095873 0.00000000
0.25029566 0.08690355 0.00099435 0.00000000
1.79402857 1.16149102 0.00249660 0.00000000
3.63046379 1.16790558 -0.00244157 0.00000000
2.78990554 0.47183057 -0.00198155 0.00000000
0.83265265 1.51708749 0.00479510 0.00000000
3.28137335 0.42271581 -0.00350789 0.00000000
1.75405837 1.35982495 -0.00150725 0.00000000
0.21104029 1.23425928 -0.00133341 0.00000000
3.92096651 1.23945995 -0.00211548 0.00000000
0.83356687 0.88691024 -0.00300443 0.00000000
3.89538568 0.86318504 -0.00103664 0.00000000
3.89940183 0.77144506 0.00319816 0.00000000
3.96933569 1.39224619 -0.00139494 0.00000000
1.57111657 1.54133271 -0.00527274 0.00000000
2.94185786 1.74939377 0.00012899 0.00000000
3.56822809 0.30018196 -0.00506498 0.00000000
0.21437084 1.46756608 -0.00025354 0.00000000
2.52908906 0.52140452 0.00052908 0.00000000
1.09361009 0.45155885 0.00420631 0.00000000
3.44020764 1.23196043 -0.00335717 0.00000000
3.70586232 1.13877684 -0.00489410 0.00000000
2.06373437 0.14496363 0.00524933 0.00000000
3.85174570 1.34579641 -0.00266554 0.00000000
3.18211864 0.22043368 0.00050006 0.00000000
3.98739946 0.91733546 -0.00111939 0.00000000
3.84684200 1.67238082 -0.00287294 0.00000000
2.75824374 0.10503456 0.00046267 0.00000000
3.22690439 0.14287414 -0.00123907 0.00000000
3.33378271 1.49238611 -0.00246736 0.00000000
0.91900584 1.28445935 -0.00012552 0.00000000
0.57943268 1.64918631 -0.00437627 0.00000000
1.52131116 1.32288302 0.00481538 0.00000000
3.27527535 1.80090315 -0.00328752 0.00000000
0.16320359 1.17401236 -0.00259541 0.00000000
2.57611849 1.23737203 0.00548919 0.00000000
3.48201565 0.35956946 -0.00261594 0.00000000
1.09430630 0.40067407 -0.00399566 0.00000000
1.61016963 0.43858380 -0.00323358 0.00000000
1.43910714 0.91142243 0.00233370 0.00000000
1.11161739 1.28872022 0.00282408 0.00000000
1.76740872 0.67199137 0.00145681 0.00000000
3.03284262 0.12097523 0.00346120 0.00000000
0.77689932 1.67794454 -0.00205924 0.00000000
0.65846757 0.68177291 -0.00319178 0.00000000
0.08908607 1.16952962 0.00111264 0.00000000
2.43017683 1.32823469 -0.00546173 0.00000000
1.18575530 1.73457986 -0.00210826 0.00000000
0.32642426 1.28294996 -0.00014146 0.00000000
0.75565219 1.19626758 0.00320305 0.00000000
1.45175736 1.70481938 -0.00350768 0.00000000
2.95124648 0.08941188 0.00004865 0.00000000
1.62287652 0.63433002 -0.00262141 0.00000000
1.41685838 0.94006844 0.00118539 0.00000000
0.48398638 1.55422162 0.00275282 0.00000000
0.70811580 1.57598523 0.00259099 0.00000000
1.56385762 0.06701514 0.00133841 0.00000000
1.05875369 0.29920096 0.00141046 0.00000000
3.57586243 0.55523004 0.00163259 0.00000000
2.40488076 1.35721277 0.00074170 0.00000000
3.11714188 0.99786532 -0.00259743 0.00000000
0.97223545 1.43449364 0.00477323 0.00000000
0.40371232 1.72153947 0.00257527 0.00000000
4.00308511 1.03083199 0.00001891 0.00000000
3.20604779 1.76162591 -0.00531527 0.00000000
1.68538807 1.28134913 0.00261863 0.00000000
0.20354054 1.24208051 0.00461993 0.00000000
3.01542711 0.55626544 -0.00424892 0.00000000
0.71361777 1.74291503 -0.00080272 0.00000000
3.78417656 1.11886125 0.00095670 0.00000000
3.61201765 1.57900990 0.00002092 0.00000000
2.53613276 1.50670081 -0.00232272 0.00000000
3.53461578 1.63959516 0.00225332 0.00000000
1.19147848 0.03597874 0.00403784 0.00000000
3.71361992 0.39784208 0.00227736 0.00000000
2.04560202 1.29116721 0.00045465 0.00000000
1.89617687 0.67444946 -0.00145785 0.00000000
3.86388160 0.35035865 0.00428433 0.00000000
3.48445598 1.07889988 0.00055965 0.00000000
0.45115945 0.75666849 0.00222437 0.00000000
1.47191404 0.31236468 -0.00586569 0.00000000
3.15179752 0.68244082 -0.00185714 0.00000000
3.21593013 0.20428830 -0.00389800 0.00000000
1.92010892 0.10200817 -0.00214872 0.00000000
2.55735997 1.71997308 -0.00067188 0.00000000
0.31889116 1.75179288 -0.00206580 0.00000000
1.65538489 1.78545026 -0.00261315 0.00000000
0.28575750 0.95060649 -0.00273531 0.00000000
1.52949365 1.39751687 0.00037666 0.00000000
1.07883286 0.64852075 -0.00527060 0.00000000
1.17884556 0.73244159 0.00131279 0.00000000
2.47013581 0.72453445 -0.00221468 0.00000000
0.40954483 0.51941798 -0.00326766 0.00000000
0.81358741 1.24470407 0.00516624 0.00000000
1.81122955 0.75840745 0.00011120 0.00000000
0.05206437 0.80457767 0.00346594 0.00000000
0.25212904 1.04760763 0.00047025 0.00000000
1.54656913 0.86324540 -0.00174886 0.00000000
3.46934700 0.69334441 0.00296861 0.00000000
0.41936738 1.57345336 -0.00314840 0.00000000
3.11840882 1.48952469 0.00507519 0.00000000
1.70417694 0.87129887 -0.00096531 0.00000000
2.91052162 1.09626090 0.00187660 0.00000000
2.60766408 0.22001969 0.00029339 0.00000000
0.09098066 0.25979720 -0.00220360 0.00000000
1.73258907 1.57402287 0.00088403 0.00000000
0.38074345 1.31567565 0.00179621 0.00000000
1.38384082 0.77488906 0.00507320 0.00000000
2.39789051 0.57376474 -0.00140687 0.00000000
2.76230675 0.19141882 -0.00147012 0.00000000
3.82105319 1.20575158 0.00104083 0.00000000
2.69546807 1.46710746 -0.00220118 0.00000000
2.06523166 0.88292692 -0.00038669 0.00000000
2.28617307 1.28632160 0.00117745 0.00000000
0.17663509 0.26558165 -0.00231854 0.00000000
0.47961719 1.38327089 0.00009381 0.00000000
0.54880260 1.28708409 0.00670014 0.00000000
3.30939409 0.51019830 -0.00257704 0.00000000
1.01561019 0.26809994 -0.00155267 0.00000000
3.63579970 1.30059052 0.00324559 0.00000000
3.40276803 0.12379782 0.00419790 0.00000000
3.56873777 1.01087481 -0.00102868 0.00000000
0.51155353 1.10202113 -0.00201464 0.00000000
1.81267410 0.86695060 -0.00063865 0.00000000
3.02414643 0.29794869 -0.00287716 0.00000000
1.85105464 0.90603077 -0.00475329 0.00000000
3.33394500 0.67521228 -0.00266194 0.00000000
3.51217710 0.18500303 -0.00124132 0.00000000
1.02613591 1.08244512 -0.00221637 0.00000000
3.83184373 1.78483639 0.00157691 0.00000000
0.08413573 1.20870077 -0.00257656 0.00000000
2.85261090 1.55080300 -0.00335506 0.00000000
1.99069076 0.08559134 -0.00187368 0.00000000
3.57472457 0.65360107 0.00100601 0.00000000
0.62003411 1.34339668 -0.00504367 0.00000000
0.82545340 1.75785514 -0.00461778 0.00000000
2.87070475 0.94817141 -0.00389398 0.00000000
1.97603276 1.18912040 -0.00567586 0.00000000
1.28503828 1.17116822 -0.00019345 0.00000000
3.27322464 1.53435970 0.00156085 0.00000000
0.96895408 0.06476995 -0.00059844 0.00000000
3.81837203 1.33044006 0.00256985 0.00000000
0.59838680 1.14206172 -0.00058695 0.00000000
0.28988770 1.03570095 -0.00448668 0.00000000
0.30046130 0.79039884 0.00454476 0.00000000
0.03514651 0.46077529 0.00286764 0.00000000
1.59699912 1.62048809 -0.00074269 0.00000000
2.43265019 0.32746013 0.00292609 0.00000000
0.12096181 0.60349455 0.00416476 0.00000000
3.53253941 0.58473770 0.00369397 0.00000000
2.11710563 0.05350379 -0.00422488 0.00000000
3.88998743 0.05599828 -0.00143842 0.00000000
1.74707172 1.25231962 -0.00296112 0.00000000
3.38791284 1.44830439 -0.00212268 0.00000000
1.62129027 0.84917728 -0.00382798 0.00000000
4.03995933 0.43165538 -0.00017402 0.00000000
3.51217244 1.14433239 0.00557997 0.00000000
0.68855746 1.70120776 0.00097744 0.00000000
1.16313889 1.43930910 -0.00086258 0.00000000
0.04955762 1.04737932 0.00721204 0.00000000
3.23512354 1.57458585 -0.00281117 0.00000000
1.68677424 1.04263219 -0.00430523 0.00000000
3.08613219 0.01900822 0.00003123 0.00000000
3.84988520 0.26482927 -0.00085779 0.00000000
1.32018791 0.16799853 -0.00214358 0.00000000
1.10683134 0.16408008 -0.00021180 0.00000000
0.60254258 1.48171551 0.00138766 0.00000000
1.85440708 0.95072473 -0.00182254 0.00000000
3.91203074 0.66526758 -0.00061248 0.00000000
3.92561747 0.79603916 0.00088169 0.00000000
2.30345274 1.10494503 0.00066313 0.00000000
0.89720598 0.97509635 -0.00089262 0.00000000
1.07541400 1.51117244 -0.00220872 0.00000000
0.37046717 1.50296591 0.00064819 0.00000000
2.46216577 0.17722361 -0.00067000 0.00000000
2.91269593 1.18700564 0.00254361 0.00000000
2.75158577 1.65617223 -0.00240321 0.00000000
0.24594653 0.41799574 -0.00362786 0.00000000
0.46452836 1.17060294 0.00004849 0.00000000
1.39203773 0.68055515 -0.00115031 0.00000000
2.87120104 1.27788966 0.00001555 0.00000000
3.42456374 0.20280223 -0.00013423 0.00000000
3.57284412 0.31771059 0.00023830 0.00000000
3.94178971 0.98612990 0.00220759 0.00000000
2.67025602 1.74890081 -0.00151371 0.00000000
3.18113688 0.22863144 -0.00230128 0.00000000
1.81948733 1.21192062 0.00363249 0.00000000
3.78959058 0.71659335 -0.00170999 0.00000000
2.95921499 0.42248473 -0.00084377 0.00000000
0.74183035 1.71884783 0.00161439 0.00000000
3.29475015 0.13241689 0.00147229 0.00000000
0.92606645 1.57527224 0.00336343 0.00000000
3.94853851 0.65126737 0.00271609 0.00000000
2.71979390 1.25455927 -0.00215874 0.00000000
1.33052306 0.63824043 0.00336433 0.00000000
0.80966986 0.96804879 -0.00121998 0.00000000
3.69683239 0.88323792 -0.00248282 0.00000000
1.79965535 0.03292319 -0.00162986 0.00000000
3.74663335 0.80672654 0.00028845 0.00000000
0.53421859 0.84838643 -0.00285533 0.00000000
4.03746650 0.36102240 -0.00279844 0.00000000
0.45888009 0.06797188 -0.00108139 0.00000000
3.00995675 0.78347155 0.00376101 0.00000000
2.89931995 1.33685811 0.00050059 0.00000000
0.80248936 1.69082171 -0.00158847 0.00000000
0.88548245 0.53071503 -0.00388772 0.00000000
3.09613309 1.31120207 -0.00070274 0.00000000
1.13741219 0.54092774 0.00093934 0.00000000
1.27973594 0.06167066 0.00110023 0.00000000
0.81353704 1.47775700 0.00120200 0.00000000
1.90889225 0.65994459 0.00165163 0.00000000
1.99785696 0.97740244 0.00048532 0.00000000
3.88069963 1.75908696 -0.00025692 0.00000000
2.29469221 0.02460596 -0.00327817 0.00000000
3.38067581 1.22863358 -0.00203631 0.00000000
0.45773925 1.64412659 -0.00254853 0.00000000
2.44890196 1.08483135 0.00144193 0.00000000
2.17135577 0.94526943 -0.00694054 0.00000000
0.07242502 0.25980904 0.00215753 0.00000000
3.45364559 1.05859001 0.00189126 0.00000000
0.63568060 0.01093223 -0.00404292 0.00000000
1.19506875 1.06090480 0.00414704 0.00000000
3.00050065 1.27469228 0.00034475 0.00000000
2.92883041 0.94803337 -0.00155103 0.00000000
3.05380562 1.34253986 0.00342563 0.00000000
0.39252739 0.53508425 -0.00414978 0.00000000
3.16896293 0.03397670 -0.00216317 0.00000000
2.13017265 0.26901032 0.00184527 0.00000000
2.13091364 1.40352133 -0.00079731 0.00000000
1.87198371 1.32978742 -0.00217145 0.00000000
4.04395853 0.71900338 -0.00035737 0.00000000
2.67749130 1.33129660 0.00042069 0.00000000
2.04828147 0.42383557 0.00098872 0.00000000
2.43870312 1.14885612 0.00455536 0.00000000
3.75364489 1.25117684 -0.00014772 0.00000000
2.43924462 0.85335071 0.00019763 0.00000000
1.56809600 0.18155650 -0.00092317 0.00000000
1.95536561 1.10396190 -0.00159101 0.00000000
1.32125025 0.37251119 -0.00218785 0.00000000
0.62084659 0.72116715 0.00275587 0.00000000
1.47046370 0.51176456 0.00199017 0.00000000
1.98207648 0.80673366 -0.00087864 0.00000000
3.88846382 1.66155092 0.00033582 0.00000000
2.32376022 0.77806978 0.00362095 0.00000000
3.73576984 0.95136219 0.00242268 0.00000000
2.21112257 1.41994814 0.00108804 0.00000000
3.87910192 0.73756033 -0.00238192 0.00000000
4.03474845 0.86447348 0.00345385 0.00000000
3.42946474 1.45698457 0.00424791 0.00000000
3.29295873 1.29342752 -0.00480726 0.00000000
1.84189963 0.13323795 0.00115247 0.00000000
1.53991685 1.07781521 0.00243947 0.00000000
3.81845579 0.40796102 -0.00150521 0.00000000
2.85216761 0.49186078 0.00077623 0.00000000
0.94267041 1.16776251 0.00034179 0.00000000
3.95252729 1.50929262 -0.00022606 0.00000000
3.21329193 0.07109412 -0.00469506 0.00000000
1.77609682 1.27072502 -0.00026606 0.00000000
0.29587284 1.15560627 0.00261231 0.00000000
0.66404721 0.65199226 0.00139785 0.00000000
0.72899682 1.74542177 0.00592211 0.00000000
1.88376403 0.54735761 -0.00365295 0.00000000
1.45275670 0.49282927 -0.00044819 0.00000000
0.07680220 0.42825300 0.00241080 0.00000000
0.65572810 0.43668478 -0.00281218 0.00000000
1.09251012 0.77359267 0.00044938 0.00000000
2.18324949 0.77653835 0.00070926 0.00000000
0.37369980 1.50449216 0.00649072 0.00000000
3.78882148 1.39555612 -0.00280372 0.00000000
1.42906267 1.48887421 -0.00124649 0.00000000
1.55001765 1.76094211 -0.00306684 0.00000000
2.66148063 1.32137934 0.00377349 0.00000000
2.89264588 0.78263498 -0.00407236 0.00000000
1.74898638 0.28410440 0.00127200 0.00000000
0.67010218 1.44275067 0.00237008 0.00000000
0.14958323 0.00803711 0.00142326 0.00000000
0.68248069 1.48405965 -0.00180532 0.00000000
3.76472065 1.38906846 -0.00208414 0.00000000
1.61200570 0.20310533 -0.00060392 0.00000000
2.84866491 0.97944202 -0.00168099 0.00000000
2.81620545 1.76852361 -0.00182458 0.00000000
2.09145264 1.74989336 0.00250858 0.00000000
0.46189130 1.50589259 -0.00004482 0.00000000
0.21026090 1.09061492 0.00200585 0.00000000
3.61252813 1.50169379 0.00326863 0.00000000
0.33430659 1.17895841 -0.00199404 0.00000000
1.07494242 1.40297733 -0.00287450 0.00000000
2.56950424 0.74828395 -0.00045569 0.00000000
1.50039645 1.63147830 0.00033665 0.00000000
2.58964858 1.11922857 0.00312470 0.00000000
2.90840198 0.38895035 -0.00185566 0.00000000
0.11903800 1.72353617 -0.00328885 0.00000000
2.87808637 0.44567036 0.00041069 0.00000000
1.56410116 0.30831625 -0.00003514 0.00000000
1.49829697 1.77656989 0.00077210 0.00000000
0.94525877 1.17236573 -0.00115908 0.00000000
3.53461891 0.47747732 -0.00567049 0.00000000
3.66039498 0.64686223 -0.00033391 0.00000000
2.80047715 1.67497231 -0.00385664 0.00000000
1.46313772 0.57660090 0.00081298 0.00000000
1.79666199 0.11281378 0.00116665 0.00000000
3.02862735 1.17289598 -0.00287722 0.00000000
0.33510881 0.36002667 -0.00454749 0.00000000
0.22085287 1.79142569 0.00310529 0.00000000
2.15406578 0.69423674 0.00055914 0.00000000
2.06765345 0.75523359 -0.00053843 0.00000000
2.89331233 0.80542654 0.00018604 0.00000000
1.60177860 0.79082763 -0.00290123 0.00000000
2.61981382 0.11403500 0.00203554 0.00000000
2.57265260 0.55568490 0.00076088 0.00000000
1.97462365 0.12274513 0.00194026 0.00000000
2.63083940 0.78162846 0.00053278 0.00000000
1.64799780 0.91335989 -0.00420768 0.00000000
1.76491956 0.40016073 0.00141478 0.00000000
3.65475805 0.43993363 -0.00415825 0.00000000
3.76619944 0.64597405 -0.00137630 0.00000000
1.16744911 0.96334590 0.00136078 0.00000000
2.55904167 1.17817182 0.00388008 0.00000000
1.64808809 0.50341882 -0.00300459 0.00000000
0.95541397 0.10159784 -0.00312054 0.00000000
0.21015112 1.66029833 -0.00042988 0.00000000
2.57294929 0.18162140 0.00244281 0.00000000
0.55050420 0.07985063 0.00298115 0.00000000
2.57874218 0.31400306 -0.00330857 0.00000000
2.76533315 0.39768317 0.00393780 0.00000000
3.38426780 0.79248974 -0.00128320 0.00000000
2.96317269 0.89182633 -0.00039799 0.00000000
0.62500533 0.77383017 -0.00204683 0.00000000
0.52971980 0.12465925 0.00398463 0.00000000
0.70701037 1.66862438 -0.00348714 0.00000000
0.87103812 0.09508845 0.00210254 0.00000000
0.12392131 1.48489533 0.00210423 0.00000000
1.74684141 0.89027881 -0.00145108 0.00000000
1.27689268 0.94852315 -0.00527464 0.00000000
0.07549161 1.21541923 0.00025799 0.00000000
2.27691439 0.49981842 0.00121297 0.00000000
0.25228311 1.46519337 0.00103026 0.00000000
0.91908158 0.05155696 -0.00336858 0.00000000
3.34000924 0.77471336 0.00038703 0.00000000
2.76305724 0.54545614 -0.00058994 0.00000000
2.34418239 1.40309673 -0.00122489 0.00000000
0.31541736 0.54435752 -0.00162109 0.00000000
1.96705096 1.17012275 0.00335327 0.00000000
2.48715586 1.09780578 0.00271679 0.00000000
3.78137212 1.68129072 -0.00241091 0.00000000
0.98466068 0.52447969 -0.00070512 0.00000000
1.99560679 0.95540356 -0.00080442 0.00000000
0.00326186 1.34564814 0.00003565 0.00000000
2.37959938 0.04188476 0.00512675 0.00000000
2.36431747 0.18194964 -0.00195498 0.00000000
1.26627072 0.48193815 0.00103336 0.00000000
2.04676579 0.33364955 0.00265470 0.00000000
1.68236665 0.89678419 0.00102926 0.00000000
3.04839647 0.46777432 -0.00079684 0.00000000
1.90448031 1.64702566 -0.00221209 0.00000000
2.36122332 0.16687579 -0.00137181 0.00000000
2.38976088 1.55230497 0.00203973 0.00000000
1.99134903 1.12025682 0.00346836 0.00000000
1.86685729 0.73487187 -0.00157473 0.00000000
2.07577860 1.43918379 -0.00377183 0.00000000
3.93247008 1.57188269 -0.00029872 0.00000000
3.53024049 0.02044230 -0.00376304 0.00000000
1.70915833 0.60392813 -0.00237160 0.00000000
1.05763850 0.00510068 -0.00150582 0.00000000
1.41410120 0.04135434 0.00194928 0.00000000
3.15879620 0.54186066 -0.00092118 0.00000000
1.92088374 1.53751697 0.00006417 0.00000000
0.56263811 0.62488544 0.00392410 0.00000000
3.97141467 0.69542778 -0.00179347 0.00000000
3.55337038 0.48975261 0.00259058 0.00000000
2.13859173 1.68584514 -0.00014451 0.00000000
3.85583358 0.59122932 -0.00252690 0.00000000
1.68610984 0.32908715 -0.00091110 0.00000000
0.41421551 1.76844300 0.00390493 0.00000000
0.19498381 0.50116857 -0.00028242 0.00000000
2.05468389 1.40422449 -0.00151021 0.00000000
2.42189251 1.68747604 0.00243628 0.00000000
0.59235434 0.91780955 -0.00262530 0.00000000
0.73061408 0.67305348 0.00458407 0.00000000
0.15194051 0.78756574 0.00225042 0.00000000
2.17440564 0.96305981 -0.00062898 0.00000000
3.73076466 0.31320656 -0.00155679 0.00000000
3.79191246 0.88208186 0.00340519 0.00000000
3.24767369 1.50979383 0.00316120 0.00000000
1.04500256 0.50345972 0.00226525 0.00000000
1.31089952 0.08901818 -0.00006057 0.00000000
3.11022758 1.19210677 -0.00224702 0.00000000
0.33979989 0.66207984 -0.00118615 0.00000000
1.35239935 1.50803848 0.00109278 0.00000000
3.34445870 1.56967452 0.00038801 0.00000000
1.55188455 0.91805960 -0.00064192 0.00000000
0.09531956 1.62557650 -0.00094381 0.00000000
2.61339631 1.41198771 0.00350155 0.00000000
3.73245553 1.69662772 0.00015885 0.00000000
2.09965897 0.89926001 0.00036277 0.00000000
0.33881824 1.52769640 -0.00057193 0.00000000
1.47614566 1.38065428 -0.00215062 0.00000000
3.78586855 1.43911408 -0.00183600 0.00000000
3.19691472 0.29335739 -0.00265671 0.00000000
1.39272301 0.83186277 -0.00009340 0.00000000
1.81866430 0.56719742 -0.00221624 0.00000000
1.67624145 1.13812988 0.00205139 0.00000000
0.10280060 0.97337809 0.00496860 0.00000000
1.41823741 1.58762412 0.00106966 0.00000000
1.66755018 0.19508501 -0.00306016 0.00000000
0.53597168 1.54471621 0.00478079 0.00000000
3.61864951 0.20579709 0.00146442 0.00000000
3.78994892 0.60726298 0.00217952 0.00000000
3.25385048 0.62579961 -0.00239285 0.00000000
0.67053697 0.20472088 -0.00042745 0.00000000
2.43230511 1.23080392 0.00217528 0.00000000
0.99721238 1.46745781 0.00014061 0.00000000
3.73827858 0.40746438 -0.00292174 0.00000000
3.82000624 0.71624154 0.00081995 0.00000000
2.46747608 0.09708725 0.00077593 0.00000000
1.97648820 0.49763342 0.00194125 0.00000000
3.75693663 0.80534336 0.00060726 0.00000000
0.56164999 0.88587778 0.00054586 0.00000000
2.30792485 0.95132134 -0.00031293 0.00000000
3.87205663 0.81124644 0.00589627 0.00000000
2.58958067 0.26267680 -0.00471347 0.00000000
2.35752663 1.04164112 0.00092985 0.00000000
3.47051418 0.90523016 -0.00183672 0.00000000
0.43173680 0.16655020 -0.00950788 0.00000000
0.36471951 1.24929506 0.00313590 0.00000000
2.02521450 0.33636625 -0.00162622 0.00000000
1.63802581 0.38168967 -0.00204658 0.00000000
1.72931786 1.77260048 0.00080583 0.00000000
3.40256509 1.60658250 0.00087086 0.00000000
4.00145928 0.10465306 -0.00028594 0.00000000
3.63850036 0.72815289 -0.00223840 0.00000000
1.86942254 1.22409019 -0.00140217 0.00000000
3.62917379 1.42176611 0.00084905 0.00000000
3.86168331 0.06203562 0.00067088 0.00000000
0.78839840 1.16122704 -0.00280344 0.00000000
2.73442829 0.86566132 0.00002090 0.00000000
3.65568160 1.27632217 -0.00170659 0.00000000
1.19009173 0.38822607 0.00333080 0.00000000
0.04415840 0.55005034 -0.00076213 0.00000000
1.53621288 1.65662896 0.00216112 0.00000000
1.73324187 1.18131194 -0.00003515 0.00000000
3.62803511 0.30484383 -0.00217259 0.00000000
3.45246426 1.65938345 -0.00420801 0.00000000
1.22877272 1.45873031 0.00034910 0.00000000
3.66857241 0.89121157 0.00324311 0.00000000
2.19064951 0.61011572 0.00057691 0.00000000
3.73681364 0.92230145 0.00036147 0.00000000
1.51587387 0.23645273 0.00196451 0.00000000
0.49983979 0.27408662 -0.00309234 0.00000000
0.27792837 0.08882998 0.00171859 0.00000000
3.83059781 1.46466576 0.00371832 0.00000000
2.64670697 0.08337582 0.00190511 0.00000000
3.34968235 0.71624517 -0.00050873 0.00000000
2.08058424 1.41073131 -0.00322966 0.00000000
3.48788948 1.07409768 0.00178470 0.00000000
2.49526104 0.31917351 0.00188722 0.00000000
0.36269284 0.66687831 0.00401046 0.00000000
0.43039115 1.68775432 0.00016468 0.00000000
3.54589798 1.29415294 0.00114426 0.00000000
3.48159118 1.02664114 0.00197413 0.00000000
3.42845052 0.65891756 0.00309965 0.00000000
3.90582156 0.41325659 0.00361940 0.00000000
1.59055331 0.52630314 0.00255064 0.00000000
0.91149004 1.23089962 0.00286852 0.00000000
2.15802201 1.21150801 0.00039321 0.00000000
2.73095652 0.91500667 -0.00097726 0.00000000
0.82117064 0.04174184 0.00227949 0.00000000
3.60799751 0.41194071 0.00295134 0.00000000
2.31355833 1.26418941 0.00564201 0.00000000
1.44853971 1.10607191 -0.00490627 0.00000000
3.17443408 1.49371609 -0.00282599 0.00000000
1.00557765 0.57383609 0.00225716 0.00000000
1.17090885 1.24416587 -0.00352615 0.00000000
0.80545395 0.46549046 0.00185021 0.00000000
2.19889569 1.72016361 -0.00089573 0.00000000
2.46764441 0.45028237 0.00094216 0.00000000
1.56952763 1.07217431 -0.00418425 0.00000000
0.48560116 1.45967639 -0.00173685 0.00000000
1.84783432 0.75624688 0.00395571 0.00000000
0.74719198 0.59781802 0.00114960 0.00000000
1.05635636 1.00052146 0.00048152 0.00000000
1.97389743 0.87310508 0.00366545 0.00000000
1.26366512 1.40685530 0.00206082 0.00000000
2.14437572 1.21449480 0.00130951 0.00000000
2.43864066 1.53573841 0.00130427 0.00000000
3.73983550 1.35942008 0.00355168 0.00000000
2.42034959 1.29613111 0.00033975 0.00000000
1.13254160 0.99708918 -0.00146838 0.00000000
2.55055967 1.46637974 -0.00224286 0.00000000
2.09535600 1.36684809 0.00178905 0.00000000
3.22365379 1.33702316 -0.00014098 0.00000000
0.97991429 0.16615857 0.00220630 0.00000000
3.36233091 1.50607608 -0.00134174 0.00000000
0.47494210 1.48854905 0.00276878 0.00000000
0.33103618 1.67590630 -0.00014948 0.00000000
3.79659038 1.21257143 -0.00043501 0.00000000
1.83387360 0.82746149 0.00402348 0.00000000
1.14531758 1.63679718 -0.00151386 0.00000000
0.60759772 1.50276972 0.00553360 0.00000000
0.52440094 0.75353609 0.00257768 0.00000000
2.13809407 1.46246029 -0.00183619 0.00000000
0.53159477 1.03617643 0.00381401 0.00000000
1.89487966 0.94353397 0.00267815 0.00000000
3.29181681 1.71392717 0.00481306 0.00000000
0.17328993 1.11119794 0.00210346 0.00000000
3.74931397 0.38756391 -0.00322990 0.00000000
2.75841753 0.16534581 -0.00063154 0.00000000
0.10006047 0.31978707 -0.00375333 0.00000000
2.63488147 0.52898923 -0.00131478 0.00000000
3.18781095 1.36543842 0.00204103 0.00000000
1.94300011 0.61823236 -0.00137114 0.00000000
2.46318540 0.87948598 -0.00205229 0.00000000
0.02462939 1.00222681 -0.00089596 0.00000000
0.35004514 1.59782621 -0.00083723 0.00000000
2.63568068 1.79863299 0.00174168 0.00000000
1.41245591 1.00544516 0.00112923 0.00000000
2.60994610 0.83587003 -0.00144923 0.00000000
0.43935735 0.38596231 -0.00124629 0.00000000
2.78764596 0.74559736 -0.00335686 0.00000000
0.57416857 1.04976079 -0.00364378 0.00000000
3.42727514 1.73552122 -0.00305122 0.00000000
1.21209813 0.17569462 -0.00009432 0.00000000
1.26182104 0.06346097 -0.00115459 0.00000000
3.96408572 0.98962451 -0.00745897 0.00000000
0.59978352 1.47422850 0.00397261 0.00000000
0.59901498 0.04312532 -0.00325114 0.00000000
0.43747153 1.23114774 -0.00290088 0.00000000
3.64592315 1.68027883 -0.00178448 0.00000000
1.07542979 1.42380479 0.00429496 0.00000000
1.31760295 0.70298080 0.00054832 0.00000000
1.76297619 0.25690952 -0.00174231 0.00000000
3.03655995 0.65346414 0.00241427 0.00000000
1.31602450 1.54277422 0.00239941 0.00000000
3.22764837 0.29809378 0.00085983 0.00000000
0.53844354 0.71787811 -0.00024382 0.00000000
2.03821830 0.68098899 -0.00472057 0.00000000
2.32031271 1.23884383 -0.00004287 0.00000000
1.87872858 1.18974731 -0.00262229 0.00000000
0.72540114 1.22030621 0.00571251 0.00000000
3.71731214 0.04703691 -0.00015701 0.00000000
3.47409055 0.39822561 0.00230342 0.00000000
1.51699975 0.74063829 -0.00196237 0.00000000
3.75837509 0.32677139 -0.00129685 0.00000000
3.85587072 1.64047236 0.00038560 0.00000000
2.47682621 1.76605702 0.00265889 0.00000000
2.22189987 0.80605666 -0.00105807 0.00000000
1.28853096 0.36460573 0.00109887 0.00000000
3.32137714 0.79357335 -0.00313410 0.00000000
0.15104593 1.03477341 0.00146895 0.00000000
0.58484181 1.63938267 0.00106800 0.00000000
1.79023244 1.22227600 -0.00168800 0.00000000
1.77986178 0.04222561 0.00109196 0.00000000
3.62493465 1.51733470 0.00134497 0.00000000
0.35894834 1.21376497 -0.00182318 0.00000000
1.66961564 1.25811654 -0.00041415 0.00000000
2.30766869 0.94817502 -0.00232570 0.00000000
0.14164282 1.11061283 -0.00072375 0.00000000
1.82608110 0.67814211 -0.00081745 0.00000000
2.40241975 0.50481715 -0.00082364 0.00000000
3.75451794 0.29908978 -0.00790080 0.00000000
0.88244742 1.05573361 -0.00055395 0.00000000
2.83832470 0.48183461 -0.00066547 0.00000000
0.66211553 1.31442695 0.00169197 0.00000000
1.46153341 0.59886106 0.00182937 0.00000000
3.39282200 1.66504991 -0.00559316 0.00000000
1.85822238 0.19549404 -0.00101968 0.00000000
0.48140350 0.16617544 -0.00195024 0.00000000
3.61487917 0.87040452 -0.00114319 0.00000000
3.98380775 0.03234267 -0.00406323 0.00000000
0.66724462 0.15164856 -0.00334182 0.00000000
0.98851820 1.05246025 -0.00139205 0.00000000
0.37055738 1.48121760 -0.00048244 0.00000000
2.07535036 1.28902978 0.00023645 0.00000000
2.61040973 1.64403992 -0.00086464 0.00000000
1.99156157 1.29394834 -0.00240223 0.00000000
1.49718109 0.28989356 0.00068694 0.00000000
1.86763185 1.69124139 0.00247966 0.00000000
2.55126031 0.35830111 -0.00268538 0.00000000
1.89776274 0.75521591 0.00395214 0.00000000
0.14245073 0.35096586 -0.00093632 0.00000000
0.12289233 0.39056112 0.00252569 0.00000000
1.19781833 1.36508244 -0.00015891 0.00000000
3.72125855 0.66248685 -0.00226015 0.00000000
1.98432724 0.95353634 0.00015998 0.00000000
2.88913901 0.66395581 -0.00066483 0.00000000
1.32417134 0.22969713 -0.00380593 0.00000000
0.17551342 0.89460077 -0.00239721 0.00000000
2.67729329 1.63479478 0.00267336 0.00000000
1.22456098 1.39597551 0.00003105 0.00000000
1.95053305 0.42867237 0.00125808 0.00000000
3.15452681 0.03016072 0.00172381 0.00000000
3.94949649 0.54715158 -0.00163984 0.00000000
3.29906880 1.01561211 0.00400084 0.00000000
3.21247712 0.13621666 0.00202154 0.00000000
3.05080197 0.79106529 0.00073113 0.00000000
0.40819944 0.48161580 0.00265767 0.00000000
3.81140397 1.77543491 -0.00173338 0.00000000
2.75688660 1.62535713 0.00043777 0.00000000
1.64978571 1.08489006 -0.00157840 0.00000000
0.24745431 1.33597977 0.00035039 0.00000000
1.79488608 1.56461093 -0.00006322 0.00000000
1.79729751 0.36102770 0.00194558 0.00000000
0.18367405 0.60825328 0.00412079 0.00000000
0.49226305 0.02564175 -0.00493219 0.00000000
0.67820044 1.07614237 0.00414779 0.00000000
0.24229617 0.42487811 0.00040456 0.00000000
3.86445934 0.48034359 -0.00003980 0.00000000
0.33824252 1.66609395 -0.00180981 0.00000000
3.85726471 1.31323304 0.00170285 0.00000000
2.27410977 1.46081378 -0.00320976 0.00000000
1.40026790 0.58383682 -0.00421918 0.00000000
0.53803674 0.34826053 0.00235069 0.00000000
2.29125361 0.94553465 0.00268529 0.00000000
3.96367261 0.02562628 -0.00280380 0.00000000
1.12145249 1.77172480 0.00043522 0.00000000
1.09727774 0.60736063 -0.00306463 0.00000000
1.73211082 0.55163277 0.00191785 0.00000000
1.59405446 0.88729423 -0.00259475 0.00000000
0.06920297 0.62612564 0.00286720 0.00000000
2.42697120 1.33576491 -0.00090897 0.00000000
1.30633373 0.32978179 -0.00108094 0.00000000
1.91730189 1.33827446 0.00198163 0.00000000
1.24687213 0.68129733 -0.00194485 0.00000000
2.81192194 0.54770757 0.00204815 0.00000000
3.05449291 0.32161515 0.00177476 0.00000000
1.28617393 0.72103745 0.00494828 0.00000000
2.71105179 0.06970844 -0.00402424 0.00000000
0.12998019 0.14761398 0.00153200 0.00000000
2.18083742 0.92354920 0.00357312 0.00000000
1.01208377 0.23249667 -0.00143291 0.00000000
2.28071645 0.63764654 0.00226087 0.00000000
0.27444312 1.17366101 0.00444158 0.00000000
0.95618961 1.02570728 -0.00299015 0.00000000
0.96813681 1.08599640 -0.00169404 0.00000000
2.28964815 0.68075084 -0.00065079 0.00000000
0.67843401 1.04038697 0.00306664 0.00000000
1.35948438 0.49386408 -0.00038563 0.00000000
1.41163299 1.69402227 -0.00216073 0.00000000
1.86495758 1.37111318 -0.00046133 0.00000000
4.04681829 1.79914428 -0.00054498 0.00000000
1.73596399 1.74894411 -0.00332956 0.00000000
0.91175508 1.28626867 0.00240297 0.00000000
1.14083785 0.70007795 0.00043233 0.00000000
2.62309516 1.61272329 -0.00121119 0.00000000
3.36407668 1.64488737 0.00274351 0.00000000
2.17485408 0.15438910 0.00300423 0.00000000
2.66431429 1.23081316 0.00026392 0.00000000
2.59925163 0.76492083 -0.00053902 0.00000000
0.96556178 1.17431817 0.00048731 0.00000000
0.93281057 0.18970696 0.00072209 0.00000000
0.83827367 1.77025265 -0.00060297 0.00000000
1.45121648 0.14781605 -0.00162204 0.00000000
1.23491251 1.13849837 -0.00480683 0.00000000
1.70907942 0.12849310 0.00497595 0.00000000
3.08335649 0.49005188 -0.00171652 0.00000000
1.06460194 1.57142254 0.00143474 0.00000000
1.82416916 0.82670673 0.00011881 0.00000000
3.05073729 0.01098636 -0.00217078 0.00000000
3.23155669 0.10904020 0.00055366 0.00000000
2.69941508 1.74174993 -0.00394504 0.00000000
0.86770765 1.20318957 -0.00344475 0.00000000
2.41974011 1.23921091 0.00153045 0.00000000
2.86494383 1.47414591 0.00245833 0.00000000
0.54650857 1.36589442 -0.00162601 0.00000000
3.41754523 1.23328930 -0.00462359 0.00000000
2.88190820 1.65425260 0.00275869 0.00000000
3.99161613 0.57776478 -0.00123466 0.00000000
0.94425730 0.07525718 0.00046609 0.00000000
1.85757678 1.10153412 0.00276717 0.00000000
3.22088729 1.63922839 0.00306725 0.00000000
1.82212995 1.59416413 0.00006601 0.00000000
2.20808424 0.98672326 0.00113219 0.00000000
0.01432715 1.02022650 -0.00304705 0.00000000
3.36580535 1.08601173 -0.00031547 0.00000000
3.17660581 0.12032512 -0.00269481 0.00000000
3.69229434 0.57536564 -0.00070180 0.00000000
2.13080567 1.53264754 -0.00221861 0.00000000
3.47943467 1.43443777 0.00168580 0.00000000
3.13841663 0.44163570 0.00010412 0.00000000
3.30528191 0.39676973 -0.00140844 0.00000000
0.29997230 0.18204223 0.00391368 0.00000000
2.74700599 1.68289226 0.00225318 0.00000000
0.19043022 1.21597800 -0.00004348 0.00000000
2.97522215 0.90137916 -0.00263717 0.00000000
2.14327167 0.80417570 -0.00265071 0.00000000
0.79448782 1.34052028 0.00129415 0.00000000
1.52902321 0.55103253 0.00495357 0.00000000
3.95940636 0.33451870 0.00085722 0.00000000
0.19780028 1.13215044 -0.00028467 0.00000000
3.97143833 0.17772176 -0.00107934 0.00000000
1.64853346 0.67464312 -0.00109594 0.00000000
2.95111233 0.78063766 -0.00343108 0.00000000
2.13903033 0.86973889 0.00131899 0.00000000
0.26969420 1.03275425 0.00365673 0.00000000
1.03662929 0.64181691 -0.00624316 0.00000000
0.51552103 1.73079478 0.00165261 0.00000000
1.10946833 1.22229847 -0.00021907 0.00000000
0.33945520 0.77576723 -0.00432237 0.00000000
3.25021178 0.48271018 0.00409201 0.00000000
0.80045821 0.58290055 -0.00487560 0.00000000
2.93760283 0.44094958 0.00096138 0.00000000
1.30092721 0.73094795 -0.00101726 0.00000000
2.79102991 1.25112505 -0.00017379 0.00000000
3.05282052 1.74777062 -0.00101495 0.00000000
1.26615332 1.47536346 0.00178061 0.00000000
0.25800085 1.46928258 0.00002613 0.00000000
1.10719122 0.96496902 0.00066657 0.00000000
1.00579078 0.50533226 -0.00097414 0.00000000
1.24278450 1.06828448 -0.00603907 0.00000000
0.14589816 0.01516477 -0.00294198 0.00000000
1.00973100 0.40772938 -0.00086736 0.00000000
0.01330020 0.99180096 -0.00290890 0.00000000
2.74742761 1.31187496 -0.00158160 0.00000000
1.91494145 0.88484630 0.00003151 0.00000000
2.01393710 0.45347640 -0.00253487 0.00000000
1.03957195 0.30295857 -0.00026007 0.00000000
3.72703079 1.51402588 0.00274549 0.00000000
1.28339364 1.63027706 -0.00106408 0.00000000
2.05375324 1.68634696 -0.00257421 0.00000000
2.15290578 1.06987057 0.00719477 0.00000000
2.33370377 1.79642502 -0.00010552 0.00000000
3.33709835 0.43379517 0.00485782 0.00000000
2.24826004 0.17161328 0.00109747 0.00000000
1.71569697 1.66544095 -0.00393721 0.00000000
0.97750075 0.68299750 -0.00112387 0.00000000
2.02977167 1.42811588 -0.00101649 0.00000000
3.48671129 0.53708051 0.00549509 0.00000000
3.40872171 0.36289075 0.00002791 0.00000000
3.48573121 1.37046872 0.00268524 0.00000000
3.11486085 0.84115445 0.00400585 0.00000000
3.94724692 0.58630134 0.00192662 0.00000000
2.25122745 0.65708994 -0.00050994 0.00000000
2.41396010 0.20466863 0.00054021 0.00000000
3.01473155 0.01864154 0.00099430 0.00000000
2.08935725 1.05638903 -0.00574181 0.00000000
0.74512388 0.23340210 -0.00150277 0.00000000
3.83320215 0.80196427 0.00386467 0.00000000
3.75239553 1.53426076 0.00042154 0.00000000
1.40811387 1.23263247 0.00126394 0.00000000
0.90492216 0.54689613 0.00178995 0.00000000
0.52469418 1.18452265 0.00245080 0.00000000
1.86352912 0.40079346 0.00075694 0.00000000
2.93391374 1.09408235 0.00404141 0.00000000
1.59475235 0.36383414 0.00126661 0.00000000
1.64943349 1.15337075 -0.00330526 0.00000000
2.37349591 0.15391889 0.00339790 0.00000000
2.60200293 0.48705296 -0.00182979 0.00000000
1.81897501 1.32715587 0.00441913 0.00000000
3.13442266 0.71749227 0.00233974 0.00000000
1.78305041 1.59600708 0.00476020 0.00000000
3.44722155 0.68224233 -0.00222649 0.00000000
3.38118661 0.93812033 -0.00027233 0.00000000
2.07550442 0.42763152 -0.00298773 0.00000000
3.90101621 0.32359446 -0.00183637 0.00000000
3.62909069 1.45156331 0.00225838 0.00000000
0.25460125 0.07398050 0.00259239 0.00000000
0.99654778 1.57077568 -0.00150222 0.00000000
2.34892726 0.72951105 0.00011826 0.00000000
2.59363763 0.51298763 -0.00179190 0.00000000
2.09967825 1.02237925 0.00171433 0.00000000
0.85435585 1.43956350 -0.00075394 0.00000000
3.11789392 0.02588362 -0.00244561 0.00000000
2.79184654 0.81647919 0.00044348 0.00000000
1.94345375 1.39901985 0.00237029 0.00000000
0.56494357 0.89023430 -0.00046091 0.00000000
2.91821411 0.79009432 0.00096121 0.00000000
3.70351196 0.87269379 0.00046324 0.00000000
0.32115661 1.43344157 0.00006488 0.00000000
2.89178416 0.62383186 -0.00106443 0.00000000
0.22496960 0.20298500 -0.00295212 0.00000000
3.18973347 0.52402109 -0.00291461 0.00000000
1.75946922 0.14929523 -0.00025961 0.00000000
2.03286946 1.33191527 0.00124017 0.00000000
0.85665993 1.22829527 0.00051730 0.00000000
1.91307439 0.53069011 0.00218301 0.00000000
0.17771054 1.24762763 -0.00238792 0.00000000
3.82350465 1.45557840 -0.00026158 0.00000000
2.90394166 0.74149722 -0.00149356 0.00000000
1.24508946 1.61745126 -0.00201866 0.00000000
3.26697283 0.42789071 0.00035626 0.00000000
3.65408770 0.51813858 0.00274788 0.00000000
2.25398048 1.10349751 0.00140685 0.00000000
2.88983715 0.88293233 -0.00332217 0.00000000
3.42852301 0.77617299 0.00230430 0.00000000
3.21170348 1.73139571 -0.00422017 0.00000000
3.81766777 0.56058620 -0.00005549 0.00000000
1.46092870 0.44090093 0.00172022 0.00000000
