0.312038 0.264232 -0.000870 0.0
3.568507 0.770400 -0.000888 0.0
4.063924 0.851466 -0.002311 0.0
3.907972 1.015049 -0.004111 0.0
1.273826 1.066847 0.001215 0.0
2.832625 1.664869 -0.000465 0.0
2.273347 0.327567 -0.002014 0.0
1.961699 1.172229 -0.002032 0.0
3.802198 0.220242 0.002543 0.0
3.036379 1.317680 -0.001353 0.0
2.888636 0.415274 -0.000985 0.0
0.204923 0.301985 -0.001864 0.0
0.011717 1.305511 0.002510 0.0
0.021599 1.228619 0.000149 0.0
1.651663 1.511829 0.005648 0.0
2.451101 1.377940 -0.000029 0.0
0.757657 0.271950 -0.001440 0.0
2.547941 1.525310 0.000875 0.0
1.268282 1.584365 -0.002023 0.0
1.262780 0.545489 0.000038 0.0
1.954440 0.309707 0.001003 0.0
2.752174 0.961447 0.003291 0.0
2.724896 1.570704 -0.001874 0.0
1.457784 0.349574 0.002496 0.0
1.548851 0.647958 0.004197 0.0
3.156554 0.768280 -0.002608 0.0
4.093734 0.070318 0.001438 0.0
3.299108 0.729830 0.000999 0.0
1.112064 1.704706 0.001114 0.0
3.992847 0.744927 0.002743 0.0
0.142073 1.616049 0.001619 0.0
3.779768 0.382663 0.001167 0.0
4.007575 0.314569 -0.001346 0.0
3.184392 1.285038 0.004141 0.0
2.953102 0.678837 -0.000638 0.0
3.810317 1.795215 -0.002026 0.0
1.973671 1.397666 0.000051 0.0
3.240126 0.660188 0.002404 0.0
2.237350 1.421944 -0.002846 0.0
1.997096 1.051668 -0.001593 0.0
1.968156 0.686098 0.002532 0.0
3.739821 0.887649 -0.000150 0.0
1.876689 0.414562 0.001131 0.0
3.777444 0.366123 0.000500 0.0
0.404802 0.505724 -0.000437 0.0
2.348613 1.034150 0.001572 0.0
1.772402 1.000942 0.000171 0.0
1.867600 1.422154 -0.000251 0.0
2.367645 1.777210 0.000116 0.0
0.128782 0.683119 -0.000004 0.0
1.955362 1.146977 0.002273 0.0
1.928467 1.590567 0.001061 0.0
3.248816 0.834970 0.002938 0.0
2.023243 0.158437 -0.002626 0.0
0.439303 1.431595 -0.003078 0.0
3.524804 0.761359 0.002470 0.0
2.546269 1.231457 0.001812 0.0
0.490230 0.590725 -0.002637 0.0
1.357184 0.718039 0.001123 0.0
2.973641 0.244144 0.000631 0.0
1.338434 1.701329 0.000925 0.0
2.699188 0.462090 -0.001757 0.0
4.078256 0.850942 -0.000438 0.0
3.945828 1.449539 -0.002187 0.0
3.244375 1.623175 0.000175 0.0
0.914028 1.469447 -0.006588 0.0
1.053804 0.300086 -0.001363 0.0
1.160798 1.047991 -0.001036 0.0
2.591060 0.897182 0.003426 0.0
1.462388 1.742734 0.004249 0.0
2.017829 0.255194 0.000767 0.0
1.612144 1.263650 0.002348 0.0
3.694532 1.564705 0.000063 0.0
1.997666 0.837644 -0.002769 0.0
2.525442 0.625134 0.003041 0.0
0.308067 0.863493 -0.000933 0.0
3.058852 0.593437 0.002071 0.0
0.852566 0.889836 -0.004007 0.0
2.883928 0.047344 -0.002478 0.0
3.771791 0.874236 -0.001840 0.0
2.798864 1.253613 -0.003105 0.0
1.167155 0.008724 0.006298 0.0
0.837906 0.512296 -0.003760 0.0
4.004747 0.210425 0.002980 0.0
1.344231 1.773597 0.001532 0.0
2.169226 1.117945 0.000411 0.0
3.007187 0.258542 0.000497 0.0
0.816017 1.176109 -0.003199 0.0
3.328405 0.548921 -0.000122 0.0
0.551668 1.583418 -0.001192 0.0
2.306799 1.526566 -0.001969 0.0
1.340516 0.823783 -0.001703 0.0
3.434452 0.258334 -0.000788 0.0
1.376854 0.018114 -0.005801 0.0
0.103712 0.311179 0.002837 0.0
1.104034 1.022005 0.001143 0.0
1.477683 0.602635 0.001308 0.0
1.328199 1.104537 0.000110 0.0
2.287332 0.065515 -0.000700 0.0
1.371251 1.044812 -0.000375 0.0
1.516136 0.788955 0.000660 0.0
1.436523 0.455186 0.003615 0.0
2.356981 0.059117 0.003767 0.0
2.831152 0.855876 -0.000468 0.0
1.049502 0.821220 0.001060 0.0
1.496530 0.203948 -0.001912 0.0
2.567375 1.128542 -0.001229 0.0
3.217145 1.329920 -0.001122 0.0
0.961902 0.760552 0.000435 0.0
0.169466 0.625494 -0.001863 0.0
3.810175 1.613736 0.000473 0.0
3.797748 0.751636 -0.003413 0.0
3.161836 0.318469 0.002561 0.0
0.737371 0.058081 0.005572 0.0
3.977173 0.714565 -0.000130 0.0
2.194008 0.169385 -0.001633 0.0
1.335481 0.359400 -0.001951 0.0
2.560634 0.296146 0.000647 0.0
2.987085 1.016430 -0.001878 0.0
0.310546 0.286619 0.003534 0.0
3.770821 0.241930 0.005583 0.0
3.418421 1.227723 0.002278 0.0
3.066833 0.246983 -0.002238 0.0
3.049537 1.656913 -0.003224 0.0
3.178909 0.145114 0.002429 0.0
0.027005 0.020569 0.002451 0.0
2.324445 1.744397 -0.002447 0.0
0.227998 1.269069 -0.001698 0.0
2.286697 1.072696 -0.002761 0.0
1.961867 0.575935 0.001023 0.0
1.546828 1.545888 0.004493 0.0
1.259666 0.374790 0.001042 0.0
2.629582 1.605536 -0.002076 0.0
0.875296 0.232305 -0.002275 0.0
3.831960 1.229942 -0.002758 0.0
0.564583 1.585895 0.000309 0.0
3.622451 1.291489 -0.000531 0.0
0.901563 0.796246 0.000169 0.0
3.733545 0.571921 -0.002065 0.0
1.142512 1.068020 -0.000999 0.0
0.710922 1.618500 -0.000291 0.0
0.516290 1.412784 0.000127 0.0
2.398839 1.402409 -0.005977 0.0
1.374471 0.327245 0.001043 0.0
3.559486 1.475761 -0.002023 0.0
1.668246 0.032050 -0.001844 0.0
0.434560 0.572926 -0.005391 0.0
3.415529 0.554825 -0.006479 0.0
3.602087 0.881587 0.002927 0.0
1.355703 1.197507 0.005186 0.0
3.730984 0.263025 -0.002880 0.0
3.171928 1.166478 -0.001752 0.0
1.193531 1.787279 -0.003326 0.0
2.291982 1.100465 0.005034 0.0
2.526218 0.313899 -0.001632 0.0
2.200416 1.545214 0.001542 0.0
0.977665 1.212375 0.005527 0.0
0.891165 1.506772 0.001786 0.0
2.148187 0.940276 0.000486 0.0
0.148265 0.946510 -0.001339 0.0
3.764960 0.645204 0.004127 0.0
0.820313 1.106738 -0.001011 0.0
3.323085 0.612463 0.001702 0.0
0.519171 0.168538 -0.001050 0.0
1.275251 1.691909 0.003929 0.0
3.591189 1.402102 -0.000812 0.0
1.256036 1.672719 -0.001291 0.0
0.460765 1.475004 0.000904 0.0
2.593485 0.605781 0.001071 0.0
3.516208 0.497507 -0.002197 0.0
3.964219 1.631544 0.006103 0.0
3.668998 0.776371 -0.002348 0.0
1.855827 1.227475 0.000430 0.0
2.397070 0.263573 0.004569 0.0
2.644097 1.625266 0.001892 0.0
0.645362 1.759608 -0.002926 0.0
2.111911 0.465829 -0.002047 0.0
3.098308 0.163574 0.000165 0.0
0.501591 0.121180 -0.001149 0.0
1.970524 0.979406 -0.000433 0.0
4.095405 0.924684 0.000390 0.0
1.440874 1.697355 -0.000441 0.0
0.886984 1.237427 -0.001067 0.0
1.094166 0.463711 0.004885 0.0
1.443113 0.946896 0.000800 0.0
2.475308 0.154631 -0.002600 0.0
3.564911 1.372919 0.007986 0.0
3.194996 1.134325 0.002859 0.0
4.050265 1.793675 0.000729 0.0
3.264961 0.317296 0.005475 0.0
2.187299 0.641017 -0.000496 0.0
0.992033 0.211884 -0.000052 0.0
2.900462 1.480021 0.000907 0.0
2.121916 1.153868 -0.001895 0.0
0.628304 0.334702 0.002037 0.0
1.445939 0.613236 0.001033 0.0
3.086781 0.407150 -0.003015 0.0
1.176388 1.010956 0.000886 0.0
3.589525 0.891267 -0.001947 0.0
3.931785 0.118488 -0.002171 0.0
2.815718 0.224259 0.002724 0.0
0.895246 1.088756 -0.000470 0.0
2.516912 1.187967 0.001608 0.0
0.322532 0.408025 -0.005365 0.0
3.840272 1.614703 -0.010947 0.0
1.302552 0.457872 -0.004704 0.0
2.332729 1.720044 0.000995 0.0
0.995241 1.537345 0.001594 0.0
1.558936 0.315866 0.000484 0.0
3.439506 1.643298 0.001300 0.0
1.419218 1.205691 0.000128 0.0
1.664029 1.252286 -0.002757 0.0
0.520310 0.730190 -0.001019 0.0
1.301116 0.206712 0.001146 0.0
0.214127 1.335851 0.000552 0.0
2.096206 0.075509 0.000320 0.0
1.278321 0.600073 0.000183 0.0
1.033258 0.262549 0.001765 0.0
0.889907 0.160736 -0.001399 0.0
0.432022 1.340247 -0.002206 0.0
2.760159 0.817562 0.000245 0.0
3.680204 1.323516 0.000766 0.0
1.140353 1.108306 -0.001439 0.0
4.004782 1.195406 -0.002071 0.0
1.385977 1.456561 -0.000048 0.0
2.010929 0.292628 -0.002017 0.0
0.160066 0.987343 -0.002538 0.0
3.046532 0.982922 -0.002923 0.0
0.796392 0.830658 0.000546 0.0
1.849793 0.191667 0.000821 0.0
3.440392 1.122212 0.000841 0.0
2.967312 0.441335 -0.001395 0.0
0.683797 1.390194 0.006190 0.0
3.704428 1.641267 -0.000092 0.0
2.878203 1.069362 -0.000786 0.0
2.544975 0.235240 0.002059 0.0
3.202356 0.320637 -0.002012 0.0
0.417695 0.488298 0.003071 0.0
3.328187 0.604885 -0.004265 0.0
1.068535 0.779489 -0.001981 0.0
2.012325 1.021302 -0.001199 0.0
2.660843 1.471692 -0.000519 0.0
3.405480 0.697248 0.000018 0.0
3.062900 1.295760 0.000758 0.0
1.567163 0.399339 -0.001846 0.0
3.738790 0.064555 -0.001788 0.0
1.076436 1.687718 -0.002621 0.0
1.984501 0.331175 -0.000376 0.0
3.912545 0.775578 0.001819 0.0
3.565642 1.375151 0.000104 0.0
1.642298 0.971650 0.000780 0.0
3.208064 0.791221 -0.000587 0.0
3.998757 1.223409 -0.002399 0.0
0.930448 0.750622 -0.004671 0.0
2.076403 0.993201 0.000298 0.0
0.483316 0.329216 -0.002507 0.0
0.168202 1.677547 -0.000214 0.0
2.681118 1.130418 0.002215 0.0
1.189940 0.437495 -0.000873 0.0
0.099240 1.757079 -0.000943 0.0
2.664888 1.142884 0.000158 0.0
4.057546 0.235617 -0.001935 0.0
1.270249 0.354030 0.006225 0.0
2.338016 0.733343 0.008019 0.0
0.747423 0.570131 -0.004002 0.0
2.039647 1.406171 -0.002841 0.0
2.299642 1.082183 -0.000444 0.0
0.224976 0.412316 0.000307 0.0
0.884983 1.005200 -0.001332 0.0
3.057021 1.711456 -0.002142 0.0
1.801099 0.565368 0.001293 0.0
2.396299 0.416322 0.003435 0.0
0.207088 0.024582 -0.000891 0.0
2.241786 1.069460 -0.000414 0.0
1.535979 0.696931 0.001623 0.0
2.455222 1.592626 -0.001838 0.0
2.716849 0.193874 -0.004218 0.0
0.462406 0.773231 0.001951 0.0
2.979004 1.136335 -0.001674 0.0
2.095124 0.644695 0.000766 0.0
1.729675 0.986981 0.000408 0.0
2.005813 1.318404 0.000835 0.0
0.003313 1.780823 -0.002617 0.0
1.131319 1.776188 -0.006582 0.0
3.013259 0.043143 -0.001511 0.0
3.050538 1.123891 0.003069 0.0
1.478012 1.491364 -0.001531 0.0
1.054181 1.350730 0.003880 0.0
3.676438 1.208321 -0.000644 0.0
1.804708 0.428829 0.001114 0.0
2.229256 0.919889 0.004094 0.0
1.888331 1.369289 -0.002469 0.0
2.799497 0.081310 0.001748 0.0
3.754174 0.157507 -0.001762 0.0
0.328288 0.846756 0.000015 0.0
2.959558 1.198327 -0.003015 0.0
0.150963 1.583416 0.002147 0.0
1.757942 0.262606 0.002668 0.0
0.543707 0.925516 -0.004039 0.0
0.517783 1.626688 0.004737 0.0
2.325581 1.069791 -0.000414 0.0
3.278524 0.672639 0.002341 0.0
4.113978 0.343562 -0.005902 0.0
0.996105 1.798040 0.000006 0.0
3.300314 0.958409 0.003634 0.0
2.338264 0.850376 -0.000721 0.0
2.183049 1.668095 -0.001541 0.0
2.178220 0.089724 -0.003471 0.0
1.202070 0.443063 0.001585 0.0
1.391465 0.863973 -0.001799 0.0
1.339590 0.671971 -0.001353 0.0
1.921527 1.404019 -0.001551 0.0
2.561733 0.393242 0.002878 0.0
1.414139 0.150268 -0.000141 0.0
3.374298 1.324195 0.000309 0.0
3.328503 0.763259 -0.003228 0.0
0.788867 0.268888 0.001414 0.0
1.720378 1.764030 -0.000505 0.0
3.164191 1.399093 0.007043 0.0
0.445000 1.250386 -0.001693 0.0
3.470183 0.574994 0.000195 0.0
3.269563 0.318623 -0.001965 0.0
1.714700 1.069796 0.003714 0.0
2.175850 1.561414 0.000343 0.0
2.529553 0.429038 0.005708 0.0
1.460873 0.710409 0.000437 0.0
2.237909 0.241544 0.004267 0.0
3.064183 1.466125 0.001801 0.0
0.317211 1.804255 -0.003796 0.0
0.396446 0.854078 -0.000029 0.0
0.946604 0.923082 0.003664 0.0
4.041174 1.680373 -0.003118 0.0
0.302751 1.591305 0.001758 0.0
3.122004 0.643711 -0.002961 0.0
1.080603 0.598902 0.002170 0.0
0.918618 0.261715 0.000641 0.0
2.378107 0.453049 -0.001256 0.0
0.061862 0.974483 -0.001393 0.0
1.688612 0.430497 -0.000478 0.0
3.819487 0.849286 0.001862 0.0
0.427335 0.437648 0.001287 0.0
3.160859 1.475672 0.004036 0.0
2.946943 0.170335 0.000521 0.0
0.296281 0.576414 -0.004009 0.0
0.712872 1.627023 0.003263 0.0
0.565636 0.720906 0.000282 0.0
2.089052 1.291340 0.001177 0.0
3.043853 1.237095 0.000486 0.0
0.574976 0.983261 -0.006892 0.0
1.779328 0.476388 -0.005608 0.0
1.925265 0.937648 0.002629 0.0
0.202995 1.134873 0.001547 0.0
4.077294 0.634624 -0.001141 0.0
3.809622 0.567252 0.001671 0.0
1.118313 1.167691 -0.002154 0.0
3.379566 1.617391 0.000505 0.0
2.900196 0.637353 0.005564 0.0
1.970469 0.228101 -0.000491 0.0
1.865937 0.531494 0.002181 0.0
2.468537 1.747594 -0.001762 0.0
2.712244 1.769151 0.001025 0.0
1.584342 1.323276 0.000502 0.0
0.355623 0.541035 0.003690 0.0
2.471195 0.070444 -0.003311 0.0
2.022600 0.337655 0.005759 0.0
3.277792 1.019120 0.002383 0.0
4.111223 0.424939 0.003515 0.0
2.846781 1.072425 -0.001021 0.0
1.992671 1.331702 -0.003330 0.0
4.012773 0.140908 -0.001386 0.0
1.635832 0.120419 -0.000885 0.0
0.003595 1.685155 -0.000082 0.0
2.444187 1.525582 -0.000202 0.0
2.351764 1.734115 -0.000137 0.0
2.652499 0.105800 0.000382 0.0
2.818065 0.544596 0.001415 0.0
3.580669 1.158096 0.001802 0.0
3.295440 1.263403 0.001275 0.0
1.613180 0.412736 -0.000799 0.0
3.361169 1.022997 -0.001986 0.0
1.328337 1.436981 0.001704 0.0
2.352979 1.073644 0.001604 0.0
2.959618 0.167501 -0.000957 0.0
3.695382 0.572754 -0.000074 0.0
2.106035 1.171572 0.002986 0.0
0.701122 0.283423 0.001476 0.0
3.227980 1.514664 0.001941 0.0
3.171439 0.956143 -0.001103 0.0
4.027112 0.283446 -0.001191 0.0
1.290037 1.610194 0.001594 0.0
1.122402 1.279569 -0.001752 0.0
1.358917 1.484100 0.001850 0.0
2.104730 1.459953 0.004857 0.0
1.066961 0.752007 -0.002019 0.0
3.577775 1.121681 -0.001051 0.0
3.877642 0.255934 -0.000945 0.0
0.729134 1.774796 -0.003305 0.0
3.314045 0.945398 -0.001977 0.0
2.063466 0.005352 0.002791 0.0
0.878989 1.199257 0.000328 0.0
3.909227 1.487233 -0.000176 0.0
0.555801 1.408274 -0.002485 0.0
2.584419 1.790845 -0.003781 0.0
3.362133 1.069599 0.000364 0.0
2.659014 0.388429 0.002178 0.0
2.424549 1.292774 -0.000651 0.0
4.017893 1.112623 -0.002400 0.0
1.002674 0.594140 -0.003735 0.0
1.998520 1.719672 -0.001493 0.0
2.963744 0.188768 0.001235 0.0
0.200155 1.027239 -0.001202 0.0
3.656498 1.022172 -0.002409 0.0
3.801095 0.683022 0.006111 0.0
2.113718 0.791474 -0.001492 0.0
4.047350 1.127774 0.000631 0.0
0.870344 1.794038 0.000366 0.0
0.090410 0.413774 -0.000136 0.0
2.309807 0.539225 -0.000645 0.0
0.920336 1.711550 0.001325 0.0
1.090563 0.782957 0.002540 0.0
0.151790 1.138000 -0.000032 0.0
2.273306 0.197083 0.000131 0.0
2.990987 1.382629 -0.000579 0.0
4.066058 0.385053 0.000754 0.0
0.942662 0.782394 0.001388 0.0
3.481894 1.106390 -0.002408 0.0
1.688905 1.336345 -0.001378 0.0
3.612725 0.036927 0.001533 0.0
0.298012 0.639460 -0.004051 0.0
2.120163 0.464449 0.000107 0.0
2.168875 1.413573 -0.000583 0.0
1.790623 0.444458 -0.000875 0.0
3.851920 1.116963 -0.004346 0.0
2.541940 0.165849 -0.004822 0.0
0.385282 0.204454 0.005192 0.0
0.482326 0.573244 -0.002572 0.0
1.543883 0.788548 0.000975 0.0
0.005299 1.431008 0.007107 0.0
3.510476 0.049800 -0.004092 0.0
2.225331 0.606476 0.000756 0.0
2.401135 0.261359 -0.000425 0.0
1.804619 1.128639 0.000181 0.0
3.841310 1.622569 0.002361 0.0
3.292337 1.750714 -0.000934 0.0
2.953761 0.010877 -0.000602 0.0
0.844073 0.672870 0.002936 0.0
3.083824 1.493233 -0.003856 0.0
0.945898 1.708691 -0.000138 0.0
2.665010 0.637474 -0.000206 0.0
0.219902 0.176035 -0.000042 0.0
2.061124 1.154075 0.001199 0.0
1.934035 0.922663 0.004870 0.0
1.582135 0.495159 0.004774 0.0
3.602098 0.243792 -0.002362 0.0
1.434789 1.283068 -0.000122 0.0
3.633031 0.415191 -0.000186 0.0
1.280016 0.005317 0.002807 0.0
0.441423 1.340776 -0.000390 0.0
2.612264 1.423482 -0.001117 0.0
3.959088 0.957695 -0.004453 0.0
1.212383 1.166958 0.001755 0.0
1.642013 0.110562 0.002590 0.0
3.932170 1.502263 0.003495 0.0
1.096797 1.068326 -0.000048 0.0
1.696235 0.902202 -0.003118 0.0
3.041226 1.653307 -0.005008 0.0
3.682800 0.452773 0.001631 0.0
0.200518 0.440672 -0.001080 0.0
2.577520 0.163554 -0.001966 0.0
1.488951 0.424428 0.000289 0.0
3.039247 0.954903 0.000724 0.0
0.581148 1.253746 -0.002326 0.0
3.981742 0.790599 0.003999 0.0
2.956921 0.724919 -0.001884 0.0
1.812951 0.210551 -0.001060 0.0
1.637962 1.439085 0.002910 0.0
0.034476 1.047554 0.000581 0.0
0.910996 1.754532 0.000456 0.0
2.346066 1.102833 -0.000034 0.0
0.426827 1.330583 0.000993 0.0
0.766219 1.105757 -0.001230 0.0
3.055233 1.778709 0.002176 0.0
1.621840 1.526247 0.000704 0.0
2.163416 1.577873 -0.003330 0.0
3.642622 0.005685 -0.003032 0.0
1.929357 0.977374 0.001592 0.0
0.682093 0.908619 -0.002031 0.0
3.899496 0.803808 -0.002988 0.0
2.405564 1.752692 0.001803 0.0
2.937219 1.492821 0.001012 0.0
0.751687 0.560435 -0.002498 0.0
0.301753 1.224317 -0.003279 0.0
3.286615 1.078807 0.000635 0.0
0.215227 1.421326 -0.005337 0.0
2.220767 1.656999 -0.001517 0.0
3.295731 1.268070 -0.006207 0.0
0.960416 0.872397 0.000380 0.0
3.685680 1.291148 -0.003542 0.0
2.987499 1.202534 0.002357 0.0
1.610703 0.236197 -0.001235 0.0
2.979270 0.212351 -0.001686 0.0
1.766558 0.067453 0.001927 0.0
1.311775 0.266520 -0.001327 0.0
3.930923 0.559771 0.002557 0.0
0.921901 0.964623 0.000757 0.0
1.891636 1.425637 -0.001467 0.0
0.637040 0.472080 -0.002158 0.0
3.462599 1.384320 -0.002684 0.0
3.489538 1.587076 -0.002363 0.0
1.863712 0.915593 0.004463 0.0
3.635925 0.303278 -0.002618 0.0
0.973816 1.428463 -0.001761 0.0
0.172550 1.800645 -0.005489 0.0
2.972502 0.068838 0.002936 0.0
3.214152 0.921287 0.001063 0.0
2.436499 1.762686 -0.001304 0.0
1.072748 0.258025 0.001217 0.0
1.515917 1.313765 -0.000549 0.0
0.488004 0.931386 -0.001689 0.0
0.055110 0.100244 0.001514 0.0
1.512238 1.552544 0.002393 0.0
2.558277 0.159281 -0.003013 0.0
1.797349 0.059447 0.002583 0.0
0.149225 0.910575 0.001812 0.0
1.371641 0.772961 -0.000072 0.0
0.497974 0.706615 -0.002635 0.0
1.894113 1.459898 -0.000219 0.0
1.769686 0.468817 0.004047 0.0
2.906810 0.556716 -0.002063 0.0
2.654475 0.539329 0.000396 0.0
3.841649 1.496216 -0.003197 0.0
0.750285 0.908582 -0.000423 0.0
1.329669 1.569113 0.003415 0.0
4.070364 0.325622 0.000809 0.0
1.708445 1.160398 0.003463 0.0
1.537629 1.001589 0.002978 0.0
1.427142 1.602343 -0.000992 0.0
1.462050 1.054403 -0.001933 0.0
3.421487 0.893665 -0.000532 0.0
3.472691 1.389572 -0.005911 0.0
2.864637 0.999380 0.000501 0.0
3.889690 1.526355 -0.003538 0.0
1.748835 0.096713 0.000794 0.0
2.297396 1.112123 -0.000238 0.0
1.653677 1.466983 -0.001405 0.0
4.017814 1.320281 0.000427 0.0
0.604428 1.729009 -0.000361 0.0
1.655132 1.793151 -0.001316 0.0
2.575877 1.035643 0.001441 0.0
0.017899 1.780565 -0.002823 0.0
3.163729 0.680985 0.001282 0.0
3.377719 1.216854 -0.004722 0.0
3.611954 0.911923 -0.001642 0.0
2.587614 0.947840 -0.000948 0.0
1.970976 1.615638 -0.001078 0.0
0.794417 0.022847 -0.004569 0.0
3.718216 1.637191 -0.002570 0.0
2.440432 0.161068 0.000545 0.0
3.098906 0.958924 0.001542 0.0
0.719802 0.777145 0.003767 0.0
3.121792 0.233113 -0.000676 0.0
0.017532 1.686519 0.001637 0.0
2.364709 1.308640 0.000144 0.0
2.701558 1.297479 0.000569 0.0
3.422858 0.079897 -0.000515 0.0
0.331240 0.319818 0.000833 0.0
2.316488 1.483273 0.001711 0.0
2.976850 1.435322 -0.000054 0.0
0.885514 1.732573 -0.002459 0.0
1.945200 1.368361 -0.006802 0.0
2.368592 1.174784 -0.000145 0.0
3.113384 0.757948 -0.003134 0.0
0.833716 1.741731 -0.004250 0.0
2.724484 1.650489 -0.000612 0.0
2.130957 1.711839 -0.002292 0.0
3.804360 0.556075 -0.001251 0.0
0.004393 0.984535 -0.005348 0.0
2.092232 1.753950 0.003739 0.0
2.814029 0.373355 0.005326 0.0
3.910284 0.008149 0.000884 0.0
2.960592 0.661527 -0.001688 0.0
3.286510 0.459131 0.007705 0.0
2.838122 1.308240 0.000927 0.0
3.588900 1.006834 0.000345 0.0
3.605528 1.309679 -0.001435 0.0
3.724629 0.936761 -0.004455 0.0
3.696382 1.183119 -0.001994 0.0
1.510813 0.094833 -0.001344 0.0
1.908059 0.969004 0.002122 0.0
1.384331 1.561955 -0.003715 0.0
3.759737 0.887429 -0.000832 0.0
1.800525 0.928770 0.000056 0.0
3.969103 1.261908 0.003292 0.0
1.503213 0.170071 -0.001595 0.0
0.831807 0.282147 -0.004671 0.0
1.170180 0.679703 -0.002077 0.0
2.781250 1.284919 -0.003589 0.0
0.913169 0.537239 -0.002935 0.0
1.166952 1.344785 0.001273 0.0
2.686557 0.630509 0.000180 0.0
0.551312 0.044997 -0.002886 0.0
3.006606 0.408116 -0.000752 0.0
2.310217 0.308874 -0.002400 0.0
3.109552 0.835603 0.001299 0.0
1.970030 1.540713 0.002890 0.0
1.557303 0.620987 0.003892 0.0
1.498719 1.536953 -0.003958 0.0
3.173460 0.282247 0.003666 0.0
1.160464 0.764967 0.001050 0.0
0.286145 1.158610 0.000042 0.0
1.757441 0.175336 0.000961 0.0
1.041313 0.007504 0.001182 0.0
3.114407 1.453303 0.001857 0.0
3.719560 1.643973 0.002096 0.0
0.921689 1.509593 -0.002497 0.0
3.700487 0.995530 -0.002042 0.0
2.049429 1.542663 -0.001211 0.0
1.077891 1.488256 0.000165 0.0
2.714622 0.802436 -0.004153 0.0
0.824019 1.259360 -0.000347 0.0
3.405817 0.511202 0.000345 0.0
0.277380 0.254609 0.001405 0.0
0.900279 0.392653 -0.000181 0.0
1.005492 1.232480 0.002010 0.0
3.660175 1.266608 0.003982 0.0
1.929243 0.001417 -0.001867 0.0
2.293869 0.614204 -0.003043 0.0
0.800259 0.880523 0.001734 0.0
1.314414 0.923597 -0.001385 0.0
2.731286 0.981122 0.000277 0.0
2.801816 1.403359 0.001221 0.0
2.351966 0.485972 -0.003438 0.0
1.501172 0.894747 -0.001625 0.0
4.083164 0.036599 0.003957 0.0
0.958076 1.604688 0.000998 0.0
0.132861 1.493678 -0.003292 0.0
3.646409 1.628001 0.002777 0.0
3.030341 1.167044 0.001973 0.0
3.849880 1.791837 0.001523 0.0
0.914764 1.064469 -0.002894 0.0
3.828233 0.792633 -0.004251 0.0
1.255011 1.776326 0.001932 0.0
2.264996 0.569802 -0.000062 0.0
3.195886 0.067961 -0.001331 0.0
1.060910 0.458154 -0.002863 0.0
1.629894 1.473281 -0.001806 0.0
0.121643 1.580736 0.001320 0.0
2.805160 1.051614 0.002307 0.0
1.953805 0.303557 0.001392 0.0
3.545554 1.506051 -0.003829 0.0
2.980918 1.388510 -0.001468 0.0
1.457199 0.186201 -0.000101 0.0
1.116220 1.046906 0.004531 0.0
0.046358 1.472167 0.003879 0.0
0.726516 1.683705 0.002730 0.0
-0.000790 0.471025 0.001217 0.0
2.879057 1.572045 0.002009 0.0
2.196829 0.805046 -0.001534 0.0
1.014275 1.773679 -0.003062 0.0
1.004376 0.906396 0.003166 0.0
2.945666 0.255447 -0.005165 0.0
1.454063 0.157197 -0.000508 0.0
0.353439 0.570848 -0.004740 0.0
3.649235 1.038504 -0.001963 0.0
2.347977 1.638771 -0.006777 0.0
3.951894 0.844672 0.000480 0.0
1.254267 0.858904 -0.003270 0.0
0.819715 0.190858 -0.000294 0.0
0.833614 1.142959 -0.001065 0.0
2.226630 0.803231 0.003640 0.0
3.270155 0.501813 -0.000834 0.0
1.792937 0.631221 -0.002785 0.0
3.245789 0.942364 0.001578 0.0
3.808126 0.786240 0.001922 0.0
2.832240 0.108033 0.001312 0.0
1.111079 1.245737 0.006859 0.0
4.046857 0.090590 0.001573 0.0
2.004905 1.563354 0.002740 0.0
0.629219 0.640682 -0.001437 0.0
1.669825 0.346002 0.000489 0.0
2.537308 1.187863 -0.003832 0.0
0.365448 1.502679 -0.000825 0.0
1.117487 1.072640 -0.000665 0.0
2.151811 1.239782 -0.000551 0.0
0.635266 1.570592 -0.003127 0.0
0.082624 0.606269 -0.004006 0.0
3.580179 0.103579 0.003679 0.0
2.105937 0.378336 -0.002398 0.0
0.496227 0.052741 -0.000209 0.0
1.454302 0.938232 0.000176 0.0
0.136959 0.345023 0.001250 0.0
2.379879 0.165579 0.002844 0.0
3.333457 0.197018 -0.000158 0.0
0.356019 1.716534 -0.000271 0.0
3.399791 0.429119 0.002865 0.0
3.652421 0.956848 0.002311 0.0
1.649923 1.282147 -0.000619 0.0
2.678362 0.539181 0.000058 0.0
1.109804 0.717628 0.002650 0.0
2.818805 1.037619 -0.007980 0.0
2.234485 1.351952 0.001719 0.0
0.234719 1.520977 0.001560 0.0
1.498951 0.190910 0.002334 0.0
2.554610 0.879851 -0.000149 0.0
3.438467 0.339031 -0.004626 0.0
0.258108 1.288942 0.005390 0.0
2.140411 1.110964 0.001361 0.0
1.651723 1.239022 -0.002704 0.0
1.898201 0.934371 -0.001913 0.0
1.226502 0.658205 -0.001352 0.0
0.027971 1.694518 -0.002461 0.0
1.160727 1.200646 0.000180 0.0
1.066978 0.471769 0.003496 0.0
2.747969 1.702473 -0.000605 0.0
3.653249 0.951339 -0.004945 0.0
3.635508 0.325039 0.000855 0.0
0.079154 0.866858 0.005085 0.0
1.650085 1.085825 -0.001256 0.0
0.848212 1.131806 0.002045 0.0
2.134104 0.802609 0.000611 0.0
3.413801 1.329893 0.001173 0.0
0.961108 0.347600 0.002932 0.0
2.884391 0.736795 0.001772 0.0
2.439935 1.653582 -0.004738 0.0
3.491304 0.045088 0.001238 0.0
2.892251 1.578969 0.002362 0.0
3.909680 0.219423 0.004156 0.0
3.423158 1.617324 0.001183 0.0
3.634329 1.386478 -0.002275 0.0
1.595906 0.651054 0.001831 0.0
1.922465 0.880618 0.002016 0.0
1.311883 1.220838 -0.001982 0.0
1.205526 0.204187 0.002522 0.0
1.738835 1.127992 -0.001119 0.0
1.070711 0.846201 -0.000134 0.0
3.381292 1.470291 -0.001445 0.0
3.706054 0.384394 -0.003639 0.0
2.928484 1.466457 0.000945 0.0
3.753120 1.208069 0.001543 0.0
1.646865 1.166823 -0.001673 0.0
3.483112 0.265211 -0.000568 0.0
2.150454 0.546608 -0.001793 0.0
1.381855 1.722980 -0.004113 0.0
1.032083 1.060814 -0.000833 0.0
4.087071 1.380535 0.000155 0.0
3.885492 1.421307 0.002045 0.0
0.706824 0.026162 -0.001851 0.0
0.071480 0.061833 0.003446 0.0
0.210193 1.172523 0.000443 0.0
2.444241 0.349762 0.001010 0.0
0.833188 1.281011 -0.004286 0.0
2.724192 0.833752 -0.000703 0.0
1.678101 1.445592 -0.000331 0.0
3.265702 1.293493 0.000817 0.0
2.326644 0.389016 -0.000888 0.0
2.222556 1.254436 0.000711 0.0
1.285432 0.054050 -0.000643 0.0
0.124861 0.098500 0.000600 0.0
1.127602 0.970167 0.002404 0.0
1.704117 0.219356 0.003451 0.0
1.805157 0.229545 -0.000914 0.0
0.712013 1.453991 0.001627 0.0
1.194442 0.887045 0.000246 0.0
3.054121 1.159657 0.000843 0.0
2.097348 1.288944 0.001829 0.0
3.189944 0.545288 -0.000556 0.0
2.961259 0.001487 0.005100 0.0
1.925581 0.387952 0.001096 0.0
1.811991 0.600732 0.002085 0.0
2.720381 1.679988 -0.001160 0.0
2.719705 0.864863 -0.000160 0.0
2.103522 0.933142 0.000842 0.0
3.100771 0.054841 0.003017 0.0
0.481807 0.522258 -0.003303 0.0
1.571957 1.487217 0.000297 0.0
3.296409 1.633440 -0.001358 0.0
2.226768 1.323466 0.003420 0.0
2.708341 0.981926 -0.000412 0.0
0.932470 0.887899 0.001180 0.0
1.355614 1.244729 0.000876 0.0
0.854791 0.666367 -0.001570 0.0
3.782218 0.325483 -0.004266 0.0
0.422575 1.158744 -0.002531 0.0
1.659485 1.685341 -0.003897 0.0
2.369089 0.269832 0.004837 0.0
3.050033 0.640378 -0.005759 0.0
0.194588 0.569257 -0.001390 0.0
0.565174 0.155977 0.002792 0.0
0.029430 0.224885 0.000745 0.0
3.699110 0.275089 0.002145 0.0
3.044096 0.293980 0.002402 0.0
2.314302 1.443999 0.001107 0.0
1.255214 1.352816 -0.001297 0.0
4.052816 0.708989 -0.001102 0.0
3.289163 0.959380 0.001279 0.0
1.647167 1.785906 -0.003696 0.0
0.787581 0.401138 0.001797 0.0
1.661410 0.807376 -0.006479 0.0
2.450629 0.069458 -0.002515 0.0
2.256096 0.937675 0.000864 0.0
3.536984 0.931815 -0.003334 0.0
0.784535 0.963240 0.000762 0.0
1.480147 1.518194 -0.003630 0.0
2.733387 0.990279 0.000662 0.0
4.073786 0.366556 -0.000971 0.0
0.738516 0.922606 -0.000986 0.0
0.336552 0.953633 -0.003848 0.0
0.976459 1.552793 -0.000554 0.0
1.238063 1.307982 0.002230 0.0
0.200395 1.295827 -0.001159 0.0
2.009759 1.446559 0.002304 0.0
0.891696 1.000315 0.001130 0.0
0.084358 0.134065 0.001163 0.0
2.664527 0.465533 0.004796 0.0
1.518810 1.516401 0.001211 0.0
3.669146 1.094753 0.003303 0.0
0.820510 1.775338 0.001102 0.0
1.435272 0.797723 -0.002635 0.0
0.124268 1.647827 -0.001175 0.0
2.779713 1.744870 -0.001674 0.0
0.439516 0.567128 0.000486 0.0
1.688743 0.655277 0.003177 0.0
1.565290 1.356375 0.002089 0.0
0.061547 1.368679 -0.000160 0.0
0.073565 1.731987 -0.000313 0.0
3.563657 1.396763 -0.003456 0.0
2.759057 0.012075 -0.000767 0.0
2.990605 0.337321 -0.002553 0.0
1.152344 1.465890 0.000189 0.0
1.010514 1.183285 -0.000000 0.0
0.604550 0.036956 -0.002190 0.0
1.549769 1.635323 -0.004532 0.0
0.602893 1.409218 -0.001849 0.0
2.331882 0.457117 -0.000390 0.0
1.270862 0.559020 0.000794 0.0
2.779238 1.684093 0.003813 0.0
0.904289 1.189794 -0.004346 0.0
1.619787 0.310074 0.005005 0.0
1.122971 1.119392 -0.000423 0.0
2.927518 0.281861 0.000084 0.0
0.566857 1.224565 0.003071 0.0
2.220508 1.383671 0.001603 0.0
0.708865 0.483757 -0.003664 0.0
0.332222 0.296263 -0.001868 0.0
3.342066 0.604061 -0.000051 0.0
1.826989 0.950230 0.000255 0.0
1.057711 0.988714 0.002938 0.0
2.090720 1.138685 0.003828 0.0
0.183965 0.812462 -0.000491 0.0
1.531913 1.064025 0.001066 0.0
0.063879 0.028782 0.002709 0.0
3.420091 1.525297 0.002058 0.0
3.029224 1.695928 -0.003239 0.0
0.835421 0.438615 -0.000230 0.0
1.780068 0.604182 0.000670 0.0
3.109896 0.361736 0.001321 0.0
1.802419 0.166169 0.002985 0.0
1.820354 0.549244 0.000615 0.0
2.693939 1.744748 -0.001884 0.0
1.330608 0.796372 -0.002902 0.0
0.199684 0.692060 -0.001102 0.0
2.280651 1.183355 0.001558 0.0
1.938496 1.076702 -0.002258 0.0
0.108776 1.175956 0.002104 0.0
1.334364 0.743690 -0.002187 0.0
0.312854 0.432313 -0.006166 0.0
0.798667 1.370925 0.001627 0.0
1.797199 0.657418 0.001093 0.0
4.042237 0.456622 0.002760 0.0
3.657487 0.273847 -0.001269 0.0
3.959362 0.453115 0.000733 0.0
4.080621 0.641447 0.001276 0.0
3.716796 1.520838 -0.001072 0.0
3.976570 0.136318 -0.000279 0.0
2.344835 1.793312 0.002579 0.0
2.378077 0.876364 0.003300 0.0
3.025039 0.453503 -0.000437 0.0
1.263266 1.161622 0.000241 0.0
3.563465 1.422407 0.000699 0.0
0.142366 1.758006 -0.003107 0.0
3.651537 0.364654 -0.000392 0.0
0.894994 1.615668 0.003492 0.0
0.538992 0.069010 0.002235 0.0
1.285771 0.402283 -0.002809 0.0
0.175955 1.372221 -0.001774 0.0
1.284032 0.982918 -0.000793 0.0
2.165257 1.516900 -0.001818 0.0
0.698801 0.429689 -0.004831 0.0
2.848638 0.366917 0.008076 0.0
2.780646 0.774683 0.000610 0.0
0.022712 1.001540 0.002823 0.0
1.939641 1.778255 0.001303 0.0
1.633346 0.327524 0.003480 0.0
1.551869 0.406314 0.001442 0.0
2.116090 0.907087 0.003173 0.0
1.095979 0.284414 0.001082 0.0
1.631672 1.709069 -0.002866 0.0
1.677786 1.267414 -0.000662 0.0
2.550232 0.384654 -0.001684 0.0
3.029056 1.516331 -0.004095 0.0
1.266744 0.741470 0.001870 0.0
2.974486 0.966522 0.000397 0.0
3.228483 1.313164 0.004184 0.0
1.176972 0.314462 0.000342 0.0
0.921710 0.461668 -0.003180 0.0
2.143011 1.439944 -0.002568 0.0
1.908471 0.379459 0.000925 0.0
1.313377 1.179205 -0.000663 0.0
2.144693 1.708677 -0.001157 0.0
3.693528 0.956985 0.002274 0.0
0.648329 1.593002 -0.001130 0.0
2.761669 0.506931 0.002869 0.0
4.114681 0.984454 -0.000803 0.0
2.879199 1.030754 -0.002977 0.0
3.844693 0.014423 -0.004397 0.0
2.213223 0.759231 -0.002845 0.0
1.529134 0.788804 0.002525 0.0
3.338405 0.361923 -0.001298 0.0
0.986669 0.051672 -0.001729 0.0
3.380991 1.519883 -0.003373 0.0
1.750717 0.769823 -0.000319 0.0
2.806911 0.563647 -0.000971 0.0
3.789125 1.207572 -0.002653 0.0
1.740635 0.999467 0.004275 0.0
2.810028 0.457180 -0.000494 0.0
3.500073 1.638760 0.000264 0.0
2.066948 0.719196 0.000949 0.0
0.304514 1.081888 -0.000305 0.0
0.071123 0.249649 0.002537 0.0
3.486524 1.452590 0.004871 0.0
0.021477 0.491777 -0.002071 0.0
1.507729 0.739275 -0.001540 0.0
3.577010 1.641680 0.001284 0.0
1.997928 0.817350 0.005567 0.0
2.706246 1.000970 0.002430 0.0
0.982933 0.646496 0.001721 0.0
1.600003 0.293032 0.005116 0.0
2.853564 0.852726 0.002915 0.0
1.584875 1.088236 0.003920 0.0
0.417623 0.195311 -0.000973 0.0
0.262237 0.371361 -0.000552 0.0
0.890999 1.496972 0.001045 0.0
3.826123 0.585501 0.000095 0.0
2.151627 0.965918 0.002044 0.0
1.833635 1.708534 0.000350 0.0
1.611888 0.971192 0.001630 0.0
2.195415 1.634361 -0.001924 0.0
2.466283 0.900281 -0.000970 0.0
3.205335 0.750667 0.001676 0.0
1.511261 0.210993 0.002541 0.0
0.605354 0.233521 -0.002741 0.0
2.456083 1.777393 0.001768 0.0
0.510699 0.116447 0.002712 0.0
4.013471 1.556947 0.003206 0.0
1.191820 0.973851 -0.002478 0.0
0.935994 0.693785 0.004161 0.0
2.926298 0.235742 0.000741 0.0
0.916318 0.015072 0.003098 0.0
0.419972 1.651229 0.002359 0.0
2.449393 1.381910 -0.001235 0.0
1.413038 0.015668 0.001708 0.0
1.400873 1.597408 -0.000668 0.0
0.014358 1.698192 0.001239 0.0
2.896506 0.913059 0.001842 0.0
1.127396 1.413709 0.001408 0.0
1.755373 0.201483 -0.001504 0.0
1.425348 0.609506 0.003300 0.0
2.503581 0.581045 -0.000729 0.0
1.845238 1.280550 -0.000756 0.0
3.795567 1.085407 0.005129 0.0
0.782071 0.626013 0.001515 0.0
3.121550 1.058932 0.002421 0.0
3.626776 0.811418 0.003107 0.0
0.662705 1.577829 0.000605 0.0
3.547134 1.448478 0.000020 0.0
1.268178 1.465901 -0.003814 0.0
3.871187 0.566544 0.000237 0.0
3.430540 1.549750 -0.000914 0.0
1.396299 0.083251 0.002786 0.0
2.727963 1.038396 0.003370 0.0
0.883045 0.708439 0.003060 0.0
2.675212 1.104758 0.000030 0.0
0.620655 0.474827 0.003728 0.0
3.816977 1.315762 -0.000947 0.0
0.811642 1.565370 -0.001284 0.0
4.027319 1.639317 0.003537 0.0
0.937826 0.867164 -0.000722 0.0
1.097111 1.784931 0.003523 0.0
1.457095 0.443204 -0.000105 0.0
3.282353 1.330240 0.001998 0.0
2.718400 0.835823 -0.005501 0.0
1.093341 0.827410 -0.006448 0.0
0.943042 1.160644 0.001280 0.0
0.246580 1.002374 -0.001513 0.0
1.334359 1.682970 -0.000004 0.0
3.498295 0.679944 0.003910 0.0
0.037617 0.103947 0.000181 0.0
0.478356 1.025203 0.006621 0.0
2.338547 1.355822 -0.000394 0.0
0.003774 1.014594 -0.001163 0.0
3.629993 0.626594 0.002952 0.0
3.277157 1.574524 0.001210 0.0
2.794510 0.320594 0.002404 0.0
3.278069 1.648950 -0.000212 0.0
3.894016 1.090106 0.001960 0.0
2.626916 1.370348 -0.002566 0.0
3.491854 0.189846 0.005140 0.0
1.650241 0.378457 0.001923 0.0
1.732563 0.178179 0.001242 0.0
3.635491 0.285465 0.003019 0.0
0.381639 0.134534 -0.002330 0.0
0.505131 1.342917 -0.002145 0.0
2.728110 0.229095 0.000925 0.0
1.503561 1.730760 0.000068 0.0
1.949257 1.189228 -0.002732 0.0
0.584356 0.835972 0.002027 0.0
0.191887 0.174834 0.000376 0.0
1.446177 0.500674 -0.002781 0.0
2.711725 1.442143 -0.002390 0.0
3.687873 0.354167 0.000920 0.0
4.064788 1.797846 -0.002811 0.0
3.294259 0.771611 0.003196 0.0
0.742998 1.610403 0.001200 0.0
0.921119 1.072905 -0.000870 0.0
2.725431 0.852358 -0.000498 0.0
1.126121 0.739461 -0.000905 0.0
3.620172 0.329798 0.000343 0.0
3.425573 1.008665 -0.001332 0.0
1.682792 1.483424 0.001749 0.0
2.989776 0.332733 -0.001018 0.0
2.783009 1.050416 -0.002025 0.0
0.623115 1.727395 -0.002337 0.0
1.293432 1.418452 0.000916 0.0
0.279037 0.847527 0.000496 0.0
2.558988 1.033531 -0.001850 0.0
3.516680 1.299246 0.002060 0.0
3.254885 0.406220 0.001314 0.0
3.391534 1.024767 -0.000378 0.0
1.716066 0.584182 -0.001941 0.0
1.732057 0.338650 -0.003537 0.0
2.850947 1.082816 -0.006124 0.0
2.279404 1.231561 -0.003031 0.0
3.514639 0.428193 0.001298 0.0
2.672770 1.411411 -0.002573 0.0
1.797805 0.482651 0.003441 0.0
4.090008 0.541990 -0.008189 0.0
1.970677 0.102322 0.001357 0.0
0.945244 1.664765 0.000952 0.0
0.325389 0.491274 0.001628 0.0
0.323960 0.780134 0.003206 0.0
4.069729 1.309926 0.000671 0.0
4.027319 0.526222 0.000702 0.0
0.296742 0.980821 0.001802 0.0
0.603101 1.365889 0.000012 0.0
2.609823 0.511836 0.001522 0.0
0.083139 1.551542 0.003903 0.0
0.858861 1.726568 -0.002362 0.0
2.657855 0.509759 -0.000892 0.0
3.617266 1.022788 -0.001285 0.0
2.928950 0.637403 0.002907 0.0
1.574030 0.099885 -0.000018 0.0
2.238665 1.772300 0.001073 0.0
3.241690 1.604524 -0.004282 0.0
3.722625 0.433105 -0.001701 0.0
0.934834 1.646463 -0.004589 0.0
2.319659 0.513697 -0.001466 0.0
0.146768 0.624894 -0.006068 0.0
0.661622 0.929797 -0.003645 0.0
3.845179 0.084062 -0.001619 0.0
0.768738 0.741528 -0.001196 0.0
3.037831 1.681639 -0.001867 0.0
1.257509 1.406843 0.005808 0.0
0.984232 0.705944 -0.000074 0.0
4.021408 0.029769 -0.000014 0.0
1.117162 0.884184 0.001072 0.0
3.943089 1.709268 -0.004257 0.0
1.356550 0.816032 0.003529 0.0
2.502821 0.606342 0.002909 0.0
1.380796 1.101676 0.001694 0.0
1.122478 1.771495 0.003958 0.0
0.782420 0.874646 0.001722 0.0
3.287356 0.157653 -0.004309 0.0
2.312654 0.833851 -0.000963 0.0
1.838278 1.170007 0.002901 0.0
3.198065 0.276897 -0.002249 0.0
0.917817 1.800014 0.000452 0.0
3.828014 0.743699 0.000755 0.0
0.116373 1.059212 0.000202 0.0
3.359764 1.527633 -0.000874 0.0
0.304824 1.023415 0.000349 0.0
3.920505 0.073659 -0.000653 0.0
1.034960 0.536449 -0.001415 0.0
2.369566 0.473559 -0.003388 0.0
3.030386 1.612945 -0.005048 0.0
0.079005 1.128205 0.000641 0.0
0.102282 1.193661 -0.001592 0.0
2.419708 0.388154 0.001938 0.0
2.113231 0.000765 -0.002949 0.0
3.729914 1.299246 -0.000333 0.0
1.495142 0.803294 -0.002243 0.0
2.400012 1.547134 0.001126 0.0
2.916694 1.495252 0.000390 0.0
3.488425 1.352136 0.001878 0.0
0.444714 1.658536 0.003365 0.0
2.797191 0.087113 -0.000383 0.0
1.793821 0.706416 -0.006057 0.0
3.317403 0.741356 -0.004634 0.0
4.035530 0.445063 0.002648 0.0
0.844144 1.290252 0.000186 0.0
1.748520 1.392808 -0.001962 0.0
3.358369 0.000258 0.006028 0.0
3.622734 0.500425 -0.000579 0.0
3.750489 1.565345 -0.002422 0.0
1.345809 0.233896 -0.003986 0.0
0.953171 1.168982 0.000665 0.0
2.279251 0.137950 0.000308 0.0
0.612843 0.543827 0.000198 0.0
0.572783 0.236132 0.000576 0.0
3.067757 0.819722 -0.001611 0.0
0.158112 1.033263 -0.000811 0.0
3.432801 0.167315 -0.000263 0.0
1.705113 1.507492 0.000187 0.0
1.317062 0.382148 -0.001056 0.0
2.198786 0.866694 -0.003230 0.0
0.377747 0.727230 0.005928 0.0
3.164664 0.259517 -0.000682 0.0
3.001337 1.746282 0.001267 0.0
1.042132 1.667174 -0.000504 0.0
3.061193 0.692075 -0.001160 0.0
3.430628 0.711911 -0.003071 0.0
0.260268 1.547330 0.002152 0.0
0.116514 1.780009 -0.002275 0.0
2.326989 0.058225 0.000313 0.0
1.930980 0.112288 -0.000862 0.0
0.703900 0.660324 -0.000369 0.0
1.155703 0.982305 -0.003785 0.0
4.108520 0.472972 0.001646 0.0
3.043386 0.682799 0.000583 0.0
2.000876 0.590181 -0.003133 0.0
2.728448 0.415740 0.001693 0.0
3.896639 1.518280 -0.000553 0.0
3.134676 0.409086 -0.000785 0.0
2.492765 1.102497 -0.002044 0.0
3.431718 1.750576 0.002977 0.0
3.422655 0.577814 -0.002634 0.0
0.659851 0.447075 0.000844 0.0
2.169960 0.558864 0.000822 0.0
2.981622 1.098139 0.001016 0.0
0.670285 0.651298 -0.002141 0.0
0.532581 0.653808 -0.002475 0.0
1.005855 1.018184 -0.000397 0.0
3.268223 0.967618 0.003375 0.0
2.472217 0.621382 -0.001584 0.0
1.024592 0.574451 -0.000361 0.0
2.915273 1.504757 0.001630 0.0
1.739852 0.705284 0.003619 0.0
1.019130 0.678514 -0.000375 0.0
2.271579 1.763272 0.003238 0.0
3.319244 1.187852 -0.004404 0.0
0.661292 0.081890 -0.001089 0.0
0.490766 0.196989 -0.004448 0.0
3.211020 0.611116 0.001768 0.0
2.053845 0.996705 0.002269 0.0
3.173559 0.344314 0.001389 0.0
0.281117 1.595167 0.003445 0.0
3.717613 0.805410 -0.005859 0.0
2.945374 0.959573 -0.000555 0.0
1.621957 0.044312 0.001529 0.0
3.261343 0.305430 0.004598 0.0
1.646160 0.715453 -0.002242 0.0
0.333169 1.286911 -0.003243 0.0
0.061228 1.089904 -0.001281 0.0
0.178323 0.438280 -0.000600 0.0
3.390844 0.331354 0.001628 0.0
4.035304 1.365296 0.001018 0.0
0.315229 0.727980 0.000654 0.0
0.643229 0.864592 0.003056 0.0
1.240735 1.777177 -0.000237 0.0
2.203984 1.514640 -0.000543 0.0
1.319610 0.485711 -0.000929 0.0
0.173995 1.773349 -0.000121 0.0
3.734843 0.789015 -0.001064 0.0
0.534403 1.311509 -0.000651 0.0
1.491162 1.661563 0.004213 0.0
0.261918 1.722265 0.003691 0.0
2.296801 1.008774 0.001186 0.0
2.382645 0.330812 -0.000723 0.0
2.255972 0.441765 0.002957 0.0
1.001608 0.234093 0.002632 0.0
0.726022 0.690259 -0.000437 0.0
0.694797 1.124272 0.000507 0.0
0.990356 1.740618 0.000291 0.0
2.740273 1.585916 0.000884 0.0
3.462720 1.273522 0.001926 0.0
3.538497 1.478890 -0.000739 0.0
2.460040 0.691336 -0.000672 0.0
3.308687 1.374687 0.006552 0.0
2.483131 0.690822 0.003635 0.0
0.732672 0.418541 0.002197 0.0
2.045171 0.119207 -0.002539 0.0
2.153192 0.686664 0.000759 0.0
1.401245 0.482385 0.003054 0.0
1.052960 1.490944 -0.001502 0.0
3.968622 1.333617 0.003446 0.0
1.067171 1.371297 -0.005518 0.0
1.077796 1.768117 0.002416 0.0
2.994707 0.158723 -0.000569 0.0
2.172560 1.395650 0.002061 0.0
1.387392 0.004593 0.002033 0.0
0.177472 1.277968 0.002190 0.0
3.391176 0.486594 -0.002187 0.0
3.904555 0.036217 -0.000860 0.0
1.487289 1.324036 0.002399 0.0
0.352751 1.102331 -0.001550 0.0
3.171576 1.537681 0.000526 0.0
1.484581 0.892885 0.001330 0.0
0.574637 0.789965 -0.001136 0.0
0.536067 1.269810 -0.002860 0.0
2.092835 0.292092 0.001406 0.0
2.835713 1.689930 0.002142 0.0
0.198370 0.893887 0.001007 0.0
3.352583 1.419307 -0.001056 0.0
2.091063 0.347799 -0.002737 0.0
3.665145 0.482546 0.000054 0.0
3.414737 0.619198 -0.001896 0.0
3.804600 0.970521 0.002411 0.0
3.798295 1.164461 0.003765 0.0
2.560122 1.026983 -0.006114 0.0
0.136714 0.867150 -0.001449 0.0
2.224263 0.677032 -0.001240 0.0
1.580770 0.605580 0.000700 0.0
0.756664 1.236187 0.004113 0.0
1.711644 1.380057 -0.003867 0.0
0.819244 0.329638 -0.003518 0.0
3.203511 0.843968 0.004957 0.0
0.791796 1.645683 -0.002566 0.0
2.303099 0.619574 -0.000921 0.0
2.259066 1.405036 -0.000568 0.0
3.958115 1.335396 0.004052 0.0
1.242995 1.785774 -0.000433 0.0
0.158042 1.314353 0.001163 0.0
2.876339 1.144837 0.001639 0.0
3.478863 1.458325 -0.003339 0.0
2.496760 1.727228 0.000829 0.0
3.767142 0.407266 -0.004131 0.0
2.526723 1.582924 -0.000099 0.0
1.691128 0.283595 0.003027 0.0
3.448929 0.636033 -0.000131 0.0
2.488882 0.606819 -0.001216 0.0
1.050474 1.193178 0.000240 0.0
2.026510 1.730901 -0.004135 0.0
3.135111 0.151748 -0.000643 0.0
4.114932 0.208594 -0.004454 0.0
0.581883 0.057153 -0.003986 0.0
0.865213 1.737759 0.003046 0.0
1.710054 0.790097 0.000883 0.0
0.418378 1.264237 -0.001685 0.0
0.893043 1.238730 0.003952 0.0
1.589541 0.708315 0.005143 0.0
2.431833 1.569314 0.004632 0.0
2.479754 1.421539 -0.002923 0.0
2.040069 0.741352 0.001175 0.0
3.620817 1.470558 0.000037 0.0
1.946819 0.283966 -0.002004 0.0
4.101469 1.107989 0.001233 0.0
3.973918 0.017998 0.002273 0.0
2.574442 1.407385 0.002902 0.0
1.782432 1.607025 -0.001557 0.0
2.705393 1.540805 0.002913 0.0
0.152300 0.630379 0.004143 0.0
4.112071 1.207146 0.000214 0.0
2.778431 1.656171 0.000473 0.0
3.033660 0.832215 0.004666 0.0
0.268951 0.094629 0.002797 0.0
0.034303 1.465537 0.001933 0.0
2.456573 0.148376 0.000340 0.0
1.937565 1.247790 -0.002289 0.0
0.253912 0.275597 -0.001711 0.0
2.026309 0.975232 0.003610 0.0
3.042802 0.243912 -0.003108 0.0
3.526894 1.801300 -0.001711 0.0
3.506240 1.774634 -0.001311 0.0
3.254595 1.321316 0.000407 0.0
0.009389 1.565180 0.000164 0.0
2.344208 0.521761 0.002221 0.0
2.362010 0.123221 -0.002378 0.0
1.875862 0.885570 -0.002673 0.0
1.631434 0.298954 0.002451 0.0
2.261706 1.157188 0.000862 0.0
1.788378 1.605699 -0.003075 0.0
0.515841 0.893257 0.003239 0.0
0.001986 1.534106 0.001075 0.0
2.663312 0.707433 0.000614 0.0
4.020591 -0.002657 0.004555 0.0
1.406953 0.058387 -0.006751 0.0
1.655688 1.364252 0.002028 0.0
0.495845 0.187814 0.000426 0.0
0.664714 0.298970 0.002536 0.0
0.441277 1.295309 0.003832 0.0
2.668745 0.910351 -0.001056 0.0
0.172935 1.730015 0.003057 0.0
3.424130 1.314438 -0.004364 0.0
0.520011 1.652320 0.003125 0.0
3.731641 0.934847 0.002335 0.0
1.044322 0.266490 0.003687 0.0
3.479743 1.120906 0.004471 0.0
3.510994 1.231459 -0.001472 0.0
3.640020 1.094402 -0.004886 0.0
1.715546 0.703388 -0.003106 0.0
0.728162 0.945484 0.001333 0.0
2.372221 1.608593 -0.002516 0.0
1.316375 0.002991 -0.001047 0.0
3.048200 0.587082 0.000614 0.0
0.409541 0.717537 -0.002825 0.0
1.581300 0.751602 -0.005607 0.0
1.227970 0.633201 0.002883 0.0
1.463920 0.360057 -0.000440 0.0
3.694209 0.841580 0.000783 0.0
0.943376 0.940442 0.001116 0.0
1.487038 1.075986 0.005287 0.0
2.901708 0.323784 -0.002239 0.0
3.440463 0.580382 -0.006517 0.0
3.213386 0.316801 -0.000622 0.0
0.929184 1.637709 0.000881 0.0
2.495334 0.873719 0.000395 0.0
2.929097 0.898618 0.002212 0.0
2.742842 1.003999 -0.004649 0.0
0.464812 0.368660 0.002012 0.0
2.884794 0.232073 -0.000346 0.0
3.041665 1.033976 -0.001366 0.0
3.794345 0.205813 0.003123 0.0
0.903375 0.762099 -0.000690 0.0
0.411740 1.479944 -0.000461 0.0
1.249177 1.231202 -0.000595 0.0
3.835779 0.306915 -0.001259 0.0
1.470141 0.856450 -0.000700 0.0
3.492774 1.706020 0.001474 0.0
1.781777 0.562837 0.001911 0.0
2.532433 1.522154 -0.004733 0.0
3.566753 0.691685 0.003326 0.0
3.879012 0.306902 0.000320 0.0
4.061047 0.948796 -0.004011 0.0
2.147442 1.030024 -0.000354 0.0
1.871037 1.189057 -0.005748 0.0
1.464434 0.936792 -0.002080 0.0
4.014625 0.182017 -0.003402 0.0
0.624499 0.096735 -0.000007 0.0
3.934357 0.258302 0.000120 0.0
0.749444 0.462722 -0.002714 0.0
4.051398 0.373644 0.004107 0.0
2.277247 0.331366 0.000357 0.0
0.807530 1.294819 -0.001685 0.0
1.853508 1.514141 0.000342 0.0
3.052370 0.857013 -0.000380 0.0
3.127956 1.591975 0.000585 0.0
2.736210 0.099428 0.001903 0.0
0.246427 0.776308 0.000872 0.0
3.779780 0.612331 -0.001046 0.0
2.636207 1.426018 0.002189 0.0
3.796643 1.665669 0.000524 0.0
0.651799 1.362918 -0.001385 0.0
1.859285 1.249698 -0.000732 0.0
0.461126 1.696806 0.001222 0.0
2.647273 1.600871 0.002531 0.0
0.458078 0.597941 0.000408 0.0
0.690223 0.036139 -0.001090 0.0
0.950069 0.765786 -0.003836 0.0
0.222209 1.581576 -0.001701 0.0
0.400763 0.820691 -0.000735 0.0
3.853710 0.140551 0.004426 0.0
0.661689 0.505397 0.000019 0.0
1.000635 1.081356 -0.000933 0.0
1.002577 1.278405 0.001883 0.0
3.236959 0.444340 -0.001273 0.0
1.219723 1.452752 -0.001382 0.0
0.256309 1.749859 0.000744 0.0
1.422155 0.974632 -0.001496 0.0
2.278477 0.581112 0.002581 0.0
0.232054 1.488609 -0.002688 0.0
0.080515 1.527947 0.003042 0.0
0.013961 1.682277 -0.001503 0.0
0.393125 1.795467 -0.002254 0.0
3.815980 1.695568 -0.000296 0.0
0.267979 0.100158 0.003903 0.0
1.305415 0.854830 0.000594 0.0
1.199144 0.853110 0.001374 0.0
2.215322 0.110910 0.000448 0.0
1.646970 1.283615 -0.001931 0.0
1.925664 0.784268 -0.001611 0.0
0.215136 0.076252 0.000915 0.0
1.423422 0.468674 0.002932 0.0
2.967602 0.884047 -0.001042 0.0
1.448701 0.301496 -0.003002 0.0
1.780510 0.641321 -0.001853 0.0
0.009809 0.219277 -0.001877 0.0
1.395893 0.880464 0.001755 0.0
2.505287 0.968405 -0.005922 0.0
3.699654 1.157117 -0.000174 0.0
0.884433 0.145787 0.003346 0.0
1.249665 0.755647 0.002222 0.0
2.515774 0.214460 -0.002123 0.0
2.700693 0.317696 0.001317 0.0
3.967029 0.036097 0.000170 0.0
0.898798 1.694551 -0.002577 0.0
0.174193 0.702999 -0.001592 0.0
3.976663 1.058988 -0.000647 0.0
1.843879 0.461494 0.003704 0.0
1.886715 1.402793 -0.002259 0.0
1.787912 1.623150 -0.001557 0.0
3.935983 0.485054 0.001079 0.0
3.383251 0.356735 -0.002419 0.0
0.949031 0.991288 -0.001963 0.0
0.180128 1.177993 -0.000694 0.0
0.472027 0.265343 0.000457 0.0
2.020721 0.189106 -0.005381 0.0
0.805668 1.389318 0.001679 0.0
4.041838 1.198389 0.003328 0.0
0.752368 0.039253 -0.001766 0.0
2.625023 0.670324 -0.001993 0.0
3.250770 1.487306 -0.002062 0.0
3.323785 0.996021 0.001875 0.0
3.150012 0.449237 -0.001952 0.0
3.428275 1.757522 0.001416 0.0
1.986835 0.387837 0.001466 0.0
2.726392 0.233374 -0.002900 0.0
0.933898 1.322810 -0.003054 0.0
3.887297 0.973992 0.001585 0.0
0.960498 0.959115 -0.000994 0.0
0.485467 0.919911 0.001859 0.0
3.781316 0.718073 -0.003547 0.0
1.634216 0.803287 0.000897 0.0
3.869608 1.433103 -0.002962 0.0
2.574580 0.778334 0.000294 0.0
0.935080 1.022391 -0.001474 0.0
3.277238 1.778245 0.003721 0.0
2.657083 0.450309 0.000490 0.0
4.018183 1.606347 -0.002705 0.0
1.911426 0.336115 0.000304 0.0
3.371986 0.336564 0.001643 0.0
2.290452 0.437765 -0.000318 0.0
1.010396 1.268891 -0.001701 0.0
1.413584 1.436196 -0.004349 0.0
3.711417 0.581513 -0.005660 0.0
1.635235 1.332425 -0.000804 0.0
2.625903 1.523575 -0.004566 0.0
3.583189 1.138702 0.001549 0.0
2.525871 1.487632 -0.000832 0.0
0.827111 1.281631 0.002785 0.0
1.757989 0.356628 0.002767 0.0
3.630897 0.978950 0.000970 0.0
1.068924 1.495630 -0.005289 0.0
3.755030 1.173779 0.003119 0.0
0.546313 0.413718 -0.001084 0.0
1.120604 0.218147 0.001259 0.0
0.444646 1.320037 0.000801 0.0
2.325656 1.451433 0.002016 0.0
2.759821 0.341835 0.002187 0.0
4.000697 1.096357 0.003267 0.0
3.985650 0.087660 -0.001148 0.0
0.199538 0.892524 0.000799 0.0
0.617859 0.883916 -0.000954 0.0
0.339076 1.670409 0.001009 0.0
2.816946 1.052579 0.001248 0.0
3.203501 0.313485 -0.002392 0.0
2.564155 0.508167 -0.002124 0.0
1.449413 0.626161 0.002129 0.0
1.534024 1.761005 -0.001479 0.0
0.316391 0.161634 -0.003771 0.0
3.522794 1.317987 0.000068 0.0
0.864276 0.377576 0.002880 0.0
0.681196 0.155409 -0.003430 0.0
2.194169 0.338372 0.000485 0.0
1.878118 0.898650 0.000951 0.0
2.587164 1.330300 -0.000597 0.0
0.493917 0.731637 0.004640 0.0
2.044788 1.236547 0.000706 0.0
0.729982 1.340073 -0.003715 0.0
3.791941 1.061126 -0.004867 0.0
0.641425 0.461822 0.004402 0.0
3.779536 1.263270 0.000184 0.0
1.830878 1.798103 -0.003482 0.0
3.804863 0.002568 0.049648 0.0
0.678287 -0.000365 0.195590 0.0
0.266829 0.001997 0.132734 0.0
4.026035 0.001739 0.110766 0.0
0.085698 0.001648 0.192822 0.0
0.706282 0.005490 0.186654 0.0
3.817393 0.001184 0.183059 0.0
3.256624 0.002347 0.129298 0.0
0.212532 0.004283 0.214558 0.0
1.094582 0.001218 0.059269 0.0
0.231695 0.000475 0.151218 0.0
3.793706 0.000821 0.213461 0.0
1.886862 0.002396 0.214984 0.0
1.342222 0.001319 0.052941 0.0
0.156544 0.004682 0.043329 0.0
1.856391 0.001668 0.157227 0.0
0.276241 0.004858 0.128163 0.0
0.851962 0.001208 0.032101 0.0
1.459373 0.002200 0.099307 0.0
1.667460 0.000367 0.027865 0.0
0.600712 0.003477 0.067381 0.0
0.984359 0.004308 0.156909 0.0
4.091670 0.003192 0.099756 0.0
0.114957 0.002637 0.214043 0.0
0.994374 0.000667 0.110982 0.0
2.285393 0.003909 0.160992 0.0
0.397682 0.002570 0.139592 0.0
3.188041 0.003457 0.081460 0.0
3.260869 0.000779 0.125141 0.0
3.624688 -0.000805 0.195897 0.0
0.579570 0.000023 0.061497 0.0
0.441471 0.004143 0.134151 0.0
3.127406 0.001220 0.179651 0.0
0.415906 0.003817 0.066269 0.0
1.392996 -0.001626 0.087366 0.0
3.046006 -0.004034 0.033329 0.0
0.268553 -0.000117 0.156801 0.0
1.726358 -0.001779 0.185486 0.0
2.767511 0.001121 0.052639 0.0
2.428199 0.001333 0.118207 0.0
1.319010 -0.003839 0.214997 0.0
2.043109 -0.001355 0.160757 0.0
0.833552 0.004482 0.042236 0.0
