2.096284 0.422146 -0.002200 0.0
3.647862 0.013877 0.001624 0.0
3.905737 1.769040 -0.000231 0.0
1.223914 1.412972 -0.003151 0.0
2.099326 1.625468 0.002297 0.0
1.683475 1.373376 0.001796 0.0
2.413827 1.016473 -0.002341 0.0
0.981996 0.285405 0.002478 0.0
3.907015 2.202227 0.003980 0.0
0.965036 1.684302 0.002129 0.0
2.924971 1.674006 -0.000462 0.0
3.681843 0.366772 -0.001592 0.0
4.484298 1.991171 -0.001146 0.0
3.941570 0.319344 0.002655 0.0
0.806659 0.429124 0.000684 0.0
4.213355 0.773969 -0.004184 0.0
1.423366 2.130397 -0.004053 0.0
2.789798 2.146256 0.000342 0.0
3.253857 1.013429 0.001758 0.0
2.589498 0.086846 0.000538 0.0
4.238733 0.466736 0.001631 0.0
0.284314 0.639248 -0.001344 0.0
0.227028 0.589731 -0.007928 0.0
4.261150 0.362465 -0.003925 0.0
0.648207 1.095026 0.004227 0.0
1.478862 0.596112 0.003640 0.0
0.085953 1.692662 -0.000171 0.0
0.044140 0.158855 0.001145 0.0
0.304201 1.484076 0.001467 0.0
3.333462 0.600523 -0.000975 0.0
4.536591 0.006693 -0.000867 0.0
0.877992 0.344408 -0.001868 0.0
2.182321 0.156926 0.001716 0.0
3.115352 0.656284 0.000052 0.0
4.579095 0.155490 -0.000939 0.0
2.108433 0.241850 0.002029 0.0
0.726805 0.521207 0.000744 0.0
3.537902 1.832424 -0.008516 0.0
0.979557 0.256405 0.002236 0.0
1.322281 1.627704 0.000188 0.0
4.758485 2.109368 -0.002382 0.0
3.472614 1.461910 0.004593 0.0
3.716591 1.968799 0.000247 0.0
1.804411 2.092047 -0.003072 0.0
2.697974 0.169516 -0.001232 0.0
0.460434 1.105109 0.002514 0.0
4.087805 0.014103 0.000370 0.0
2.594563 1.841257 0.000391 0.0
0.909197 0.030382 -0.000584 0.0
2.418157 1.625297 0.000093 0.0
2.660895 0.288028 0.002940 0.0
1.072821 1.370674 0.002042 0.0
4.760832 1.088523 0.004919 0.0
2.979695 0.878976 -0.000131 0.0
3.360944 1.015910 -0.001356 0.0
4.378985 0.922594 0.000038 0.0
1.600551 0.651740 0.000868 0.0
3.906484 1.672156 -0.001836 0.0
3.696299 0.182458 0.002206 0.0
2.774185 2.204161 -0.000106 0.0
3.293038 1.434458 -0.004709 0.0
2.856383 1.939072 0.000230 0.0
1.034805 1.802872 0.000793 0.0
1.934953 0.474533 0.000303 0.0
1.239497 1.266191 -0.007564 0.0
2.846517 2.066585 0.000100 0.0
1.563458 1.005391 0.002292 0.0
1.779138 0.708991 0.001345 0.0
1.469058 1.939430 -0.001442 0.0
2.522256 1.013466 0.006327 0.0
0.831611 0.046797 0.002445 0.0
1.953214 1.502574 -0.000816 0.0
3.128327 0.165680 -0.002271 0.0
4.593210 1.121058 0.000047 0.0
3.341586 1.579423 -0.002253 0.0
3.299570 0.687284 -0.003920 0.0
3.723270 1.862045 0.000302 0.0
2.702750 1.467180 -0.001673 0.0
3.199683 1.709573 -0.003604 0.0
1.014383 2.221513 0.004486 0.0
0.574350 1.965886 -0.000704 0.0
2.324520 0.478345 0.003005 0.0
1.025984 1.654700 -0.002676 0.0
3.595856 1.447803 -0.004024 0.0
1.096479 2.005060 -0.002790 0.0
0.563979 1.289024 0.001723 0.0
3.277578 0.491000 0.001529 0.0
3.582621 1.186835 -0.003239 0.0
3.036026 1.174319 -0.000724 0.0
1.393532 1.823561 -0.001975 0.0
3.393876 1.870266 -0.003239 0.0
0.689822 1.545956 -0.003078 0.0
3.956599 1.794060 0.002522 0.0
1.830307 1.168672 0.000393 0.0
3.840771 1.903774 0.004561 0.0
3.389452 1.641193 -0.002447 0.0
2.685178 2.098331 -0.000663 0.0
4.674624 0.886978 -0.001910 0.0
1.887650 1.466386 -0.000296 0.0
2.634681 1.368791 0.000672 0.0
2.516436 0.917599 -0.002630 0.0
1.422363 2.235668 -0.000660 0.0
2.880010 1.450333 0.000082 0.0
0.164719 1.865186 -0.003301 0.0
4.427498 1.789160 0.005054 0.0
0.553012 1.403588 0.002984 0.0
1.231610 0.958295 -0.005557 0.0
4.024418 1.059814 -0.001427 0.0
4.409905 2.107381 -0.002074 0.0
0.434776 1.200621 -0.001005 0.0
3.944430 0.153469 -0.001874 0.0
3.221230 0.571816 -0.000618 0.0
4.489256 1.344894 0.002398 0.0
4.699638 1.873504 -0.001700 0.0
4.575171 1.699530 0.000531 0.0
2.381412 0.155128 -0.005174 0.0
4.323608 0.759419 0.000549 0.0
4.196229 1.429303 0.002067 0.0
4.306291 1.161075 0.007056 0.0
2.732640 1.523856 0.002957 0.0
3.121018 2.005653 0.000964 0.0
4.534150 0.104309 -0.001399 0.0
3.981452 1.457190 0.002178 0.0
3.503757 0.425071 -0.002620 0.0
1.358220 0.780389 0.002055 0.0
1.612497 0.231479 0.004651 0.0
0.346471 2.141118 0.000084 0.0
4.763392 0.308868 0.003102 0.0
0.938421 1.735629 0.003832 0.0
1.128746 1.837345 0.001951 0.0
0.203002 1.793709 0.001711 0.0
3.552396 0.503391 -0.000485 0.0
3.813468 0.897901 0.005247 0.0
0.579801 2.110555 -0.000360 0.0
1.759313 0.035571 0.002584 0.0
1.830481 0.858264 0.003662 0.0
3.518967 1.116871 -0.000358 0.0
3.571911 0.604202 -0.000448 0.0
0.128540 1.670451 0.000972 0.0
4.122720 1.759563 -0.000684 0.0
1.472323 1.855500 -0.003208 0.0
0.502430 0.395329 0.001867 0.0
3.215951 2.142102 -0.000991 0.0
1.418843 0.703203 0.002017 0.0
1.682108 0.267744 -0.004050 0.0
0.638506 1.144287 -0.001364 0.0
4.661331 1.010207 -0.001891 0.0
1.951896 0.123148 -0.002203 0.0
3.617880 1.152114 0.000990 0.0
0.751111 0.979576 -0.004949 0.0
1.246627 1.242987 -0.002503 0.0
0.876606 0.009996 -0.001581 0.0
3.541856 0.015732 -0.002782 0.0
1.259025 1.122831 0.002367 0.0
0.746893 0.726749 -0.001857 0.0
4.745614 0.893978 -0.000868 0.0
1.211977 0.624062 -0.000700 0.0
0.559445 1.699136 0.000118 0.0
1.359114 1.000230 -0.005004 0.0
1.771711 2.050650 -0.001905 0.0
4.668067 0.375889 -0.002718 0.0
1.377990 0.446704 0.000049 0.0
3.512994 1.885219 0.004948 0.0
3.215504 0.982552 -0.001564 0.0
1.694445 2.107269 -0.005571 0.0
4.466581 1.106914 0.000363 0.0
0.702371 1.784841 0.004867 0.0
3.138489 1.853498 -0.000221 0.0
3.736791 0.959271 -0.001531 0.0
4.481903 1.087884 -0.002789 0.0
4.600183 1.685315 -0.002721 0.0
3.561644 0.536916 -0.000933 0.0
4.507139 1.372958 -0.000265 0.0
1.254814 0.806030 -0.002516 0.0
0.186723 1.671822 -0.004031 0.0
3.176200 1.386685 -0.001297 0.0
3.080309 1.396128 0.001895 0.0
0.161561 1.668641 0.003120 0.0
3.146900 1.149341 0.003414 0.0
2.961304 0.676674 -0.000272 0.0
0.543586 0.817438 0.000351 0.0
0.028694 1.495740 0.002048 0.0
0.816818 1.633159 -0.000630 0.0
1.719481 1.379144 0.000732 0.0
4.478807 0.765599 0.001129 0.0
3.978679 0.382886 -0.001889 0.0
2.408538 1.701599 -0.002861 0.0
2.395519 1.930368 -0.001671 0.0
2.347042 0.986297 -0.004581 0.0
0.942084 0.729873 -0.000928 0.0
1.914313 0.053643 -0.001184 0.0
2.466707 2.000584 0.001961 0.0
2.908283 0.771811 -0.001931 0.0
0.155193 2.129645 0.002397 0.0
1.408177 0.563312 0.001305 0.0
0.922897 0.276653 0.002570 0.0
0.390098 1.520446 0.003810 0.0
2.711413 1.531214 -0.005354 0.0
0.523362 1.491296 -0.000072 0.0
0.254355 0.940971 -0.002815 0.0
0.769921 1.115739 -0.003179 0.0
1.947301 1.586939 -0.001692 0.0
1.510822 0.135521 0.000683 0.0
3.190141 0.195421 -0.004335 0.0
4.208271 1.162825 -0.001664 0.0
4.134975 0.694092 -0.003187 0.0
1.189920 1.376981 0.001559 0.0
0.542661 0.551683 -0.003564 0.0
1.302066 0.189042 0.000319 0.0
4.540782 0.013137 -0.001098 0.0
1.753743 1.993951 0.000615 0.0
3.179733 0.388752 0.001700 0.0
2.253229 1.102203 0.002150 0.0
2.903828 0.409951 -0.001842 0.0
1.703623 1.063008 0.002476 0.0
3.300824 1.284220 0.002424 0.0
2.260878 0.097760 -0.000762 0.0
3.626035 0.854045 -0.001752 0.0
4.549773 2.053022 0.000872 0.0
4.171433 0.188016 -0.005202 0.0
2.113878 0.607301 -0.001987 0.0
3.793018 1.023681 -0.002641 0.0
3.258480 1.130534 0.002499 0.0
1.359252 2.188422 -0.000752 0.0
3.819454 0.218045 0.000179 0.0
2.380011 0.083623 -0.001257 0.0
4.221383 0.506854 0.000006 0.0
0.459198 0.366881 0.000877 0.0
0.148851 1.587536 -0.000458 0.0
0.287499 0.042384 -0.002470 0.0
0.047711 1.550216 -0.002832 0.0
0.650698 1.192543 -0.004859 0.0
1.525885 1.257644 0.001551 0.0
1.025470 1.783519 0.002323 0.0
0.808314 2.162644 -0.000135 0.0
0.125776 0.609828 -0.002024 0.0
2.004656 1.016843 -0.003234 0.0
0.362085 0.328100 0.002007 0.0
3.590658 0.821157 0.000188 0.0
0.506537 2.051735 -0.000061 0.0
2.106849 1.096258 -0.004446 0.0
2.688819 1.507019 0.002635 0.0
3.339292 0.028511 0.000999 0.0
4.707206 2.085934 -0.003827 0.0
4.631589 0.018265 -0.002830 0.0
3.129411 2.126210 -0.001326 0.0
4.080758 0.643563 -0.001042 0.0
1.115166 0.546259 0.000609 0.0
0.530715 1.285061 -0.004163 0.0
1.462864 1.480915 0.001291 0.0
0.280951 2.088364 0.000817 0.0
0.041706 1.721701 -0.001218 0.0
1.826519 1.351789 0.003178 0.0
3.119616 1.892127 0.001547 0.0
2.923712 1.326067 -0.004727 0.0
2.025067 1.578296 -0.002732 0.0
2.116333 1.069559 0.001350 0.0
1.677510 0.684262 -0.001796 0.0
0.296236 1.071704 -0.000601 0.0
2.871824 1.375607 -0.001272 0.0
2.360668 0.077078 -0.001665 0.0
1.564938 1.483327 0.001840 0.0
2.680775 0.176425 -0.001273 0.0
2.219621 0.375876 -0.001569 0.0
1.371390 0.065325 -0.000739 0.0
4.256833 1.637921 0.000216 0.0
0.416518 0.849616 -0.003367 0.0
2.918202 1.851649 -0.003251 0.0
0.414672 2.151765 0.000507 0.0
1.807246 1.386401 -0.000432 0.0
0.723578 0.681773 0.004217 0.0
4.080454 0.642457 -0.002101 0.0
3.554626 0.733619 0.002965 0.0
3.144741 1.239387 0.000338 0.0
4.151932 1.587881 0.000201 0.0
0.818663 2.081503 0.000165 0.0
2.554816 1.539321 -0.003745 0.0
3.646542 1.847141 0.005839 0.0
3.664273 1.798436 0.002421 0.0
3.070401 1.299540 -0.001519 0.0
2.076490 0.350678 0.003090 0.0
3.538522 0.774195 0.001202 0.0
0.390592 1.804079 -0.000722 0.0
2.913988 1.096993 0.002689 0.0
0.172776 0.116688 -0.004736 0.0
2.031141 2.091329 0.000046 0.0
0.135569 1.199056 0.001504 0.0
4.021834 0.616838 0.001241 0.0
3.165199 1.284818 0.002835 0.0
4.508774 1.028081 0.000158 0.0
0.624300 1.423696 0.001527 0.0
0.849686 0.408541 0.001723 0.0
4.757346 0.011411 -0.000880 0.0
1.361413 0.933750 -0.001728 0.0
1.912157 1.098738 0.001761 0.0
2.099601 1.596697 -0.004527 0.0
1.327089 0.431798 0.000616 0.0
4.728412 1.361711 -0.000241 0.0
1.582994 0.606792 -0.002592 0.0
4.608841 1.476572 0.001320 0.0
2.941320 1.608630 0.004522 0.0
2.565491 2.048611 -0.000833 0.0
4.066167 0.280873 0.000911 0.0
2.722433 1.536143 -0.003052 0.0
2.701919 1.599023 -0.002195 0.0
4.144612 1.549740 0.001312 0.0
3.235559 2.064242 0.004168 0.0
1.227639 2.144150 0.000840 0.0
0.795991 0.329931 -0.001441 0.0
3.937148 1.349777 -0.001047 0.0
2.179324 2.095281 0.001655 0.0
0.145422 1.740322 -0.002114 0.0
0.793737 0.527716 -0.000139 0.0
0.980261 1.475432 0.005161 0.0
0.533913 1.205482 0.003418 0.0
0.661498 0.100365 -0.002534 0.0
3.167835 1.961046 0.002974 0.0
3.778961 1.206150 0.006010 0.0
4.166593 2.236464 -0.002630 0.0
4.412386 1.263428 0.000162 0.0
3.603633 1.900388 -0.000043 0.0
3.532496 0.214716 0.002399 0.0
0.958742 1.466607 0.001232 0.0
1.838389 0.199395 -0.002014 0.0
3.347039 1.120090 -0.002737 0.0
0.318373 1.477042 -0.001949 0.0
2.421114 0.488512 -0.002172 0.0
2.538083 0.757249 0.001468 0.0
1.274578 0.462642 0.000460 0.0
0.975604 0.035995 -0.001152 0.0
1.330519 0.827112 0.003932 0.0
0.216711 0.211441 -0.001364 0.0
4.759370 1.959545 -0.001833 0.0
0.008752 1.360904 -0.000889 0.0
2.026524 0.108107 -0.000734 0.0
1.919264 1.708414 0.002276 0.0
0.663565 1.005182 0.003828 0.0
1.477777 0.858223 -0.001625 0.0
2.357476 0.798739 0.001729 0.0
3.441584 0.011194 0.003404 0.0
1.077988 1.192310 -0.002245 0.0
3.808554 0.881432 0.002241 0.0
1.509523 2.045752 -0.004782 0.0
4.204734 2.023936 -0.001582 0.0
3.521396 1.859406 0.002389 0.0
0.031731 0.536275 -0.000600 0.0
0.004772 0.284904 0.000968 0.0
1.810164 0.550115 -0.003363 0.0
2.584192 0.704152 0.001587 0.0
0.108008 0.780151 -0.000993 0.0
2.075220 1.891559 0.000144 0.0
1.040599 2.051254 -0.000333 0.0
4.118095 0.107559 -0.002592 0.0
0.447122 0.735897 0.000462 0.0
2.655515 1.836447 0.002096 0.0
2.839144 2.055304 0.005211 0.0
1.748088 0.217015 -0.000729 0.0
3.995094 1.610447 -0.000087 0.0
1.559995 1.770561 0.003298 0.0
0.951233 1.929194 -0.000205 0.0
2.876960 1.756573 -0.000631 0.0
1.697810 0.396894 0.000165 0.0
3.483320 0.339919 0.004596 0.0
3.969009 0.416293 0.003804 0.0
3.406262 2.114324 0.000849 0.0
4.322152 0.328574 -0.002907 0.0
2.293963 1.164129 0.000347 0.0
1.662688 1.100431 0.000586 0.0
0.479563 1.848213 -0.000092 0.0
0.230206 0.053114 0.000332 0.0
2.441634 0.492791 0.001073 0.0
3.410354 1.450089 -0.001906 0.0
1.943908 0.146555 0.001534 0.0
2.016381 2.110677 0.002409 0.0
4.541222 0.169906 -0.006281 0.0
1.476457 0.562446 0.004689 0.0
0.121029 0.011877 -0.000661 0.0
2.541163 1.086631 -0.004391 0.0
2.162192 1.461270 -0.001884 0.0
2.595597 1.134052 -0.003534 0.0
0.771603 1.398415 0.000426 0.0
2.720549 1.024784 -0.001505 0.0
2.348191 1.780549 0.002445 0.0
4.162814 1.139848 0.000122 0.0
3.709578 1.245198 0.001917 0.0
4.418595 2.157011 -0.002180 0.0
2.997412 0.153071 -0.001594 0.0
2.572799 0.133849 0.001156 0.0
2.386383 0.572266 0.000093 0.0
3.864267 1.983417 -0.005217 0.0
2.973555 1.525936 0.000249 0.0
0.371378 0.565492 -0.004032 0.0
1.052884 0.359359 -0.004085 0.0
0.906956 0.810098 -0.002433 0.0
1.175054 0.050231 0.000651 0.0
3.816099 1.146562 0.001116 0.0
2.574915 0.418698 0.000703 0.0
0.507640 0.831157 -0.003400 0.0
3.257885 2.210797 -0.000202 0.0
2.403527 0.570354 -0.000357 0.0
0.000051 1.176152 -0.001001 0.0
4.096109 1.447843 0.000568 0.0
2.108757 1.016508 -0.001573 0.0
3.144085 0.328329 -0.002056 0.0
1.256975 1.167681 0.002440 0.0
4.717013 0.287153 0.001346 0.0
0.326383 0.922807 0.003158 0.0
4.278934 1.223425 -0.001296 0.0
3.513864 0.952366 0.001847 0.0
0.077256 1.861350 -0.001651 0.0
3.085204 1.245803 0.001196 0.0
1.382232 1.201586 -0.001394 0.0
3.426667 0.663004 -0.001690 0.0
0.091332 1.250395 0.001013 0.0
1.685533 1.488443 -0.000053 0.0
2.805478 0.002476 0.003343 0.0
4.203138 2.057187 -0.003879 0.0
0.405874 1.142588 -0.000133 0.0
4.738436 1.992985 0.000312 0.0
1.980115 0.611714 -0.002054 0.0
3.787186 1.844299 0.002955 0.0
4.764913 0.404091 -0.001983 0.0
4.068880 1.902107 0.004840 0.0
1.769140 1.843370 -0.003343 0.0
3.281317 0.679427 -0.000960 0.0
2.709032 1.583200 0.000863 0.0
0.966312 1.609778 0.002394 0.0
3.053019 0.997280 -0.002494 0.0
2.968298 1.377182 0.003064 0.0
4.687682 0.651576 -0.000666 0.0
2.196475 1.325340 0.000862 0.0
3.447964 1.437626 0.002487 0.0
4.380815 2.154226 -0.001276 0.0
2.588388 1.157714 -0.000695 0.0
3.331412 0.271488 -0.000466 0.0
2.707331 2.146685 -0.002197 0.0
2.085106 0.791514 0.001388 0.0
3.298410 0.096095 0.001422 0.0
0.262656 0.434481 -0.000186 0.0
0.653371 0.774709 0.002265 0.0
3.840640 1.395532 0.005175 0.0
4.324210 1.024360 0.000398 0.0
3.716934 0.995805 -0.000421 0.0
2.057385 0.928258 -0.001203 0.0
1.106733 1.081893 0.000866 0.0
0.819233 0.121509 0.000724 0.0
4.292798 0.350699 0.003471 0.0
0.573247 0.177596 0.000769 0.0
4.064527 1.610441 0.006102 0.0
3.915821 1.506216 -0.005513 0.0
1.955983 0.963957 -0.003796 0.0
3.679943 0.288054 -0.002878 0.0
2.250266 1.620461 -0.001175 0.0
0.486763 2.136108 0.004317 0.0
3.833847 1.024094 -0.002859 0.0
1.247984 -0.001593 0.000761 0.0
3.999395 1.127329 -0.001144 0.0
4.434582 0.341169 -0.000358 0.0
2.863151 2.085228 -0.000797 0.0
2.474734 0.099597 -0.004236 0.0
4.160432 0.147136 0.003838 0.0
0.999652 0.153952 0.000688 0.0
4.132065 0.119965 -0.002320 0.0
2.006609 0.544914 0.001100 0.0
0.970286 1.356117 -0.000248 0.0
2.242843 1.835167 -0.000916 0.0
2.623765 2.206460 -0.002523 0.0
0.774695 0.069600 0.001765 0.0
0.464774 1.518194 0.001898 0.0
3.943712 0.130672 -0.000044 0.0
0.901371 1.643192 0.001121 0.0
1.167707 0.881984 -0.002109 0.0
4.551493 2.218581 -0.008143 0.0
3.272843 0.006584 -0.002420 0.0
2.446578 1.201366 0.000051 0.0
4.350946 0.495090 -0.004039 0.0
3.235573 2.032024 -0.002345 0.0
1.707163 0.889673 0.003576 0.0
4.644158 0.257627 0.000318 0.0
3.972891 0.601047 0.002979 0.0
1.479685 1.613011 -0.002364 0.0
1.817927 1.155927 -0.002618 0.0
3.898219 2.027223 -0.002760 0.0
2.800456 1.860026 0.003672 0.0
4.020629 1.306378 0.000235 0.0
0.472331 1.574980 -0.000074 0.0
3.506300 1.825913 -0.001637 0.0
4.580684 0.775789 0.001637 0.0
4.118904 1.943305 -0.000051 0.0
2.681650 1.083664 -0.001051 0.0
2.142557 0.891694 -0.002284 0.0
2.894721 0.788214 -0.003241 0.0
4.185344 1.631413 0.001047 0.0
0.743479 0.310987 0.001848 0.0
2.481057 0.236161 0.000969 0.0
2.094749 0.698747 0.000549 0.0
4.102142 1.603922 0.003703 0.0
0.356973 2.248190 0.005698 0.0
4.382595 0.952371 -0.001028 0.0
3.868383 0.801829 -0.000778 0.0
2.175735 1.679760 -0.001839 0.0
0.407294 0.586117 -0.001748 0.0
3.277661 0.694844 -0.003209 0.0
3.323998 1.045572 0.002092 0.0
2.629529 2.117760 0.000190 0.0
0.932471 0.146984 -0.002521 0.0
0.083286 0.950579 0.002306 0.0
3.812362 1.438712 0.002788 0.0
3.813359 0.742613 -0.004578 0.0
4.193312 1.770000 -0.001535 0.0
0.711806 2.138828 0.001804 0.0
3.531430 0.307537 0.008136 0.0
4.310399 1.066421 -0.001909 0.0
1.367850 2.004781 -0.000630 0.0
0.679359 1.879898 -0.002485 0.0
0.685119 0.458832 -0.001145 0.0
4.330818 0.050100 0.001030 0.0
4.431036 0.436908 -0.004157 0.0
2.346421 0.062416 0.001117 0.0
3.765762 0.092530 -0.000254 0.0
0.928673 0.290334 -0.000694 0.0
2.560760 1.953606 -0.002028 0.0
0.576094 1.800387 -0.000053 0.0
2.124899 2.244660 0.003715 0.0
0.506787 0.918617 0.000455 0.0
4.652019 1.342841 0.003028 0.0
2.548374 1.227562 0.000736 0.0
3.622976 1.079902 -0.000639 0.0
1.098532 0.679012 -0.004003 0.0
3.252326 0.364359 0.004872 0.0
0.714347 1.428035 0.000214 0.0
0.713912 1.378935 0.003183 0.0
4.043880 0.367057 0.002166 0.0
2.577533 0.189092 -0.001305 0.0
1.818622 1.496616 0.005626 0.0
0.603617 0.983011 -0.002522 0.0
0.868669 1.375162 0.001297 0.0
2.508079 0.642098 -0.001776 0.0
4.220324 0.282998 -0.000822 0.0
0.985984 2.100139 -0.002132 0.0
3.158821 0.526883 0.000245 0.0
4.200639 0.538431 0.002613 0.0
4.308768 1.331366 0.004944 0.0
4.225162 1.600671 -0.001868 0.0
3.741837 1.042600 0.000798 0.0
3.135656 0.255522 0.005976 0.0
0.993660 2.046227 -0.001787 0.0
3.724391 0.114120 -0.004927 0.0
3.641044 0.583689 0.002759 0.0
4.521584 1.349785 0.003348 0.0
3.268826 0.041560 0.003319 0.0
2.556642 1.678637 -0.002552 0.0
0.804841 1.017188 -0.002390 0.0
3.877791 1.338801 0.000555 0.0
2.297929 1.894906 -0.002529 0.0
1.695941 2.179846 -0.002958 0.0
3.795108 1.035520 -0.002944 0.0
0.243715 1.058492 -0.003163 0.0
4.403504 2.098038 -0.004059 0.0
1.619922 1.129612 -0.002033 0.0
0.512339 1.210038 0.000744 0.0
4.121586 0.558023 -0.001773 0.0
3.870614 0.245689 0.002431 0.0
1.555676 1.386574 -0.003088 0.0
4.328307 0.186117 -0.000611 0.0
0.519174 1.550186 -0.001984 0.0
3.312347 2.030344 0.001173 0.0
1.879244 1.157894 0.002235 0.0
1.888570 0.225722 0.000509 0.0
0.382563 0.168301 0.001656 0.0
4.527332 0.975467 -0.003209 0.0
1.367225 2.142957 0.003662 0.0
0.332927 1.232135 0.004026 0.0
3.440245 1.660509 -0.000544 0.0
3.151226 0.094900 -0.002526 0.0
0.504083 0.189567 0.000734 0.0
4.003080 0.644366 0.002595 0.0
3.615785 1.023938 0.001500 0.0
4.566249 2.077385 0.001153 0.0
3.866139 1.306324 -0.002408 0.0
4.203451 2.216315 -0.001626 0.0
4.104347 0.144833 -0.003587 0.0
3.674140 0.595884 -0.001551 0.0
1.215440 1.616475 0.002827 0.0
1.237371 0.282319 -0.002259 0.0
2.040382 1.915560 -0.001158 0.0
3.903771 1.547110 0.002482 0.0
1.803340 0.239894 0.003148 0.0
0.014556 1.610105 0.000271 0.0
0.756433 0.784670 0.000399 0.0
4.716664 1.724747 0.001396 0.0
2.633827 2.069138 0.002393 0.0
1.371871 0.848865 0.002477 0.0
2.384161 1.136000 0.002698 0.0
0.981956 0.874914 0.001068 0.0
2.831641 1.119806 -0.002822 0.0
3.205110 1.441311 -0.003264 0.0
0.558528 1.177482 -0.000205 0.0
1.868994 0.118758 -0.002215 0.0
2.342269 0.135485 -0.000148 0.0
3.028798 1.088395 0.001559 0.0
0.706102 0.447811 -0.004171 0.0
4.587853 1.870167 -0.000885 0.0
3.487999 1.758880 0.000855 0.0
0.606577 0.442387 -0.000215 0.0
4.039794 0.417798 0.001131 0.0
0.821670 1.300758 -0.000733 0.0
0.995146 1.456045 -0.000921 0.0
0.939020 2.242273 0.000706 0.0
1.992860 2.170721 -0.005980 0.0
4.233950 0.837820 -0.001396 0.0
0.078707 1.294050 -0.001237 0.0
0.699881 0.970940 0.000689 0.0
2.367660 0.024545 0.002811 0.0
2.194312 0.746494 -0.000189 0.0
2.298699 0.976614 -0.000899 0.0
0.400387 0.523054 -0.000230 0.0
0.168470 1.432048 -0.001889 0.0
1.834965 1.624308 -0.002287 0.0
3.053052 0.904529 -0.008425 0.0
1.815352 0.388933 0.001373 0.0
4.146368 0.009769 -0.001806 0.0
4.740149 1.863227 -0.002125 0.0
1.216579 0.534616 0.000495 0.0
4.064277 1.003590 -0.000871 0.0
1.760703 0.542983 0.002364 0.0
1.477347 0.615785 -0.000547 0.0
0.946998 0.442809 0.000240 0.0
4.708912 0.474922 0.002214 0.0
3.319778 1.721161 -0.000341 0.0
0.246464 0.461000 -0.001403 0.0
1.141259 1.815524 0.002368 0.0
0.699937 1.800733 -0.000879 0.0
1.310177 1.343540 -0.001737 0.0
3.371452 1.831475 -0.005489 0.0
4.291087 1.956118 0.003156 0.0
1.991996 0.099775 0.003568 0.0
3.621727 0.946961 -0.002971 0.0
1.468269 0.936011 -0.001146 0.0
3.432037 0.159922 -0.002415 0.0
2.499201 1.418535 -0.004392 0.0
2.489987 0.671362 -0.002377 0.0
1.680714 0.455111 0.001797 0.0
0.086436 0.926355 -0.001385 0.0
0.747376 1.433795 -0.004024 0.0
1.679072 1.631829 -0.000915 0.0
3.867435 0.871524 -0.002016 0.0
0.549184 2.053624 0.003849 0.0
3.918826 1.199825 -0.000594 0.0
2.873864 1.064504 -0.007421 0.0
1.246700 1.899046 -0.002161 0.0
3.496048 0.787828 0.000585 0.0
0.226084 2.058983 0.002348 0.0
3.086353 1.400406 -0.001589 0.0
3.501836 0.730025 0.000596 0.0
1.342371 0.130676 0.001758 0.0
2.395089 2.159327 -0.001370 0.0
0.110646 2.136511 0.000051 0.0
0.389543 0.631282 -0.002041 0.0
0.796466 0.208261 0.002026 0.0
0.308957 1.002288 -0.000748 0.0
1.482837 1.390940 0.004361 0.0
1.808158 0.751764 -0.001262 0.0
3.384187 0.881014 -0.001939 0.0
2.413855 0.452685 -0.000296 0.0
1.680412 1.229019 0.001018 0.0
2.758565 1.652254 0.001524 0.0
1.538762 1.108717 -0.006035 0.0
2.178201 1.461037 -0.000812 0.0
1.279394 0.301772 -0.000588 0.0
4.389739 0.193392 -0.000654 0.0
1.520653 2.098498 -0.005362 0.0
3.582087 1.205885 -0.001931 0.0
3.490461 0.739436 -0.001035 0.0
0.432143 0.991214 0.001486 0.0
3.219526 0.987063 0.001022 0.0
1.127479 1.876368 -0.002877 0.0
2.486282 0.634946 -0.002510 0.0
2.508655 0.986489 -0.003732 0.0
3.717313 0.415845 -0.005498 0.0
0.675798 1.969513 0.000162 0.0
4.583119 1.780249 0.002348 0.0
2.474906 0.817289 -0.002736 0.0
1.079033 1.193650 -0.005125 0.0
4.046911 0.329456 -0.002159 0.0
1.300893 2.213404 -0.001316 0.0
1.777609 0.200560 0.000056 0.0
1.852258 0.969175 -0.000345 0.0
2.274731 1.432402 0.002306 0.0
2.579454 2.134274 -0.001626 0.0
0.528928 0.908153 0.001584 0.0
1.608728 1.635298 0.003109 0.0
2.219785 0.855808 -0.000406 0.0
3.300299 2.073450 -0.002989 0.0
1.339918 0.727489 0.003107 0.0
0.300551 0.865302 0.001303 0.0
4.736352 1.629117 -0.001200 0.0
3.318561 0.706707 -0.001767 0.0
4.383507 1.832298 0.001846 0.0
0.799031 1.600387 -0.004060 0.0
3.535935 1.296371 -0.001735 0.0
4.555758 1.862614 -0.002779 0.0
0.232889 0.085989 0.000668 0.0
3.764617 1.813737 0.001142 0.0
2.291885 2.169894 -0.001135 0.0
3.354384 1.951692 0.002012 0.0
2.822377 2.240581 0.001106 0.0
2.902498 0.337884 -0.000233 0.0
0.523248 2.230687 -0.002076 0.0
0.787430 0.707026 0.003208 0.0
4.112138 0.989574 0.004510 0.0
4.325584 1.401385 0.001036 0.0
1.021436 0.218477 0.003150 0.0
1.843346 1.046697 0.000920 0.0
1.275389 1.234519 -0.000625 0.0
2.985332 0.228415 -0.002929 0.0
4.665054 2.247341 0.001096 0.0
4.324658 0.607518 -0.000403 0.0
3.058618 0.822471 -0.001395 0.0
1.459924 1.180612 -0.000707 0.0
4.302712 0.621981 0.001195 0.0
1.835715 0.117228 0.000782 0.0
0.707962 0.505243 -0.005077 0.0
1.240892 2.228733 -0.002594 0.0
1.992814 0.976585 0.001293 0.0
0.559468 1.493950 -0.001121 0.0
1.516196 1.968901 0.001643 0.0
3.181845 1.460582 -0.000437 0.0
0.975105 1.493400 -0.000826 0.0
1.329283 1.559798 0.004285 0.0
1.242193 1.077248 -0.000015 0.0
1.761941 1.075342 0.001254 0.0
0.747547 1.648985 0.002563 0.0
0.933681 1.770510 -0.000307 0.0
1.475856 0.748153 -0.000332 0.0
0.981028 1.622397 0.001476 0.0
2.537981 1.210409 0.002641 0.0
4.309928 2.055350 0.000564 0.0
0.832131 2.185701 0.000069 0.0
0.609667 1.279704 -0.001169 0.0
0.750239 0.971969 -0.001600 0.0
3.024434 0.542703 0.004123 0.0
3.100106 0.404148 -0.001519 0.0
1.222629 0.819830 0.003104 0.0
0.068979 0.982492 0.001077 0.0
3.086261 1.058029 0.002459 0.0
0.720132 0.638862 -0.001175 0.0
4.166410 1.671496 -0.005661 0.0
1.776261 0.244212 0.004032 0.0
1.898479 0.282973 0.000713 0.0
4.512639 1.718816 0.002897 0.0
1.847569 0.837967 -0.002297 0.0
0.022624 1.859052 -0.000841 0.0
3.383075 1.634762 0.000012 0.0
2.790770 0.436465 0.001767 0.0
2.547686 1.558257 -0.003029 0.0
2.303091 1.696806 -0.002497 0.0
2.533553 1.812456 -0.003359 0.0
2.137633 0.585338 0.000036 0.0
2.613722 0.697948 0.002658 0.0
3.534051 1.139100 0.000409 0.0
1.069008 2.183974 0.001799 0.0
1.640947 0.448295 0.000384 0.0
4.647895 1.110017 0.000864 0.0
3.551450 0.091559 0.000828 0.0
1.814935 0.986432 -0.000119 0.0
1.764044 2.101949 0.000112 0.0
1.781314 0.318079 0.000161 0.0
4.363357 1.322686 -0.004620 0.0
1.767004 0.731222 -0.001169 0.0
3.094601 1.437147 -0.001722 0.0
3.483869 0.247311 -0.002729 0.0
1.374828 1.221230 0.001175 0.0
3.316015 0.945514 -0.000283 0.0
4.660659 1.843852 0.003102 0.0
2.625077 2.128024 0.000765 0.0
4.196307 0.851782 -0.000432 0.0
3.725754 0.052487 0.001837 0.0
2.739146 1.315025 0.000907 0.0
1.015552 0.815096 0.002442 0.0
3.462484 0.634181 -0.001268 0.0
4.012677 0.637729 -0.007257 0.0
0.114742 1.560597 0.000143 0.0
1.649273 0.735039 -0.000900 0.0
1.055086 0.987791 0.000744 0.0
0.920770 1.802425 0.003046 0.0
0.448563 0.646731 -0.000983 0.0
4.058031 0.720605 0.002965 0.0
4.361682 2.126601 -0.000036 0.0
4.596139 1.535537 0.003469 0.0
0.944107 2.098432 0.000820 0.0
0.751523 0.546289 0.001747 0.0
3.762467 1.956991 0.000404 0.0
1.099884 1.091160 -0.003214 0.0
3.822400 0.653966 0.003732 0.0
4.632115 0.521232 0.001666 0.0
1.490321 1.686537 -0.000141 0.0
4.720402 0.912009 -0.001274 0.0
3.493443 0.254752 -0.003945 0.0
3.095049 0.123680 -0.000841 0.0
4.719032 1.081673 0.004977 0.0
0.204633 0.708446 -0.001467 0.0
0.336252 0.290090 -0.001764 0.0
3.867708 0.491985 -0.001717 0.0
4.119956 0.745552 0.002639 0.0
4.508662 0.248227 -0.000259 0.0
3.863365 1.545044 -0.000264 0.0
0.210775 0.466408 -0.001452 0.0
1.051723 0.144294 -0.001549 0.0
1.179030 1.473606 -0.000394 0.0
4.173109 0.917038 -0.003659 0.0
1.492437 0.392077 0.001028 0.0
0.075319 1.669733 0.001455 0.0
2.605770 0.551833 0.001532 0.0
3.435063 1.608546 0.003655 0.0
2.221761 1.329658 0.003956 0.0
2.129251 1.359376 -0.000376 0.0
1.991139 2.178242 -0.000807 0.0
2.528410 0.339437 0.001537 0.0
4.533519 2.211358 -0.002576 0.0
3.287486 1.759344 0.000989 0.0
0.750113 2.104665 -0.004504 0.0
1.088373 0.644715 0.001339 0.0
0.576502 2.106196 -0.006465 0.0
3.576085 1.828640 0.000338 0.0
3.855947 0.207409 0.001887 0.0
4.519188 0.039737 0.000399 0.0
1.088862 0.272978 0.000111 0.0
0.138195 1.173739 -0.002622 0.0
1.456139 1.320560 0.005632 0.0
1.519540 0.536512 -0.000993 0.0
1.540548 0.834270 -0.004118 0.0
3.826110 1.613261 0.001573 0.0
2.170219 0.849298 -0.001938 0.0
3.346345 0.646539 0.004190 0.0
2.574110 1.888844 0.004003 0.0
0.788510 1.397267 0.001373 0.0
2.850997 0.608786 -0.000366 0.0
3.458704 1.976045 0.001993 0.0
2.761785 1.831054 -0.004351 0.0
2.651673 1.781249 0.002640 0.0
2.755323 0.975518 0.002190 0.0
1.375929 0.869451 -0.003793 0.0
1.447323 1.536786 -0.000731 0.0
0.650392 1.159209 0.005724 0.0
4.226204 0.853281 0.001223 0.0
1.096749 0.409296 0.001612 0.0
4.479290 0.228223 -0.001035 0.0
0.870530 1.321263 0.001267 0.0
2.039021 1.687902 -0.000958 0.0
1.199928 2.192161 0.000124 0.0
1.809172 0.617646 0.001258 0.0
2.693333 1.503073 0.003170 0.0
2.407293 1.947529 0.003352 0.0
0.966710 1.902296 -0.001016 0.0
3.530400 1.076473 0.003327 0.0
2.120933 0.620775 -0.000427 0.0
4.133589 0.526378 -0.001525 0.0
1.820085 0.824365 0.000884 0.0
2.260269 0.856735 -0.001785 0.0
3.357178 1.200720 0.001065 0.0
2.712423 1.600258 0.003533 0.0
1.264539 0.032059 -0.003209 0.0
0.180141 1.599869 0.002932 0.0
4.621546 1.315204 -0.001863 0.0
0.160245 0.475442 -0.002002 0.0
4.026122 0.110314 -0.000332 0.0
1.239705 0.312196 0.000468 0.0
4.048237 0.631643 0.002548 0.0
3.257882 0.725700 -0.003052 0.0
4.639868 0.095305 0.003130 0.0
3.438037 0.740177 0.001828 0.0
1.760921 1.153157 -0.000822 0.0
1.303184 2.244773 0.000978 0.0
3.332215 0.200471 -0.001401 0.0
3.431612 2.034879 0.003680 0.0
4.565270 0.329407 0.002019 0.0
0.241141 1.624341 -0.001766 0.0
1.759093 0.311061 -0.000408 0.0
4.607651 0.973977 -0.001024 0.0
1.132098 0.649730 0.002103 0.0
3.800889 2.152037 0.002810 0.0
2.269404 1.359474 0.001744 0.0
1.304505 1.461834 0.000856 0.0
2.381892 0.120962 0.001880 0.0
3.522848 2.219584 0.001758 0.0
2.098487 -0.001325 0.000749 0.0
2.342915 1.027353 0.000294 0.0
3.858176 1.777362 0.002515 0.0
0.230500 1.393679 0.003755 0.0
2.397026 0.678900 -0.005731 0.0
0.834639 0.564922 0.000459 0.0
1.996367 0.595296 -0.002446 0.0
3.607241 0.772767 -0.005545 0.0
1.845161 1.428895 -0.000607 0.0
1.871745 0.022825 0.002717 0.0
0.398581 0.112429 0.004819 0.0
2.951648 1.575621 -0.001220 0.0
4.289298 1.394412 0.001201 0.0
4.486314 1.644005 0.003085 0.0
2.176283 0.838560 -0.001363 0.0
4.208540 2.040365 0.000521 0.0
4.101885 0.937126 -0.001279 0.0
3.943285 1.702218 -0.002003 0.0
3.831214 1.176440 0.004558 0.0
1.509066 1.849496 0.000760 0.0
1.009895 0.452642 0.000934 0.0
0.801463 1.241740 0.002471 0.0
2.162195 1.816238 -0.004318 0.0
2.267389 2.090503 0.005033 0.0
4.105913 0.940408 -0.001353 0.0
0.341671 0.481476 0.001821 0.0
2.417948 1.510530 0.001448 0.0
2.277408 1.239481 -0.000884 0.0
2.375970 1.174388 -0.000950 0.0
0.245180 1.524763 -0.000132 0.0
0.912492 1.635809 0.001701 0.0
3.729007 0.109535 0.002897 0.0
2.786691 1.602080 0.000673 0.0
1.581213 1.321512 -0.002107 0.0
3.710328 0.727864 0.002222 0.0
4.138694 0.956129 -0.000499 0.0
1.682956 0.928410 -0.000185 0.0
4.383967 0.587804 0.004357 0.0
0.455440 1.246453 0.000485 0.0
3.848340 0.673200 0.002993 0.0
4.745232 1.943318 0.001949 0.0
4.305589 1.592630 -0.000917 0.0
0.980141 0.506372 0.002569 0.0
4.080662 0.211552 -0.000266 0.0
1.253530 1.205272 0.002108 0.0
1.610408 1.104327 0.000594 0.0
4.419104 0.327632 0.001769 0.0
1.407489 1.886047 -0.000460 0.0
1.934291 0.334526 0.000147 0.0
4.053751 1.155340 0.001864 0.0
2.631761 0.974265 -0.003542 0.0
2.913539 1.633687 -0.002016 0.0
1.067102 2.024854 0.000542 0.0
4.686018 0.160442 -0.006980 0.0
3.411547 0.056004 -0.002626 0.0
2.447072 1.172300 -0.001337 0.0
1.747505 1.330783 0.003546 0.0
2.554162 1.559220 -0.001541 0.0
2.120365 0.196386 -0.001552 0.0
3.822411 1.428324 0.001400 0.0
4.321585 0.968165 -0.000894 0.0
0.694003 0.870306 0.001599 0.0
4.011177 0.142011 -0.002292 0.0
2.242474 1.066980 -0.002580 0.0
1.288358 0.997582 -0.001550 0.0
3.352168 1.966225 -0.001093 0.0
2.915967 0.488511 0.001158 0.0
0.403812 1.248441 -0.000855 0.0
0.854230 0.861398 -0.004171 0.0
0.935169 1.161921 -0.002491 0.0
1.772588 0.225717 -0.000782 0.0
3.206678 1.475965 0.000440 0.0
1.588112 1.632262 0.002715 0.0
0.851645 0.674852 -0.000455 0.0
4.011188 0.070065 -0.000042 0.0
4.743289 0.207860 -0.002183 0.0
0.529402 1.990595 -0.002074 0.0
0.934807 2.217037 0.000686 0.0
3.533263 1.548360 -0.000315 0.0
0.150978 0.075354 -0.000057 0.0
3.974997 2.060486 -0.003850 0.0
4.318004 1.787599 -0.001650 0.0
4.535653 0.496030 0.003259 0.0
1.647005 1.793448 -0.002059 0.0
1.975996 0.259487 -0.002164 0.0
2.654903 0.402182 -0.002341 0.0
0.556718 0.391751 -0.004951 0.0
1.519881 2.047323 0.002190 0.0
4.104114 0.754157 0.001404 0.0
4.715320 2.060597 -0.002171 0.0
3.472224 2.043038 -0.000142 0.0
2.630818 1.595004 -0.003304 0.0
3.843797 2.086693 -0.002899 0.0
1.023616 1.810333 0.003538 0.0
3.857061 0.104158 0.002840 0.0
2.346394 1.048769 0.000964 0.0
3.074689 1.254603 0.003573 0.0
3.062303 0.929757 -0.002213 0.0
4.052135 1.091042 -0.000891 0.0
0.739901 0.134780 0.002367 0.0
2.432009 2.147336 -0.001170 0.0
1.894911 0.528858 -0.000478 0.0
1.482466 0.752892 -0.001000 0.0
2.309443 0.897143 -0.003671 0.0
0.155383 0.241160 -0.001721 0.0
1.095273 2.080791 -0.002073 0.0
4.761996 1.807860 0.004024 0.0
1.805933 0.015584 -0.001785 0.0
1.227758 1.797808 0.000280 0.0
1.451732 1.669716 0.001028 0.0
3.344402 0.346451 -0.001374 0.0
1.807678 0.083629 -0.002809 0.0
1.190164 -0.000078 -0.000691 0.0
2.298885 0.708126 -0.002948 0.0
0.166200 1.558759 -0.002717 0.0
1.598118 0.680077 0.001120 0.0
4.506485 0.904290 -0.002699 0.0
2.228811 1.357672 -0.003204 0.0
2.359663 0.902493 0.001447 0.0
1.561004 0.448463 0.002033 0.0
1.429425 1.120793 0.001603 0.0
1.126990 1.055631 0.002490 0.0
2.875718 1.256615 0.001450 0.0
2.818109 2.225440 0.001358 0.0
0.871019 1.421119 -0.000310 0.0
2.348673 1.684614 -0.000846 0.0
1.892009 1.152088 -0.000165 0.0
0.700119 0.792591 -0.003157 0.0
1.775603 1.971787 -0.000855 0.0
2.813647 0.248989 0.001531 0.0
1.921440 0.961113 0.001745 0.0
2.294020 1.431453 -0.000774 0.0
3.790223 0.221906 -0.000011 0.0
0.686123 1.250031 0.003002 0.0
4.301915 1.822001 0.005302 0.0
2.771531 0.212063 0.001740 0.0
1.463149 0.761509 0.002881 0.0
3.521444 0.578239 -0.000833 0.0
2.943736 0.965301 -0.000759 0.0
1.761185 2.045473 0.000532 0.0
2.885270 0.824775 -0.006615 0.0
0.343221 0.017736 0.000088 0.0
0.644558 1.902552 -0.001368 0.0
2.018369 2.089916 0.000076 0.0
1.317602 0.001760 0.003347 0.0
1.543022 0.365230 0.001469 0.0
2.446558 0.478662 -0.000774 0.0
3.414055 0.587870 -0.003441 0.0
1.720146 2.034253 -0.000638 0.0
1.526723 0.959766 0.002337 0.0
0.642441 1.395668 0.001392 0.0
2.924182 1.932965 -0.000964 0.0
1.517525 0.197124 -0.002022 0.0
3.160066 2.196034 0.000930 0.0
0.153030 1.631542 0.002784 0.0
3.101706 2.083287 -0.002950 0.0
1.806291 1.288788 0.000514 0.0
0.329037 1.703567 -0.002959 0.0
0.207344 1.898593 -0.004312 0.0
3.008613 1.918540 0.000769 0.0
3.841751 2.088260 0.001678 0.0
0.892363 0.019196 0.002163 0.0
2.995900 2.078889 -0.000783 0.0
3.514353 0.044175 0.002747 0.0
3.604170 0.760057 0.002663 0.0
1.750590 0.255181 0.002445 0.0
2.073207 1.870047 -0.000771 0.0
0.967276 1.003563 0.002156 0.0
1.418648 0.746046 -0.000949 0.0
3.274435 0.664708 -0.003079 0.0
2.569774 1.236569 -0.006474 0.0
4.483816 0.312222 0.001200 0.0
2.918956 1.454127 -0.000141 0.0
1.171344 1.841933 -0.000733 0.0
2.156439 1.950264 -0.000089 0.0
0.012849 1.951433 0.002693 0.0
3.281535 1.921231 0.001767 0.0
1.352211 2.227876 0.001681 0.0
3.074622 0.659338 -0.000272 0.0
1.625675 1.405373 -0.001219 0.0
2.751970 0.565243 -0.003577 0.0
2.209992 0.948381 -0.000535 0.0
3.721505 0.664736 0.000323 0.0
4.334228 1.497965 -0.003524 0.0
0.893899 1.085743 -0.000084 0.0
1.974781 1.726737 0.000573 0.0
0.857454 1.091953 0.004622 0.0
1.088366 1.300136 0.002431 0.0
2.124158 1.063174 0.002423 0.0
0.249061 1.348059 -0.002341 0.0
3.015783 0.600378 0.005457 0.0
2.885109 2.228640 0.002447 0.0
1.195617 1.019428 0.001420 0.0
0.531806 1.615532 -0.001081 0.0
2.366717 0.910483 -0.002548 0.0
2.683542 0.919657 -0.001328 0.0
1.606281 2.175596 -0.002143 0.0
3.530373 1.674171 0.001156 0.0
1.205838 0.466686 -0.001784 0.0
0.559752 0.696918 0.001348 0.0
4.664079 0.804702 0.005554 0.0
1.666079 1.847633 0.000411 0.0
2.754649 1.469945 0.000807 0.0
4.352008 1.427974 0.000091 0.0
3.287050 0.898924 -0.003065 0.0
1.691849 0.824799 0.000250 0.0
4.197957 0.025697 -0.000500 0.0
4.526878 1.429503 0.001799 0.0
3.549743 0.110142 0.001806 0.0
3.461485 0.559633 -0.000219 0.0
2.454318 0.878061 0.000713 0.0
1.029507 0.518924 -0.002648 0.0
0.276525 1.020248 0.002385 0.0
0.736565 2.101380 -0.001622 0.0
2.105205 1.627872 -0.001515 0.0
4.111615 0.778288 0.000236 0.0
2.809080 0.770448 0.004888 0.0
0.610312 0.324322 -0.000107 0.0
3.541550 0.606117 -0.001894 0.0
1.727865 0.667758 -0.001804 0.0
2.133607 1.295753 -0.002937 0.0
1.219446 1.548272 0.000899 0.0
1.341125 0.957861 0.000583 0.0
0.707638 1.123883 -0.001737 0.0
1.109111 1.277759 -0.001805 0.0
1.678795 1.107897 0.001312 0.0
1.991475 2.057173 -0.001744 0.0
0.228545 0.658258 0.003537 0.0
4.219521 2.063581 0.004026 0.0
4.079417 1.967252 -0.001967 0.0
2.041805 0.848409 0.002028 0.0
0.179452 2.144245 0.002074 0.0
2.126810 1.495295 -0.000847 0.0
3.822736 0.240214 -0.002694 0.0
1.014306 1.616634 -0.003558 0.0
4.289006 1.528575 -0.002089 0.0
4.158594 1.560808 -0.000492 0.0
0.822434 1.214014 -0.000280 0.0
2.511103 0.257823 -0.006561 0.0
3.914184 1.091211 -0.000068 0.0
1.742064 1.677287 0.001544 0.0
3.335446 1.361972 -0.002550 0.0
1.901008 0.523412 0.001537 0.0
3.815461 1.296891 -0.001723 0.0
4.117325 0.966196 -0.002692 0.0
3.036301 1.490836 0.002858 0.0
1.093908 1.232012 0.000618 0.0
1.267654 1.870021 -0.000531 0.0
4.277835 1.760932 -0.000195 0.0
2.763801 1.326776 -0.007833 0.0
0.122294 1.730661 0.001606 0.0
3.561180 2.002414 -0.003714 0.0
1.528532 1.353304 0.000235 0.0
1.050650 1.301258 -0.003262 0.0
2.877466 1.668935 -0.003050 0.0
0.300224 0.321440 -0.001697 0.0
0.006089 0.655384 -0.002612 0.0
1.092543 0.780443 0.006269 0.0
0.160752 1.047887 -0.000074 0.0
0.033420 0.273157 -0.002628 0.0
4.396717 0.748084 -0.002239 0.0
3.968966 1.163100 -0.001710 0.0
2.356095 0.930172 -0.005075 0.0
3.995129 2.184673 0.002648 0.0
2.446986 0.158939 -0.001032 0.0
3.439986 2.006071 -0.000825 0.0
2.739405 1.208771 0.000377 0.0
0.005934 0.520976 0.000798 0.0
2.290922 1.884294 0.003079 0.0
4.364316 1.258993 -0.003022 0.0
2.017770 1.626926 0.000422 0.0
4.066211 1.613239 -0.002215 0.0
4.013502 2.152688 -0.001084 0.0
2.216889 0.148270 0.000721 0.0
2.805968 1.838740 -0.000638 0.0
2.731272 0.527385 0.002523 0.0
0.533203 1.764730 0.003837 0.0
3.411710 0.937683 0.002390 0.0
4.712972 1.206422 0.001615 0.0
3.464565 0.765994 0.000037 0.0
1.892158 1.620262 -0.000570 0.0
4.245293 2.228258 0.005380 0.0
4.459532 1.375081 -0.002006 0.0
3.452048 0.416882 -0.000504 0.0
1.618036 0.533269 -0.002391 0.0
3.357048 0.654839 -0.004351 0.0
2.608515 0.961284 -0.002026 0.0
0.340687 0.104620 -0.004132 0.0
3.863135 1.044074 0.003487 0.0
2.284560 1.494660 0.001519 0.0
4.189595 0.722742 -0.001850 0.0
3.232789 0.577563 0.002623 0.0
0.979564 0.171982 -0.001082 0.0
2.363789 0.586034 0.002043 0.0
2.034062 0.847576 0.000973 0.0
0.577856 1.901100 0.005000 0.0
2.738292 1.307341 -0.001481 0.0
0.498151 0.332637 0.000562 0.0
2.518434 1.156115 -0.004080 0.0
3.588185 1.493960 -0.000716 0.0
0.435166 0.241554 -0.001279 0.0
1.113581 1.579761 -0.003784 0.0
1.787891 1.609191 -0.001419 0.0
4.042968 1.420162 -0.001958 0.0
2.587184 0.444598 -0.000916 0.0
0.229808 1.461951 0.002195 0.0
0.283977 0.637325 0.000067 0.0
2.766177 1.814168 -0.002609 0.0
3.489666 1.682479 0.000416 0.0
3.091089 0.157866 0.004891 0.0
0.494506 2.249355 -0.001663 0.0
0.078293 1.079526 -0.003095 0.0
4.026582 0.566297 -0.003198 0.0
2.485683 1.477312 0.002413 0.0
4.622393 2.206685 -0.002435 0.0
3.755949 2.034179 -0.002106 0.0
0.520650 2.024047 -0.000873 0.0
3.576418 0.323730 0.003480 0.0
2.930104 0.612210 -0.001695 0.0
1.340462 1.851858 0.001516 0.0
2.318185 1.488536 -0.001785 0.0
2.851139 0.964751 0.003732 0.0
4.273414 1.799668 -0.001872 0.0
4.559785 0.176442 0.001645 0.0
3.922665 1.509635 -0.004115 0.0
1.366363 0.623936 -0.001851 0.0
3.428318 0.012435 0.000317 0.0
2.316314 1.936342 0.005027 0.0
1.753211 0.691852 -0.001195 0.0
0.072941 0.181465 -0.002480 0.0
3.026023 0.927988 -0.001655 0.0
3.310286 0.728404 -0.004382 0.0
4.364388 0.690602 0.002959 0.0
4.437542 1.025997 -0.004503 0.0
4.197121 0.848600 -0.001460 0.0
1.902442 0.229486 -0.001004 0.0
2.193248 1.820186 -0.001429 0.0
0.772674 0.898195 0.002962 0.0
0.958152 1.818014 -0.003741 0.0
3.426183 1.426483 0.000981 0.0
4.032443 1.736245 0.000827 0.0
2.245963 0.743436 0.001310 0.0
0.385540 1.999545 -0.002012 0.0
4.009270 1.767357 0.001378 0.0
3.990474 2.236547 -0.001545 0.0
0.953236 1.103253 0.002778 0.0
3.487296 1.370993 -0.000787 0.0
1.008860 1.881693 -0.000934 0.0
4.577961 1.251369 -0.002239 0.0
3.871947 1.395687 -0.004893 0.0
3.700960 1.259593 0.002524 0.0
2.959323 0.951585 -0.002373 0.0
3.439422 0.543173 -0.003235 0.0
3.264567 1.601976 0.003131 0.0
1.365192 1.349663 -0.000526 0.0
2.384364 0.480549 0.000371 0.0
1.276450 0.668350 -0.001386 0.0
3.133500 1.412839 -0.000281 0.0
2.741940 0.697121 0.000104 0.0
1.017259 0.855153 0.005552 0.0
3.390471 0.481466 0.001722 0.0
0.632267 1.542984 -0.004242 0.0
4.546124 0.697250 0.004179 0.0
1.470292 0.162995 0.000028 0.0
1.463910 1.245101 0.001318 0.0
0.997700 1.831084 -0.000404 0.0
0.117724 1.539856 0.005962 0.0
1.102375 0.016956 0.000320 0.0
2.288583 1.248472 0.001097 0.0
0.348232 0.886469 -0.000566 0.0
4.223689 1.467041 0.001392 0.0
1.874440 0.204469 -0.000725 0.0
3.406147 1.109482 0.000435 0.0
3.494621 0.117527 0.002541 0.0
1.457387 1.119703 0.002951 0.0
2.968183 0.403354 0.000443 0.0
2.726380 1.155712 -0.001522 0.0
2.876118 0.295170 0.001456 0.0
2.007988 0.202410 0.001191 0.0
1.941401 0.906755 0.000532 0.0
3.433480 0.684929 0.002360 0.0
4.654420 1.643863 0.002023 0.0
0.912832 2.181483 0.000103 0.0
2.110321 0.309679 -0.001067 0.0
4.113385 0.172735 0.002620 0.0
1.519173 0.239661 0.001335 0.0
2.034084 0.126443 -0.004870 0.0
0.693257 2.247236 0.002948 0.0
2.601295 2.029336 0.002088 0.0
0.340118 1.306080 -0.001345 0.0
0.800724 0.020216 0.001379 0.0
2.551972 0.190607 -0.004142 0.0
3.538160 0.787493 0.000050 0.0
0.260104 1.707761 -0.000119 0.0
1.516818 0.731338 0.005502 0.0
2.648179 1.701460 -0.001326 0.0
0.993005 0.376549 0.001767 0.0
0.254181 0.586453 -0.001781 0.0
2.076754 1.510905 0.003046 0.0
0.557694 0.755245 -0.000948 0.0
0.174718 0.596218 0.008093 0.0
2.144692 1.035343 -0.002061 0.0
1.453429 0.765342 0.004947 0.0
3.391653 1.717178 -0.000758 0.0
1.405299 1.026625 -0.000155 0.0
2.508985 1.724486 -0.002541 0.0
1.739644 1.195351 -0.000087 0.0
3.308593 1.863429 0.001053 0.0
3.701190 1.044982 0.005299 0.0
4.345826 0.875278 0.000520 0.0
0.322803 0.045984 0.003347 0.0
2.934553 0.504502 0.001313 0.0
1.427320 1.585233 -0.004014 0.0
1.535562 1.783403 -0.002082 0.0
4.036239 1.898311 0.004580 0.0
1.404859 1.876722 0.000690 0.0
0.666814 1.441759 -0.003130 0.0
3.849811 1.174085 0.002209 0.0
4.489622 1.788465 0.003391 0.0
1.856287 1.262722 -0.000475 0.0
1.071733 1.466366 0.002006 0.0
0.099135 0.638477 -0.000478 0.0
2.852638 0.534183 0.001098 0.0
0.903133 0.773299 0.001587 0.0
0.281766 1.633898 -0.000561 0.0
0.981141 1.098296 -0.004147 0.0
4.654429 0.423810 -0.000290 0.0
0.451272 0.465916 -0.004379 0.0
4.736997 1.585986 -0.003594 0.0
0.545038 0.997617 0.001155 0.0
2.283134 1.021919 0.000301 0.0
0.857498 1.886939 -0.001150 0.0
3.490370 0.628480 0.001620 0.0
1.228339 0.022516 -0.002276 0.0
0.718711 1.935839 -0.004875 0.0
3.075923 1.619637 0.000663 0.0
1.555463 1.743894 0.000686 0.0
2.809249 0.397709 -0.003208 0.0
3.882840 1.073731 0.000918 0.0
1.014702 1.946869 0.003530 0.0
1.834939 1.644460 -0.001845 0.0
4.401881 0.043580 -0.002401 0.0
0.341527 0.160535 0.001375 0.0
3.602821 2.048962 -0.002144 0.0
2.033125 0.933821 -0.002164 0.0
4.557841 0.050295 -0.004617 0.0
0.642648 0.183938 0.000415 0.0
2.633392 1.395492 -0.000969 0.0
1.382721 1.107192 0.001017 0.0
0.836486 0.608960 -0.001228 0.0
2.466610 0.150655 0.005287 0.0
3.737879 1.558220 -0.001087 0.0
1.130440 0.253142 -0.003458 0.0
3.209755 1.574398 -0.004438 0.0
2.832246 0.623394 0.001746 0.0
3.609880 2.227010 -0.001271 0.0
4.693745 0.833381 -0.002202 0.0
2.315989 0.239915 0.001092 0.0
0.049177 0.831829 0.000719 0.0
0.049675 1.426397 -0.002575 0.0
2.545700 0.163500 0.002165 0.0
0.605352 2.211280 0.002186 0.0
3.785421 1.194492 -0.000829 0.0
1.240532 0.557274 0.000097 0.0
1.172690 0.877881 0.000486 0.0
1.650076 0.061085 0.002126 0.0
4.297356 1.047190 0.000324 0.0
1.087732 0.508618 -0.005313 0.0
2.824800 0.536143 -0.005617 0.0
0.647292 0.513869 -0.005164 0.0
1.315878 1.714941 0.001765 0.0
3.015616 1.365747 0.000503 0.0
4.318784 0.117117 -0.001622 0.0
3.294148 1.151083 0.001310 0.0
0.906960 2.227250 0.000246 0.0
4.476424 1.042922 -0.003121 0.0
3.841060 0.608674 0.001036 0.0
1.986571 1.147864 -0.001782 0.0
4.714563 0.193833 0.002412 0.0
0.700205 2.243899 0.004290 0.0
3.920260 1.271417 -0.000911 0.0
0.661779 0.884527 0.001061 0.0
0.672943 0.198239 0.000977 0.0
4.735454 1.202186 0.002606 0.0
2.174674 1.159969 -0.000430 0.0
1.817063 0.428375 0.002376 0.0
3.976181 0.585355 -0.004954 0.0
2.936452 1.948330 0.003271 0.0
3.752261 0.604823 -0.002215 0.0
3.685022 0.520042 -0.000569 0.0
1.068244 0.397036 0.002785 0.0
4.318268 0.087671 -0.000654 0.0
0.668427 1.317850 -0.002728 0.0
4.549686 1.478942 0.004644 0.0
4.158536 2.060617 -0.001133 0.0
2.352264 1.393063 0.002487 0.0
2.070149 0.454117 0.006546 0.0
1.169677 1.568478 0.001560 0.0
2.150286 0.480794 -0.000275 0.0
0.764822 1.453353 0.003467 0.0
3.814861 0.665021 -0.002672 0.0
3.324624 0.920700 0.000823 0.0
1.016936 1.668765 0.000612 0.0
2.470586 0.422825 0.002907 0.0
2.547680 1.444624 0.001270 0.0
0.994890 1.100604 -0.000452 0.0
1.372082 1.599980 -0.003707 0.0
4.231196 0.011520 0.002405 0.0
0.624390 0.074450 -0.001844 0.0
0.949418 1.418047 0.001265 0.0
4.660735 0.073585 0.007188 0.0
3.709196 2.073340 -0.001859 0.0
0.907168 0.069735 0.004041 0.0
2.835191 0.751744 -0.000365 0.0
1.412752 2.025984 -0.002524 0.0
3.029332 1.075513 -0.001649 0.0
3.795885 0.551101 0.004075 0.0
3.487615 0.397259 0.002635 0.0
3.682604 0.682778 0.001919 0.0
0.985925 2.146954 0.001499 0.0
4.708690 1.267083 -0.001250 0.0
4.078425 0.753732 0.000634 0.0
3.294512 0.622604 0.001712 0.0
2.816987 1.029108 -0.001230 0.0
3.809437 1.194205 0.001539 0.0
2.110055 0.983164 -0.006986 0.0
4.264558 0.026685 0.003796 0.0
2.315745 0.621685 0.002476 0.0
3.757985 1.463137 0.001128 0.0
3.475704 0.440779 -0.003035 0.0
1.265621 2.198062 -0.001035 0.0
2.173001 0.095786 0.001417 0.0
1.355515 1.903666 -0.000519 0.0
4.300145 1.673001 -0.004739 0.0
4.548604 1.144659 -0.005218 0.0
0.831175 1.834472 0.005186 0.0
3.342244 0.712603 -0.000713 0.0
1.717747 0.678975 0.001061 0.0
1.808808 0.673160 0.000975 0.0
2.650922 2.172125 0.000064 0.0
0.503323 0.116594 -0.000850 0.0
0.750932 0.287608 -0.000260 0.0
4.699394 1.608598 0.000891 0.0
1.039468 0.563060 -0.000304 0.0
2.772571 1.495565 -0.002341 0.0
2.939759 0.667212 -0.002718 0.0
0.245962 2.221088 -0.002062 0.0
1.216273 0.292195 0.003376 0.0
0.150397 1.274806 -0.003159 0.0
4.392384 2.187057 -0.003842 0.0
3.890158 1.272011 0.001339 0.0
2.758269 0.833736 0.000073 0.0
1.931961 0.738878 -0.000463 0.0
3.182049 1.656884 0.005757 0.0
1.947782 1.673299 0.000401 0.0
0.082987 1.975288 0.003042 0.0
1.675736 0.817960 -0.005218 0.0
2.447136 1.487701 -0.000450 0.0
3.456717 2.172557 -0.003702 0.0
1.605255 0.939311 -0.001593 0.0
2.019195 1.660317 0.001152 0.0
1.565859 1.864275 -0.001165 0.0
1.346032 2.067171 0.000482 0.0
1.539846 1.942679 0.002517 0.0
0.635146 1.716894 0.001199 0.0
3.901568 1.493668 -0.002886 0.0
4.072344 0.763533 -0.001177 0.0
0.230060 0.522735 0.000056 0.0
3.115877 1.405649 -0.001889 0.0
0.039325 2.170222 -0.002391 0.0
0.671472 1.595151 0.000864 0.0
0.249285 1.775365 -0.001930 0.0
0.381001 0.358110 0.005307 0.0
1.708396 1.039509 0.003536 0.0
0.405734 1.700293 0.001062 0.0
2.940549 1.846076 0.000331 0.0
2.914157 0.854460 -0.000149 0.0
0.835470 0.421725 -0.001373 0.0
3.382797 1.618918 0.000504 0.0
4.298120 1.077284 0.002446 0.0
0.772360 1.943245 -0.001890 0.0
0.422666 2.242182 -0.002810 0.0
1.936618 1.914484 0.003894 0.0
3.259587 0.610351 -0.003233 0.0
4.186029 2.161743 0.002459 0.0
2.094461 2.078476 0.002090 0.0
1.226594 0.226603 0.000962 0.0
3.862009 1.756082 0.000056 0.0
3.313884 0.858150 -0.001320 0.0
4.547801 1.948062 -0.000826 0.0
3.317070 0.483427 -0.003770 0.0
4.261459 0.981192 0.001381 0.0
3.281257 0.381589 0.002044 0.0
2.280525 0.236125 -0.000972 0.0
1.050650 0.191416 0.000176 0.0
3.647987 1.612974 -0.002451 0.0
2.904468 0.200605 -0.000655 0.0
3.511233 2.073023 0.002296 0.0
2.210694 1.456817 -0.002260 0.0
1.358112 0.284389 0.001083 0.0
2.698648 1.486191 -0.000405 0.0
1.514115 0.884090 -0.000067 0.0
3.810026 1.358171 0.002949 0.0
0.716603 1.094250 0.005717 0.0
3.908645 0.774002 -0.001367 0.0
3.433007 0.491165 0.002496 0.0
0.550832 0.841811 0.000398 0.0
4.560277 1.980691 0.001995 0.0
4.557372 1.872646 -0.001517 0.0
1.427955 0.365655 -0.000964 0.0
2.818926 0.960205 0.000873 0.0
2.230315 1.158216 -0.001525 0.0
0.815159 2.244555 -0.001045 0.0
2.037793 1.630331 -0.001596 0.0
4.528900 1.281994 -0.000248 0.0
2.723597 0.639481 0.001602 0.0
2.795891 2.003879 0.000149 0.0
4.512115 1.111396 -0.003332 0.0
2.189182 0.962846 0.000503 0.0
1.607150 1.456180 -0.004867 0.0
4.598640 0.588225 -0.002209 0.0
4.592818 1.996141 0.004450 0.0
0.115773 1.970699 -0.001694 0.0
1.254782 1.644906 0.002010 0.0
3.162744 0.244641 0.000943 0.0
2.722210 2.222786 -0.002559 0.0
2.397649 1.045526 -0.002892 0.0
1.558484 0.111191 -0.001455 0.0
2.535789 0.763622 -0.003948 0.0
4.298593 1.427459 -0.000858 0.0
1.549112 0.489412 -0.002121 0.0
1.927975 1.057932 -0.000975 0.0
1.229790 0.914141 0.001049 0.0
1.512189 0.438693 0.001024 0.0
0.710922 0.089122 -0.000903 0.0
0.584912 1.223491 0.002765 0.0
