0.18971456 1.65252430 0.00162957 0.00000000
1.06518145 1.23759223 0.00195540 0.00000000
2.75197313 0.38551821 0.00060203 0.00000000
3.64176978 0.50576055 0.00124907 0.00000000
2.04672799 1.85634801 0.00381964 0.00000000
3.18740128 1.15365291 0.00058927 0.00000000
4.20903614 1.93248995 -0.00515575 0.00000000
2.90101859 0.34759253 -0.00195756 0.00000000
1.60898858 1.42634134 0.00255590 0.00000000
2.98734616 0.26584982 0.00206665 0.00000000
3.26181157 1.59591852 -0.00007457 0.00000000
4.27053657 1.91196962 -0.00159429 0.00000000
2.50424703 0.84072435 -0.00506494 0.00000000
0.28130646 0.69106938 0.00147374 0.00000000
4.40671975 1.12336122 -0.00094937 0.00000000
1.75630490 0.92970401 0.00147681 0.00000000
1.96996610 0.14773989 0.00204338 0.00000000
0.01122754 0.32818638 -0.00128804 0.00000000
1.16909248 0.32283089 -0.00024618 0.00000000
0.62696304 1.05689257 -0.00059181 0.00000000
2.46678223 0.30215856 0.00288973 0.00000000
2.05505134 1.41246874 0.00451702 0.00000000
1.57613966 0.22900287 0.00122530 0.00000000
2.33597408 1.55984540 0.00132233 0.00000000
2.52885469 1.26566623 0.00206888 0.00000000
0.23353826 1.27244873 0.00030840 0.00000000
4.35261824 0.16247990 -0.00266792 0.00000000
1.40005131 1.26110277 -0.00164955 0.00000000
2.48489741 0.17560118 0.00216710 0.00000000
4.47480098 0.44761817 0.00226236 0.00000000
2.61607837 1.18615099 -0.00223237 0.00000000
2.16448347 0.20367893 0.00327939 0.00000000
0.13952669 1.43407396 -0.00163244 0.00000000
0.97920599 0.81118879 -0.00086278 0.00000000
0.48522777 1.51175686 -0.00370497 0.00000000
3.11092388 1.83323511 0.00335811 0.00000000
3.85478383 0.38051608 -0.00117209 0.00000000
4.06451833 1.83517247 0.00095187 0.00000000
2.63130816 0.01903433 -0.00194561 0.00000000
3.15041548 0.44371398 0.00082202 0.00000000
2.56549364 0.88449052 -0.00247372 0.00000000
1.06143928 1.46049548 0.00255015 0.00000000
0.99196273 0.42103108 -0.00019615 0.00000000
3.45100393 0.17464538 -0.00259722 0.00000000
2.42841715 0.47168423 0.00381196 0.00000000
4.46318905 1.10827980 0.00511754 0.00000000
2.08929034 1.30398111 -0.00172829 0.00000000
4.21034010 1.09958567 0.00282645 0.00000000
1.76347638 1.50006896 -0.00023061 0.00000000
3.36710473 1.71111491 0.00127431 0.00000000
3.61541820 1.22286310 0.00330300 0.00000000
1.42792058 0.24334184 0.00239934 0.00000000
1.38961161 0.86247425 -0.00123378 0.00000000
2.42801962 1.59391409 -0.00132749 0.00000000
2.37425979 0.80025152 0.00192622 0.00000000
1.62801277 0.08104463 0.00169292 0.00000000
1.45925310 0.61278912 0.00062390 0.00000000
3.95241197 0.75321418 0.00269728 0.00000000
3.28051884 0.06313780 0.00045563 0.00000000
3.14216300 1.67336980 -0.00138470 0.00000000
4.29395351 1.58069798 0.00061854 0.00000000
2.58378476 1.61486997 -0.00349953 0.00000000
1.21246314 1.20919814 -0.00275660 0.00000000
1.71417147 0.51078372 -0.00011214 0.00000000
3.67365627 1.85256250 -0.00311204 0.00000000
3.70057478 0.21049422 0.00048029 0.00000000
4.26266304 1.54994258 0.00027049 0.00000000
4.33294887 0.36873600 -0.00095521 0.00000000
3.41989675 0.75030657 0.00145325 0.00000000
3.92777289 1.68599462 0.00126420 0.00000000
2.51828356 1.40002928 -0.00374865 0.00000000
3.19918969 1.56012973 -0.00089914 0.00000000
3.90448759 0.84691163 0.00070552 0.00000000
3.02751503 1.61309317 -0.00137572 0.00000000
3.65265467 0.46620426 0.00215727 0.00000000
1.96337974 1.90213842 -0.00055129 0.00000000
0.21991803 1.28344412 0.00124905 0.00000000
4.09478593 1.00813666 -0.00331121 0.00000000
1.05166147 1.02287328 0.00137906 0.00000000
1.91255686 1.62537810 -0.00089047 0.00000000
0.98848030 0.01070468 0.00137771 0.00000000
4.50667408 1.57091390 -0.00130329 0.00000000
3.27655527 1.03164315 -0.00085530 0.00000000
3.11559408 1.49157293 -0.00206261 0.00000000
1.63220734 1.69217304 -0.00442665 0.00000000
3.30498736 1.20169535 -0.00063263 0.00000000
3.74103187 0.30243174 0.00214669 0.00000000
0.27522195 1.08248128 -0.00135690 0.00000000
3.29486032 0.33152177 -0.00270043 0.00000000
3.65686843 1.75186047 -0.00003340 0.00000000
3.68575178 0.54682264 0.00390882 0.00000000
2.25722499 1.61632287 -0.00453427 0.00000000
0.96611473 0.00277788 -0.00255296 0.00000000
1.27844952 0.38057134 -0.00145188 0.00000000
0.47918929 0.28546646 0.00044132 0.00000000
4.42439282 0.15923730 0.00131572 0.00000000
3.46991777 0.32862015 0.00061792 0.00000000
2.12174023 1.17548535 -0.00503132 0.00000000
3.24867331 0.98902987 -0.00047977 0.00000000
2.46678025 0.76004008 0.00072475 0.00000000
4.20894358 1.72336780 -0.00079061 0.00000000
2.45556855 1.44621832 0.00237043 0.00000000
3.79409571 1.51035284 0.00113157 0.00000000
3.82568358 1.90928018 -0.00290625 0.00000000
1.76303674 0.27063553 0.00166189 0.00000000
2.09799562 1.34826441 0.00378078 0.00000000
2.68590427 0.15515239 -0.00228130 0.00000000
1.67814806 0.55861386 0.00205578 0.00000000
2.84055180 1.17048552 -0.00336074 0.00000000
1.87390824 1.49538549 0.00126504 0.00000000
4.00321920 1.94544154 -0.00146833 0.00000000
3.02014181 0.09995255 0.00213933 0.00000000
2.72287346 0.08988271 -0.00248466 0.00000000
4.48540189 1.23535044 0.00619412 0.00000000
3.03566844 1.29746738 -0.00456604 0.00000000
2.45301510 0.68242889 -0.00025018 0.00000000
3.89128298 1.01573059 -0.00341197 0.00000000
2.23869144 0.27018861 -0.00258461 0.00000000
0.92152299 0.47180435 0.00404859 0.00000000
1.26167840 1.45421935 0.00016079 0.00000000
3.68183650 0.57571245 -0.00025853 0.00000000
0.51706806 1.56709357 0.00038434 0.00000000
1.11158261 1.34562177 -0.00143189 0.00000000
4.20624487 1.64977094 0.00147055 0.00000000
0.46472986 1.12814319 0.00078413 0.00000000
0.51883239 0.07359929 -0.00378855 0.00000000
1.88628888 1.67018232 -0.00398508 0.00000000
0.85148016 0.72225990 -0.00201288 0.00000000
3.50370395 1.59766719 -0.00074878 0.00000000
1.42247044 1.19459130 0.00335207 0.00000000
2.06308917 1.48795849 -0.00049859 0.00000000
3.16170791 0.13436954 0.00081726 0.00000000
2.54566621 1.38987737 -0.00261348 0.00000000
0.15482933 0.14550253 -0.00056487 0.00000000
4.31363014 1.41110943 -0.00025584 0.00000000
3.74445094 1.20526604 -0.00077603 0.00000000
2.10717423 0.10358351 0.00213932 0.00000000
2.49968754 1.42425630 -0.00366431 0.00000000
0.15351498 1.69539442 -0.00321974 0.00000000
1.18813900 1.86759398 -0.00188567 0.00000000
3.83388292 1.85114170 -0.00018134 0.00000000
2.90402745 1.23411702 -0.00274659 0.00000000
3.82856893 0.69558223 -0.00645028 0.00000000
4.01726596 0.24997196 0.00024162 0.00000000
3.89346692 1.29712496 -0.00039723 0.00000000
2.74247201 1.26687107 0.00482036 0.00000000
0.03909703 0.57439649 -0.00316638 0.00000000
1.45393423 0.09186049 0.00093262 0.00000000
2.36716689 0.29915904 0.00106085 0.00000000
0.70802493 1.19114222 -0.00060119 0.00000000
4.30614288 1.22420555 0.00249882 0.00000000
2.77618882 1.68623747 -0.00102473 0.00000000
2.40020447 1.21780783 0.00039298 0.00000000
1.04609521 0.33889336 -0.00053677 0.00000000
3.90355347 0.59392339 -0.00318491 0.00000000
0.74118821 0.00087134 -0.00021834 0.00000000
4.40484266 1.27379099 -0.00049281 0.00000000
1.52985257 1.91150273 0.00062532 0.00000000
1.40906071 0.09265376 0.00336582 0.00000000
4.10120314 0.50437923 -0.00020250 0.00000000
2.27124810 1.35940780 -0.00207998 0.00000000
1.70009373 1.20043049 -0.00117565 0.00000000
4.19055826 0.67492842 -0.00105844 0.00000000
2.31153606 1.71144339 0.00263838 0.00000000
0.20576723 0.16341499 -0.00362676 0.00000000
1.57356964 1.19187610 -0.00009474 0.00000000
4.05894468 1.66544122 0.00480798 0.00000000
2.52931491 0.56192734 -0.00013019 0.00000000
3.75651868 1.62708676 -0.00246655 0.00000000
1.13167328 0.23646651 0.00221174 0.00000000
3.13514717 1.29518638 -0.00212631 0.00000000
1.06867732 1.67283700 0.00017035 0.00000000
1.53040929 1.79900697 -0.00166292 0.00000000
3.00129618 0.98550358 -0.00346874 0.00000000
0.36004496 1.33762347 0.00404621 0.00000000
3.22489292 1.13652619 0.00018699 0.00000000
2.75165189 0.96751282 0.00530741 0.00000000
0.86604555 1.48411140 0.00045167 0.00000000
3.49658822 0.67667381 0.00250878 0.00000000
1.60952434 1.48115562 0.00500546 0.00000000
2.62403169 1.92346245 -0.00002281 0.00000000
1.17913906 0.76179743 -0.00075560 0.00000000
0.54283877 0.13074697 -0.00279644 0.00000000
3.43557009 1.27101778 -0.00030354 0.00000000
0.16450316 1.91403475 -0.00039797 0.00000000
0.15362675 0.69695821 0.00148101 0.00000000
4.44232997 0.34126607 -0.00107471 0.00000000
0.53787646 0.56431004 0.00036324 0.00000000
1.39250011 1.61028248 0.00127636 0.00000000
1.39763772 1.04338580 -0.00228810 0.00000000
2.34826938 0.12482554 -0.00043755 0.00000000
3.06600974 1.56166065 0.00122417 0.00000000
0.58296790 1.22573702 0.00181047 0.00000000
0.26423991 0.60023754 0.00164101 0.00000000
1.24885395 0.60987040 -0.00100889 0.00000000
1.23327419 0.55931814 -0.00125632 0.00000000
0.02151378 0.80600482 0.00252957 0.00000000
0.86467908 0.41525408 0.00227665 0.00000000
4.51228646 1.28775356 -0.00040365 0.00000000
3.46404706 1.26842889 -0.00071834 0.00000000
0.14729751 1.91693577 0.00235135 0.00000000
3.63088766 0.19571821 -0.00154394 0.00000000
2.17220111 0.90246707 0.00235858 0.00000000
1.89383294 0.72538899 0.00028080 0.00000000
3.90180518 0.99120220 0.00400922 0.00000000
3.21912448 0.36081878 -0.00462498 0.00000000
0.91415400 0.01877956 0.00014248 0.00000000
2.35126952 0.78129909 0.00141328 0.00000000
2.03888605 1.55234737 -0.00031191 0.00000000
0.33331496 0.13947734 -0.00286988 0.00000000
0.36598172 0.01047525 0.00251960 0.00000000
0.54980052 1.81560138 -0.00049425 0.00000000
3.62312599 0.37451116 0.00478445 0.00000000
2.25855342 1.59436077 -0.00055222 0.00000000
1.61619198 1.05386530 -0.00202283 0.00000000
2.40289771 0.29887405 0.00272671 0.00000000
0.05056027 1.22134904 -0.00490728 0.00000000
4.29472700 1.90509108 0.00395493 0.00000000
2.89259501 0.72040548 -0.00067081 0.00000000
3.72521433 1.83469481 -0.00117254 0.00000000
0.31772262 1.37119539 0.00024869 0.00000000
2.00869967 0.33347379 0.00188985 0.00000000
3.41435001 0.47026405 -0.00092035 0.00000000
3.12744936 1.25441474 -0.00257088 0.00000000
4.51120923 0.60678074 -0.00354883 0.00000000
0.82517993 1.80059379 0.00281459 0.00000000
3.52606855 1.52218169 0.00109154 0.00000000
1.79483520 0.38140876 0.00060019 0.00000000
2.72898395 0.71921775 0.00219386 0.00000000
0.83830248 1.29571516 0.00322320 0.00000000
0.82168464 0.80591525 0.00451601 0.00000000
0.78765809 1.64878576 0.00234208 0.00000000
1.13018754 1.55909421 -0.00136924 0.00000000
1.36582892 0.59874672 -0.00303145 0.00000000
3.21756252 1.09648859 -0.00007348 0.00000000
1.68532578 1.38489586 -0.00129601 0.00000000
0.34534442 0.10935326 0.00185338 0.00000000
4.37066163 1.69308242 0.00082995 0.00000000
3.03650575 0.97119921 -0.00322091 0.00000000
1.56494428 0.17986981 -0.00197216 0.00000000
1.14998155 1.68765102 -0.00306779 0.00000000
1.52634714 0.83955450 0.00724522 0.00000000
4.49678000 1.56744519 -0.00279188 0.00000000
2.13711372 1.65358875 -0.00192961 0.00000000
4.32493808 0.12330248 -0.00211345 0.00000000
4.32849920 0.53450907 -0.00126666 0.00000000
2.63135102 1.40545962 0.00031059 0.00000000
0.56810865 1.64606270 -0.00362380 0.00000000
2.00413815 0.10837092 -0.00253349 0.00000000
3.99135033 1.64733048 -0.00237959 0.00000000
4.15769300 1.40716063 0.00141647 0.00000000
3.02196870 1.54864481 0.00237095 0.00000000
1.86508307 0.88287326 0.00079429 0.00000000
3.68927437 1.04075214 -0.00140279 0.00000000
3.70312168 0.32418599 -0.00138299 0.00000000
2.58599864 0.51656781 0.00122874 0.00000000
1.27580505 0.83731026 -0.00121070 0.00000000
3.34237173 1.11932627 -0.00468707 0.00000000
2.06021243 0.50709633 0.00093232 0.00000000
2.14693115 0.10074722 -0.00053039 0.00000000
3.31518538 1.60884773 -0.00262327 0.00000000
0.38536739 1.62225065 -0.00176918 0.00000000
3.30599540 0.21433742 -0.00011496 0.00000000
3.53472527 0.54216563 0.00430095 0.00000000
1.32407131 0.28330932 -0.00096552 0.00000000
1.56128072 1.17992738 -0.00317300 0.00000000
3.75254175 0.95596177 0.00006328 0.00000000
1.37737573 1.46017306 0.00188402 0.00000000
4.01095625 1.62795228 -0.00216648 0.00000000
2.33769919 0.06914760 0.00087080 0.00000000
1.55492652 1.46916592 0.00350732 0.00000000
2.88047992 1.59266123 -0.00349823 0.00000000
2.27207539 0.38274937 0.00054905 0.00000000
2.86977557 1.91526810 0.00043360 0.00000000
1.31391093 1.42560732 -0.00317466 0.00000000
1.22884236 1.75654408 -0.00026440 0.00000000
1.30349058 1.05852940 -0.00046719 0.00000000
2.50398300 0.63002261 0.00355366 0.00000000
1.66050799 1.50024469 0.00090694 0.00000000
0.10494278 1.26167097 -0.00022565 0.00000000
1.19270380 0.76565433 -0.00303552 0.00000000
0.09550542 0.07665227 0.00307983 0.00000000
2.81037807 0.16965270 -0.00149127 0.00000000
0.29888967 1.84593211 0.00112765 0.00000000
3.40251136 0.41234621 0.00323628 0.00000000
2.11714209 0.58284600 -0.00372891 0.00000000
3.40851017 0.20399607 0.00141522 0.00000000
1.49831567 1.29056775 0.00299230 0.00000000
2.40928022 1.18793514 0.00287082 0.00000000
3.58280663 0.52022420 0.00448074 0.00000000
1.13674425 1.14494050 0.00038435 0.00000000
3.61425542 0.81147943 -0.00072346 0.00000000
3.78429099 0.25054669 -0.00352409 0.00000000
1.49187688 1.27623196 0.00529159 0.00000000
2.90890555 0.27841358 0.00393491 0.00000000
2.99443184 1.00685081 -0.00025253 0.00000000
0.58212398 0.57525164 0.00025168 0.00000000
3.47420766 1.64420661 -0.00120734 0.00000000
0.37087678 0.40750574 -0.00029030 0.00000000
4.31367906 1.80755215 -0.00073311 0.00000000
2.14765994 1.82153262 -0.00261372 0.00000000
3.05960092 1.62940523 0.00401231 0.00000000
2.80021765 0.53491082 -0.00000759 0.00000000
2.58111130 0.57550634 0.00246113 0.00000000
0.08123440 1.64981109 0.00248945 0.00000000
1.38254930 1.73455131 0.00106350 0.00000000
1.00393798 1.42140516 -0.00173796 0.00000000
0.26065146 0.64912630 0.00025045 0.00000000
4.42803666 1.38849455 -0.00405204 0.00000000
1.91372158 0.78738621 -0.00168159 0.00000000
1.85740590 1.44842452 -0.00642921 0.00000000
2.66106191 1.58321920 0.00712710 0.00000000
3.53398097 0.48692914 -0.00292890 0.00000000
3.08696297 0.16816235 -0.00010236 0.00000000
3.93521528 1.81119238 0.00164769 0.00000000
2.30418702 1.64050064 0.00209225 0.00000000
0.42460626 0.70914409 0.00433258 0.00000000
0.10833731 0.13034803 0.00173160 0.00000000
3.52467379 0.71209443 0.00536522 0.00000000
0.72760773 0.21668039 0.00247245 0.00000000
0.79993718 0.14371973 0.00273142 0.00000000
3.59433164 0.28817695 -0.00171606 0.00000000
3.51062446 0.18353574 0.00056292 0.00000000
2.45653899 0.75601573 -0.00232391 0.00000000
4.38981208 1.90284045 -0.00032374 0.00000000
0.00573354 1.41861764 -0.00365282 0.00000000
0.81763323 1.04113873 0.00231589 0.00000000
3.07475804 1.62876919 -0.00094437 0.00000000
4.45244731 0.41360813 0.00190941 0.00000000
1.52571325 0.65722808 0.00391166 0.00000000
0.86208404 1.05480969 0.00202153 0.00000000
0.51596948 0.15352189 -0.00340184 0.00000000
1.50398898 0.34085806 -0.00050574 0.00000000
3.95288561 0.64225375 -0.00039210 0.00000000
4.13054701 0.93828369 -0.00100942 0.00000000
4.49462210 1.73508836 0.00131565 0.00000000
1.02435257 1.87533257 -0.00065224 0.00000000
3.92698514 0.52300202 -0.00216326 0.00000000
1.22286948 0.70418054 -0.00085182 0.00000000
1.53545951 0.92730740 -0.00186414 0.00000000
2.94525009 1.21757807 0.00214872 0.00000000
4.14704042 0.92837012 0.00027544 0.00000000
2.16828436 1.83154426 -0.00302177 0.00000000
2.77264902 0.86328706 0.00389454 0.00000000
3.11801483 0.63833524 -0.00342227 0.00000000
2.46503923 1.37461109 -0.00020930 0.00000000
3.12500249 1.51556831 0.00245172 0.00000000
0.91445810 1.06628423 0.00439056 0.00000000
1.05795338 1.92854812 -0.00416486 0.00000000
3.30030562 0.53232016 -0.00141884 0.00000000
4.13546905 1.66571273 -0.00103298 0.00000000
2.27082985 1.12695702 -0.00295088 0.00000000
4.33039193 1.19979330 0.00011029 0.00000000
0.45167128 1.26053677 0.00232750 0.00000000
2.87638785 1.93826740 -0.00518782 0.00000000
1.31288743 0.46192427 -0.00351012 0.00000000
2.75202094 1.55220135 -0.00417541 0.00000000
3.36927627 0.31941742 0.00220473 0.00000000
3.32668763 1.91399633 0.00075232 0.00000000
1.33485186 0.39722167 -0.00227969 0.00000000
1.57403714 1.30673265 -0.00312956 0.00000000
3.08288985 1.67672092 -0.00154286 0.00000000
3.42410057 1.86124098 0.00180268 0.00000000
1.94485952 0.16032205 0.00029470 0.00000000
1.22883660 1.23906055 -0.00018919 0.00000000
2.70223585 0.71927116 -0.00290886 0.00000000
4.01844434 0.64219871 0.00388843 0.00000000
3.25960401 0.74472366 -0.00216498 0.00000000
1.10903731 1.59620391 -0.00427606 0.00000000
0.48060145 0.35061576 -0.00075587 0.00000000
3.33808830 0.08292902 0.00299859 0.00000000
1.29891478 0.53990230 0.00069817 0.00000000
4.26461700 0.91610640 -0.00175460 0.00000000
1.50673400 1.59724147 -0.00434616 0.00000000
1.21786923 0.25572427 0.00100892 0.00000000
0.99273427 0.84799366 -0.00439328 0.00000000
2.40163031 0.53909314 -0.00241831 0.00000000
2.24981409 0.85986626 -0.00414125 0.00000000
1.42287834 1.58921661 0.00147160 0.00000000
3.60905636 1.70114433 0.00064233 0.00000000
1.95434977 1.14665565 -0.00386707 0.00000000
2.98069932 0.05201704 -0.00203191 0.00000000
0.82466450 0.98040530 0.00499353 0.00000000
3.39119060 0.00251909 -0.00264482 0.00000000
2.40385883 1.81963111 0.00144954 0.00000000
3.54999758 0.80961255 0.00023737 0.00000000
0.88638182 0.34693511 0.00175821 0.00000000
2.15219865 1.88148713 -0.00052854 0.00000000
1.11904569 0.95529307 0.00201885 0.00000000
3.09190551 0.11520993 0.00066464 0.00000000
2.83318353 0.44174341 0.00363743 0.00000000
2.06255754 0.16607041 0.00357375 0.00000000
1.26378858 0.12875922 -0.00437463 0.00000000
4.22863368 1.05589153 0.00085406 0.00000000
4.44255738 0.27695034 -0.00106960 0.00000000
1.72622222 0.64004361 0.00100615 0.00000000
2.13901476 1.50814054 0.00367168 0.00000000
1.51311028 0.01555788 -0.00522791 0.00000000
3.05037505 1.64154281 -0.00444456 0.00000000
3.31579260 0.48009693 0.00400405 0.00000000
2.75149208 0.89342702 0.00085708 0.00000000
3.78997288 0.07810656 -0.00046412 0.00000000
0.18567673 1.74565025 -0.00257143 0.00000000
3.32071041 0.04266800 -0.00331051 0.00000000
4.02964637 1.42678253 -0.00216117 0.00000000
2.16510302 0.27475524 -0.00105545 0.00000000
3.41542725 1.88255706 -0.00122843 0.00000000
0.44479354 0.65216469 -0.00297009 0.00000000
1.12437273 1.49383243 0.00527418 0.00000000
0.46825152 1.28264643 0.00260738 0.00000000
1.78051251 0.81082177 -0.00018705 0.00000000
0.82302369 1.49968250 -0.00255117 0.00000000
3.28889046 0.41660653 0.00028113 0.00000000
3.14745898 1.27739674 0.00123035 0.00000000
1.80285421 0.68002103 0.00081523 0.00000000
4.34120668 1.92701293 0.00002312 0.00000000
1.37050061 0.06846617 -0.00285670 0.00000000
3.50816793 1.74013247 0.00275115 0.00000000
3.79102853 0.39440330 0.00032691 0.00000000
2.52298383 0.87163425 -0.00271756 0.00000000
0.34236354 1.59858750 -0.00404998 0.00000000
0.85500130 0.79584197 0.00018478 0.00000000
1.95601805 0.14821320 0.00019302 0.00000000
2.44424757 1.27721750 0.00313766 0.00000000
2.47135042 0.79219727 0.00269755 0.00000000
2.03452869 0.11529154 0.00074905 0.00000000
0.41890771 0.80682955 0.00042506 0.00000000
2.32916054 0.60706232 0.00098202 0.00000000
0.80931519 1.24255456 0.00509885 0.00000000
3.44730790 1.83684232 0.00299694 0.00000000
2.80288532 0.65623877 -0.00559627 0.00000000
2.02077416 0.78964215 -0.00240044 0.00000000
2.70485273 0.54196662 -0.00156439 0.00000000
3.53182302 1.76483226 -0.00166735 0.00000000
3.40514737 1.21105904 -0.00246387 0.00000000
1.41663060 0.95981679 -0.00085132 0.00000000
0.34326906 1.59497276 -0.00041016 0.00000000
2.95277732 0.45984528 -0.00388375 0.00000000
3.04726644 1.46175220 0.00419349 0.00000000
2.67792718 1.14447661 -0.00405732 0.00000000
1.89573938 1.39353684 -0.00102285 0.00000000
2.59760759 0.15306000 0.00160370 0.00000000
1.89351151 1.62093646 0.00110104 0.00000000
0.60706614 1.13979331 -0.00227643 0.00000000
3.13670082 0.86738238 0.00189758 0.00000000
0.74845763 0.66359662 -0.00053853 0.00000000
1.77125523 0.59201148 0.00368887 0.00000000
1.20018322 1.30659035 0.00268406 0.00000000
4.53197103 0.79390110 0.00204419 0.00000000
3.40165945 0.00789563 -0.00326504 0.00000000
0.11251398 0.73951502 0.00414436 0.00000000
2.51339719 1.75451535 0.00035392 0.00000000
2.83543149 0.68361227 0.00116572 0.00000000
3.28066272 0.78716912 0.00021212 0.00000000
2.67238416 1.28738460 -0.00103639 0.00000000
1.26538692 1.93216680 0.00330609 0.00000000
3.48828117 0.46640321 -0.00036134 0.00000000
1.50479273 0.87347370 0.00477673 0.00000000
1.97086137 1.83663872 0.00648128 0.00000000
2.65163748 1.83957273 -0.00053141 0.00000000
3.54839437 0.40553674 -0.00386120 0.00000000
1.45634424 0.03087686 -0.00430004 0.00000000
1.00676108 0.64252772 -0.00134981 0.00000000
0.48715597 1.58728985 0.00229817 0.00000000
4.01397375 0.24365049 -0.00227116 0.00000000
2.62315438 1.01042371 0.00166281 0.00000000
3.81225964 0.02623145 -0.00220859 0.00000000
2.57120911 0.72692498 -0.00205609 0.00000000
1.87730779 1.75949242 -0.00067070 0.00000000
1.40118576 0.95080205 0.00487762 0.00000000
0.54923142 0.53433872 0.00580604 0.00000000
3.53680508 0.69241611 -0.00347507 0.00000000
3.30507734 0.61928632 -0.00164763 0.00000000
3.96458916 1.49581859 0.00439256 0.00000000
0.59952931 0.61344345 0.00197640 0.00000000
1.19765177 1.45208073 0.00015705 0.00000000
1.39852869 0.91123298 -0.00004357 0.00000000
4.51574987 0.99117612 0.00282366 0.00000000
1.05792208 0.42413172 0.00070821 0.00000000
0.27341492 0.03674243 0.00329583 0.00000000
1.16318159 0.20918916 -0.00224199 0.00000000
1.90831340 1.16371112 0.00128680 0.00000000
1.63118739 0.22585955 0.00346843 0.00000000
1.87915715 0.55828408 -0.00078661 0.00000000
0.80442251 1.81780449 -0.00267731 0.00000000
0.01836308 0.88543053 -0.00064975 0.00000000
1.27115431 0.56748398 0.00447590 0.00000000
4.14815601 1.86541064 -0.00028620 0.00000000
1.71592580 0.08334310 0.00136341 0.00000000
0.09144382 1.63831758 -0.00248847 0.00000000
2.67288521 0.97420028 -0.00131225 0.00000000
1.91403718 0.64512302 0.00390920 0.00000000
0.84725981 0.12061951 0.00190035 0.00000000
2.28983868 0.44747744 0.00072540 0.00000000
2.48428924 0.04881402 0.00570393 0.00000000
3.27518540 0.18602269 -0.00211604 0.00000000
0.55097930 1.80522483 0.00044303 0.00000000
2.65270112 1.31726910 -0.00303333 0.00000000
0.01205788 0.05160946 -0.00130769 0.00000000
2.26256301 0.23240595 -0.00452075 0.00000000
3.93689947 0.29049139 0.00190661 0.00000000
2.34187447 0.07515262 -0.00033949 0.00000000
2.65690337 0.26710635 0.00312107 0.00000000
1.76030678 1.23950909 -0.00019274 0.00000000
0.66368934 0.22866338 -0.00190774 0.00000000
1.72162699 1.83460938 0.00234879 0.00000000
1.26324168 1.05774346 -0.00033355 0.00000000
2.88454078 0.35565159 0.00038341 0.00000000
2.08044643 1.68750916 0.00276516 0.00000000
3.28110212 0.83735825 0.00109071 0.00000000
0.71422617 0.66356011 -0.00642895 0.00000000
3.44481117 1.90088601 -0.00053012 0.00000000
1.22009616 1.61350423 0.00480716 0.00000000
1.07513840 0.19046149 -0.00001800 0.00000000
1.23110339 0.91203820 0.00155362 0.00000000
0.77054299 1.46956018 0.00255343 0.00000000
0.13188300 1.62987725 -0.00097565 0.00000000
2.00127650 1.11766390 -0.00455124 0.00000000
0.81655215 1.10127336 0.00121617 0.00000000
0.36333059 1.66819462 0.00496771 0.00000000
3.12196682 0.72076345 0.00146912 0.00000000
1.10189712 1.22798892 -0.00225769 0.00000000
0.79711455 1.50918977 -0.00011266 0.00000000
2.65012820 0.80999726 -0.00044139 0.00000000
4.16744631 0.63857361 0.00160675 0.00000000
2.68355836 1.75088261 -0.00006723 0.00000000
2.42496012 0.78530035 -0.00423230 0.00000000
0.88924533 1.91797752 0.00116600 0.00000000
0.11816955 0.69598279 0.00274299 0.00000000
3.52280548 0.37124582 0.00007041 0.00000000
2.80130206 1.40062863 -0.00221248 0.00000000
3.86475228 0.84664800 0.00210111 0.00000000
0.39412834 0.07806672 -0.00011815 0.00000000
3.63344760 0.93615136 -0.00689623 0.00000000
1.28048972 1.61582775 0.00243186 0.00000000
4.16149786 0.71505917 0.00300114 0.00000000
1.81789822 0.04647985 -0.00088917 0.00000000
0.31017931 0.49742738 0.00063925 0.00000000
3.59222852 1.12849596 0.00022712 0.00000000
1.28456642 1.46077732 0.00343506 0.00000000
1.91144317 1.49922476 0.00096840 0.00000000
2.71548044 0.11190867 -0.00014710 0.00000000
3.91064236 0.74234331 0.00086912 0.00000000
2.63805059 0.69934391 -0.00106219 0.00000000
0.80962545 0.76561820 0.00554940 0.00000000
2.87304523 1.66764467 0.00028646 0.00000000
0.80825875 0.95862853 0.00172720 0.00000000
3.07864296 0.48647940 -0.00003575 0.00000000
0.90297916 0.40494078 0.00076951 0.00000000
2.46708559 1.33731981 -0.00229749 0.00000000
2.35436293 1.87324821 -0.00073905 0.00000000
3.96506498 1.93592536 0.00300306 0.00000000
1.52587874 1.39278292 0.00532831 0.00000000
2.65008203 1.37761662 -0.00058194 0.00000000
1.78371872 1.42232277 0.00114980 0.00000000
0.95275392 1.68357870 -0.00398783 0.00000000
2.95071407 1.27576469 -0.00001529 0.00000000
1.65417051 0.08772487 -0.00355892 0.00000000
1.76200290 0.42047534 0.00133387 0.00000000
2.10602643 1.71002920 -0.00329724 0.00000000
0.13442435 0.71326612 0.00187024 0.00000000
1.44109164 1.37866872 -0.00346823 0.00000000
3.09394423 0.67065964 -0.00077482 0.00000000
0.12003722 1.44130172 0.00304523 0.00000000
3.78491404 1.17528836 -0.00199125 0.00000000
1.88212987 0.23732107 0.00130188 0.00000000
4.30547183 1.84333295 -0.00483960 0.00000000
2.92293038 1.75224484 -0.00598315 0.00000000
3.41575587 0.94690531 0.00122797 0.00000000
4.34559001 0.05548706 -0.00186291 0.00000000
0.40287678 1.76335304 0.00105183 0.00000000
0.35562625 1.19281654 -0.00035187 0.00000000
0.00934697 0.00109600 0.00244593 0.00000000
3.94657921 0.64887778 -0.00050134 0.00000000
2.73584208 1.21498166 -0.00299968 0.00000000
0.18829808 1.11142023 0.00167043 0.00000000
3.81966038 1.20602715 -0.00236213 0.00000000
2.27354988 1.12764425 0.00257694 0.00000000
2.58586868 1.13805402 -0.00487218 0.00000000
2.15958034 1.57521557 -0.00192890 0.00000000
0.96779685 0.09043535 -0.00372123 0.00000000
4.29623437 1.64622887 0.00126570 0.00000000
1.34107870 0.09481207 0.00421401 0.00000000
4.53197504 0.27678480 -0.00064615 0.00000000
1.24321653 0.13456537 0.00050840 0.00000000
3.82358028 1.94044614 0.00054286 0.00000000
2.32740591 1.54794534 0.00082222 0.00000000
1.13114423 1.42100075 -0.00043995 0.00000000
2.58927605 1.46608353 -0.00024104 0.00000000
2.52779252 0.98531139 -0.00064009 0.00000000
4.07092542 0.62162599 -0.00012738 0.00000000
1.24413351 0.45084022 0.00603209 0.00000000
0.45543012 1.78356815 -0.00046468 0.00000000
3.15060592 0.55824209 0.00124825 0.00000000
3.73907384 1.04156053 0.00187034 0.00000000
2.80558678 0.29526419 0.00212379 0.00000000
2.02746994 0.15310867 0.00179306 0.00000000
3.19261541 0.58743700 0.00151919 0.00000000
0.62789871 0.59300867 0.00104795 0.00000000
4.50004322 1.58720864 0.00243378 0.00000000
3.24672404 0.64366621 -0.00207274 0.00000000
2.48357347 1.54578997 0.00033277 0.00000000
2.72492462 1.44348936 -0.00583417 0.00000000
1.15553988 0.76374768 0.00016145 0.00000000
0.55342376 0.31969606 -0.00054553 0.00000000
3.45234072 0.08705345 -0.00026004 0.00000000
0.81756398 0.83202813 -0.00001848 0.00000000
3.80495013 1.77674263 0.00362131 0.00000000
3.79572142 1.20752472 -0.00086418 0.00000000
3.36533233 1.80112487 0.00160246 0.00000000
1.21697888 1.24828384 -0.00163661 0.00000000
3.11293071 1.63955764 -0.00195918 0.00000000
2.69075145 0.00455631 -0.00014386 0.00000000
3.36703411 0.07935126 -0.00429289 0.00000000
3.29383908 0.67590644 -0.00446277 0.00000000
0.88765628 1.11485386 -0.00045482 0.00000000
2.00820303 0.75512599 0.00103543 0.00000000
3.23595692 1.02580442 0.00211605 0.00000000
3.73630898 0.77343008 -0.00401947 0.00000000
3.67977396 1.53356254 -0.00139200 0.00000000
1.65198323 0.30208850 -0.00118260 0.00000000
1.28877906 0.02117202 -0.00316755 0.00000000
3.93775750 1.36316176 0.00130039 0.00000000
1.46332124 1.33702781 -0.00007142 0.00000000
3.88492024 1.87241785 -0.00059928 0.00000000
1.10965236 0.97019354 -0.00060811 0.00000000
1.22506567 1.74054832 -0.00102386 0.00000000
0.96112950 0.92398192 -0.00408398 0.00000000
2.76073898 1.14441588 0.00151325 0.00000000
3.52503761 0.11749964 0.00348416 0.00000000
4.33844698 1.77279057 -0.00154959 0.00000000
1.73692704 0.25580952 0.00261197 0.00000000
1.62984138 0.24923720 -0.00150882 0.00000000
0.49158866 1.72157635 0.00274645 0.00000000
2.55387926 0.37926012 0.00191111 0.00000000
3.74119230 1.63653203 -0.00176951 0.00000000
1.66367266 1.52935101 -0.00055591 0.00000000
1.87598946 1.73565385 -0.00049583 0.00000000
2.05747417 0.92043494 0.00058731 0.00000000
0.47757005 0.99595135 0.00050705 0.00000000
3.45506949 1.68951143 -0.00078043 0.00000000
0.90463696 0.47085152 0.00000636 0.00000000
1.50950984 0.05266906 0.00015557 0.00000000
1.11123018 1.39050918 0.00141470 0.00000000
2.28363625 1.83387804 -0.00102216 0.00000000
3.79960760 0.58290590 0.00021535 0.00000000
1.46714605 0.17495401 0.00043180 0.00000000
4.17440301 1.30332490 -0.00185024 0.00000000
1.66094600 0.07486952 -0.00208067 0.00000000
1.89078961 1.44923409 0.00094678 0.00000000
1.09238027 1.34512321 0.00089694 0.00000000
0.14315609 0.67053807 -0.00602357 0.00000000
1.33467615 0.29757009 0.00189551 0.00000000
0.86312955 0.42224339 -0.00028398 0.00000000
2.15678149 0.53601363 0.00061708 0.00000000
3.52809489 0.69072422 0.00139652 0.00000000
2.00932148 1.02370315 0.00100966 0.00000000
1.16002901 1.24310331 -0.00231046 0.00000000
1.50888714 1.85237178 -0.00241370 0.00000000
1.12497572 0.75870088 0.00210649 0.00000000
2.10419106 0.65763277 -0.00077410 0.00000000
3.28644010 0.45566074 -0.00017903 0.00000000
3.47416286 1.89605920 0.00508205 0.00000000
1.31816086 0.92065357 0.00488534 0.00000000
3.96899871 1.30840357 -0.00123715 0.00000000
1.60606282 1.38647659 0.00367279 0.00000000
3.24061040 1.92872110 -0.00032620 0.00000000
2.11849362 1.80045445 0.00556239 0.00000000
1.47199041 1.26682942 0.00334530 0.00000000
0.24593782 1.83881397 0.00554744 0.00000000
3.71304225 1.05620892 -0.00186122 0.00000000
2.33129236 1.81236044 -0.00600121 0.00000000
4.51991224 0.24184328 -0.00232400 0.00000000
3.58918221 0.94495466 -0.00364270 0.00000000
0.35715120 1.00446593 -0.00114220 0.00000000
2.06990328 1.75987965 -0.00206176 0.00000000
0.25352856 0.86812374 -0.00244893 0.00000000
0.93948985 0.40171816 -0.00046663 0.00000000
1.45397088 1.52190271 -0.00473004 0.00000000
3.65299861 0.71119477 0.00141731 0.00000000
4.46996318 1.08831219 -0.00148094 0.00000000
3.66815254 1.04984870 -0.00406432 0.00000000
3.32591769 0.44242506 -0.00068271 0.00000000
2.32721190 0.59909464 0.00090475 0.00000000
3.80664229 0.66006829 -0.00225507 0.00000000
4.07055579 0.21270658 0.00218610 0.00000000
0.64164748 1.67524537 -0.00159518 0.00000000
1.09009568 0.58648930 0.00337401 0.00000000
2.20621735 0.69726345 0.00217677 0.00000000
2.99437659 0.59815793 -0.00130416 0.00000000
1.65657687 1.08833004 -0.00138150 0.00000000
3.41396877 1.08538005 -0.00383841 0.00000000
4.28456740 1.23714036 -0.00355169 0.00000000
2.69760221 0.83228896 0.00104599 0.00000000
2.93675810 0.68403955 0.00004165 0.00000000
1.00292914 0.76613040 -0.00332998 0.00000000
2.17706816 1.74781206 -0.00324464 0.00000000
2.96255285 0.04038921 0.00166303 0.00000000
1.87456620 1.61064610 -0.00041453 0.00000000
2.10277389 0.00153214 -0.00252440 0.00000000
0.15779145 1.48452323 0.00244380 0.00000000
1.40449696 1.16524801 -0.00420258 0.00000000
2.08175017 0.48244064 -0.00330214 0.00000000
4.49069934 1.00456900 0.00282115 0.00000000
0.81076702 0.82941965 -0.00134324 0.00000000
4.30854938 1.22828925 -0.00495239 0.00000000
4.51305423 1.66521791 -0.00117751 0.00000000
3.66332821 0.78636974 -0.00435697 0.00000000
2.06254958 0.29348859 -0.00282458 0.00000000
3.42680690 1.32368921 -0.00041465 0.00000000
3.46448070 0.58625720 -0.00228738 0.00000000
0.56837526 0.70203882 -0.00077049 0.00000000
0.56649630 1.72765577 -0.00606275 0.00000000
1.51674175 0.90240891 0.00206752 0.00000000
3.17043814 0.91996964 0.00070300 0.00000000
3.70564578 0.71459084 -0.00119177 0.00000000
3.01742640 1.82415213 0.00425635 0.00000000
4.28545970 0.67263621 -0.00142834 0.00000000
3.36885713 0.81913102 0.00484884 0.00000000
1.08202419 0.97203352 -0.00070630 0.00000000
2.01605945 1.65458098 -0.00535197 0.00000000
0.07946734 1.83305377 -0.00615437 0.00000000
1.47327756 1.43452323 -0.00334631 0.00000000
1.15506680 0.50157399 -0.00171696 0.00000000
3.82111864 0.91650475 -0.00402365 0.00000000
1.90264447 0.24383785 -0.00185490 0.00000000
3.38815842 1.68170576 -0.00063816 0.00000000
2.64223197 0.45335903 0.00211966 0.00000000
2.50551629 0.04733574 0.00229089 0.00000000
2.01715791 0.62687895 -0.00039894 0.00000000
4.33081539 0.36708277 0.00109844 0.00000000
3.06919562 1.05196443 -0.00394037 0.00000000
0.60460230 1.03874083 -0.00150559 0.00000000
4.19320848 1.30383908 -0.00090520 0.00000000
3.76669143 1.91866182 0.00130701 0.00000000
4.37373432 1.60993392 -0.00046331 0.00000000
2.39398479 1.58375817 -0.00126895 0.00000000
2.05536127 0.67437482 -0.00377257 0.00000000
0.13192732 1.47141489 -0.00363468 0.00000000
1.05700119 0.59863562 -0.00237053 0.00000000
3.36805000 0.78742679 0.00020072 0.00000000
1.34176021 0.04833946 0.00055283 0.00000000
4.51096031 0.56842277 0.00248062 0.00000000
3.26855627 0.78082462 0.00218845 0.00000000
0.11994228 1.57643288 0.00016840 0.00000000
1.83416680 1.60772913 -0.00075286 0.00000000
3.82283599 0.23375091 -0.00025429 0.00000000
2.74648332 1.25372271 0.00091015 0.00000000
3.98099992 0.10818027 -0.00189900 0.00000000
1.44522741 0.31976674 0.00326628 0.00000000
0.80472422 1.59559773 0.00287835 0.00000000
1.52367646 0.14998375 0.00536421 0.00000000
3.42736084 0.50755240 -0.00044004 0.00000000
0.82812137 0.84492634 0.00187919 0.00000000
1.55197993 0.39232754 -0.00189139 0.00000000
4.19745205 0.39992811 0.00148619 0.00000000
2.17354997 0.45950399 -0.00027139 0.00000000
4.37908607 0.17322219 -0.00258856 0.00000000
3.05849354 0.18728124 -0.00302729 0.00000000
1.51511569 0.92869442 0.00271796 0.00000000
0.27135067 0.03041514 -0.00055589 0.00000000
2.08725386 1.08781580 -0.00455394 0.00000000
0.90363423 0.03302254 0.00188365 0.00000000
0.53181206 1.06091088 0.00295094 0.00000000
0.09876212 0.67571814 -0.00538985 0.00000000
2.01991740 1.70662150 0.00183333 0.00000000
2.13276957 0.30228073 0.00045549 0.00000000
4.03031096 1.02825496 -0.00024675 0.00000000
3.49785956 1.37287300 -0.00149203 0.00000000
2.22874848 0.49564635 -0.00402035 0.00000000
0.77617898 0.07092681 -0.00010341 0.00000000
3.99033174 0.06554643 0.00268035 0.00000000
2.75378327 0.86526516 -0.00058627 0.00000000
3.96294744 1.13495480 0.00031803 0.00000000
4.50106128 0.64308375 0.00254596 0.00000000
4.14666216 0.75663302 0.00126894 0.00000000
1.03393428 0.86473205 -0.00393981 0.00000000
1.26514298 1.12708081 -0.00039891 0.00000000
2.56911152 0.89329986 0.00069608 0.00000000
1.54532971 1.21317732 0.00321397 0.00000000
3.17908983 1.26316589 -0.00200175 0.00000000
0.02970221 0.98491346 0.00452127 0.00000000
0.52793302 1.64136283 -0.00566559 0.00000000
2.84875393 1.05937105 -0.00338883 0.00000000
1.54677303 1.05937811 -0.00103197 0.00000000
3.99169569 0.70260045 -0.00004109 0.00000000
4.14279673 0.28748746 0.00043165 0.00000000
2.25732001 1.37414706 -0.00052346 0.00000000
1.06853653 0.92192003 0.00202858 0.00000000
3.86491402 1.60567679 -0.00094446 0.00000000
0.69538299 1.63761981 0.00207983 0.00000000
2.55026552 1.55654315 -0.00070801 0.00000000
4.47063704 1.45114633 0.00142977 0.00000000
1.52762681 0.39837700 0.00156483 0.00000000
2.61377136 0.65738387 0.00206528 0.00000000
0.11727232 1.54254971 -0.00159042 0.00000000
4.06297121 1.35005661 0.00104146 0.00000000
3.12293556 0.88113361 -0.00057730 0.00000000
2.51726192 1.51721387 -0.00018357 0.00000000
1.73349254 0.35381233 -0.00036305 0.00000000
2.46944809 1.42017085 -0.00405766 0.00000000
3.09829452 0.75725061 0.00231340 0.00000000
0.17146973 1.71929080 -0.00380677 0.00000000
4.41416703 0.68923039 -0.00015413 0.00000000
4.28263016 0.11790757 -0.00114808 0.00000000
2.76244731 1.06160029 -0.00377105 0.00000000
4.28454310 1.89194301 0.00171296 0.00000000
1.48767805 1.11742750 -0.00342768 0.00000000
1.92924009 0.50374380 -0.00157810 0.00000000
1.61018076 0.61917119 -0.00295382 0.00000000
3.92514409 0.37711027 -0.00226141 0.00000000
3.26944562 1.18210784 -0.00325738 0.00000000
0.96602569 1.73512851 -0.00225321 0.00000000
3.49602255 0.06636457 -0.00042917 0.00000000
2.10527298 0.31227977 0.00249530 0.00000000
2.10834875 1.87234917 0.00349407 0.00000000
0.93762792 0.83446116 0.00291069 0.00000000
3.82341197 0.31069619 0.00147314 0.00000000
0.18050754 0.16084394 -0.00184740 0.00000000
1.55675710 0.85339816 -0.00186120 0.00000000
3.94699540 0.16270974 -0.00619874 0.00000000
0.08474462 1.67834295 0.00121711 0.00000000
0.38361503 0.29956198 0.00380708 0.00000000
0.31719571 1.18386796 -0.00078343 0.00000000
3.93046074 0.70949331 -0.00101916 0.00000000
1.49617036 0.26333311 -0.00003521 0.00000000
0.88229264 1.26829795 -0.00227633 0.00000000
3.35614801 1.90637618 -0.00095887 0.00000000
0.15027544 0.56791763 -0.00031499 0.00000000
2.59139091 0.06052620 0.00308946 0.00000000
3.39356274 0.76033039 0.00182581 0.00000000
1.30681737 1.14074290 -0.00091868 0.00000000
0.52641311 0.13312231 0.00231911 0.00000000
0.37104778 1.12853654 -0.00011663 0.00000000
2.41605342 0.73850275 -0.00014367 0.00000000
1.70437586 1.03866896 0.00376645 0.00000000
1.09778755 0.94879567 -0.00176270 0.00000000
0.72825924 0.21703391 -0.00277463 0.00000000
2.50695013 1.84783531 0.00196130 0.00000000
0.20839537 1.37972722 -0.00389864 0.00000000
3.80395640 0.51275168 0.00230719 0.00000000
0.72943828 1.27773716 0.00112463 0.00000000
0.02004642 1.66731771 0.00135876 0.00000000
3.06331215 0.31306911 0.00244191 0.00000000
4.05797666 0.10357791 0.00438143 0.00000000
2.85762305 1.80289649 0.00201620 0.00000000
3.23064473 0.40739803 -0.00071426 0.00000000
1.18732573 0.76062680 -0.00415547 0.00000000
0.35505409 0.99045787 -0.00268681 0.00000000
1.95483428 0.40155806 0.00193199 0.00000000
0.48947140 0.91131222 0.00356316 0.00000000
3.39867248 1.09304212 -0.00052199 0.00000000
0.53274807 0.83118334 0.00088661 0.00000000
1.66135052 0.18899032 -0.00049340 0.00000000
3.61211504 0.43815029 0.00457356 0.00000000
0.23103463 1.07053033 0.00102079 0.00000000
4.21166545 0.91941053 -0.00572682 0.00000000
3.19793938 1.79440622 -0.00186535 0.00000000
2.60888360 0.59441950 0.00001147 0.00000000
1.50267774 1.83167134 0.00135295 0.00000000
2.09187644 0.87971057 0.00315331 0.00000000
1.18803307 0.81949928 -0.00032156 0.00000000
1.54449357 1.55396328 -0.00391796 0.00000000
2.00963735 0.55559997 0.00083577 0.00000000
3.39163659 1.54660788 0.00088612 0.00000000
1.28703201 0.71368941 -0.00212626 0.00000000
1.55546150 1.50080773 -0.00060204 0.00000000
0.90642516 1.55150760 0.00362347 0.00000000
4.50304395 0.80027392 -0.00493950 0.00000000
3.97951656 1.28939368 0.00007561 0.00000000
3.49661771 1.31496424 -0.00191188 0.00000000
0.50009149 1.40502304 -0.00158244 0.00000000
0.74354935 1.02352950 -0.00422020 0.00000000
2.86882979 1.35948605 -0.00172817 0.00000000
3.91889272 1.23046158 -0.00520555 0.00000000
3.92004938 0.09073996 0.00495604 0.00000000
1.72595370 1.89009933 -0.00524995 0.00000000
2.19252476 0.11538817 0.00151411 0.00000000
3.72964561 1.45419947 -0.00019507 0.00000000
3.42533359 1.88033433 -0.00120245 0.00000000
4.39101993 1.23945882 0.00484666 0.00000000
2.83085011 0.17688590 -0.00079518 0.00000000
0.15316979 1.23721219 -0.00086081 0.00000000
1.82266494 1.40456933 0.00286149 0.00000000
1.96841477 0.28656858 0.00218889 0.00000000
1.21320219 0.40691523 -0.00230127 0.00000000
0.27266072 1.27601989 0.00036482 0.00000000
0.35378030 1.38469766 0.00044630 0.00000000
3.11458057 1.22504123 -0.00022974 0.00000000
0.04543622 1.66197220 -0.00080715 0.00000000
0.12665204 1.18300922 0.00174020 0.00000000
1.95964445 1.67293995 -0.00503872 0.00000000
2.75446757 0.24805139 -0.00206960 0.00000000
0.21576973 0.90813695 0.00369367 0.00000000
2.34100778 1.30782906 0.00179487 0.00000000
0.09326150 1.46364197 -0.00032386 0.00000000
2.64684493 0.90371974 -0.00380929 0.00000000
1.54571521 0.96230721 -0.00011754 0.00000000
4.33844949 0.14116941 -0.00101406 0.00000000
1.44564821 0.15837722 0.00156166 0.00000000
0.32761668 1.87330856 -0.00364382 0.00000000
0.88537589 1.15118850 -0.00073194 0.00000000
1.34913586 0.84897289 0.00389054 0.00000000
2.90152179 0.63222843 0.00103438 0.00000000
2.62633843 1.45962723 0.00134875 0.00000000
1.91829838 1.54812690 -0.00236566 0.00000000
0.63395530 1.64283659 0.00597986 0.00000000
2.49524703 1.29915765 -0.00045339 0.00000000
2.71607739 1.70277530 -0.00092888 0.00000000
3.76435725 0.37151298 -0.00033720 0.00000000
0.93364761 1.66242555 -0.00108142 0.00000000
2.27729930 1.17097705 -0.00396476 0.00000000
1.07512883 0.80022672 0.00333419 0.00000000
2.26995023 1.37211972 0.00179002 0.00000000
0.24232509 0.52366685 0.00157349 0.00000000
0.83345141 0.63498775 -0.00186527 0.00000000
4.48376329 0.78295601 0.00130889 0.00000000
0.31123843 0.63680663 -0.00062268 0.00000000
0.34982519 1.13987196 0.00006204 0.00000000
2.21560444 1.55893080 0.00201686 0.00000000
2.21517410 1.43333727 -0.00104801 0.00000000
1.91323927 0.44651656 0.00082063 0.00000000
1.43175591 1.14087756 -0.00850317 0.00000000
1.76578650 1.00429197 0.00252034 0.00000000
1.85374701 0.59421917 -0.00003982 0.00000000
1.22056732 0.77244097 0.00216739 0.00000000
1.36256070 0.93476291 -0.00163421 0.00000000
1.51713982 1.49851983 -0.00230867 0.00000000
0.37665105 1.84857849 -0.00368030 0.00000000
2.59641978 1.77357909 -0.00017299 0.00000000
1.70302081 1.08253041 0.00262620 0.00000000
1.62863226 1.30832072 -0.00156598 0.00000000
2.13201566 0.91930383 0.00311621 0.00000000
3.20302314 0.16990476 -0.00107247 0.00000000
1.96561424 1.08652355 -0.00147307 0.00000000
1.77538049 1.40610533 0.00716033 0.00000000
2.06108767 1.84064044 0.00283697 0.00000000
2.88510125 1.21949795 0.00177800 0.00000000
1.86566212 1.42883073 0.00252880 0.00000000
0.31956482 1.54438977 -0.00189898 0.00000000
0.17392112 1.52501814 -0.00677585 0.00000000
0.47811648 0.61549481 0.00219470 0.00000000
3.24466180 1.13549275 0.00425799 0.00000000
4.07746012 1.05533293 -0.00355668 0.00000000
3.57416031 1.84260590 -0.00028257 0.00000000
1.07786506 1.43078829 -0.00163527 0.00000000
0.99476571 0.28302399 -0.00584380 0.00000000
0.49218128 1.11430032 0.00285310 0.00000000
4.14550478 1.07200328 0.00165528 0.00000000
3.32809996 0.50493081 -0.00185182 0.00000000
0.29537084 0.23464566 -0.00268965 0.00000000
3.37846203 1.19048450 -0.00085619 0.00000000
2.84452320 1.83513151 -0.00264938 0.00000000
2.77211201 1.82992473 -0.00046597 0.00000000
0.93685709 0.40781674 -0.00297208 0.00000000
3.66480293 1.34833884 0.00162846 0.00000000
0.52254847 0.43533382 -0.00122395 0.00000000
4.46816130 0.61215125 0.00202655 0.00000000
3.68851306 1.50557603 0.00084347 0.00000000
1.85944027 0.59337085 0.00144122 0.00000000
0.29237772 0.72672901 0.00177587 0.00000000
2.73937829 0.96329689 0.00260219 0.00000000
0.33500075 1.71772601 0.00151221 0.00000000
3.65264001 1.46786052 0.00493100 0.00000000
3.45030621 0.33747954 0.00401009 0.00000000
4.15711197 0.22630793 -0.00228492 0.00000000
2.71928352 0.89855014 -0.00481566 0.00000000
4.09244905 0.53724828 -0.00014024 0.00000000
0.44306504 1.75021199 -0.00204790 0.00000000
3.00062007 0.44173807 -0.00374317 0.00000000
3.97499397 1.48290532 -0.00258411 0.00000000
1.43067420 0.79929900 -0.00202638 0.00000000
0.17845434 0.08102993 -0.00214551 0.00000000
0.20549678 1.67607979 0.00409920 0.00000000
1.71187585 1.35291477 0.00059201 0.00000000
3.54799367 1.45255565 -0.00197972 0.00000000
0.60215282 1.88413296 -0.00191651 0.00000000
4.29238174 0.81126225 -0.00114705 0.00000000
2.87845432 0.56708072 0.00520379 0.00000000
0.73353694 1.79705643 0.00177998 0.00000000
3.62809122 1.41400796 0.00158845 0.00000000
0.26863143 0.83153128 -0.00227320 0.00000000
3.28824066 1.92790136 0.00021831 0.00000000
3.08565414 1.60437694 -0.00177095 0.00000000
4.37320158 0.72151244 0.00402018 0.00000000
2.11250341 0.45748229 -0.00181774 0.00000000
2.94193461 0.82286291 -0.00081345 0.00000000
3.09098866 1.36824863 -0.00173726 0.00000000
4.37765523 0.08461323 0.00055522 0.00000000
2.21758176 1.52301771 0.00010080 0.00000000
1.30012124 0.44227033 0.00169195 0.00000000
3.54462075 0.09355266 0.00309760 0.00000000
1.92570715 0.10825328 0.00177849 0.00000000
2.99686032 1.39659200 -0.00366214 0.00000000
4.34438327 0.63471703 0.00537579 0.00000000
3.54245951 0.54982755 0.00525264 0.00000000
0.96395645 0.11984625 0.00237833 0.00000000
1.06433815 0.44652897 -0.00305799 0.00000000
1.12240991 0.08491501 0.00260859 0.00000000
0.84570653 1.07055605 0.00319209 0.00000000
2.31138026 0.44591554 0.00266819 0.00000000
0.96193740 0.24190514 -0.00176902 0.00000000
3.02395089 1.34727031 0.00279168 0.00000000
2.60937946 0.14559558 -0.00074996 0.00000000
2.85300411 0.66890214 -0.00333224 0.00000000
2.89987005 1.86675330 0.00364242 0.00000000
3.69915585 1.91334520 -0.00375666 0.00000000
3.94164903 1.28307321 -0.00464702 0.00000000
1.15389501 1.51493131 -0.00103619 0.00000000
0.11206082 1.08681742 0.00170715 0.00000000
1.87964234 1.05802204 0.00093147 0.00000000
2.85065732 1.51229774 0.00192461 0.00000000
1.96008187 0.30145301 -0.00204543 0.00000000
2.41626282 1.92331292 0.00060467 0.00000000
2.11198810 1.49984973 -0.00029069 0.00000000
1.06369901 0.43603790 0.00131663 0.00000000
2.37594661 1.36320443 0.00426734 0.00000000
0.55630739 0.21163398 0.00034609 0.00000000
2.95581099 0.60547850 -0.00305051 0.00000000
4.21445204 1.22655919 0.00194174 0.00000000
0.42680501 1.67251149 0.00074091 0.00000000
0.34739237 1.79449315 0.00221328 0.00000000
3.20292387 0.72073750 0.00054677 0.00000000
3.46106404 1.56252276 0.00321796 0.00000000
2.52659175 1.02025615 0.00340573 0.00000000
2.16332968 0.38966890 -0.00371402 0.00000000
2.16494726 1.66175899 0.00102138 0.00000000
2.95759279 1.49338115 -0.00018225 0.00000000
1.92862210 1.21046324 0.00115292 0.00000000
4.08034994 1.46724161 0.00154411 0.00000000
1.49653073 1.73942290 -0.00083589 0.00000000
3.24983321 1.47092622 0.00502819 0.00000000
3.24754919 0.27090827 0.00023456 0.00000000
3.78325222 1.48561337 -0.00024619 0.00000000
0.84634850 0.30190880 0.00000732 0.00000000
1.96321895 0.11906115 0.00223868 0.00000000
2.42174323 1.82947182 -0.00135477 0.00000000
3.90144797 0.32966193 -0.00022389 0.00000000
0.01824722 0.86359820 0.00187835 0.00000000
3.53803195 0.33022144 -0.00054953 0.00000000
0.07225004 1.37179049 0.00419316 0.00000000
0.46642123 0.75027739 -0.00124577 0.00000000
0.60368593 1.33468148 0.00001039 0.00000000
2.41967951 1.32208083 0.00072187 0.00000000
0.05762344 0.96762620 -0.00502056 0.00000000
0.49371813 0.46712896 -0.00469259 0.00000000
2.15910689 0.76092626 0.00062543 0.00000000
1.37983749 1.78219176 -0.00204617 0.00000000
0.02580105 1.16471013 0.00016069 0.00000000
1.81542757 1.74595918 0.00201280 0.00000000
1.57063210 0.04484885 -0.00125974 0.00000000
2.84880890 1.86119441 0.00513706 0.00000000
3.47726081 1.04701409 0.00245409 0.00000000
0.36702849 0.45419980 -0.00349269 0.00000000
4.36579983 0.68177017 -0.00199221 0.00000000
0.58733744 0.49719401 -0.00471418 0.00000000
2.33068367 1.85680104 -0.00282184 0.00000000
3.95611204 1.24059293 -0.00023811 0.00000000
3.99262970 0.53909645 -0.00177851 0.00000000
1.58175965 1.51944590 -0.00417331 0.00000000
3.90130666 0.03925745 -0.00317131 0.00000000
0.54970608 1.40336873 0.00211906 0.00000000
0.10623315 1.75628723 -0.00398519 0.00000000
1.50780385 0.06791729 0.00009399 0.00000000
3.53315840 1.00898585 0.00050116 0.00000000
4.12809059 1.29306832 0.00060716 0.00000000
3.02437203 1.02713905 -0.00206415 0.00000000
0.13346240 0.60497122 -0.00074964 0.00000000
2.60233063 1.27305259 -0.00216685 0.00000000
4.06211903 0.49797516 0.00124508 0.00000000
0.38918542 0.36856478 -0.00451947 0.00000000
1.69699906 1.52187508 0.00241244 0.00000000
4.44779089 1.47004637 0.00047057 0.00000000
3.75035780 1.45351692 -0.00287162 0.00000000
0.98661279 1.21758763 -0.00306893 0.00000000
0.62785792 1.36488231 0.00040225 0.00000000
4.49137276 1.11024559 0.00103083 0.00000000
