1.047555 1.122779 -0.005054 0.0
2.220889 1.015408 0.001070 0.0
3.970847 1.587493 0.000291 0.0
3.785677 1.111300 -0.000758 0.0
3.849652 1.725866 -0.000221 0.0
2.528966 1.626882 0.002841 0.0
2.445120 1.639037 0.003967 0.0
3.438458 0.530272 0.001177 0.0
4.678607 1.731484 -0.001015 0.0
4.391254 1.622036 -0.001538 0.0
3.559291 0.005079 0.001318 0.0
3.596791 0.885175 -0.003862 0.0
3.468423 0.458749 0.003338 0.0
3.570709 0.585957 -0.001947 0.0
1.643768 0.683137 -0.001853 0.0
2.754215 1.517667 -0.002205 0.0
4.077371 1.856582 0.002470 0.0
1.566885 1.423559 0.002168 0.0
2.423640 1.003935 0.000352 0.0
2.901127 1.079444 -0.002751 0.0
0.350247 1.327843 -0.002259 0.0
1.503012 1.811610 -0.001848 0.0
0.834822 1.122118 -0.000144 0.0
2.906796 0.720933 -0.001534 0.0
2.451843 0.434136 -0.002130 0.0
2.187295 0.995085 0.001467 0.0
0.097234 0.631318 0.001685 0.0
2.599921 1.621729 -0.001190 0.0
2.328441 0.221122 0.000213 0.0
0.523310 0.941394 0.000939 0.0
3.218887 1.070022 0.002455 0.0
1.495038 0.179700 -0.003789 0.0
2.813038 0.597831 0.001064 0.0
3.730591 0.160083 -0.000489 0.0
3.605837 0.600090 0.002143 0.0
1.002128 1.761315 0.000128 0.0
4.096452 0.378981 0.000737 0.0
2.610561 0.124979 -0.000891 0.0
1.258023 0.981388 0.000404 0.0
3.229122 1.631968 0.002937 0.0
1.576991 1.433029 0.001349 0.0
0.818873 0.783664 0.003744 0.0
1.194416 1.314732 -0.000526 0.0
2.486028 1.168888 0.007432 0.0
4.022515 1.818046 0.002717 0.0
4.433144 1.296868 -0.002280 0.0
3.795678 1.511370 -0.002782 0.0
3.705192 1.131897 -0.000600 0.0
4.353941 0.390574 0.000571 0.0
3.742603 1.466184 -0.000666 0.0
1.950492 0.683074 0.002528 0.0
2.351907 1.681367 0.002727 0.0
4.109431 1.706044 -0.001168 0.0
3.033617 0.116660 0.000931 0.0
0.699369 0.893287 0.004151 0.0
4.459712 0.202685 0.006344 0.0
3.721978 1.395401 0.002869 0.0
2.835429 0.563857 -0.002598 0.0
3.349251 1.123568 0.001332 0.0
0.448158 0.150044 -0.001681 0.0
2.012398 0.172301 0.001644 0.0
3.553337 1.741524 -0.002619 0.0
1.832690 1.473973 -0.005429 0.0
1.772670 1.215139 -0.000679 0.0
1.790751 1.816211 -0.003036 0.0
1.665071 0.233578 0.000512 0.0
0.036082 1.860046 0.000783 0.0
2.896494 0.912216 0.003303 0.0
3.080230 0.050476 0.000844 0.0
1.027481 0.941158 0.000988 0.0
2.612168 1.862294 -0.000766 0.0
3.566128 1.635214 0.001203 0.0
4.298887 1.344868 -0.000085 0.0
4.380980 0.000120 -0.001137 0.0
2.385402 0.584299 0.002185 0.0
0.086185 1.008634 0.001229 0.0
0.468762 0.648815 0.000332 0.0
2.625725 0.142036 -0.000929 0.0
2.217528 1.436783 0.000184 0.0
0.266318 0.841990 0.003446 0.0
3.809885 1.134097 -0.001860 0.0
0.730401 1.534614 -0.005354 0.0
0.013538 1.094670 -0.001532 0.0
1.156815 1.523872 -0.001686 0.0
3.379818 0.100842 -0.000266 0.0
2.881871 0.695075 0.000112 0.0
2.853982 1.074088 0.001133 0.0
0.965144 1.840149 0.003825 0.0
1.228741 0.539306 0.000894 0.0
1.312797 0.364567 -0.002674 0.0
4.695564 1.082529 0.003341 0.0
3.117982 1.014162 -0.001282 0.0
3.617218 1.322013 0.002596 0.0
0.897686 1.003636 0.000279 0.0
1.777557 1.826240 0.002580 0.0
0.572497 0.873497 0.003394 0.0
4.340926 0.615697 0.000391 0.0
0.219495 1.832265 0.001170 0.0
-0.000484 0.987188 -0.000732 0.0
3.865038 1.187191 -0.002702 0.0
4.569875 0.531463 -0.000492 0.0
1.511855 0.065366 -0.000255 0.0
1.886738 0.573306 -0.002740 0.0
0.160788 0.230879 -0.002072 0.0
4.020420 1.080332 -0.001388 0.0
1.995549 1.369970 0.004500 0.0
2.745348 1.833997 0.000185 0.0
3.293511 0.817485 0.004041 0.0
1.501154 0.374553 0.001616 0.0
2.321720 0.404006 -0.001395 0.0
4.523002 1.545075 0.001778 0.0
1.026511 1.420041 -0.001466 0.0
1.707623 1.093642 0.002314 0.0
0.066242 0.727429 -0.002683 0.0
4.410204 1.823775 0.002558 0.0
1.494935 1.711930 0.000678 0.0
1.485189 1.059574 -0.000835 0.0
2.119854 1.602365 0.000071 0.0
4.559462 0.589251 0.002830 0.0
0.072605 1.856042 -0.000357 0.0
3.153655 0.387323 0.007361 0.0
3.696090 0.225272 0.001679 0.0
1.280791 0.813255 0.000065 0.0
0.172997 0.150289 -0.004210 0.0
2.047881 1.790476 -0.000327 0.0
4.603314 0.815111 0.001781 0.0
1.014272 0.065747 -0.006635 0.0
3.038098 1.584434 0.001543 0.0
0.878919 0.553428 0.003458 0.0
4.475489 1.498810 0.004056 0.0
0.274714 0.835350 0.002067 0.0
2.416432 0.686682 0.002093 0.0
2.363207 1.502398 0.000650 0.0
1.496043 0.167651 0.000769 0.0
2.379269 1.844508 -0.001207 0.0
2.442033 0.932064 0.001595 0.0
0.907976 1.625238 -0.002123 0.0
3.662908 0.373064 -0.001535 0.0
1.288403 0.881184 -0.000739 0.0
2.267385 0.798836 0.000918 0.0
3.606135 0.116357 0.005368 0.0
3.624170 0.893247 -0.001455 0.0
2.457734 1.260730 0.000470 0.0
2.714563 0.441540 -0.000303 0.0
4.454845 0.687356 0.000033 0.0
2.688559 1.516769 0.001966 0.0
1.839685 1.052529 -0.002209 0.0
0.676599 0.692793 0.002423 0.0
1.017805 0.998545 -0.003491 0.0
2.890856 1.462182 -0.004425 0.0
3.366242 0.080666 0.003201 0.0
2.117281 1.695223 -0.004714 0.0
1.877688 0.784065 -0.003572 0.0
0.499938 1.368479 -0.003559 0.0
4.683303 0.886751 -0.000156 0.0
2.174102 0.950903 -0.002943 0.0
0.192473 0.856198 -0.001392 0.0
3.416986 0.980466 -0.001044 0.0
1.279087 0.183004 -0.002537 0.0
0.493851 0.559105 0.003231 0.0
0.027546 0.139586 -0.000463 0.0
1.337336 1.869129 -0.002726 0.0
4.553384 1.093974 -0.001471 0.0
4.226272 1.854920 -0.002262 0.0
1.674597 1.415257 0.000360 0.0
4.531912 0.484637 -0.001803 0.0
2.067815 1.082563 -0.003101 0.0
3.533675 1.595017 0.001165 0.0
1.909162 0.962963 0.000224 0.0
2.484475 1.589553 0.000451 0.0
1.027223 1.595196 -0.005458 0.0
0.370831 1.656924 -0.001923 0.0
3.026348 1.147639 0.000183 0.0
1.936289 1.648765 0.002955 0.0
1.796912 1.731943 -0.004123 0.0
1.708789 0.234606 0.003789 0.0
3.132649 1.531713 -0.000365 0.0
2.293586 1.321883 0.006729 0.0
3.270261 1.531857 -0.003182 0.0
0.643761 1.554893 -0.000718 0.0
0.630097 0.572664 -0.001757 0.0
0.761008 1.625937 0.000708 0.0
3.927109 0.341354 0.001233 0.0
1.852673 1.745423 0.000401 0.0
3.191615 0.626707 -0.004875 0.0
4.408291 1.010705 -0.000448 0.0
0.909799 1.381209 0.001764 0.0
1.009023 1.461632 0.000874 0.0
0.513410 0.590702 0.005499 0.0
2.690427 1.045697 -0.002186 0.0
4.000764 1.808187 -0.002604 0.0
4.625450 1.089054 0.000461 0.0
3.590289 1.457846 0.002051 0.0
0.198391 1.480601 -0.003037 0.0
1.485642 1.001914 -0.001808 0.0
1.755363 1.441867 -0.000345 0.0
4.311599 1.621389 -0.001207 0.0
1.311285 1.412963 0.003335 0.0
2.628583 0.426448 -0.002147 0.0
2.509019 0.364160 0.001046 0.0
4.686465 0.923597 -0.002620 0.0
4.000181 0.536645 -0.000910 0.0
0.192345 0.973652 0.001656 0.0
1.280919 0.460998 -0.003306 0.0
1.910542 0.657623 -0.003521 0.0
2.489457 0.118973 0.002467 0.0
0.485502 1.314444 0.000500 0.0
0.281286 1.324737 -0.001616 0.0
3.224026 1.058105 0.002681 0.0
2.497176 1.167036 0.000440 0.0
0.542087 0.087443 -0.003124 0.0
4.242927 0.266443 0.000686 0.0
2.783888 1.026629 -0.001582 0.0
1.068199 1.482362 0.002012 0.0
3.951550 1.159775 0.003290 0.0
3.679225 1.767203 -0.005489 0.0
2.560041 0.067920 -0.000585 0.0
0.397348 0.231927 -0.000474 0.0
4.255353 1.686394 0.000290 0.0
2.327691 0.464019 0.001049 0.0
3.439139 0.262902 0.003668 0.0
3.627733 0.731541 0.001016 0.0
1.293372 0.535216 -0.001706 0.0
2.212448 0.828210 0.002324 0.0
4.296219 0.462499 0.002366 0.0
0.655997 1.173799 0.001897 0.0
0.786013 1.850761 0.001099 0.0
0.388174 1.307302 -0.000054 0.0
2.117247 0.145205 -0.004258 0.0
4.365841 1.240291 0.003177 0.0
0.367923 1.590841 0.000661 0.0
2.050766 1.300969 0.000998 0.0
4.633802 1.485662 -0.000440 0.0
3.367622 0.251267 0.000507 0.0
4.519248 1.346571 -0.000778 0.0
2.015356 1.302422 -0.001496 0.0
3.163389 0.172948 0.001687 0.0
0.445914 0.595765 0.000705 0.0
1.685238 1.453740 -0.003763 0.0
2.558027 1.077235 -0.004821 0.0
2.435167 0.872778 -0.001983 0.0
2.408286 0.100732 0.002967 0.0
0.412110 1.316956 -0.001188 0.0
3.664859 0.727234 -0.001313 0.0
3.946215 0.300836 -0.003334 0.0
3.464459 1.410223 -0.001921 0.0
1.510434 0.181858 0.000322 0.0
2.205910 0.738666 -0.000824 0.0
1.289303 0.669491 0.002161 0.0
4.475617 1.627813 -0.004124 0.0
0.916925 1.007794 0.002044 0.0
1.673592 1.695965 -0.005824 0.0
0.704001 0.462591 0.000488 0.0
4.402537 1.835867 -0.002060 0.0
3.751498 1.745773 -0.005921 0.0
2.963488 0.298605 -0.001382 0.0
2.761163 1.664219 0.002119 0.0
1.776341 1.503760 0.004273 0.0
3.277553 1.094045 0.001583 0.0
0.070065 1.316776 -0.002223 0.0
3.890983 0.549159 -0.000466 0.0
0.171336 1.618222 0.001393 0.0
1.996141 0.844023 0.001828 0.0
1.713180 1.480265 -0.003426 0.0
2.353985 1.420698 0.001833 0.0
0.640162 0.776809 0.000652 0.0
0.362103 0.511846 0.001054 0.0
1.212317 1.399382 -0.002565 0.0
1.755621 0.641219 -0.000142 0.0
4.275994 1.162151 -0.003925 0.0
2.602056 1.215398 0.001868 0.0
3.746171 0.190297 -0.004283 0.0
1.069403 0.115875 0.001424 0.0
3.719260 1.688782 -0.002498 0.0
3.683729 0.505050 0.001942 0.0
4.337665 1.511157 0.000548 0.0
1.703603 1.569202 0.000874 0.0
1.443712 0.998026 -0.004403 0.0
2.033804 0.086648 -0.002591 0.0
3.151151 1.079352 -0.000971 0.0
0.579190 1.676062 -0.003654 0.0
1.351124 0.957917 0.000277 0.0
1.012495 1.098047 0.004155 0.0
3.016285 0.055145 0.002386 0.0
3.030666 0.667669 0.000296 0.0
4.182566 0.499355 -0.003516 0.0
2.030539 0.337864 -0.004297 0.0
1.190928 1.502186 -0.000634 0.0
1.206876 1.234729 0.002532 0.0
1.340791 0.718094 0.000890 0.0
4.429101 0.028455 0.002723 0.0
2.834941 0.926850 0.001787 0.0
2.886269 0.485556 0.000537 0.0
4.116284 0.171120 0.002759 0.0
3.370703 1.571600 -0.001429 0.0
0.776981 1.653267 0.000315 0.0
0.679193 1.853383 0.001790 0.0
1.680022 1.414903 -0.003603 0.0
0.280701 0.602644 -0.005491 0.0
0.769856 0.638972 0.001622 0.0
2.327166 1.155515 0.003298 0.0
3.851405 1.548335 0.000125 0.0
0.538074 1.011220 -0.000495 0.0
1.449472 0.903425 0.003177 0.0
1.996866 1.840960 -0.001442 0.0
1.700142 1.795709 -0.003421 0.0
0.291010 1.538604 0.000176 0.0
3.570092 1.252196 0.000600 0.0
0.450893 0.402079 0.002111 0.0
3.292914 1.331934 -0.000947 0.0
2.686021 1.432876 0.002209 0.0
2.908175 1.821027 -0.004345 0.0
0.283115 1.762146 -0.000683 0.0
3.802291 0.990477 -0.002214 0.0
1.304312 1.711362 0.001678 0.0
1.955263 1.002863 0.001156 0.0
0.917290 1.480003 -0.000633 0.0
0.388060 0.546438 0.003152 0.0
1.410097 0.474311 -0.003364 0.0
2.957982 0.381071 -0.003210 0.0
3.775216 1.850233 0.002985 0.0
0.427381 0.405297 -0.003775 0.0
2.918376 0.276011 0.000687 0.0
0.324316 0.064053 -0.000835 0.0
1.983173 0.665343 0.003095 0.0
0.881033 1.623544 0.001673 0.0
1.687486 1.260675 0.002330 0.0
2.309309 1.007727 -0.001433 0.0
3.837562 1.327280 0.002213 0.0
2.393129 1.710797 -0.002335 0.0
3.260554 1.433916 -0.000221 0.0
3.849067 0.058698 -0.005324 0.0
4.193757 0.857216 0.000241 0.0
4.686401 0.554380 0.000976 0.0
1.643538 0.926374 -0.002958 0.0
1.868243 1.043285 -0.005583 0.0
3.359081 0.093711 -0.000227 0.0
2.702866 0.214650 -0.000046 0.0
1.811196 1.216791 -0.003106 0.0
4.015151 1.401388 -0.002030 0.0
0.819397 0.894002 -0.001286 0.0
2.552474 0.916663 0.000733 0.0
3.067335 0.808882 0.004427 0.0
4.569888 0.054902 0.000859 0.0
0.918640 0.516492 0.002345 0.0
0.160034 0.151508 0.001791 0.0
4.340672 1.029694 0.000045 0.0
2.661639 1.520046 -0.000520 0.0
2.890621 0.393401 0.000197 0.0
2.764208 1.206484 -0.001063 0.0
0.530032 1.349477 -0.004290 0.0
0.339788 1.209761 -0.001012 0.0
1.260627 1.680351 0.000161 0.0
4.294244 0.485937 -0.002577 0.0
2.384489 0.153006 0.004504 0.0
1.211181 1.844698 0.000231 0.0
0.989062 1.062069 -0.003387 0.0
4.164680 1.324977 0.003273 0.0
2.254390 0.523321 0.000060 0.0
3.205073 0.558795 0.002369 0.0
1.639764 1.577916 0.002215 0.0
0.644152 1.394234 0.000386 0.0
3.611397 1.221834 0.003409 0.0
2.420076 1.649646 0.004989 0.0
1.018152 1.764332 -0.000534 0.0
2.219031 1.551069 0.000769 0.0
0.212191 0.620408 0.000147 0.0
1.747705 1.056402 0.000670 0.0
0.171447 1.696196 -0.000918 0.0
4.604917 0.369736 -0.001109 0.0
4.355318 0.787977 -0.004740 0.0
2.636778 0.862862 0.003360 0.0
4.229460 0.534387 -0.001974 0.0
1.193119 1.247156 -0.000695 0.0
1.733473 0.036618 0.002144 0.0
2.831759 1.767698 -0.000017 0.0
0.849366 0.288319 0.001934 0.0
0.435872 1.840641 -0.000934 0.0
0.889996 0.495079 0.003134 0.0
2.632403 0.571587 0.001213 0.0
4.499502 1.054590 -0.004572 0.0
3.068671 0.129369 -0.005198 0.0
3.712943 0.127081 0.005783 0.0
1.557332 1.874375 -0.003483 0.0
3.411270 1.737134 -0.001186 0.0
4.102249 0.742015 0.002257 0.0
1.941270 0.846986 0.000130 0.0
2.255369 1.259500 0.001608 0.0
0.540547 1.324860 -0.000803 0.0
3.902060 0.381304 -0.000324 0.0
0.842451 1.271810 0.002708 0.0
1.343335 0.287599 0.000765 0.0
0.634974 0.245436 -0.000147 0.0
4.265068 0.807307 0.001515 0.0
4.415161 0.653814 -0.001846 0.0
2.701872 0.801374 0.001603 0.0
1.197687 1.089394 -0.001159 0.0
1.075998 1.823140 -0.002157 0.0
2.126264 1.313795 -0.003192 0.0
0.304165 0.900367 0.001500 0.0
0.452845 1.637919 -0.000670 0.0
1.174077 1.772810 0.000259 0.0
2.941061 0.857699 -0.000767 0.0
4.328949 0.510352 0.003245 0.0
4.016034 0.603718 -0.002609 0.0
2.231345 1.155849 -0.001573 0.0
4.477564 0.354333 0.001429 0.0
1.430679 0.387125 -0.004678 0.0
2.802526 1.312748 -0.004553 0.0
1.156758 1.207124 -0.002025 0.0
4.489268 0.634434 0.002254 0.0
3.534192 0.511873 0.001167 0.0
2.005344 1.274602 -0.000123 0.0
2.010394 0.565650 0.000535 0.0
2.976297 1.390960 0.001404 0.0
0.751876 1.420854 0.001873 0.0
2.553703 0.397273 -0.002641 0.0
1.887831 0.223521 -0.001754 0.0
0.363858 0.578700 -0.001037 0.0
1.715150 0.588343 0.000237 0.0
3.377244 1.444166 0.004484 0.0
1.483277 0.978661 -0.000191 0.0
3.130505 0.915633 0.003739 0.0
1.318698 0.601695 0.002156 0.0
1.494505 0.486807 0.004082 0.0
3.777675 0.323782 0.002443 0.0
1.095563 0.021084 -0.005570 0.0
3.024307 1.879752 0.000859 0.0
1.753205 1.230202 0.004831 0.0
4.530274 0.907320 0.001281 0.0
3.683684 0.774288 0.001234 0.0
1.080958 0.447844 0.010698 0.0
0.294361 1.498186 -0.001532 0.0
2.391452 0.068468 0.006034 0.0
2.533936 0.778886 -0.000289 0.0
1.334132 1.346471 0.002722 0.0
3.017627 1.316364 0.002894 0.0
2.576673 0.034760 0.000118 0.0
0.771125 1.065234 -0.001307 0.0
2.645308 1.088865 0.000607 0.0
0.564153 0.377270 0.002821 0.0
0.417359 0.236274 -0.000900 0.0
2.396542 1.395227 0.000441 0.0
4.194676 1.246970 -0.002261 0.0
3.748710 1.500639 0.001595 0.0
0.411102 0.815961 0.001970 0.0
0.387513 0.112209 0.001368 0.0
0.391156 0.497172 -0.000167 0.0
3.729665 0.197183 0.001031 0.0
2.592616 1.218088 -0.000350 0.0
1.446878 0.798270 0.004020 0.0
2.801251 0.802425 -0.000795 0.0
1.958487 0.150016 0.002291 0.0
2.104346 1.397408 -0.001521 0.0
1.430646 1.392291 -0.004081 0.0
2.059771 1.499751 -0.000095 0.0
1.082606 1.422975 0.000498 0.0
4.069187 0.666925 -0.001060 0.0
2.384007 1.010564 0.000946 0.0
4.095078 1.847665 0.002846 0.0
4.678401 1.823772 -0.002327 0.0
0.694737 0.303325 -0.003210 0.0
3.561264 0.137426 0.001819 0.0
1.706379 0.794096 0.002367 0.0
0.585854 1.321175 0.004091 0.0
4.146668 1.357993 0.001262 0.0
2.778473 1.134096 -0.003791 0.0
1.151946 1.853105 -0.000358 0.0
0.125462 0.048877 0.004260 0.0
0.569960 1.128117 -0.001882 0.0
1.249136 0.818558 0.001738 0.0
4.627023 0.342709 0.000899 0.0
3.650797 1.413544 -0.001419 0.0
2.448759 0.347299 0.003319 0.0
1.205657 1.524095 0.004489 0.0
2.551293 0.565714 -0.001454 0.0
4.017981 1.837918 0.000772 0.0
4.333414 0.265661 0.004246 0.0
3.449668 1.877648 0.002743 0.0
1.903310 1.470052 -0.000403 0.0
3.266173 0.882095 0.000411 0.0
0.231258 1.676094 0.000674 0.0
3.721464 1.481718 0.001129 0.0
0.903415 0.934206 0.002565 0.0
3.212346 1.360116 -0.003309 0.0
1.818967 1.056090 -0.004555 0.0
3.742621 0.141015 -0.001285 0.0
0.998490 0.617861 0.002694 0.0
2.806658 0.787746 -0.002968 0.0
1.542372 0.772297 0.003112 0.0
0.735955 0.224681 0.000626 0.0
4.103431 1.118558 0.000782 0.0
0.609808 0.213181 -0.002718 0.0
4.042145 0.673981 -0.005824 0.0
2.255928 1.572596 0.002151 0.0
0.699430 0.850370 0.001573 0.0
4.280359 0.970946 0.003502 0.0
3.296057 0.128073 -0.002120 0.0
2.904910 0.650273 0.000030 0.0
2.227199 0.143914 0.001539 0.0
3.215283 0.841150 0.002267 0.0
1.826166 1.744901 0.002098 0.0
2.253218 1.766772 -0.000080 0.0
2.419665 0.690836 0.000355 0.0
2.652490 0.817746 -0.000355 0.0
4.209184 0.889410 -0.003906 0.0
1.287662 0.153109 -0.000459 0.0
4.080701 0.843955 0.001584 0.0
2.871332 1.530638 0.000813 0.0
0.430391 0.279831 0.001266 0.0
2.052708 1.395818 -0.002940 0.0
2.645231 1.369862 0.001528 0.0
0.979439 0.848667 -0.000722 0.0
2.557224 1.816463 0.004605 0.0
1.530621 1.772878 0.002077 0.0
2.732447 1.585264 -0.002134 0.0
1.780135 1.177024 -0.002605 0.0
2.519987 1.776890 0.000659 0.0
2.699842 1.710698 0.001561 0.0
2.557758 0.899086 0.000107 0.0
4.243654 1.787272 -0.001625 0.0
2.961002 1.230049 -0.002075 0.0
3.348356 0.856875 0.000979 0.0
3.185262 1.690557 -0.003016 0.0
1.536681 0.506778 0.002444 0.0
1.625522 0.571712 -0.000897 0.0
0.597257 0.525282 -0.001394 0.0
3.405251 0.531840 -0.001895 0.0
4.507382 0.246615 0.002173 0.0
4.517872 0.158551 -0.003496 0.0
2.502138 0.489370 0.002544 0.0
0.743944 0.527732 -0.000032 0.0
2.177602 1.375027 -0.002338 0.0
3.742620 1.260189 -0.003071 0.0
1.524818 1.752010 -0.000161 0.0
2.534926 0.701442 -0.000875 0.0
3.064267 0.807244 0.005327 0.0
4.105713 1.053682 0.001237 0.0
2.271237 0.608341 -0.003256 0.0
0.484414 1.427674 -0.000420 0.0
1.784926 0.312393 -0.002954 0.0
3.370986 1.005636 0.000374 0.0
3.236760 1.306856 -0.001347 0.0
0.489827 0.931943 0.004401 0.0
0.886400 1.806044 -0.000693 0.0
2.818826 0.341805 0.001329 0.0
0.270596 1.565053 0.002068 0.0
0.347408 0.531409 -0.001668 0.0
1.017601 1.877802 0.000479 0.0
3.071294 0.147381 0.002899 0.0
2.568886 0.221580 -0.002832 0.0
1.597389 0.889584 0.001070 0.0
1.532694 0.132435 -0.001235 0.0
3.259527 0.365899 -0.002512 0.0
1.970294 0.134055 0.001858 0.0
4.308557 1.309438 -0.000598 0.0
2.185435 0.088859 -0.006125 0.0
0.989924 1.376491 0.003258 0.0
2.040785 0.148166 -0.001688 0.0
4.216288 0.342489 0.004934 0.0
1.716948 1.227141 0.006414 0.0
2.544315 1.736803 0.002466 0.0
4.537631 1.336074 -0.000669 0.0
1.019331 1.467334 -0.000429 0.0
0.347678 1.666557 0.000926 0.0
2.343225 1.496183 -0.001499 0.0
1.582543 0.279247 0.003195 0.0
2.237967 1.436723 -0.003819 0.0
4.482608 0.177117 -0.001529 0.0
2.107131 0.255874 -0.000611 0.0
3.105968 1.277917 -0.002067 0.0
0.916718 0.076452 -0.001501 0.0
0.754147 0.556525 0.002509 0.0
4.139927 1.152504 -0.000996 0.0
0.306877 1.378325 0.000868 0.0
0.337208 0.298853 0.002236 0.0
1.107343 0.055086 0.000914 0.0
4.162345 0.241477 0.004991 0.0
2.492118 1.386466 0.002482 0.0
3.677286 1.484380 -0.001623 0.0
4.482683 1.362893 0.001587 0.0
3.122963 0.813707 0.001848 0.0
3.404364 0.095413 -0.000146 0.0
4.351792 1.212453 0.004698 0.0
4.423479 1.155834 0.001306 0.0
4.437536 0.476314 0.000655 0.0
0.020882 0.226355 -0.002269 0.0
0.508885 0.498702 -0.003333 0.0
2.870456 1.093385 -0.000980 0.0
4.601140 1.785588 -0.000726 0.0
3.445839 1.315943 0.002532 0.0
2.562097 0.459776 0.002092 0.0
2.226128 0.214978 0.000367 0.0
0.603194 1.727076 -0.002291 0.0
4.269241 1.273209 0.004606 0.0
3.758658 1.504399 0.003218 0.0
4.102538 1.827744 -0.003765 0.0
3.649686 1.095484 0.002302 0.0
3.919893 1.041109 0.000131 0.0
1.600923 0.832468 -0.002783 0.0
1.311373 1.368965 -0.000505 0.0
0.861200 0.921173 -0.003532 0.0
0.038911 0.043750 -0.000366 0.0
0.127088 1.428869 -0.002138 0.0
2.227972 0.901883 -0.003399 0.0
1.218874 1.150238 -0.003326 0.0
1.417719 1.292876 0.005917 0.0
1.209888 0.600221 0.000529 0.0
4.311986 1.299713 0.001626 0.0
2.721684 0.320725 0.000088 0.0
4.435001 0.611880 0.002243 0.0
3.729034 1.113317 0.000088 0.0
3.587054 1.331293 -0.000196 0.0
3.983131 1.760589 0.002400 0.0
4.417859 1.616189 -0.000944 0.0
0.590957 0.157952 -0.006952 0.0
4.215646 0.958149 0.001359 0.0
0.808084 0.767672 0.001401 0.0
0.646492 0.484164 -0.002690 0.0
1.302619 0.448586 -0.000747 0.0
1.425001 0.131790 -0.001702 0.0
4.276152 0.621262 -0.004799 0.0
0.213159 0.191131 0.000009 0.0
3.786318 0.162032 0.003853 0.0
3.790339 1.842292 -0.002502 0.0
4.561427 1.752554 -0.000288 0.0
1.847636 0.296342 0.000824 0.0
3.276170 0.778455 -0.001934 0.0
1.714717 0.421445 -0.002054 0.0
0.344250 0.140603 -0.000178 0.0
3.741085 0.338691 0.001357 0.0
1.160510 0.863301 -0.001392 0.0
0.310729 1.012246 -0.000970 0.0
1.625068 0.244060 -0.005990 0.0
0.285692 1.127556 -0.001700 0.0
4.674694 1.853354 -0.000145 0.0
3.894875 1.754649 -0.003144 0.0
2.950598 0.574057 0.000785 0.0
0.343227 0.806842 -0.000438 0.0
0.337210 0.901534 -0.003423 0.0
0.179988 0.266447 0.004346 0.0
2.050821 0.043934 -0.000154 0.0
3.171352 1.756307 0.000142 0.0
3.785991 1.387107 0.002533 0.0
0.427076 0.397198 -0.000391 0.0
3.371917 1.753555 -0.003614 0.0
2.860907 1.197881 0.000887 0.0
1.553707 0.411422 0.002808 0.0
4.556174 1.682626 0.000511 0.0
0.907282 0.426905 0.001339 0.0
1.601386 1.401970 0.002883 0.0
3.432745 0.578621 0.002948 0.0
3.778109 1.588539 -0.002054 0.0
3.255915 1.098112 0.001774 0.0
4.252580 0.297688 -0.002039 0.0
4.498581 1.719363 -0.000273 0.0
4.426883 0.047217 -0.002620 0.0
1.033915 0.851997 -0.000150 0.0
1.954406 1.319942 0.001803 0.0
1.076499 0.111391 0.002122 0.0
4.166785 0.641271 -0.000689 0.0
0.741225 0.115050 0.001251 0.0
0.026806 1.547129 0.003973 0.0
0.027235 0.417464 0.000547 0.0
0.200304 1.870524 -0.000296 0.0
2.764509 1.840317 0.001443 0.0
3.431045 0.675487 -0.003359 0.0
3.801142 1.753756 0.001675 0.0
1.168051 1.201332 -0.003898 0.0
2.811810 1.084601 -0.001107 0.0
4.512012 1.145679 -0.002790 0.0
0.198798 1.146045 0.005295 0.0
1.295552 1.774975 -0.002175 0.0
0.100275 1.676593 -0.001104 0.0
1.784700 0.676523 0.000676 0.0
2.359241 0.432046 0.004996 0.0
3.505867 0.815610 -0.002716 0.0
2.501720 1.656548 0.003409 0.0
4.540876 0.819088 -0.003270 0.0
0.753815 0.055972 -0.004632 0.0
1.558500 0.057773 -0.000431 0.0
2.699654 1.058475 0.000691 0.0
4.022502 1.160555 0.002266 0.0
2.770640 0.323192 -0.001017 0.0
3.523645 0.829224 -0.002202 0.0
3.186116 0.298519 0.002067 0.0
2.401617 1.462025 0.006436 0.0
0.899148 0.235700 -0.000401 0.0
1.445997 1.783628 -0.001247 0.0
3.686614 1.101318 -0.001155 0.0
3.196910 1.077476 -0.000103 0.0
4.360174 0.764015 -0.002841 0.0
1.451253 1.057654 -0.003078 0.0
2.524414 0.055523 -0.003248 0.0
0.306831 1.044154 0.000150 0.0
0.132518 1.175139 -0.001690 0.0
0.380000 1.476527 -0.000147 0.0
3.028661 1.706537 -0.002924 0.0
4.623141 0.773500 0.000552 0.0
1.119302 0.453279 0.001468 0.0
1.168009 0.297480 -0.000011 0.0
3.542953 0.616236 0.000464 0.0
1.438092 0.174975 0.000572 0.0
1.327659 0.471092 -0.000830 0.0
0.012742 0.244352 0.000254 0.0
1.328061 1.637065 -0.003109 0.0
1.624404 1.818067 0.000729 0.0
2.256621 1.664054 -0.001856 0.0
2.857210 1.286864 0.005786 0.0
3.969415 0.319876 -0.002370 0.0
1.198049 1.796071 0.000919 0.0
3.521849 1.794938 0.002298 0.0
0.424105 0.339934 -0.002196 0.0
2.219314 1.403623 0.000403 0.0
3.417095 0.448438 0.000406 0.0
0.516401 0.797445 0.003386 0.0
1.881902 0.806386 0.000035 0.0
1.067966 0.290668 0.001387 0.0
1.333681 1.467171 0.002122 0.0
0.931773 1.875034 0.000518 0.0
1.442961 0.439080 -0.000474 0.0
1.056205 1.098924 0.003543 0.0
3.696541 0.098884 0.001365 0.0
2.875077 0.198246 -0.002756 0.0
0.567813 1.565513 0.001871 0.0
2.053922 0.478611 0.002411 0.0
2.934865 0.095129 0.001099 0.0
1.710790 0.977636 -0.004367 0.0
4.251792 0.442429 0.000361 0.0
4.443881 0.997386 0.001633 0.0
0.887939 0.840726 0.000039 0.0
4.146693 0.501604 0.000295 0.0
3.552304 1.881298 -0.001085 0.0
0.657075 1.122256 0.001626 0.0
3.444536 0.546574 0.002461 0.0
4.019051 0.666753 0.001271 0.0
1.275289 0.234643 -0.001722 0.0
3.144668 1.693766 -0.002489 0.0
0.512337 1.368926 0.000434 0.0
1.191307 0.866416 -0.000107 0.0
1.844862 1.378494 -0.003768 0.0
3.570587 1.109673 -0.002811 0.0
2.050434 0.567893 -0.001103 0.0
3.793001 0.553082 -0.000951 0.0
3.123509 1.389898 -0.000812 0.0
0.900429 1.741108 -0.004315 0.0
1.553193 0.231707 -0.001156 0.0
1.588914 1.553550 0.001803 0.0
3.111202 0.422295 0.005079 0.0
3.135992 0.627072 0.003160 0.0
1.300044 0.401382 -0.002796 0.0
2.743554 0.572083 0.000496 0.0
1.223949 0.410255 0.000859 0.0
0.622508 1.547912 -0.000147 0.0
3.742062 1.541365 0.000796 0.0
2.507199 1.055085 0.000070 0.0
0.658206 0.926178 -0.003088 0.0
0.226919 0.197967 -0.002999 0.0
1.257446 1.869804 -0.002161 0.0
3.290458 0.117309 -0.003652 0.0
0.591532 0.284075 -0.003172 0.0
4.630954 0.159038 0.001393 0.0
2.335647 0.872046 0.001113 0.0
2.893618 0.166956 -0.002863 0.0
4.534377 0.594599 0.000015 0.0
1.634125 0.001976 -0.001181 0.0
3.233053 0.078251 -0.001535 0.0
2.316800 1.585212 -0.000750 0.0
3.120151 1.069973 0.000983 0.0
0.186142 1.028729 -0.000846 0.0
0.199800 1.673356 -0.001435 0.0
0.608660 0.566687 -0.001487 0.0
4.323910 1.572913 0.001110 0.0
1.714431 1.113862 -0.001143 0.0
0.623689 0.302894 0.001495 0.0
3.477265 1.253049 0.001701 0.0
3.858258 0.085049 -0.000142 0.0
2.603025 1.645496 0.001597 0.0
3.985440 0.662193 0.003217 0.0
3.600777 0.005012 -0.003001 0.0
1.941465 0.804395 0.005173 0.0
1.479854 1.802556 -0.002694 0.0
0.793064 1.424137 0.002197 0.0
2.192316 1.340284 -0.000863 0.0
4.610549 0.526053 0.001046 0.0
3.526137 1.588292 0.001891 0.0
0.176325 0.689009 0.001683 0.0
2.123264 1.725687 0.000640 0.0
1.450821 0.161498 -0.000083 0.0
1.361377 1.137943 0.000080 0.0
2.044820 1.708243 -0.004108 0.0
4.524585 1.346147 -0.000026 0.0
1.661199 0.799503 0.004917 0.0
3.062044 0.598172 0.000213 0.0
0.144161 0.276739 0.000926 0.0
0.320855 0.318388 -0.003195 0.0
0.940686 0.235659 -0.003131 0.0
1.412589 0.230766 -0.001835 0.0
0.021220 0.190904 -0.001346 0.0
2.144543 0.335777 0.000403 0.0
1.238763 0.358230 0.003019 0.0
0.727022 1.140028 -0.003805 0.0
0.030492 0.599126 0.005343 0.0
0.885926 1.501422 0.000590 0.0
0.729826 0.446363 0.000128 0.0
3.182416 1.491929 0.000353 0.0
3.214574 0.950609 0.002706 0.0
4.373810 1.133629 0.002465 0.0
4.530768 1.648463 0.001053 0.0
1.976597 0.131103 0.004359 0.0
0.853019 0.166783 -0.000157 0.0
3.045385 0.651080 -0.000278 0.0
1.397913 0.610190 -0.002316 0.0
4.658691 0.701278 0.000390 0.0
2.762654 0.449406 -0.003294 0.0
3.476730 0.811972 0.000424 0.0
1.792911 1.811532 -0.002269 0.0
0.095639 0.181487 -0.002486 0.0
4.071522 1.054348 -0.000232 0.0
3.928920 1.041985 -0.000828 0.0
2.912261 0.453599 -0.002869 0.0
1.184596 0.080324 0.002695 0.0
2.680593 0.985894 0.000033 0.0
2.661099 1.240397 0.004506 0.0
2.957662 0.230311 -0.001800 0.0
2.856734 0.453848 0.000544 0.0
4.426748 1.335245 0.000553 0.0
1.936061 1.761829 0.001805 0.0
0.099013 0.876826 0.000072 0.0
0.935319 1.819319 0.002523 0.0
4.148914 0.253741 0.001191 0.0
3.396188 1.851768 0.001225 0.0
3.968812 1.075178 -0.002374 0.0
1.275806 0.550897 0.000922 0.0
1.039225 1.608605 0.007695 0.0
1.060568 1.556443 0.003661 0.0
1.615848 1.400863 0.002839 0.0
0.909178 0.484535 -0.002053 0.0
3.972546 1.879468 -0.000409 0.0
0.345237 0.739094 0.003016 0.0
3.886195 1.029016 -0.000185 0.0
0.520789 0.396166 0.000664 0.0
2.093254 1.861964 -0.003606 0.0
4.169782 0.566799 -0.005618 0.0
4.099110 1.576987 0.002607 0.0
4.026631 0.488277 -0.001301 0.0
1.175819 0.048636 -0.000115 0.0
0.311066 1.072860 -0.002127 0.0
2.967786 1.454205 -0.002844 0.0
2.343363 0.861781 -0.002575 0.0
3.243713 0.122838 0.001610 0.0
2.215496 1.473244 -0.000331 0.0
2.951580 1.763604 -0.006161 0.0
4.684185 1.452246 -0.001417 0.0
4.668893 1.004235 -0.001604 0.0
4.440206 1.562687 0.001758 0.0
3.213694 0.059551 0.001375 0.0
2.079243 1.269667 -0.003207 0.0
2.037430 0.014350 -0.002027 0.0
3.105946 0.073495 0.001473 0.0
3.032863 0.600161 0.000431 0.0
4.347593 0.346901 0.000143 0.0
4.084404 0.973916 0.003007 0.0
3.006193 1.793883 -0.004682 0.0
0.751865 0.534992 0.002463 0.0
3.726647 0.664422 -0.000086 0.0
3.924938 0.707765 -0.000089 0.0
0.343565 0.981776 -0.000913 0.0
1.528993 1.124504 -0.003246 0.0
0.268211 1.336593 0.002079 0.0
4.558507 0.556109 0.000686 0.0
1.881910 1.493813 0.000906 0.0
3.565218 1.239544 0.005650 0.0
2.130356 0.383671 0.002210 0.0
2.361925 1.276202 0.000153 0.0
0.456361 1.417825 0.002052 0.0
0.614554 0.540618 0.000652 0.0
4.531446 1.809556 -0.000925 0.0
4.159226 1.018890 -0.000863 0.0
2.939306 1.455598 -0.000511 0.0
0.499655 0.123185 -0.002586 0.0
2.121554 1.708762 0.001395 0.0
0.924877 1.479907 -0.001789 0.0
3.960599 1.833960 0.001734 0.0
4.043415 1.276127 0.001783 0.0
1.321506 0.741931 -0.003038 0.0
3.656926 0.172729 -0.000844 0.0
2.678545 1.096823 -0.001463 0.0
2.741565 1.660341 -0.001357 0.0
3.096327 0.383391 0.000742 0.0
2.875775 0.893720 -0.001655 0.0
1.694842 1.469735 -0.000155 0.0
3.312265 1.814300 -0.001620 0.0
3.568824 0.433603 0.000955 0.0
1.081926 1.714095 0.002151 0.0
3.527557 1.077946 0.000848 0.0
0.505479 1.431265 -0.001079 0.0
0.733569 1.151744 0.006707 0.0
1.485943 0.983219 -0.000053 0.0
0.855267 1.031342 -0.000665 0.0
0.233675 0.244605 0.004309 0.0
2.987731 0.394282 0.001435 0.0
3.405422 0.319405 -0.000994 0.0
3.256141 1.465433 -0.001376 0.0
2.180133 0.564241 -0.000107 0.0
2.781604 1.372175 0.004102 0.0
0.580462 0.408647 0.000857 0.0
4.646431 0.451126 0.001552 0.0
4.388843 1.699143 -0.005061 0.0
3.374013 0.390424 0.000508 0.0
1.408147 1.626035 -0.001204 0.0
0.765289 0.340901 -0.000310 0.0
0.622078 1.788549 0.000809 0.0
0.908956 1.819613 -0.001062 0.0
4.674998 0.150110 -0.004140 0.0
3.048802 1.415172 0.002626 0.0
0.998665 0.960686 -0.003789 0.0
0.591680 1.218763 0.005848 0.0
0.641984 1.629760 -0.005828 0.0
0.411056 1.037259 0.002417 0.0
2.197054 1.015406 0.004164 0.0
0.246623 0.219695 -0.000774 0.0
1.908769 0.583907 0.002247 0.0
1.668989 0.382265 0.001660 0.0
3.635578 0.252071 0.002220 0.0
0.118222 1.288232 0.004258 0.0
2.582564 1.080748 0.000975 0.0
3.343546 0.589520 -0.001638 0.0
0.632231 0.381928 -0.002344 0.0
2.232808 0.650664 0.002731 0.0
2.078770 0.200043 0.003401 0.0
1.310616 0.054437 0.001379 0.0
2.342244 0.060500 0.003228 0.0
3.798040 1.537680 -0.001645 0.0
3.768246 1.837340 0.004959 0.0
3.120231 1.510822 -0.000033 0.0
3.382397 0.022297 -0.002097 0.0
2.558184 1.356731 0.002308 0.0
3.747968 0.898391 0.000222 0.0
4.513927 0.218770 0.000111 0.0
1.714039 0.473972 0.002211 0.0
3.705897 1.813617 0.001483 0.0
4.042785 1.201928 0.001303 0.0
1.337416 1.161530 -0.001364 0.0
2.595014 1.249833 0.002103 0.0
0.181544 0.483572 -0.000272 0.0
2.840890 0.198306 -0.002991 0.0
4.441610 0.461073 -0.003853 0.0
2.681473 1.389452 0.002689 0.0
3.959333 0.387374 0.000580 0.0
1.884315 0.595500 0.003442 0.0
0.662785 1.698718 0.001351 0.0
2.833008 1.805525 -0.000956 0.0
2.831049 1.736385 0.002547 0.0
1.272352 0.305350 -0.003512 0.0
1.831508 1.661006 0.003109 0.0
2.876297 1.797466 -0.000590 0.0
2.059841 0.113197 0.002192 0.0
4.169467 1.146325 -0.002886 0.0
4.289530 0.246362 0.002296 0.0
0.731284 0.453435 -0.003072 0.0
0.168989 0.856193 -0.001517 0.0
3.581209 1.254593 -0.003199 0.0
4.484391 0.565354 -0.000175 0.0
0.055476 0.291635 0.003121 0.0
2.157085 1.044397 0.000166 0.0
1.952115 0.706228 -0.001401 0.0
1.543342 1.085471 -0.001106 0.0
0.950052 0.303933 -0.002776 0.0
0.302516 1.132880 0.002187 0.0
2.524934 1.370997 -0.001133 0.0
4.169470 1.871485 -0.000171 0.0
2.903476 0.727461 0.000877 0.0
0.789294 0.074224 0.000004 0.0
3.789410 1.255856 0.001809 0.0
0.553650 1.073718 0.000564 0.0
0.367918 0.024352 0.000284 0.0
2.697753 0.053682 0.001751 0.0
1.937125 1.679653 0.000389 0.0
4.244711 0.482334 0.003565 0.0
2.603684 0.389519 -0.002452 0.0
2.377059 0.319958 -0.001574 0.0
0.564106 0.437761 0.001516 0.0
1.050578 0.160204 0.000475 0.0
3.984949 0.011038 -0.003906 0.0
1.633494 0.631762 -0.001589 0.0
2.676154 1.736668 0.001113 0.0
3.355911 0.071976 -0.000124 0.0
0.726704 0.103459 0.001552 0.0
2.060162 1.476852 0.000355 0.0
1.773861 1.274819 0.000541 0.0
4.052858 1.560433 -0.001409 0.0
0.092554 1.156256 -0.002265 0.0
0.708748 1.101142 -0.001277 0.0
1.166531 1.378298 -0.004938 0.0
2.157061 1.827824 0.000137 0.0
3.901583 1.202670 -0.001099 0.0
3.911951 1.849688 -0.000983 0.0
2.295751 1.554911 -0.000869 0.0
1.415816 0.642118 -0.003439 0.0
1.469005 0.732702 -0.000655 0.0
1.962558 0.118762 0.000263 0.0
4.477131 0.915392 -0.002178 0.0
1.712652 0.493131 0.003866 0.0
3.339626 0.190845 0.001534 0.0
1.881484 0.909355 0.000465 0.0
2.194991 0.641268 0.000404 0.0
1.717731 0.417274 0.000094 0.0
0.880047 0.168211 0.000459 0.0
2.007983 0.997287 0.004236 0.0
3.237907 0.975308 0.000478 0.0
3.526813 0.510031 0.000990 0.0
4.364131 0.311098 0.002272 0.0
2.263305 1.727680 0.001601 0.0
3.239500 0.911703 0.000268 0.0
2.950076 1.211398 -0.000461 0.0
4.567983 0.246164 -0.000747 0.0
1.069005 0.790146 -0.004384 0.0
2.398591 0.866275 -0.000925 0.0
2.814675 0.738449 -0.005231 0.0
3.468427 1.003516 -0.004468 0.0
1.576899 0.525643 -0.002035 0.0
3.099460 0.956833 -0.002041 0.0
4.488427 0.729169 0.000441 0.0
4.234710 0.231242 0.000724 0.0
2.230668 0.080052 -0.001261 0.0
2.921260 0.961923 -0.005282 0.0
3.547719 0.349328 -0.000289 0.0
2.753114 0.520352 0.001291 0.0
3.504228 1.605023 0.001629 0.0
0.324455 1.055320 0.001434 0.0
3.356489 1.044913 -0.000035 0.0
0.049800 0.563449 -0.000034 0.0
1.555142 1.088192 0.001598 0.0
3.337569 0.289502 -0.001176 0.0
3.282530 0.603556 0.000972 0.0
2.212106 0.017967 -0.001418 0.0
3.709137 1.236211 0.001844 0.0
0.125472 1.669938 -0.000561 0.0
1.843141 1.713877 -0.006965 0.0
1.275270 1.694599 -0.000796 0.0
1.431645 0.490542 0.001860 0.0
2.632480 0.458331 -0.000408 0.0
0.713632 0.612449 -0.002253 0.0
2.252074 1.407367 -0.004059 0.0
2.398132 0.633692 -0.004332 0.0
4.018961 0.453152 -0.002719 0.0
3.352767 1.123606 0.002199 0.0
4.054179 1.670200 0.000940 0.0
1.893745 1.281645 0.000054 0.0
2.574665 0.761540 0.000535 0.0
1.730735 1.127031 -0.001687 0.0
1.243717 0.191051 -0.000343 0.0
4.035970 1.408310 0.002580 0.0
2.448564 1.589388 0.003613 0.0
1.068410 1.070589 -0.001281 0.0
0.887981 1.511359 0.000151 0.0
2.094919 0.669331 -0.004660 0.0
0.626099 0.287520 -0.000719 0.0
2.938985 0.858604 0.000046 0.0
2.975142 1.257001 -0.001991 0.0
2.115563 1.558285 -0.000805 0.0
3.556532 1.872686 -0.000241 0.0
1.314323 0.978950 -0.000545 0.0
2.250337 0.246267 0.003238 0.0
1.923639 1.308381 0.000449 0.0
0.739409 0.305326 -0.000230 0.0
2.012669 0.937126 0.002742 0.0
1.912613 1.084092 -0.001677 0.0
0.524382 1.193744 0.003709 0.0
4.296517 1.653242 0.003144 0.0
3.228072 0.747503 -0.003000 0.0
3.438779 1.283930 -0.001396 0.0
0.111394 0.226737 -0.003046 0.0
0.894745 1.053609 0.001114 0.0
1.580416 0.631937 0.000226 0.0
2.206145 0.677692 0.000230 0.0
0.221883 1.249188 -0.001969 0.0
1.179063 0.744343 0.003494 0.0
2.460047 1.595708 -0.001197 0.0
4.505706 1.570740 0.003259 0.0
2.774673 1.266090 -0.000321 0.0
4.055853 0.842192 0.001090 0.0
2.011764 0.096690 -0.000540 0.0
4.484136 0.570581 0.002712 0.0
1.026873 0.308095 0.004737 0.0
3.633073 0.172494 -0.000845 0.0
3.935855 1.352841 -0.003243 0.0
3.636783 0.903754 -0.003637 0.0
2.669734 1.207621 0.002681 0.0
2.842619 1.545087 -0.000656 0.0
2.040043 0.757027 0.000196 0.0
2.666821 1.037001 -0.000803 0.0
2.358011 1.091169 -0.004512 0.0
0.396510 0.774822 -0.000633 0.0
2.328024 1.048974 -0.004264 0.0
2.252591 0.520241 0.001989 0.0
0.008072 0.692130 0.006574 0.0
3.693708 0.617688 0.000165 0.0
4.621341 1.767460 0.002621 0.0
3.010221 0.919861 0.000820 0.0
3.289270 0.470350 0.002139 0.0
2.321784 1.601410 0.006732 0.0
0.284851 1.734242 -0.001086 0.0
1.357381 0.912435 -0.000395 0.0
2.608229 0.294768 -0.003881 0.0
4.677487 0.695516 -0.003820 0.0
1.876519 0.340179 -0.001443 0.0
0.291898 1.686840 -0.002384 0.0
3.539885 1.226242 0.003329 0.0
0.314838 0.343593 0.002715 0.0
2.406027 1.409241 -0.000485 0.0
1.207223 1.487623 -0.001885 0.0
1.515369 1.341596 0.000725 0.0
3.686707 0.907357 -0.006575 0.0
0.680330 0.933530 0.000876 0.0
4.427221 0.539353 -0.000044 0.0
3.073327 0.479087 0.002412 0.0
1.387544 1.079244 -0.000337 0.0
0.290608 0.647038 -0.000847 0.0
4.217334 0.209251 -0.002875 0.0
3.009288 0.007573 -0.000548 0.0
0.264520 0.575277 0.000163 0.0
0.537655 0.561592 0.000891 0.0
4.112401 1.644139 0.000606 0.0
2.568774 1.735204 -0.000467 0.0
0.153739 1.150841 0.002507 0.0
0.431315 0.553127 0.000859 0.0
4.197838 0.726000 0.000892 0.0
0.486698 1.027734 -0.003504 0.0
0.471706 0.084626 -0.001904 0.0
0.920404 0.008350 -0.000588 0.0
2.326759 1.221174 0.000116 0.0
0.945198 0.646910 0.001875 0.0
4.525236 1.195626 -0.000933 0.0
1.941889 1.661234 0.001321 0.0
1.896452 0.677451 -0.002173 0.0
2.951994 0.445122 -0.003454 0.0
2.789691 1.823356 -0.008740 0.0
3.636361 1.109694 -0.000294 0.0
0.992932 0.381669 0.000099 0.0
3.632967 0.724481 0.000449 0.0
0.830939 0.450940 0.002498 0.0
3.427967 1.777723 0.004550 0.0
4.091650 0.409078 -0.005474 0.0
1.331640 0.099184 -0.001192 0.0
3.348105 1.581645 -0.001205 0.0
3.202508 1.703490 -0.000699 0.0
1.789209 1.594943 0.004131 0.0
3.861016 0.515386 -0.000204 0.0
2.889538 0.196296 0.001897 0.0
0.813827 1.819477 0.001642 0.0
0.648727 1.347611 -0.000709 0.0
0.236373 1.013021 -0.002312 0.0
4.697122 0.322482 0.002311 0.0
0.929666 0.075865 0.003938 0.0
3.252305 0.878644 -0.000878 0.0
0.597446 1.000022 0.000513 0.0
4.630907 0.720067 -0.000724 0.0
2.394023 0.111440 0.000152 0.0
3.130121 1.795691 -0.001480 0.0
2.338211 0.704472 -0.001398 0.0
3.083948 0.530156 -0.002196 0.0
4.473797 0.800296 0.001002 0.0
3.317862 0.121714 0.003795 0.0
0.562159 1.766072 -0.005949 0.0
2.335821 0.274225 0.003645 0.0
2.555246 0.679517 0.002035 0.0
1.678337 0.905429 0.002003 0.0
0.077793 0.868175 -0.000143 0.0
0.060750 1.854276 0.002312 0.0
2.401710 1.705995 -0.000259 0.0
3.384054 0.076771 0.002693 0.0
1.859251 0.963399 -0.001852 0.0
4.524766 0.934353 -0.002018 0.0
2.907130 0.723646 -0.001230 0.0
3.969155 1.620885 0.001636 0.0
1.233400 1.801625 -0.003413 0.0
1.907937 1.821366 0.001140 0.0
1.872823 1.170200 -0.001601 0.0
3.993996 1.533876 -0.000329 0.0
1.379278 1.536516 0.000214 0.0
2.496776 0.352491 -0.006107 0.0
3.457338 0.853068 0.000596 0.0
2.009383 0.553771 0.001955 0.0
0.781390 1.003395 -0.003478 0.0
2.394817 0.739462 0.000980 0.0
4.336081 0.451336 -0.000070 0.0
0.671444 1.670642 -0.001079 0.0
3.811422 1.436472 -0.002513 0.0
0.991289 0.507187 -0.007630 0.0
0.259554 0.596930 -0.001866 0.0
0.928591 0.699704 -0.002535 0.0
2.735488 0.393822 -0.000144 0.0
4.028019 1.722252 0.001384 0.0
2.749737 1.641123 -0.001096 0.0
0.477937 1.309301 0.003637 0.0
3.313615 1.333993 0.002703 0.0
0.593296 0.542417 -0.000414 0.0
0.024905 0.322520 -0.001556 0.0
2.636316 1.273932 0.001595 0.0
3.655550 0.948741 0.000749 0.0
1.261808 1.191382 -0.001723 0.0
0.977826 1.683942 -0.001620 0.0
4.450079 1.236270 -0.002425 0.0
3.695136 0.134255 0.003037 0.0
2.475398 1.814757 0.000641 0.0
1.089247 1.454545 -0.005760 0.0
4.510172 0.077161 0.005485 0.0
0.625900 1.026536 -0.002149 0.0
0.220437 1.497716 -0.001723 0.0
0.864917 1.563906 0.001667 0.0
1.128764 0.058506 -0.002948 0.0
3.726205 1.270198 -0.001640 0.0
1.621857 0.172494 -0.000066 0.0
3.098209 0.812429 -0.006192 0.0
1.844521 1.328496 -0.007436 0.0
1.853512 0.087543 -0.002091 0.0
0.709027 0.205789 0.002243 0.0
1.091844 1.144163 0.004899 0.0
0.514328 0.426754 -0.001180 0.0
3.518871 1.604163 0.000603 0.0
3.879385 1.722733 -0.002892 0.0
3.459764 0.345725 -0.002404 0.0
3.714775 1.238647 -0.004605 0.0
3.743131 1.420776 -0.002522 0.0
3.105147 0.311465 0.000473 0.0
2.225152 1.657987 -0.000062 0.0
0.245301 0.572333 0.003129 0.0
2.462191 0.582772 0.002614 0.0
1.021834 1.423254 -0.002725 0.0
0.313169 1.853452 -0.001340 0.0
1.057188 0.611558 0.001899 0.0
4.361885 0.027201 -0.000605 0.0
2.941766 1.483231 0.000089 0.0
3.771335 0.636685 -0.000180 0.0
2.715141 1.047926 -0.003386 0.0
0.353971 1.341847 -0.007951 0.0
2.437564 0.606914 0.000068 0.0
1.467152 1.681294 0.002365 0.0
0.465265 1.535299 -0.001445 0.0
2.973285 0.693282 -0.000697 0.0
3.487971 0.716010 -0.002757 0.0
0.432073 1.758405 0.001892 0.0
0.045689 0.913482 -0.002404 0.0
2.896025 0.145996 -0.000848 0.0
0.067407 0.772194 -0.000154 0.0
2.523147 0.848863 -0.001645 0.0
0.391436 1.293763 -0.001702 0.0
4.240275 0.780910 0.003900 0.0
0.404735 1.041672 -0.002238 0.0
2.687629 1.110327 -0.002400 0.0
0.810066 0.333491 0.000287 0.0
0.767624 1.200958 -0.002142 0.0
1.738623 0.636286 0.002180 0.0
1.556080 1.629101 0.000628 0.0
1.641416 0.249494 -0.000007 0.0
3.500749 0.222391 0.002140 0.0
1.797105 1.225298 0.002449 0.0
4.098337 1.261716 0.000259 0.0
2.620623 0.700913 -0.004196 0.0
3.033523 1.188273 -0.003075 0.0
0.256592 0.025036 0.000209 0.0
0.554606 0.089629 0.000090 0.0
1.429716 1.242501 0.001557 0.0
3.304723 1.115713 0.001210 0.0
4.161047 1.866469 -0.000622 0.0
3.701416 1.695627 0.001865 0.0
4.330341 1.101122 -0.000923 0.0
2.897147 0.926100 -0.000387 0.0
4.492600 1.381464 -0.000590 0.0
3.705102 0.566879 -0.004218 0.0
1.054024 0.247218 -0.000654 0.0
4.338489 0.107355 0.001037 0.0
0.502084 0.699855 0.001058 0.0
2.588129 0.815755 -0.003509 0.0
0.041450 1.462220 0.001209 0.0
3.593366 0.460820 -0.004329 0.0
4.012569 0.834726 0.000113 0.0
1.951724 1.754083 0.001079 0.0
2.225955 0.885981 -0.001931 0.0
4.530337 0.504931 0.000129 0.0
2.857396 0.202823 -0.000504 0.0
2.566450 0.726512 0.003478 0.0
2.557763 0.224062 0.002526 0.0
1.251270 0.556766 0.000065 0.0
4.614968 1.623975 0.000577 0.0
4.184776 0.501558 0.003218 0.0
3.922926 1.295120 0.000617 0.0
3.545604 1.165898 0.000725 0.0
3.507123 1.391865 0.002191 0.0
3.016829 1.541110 -0.000992 0.0
3.727085 1.722342 0.000741 0.0
4.499550 1.486234 0.000713 0.0
3.337068 1.705089 -0.000435 0.0
4.517606 1.225834 -0.002051 0.0
2.019787 0.251409 -0.004596 0.0
3.266238 1.495985 0.000228 0.0
2.534175 0.271805 -0.000539 0.0
2.915309 1.762583 -0.000318 0.0
3.288179 0.308999 -0.001964 0.0
2.853531 0.777191 -0.000311 0.0
0.671085 1.163290 -0.001714 0.0
3.092911 0.883643 -0.003470 0.0
4.035029 0.725971 0.000635 0.0
2.727142 0.682304 0.001920 0.0
2.633042 0.221628 0.001822 0.0
3.116786 1.302968 -0.000630 0.0
0.650350 0.313601 0.001622 0.0
4.132771 1.784390 -0.003027 0.0
3.568961 0.148898 0.003166 0.0
2.261292 0.488475 0.002180 0.0
4.459677 0.423250 -0.004197 0.0
1.492579 0.695443 0.000753 0.0
3.417955 1.697033 -0.001315 0.0
0.779922 1.675356 0.003801 0.0
0.103669 0.826729 -0.000481 0.0
0.644034 0.505692 0.001045 0.0
1.856724 1.324417 0.000241 0.0
2.600477 1.592529 -0.000470 0.0
0.367084 1.445290 0.000388 0.0
1.712014 0.729328 0.001722 0.0
0.239003 0.181837 -0.000153 0.0
1.374555 0.531602 0.002749 0.0
2.211774 0.433737 -0.000815 0.0
1.136583 0.203722 0.005248 0.0
3.488469 1.324946 0.001137 0.0
0.408189 1.831398 -0.000683 0.0
1.169655 1.849454 -0.002466 0.0
3.652612 1.803551 -0.001439 0.0
2.304446 0.475032 0.003042 0.0
3.565038 1.050474 -0.005365 0.0
1.666910 1.881210 0.001271 0.0
0.188428 0.786873 0.002393 0.0
1.333281 0.775434 -0.001841 0.0
3.173959 0.678915 0.000727 0.0
2.976428 0.871305 0.003190 0.0
0.790347 1.682501 0.001866 0.0
0.777660 1.625477 -0.002448 0.0
3.507872 0.316205 0.006239 0.0
2.410164 1.331001 -0.002497 0.0
4.158204 1.883316 0.000427 0.0
2.380947 0.694648 0.001407 0.0
1.644513 0.557103 0.001716 0.0
2.839433 0.890334 0.002041 0.0
1.588177 1.585148 0.002620 0.0
1.419932 0.894860 -0.002699 0.0
4.123856 0.171503 0.001017 0.0
1.831274 1.743030 -0.000179 0.0
3.472287 1.054427 -0.002162 0.0
2.242030 0.407442 0.000132 0.0
3.656906 0.099059 -0.000111 0.0
3.175269 0.743806 0.000930 0.0
4.069603 0.169773 0.000481 0.0
3.356456 1.783268 0.001235 0.0
3.518245 1.755558 -0.001225 0.0
0.737190 0.436184 0.001020 0.0
0.782107 0.365690 -0.002978 0.0
0.154597 0.331524 -0.001929 0.0
0.228201 1.693538 -0.005298 0.0
2.959759 0.174530 0.000641 0.0
2.551023 1.196512 -0.001199 0.0
2.167037 0.600047 -0.002752 0.0
1.324470 0.693413 -0.004684 0.0
0.446879 0.526500 0.002330 0.0
1.706275 0.238863 -0.002670 0.0
4.534852 0.458823 0.000167 0.0
4.078462 0.332254 0.000083 0.0
0.578170 0.229094 -0.001073 0.0
1.134379 0.768730 0.000931 0.0
4.254323 1.499566 0.001912 0.0
1.679395 1.247089 0.000687 0.0
0.130226 0.656972 -0.003890 0.0
0.040077 0.069404 0.001140 0.0
2.307478 1.076873 0.001486 0.0
2.829592 1.164886 0.001754 0.0
1.733247 1.045203 0.003645 0.0
2.170061 0.433785 -0.000534 0.0
2.029762 0.590029 -0.001005 0.0
1.613284 0.825101 0.003230 0.0
3.000406 0.478718 -0.000854 0.0
3.685314 0.265625 0.006333 0.0
1.596087 1.196628 -0.001359 0.0
2.838403 0.495749 0.002471 0.0
0.593004 0.253762 0.001459 0.0
0.503990 0.363313 -0.000747 0.0
0.495312 0.245693 0.001573 0.0
4.616600 1.745511 -0.003263 0.0
1.985020 0.959714 0.000709 0.0
3.161909 1.159355 -0.002003 0.0
3.198836 1.673476 -0.001064 0.0
1.086090 0.226260 -0.002263 0.0
1.439286 1.274409 -0.000027 0.0
0.911905 1.502730 -0.000412 0.0
4.059140 1.078890 0.004281 0.0
2.427695 1.156840 0.001006 0.0
0.127530 0.659172 0.000296 0.0
4.183013 1.606447 -0.001880 0.0
0.200771 0.538861 -0.006679 0.0
4.283840 1.765120 0.001456 0.0
3.745912 0.606872 0.000414 0.0
1.920326 0.957277 -0.000845 0.0
3.601586 0.757470 -0.001142 0.0
1.155798 1.637254 -0.002466 0.0
2.651480 0.511722 0.001944 0.0
0.435323 1.434791 -0.002299 0.0
1.328138 1.836841 -0.003227 0.0
3.867999 0.319310 -0.000944 0.0
0.769639 0.342608 -0.004219 0.0
4.454276 1.159367 0.003164 0.0
0.958698 0.712715 0.000155 0.0
3.653152 1.181571 0.001486 0.0
2.101718 0.732949 -0.001413 0.0
4.069931 1.428357 -0.002429 0.0
0.344434 0.785181 -0.001771 0.0
1.233540 1.645960 0.006847 0.0
3.688531 0.564725 -0.001574 0.0
4.122885 0.836648 -0.001066 0.0
1.434248 0.087941 -0.001263 0.0
2.981965 1.448030 0.002512 0.0
3.996277 0.937318 0.001671 0.0
3.408539 0.929439 -0.001644 0.0
3.429741 1.036519 0.002309 0.0
2.517756 1.588174 -0.000006 0.0
2.371684 1.452539 0.002253 0.0
4.635903 1.441490 0.001028 0.0
3.107854 1.477355 -0.003180 0.0
0.552902 0.240309 -0.000997 0.0
3.168531 0.830321 0.002571 0.0
2.816303 1.700031 0.002540 0.0
0.303206 0.586920 0.003736 0.0
0.971557 0.930728 -0.002481 0.0
1.535782 0.131877 -0.002807 0.0
1.187726 0.849643 0.001433 0.0
0.290338 0.201621 -0.003670 0.0
2.618503 1.506796 -0.001018 0.0
2.299131 0.394178 0.000589 0.0
2.025424 0.273114 0.001293 0.0
1.577806 0.254644 -0.004407 0.0
1.675849 0.831688 -0.001543 0.0
2.211118 0.889637 -0.001373 0.0
0.371895 1.079951 -0.001134 0.0
3.522070 0.016309 -0.002171 0.0
3.606171 0.838766 -0.001725 0.0
0.514705 1.858158 0.001590 0.0
3.463485 1.216826 0.004076 0.0
0.401289 0.940895 -0.003225 0.0
2.968321 0.549509 0.000070 0.0
2.491149 0.233432 0.001629 0.0
1.240048 0.357629 0.002549 0.0
3.354109 0.552351 0.001570 0.0
1.701461 0.843721 -0.002614 0.0
2.935723 1.666226 0.001108 0.0
1.922603 0.166097 0.004857 0.0
3.092398 1.424148 -0.003387 0.0
3.576648 0.225326 0.002335 0.0
4.420036 1.648939 -0.000799 0.0
4.096074 1.142251 -0.002790 0.0
0.183203 1.340561 0.000340 0.0
2.224264 1.005101 0.000098 0.0
1.795362 1.512253 0.001888 0.0
2.353273 1.727056 0.001088 0.0
2.204567 1.718433 -0.005543 0.0
0.822975 0.472515 -0.005582 0.0
2.459785 0.492834 0.000187 0.0
3.234933 0.871577 0.001513 0.0
4.564442 0.217231 0.000925 0.0
3.246736 1.863576 0.004973 0.0
1.874174 0.963618 -0.001175 0.0
0.217159 0.063958 0.000482 0.0
3.932251 1.296927 0.000077 0.0
1.536188 1.061522 0.000634 0.0
3.034822 0.474163 0.002906 0.0
0.408889 1.631923 -0.003462 0.0
1.600875 1.070196 -0.001026 0.0
0.122357 1.273353 0.002180 0.0
3.075022 0.925248 0.001876 0.0
1.548428 1.504917 0.001954 0.0
4.549693 1.095339 0.003765 0.0
2.440054 0.506745 0.001722 0.0
4.603580 0.554084 0.001493 0.0
3.141551 1.333449 0.000120 0.0
1.838036 0.800623 0.001967 0.0
3.513544 1.284042 0.001747 0.0
2.633607 0.713360 -0.002990 0.0
1.682320 1.129016 0.000618 0.0
1.036431 0.941315 0.000802 0.0
3.660024 1.773777 -0.000386 0.0
0.963132 0.143649 0.000256 0.0
3.384343 0.042494 -0.002553 0.0
0.388389 0.922817 -0.001977 0.0
0.629405 1.585786 -0.000007 0.0
3.650100 1.451828 0.001394 0.0
1.585208 1.867686 0.001531 0.0
3.337204 1.742385 0.001903 0.0
3.012237 0.831395 0.000892 0.0
4.432100 0.171939 -0.000772 0.0
0.193603 0.581464 0.000648 0.0
2.143522 1.515041 0.003368 0.0
3.345546 0.447182 0.002124 0.0
4.425473 0.099012 0.000045 0.0
0.278877 1.656814 -0.005375 0.0
0.937950 0.607850 -0.003618 0.0
0.886201 0.247233 0.004640 0.0
3.756736 0.313274 -0.001187 0.0
4.199565 0.859209 0.004232 0.0
4.393944 0.327608 0.000875 0.0
2.433859 1.703550 -0.001858 0.0
1.918612 0.467444 0.001355 0.0
2.490596 1.217477 0.000936 0.0
2.769863 0.962527 0.003431 0.0
1.867379 1.718387 -0.001632 0.0
1.548281 0.962116 -0.001319 0.0
1.409015 1.654413 0.002531 0.0
3.688852 0.291436 0.001814 0.0
1.919005 0.573380 0.003959 0.0
3.699182 0.406673 -0.000919 0.0
4.605228 1.703189 -0.000794 0.0
4.624406 0.014570 0.003178 0.0
0.363052 1.297943 0.001411 0.0
0.533643 1.028765 -0.002044 0.0
3.377553 0.751342 0.003968 0.0
0.159680 0.684025 -0.002353 0.0
3.247867 0.371683 -0.003585 0.0
