1.655094 0.527684 -0.003119 0.0
1.095163 1.607455 0.000955 0.0
1.534806 0.629716 -0.002422 0.0
3.859902 1.170409 -0.000830 0.0
1.100539 1.128490 0.000004 0.0
2.387879 1.042048 -0.002514 0.0
2.454263 2.139158 0.003473 0.0
2.440678 1.579633 0.001111 0.0
0.006662 1.473820 -0.002029 0.0
0.428447 0.458766 -0.002974 0.0
0.512957 1.218991 0.001186 0.0
4.179717 0.253510 -0.000781 0.0
1.297658 0.724592 -0.002473 0.0
3.682632 1.421955 -0.003193 0.0
4.072995 0.892468 0.000524 0.0
1.467290 0.972689 -0.000131 0.0
3.270550 0.531567 0.000031 0.0
1.415500 1.629270 -0.000476 0.0
4.481195 1.575072 -0.000962 0.0
2.491444 1.616189 0.000037 0.0
2.014113 1.520913 -0.007139 0.0
3.137668 0.518581 0.000692 0.0
0.336291 0.395986 0.001448 0.0
2.910318 1.168344 0.001280 0.0
2.305520 0.639216 0.001732 0.0
3.359346 0.062637 0.000407 0.0
1.485598 0.234512 -0.002823 0.0
2.736559 1.629617 0.002420 0.0
4.135393 1.329300 -0.001565 0.0
4.581547 -0.000677 -0.001237 0.0
0.734177 0.655666 -0.000090 0.0
4.416549 0.849345 -0.002729 0.0
2.863281 0.622731 -0.000065 0.0
0.479151 1.295404 -0.002727 0.0
3.620558 1.844838 -0.002021 0.0
3.975422 1.276840 0.001781 0.0
3.458326 1.075968 0.000552 0.0
4.541719 2.193594 0.002575 0.0
2.260545 0.407718 0.004296 0.0
1.584762 0.087314 -0.002013 0.0
0.913727 1.051559 -0.000223 0.0
1.761450 0.656646 0.003161 0.0
0.445686 1.708179 0.001122 0.0
2.283699 0.627939 -0.002604 0.0
1.333847 1.460502 0.001435 0.0
2.534802 1.832650 0.000931 0.0
2.024068 0.519953 0.000703 0.0
3.454757 0.760756 0.002046 0.0
1.792706 1.470843 -0.003777 0.0
1.182861 0.347579 0.000746 0.0
1.010863 0.785772 -0.000857 0.0
0.629269 0.322891 0.001707 0.0
2.123217 1.997220 -0.000295 0.0
1.430429 1.409185 0.000236 0.0
3.304570 1.985478 -0.002267 0.0
0.890178 1.885656 0.001903 0.0
2.518521 1.167493 0.004138 0.0
2.642881 1.582786 -0.001282 0.0
2.948744 0.782083 0.005236 0.0
0.602355 1.842344 -0.000584 0.0
0.052657 0.339751 0.001846 0.0
4.086623 0.507670 0.001505 0.0
0.567694 0.356200 -0.000521 0.0
1.079824 0.989899 -0.001457 0.0
0.848699 0.359229 -0.000098 0.0
2.262131 1.800904 -0.001046 0.0
2.096623 0.809446 0.000095 0.0
0.640642 0.673849 0.001938 0.0
0.437559 0.533964 -0.001278 0.0
3.105358 0.419259 0.002057 0.0
2.311677 0.095820 0.004228 0.0
0.569943 0.859397 0.004869 0.0
0.045214 0.387768 0.001917 0.0
0.780183 1.703796 0.000333 0.0
1.446367 0.634857 -0.001862 0.0
4.016427 0.289939 -0.000165 0.0
2.232500 1.491585 0.001456 0.0
3.235387 1.483959 0.002505 0.0
0.728249 1.605907 -0.001100 0.0
2.407769 0.879341 0.002528 0.0
4.311679 2.136299 0.003423 0.0
0.265980 0.280584 -0.004066 0.0
3.733319 1.853568 -0.000385 0.0
0.383618 1.991867 0.002847 0.0
1.751856 0.125870 0.000975 0.0
0.301552 0.477452 -0.004340 0.0
0.970287 0.489660 0.001284 0.0
3.612952 1.695377 0.000671 0.0
3.518372 0.449797 -0.000012 0.0
1.043256 -0.001007 0.000359 0.0
2.891978 0.958350 0.003997 0.0
1.006838 1.182914 0.002124 0.0
4.219458 1.436212 0.001546 0.0
2.999655 1.826972 -0.001856 0.0
3.652953 0.146219 0.000899 0.0
1.262900 1.823307 0.001308 0.0
2.976565 0.292939 0.001056 0.0
2.172929 0.035068 0.002758 0.0
2.403598 0.509478 -0.001989 0.0
3.203291 0.743025 0.000283 0.0
3.013343 0.537095 -0.003082 0.0
4.074066 1.645563 0.000688 0.0
0.931222 2.073440 0.002408 0.0
1.929827 0.239706 0.002034 0.0
2.291795 1.382148 -0.001943 0.0
1.127801 1.237585 0.001018 0.0
1.864405 0.896492 -0.005789 0.0
2.700216 1.363032 -0.000102 0.0
3.586506 1.438764 -0.001122 0.0
1.750225 1.983627 0.002601 0.0
3.472567 1.805287 0.001799 0.0
1.283595 0.941044 0.002902 0.0
0.949670 0.692806 -0.001989 0.0
3.726010 0.301491 -0.001455 0.0
3.335531 2.162144 -0.000082 0.0
0.395851 0.101159 0.000475 0.0
0.860467 1.908925 0.001392 0.0
0.068089 1.713534 0.001353 0.0
2.274523 0.550667 0.002999 0.0
1.500614 1.188665 0.004193 0.0
2.647240 1.123884 0.000011 0.0
3.659773 1.748347 0.001993 0.0
0.213060 2.113108 -0.000239 0.0
1.799629 0.586541 0.003098 0.0
0.175114 0.955229 0.000843 0.0
0.826713 1.851013 0.002156 0.0
2.451835 0.443431 -0.000893 0.0
3.349606 0.551250 0.001992 0.0
3.932907 1.713394 -0.001514 0.0
3.103878 2.051613 -0.003340 0.0
1.679489 0.242656 0.006166 0.0
0.174465 0.593580 0.002649 0.0
2.478122 1.043178 0.001910 0.0
3.507286 1.426066 0.004828 0.0
0.441104 0.658539 -0.001076 0.0
1.865851 1.742884 0.000799 0.0
1.689738 1.519227 0.001883 0.0
2.103794 1.753249 0.004315 0.0
1.928917 0.287263 0.003067 0.0
1.445832 1.469159 -0.000366 0.0
3.590291 0.208241 -0.001734 0.0
4.396911 0.308935 0.001125 0.0
3.812398 2.165793 0.001315 0.0
2.822938 0.644287 0.001419 0.0
2.358515 0.824577 0.001105 0.0
4.241124 1.265341 0.003188 0.0
1.930492 1.292644 -0.002328 0.0
1.949634 2.195636 -0.003366 0.0
4.195440 1.676648 0.001599 0.0
1.110476 0.412280 0.004010 0.0
4.203644 1.526230 0.001100 0.0
4.279941 1.476484 0.004340 0.0
2.123769 1.912196 0.000008 0.0
2.017028 0.512228 -0.000359 0.0
0.486798 1.632483 -0.002451 0.0
2.495620 1.821322 -0.003571 0.0
2.314081 0.193448 -0.002885 0.0
0.578882 2.215654 -0.000205 0.0
1.267996 1.821014 0.001789 0.0
2.019402 0.618057 -0.004559 0.0
3.392684 1.657139 -0.000377 0.0
0.608803 1.874498 -0.001809 0.0
4.200163 0.495886 -0.003252 0.0
1.625573 1.657337 -0.001225 0.0
3.707355 1.793583 -0.001190 0.0
0.160019 1.906119 -0.000704 0.0
4.260181 0.094963 0.003467 0.0
0.771426 1.494687 -0.000619 0.0
3.252110 0.949285 0.000502 0.0
1.826050 0.763119 0.001780 0.0
0.403244 0.758205 -0.001681 0.0
0.399835 1.607083 -0.001572 0.0
2.183884 1.805636 -0.001321 0.0
0.956250 1.519745 0.001361 0.0
4.246300 0.144872 -0.001903 0.0
2.346899 0.200578 -0.000232 0.0
0.076767 1.114355 0.000766 0.0
0.648050 2.176362 0.000567 0.0
3.238209 1.480440 0.002138 0.0
1.297447 2.022264 0.000974 0.0
2.374696 1.253421 -0.000908 0.0
4.143770 1.453512 0.002426 0.0
2.393809 1.240779 0.002748 0.0
1.074837 2.101021 -0.001569 0.0
1.102099 1.303132 -0.000062 0.0
2.121710 1.772696 0.002088 0.0
4.112732 0.774972 -0.000342 0.0
2.580742 1.437723 0.000152 0.0
0.160077 2.013453 0.003222 0.0
3.237283 0.844625 -0.001221 0.0
4.229476 1.179611 0.001152 0.0
0.240760 0.972626 0.000749 0.0
4.131042 0.143390 0.000298 0.0
3.213548 0.169836 0.001643 0.0
3.204080 2.203860 0.002187 0.0
1.605024 2.186825 0.000912 0.0
1.713390 0.484959 0.000421 0.0
4.561983 0.251431 -0.001146 0.0
0.058511 1.775448 0.000136 0.0
4.115764 0.379732 -0.000689 0.0
3.423394 0.597593 0.000498 0.0
1.435957 2.197464 0.000832 0.0
0.041571 2.125093 0.003251 0.0
0.937096 0.685834 -0.002398 0.0
1.844376 0.681309 0.000134 0.0
1.813633 1.156493 0.002047 0.0
2.854536 1.358568 -0.002544 0.0
2.302879 0.185948 -0.001293 0.0
0.205371 0.003413 -0.005956 0.0
1.181448 1.121603 0.000414 0.0
2.553082 0.707551 -0.000219 0.0
3.909301 1.848125 0.000867 0.0
0.042837 0.775760 0.000010 0.0
4.583514 0.378689 0.002333 0.0
0.559267 0.537035 -0.001555 0.0
4.287907 0.249828 -0.001870 0.0
3.977082 1.367325 0.001973 0.0
3.666283 1.649060 0.002156 0.0
2.697224 2.172466 -0.000492 0.0
3.505235 0.099923 0.001044 0.0
3.755699 1.184488 -0.004557 0.0
2.180908 1.726236 0.003346 0.0
2.285640 1.909028 -0.002702 0.0
1.862162 1.121151 -0.000482 0.0
4.051038 1.567122 -0.001406 0.0
1.516188 0.544203 -0.006544 0.0
3.211281 1.688551 0.002191 0.0
3.805426 1.334518 0.000197 0.0
0.993493 1.189242 0.000060 0.0
2.513434 0.079745 -0.001079 0.0
1.219768 0.916584 -0.000288 0.0
0.707245 0.991253 -0.004123 0.0
3.936484 0.075778 0.000266 0.0
3.973000 2.142558 -0.000402 0.0
0.108989 2.219887 0.002147 0.0
0.794738 1.199969 0.000796 0.0
2.932638 0.114285 0.005289 0.0
3.507494 0.212810 -0.003198 0.0
3.185628 0.102526 -0.000190 0.0
1.736328 0.565787 -0.000535 0.0
4.220570 1.825679 -0.002828 0.0
3.533587 1.228970 0.007290 0.0
3.501672 0.746715 -0.002174 0.0
0.154060 0.861919 -0.000136 0.0
0.204985 1.249878 0.001169 0.0
2.993865 0.087562 -0.003393 0.0
0.519349 1.693007 0.000819 0.0
3.705800 0.601098 -0.000929 0.0
1.696707 1.138088 -0.001853 0.0
3.298065 1.564998 0.001936 0.0
4.396677 0.097389 -0.001611 0.0
2.145038 1.199463 0.000434 0.0
1.577355 0.111874 0.003464 0.0
3.237657 1.601068 0.002559 0.0
1.688823 0.793473 0.000583 0.0
2.121560 1.684492 -0.000227 0.0
0.058533 0.123404 -0.002250 0.0
3.449792 1.926641 0.001846 0.0
2.332355 1.236836 -0.002899 0.0
1.117269 0.185671 0.000645 0.0
4.212269 0.741440 0.004871 0.0
3.323604 0.877843 -0.002343 0.0
1.891866 1.397939 -0.001877 0.0
4.230419 1.010043 0.001151 0.0
1.071708 1.603070 -0.002385 0.0
0.781553 0.250426 -0.001162 0.0
0.732500 0.619947 0.002482 0.0
0.128582 0.890821 0.002747 0.0
2.155872 1.064326 0.003009 0.0
2.124111 1.027786 0.001925 0.0
3.672149 0.234686 0.002152 0.0
1.940758 2.115198 -0.000466 0.0
3.175707 1.987480 -0.000700 0.0
0.503038 0.790787 -0.002117 0.0
3.893704 1.876323 -0.000751 0.0
1.318979 0.203946 -0.002773 0.0
4.115148 1.117052 -0.001799 0.0
1.359104 1.314078 -0.000812 0.0
4.121682 1.983550 0.001344 0.0
0.675164 0.173646 0.001402 0.0
1.617982 0.465934 0.002759 0.0
2.298624 1.935496 -0.000987 0.0
1.758636 0.034393 -0.000227 0.0
3.959929 1.315242 -0.002337 0.0
2.297881 2.019702 -0.000164 0.0
2.087540 1.418535 -0.000783 0.0
1.713510 0.963026 0.005553 0.0
3.331852 1.397478 -0.001411 0.0
0.820052 0.419382 -0.000575 0.0
2.512260 0.670784 0.002198 0.0
3.551932 1.504407 -0.003113 0.0
3.011758 1.678236 -0.004122 0.0
0.928157 1.157927 0.002442 0.0
1.647425 0.165148 0.001015 0.0
2.031328 2.044324 -0.001390 0.0
3.849650 0.140959 -0.003414 0.0
0.667764 1.979766 -0.003709 0.0
1.692232 1.598029 0.005431 0.0
2.021028 0.217653 -0.004046 0.0
3.864888 1.470244 -0.003064 0.0
4.582697 2.039051 0.002259 0.0
4.118637 0.092361 0.001400 0.0
1.831012 1.983570 0.000746 0.0
2.539294 0.750172 0.002492 0.0
3.576890 2.039278 0.004644 0.0
0.680844 2.240535 0.001084 0.0
1.669321 1.222729 0.001893 0.0
0.065197 1.714382 0.002458 0.0
4.262027 0.714257 -0.002362 0.0
0.785782 1.594744 0.005248 0.0
3.489633 0.285970 -0.004468 0.0
4.501838 0.455417 0.002056 0.0
3.702786 1.875531 -0.002721 0.0
0.366658 1.919641 0.002127 0.0
2.967865 1.617446 0.000865 0.0
3.192343 1.102935 -0.001672 0.0
3.113323 2.111913 0.002808 0.0
4.362279 0.108564 0.003726 0.0
4.416902 1.150962 -0.002569 0.0
0.109066 1.243138 -0.000788 0.0
2.257091 1.476970 0.003074 0.0
2.803875 1.002102 0.003178 0.0
4.425815 1.757905 0.002613 0.0
4.295795 0.141438 -0.003916 0.0
3.868088 0.080266 0.001707 0.0
1.210204 0.024971 0.004752 0.0
3.861444 1.449112 0.001441 0.0
3.786209 1.921529 0.000926 0.0
1.193706 0.680171 -0.002285 0.0
3.646064 0.511209 -0.002115 0.0
1.129020 1.349229 0.003359 0.0
0.016673 1.692080 -0.000280 0.0
4.272262 0.396973 -0.002860 0.0
0.086247 1.209284 -0.002038 0.0
2.755645 1.111223 0.003950 0.0
0.647834 0.850457 -0.001354 0.0
3.742907 1.968125 0.002286 0.0
4.240242 1.277055 -0.001185 0.0
4.517274 1.633724 -0.000549 0.0
0.245107 0.508916 -0.002486 0.0
1.465361 1.434534 0.001507 0.0
3.179837 0.419073 -0.002445 0.0
0.806227 0.558622 0.000778 0.0
2.610978 0.121434 0.000496 0.0
4.057620 1.271719 0.001847 0.0
3.372784 0.154865 -0.001881 0.0
1.383241 1.073646 0.002175 0.0
2.191031 1.382260 0.000448 0.0
4.394101 0.577399 0.000849 0.0
2.126805 1.701161 0.000254 0.0
3.218024 2.142248 -0.001931 0.0
4.227691 0.324577 0.003405 0.0
0.271601 0.363722 0.000100 0.0
0.798090 0.936561 0.000005 0.0
2.257727 0.546874 0.000823 0.0
2.654103 0.667285 -0.002694 0.0
1.260246 1.920068 0.000774 0.0
3.748090 1.871583 -0.000692 0.0
3.114879 0.286559 -0.004480 0.0
0.116114 1.091473 -0.000688 0.0
1.535951 0.057659 -0.002753 0.0
2.528044 1.594425 0.000249 0.0
4.152212 1.550776 0.000584 0.0
2.448438 1.886203 -0.002879 0.0
3.881509 1.070305 -0.004311 0.0
3.939044 0.691735 0.004553 0.0
1.956339 1.984913 -0.000643 0.0
3.212783 1.140120 0.004742 0.0
3.474607 0.838970 0.002877 0.0
4.352424 1.795956 -0.001283 0.0
2.162399 1.383923 0.000256 0.0
3.026633 0.477962 -0.000197 0.0
2.222403 0.433879 -0.000110 0.0
4.170396 0.878793 -0.005882 0.0
0.238145 0.092370 0.001196 0.0
0.634448 1.713871 0.002584 0.0
3.044869 0.354788 -0.004830 0.0
2.921203 1.153690 0.001959 0.0
0.258625 1.004761 0.001905 0.0
3.361126 0.014111 0.001928 0.0
1.761034 2.147702 0.001066 0.0
1.812191 0.980214 -0.001281 0.0
0.085710 0.746600 0.002305 0.0
3.096536 1.630934 0.001870 0.0
3.553208 1.881875 -0.002285 0.0
2.269228 1.180273 -0.000626 0.0
4.384655 1.525918 0.001605 0.0
3.236150 1.026847 0.000163 0.0
2.940272 0.571156 -0.001558 0.0
2.296058 1.022143 -0.004818 0.0
1.976846 1.804784 0.002967 0.0
2.550098 1.193649 0.001895 0.0
4.313885 1.420885 0.002593 0.0
0.550134 1.955624 -0.003923 0.0
1.220671 0.489282 0.002958 0.0
3.972758 0.184812 -0.000838 0.0
1.567387 0.692382 0.000391 0.0
3.984700 0.904542 0.004566 0.0
0.498036 2.209603 -0.001006 0.0
0.201237 2.116187 0.005167 0.0
2.888205 0.259182 -0.005989 0.0
3.915263 2.239451 0.003685 0.0
3.292055 2.150611 0.000170 0.0
1.624469 1.047738 -0.001259 0.0
2.178088 0.953624 0.002176 0.0
0.462475 1.176607 -0.001181 0.0
3.626269 0.426780 0.004428 0.0
3.678385 1.415219 0.002192 0.0
2.309131 1.556921 0.001036 0.0
0.530046 0.305141 0.000471 0.0
2.658688 1.237453 0.001562 0.0
0.669331 2.140873 -0.003249 0.0
0.614431 1.775449 0.003152 0.0
2.666432 2.044418 0.002886 0.0
1.764020 0.691473 0.001727 0.0
0.766449 0.654616 -0.000850 0.0
0.457553 0.765939 0.004484 0.0
2.493256 0.455187 -0.006412 0.0
4.534922 1.761672 0.003412 0.0
3.847500 2.164703 -0.005243 0.0
1.431657 1.836094 0.000402 0.0
1.726687 1.303974 -0.004035 0.0
3.555016 1.233030 0.000356 0.0
2.812440 2.039860 0.000099 0.0
0.939680 0.173257 -0.003232 0.0
1.857567 1.857930 0.000554 0.0
1.028967 0.344636 -0.000968 0.0
3.840142 2.121472 -0.001414 0.0
0.111175 0.106826 -0.000579 0.0
3.809035 1.458094 0.001299 0.0
2.108739 0.722277 0.001069 0.0
1.477947 1.271445 -0.003790 0.0
2.997363 0.394156 0.002230 0.0
2.537614 1.993226 -0.000811 0.0
1.225484 1.983023 0.000148 0.0
0.976815 0.430767 -0.001722 0.0
1.521985 0.054556 -0.004045 0.0
1.918722 0.649537 0.003492 0.0
4.359256 0.446948 -0.001066 0.0
2.017305 0.084437 -0.001826 0.0
2.744667 1.880804 -0.001087 0.0
0.315347 1.729983 -0.003276 0.0
1.581098 1.684376 -0.001232 0.0
0.080303 1.669390 0.000810 0.0
4.394405 0.320309 0.001412 0.0
0.905676 0.096548 -0.000156 0.0
1.850847 1.792347 -0.000498 0.0
2.018329 2.157523 0.004749 0.0
3.524544 0.201969 0.005442 0.0
4.285518 0.384865 -0.001198 0.0
2.170062 1.470984 -0.003009 0.0
2.791650 0.437607 0.003194 0.0
3.213136 1.297931 0.004037 0.0
1.779321 1.045332 -0.000718 0.0
0.404323 1.966907 -0.003940 0.0
4.463081 0.838034 0.002005 0.0
3.914423 2.166171 0.001668 0.0
0.249555 2.238726 -0.003526 0.0
4.575835 1.064264 0.000493 0.0
1.702415 0.436141 0.001341 0.0
3.691652 1.686692 0.001817 0.0
4.291259 0.015175 -0.000011 0.0
0.152893 1.855302 -0.005683 0.0
2.253241 0.296991 0.000303 0.0
2.578060 0.568788 -0.000188 0.0
3.733540 1.186810 -0.002149 0.0
0.256606 0.254248 0.004878 0.0
1.017210 2.159816 0.002644 0.0
2.781868 1.234707 -0.003049 0.0
1.253409 0.917596 0.000277 0.0
3.595324 0.134346 -0.001073 0.0
1.680641 0.515069 0.002585 0.0
0.830545 2.059580 0.001242 0.0
4.577124 1.402402 -0.000541 0.0
2.695223 2.185735 0.000252 0.0
4.449448 0.533243 0.002194 0.0
2.639063 0.103826 -0.000942 0.0
0.449620 0.744557 -0.002794 0.0
2.816919 1.121762 0.000251 0.0
4.011998 2.185615 0.000197 0.0
0.685194 0.681111 0.001065 0.0
3.937040 0.886286 -0.001800 0.0
3.340866 2.149525 0.002351 0.0
2.167366 0.549780 -0.000860 0.0
2.799678 1.194645 0.004808 0.0
0.340214 0.353368 -0.002161 0.0
3.363479 1.456215 0.000122 0.0
2.936306 0.831499 0.000912 0.0
1.258261 0.743702 -0.000715 0.0
0.586133 0.660545 0.000234 0.0
4.038478 2.130499 -0.000679 0.0
0.881926 1.053785 -0.004910 0.0
3.722530 1.272353 -0.000795 0.0
2.215255 1.888945 0.001334 0.0
2.951293 1.208093 0.003574 0.0
0.424659 0.676089 -0.000819 0.0
1.498388 0.036608 0.002379 0.0
3.654375 0.407721 0.004855 0.0
0.771286 2.162778 0.002906 0.0
1.729700 1.152661 -0.001593 0.0
3.218999 0.911442 -0.002491 0.0
0.907803 2.223602 0.000770 0.0
0.931343 1.273022 -0.001380 0.0
3.248227 1.073040 -0.001778 0.0
3.509030 0.568108 -0.000585 0.0
0.003941 0.092373 0.004435 0.0
0.977154 1.172237 0.001206 0.0
2.405752 1.380100 0.000051 0.0
0.206925 1.269409 0.003109 0.0
2.472812 2.157020 0.002713 0.0
4.183730 0.129499 -0.002716 0.0
1.400853 0.582745 0.002197 0.0
0.134612 0.408465 0.001026 0.0
0.560293 0.173105 -0.000865 0.0
2.872443 1.035023 -0.000565 0.0
2.469845 2.117906 0.001096 0.0
4.237736 1.726083 0.000972 0.0
2.613968 1.146750 0.000498 0.0
4.434472 0.895225 0.000349 0.0
1.451717 1.215834 -0.002475 0.0
1.152336 2.059338 -0.003445 0.0
0.360523 2.100061 0.001671 0.0
4.151714 1.211145 -0.001192 0.0
1.365049 2.124544 -0.000104 0.0
4.056170 2.020419 0.002952 0.0
3.370010 0.623384 -0.000639 0.0
1.754511 0.896891 0.003002 0.0
1.044065 0.064578 0.001525 0.0
4.582272 1.757077 0.003123 0.0
4.216339 0.687895 0.001812 0.0
0.619226 0.966041 0.003228 0.0
3.072308 2.139394 -0.001706 0.0
4.432556 0.969849 0.001484 0.0
3.639756 0.640275 0.002385 0.0
1.489396 1.630417 0.001256 0.0
0.928904 0.380330 0.000170 0.0
0.280126 0.902461 0.000128 0.0
3.292960 1.484569 -0.000313 0.0
2.915865 1.767152 -0.001089 0.0
2.388146 1.768238 -0.000779 0.0
3.554087 0.252366 -0.004805 0.0
4.560637 1.401276 -0.002186 0.0
4.044714 0.655236 -0.000584 0.0
1.873678 0.233693 -0.003138 0.0
2.231251 1.531194 0.001249 0.0
2.914949 1.610802 -0.003930 0.0
1.071959 0.629345 -0.001439 0.0
3.400523 2.145547 -0.000642 0.0
0.353664 2.051320 -0.000406 0.0
2.205823 1.218482 0.001211 0.0
4.563703 0.585343 0.000764 0.0
2.971739 1.891961 0.002344 0.0
0.013069 1.862226 0.003333 0.0
2.960822 0.771924 0.000570 0.0
2.934370 1.838585 -0.000381 0.0
1.579208 0.872029 -0.000610 0.0
2.467927 0.586786 -0.001039 0.0
1.380347 0.334408 0.002726 0.0
1.830139 2.105441 -0.002036 0.0
2.809321 1.873231 0.002166 0.0
2.517616 1.130932 -0.001894 0.0
1.024313 1.418991 0.003679 0.0
1.874432 1.923394 -0.001487 0.0
4.279658 1.253332 -0.001128 0.0
3.653410 1.913823 0.005224 0.0
0.133417 0.079863 -0.001152 0.0
0.529991 0.437028 0.002023 0.0
0.889640 2.182892 -0.001127 0.0
1.241939 1.575929 -0.000326 0.0
2.468106 0.798845 -0.002175 0.0
1.745636 0.834951 -0.003635 0.0
4.044244 0.724612 -0.003214 0.0
1.384053 0.137925 -0.001126 0.0
2.658460 1.323768 0.000637 0.0
0.371196 0.559275 0.000689 0.0
2.381348 1.785473 -0.005010 0.0
2.111217 1.216212 0.000855 0.0
3.800856 1.543424 -0.002570 0.0
2.522780 0.481957 -0.005686 0.0
0.004135 1.930467 0.004735 0.0
0.664542 1.825784 -0.000007 0.0
0.899986 2.226685 0.003089 0.0
2.068525 1.232033 0.000025 0.0
3.145611 1.316166 0.000871 0.0
2.353881 1.492713 -0.000179 0.0
0.558501 1.053628 0.000915 0.0
3.523299 2.013286 0.003791 0.0
0.829784 2.134101 0.001849 0.0
3.981418 1.339929 0.005512 0.0
0.478419 1.468452 0.000731 0.0
0.273617 1.148843 -0.002104 0.0
4.166818 2.192131 0.005040 0.0
0.589627 0.021697 0.000524 0.0
0.772002 1.081773 0.000840 0.0
2.823868 0.901921 -0.002275 0.0
2.316354 1.095830 0.003717 0.0
1.021667 0.185599 0.001823 0.0
2.717308 0.715699 0.000800 0.0
2.042518 0.846723 -0.001402 0.0
4.476530 1.903369 -0.001893 0.0
3.586677 1.159326 0.001031 0.0
4.312576 1.099657 0.003894 0.0
2.873006 1.987302 0.001509 0.0
2.504051 1.714862 -0.000269 0.0
2.941909 2.161345 -0.000295 0.0
3.330338 1.560103 0.002954 0.0
4.395183 1.686782 0.002270 0.0
0.801318 0.690772 -0.004964 0.0
1.376641 0.729448 -0.002084 0.0
4.514771 0.241329 -0.002233 0.0
3.033961 1.301446 -0.001270 0.0
3.868665 0.269973 -0.002622 0.0
2.865425 2.157754 -0.002863 0.0
0.656496 1.469368 -0.002369 0.0
4.431150 1.762902 0.001770 0.0
4.539466 0.367941 -0.002589 0.0
0.349748 0.155777 0.002124 0.0
1.267071 0.749439 0.002582 0.0
0.861602 0.496417 0.000437 0.0
2.678471 1.946357 -0.000496 0.0
2.267076 0.185334 0.001877 0.0
3.973721 0.278572 -0.002012 0.0
2.537458 1.156317 -0.000666 0.0
2.005087 1.024883 -0.001792 0.0
2.074563 2.105307 -0.001997 0.0
4.339341 0.157258 -0.003773 0.0
3.788666 2.195172 0.000810 0.0
1.066193 0.699145 -0.005475 0.0
4.215322 1.771980 0.000068 0.0
0.906149 1.228771 0.004296 0.0
1.437615 1.627693 -0.000230 0.0
1.397093 1.774419 -0.002185 0.0
3.978490 1.488271 -0.000467 0.0
3.154848 0.931719 -0.000542 0.0
4.263508 1.423711 -0.000206 0.0
2.849688 0.669901 0.004181 0.0
1.357710 0.855462 -0.000142 0.0
3.198152 0.054644 -0.002721 0.0
0.854472 0.494888 0.000122 0.0
2.247993 0.797402 -0.006523 0.0
1.304536 1.163751 0.000269 0.0
1.218891 0.379292 -0.000742 0.0
3.215865 1.829971 0.000418 0.0
3.656195 0.057949 0.001718 0.0
1.723907 1.373238 0.002078 0.0
4.043022 1.535731 0.006200 0.0
2.649643 0.603376 0.001054 0.0
4.381004 2.062771 0.000653 0.0
1.472623 0.394449 0.001029 0.0
0.741994 1.690221 -0.001233 0.0
0.409841 0.603897 0.002988 0.0
0.143978 0.302042 0.005880 0.0
1.188504 0.180711 0.000220 0.0
0.914464 0.643585 0.000908 0.0
0.134471 0.791217 -0.001827 0.0
2.779623 1.957259 0.006305 0.0
1.294735 1.389863 -0.001936 0.0
2.657572 1.365210 -0.006707 0.0
2.686129 0.122534 0.002268 0.0
2.597433 1.773017 0.001382 0.0
1.453621 0.213733 0.002490 0.0
1.595778 0.047528 0.004402 0.0
0.868004 2.197291 0.002166 0.0
2.580796 1.576381 0.000452 0.0
4.535542 0.002153 -0.002686 0.0
2.979970 0.968978 -0.001907 0.0
2.739481 2.112806 -0.004411 0.0
3.994358 1.307388 -0.000293 0.0
3.991912 2.194590 -0.000212 0.0
3.333366 0.212032 -0.001799 0.0
2.353870 0.451059 0.002685 0.0
0.937970 0.440440 0.003777 0.0
2.483128 1.442208 0.000915 0.0
3.351248 1.802214 0.002853 0.0
2.822386 0.747738 0.003642 0.0
3.457203 1.639476 0.001035 0.0
0.131452 0.542896 -0.003507 0.0
0.231595 1.730075 -0.002367 0.0
1.326424 1.469777 0.005107 0.0
0.312045 1.310046 0.000842 0.0
0.613831 1.087924 0.000027 0.0
3.604683 0.429710 -0.002333 0.0
4.363075 0.594294 0.001343 0.0
2.124303 0.653501 -0.001274 0.0
2.705176 0.937850 -0.000436 0.0
2.808544 0.638453 -0.000155 0.0
1.566777 0.031830 -0.001188 0.0
1.193469 2.089038 0.000478 0.0
0.873370 0.657893 -0.000906 0.0
0.642452 0.088721 -0.002248 0.0
1.299961 0.140038 -0.001230 0.0
4.189658 2.024566 -0.001658 0.0
2.186988 1.239362 -0.001209 0.0
2.564426 0.992217 0.004597 0.0
2.253991 1.954982 -0.004112 0.0
1.494981 1.044320 -0.002355 0.0
4.390520 0.683120 -0.002693 0.0
0.187483 0.668678 0.004537 0.0
1.510806 2.026169 0.003391 0.0
0.620471 1.640275 0.001654 0.0
1.794827 1.111395 -0.001605 0.0
0.463234 0.086467 0.001868 0.0
3.931746 1.157454 0.003383 0.0
0.980581 0.458391 -0.000635 0.0
4.166227 0.584094 0.002722 0.0
0.807138 2.235216 -0.000704 0.0
1.810547 1.767584 -0.003494 0.0
1.295821 0.148148 0.000126 0.0
1.785839 1.501560 -0.005116 0.0
1.544725 0.654806 -0.000909 0.0
2.042086 1.952644 0.003511 0.0
0.343713 1.796851 -0.002732 0.0
1.529498 0.285288 -0.001093 0.0
2.304275 0.665922 0.004008 0.0
3.781734 0.602747 0.002433 0.0
0.677761 0.340020 0.001370 0.0
0.520733 1.819189 -0.000092 0.0
2.323352 1.196473 -0.002876 0.0
2.489619 1.793201 0.002312 0.0
2.994410 0.783161 0.000955 0.0
3.356953 2.223865 -0.001522 0.0
2.563169 0.078664 0.003280 0.0
2.823455 0.937063 0.002188 0.0
2.259164 1.291985 0.002157 0.0
2.058236 0.911762 -0.000885 0.0
4.056757 0.345163 -0.000432 0.0
4.287054 0.971413 -0.002542 0.0
1.231274 0.419241 -0.002586 0.0
0.127296 2.175061 0.000005 0.0
3.570659 1.793596 -0.002061 0.0
2.524966 0.174277 -0.001626 0.0
1.776213 1.789560 0.003679 0.0
2.033082 1.106552 -0.001150 0.0
4.463612 2.090868 0.002635 0.0
1.825404 1.752278 0.003888 0.0
0.445129 0.292223 -0.001698 0.0
2.955535 0.793129 -0.003872 0.0
3.587041 1.629839 -0.001979 0.0
0.138094 0.750417 0.001113 0.0
2.901477 1.892020 0.000723 0.0
0.023311 1.264303 -0.000299 0.0
0.781228 0.669190 -0.000659 0.0
0.346162 1.816212 -0.002257 0.0
1.690229 0.524961 0.003163 0.0
4.133068 1.007746 0.000839 0.0
3.914720 1.956692 -0.002707 0.0
3.802336 0.170134 0.003435 0.0
2.901965 2.035831 0.002863 0.0
3.270097 0.938790 0.002754 0.0
1.091296 1.985309 0.000322 0.0
0.217808 0.404070 -0.001109 0.0
3.295071 1.095910 0.002896 0.0
3.151026 0.427852 0.002812 0.0
3.517486 1.898368 0.000602 0.0
0.659298 1.161961 -0.003332 0.0
3.844254 0.682966 0.002103 0.0
0.536408 1.403224 -0.000938 0.0
3.163234 0.431704 -0.000469 0.0
2.391704 0.009889 -0.003312 0.0
4.328809 0.099790 0.001445 0.0
1.677556 2.064380 -0.002587 0.0
3.808967 1.139162 -0.004218 0.0
0.534608 1.179092 -0.001606 0.0
0.430347 0.134514 -0.003935 0.0
3.872886 1.690659 0.000539 0.0
1.549732 1.219469 0.000079 0.0
1.158986 1.913459 0.002998 0.0
3.821863 2.120245 0.000392 0.0
3.738816 1.256507 0.000519 0.0
0.082555 1.396717 -0.001623 0.0
0.369622 0.388116 0.002309 0.0
0.186877 0.492938 0.002522 0.0
0.597167 0.315494 0.000609 0.0
3.117984 0.639279 0.002619 0.0
0.984842 2.228604 -0.002497 0.0
1.338148 0.530020 0.000922 0.0
2.396260 1.594293 -0.002340 0.0
2.557983 1.730714 0.004228 0.0
2.778968 0.504999 -0.000549 0.0
2.469774 1.861624 0.000264 0.0
0.394596 0.112015 -0.001389 0.0
2.362032 0.617931 -0.000085 0.0
2.107512 0.201556 0.002093 0.0
2.292412 1.728624 0.000588 0.0
2.799933 1.781954 0.001108 0.0
3.513623 1.930378 -0.001337 0.0
1.153005 2.048442 0.001446 0.0
4.012286 1.435598 -0.002478 0.0
2.592179 1.088532 -0.001258 0.0
2.241597 1.617544 0.002441 0.0
3.988782 0.990276 -0.007231 0.0
3.652456 0.840532 -0.003575 0.0
2.818195 1.017547 0.000752 0.0
2.109683 0.978344 0.002431 0.0
3.303217 1.703232 -0.000626 0.0
0.247948 1.970970 0.003417 0.0
1.489213 0.671102 -0.003567 0.0
1.175460 1.034614 -0.001717 0.0
0.093011 0.339835 -0.000593 0.0
0.272813 0.626344 -0.001066 0.0
2.283161 2.098323 -0.003139 0.0
4.416600 1.749838 -0.003098 0.0
2.192374 0.601982 -0.002229 0.0
3.420954 1.235576 0.002323 0.0
1.658588 0.243278 -0.005232 0.0
1.025319 0.558186 -0.000210 0.0
4.284831 1.408291 0.002250 0.0
4.241012 0.788688 0.000247 0.0
2.999549 0.965112 0.000337 0.0
3.391488 0.962797 0.001068 0.0
2.452476 2.240450 0.001918 0.0
3.119143 0.729055 0.001504 0.0
1.544006 1.547097 0.004244 0.0
0.197415 1.159743 -0.001839 0.0
4.051758 0.566274 -0.000887 0.0
2.084316 1.086952 0.002184 0.0
1.011537 1.453858 0.000581 0.0
0.397685 2.041051 0.003050 0.0
3.247542 1.142328 -0.001698 0.0
4.215168 2.059609 0.003038 0.0
4.161708 0.693333 -0.003222 0.0
2.011780 1.620085 0.003206 0.0
3.819060 1.614535 0.001760 0.0
4.127819 1.757572 0.000852 0.0
0.909466 0.978131 -0.000193 0.0
1.451832 1.930467 -0.001038 0.0
2.890137 0.359720 -0.003665 0.0
0.189179 0.169627 -0.000403 0.0
3.817056 1.896996 0.002050 0.0
3.120924 0.051729 -0.002927 0.0
0.020343 2.134591 -0.001265 0.0
3.275970 0.858086 0.000556 0.0
2.103686 1.068837 -0.000274 0.0
0.740427 1.046768 0.000710 0.0
0.194487 0.394012 -0.002108 0.0
0.282375 0.043900 0.002626 0.0
3.795177 1.793995 -0.000983 0.0
1.621067 0.453534 -0.003328 0.0
0.986821 0.536329 -0.004210 0.0
1.889162 0.152417 -0.001667 0.0
4.030647 0.538103 0.005893 0.0
2.288379 1.832441 0.001789 0.0
0.409078 0.806173 0.002905 0.0
1.489244 0.252750 -0.003563 0.0
2.036607 0.996602 -0.001253 0.0
0.458052 1.290655 -0.001044 0.0
2.149837 1.629808 0.000422 0.0
1.117756 2.060527 -0.002889 0.0
0.329026 0.435625 0.001699 0.0
4.271450 0.934873 -0.000116 0.0
0.011678 0.014164 -0.001182 0.0
0.466842 0.418134 -0.004195 0.0
0.560952 0.172233 -0.001568 0.0
2.355730 1.951572 -0.002920 0.0
3.426664 1.255523 0.003339 0.0
1.662229 1.259584 -0.000109 0.0
3.760296 0.809816 0.001000 0.0
0.577729 0.384846 0.000784 0.0
0.513480 1.153833 0.001975 0.0
0.702336 1.741070 0.000847 0.0
1.807918 2.208050 0.000168 0.0
0.867880 0.223999 0.000551 0.0
3.140063 2.080644 0.002737 0.0
0.103444 0.411081 0.003697 0.0
0.439690 0.047142 0.000339 0.0
3.457815 1.074984 -0.002284 0.0
3.042940 0.134071 -0.003417 0.0
1.130491 0.036246 0.002278 0.0
1.214577 0.170717 -0.003180 0.0
0.328668 1.979698 -0.003408 0.0
4.403738 0.751729 0.000726 0.0
3.153986 0.242518 -0.002006 0.0
2.384311 0.341236 0.001585 0.0
4.308742 1.473477 -0.001749 0.0
1.015165 1.360712 -0.003049 0.0
4.509962 1.779251 0.003648 0.0
2.100597 1.582720 -0.007007 0.0
1.503531 1.493630 0.005194 0.0
0.906672 0.197938 -0.001561 0.0
1.539175 1.711373 -0.000130 0.0
4.057444 2.098479 0.001568 0.0
4.088102 1.957139 0.001776 0.0
3.859632 0.413541 0.001013 0.0
3.627853 0.995953 -0.004087 0.0
2.774927 0.188855 -0.003331 0.0
0.503761 0.218624 -0.002918 0.0
1.537169 1.622950 -0.000738 0.0
0.631692 1.826271 0.000044 0.0
2.092933 2.195306 0.004914 0.0
3.087658 1.541670 -0.002320 0.0
0.408216 1.960078 -0.004936 0.0
3.269451 2.029093 0.002737 0.0
2.162727 1.176347 0.001118 0.0
0.169886 0.439208 -0.000194 0.0
1.548868 0.340719 0.000398 0.0
3.341666 2.021602 -0.001585 0.0
1.424054 1.465251 0.001005 0.0
1.701746 1.025651 -0.001499 0.0
2.974381 1.105028 -0.001100 0.0
3.436149 1.099339 0.004384 0.0
2.322741 0.362455 -0.001561 0.0
3.821203 0.113265 0.000354 0.0
4.492758 1.600518 -0.005293 0.0
3.999120 0.818275 0.000093 0.0
0.254434 0.788391 0.003676 0.0
3.828275 1.632134 0.003654 0.0
2.096333 0.624458 0.002726 0.0
2.526822 0.873698 -0.001112 0.0
2.558470 1.003285 0.001534 0.0
2.658015 0.508547 -0.002823 0.0
3.145928 0.959933 0.000047 0.0
2.929092 0.082915 -0.001577 0.0
0.887696 0.307098 -0.003711 0.0
3.366391 1.661001 0.000312 0.0
0.142230 2.232013 -0.000197 0.0
2.447137 1.576042 0.000859 0.0
1.539584 0.950718 0.003746 0.0
1.033893 0.958570 0.002122 0.0
2.294658 0.696120 -0.001344 0.0
1.182126 1.291311 0.003588 0.0
0.023430 2.088073 0.002444 0.0
1.580960 0.430029 0.001676 0.0
3.428868 2.036083 -0.002379 0.0
1.837911 0.249850 0.002604 0.0
1.991708 1.726077 -0.002392 0.0
4.119703 1.033976 0.002325 0.0
3.651745 1.115505 -0.003319 0.0
0.547811 0.884874 0.000985 0.0
3.307281 1.867018 -0.005821 0.0
1.958783 0.579832 0.000504 0.0
2.874791 0.263227 0.001180 0.0
1.796397 0.942522 0.001076 0.0
1.401467 0.091166 0.000140 0.0
1.465046 1.449026 0.003320 0.0
4.560565 0.491678 0.001417 0.0
2.811923 1.614510 -0.000767 0.0
1.388354 1.342240 0.000715 0.0
0.717362 0.101278 0.001783 0.0
1.341809 1.772750 -0.003350 0.0
0.799574 0.886120 0.005122 0.0
3.087697 1.479533 -0.001693 0.0
3.689379 0.455251 -0.002768 0.0
2.614471 1.055495 -0.002127 0.0
2.220858 1.758835 0.001419 0.0
0.832406 1.918817 0.002327 0.0
2.249423 1.650961 -0.003272 0.0
2.505361 0.031408 0.004489 0.0
0.512714 1.482977 0.001080 0.0
3.263437 1.597410 -0.006880 0.0
0.929321 1.235517 0.000953 0.0
2.644995 0.180942 -0.003586 0.0
2.953613 1.564166 0.000607 0.0
3.840331 0.273461 0.000028 0.0
0.737737 1.848629 0.001316 0.0
3.167497 0.189437 -0.004565 0.0
3.777092 0.216753 -0.001875 0.0
0.475377 0.336968 -0.003710 0.0
2.573286 0.628820 -0.000014 0.0
4.263940 0.178288 -0.002967 0.0
2.423420 0.404545 -0.002069 0.0
3.978399 1.446401 0.004138 0.0
0.555061 0.491170 -0.000798 0.0
1.088667 0.821092 0.002216 0.0
0.924767 0.346375 0.000216 0.0
1.241662 1.870375 -0.004817 0.0
2.796681 0.554218 -0.002557 0.0
1.004908 1.416067 -0.002804 0.0
1.589499 0.033621 -0.001302 0.0
3.976203 1.610744 -0.000349 0.0
2.802725 0.728367 -0.000160 0.0
0.699365 0.958417 0.001347 0.0
0.196375 0.345260 -0.000818 0.0
2.827567 1.839661 -0.000022 0.0
0.502548 0.424365 0.000964 0.0
3.584977 0.182452 -0.001142 0.0
1.310533 1.593863 -0.001788 0.0
2.049161 0.490530 0.003437 0.0
1.321832 1.959687 -0.002466 0.0
1.800904 2.140742 -0.000754 0.0
1.074664 0.471562 0.004018 0.0
4.159768 0.272033 0.006480 0.0
4.505696 0.447224 0.001936 0.0
3.604756 1.700777 0.002591 0.0
3.630961 0.192820 0.003609 0.0
3.905928 1.986124 0.006560 0.0
2.750005 0.200373 -0.000381 0.0
0.608012 2.075375 -0.000268 0.0
0.065798 2.061367 0.002151 0.0
1.862195 1.594484 -0.006842 0.0
0.177928 1.718490 -0.002834 0.0
2.354423 1.025167 0.004282 0.0
0.489827 1.670281 -0.001515 0.0
3.635327 0.305338 -0.003648 0.0
3.150236 0.346686 -0.000754 0.0
1.263256 0.132227 -0.000665 0.0
3.477264 0.346113 -0.000673 0.0
2.537566 2.191649 0.000455 0.0
0.853383 0.495508 0.002225 0.0
0.353032 0.528000 -0.000227 0.0
3.348218 1.082386 -0.005226 0.0
4.084324 0.934258 -0.003452 0.0
0.187717 0.759399 -0.004347 0.0
2.329918 0.945836 0.002029 0.0
1.455967 1.298454 -0.005040 0.0
0.937231 0.758863 0.000185 0.0
1.379367 0.536499 -0.000369 0.0
2.926899 1.873727 -0.002465 0.0
4.288901 1.451409 -0.001633 0.0
3.162660 2.204726 0.000432 0.0
4.073879 2.202719 0.001752 0.0
3.580515 1.201920 -0.002315 0.0
0.387863 0.568145 0.003062 0.0
4.015825 0.849624 -0.001216 0.0
4.203917 0.257256 -0.003050 0.0
0.455238 1.604518 -0.002080 0.0
3.566334 0.937885 0.000860 0.0
2.967037 1.580916 0.000011 0.0
1.442306 1.668241 -0.001258 0.0
2.632395 1.799343 0.002512 0.0
1.320990 1.342683 0.002630 0.0
1.257612 1.149543 0.001746 0.0
3.049585 1.835937 -0.003642 0.0
3.440475 0.009908 -0.001091 0.0
2.434201 0.012491 -0.006741 0.0
0.810573 1.518849 -0.002842 0.0
4.157919 1.295182 0.001060 0.0
4.044133 2.031861 -0.001004 0.0
3.510026 0.705809 0.002498 0.0
2.104206 1.173039 -0.003057 0.0
0.341890 1.363179 0.002032 0.0
0.294325 1.335492 0.001077 0.0
1.100187 1.544344 0.001633 0.0
1.264674 0.100735 -0.001274 0.0
0.440118 0.170041 -0.003631 0.0
0.343085 0.401468 0.000304 0.0
0.320283 2.013743 -0.000310 0.0
3.304104 2.018720 -0.000939 0.0
2.613579 0.864447 -0.002298 0.0
1.454226 0.319283 -0.001725 0.0
2.940255 2.056377 0.004135 0.0
4.128447 0.427365 -0.000241 0.0
4.505709 1.586538 -0.003279 0.0
1.823055 1.230387 0.000165 0.0
1.237050 1.111695 0.000883 0.0
1.636292 1.432434 -0.001516 0.0
1.446312 1.690714 -0.004160 0.0
0.573030 1.098166 0.003519 0.0
2.893500 1.316821 0.000551 0.0
4.505694 1.043211 0.001499 0.0
1.715695 1.837227 -0.000238 0.0
3.787504 1.471325 0.002087 0.0
4.366400 0.809323 -0.004369 0.0
0.290010 0.425862 0.001885 0.0
4.323808 0.823567 -0.001324 0.0
4.169377 0.155056 -0.000415 0.0
1.880431 0.085026 -0.001540 0.0
3.674190 1.401801 0.000837 0.0
4.485280 1.390756 -0.000021 0.0
0.373855 0.571107 -0.002392 0.0
2.754652 0.941435 0.000298 0.0
1.627989 1.312382 -0.004140 0.0
3.664400 2.028267 0.000299 0.0
4.229256 0.869626 -0.000225 0.0
1.894841 0.605345 -0.002907 0.0
1.065450 0.578084 -0.002154 0.0
2.233996 0.373822 -0.000079 0.0
4.173916 0.818978 -0.002634 0.0
0.024719 0.556690 0.000789 0.0
3.589355 1.557397 0.006378 0.0
2.869518 1.632767 -0.000114 0.0
1.627853 1.940918 0.006182 0.0
0.944064 1.844234 -0.000991 0.0
1.252185 1.098672 -0.005029 0.0
0.108261 0.406076 -0.003254 0.0
2.298821 0.762090 -0.000601 0.0
3.764570 0.429824 0.001743 0.0
0.899252 1.250349 0.005468 0.0
2.669414 1.363183 -0.000192 0.0
0.398849 2.205380 -0.004806 0.0
0.492437 1.169651 -0.001086 0.0
1.026246 0.974202 0.002987 0.0
3.307560 0.331639 0.002474 0.0
2.620244 0.381299 -0.002653 0.0
3.413893 0.197014 -0.000091 0.0
0.309349 0.515842 -0.003419 0.0
4.120848 1.006249 -0.001177 0.0
0.010809 1.801129 -0.002038 0.0
3.278215 0.141110 -0.000712 0.0
0.602628 0.163241 0.004989 0.0
4.005672 0.126906 -0.000849 0.0
4.381775 2.098845 -0.002148 0.0
1.824073 0.483943 0.001318 0.0
1.274718 2.110452 -0.002574 0.0
3.726795 0.579026 -0.002610 0.0
3.477255 0.627066 0.004891 0.0
1.133269 0.111983 -0.002094 0.0
3.827746 0.146509 0.000176 0.0
2.572175 0.431223 -0.001818 0.0
3.688144 2.123232 -0.003184 0.0
0.481561 0.112671 -0.000149 0.0
2.443247 1.847199 0.001017 0.0
0.012462 1.310725 0.000105 0.0
1.690176 1.262430 -0.005716 0.0
0.122509 1.302771 0.005031 0.0
4.418071 1.323320 -0.000341 0.0
2.982818 1.388814 0.002819 0.0
0.978284 1.572796 -0.001023 0.0
1.969309 0.134801 0.000750 0.0
0.047433 1.036488 -0.001667 0.0
1.071310 1.069929 0.001721 0.0
4.406398 0.783064 0.000969 0.0
0.352945 2.224241 -0.000447 0.0
4.061307 0.698409 0.005362 0.0
0.378541 1.453859 -0.001598 0.0
1.753076 1.577407 -0.004535 0.0
2.888648 1.545539 -0.000539 0.0
0.468085 2.046663 -0.001729 0.0
0.727506 1.470553 -0.001818 0.0
1.846487 0.457655 -0.001189 0.0
3.584268 0.314044 -0.000529 0.0
3.442835 0.472287 0.001997 0.0
0.330350 1.015958 -0.004580 0.0
0.279995 1.718394 -0.002305 0.0
1.431220 1.109202 -0.001280 0.0
0.288449 0.872139 0.001227 0.0
0.801978 1.759783 0.006563 0.0
1.560454 1.002722 0.001482 0.0
1.413560 0.276272 -0.001329 0.0
1.547228 0.102983 -0.004007 0.0
0.785686 0.203459 0.002038 0.0
0.189872 1.458571 -0.001340 0.0
4.457706 1.053144 -0.001421 0.0
3.166231 1.787544 0.001520 0.0
2.336666 1.434967 0.005044 0.0
3.147176 0.132932 0.004071 0.0
0.842314 1.159342 -0.009040 0.0
1.907435 2.015604 0.001581 0.0
4.548968 1.297783 -0.004765 0.0
1.620869 0.301771 0.000106 0.0
1.839374 1.431075 -0.000738 0.0
4.191296 1.610307 0.004487 0.0
4.243810 0.694558 0.001333 0.0
3.960236 0.693985 -0.002539 0.0
4.111549 1.803416 -0.002211 0.0
0.488282 1.373735 0.004195 0.0
3.749264 0.405116 0.001035 0.0
3.041829 0.538175 0.001919 0.0
2.361866 1.222574 -0.000696 0.0
0.242639 1.444394 -0.005770 0.0
2.749478 2.213889 0.000637 0.0
3.617153 0.302042 -0.003083 0.0
1.977343 1.732653 0.000774 0.0
4.150272 1.586954 0.000496 0.0
2.584367 0.778098 -0.000864 0.0
2.636689 2.086752 0.002026 0.0
1.740880 2.144948 -0.000249 0.0
2.948339 0.101952 -0.002433 0.0
1.374895 2.124217 -0.000765 0.0
3.949228 0.912081 -0.000669 0.0
4.150856 1.830785 -0.004453 0.0
3.825485 1.020871 -0.000881 0.0
1.386981 1.789232 -0.001428 0.0
2.818658 1.955081 0.002062 0.0
0.175831 2.166953 -0.000306 0.0
0.223046 2.003983 0.000226 0.0
1.907337 1.651301 0.000129 0.0
3.367403 1.791345 0.001128 0.0
1.307467 1.625626 -0.000892 0.0
3.987155 0.902361 0.001786 0.0
4.366154 1.321780 -0.000071 0.0
2.644918 0.697381 0.001567 0.0
3.498445 0.462258 0.001302 0.0
0.897595 0.524675 -0.000813 0.0
2.398960 1.289373 0.003742 0.0
1.262604 0.391205 -0.000500 0.0
0.322518 1.618404 -0.004406 0.0
2.189515 0.243452 -0.000060 0.0
1.691244 1.246890 0.003960 0.0
1.796441 1.690985 -0.001178 0.0
1.695928 1.723994 -0.001867 0.0
2.019607 1.242721 -0.001161 0.0
3.611910 0.223628 -0.001452 0.0
4.487966 0.343470 0.000182 0.0
1.247930 1.293451 -0.000535 0.0
0.456675 0.991791 -0.002789 0.0
2.125654 1.172679 0.000392 0.0
4.048146 0.742894 0.001701 0.0
1.133760 1.945330 -0.000785 0.0
1.436724 0.270966 -0.000976 0.0
0.394014 1.356164 -0.001301 0.0
2.043017 1.735189 -0.000565 0.0
2.802192 0.290353 -0.001043 0.0
3.603369 0.063934 -0.001683 0.0
0.743225 1.715932 0.001933 0.0
3.174532 0.076469 -0.001425 0.0
2.078102 1.412817 -0.000499 0.0
2.576685 0.263544 -0.000012 0.0
2.449502 0.667794 -0.000813 0.0
1.810815 0.606670 -0.002911 0.0
4.535578 1.764824 0.001108 0.0
0.757921 1.640564 -0.000516 0.0
4.385765 1.900604 0.001195 0.0
3.296364 0.518650 0.002510 0.0
1.621161 1.997536 -0.000908 0.0
3.951823 1.414798 -0.002971 0.0
2.462439 0.919430 0.003043 0.0
3.198950 0.491646 -0.002981 0.0
4.449479 1.652292 0.000555 0.0
1.571122 0.852069 0.000263 0.0
2.396225 0.471405 0.004260 0.0
1.920537 0.094901 0.000845 0.0
1.759486 0.791830 0.000989 0.0
1.620582 0.426554 0.000912 0.0
3.730641 0.922618 0.000971 0.0
0.591499 0.060418 0.000596 0.0
3.495444 2.218169 0.002314 0.0
2.822324 1.448803 -0.001324 0.0
3.914206 2.014785 -0.001306 0.0
3.841344 2.079247 -0.002523 0.0
0.448571 0.197206 -0.002571 0.0
3.553807 0.050323 0.004772 0.0
2.978889 1.737414 0.000983 0.0
1.972255 0.892339 0.000286 0.0
4.248163 1.868398 0.001223 0.0
0.611395 1.515628 0.002534 0.0
2.266975 1.480151 -0.001862 0.0
1.756836 1.235806 0.001566 0.0
2.737951 1.186663 -0.003054 0.0
1.074140 1.364798 0.000556 0.0
4.277572 0.490044 0.002553 0.0
3.038323 0.531667 -0.001318 0.0
0.731345 1.230344 0.000075 0.0
1.526662 1.382440 -0.002312 0.0
0.120592 1.603573 0.002219 0.0
1.537523 0.792942 -0.003840 0.0
2.792931 1.651957 0.001249 0.0
0.657934 0.385379 0.001780 0.0
3.776199 0.257092 0.000457 0.0
0.070852 0.573169 0.003087 0.0
3.038926 0.200436 -0.000422 0.0
0.546420 0.312875 0.001480 0.0
3.455109 0.663634 -0.000959 0.0
3.319797 0.513135 0.002902 0.0
0.646274 0.532339 -0.002309 0.0
4.186429 0.556357 0.000911 0.0
2.161369 0.818804 0.001893 0.0
1.075029 0.564625 -0.000733 0.0
4.524738 0.880763 0.005177 0.0
4.538527 1.814100 -0.005740 0.0
2.629167 0.687072 0.004014 0.0
2.334338 0.064824 -0.000105 0.0
0.575504 2.045658 0.002517 0.0
0.846342 1.696068 -0.002358 0.0
2.590660 1.433793 -0.000429 0.0
2.688702 0.205110 -0.000967 0.0
0.637145 0.228727 -0.000888 0.0
0.511400 0.689457 0.002659 0.0
4.238725 0.454159 -0.003935 0.0
4.536049 0.801726 0.001775 0.0
4.050983 0.142269 0.001526 0.0
3.946642 0.657868 0.002031 0.0
2.648946 0.053071 0.002258 0.0
4.145236 1.047655 0.002375 0.0
2.667813 1.812122 0.003882 0.0
0.345330 0.204416 0.001703 0.0
1.029080 1.216491 -0.000988 0.0
1.526926 1.960867 0.002256 0.0
0.577394 0.020237 -0.002584 0.0
1.986030 1.053372 -0.001324 0.0
3.203582 0.607424 0.000982 0.0
1.418010 1.170043 -0.001104 0.0
0.111852 0.647513 0.000785 0.0
2.642887 0.005847 0.000725 0.0
4.451476 1.852418 -0.003099 0.0
0.347984 1.789605 -0.003641 0.0
3.870372 0.334312 0.003066 0.0
0.470549 2.081479 -0.002637 0.0
3.272209 0.355389 0.001385 0.0
3.755714 0.337313 0.002049 0.0
2.692086 1.979119 0.001424 0.0
1.480227 2.176682 0.001546 0.0
3.517134 1.274991 -0.003197 0.0
0.220620 1.507790 0.000667 0.0
0.740970 0.997058 -0.000394 0.0
2.277366 1.881004 0.001735 0.0
3.460418 1.301611 0.000519 0.0
0.044758 2.112901 0.000848 0.0
0.809863 0.074463 0.002202 0.0
0.102827 0.746728 -0.004551 0.0
3.905708 1.574596 0.002044 0.0
1.260987 1.098406 0.001463 0.0
2.477559 0.773638 0.001336 0.0
4.173676 0.838342 -0.004239 0.0
3.019355 0.255117 -0.001929 0.0
1.066531 0.078612 -0.000433 0.0
3.862737 0.966440 0.002557 0.0
0.080224 0.226815 -0.001925 0.0
1.011330 1.583646 0.000369 0.0
3.631354 1.224140 -0.000094 0.0
4.417154 2.108806 0.004708 0.0
0.479044 2.023669 -0.001401 0.0
0.806669 0.596308 -0.000242 0.0
1.126065 0.427877 -0.001861 0.0
1.476974 0.383807 0.004188 0.0
0.728520 1.479517 0.005015 0.0
4.529219 2.014392 -0.000758 0.0
0.293184 0.643744 -0.001886 0.0
3.597875 1.816163 -0.001105 0.0
2.817694 0.236851 0.002374 0.0
1.119341 0.495747 -0.004137 0.0
4.212795 1.185341 0.000082 0.0
1.222258 1.466755 -0.003249 0.0
0.203515 1.908107 -0.000976 0.0
4.459336 0.564587 -0.002842 0.0
3.257183 1.077516 0.003027 0.0
3.981101 1.211987 -0.001366 0.0
2.790911 0.617076 -0.001108 0.0
0.253017 0.560930 -0.000785 0.0
2.570617 1.113281 -0.000328 0.0
1.093119 1.368580 -0.002581 0.0
3.133181 0.406033 -0.001588 0.0
3.644975 0.538566 0.002663 0.0
2.480692 0.980159 0.001664 0.0
4.105652 0.507567 0.005547 0.0
1.531120 0.159815 -0.001685 0.0
1.283397 0.812948 -0.004169 0.0
0.513140 0.141649 0.000141 0.0
1.262396 1.635219 0.001729 0.0
3.837723 0.158051 -0.000928 0.0
1.902637 2.222224 -0.000181 0.0
0.567644 1.702894 0.002645 0.0
3.164600 1.744346 -0.001097 0.0
0.744905 0.658089 0.002561 0.0
0.797355 1.294688 0.000862 0.0
3.401693 1.053798 -0.005250 0.0
0.886702 0.049348 -0.003329 0.0
3.724894 1.391812 -0.002671 0.0
0.994584 0.527973 0.002391 0.0
4.197614 0.081134 0.000298 0.0
3.149017 0.405671 -0.003621 0.0
4.143247 0.160101 -0.000548 0.0
0.451835 0.379876 0.001615 0.0
2.693979 2.039550 0.000357 0.0
1.638191 1.553278 -0.000371 0.0
1.101283 0.175041 0.002662 0.0
2.194010 0.250770 0.000740 0.0
1.944946 1.353029 -0.001087 0.0
2.638071 0.146622 0.000740 0.0
3.578768 0.003997 -0.004636 0.0
1.601175 1.106528 -0.001250 0.0
2.793961 1.260152 0.002192 0.0
0.637827 2.118185 -0.003649 0.0
0.615658 2.015947 -0.001466 0.0
0.205718 1.705358 -0.004503 0.0
1.525374 0.283816 -0.002526 0.0
2.814234 1.673407 0.002735 0.0
0.517974 0.254147 0.000850 0.0
0.526147 1.247874 0.000542 0.0
4.451911 2.205730 0.002599 0.0
1.229620 0.867597 -0.005731 0.0
4.584048 1.772784 -0.000296 0.0
3.161341 2.033391 0.001658 0.0
0.373515 0.288866 0.001902 0.0
3.519214 1.776963 -0.002460 0.0
4.157185 1.995952 -0.004352 0.0
4.550044 2.233762 0.000775 0.0
0.979007 1.995820 0.001842 0.0
1.610432 0.845854 0.002706 0.0
0.092215 2.047557 0.002211 0.0
0.102721 1.234424 -0.001753 0.0
0.273656 1.363596 0.001589 0.0
1.636286 1.105450 0.002703 0.0
2.168188 1.714683 0.006339 0.0
2.475440 1.965041 0.000396 0.0
2.997564 2.117590 0.004547 0.0
2.102191 1.163843 -0.003890 0.0
2.655040 1.006607 0.003888 0.0
1.332089 0.076760 -0.001248 0.0
4.368652 1.915560 -0.004807 0.0
0.818546 1.923234 0.000294 0.0
0.912972 0.984017 0.002104 0.0
1.643096 0.056821 0.001222 0.0
3.836634 1.035972 -0.000057 0.0
0.076161 1.437429 -0.001020 0.0
4.567238 1.068638 -0.003117 0.0
4.367446 0.951828 -0.001016 0.0
4.534511 0.507246 0.002539 0.0
3.897133 0.238333 -0.000869 0.0
4.055542 1.884248 -0.005435 0.0
2.054155 0.012682 -0.002370 0.0
2.123159 0.761464 0.001051 0.0
4.256348 1.606967 -0.002834 0.0
3.866463 1.153125 -0.001570 0.0
1.845541 1.558573 0.000094 0.0
0.944604 1.522116 -0.001634 0.0
3.048267 1.517405 0.001761 0.0
2.973637 0.103377 0.001411 0.0
2.821001 1.086870 0.002757 0.0
3.429197 1.487640 0.000580 0.0
3.341763 0.730046 0.004991 0.0
2.499745 0.795979 -0.000799 0.0
2.154018 1.460822 0.003323 0.0
3.565204 1.444249 0.000567 0.0
1.916265 1.903735 -0.001159 0.0
2.996896 1.999559 -0.004368 0.0
4.411963 1.363376 -0.002143 0.0
2.870434 0.741409 0.000568 0.0
3.935532 1.287157 -0.000013 0.0
3.838446 1.805328 0.000771 0.0
3.106682 0.392046 -0.002771 0.0
2.811900 1.480459 0.000593 0.0
0.072009 0.189772 0.001762 0.0
0.375179 0.812849 0.001526 0.0
3.209682 1.691330 0.002694 0.0
2.945617 0.193391 0.002045 0.0
0.345685 0.884063 -0.003461 0.0
2.606949 1.537179 -0.000283 0.0
0.495576 0.085424 -0.002551 0.0
0.462646 1.383967 0.001047 0.0
4.255307 0.243491 -0.001401 0.0
4.482859 1.373924 -0.002058 0.0
1.255633 1.945020 -0.002021 0.0
3.801622 0.596779 0.001952 0.0
3.285288 0.169187 -0.004066 0.0
1.102946 2.202772 0.003530 0.0
3.738731 0.827824 0.003118 0.0
1.585880 0.254474 0.000491 0.0
0.610785 1.135740 -0.005014 0.0
0.987163 1.760804 0.002701 0.0
2.627078 0.112025 0.001776 0.0
2.791229 1.446225 -0.001091 0.0
2.600385 2.004740 0.000863 0.0
1.058366 0.465014 0.000168 0.0
2.915371 0.085494 0.002967 0.0
0.446229 1.995718 0.003100 0.0
4.548665 0.731802 -0.000375 0.0
2.788279 0.146856 0.003834 0.0
2.452140 0.060923 -0.002691 0.0
4.112143 1.689770 0.000047 0.0
2.274857 0.656143 -0.000756 0.0
4.094270 1.359941 0.000954 0.0
0.073998 0.214734 -0.002983 0.0
3.343761 1.408426 0.003038 0.0
4.356416 0.982216 0.003227 0.0
0.642969 0.989215 0.003421 0.0
4.269219 1.342613 0.000560 0.0
2.385106 1.743685 -0.002897 0.0
1.898317 0.694982 -0.001685 0.0
2.087622 0.357968 -0.000088 0.0
2.870834 0.453940 -0.000172 0.0
0.672454 0.846211 -0.000198 0.0
4.588319 1.784679 0.001324 0.0
3.670682 1.113255 0.000287 0.0
2.862049 0.681176 0.004514 0.0
3.209993 2.218837 0.002117 0.0
2.256560 0.357004 -0.002104 0.0
3.414747 0.555446 -0.004618 0.0
3.929146 2.031951 -0.001743 0.0
2.442193 2.048934 0.003445 0.0
0.435456 0.092748 0.002734 0.0
3.516760 1.415502 0.002085 0.0
0.097489 0.115400 -0.001281 0.0
3.754215 1.468063 -0.000579 0.0
3.437266 2.164521 0.002080 0.0
4.196246 0.174392 -0.001576 0.0
0.354202 1.851708 -0.001363 0.0
3.892982 1.813375 0.002015 0.0
0.263050 0.953148 0.002598 0.0
2.412331 1.161550 0.001099 0.0
4.477884 0.995314 0.000591 0.0
4.097316 0.471747 -0.001378 0.0
0.849946 0.174023 -0.000649 0.0
1.368825 1.458350 -0.002844 0.0
0.448464 1.834071 0.000023 0.0
1.504733 0.389722 -0.002872 0.0
3.809156 1.428931 -0.002823 0.0
1.146276 1.385013 0.003794 0.0
0.204300 0.575173 0.003337 0.0
0.189012 0.800160 0.001246 0.0
3.024002 0.695578 -0.001798 0.0
2.734354 1.303177 -0.001038 0.0
0.447148 1.505414 -0.001121 0.0
0.413060 0.259349 -0.004999 0.0
0.617150 1.030074 -0.002724 0.0
0.707262 0.924935 0.001392 0.0
3.647243 2.044165 0.001717 0.0
4.458676 1.770953 0.001736 0.0
1.036825 1.501338 0.001136 0.0
0.720855 1.228233 -0.001220 0.0
0.417222 0.724161 0.006041 0.0
2.621980 1.344444 0.000569 0.0
1.461446 1.981370 0.001597 0.0
4.546218 1.517203 -0.000987 0.0
2.121773 0.857475 -0.001979 0.0
3.340433 1.877907 0.004011 0.0
3.147845 0.747454 -0.001808 0.0
0.995431 0.132637 -0.002481 0.0
0.191685 0.622828 -0.001123 0.0
3.657833 0.341818 -0.001211 0.0
3.951438 1.576521 0.000673 0.0
3.890739 0.765300 0.002753 0.0
3.705992 0.880200 0.000713 0.0
1.586998 0.913212 0.001073 0.0
0.223860 0.778703 0.000053 0.0
3.217657 1.623873 -0.003703 0.0
3.392945 1.419270 0.001053 0.0
1.683355 0.870767 0.000415 0.0
3.856933 0.342293 -0.001173 0.0
4.256347 2.194761 -0.000785 0.0
0.094203 0.039848 -0.000403 0.0
2.274720 0.167576 -0.001155 0.0
2.503134 0.964846 -0.001214 0.0
2.078313 0.437202 0.005465 0.0
3.712611 0.787112 0.004575 0.0
0.547207 0.835119 -0.000472 0.0
0.433600 1.559928 0.000411 0.0
2.027575 1.962357 0.001203 0.0
1.033906 0.750659 -0.000153 0.0
2.785905 0.389557 -0.000890 0.0
3.951357 0.378851 -0.000214 0.0
4.125738 1.251333 0.000720 0.0
3.551854 0.256756 -0.003069 0.0
4.190265 0.744961 0.001944 0.0
3.076427 0.596458 -0.003080 0.0
