2.275673 1.716940 -0.003468 0.0
0.389906 1.342153 -0.000130 0.0
0.854058 1.378253 -0.002840 0.0
2.793853 0.661289 0.001864 0.0
0.230288 0.531397 -0.003610 0.0
2.323482 0.632016 0.001404 0.0
2.779277 0.690165 -0.002342 0.0
3.573014 0.099682 0.001747 0.0
4.039126 1.292833 0.001675 0.0
1.268154 1.201357 0.001197 0.0
1.266402 1.210546 -0.001896 0.0
1.733213 0.426555 -0.003207 0.0
1.020224 1.327647 0.000072 0.0
4.090982 1.550100 0.003844 0.0
3.360067 1.160429 -0.002267 0.0
1.292568 0.552886 -0.001097 0.0
1.085021 0.618673 -0.000498 0.0
4.300330 1.806567 0.002162 0.0
1.600764 1.382995 -0.003453 0.0
4.444316 0.386831 -0.001898 0.0
3.773692 0.640965 -0.002944 0.0
1.358314 0.874409 -0.004144 0.0
3.073349 1.585411 -0.002540 0.0
1.002860 0.701062 -0.002754 0.0
0.511827 1.719729 0.001491 0.0
4.011483 0.058266 -0.001298 0.0
0.650101 0.795465 -0.001610 0.0
1.546612 0.269330 -0.001820 0.0
4.374297 0.150530 0.001487 0.0
0.406721 0.804785 -0.003738 0.0
3.210324 1.662916 0.002693 0.0
1.229475 0.231806 -0.004802 0.0
0.659048 1.733165 0.002248 0.0
4.420555 0.493565 -0.000795 0.0
3.679742 1.366821 0.001824 0.0
4.054711 0.490693 -0.003320 0.0
3.939041 0.255102 -0.005353 0.0
0.195386 1.739862 0.000215 0.0
3.568787 0.080087 0.003255 0.0
2.959053 1.041806 -0.002099 0.0
3.496841 0.044635 0.000430 0.0
2.325416 1.382321 -0.002430 0.0
2.682674 0.185149 0.000758 0.0
1.276997 1.333371 0.001543 0.0
0.833872 0.646991 -0.001907 0.0
2.081895 1.427918 -0.001958 0.0
1.885167 1.251196 0.000728 0.0
4.173510 1.279442 0.002626 0.0
4.375124 0.861335 0.001448 0.0
3.545709 1.056041 0.002563 0.0
1.301239 0.777822 -0.005383 0.0
1.212987 0.038302 -0.000117 0.0
4.209128 0.876038 0.001897 0.0
1.181791 0.618633 0.003896 0.0
4.053727 0.889942 -0.001914 0.0
2.710597 1.773454 0.001411 0.0
0.192971 0.013397 -0.002250 0.0
1.316463 1.504944 0.000465 0.0
0.384201 1.695546 0.001248 0.0
4.114378 0.199277 0.002743 0.0
3.535664 0.054323 0.003651 0.0
1.402455 0.620746 0.001308 0.0
1.848452 0.493245 -0.001125 0.0
2.834052 0.923619 -0.002473 0.0
4.467985 0.538079 -0.002903 0.0
1.618767 0.952710 -0.000634 0.0
0.954037 0.258992 0.001233 0.0
1.905029 1.109296 -0.002847 0.0
2.432027 1.436584 0.000216 0.0
3.724770 0.574286 -0.002883 0.0
1.773891 0.578175 0.001395 0.0
3.837212 1.709222 0.004053 0.0
2.803567 0.008007 0.001085 0.0
3.003849 0.917687 -0.002800 0.0
0.592278 1.592184 0.000509 0.0
4.068511 0.159356 -0.003673 0.0
0.035258 0.639087 0.000744 0.0
1.645398 1.459543 0.003146 0.0
2.610513 0.896757 -0.001632 0.0
0.473904 0.502834 -0.006129 0.0
0.303993 1.496401 -0.000081 0.0
2.348012 0.612349 0.000130 0.0
3.127495 1.518649 0.004397 0.0
1.574736 1.028781 0.000260 0.0
2.925762 1.362155 0.002004 0.0
0.868976 1.555999 -0.001469 0.0
2.518187 1.298621 -0.001849 0.0
2.269021 1.570602 0.004191 0.0
3.789471 1.574761 -0.000244 0.0
2.813206 0.004498 -0.000041 0.0
1.068348 1.220018 0.004207 0.0
0.211345 1.640637 0.002955 0.0
4.011942 0.876897 0.001558 0.0
3.930380 0.592104 -0.001796 0.0
3.587559 0.933207 -0.000912 0.0
1.552616 1.353802 0.000888 0.0
1.339735 0.399213 0.001377 0.0
3.252709 1.366464 -0.004639 0.0
3.913551 1.078703 -0.000436 0.0
0.621483 0.108203 0.000043 0.0
1.884688 0.823172 0.005156 0.0
4.335243 1.793242 -0.001538 0.0
4.116616 0.694977 0.005831 0.0
3.899252 0.021009 -0.001025 0.0
2.358279 0.433040 -0.000061 0.0
3.502400 0.807291 0.000278 0.0
1.823879 1.180171 -0.005844 0.0
2.660787 0.133598 -0.001007 0.0
2.869020 0.918108 0.002013 0.0
1.627887 1.627055 0.001700 0.0
4.307481 0.460340 -0.002543 0.0
0.685903 0.252287 0.002559 0.0
1.752283 0.796944 0.001150 0.0
4.065409 0.509952 0.002690 0.0
2.373261 0.883809 -0.001413 0.0
4.462830 0.048605 -0.001930 0.0
4.330240 1.395187 -0.001213 0.0
1.866024 1.074868 -0.002267 0.0
0.300830 0.821411 -0.004065 0.0
0.320482 1.811240 0.000411 0.0
0.484526 0.318846 -0.000398 0.0
3.587891 0.717406 -0.000759 0.0
2.553673 1.107342 0.000339 0.0
2.281259 1.558452 -0.000121 0.0
3.203472 1.867167 -0.002395 0.0
1.733716 1.197908 0.002642 0.0
1.461401 0.932026 -0.002030 0.0
4.028925 0.150075 0.000550 0.0
2.164794 0.339059 0.002756 0.0
1.911078 1.774693 0.003320 0.0
0.698969 0.540374 -0.003447 0.0
0.601486 0.971048 -0.003805 0.0
4.231250 0.157238 0.000341 0.0
2.598931 1.874461 -0.002595 0.0
2.120726 0.066611 -0.001776 0.0
4.344951 0.151724 0.002369 0.0
1.352292 1.785364 -0.001304 0.0
0.734223 0.609926 0.002869 0.0
0.977065 0.782276 -0.002639 0.0
0.573500 1.527544 0.001104 0.0
1.728788 1.346006 0.000912 0.0
1.135371 0.378259 -0.003354 0.0
2.033065 1.054975 -0.000580 0.0
1.240274 0.653218 0.003442 0.0
0.633311 1.483384 0.000737 0.0
1.170325 1.819577 0.000023 0.0
3.177130 1.767489 0.000590 0.0
1.614022 0.215807 -0.004523 0.0
3.157566 1.135981 0.000319 0.0
0.430921 0.142279 0.004841 0.0
0.975716 0.902367 0.001851 0.0
0.473880 1.773146 0.003583 0.0
0.696265 1.377605 -0.004917 0.0
4.254403 0.556724 -0.003104 0.0
0.894284 0.863000 -0.001043 0.0
0.464830 0.046488 0.001435 0.0
3.324131 1.698145 -0.003466 0.0
0.310143 1.253527 0.003301 0.0
3.551287 0.020485 0.000642 0.0
3.848372 0.019051 0.001576 0.0
3.468264 1.670478 -0.001191 0.0
2.280449 1.369310 -0.001660 0.0
1.089989 1.263431 0.000994 0.0
4.363275 0.745300 -0.001886 0.0
2.050337 1.542300 0.000830 0.0
2.157728 1.426689 0.000442 0.0
1.669588 1.420946 -0.001252 0.0
2.190723 0.953055 -0.003510 0.0
1.751335 1.276193 0.000539 0.0
2.337901 1.477698 0.000982 0.0
2.782950 0.758631 -0.002702 0.0
4.196439 1.621782 0.002385 0.0
0.963416 1.271053 0.005473 0.0
3.942033 0.638720 -0.000761 0.0
3.964432 0.630849 -0.000583 0.0
2.746515 0.608520 -0.001515 0.0
4.030582 1.766260 -0.000626 0.0
0.259050 0.234607 -0.000608 0.0
2.252325 1.593530 -0.002025 0.0
0.737165 1.383606 -0.001409 0.0
0.560864 1.342330 -0.003739 0.0
1.855364 1.303140 0.005718 0.0
0.752190 0.821686 0.003174 0.0
1.258502 0.442867 -0.001280 0.0
3.711826 1.829170 -0.003515 0.0
2.238579 1.245806 -0.000592 0.0
3.988003 1.346440 0.001201 0.0
1.751458 0.306733 0.002272 0.0
0.494218 0.391073 -0.000253 0.0
2.545166 1.843967 0.002339 0.0
4.179630 0.395735 0.001269 0.0
3.868018 0.202977 -0.000730 0.0
1.095457 1.830896 -0.004410 0.0
3.123001 0.269990 -0.002818 0.0
2.920357 1.647466 -0.007179 0.0
2.544055 1.583841 0.000565 0.0
4.248374 1.502860 -0.002238 0.0
0.347961 0.412775 0.001179 0.0
2.005750 0.518348 0.001595 0.0
2.062924 0.857088 -0.000456 0.0
3.311053 1.583705 -0.001541 0.0
2.839056 1.343225 -0.002500 0.0
1.976161 0.351232 -0.003070 0.0
1.245539 0.431130 -0.001262 0.0
4.441369 0.794710 0.005858 0.0
0.655232 1.135314 0.002435 0.0
2.991309 1.456348 0.003122 0.0
2.258001 0.207261 -0.000400 0.0
3.069698 1.415937 -0.000592 0.0
2.689283 0.081605 -0.002420 0.0
0.477726 0.562824 -0.000720 0.0
1.046711 1.528471 0.003218 0.0
3.592642 1.463146 -0.001650 0.0
1.705590 0.940266 0.002295 0.0
3.373927 1.594452 -0.001177 0.0
0.028880 1.128147 0.004163 0.0
2.449686 0.112763 0.000040 0.0
4.073336 0.612369 0.002081 0.0
0.617556 0.857744 -0.003742 0.0
1.439797 1.418879 -0.000450 0.0
1.794816 0.428173 0.001274 0.0
1.159453 1.003204 0.001199 0.0
1.008614 0.536088 -0.004315 0.0
3.928086 0.732521 0.000048 0.0
1.146389 0.469937 -0.002762 0.0
3.745222 1.478339 -0.002723 0.0
0.474604 1.822157 0.003015 0.0
2.798480 0.537694 -0.002025 0.0
2.654900 0.484749 0.002749 0.0
3.578017 1.774276 0.000967 0.0
0.793889 0.279910 -0.002939 0.0
3.922945 1.034596 -0.000643 0.0
0.213014 1.692286 -0.000897 0.0
4.112601 1.311573 0.000275 0.0
1.818851 1.214103 -0.002023 0.0
4.211975 1.287798 0.001891 0.0
0.666408 1.689597 0.001695 0.0
3.307060 1.648801 -0.000607 0.0
3.438382 1.085877 0.004057 0.0
1.665748 0.227843 0.002028 0.0
1.068193 0.085425 0.003533 0.0
4.048956 1.624328 0.005000 0.0
3.465932 1.294428 0.003610 0.0
1.414667 1.067618 -0.006013 0.0
2.242291 0.257548 -0.000815 0.0
3.121576 0.707814 0.000764 0.0
0.582061 0.447859 0.006018 0.0
3.851300 0.042885 0.003473 0.0
4.191675 1.185286 -0.000292 0.0
4.126710 1.810967 -0.000565 0.0
1.693187 0.389186 -0.005152 0.0
3.297742 1.011843 -0.001390 0.0
3.503577 1.854563 0.000936 0.0
0.950573 0.429043 0.002879 0.0
1.541385 1.712291 -0.003902 0.0
2.500985 0.436205 -0.002130 0.0
2.090504 0.921543 0.001211 0.0
2.308176 0.425036 -0.002458 0.0
4.137492 0.343934 -0.002830 0.0
2.563653 1.602657 0.000602 0.0
4.309174 1.130569 0.001700 0.0
3.043174 0.797236 -0.002832 0.0
0.036507 1.228841 0.000129 0.0
1.833862 0.754407 0.003510 0.0
0.288157 0.712120 -0.003025 0.0
3.713677 0.656143 -0.000213 0.0
2.417248 0.526757 -0.004801 0.0
4.173918 1.448423 -0.002103 0.0
4.153233 0.839198 -0.001352 0.0
3.806256 0.663485 0.002428 0.0
1.937640 1.180920 -0.000623 0.0
1.464920 1.569702 0.000550 0.0
2.307890 1.822902 0.000125 0.0
0.693702 1.238738 0.001610 0.0
3.933836 0.302703 -0.000235 0.0
0.645372 0.940952 -0.000135 0.0
1.474526 0.258788 -0.003060 0.0
2.953185 0.249202 -0.001005 0.0
1.926760 0.726446 0.003377 0.0
3.684265 0.890885 -0.000176 0.0
3.565675 1.094067 0.000074 0.0
1.608035 1.670507 -0.000260 0.0
2.677367 0.427895 -0.000944 0.0
0.858472 1.664068 0.002021 0.0
0.974841 1.382052 0.003820 0.0
0.341532 0.707727 -0.000179 0.0
2.707455 0.983649 0.003406 0.0
2.864313 0.686691 -0.002341 0.0
2.172323 1.045427 -0.001277 0.0
4.366065 0.255830 0.001965 0.0
1.668783 0.668058 -0.000300 0.0
2.664121 1.732930 -0.000811 0.0
4.106758 0.081405 -0.006174 0.0
0.323613 0.776138 -0.001432 0.0
0.235688 1.709953 -0.001045 0.0
3.936028 1.608403 -0.001052 0.0
1.608498 1.811740 0.001130 0.0
1.499356 0.691516 -0.001663 0.0
2.868251 1.401697 -0.000538 0.0
1.948438 1.720128 0.002267 0.0
0.829712 1.865244 0.003606 0.0
3.874022 1.266551 -0.001410 0.0
3.121055 1.322581 -0.003566 0.0
1.877609 0.669573 -0.002076 0.0
3.659700 0.202925 -0.001456 0.0
0.310640 1.570241 -0.000844 0.0
3.310719 0.744841 0.000323 0.0
2.400462 1.531244 0.001158 0.0
0.365032 1.208062 0.000442 0.0
1.296316 1.766373 -0.001837 0.0
3.285526 1.148576 0.000489 0.0
1.896438 0.689984 -0.000067 0.0
0.978893 0.861374 0.000719 0.0
4.341142 0.992340 0.000696 0.0
1.464684 0.794730 0.002627 0.0
2.563626 0.496425 0.001225 0.0
0.897079 0.299076 -0.002981 0.0
2.104099 1.642224 -0.000294 0.0
3.509405 1.829387 0.000929 0.0
2.926235 0.580117 -0.005698 0.0
2.463340 1.351369 0.000155 0.0
0.597959 1.227118 0.003146 0.0
0.508063 1.148873 0.000713 0.0
1.505503 1.771780 0.003045 0.0
2.710092 0.844199 -0.001865 0.0
1.632717 1.872641 -0.001053 0.0
1.156670 0.758679 -0.000358 0.0
0.898168 0.291646 0.000720 0.0
4.437577 1.622701 -0.000686 0.0
1.326513 0.421281 -0.003910 0.0
3.323940 0.839365 0.001544 0.0
3.051931 0.829430 -0.000152 0.0
1.980771 0.585546 -0.000869 0.0
0.825683 1.107221 0.002223 0.0
3.794425 0.129166 -0.000128 0.0
0.164506 0.279433 -0.002534 0.0
3.360703 0.287307 -0.002152 0.0
4.136728 1.792553 -0.001785 0.0
0.583910 1.483000 -0.006046 0.0
3.778686 1.397253 -0.000854 0.0
1.805868 1.276090 -0.000082 0.0
0.707400 1.802790 -0.003456 0.0
2.044400 1.559235 -0.005948 0.0
1.454032 1.419819 0.000719 0.0
4.403132 0.286867 -0.005324 0.0
3.064041 1.104940 0.002720 0.0
2.704486 0.338020 0.005789 0.0
2.653788 0.162985 -0.001576 0.0
3.645579 0.196068 -0.005910 0.0
3.207435 1.432616 -0.000064 0.0
1.103279 1.338973 0.001864 0.0
3.016843 1.198797 -0.000407 0.0
0.039137 0.948287 -0.000936 0.0
1.400123 1.061418 0.003145 0.0
2.165607 0.298992 -0.000155 0.0
4.166414 0.885372 -0.001378 0.0
0.875710 0.183840 0.004273 0.0
3.689450 0.333807 0.001290 0.0
3.203090 1.621992 -0.001626 0.0
2.072318 1.394781 0.001899 0.0
1.623202 1.779194 -0.000725 0.0
0.605588 1.137661 -0.000891 0.0
1.188225 1.744265 0.002033 0.0
0.327369 1.854297 -0.003969 0.0
3.954514 0.387529 0.003614 0.0
2.113645 0.594092 -0.002597 0.0
4.013415 0.039341 0.003692 0.0
2.255049 0.380953 0.000296 0.0
3.656762 1.067123 0.000904 0.0
0.385330 1.805148 -0.002320 0.0
3.744927 1.192673 -0.001746 0.0
2.660096 0.461257 -0.001453 0.0
2.259933 0.312969 -0.000091 0.0
1.060449 0.492891 -0.002404 0.0
3.932215 0.526714 0.000860 0.0
0.933204 1.326718 0.000190 0.0
2.206066 0.608889 0.001279 0.0
1.308877 1.064261 0.002389 0.0
2.334134 1.668941 0.000815 0.0
2.181310 1.699723 -0.000929 0.0
0.129596 0.537805 0.002093 0.0
2.804152 0.077281 0.002013 0.0
2.883007 1.523410 0.003627 0.0
3.114804 1.592347 -0.001323 0.0
0.491140 1.106285 -0.002134 0.0
0.469979 1.197855 -0.003207 0.0
3.154071 0.446454 -0.005124 0.0
2.524561 1.579579 -0.000184 0.0
1.137336 1.316928 -0.001147 0.0
4.364726 0.702979 -0.004155 0.0
1.894518 1.149848 -0.000843 0.0
4.136347 0.808075 -0.002442 0.0
1.851876 0.058353 -0.003150 0.0
2.392851 1.203697 0.001373 0.0
1.766198 1.455703 -0.003262 0.0
0.781686 1.782392 -0.002489 0.0
2.705395 1.821014 0.001797 0.0
3.096686 0.658707 -0.002016 0.0
2.591354 0.720420 -0.000500 0.0
3.069230 1.347067 0.005323 0.0
3.194122 0.114487 0.000436 0.0
2.392869 0.421903 0.006574 0.0
1.314812 1.360375 -0.002632 0.0
0.229819 0.256132 -0.000232 0.0
3.173365 1.722289 0.002319 0.0
2.623817 0.989848 0.000797 0.0
1.308934 1.593539 0.000186 0.0
2.393342 0.840687 0.004764 0.0
1.593639 0.041134 -0.000404 0.0
4.099835 1.042377 -0.000221 0.0
1.416200 0.713545 -0.001368 0.0
3.792704 1.787955 0.001561 0.0
2.890914 1.181549 -0.003627 0.0
3.028407 0.666503 -0.001833 0.0
2.726790 1.001952 0.001043 0.0
1.256937 1.686640 -0.002548 0.0
1.077291 0.009440 -0.000746 0.0
2.857169 0.054453 -0.001647 0.0
4.266887 0.021420 0.001142 0.0
1.811846 0.320869 -0.003173 0.0
1.298419 1.871232 0.001621 0.0
1.159146 0.942940 -0.000879 0.0
1.442447 0.311332 -0.002482 0.0
0.787624 1.550381 0.000528 0.0
3.892246 1.692882 -0.000245 0.0
1.031180 1.264004 -0.002095 0.0
4.423453 0.743749 -0.000511 0.0
0.428728 1.436683 -0.001120 0.0
3.363989 0.978255 -0.001115 0.0
2.124897 0.260236 -0.000131 0.0
3.231173 1.542897 -0.000233 0.0
2.124327 0.617146 -0.002619 0.0
1.742317 1.574077 0.002637 0.0
0.632654 0.574260 -0.001357 0.0
3.638951 0.962353 -0.002341 0.0
0.812460 1.748057 0.005071 0.0
1.629603 0.834870 0.001442 0.0
0.443891 0.790058 -0.000313 0.0
2.301907 1.329145 -0.001560 0.0
1.248013 1.317133 0.001619 0.0
1.512997 0.017594 -0.001306 0.0
0.355962 0.779860 -0.004552 0.0
1.402943 1.094891 0.001492 0.0
2.418018 1.504974 -0.001194 0.0
0.474214 1.715462 0.002492 0.0
1.387675 1.420048 0.001161 0.0
1.995429 1.359738 -0.004909 0.0
3.756179 0.398941 0.000870 0.0
2.541078 0.893859 -0.003234 0.0
1.349312 0.622889 0.002603 0.0
2.075057 1.327825 -0.002980 0.0
3.930973 0.154088 0.003376 0.0
3.629916 0.941809 0.000461 0.0
1.848022 1.632962 -0.003612 0.0
3.226136 1.538583 -0.001080 0.0
0.322956 0.732359 0.001756 0.0
1.247151 0.842466 0.006216 0.0
3.686317 1.122897 -0.003364 0.0
3.392422 1.496400 -0.002291 0.0
2.656666 0.849663 0.002942 0.0
0.577536 1.833926 0.001723 0.0
1.737814 0.840538 0.001842 0.0
0.792690 1.400190 0.001131 0.0
0.901634 0.221001 -0.000921 0.0
4.031913 0.447628 0.000260 0.0
1.820074 0.188263 0.002092 0.0
2.444258 0.341042 -0.002741 0.0
3.205364 1.102573 -0.002080 0.0
4.099358 0.035812 -0.004228 0.0
2.437504 0.433870 0.001873 0.0
1.421911 1.257907 0.001584 0.0
4.214307 0.295510 0.000532 0.0
3.620146 1.287232 -0.001630 0.0
2.685928 1.520974 -0.001239 0.0
4.011350 0.815052 -0.000243 0.0
2.396578 0.382956 0.000058 0.0
0.017994 0.519523 0.000450 0.0
0.144363 1.371647 -0.000974 0.0
0.903088 0.849406 0.001381 0.0
2.860790 1.675565 -0.001601 0.0
3.512300 1.375052 -0.000212 0.0
4.293581 0.063331 -0.002557 0.0
0.820032 0.301752 -0.000899 0.0
3.515804 0.964484 -0.003111 0.0
2.889501 1.130173 -0.000024 0.0
1.377475 1.302723 -0.001062 0.0
0.681967 1.829748 -0.001314 0.0
3.715092 0.567326 -0.001870 0.0
2.315788 0.380706 0.000384 0.0
1.827334 0.314796 0.000635 0.0
1.210117 1.120537 0.002055 0.0
3.807556 1.542799 -0.003427 0.0
3.332758 0.354619 -0.002825 0.0
1.727875 0.901097 0.000465 0.0
3.075940 0.568657 0.001434 0.0
0.260036 1.304315 -0.003601 0.0
3.190297 0.004236 -0.001398 0.0
2.127237 1.094083 0.003043 0.0
3.003559 1.066808 0.000161 0.0
1.473023 1.373693 0.001892 0.0
0.860085 0.924179 0.001133 0.0
3.737639 0.580282 0.000195 0.0
2.147735 1.297170 -0.000611 0.0
3.588902 0.393368 -0.004142 0.0
2.535049 0.940879 -0.000202 0.0
3.961132 1.189726 0.000322 0.0
1.521177 1.051221 -0.002217 0.0
2.881101 1.509628 -0.002158 0.0
1.341178 0.343194 -0.001172 0.0
2.953759 1.836089 0.000478 0.0
1.775939 0.597830 0.002450 0.0
1.155118 1.787061 0.004912 0.0
3.684133 0.610937 -0.003053 0.0
3.808701 1.439983 -0.000964 0.0
1.866103 1.716367 -0.000679 0.0
0.723452 0.153677 -0.000678 0.0
3.737897 1.212427 0.003513 0.0
3.437633 1.664055 0.000306 0.0
3.977263 0.020376 -0.004140 0.0
2.534538 0.727188 0.001934 0.0
0.759182 0.563982 0.003476 0.0
0.720634 0.628101 -0.000806 0.0
2.225174 0.086676 -0.000161 0.0
3.369110 1.455959 0.003002 0.0
1.489729 0.232170 0.000183 0.0
2.051473 1.035030 0.001192 0.0
3.190601 0.201776 -0.002254 0.0
2.703899 0.198121 0.001740 0.0
3.991588 1.322018 0.003388 0.0
3.278858 1.340546 0.002486 0.0
4.083129 1.705192 0.000808 0.0
4.320916 0.046945 0.000991 0.0
4.225771 0.795938 0.001617 0.0
3.898916 0.988237 0.001429 0.0
1.832982 0.683063 -0.000342 0.0
3.432691 0.577947 -0.000218 0.0
2.584590 1.315268 0.001576 0.0
1.989610 1.381069 -0.001291 0.0
2.959867 0.502374 -0.001465 0.0
3.754119 1.653312 0.001202 0.0
2.870041 0.191762 -0.003434 0.0
2.822617 0.596417 -0.002435 0.0
0.449720 0.209598 -0.002162 0.0
0.282580 1.682307 -0.001121 0.0
3.690240 1.336494 -0.004512 0.0
1.557676 1.710124 -0.003395 0.0
0.765693 0.864484 0.001300 0.0
0.026862 0.063547 -0.000840 0.0
1.930482 1.852533 0.002379 0.0
0.262466 0.303876 -0.003820 0.0
1.338128 0.503378 0.004883 0.0
1.789552 0.067042 -0.000554 0.0
2.382378 0.543136 -0.003032 0.0
4.249642 1.439001 0.004320 0.0
3.016745 1.450523 -0.001030 0.0
0.080963 0.952110 -0.002185 0.0
0.691580 1.197662 0.004060 0.0
2.735920 1.805641 0.002533 0.0
0.484026 1.029759 -0.001177 0.0
1.451381 1.525268 -0.002111 0.0
4.455047 1.568454 -0.002143 0.0
2.564745 0.596971 -0.002481 0.0
0.559201 1.418884 -0.001782 0.0
1.817267 1.692804 -0.003294 0.0
3.966350 0.996036 -0.000711 0.0
4.459083 1.128465 0.003302 0.0
3.745631 0.747983 0.002445 0.0
0.153369 0.047121 -0.000342 0.0
1.866927 0.214456 0.000912 0.0
2.662786 0.784377 -0.001285 0.0
2.952059 0.816778 0.002550 0.0
0.145789 0.326442 0.003689 0.0
1.187891 0.460017 0.004935 0.0
0.375673 1.330222 -0.003971 0.0
0.020919 0.264042 -0.001222 0.0
0.128590 0.364429 -0.001164 0.0
1.481151 1.778318 -0.000411 0.0
1.960916 1.151707 0.000858 0.0
0.645591 0.726142 0.001877 0.0
0.839952 1.086069 0.004733 0.0
1.148391 1.265808 -0.001239 0.0
4.344150 0.190169 -0.001575 0.0
2.781274 0.462186 -0.000032 0.0
0.946548 0.036398 -0.000677 0.0
0.787308 0.075244 -0.001308 0.0
0.050350 0.666149 0.002327 0.0
0.121727 1.609528 0.003134 0.0
4.356380 1.754830 -0.002983 0.0
2.551811 1.687511 0.001812 0.0
0.990123 0.336328 -0.001348 0.0
0.684154 1.373840 0.003378 0.0
0.117950 0.341348 0.003801 0.0
1.814571 1.142566 -0.002856 0.0
0.631379 0.286229 -0.003226 0.0
2.197300 0.218617 -0.002860 0.0
2.134181 1.350857 -0.002542 0.0
4.259720 0.430823 0.002171 0.0
2.964841 0.445339 -0.000889 0.0
3.691603 0.131700 0.000466 0.0
3.572206 0.587038 -0.003497 0.0
0.977641 1.638860 -0.003157 0.0
2.562073 1.226816 0.001072 0.0
4.319068 0.070944 0.001361 0.0
2.152591 1.405693 -0.001696 0.0
3.905900 0.649276 0.000657 0.0
0.782289 0.184124 -0.000611 0.0
0.455136 0.637931 0.002200 0.0
3.584772 1.792899 -0.000832 0.0
2.872549 0.942577 -0.002762 0.0
1.291970 1.531195 0.000896 0.0
3.141871 1.199307 0.002043 0.0
1.822358 1.879113 -0.001097 0.0
2.950499 0.788186 0.000432 0.0
2.217009 1.702901 -0.002890 0.0
0.833672 0.312346 0.004325 0.0
2.306227 0.426325 -0.001602 0.0
3.291939 0.816598 0.002948 0.0
0.682553 0.325235 0.001186 0.0
1.159822 0.207688 0.004510 0.0
1.458496 1.316477 0.003775 0.0
0.488615 1.095507 0.002331 0.0
0.563057 1.203586 0.000963 0.0
2.167448 1.630724 -0.000950 0.0
3.759485 1.438874 -0.003907 0.0
4.300568 0.377315 0.002464 0.0
1.935168 1.432414 0.001434 0.0
0.526851 0.333371 -0.002771 0.0
0.224811 1.077449 0.000624 0.0
3.618019 1.104670 0.003533 0.0
1.381372 0.636184 0.001585 0.0
3.820964 0.270828 0.000618 0.0
0.043360 0.255679 -0.001128 0.0
0.662157 1.610462 0.001257 0.0
0.979411 1.874756 -0.001812 0.0
4.361668 1.265586 0.002391 0.0
0.830894 0.161699 0.002784 0.0
0.914897 0.756746 -0.003116 0.0
1.695003 0.348790 -0.000234 0.0
2.752877 0.560567 -0.001307 0.0
2.958225 1.578897 -0.000839 0.0
4.392754 0.615914 0.002423 0.0
2.125394 0.083290 0.008189 0.0
1.046592 1.090344 0.002395 0.0
2.856846 0.338095 -0.002936 0.0
3.500249 1.588774 -0.001952 0.0
0.893089 1.625215 0.003372 0.0
2.603795 0.617947 0.001557 0.0
3.796087 0.205275 0.002692 0.0
2.461107 0.799433 0.002615 0.0
2.552542 0.280420 -0.001360 0.0
2.913443 1.188936 -0.000734 0.0
1.899926 1.629769 -0.001087 0.0
0.994889 0.539743 -0.002033 0.0
4.456054 1.486804 0.001910 0.0
1.577478 1.864255 0.001666 0.0
2.790733 1.546155 0.000987 0.0
4.326881 0.066284 0.000689 0.0
1.728236 0.715716 0.001377 0.0
0.911470 0.774205 -0.002878 0.0
3.591208 1.410673 -0.003824 0.0
4.243907 1.239969 -0.001043 0.0
0.823725 1.790880 -0.000859 0.0
2.492291 0.912984 0.004876 0.0
0.851243 0.276009 0.001117 0.0
2.076209 0.310322 0.000291 0.0
2.822713 0.228683 -0.002153 0.0
3.472437 1.008080 0.000110 0.0
3.432595 0.142378 -0.005777 0.0
1.784806 0.830584 -0.001572 0.0
3.041282 0.606729 0.000129 0.0
0.916952 1.730026 -0.002292 0.0
2.082085 1.135921 -0.000856 0.0
2.264625 0.362656 0.000478 0.0
0.206204 1.652210 -0.002153 0.0
1.311087 0.552807 0.000268 0.0
3.324309 0.445762 0.003857 0.0
0.321423 0.240299 -0.001496 0.0
1.930248 0.758172 -0.000319 0.0
0.201521 0.904722 -0.001146 0.0
1.487954 1.872473 -0.001067 0.0
3.529832 0.223015 0.000727 0.0
2.309127 1.770607 0.000151 0.0
2.826539 1.250217 -0.001196 0.0
3.855194 0.454614 0.005509 0.0
0.488531 1.488978 -0.001763 0.0
1.801502 1.648707 0.001081 0.0
1.354981 0.886454 0.000942 0.0
2.205150 1.125400 0.000248 0.0
2.724144 1.726313 0.002885 0.0
0.654103 1.188477 0.001540 0.0
0.561462 0.185731 0.000405 0.0
2.255040 0.228345 0.002727 0.0
2.891193 0.413158 0.001701 0.0
3.266621 1.735593 0.000420 0.0
2.703737 1.838313 0.002546 0.0
1.375779 1.814017 -0.001963 0.0
4.337697 0.640484 -0.001149 0.0
2.467177 0.884230 0.002954 0.0
0.420845 1.287086 -0.004347 0.0
3.113915 0.226936 -0.003440 0.0
0.422421 1.052314 0.000252 0.0
2.552944 0.402292 0.001670 0.0
2.130538 0.229453 -0.003134 0.0
3.045163 1.487060 0.003170 0.0
0.924600 1.767786 -0.001577 0.0
3.001640 0.427192 0.002931 0.0
3.586832 0.396181 -0.004648 0.0
2.238627 1.311780 0.001058 0.0
0.116638 1.305568 0.002096 0.0
0.505502 1.269465 0.000072 0.0
2.461120 1.641352 -0.003370 0.0
3.319289 0.810630 0.003856 0.0
2.193261 1.111658 0.000846 0.0
0.366094 0.030713 0.002260 0.0
0.998555 0.430820 0.003853 0.0
0.716701 0.456857 -0.000996 0.0
3.265394 1.538003 -0.000296 0.0
1.553919 1.589715 0.000824 0.0
1.739419 1.000459 0.002667 0.0
2.905654 0.147840 -0.003316 0.0
1.201306 1.636855 -0.005159 0.0
3.096902 0.009891 0.003366 0.0
0.270285 0.033421 -0.001683 0.0
3.220353 1.556517 -0.003825 0.0
0.163929 0.352789 0.001312 0.0
3.402726 0.009866 0.000189 0.0
1.900724 0.819715 -0.004196 0.0
2.191902 0.899581 0.001554 0.0
1.954581 0.300737 -0.001373 0.0
2.115861 0.337443 -0.000013 0.0
3.691383 0.835228 0.001543 0.0
0.696563 0.096155 -0.000174 0.0
3.909954 1.227199 -0.004234 0.0
0.250555 0.371901 -0.001227 0.0
4.399403 0.169157 -0.000375 0.0
4.296233 1.844377 -0.006266 0.0
3.144904 1.751990 0.000428 0.0
2.088307 0.752143 -0.000273 0.0
2.741214 0.906230 0.003664 0.0
4.001781 0.373753 0.000617 0.0
1.922254 1.077764 -0.001351 0.0
3.539088 1.370610 0.000608 0.0
1.102004 0.976039 -0.002520 0.0
1.884711 0.700786 0.000809 0.0
3.494676 0.809045 0.001892 0.0
3.173862 0.034319 0.001124 0.0
3.942359 1.851230 -0.001811 0.0
1.343272 0.896510 0.000810 0.0
0.477887 1.161426 -0.002233 0.0
4.322296 0.962092 0.008608 0.0
1.633023 0.762688 -0.000771 0.0
2.456438 1.093517 -0.001707 0.0
2.866995 0.901638 0.003226 0.0
2.436781 0.663794 0.000783 0.0
0.167337 0.652719 -0.004061 0.0
4.074794 0.731125 0.002331 0.0
4.192145 0.406332 0.000073 0.0
1.000146 1.714794 0.000117 0.0
4.457416 1.601305 -0.001153 0.0
3.466147 0.290938 -0.002361 0.0
1.559187 0.078484 0.005634 0.0
2.118443 1.508202 0.002513 0.0
4.359101 0.792400 -0.001853 0.0
0.923715 0.497445 -0.001543 0.0
3.144897 0.906460 0.000561 0.0
1.132823 1.579377 -0.003446 0.0
2.953202 1.137434 -0.002853 0.0
2.768828 1.242152 0.001131 0.0
2.355783 0.477391 0.003010 0.0
3.573127 0.884664 0.003447 0.0
0.001605 1.728162 0.000213 0.0
0.822206 0.740495 0.001663 0.0
0.320670 1.722170 0.003144 0.0
3.081275 0.783343 0.004858 0.0
3.821655 0.569218 -0.003433 0.0
4.222880 0.576215 0.000742 0.0
2.117071 0.231424 -0.001011 0.0
2.173313 1.789233 0.004445 0.0
0.649658 0.980102 0.000343 0.0
2.144700 0.937247 -0.001436 0.0
1.836563 1.540072 -0.001681 0.0
2.870429 0.212223 0.001881 0.0
2.084053 1.182803 0.001730 0.0
1.166770 0.249511 -0.000627 0.0
2.723476 1.755100 0.003585 0.0
3.403513 0.937459 -0.002896 0.0
3.091216 0.538847 -0.001081 0.0
1.665862 1.055744 0.001200 0.0
1.111868 1.752191 -0.003380 0.0
1.321952 1.346493 -0.000167 0.0
2.006945 1.140465 0.001926 0.0
3.808492 1.328929 -0.000727 0.0
0.484633 0.189116 0.002120 0.0
0.381781 0.072366 0.003768 0.0
1.915339 0.487770 -0.000993 0.0
0.316025 1.521142 0.002772 0.0
2.710516 1.280748 0.000087 0.0
4.214573 0.749800 -0.001361 0.0
4.226449 1.633899 -0.004506 0.0
3.801171 1.018911 0.000091 0.0
4.311479 1.051105 -0.002534 0.0
4.296176 0.961413 0.001816 0.0
0.676669 0.585302 0.000703 0.0
2.532292 0.548416 -0.004030 0.0
1.903715 1.291181 0.005675 0.0
0.006902 1.123616 0.001734 0.0
1.949798 1.437184 0.004201 0.0
4.417590 0.175867 -0.001118 0.0
2.710549 0.078455 0.002184 0.0
0.901114 1.239658 -0.000989 0.0
3.051191 1.326332 -0.000846 0.0
2.963097 1.635375 0.004957 0.0
3.314895 1.254442 -0.002512 0.0
2.315922 1.826415 0.001120 0.0
0.346169 0.302056 -0.005751 0.0
2.821672 0.110246 -0.000073 0.0
3.964689 1.500498 -0.000592 0.0
1.743297 0.071888 0.000055 0.0
0.076985 1.111085 -0.001788 0.0
4.262244 0.601693 -0.004618 0.0
0.632605 0.193419 -0.001488 0.0
4.110433 1.165838 -0.000274 0.0
0.665138 1.097890 -0.001506 0.0
2.926991 0.481550 -0.001390 0.0
1.454463 0.520981 -0.000865 0.0
1.054206 1.072008 -0.003179 0.0
4.102610 0.944863 -0.002262 0.0
4.400232 1.051760 0.000449 0.0
2.774850 0.303879 -0.002358 0.0
2.649412 0.296353 -0.001217 0.0
1.329571 1.029069 -0.003784 0.0
3.398856 0.233577 -0.001270 0.0
3.914444 0.171445 -0.002935 0.0
0.184187 0.610195 0.002498 0.0
3.047050 1.409462 0.005183 0.0
2.125620 0.235061 -0.000738 0.0
0.387932 1.852432 -0.003023 0.0
1.447841 1.065405 0.002767 0.0
3.599243 0.465426 -0.002457 0.0
1.231005 0.100992 -0.003881 0.0
1.886340 0.031638 -0.000517 0.0
3.223590 1.192957 -0.001020 0.0
0.342194 1.337506 -0.004813 0.0
3.790457 1.161503 0.003446 0.0
1.163390 0.286481 -0.001755 0.0
0.391967 0.189527 0.000517 0.0
2.856319 1.331377 0.000456 0.0
2.041362 0.626000 0.002318 0.0
0.631363 0.317535 0.003274 0.0
4.123991 1.259828 0.001153 0.0
3.678636 0.981626 0.000459 0.0
3.891403 0.645529 -0.004211 0.0
3.541995 0.758379 -0.001151 0.0
4.145491 0.198607 0.001782 0.0
4.342966 1.438168 -0.003436 0.0
3.482828 0.510089 0.001491 0.0
3.428066 1.818052 -0.001092 0.0
0.929729 0.838949 -0.000654 0.0
0.955155 0.240421 -0.002481 0.0
0.260924 1.573202 -0.000604 0.0
1.926835 0.488360 -0.000486 0.0
2.732728 0.281897 -0.002195 0.0
3.394075 0.468343 0.001377 0.0
2.960627 1.821950 -0.000221 0.0
4.244867 0.519609 -0.000135 0.0
0.559557 0.056849 0.001058 0.0
0.877135 1.340713 0.004811 0.0
3.021231 0.038782 -0.003544 0.0
2.318216 0.748063 -0.000283 0.0
1.266732 0.334025 0.000704 0.0
0.749242 1.567823 -0.001938 0.0
0.235367 1.037252 -0.001534 0.0
2.114841 0.461113 0.000364 0.0
3.191656 1.725783 0.001309 0.0
2.888730 0.897401 0.000126 0.0
1.707082 1.178293 0.000633 0.0
1.222464 1.600189 0.000167 0.0
4.000946 1.101221 0.004766 0.0
1.733352 1.739818 -0.001581 0.0
3.688890 0.391072 0.001350 0.0
3.916248 1.006968 0.000198 0.0
0.391398 0.177440 0.003265 0.0
0.335318 0.819810 -0.000574 0.0
1.016174 0.262516 -0.000345 0.0
1.081720 1.526515 0.005120 0.0
1.088761 1.187519 0.002541 0.0
3.247438 0.500805 0.001267 0.0
3.062381 0.962368 0.000622 0.0
0.353592 1.168845 0.001033 0.0
2.778354 0.121128 0.000455 0.0
1.551900 1.667229 -0.001122 0.0
0.959359 0.622793 -0.001313 0.0
2.629853 0.389334 -0.000136 0.0
3.090623 0.662850 -0.001191 0.0
2.718914 1.053944 -0.005000 0.0
1.962731 0.263615 0.002963 0.0
2.637532 1.213918 -0.001880 0.0
3.946579 1.102673 0.002046 0.0
4.403142 1.441482 -0.002826 0.0
3.834760 0.609044 0.001477 0.0
1.303432 0.205086 0.001947 0.0
2.916727 0.800140 0.005662 0.0
0.774694 0.450898 0.001512 0.0
3.828256 0.558341 -0.004881 0.0
2.143062 1.669480 0.000026 0.0
2.858742 0.561179 0.002503 0.0
2.698783 0.375314 0.000570 0.0
4.308824 1.289314 0.000398 0.0
3.472686 0.807278 -0.001946 0.0
1.141153 0.460133 -0.002671 0.0
4.109031 1.371314 0.000189 0.0
1.486134 0.538480 0.003386 0.0
2.823387 0.523131 0.001750 0.0
1.964109 1.481999 0.003398 0.0
4.107501 0.780385 -0.002948 0.0
1.251260 0.450092 -0.001786 0.0
1.125740 0.879966 0.005545 0.0
4.021624 0.909145 -0.000295 0.0
0.382889 0.701126 -0.002510 0.0
4.044490 0.188479 -0.001704 0.0
2.126617 0.349084 -0.001197 0.0
3.959033 0.429122 0.000172 0.0
0.093186 1.211782 0.001931 0.0
1.210574 1.670297 -0.004942 0.0
2.658353 1.480578 -0.001932 0.0
3.276104 1.252312 0.000003 0.0
4.062609 1.487403 -0.004014 0.0
1.743330 1.453918 0.002104 0.0
2.263401 0.118425 -0.001586 0.0
1.338828 0.910310 0.003354 0.0
2.582215 0.439042 0.005281 0.0
0.818662 0.804223 -0.001036 0.0
0.787596 1.096565 0.001075 0.0
2.522334 0.579246 0.001764 0.0
1.460013 1.268427 -0.002291 0.0
0.006316 1.853139 0.001416 0.0
2.478750 1.215481 0.000673 0.0
3.919882 0.090617 0.000337 0.0
1.111092 1.786113 0.000634 0.0
0.671721 0.522657 0.002094 0.0
3.470673 0.875005 -0.001920 0.0
0.794720 0.884481 -0.000600 0.0
3.064959 1.475619 0.002266 0.0
2.330051 0.907462 0.002052 0.0
3.922245 1.042066 -0.001244 0.0
3.714630 1.473914 -0.000699 0.0
0.771643 1.831923 -0.002529 0.0
2.077432 0.635367 -0.001456 0.0
0.143914 1.285608 0.002988 0.0
1.242697 0.898079 0.004114 0.0
2.863789 0.520074 -0.000163 0.0
1.299891 1.622054 0.001421 0.0
1.378237 1.680823 0.001214 0.0
4.147005 1.174409 0.001021 0.0
0.020007 1.467442 -0.001714 0.0
4.306248 0.182363 0.000917 0.0
1.614792 1.730853 0.000973 0.0
3.283601 0.970831 -0.001735 0.0
4.186766 0.011744 0.002874 0.0
0.668251 1.294717 0.002038 0.0
0.471362 1.213117 0.001904 0.0
3.846337 0.932959 0.002201 0.0
2.772966 1.651193 0.001647 0.0
0.689732 1.133565 -0.000772 0.0
2.909837 0.904266 -0.000084 0.0
1.105557 0.603227 0.001444 0.0
0.643420 1.097130 -0.000723 0.0
0.049085 0.854713 -0.002265 0.0
0.211048 1.319534 -0.000321 0.0
2.279246 0.338124 0.001741 0.0
1.946717 0.411796 0.001390 0.0
1.668635 1.143038 0.001988 0.0
2.603966 1.108311 -0.004013 0.0
2.063884 1.669638 -0.001713 0.0
3.772732 0.983680 -0.003764 0.0
3.301111 0.413940 0.000317 0.0
0.796879 0.807650 0.000146 0.0
3.608824 0.298919 0.000414 0.0
0.338443 0.473779 0.000532 0.0
1.172489 1.771575 0.001632 0.0
1.922613 1.493170 -0.002217 0.0
3.401216 1.479283 0.003800 0.0
3.447743 0.148299 0.004130 0.0
1.946582 0.562641 -0.000000 0.0
2.831787 0.044108 -0.002075 0.0
1.965603 0.060264 -0.001776 0.0
2.888157 0.934731 0.004186 0.0
0.728240 1.285605 0.003788 0.0
3.099032 0.939813 -0.002444 0.0
1.609246 0.764074 -0.003674 0.0
0.643042 0.858678 0.002950 0.0
1.352361 1.665150 -0.000359 0.0
1.750872 1.771228 0.002140 0.0
0.726338 0.529558 0.004207 0.0
2.825711 0.792720 -0.003542 0.0
3.173226 0.521710 -0.000341 0.0
4.074791 1.320667 -0.000017 0.0
3.808531 1.608544 -0.000289 0.0
1.131550 1.195611 0.001781 0.0
0.066772 1.181794 -0.000605 0.0
3.111207 0.750679 -0.004421 0.0
3.447381 1.450647 -0.005076 0.0
2.897796 1.443206 0.001919 0.0
3.803497 0.397344 0.002301 0.0
0.419769 0.413213 0.003158 0.0
0.835621 0.794584 0.003599 0.0
2.077070 1.642220 -0.003922 0.0
3.755755 0.383544 -0.002746 0.0
0.255551 0.314606 -0.002462 0.0
0.293433 1.591240 0.003050 0.0
1.307828 1.499444 -0.000012 0.0
3.376299 0.421950 0.002837 0.0
4.146722 0.046157 0.001689 0.0
0.480344 1.716611 -0.001917 0.0
3.905689 0.267431 0.001471 0.0
1.665610 0.613967 0.002334 0.0
3.691898 0.401716 0.004260 0.0
0.245584 1.014702 -0.003998 0.0
1.765815 0.477395 -0.000424 0.0
0.596760 1.553830 -0.001070 0.0
1.611950 0.739685 -0.002325 0.0
0.579025 0.076436 -0.000396 0.0
4.282224 0.478079 0.003054 0.0
1.094922 1.654275 -0.000834 0.0
2.239855 0.262673 0.001577 0.0
3.440448 0.242630 0.001419 0.0
2.287538 1.065753 -0.002678 0.0
1.294224 1.284016 -0.000271 0.0
2.862939 1.650961 0.001937 0.0
1.675854 0.824364 0.004899 0.0
3.941861 0.259919 0.002096 0.0
4.250269 1.874928 0.004448 0.0
4.349220 1.114380 -0.001494 0.0
1.878798 0.115820 0.001392 0.0
1.991996 0.791563 0.001756 0.0
0.972266 0.374497 0.004360 0.0
0.663299 0.353826 0.002045 0.0
0.951606 0.337242 0.001295 0.0
2.090079 0.853744 -0.000186 0.0
1.532740 1.808620 -0.004767 0.0
0.497176 1.673276 0.000048 0.0
3.201899 0.927039 -0.001991 0.0
0.890547 1.373419 0.002077 0.0
0.487474 1.532740 -0.000295 0.0
2.277219 0.710259 -0.001084 0.0
0.844487 0.395180 -0.002438 0.0
2.336814 0.260291 0.003461 0.0
3.557880 1.552464 0.002728 0.0
0.826106 0.916038 0.004173 0.0
3.459255 1.363352 -0.002676 0.0
2.689039 1.336433 0.002064 0.0
3.109431 0.423326 -0.002009 0.0
0.824732 1.575629 0.000505 0.0
1.711139 1.171521 -0.001517 0.0
1.389418 1.448667 0.001443 0.0
2.301709 0.857973 0.000128 0.0
3.166080 1.360393 -0.003708 0.0
1.512646 0.973474 -0.004453 0.0
3.279033 1.870695 0.000497 0.0
4.324717 0.138172 0.001787 0.0
0.644169 0.030426 0.004128 0.0
3.066184 0.661792 -0.000786 0.0
0.924762 1.472892 -0.000082 0.0
0.236894 0.520025 0.000575 0.0
2.210604 1.839191 -0.002226 0.0
3.334934 0.434925 -0.003231 0.0
3.282131 1.326871 0.000771 0.0
0.229860 1.874366 -0.000509 0.0
1.788044 0.054047 -0.002039 0.0
1.963363 1.873455 0.002099 0.0
0.401834 0.078483 0.002420 0.0
2.839378 1.605265 0.000099 0.0
2.023383 1.119267 -0.003864 0.0
2.948537 0.761200 0.002852 0.0
0.356976 0.159205 0.000843 0.0
3.764659 1.214777 -0.001804 0.0
2.215118 1.251544 -0.000259 0.0
1.271015 1.280060 -0.006803 0.0
1.403257 0.926209 -0.001720 0.0
2.362968 0.179481 -0.001648 0.0
2.765820 0.603691 0.001439 0.0
1.578896 1.855449 0.000600 0.0
2.555739 1.350786 -0.003013 0.0
2.832111 0.746054 0.001080 0.0
3.148104 0.711150 0.001326 0.0
4.440450 0.177862 0.001177 0.0
0.110757 1.085678 -0.004741 0.0
3.942208 0.718210 0.000276 0.0
1.103803 1.498168 -0.000520 0.0
3.288351 1.387989 0.001841 0.0
1.290665 0.312909 0.004331 0.0
1.997300 1.343557 0.002341 0.0
2.929361 0.251092 -0.000161 0.0
3.271050 0.281567 -0.003042 0.0
1.277173 1.688911 0.000376 0.0
2.331551 0.409107 -0.002828 0.0
1.989517 0.742789 0.000386 0.0
0.801408 1.547540 -0.000971 0.0
0.599565 0.703299 0.001407 0.0
4.400341 1.461252 -0.003019 0.0
4.225655 1.535131 0.003742 0.0
1.423540 0.460888 0.000967 0.0
2.654092 0.065044 -0.001659 0.0
2.239814 1.715869 0.002442 0.0
3.304100 1.703924 -0.000078 0.0
0.858601 0.036802 0.000505 0.0
2.641479 0.395803 -0.004649 0.0
1.862366 1.421904 0.002485 0.0
0.002708 1.018593 0.001270 0.0
0.072169 1.062513 -0.000621 0.0
3.775586 0.112311 -0.001759 0.0
4.188391 0.873085 -0.000350 0.0
2.485271 1.302844 0.002332 0.0
1.854842 1.197387 0.000800 0.0
1.808535 0.774113 -0.000118 0.0
3.415755 1.125976 0.000190 0.0
0.837346 1.798350 -0.000614 0.0
1.558089 1.540145 -0.001095 0.0
2.161890 1.591221 -0.000522 0.0
1.852124 1.082344 0.001657 0.0
1.087978 0.601891 -0.000322 0.0
1.892893 0.456253 0.002448 0.0
4.114159 1.849370 -0.000567 0.0
3.192036 0.962339 0.000481 0.0
2.347017 0.403955 -0.003928 0.0
3.946202 1.112746 -0.005818 0.0
2.835772 0.488790 0.003522 0.0
3.075285 0.890018 -0.000989 0.0
4.138602 0.374907 -0.002453 0.0
1.720850 1.084897 -0.002120 0.0
0.807326 1.213954 0.001379 0.0
3.449021 1.431148 -0.003838 0.0
2.529273 1.022089 -0.002423 0.0
3.522047 0.844878 -0.003615 0.0
2.118659 0.401099 0.004799 0.0
3.320629 0.677340 0.000913 0.0
2.231217 1.080881 0.000608 0.0
0.491911 1.265425 0.001542 0.0
0.491522 1.196658 0.001523 0.0
2.799232 0.068209 0.001816 0.0
3.519502 0.671017 0.003383 0.0
1.588632 0.752026 -0.002785 0.0
1.137791 1.671745 0.004738 0.0
3.577669 1.801291 0.001312 0.0
3.732727 0.090803 -0.001619 0.0
1.756129 1.249763 0.000416 0.0
4.066307 0.000408 -0.004243 0.0
1.084331 0.765218 -0.000062 0.0
2.671531 0.005607 -0.000701 0.0
3.161475 1.270794 -0.002034 0.0
3.171482 0.176985 0.000764 0.0
2.919520 0.550477 -0.001219 0.0
1.446568 0.795853 0.002274 0.0
3.247791 0.680212 0.002058 0.0
1.693064 1.403365 -0.001981 0.0
4.002883 0.997129 -0.001445 0.0
1.908460 0.951253 0.001253 0.0
4.358356 1.008032 -0.003453 0.0
2.269085 1.031223 -0.003285 0.0
3.650059 1.365301 -0.000847 0.0
0.168502 0.049777 -0.006107 0.0
2.986113 0.404801 0.000950 0.0
1.905821 1.772383 0.001517 0.0
0.416465 0.452522 0.001874 0.0
1.086682 1.001428 -0.000806 0.0
0.357443 0.071894 -0.001538 0.0
3.806944 1.449769 -0.004365 0.0
4.272051 1.628105 0.000533 0.0
3.367093 0.103169 0.001606 0.0
2.059845 1.487705 0.001378 0.0
1.040537 1.844624 0.001635 0.0
1.303833 0.654754 0.004947 0.0
0.578901 0.259094 -0.000090 0.0
1.095139 0.670911 0.000231 0.0
2.590132 0.317594 -0.002583 0.0
2.378887 0.006647 0.005331 0.0
1.119964 1.608682 -0.001579 0.0
3.957096 0.882379 0.001657 0.0
3.533743 0.215611 0.007668 0.0
1.873006 0.842979 0.001925 0.0
3.877458 0.696595 0.001385 0.0
1.749702 1.833888 0.002730 0.0
3.187774 0.918806 0.005164 0.0
2.930201 0.274527 0.002514 0.0
1.284250 1.181328 -0.001384 0.0
3.299900 0.617214 0.001671 0.0
3.522549 0.344543 -0.000673 0.0
0.803780 1.149151 -0.001417 0.0
3.368655 0.816128 0.003842 0.0
1.061103 0.829164 -0.002422 0.0
0.916098 1.801429 0.000415 0.0
0.833248 1.291078 0.000686 0.0
2.114321 1.782933 -0.002810 0.0
0.449963 1.342275 0.002113 0.0
0.708621 0.006318 -0.002447 0.0
0.332082 0.142319 -0.000854 0.0
3.521302 1.108683 -0.000954 0.0
2.262545 0.576087 0.000503 0.0
2.884811 0.701177 -0.001384 0.0
3.723843 1.076434 -0.000219 0.0
0.989494 0.485378 -0.004551 0.0
2.279165 1.752496 -0.005519 0.0
1.413070 0.481822 0.002140 0.0
2.289351 1.149395 -0.001976 0.0
0.585096 1.130779 0.003822 0.0
2.331998 0.805887 0.000844 0.0
1.024586 0.416926 -0.001591 0.0
2.855792 1.217627 -0.000083 0.0
0.579427 0.716808 -0.001979 0.0
4.116906 0.974266 0.001407 0.0
1.690347 0.383770 -0.004371 0.0
1.356153 1.103849 -0.004724 0.0
0.105869 0.157201 -0.001432 0.0
3.950458 0.543510 -0.003527 0.0
0.555562 1.034113 0.003612 0.0
0.441100 1.693343 0.001541 0.0
1.983825 0.542481 -0.003834 0.0
0.758874 1.479459 0.000004 0.0
0.954398 0.371826 0.000850 0.0
2.640859 0.357637 0.001728 0.0
1.307003 1.815215 0.001185 0.0
0.796881 0.835788 -0.005895 0.0
2.921300 0.759904 0.004567 0.0
3.552771 0.961084 -0.005028 0.0
0.556543 0.324299 -0.000736 0.0
4.235554 1.418150 0.003463 0.0
3.091349 1.061505 0.000213 0.0
2.137117 1.667244 -0.001417 0.0
0.358731 0.553143 -0.000461 0.0
2.984120 1.236499 -0.003075 0.0
2.493225 0.840747 0.000863 0.0
4.009321 0.318057 -0.000814 0.0
2.281940 0.250804 0.002863 0.0
4.269652 1.573089 -0.002319 0.0
2.418855 0.098420 -0.001268 0.0
4.012940 0.991814 0.002748 0.0
1.946774 0.406238 -0.001004 0.0
1.842736 0.226156 0.001305 0.0
0.206575 0.994330 -0.004383 0.0
3.434449 1.159541 -0.002170 0.0
0.584917 1.387802 -0.001465 0.0
3.616527 1.550211 -0.003768 0.0
0.594801 0.284333 -0.001290 0.0
3.759063 1.191001 0.000274 0.0
3.203974 0.318868 -0.004827 0.0
4.124886 1.212536 0.000965 0.0
1.731195 0.436898 0.001839 0.0
3.562957 0.227028 -0.000129 0.0
4.129116 0.011534 -0.003067 0.0
4.274540 1.656909 0.006065 0.0
2.937466 1.841131 -0.000536 0.0
1.783307 0.748096 -0.004167 0.0
3.003656 0.918281 0.001714 0.0
2.468634 1.375650 -0.003435 0.0
4.326373 0.249608 -0.004439 0.0
1.250392 0.545657 -0.003101 0.0
3.400040 1.525929 -0.002940 0.0
4.034890 1.580517 0.001503 0.0
3.397815 0.425892 -0.000143 0.0
1.220211 0.952640 0.000709 0.0
4.441207 0.993551 0.001098 0.0
2.646333 0.884803 -0.004501 0.0
2.071229 1.492830 0.002249 0.0
4.122333 0.526465 -0.000919 0.0
2.852032 1.481548 -0.000190 0.0
1.410027 1.473708 -0.002253 0.0
3.490130 0.274146 0.006203 0.0
1.884920 1.573519 0.000169 0.0
3.093662 1.387322 -0.000559 0.0
2.018347 1.274522 -0.000476 0.0
4.176291 0.953704 0.002553 0.0
3.468456 0.511966 0.004326 0.0
1.736694 0.938429 -0.002078 0.0
1.095742 0.225380 0.001615 0.0
0.804287 1.139253 0.000392 0.0
3.281304 0.398777 0.000012 0.0
3.410506 0.767164 0.000482 0.0
0.548134 1.299740 0.000730 0.0
1.994900 1.636675 0.000301 0.0
3.741825 0.258677 0.001477 0.0
0.435685 0.296191 0.001846 0.0
2.940742 1.740061 0.002708 0.0
3.903777 0.871859 0.001057 0.0
0.586196 0.310388 0.004051 0.0
4.018647 1.637362 0.000327 0.0
1.695738 1.413573 -0.000181 0.0
2.738224 1.374260 0.000446 0.0
3.493695 0.232682 0.001189 0.0
4.357104 1.077986 0.002999 0.0
0.418655 0.966267 -0.004540 0.0
1.954176 1.225049 0.002502 0.0
1.319913 0.924971 0.000145 0.0
2.945167 0.899592 -0.001278 0.0
0.568684 1.337111 0.003831 0.0
3.370227 0.481148 0.002823 0.0
2.481441 0.717988 -0.000748 0.0
1.580280 0.617885 -0.002841 0.0
3.859905 0.430510 -0.001963 0.0
0.479545 0.393474 0.004326 0.0
4.256814 0.808073 -0.002203 0.0
1.867105 1.032377 0.002103 0.0
2.977985 1.252733 -0.002450 0.0
2.756979 1.342930 0.000441 0.0
2.095943 0.868211 -0.000830 0.0
4.131685 0.420589 0.001846 0.0
2.805321 1.384639 0.005262 0.0
3.967253 0.566880 -0.001433 0.0
1.889053 0.347105 -0.003090 0.0
1.488104 0.693806 0.002949 0.0
0.341866 0.571620 -0.001586 0.0
0.807204 0.747148 0.002305 0.0
0.021415 0.631137 -0.003089 0.0
3.469254 0.592711 -0.000688 0.0
0.384479 1.184803 0.001348 0.0
2.078402 0.955680 -0.002626 0.0
1.030847 0.108845 0.003677 0.0
2.683461 1.408139 -0.000801 0.0
2.291327 0.382435 -0.002833 0.0
1.246461 0.265378 -0.000981 0.0
2.044834 1.490858 -0.001579 0.0
3.118922 1.716292 0.000346 0.0
4.336011 0.430149 0.004662 0.0
4.040622 1.270303 -0.001491 0.0
1.785985 1.601049 0.002817 0.0
3.487115 1.812634 0.001868 0.0
0.512766 1.829657 0.001624 0.0
1.391268 0.938180 -0.000636 0.0
2.223412 1.867103 -0.004194 0.0
3.447003 0.438492 0.000790 0.0
2.619836 1.676470 -0.001542 0.0
2.428182 1.410648 -0.001378 0.0
3.506648 0.504398 -0.001272 0.0
0.126054 0.961558 0.000742 0.0
2.789048 0.495664 0.001665 0.0
0.955295 0.317697 -0.003109 0.0
0.472094 0.623959 -0.002055 0.0
2.913038 1.370992 -0.003702 0.0
2.526627 1.543771 0.001116 0.0
2.989467 0.708181 0.002582 0.0
0.633772 1.283354 -0.004308 0.0
2.326973 1.370236 0.000835 0.0
4.275508 0.459574 0.001938 0.0
0.265211 0.647288 -0.000516 0.0
4.049578 1.767679 0.000160 0.0
1.121268 0.966095 -0.001872 0.0
2.030722 0.799532 0.004672 0.0
1.012997 0.615662 0.002228 0.0
4.237348 0.949110 -0.002058 0.0
4.098191 1.609441 0.001184 0.0
2.197689 0.697549 -0.000471 0.0
3.547417 0.714625 -0.003687 0.0
3.286323 1.512176 0.003400 0.0
0.568101 0.620080 -0.000998 0.0
4.447722 0.957753 -0.002841 0.0
0.130256 1.510008 0.001961 0.0
1.874270 0.938646 0.002529 0.0
1.995183 0.363545 0.000979 0.0
3.679072 1.218010 0.003717 0.0
2.440848 0.367586 0.000070 0.0
1.090011 0.810431 0.005742 0.0
1.902034 0.535385 0.000483 0.0
1.031803 1.182604 0.002878 0.0
3.321136 0.243579 0.002851 0.0
1.388423 0.864663 0.002696 0.0
0.501430 0.326800 -0.001744 0.0
1.059031 1.235152 -0.001063 0.0
4.013442 1.189625 0.005374 0.0
2.423496 1.640214 0.002190 0.0
1.705822 1.318053 -0.000448 0.0
3.490115 1.695885 0.001112 0.0
1.762751 0.050212 -0.000797 0.0
3.947126 1.719213 0.002078 0.0
2.121441 1.010806 0.001873 0.0
2.512354 0.918200 0.001804 0.0
1.363312 1.674433 0.000224 0.0
2.198684 0.241961 0.001270 0.0
0.732079 1.525663 -0.001034 0.0
0.440946 0.620211 -0.003898 0.0
1.881029 0.494724 -0.003277 0.0
2.636494 0.643977 -0.001231 0.0
0.912493 1.435232 -0.000357 0.0
3.987237 1.079641 0.000538 0.0
0.476657 1.780904 -0.003492 0.0
4.162387 0.679665 -0.000692 0.0
0.251608 1.445904 0.000178 0.0
0.813452 1.432481 0.003372 0.0
0.947129 0.032226 0.000349 0.0
0.540848 1.757681 -0.002494 0.0
1.759102 0.965120 0.000958 0.0
1.855637 0.165266 0.002867 0.0
0.830975 1.207756 0.001364 0.0
4.232056 1.150922 -0.002118 0.0
2.241903 0.363721 -0.000490 0.0
2.314041 0.140632 -0.000443 0.0
0.108506 1.177670 0.002879 0.0
4.393475 0.705708 0.001815 0.0
1.368151 0.134401 -0.001085 0.0
2.506503 0.985908 -0.005109 0.0
1.350101 1.592410 -0.000804 0.0
2.884884 1.852673 -0.000231 0.0
1.814868 0.975180 0.001164 0.0
4.387385 0.407367 0.002199 0.0
3.520934 0.436650 0.002189 0.0
3.696813 1.605611 -0.002009 0.0
3.528769 1.451592 0.001063 0.0
3.676564 1.417697 -0.004829 0.0
2.382938 0.554258 0.001514 0.0
0.885125 1.003004 -0.000901 0.0
3.530171 1.364568 -0.000354 0.0
3.869743 0.019774 0.000274 0.0
1.075099 0.627048 -0.000270 0.0
2.295902 0.261630 0.000682 0.0
4.309200 0.476584 -0.001198 0.0
1.690405 0.843156 -0.001707 0.0
3.964934 1.436122 0.002673 0.0
3.808257 1.464812 -0.000627 0.0
1.063045 1.020965 -0.001027 0.0
2.539542 0.589058 -0.001171 0.0
2.135832 0.720301 -0.004142 0.0
1.337712 1.027593 -0.000582 0.0
1.550672 1.139385 0.000887 0.0
4.320540 0.219743 0.003381 0.0
1.833213 1.291613 0.002249 0.0
4.322832 0.020997 -0.001018 0.0
3.155086 0.934167 0.005627 0.0
4.415928 0.994857 -0.000947 0.0
1.281422 1.304439 -0.001202 0.0
1.916128 1.346078 0.003908 0.0
3.260837 1.434131 0.002818 0.0
0.508254 0.135371 -0.001377 0.0
2.130896 0.173384 -0.003311 0.0
0.149744 1.280845 -0.001248 0.0
2.908118 1.828544 -0.000582 0.0
3.927438 0.689516 -0.003943 0.0
3.151331 0.154406 -0.000671 0.0
3.355329 0.048900 0.000941 0.0
4.302440 1.655585 -0.002673 0.0
0.374609 0.981788 0.000768 0.0
2.579718 1.491107 -0.000775 0.0
1.998659 1.419028 0.003026 0.0
3.959978 0.736941 -0.000149 0.0
3.043412 1.304484 -0.000490 0.0
1.562042 0.605106 -0.000138 0.0
2.975361 0.106246 0.001867 0.0
1.036757 1.414121 -0.000952 0.0
2.363645 1.836149 0.004640 0.0
3.730242 0.950731 0.000350 0.0
1.253673 0.451271 -0.000424 0.0
2.642743 0.236490 -0.003000 0.0
2.788497 0.832533 0.000021 0.0
4.154415 1.834675 0.000548 0.0
2.720226 0.858966 0.002192 0.0
1.759465 0.198124 -0.000815 0.0
2.503255 1.196819 0.000778 0.0
0.435292 0.917588 0.001856 0.0
4.363955 1.306026 -0.000707 0.0
2.353501 0.207450 -0.001098 0.0
1.050472 1.413908 0.003372 0.0
2.292748 0.666321 0.002899 0.0
0.096958 1.443564 0.005784 0.0
3.181922 0.843760 0.001015 0.0
1.203688 1.847530 -0.000329 0.0
1.877332 1.804544 0.003323 0.0
3.917378 0.965338 0.005036 0.0
3.263439 1.040429 -0.005355 0.0
3.000095 0.288042 0.000718 0.0
4.144780 1.505590 0.000817 0.0
3.384436 1.215827 0.000412 0.0
2.450976 0.512662 -0.000960 0.0
1.978945 0.753448 -0.002691 0.0
3.524903 0.999682 0.002457 0.0
1.017922 1.286249 -0.000057 0.0
0.536693 1.251032 0.002932 0.0
2.733784 0.244072 0.002506 0.0
0.916811 1.229996 -0.003745 0.0
2.994943 0.956883 -0.000578 0.0
1.354574 0.762876 -0.001971 0.0
1.507887 0.581831 -0.004181 0.0
3.877746 0.721037 0.004416 0.0
4.327058 0.523915 -0.000633 0.0
1.505807 0.870871 0.003329 0.0
2.817254 1.300372 0.001284 0.0
3.361888 0.734112 0.006037 0.0
2.146640 0.069478 -0.000355 0.0
0.453170 1.057148 -0.001575 0.0
3.435323 0.014916 0.003818 0.0
0.033610 0.908413 -0.000646 0.0
1.143119 1.645735 -0.002238 0.0
1.325893 1.142502 -0.002277 0.0
3.640588 1.476163 0.000957 0.0
3.070527 0.842217 -0.000280 0.0
0.707432 0.430442 -0.001935 0.0
3.480510 0.684892 0.000484 0.0
3.291802 0.703942 0.001087 0.0
1.736160 0.725235 0.002640 0.0
0.442483 0.085813 0.001252 0.0
2.438386 0.907603 -0.000662 0.0
0.685189 0.058391 -0.000585 0.0
1.536503 1.007475 0.001885 0.0
0.325047 0.968406 -0.002013 0.0
3.727338 1.159075 0.000827 0.0
2.196032 0.634958 0.001075 0.0
3.961346 0.739795 0.000233 0.0
3.776866 0.998710 0.000988 0.0
0.163870 0.521716 -0.002170 0.0
4.094368 0.993428 0.002684 0.0
2.581582 1.545035 -0.001764 0.0
1.841668 1.622291 0.003131 0.0
1.097445 1.799982 -0.000343 0.0
1.779492 0.770862 0.002550 0.0
2.523078 1.666834 -0.000093 0.0
1.042864 0.398666 0.004290 0.0
1.397545 0.751086 0.002316 0.0
2.910919 1.200735 0.000410 0.0
1.822589 1.878809 -0.001210 0.0
1.228368 0.161524 -0.003067 0.0
0.410353 1.111683 0.003218 0.0
3.685882 0.492010 0.001682 0.0
3.290814 1.380971 0.003880 0.0
2.907228 0.840279 0.002979 0.0
3.071729 0.305477 0.000328 0.0
1.527892 0.658802 -0.002663 0.0
2.229291 1.103212 0.004959 0.0
