2.596320 0.446347 -0.001005 0.0
0.360912 0.582091 0.000288 0.0
0.656451 0.157250 0.000684 0.0
1.749085 1.569095 -0.002257 0.0
1.939262 1.484797 0.004850 0.0
2.922611 0.509741 -0.000759 0.0
1.132836 0.778259 0.002066 0.0
3.725868 1.554633 -0.002539 0.0
0.943099 1.863500 0.000010 0.0
0.359395 1.845007 0.002522 0.0
1.966923 1.112692 -0.001967 0.0
1.629889 1.174990 0.004034 0.0
3.027511 1.950124 -0.000122 0.0
4.154141 1.352835 0.002554 0.0
0.202680 0.830620 -0.002597 0.0
3.312824 0.969309 -0.003450 0.0
4.157593 1.882471 0.001271 0.0
1.470447 0.051175 0.002403 0.0
3.260241 1.293092 -0.004088 0.0
2.777947 1.800804 -0.002682 0.0
3.074510 1.451554 -0.000680 0.0
1.753138 0.995699 -0.000025 0.0
2.977091 0.649492 0.000541 0.0
2.460029 1.692323 0.000356 0.0
3.434866 0.277899 -0.001847 0.0
0.862645 0.294221 -0.003526 0.0
3.950550 1.002555 -0.000495 0.0
2.998830 0.362057 0.000268 0.0
0.284100 1.653328 0.007773 0.0
3.846325 1.642758 0.002326 0.0
2.388520 0.620521 -0.000992 0.0
2.050763 1.662263 -0.000306 0.0
0.118458 0.785497 -0.001274 0.0
2.896191 0.329416 -0.001378 0.0
2.497152 0.571156 0.001513 0.0
3.750868 0.354318 0.001834 0.0
4.229080 0.581882 -0.002324 0.0
2.914996 0.602209 -0.002719 0.0
0.936447 1.955709 0.001324 0.0
1.332224 0.562092 0.000912 0.0
3.384072 1.163074 0.005367 0.0
1.170407 1.913482 -0.004447 0.0
0.978745 0.028021 -0.002694 0.0
4.390381 0.442796 0.002026 0.0
1.954959 0.466765 0.001379 0.0
1.580669 0.598730 -0.001072 0.0
1.129857 0.908803 -0.000901 0.0
0.718050 0.963556 -0.000861 0.0
1.029224 1.322591 0.003109 0.0
2.604690 0.617520 0.004399 0.0
3.138389 1.605138 0.000504 0.0
2.341733 1.566753 0.001932 0.0
2.949664 1.557414 0.001257 0.0
1.141140 0.600994 -0.000170 0.0
0.708886 0.584175 0.003381 0.0
0.210248 0.969549 -0.002286 0.0
3.316866 0.882996 -0.005019 0.0
1.781220 1.064653 -0.000151 0.0
1.128218 1.727112 0.000051 0.0
0.690226 1.734916 0.002991 0.0
2.036847 0.886546 -0.003104 0.0
4.503528 1.625228 -0.002643 0.0
0.256120 1.210686 -0.001965 0.0
2.077415 1.321407 -0.007288 0.0
1.952379 0.126023 0.007694 0.0
4.458085 0.369887 0.001442 0.0
2.853511 0.655574 -0.001159 0.0
2.477159 1.657088 -0.000499 0.0
1.592382 1.302958 0.002750 0.0
4.247288 0.928705 -0.003165 0.0
0.927554 1.203329 0.000768 0.0
2.346217 0.374870 -0.002310 0.0
0.719831 0.969816 -0.002783 0.0
2.291709 0.433454 0.002947 0.0
2.789373 1.488675 0.003422 0.0
0.185962 1.938947 -0.004032 0.0
2.201400 1.830537 0.003208 0.0
3.880049 1.497481 -0.001553 0.0
1.094860 0.669548 0.001243 0.0
2.856742 0.609256 -0.002470 0.0
3.019762 0.042997 -0.001232 0.0
1.559234 0.163945 0.000014 0.0
0.630405 0.635615 0.004126 0.0
2.648206 0.732305 -0.001743 0.0
3.906803 1.057317 -0.001718 0.0
4.179533 1.440175 0.001975 0.0
0.779719 1.076640 0.000789 0.0
0.784709 0.049553 -0.001538 0.0
3.832781 1.901913 0.003847 0.0
4.715820 1.479167 0.001505 0.0
0.195572 0.496457 0.000124 0.0
4.428867 1.642452 0.002173 0.0
0.017089 1.803283 0.002585 0.0
3.876291 0.953394 0.002501 0.0
2.386464 0.830571 0.000511 0.0
1.342164 1.796304 0.000705 0.0
2.639902 0.390181 0.000923 0.0
1.345721 0.051879 -0.001889 0.0
1.091735 1.137516 -0.000599 0.0
0.622072 1.409616 -0.001740 0.0
0.982518 0.520008 0.001372 0.0
2.095431 1.781480 -0.001417 0.0
4.058812 0.875606 -0.001602 0.0
3.823916 0.143287 -0.001753 0.0
0.549185 0.223307 -0.004416 0.0
2.490024 0.013732 0.000066 0.0
1.520699 1.361141 -0.000511 0.0
3.057063 0.553528 0.001160 0.0
3.906314 1.221230 -0.003152 0.0
4.676949 0.363247 0.001167 0.0
3.422445 1.116378 0.000424 0.0
0.197428 1.040750 -0.003494 0.0
0.906334 1.235054 0.003822 0.0
0.108615 1.654545 0.002977 0.0
3.689214 1.165404 -0.001702 0.0
2.744273 0.995842 -0.000026 0.0
0.271534 0.368895 -0.002119 0.0
4.469043 0.842844 0.001351 0.0
0.707107 1.742397 0.003875 0.0
3.351000 1.412067 0.001401 0.0
2.889323 1.016536 0.003174 0.0
2.942156 0.841100 -0.001667 0.0
0.491495 1.461728 -0.006949 0.0
0.017944 0.623844 0.004171 0.0
3.276956 1.286985 -0.001466 0.0
0.292303 1.190573 -0.001533 0.0
1.057717 0.009264 -0.001212 0.0
2.374477 0.100154 0.000224 0.0
3.459837 0.408784 0.003500 0.0
4.441477 0.541646 -0.003207 0.0
1.702010 1.929286 -0.004867 0.0
0.863196 0.783688 -0.001044 0.0
4.073251 0.536815 -0.001369 0.0
3.675100 0.943187 0.000519 0.0
4.189299 0.815822 -0.002114 0.0
2.015871 1.549189 0.002727 0.0
0.300550 0.580724 -0.000842 0.0
4.358626 0.859904 -0.000424 0.0
0.394671 0.157039 -0.003886 0.0
2.527721 0.479351 0.001056 0.0
2.830196 1.217010 -0.001748 0.0
1.536713 0.711273 -0.000529 0.0
1.571714 0.651758 -0.000912 0.0
3.119453 1.245824 -0.000903 0.0
4.775608 1.721633 -0.000470 0.0
2.697070 1.600308 -0.004044 0.0
2.315305 1.462592 0.001542 0.0
4.244245 0.220741 -0.003750 0.0
1.265163 0.922742 -0.003832 0.0
1.844051 0.987722 -0.000987 0.0
1.132667 1.580521 -0.003172 0.0
0.095281 0.126687 -0.004608 0.0
2.918229 0.362359 0.000865 0.0
1.379539 0.249574 -0.002715 0.0
0.553930 0.293323 0.004234 0.0
0.836944 1.184975 -0.000449 0.0
0.483182 1.141687 0.002205 0.0
2.590578 0.201812 -0.000459 0.0
1.336211 0.655251 -0.006770 0.0
0.136036 1.070977 -0.000875 0.0
0.810152 0.577865 0.002126 0.0
4.267085 1.115878 -0.000744 0.0
4.300521 0.443781 -0.005906 0.0
0.328796 0.866391 -0.002565 0.0
0.767767 0.299604 -0.003151 0.0
2.062492 0.255105 0.001348 0.0
0.535713 0.679841 -0.002362 0.0
2.234478 1.060279 -0.004784 0.0
0.309509 0.919243 -0.001325 0.0
2.040315 1.715038 0.000067 0.0
2.123823 0.528043 0.001473 0.0
0.269061 0.666052 0.006647 0.0
0.393020 0.408532 0.000924 0.0
1.060653 1.104466 0.001069 0.0
3.731890 0.405534 -0.001474 0.0
2.684962 0.241277 -0.002429 0.0
3.952749 1.082708 0.004688 0.0
3.242006 1.148712 -0.000028 0.0
3.452874 1.749663 -0.006661 0.0
2.268020 1.499873 0.003297 0.0
2.931941 1.577392 0.000275 0.0
2.806222 1.197601 0.001712 0.0
0.449232 0.934790 -0.003725 0.0
3.172063 0.615429 0.001849 0.0
1.453396 1.135688 0.002980 0.0
1.513377 0.356205 -0.000401 0.0
0.024656 1.686553 -0.000054 0.0
4.406025 1.478064 -0.001700 0.0
0.167952 0.903385 0.003938 0.0
3.700769 1.201972 -0.000308 0.0
4.145606 1.709943 -0.002967 0.0
1.433529 0.542937 -0.000776 0.0
2.032267 0.887482 -0.001240 0.0
2.421595 1.357436 -0.003115 0.0
1.425643 0.916071 -0.002230 0.0
4.344753 0.085292 -0.002523 0.0
3.001724 1.571697 -0.000485 0.0
2.358128 0.560617 0.000532 0.0
2.363063 0.757834 0.000193 0.0
0.657052 1.026073 0.001947 0.0
1.829209 0.806678 0.003405 0.0
1.154047 1.714588 0.002161 0.0
3.670960 1.012424 -0.001447 0.0
3.372109 0.933298 0.002365 0.0
4.088396 1.906465 0.002687 0.0
1.797686 0.697812 0.000427 0.0
1.125367 0.153442 -0.001980 0.0
3.138516 1.437561 -0.001955 0.0
0.992272 1.426111 0.002769 0.0
0.093574 1.848846 -0.001184 0.0
2.836914 0.783318 -0.003511 0.0
0.602675 0.856602 -0.001570 0.0
4.318521 0.767429 0.001761 0.0
1.641734 1.437337 -0.000445 0.0
0.533052 0.761173 -0.003256 0.0
2.400179 0.819449 0.003500 0.0
2.109494 1.304483 -0.001505 0.0
1.486310 1.811836 -0.003550 0.0
1.109392 1.655131 -0.001087 0.0
4.684348 0.238155 -0.004893 0.0
0.425406 1.165103 -0.001561 0.0
0.820534 0.347613 0.000561 0.0
2.727749 0.244502 -0.001397 0.0
4.558275 0.323898 -0.001764 0.0
3.670761 1.740094 0.000413 0.0
1.157789 1.759168 0.001742 0.0
4.386815 0.580546 -0.000152 0.0
2.055589 1.337237 -0.002124 0.0
3.200178 0.710458 0.001470 0.0
4.678630 1.399841 0.000444 0.0
3.656999 0.137396 0.003526 0.0
1.788492 1.932161 0.002935 0.0
0.577979 1.399932 0.001742 0.0
0.967260 0.933673 -0.000296 0.0
3.742072 0.505548 -0.000152 0.0
0.874499 0.440762 0.002336 0.0
0.624041 1.447240 -0.000319 0.0
2.449695 1.409095 0.000289 0.0
4.255385 1.905580 0.000606 0.0
4.309929 0.137737 0.001540 0.0
1.851074 1.682183 0.000257 0.0
3.578428 0.766553 -0.000164 0.0
0.562222 1.862504 -0.000333 0.0
0.209875 1.067420 -0.001455 0.0
1.480971 0.754693 -0.004804 0.0
0.413923 0.587620 0.002889 0.0
4.301178 1.243647 0.001327 0.0
2.591760 0.881377 -0.001239 0.0
0.249361 1.769040 -0.000880 0.0
2.614774 1.360202 -0.001013 0.0
2.667937 0.757436 0.003962 0.0
1.099338 0.179215 0.001486 0.0
2.134149 0.523482 -0.000458 0.0
2.796040 0.142215 0.003950 0.0
3.528279 1.092072 0.001015 0.0
0.777454 0.727103 -0.002929 0.0
2.810975 0.270370 -0.001663 0.0
2.974921 0.897290 -0.000114 0.0
2.566684 1.219719 0.002860 0.0
0.303312 0.759917 -0.000892 0.0
0.466382 0.812776 -0.002521 0.0
4.467139 1.107605 0.002434 0.0
2.290549 0.131531 -0.004868 0.0
3.544014 1.800316 0.003252 0.0
4.685031 1.946891 0.000655 0.0
1.052975 1.140245 -0.002799 0.0
0.089282 0.070149 0.000668 0.0
3.730807 0.165565 0.003416 0.0
0.771309 0.945627 -0.003006 0.0
1.712051 0.071876 0.002331 0.0
3.718089 1.019577 -0.004668 0.0
0.877325 1.249781 0.000381 0.0
2.023058 0.852276 -0.000479 0.0
1.882100 1.279134 0.000137 0.0
2.348000 0.154076 -0.001640 0.0
3.632990 0.256326 0.003237 0.0
4.191214 0.367384 0.000151 0.0
2.658702 0.726413 0.009453 0.0
0.667889 0.551219 0.000953 0.0
2.578128 0.647528 0.001643 0.0
2.626667 0.033256 0.003242 0.0
2.062360 0.052611 -0.000352 0.0
3.101975 1.140373 -0.001789 0.0
4.270010 1.840880 -0.000915 0.0
2.243435 0.490561 0.002782 0.0
1.655674 1.023483 0.000843 0.0
2.387132 1.013285 -0.002815 0.0
1.464155 0.949682 0.006618 0.0
3.776640 0.818597 0.003787 0.0
1.547505 0.558390 -0.001888 0.0
2.351007 1.497711 0.003138 0.0
0.170037 1.960065 0.000241 0.0
2.223721 0.060605 -0.001244 0.0
1.825146 0.111271 0.002904 0.0
2.054434 1.917368 -0.009710 0.0
2.031723 0.991311 0.000114 0.0
3.925013 0.510473 0.006140 0.0
4.194689 1.044847 -0.004923 0.0
0.513493 0.657442 0.000981 0.0
2.460966 1.806770 -0.001522 0.0
1.432914 0.137378 -0.000675 0.0
0.049254 0.104270 -0.000408 0.0
0.618509 0.573155 0.001632 0.0
4.003783 1.431787 -0.001443 0.0
0.591217 1.021287 -0.001013 0.0
3.579222 0.057820 0.002961 0.0
0.619897 0.342490 -0.002312 0.0
1.401451 1.264502 0.002072 0.0
0.204517 0.181837 0.002826 0.0
3.805162 0.899698 0.003897 0.0
0.855277 1.689833 0.001944 0.0
4.162221 0.355320 -0.003568 0.0
4.190345 1.353645 0.001523 0.0
0.717298 1.497788 -0.001048 0.0
0.281916 1.743742 0.006332 0.0
3.704265 0.192841 0.003386 0.0
1.560280 0.562320 0.000273 0.0
1.253095 0.058594 -0.001794 0.0
4.073092 0.009124 0.001554 0.0
1.264500 1.491879 -0.002283 0.0
0.696010 1.523704 -0.001405 0.0
2.806617 0.984577 0.002324 0.0
3.468530 0.063756 0.000605 0.0
3.572839 1.170730 0.000165 0.0
3.176489 1.383849 0.003115 0.0
2.579277 0.213731 0.002384 0.0
0.705065 0.430225 0.001786 0.0
0.584071 0.707116 0.000003 0.0
4.249018 1.278814 -0.000564 0.0
4.298766 0.223769 -0.000660 0.0
0.850726 1.638723 0.000182 0.0
3.474431 0.717203 0.002724 0.0
3.430655 1.072728 -0.000540 0.0
2.071845 1.156364 -0.000706 0.0
2.535713 1.178217 -0.001783 0.0
0.299474 1.760840 0.002479 0.0
3.781905 1.198344 0.004355 0.0
1.159446 1.216237 0.001122 0.0
2.889982 0.734971 0.003049 0.0
0.624203 0.749034 0.002374 0.0
1.119993 0.242582 0.002081 0.0
2.958868 1.134715 0.003301 0.0
1.901375 1.071167 -0.001793 0.0
0.199799 0.924572 -0.000343 0.0
2.165526 1.333141 -0.004900 0.0
3.639833 1.469673 0.000481 0.0
4.485615 1.407804 -0.001114 0.0
4.102141 0.620745 -0.002299 0.0
0.839398 0.704024 0.001424 0.0
0.547693 0.469054 0.001978 0.0
2.052529 0.658821 -0.003290 0.0
2.617498 1.646089 0.000627 0.0
0.968737 1.153676 0.001685 0.0
3.777151 1.033292 0.000052 0.0
4.178541 0.553620 0.001247 0.0
0.908287 0.787913 -0.001280 0.0
4.249894 0.488990 -0.000936 0.0
3.956683 1.234601 -0.002314 0.0
2.521766 0.232194 -0.002233 0.0
4.200184 1.748377 0.000038 0.0
2.542035 1.225844 0.001429 0.0
1.823725 0.048486 0.000863 0.0
1.516246 0.862153 -0.008003 0.0
0.180863 1.915139 -0.001893 0.0
1.768397 0.168572 0.003590 0.0
2.067591 1.658013 0.000012 0.0
4.113255 0.188375 0.000962 0.0
0.137288 0.959766 0.004193 0.0
0.114840 0.981861 0.003641 0.0
0.349862 0.803971 0.000229 0.0
2.498386 0.590407 0.000645 0.0
2.737998 0.889800 -0.001298 0.0
1.892945 1.005890 0.000900 0.0
3.262526 0.349327 -0.001678 0.0
0.275164 1.383135 0.002137 0.0
3.875672 1.851964 0.002923 0.0
4.149545 0.672031 -0.001631 0.0
1.378319 1.923169 0.002081 0.0
3.207494 0.808693 -0.003280 0.0
0.431580 1.094982 -0.002300 0.0
3.598905 0.753651 -0.001054 0.0
0.376517 1.059894 0.003784 0.0
4.344501 1.162121 0.000270 0.0
1.649323 1.488811 0.003576 0.0
0.664957 0.944887 0.002387 0.0
1.081844 0.317999 0.001152 0.0
3.920316 0.054674 0.004381 0.0
4.427859 0.413747 -0.002506 0.0
2.419128 1.068512 0.001948 0.0
4.685335 0.479856 -0.004266 0.0
3.528946 0.849535 0.002106 0.0
2.653236 0.157625 -0.000765 0.0
4.630409 1.475926 0.004372 0.0
2.925892 0.962947 -0.004798 0.0
3.514533 1.892426 0.004248 0.0
2.325683 0.691959 -0.002824 0.0
4.142790 0.812746 -0.001165 0.0
4.503084 1.377228 0.005762 0.0
4.566076 0.446465 0.001791 0.0
4.485603 0.802431 0.004717 0.0
1.545728 0.488130 -0.002650 0.0
1.283118 0.029071 -0.006041 0.0
2.875172 0.364908 -0.002797 0.0
3.518568 0.664810 -0.001227 0.0
2.755809 1.318698 -0.003836 0.0
4.686744 0.449688 -0.000460 0.0
0.207580 0.084827 -0.000724 0.0
0.109294 0.169725 -0.004297 0.0
4.771703 1.794422 -0.000476 0.0
4.384317 1.233128 0.002981 0.0
4.024686 0.431298 0.001358 0.0
0.358306 1.144323 0.001912 0.0
4.450467 0.630138 0.000448 0.0
0.214729 0.105328 -0.001154 0.0
4.407917 0.689675 -0.001599 0.0
1.827644 1.487264 0.003720 0.0
1.907804 1.429413 -0.000209 0.0
3.179191 0.020249 0.002764 0.0
1.645357 0.817470 0.000546 0.0
0.486182 1.873934 0.000460 0.0
4.371357 1.382155 0.000038 0.0
3.771453 0.103219 0.000127 0.0
2.620803 1.057118 0.003904 0.0
2.351663 0.856999 -0.003004 0.0
1.539809 0.493023 0.003993 0.0
4.657690 1.682349 -0.003912 0.0
2.467576 0.445922 -0.001751 0.0
2.344319 0.016584 -0.002133 0.0
2.077460 1.264257 0.000342 0.0
1.271700 0.972065 0.003779 0.0
1.055903 0.820231 0.002477 0.0
2.266643 1.809807 0.001277 0.0
1.771034 0.444881 0.004828 0.0
3.768174 1.528485 -0.003718 0.0
0.539022 1.593211 -0.001855 0.0
1.349219 1.259566 -0.001857 0.0
0.443606 0.489919 0.000946 0.0
2.231878 1.840503 -0.000930 0.0
1.555284 1.341149 0.001500 0.0
1.164026 0.350651 0.002575 0.0
2.151716 1.655525 0.000191 0.0
1.264395 1.383959 0.001556 0.0
4.602257 1.691505 -0.001839 0.0
0.071891 0.957176 0.004685 0.0
0.510961 0.697340 0.001047 0.0
0.428346 1.848859 -0.000654 0.0
3.602653 0.379604 -0.000851 0.0
0.384024 1.232983 -0.000150 0.0
3.276481 0.615605 -0.001146 0.0
0.316255 1.729111 -0.001698 0.0
1.791788 1.078152 -0.005658 0.0
0.622573 0.527425 0.004082 0.0
3.726805 0.500331 -0.004834 0.0
4.010508 0.662632 0.002186 0.0
3.381041 1.940677 -0.000500 0.0
1.064942 0.690689 0.001131 0.0
1.918677 0.926719 0.003743 0.0
3.977708 0.339218 -0.000172 0.0
3.639606 1.702737 -0.002046 0.0
1.967424 1.878890 -0.001236 0.0
3.338817 1.490695 0.003139 0.0
0.802362 0.927031 -0.000104 0.0
3.981312 1.192352 -0.002732 0.0
0.194477 1.639162 -0.002438 0.0
2.964204 0.713184 -0.002279 0.0
3.176281 0.671288 -0.001540 0.0
0.382848 0.490170 -0.001817 0.0
1.350834 0.081708 -0.001958 0.0
0.865115 1.610252 -0.002288 0.0
0.702059 0.031110 0.001884 0.0
2.120198 1.098275 0.003381 0.0
1.826992 0.811640 0.002778 0.0
3.920688 0.206658 0.003401 0.0
1.424784 0.545498 0.001174 0.0
1.595526 0.152011 0.000473 0.0
3.514134 1.148808 0.000957 0.0
2.632412 0.089482 0.001178 0.0
0.831322 0.494513 -0.000836 0.0
2.678958 0.005507 0.002953 0.0
1.678943 0.914652 0.001271 0.0
2.554360 0.672095 0.004364 0.0
4.426544 0.704779 -0.002927 0.0
1.063668 0.919523 -0.006412 0.0
3.525682 0.395137 0.001534 0.0
2.552564 1.482351 -0.000875 0.0
1.795853 1.635538 -0.002553 0.0
0.600131 0.118134 0.000657 0.0
0.589111 1.599140 -0.005292 0.0
4.443126 0.182217 0.001908 0.0
0.372595 0.110970 0.000582 0.0
0.994322 1.526575 -0.003586 0.0
1.550756 1.566644 -0.001221 0.0
3.287376 1.458255 -0.000338 0.0
3.143309 0.821502 0.001609 0.0
0.710421 1.428230 0.002541 0.0
4.505998 0.079056 -0.003414 0.0
0.258787 1.344569 0.003145 0.0
3.714946 1.749260 -0.002625 0.0
2.612220 1.116373 -0.001139 0.0
1.648867 1.371473 -0.003634 0.0
1.437547 1.431209 0.002823 0.0
4.365652 0.699484 0.003188 0.0
4.529613 0.588655 -0.002742 0.0
0.058429 1.398770 -0.002700 0.0
3.214195 0.173768 0.003234 0.0
0.179256 0.887780 -0.006164 0.0
2.623725 0.067107 -0.002085 0.0
2.753310 1.920643 -0.001394 0.0
0.328477 0.976072 0.001835 0.0
0.285127 0.187025 -0.000574 0.0
2.638858 1.152320 -0.002298 0.0
2.721208 1.534876 -0.002131 0.0
4.566262 0.933199 0.002677 0.0
4.670419 1.832990 0.004427 0.0
1.442328 0.500187 -0.003447 0.0
0.851896 0.549024 0.000337 0.0
1.617524 0.306664 -0.000041 0.0
4.395399 1.741682 0.003632 0.0
0.986515 0.146291 -0.000598 0.0
1.213671 1.520688 -0.001395 0.0
3.066701 0.531948 -0.006113 0.0
2.311049 1.480561 0.002227 0.0
2.287096 0.389105 -0.000549 0.0
1.844893 1.682991 -0.000746 0.0
2.680670 1.318923 0.001426 0.0
0.494966 1.783590 -0.001207 0.0
1.553191 1.315354 0.001921 0.0
0.982363 1.005639 -0.001989 0.0
1.053956 1.272217 -0.002337 0.0
4.112541 0.350811 0.001699 0.0
2.430090 0.413177 -0.001022 0.0
1.499738 0.586667 0.000359 0.0
2.214862 0.006331 0.000420 0.0
0.097437 0.090811 0.001689 0.0
0.065090 1.359878 -0.000403 0.0
0.866898 0.368290 0.003401 0.0
0.247259 0.701555 -0.000180 0.0
4.172010 1.501875 0.000167 0.0
2.809050 0.384514 0.000784 0.0
3.737973 1.312222 -0.001972 0.0
0.043217 1.498540 -0.000353 0.0
4.529707 1.962135 0.000300 0.0
1.590013 0.355590 0.000283 0.0
2.702656 0.300111 -0.005392 0.0
0.935622 0.652793 0.002870 0.0
0.021297 1.300968 -0.003063 0.0
2.892389 1.695988 0.002334 0.0
2.566115 0.950530 -0.000339 0.0
4.424892 1.113237 -0.000258 0.0
2.310297 0.936731 -0.000028 0.0
2.900568 0.858936 0.001321 0.0
2.833023 1.216140 0.000826 0.0
2.115097 1.361393 -0.000056 0.0
3.065192 0.548391 -0.002901 0.0
2.421033 1.709346 0.001223 0.0
0.687850 0.029518 -0.001991 0.0
3.729408 0.914637 0.000511 0.0
3.232639 0.389287 0.000827 0.0
0.882292 1.802881 -0.001920 0.0
3.852494 1.522423 -0.001072 0.0
1.939026 1.506279 0.002540 0.0
1.960044 0.407028 -0.000741 0.0
2.525787 0.213237 -0.000252 0.0
2.267183 0.714940 0.000981 0.0
3.303121 0.723807 -0.000010 0.0
1.523738 0.881236 0.001145 0.0
3.140053 0.672834 -0.002368 0.0
3.203530 0.256861 -0.001492 0.0
1.892322 0.548004 -0.000740 0.0
4.323532 0.315808 -0.002036 0.0
4.578691 0.716451 0.003352 0.0
2.159174 0.735687 -0.000568 0.0
2.910574 1.878557 0.000049 0.0
3.332906 1.204238 0.005657 0.0
3.866933 0.375791 -0.002649 0.0
1.398476 1.335513 -0.001488 0.0
4.166935 0.681871 0.001363 0.0
1.834974 1.623650 0.000523 0.0
2.730307 1.962377 -0.004193 0.0
2.814640 1.579861 -0.001674 0.0
0.207195 1.056636 0.001083 0.0
4.389924 1.194937 0.000016 0.0
3.702543 1.024945 -0.001788 0.0
2.623645 0.015731 0.000313 0.0
3.496333 0.183049 -0.000416 0.0
1.372375 1.009875 -0.001279 0.0
1.182009 1.677863 0.000108 0.0
2.657323 1.277156 -0.000702 0.0
3.097632 0.262255 -0.002495 0.0
3.115915 1.340087 0.001098 0.0
1.024808 1.543634 -0.000131 0.0
4.691781 1.227152 0.002667 0.0
3.804408 0.365038 0.004310 0.0
3.289129 0.347864 -0.000432 0.0
4.212898 1.367450 0.005800 0.0
0.707050 0.982281 0.004691 0.0
4.740229 0.388089 -0.001565 0.0
2.506164 1.093831 -0.000010 0.0
0.560883 1.466912 -0.000780 0.0
1.060864 1.947185 0.001357 0.0
0.104180 1.207588 0.002269 0.0
2.603272 0.039199 -0.002529 0.0
3.637586 0.769564 0.003321 0.0
1.214974 0.856078 -0.000674 0.0
1.052124 0.826189 -0.000657 0.0
4.273504 0.469839 -0.001434 0.0
2.441591 1.210274 -0.002126 0.0
2.931102 0.080584 0.001199 0.0
4.527615 1.761168 -0.002044 0.0
0.602400 1.264328 -0.000650 0.0
1.854661 1.966975 0.001835 0.0
2.955929 1.022382 0.000750 0.0
2.885844 0.810835 -0.001207 0.0
1.355938 0.814252 -0.005341 0.0
4.278105 1.335511 0.002515 0.0
4.130966 0.677050 -0.005123 0.0
4.604505 1.629286 0.000729 0.0
0.322817 1.535990 0.001072 0.0
0.774393 0.628072 0.000121 0.0
3.868255 1.544172 -0.001235 0.0
1.386312 1.544976 -0.000964 0.0
3.358097 1.059231 -0.002083 0.0
1.511121 0.651219 0.001243 0.0
0.742921 1.046759 -0.002856 0.0
3.491205 0.966260 -0.002832 0.0
2.109569 0.552471 -0.001845 0.0
4.373884 0.064621 0.000021 0.0
2.112078 1.896210 0.000112 0.0
2.739852 1.603704 -0.002926 0.0
4.254375 0.379976 0.003725 0.0
2.495235 1.852212 -0.001838 0.0
3.883229 0.664913 -0.003153 0.0
4.360439 1.463825 0.006007 0.0
4.312544 1.287878 0.000255 0.0
3.856762 0.486358 -0.001326 0.0
2.506770 0.684109 -0.002129 0.0
0.986937 1.177803 0.002558 0.0
0.924039 1.955709 0.001490 0.0
2.165983 1.357473 -0.002854 0.0
4.421769 0.243426 -0.005755 0.0
2.882054 1.216423 0.000420 0.0
3.717271 1.265364 -0.001913 0.0
0.819552 0.607674 0.000336 0.0
3.668239 0.116530 -0.000737 0.0
0.697175 0.618804 0.001190 0.0
3.433796 1.631907 0.005619 0.0
2.583395 0.663169 0.000277 0.0
1.759004 1.201309 -0.001651 0.0
3.905077 0.493978 -0.004130 0.0
2.119097 0.153977 -0.002857 0.0
2.724641 1.049688 0.003427 0.0
1.158280 1.285446 0.000711 0.0
2.180736 1.199090 -0.000799 0.0
1.396615 0.970147 -0.001061 0.0
3.922098 1.944905 -0.001287 0.0
4.445003 1.217478 -0.001959 0.0
2.461743 0.849052 -0.002671 0.0
1.472407 0.765827 0.000094 0.0
0.908045 1.529266 -0.004340 0.0
4.408639 1.197588 -0.000827 0.0
1.100855 0.869882 0.000964 0.0
2.705564 1.817010 -0.002496 0.0
2.961570 1.767432 0.000285 0.0
3.497261 0.457510 0.000948 0.0
1.981344 0.839021 0.002257 0.0
1.249192 0.904020 -0.000260 0.0
3.299621 0.830379 0.000074 0.0
3.718373 0.211411 -0.003183 0.0
2.416337 0.194695 0.003526 0.0
3.651333 1.737966 -0.002851 0.0
0.341303 1.865953 0.003405 0.0
2.895552 0.806996 0.005125 0.0
3.011495 0.551326 0.002805 0.0
4.282818 0.420206 -0.000207 0.0
0.499426 1.104250 -0.005431 0.0
3.861667 1.943830 -0.000119 0.0
0.240357 1.753625 0.002390 0.0
1.530570 1.142572 -0.002216 0.0
4.659260 1.512827 0.001773 0.0
1.761121 0.460226 0.001954 0.0
3.963119 1.670704 0.000231 0.0
4.094993 0.380641 -0.002202 0.0
2.489974 0.748731 0.001336 0.0
0.069700 1.422724 -0.002081 0.0
1.751043 0.941451 -0.003317 0.0
0.667217 0.538400 -0.002859 0.0
2.026878 0.740067 0.002240 0.0
4.271825 0.465376 -0.001510 0.0
2.616771 0.615577 -0.000538 0.0
2.164068 1.135642 -0.002633 0.0
2.718581 1.620494 0.001827 0.0
3.817276 0.747094 0.002685 0.0
3.859954 1.942151 -0.001364 0.0
3.849596 1.066085 -0.000507 0.0
1.565886 0.679472 -0.000752 0.0
1.190774 1.115437 0.003417 0.0
4.411796 0.613719 -0.002582 0.0
2.026495 0.690052 -0.001105 0.0
0.501192 0.487513 -0.000602 0.0
1.044680 1.820022 -0.000559 0.0
1.929812 0.755975 -0.002660 0.0
3.911128 1.143847 0.002941 0.0
0.897265 0.197889 -0.002595 0.0
0.061083 1.223169 -0.000985 0.0
0.707801 0.315349 -0.000944 0.0
2.637881 1.530537 0.000078 0.0
1.762258 0.546708 0.003308 0.0
3.259635 0.006741 -0.001479 0.0
4.162397 1.836116 -0.002135 0.0
3.882481 0.240512 0.001692 0.0
4.464880 0.898400 0.001722 0.0
1.454477 0.889686 -0.002124 0.0
1.977668 1.484585 0.002344 0.0
2.404147 1.435757 0.002860 0.0
1.590599 0.161838 -0.002093 0.0
3.341062 0.660157 0.007026 0.0
0.483319 0.652939 0.001776 0.0
2.220148 0.167474 -0.002831 0.0
1.461527 1.144704 -0.001668 0.0
2.637679 0.016991 -0.001883 0.0
3.878164 1.132775 -0.001742 0.0
2.041426 1.583338 0.000792 0.0
0.227559 1.071993 0.002428 0.0
3.646882 1.897593 0.000396 0.0
4.213957 1.597053 0.001262 0.0
1.218329 0.095064 -0.000803 0.0
3.074373 0.544415 0.003197 0.0
3.864225 1.636042 0.003003 0.0
3.146729 0.563375 0.000568 0.0
3.428218 1.126555 -0.003665 0.0
2.030600 1.693544 0.002033 0.0
4.691380 0.023155 0.001501 0.0
3.062400 1.967941 -0.000064 0.0
1.567099 1.142072 -0.000248 0.0
1.732092 1.241057 0.004390 0.0
3.815298 1.346370 -0.000219 0.0
0.837490 0.303875 -0.002879 0.0
3.625969 1.418058 0.000151 0.0
0.302130 0.787074 0.000633 0.0
2.713705 0.509932 0.001304 0.0
1.225429 1.444698 -0.002953 0.0
4.760558 1.155865 0.001333 0.0
3.789300 0.832373 0.001164 0.0
0.652965 1.577333 -0.001135 0.0
4.461194 1.371078 -0.000776 0.0
3.275068 0.738755 0.006105 0.0
1.970808 0.815154 -0.005007 0.0
1.943305 0.565708 0.000930 0.0
0.872952 0.862829 0.000502 0.0
1.829892 0.020381 -0.003098 0.0
2.035855 0.713331 -0.000013 0.0
2.068043 1.439544 -0.004693 0.0
3.503245 0.749791 0.002377 0.0
0.910432 0.335859 0.002174 0.0
0.474829 1.903846 0.001357 0.0
2.324366 0.171358 0.000080 0.0
0.626736 0.845768 -0.002587 0.0
4.638740 1.088193 -0.003041 0.0
3.402233 0.841331 0.002470 0.0
4.596459 0.281487 0.000492 0.0
1.047639 1.052507 -0.000067 0.0
1.814957 0.972817 0.002494 0.0
0.538191 1.727763 0.001575 0.0
1.928926 1.571648 0.002685 0.0
4.383339 0.566536 0.004156 0.0
0.495084 1.403934 -0.002945 0.0
4.257213 0.826874 0.000510 0.0
0.061436 1.110446 -0.000351 0.0
1.022396 0.454601 -0.003340 0.0
2.142576 1.417285 0.001419 0.0
3.228196 0.908768 -0.000701 0.0
1.972292 1.352614 0.002074 0.0
0.751385 0.571693 -0.001044 0.0
2.316225 1.909347 0.001363 0.0
4.432199 0.757726 -0.003812 0.0
3.578137 0.763037 0.000940 0.0
3.483235 0.039908 0.002483 0.0
2.973936 1.222635 0.000949 0.0
1.238077 0.150187 -0.002823 0.0
3.998775 0.595802 -0.000201 0.0
2.045643 0.408499 -0.001166 0.0
2.682848 1.539367 -0.004511 0.0
2.871129 1.033174 0.000650 0.0
1.014803 1.049707 -0.000314 0.0
0.561118 0.910893 0.000955 0.0
2.377260 0.505004 0.001686 0.0
2.731264 0.638675 -0.001802 0.0
1.159087 1.580780 0.001958 0.0
3.602149 1.046314 -0.003734 0.0
2.055928 1.244804 -0.000514 0.0
0.894760 0.973779 0.002837 0.0
2.476687 0.573110 0.000633 0.0
0.613070 1.933950 -0.001991 0.0
0.467693 0.799058 -0.000796 0.0
4.579827 1.464003 -0.000490 0.0
2.409603 0.372957 0.005000 0.0
1.646764 0.858284 -0.000307 0.0
2.420475 1.456573 0.001407 0.0
3.580129 0.840028 -0.001210 0.0
3.061813 1.365269 0.001525 0.0
4.507792 1.016917 0.001135 0.0
1.960978 0.810349 -0.002519 0.0
0.338161 1.186364 -0.000769 0.0
4.497498 0.677421 0.001607 0.0
3.358880 1.475442 -0.004473 0.0
2.633497 0.463433 -0.001054 0.0
0.541343 0.139967 0.000530 0.0
0.542422 1.473669 -0.001429 0.0
2.106173 1.499220 -0.002928 0.0
2.136255 0.772966 0.000707 0.0
4.327480 1.544769 -0.000036 0.0
0.651413 0.152043 0.001529 0.0
0.675528 1.062600 -0.003717 0.0
0.066995 0.891366 0.000319 0.0
1.467658 0.691789 -0.000740 0.0
1.252408 1.156496 0.001785 0.0
1.880414 0.681306 -0.003509 0.0
0.583501 0.802779 -0.002920 0.0
1.666299 1.496968 0.005461 0.0
1.485797 0.280683 -0.002356 0.0
3.809438 0.678002 0.006418 0.0
2.854821 0.863304 0.001998 0.0
1.050454 1.671823 0.003452 0.0
1.125977 0.198786 0.001688 0.0
4.473659 1.052309 0.001314 0.0
1.259103 1.469054 -0.002126 0.0
1.850812 0.512932 0.000659 0.0
1.775504 1.138515 -0.003752 0.0
3.956481 0.997708 0.001863 0.0
3.722891 0.944647 0.001923 0.0
3.529817 0.676352 0.005116 0.0
3.003869 1.044384 0.001584 0.0
1.823445 1.952508 0.006329 0.0
1.996446 1.859092 -0.000865 0.0
2.018594 1.502063 -0.000745 0.0
0.095429 1.537995 -0.002000 0.0
1.008217 0.771945 -0.000230 0.0
1.615639 0.697688 -0.002829 0.0
0.153481 1.133688 -0.004961 0.0
4.048000 1.729171 0.004076 0.0
3.550206 1.092296 -0.000649 0.0
1.817639 0.950256 0.000337 0.0
1.837287 1.492090 0.001146 0.0
0.652232 1.318292 -0.004110 0.0
4.547964 0.657793 -0.000573 0.0
4.757580 0.696661 -0.001189 0.0
2.754252 1.247671 0.003902 0.0
0.709966 1.857475 0.004483 0.0
2.816886 1.856125 -0.002456 0.0
2.216637 0.673261 0.002694 0.0
2.325840 1.037134 -0.001038 0.0
1.259133 0.928220 -0.003407 0.0
0.805403 0.324505 0.004209 0.0
3.953342 1.322324 0.004027 0.0
4.490763 1.326718 0.002530 0.0
1.920987 0.688437 -0.002962 0.0
1.703783 1.892098 0.001524 0.0
2.655191 1.364321 0.002019 0.0
1.747243 0.825387 -0.002246 0.0
2.402381 0.563383 0.001847 0.0
3.727990 1.902072 -0.000270 0.0
0.925076 0.240662 0.000803 0.0
4.054073 1.690635 0.002534 0.0
0.801521 0.074501 -0.001510 0.0
0.102899 1.152102 -0.003157 0.0
0.107772 1.050544 0.003970 0.0
4.393378 0.874646 0.003755 0.0
1.430671 0.202115 -0.001428 0.0
0.022796 1.546005 -0.000898 0.0
0.277642 0.945614 0.000008 0.0
1.513144 1.282823 0.002743 0.0
3.508797 0.071466 -0.002978 0.0
2.002875 1.253460 0.000135 0.0
1.612263 1.089530 0.001695 0.0
3.346030 0.506103 0.001152 0.0
1.102902 0.703643 -0.002601 0.0
0.958146 0.064177 -0.000404 0.0
4.274269 0.681421 -0.004167 0.0
1.629154 1.882586 -0.000260 0.0
2.877744 1.407376 -0.000129 0.0
2.823789 1.737408 0.002748 0.0
0.229552 1.929744 0.003791 0.0
3.215250 0.524836 -0.000580 0.0
0.849446 1.374891 0.000062 0.0
0.591408 1.769852 0.002729 0.0
4.653441 1.722156 -0.002232 0.0
3.526729 1.061478 -0.003281 0.0
2.474727 1.912380 -0.000285 0.0
3.953524 1.874265 0.001136 0.0
2.503406 1.323396 -0.000226 0.0
2.846505 0.524132 0.002821 0.0
4.744280 1.702046 -0.001038 0.0
3.122369 0.420546 0.003077 0.0
2.170270 0.080456 0.000690 0.0
2.839246 1.718006 0.003136 0.0
2.565452 1.229288 0.000966 0.0
2.570874 0.262952 0.003093 0.0
3.344276 0.364919 -0.000863 0.0
2.585247 1.597309 -0.002327 0.0
2.012148 1.126550 -0.003650 0.0
1.964274 1.168435 0.000976 0.0
1.038907 1.910410 0.006054 0.0
3.889834 0.179174 0.001836 0.0
1.148386 0.813079 0.004158 0.0
2.809122 0.590078 0.001775 0.0
2.262005 1.552210 0.001632 0.0
1.414936 1.685126 0.000531 0.0
0.933194 1.338277 0.001249 0.0
3.536097 0.866636 0.001724 0.0
0.112700 0.340063 -0.002075 0.0
0.132339 0.135683 0.001346 0.0
2.440198 1.282467 0.000582 0.0
3.561711 1.378090 -0.001735 0.0
0.879225 0.674914 0.001419 0.0
0.318328 1.567767 -0.003717 0.0
1.892097 1.797390 0.000398 0.0
1.904366 0.436318 0.000232 0.0
0.315041 1.093925 0.001619 0.0
4.115149 1.124967 0.002691 0.0
3.864023 0.648418 0.000483 0.0
2.800812 0.238582 -0.001444 0.0
1.428488 1.917578 -0.004113 0.0
3.102916 1.333767 0.001869 0.0
2.192173 0.642814 -0.001515 0.0
2.884135 1.702841 0.003203 0.0
4.640346 0.935098 -0.000201 0.0
0.075529 0.539011 0.000535 0.0
2.752101 0.969945 -0.001650 0.0
3.479959 0.374283 -0.002071 0.0
2.964127 0.110827 0.000865 0.0
2.453940 1.020121 0.000440 0.0
2.362366 1.379332 -0.001084 0.0
1.504065 0.632736 0.002082 0.0
3.638823 0.678190 -0.002489 0.0
3.866167 0.847812 -0.003066 0.0
2.991913 1.699035 0.000325 0.0
2.053189 1.192067 0.000966 0.0
4.438454 1.907630 -0.001298 0.0
4.363584 0.885095 -0.004341 0.0
4.742090 1.910528 0.000611 0.0
0.036597 0.724701 -0.000771 0.0
0.424509 1.849965 -0.000104 0.0
2.049952 1.388267 -0.002376 0.0
3.380048 1.610548 -0.004306 0.0
3.122419 0.097680 -0.005823 0.0
4.374924 1.726304 0.000077 0.0
1.110436 1.503365 -0.000511 0.0
3.715831 0.127546 -0.000094 0.0
2.492354 0.359931 -0.001797 0.0
2.015001 0.528744 0.002330 0.0
3.461403 0.413020 0.006056 0.0
3.012630 1.090684 -0.002967 0.0
2.157634 0.693640 -0.001519 0.0
4.103705 1.723468 -0.001030 0.0
1.088017 1.386928 0.002059 0.0
0.427598 1.249768 0.001625 0.0
3.841931 0.497710 -0.002092 0.0
3.354898 1.526934 -0.001613 0.0
2.424152 0.882417 0.002658 0.0
1.861871 0.578918 0.000370 0.0
2.566386 0.840693 -0.001183 0.0
2.243232 0.644099 -0.000364 0.0
4.111118 1.107967 0.000126 0.0
3.131721 0.608438 -0.000810 0.0
3.121457 0.847289 -0.004257 0.0
1.868962 0.427131 -0.002379 0.0
2.366446 1.755500 -0.000518 0.0
3.130256 1.368029 -0.003976 0.0
3.297352 0.085403 -0.004270 0.0
3.207106 0.580698 0.006506 0.0
1.773711 0.251471 -0.002636 0.0
3.939183 0.106700 -0.001472 0.0
0.723918 0.740211 -0.002487 0.0
2.944613 1.504929 0.001936 0.0
2.332179 1.670522 -0.002779 0.0
1.770076 1.733594 -0.002210 0.0
0.178739 0.481345 0.002600 0.0
0.652064 1.115638 -0.000172 0.0
3.733967 0.406883 0.001851 0.0
4.657097 1.571712 -0.003830 0.0
1.232941 0.896477 0.000469 0.0
1.351749 0.411105 -0.001620 0.0
0.783095 0.938106 -0.002518 0.0
2.389722 1.159192 0.003174 0.0
3.586102 0.778389 0.000851 0.0
4.603437 0.027810 -0.003658 0.0
3.665072 0.150537 -0.001077 0.0
0.072902 0.121053 0.000445 0.0
2.628934 1.690798 0.002669 0.0
2.272046 0.343219 -0.002297 0.0
0.082501 0.671874 -0.001307 0.0
1.206725 1.049255 0.001281 0.0
2.958411 1.231572 -0.000292 0.0
2.089324 0.142318 0.001963 0.0
0.968203 0.635509 -0.003615 0.0
1.448591 1.079052 0.001886 0.0
3.345612 0.426209 0.003213 0.0
3.997017 0.094974 0.003209 0.0
4.197168 0.185192 -0.000073 0.0
1.742545 1.651862 -0.001418 0.0
4.255695 1.148337 -0.001539 0.0
2.540750 1.521980 0.001880 0.0
2.927872 1.649632 -0.002004 0.0
3.378104 1.471619 -0.002803 0.0
3.356594 1.831167 0.000257 0.0
2.606328 1.184032 0.001116 0.0
2.695500 0.694412 0.002201 0.0
3.524307 0.125380 -0.004041 0.0
1.879624 1.381117 -0.002267 0.0
0.497108 0.330674 0.002461 0.0
2.556705 0.797910 -0.000739 0.0
1.370323 1.788876 0.003368 0.0
2.249114 1.214357 0.002399 0.0
2.587546 1.920711 -0.002607 0.0
2.348866 1.548203 0.005470 0.0
2.787433 1.116003 0.000154 0.0
1.437906 0.460583 -0.000691 0.0
0.954444 0.548642 0.000273 0.0
2.189445 1.400820 0.004310 0.0
3.723737 0.411711 0.001716 0.0
3.201610 0.277266 -0.000073 0.0
3.022734 0.131198 -0.001900 0.0
2.054941 1.675661 0.000626 0.0
2.460587 1.419420 -0.000682 0.0
2.291893 1.904306 -0.002818 0.0
1.035016 0.376218 0.003277 0.0
4.735426 1.396504 -0.003087 0.0
3.957224 0.362056 -0.001809 0.0
4.134172 1.752675 -0.002163 0.0
0.987033 1.229819 0.000035 0.0
0.239708 0.374079 -0.001633 0.0
1.932436 1.677591 0.001614 0.0
1.464386 1.405212 0.001338 0.0
0.971126 1.567621 0.000830 0.0
0.342093 0.130408 0.000879 0.0
1.383412 0.507064 0.001802 0.0
3.081896 1.236822 -0.000531 0.0
2.804256 0.515416 -0.003149 0.0
1.848335 1.524290 0.006774 0.0
3.812461 0.687015 0.003021 0.0
1.433342 0.148714 -0.000580 0.0
3.266066 0.877728 0.002359 0.0
0.687674 0.888790 0.005281 0.0
2.467745 1.108305 0.000186 0.0
1.756499 0.335214 -0.000688 0.0
0.927993 0.928445 0.001182 0.0
2.356920 0.110340 -0.000027 0.0
0.470720 1.096317 -0.004032 0.0
1.996564 0.474882 -0.002013 0.0
3.265976 1.193730 -0.004377 0.0
3.160218 0.215357 0.000727 0.0
3.962661 0.447708 -0.004150 0.0
4.658645 0.546510 0.000089 0.0
4.297178 0.945161 -0.000508 0.0
3.636700 0.765021 0.004034 0.0
3.731779 1.489284 0.001689 0.0
3.865523 0.265795 0.000517 0.0
4.110944 1.682022 -0.001820 0.0
0.592557 1.870371 0.004472 0.0
1.952269 0.759425 -0.003469 0.0
0.007204 0.331757 0.001738 0.0
2.509823 1.373177 -0.003501 0.0
1.139153 0.643833 -0.001587 0.0
4.269874 1.110533 -0.000384 0.0
3.101439 1.034924 0.000270 0.0
1.782517 1.590193 -0.000590 0.0
4.029708 1.231857 0.000188 0.0
0.922066 0.055454 -0.001245 0.0
2.534051 1.353016 -0.000222 0.0
0.733845 0.720529 0.002195 0.0
1.421248 0.726546 0.001022 0.0
0.841132 1.664311 0.003789 0.0
3.717228 1.372592 0.000256 0.0
4.296685 1.739345 0.000358 0.0
1.194384 1.322358 -0.004183 0.0
3.494893 0.693102 -0.001397 0.0
1.499462 0.526357 0.001420 0.0
1.047842 0.343046 -0.003214 0.0
0.379198 1.175961 -0.003940 0.0
1.118189 1.545701 0.002188 0.0
0.602149 0.231727 0.001742 0.0
3.953051 1.174206 0.001372 0.0
4.253379 0.844106 -0.001998 0.0
4.611274 1.004884 0.004756 0.0
4.459059 1.484200 0.000450 0.0
4.651655 0.641714 -0.001956 0.0
0.310573 1.117578 0.002257 0.0
4.009810 1.057098 0.001613 0.0
2.184488 1.312025 -0.000229 0.0
0.320379 1.165816 -0.002039 0.0
2.759452 1.919440 0.000103 0.0
1.872009 0.230549 -0.002316 0.0
4.152919 1.115890 -0.000869 0.0
1.833754 0.549818 0.002143 0.0
0.644096 1.382712 0.002864 0.0
1.403695 1.249922 -0.002630 0.0
3.508663 1.769795 0.000961 0.0
1.793499 1.911956 0.001226 0.0
4.505444 1.551965 -0.001123 0.0
1.420834 0.695130 -0.004269 0.0
0.119851 1.066382 -0.003231 0.0
1.305007 0.286096 -0.000060 0.0
1.637539 1.029866 -0.000019 0.0
2.687051 1.781045 0.001011 0.0
2.816330 1.302028 0.001427 0.0
4.002547 0.663349 -0.001246 0.0
0.842998 1.907637 0.001447 0.0
1.928659 1.245781 0.005948 0.0
4.250541 0.192558 -0.002613 0.0
3.598459 1.567190 0.000470 0.0
2.751059 1.794833 0.002513 0.0
3.012706 1.285125 -0.004252 0.0
3.906182 1.083059 0.001001 0.0
0.406352 0.217827 0.000947 0.0
2.834509 1.668510 0.002213 0.0
1.643662 0.330103 -0.004316 0.0
2.030786 0.910148 0.003441 0.0
3.032746 0.301338 0.000631 0.0
2.316430 0.396170 0.003141 0.0
3.183108 0.155313 0.001143 0.0
3.266522 1.589009 0.001231 0.0
3.010462 0.566623 -0.003246 0.0
3.672073 0.573868 -0.001762 0.0
2.019091 1.144488 0.004114 0.0
0.580089 1.258968 0.003924 0.0
3.417308 1.403800 0.001459 0.0
1.120218 1.165329 0.000091 0.0
1.720812 0.191485 0.001848 0.0
4.706539 1.891053 -0.004712 0.0
0.970592 0.520212 -0.000733 0.0
1.596311 0.627297 0.003344 0.0
2.127158 1.168094 0.001341 0.0
2.652730 1.629362 -0.002190 0.0
0.861814 0.789161 -0.000320 0.0
0.678971 0.909166 -0.001306 0.0
0.660887 1.335382 0.003828 0.0
4.595570 1.719249 0.001502 0.0
3.892312 0.035320 -0.001850 0.0
2.372075 1.754523 0.000353 0.0
0.535815 0.429462 0.003184 0.0
3.493448 1.495491 0.000458 0.0
4.095898 0.797940 0.003006 0.0
3.835068 1.582298 -0.004645 0.0
0.811859 1.224423 0.000300 0.0
3.319765 0.713209 -0.001385 0.0
4.602043 0.231895 -0.004016 0.0
0.360155 0.138051 0.002963 0.0
3.442707 0.889059 -0.000412 0.0
3.669090 0.548141 -0.000022 0.0
1.671622 1.395199 0.003343 0.0
3.812137 0.479910 0.002438 0.0
0.150316 0.166571 -0.006678 0.0
0.940092 0.055599 -0.003697 0.0
1.181150 0.028364 0.003017 0.0
3.692965 1.204590 0.000082 0.0
4.118123 0.520750 0.000115 0.0
2.817018 0.253219 0.000323 0.0
4.501033 0.091213 -0.001327 0.0
2.618689 0.190303 -0.002451 0.0
0.506595 0.678307 0.000038 0.0
3.890495 0.894794 0.000985 0.0
1.337650 1.195064 -0.003803 0.0
3.185471 1.304828 0.000871 0.0
1.435868 1.590020 -0.002839 0.0
4.440762 1.445808 0.002295 0.0
0.922725 0.693657 0.001988 0.0
3.355846 1.391183 0.002909 0.0
2.287707 1.908816 -0.001956 0.0
1.209669 1.011781 -0.001116 0.0
3.135593 1.171512 -0.000142 0.0
2.915020 1.026768 0.004080 0.0
3.165059 1.884323 -0.002156 0.0
1.395204 0.694335 0.000096 0.0
2.610507 1.112173 0.000555 0.0
4.521426 1.498150 -0.001521 0.0
2.900467 1.346980 0.000152 0.0
4.118699 0.269779 0.000565 0.0
2.441289 0.132726 0.001442 0.0
1.402248 1.115870 -0.000856 0.0
4.168144 0.787579 -0.003194 0.0
3.576927 1.603866 -0.002353 0.0
3.295077 0.656189 -0.000457 0.0
2.815393 0.991377 -0.002759 0.0
0.728394 1.228284 -0.000425 0.0
4.391726 0.896158 0.002966 0.0
4.366093 1.927276 0.001647 0.0
2.105460 1.847171 0.003061 0.0
0.987486 0.865842 0.000534 0.0
2.945820 0.483824 0.000130 0.0
4.174747 0.027018 0.003585 0.0
2.280921 1.755453 0.002294 0.0
1.236934 0.460995 -0.003044 0.0
3.960514 1.881472 0.000741 0.0
0.511003 0.704921 0.000862 0.0
0.624036 1.869382 -0.002946 0.0
1.167802 1.710121 -0.000801 0.0
2.827493 1.750922 -0.001415 0.0
0.710952 0.754209 -0.000669 0.0
0.186551 0.301956 0.000740 0.0
1.988595 0.506225 -0.001726 0.0
3.287868 1.721783 0.000763 0.0
4.617285 0.772540 0.002038 0.0
0.811569 1.377777 0.001148 0.0
4.328754 0.278773 0.001021 0.0
2.042575 1.251428 -0.002593 0.0
3.176917 1.118426 0.000825 0.0
0.209159 0.952550 -0.004317 0.0
4.687458 0.575960 0.000867 0.0
1.056049 1.710277 0.000200 0.0
0.023284 0.236676 -0.001303 0.0
2.349933 1.960302 -0.002067 0.0
0.056000 0.803257 0.001974 0.0
1.028714 0.072627 -0.000783 0.0
0.381552 1.925053 0.003610 0.0
3.815310 0.040282 0.000376 0.0
2.758892 1.070446 -0.000485 0.0
3.137082 1.191874 -0.002996 0.0
1.259432 0.616086 0.006982 0.0
3.323143 1.513043 0.001929 0.0
1.118819 1.444137 -0.000540 0.0
3.424969 0.483297 -0.003421 0.0
2.514474 1.925628 -0.004831 0.0
3.349115 1.665296 0.005052 0.0
0.568933 0.444733 -0.002560 0.0
1.652408 0.213585 -0.003315 0.0
3.689420 1.367028 0.002309 0.0
1.939822 1.726175 0.003954 0.0
2.913983 0.340118 0.001923 0.0
0.835671 0.601584 0.000968 0.0
2.359945 0.795918 0.002557 0.0
0.108400 0.009895 -0.005345 0.0
1.594454 1.404982 -0.000412 0.0
1.216772 1.539925 -0.001970 0.0
0.153391 0.485746 -0.001117 0.0
1.709820 0.331660 0.000216 0.0
2.741398 1.074623 -0.000929 0.0
3.755358 1.806614 0.000272 0.0
2.400760 1.223094 0.000441 0.0
0.030843 1.037692 0.003117 0.0
3.645737 1.416361 0.000889 0.0
2.552535 0.095404 -0.002881 0.0
4.364578 0.338802 0.003169 0.0
2.615685 0.941678 -0.003719 0.0
2.751546 1.899185 -0.000109 0.0
0.352421 1.765242 -0.000009 0.0
1.179155 1.910958 0.001307 0.0
1.625254 0.841710 -0.002027 0.0
0.580420 0.189541 0.000271 0.0
4.568580 1.489917 0.000389 0.0
4.088248 0.148340 0.003600 0.0
2.140470 0.221749 0.000642 0.0
2.304212 0.216923 -0.001099 0.0
0.109385 1.806423 0.004551 0.0
3.671676 1.442008 -0.000684 0.0
0.415029 0.956344 -0.000355 0.0
2.772059 0.041694 0.000310 0.0
1.893177 0.333989 0.001788 0.0
0.356870 1.811573 -0.001435 0.0
3.720634 0.868367 0.002567 0.0
0.129333 0.643125 -0.001676 0.0
0.059572 0.364951 0.003957 0.0
0.954120 0.696577 0.001480 0.0
2.211566 1.273397 -0.004718 0.0
4.230583 1.761939 0.000290 0.0
3.001096 1.002117 0.001794 0.0
0.123126 0.980194 -0.001708 0.0
1.684248 1.871773 -0.001099 0.0
1.353961 0.759799 -0.001474 0.0
4.137653 1.201375 0.000014 0.0
2.889282 1.388908 0.003189 0.0
1.921786 1.234842 0.000163 0.0
3.725666 1.550159 -0.001180 0.0
0.289050 0.548144 -0.003607 0.0
3.681538 1.127721 -0.006499 0.0
4.388230 1.231813 -0.001794 0.0
2.273430 1.321336 0.000724 0.0
1.230247 1.491482 -0.001641 0.0
0.527207 0.838542 -0.002561 0.0
4.694382 0.576384 -0.000798 0.0
3.239102 0.585921 0.001698 0.0
3.286372 1.081037 0.003245 0.0
2.920066 1.238663 -0.002998 0.0
0.013325 0.217024 0.002162 0.0
1.658397 0.134332 -0.001600 0.0
1.220619 1.608354 0.002788 0.0
3.983475 1.056240 -0.001825 0.0
2.226779 1.409506 -0.002389 0.0
0.711211 1.749073 -0.001615 0.0
3.870639 0.109103 -0.000375 0.0
3.337900 0.730252 0.001277 0.0
4.337107 0.300355 0.001641 0.0
3.891795 0.008958 -0.001464 0.0
3.232372 0.073247 -0.002265 0.0
3.308586 1.727286 0.004817 0.0
2.912716 0.913822 -0.001020 0.0
0.804793 0.211146 -0.000040 0.0
1.921742 0.285748 0.006354 0.0
2.241834 1.468051 -0.002971 0.0
1.419265 0.276912 -0.000260 0.0
0.410534 1.943467 0.002783 0.0
4.619465 0.793126 0.000017 0.0
1.796929 1.529632 0.002338 0.0
1.971999 0.726199 0.002830 0.0
2.591050 0.542239 -0.000544 0.0
0.227224 0.459450 -0.001839 0.0
1.637918 1.447848 -0.002352 0.0
1.591823 0.378666 0.000161 0.0
1.504861 1.620165 -0.003112 0.0
2.026496 0.539747 0.003499 0.0
1.789647 1.823451 0.000878 0.0
3.644270 0.703358 0.000516 0.0
0.145876 0.209064 -0.002495 0.0
0.800547 1.625424 -0.001822 0.0
0.430811 1.289011 -0.000399 0.0
3.515052 0.108504 -0.001352 0.0
0.813629 0.576360 -0.000754 0.0
4.325401 0.817516 -0.000318 0.0
2.380650 0.133662 0.000019 0.0
4.598553 1.338317 -0.002119 0.0
3.690792 0.280580 -0.002149 0.0
0.861893 0.275478 0.000686 0.0
1.360019 1.738139 -0.000203 0.0
3.486203 1.838733 0.005032 0.0
3.965683 1.309133 -0.003880 0.0
4.411888 0.999175 0.003269 0.0
3.685533 0.843721 0.000468 0.0
3.579573 1.026331 -0.001312 0.0
0.360503 1.274294 0.001855 0.0
2.114159 1.960471 0.001756 0.0
0.448678 1.447482 -0.000918 0.0
3.843819 1.198735 0.004419 0.0
2.417790 1.482584 0.000111 0.0
4.299365 1.362225 0.001825 0.0
2.633908 1.422305 -0.000128 0.0
3.508522 1.117682 0.001852 0.0
2.750927 1.011143 0.002023 0.0
3.720466 1.510480 0.003487 0.0
2.010858 1.947767 -0.000390 0.0
0.972415 1.439683 -0.001805 0.0
4.710231 1.177856 0.003052 0.0
2.070769 0.177022 -0.001183 0.0
0.997600 1.280083 0.000142 0.0
0.434316 1.828253 0.000863 0.0
2.977937 0.553773 -0.002240 0.0
1.668388 1.160419 0.002990 0.0
0.196094 0.140944 0.001511 0.0
4.376482 1.527656 -0.003864 0.0
1.353284 1.736639 -0.000746 0.0
1.500310 0.808463 0.000404 0.0
1.813079 1.757954 0.001794 0.0
4.568966 0.195984 0.000543 0.0
0.323204 1.636523 0.000150 0.0
3.701287 1.318706 -0.002869 0.0
4.259579 0.250373 -0.001573 0.0
0.460627 0.361677 -0.004172 0.0
2.631155 1.738241 0.000679 0.0
0.659910 1.535643 0.000341 0.0
1.600474 0.093214 -0.001489 0.0
1.998899 0.851043 0.001107 0.0
0.725848 0.486097 0.000927 0.0
0.034566 0.057771 -0.003459 0.0
2.621214 0.449928 0.001099 0.0
0.142284 1.105462 -0.003362 0.0
0.669377 0.382666 0.000389 0.0
1.196729 0.239165 0.001795 0.0
2.124288 1.272304 0.000733 0.0
2.352453 1.291397 -0.004408 0.0
1.718734 1.003286 0.000087 0.0
2.642475 0.269947 0.000868 0.0
2.881255 1.896368 -0.000068 0.0
1.668469 0.729015 0.000522 0.0
2.211719 0.484893 -0.000759 0.0
1.750739 0.380978 0.001917 0.0
3.317255 0.742901 -0.000240 0.0
1.291398 1.868946 -0.000933 0.0
1.386198 0.298868 0.000745 0.0
4.260146 1.080942 -0.000493 0.0
3.753152 0.956507 -0.003964 0.0
1.200319 1.844277 -0.000642 0.0
4.418780 1.278324 -0.001337 0.0
4.330332 1.476364 0.004989 0.0
2.827520 0.975891 -0.001992 0.0
3.575983 1.538009 0.000239 0.0
1.811978 1.462481 0.000043 0.0
2.064805 1.328751 0.000333 0.0
4.483008 1.638339 -0.001092 0.0
2.023840 0.514825 -0.000517 0.0
3.640922 0.854734 0.001019 0.0
4.046984 1.057167 0.003427 0.0
2.654530 1.367273 -0.003400 0.0
2.023518 0.586372 -0.004316 0.0
3.082160 0.855989 0.003784 0.0
1.864166 1.456715 0.002210 0.0
1.686453 0.032191 0.002067 0.0
3.094233 0.528627 0.001809 0.0
2.877109 1.156567 -0.001535 0.0
4.401590 0.406812 -0.000642 0.0
1.894206 1.680734 0.000018 0.0
2.358174 1.802355 0.001101 0.0
4.299096 1.353737 -0.002441 0.0
0.312762 0.747803 -0.003723 0.0
3.437700 0.020688 -0.000484 0.0
3.419499 1.855586 0.002621 0.0
2.089373 0.544883 -0.004156 0.0
2.941084 0.141757 -0.001195 0.0
2.814824 0.742280 0.002096 0.0
2.546549 0.328704 -0.000943 0.0
1.657050 0.247483 0.001623 0.0
1.290864 1.647809 0.003022 0.0
3.557880 0.507592 0.001259 0.0
2.234701 1.755191 0.000368 0.0
2.904871 1.369218 0.003278 0.0
2.817979 1.700620 0.001536 0.0
1.661445 1.648006 -0.002229 0.0
3.627985 1.253098 0.001018 0.0
4.510904 1.651204 0.000250 0.0
0.142591 0.481885 0.000038 0.0
4.105692 0.723900 0.001143 0.0
2.758806 1.231032 0.000034 0.0
3.164499 1.828167 0.002022 0.0
1.742120 0.164684 -0.001759 0.0
3.268853 0.841813 0.006675 0.0
3.917565 0.497868 -0.001496 0.0
0.516335 0.436128 -0.001033 0.0
3.775160 0.025636 -0.003362 0.0
1.540654 1.624575 -0.003577 0.0
0.646174 0.644255 0.001701 0.0
0.867094 1.427023 -0.005298 0.0
3.833541 1.733773 0.000593 0.0
1.637761 0.826827 -0.000713 0.0
1.082867 0.417553 -0.006354 0.0
3.603459 0.401089 0.001801 0.0
1.975191 0.153193 0.002402 0.0
2.626735 1.337268 -0.002004 0.0
0.884657 1.619061 -0.001161 0.0
4.611386 0.877174 0.001175 0.0
0.121349 1.339154 0.000233 0.0
3.477381 0.298546 -0.002009 0.0
1.274926 0.791273 -0.000136 0.0
3.375784 1.173230 -0.000110 0.0
2.918383 1.280447 -0.000988 0.0
2.460889 0.635989 0.001789 0.0
0.183793 1.693554 0.001121 0.0
4.531266 1.524929 0.000158 0.0
2.398993 1.774855 0.000698 0.0
1.591280 1.594591 -0.001144 0.0
0.452483 1.165716 0.000021 0.0
0.195866 1.054535 0.004002 0.0
4.347642 0.272453 -0.000447 0.0
1.060933 0.365599 0.000729 0.0
3.970339 1.796813 0.001280 0.0
2.589915 1.015669 -0.001906 0.0
0.244697 0.280041 0.001023 0.0
1.248537 0.754237 0.000757 0.0
3.122028 0.092209 -0.000458 0.0
1.621526 0.067927 -0.000067 0.0
3.079978 1.527060 0.004012 0.0
4.538602 0.280232 -0.000894 0.0
1.903506 1.711981 0.004292 0.0
3.615867 0.374347 -0.000418 0.0
0.208695 0.702470 0.006203 0.0
2.679401 1.874871 -0.001111 0.0
2.603792 0.087861 0.000432 0.0
3.100099 0.117378 -0.000811 0.0
3.752011 0.040493 0.001312 0.0
0.688539 0.945810 -0.005218 0.0
2.711527 0.609352 -0.000155 0.0
1.320281 0.267014 0.003510 0.0
0.891517 0.875046 0.003167 0.0
1.677681 1.019944 -0.000017 0.0
1.246302 0.558370 0.001247 0.0
0.890823 0.882905 0.001978 0.0
1.664014 1.726825 0.002150 0.0
2.368204 1.705912 0.002930 0.0
2.360856 0.337854 0.001556 0.0
0.716458 0.702861 0.000367 0.0
4.200468 0.222778 -0.000453 0.0
1.273612 1.910193 0.001586 0.0
1.281041 1.777142 0.000465 0.0
4.333755 1.226450 0.001052 0.0
1.695346 0.001573 0.002635 0.0
2.225696 1.891377 0.003965 0.0
3.469944 1.167542 -0.002663 0.0
1.217784 0.621190 -0.001199 0.0
0.591476 1.208429 0.002418 0.0
4.054002 0.444719 -0.001302 0.0
4.447016 1.392347 -0.000580 0.0
4.418795 1.261995 0.005607 0.0
1.251705 1.766817 0.000194 0.0
3.911493 0.795992 0.000236 0.0
4.360069 0.787665 -0.000916 0.0
2.260270 0.033469 0.003703 0.0
4.017975 1.502911 -0.001973 0.0
1.715643 0.891381 0.000799 0.0
3.517285 0.687690 -0.001153 0.0
3.205222 1.142223 0.002953 0.0
3.538560 1.957572 -0.002784 0.0
4.577375 1.815508 0.003001 0.0
0.224843 0.782594 0.003301 0.0
2.261202 0.295571 -0.000549 0.0
0.583048 1.748326 -0.001690 0.0
0.501574 0.532111 -0.000101 0.0
2.479609 1.166923 0.000684 0.0
4.538130 1.535444 -0.000871 0.0
2.796331 0.026029 0.005012 0.0
3.588806 1.105859 0.002075 0.0
4.681701 0.650123 -0.000910 0.0
3.887656 1.647334 -0.002409 0.0
3.426202 0.757561 0.002573 0.0
3.825549 0.332687 -0.001512 0.0
4.171855 1.321513 -0.000302 0.0
4.058655 1.837159 -0.001955 0.0
3.158974 1.142725 0.002871 0.0
4.434215 1.770568 0.001633 0.0
1.976420 0.980070 0.001350 0.0
2.250528 0.410656 -0.000662 0.0
1.202896 0.455443 0.000111 0.0
1.895261 0.043310 -0.002227 0.0
4.144044 0.864238 -0.007309 0.0
3.408024 0.986078 -0.002391 0.0
4.251407 0.447850 0.001441 0.0
0.172544 1.261216 0.003999 0.0
2.015850 0.594725 0.001394 0.0
1.408213 1.497575 -0.002333 0.0
