2.66492996 0.61305253 0.00280766 0.00000000
0.29565799 1.07042221 0.00291488 0.00000000
3.06557147 0.04374874 0.00405527 0.00000000
0.93514225 0.58884787 -0.00234628 0.00000000
2.14591304 0.65188801 -0.00088401 0.00000000
1.58065640 1.45462809 -0.00046770 0.00000000
2.20450100 0.05474494 0.00393671 0.00000000
4.65056362 0.52736764 -0.00441865 0.00000000
3.53249900 1.11847719 0.00275024 0.00000000
1.04278512 0.48064760 0.00034673 0.00000000
4.16987128 0.40384270 0.00379064 0.00000000
4.27212910 1.70700482 -0.00159245 0.00000000
0.15566572 0.51931250 -0.00158784 0.00000000
2.05484125 1.58246145 -0.00421321 0.00000000
3.72005650 0.85144629 0.00043408 0.00000000
0.45979151 1.04321990 -0.00327541 0.00000000
3.37493686 0.30240462 0.00067008 0.00000000
4.65481939 1.82514854 0.00089643 0.00000000
4.35954988 0.67593783 -0.00241851 0.00000000
2.37877803 0.13968236 -0.00430257 0.00000000
2.60245262 0.62822967 -0.00355225 0.00000000
3.46775477 1.27112533 0.00257949 0.00000000
2.57031014 1.62023195 -0.00319985 0.00000000
2.66065869 0.65682078 0.00632647 0.00000000
4.71612210 1.01940496 -0.00046480 0.00000000
3.73440613 1.20845511 -0.00068433 0.00000000
2.58791116 1.43239483 0.00301661 0.00000000
1.18785233 0.19047129 -0.00438858 0.00000000
4.58262028 0.42085136 -0.00020961 0.00000000
3.65179732 0.92174835 0.00093344 0.00000000
2.59958069 0.38616044 0.00215422 0.00000000
1.63343964 0.37350434 -0.00178279 0.00000000
0.70704184 0.20370839 0.00513674 0.00000000
0.16486809 1.62618328 -0.00159476 0.00000000
0.86385267 1.67872069 -0.00493546 0.00000000
0.88885811 0.80453958 0.00063053 0.00000000
2.11881726 0.93318312 -0.00072111 0.00000000
1.77810777 1.84169675 -0.00067559 0.00000000
1.41985128 0.25337037 -0.00064223 0.00000000
4.62752317 0.40732811 0.00018181 0.00000000
2.61045718 0.84697358 0.00072809 0.00000000
3.73902929 0.47784567 0.00097754 0.00000000
0.24366657 0.65379993 -0.00550385 0.00000000
0.67214125 0.11235263 -0.00014443 0.00000000
0.01643488 1.71988023 0.00078049 0.00000000
4.22191165 1.66457432 -0.00074330 0.00000000
3.87692428 1.56735549 -0.00230879 0.00000000
4.47357439 0.04462214 -0.00305458 0.00000000
2.77552433 1.23020384 -0.00575275 0.00000000
2.73530601 0.70192947 0.00052425 0.00000000
3.45399007 0.89347733 -0.00016743 0.00000000
1.84938109 0.69421013 0.00358538 0.00000000
2.75350321 1.22529656 -0.00093115 0.00000000
4.27084975 1.76068785 0.00164086 0.00000000
1.49219762 1.15311225 -0.00617563 0.00000000
2.68362010 1.57495305 0.00151003 0.00000000
1.31757708 0.79899780 0.00062752 0.00000000
3.25874818 1.03707653 -0.00030987 0.00000000
0.68835175 0.27142743 -0.00057956 0.00000000
2.02117588 0.56258225 -0.00465119 0.00000000
4.24331409 0.09790229 0.00084505 0.00000000
4.42546706 0.02464800 -0.00310871 0.00000000
3.04733364 0.00682659 0.00107300 0.00000000
0.52604108 0.03228556 0.00066098 0.00000000
1.56048574 0.21457198 -0.00139016 0.00000000
4.43666624 0.16251077 0.00268160 0.00000000
3.61615976 1.75173874 -0.00008892 0.00000000
0.79060321 0.34703194 0.00555580 0.00000000
0.13413383 1.74866576 -0.00100993 0.00000000
4.63035033 1.02300205 -0.00144502 0.00000000
2.85164266 1.52666937 0.00224831 0.00000000
0.98130716 1.57160749 -0.00134427 0.00000000
0.15370514 1.39474274 0.00092621 0.00000000
3.81393957 0.97779249 -0.00023874 0.00000000
1.59749511 0.06817925 0.00136376 0.00000000
1.47486664 1.08521057 -0.00122355 0.00000000
1.01219203 0.37579716 -0.00147571 0.00000000
1.55811947 0.67813881 0.00476903 0.00000000
3.99130602 0.73367836 -0.00161056 0.00000000
2.18775398 0.10304151 -0.00004321 0.00000000
0.09684230 0.50704062 0.00013517 0.00000000
3.77685475 0.81920220 -0.00252247 0.00000000
0.89218535 0.09079856 -0.00529056 0.00000000
0.49857249 0.62730819 -0.00002333 0.00000000
4.16011805 0.38003729 -0.00158478 0.00000000
3.33448083 1.37838072 -0.00026808 0.00000000
2.57915445 1.15329317 0.00126567 0.00000000
0.22447351 0.41081291 -0.00394827 0.00000000
1.20338949 1.67503547 -0.00429360 0.00000000
4.01245127 1.15631027 -0.00030742 0.00000000
2.02521668 0.40108072 0.00327347 0.00000000
1.86144120 0.46492492 -0.00041417 0.00000000
1.16388959 0.54264295 -0.00142353 0.00000000
1.08004508 1.68387288 -0.00078520 0.00000000
1.60760806 0.45501377 0.00103526 0.00000000
4.08975315 0.57379517 0.00093884 0.00000000
3.32083500 0.00716680 0.00035793 0.00000000
3.47107437 1.09042675 0.00048310 0.00000000
4.65857122 0.82773631 -0.00267736 0.00000000
0.65172983 0.67721683 -0.00302154 0.00000000
0.63658087 0.29847862 0.00030630 0.00000000
2.63091528 0.14168537 -0.00135725 0.00000000
2.95599484 1.82702914 -0.00114024 0.00000000
3.74946378 0.05105352 0.00393287 0.00000000
2.69104509 1.09519677 0.00042209 0.00000000
3.03053619 0.86003446 0.00269176 0.00000000
3.34859244 0.84700089 -0.00369294 0.00000000
1.61554783 0.31361177 -0.00023688 0.00000000
0.84756316 0.22090828 -0.00117115 0.00000000
2.50937242 1.11268999 -0.00027772 0.00000000
0.54558514 1.68356041 -0.00089370 0.00000000
4.53392115 1.53247351 0.00097102 0.00000000
4.43572585 0.12835601 -0.00161729 0.00000000
2.43060451 0.33082066 0.00069253 0.00000000
0.20931119 1.45243652 -0.00102466 0.00000000
0.81743387 0.86614094 -0.00172834 0.00000000
4.28018181 1.67569900 -0.00102935 0.00000000
3.30161943 1.54089338 -0.00094250 0.00000000
0.37014674 1.34213354 0.00350533 0.00000000
2.55462509 0.48210277 0.00315857 0.00000000
1.47491252 0.13421001 0.00013792 0.00000000
2.03948116 1.83215460 0.00112332 0.00000000
0.09580670 1.00909585 -0.00438702 0.00000000
1.35454735 1.54548976 -0.00266280 0.00000000
1.81149982 1.08572466 0.00218579 0.00000000
0.80751259 1.00980329 -0.00158368 0.00000000
1.79033308 0.17772000 -0.00148488 0.00000000
1.35989409 0.34538625 0.00082980 0.00000000
0.43551404 1.14030769 0.00046712 0.00000000
2.34684456 1.27740064 0.00041361 0.00000000
1.68190677 1.83937372 -0.00292746 0.00000000
3.41791669 0.25574205 0.00072780 0.00000000
2.41018118 0.90321211 0.00339469 0.00000000
4.10287729 1.27653730 0.00031291 0.00000000
0.31660934 0.43210732 0.00008731 0.00000000
1.14155072 0.75258955 -0.00077323 0.00000000
3.61806292 0.33962909 0.00363420 0.00000000
2.72822345 1.82731731 0.00018963 0.00000000
3.02145256 0.84130327 -0.00103712 0.00000000
2.74039895 0.28709496 -0.00102477 0.00000000
4.78052575 0.42776612 -0.00226136 0.00000000
1.53219166 1.22494732 0.00371561 0.00000000
3.92923585 0.24117087 -0.00136988 0.00000000
1.96643045 0.11676607 0.00011363 0.00000000
4.59333063 1.65941097 -0.00303252 0.00000000
0.66735611 1.56051890 0.00215448 0.00000000
2.75711910 0.68979559 0.00126025 0.00000000
0.50503437 0.10705625 0.00283777 0.00000000
3.83805000 1.55100160 -0.00028868 0.00000000
2.18242935 0.49534111 -0.00073533 0.00000000
0.43367154 0.61521926 0.00214520 0.00000000
2.14722413 1.81302232 -0.00082466 0.00000000
3.08983733 1.15195607 -0.00183129 0.00000000
0.63949682 0.68546458 0.00139144 0.00000000
0.29173488 0.86789371 0.00133934 0.00000000
0.84243490 0.02564087 0.00305918 0.00000000
1.91481821 0.97467089 -0.00195460 0.00000000
4.24385539 0.06628996 -0.00201047 0.00000000
2.31776812 1.82192590 -0.00405220 0.00000000
1.94877790 0.50105125 0.00206626 0.00000000
4.00001797 0.36877224 0.00137627 0.00000000
2.92165294 1.61110557 -0.00195991 0.00000000
2.82284195 1.35632386 0.00016829 0.00000000
0.56119881 1.41359042 0.00816614 0.00000000
3.00536383 1.24012542 -0.00166770 0.00000000
4.73896878 1.23989776 -0.00197357 0.00000000
2.18986031 0.72593772 0.00474881 0.00000000
3.06157504 0.31272528 -0.00230700 0.00000000
2.28643394 0.99656467 0.00052569 0.00000000
3.00508156 0.76825844 0.00096850 0.00000000
3.62020427 1.28684354 -0.00073345 0.00000000
1.16990466 0.39396922 -0.00190391 0.00000000
3.40674565 0.79515508 -0.00037596 0.00000000
1.88991368 0.39914280 0.00092363 0.00000000
4.76964147 0.88715575 0.00105810 0.00000000
3.77741602 1.48284738 0.00026156 0.00000000
2.05154082 1.68078705 0.00182429 0.00000000
1.61138148 1.23807491 -0.00022350 0.00000000
3.85656223 0.59254983 0.00119732 0.00000000
0.21593726 0.93870306 0.00183049 0.00000000
4.14869124 1.10262699 0.00005294 0.00000000
1.37375331 1.69931536 -0.00028104 0.00000000
3.82668337 1.24109441 -0.00158809 0.00000000
3.30526785 0.72776046 -0.00208495 0.00000000
1.13588365 0.89587893 -0.00148101 0.00000000
1.35964853 0.64144426 0.00080345 0.00000000
0.10017528 0.01386196 0.00325377 0.00000000
1.35439406 1.18361141 -0.00020313 0.00000000
1.31781615 0.06035504 -0.00078177 0.00000000
4.46611749 0.36319562 0.00039901 0.00000000
1.12270566 1.24880915 0.00052835 0.00000000
3.49972642 0.45335412 -0.00068467 0.00000000
0.60336066 0.07811225 0.00076252 0.00000000
2.85766470 1.50301220 0.00072654 0.00000000
1.62562723 1.69264952 0.00049036 0.00000000
3.89186797 1.05608632 0.00095519 0.00000000
2.74257196 1.11130950 0.00136267 0.00000000
2.49913218 1.70076754 -0.00202510 0.00000000
3.33156216 1.43245538 -0.00022507 0.00000000
0.49585983 1.28330401 -0.00027180 0.00000000
1.67657464 0.93228647 -0.00248894 0.00000000
4.26459686 1.77088411 -0.00190708 0.00000000
3.83957398 1.39231403 0.00045539 0.00000000
0.63555051 0.79804463 -0.00093348 0.00000000
2.84949761 0.77358698 -0.00331230 0.00000000
1.00619795 1.58017560 -0.00322771 0.00000000
0.10296968 0.21677946 -0.00687387 0.00000000
2.40885893 0.10057668 -0.00220730 0.00000000
3.45073948 1.35051338 -0.00486368 0.00000000
1.80386975 1.21450098 0.00108296 0.00000000
0.27160348 1.60769706 0.00224774 0.00000000
0.36172567 1.59291574 0.00143644 0.00000000
4.57077071 0.38120435 -0.00265337 0.00000000
3.48231949 0.83847126 0.00343605 0.00000000
2.09609930 1.00873152 -0.00196908 0.00000000
1.35871403 0.16057627 -0.00026836 0.00000000
0.80603621 1.72068604 -0.00271731 0.00000000
1.40913532 0.75538313 0.00091964 0.00000000
4.07799355 0.12417636 -0.00014761 0.00000000
3.34235266 0.88386977 0.00423931 0.00000000
3.38846438 0.93022218 0.00367335 0.00000000
1.39027268 0.62676005 0.00064914 0.00000000
4.74073497 1.16337779 0.00217635 0.00000000
0.31349689 0.31026879 -0.00094584 0.00000000
2.33969788 1.29463903 -0.00363499 0.00000000
3.76128766 1.19282932 0.00382885 0.00000000
1.80661215 0.99925275 0.00254162 0.00000000
4.30592592 0.56544127 0.00039588 0.00000000
2.13013004 1.82257000 0.00053955 0.00000000
2.63319706 0.37657630 -0.00165604 0.00000000
3.93344155 1.45782585 0.00329404 0.00000000
1.87110149 0.36184950 -0.00149245 0.00000000
2.94135323 0.16312960 -0.00405602 0.00000000
0.96563093 0.56484524 0.00173819 0.00000000
3.89724690 0.64896215 0.00152062 0.00000000
3.45806823 0.47819609 0.00231727 0.00000000
3.51661015 0.45718821 -0.00630943 0.00000000
0.77104727 1.78476986 -0.00251573 0.00000000
1.37243990 0.11695195 0.00062532 0.00000000
1.37700860 0.86720741 -0.00126274 0.00000000
3.18965652 0.94139083 -0.00172925 0.00000000
0.71469889 0.32048523 -0.00525672 0.00000000
4.33036274 0.21130256 0.00414515 0.00000000
4.39394152 0.33815486 -0.00081454 0.00000000
3.22253104 1.31750884 -0.00305617 0.00000000
2.43045114 1.11507698 0.00371053 0.00000000
3.51431670 1.35917934 0.00031742 0.00000000
0.72867780 1.47754722 -0.00034182 0.00000000
4.44990989 0.69064428 0.00338790 0.00000000
4.29859155 1.28883045 -0.00237041 0.00000000
3.92221906 0.71989746 0.00072297 0.00000000
2.57239311 0.27683935 0.00019848 0.00000000
2.91628168 1.09067537 0.00226981 0.00000000
2.25647331 1.63730480 -0.00331882 0.00000000
4.22790153 0.94756860 0.00242343 0.00000000
4.35200538 0.43728853 0.00018487 0.00000000
1.80795782 0.73625901 0.00240839 0.00000000
2.67920090 1.38772549 -0.00198973 0.00000000
4.30419632 0.69446541 -0.00365920 0.00000000
3.11243792 1.65735271 -0.00542331 0.00000000
3.31160136 0.64876694 -0.00150934 0.00000000
1.69724074 1.20616820 0.00017446 0.00000000
3.48765533 1.26219977 0.00272308 0.00000000
4.08330475 1.18889189 -0.00030570 0.00000000
4.47485415 0.36442893 0.00433545 0.00000000
4.56901549 0.36671248 0.00107720 0.00000000
3.39600613 0.86802538 0.00521510 0.00000000
1.51480233 0.88646774 0.00298377 0.00000000
0.94999986 0.05833765 0.00009401 0.00000000
3.32183299 0.66868883 -0.00399143 0.00000000
2.78632081 0.37583001 -0.00106705 0.00000000
4.40324539 1.04251802 0.00126495 0.00000000
4.20794172 0.52182220 0.00234991 0.00000000
3.70816181 1.54674544 -0.00357875 0.00000000
0.38289687 0.29678119 0.00278423 0.00000000
0.54340174 0.27593199 0.00083400 0.00000000
2.17153971 1.56272651 -0.00110904 0.00000000
3.41295801 1.39785649 0.00158566 0.00000000
1.07786752 0.17061400 -0.00376600 0.00000000
3.51712396 0.31072465 -0.00260658 0.00000000
3.66106429 1.16006162 -0.00096346 0.00000000
0.28718131 0.79136835 -0.00039209 0.00000000
2.33409762 1.47687630 -0.00150394 0.00000000
2.77299081 1.57341613 0.00120630 0.00000000
3.98666989 1.57299174 -0.00060820 0.00000000
4.44906457 0.11556735 0.00132108 0.00000000
2.51081126 0.40773137 0.00612838 0.00000000
0.25931654 0.51168142 -0.00077660 0.00000000
0.02479596 1.67682967 0.00222979 0.00000000
0.94219709 1.11312435 0.00037105 0.00000000
3.47145201 1.33723280 0.00094629 0.00000000
1.73465505 1.32198517 0.00127100 0.00000000
1.56784595 1.28604778 0.00412148 0.00000000
3.41735168 0.41488723 0.00113778 0.00000000
2.20562605 1.25556750 0.00295867 0.00000000
2.56554422 0.48336824 0.00225316 0.00000000
2.59896944 0.25976518 -0.00375984 0.00000000
0.80671777 1.30069365 -0.00243122 0.00000000
3.24365034 0.71860579 -0.00263429 0.00000000
1.93986337 0.47692173 -0.00014394 0.00000000
3.17025672 1.77860326 -0.00541567 0.00000000
0.26013573 1.73125291 -0.00104843 0.00000000
4.65986043 0.74789940 0.00449894 0.00000000
1.36485959 1.57857343 0.00105999 0.00000000
2.51925712 1.71283828 -0.00313103 0.00000000
2.43220561 0.84185148 0.00228376 0.00000000
2.42384692 1.46335119 0.00005283 0.00000000
4.68418346 0.78171410 0.00374704 0.00000000
4.01931561 1.48472957 -0.00135337 0.00000000
1.77993265 0.90929027 -0.00058338 0.00000000
1.57318368 0.71709563 -0.00166752 0.00000000
1.24870023 0.22830182 0.00265536 0.00000000
4.71593432 0.96329723 -0.00105084 0.00000000
2.99943169 0.14706818 -0.00330023 0.00000000
1.90751487 1.62822319 0.00122140 0.00000000
1.98497042 1.42417212 0.00349492 0.00000000
0.14626338 1.56115179 -0.00286684 0.00000000
4.49006898 0.17550378 -0.00330107 0.00000000
1.16519789 1.49906816 0.00369903 0.00000000
1.49444296 1.56782738 0.00204404 0.00000000
3.31808854 1.12834455 -0.00123232 0.00000000
3.21267051 1.09403379 0.00133057 0.00000000
3.77611446 1.61226277 0.00084615 0.00000000
0.03443349 1.62227430 -0.00143878 0.00000000
4.33581948 1.18302732 0.00136281 0.00000000
1.38881581 0.52396972 0.00037634 0.00000000
0.10954242 0.04448260 -0.00040943 0.00000000
1.35543321 0.52391026 0.00127007 0.00000000
4.61151958 0.39880720 -0.00052055 0.00000000
0.44557738 1.07860911 -0.00259074 0.00000000
3.75406789 1.64104356 0.00050257 0.00000000
0.76064512 1.66987510 0.00116283 0.00000000
0.91026415 1.00073582 0.00333116 0.00000000
4.28341782 1.72812686 0.00175245 0.00000000
3.10047915 1.66299312 -0.00225868 0.00000000
3.41027694 1.25700124 -0.00310186 0.00000000
2.09215892 0.10560776 0.00300014 0.00000000
1.94771577 0.20334665 -0.00409564 0.00000000
4.60545445 0.68541382 -0.00069540 0.00000000
2.37905857 0.07122897 0.00301504 0.00000000
3.94822768 0.27004784 -0.00002799 0.00000000
2.27871748 0.79144546 -0.00437044 0.00000000
2.05780543 1.36245019 0.00224971 0.00000000
2.62137205 0.36072024 0.00141079 0.00000000
2.26532567 0.00637026 -0.00437431 0.00000000
0.14309208 0.28328837 0.00273340 0.00000000
1.95349462 1.32650580 0.00108727 0.00000000
2.60778184 1.38768495 -0.00384954 0.00000000
4.06291485 0.63325787 0.00066518 0.00000000
1.51448866 0.24526988 0.00014706 0.00000000
2.15382009 1.06446590 -0.00211840 0.00000000
0.27654060 0.85360727 0.00515137 0.00000000
2.00474759 0.36486170 -0.00133433 0.00000000
0.46666582 1.04380187 0.00107413 0.00000000
0.82632298 0.51999405 0.00553445 0.00000000
1.64466909 1.23330856 -0.00024551 0.00000000
2.39448414 1.28114053 0.00072748 0.00000000
1.17205366 1.56322620 0.00136794 0.00000000
3.07804988 1.60642384 0.00049345 0.00000000
1.37580852 1.19427223 0.00092019 0.00000000
4.37034688 1.05028358 -0.00274686 0.00000000
2.91225826 1.35477684 0.00106925 0.00000000
1.17912625 1.78434272 -0.00093994 0.00000000
3.60927586 0.45961921 -0.00495069 0.00000000
0.04742903 0.82894314 0.00084285 0.00000000
3.46122190 0.07265987 -0.00218284 0.00000000
0.72006860 1.53054138 -0.00080548 0.00000000
1.16171420 0.74115323 -0.00342958 0.00000000
4.08954257 1.85097646 0.00045323 0.00000000
0.69898472 0.21981797 0.00241324 0.00000000
2.52693729 0.38125416 0.00280377 0.00000000
1.05844338 0.35599861 -0.00361820 0.00000000
0.29269922 0.70954776 0.00137924 0.00000000
1.35412015 1.76779271 -0.00091745 0.00000000
2.72433929 1.84745589 -0.00003599 0.00000000
4.73000935 1.53049020 0.00028069 0.00000000
3.81979546 1.12907681 0.00064410 0.00000000
2.75614530 1.67051479 0.00046656 0.00000000
2.62069111 0.43081852 0.00155740 0.00000000
2.07763173 0.83560719 0.00093772 0.00000000
3.51296735 0.96034472 -0.00257106 0.00000000
4.62811284 0.87870452 0.00156378 0.00000000
2.01309892 1.54881791 -0.00208993 0.00000000
4.68531894 0.64223472 0.00134010 0.00000000
4.01944492 0.14149719 -0.00083093 0.00000000
0.14709650 0.07044234 -0.00079869 0.00000000
3.18910938 1.73065259 0.00183614 0.00000000
4.71838114 1.42884384 -0.00091359 0.00000000
2.68536619 1.67757991 0.00213475 0.00000000
4.19988652 1.78558292 -0.00305881 0.00000000
1.64073492 1.45895094 -0.00065952 0.00000000
3.37506475 0.41013360 -0.00329487 0.00000000
1.84589661 0.10480844 -0.00072773 0.00000000
0.36386248 0.75793151 0.00176746 0.00000000
0.31076316 1.39628191 0.00155784 0.00000000
4.77803360 0.04684018 -0.00070954 0.00000000
2.06418320 0.95406261 0.00080117 0.00000000
0.62045728 1.00985466 -0.00012914 0.00000000
3.53054550 1.32423526 0.00185818 0.00000000
3.04373438 0.59593825 0.00302237 0.00000000
2.73719442 0.50581659 -0.00453519 0.00000000
2.64309177 1.70480898 0.00084611 0.00000000
4.69608630 0.94102824 0.00086756 0.00000000
2.87105602 0.42816451 -0.00218240 0.00000000
1.00097108 1.72291771 -0.00114384 0.00000000
3.96608296 1.40178728 -0.00390451 0.00000000
1.74199546 1.63634180 -0.00003591 0.00000000
3.59806840 0.95660372 0.00332340 0.00000000
3.49076315 0.18679942 -0.00281436 0.00000000
3.80244242 0.90682364 -0.00119758 0.00000000
4.23236358 0.81394411 0.00176673 0.00000000
2.63725902 0.16868908 -0.00071288 0.00000000
3.25124345 1.83326860 0.00173833 0.00000000
4.61293451 0.38333471 0.00027947 0.00000000
1.14152348 0.69047702 -0.00031826 0.00000000
0.34651250 0.67742558 -0.00148274 0.00000000
0.20297753 0.84015497 0.00089789 0.00000000
1.40538123 1.85722915 0.00314630 0.00000000
4.21370660 1.04917166 -0.00265534 0.00000000
2.97275331 0.38263389 0.00106713 0.00000000
3.87891015 1.05805278 -0.00110176 0.00000000
0.50021645 0.34016177 -0.00201225 0.00000000
3.02725011 1.41026247 -0.00206832 0.00000000
3.96926106 0.70842323 0.00064201 0.00000000
2.50893046 0.10917196 0.00102286 0.00000000
0.98703704 0.50236467 -0.00089795 0.00000000
3.42844244 1.00480347 -0.00009474 0.00000000
2.26470797 1.78766296 -0.00192369 0.00000000
1.80492235 0.65712997 -0.00248698 0.00000000
0.41800193 1.65366090 -0.00358964 0.00000000
1.68738522 0.93055046 -0.00277643 0.00000000
4.04086259 1.04829279 0.00467076 0.00000000
1.48627351 1.02304643 -0.00086271 0.00000000
2.81191669 0.29107182 0.00000206 0.00000000
3.34321625 1.43256725 -0.00087285 0.00000000
2.91030521 1.80528561 0.00019237 0.00000000
1.61776783 0.99967943 -0.00413829 0.00000000
2.54157852 0.94550104 -0.00819979 0.00000000
2.64840440 0.15761994 0.00213438 0.00000000
3.14821241 1.05055426 0.00128241 0.00000000
1.74280896 1.42677041 0.00131134 0.00000000
2.86617826 0.35940257 -0.00056898 0.00000000
2.25695324 0.53519579 -0.00261252 0.00000000
1.29507735 0.88353394 -0.00258304 0.00000000
3.48754983 1.50592860 0.00328428 0.00000000
1.92259112 0.27591932 -0.00270602 0.00000000
3.50339266 0.73197502 0.00664499 0.00000000
1.68631561 0.29453661 0.00474218 0.00000000
4.60199789 1.20246343 0.00054970 0.00000000
4.27164389 1.29935255 -0.00057360 0.00000000
2.30747243 1.46194297 0.00306567 0.00000000
3.46367930 0.02292248 0.00276084 0.00000000
3.18544160 0.27773268 0.00163599 0.00000000
1.07581700 1.73542172 -0.00061918 0.00000000
3.71242251 1.09234972 0.00365189 0.00000000
1.55621045 0.89784309 0.00006962 0.00000000
4.50326220 1.85374619 -0.00270825 0.00000000
0.89442424 0.82438850 0.00318121 0.00000000
4.63356128 1.08826952 -0.00038304 0.00000000
3.78947120 0.48349022 0.00082842 0.00000000
1.72943515 1.57571895 -0.00048464 0.00000000
1.82570097 0.91944508 -0.00032721 0.00000000
0.49440069 0.90880220 0.00066572 0.00000000
0.72777128 1.10013197 -0.00052553 0.00000000
2.25230993 1.35838343 -0.00021688 0.00000000
2.28332446 1.71994860 -0.00388800 0.00000000
2.48349129 0.44276958 -0.00080836 0.00000000
4.15340289 0.12624203 0.00197730 0.00000000
0.01931337 1.20942060 0.00168460 0.00000000
4.51259123 0.95936311 -0.00253034 0.00000000
0.77093578 0.27092498 -0.00073885 0.00000000
2.66567605 0.60861421 -0.00254686 0.00000000
2.85905938 1.05517114 0.00059298 0.00000000
0.40192619 0.44310552 0.00086715 0.00000000
1.96151851 0.24385912 -0.00323389 0.00000000
0.32175799 1.15581736 0.00089580 0.00000000
2.17448897 0.45822522 -0.00042273 0.00000000
0.01834713 1.53518663 -0.00358071 0.00000000
2.22770613 0.71781752 0.00392262 0.00000000
2.08706784 0.02531131 0.00187980 0.00000000
0.49914161 0.08890769 0.00517715 0.00000000
4.68167741 1.75437999 -0.00217416 0.00000000
2.32458738 0.25641052 0.00115504 0.00000000
2.95661868 1.37038599 0.00441245 0.00000000
1.13148901 0.90019928 -0.00015801 0.00000000
2.16195789 0.12800965 0.00068086 0.00000000
2.56201761 1.06174453 0.00002875 0.00000000
3.61655151 1.26095705 -0.00074438 0.00000000
1.76334694 0.05192181 0.00352820 0.00000000
1.66029069 1.57709997 0.00301298 0.00000000
4.06296190 0.97348249 0.00043552 0.00000000
2.01399866 1.30165765 0.00260955 0.00000000
3.41432652 0.15394040 0.00268454 0.00000000
0.98184745 0.57310824 -0.00194594 0.00000000
4.38696099 1.28852141 -0.00131726 0.00000000
0.87791866 0.92807828 -0.00063286 0.00000000
4.65937522 1.49934994 -0.00425601 0.00000000
0.14843805 1.56039681 0.00004135 0.00000000
1.27480812 0.70523437 0.00025933 0.00000000
3.27146800 1.74127490 0.00389978 0.00000000
1.28172456 0.71581794 -0.00107016 0.00000000
3.27563570 1.25216913 0.00163177 0.00000000
1.08103047 0.30194418 -0.00151938 0.00000000
1.46123222 1.74586283 0.00151643 0.00000000
2.01409913 0.27226815 0.00063108 0.00000000
2.47394261 0.46747465 -0.00578109 0.00000000
3.12739162 0.89750564 0.00021794 0.00000000
3.09115258 1.09150742 0.00062839 0.00000000
0.88601904 1.39629483 -0.00318275 0.00000000
4.64816929 1.49352994 0.00329354 0.00000000
2.33427362 1.56914996 -0.00775892 0.00000000
1.32737367 1.28729458 0.00605443 0.00000000
3.11842067 0.94455536 0.00021427 0.00000000
1.63708436 1.55742570 0.00129686 0.00000000
3.01544045 0.37188957 0.00005341 0.00000000
1.04399274 1.21351663 0.00399141 0.00000000
3.95635859 1.12296281 0.00314565 0.00000000
1.39200914 1.25835829 -0.00640706 0.00000000
3.90035200 0.89739439 0.00201841 0.00000000
4.79096367 0.08453970 -0.00164760 0.00000000
1.65285521 0.83733718 0.00258538 0.00000000
1.91907846 0.76340025 0.00164820 0.00000000
3.30958052 1.21857704 -0.00224399 0.00000000
3.13484336 0.82883429 -0.00282076 0.00000000
0.50088003 0.24613537 0.00129812 0.00000000
0.66107433 0.42609252 -0.00125121 0.00000000
0.27962080 1.61212104 0.00443561 0.00000000
0.45671328 0.99246678 0.00112042 0.00000000
3.27235673 1.31453699 -0.00216986 0.00000000
3.92713411 1.18153680 0.00280403 0.00000000
2.09375940 1.27699023 0.00022761 0.00000000
0.82768636 1.42750849 -0.00602733 0.00000000
0.34291800 1.69313819 -0.00181676 0.00000000
3.02417297 0.44950246 0.00264973 0.00000000
4.45562938 1.46489113 -0.00088870 0.00000000
0.80151216 1.74702087 0.00505923 0.00000000
2.24021257 1.22852751 -0.00002483 0.00000000
3.38279100 1.40469564 -0.00525010 0.00000000
3.09423455 0.80834638 0.00662502 0.00000000
0.90871759 1.06647928 0.00100848 0.00000000
3.73286419 1.35220325 0.00008202 0.00000000
4.06634556 1.19468982 0.00225559 0.00000000
2.26063450 1.18428978 -0.00007729 0.00000000
3.53032517 1.28756335 0.00178236 0.00000000
0.74696541 0.79494115 -0.00214080 0.00000000
2.50832784 0.70290027 -0.00009772 0.00000000
1.51963709 1.14956972 -0.00211201 0.00000000
4.48093727 0.68141411 0.00445506 0.00000000
0.58938707 1.45611394 0.00263260 0.00000000
4.72741567 1.79056215 0.00055777 0.00000000
3.69400395 1.31004872 0.00104841 0.00000000
4.27126387 0.11913984 0.00215919 0.00000000
0.27996722 1.75762188 -0.00837256 0.00000000
2.32868782 0.68118635 -0.00311687 0.00000000
0.67806043 1.57801242 -0.00108454 0.00000000
3.93617275 1.11696327 0.00341571 0.00000000
2.86022483 1.37622302 0.00221592 0.00000000
3.39181721 1.38290020 -0.00239355 0.00000000
4.51573573 1.03650407 -0.00205360 0.00000000
4.74307834 1.74159060 0.00145095 0.00000000
1.85401696 1.15553268 -0.00095113 0.00000000
3.06644662 1.64912451 0.00008875 0.00000000
3.25373457 1.63892924 0.00179911 0.00000000
2.46271792 1.02641150 0.00438165 0.00000000
3.48431888 1.65202605 -0.00184758 0.00000000
1.39527712 1.30705800 -0.00074568 0.00000000
4.06874709 0.62415657 0.00710605 0.00000000
2.61149473 1.71714309 0.00017391 0.00000000
3.79273797 1.04068109 0.00153826 0.00000000
0.44845243 1.62504262 0.00076721 0.00000000
0.91528230 0.84482961 -0.00173877 0.00000000
3.24720636 0.64470884 0.00459039 0.00000000
2.40921160 1.20478784 0.00152137 0.00000000
0.73573735 1.22779414 0.00312225 0.00000000
1.46187768 0.55097912 0.00428377 0.00000000
3.54281347 0.96076927 -0.00217474 0.00000000
1.12397002 1.57562846 -0.00124274 0.00000000
3.35318192 1.17729436 -0.00233246 0.00000000
1.70951544 0.41356715 -0.00025355 0.00000000
2.18054479 0.75213477 0.00133022 0.00000000
0.18589532 0.81808581 0.00165309 0.00000000
0.41267877 1.05594657 -0.00159560 0.00000000
4.78638821 1.38727767 0.00103884 0.00000000
2.04641354 1.61809849 -0.00030304 0.00000000
0.84584245 0.55764170 0.00011424 0.00000000
4.07183602 1.28530851 0.00030890 0.00000000
3.27208374 1.76423184 -0.00391524 0.00000000
4.69905169 0.98113032 -0.00283840 0.00000000
0.04689306 0.60150239 0.00269255 0.00000000
2.57756504 0.05725544 -0.00191958 0.00000000
0.98823408 0.85906215 0.00130812 0.00000000
2.59394687 0.66837411 0.00060029 0.00000000
1.50054653 0.24677510 0.00075119 0.00000000
4.62093668 0.63778836 0.00068788 0.00000000
1.73082111 0.03723203 0.00082661 0.00000000
0.34792971 1.71259060 0.00354826 0.00000000
1.58574221 1.44357940 0.00278705 0.00000000
3.89336755 1.15877466 0.00327815 0.00000000
0.89457806 1.42182548 -0.00170534 0.00000000
3.01211287 1.76412832 0.00020463 0.00000000
2.83889955 1.36529652 0.00229311 0.00000000
3.66157142 0.27377962 0.00440708 0.00000000
4.55033891 0.28384995 -0.00029782 0.00000000
0.35430831 1.46539286 -0.00009611 0.00000000
3.81773469 0.38975570 -0.00307461 0.00000000
2.26934906 0.31606015 -0.00039818 0.00000000
0.89626945 1.72223619 -0.00276804 0.00000000
1.95005099 1.58496203 0.00070684 0.00000000
1.82192486 0.37348459 -0.00435497 0.00000000
4.65866596 0.83922719 0.00168533 0.00000000
2.44994734 1.04473896 0.00274472 0.00000000
2.69034753 1.35653422 -0.00166040 0.00000000
0.13918103 0.78443505 -0.00244208 0.00000000
3.99947156 0.37700009 0.00043397 0.00000000
2.36761346 1.47344200 0.00182656 0.00000000
0.17433105 1.34471654 -0.00374699 0.00000000
1.69886849 0.60962261 0.00190673 0.00000000
1.05230218 0.55670355 0.00000613 0.00000000
2.09596504 0.42944869 0.00209850 0.00000000
2.94757581 1.54671440 0.00191659 0.00000000
4.29807589 0.30665401 0.00228778 0.00000000
1.37341292 0.75235585 0.00072366 0.00000000
3.20523245 1.28987770 0.00023231 0.00000000
2.54921299 0.54743400 -0.00338918 0.00000000
2.88928596 0.23532199 0.00231640 0.00000000
0.25989929 1.07624895 -0.00128618 0.00000000
2.87374604 0.73388162 0.00100264 0.00000000
1.93828334 1.66630280 0.00114908 0.00000000
1.29825925 0.86799072 -0.00160730 0.00000000
4.26331599 0.46125574 0.00094059 0.00000000
3.76092619 0.76515031 -0.00016971 0.00000000
0.00063396 0.88585740 -0.00197900 0.00000000
3.01676854 1.59740826 0.00438035 0.00000000
4.39562601 1.05756819 -0.00052597 0.00000000
2.04885900 0.14712749 0.00417586 0.00000000
2.69609334 0.96465638 -0.00404563 0.00000000
0.04340103 1.70933965 0.00249062 0.00000000
0.67920237 0.29524738 -0.00091964 0.00000000
3.63322221 0.00774077 0.00059663 0.00000000
1.43428218 1.38706022 -0.00274141 0.00000000
2.59182759 1.14478788 0.00194401 0.00000000
3.77567795 0.15486473 0.00085277 0.00000000
1.55592705 1.34295467 0.00045520 0.00000000
2.50993150 1.65770387 0.00042397 0.00000000
1.72565075 1.41730945 -0.00441746 0.00000000
4.31177621 0.77720803 -0.00016444 0.00000000
0.40229970 1.60203477 0.00163029 0.00000000
0.94335182 0.92290169 0.00542341 0.00000000
4.37809030 0.96962152 0.00227886 0.00000000
2.08842221 1.74305832 -0.00148871 0.00000000
0.13085951 0.22697594 -0.00236031 0.00000000
2.68288819 1.70643440 -0.00517129 0.00000000
3.95409301 1.65458876 -0.00393371 0.00000000
2.43623055 0.56090873 0.00161414 0.00000000
3.27811382 1.85818905 -0.00114722 0.00000000
2.55132451 1.29510060 0.00049880 0.00000000
3.71126358 0.39554422 0.00100098 0.00000000
4.68988721 0.22938405 -0.00224162 0.00000000
0.47006202 1.18242041 -0.00207860 0.00000000
0.57774305 0.73550299 -0.00228585 0.00000000
0.86625672 0.60062465 -0.00047088 0.00000000
1.48492606 1.22827154 0.00046330 0.00000000
0.14466561 0.53234078 -0.00055456 0.00000000
2.28128905 1.26518864 0.00185172 0.00000000
4.34023732 0.46986615 0.00147710 0.00000000
4.57788359 0.38568053 0.00166305 0.00000000
4.16322054 0.13974783 -0.00121820 0.00000000
4.53374850 0.79071002 0.00039962 0.00000000
4.58873410 1.06739352 0.00372021 0.00000000
3.50353591 0.51307610 0.00001974 0.00000000
0.63179126 0.23651710 -0.00321700 0.00000000
4.58633797 1.52328736 -0.00042419 0.00000000
0.04115601 1.26025063 -0.00427472 0.00000000
2.86749195 0.66991131 -0.00081181 0.00000000
2.61939887 1.18120802 -0.00142201 0.00000000
1.60891098 1.30135562 0.00010108 0.00000000
3.61963881 0.96666880 -0.00212706 0.00000000
2.28638598 1.38285254 -0.00295871 0.00000000
1.02287352 1.83910352 0.00307805 0.00000000
1.77197677 0.71576053 -0.00177520 0.00000000
4.51138935 0.67361843 0.00371987 0.00000000
2.28418241 1.77038953 0.00027055 0.00000000
1.50363860 0.25894929 -0.00014097 0.00000000
1.63795874 0.21171605 -0.00049940 0.00000000
2.79010711 1.62401506 -0.00776829 0.00000000
1.66310661 0.88515823 -0.00153082 0.00000000
4.51909422 0.58585764 0.00012082 0.00000000
3.44378563 0.30660156 -0.00103873 0.00000000
2.39005496 0.10444939 -0.00221136 0.00000000
3.70884319 1.77336327 -0.00172955 0.00000000
1.08545910 0.13233034 -0.00101378 0.00000000
3.01110157 1.53280723 -0.00243337 0.00000000
1.47538671 0.26018822 0.00250207 0.00000000
1.48498589 1.27883001 -0.00220786 0.00000000
2.33877916 1.28618720 0.00020500 0.00000000
3.59789981 0.95222973 -0.00083262 0.00000000
1.76827355 0.13371222 -0.00200253 0.00000000
0.10482616 1.39599671 0.00399583 0.00000000
0.77085634 0.38182314 -0.00460317 0.00000000
1.91374461 0.14986414 0.00097798 0.00000000
1.75359289 0.41581243 0.00395860 0.00000000
3.84855343 0.37613226 0.00297026 0.00000000
0.25301970 0.69766523 0.00365433 0.00000000
0.82988430 1.03779703 -0.00202588 0.00000000
0.25805291 0.73985961 -0.00310664 0.00000000
3.80897700 0.74670494 -0.00286098 0.00000000
4.52871995 0.22433938 0.00360397 0.00000000
2.30610055 1.40291632 -0.00118107 0.00000000
3.89144303 0.73782238 0.00237450 0.00000000
2.39247231 0.43477515 0.00625758 0.00000000
4.48282488 0.81463596 0.00222901 0.00000000
1.18661563 0.23274310 -0.00376759 0.00000000
0.17099743 1.22519540 0.00101024 0.00000000
2.76153643 1.79962784 -0.00104724 0.00000000
1.18049938 0.85918826 -0.00084651 0.00000000
0.85774461 0.94909904 -0.00262577 0.00000000
0.44037564 0.21163303 0.00092839 0.00000000
1.70464231 0.44209585 -0.00021648 0.00000000
0.63193826 0.08986442 0.00107528 0.00000000
0.97830352 0.76792268 -0.00417274 0.00000000
1.42511040 1.32323452 -0.00205530 0.00000000
2.68945776 0.75742127 -0.00169377 0.00000000
0.28932523 0.05392793 0.00103080 0.00000000
4.39372949 0.31103783 0.00312372 0.00000000
4.46694968 1.35220076 0.00180908 0.00000000
3.93112841 0.35275347 0.00222481 0.00000000
4.45317381 1.68607061 -0.00220886 0.00000000
3.65042222 1.44794459 0.00198103 0.00000000
3.69033228 1.29563978 -0.00614878 0.00000000
3.13782591 0.59957531 0.00001345 0.00000000
2.94021412 1.27431153 0.00058897 0.00000000
0.18321555 0.82190387 -0.00297920 0.00000000
1.71026030 0.44150260 -0.00038815 0.00000000
3.21253362 0.74307618 0.00167096 0.00000000
3.21914938 0.04514112 -0.00268320 0.00000000
3.68076061 1.81795996 -0.00248187 0.00000000
4.66690656 1.02947497 0.00068820 0.00000000
1.25326623 1.03727436 0.00035013 0.00000000
0.90756770 0.38295306 0.00120928 0.00000000
2.13384362 1.36966343 -0.00189196 0.00000000
0.58893328 1.09334066 0.00258166 0.00000000
2.07966425 1.77799744 -0.00081152 0.00000000
3.48926166 0.58103790 0.00024493 0.00000000
4.37261511 0.91457187 -0.00552425 0.00000000
3.47862528 1.02657948 0.00028167 0.00000000
4.58216592 0.13325275 -0.00257827 0.00000000
2.19980374 0.85266508 -0.00376607 0.00000000
4.16537352 0.01509700 -0.00116723 0.00000000
3.81328966 1.76508230 -0.00022951 0.00000000
0.92681616 0.52095651 -0.00330293 0.00000000
1.30668298 1.84510021 -0.00208274 0.00000000
2.66667499 0.90691065 0.00062714 0.00000000
0.06258623 0.73949938 0.00285673 0.00000000
0.60792770 0.89798803 0.00034908 0.00000000
2.88268109 0.48570868 -0.00093370 0.00000000
1.02241082 0.71910111 -0.00003944 0.00000000
3.27770058 1.33516028 -0.00264741 0.00000000
0.33798238 0.19329316 0.00325303 0.00000000
2.94248704 0.63694337 0.00093615 0.00000000
2.74050096 0.52668630 0.00218939 0.00000000
3.37504579 0.28665788 0.00267439 0.00000000
2.09099456 1.45285447 -0.00102366 0.00000000
3.53713084 1.10187200 -0.00433246 0.00000000
1.07055621 1.80175095 -0.00167337 0.00000000
1.39691887 1.56436118 0.00310634 0.00000000
4.28605370 0.24070087 0.00018858 0.00000000
2.05793862 0.25354293 0.00651444 0.00000000
0.82876888 0.37950494 -0.00031068 0.00000000
1.97762258 0.64831490 0.00213592 0.00000000
3.99769470 0.17817728 -0.00020334 0.00000000
4.65326003 0.25944085 -0.00470461 0.00000000
2.99675044 0.07396837 -0.00245710 0.00000000
0.99959959 1.47520556 -0.00428768 0.00000000
3.07822240 0.35076957 0.00085209 0.00000000
3.19292496 1.77376978 -0.00115504 0.00000000
1.52101574 1.40678011 -0.00104920 0.00000000
4.16196067 0.90669036 -0.00518851 0.00000000
1.50104049 1.11086451 0.00165586 0.00000000
3.23783774 0.95916757 -0.00079524 0.00000000
2.46655257 0.19053901 -0.00197608 0.00000000
2.81790163 1.71229567 0.00077894 0.00000000
2.00991510 1.13568972 -0.00035249 0.00000000
4.47683715 0.53853403 -0.00304272 0.00000000
4.11691793 0.39517647 -0.00015436 0.00000000
3.04965843 1.00959274 0.00003219 0.00000000
1.81361348 0.38978021 -0.00157573 0.00000000
1.66570245 1.20260647 0.00384371 0.00000000
3.27729268 1.77399970 0.00348051 0.00000000
0.49188386 1.00587549 -0.00062206 0.00000000
2.91738873 1.13886714 0.00031858 0.00000000
2.79798363 1.78851916 0.00496045 0.00000000
0.09719208 0.72227720 -0.00425651 0.00000000
2.46277485 0.20351114 -0.00378406 0.00000000
3.15861247 0.68122416 0.00141735 0.00000000
0.45500214 0.49034427 -0.00063922 0.00000000
1.34291813 1.64455634 0.00162701 0.00000000
2.38843959 1.77011658 -0.00083760 0.00000000
3.77349217 1.85858041 -0.00428336 0.00000000
3.18159027 1.37578786 -0.00105060 0.00000000
3.75682031 0.28923906 -0.00336090 0.00000000
1.67049393 0.84172100 0.00257540 0.00000000
4.57131937 1.44170861 0.00394323 0.00000000
2.12373047 1.48153600 -0.00403591 0.00000000
2.98731644 1.05085641 0.00263006 0.00000000
2.28942794 1.27357853 0.00360817 0.00000000
2.56095365 1.17648249 0.00243916 0.00000000
0.31691656 1.30034484 0.00002705 0.00000000
0.82751651 0.41760843 0.00355985 0.00000000
1.59616317 0.62838284 0.00354142 0.00000000
3.58079520 1.04202520 0.00075681 0.00000000
0.39514572 1.10623485 0.00181988 0.00000000
1.33847112 0.73376596 -0.00234609 0.00000000
1.59560990 1.71419758 -0.00073106 0.00000000
0.38258088 0.90983532 0.00139502 0.00000000
1.78420492 0.76412564 -0.00085763 0.00000000
2.54071412 1.04916464 -0.00207513 0.00000000
3.95230601 0.80350129 0.00126612 0.00000000
4.67093473 0.83568595 -0.00368529 0.00000000
4.10513297 0.43731876 -0.00046021 0.00000000
2.42772506 0.63844433 0.00422231 0.00000000
1.14650530 0.53984714 0.00032803 0.00000000
4.00111430 1.45981000 -0.00060423 0.00000000
2.39266467 1.22062062 -0.00061926 0.00000000
1.72278223 0.42139155 -0.00614755 0.00000000
0.27878033 0.70192274 0.00024242 0.00000000
1.92323729 1.76392691 -0.00306642 0.00000000
0.35097825 0.52018382 -0.00109020 0.00000000
2.36997745 1.84266080 0.00213232 0.00000000
2.53940184 1.05745945 -0.00382373 0.00000000
2.71341291 0.21175481 -0.00065779 0.00000000
0.61662144 0.08072627 -0.00579361 0.00000000
3.60645310 1.49310865 -0.00240399 0.00000000
3.53900201 1.70818190 -0.00169242 0.00000000
0.07518560 0.29358645 0.00141633 0.00000000
3.38777934 0.94083850 -0.00342358 0.00000000
2.18996543 1.64918344 -0.00223413 0.00000000
4.57257526 1.49223573 0.00283090 0.00000000
3.42495891 0.78690813 -0.00268587 0.00000000
4.63166461 1.17280285 -0.00147931 0.00000000
0.87830792 0.55425559 0.00313001 0.00000000
2.92602547 0.98996514 -0.00134123 0.00000000
3.31727501 0.57047906 -0.00257004 0.00000000
1.78222667 1.30947105 -0.00127941 0.00000000
1.34046809 0.28801490 0.00237326 0.00000000
3.58302350 0.56177012 -0.00235139 0.00000000
2.91163462 1.83094523 -0.00292315 0.00000000
0.81021830 1.55172200 -0.00222965 0.00000000
3.18912574 0.08470960 -0.00485525 0.00000000
3.35948996 1.14279658 0.00524744 0.00000000
3.44206222 0.74498027 -0.00185573 0.00000000
2.36980375 0.86489099 -0.00187879 0.00000000
4.53313571 0.20526506 0.00335191 0.00000000
0.79814197 0.65616375 0.00061815 0.00000000
0.59330561 0.14811656 0.00069267 0.00000000
1.15437812 1.42070871 -0.00194666 0.00000000
2.00425744 1.04477091 -0.00120986 0.00000000
3.18249514 0.13553456 -0.00380662 0.00000000
0.15070228 1.36347644 -0.00185198 0.00000000
4.50873043 1.31836857 -0.00189615 0.00000000
3.01101464 0.97443334 -0.00288606 0.00000000
1.76125203 1.83311720 0.00168345 0.00000000
0.22528454 0.96420530 -0.00063010 0.00000000
3.45568244 1.84950962 0.00466173 0.00000000
4.42037799 1.07324148 -0.00028246 0.00000000
2.17411084 0.39892202 0.00180574 0.00000000
1.04512031 0.67679486 0.00251160 0.00000000
4.20752160 1.73270406 -0.00356167 0.00000000
3.52859430 0.35892327 0.00052876 0.00000000
3.46381668 0.93330320 -0.00179345 0.00000000
1.50752720 1.36694124 -0.00041626 0.00000000
3.10698491 0.55734422 0.00451652 0.00000000
4.52946330 1.81192939 -0.00254211 0.00000000
2.53214543 0.17399652 -0.00286416 0.00000000
4.34638784 0.70624268 -0.00336044 0.00000000
2.20789891 1.33868775 0.00240339 0.00000000
3.72422403 0.07395950 0.00028382 0.00000000
2.88740211 0.07074169 0.00114468 0.00000000
2.58750869 1.25287237 0.00026832 0.00000000
0.42601268 0.26212669 0.00219025 0.00000000
2.02140370 0.87243965 0.00509988 0.00000000
4.09205209 0.33070415 -0.00029511 0.00000000
1.17599690 0.94081685 -0.00236422 0.00000000
3.28935365 1.29136914 0.00159496 0.00000000
0.83688630 0.55872198 0.00023194 0.00000000
1.12246911 1.34084562 0.00052527 0.00000000
3.64272832 0.17261303 -0.00298232 0.00000000
3.26871539 0.11930002 0.00043060 0.00000000
3.61660756 1.79444803 -0.00087380 0.00000000
2.86826894 1.23666958 0.00167855 0.00000000
1.55925779 0.98304644 0.00122856 0.00000000
2.77374098 0.12561102 0.00108357 0.00000000
1.72618048 1.34586784 -0.00137945 0.00000000
4.26120812 1.71023155 -0.00083119 0.00000000
1.39368187 1.11846703 0.00159082 0.00000000
1.10331518 0.31124020 0.00096087 0.00000000
0.47659714 1.22969883 -0.00243436 0.00000000
0.68036137 0.27383093 0.00028961 0.00000000
3.70140557 1.46057713 0.00134476 0.00000000
1.48720390 0.68431892 0.00061335 0.00000000
1.63140447 0.23374827 0.00036240 0.00000000
1.57039185 0.52642660 -0.00262892 0.00000000
2.86883944 0.53430281 0.00369801 0.00000000
1.55370138 0.67463986 -0.00144545 0.00000000
1.16320789 1.25686291 -0.00337388 0.00000000
1.51061377 1.44200526 -0.00174765 0.00000000
2.16855224 0.86472661 0.00193351 0.00000000
4.48725741 0.55174654 0.00072090 0.00000000
2.40101915 0.31491335 0.00060964 0.00000000
3.93505893 0.39713681 0.00049801 0.00000000
1.47907093 1.32099700 0.00205873 0.00000000
2.94008189 1.12187689 -0.00224115 0.00000000
2.81561299 0.40945954 0.00281485 0.00000000
1.36307369 1.75927230 0.00381866 0.00000000
4.11121621 1.66610746 0.00141207 0.00000000
4.05291062 1.77601306 0.00019370 0.00000000
4.69742763 0.98661599 -0.00056564 0.00000000
3.12690690 0.87428974 -0.00080862 0.00000000
4.23084383 1.79560898 -0.00383101 0.00000000
2.62832384 0.91121536 -0.00211863 0.00000000
0.67089586 0.82184266 -0.00287129 0.00000000
4.18058217 0.83164227 -0.00045277 0.00000000
3.73297378 0.59742232 -0.00307725 0.00000000
3.95962266 1.18339007 -0.00147929 0.00000000
2.04560938 0.57619885 0.00077944 0.00000000
0.01608943 1.39951131 -0.00051946 0.00000000
0.05616991 0.87088533 -0.00340618 0.00000000
4.06790435 1.46367376 -0.00060485 0.00000000
2.65705481 0.62258122 -0.00036048 0.00000000
1.57895048 1.85639974 0.00019680 0.00000000
4.43052467 0.89055851 -0.00205602 0.00000000
1.37422691 0.39494304 0.00378373 0.00000000
1.04045751 0.55336265 -0.00332223 0.00000000
3.97928470 1.49496839 -0.00212166 0.00000000
0.56579229 1.26595852 -0.00129923 0.00000000
0.66427815 1.01738506 -0.00151694 0.00000000
1.38168424 1.22857502 0.00366433 0.00000000
2.85660362 1.83890017 0.00542595 0.00000000
4.13430790 1.39273821 0.00163496 0.00000000
3.53564431 0.95485657 0.00132624 0.00000000
3.47389833 0.32979501 -0.00304068 0.00000000
3.76932791 0.24938265 0.00034493 0.00000000
2.64841017 0.22056846 0.00163086 0.00000000
2.34245425 0.83500098 -0.00032897 0.00000000
3.56769877 1.01943961 -0.00035561 0.00000000
3.86999780 0.75397396 -0.00140440 0.00000000
1.81720096 1.69182317 0.00119711 0.00000000
2.27834667 0.73589159 0.00387374 0.00000000
2.87631727 0.24014512 -0.00009956 0.00000000
4.43075069 1.81073268 -0.00082113 0.00000000
1.53801579 0.39429713 -0.00174270 0.00000000
1.56961385 1.61432222 -0.00039991 0.00000000
0.90010271 0.25127957 -0.00085935 0.00000000
1.30277716 1.13249085 0.00350752 0.00000000
4.36416816 0.42320194 -0.00054831 0.00000000
3.41465733 1.48865658 -0.00038312 0.00000000
3.07382147 0.00262493 0.00127080 0.00000000
4.52644770 1.34610413 -0.00064404 0.00000000
1.64136490 0.30875613 -0.00305230 0.00000000
0.76284611 0.01951757 -0.00300126 0.00000000
0.38359083 1.43310178 -0.00067857 0.00000000
2.83834407 1.28430778 0.00310917 0.00000000
2.92164797 1.74208119 0.00166114 0.00000000
3.65805821 1.06624077 -0.00310032 0.00000000
1.72780730 0.05531171 -0.00085110 0.00000000
2.72740948 0.62246164 -0.00062794 0.00000000
0.37765746 1.20739851 -0.00326654 0.00000000
0.70181531 0.32399546 -0.00576452 0.00000000
2.82686536 1.45338585 0.00213821 0.00000000
1.65883466 1.57449627 -0.00211272 0.00000000
2.23920332 1.63472571 0.00155393 0.00000000
3.68350021 1.08384879 -0.00022309 0.00000000
1.12864502 1.51214817 -0.00815625 0.00000000
3.32237405 0.40333803 0.00376924 0.00000000
3.08043389 0.43450487 -0.00191810 0.00000000
2.74311456 0.76615146 0.00139634 0.00000000
0.70225130 1.14281858 0.00294047 0.00000000
2.78296945 1.40655174 0.00418421 0.00000000
2.59884055 1.82149950 -0.00190920 0.00000000
0.91216426 1.23164954 0.00125277 0.00000000
4.70579937 0.57154426 -0.00264704 0.00000000
1.11840393 0.11166091 0.00397554 0.00000000
0.69952656 1.28310192 -0.00061405 0.00000000
2.91241191 0.14265527 -0.00180954 0.00000000
1.76231695 0.34119344 0.00188229 0.00000000
1.22966466 0.11120318 0.00189095 0.00000000
4.17906828 0.91829474 -0.00304028 0.00000000
3.36454940 0.44362735 -0.00040242 0.00000000
0.19078927 0.82472633 -0.00319405 0.00000000
2.35904787 0.88846742 -0.00275001 0.00000000
1.58952050 1.47391082 0.00119757 0.00000000
3.23866618 0.76091924 -0.00045529 0.00000000
0.23335045 1.28919455 -0.00182638 0.00000000
0.60732429 0.81173356 0.00374673 0.00000000
3.21328367 1.72228107 -0.00292892 0.00000000
2.29315671 0.34650772 -0.00001857 0.00000000
1.25595627 1.41383349 -0.00030369 0.00000000
4.05082398 1.28266895 -0.00115505 0.00000000
0.37859203 0.86100322 -0.00115442 0.00000000
2.08572352 1.85911880 -0.00528897 0.00000000
1.49507790 0.49475088 -0.00246895 0.00000000
3.19174044 0.09940112 0.00022828 0.00000000
4.58627755 0.91496458 -0.00645986 0.00000000
1.16486669 1.01500231 0.00002865 0.00000000
2.57645565 1.75179015 0.00567909 0.00000000
0.89193811 1.72166362 0.00043965 0.00000000
1.45512641 0.28744373 -0.00013282 0.00000000
0.62541803 1.21358849 0.00013238 0.00000000
0.03087534 1.59133123 -0.00144944 0.00000000
4.03064977 1.75421260 0.00458328 0.00000000
2.97026195 1.07885252 0.00033793 0.00000000
3.26226215 1.39125069 0.00149765 0.00000000
1.42217268 0.05856469 0.00441692 0.00000000
0.33997397 0.01329755 0.00238386 0.00000000
2.33945488 0.37972277 -0.00076643 0.00000000
2.16092304 1.06798833 0.00487852 0.00000000
0.80660325 0.73936622 -0.00294196 0.00000000
1.45297742 0.47287367 -0.00282120 0.00000000
0.47793948 1.27116890 -0.00267317 0.00000000
2.39908476 0.71311935 0.00279226 0.00000000
3.24927197 1.63527655 0.00198422 0.00000000
2.54307428 1.38513845 -0.00310360 0.00000000
2.89901227 0.27268197 0.00095985 0.00000000
1.68649290 0.81235664 -0.00300851 0.00000000
2.66316341 1.41334409 0.00180228 0.00000000
2.42645039 1.47181565 0.00034597 0.00000000
2.96973340 1.24025562 -0.00106300 0.00000000
0.83431647 0.19829225 0.00032460 0.00000000
0.33378139 1.67049832 -0.00208158 0.00000000
3.94137016 0.92880533 0.00222920 0.00000000
1.81472528 0.33681042 -0.00065439 0.00000000
2.84561667 0.35714035 0.00292237 0.00000000
4.19684237 1.03376793 -0.00156830 0.00000000
2.32695576 0.21566431 0.00022877 0.00000000
0.05105752 1.30075372 -0.00489480 0.00000000
2.52151045 0.93485309 0.00059846 0.00000000
0.03006743 0.00101285 -0.00182115 0.00000000
2.51847458 0.27272787 0.00695904 0.00000000
2.27175922 0.07563703 0.00166354 0.00000000
1.62647193 1.61043760 -0.00442361 0.00000000
1.82435708 0.49531318 0.00033055 0.00000000
2.45557729 0.70536960 0.00490118 0.00000000
4.11555147 1.66075838 -0.00133971 0.00000000
4.53208519 0.87946464 -0.00379598 0.00000000
2.52662490 1.80716096 0.00038672 0.00000000
4.33971445 0.93148522 0.00369078 0.00000000
2.79017642 0.35278288 -0.00014785 0.00000000
2.34199161 0.08957919 -0.00196353 0.00000000
4.42944757 1.39164112 -0.00078191 0.00000000
2.77203733 1.17676047 -0.00086397 0.00000000
2.83185263 0.84258829 0.00500373 0.00000000
2.30247936 1.69942778 0.00034131 0.00000000
3.67538048 0.72612919 -0.00527149 0.00000000
2.58463041 1.60311684 -0.00199121 0.00000000
2.24644765 1.74116468 -0.00030716 0.00000000
1.70504089 0.88348364 0.00146986 0.00000000
3.80442011 0.44580754 -0.00110907 0.00000000
1.09191185 0.90507896 0.00202213 0.00000000
3.69943713 0.63520971 0.00188819 0.00000000
3.02877775 0.19854711 -0.00255872 0.00000000
3.27888833 0.84468931 0.00098581 0.00000000
3.77918447 1.10721829 -0.00061675 0.00000000
2.60300401 0.02236273 -0.00189415 0.00000000
3.43352820 0.26680799 -0.00276291 0.00000000
0.79438456 1.09398153 -0.00244941 0.00000000
0.83673257 0.37879641 0.00243654 0.00000000
2.81274595 1.26685255 -0.00049121 0.00000000
2.37839339 1.09391033 0.00139186 0.00000000
3.46292353 1.72875665 0.00402478 0.00000000
1.96415816 1.73171412 0.00113358 0.00000000
2.52222617 0.83841103 0.00145344 0.00000000
4.29103144 1.12163872 -0.00371744 0.00000000
3.78981885 0.86437332 0.00255279 0.00000000
1.79696407 1.65027431 0.00178168 0.00000000
4.63634700 1.04373058 0.00157210 0.00000000
0.18298968 1.81101846 0.00156711 0.00000000
2.68914524 1.78562610 -0.00114119 0.00000000
3.99607594 0.74438676 -0.00333445 0.00000000
2.62809312 1.34189468 -0.00031858 0.00000000
