1.42012250 0.84105683 0.00390065 0.00000000
4.41731249 0.61086124 -0.00045830 0.00000000
0.28485357 0.93977356 -0.00036372 0.00000000
3.45977563 1.81921775 0.00217838 0.00000000
3.50878485 1.70948254 -0.00044728 0.00000000
1.81772862 1.13102777 -0.00447303 0.00000000
4.29944796 1.11995221 0.00158274 0.00000000
4.05225704 1.45145076 -0.00083355 0.00000000
3.60699401 2.11822916 -0.00035292 0.00000000
1.53222244 0.11281377 -0.00165672 0.00000000
2.70367806 0.04915208 0.00401091 0.00000000
1.19507893 2.01756340 -0.00262058 0.00000000
1.97045717 1.97205191 -0.00102025 0.00000000
2.64046975 0.57286067 0.00043704 0.00000000
3.50530363 1.92356658 0.00025909 0.00000000
2.12774729 0.50225843 -0.00201524 0.00000000
2.70048647 1.61192392 0.00403188 0.00000000
1.09160322 0.29276241 0.00013118 0.00000000
4.00502306 0.75139371 0.00018797 0.00000000
2.93228325 1.90348830 -0.00037065 0.00000000
0.81705082 0.56163196 -0.00146201 0.00000000
0.73509299 0.57524220 0.00352838 0.00000000
0.01691565 1.79525345 0.00077805 0.00000000
3.56544007 0.78419513 -0.00183707 0.00000000
0.04951311 1.76839943 -0.00227458 0.00000000
2.88279881 1.28197788 0.00248746 0.00000000
0.65752414 1.32597999 -0.00354735 0.00000000
3.74126352 0.58678331 -0.00204051 0.00000000
1.94413453 1.75439455 -0.00072487 0.00000000
4.31559862 0.21341766 -0.00129180 0.00000000
1.81235979 0.52544540 -0.00011041 0.00000000
1.30648651 1.46340109 -0.00249778 0.00000000
3.76502908 1.02646638 -0.00172024 0.00000000
1.36718650 0.37877878 0.00379377 0.00000000
1.54076460 0.86924080 -0.00019713 0.00000000
3.27070159 0.06425075 0.00159666 0.00000000
1.84579291 2.12499495 0.00113713 0.00000000
4.13794245 1.46531525 0.00145223 0.00000000
2.12119024 1.12620779 0.00322550 0.00000000
0.29488097 0.75873236 -0.00046681 0.00000000
2.24988266 0.84361043 -0.00118504 0.00000000
2.07508655 0.91581277 -0.00041023 0.00000000
2.82656792 1.96194099 -0.00046682 0.00000000
3.93787756 0.45313705 -0.00625675 0.00000000
0.77049874 0.87755685 -0.00230268 0.00000000
1.08382214 1.14023581 0.00426544 0.00000000
2.70373540 0.47403385 -0.00073131 0.00000000
2.59501655 1.06676889 -0.00307706 0.00000000
2.25130142 1.04208290 -0.00075336 0.00000000
3.47649181 2.08986008 -0.00243512 0.00000000
2.67883334 1.24896063 -0.00139134 0.00000000
3.41060310 2.06413435 -0.00140864 0.00000000
0.85604275 1.71524366 0.00132234 0.00000000
3.99855162 0.66140006 0.00058423 0.00000000
0.73263416 0.04902536 -0.00173394 0.00000000
0.22529731 0.93101895 -0.00095316 0.00000000
3.54459323 1.32566137 0.00055660 0.00000000
2.79397566 2.12420168 0.00092235 0.00000000
3.86028891 0.07720061 -0.00386012 0.00000000
3.03157743 1.95715772 0.00012839 0.00000000
3.38697138 0.37647235 -0.00051340 0.00000000
3.70964725 2.05251135 0.00133381 0.00000000
2.77287132 0.95579977 0.00545760 0.00000000
0.39026823 1.17802945 0.00216088 0.00000000
1.68857078 0.15358114 0.00372948 0.00000000
1.50298059 0.30601466 0.00263508 0.00000000
3.07217840 0.36984273 -0.00206059 0.00000000
0.96716452 1.75047262 -0.00047573 0.00000000
3.82121542 2.11673042 0.00097595 0.00000000
1.45021715 0.00462371 -0.00000498 0.00000000
3.47713202 2.33621506 0.00099660 0.00000000
3.22124777 0.28866451 0.00198508 0.00000000
3.94091638 1.72369333 -0.00090643 0.00000000
3.44204242 1.32798811 0.00376383 0.00000000
2.55870337 0.44061797 0.00104051 0.00000000
1.43213956 2.00055076 0.00102628 0.00000000
0.95497860 1.05077891 0.00052055 0.00000000
2.00941014 1.54004296 -0.00054417 0.00000000
0.12552602 1.11399103 0.00048076 0.00000000
2.27933492 0.90718421 0.00154182 0.00000000
3.26403037 0.22316163 0.00207370 0.00000000
2.10523336 0.13099435 -0.00095740 0.00000000
2.29936843 2.32729671 0.00262454 0.00000000
3.14668184 1.86918145 0.00059752 0.00000000
4.53142080 1.87012813 0.00036534 0.00000000
0.39855719 1.75545618 -0.00439059 0.00000000
3.65884603 1.89978479 0.00260617 0.00000000
0.67584594 0.67546072 0.00166861 0.00000000
3.24395256 1.72276523 0.00012306 0.00000000
2.44686758 0.79324765 -0.00571951 0.00000000
1.19106508 0.84066392 0.00213888 0.00000000
4.21569606 1.08161664 0.00068426 0.00000000
3.60179273 2.16822247 -0.00136775 0.00000000
0.07546938 0.32731246 -0.00085625 0.00000000
1.87795588 0.13647426 -0.00155514 0.00000000
2.32843241 1.33414225 0.00067427 0.00000000
2.54439053 2.30810380 0.00292737 0.00000000
2.47191365 1.05957148 0.00001364 0.00000000
0.96045994 0.67617391 -0.00438948 0.00000000
1.89942092 1.39110534 0.00061580 0.00000000
0.94237869 1.06817045 0.00576986 0.00000000
4.08121246 0.04637605 0.00100297 0.00000000
4.31560305 0.13293949 0.00138202 0.00000000
3.88244460 0.90123851 0.00058241 0.00000000
1.92974921 0.52915949 0.00060482 0.00000000
0.15746458 0.28770248 0.00128353 0.00000000
2.85666383 1.03020666 -0.00182539 0.00000000
1.16946799 1.37057728 -0.00025185 0.00000000
2.51438914 1.66351313 -0.00015853 0.00000000
2.00604825 2.21125806 0.00245313 0.00000000
2.36135238 1.38209261 0.00101834 0.00000000
0.29591265 1.69451782 0.00194390 0.00000000
4.43199774 0.22787265 -0.00229731 0.00000000
1.52528521 0.89065918 -0.00046484 0.00000000
4.29562851 2.02925328 -0.00351924 0.00000000
0.67273109 2.15897273 0.00274450 0.00000000
0.50404307 2.16416894 0.00195716 0.00000000
1.02405312 1.70558710 0.00019060 0.00000000
2.60682463 1.49097045 -0.00153877 0.00000000
1.58541438 0.77879275 0.00523065 0.00000000
4.12590828 0.58535693 0.00148112 0.00000000
0.13824707 1.34499740 0.00262985 0.00000000
2.41341435 1.19129353 -0.00399124 0.00000000
2.07543147 1.27040869 -0.00322511 0.00000000
1.37749851 1.94120097 0.00126615 0.00000000
1.79626745 1.34189028 -0.00298684 0.00000000
2.22950245 1.78642781 -0.00267722 0.00000000
0.22625777 1.99115232 -0.00074239 0.00000000
1.61024846 1.44796731 -0.00195296 0.00000000
1.41522220 0.21164444 0.00553824 0.00000000
3.24723259 2.14508069 0.00143952 0.00000000
3.35419538 1.86079632 0.00011040 0.00000000
3.09637064 1.31469399 0.00270361 0.00000000
0.42095249 0.56440249 -0.00045722 0.00000000
2.60829396 1.95331069 -0.00138243 0.00000000
1.19325407 0.84155537 0.00206950 0.00000000
1.49535449 1.58702198 0.00566114 0.00000000
2.19779135 0.55884573 -0.00109531 0.00000000
2.28188236 0.28558298 0.00032803 0.00000000
3.25548372 0.65612777 0.00324284 0.00000000
3.83764145 1.82346067 -0.00011644 0.00000000
1.91825787 1.37227298 0.00171964 0.00000000
1.43853065 2.33940131 -0.00000355 0.00000000
3.23031343 0.46239145 -0.00026573 0.00000000
1.34236825 1.98773909 -0.00062718 0.00000000
0.18680987 2.02255798 0.00244782 0.00000000
2.60766832 2.13179860 0.00100025 0.00000000
0.87220166 0.01313468 0.00143550 0.00000000
1.57424399 2.08694574 -0.00001998 0.00000000
0.29634243 0.89194305 0.00025557 0.00000000
2.98568523 1.79817123 0.00201761 0.00000000
0.20546217 1.10069604 -0.00004183 0.00000000
1.11799621 0.04877681 -0.00033838 0.00000000
4.29204230 1.34007001 0.00108644 0.00000000
3.64267336 1.23590027 -0.00045073 0.00000000
1.60046463 0.97388499 0.00410840 0.00000000
1.82912943 2.16157488 0.00046506 0.00000000
1.28476040 1.91088491 -0.00108635 0.00000000
3.22327273 1.69619999 0.00156382 0.00000000
1.56291418 2.10809422 0.00262820 0.00000000
0.27210610 1.03022174 0.00058775 0.00000000
3.88683616 1.55078296 -0.00340818 0.00000000
4.25021525 0.12026135 0.00034277 0.00000000
1.68379368 1.80831670 0.00051136 0.00000000
2.42388565 0.20252387 -0.00011104 0.00000000
2.71398755 0.71283206 -0.00160453 0.00000000
3.39216970 1.07773640 -0.00085041 0.00000000
1.45326054 0.41116166 -0.00058140 0.00000000
4.31720464 1.34002721 0.00289985 0.00000000
3.11740984 1.94584156 -0.00281303 0.00000000
2.31931322 1.22428563 0.00302317 0.00000000
1.57346858 1.83169825 -0.00022727 0.00000000
2.01414322 1.86614822 -0.00341388 0.00000000
4.19061949 1.30228112 0.00080254 0.00000000
2.46451016 0.49073354 -0.00191395 0.00000000
3.63339535 0.41165731 -0.00344625 0.00000000
1.89525198 2.05340808 0.00041328 0.00000000
3.87923075 2.15700892 0.00522357 0.00000000
1.78189309 1.06376352 -0.00263390 0.00000000
2.01790162 1.75667487 -0.00076136 0.00000000
0.85208335 1.21533916 -0.00354696 0.00000000
3.16164918 1.36758636 0.00508724 0.00000000
4.46286075 1.36375256 -0.00166102 0.00000000
4.22527523 1.69918130 -0.00196503 0.00000000
3.57000906 0.65625173 0.00479108 0.00000000
1.37845805 0.40303757 0.00422286 0.00000000
0.18501909 2.20581888 -0.00101827 0.00000000
1.26834203 2.01012357 -0.00352022 0.00000000
4.10572459 1.52916919 0.00287020 0.00000000
4.32432767 1.57103936 0.00093758 0.00000000
3.25524821 1.05739977 0.00459958 0.00000000
0.49162631 1.61895240 0.00195391 0.00000000
3.32881501 0.54098443 -0.00260415 0.00000000
2.71106748 1.71963705 -0.00083665 0.00000000
3.53887226 1.44391611 0.00025700 0.00000000
4.19974809 0.03733358 0.00013204 0.00000000
2.06509846 1.58215109 0.00331631 0.00000000
3.69392984 1.55115457 0.00426174 0.00000000
1.04736081 2.08534282 -0.00564713 0.00000000
0.47401960 0.37834486 0.00489427 0.00000000
3.52129985 0.15746461 -0.00344062 0.00000000
2.68299869 2.14005134 0.00598402 0.00000000
3.72419110 1.37896401 0.00335444 0.00000000
1.81919513 0.71040732 -0.00061914 0.00000000
1.33665722 1.60367999 -0.00132600 0.00000000
1.11612337 0.11109668 -0.00128421 0.00000000
0.76555647 0.41445977 0.00185718 0.00000000
3.96144189 1.92518861 0.00604289 0.00000000
0.63251588 1.27010711 -0.00292960 0.00000000
1.74098958 0.76065969 -0.00318232 0.00000000
3.72702459 0.70428267 0.00222229 0.00000000
4.18316639 2.04804615 -0.00101914 0.00000000
1.11899278 0.30760902 -0.00055046 0.00000000
3.97586815 1.03492501 0.00029663 0.00000000
3.04847524 1.49518142 0.00244359 0.00000000
3.83076791 2.18655231 -0.00242216 0.00000000
2.00658603 1.49904858 -0.00059509 0.00000000
2.97429020 1.96930890 0.00096855 0.00000000
2.89058256 1.67783449 0.00156774 0.00000000
1.01040585 2.22681734 0.00086611 0.00000000
3.32053077 0.40550517 -0.00603021 0.00000000
1.31127883 1.83876463 0.00031551 0.00000000
3.81915033 1.85792393 0.00159651 0.00000000
2.54116626 0.18627552 -0.00608825 0.00000000
4.17501179 2.25135793 -0.00024493 0.00000000
1.09216870 1.01673744 -0.00061029 0.00000000
0.76596767 1.95111245 0.00150267 0.00000000
1.04300961 0.10789401 0.00161356 0.00000000
2.81131863 1.76762071 -0.00197438 0.00000000
4.33168252 2.20899269 -0.00005353 0.00000000
1.47492037 1.96795442 0.00068618 0.00000000
3.96515714 2.10681233 -0.00009937 0.00000000
1.68851732 0.59870218 -0.00010588 0.00000000
3.29727202 0.63261064 -0.00056160 0.00000000
3.23581794 0.99959079 -0.00508032 0.00000000
2.67826862 1.95768053 -0.00357085 0.00000000
1.98848919 0.20645841 -0.00021232 0.00000000
4.37639799 0.35337163 -0.00020362 0.00000000
1.42787515 1.17194035 -0.00031236 0.00000000
1.72433939 1.59407213 0.00117215 0.00000000
2.08276924 0.59760341 0.00006873 0.00000000
3.79281578 1.97149964 0.00164976 0.00000000
0.26018494 0.81459423 -0.00113789 0.00000000
2.24782975 0.18368598 0.00112518 0.00000000
3.41631962 1.17139836 0.00099234 0.00000000
3.54914218 0.99587178 0.00119919 0.00000000
0.75874729 1.24644589 0.00217373 0.00000000
1.66978873 0.48606268 0.00058647 0.00000000
1.88022836 2.30349382 -0.00288167 0.00000000
3.26108082 0.68543306 0.00377644 0.00000000
3.30790813 0.64325614 -0.00281870 0.00000000
4.10421397 1.17364035 -0.00332904 0.00000000
1.52079646 0.45818183 -0.00390635 0.00000000
3.72806556 0.07973456 0.00103062 0.00000000
3.97349668 0.57515670 0.00123223 0.00000000
3.72017549 1.32348461 0.00197762 0.00000000
3.10954775 0.19293758 0.00046933 0.00000000
4.39935660 0.77731721 -0.00149074 0.00000000
0.61512062 1.15810420 0.00157650 0.00000000
4.33811575 2.06645464 -0.00200737 0.00000000
1.60810952 1.06838814 0.00189772 0.00000000
1.25618406 1.18191648 0.00361806 0.00000000
1.88610101 0.62402475 0.00360623 0.00000000
0.74596042 2.28388767 -0.00147915 0.00000000
2.65267640 1.04966556 -0.00295567 0.00000000
3.73786928 0.32646152 -0.00116130 0.00000000
2.46609751 1.49510421 0.00417790 0.00000000
1.82128732 0.99387526 0.00095153 0.00000000
1.89598460 1.66586248 -0.00030552 0.00000000
4.50423172 1.84595348 0.00410464 0.00000000
1.22764093 1.33501974 0.00182719 0.00000000
3.97293574 2.10315663 -0.00285707 0.00000000
2.81156892 1.78659985 -0.00330925 0.00000000
2.41918509 2.03486634 0.00051620 0.00000000
0.34356809 1.95081955 0.00278800 0.00000000
0.74066344 1.87696995 0.00053718 0.00000000
3.43676797 1.14339159 0.00028248 0.00000000
3.16974262 0.41675773 -0.00000175 0.00000000
3.07098518 0.63469353 -0.00216781 0.00000000
0.15610661 1.47359753 0.00305347 0.00000000
1.60984195 1.35639374 0.00254097 0.00000000
2.20074228 1.93211585 0.00089330 0.00000000
0.12928193 0.69810367 -0.00203828 0.00000000
0.11131890 0.81505830 0.00234111 0.00000000
0.45630791 1.68371809 -0.00082456 0.00000000
2.67200043 0.85110222 0.00162823 0.00000000
1.08641657 0.03856306 0.00112808 0.00000000
0.22357637 0.41087212 -0.00141254 0.00000000
3.12235098 1.27321373 -0.00005223 0.00000000
1.47076473 0.43924844 -0.00312741 0.00000000
4.07061896 0.03602486 0.00167663 0.00000000
1.44117993 1.56484483 0.00087965 0.00000000
3.28950401 1.80875162 -0.00050918 0.00000000
1.53127556 1.21963949 -0.00260053 0.00000000
3.31516872 0.41352951 -0.00094290 0.00000000
2.25522265 1.17580552 -0.00007846 0.00000000
2.30237395 2.22168039 0.00011483 0.00000000
1.25450156 0.22519713 0.00073363 0.00000000
1.20643449 1.67592044 0.00148554 0.00000000
1.89584346 1.85068921 0.00139295 0.00000000
2.36081223 0.98483684 -0.00077194 0.00000000
3.76813732 2.18867683 0.00168574 0.00000000
0.07984733 0.66636125 0.00005291 0.00000000
0.53064192 2.29820539 -0.00267421 0.00000000
1.78510318 0.93141872 0.00089464 0.00000000
2.30942407 0.53695146 -0.00118155 0.00000000
2.87562462 1.42763865 0.00047328 0.00000000
3.39852802 2.08151858 0.00280216 0.00000000
4.23346047 1.07903279 -0.00058591 0.00000000
3.00380231 1.29585364 -0.00445633 0.00000000
0.34094587 0.12880936 0.00240992 0.00000000
3.54891472 0.71351376 0.00001837 0.00000000
0.58447500 0.13119500 -0.00498340 0.00000000
0.77084832 1.38376694 -0.00142160 0.00000000
0.06362251 0.76807560 0.00172750 0.00000000
4.34240281 1.20072857 0.00477681 0.00000000
2.10469349 2.29285763 0.00073336 0.00000000
3.30814717 0.14462098 -0.00293507 0.00000000
1.60588972 2.20113495 -0.00397193 0.00000000
0.31790386 2.30210878 0.00170911 0.00000000
3.00208407 0.78239848 0.00109658 0.00000000
3.27692048 0.72038508 0.00423112 0.00000000
3.15669754 2.18603830 -0.00296931 0.00000000
3.05504035 1.77087396 -0.00017092 0.00000000
2.05260923 1.43189675 -0.00274423 0.00000000
3.59858283 0.16024046 0.00131440 0.00000000
0.26556817 2.06775957 -0.00234733 0.00000000
1.64805585 0.27267749 0.00193748 0.00000000
0.05134367 0.13409996 0.00031925 0.00000000
3.10716308 0.51327727 0.00138822 0.00000000
0.02852092 0.29439586 0.00009054 0.00000000
0.91751897 2.00180126 0.00188520 0.00000000
3.47602060 1.63695209 -0.00023688 0.00000000
3.80032428 0.60557622 -0.00371239 0.00000000
3.27912323 0.61262225 -0.00518970 0.00000000
1.49886270 1.43400372 -0.00039860 0.00000000
1.77172756 2.11107711 0.00144261 0.00000000
3.03171355 2.26989755 -0.00098212 0.00000000
1.13840068 0.61588311 0.00041966 0.00000000
2.01757571 1.66184654 -0.00107592 0.00000000
3.15204100 1.68829426 -0.00009643 0.00000000
0.26082038 0.01486132 -0.00138416 0.00000000
4.06650933 1.58848156 0.00120569 0.00000000
3.51051079 1.18351983 0.00127008 0.00000000
1.36582877 1.08409368 0.00111236 0.00000000
1.05923103 1.97962193 0.00036631 0.00000000
3.61851329 2.29164951 0.00033840 0.00000000
0.69723052 1.80868602 -0.00347891 0.00000000
2.04039153 0.92833242 0.00109347 0.00000000
1.65501609 0.54944484 0.00083048 0.00000000
0.64401738 2.29912502 0.00170141 0.00000000
1.92778467 0.50647964 0.00033876 0.00000000
0.66012482 1.65356717 -0.00073382 0.00000000
2.36016472 0.50061303 0.00454765 0.00000000
1.58228507 2.14209855 -0.00334132 0.00000000
2.36867720 1.48316645 -0.00426847 0.00000000
4.21664906 2.13266918 -0.00010764 0.00000000
2.59326289 0.03416446 -0.00172218 0.00000000
4.14582804 0.17619260 0.00357993 0.00000000
4.25101754 1.40452072 -0.00068007 0.00000000
1.03180510 1.01027125 0.00369146 0.00000000
0.65113876 0.79939127 -0.00015745 0.00000000
1.74311368 0.66087858 0.00245211 0.00000000
0.24706444 2.04831012 0.00033770 0.00000000
3.91106516 1.49058792 -0.00468654 0.00000000
0.21072001 0.39543847 -0.00137196 0.00000000
2.71805348 1.37742736 0.00389037 0.00000000
3.67471435 2.03092638 -0.00243810 0.00000000
3.81872919 1.11040682 -0.00358586 0.00000000
0.48759769 0.23050013 -0.00287035 0.00000000
2.68072097 1.40025029 0.00081469 0.00000000
3.98318887 0.02761105 -0.00367008 0.00000000
1.99003040 2.05285305 0.00023896 0.00000000
3.55839123 2.01059215 -0.00345207 0.00000000
1.38749584 0.92027401 0.00104711 0.00000000
3.76026950 1.41568132 -0.00397903 0.00000000
3.72487781 2.31707371 0.00158615 0.00000000
4.31205166 1.85914408 0.00193502 0.00000000
3.80977686 1.21880091 -0.00290321 0.00000000
4.47397407 0.50840978 0.00576946 0.00000000
1.45330483 1.73789483 -0.00311013 0.00000000
3.30552142 0.19810496 0.00008989 0.00000000
1.46247873 1.49797108 0.00372793 0.00000000
4.04072954 1.96571769 -0.00205573 0.00000000
4.13957586 0.30600574 -0.00004737 0.00000000
3.03326782 0.19422065 0.00115319 0.00000000
3.94304547 1.02317114 0.00137785 0.00000000
1.13556542 0.87733116 -0.00527485 0.00000000
3.12231390 0.86031302 -0.00310656 0.00000000
3.84246670 1.11452983 0.00090996 0.00000000
0.65454840 0.05626980 0.00345047 0.00000000
0.92397543 0.18351628 -0.00170902 0.00000000
4.30540227 1.68084022 0.00449427 0.00000000
1.91492652 0.38616367 -0.00223571 0.00000000
3.53563795 0.21146420 0.00079331 0.00000000
2.23957956 2.00096331 0.00146949 0.00000000
0.71091894 0.03164227 -0.00308020 0.00000000
2.67739692 0.04907554 0.00096290 0.00000000
2.71807430 0.22506264 -0.00293152 0.00000000
0.27365253 1.46294890 -0.00386396 0.00000000
4.17981020 1.53000666 -0.00085096 0.00000000
1.77412350 1.76560513 0.00144239 0.00000000
2.49212464 1.03381265 0.00039410 0.00000000
2.54147468 2.18273661 -0.00201093 0.00000000
1.57261591 1.87299123 0.00191969 0.00000000
1.26639217 2.28897293 0.00557364 0.00000000
1.20111643 0.84361210 0.00313199 0.00000000
0.79438119 0.20118315 0.00301091 0.00000000
0.84657675 1.56502582 0.00444685 0.00000000
0.22528708 2.17341206 -0.00323233 0.00000000
2.73094204 1.40275347 0.00272588 0.00000000
3.72492043 0.20996676 0.00195681 0.00000000
3.14518314 1.41253509 -0.00327911 0.00000000
2.17375673 0.84452317 -0.00655759 0.00000000
2.71010650 1.81964577 -0.00146377 0.00000000
2.44068204 0.56604100 0.00679621 0.00000000
3.47398305 1.63698776 0.00219373 0.00000000
2.93440405 0.04906012 0.00310829 0.00000000
4.33273342 0.65331654 -0.00205947 0.00000000
0.13582618 1.99004475 -0.00060241 0.00000000
3.61956386 1.55455110 -0.00169723 0.00000000
4.15700894 0.03633891 0.00377909 0.00000000
0.59643840 0.47431048 0.00149071 0.00000000
0.49113519 1.90405259 0.00203721 0.00000000
3.73731512 0.12915987 -0.00371293 0.00000000
1.04462790 1.20062737 -0.00330252 0.00000000
2.75399357 1.45569262 0.00080276 0.00000000
1.17026643 0.89542111 0.00153730 0.00000000
2.30171315 1.92340629 0.00014010 0.00000000
1.07818508 1.66285256 0.00072791 0.00000000
1.02141574 0.20389993 -0.00012595 0.00000000
1.30355007 1.08612497 -0.00031928 0.00000000
0.15078134 1.41205822 0.00447534 0.00000000
3.76876387 1.68552124 0.00153780 0.00000000
1.40957751 2.32911272 -0.00189377 0.00000000
4.45691679 2.11819738 -0.00017963 0.00000000
2.53702359 2.26144639 -0.00566031 0.00000000
0.94186052 0.34791440 -0.00219742 0.00000000
0.76957934 0.43938338 0.00042494 0.00000000
2.66079316 0.74281118 -0.00162089 0.00000000
3.91277344 1.14396041 -0.00229313 0.00000000
3.74359361 0.29807848 0.00205040 0.00000000
2.85666059 1.50151842 0.00000977 0.00000000
3.69408579 1.10942945 0.00139155 0.00000000
4.24573499 1.11835910 -0.00317709 0.00000000
0.10739974 0.55968506 -0.00024868 0.00000000
3.84647372 0.23010561 -0.00121692 0.00000000
1.83354692 1.52934589 -0.00145879 0.00000000
4.48415786 2.24030233 -0.00304267 0.00000000
1.29894237 1.89063167 -0.00304589 0.00000000
2.27180964 1.01211938 -0.00048006 0.00000000
4.00986282 0.77611024 -0.00239170 0.00000000
4.50624908 0.31927135 -0.00119299 0.00000000
2.71179012 1.26995904 -0.00074302 0.00000000
2.24975550 1.07319205 -0.00094027 0.00000000
0.52192045 2.26554792 -0.00014616 0.00000000
3.88086551 0.70293208 0.00108376 0.00000000
3.83850576 1.81095034 0.00049888 0.00000000
0.69677240 0.27937617 -0.00158188 0.00000000
2.44377420 0.27043113 -0.00083945 0.00000000
1.93692438 2.09287376 0.00229350 0.00000000
3.92476311 1.94563266 0.00301422 0.00000000
2.09561439 0.62275673 0.00303401 0.00000000
2.21693905 0.15255325 -0.00227311 0.00000000
1.11119376 1.62087225 -0.00165817 0.00000000
2.20498275 2.16343712 0.00535010 0.00000000
3.96780178 0.88806507 -0.00475276 0.00000000
3.19329461 2.17112661 -0.00061010 0.00000000
1.64888417 1.44147933 0.00179692 0.00000000
1.45657048 1.51252148 0.00057372 0.00000000
0.71689032 1.07075275 -0.00067735 0.00000000
0.57308892 1.72973479 0.00000889 0.00000000
4.41138153 0.01603911 -0.00198751 0.00000000
0.72005572 2.18622646 0.00388482 0.00000000
0.98387500 2.08879870 0.00129721 0.00000000
2.97312397 1.98488960 0.00070556 0.00000000
1.44462019 1.30930058 0.00341270 0.00000000
1.44741833 1.60492976 -0.00436922 0.00000000
1.57733848 1.46155800 0.00010560 0.00000000
2.06121238 1.88819203 0.00376676 0.00000000
0.81709519 2.23935014 -0.00048386 0.00000000
3.16515239 0.97805703 -0.00168340 0.00000000
2.07038982 1.77078739 -0.00006968 0.00000000
2.31875306 1.00765613 -0.00422038 0.00000000
3.05604727 1.09127320 -0.00137247 0.00000000
2.67564764 0.50510141 0.00134888 0.00000000
3.47702101 0.27899780 0.00210655 0.00000000
3.89330051 1.92395275 0.00582574 0.00000000
0.31533464 0.72049220 -0.00112515 0.00000000
1.70221309 1.93053418 -0.00463742 0.00000000
3.49328268 0.15992249 0.00046631 0.00000000
3.73047892 0.52618694 0.00220572 0.00000000
1.71410948 1.65463450 -0.00046987 0.00000000
1.33834920 2.16767038 -0.00205904 0.00000000
0.34553876 1.80077020 -0.00438062 0.00000000
3.91623789 0.09318734 0.00109904 0.00000000
0.24684081 1.41725132 0.00262942 0.00000000
4.50211616 1.65786485 0.00275320 0.00000000
0.92976037 1.29259111 -0.00227894 0.00000000
1.57793134 1.74418953 0.00404371 0.00000000
3.81125330 1.55575245 0.00094238 0.00000000
1.26307960 2.23595249 0.00354678 0.00000000
4.16085419 2.10357373 -0.00242830 0.00000000
2.42948635 0.40051701 0.00373155 0.00000000
3.76958755 0.04341070 -0.00014216 0.00000000
0.99931276 0.68370492 -0.00104394 0.00000000
1.60711172 1.00710169 -0.00413170 0.00000000
2.10342423 2.01519289 0.00076276 0.00000000
0.05429779 0.87730379 -0.00554905 0.00000000
2.38221233 0.73455191 -0.00011223 0.00000000
2.65439989 0.16834862 0.00011497 0.00000000
2.03023698 1.45016547 -0.00049351 0.00000000
3.84930606 1.45203305 -0.00161404 0.00000000
4.13064897 0.33347770 -0.00059744 0.00000000
0.05452678 0.27391877 -0.00443170 0.00000000
1.19120367 2.11765131 -0.00136423 0.00000000
3.88221721 0.72945186 -0.00138187 0.00000000
1.31613563 2.02422689 0.00106284 0.00000000
4.26325505 2.14106034 0.00299425 0.00000000
2.25698516 1.83802944 -0.00013461 0.00000000
2.58572043 1.52228674 -0.00143902 0.00000000
2.26672149 1.41006883 -0.00187783 0.00000000
3.67622728 0.44667423 0.00023503 0.00000000
3.81905524 0.80560429 -0.00448697 0.00000000
4.09882184 0.93195396 0.00377859 0.00000000
1.67667082 0.32923601 0.00293576 0.00000000
0.96094802 2.18288676 0.00197288 0.00000000
0.92408923 0.58073156 -0.00275589 0.00000000
1.27498197 1.90918448 -0.00265852 0.00000000
0.43681911 1.53744920 0.00239148 0.00000000
1.70957984 1.93172113 0.00343314 0.00000000
1.08568301 2.33562490 0.00081392 0.00000000
4.53159560 1.08604907 0.00332643 0.00000000
4.04272951 0.82018157 0.00136995 0.00000000
4.04601172 0.70095264 0.00342359 0.00000000
1.69362886 1.55782083 -0.00280749 0.00000000
3.08800290 1.80473882 -0.00631626 0.00000000
3.62508272 1.27764495 0.00460765 0.00000000
0.83441459 2.31850816 0.00016101 0.00000000
3.65102758 1.53141206 0.00428068 0.00000000
0.90738777 0.52153397 0.00154529 0.00000000
3.93321993 0.87063009 0.00423207 0.00000000
0.70385111 0.84187544 0.00071412 0.00000000
1.62346453 1.22934475 -0.00084914 0.00000000
3.36747097 1.14545141 -0.00429849 0.00000000
0.09442207 0.60537166 0.00252529 0.00000000
3.00639158 1.91879545 -0.00291601 0.00000000
4.02535771 1.36205871 0.00047104 0.00000000
3.23049746 0.10677590 0.00228658 0.00000000
0.59891426 2.19409692 -0.00099090 0.00000000
0.37555453 0.11009245 0.00102342 0.00000000
0.02218260 0.43642412 0.00079273 0.00000000
0.23249435 1.56825178 0.00050851 0.00000000
4.00147094 1.01092787 0.00226618 0.00000000
2.86940058 0.17282513 -0.00242480 0.00000000
2.07669714 1.64420118 0.00464206 0.00000000
4.29920140 0.96851780 -0.00366240 0.00000000
2.83605681 0.59021814 -0.00404016 0.00000000
3.22400618 0.81085288 -0.00008336 0.00000000
1.53459115 0.48649949 0.00226783 0.00000000
3.88431945 1.83246817 0.00144065 0.00000000
3.61198570 1.81555632 -0.00022167 0.00000000
4.24480690 1.37184421 0.00345540 0.00000000
0.01528904 1.29009324 -0.00066347 0.00000000
0.65700300 1.31869953 0.00280899 0.00000000
4.08632339 1.02194168 0.00217977 0.00000000
4.07311385 1.15009313 0.00277210 0.00000000
0.02256340 1.30603373 -0.00171362 0.00000000
0.22181140 1.70651339 -0.00121692 0.00000000
3.44016871 1.91152959 -0.00024913 0.00000000
3.22158331 0.96849274 0.00300131 0.00000000
3.18242809 1.58074414 0.00154267 0.00000000
2.89560673 2.26957339 0.00269053 0.00000000
1.42647506 2.07416635 -0.00360890 0.00000000
2.03396525 1.72078715 -0.00404414 0.00000000
4.25704882 1.26886363 -0.00069333 0.00000000
1.77320398 2.23319519 0.00229415 0.00000000
3.70968871 0.63515377 0.00246378 0.00000000
0.74934814 1.88505150 -0.00192685 0.00000000
1.48932985 1.90177740 0.00540321 0.00000000
2.09333761 0.83620874 -0.00347881 0.00000000
3.67113606 0.04396817 -0.00056407 0.00000000
3.15360741 1.14657335 -0.00104772 0.00000000
0.63533579 1.66804331 -0.00304629 0.00000000
1.76008662 1.74069595 0.00152845 0.00000000
4.27521063 0.37580946 -0.00024636 0.00000000
0.68570526 1.47927522 -0.00438806 0.00000000
3.28354596 1.35818067 -0.00022268 0.00000000
3.33340370 0.41163319 0.00113394 0.00000000
0.97652959 0.90374771 -0.00150997 0.00000000
3.35893060 1.08046312 0.00110674 0.00000000
4.08504850 0.52766539 0.00291665 0.00000000
3.49934600 1.64110434 -0.00338835 0.00000000
2.55125092 2.25688757 0.00043868 0.00000000
3.45379385 1.20094502 -0.00150209 0.00000000
1.11662285 2.00291535 0.00248039 0.00000000
3.65960447 1.46757918 0.00287727 0.00000000
4.14487308 0.30962245 0.00062819 0.00000000
4.28086865 2.21290510 -0.00194859 0.00000000
1.43514473 1.63560693 -0.00010252 0.00000000
0.04288037 0.23553569 0.00343115 0.00000000
0.93579778 1.21404560 -0.00205328 0.00000000
0.69985402 0.07360464 0.00365290 0.00000000
2.18591023 1.59263731 -0.00061599 0.00000000
0.35585195 1.91732513 0.00217637 0.00000000
1.21411355 0.11949675 0.00027458 0.00000000
4.51985159 1.81489511 -0.00270703 0.00000000
0.24495539 1.01139086 -0.00259738 0.00000000
1.25831239 1.19838811 -0.00392748 0.00000000
0.74852152 0.42830399 -0.00182045 0.00000000
2.57916435 1.78970222 -0.00218727 0.00000000
2.24934996 1.88505409 -0.00375929 0.00000000
3.27355204 1.83445503 0.00098474 0.00000000
0.92394065 0.73538930 0.00191021 0.00000000
3.98577885 0.20801516 0.00027075 0.00000000
3.07654655 0.43921664 0.00226564 0.00000000
3.66443679 0.96622518 -0.00243859 0.00000000
1.46932314 1.98992345 0.00030972 0.00000000
0.35558716 1.44489691 0.00153566 0.00000000
4.47783664 0.50955117 -0.00253478 0.00000000
2.76368179 2.04848346 0.00030308 0.00000000
3.53688951 0.19755553 -0.00001351 0.00000000
2.00150218 2.27234264 -0.00108079 0.00000000
0.42823822 0.33439515 -0.00119472 0.00000000
4.38593824 1.53901607 -0.00173457 0.00000000
1.94724155 0.11338418 0.00107707 0.00000000
1.03082848 1.76950145 -0.00184345 0.00000000
1.92762783 0.46119325 0.00181553 0.00000000
3.72651818 0.54517946 -0.00182715 0.00000000
0.24954575 0.92358181 0.00147902 0.00000000
2.29382301 1.72126921 0.00007499 0.00000000
1.21073449 0.57203226 -0.00147265 0.00000000
4.34613939 1.83396354 0.00404288 0.00000000
0.51361698 2.08019138 -0.00065023 0.00000000
2.27252138 1.38019824 -0.00134902 0.00000000
3.94324627 1.54896747 0.00050581 0.00000000
0.34555123 0.78768926 -0.00117126 0.00000000
0.94897572 0.81084530 0.00525820 0.00000000
0.47875862 1.76423091 0.00203129 0.00000000
1.14563012 2.08788252 0.00030808 0.00000000
1.58394991 1.37361797 -0.00484581 0.00000000
0.25927432 0.01787610 0.00025798 0.00000000
4.00163576 0.65706706 -0.00097401 0.00000000
2.33015985 0.05789719 0.00008697 0.00000000
2.41661609 0.97127088 -0.00194661 0.00000000
3.37731273 2.14570657 -0.00133781 0.00000000
1.12193254 2.27220237 -0.00222006 0.00000000
3.66422610 1.52423109 -0.00019018 0.00000000
3.21975728 2.12402291 0.00413233 0.00000000
1.99261011 0.68241602 0.00124508 0.00000000
2.14722016 0.93467791 0.00123082 0.00000000
0.39459347 1.76926117 0.00325544 0.00000000
4.13020015 1.24035219 -0.00153077 0.00000000
1.56568440 1.15655638 0.00236388 0.00000000
4.28802123 1.85083708 0.00086259 0.00000000
3.50326096 2.27418362 -0.00180646 0.00000000
2.55093500 1.54058184 0.00051083 0.00000000
3.20808190 1.93750822 -0.00043369 0.00000000
2.93116049 1.56779327 -0.00341588 0.00000000
2.18484818 0.40788658 -0.00074118 0.00000000
0.42176180 0.34138428 -0.00404517 0.00000000
3.14371334 2.23325395 0.00167229 0.00000000
1.03976095 0.50349185 0.00164700 0.00000000
2.27159637 1.17993401 -0.00400013 0.00000000
2.03391242 1.59128830 0.00323686 0.00000000
3.92948925 1.96763056 0.00275686 0.00000000
4.49361205 1.80996441 -0.00130374 0.00000000
1.50903305 0.49317271 0.00424398 0.00000000
0.74358327 1.55881792 -0.00058388 0.00000000
2.13617054 0.65325598 -0.00158114 0.00000000
3.29013075 0.35849688 0.00500438 0.00000000
3.76026484 1.46662080 0.00006909 0.00000000
4.18106135 1.54225395 0.00322961 0.00000000
2.72657407 0.83003917 0.00035658 0.00000000
2.84572407 0.98950889 0.00226240 0.00000000
2.80331950 2.28111183 -0.00036524 0.00000000
0.70126547 1.46284366 -0.00120777 0.00000000
1.43290701 1.15265523 -0.00167078 0.00000000
2.84739202 0.74302731 0.00222897 0.00000000
2.50730901 0.84201351 0.00338719 0.00000000
1.88409951 0.20953316 0.00157632 0.00000000
1.86136737 1.00729131 -0.00041438 0.00000000
3.43642234 0.00306082 0.00096100 1.00000000
3.89089207 0.00001041 -0.00360171 1.00000000
1.99171856 0.00053343 -0.00011174 1.00000000
3.99183522 0.00058034 0.00171928 1.00000000
1.32496505 -0.00122661 0.00160405 1.00000000
0.53588472 -0.00103260 -0.00100946 1.00000000
3.21860108 0.00329746 0.00060009 1.00000000
1.23332146 0.00340802 0.00072401 1.00000000
1.29846097 -0.00352897 -0.00319262 1.00000000
0.15003324 -0.00117961 0.00218216 1.00000000
1.55100789 0.00101946 0.00034465 1.00000000
4.48293199 -0.00247699 -0.00023956 1.00000000
3.27965624 -0.00219093 -0.00152045 1.00000000
2.07241851 -0.00646224 0.00314779 1.00000000
1.46791661 0.00053886 0.00459972 1.00000000
2.61075398 0.00169293 -0.00272451 1.00000000
1.42433047 0.00072537 -0.00169252 1.00000000
3.87059817 0.00010911 -0.00004882 1.00000000
1.51100355 0.00161430 0.00299065 1.00000000
3.16907499 -0.00068320 -0.00441396 1.00000000
4.46809441 -0.00126063 0.00608449 1.00000000
1.34623684 0.00442084 -0.00110154 1.00000000
4.35682583 0.00159192 -0.00171550 1.00000000
0.38740683 0.00197612 -0.00456514 1.00000000
3.63367531 -0.00289976 -0.00501845 1.00000000
0.84019214 -0.00112100 -0.00275090 1.00000000
1.70741117 0.00472347 0.00488247 1.00000000
3.81058699 -0.00007622 0.00100007 1.00000000
2.86543140 0.00017733 0.00290558 1.00000000
4.18278013 -0.00043388 0.00154982 1.00000000
2.14505334 0.00031733 -0.00216130 1.00000000
0.78540937 0.00034401 0.00069507 1.00000000
4.47002811 0.00215859 0.00372629 1.00000000
1.98425580 -0.00041316 0.00000163 1.00000000
1.35666135 0.00048481 0.00305997 1.00000000
3.98233466 0.00028467 -0.00209749 1.00000000
0.55919227 0.00203044 0.00209368 1.00000000
4.45059518 0.00281141 0.00164140 1.00000000
3.68611680 -0.00109563 0.00100006 1.00000000
4.28003934 -0.00195094 -0.00184637 1.00000000
0.80174191 0.00042903 0.00509616 1.00000000
0.33723968 0.00135885 0.00367708 1.00000000
2.81251334 0.00089968 -0.00399111 1.00000000
1.14723109 -0.00187188 0.00163671 1.00000000
3.53079525 0.00189918 -0.00241741 1.00000000
1.04370722 0.00206089 -0.00028662 1.00000000
4.24009193 -0.00291230 -0.00047873 1.00000000
2.05898233 0.00168457 -0.00322510 1.00000000
3.46623459 -0.00292371 -0.00334609 1.00000000
0.18551134 -0.00460992 0.00136772 1.00000000
1.60823202 0.00169747 -0.00253497 1.00000000
4.42782532 -0.00363060 -0.00169931 1.00000000
3.60366642 -0.00180642 -0.00400113 1.00000000
1.77016499 -0.00160260 0.00068058 1.00000000
3.43238376 -0.00065551 0.00037896 1.00000000
3.26720962 0.00225446 -0.00502464 1.00000000
1.27604978 0.00257009 -0.00159466 1.00000000
2.64581153 -0.00233339 0.00215225 1.00000000
0.65575009 0.00160749 0.00385493 1.00000000
1.69329070 -0.00177886 0.00217385 1.00000000
1.35715333 0.00182711 -0.00370140 1.00000000
2.79845933 -0.00034122 0.00058725 1.00000000
2.74896064 -0.00116675 0.00238444 1.00000000
2.42639515 0.00060742 -0.00119777 1.00000000
3.32644808 -0.00146796 0.00449481 1.00000000
0.48544601 -0.00025214 0.00006653 1.00000000
2.95103005 -0.00121858 -0.00194646 1.00000000
4.24551061 -0.00415955 -0.00060792 1.00000000
4.15050845 0.00068015 -0.00212838 1.00000000
2.86188021 -0.00008562 0.00272652 1.00000000
3.97283285 0.00644144 0.00199721 1.00000000
2.83521971 0.00281336 -0.00050189 1.00000000
3.73419224 0.00002391 -0.00258080 1.00000000
2.66632933 0.00186208 0.00036746 1.00000000
2.10727955 0.00342315 -0.00010209 1.00000000
1.44959905 0.00034590 0.00275545 1.00000000
0.59146198 -0.00041987 -0.00163413 1.00000000
0.80705312 -0.00162567 -0.00092155 1.00000000
4.09344544 -0.00189937 -0.00012461 1.00000000
0.15074783 0.00232722 -0.00588797 1.00000000
4.41650622 -0.00228044 -0.00196799 1.00000000
1.30285195 0.00349072 -0.00158128 1.00000000
0.03726936 0.00066674 0.00054923 1.00000000
3.22832378 -0.00146088 0.00391379 1.00000000
1.48222871 -0.00231829 -0.00313722 1.00000000
1.91270650 -0.00166020 0.00211296 1.00000000
3.25704497 0.00055611 0.00100326 1.00000000
0.75526114 -0.00154682 -0.00307545 1.00000000
1.45811265 0.00229074 -0.00206116 1.00000000
3.19742354 -0.00066873 0.00237751 1.00000000
3.25276873 0.00003942 0.00213338 1.00000000
0.20384629 0.00093664 -0.00124700 1.00000000
2.46778477 0.00043660 0.00639059 1.00000000
0.90593324 0.00350158 -0.00017820 1.00000000
3.02781055 0.00220074 0.00157578 1.00000000
3.35881933 -0.00173637 0.00044116 1.00000000
0.14414438 -0.00121423 0.00308800 1.00000000
2.86216963 -0.00324760 0.00306138 1.00000000
0.80703207 -0.00386399 0.00319172 1.00000000
3.08821934 -0.00030270 -0.00006838 1.00000000
1.44720245 0.00136589 -0.00157868 1.00000000
1.21463229 0.00108166 0.00065678 1.00000000
3.36418336 -0.00047240 0.00035816 1.00000000
3.18030151 -0.00065643 -0.00014688 1.00000000
1.82410213 -0.00060262 0.00277799 1.00000000
0.13675290 -0.00006046 0.00047984 1.00000000
2.90383082 -0.00496039 0.00138439 1.00000000
1.96882683 0.00401043 0.00092403 1.00000000
1.48926493 0.00312858 -0.00144895 1.00000000
0.27696264 0.00171964 -0.00144640 1.00000000
3.36917850 0.00047337 0.00136742 1.00000000
0.51337548 -0.00004770 -0.00030745 1.00000000
3.31461763 -0.00066541 0.00034274 1.00000000
2.75655893 0.00244438 0.00313208 1.00000000
2.98776348 0.00037874 0.00056243 1.00000000
1.66080907 -0.00068113 0.00071827 1.00000000
2.03011937 0.00503755 0.00261745 1.00000000
1.11251915 -0.00029951 -0.00040422 1.00000000
1.98652130 -0.00137640 0.00194843 1.00000000
4.04113545 -0.00195796 -0.00228894 1.00000000
1.47549704 0.00151708 -0.00337262 1.00000000
1.63650335 -0.00064568 0.00001877 1.00000000
2.35426880 0.00284001 -0.00236142 1.00000000
3.89900136 0.00033252 0.00133204 1.00000000
2.94850798 -0.00312996 -0.00111286 1.00000000
3.27037917 -0.00252233 0.00674105 1.00000000
1.82773001 0.00302707 -0.00105858 1.00000000
3.79025243 0.00073420 -0.00383999 1.00000000
3.99703752 0.00104822 0.00201486 1.00000000
1.68146065 0.00161807 -0.00027889 1.00000000
3.04938718 0.00207919 0.00267017 1.00000000
2.90507810 -0.00360566 -0.00063370 1.00000000
1.46507935 0.00320636 -0.00315772 1.00000000
1.34925974 0.00071714 -0.00108918 1.00000000
3.18081269 0.00223991 -0.00211277 1.00000000
3.57489355 -0.00332876 -0.00120448 1.00000000
1.01383889 -0.00116301 -0.00088178 1.00000000
2.98944462 0.00151665 0.00263693 1.00000000
4.17542553 0.00097321 0.00078820 1.00000000
2.85696602 -0.00360247 -0.00145777 1.00000000
3.77638282 0.00179233 -0.00214121 1.00000000
2.50639344 -0.00012997 0.00147873 1.00000000
0.94506425 -0.00039455 -0.00205688 1.00000000
2.94235134 -0.00098835 -0.00203867 1.00000000
1.12252882 -0.00083988 -0.00630728 1.00000000
1.94759969 0.00237434 0.00074979 1.00000000
3.42287154 -0.00176693 -0.00345499 1.00000000
3.01775459 0.00257519 0.00343875 1.00000000
1.13763697 0.00260344 -0.00026869 1.00000000
2.11708333 -0.00008447 0.00202563 1.00000000
2.96950186 0.00520573 0.00238453 1.00000000
2.62881488 -0.00147413 0.00177026 1.00000000
0.09171701 0.00192383 0.00118408 1.00000000
0.52803286 0.00254961 -0.00078429 1.00000000
1.36351178 -0.00304650 0.00010935 1.00000000
3.75325304 0.00235030 -0.00020357 1.00000000
3.51744025 0.00016272 -0.00397902 1.00000000
4.49854166 -0.00305603 0.00232834 1.00000000
2.72274333 0.00096609 0.00057566 1.00000000
2.11891722 -0.00242331 -0.00045664 1.00000000
4.23010272 0.00431105 -0.00144630 1.00000000
4.16603896 -0.00333996 -0.00155707 1.00000000
1.13622419 0.00435374 -0.00434484 1.00000000
0.36321791 0.00259243 0.00102113 1.00000000
4.05147616 -0.00064225 -0.00269483 1.00000000
2.52755900 -0.00069574 -0.00046210 1.00000000
3.30200843 -0.00167658 0.00256065 1.00000000
1.17116243 0.00147834 0.00444984 1.00000000
1.04516517 0.00264957 0.00160653 1.00000000
0.07364873 0.00100307 0.00289248 1.00000000
4.18867541 0.00226396 0.00358154 1.00000000
0.62604721 0.00085260 0.00271932 1.00000000
1.54086611 -0.00165798 0.00465290 1.00000000
3.06278469 0.00238679 -0.00168209 1.00000000
2.92059937 -0.00267181 0.00165925 1.00000000
4.08204095 0.00102396 -0.00034667 1.00000000
2.99688912 -0.00045510 0.00446192 1.00000000
0.06218503 -0.00257406 0.00134307 1.00000000
2.11765587 0.00283406 0.00044598 1.00000000
4.13816320 0.00166918 -0.00446502 1.00000000
1.54013525 0.00170936 0.00167016 1.00000000
4.14642050 -0.00414532 -0.00071683 1.00000000
1.58189877 0.00398208 -0.00169888 1.00000000
2.67512495 0.00017766 -0.00062711 1.00000000
1.02383041 0.00281757 0.00405268 1.00000000
1.69608864 -0.00030179 0.00115520 1.00000000
3.10069979 0.00162516 0.00338202 1.00000000
1.12126595 -0.00092281 0.00114653 1.00000000
1.31481232 0.00156226 0.00441377 1.00000000
1.94853159 0.00089448 -0.00240039 1.00000000
0.95518398 -0.00134964 0.00493150 1.00000000
1.56417506 0.00134081 -0.00347491 1.00000000
0.02167423 -0.00012523 0.00046558 1.00000000
0.98067747 -0.00374218 0.00018870 1.00000000
0.04761742 0.00143838 -0.00087937 1.00000000
0.92990716 0.00442796 -0.00245240 1.00000000
0.17581190 -0.00178492 0.00011562 1.00000000
2.55646878 0.00004686 0.00091477 1.00000000
0.81077313 -0.00275123 -0.00365207 1.00000000
3.84422883 -0.00011657 0.00036751 1.00000000
1.73959630 0.00178602 0.00448811 1.00000000
0.29125606 0.00028117 -0.00457432 1.00000000
0.52821081 0.00132213 -0.00146149 1.00000000
1.16143106 -0.00074203 -0.00220974 1.00000000
1.17419011 0.00319637 -0.00244232 1.00000000
1.85195231 0.00479525 0.00326136 1.00000000
2.45144227 0.00024280 0.00138533 1.00000000
3.21101495 -0.00051494 0.00078086 1.00000000
3.30815699 -0.00037829 -0.00050584 1.00000000
0.32465078 -0.00545031 0.00069702 1.00000000
2.78618394 0.00570171 0.00214974 1.00000000
4.49693855 -0.00095086 0.00006633 1.00000000
2.00824432 -0.00422195 -0.00057847 1.00000000
2.25826710 0.00064585 0.00682058 1.00000000
3.15483506 0.00223614 0.00110501 1.00000000
0.63790915 -0.00477278 -0.00107214 1.00000000
2.66987811 0.00090770 -0.00066257 1.00000000
0.62906137 -0.00022087 -0.00190152 1.00000000
2.96688419 -0.00030040 -0.00027295 1.00000000
2.78363168 -0.00105738 -0.00265790 1.00000000
4.18970090 -0.00540724 0.00104457 1.00000000
2.16910860 0.00072157 -0.00164513 1.00000000
3.65176129 0.00454953 -0.00099906 1.00000000
2.96824109 0.00184396 -0.00069755 1.00000000
0.08476749 -0.00364773 -0.00022512 1.00000000
3.17669341 0.00282237 0.00062243 1.00000000
2.61755054 0.00079946 0.00198725 1.00000000
4.27989082 0.00072627 -0.00346698 1.00000000
3.43055746 -0.00082924 -0.00058601 1.00000000
1.68211851 0.00276832 -0.00141018 1.00000000
0.63447027 0.00186721 -0.00189986 1.00000000
0.93693125 0.00578219 -0.00225187 1.00000000
4.38543633 -0.00250759 0.00132022 1.00000000
2.38279355 0.00346083 -0.00082782 1.00000000
4.38241836 -0.00101747 0.00170217 1.00000000
4.02005823 0.00291530 -0.00230313 1.00000000
0.22412897 0.00319565 0.00092956 1.00000000
0.07710773 0.00214128 0.00110752 1.00000000
1.12354840 0.00046829 -0.00186430 1.00000000
1.82995911 0.00084588 -0.00439995 1.00000000
3.39323230 0.00161091 0.00187329 1.00000000
4.30751394 -0.00121746 0.00023095 1.00000000
1.76785905 -0.00310880 -0.00093463 1.00000000
1.55568891 0.00282735 -0.00169878 1.00000000
0.05374239 0.00244348 0.00185601 1.00000000
1.86477954 0.00072223 -0.00424908 1.00000000
4.32967900 -0.00496978 0.00456898 1.00000000
2.94203272 0.00088040 0.00073258 1.00000000
2.83292010 -0.00016971 0.00283153 1.00000000
3.15697805 -0.00398799 -0.00003545 1.00000000
3.00191091 0.00025096 -0.00399928 1.00000000
0.63364946 0.00108370 0.00592973 1.00000000
1.84976965 0.00380769 -0.00563214 1.00000000
1.47941623 0.00434531 -0.00227181 1.00000000
0.39381035 -0.00043555 -0.00213089 1.00000000
2.72669692 0.00253602 0.00167892 1.00000000
0.80057048 -0.00346952 0.00302873 1.00000000
3.55787739 -0.00331715 -0.00268491 1.00000000
1.56239117 -0.00256723 -0.00015012 1.00000000
1.84383665 0.00117409 0.00572694 1.00000000
3.86976361 0.00366207 -0.00215495 1.00000000
3.57814024 0.00294667 -0.00232700 1.00000000
0.01232241 0.00058250 0.00501575 1.00000000
2.99747269 0.00166123 0.00174506 1.00000000
0.69757490 0.00010369 0.00012543 1.00000000
0.85579676 0.00233755 -0.00154448 1.00000000
1.62490445 -0.00069938 -0.00202287 1.00000000
2.02920680 0.00203660 -0.00241281 1.00000000
0.07201441 -0.00222176 0.00348116 1.00000000
0.84778507 0.00134271 -0.00263538 1.00000000
0.64121449 -0.00299488 -0.00635947 1.00000000
4.17529560 -0.00008533 -0.00156898 1.00000000
2.88055404 -0.00380286 -0.00010044 1.00000000
4.17800316 -0.00042321 -0.00449221 1.00000000
2.75183542 -0.00103739 -0.00172660 1.00000000
2.03954173 -0.00057428 -0.00046433 1.00000000
1.21472942 -0.00032045 -0.00108868 1.00000000
0.79178855 0.00444967 0.00116874 1.00000000
0.96606006 -0.00306937 0.00137927 1.00000000
3.21309069 0.00353110 -0.00072735 1.00000000
0.34255494 0.00249093 0.00214469 1.00000000
1.96948565 0.00040413 0.00137941 1.00000000
2.65449030 -0.00065050 0.00174636 1.00000000
2.17373375 -0.00187160 -0.00570705 1.00000000
2.31027264 0.00324787 0.00076071 1.00000000
3.66867827 0.00192575 0.00358011 1.00000000
0.63287246 -0.00249470 0.00203566 1.00000000
1.03724099 -0.00365196 -0.00031371 1.00000000
0.20229725 0.00216075 -0.00623115 1.00000000
2.38431810 -0.00201761 0.00551422 1.00000000
1.56504546 0.00325417 0.00171462 1.00000000
4.09248610 0.00392057 -0.00258335 1.00000000
2.34796226 -0.00393228 -0.00128310 1.00000000
2.00451048 0.00013629 0.00110820 1.00000000
2.73420513 0.00138424 -0.00086589 1.00000000
4.02472747 0.00046637 -0.00030329 1.00000000
0.00827066 0.00032827 0.00044170 1.00000000
3.92128920 0.00124784 -0.00281123 1.00000000
3.28875316 0.00145194 0.00181656 1.00000000
3.85820403 0.00370198 0.00023676 1.00000000
3.77185997 0.00156621 0.00157194 1.00000000
1.12768745 -0.00026102 -0.00189928 1.00000000
0.26327136 -0.00114601 0.00065616 1.00000000
0.23719886 0.00043787 -0.00182909 1.00000000
3.29139695 -0.00264619 0.00340036 1.00000000
3.28870975 0.00024572 -0.00144059 1.00000000
3.50655672 -0.00347605 0.00245230 1.00000000
2.37282745 0.00185645 -0.00252409 1.00000000
0.67585765 0.00170577 -0.00040013 1.00000000
3.00043856 -0.00068478 -0.00251061 1.00000000
1.82962308 0.00090613 -0.00131840 1.00000000
1.57998759 0.00051797 -0.00103917 1.00000000
1.67014977 0.00304161 -0.00705235 1.00000000
4.19205163 -0.00161025 -0.00526456 1.00000000
4.38737674 0.00144231 0.00007647 1.00000000
4.07839334 0.00026054 0.00145795 1.00000000
3.22082541 0.00093504 -0.00399728 1.00000000
1.41723276 0.00122296 -0.00302913 1.00000000
1.65747991 -0.00010466 0.00682624 1.00000000
0.53096466 -0.00046183 0.00041529 1.00000000
4.29120286 -0.00038092 -0.00414560 1.00000000
4.13693672 0.00069954 0.00493212 1.00000000
3.19559598 -0.00365295 0.00133175 1.00000000
1.94007559 -0.00143964 -0.00069266 1.00000000
3.44594857 -0.00743665 0.00026056 1.00000000
2.22185226 0.00079377 0.00223722 1.00000000
1.54713452 0.00394398 -0.00368217 1.00000000
0.18904906 -0.00070167 0.00192641 1.00000000
3.57980041 -0.00072518 0.00328590 1.00000000
0.52186178 0.00249599 -0.00001827 1.00000000
0.40282222 0.00160392 -0.00064313 1.00000000
0.63883410 -0.00402959 -0.00116620 1.00000000
1.52052375 0.00242436 0.00172990 1.00000000
0.05202444 0.00171449 0.00039289 1.00000000
0.44156884 0.00228465 0.00110902 1.00000000
1.82896622 0.00408827 -0.00047443 1.00000000
0.19463714 0.00493861 -0.00302061 1.00000000
3.34358221 -0.00256404 -0.00101635 1.00000000
1.14802322 -0.00282676 -0.00073500 1.00000000
1.20136791 0.00249395 -0.00186249 1.00000000
1.19934492 -0.00077874 0.00204975 1.00000000
0.99562759 0.00232586 0.00120864 1.00000000
4.07778399 0.00232954 -0.00120978 1.00000000
3.31033842 -0.00406613 -0.00054437 1.00000000
1.23951313 0.00281652 0.00253459 1.00000000
0.59514075 0.00399261 -0.00200481 1.00000000
2.55833779 0.00322597 0.00094361 1.00000000
1.67262938 -0.00257574 -0.00306587 1.00000000
2.50563974 0.00026154 0.00035279 1.00000000
4.49317206 -0.00211693 0.00238864 1.00000000
2.03256630 0.00193015 -0.07337825 0.00000000
1.65860226 0.00040659 -0.06786688 0.00000000
0.17968136 0.00024633 -0.11985187 0.00000000
3.11868205 0.00306070 -0.06861986 0.00000000
4.05246607 0.00295099 -0.11661827 0.00000000
2.72964377 0.00068802 -0.02419607 0.00000000
3.70710963 -0.00171583 -0.08518479 0.00000000
1.50212991 -0.00270372 -0.12828417 0.00000000
2.65471847 -0.00293083 -0.03516667 0.00000000
2.57155853 -0.00435072 -0.01954120 0.00000000
1.66056587 -0.00002058 -0.10040270 0.00000000
1.63700182 -0.00230455 -0.07121523 0.00000000
3.11065332 -0.00157773 -0.11220878 0.00000000
0.69457431 -0.00014882 -0.08569370 0.00000000
4.01866024 0.00228730 -0.01055602 0.00000000
2.58368387 0.00093958 -0.06567407 0.00000000
3.22729262 -0.00290797 -0.00615069 0.00000000
1.15073315 0.00069455 -0.11962401 0.00000000
1.49792465 -0.00346693 -0.08200231 0.00000000
3.58127288 -0.00127097 -0.06570612 0.00000000
2.50181725 0.00219177 -0.07826776 0.00000000
1.14749333 -0.00270420 -0.07960749 0.00000000
0.46400377 0.00320691 -0.08074773 0.00000000
3.92669585 -0.00348121 -0.07231884 0.00000000
4.19019443 -0.00037657 -0.07713258 0.00000000
2.87434026 0.00239520 -0.01068005 0.00000000
1.10601218 -0.00130291 -0.06871304 0.00000000
0.74601744 -0.00086225 -0.09589346 0.00000000
3.72862813 -0.00226349 -0.12521638 0.00000000
3.18825533 -0.00332258 -0.02234717 0.00000000
3.92825518 0.00003228 -0.03575325 0.00000000
2.59556678 -0.00318057 -0.12044104 0.00000000
0.98310378 -0.00359224 -0.11633589 0.00000000
0.73508578 -0.00432496 -0.08869562 0.00000000
1.47102854 -0.00412784 -0.00886597 0.00000000
1.01620239 -0.00093022 -0.01983101 0.00000000
0.62755452 0.00109252 -0.08092944 0.00000000
4.29032640 0.00225367 -0.06990746 0.00000000
4.44969914 -0.00204388 -0.03539244 0.00000000
3.82846299 -0.00207596 -0.02579177 0.00000000
0.53904690 0.00308710 -0.07882531 0.00000000
3.87097265 -0.00102374 -0.01599718 0.00000000
