4.144732 0.793514 -0.001008 0.0
3.249149 1.875507 0.001157 0.0
1.575851 1.682704 0.000914 0.0
0.120584 2.079785 -0.001745 0.0
1.498181 0.908056 -0.000654 0.0
0.880102 1.260880 0.000657 0.0
3.342685 0.777723 0.000671 0.0
3.726448 1.434040 -0.000281 0.0
2.165959 1.025543 0.001199 0.0
1.386051 1.244746 0.002894 0.0
1.525639 1.276875 0.000278 0.0
2.023557 1.279231 0.001805 0.0
3.643762 0.882557 0.001485 0.0
0.884844 1.354781 -0.003789 0.0
0.370012 0.564160 0.001242 0.0
2.405782 0.220937 0.002244 0.0
1.803239 1.598081 -0.000241 0.0
4.037900 0.209552 0.002837 0.0
3.198115 1.958663 0.000930 0.0
0.846655 1.227173 -0.000924 0.0
1.043242 1.017202 0.003252 0.0
1.576798 1.064576 0.003900 0.0
1.833865 0.296243 0.000674 0.0
2.398462 1.211628 -0.003426 0.0
3.340257 1.114074 -0.003471 0.0
1.868230 0.601048 -0.002872 0.0
0.205304 0.132798 0.000579 0.0
3.910265 1.963490 -0.000597 0.0
2.638688 1.299801 -0.003991 0.0
3.368187 2.019156 0.004787 0.0
0.932945 0.695464 0.004218 0.0
2.889403 0.071941 -0.003132 0.0
2.384403 0.621452 0.005982 0.0
0.569935 0.526547 0.000005 0.0
2.449165 0.925701 -0.003683 0.0
2.942310 1.881654 -0.002972 0.0
0.318539 0.419354 -0.000419 0.0
0.336989 1.963142 0.002640 0.0
4.193459 0.653003 -0.002579 0.0
1.405644 0.286251 0.003046 0.0
4.030065 1.901556 -0.000930 0.0
2.237185 1.975497 0.001962 0.0
0.531872 1.137711 0.000599 0.0
3.406709 1.775557 0.002742 0.0
0.897139 0.831645 0.000891 0.0
0.197357 1.386696 -0.002084 0.0
1.500975 0.888554 -0.000569 0.0
2.974304 1.087324 0.001753 0.0
2.304618 2.016855 0.003156 0.0
0.069352 1.779874 -0.003663 0.0
4.030171 0.352750 -0.002441 0.0
2.747024 0.669420 -0.001972 0.0
0.248989 1.643837 0.002865 0.0
3.058776 0.749004 0.002853 0.0
1.938990 1.924499 0.001140 0.0
0.555956 1.144981 0.001726 0.0
1.404128 0.510024 0.000319 0.0
0.489967 1.860468 -0.000356 0.0
2.389996 1.203147 0.000380 0.0
0.541327 1.499073 0.001818 0.0
2.514245 0.951721 -0.000577 0.0
0.130786 0.257220 -0.003057 0.0
2.103263 1.686111 0.002981 0.0
4.103683 1.423255 -0.008617 0.0
0.283246 0.445069 0.000928 0.0
3.589680 0.811857 0.000900 0.0
2.140344 0.731843 0.004931 0.0
3.766138 0.023762 0.001791 0.0
3.048244 0.915581 -0.003463 0.0
0.638523 0.693753 -0.000470 0.0
3.678891 2.059208 0.002842 0.0
0.049998 0.665070 -0.005202 0.0
0.682261 1.414128 -0.000780 0.0
3.355635 1.297504 0.002351 0.0
1.371592 0.615433 -0.001929 0.0
2.913934 1.240202 -0.001951 0.0
1.203367 0.742748 -0.000023 0.0
2.409345 1.006849 -0.000034 0.0
4.038861 0.191360 -0.000672 0.0
1.018749 1.933767 -0.003789 0.0
0.286854 0.170743 -0.003452 0.0
2.946387 0.217927 0.000941 0.0
3.093048 1.346567 0.001729 0.0
4.032536 0.933981 0.002560 0.0
3.727001 0.569337 0.000172 0.0
0.161460 1.279884 -0.000914 0.0
3.918197 1.363271 -0.003446 0.0
3.723860 0.511530 0.000076 0.0
1.776886 0.959411 0.003380 0.0
0.932996 1.250167 0.001626 0.0
0.498323 0.264106 -0.001980 0.0
2.062161 2.112811 -0.000107 0.0
0.218832 0.587180 0.001374 0.0
2.454821 2.031472 -0.000579 0.0
1.547647 0.407801 -0.002741 0.0
3.473263 1.410793 0.004337 0.0
2.294563 0.383014 0.000506 0.0
1.220885 1.989789 0.004519 0.0
1.330838 0.981106 -0.001707 0.0
0.389881 1.014477 0.000588 0.0
3.534721 0.738680 -0.001319 0.0
0.356843 0.444270 0.001575 0.0
0.473711 1.459501 0.000621 0.0
1.612050 2.053723 0.000881 0.0
1.040562 1.894979 -0.000477 0.0
1.252378 1.081793 -0.001416 0.0
1.065709 0.802782 -0.000128 0.0
1.709051 1.113798 0.003930 0.0
1.503441 0.915957 0.000466 0.0
2.015612 0.051176 0.004752 0.0
1.139442 0.314001 0.000470 0.0
3.295076 0.122880 0.002020 0.0
3.429027 0.314275 -0.002827 0.0
2.441489 1.667197 -0.003790 0.0
2.902431 0.766151 0.003051 0.0
3.264100 0.240220 -0.000589 0.0
1.374346 1.532257 0.001039 0.0
1.319060 1.451725 0.003430 0.0
0.613921 1.965916 0.000021 0.0
0.819355 0.463699 0.002997 0.0
2.903177 0.338690 0.003331 0.0
1.996413 0.216643 0.000838 0.0
2.322610 0.353993 -0.001435 0.0
3.700250 1.207700 0.000258 0.0
4.167629 0.076301 0.003232 0.0
4.044653 1.708828 0.002041 0.0
4.040801 0.507071 -0.002386 0.0
0.434095 1.736936 0.000330 0.0
0.484745 1.646973 -0.000378 0.0
3.871801 0.692187 -0.001342 0.0
3.180727 0.530218 0.000592 0.0
0.063808 1.329025 0.008128 0.0
1.002373 0.118229 -0.000550 0.0
0.431579 1.018612 -0.001125 0.0
1.401433 2.000266 0.003393 0.0
2.575909 2.038562 -0.001062 0.0
0.068249 0.197153 0.001297 0.0
3.126640 0.157602 0.000073 0.0
0.203823 0.127459 0.000973 0.0
1.518882 1.768590 0.001026 0.0
3.583185 1.931595 -0.000253 0.0
0.599214 0.692107 -0.001421 0.0
4.157659 1.011273 0.000926 0.0
1.294138 0.133459 -0.004955 0.0
3.268634 1.424657 0.001735 0.0
2.946915 2.037244 0.003735 0.0
3.982876 0.809362 0.005536 0.0
2.643554 2.031470 -0.003674 0.0
0.081664 1.444949 0.002333 0.0
2.534696 1.542992 0.001055 0.0
1.949652 1.364729 0.001639 0.0
2.680842 2.063730 -0.002705 0.0
1.068267 1.140909 0.001656 0.0
3.017976 1.684358 -0.003858 0.0
2.982264 0.472823 -0.002291 0.0
4.185342 0.956149 0.000550 0.0
3.354703 0.450724 -0.001511 0.0
1.487750 0.058691 -0.001284 0.0
2.414794 1.009905 -0.002937 0.0
1.972878 0.592259 0.000562 0.0
1.719118 0.471832 0.000605 0.0
3.678780 1.819394 0.001125 0.0
3.024257 1.444341 -0.002280 0.0
2.396425 1.179925 0.003021 0.0
3.637190 1.719799 0.003694 0.0
3.877723 1.252821 -0.001401 0.0
1.886807 0.833787 0.006796 0.0
3.819100 1.560638 -0.002611 0.0
2.222236 0.101585 -0.001811 0.0
3.591022 0.640497 0.000834 0.0
2.885548 0.136857 0.000409 0.0
0.934051 0.727862 -0.001399 0.0
3.091252 1.851878 -0.002546 0.0
1.077891 0.700338 -0.002140 0.0
1.976001 0.032860 -0.000298 0.0
3.717144 1.423802 -0.001715 0.0
3.330318 0.370664 0.001414 0.0
3.961555 1.976299 -0.001392 0.0
2.884512 0.568299 0.003575 0.0
2.681794 0.180629 -0.001605 0.0
1.404733 1.995954 0.002690 0.0
3.464238 1.172405 0.001263 0.0
3.181821 1.832594 -0.004459 0.0
3.158030 1.355985 0.001857 0.0
1.649408 0.670739 0.002327 0.0
1.816305 1.711953 0.004878 0.0
1.195915 1.886017 -0.001504 0.0
1.177505 2.115410 0.000175 0.0
1.122554 0.136770 -0.001090 0.0
3.176489 1.984432 0.000181 0.0
1.657052 0.865598 -0.002685 0.0
3.605370 1.521537 0.000702 0.0
1.360665 1.757526 0.003009 0.0
2.466896 0.195869 -0.000879 0.0
0.931543 0.561699 0.000475 0.0
4.010482 0.221762 0.001632 0.0
3.868812 1.356674 0.006386 0.0
4.135856 0.926475 -0.000827 0.0
0.298777 1.988261 0.000549 0.0
3.262604 0.289161 -0.003404 0.0
0.547132 0.025881 0.002234 0.0
3.445154 1.235904 -0.001445 0.0
1.333525 0.013500 0.001059 0.0
0.285187 1.409375 -0.003113 0.0
2.781891 2.007679 0.004405 0.0
2.668933 1.372866 -0.001384 0.0
3.867494 0.881404 0.000117 0.0
4.218006 0.236894 -0.000591 0.0
2.805184 0.020691 0.001985 0.0
3.281638 2.108611 -0.000966 0.0
2.950654 0.552393 -0.000945 0.0
3.120845 0.801207 0.000157 0.0
3.282608 1.260613 -0.005362 0.0
3.889466 1.554967 -0.001501 0.0
2.844035 1.901390 0.001099 0.0
3.674483 0.433699 0.000733 0.0
2.130234 0.150373 -0.003578 0.0
1.459802 1.662651 -0.001424 0.0
0.783110 1.036058 -0.003785 0.0
2.896940 1.931837 0.003414 0.0
0.190891 1.977025 -0.004066 0.0
1.746650 1.056818 -0.004256 0.0
3.854473 0.638055 0.002913 0.0
0.047477 0.067018 -0.003008 0.0
3.769536 1.384435 -0.006559 0.0
2.804151 1.056240 0.001670 0.0
1.230325 2.107952 0.002332 0.0
0.020749 0.121508 0.000970 0.0
0.584095 1.233750 -0.000552 0.0
4.037014 0.189750 0.001495 0.0
2.462269 0.596588 -0.001663 0.0
1.906224 1.388607 0.000530 0.0
3.709906 0.008684 -0.001326 0.0
2.962189 2.012438 0.000853 0.0
4.056741 0.340738 0.003569 0.0
1.561979 2.005322 -0.002804 0.0
2.541118 1.907906 -0.003758 0.0
2.587717 0.999611 0.002789 0.0
2.605743 0.512026 0.004203 0.0
0.077674 0.843853 0.001868 0.0
3.305118 0.427629 -0.000503 0.0
3.327766 1.976125 0.003387 0.0
3.813857 1.097732 -0.000272 0.0
4.004721 1.650876 0.005025 0.0
2.237749 0.252495 -0.000737 0.0
3.539006 0.749773 0.001061 0.0
2.036797 0.207151 0.001552 0.0
0.568477 0.066955 0.002480 0.0
2.992940 0.566337 0.001148 0.0
3.675733 0.369416 -0.000049 0.0
1.522806 0.598288 0.001168 0.0
3.639771 1.348578 0.001299 0.0
3.410173 1.195417 0.000355 0.0
2.760730 0.635928 -0.001374 0.0
1.882972 0.061530 0.002112 0.0
0.312229 0.485448 -0.000902 0.0
0.501300 1.986460 0.007128 0.0
3.525424 1.847992 -0.004343 0.0
3.623599 0.907951 -0.001345 0.0
4.089207 1.884601 0.000513 0.0
0.936825 0.479277 0.001251 0.0
2.111161 1.249538 -0.000578 0.0
0.689607 0.976586 0.001859 0.0
1.789671 1.636907 -0.001273 0.0
0.591379 0.410618 0.002784 0.0
2.251059 0.667784 0.000438 0.0
0.350080 0.444582 -0.001060 0.0
3.350380 1.974263 -0.000592 0.0
2.001807 0.394597 -0.000895 0.0
1.110968 1.577141 0.002088 0.0
2.366299 1.401366 -0.001527 0.0
3.905023 1.609607 0.006203 0.0
0.565229 2.084727 0.001598 0.0
0.760998 0.861524 -0.002692 0.0
3.671716 0.236629 -0.000492 0.0
1.597552 1.394733 0.002725 0.0
1.519554 1.597092 -0.003344 0.0
1.596551 1.391816 0.000606 0.0
2.451646 1.293467 -0.003014 0.0
1.787166 2.099411 -0.001098 0.0
2.508980 0.624278 -0.002912 0.0
0.342901 1.866178 0.004561 0.0
3.170800 1.310654 0.004649 0.0
0.500925 0.609212 -0.001047 0.0
2.846242 2.013639 0.002662 0.0
1.830633 1.864268 -0.002418 0.0
0.580009 1.016225 -0.001673 0.0
0.125625 0.324105 -0.000741 0.0
3.204399 0.156264 -0.002736 0.0
1.211011 0.916166 0.001156 0.0
1.086676 1.542580 -0.001575 0.0
2.847779 0.198672 0.000324 0.0
0.123203 0.718562 -0.004044 0.0
2.981654 2.032812 -0.001741 0.0
1.956450 0.789653 -0.001136 0.0
0.906602 2.095186 0.004213 0.0
1.717405 1.954807 0.001914 0.0
2.347787 1.706868 0.003241 0.0
4.216595 0.542062 0.001733 0.0
1.277386 1.992129 0.005925 0.0
1.543534 0.396532 -0.001825 0.0
3.324543 0.359458 -0.004963 0.0
0.910781 1.928944 -0.001079 0.0
0.286476 1.876803 0.001539 0.0
3.139271 1.128156 0.001311 0.0
2.605130 2.088404 -0.000877 0.0
3.082801 1.993929 0.003924 0.0
3.481523 0.659119 -0.002762 0.0
2.556667 1.878071 0.002633 0.0
2.336490 0.023876 0.002571 0.0
0.063127 0.947300 -0.004580 0.0
3.579355 0.076929 -0.000049 0.0
0.580409 1.838613 -0.000013 0.0
3.542835 0.809484 -0.004327 0.0
0.481876 2.062110 -0.000185 0.0
0.848257 1.439847 -0.002646 0.0
4.044750 0.085118 -0.000841 0.0
0.532128 1.748293 -0.003294 0.0
2.805749 1.017063 -0.003574 0.0
2.279458 1.656128 -0.003922 0.0
3.075413 1.985728 -0.003533 0.0
3.233261 1.269684 0.000758 0.0
3.793080 0.487925 0.001111 0.0
1.149489 2.071336 0.004622 0.0
1.573484 1.662697 -0.001961 0.0
1.818658 1.792755 -0.002300 0.0
0.832827 1.234745 0.003160 0.0
0.012345 0.380650 0.000786 0.0
2.087430 1.969604 -0.000481 0.0
0.539835 0.397302 -0.001677 0.0
3.378891 1.730842 -0.003103 0.0
0.540736 0.878050 0.003914 0.0
1.213406 1.480975 0.001325 0.0
2.104804 0.591061 0.001593 0.0
3.011866 0.772292 -0.000248 0.0
2.144015 1.763099 0.003622 0.0
1.682883 2.097483 0.008331 0.0
0.633524 1.787818 -0.000341 0.0
3.245160 0.701927 0.003194 0.0
1.846239 2.024260 0.001555 0.0
1.889917 1.203776 -0.001712 0.0
0.690744 0.018744 -0.002167 0.0
1.485344 0.895174 -0.002229 0.0
0.288184 1.634711 0.000929 0.0
1.118303 0.184331 0.002377 0.0
1.064070 2.114763 -0.000444 0.0
1.196913 1.430364 0.000496 0.0
2.890036 0.592112 0.001773 0.0
2.022581 0.279537 -0.004900 0.0
1.492850 1.115209 -0.000433 0.0
3.851053 0.090176 -0.000663 0.0
2.081662 1.130085 0.004521 0.0
1.063259 1.922679 -0.001605 0.0
1.856025 1.509066 -0.001698 0.0
0.168529 0.688175 -0.003235 0.0
0.375800 0.024509 0.001134 0.0
4.076242 1.378689 0.002970 0.0
2.781218 0.369061 0.001810 0.0
2.696670 1.381913 0.001619 0.0
0.961956 1.116643 0.005724 0.0
0.508234 0.900133 0.001535 0.0
3.497076 1.838884 0.000911 0.0
3.647789 0.914324 -0.001415 0.0
3.203519 1.921227 0.001280 0.0
0.783487 1.288175 0.003777 0.0
1.419353 1.084272 -0.004765 0.0
0.935575 0.320784 0.004520 0.0
2.437793 1.051947 0.001350 0.0
0.558958 0.416493 0.002333 0.0
1.392525 0.390224 -0.004971 0.0
3.954048 0.385028 -0.001481 0.0
3.344818 1.182358 -0.001366 0.0
1.219411 0.377219 0.002382 0.0
2.296104 1.790281 0.004933 0.0
4.093947 0.482460 -0.000844 0.0
2.903855 0.364146 -0.000596 0.0
1.883872 1.169560 0.001337 0.0
2.704420 1.125012 -0.000772 0.0
2.615287 0.361065 0.001627 0.0
0.543147 1.870759 0.001904 0.0
2.213196 0.464114 0.001453 0.0
1.391454 0.013955 0.000479 0.0
1.290801 0.492529 -0.000437 0.0
2.522041 0.965909 -0.003751 0.0
1.534157 1.767811 0.001389 0.0
0.045235 1.316936 -0.003558 0.0
3.655744 0.211260 0.000397 0.0
3.311297 1.784553 -0.000080 0.0
4.054361 0.228835 0.004248 0.0
3.918666 0.536709 -0.000407 0.0
2.619909 1.817827 0.001187 0.0
3.007535 1.294821 0.006284 0.0
2.457604 1.575797 -0.000318 0.0
3.978945 0.191657 0.000504 0.0
3.508646 2.030944 0.001352 0.0
2.427367 1.433094 -0.001662 0.0
0.230150 1.394781 0.003523 0.0
0.292600 1.460765 -0.001570 0.0
2.506918 0.641788 0.000740 0.0
0.104382 0.275428 -0.000284 0.0
2.393499 0.742793 0.005185 0.0
1.029882 0.135862 0.001054 0.0
1.242165 0.988188 0.001341 0.0
3.261251 1.013713 0.000015 0.0
0.643377 2.079188 -0.004547 0.0
2.174651 1.118257 -0.003710 0.0
3.337310 0.659224 -0.001900 0.0
1.272244 2.069983 -0.000155 0.0
1.950939 0.987966 -0.002525 0.0
0.821402 0.831627 0.003847 0.0
2.120538 1.806297 0.004564 0.0
0.289914 1.590148 -0.001819 0.0
1.404282 1.358096 -0.001188 0.0
1.657860 1.133440 0.004651 0.0
1.454214 0.398103 0.002321 0.0
3.793936 2.060066 -0.000037 0.0
4.216713 1.790629 -0.001482 0.0
4.121844 1.639034 0.001495 0.0
3.924360 1.414300 -0.000286 0.0
2.612567 1.752920 0.000454 0.0
4.230047 0.342877 0.000858 0.0
4.178183 0.663095 -0.002755 0.0
2.889351 1.783054 0.000784 0.0
3.283616 2.052188 -0.000035 0.0
1.140961 1.189836 -0.000677 0.0
1.033147 1.283601 -0.003224 0.0
1.395092 0.296796 -0.001183 0.0
0.284224 0.553786 -0.002499 0.0
2.997959 1.260837 0.002489 0.0
2.820804 2.052784 -0.003882 0.0
3.450946 1.152617 -0.002251 0.0
1.634565 1.655896 -0.004593 0.0
0.497390 1.150943 -0.000868 0.0
3.481933 2.094252 0.004529 0.0
0.427580 0.216885 0.000458 0.0
2.050573 1.573818 -0.001039 0.0
1.172314 0.753073 0.000778 0.0
2.994757 1.916126 -0.001733 0.0
3.008981 0.493973 0.003928 0.0
0.754210 0.562792 0.004483 0.0
3.909185 1.867724 -0.000351 0.0
4.113655 0.070572 0.003980 0.0
2.679382 1.191222 -0.000501 0.0
3.221247 1.465798 0.001404 0.0
3.541158 0.892879 -0.002927 0.0
0.516651 0.792542 0.001460 0.0
1.931183 1.824941 -0.001398 0.0
0.502967 2.116139 0.002497 0.0
2.785690 1.647400 0.001905 0.0
0.996231 1.336812 0.000298 0.0
0.207091 0.728409 0.001792 0.0
2.074350 0.182530 0.000249 0.0
0.163675 1.971847 0.002283 0.0
2.693675 0.521011 0.001866 0.0
3.046410 1.135304 -0.001257 0.0
0.203618 0.958531 0.001888 0.0
1.671893 0.771190 0.000854 0.0
2.846505 1.490985 -0.001513 0.0
1.923402 1.703411 0.000188 0.0
2.161922 1.671760 -0.001819 0.0
3.733381 1.348084 -0.002944 0.0
1.589140 1.253578 -0.000297 0.0
3.040526 0.256834 -0.002783 0.0
0.507141 1.305847 0.000478 0.0
3.837648 1.699810 0.004080 0.0
2.047296 0.782402 0.002145 0.0
3.965644 1.301945 -0.003066 0.0
3.462629 1.848050 -0.003648 0.0
2.370263 0.613215 0.002688 0.0
3.229369 0.139828 -0.000047 0.0
1.253075 1.096682 0.003198 0.0
1.792614 1.361165 0.001446 0.0
2.319182 1.626611 -0.001177 0.0
1.609997 1.714316 0.001151 0.0
1.979682 1.795335 -0.000910 0.0
1.832006 1.532523 0.000091 0.0
3.155748 0.345089 0.000113 0.0
2.004997 1.597459 -0.005791 0.0
1.742479 0.004187 -0.001051 0.0
3.049888 1.245621 -0.001042 0.0
4.006141 0.907711 0.000944 0.0
3.919579 0.369575 0.002993 0.0
3.598443 0.316171 0.003336 0.0
1.002591 1.715060 0.000948 0.0
0.068133 1.808916 0.001997 0.0
3.323092 0.080047 -0.002917 0.0
0.826611 1.926453 -0.004073 0.0
1.176053 0.189094 -0.002176 0.0
1.048609 1.728546 -0.000685 0.0
2.565319 0.311221 -0.004246 0.0
3.688240 0.280597 -0.004395 0.0
0.091352 0.607352 -0.005086 0.0
3.897883 1.949016 0.003905 0.0
3.076382 0.398278 0.000825 0.0
2.550472 1.872890 0.001286 0.0
2.915978 0.666729 -0.000481 0.0
0.404421 1.627709 -0.002180 0.0
2.919119 0.938719 0.000898 0.0
0.676925 1.169460 0.001754 0.0
4.198695 0.626886 -0.001387 0.0
0.076395 1.877991 -0.003890 0.0
2.189830 0.316181 0.001554 0.0
2.251877 0.871152 -0.002074 0.0
2.223954 1.047145 0.001444 0.0
0.220976 1.503191 0.000089 0.0
3.278853 0.578541 0.001522 0.0
3.392311 0.269692 0.000510 0.0
0.441080 1.040019 -0.000920 0.0
4.034866 1.256980 -0.001238 0.0
1.149062 1.740431 0.001200 0.0
1.737186 1.655789 -0.001610 0.0
0.885948 2.103073 -0.004978 0.0
3.373423 1.978811 -0.000589 0.0
1.040385 0.747263 0.002254 0.0
3.878157 1.249868 -0.003280 0.0
0.750566 0.165509 -0.000072 0.0
0.332149 1.715657 0.003187 0.0
0.272679 0.987810 -0.001462 0.0
2.554371 1.911259 -0.001296 0.0
0.630556 0.251051 0.004627 0.0
1.494990 1.183105 -0.002704 0.0
0.922708 0.237920 0.002738 0.0
2.889243 0.085756 -0.000837 0.0
4.213633 0.396053 0.004313 0.0
0.189283 1.627211 -0.003245 0.0
1.611913 1.097463 -0.000586 0.0
3.407898 1.587713 -0.000544 0.0
3.150318 1.624682 0.002250 0.0
3.958417 1.389422 0.001909 0.0
1.489752 0.206465 -0.000733 0.0
3.285298 1.950736 0.003430 0.0
2.548490 0.905264 0.003114 0.0
1.043353 0.266500 -0.002479 0.0
2.545599 0.031824 -0.002156 0.0
1.079994 0.539334 0.001002 0.0
3.747897 1.928542 -0.002008 0.0
3.283703 0.518653 -0.007233 0.0
2.462678 2.023652 -0.002494 0.0
3.301868 1.820801 0.000651 0.0
2.721484 1.998691 0.001951 0.0
1.549799 0.997309 -0.002993 0.0
1.288140 1.452048 0.001288 0.0
3.925796 1.484194 0.003906 0.0
1.844649 0.746857 0.003091 0.0
2.689440 1.439182 -0.000285 0.0
2.260672 1.955965 -0.003141 0.0
3.339158 0.011192 -0.000430 0.0
0.197054 0.738786 0.002595 0.0
2.374498 1.683224 0.000174 0.0
1.308083 1.413084 -0.001988 0.0
3.182482 1.275943 -0.001033 0.0
1.550148 1.035828 -0.001175 0.0
0.530770 0.812657 -0.000307 0.0
0.589340 0.911060 0.003662 0.0
0.038695 0.900317 -0.001034 0.0
1.763405 1.700631 -0.006119 0.0
0.968845 0.254032 -0.004788 0.0
3.025569 1.967637 0.001457 0.0
1.080884 1.707388 -0.004866 0.0
0.479455 1.198328 -0.001368 0.0
0.103399 0.340025 0.000612 0.0
1.099627 0.533230 -0.001906 0.0
2.596725 0.258842 -0.001125 0.0
3.491426 1.835851 0.000760 0.0
0.690134 0.287767 -0.000346 0.0
0.166801 0.174735 0.001491 0.0
2.659585 1.787630 -0.001239 0.0
3.410561 0.525919 -0.004393 0.0
0.843153 0.754305 -0.000549 0.0
1.526903 1.599604 -0.003574 0.0
1.987975 0.866359 0.001142 0.0
4.171873 0.534155 -0.001360 0.0
2.368564 0.570045 -0.001248 0.0
1.805036 1.788259 0.002835 0.0
2.772514 1.809348 -0.004456 0.0
0.283323 0.996876 -0.000800 0.0
1.877254 1.876986 -0.000715 0.0
0.811586 0.675474 -0.001382 0.0
2.395041 0.270985 -0.004475 0.0
1.895571 0.270485 0.002018 0.0
3.656732 0.908375 -0.002718 0.0
2.077305 0.121765 -0.003957 0.0
0.883651 0.632746 0.000261 0.0
0.919161 0.355162 -0.002057 0.0
1.988508 1.710225 -0.003366 0.0
4.070304 1.218283 -0.002225 0.0
2.859685 1.920446 -0.001382 0.0
3.330055 1.251512 -0.000101 0.0
1.195135 0.689949 -0.001103 0.0
1.113662 0.836485 0.001546 0.0
1.199024 0.356382 -0.000536 0.0
4.046618 1.044544 0.001391 0.0
0.399663 0.222278 -0.005203 0.0
3.641101 1.068419 -0.000685 0.0
2.660528 1.607974 0.001760 0.0
2.261609 1.442307 -0.000785 0.0
4.226029 0.665355 -0.001930 0.0
3.321943 1.222616 -0.000943 0.0
2.567717 1.034848 -0.000837 0.0
1.631294 1.944508 0.000917 0.0
1.538844 1.765611 -0.000496 0.0
1.753683 1.061111 0.001903 0.0
3.115731 0.586585 -0.000236 0.0
1.144804 1.492839 0.003236 0.0
0.275460 0.108006 0.005288 0.0
0.513293 1.725505 -0.000501 0.0
0.219309 0.685695 -0.000613 0.0
1.548154 2.080303 0.000573 0.0
1.921584 1.183200 0.003547 0.0
1.731755 0.310057 -0.004426 0.0
3.864424 1.547083 -0.000510 0.0
3.485719 0.455729 -0.001943 0.0
0.686022 0.920065 0.006118 0.0
0.876994 2.040408 0.001337 0.0
3.635037 1.862483 -0.005274 0.0
1.458448 0.696628 -0.001251 0.0
2.149357 1.005330 0.003790 0.0
2.054762 1.550569 0.000588 0.0
4.104121 1.638116 0.000357 0.0
0.371100 0.507717 -0.002290 0.0
2.652801 0.170799 -0.002473 0.0
2.777538 1.452380 -0.004319 0.0
2.637758 1.873269 0.001114 0.0
1.037523 0.678551 0.001701 0.0
1.526884 0.144024 -0.001203 0.0
0.392673 1.916317 0.008311 0.0
0.527131 1.363701 0.001635 0.0
2.041392 0.294954 0.000550 0.0
0.323748 0.677316 0.001340 0.0
3.746510 1.719892 0.003595 0.0
2.216605 1.052472 -0.003399 0.0
3.532372 1.645491 0.002342 0.0
0.795408 0.826353 -0.001198 0.0
2.893102 0.733758 0.002834 0.0
2.101530 1.883102 0.001987 0.0
1.755209 0.129637 0.000134 0.0
0.610827 1.000538 0.002999 0.0
2.668748 1.289713 -0.000108 0.0
0.916164 0.252901 -0.001804 0.0
1.792174 0.495168 -0.004956 0.0
3.428217 0.745504 0.001829 0.0
1.701162 1.933024 -0.001519 0.0
3.638076 0.309905 -0.002217 0.0
1.809744 0.365336 0.002828 0.0
4.134359 1.009187 0.000927 0.0
1.691520 2.096577 0.002040 0.0
3.794836 1.981421 -0.005322 0.0
4.140287 2.087879 -0.003797 0.0
0.418425 1.590979 -0.003022 0.0
1.016310 0.602793 -0.001247 0.0
3.071266 1.504459 0.001896 0.0
1.439279 0.692002 0.001566 0.0
2.207061 0.710773 0.003011 0.0
1.625521 1.595421 0.000121 0.0
2.799036 1.280102 -0.001148 0.0
3.061575 0.925381 0.002506 0.0
3.469668 2.080620 0.001691 0.0
3.590718 0.816726 0.001559 0.0
0.077669 1.347986 0.000162 0.0
1.294212 0.948506 -0.000957 0.0
0.499415 0.961956 -0.000656 0.0
0.667797 1.882499 -0.001217 0.0
1.622872 0.430662 0.002307 0.0
1.809715 1.935065 0.000484 0.0
1.416737 1.048904 -0.005453 0.0
3.366783 0.709647 0.000188 0.0
3.344160 1.516879 0.003315 0.0
4.045418 1.484069 0.000847 0.0
0.263699 1.050199 -0.000442 0.0
3.291241 1.392268 -0.000489 0.0
4.115523 0.156629 -0.001402 0.0
0.597518 0.671177 0.002773 0.0
0.326821 2.117195 0.000439 0.0
1.856505 0.166978 0.003160 0.0
3.107708 0.327134 -0.001521 0.0
2.312758 1.773122 0.001380 0.0
0.151148 0.696744 0.004362 0.0
3.406991 1.201757 0.000086 0.0
1.434114 2.113460 -0.002633 0.0
2.904507 0.461670 -0.002309 0.0
2.296051 2.099433 0.000443 0.0
1.892462 0.094573 0.001693 0.0
3.511829 1.496521 0.000273 0.0
0.694741 2.021377 0.000493 0.0
1.684943 1.457244 0.000910 0.0
2.064006 1.206236 -0.000806 0.0
1.437112 0.833085 -0.000458 0.0
4.188456 0.517586 -0.000475 0.0
2.852153 1.905618 0.001826 0.0
2.664567 1.644110 0.002262 0.0
2.696559 1.740023 -0.001304 0.0
0.942317 0.772047 0.001122 0.0
2.114040 1.294616 0.003068 0.0
3.667948 1.928460 -0.001003 0.0
1.840099 1.365145 0.003289 0.0
0.104579 0.404104 0.001241 0.0
1.889082 1.077717 -0.002038 0.0
3.992779 1.637919 -0.000569 0.0
2.256813 0.807250 -0.002513 0.0
2.477137 0.236263 -0.000579 0.0
1.677862 0.994503 0.000724 0.0
1.817311 0.164694 0.001080 0.0
0.679235 1.625839 -0.000688 0.0
2.318563 1.931214 -0.001242 0.0
0.690005 1.159232 0.001969 0.0
0.155156 0.765478 -0.000238 0.0
3.134083 0.711368 -0.001138 0.0
2.963006 1.336156 0.001217 0.0
2.381865 0.034185 0.001289 0.0
0.260237 1.749160 0.002161 0.0
3.577604 2.109457 0.001024 0.0
0.852449 1.915234 0.002578 0.0
2.313794 0.958222 -0.003120 0.0
1.604641 1.568742 0.004358 0.0
1.530819 0.036363 -0.000219 0.0
0.718369 1.173101 -0.002512 0.0
0.064602 0.241376 0.003344 0.0
0.895349 0.914410 0.001178 0.0
1.287400 0.486634 -0.000247 0.0
3.480398 1.890210 -0.003210 0.0
0.456673 1.588256 0.001022 0.0
2.667238 1.939039 0.002690 0.0
1.650896 0.261255 -0.003782 0.0
0.513720 0.853407 0.003672 0.0
3.213789 1.102521 0.003740 0.0
0.705361 1.358713 0.002134 0.0
3.016550 0.534314 -0.001659 0.0
0.208930 1.431753 0.001999 0.0
3.439492 1.949116 0.002159 0.0
2.811568 0.452720 -0.001995 0.0
1.638721 0.276783 -0.000882 0.0
1.924098 1.599970 0.003010 0.0
3.812866 1.515134 -0.001954 0.0
0.655226 2.101079 -0.002447 0.0
0.042358 1.029843 0.002339 0.0
0.967082 1.876728 -0.000932 0.0
1.054765 0.455229 -0.003158 0.0
0.626378 1.640410 0.000847 0.0
0.849812 0.208624 -0.000174 0.0
0.805942 1.268615 -0.001080 0.0
0.850256 0.937982 0.002200 0.0
2.583314 1.244993 0.000417 0.0
0.641346 1.260151 -0.002425 0.0
2.342796 0.915133 0.002200 0.0
0.578655 1.492741 0.000145 0.0
0.776874 0.963705 0.002793 0.0
2.383620 1.536299 0.001277 0.0
1.069245 0.158402 0.000503 0.0
4.073900 0.937272 -0.000677 0.0
4.085575 0.861478 -0.001958 0.0
2.435437 1.284894 -0.002787 0.0
1.748557 1.471334 0.002243 0.0
1.262637 0.307727 0.002511 0.0
1.996152 0.252345 0.004490 0.0
3.774638 1.550199 0.000256 0.0
1.408465 1.974328 0.000676 0.0
2.443377 1.917892 0.000365 0.0
3.507847 1.364088 0.000287 0.0
3.360628 0.037683 -0.004747 0.0
0.392377 0.432531 0.000660 0.0
0.416560 1.422761 -0.001904 0.0
2.814142 1.826516 0.000808 0.0
0.137407 2.121591 -0.002103 0.0
0.046682 1.291905 0.004721 0.0
2.216956 0.866243 -0.003800 0.0
1.935740 0.274310 -0.003806 0.0
0.572974 1.477403 0.001159 0.0
1.949521 1.454218 0.001519 0.0
1.127322 0.104878 0.004926 0.0
3.271453 1.423077 -0.002411 0.0
1.697700 2.117525 -0.003830 0.0
3.358220 0.170002 0.000274 0.0
2.969729 1.798102 0.002660 0.0
2.275616 0.939963 -0.001555 0.0
1.906834 0.264653 -0.003478 0.0
1.353695 0.141421 -0.002225 0.0
0.597770 2.096403 0.000470 0.0
2.954531 1.695148 -0.000355 0.0
3.930694 1.156867 -0.000851 0.0
2.472640 0.431772 -0.000449 0.0
1.326208 0.595717 -0.001049 0.0
1.577914 0.723770 -0.002143 0.0
3.550410 1.007066 0.003064 0.0
0.705494 0.340903 0.000725 0.0
0.384466 0.485310 -0.000233 0.0
3.501572 0.269392 0.004274 0.0
2.963498 1.464040 -0.004508 0.0
3.671883 0.400263 0.003204 0.0
0.849594 1.444857 -0.000869 0.0
1.033106 2.029822 0.000033 0.0
1.035387 0.645355 0.001693 0.0
1.521005 1.961856 -0.001094 0.0
4.193416 1.427397 -0.000916 0.0
3.913492 1.659809 0.002045 0.0
1.889872 1.318241 0.000479 0.0
2.521281 0.840100 -0.005044 0.0
1.734552 0.901095 0.003180 0.0
0.356510 2.082310 0.005525 0.0
2.652504 1.649179 0.003339 0.0
1.951293 1.329920 0.000998 0.0
0.556706 1.381824 0.004636 0.0
0.170829 0.730620 0.001184 0.0
1.486135 0.099042 -0.002155 0.0
3.490069 0.982311 -0.002277 0.0
2.759420 0.254848 -0.007249 0.0
3.958885 1.211216 0.002256 0.0
2.724330 0.655504 0.000062 0.0
3.441379 0.715023 -0.002059 0.0
0.048714 1.914172 0.002994 0.0
0.683808 1.446656 -0.000873 0.0
3.646781 0.275854 0.006579 0.0
4.063917 1.803019 0.000397 0.0
0.499975 0.023883 0.000175 0.0
3.090693 0.785952 0.001790 0.0
3.123740 0.506568 0.004409 0.0
2.555741 2.059396 -0.000759 0.0
2.523377 2.040823 -0.000217 0.0
1.105927 1.937454 0.001718 0.0
1.262138 0.175790 -0.000092 0.0
3.507148 0.688748 -0.003674 0.0
2.167188 0.074664 0.002384 0.0
4.129576 0.296938 0.001205 0.0
0.411339 0.790525 -0.000969 0.0
0.960167 0.617826 -0.001856 0.0
3.700527 0.514508 0.000311 0.0
1.634843 0.115285 0.000544 0.0
2.612317 1.916662 0.000945 0.0
1.953503 0.968759 -0.000436 0.0
3.548540 1.868302 -0.001804 0.0
3.297124 0.702577 0.000329 0.0
3.865547 1.029640 -0.000060 0.0
0.386090 0.959128 -0.001523 0.0
1.016307 0.691536 -0.001137 0.0
0.647299 1.358014 0.001931 0.0
3.777200 0.990926 -0.001377 0.0
2.033086 1.385891 0.000482 0.0
2.929293 1.856963 -0.000982 0.0
1.868161 0.531107 -0.002829 0.0
0.695353 1.567609 -0.002027 0.0
1.792925 0.171019 0.003361 0.0
3.935045 0.811817 -0.004581 0.0
1.115298 1.709213 -0.002905 0.0
0.287102 1.084174 -0.002280 0.0
1.287890 0.564006 0.002977 0.0
2.474702 1.903257 0.003205 0.0
1.879876 1.219409 -0.001358 0.0
0.063136 0.826012 -0.001946 0.0
1.856287 0.737773 0.001300 0.0
1.050448 1.230080 -0.001005 0.0
3.526805 0.980353 -0.002739 0.0
2.381188 0.896316 0.000193 0.0
3.515776 1.857665 0.001444 0.0
3.195765 0.091960 -0.000314 0.0
1.542174 0.462215 0.000059 0.0
2.726103 -0.002430 0.002565 0.0
0.173873 1.011495 -0.003818 0.0
0.077513 0.357380 -0.001482 0.0
0.625316 2.090470 -0.001479 0.0
2.544755 1.085015 0.002459 0.0
2.628727 1.250893 -0.001398 0.0
2.725876 1.555036 -0.000337 0.0
2.275767 0.746630 -0.002167 0.0
2.293466 1.274690 0.003395 0.0
1.325686 0.343474 -0.004384 0.0
1.325912 1.717975 -0.003395 0.0
0.321465 0.908835 -0.001081 0.0
1.821488 2.059939 -0.005515 0.0
2.571963 1.646931 -0.002486 0.0
0.527169 1.617416 0.002850 0.0
2.384182 0.317511 -0.002588 0.0
1.446367 0.399906 -0.000073 0.0
0.754468 1.313502 -0.000235 0.0
0.441194 1.519526 -0.003032 0.0
0.253665 0.744121 -0.001190 0.0
2.874113 2.118847 0.000808 0.0
3.208980 1.841964 -0.003330 0.0
0.554013 1.205624 -0.002405 0.0
2.095144 1.826538 0.001743 0.0
1.408015 1.551233 -0.000352 0.0
3.320131 0.097858 0.001062 0.0
3.889911 1.380500 0.001474 0.0
1.236343 1.955324 0.001244 0.0
3.604640 1.724776 -0.000246 0.0
3.318985 0.117552 0.001842 0.0
2.004124 1.218281 0.003209 0.0
2.303450 1.782031 -0.001723 0.0
1.654733 0.121476 -0.001984 0.0
3.016102 1.023486 -0.000987 0.0
3.795491 0.964178 -0.001715 0.0
3.586591 0.073368 0.001889 0.0
3.236736 1.438139 0.002371 0.0
0.465271 0.162235 0.000469 0.0
3.707277 1.614514 0.001542 0.0
0.321451 1.025720 -0.002405 0.0
1.697437 0.525980 -0.002211 0.0
2.899449 0.026689 0.001443 0.0
2.601582 0.316953 -0.003880 0.0
1.567615 1.162558 0.001515 0.0
4.110001 0.972495 0.001474 0.0
3.853399 2.023311 0.003051 0.0
3.971083 1.510027 -0.000712 0.0
4.000811 1.777401 -0.002490 0.0
1.255284 0.072270 -0.002797 0.0
0.816806 1.626160 -0.001877 0.0
2.619899 0.865999 -0.005099 0.0
3.824303 1.014763 -0.002154 0.0
2.308944 0.171187 -0.005768 0.0
3.779909 0.459290 -0.004131 0.0
2.460898 0.114279 0.002689 0.0
3.530248 1.323011 0.000318 0.0
0.715021 1.374293 0.004122 0.0
0.283888 1.564548 -0.002508 0.0
2.612883 1.257634 -0.001128 0.0
3.598220 1.963988 -0.000296 0.0
1.424667 0.012923 -0.000431 0.0
4.189415 1.802271 0.000824 0.0
3.650548 0.478241 -0.001950 0.0
3.915624 0.594838 -0.003610 0.0
3.521549 2.043166 -0.000691 0.0
4.021099 1.091055 0.004585 0.0
1.560378 1.511657 0.000950 0.0
1.097305 0.873475 0.002613 0.0
2.748827 1.425416 0.001754 0.0
2.660192 1.516793 -0.002783 0.0
0.135910 1.720074 -0.004056 0.0
3.917342 1.974446 0.002734 0.0
3.656499 0.980435 0.000313 0.0
2.513210 0.775643 -0.002483 0.0
1.421529 1.687921 0.000671 0.0
0.210779 0.722903 0.002155 0.0
1.613740 0.580631 0.000787 0.0
3.836343 1.389900 -0.003009 0.0
0.171419 1.506764 -0.001309 0.0
2.775769 0.426054 0.001644 0.0
3.261610 0.848656 -0.002642 0.0
1.928663 1.396108 -0.002921 0.0
1.236032 0.415891 0.001283 0.0
1.679646 1.320797 0.004163 0.0
2.458994 1.035074 -0.001400 0.0
1.179196 1.095528 0.000195 0.0
0.299742 0.345116 0.001021 0.0
2.580010 1.057593 0.001643 0.0
1.617565 0.280429 0.002075 0.0
1.083610 0.880137 0.001758 0.0
3.836040 0.916819 -0.004491 0.0
3.799879 0.719138 0.005070 0.0
1.868093 1.784299 0.000503 0.0
0.948840 1.940670 -0.002045 0.0
0.587064 1.925082 0.005627 0.0
3.948150 2.046900 0.000353 0.0
2.718928 0.268415 0.000557 0.0
0.195461 0.346585 -0.001443 0.0
1.319437 0.714981 0.000150 0.0
0.926752 0.165513 -0.000425 0.0
2.880629 0.712878 -0.002440 0.0
1.311362 1.312976 -0.000900 0.0
3.559995 0.812912 0.000705 0.0
3.689188 1.834259 0.001418 0.0
0.085504 0.134605 0.000365 0.0
0.985235 1.852963 0.000646 0.0
0.801386 0.705761 0.001010 0.0
1.357843 1.789695 0.004476 0.0
2.224784 0.890152 -0.001389 0.0
0.920818 1.933402 -0.004853 0.0
1.659716 0.120899 0.001414 0.0
0.030441 0.381726 0.000009 0.0
2.974529 1.215128 -0.000425 0.0
1.073346 1.611938 0.001204 0.0
4.228714 0.911358 -0.001409 0.0
2.822780 1.490085 0.001292 0.0
0.461767 1.049740 0.000191 0.0
3.785499 0.192584 0.001079 0.0
2.426475 2.054000 0.001999 0.0
2.794474 0.755245 0.002698 0.0
0.551768 2.092716 -0.000985 0.0
0.985713 1.500309 -0.001542 0.0
0.262102 1.271532 -0.002226 0.0
3.622951 1.075345 0.003687 0.0
2.508830 0.807048 0.003721 0.0
2.608528 1.592579 -0.003504 0.0
0.676239 0.908698 -0.000966 0.0
1.648669 1.719974 0.001305 0.0
0.084367 1.047589 0.001296 0.0
0.098248 1.059327 0.002591 0.0
3.443247 1.126639 -0.001435 0.0
0.888040 1.403813 0.000243 0.0
1.214171 1.768623 0.000318 0.0
2.144773 0.158771 0.001785 0.0
3.745500 1.959674 0.001997 0.0
2.179135 1.767992 0.000772 0.0
0.963124 0.541037 0.000561 0.0
2.846268 0.318329 0.000961 0.0
4.221347 0.005630 -0.000110 0.0
2.233143 0.428333 0.001397 0.0
3.129493 1.206755 -0.000014 0.0
2.173178 1.396254 -0.000366 0.0
0.677963 0.824980 -0.001015 0.0
1.317568 0.042670 0.000345 0.0
0.939893 0.392083 -0.001344 0.0
2.618707 1.197428 -0.001211 0.0
1.445055 0.281492 -0.000606 0.0
0.593243 0.268749 -0.003372 0.0
3.837635 2.109999 0.002867 0.0
0.149160 0.963853 0.001518 0.0
1.678902 0.556718 0.001230 0.0
0.189660 1.605087 -0.000324 0.0
2.348397 0.621310 -0.001916 0.0
3.880726 0.098863 0.000931 0.0
2.506700 1.515028 -0.000098 0.0
3.893081 1.336411 -0.004181 0.0
0.705571 1.109876 0.001457 0.0
2.795816 1.163360 0.001726 0.0
1.305874 1.041859 0.000470 0.0
1.727542 0.381842 0.002529 0.0
3.479653 0.974398 -0.001346 0.0
2.817946 1.050648 0.002166 0.0
0.707661 0.232618 0.001711 0.0
0.957087 0.547766 -0.007210 0.0
0.939242 0.538551 0.000776 0.0
2.337154 1.988721 0.002782 0.0
2.050890 1.507983 -0.001297 0.0
2.707887 0.347647 0.000374 0.0
2.183397 0.936209 -0.001440 0.0
3.870748 0.381637 0.001190 0.0
0.821161 0.152981 -0.003184 0.0
3.587173 2.030612 0.004393 0.0
1.351880 1.661002 0.000143 0.0
3.578011 0.147623 -0.000322 0.0
4.040315 1.552379 -0.002367 0.0
0.132709 2.095384 0.001953 0.0
3.015619 1.055864 -0.008709 0.0
3.028719 1.256068 -0.001805 0.0
2.370530 0.296685 -0.002223 0.0
3.957111 0.251368 0.005559 0.0
0.249989 1.465846 -0.002038 0.0
1.983454 0.986236 0.000860 0.0
1.692322 0.816574 -0.002710 0.0
2.697804 1.103120 0.002317 0.0
3.627235 1.809677 -0.000555 0.0
3.876506 0.391803 -0.000370 0.0
3.967778 1.464170 -0.002419 0.0
0.609595 1.713404 -0.001184 0.0
3.985644 1.042233 0.000739 0.0
3.076853 0.085573 0.001207 0.0
1.311846 0.993877 -0.003050 0.0
0.032087 1.001706 -0.003942 0.0
0.776956 1.497724 -0.000365 0.0
1.809695 1.422271 -0.002414 0.0
1.561103 0.746246 0.001814 0.0
1.731042 1.420765 -0.000791 0.0
3.923202 0.768118 -0.000273 0.0
1.552034 1.515279 0.001762 0.0
1.136568 0.236403 0.002326 0.0
0.839966 0.397496 -0.002844 0.0
1.165883 1.721143 0.002923 0.0
1.437572 1.173754 -0.001963 0.0
0.908177 0.389977 -0.002497 0.0
1.374494 0.686790 0.000616 0.0
1.201255 0.670756 -0.002797 0.0
3.798049 1.157690 0.004577 0.0
1.106375 0.651924 -0.000226 0.0
3.225053 0.057033 0.000435 0.0
2.177209 1.384786 0.000897 0.0
3.989884 0.045438 -0.000082 0.0
1.680806 0.523716 -0.003111 0.0
1.650143 0.205782 0.001065 0.0
2.371760 0.443134 0.001435 0.0
2.238543 1.331430 -0.002546 0.0
4.131003 1.140572 0.003726 0.0
3.094207 0.211536 0.000231 0.0
2.800887 1.452000 -0.000892 0.0
4.024434 1.311123 -0.001680 0.0
3.464473 1.412469 0.004070 0.0
3.267453 1.368256 -0.003453 0.0
4.156813 0.895174 -0.002080 0.0
2.995880 0.958205 0.003078 0.0
1.215020 1.647601 -0.001515 0.0
1.451093 0.390221 -0.002502 0.0
3.356523 0.424643 -0.000228 0.0
2.739178 1.001721 -0.000190 0.0
0.516047 1.464565 0.000386 0.0
1.709446 1.933414 0.000874 0.0
1.870944 0.899545 0.000181 0.0
3.580949 1.321470 -0.004386 0.0
1.902092 1.541740 0.000569 0.0
0.619492 1.100777 -0.002810 0.0
2.816085 0.017681 -0.001620 0.0
3.777428 0.072453 -0.002703 0.0
1.476169 0.735471 -0.004287 0.0
0.705604 1.881706 0.003302 0.0
3.409527 1.640154 -0.001402 0.0
1.188870 1.144682 -0.001797 0.0
3.608600 0.642265 0.003645 0.0
0.945208 1.421674 -0.001233 0.0
1.727614 1.894855 0.001063 0.0
0.178029 0.167147 0.000044 0.0
0.644245 1.818317 -0.001825 0.0
2.153845 0.664103 0.000951 0.0
0.060198 0.331415 -0.002786 0.0
1.192234 0.145328 -0.001750 0.0
2.817425 0.640045 0.003170 0.0
1.649343 0.831653 -0.004884 0.0
3.132576 1.261343 -0.001844 0.0
4.190279 1.011532 0.000624 0.0
3.881089 0.890209 -0.001748 0.0
2.493447 0.894073 0.002843 0.0
1.583401 0.203874 -0.000634 0.0
0.187539 1.530821 0.001766 0.0
1.899293 0.883522 0.002985 0.0
1.547179 0.716467 -0.003351 0.0
0.464158 0.420124 0.002204 0.0
0.312252 1.765328 -0.001731 0.0
0.291326 1.857210 0.003936 0.0
1.379327 1.150906 -0.001575 0.0
0.484499 2.023504 0.000946 0.0
2.985893 0.887751 0.002037 0.0
2.736000 1.282717 0.001512 0.0
3.175569 0.390527 0.002048 0.0
4.062926 1.750077 0.000002 0.0
4.182798 1.367506 0.004794 0.0
3.767685 2.055218 0.002934 0.0
0.042507 1.927335 0.001819 0.0
1.838045 1.396986 0.001023 0.0
3.578821 0.411687 -0.000769 0.0
0.941926 2.004690 -0.000279 0.0
4.199930 0.202693 0.001767 0.0
3.067081 1.839846 0.000499 0.0
0.720300 1.442263 0.001124 0.0
3.292842 0.423135 0.002103 0.0
3.626263 0.763034 0.002337 0.0
0.302048 1.628563 0.000331 0.0
3.158994 1.790484 -0.004326 0.0
1.670255 0.631364 -0.001031 0.0
4.090687 1.024918 -0.001855 0.0
2.111496 1.844989 0.006233 0.0
2.381339 0.394503 -0.002584 0.0
0.399350 1.719231 -0.003686 0.0
1.455459 0.282421 -0.001990 0.0
0.828560 0.167742 0.001782 0.0
1.925366 2.043739 -0.000897 0.0
4.204261 1.386418 -0.000399 0.0
0.948622 0.938544 -0.001890 0.0
0.607099 0.472753 -0.005307 0.0
0.558527 1.660763 0.001733 0.0
3.865220 0.442185 0.000273 0.0
2.784288 0.432804 -0.000361 0.0
2.809164 1.602162 -0.000534 0.0
0.591926 1.262025 0.002947 0.0
1.459942 0.686319 -0.009040 0.0
0.313014 0.319973 0.001425 0.0
0.174882 0.949544 -0.003633 0.0
1.993966 0.863090 0.000215 0.0
1.770880 0.562138 0.002458 0.0
1.166418 1.930633 0.001746 0.0
0.453743 1.681091 -0.001534 0.0
0.724336 0.239231 -0.000173 0.0
3.372820 0.398792 -0.003651 0.0
4.052075 1.922157 -0.004807 0.0
2.992678 1.978223 -0.000375 0.0
2.045145 0.437152 0.000756 0.0
0.227138 1.943645 -0.002001 0.0
2.289335 1.997619 -0.004497 0.0
2.540679 0.524879 -0.002639 0.0
3.225987 2.026977 -0.001474 0.0
3.872899 1.039757 0.002468 0.0
0.215095 0.133132 -0.005454 0.0
3.688745 0.783162 0.002516 0.0
2.313861 1.087151 0.003406 0.0
3.750272 1.664681 -0.001389 0.0
3.587084 0.844113 -0.002682 0.0
0.782858 0.379765 0.000440 0.0
0.380996 2.010236 0.000909 0.0
3.898300 0.026005 0.002773 0.0
0.853768 0.940119 0.000654 0.0
1.920292 0.101481 0.003488 0.0
4.157246 0.876085 -0.003397 0.0
0.106007 0.185511 -0.002976 0.0
2.744686 1.030037 0.007137 0.0
0.908042 1.671182 -0.000279 0.0
3.364528 1.611000 -0.001832 0.0
1.969737 1.520942 -0.000747 0.0
3.628967 1.124317 0.001281 0.0
1.981584 1.703980 0.001554 0.0
0.671269 0.297632 0.000951 0.0
2.955590 0.162226 0.001609 0.0
1.656227 0.729243 0.001005 0.0
3.909499 0.249395 -0.002221 0.0
4.224789 0.699945 -0.001453 0.0
0.548165 1.351073 -0.000208 0.0
3.697987 0.902692 0.003366 0.0
0.073834 1.058599 0.001665 0.0
3.673690 0.093061 0.002113 0.0
1.858532 1.110889 0.004369 0.0
2.040778 0.691867 -0.003155 0.0
3.678302 2.070283 0.006402 0.0
1.588210 1.293452 0.001443 0.0
2.264757 0.232615 -0.003658 0.0
2.865309 1.194260 0.000500 0.0
0.587101 1.658033 0.000837 0.0
3.823983 1.610531 0.000588 0.0
3.117303 1.789569 0.003623 0.0
2.701798 1.923797 0.000579 0.0
2.431199 0.932086 0.002908 0.0
3.323496 1.009229 0.000530 0.0
2.144228 0.554064 0.000137 0.0
0.838124 1.035611 -0.001327 0.0
2.551282 1.402819 0.000014 0.0
0.577506 1.372130 -0.001866 0.0
3.901551 1.877414 -0.002605 0.0
2.568986 1.276234 0.002222 0.0
0.299036 1.320715 -0.000387 0.0
0.651020 2.088220 0.001655 0.0
3.710646 0.926103 -0.003427 0.0
3.057372 0.282506 -0.001347 0.0
3.843825 1.002793 0.000098 0.0
2.896393 2.076975 -0.003308 0.0
4.197058 -0.002485 -0.002423 0.0
1.584214 1.493649 0.003274 0.0
0.147460 1.684075 -0.001095 0.0
0.938834 1.966456 0.000854 0.0
3.783726 1.638378 0.000220 0.0
0.535455 1.329353 0.000782 0.0
2.746822 0.112281 -0.001284 0.0
1.603738 1.969713 -0.002194 0.0
0.431832 0.044870 0.005595 0.0
4.207873 0.626151 -0.002964 0.0
1.871539 0.229324 0.001522 0.0
0.176807 0.118961 0.000389 0.0
0.942569 0.536565 -0.002042 0.0
1.025941 0.404223 0.001310 0.0
1.941993 1.823297 -0.002277 0.0
1.100637 1.050924 0.005297 0.0
3.466932 0.085972 0.000301 0.0
0.329656 1.842531 0.001345 0.0
4.037804 1.474672 0.002559 0.0
1.065188 0.377771 0.002466 0.0
2.209240 0.834436 -0.001465 0.0
2.155365 0.377691 -0.004283 0.0
3.993340 1.870689 0.004665 0.0
1.933181 0.571427 0.003465 0.0
3.955490 1.666497 0.001251 0.0
1.752438 1.762375 0.000828 0.0
2.147173 1.164707 0.002412 0.0
2.719472 2.117226 -0.000904 0.0
3.884890 0.357788 0.000083 0.0
3.376166 1.082745 0.005995 0.0
1.473949 2.055250 0.000988 0.0
0.796015 0.857905 -0.001700 0.0
3.489841 1.953476 0.001638 0.0
1.656552 0.088882 0.000963 0.0
4.164127 0.989758 -0.002947 0.0
2.384702 1.260110 -0.003668 0.0
3.023386 0.302876 -0.000111 0.0
1.844226 0.580087 0.002077 0.0
1.920105 2.115820 0.003061 0.0
1.150518 0.780325 0.001611 0.0
2.253906 0.708884 0.003141 0.0
0.711882 0.823019 -0.000515 0.0
1.144508 0.236434 0.001213 0.0
0.878539 0.851579 -0.001903 0.0
0.486155 0.003753 -0.002637 0.0
2.511985 1.617310 0.001861 0.0
1.528781 0.200503 -0.001159 0.0
2.803096 0.434636 -0.000093 0.0
0.802647 1.149628 -0.003672 0.0
1.486147 1.893448 0.001731 0.0
3.071078 0.493903 -0.001246 0.0
3.950030 0.140167 0.003406 0.0
0.331312 0.242598 -0.001292 0.0
1.835953 0.784335 -0.003432 0.0
3.219941 0.594226 -0.004004 0.0
1.190743 0.260453 -0.001306 0.0
2.265806 0.641406 -0.002181 0.0
1.882722 0.125394 0.004638 0.0
2.135986 2.031965 -0.000721 0.0
3.629793 1.610720 -0.004523 0.0
3.762610 0.603309 -0.001820 0.0
3.981803 1.962696 -0.001375 0.0
1.861743 1.467625 -0.000346 0.0
0.819156 0.355825 0.002161 0.0
4.205206 0.906676 -0.001627 0.0
0.082895 0.701289 0.002616 0.0
1.240880 0.009019 -0.002199 0.0
2.605603 0.647676 -0.001628 0.0
2.964135 0.229805 0.001405 0.0
0.270610 0.434532 0.002202 0.0
1.651534 1.826751 -0.002325 0.0
3.771399 0.083646 -0.000692 0.0
1.447037 2.072659 0.000986 0.0
0.322017 0.895677 -0.002790 0.0
1.067807 0.057387 0.002441 0.0
2.000230 1.932409 -0.000451 0.0
2.627617 0.416847 -0.001021 0.0
1.732036 0.404286 0.004845 0.0
4.192390 1.000490 -0.003109 0.0
2.643618 0.594708 -0.000519 0.0
1.731499 1.693184 -0.005001 0.0
2.973171 0.655943 -0.004934 0.0
3.198323 0.252417 0.001025 0.0
0.408025 0.602523 0.001617 0.0
1.170313 0.038157 0.001157 0.0
3.371100 0.992162 -0.005404 0.0
2.843239 1.961580 -0.003528 0.0
0.106103 0.603354 0.001255 0.0
0.094491 0.871639 -0.000749 0.0
1.190517 0.949045 0.000512 0.0
0.106426 1.710235 0.000201 0.0
3.914573 0.121698 -0.002992 0.0
1.777817 1.946460 0.000884 0.0
3.509753 1.718150 -0.003000 0.0
2.982128 0.509039 -0.002851 0.0
4.108069 1.437480 -0.001638 0.0
1.771249 1.501382 -0.003598 0.0
1.154877 0.766444 0.004044 0.0
1.362833 0.708746 -0.004152 0.0
3.300628 1.066859 -0.000892 0.0
0.182424 1.552288 -0.000870 0.0
2.523222 0.980752 0.001337 0.0
1.335464 0.695585 0.001281 0.0
2.910230 1.860072 0.001090 0.0
1.748325 1.040147 0.001594 0.0
1.758434 1.205609 -0.001205 0.0
2.135782 0.302181 0.005712 0.0
0.708693 1.064972 -0.004471 0.0
2.370014 0.968276 -0.002593 0.0
2.952747 0.999824 -0.000853 0.0
3.032458 0.657232 -0.001272 0.0
0.347332 2.026451 -0.001100 0.0
3.879409 1.826882 -0.000291 0.0
3.933547 0.397320 0.000996 0.0
2.503946 0.730008 0.000434 0.0
0.924621 1.112281 -0.000657 0.0
1.032577 0.113919 -0.000293 0.0
0.476043 1.712188 0.002422 0.0
1.431824 1.558107 -0.000177 0.0
0.057658 0.821575 0.002976 0.0
3.244371 0.255632 0.000575 0.0
0.104424 1.210905 0.001094 0.0
2.188045 1.723619 0.003189 0.0
1.114915 0.354449 0.000452 0.0
3.213167 0.224123 0.003913 0.0
2.077002 1.606957 -0.003497 0.0
0.395420 0.491760 -0.003255 0.0
0.110184 1.523854 0.001383 0.0
0.326979 0.588482 -0.000817 0.0
1.988157 1.001939 0.002564 0.0
1.626340 1.582439 -0.001652 0.0
0.754512 0.200199 -0.001970 0.0
2.421915 0.268348 0.000639 0.0
0.690291 1.214759 -0.001045 0.0
1.585473 0.964181 0.001826 0.0
2.694655 1.092643 0.000209 0.0
4.175210 1.081581 -0.000042 0.0
2.936028 0.968694 0.002816 0.0
4.038470 2.010890 -0.000733 0.0
2.036126 0.002343 -0.001231 0.0
3.396224 0.572690 -0.000157 0.0
1.427262 0.823259 -0.004023 0.0
1.855024 1.029433 0.002356 0.0
0.576777 0.290392 0.001139 0.0
2.074760 0.718674 -0.001382 0.0
2.728873 1.793508 -0.000581 0.0
3.402191 0.264604 -0.000053 0.0
1.019063 2.058168 0.002572 0.0
0.418678 1.693462 -0.000131 0.0
3.811376 0.860256 0.001231 0.0
1.359182 0.198148 -0.002630 0.0
2.697364 0.962176 -0.000494 0.0
2.321525 1.114012 0.004762 0.0
2.057412 1.175770 0.000691 0.0
2.042962 0.446680 0.003967 0.0
2.997877 1.448215 0.000898 0.0
0.190622 0.747333 -0.001789 0.0
2.450660 0.766565 -0.003546 0.0
1.318376 0.716957 -0.004464 0.0
2.800370 0.234509 0.000701 0.0
1.555426 1.283270 0.000103 0.0
1.978089 0.305231 0.002480 0.0
3.019869 1.195312 0.000360 0.0
1.255865 1.672943 0.003096 0.0
2.208736 0.859331 -0.000469 0.0
1.644753 1.603992 -0.000932 0.0
3.764720 1.877771 0.004089 0.0
2.565789 1.065945 0.003237 0.0
0.513989 0.112508 -0.001796 0.0
2.705101 0.190903 0.000203 0.0
3.939162 1.286426 -0.000135 0.0
0.787966 1.007468 0.000054 0.0
0.128767 2.116413 0.005959 0.0
0.530354 2.047968 -0.000363 0.0
0.675811 0.266549 -0.000244 0.0
1.126091 0.501748 0.004041 0.0
0.488659 0.107073 -0.000892 0.0
2.756168 0.357562 0.002080 0.0
-0.000331 1.326960 0.000288 0.0
3.173435 0.604963 -0.001734 0.0
1.828999 1.166011 -0.003090 0.0
1.606459 1.700900 -0.000150 0.0
1.918551 1.400513 -0.001714 0.0
3.507578 1.724025 0.003347 0.0
0.486038 0.317712 0.000092 0.0
1.210136 1.795579 0.002028 0.0
3.722664 0.049250 0.000398 0.0
3.258455 1.521409 -0.000292 0.0
2.548718 1.272797 -0.001677 0.0
3.025106 0.709410 -0.002573 0.0
0.204941 2.085392 -0.002524 0.0
1.595266 0.363508 -0.001016 0.0
1.590187 0.969198 0.000073 0.0
3.550796 0.217359 0.002961 0.0
3.141649 1.690113 0.001656 0.0
0.818514 1.307139 -0.001162 0.0
0.505171 1.286215 0.003490 0.0
1.984900 1.386013 0.001922 0.0
3.038692 2.008897 -0.000124 0.0
1.199873 1.312743 0.001977 0.0
0.504293 0.447189 0.006124 0.0
2.444333 1.999609 -0.000500 0.0
0.112996 1.280612 -0.000567 0.0
0.035154 0.673527 -0.003133 0.0
2.548345 0.561220 -0.001426 0.0
0.415525 1.024111 0.001087 0.0
4.151987 0.815204 -0.001729 0.0
4.013677 1.640599 -0.002518 0.0
0.903834 0.417210 -0.000305 0.0
0.318972 1.701978 0.001920 0.0
1.637515 0.494178 -0.001060 0.0
0.657696 1.812597 -0.004007 0.0
1.307422 0.192399 0.004334 0.0
0.048919 1.067081 0.000398 0.0
1.555782 1.767327 0.000787 0.0
2.329048 2.091476 0.003591 0.0
3.457426 2.033665 0.000198 0.0
1.952208 0.218466 0.003189 0.0
3.681078 1.771259 0.000018 0.0
1.108190 1.660293 0.001080 0.0
2.583164 2.013737 -0.001771 0.0
1.307006 1.196492 0.002759 0.0
2.318760 1.677386 0.006065 0.0
0.061257 1.940435 -0.002258 0.0
3.566113 1.986567 -0.002739 0.0
1.345249 0.269391 -0.001113 0.0
2.500899 0.918612 -0.006231 0.0
1.656752 1.451392 0.002608 0.0
2.673528 1.381732 -0.000124 0.0
1.478072 0.661617 -0.002112 0.0
0.356238 1.497714 -0.000686 0.0
3.031667 2.097304 0.001760 0.0
3.892005 2.077433 -0.001114 0.0
2.965038 1.574663 -0.002523 0.0
1.006270 1.965070 0.001232 0.0
1.323512 0.447691 -0.004266 0.0
3.926391 0.299009 -0.001782 0.0
3.791621 2.074922 -0.000184 0.0
3.838748 0.010293 0.000547 0.0
0.932481 0.812827 0.001287 0.0
3.051007 1.354843 -0.001034 0.0
2.624584 0.569294 0.003106 0.0
0.498322 1.827331 0.001848 0.0
0.109655 0.379099 -0.003918 0.0
0.757484 0.253650 0.000799 0.0
3.035181 1.460286 0.001919 0.0
3.771835 2.080182 -0.001292 0.0
0.617463 1.547531 -0.002543 0.0
0.756369 1.436179 0.002146 0.0
0.791102 1.153489 -0.001531 0.0
0.745810 0.602204 0.000706 0.0
1.650064 0.949185 -0.000932 0.0
3.934421 1.875636 0.003498 0.0
1.047161 0.464655 0.002842 0.0
4.023233 0.249127 0.001252 0.0
0.909331 0.996609 -0.003237 0.0
2.603459 0.430884 0.000056 0.0
1.715291 1.778226 -0.003111 0.0
2.311292 0.663057 0.002280 0.0
4.219635 0.422474 -0.001382 0.0
1.812919 1.555942 -0.002181 0.0
2.288831 0.124639 -0.000134 0.0
2.270048 1.067418 -0.002253 0.0
0.667102 0.003626 -0.003258 0.0
2.884460 0.270937 -0.001128 0.0
0.971051 0.802391 0.003194 0.0
2.770915 0.528833 -0.000486 0.0
1.341828 0.858753 -0.001602 0.0
3.840710 1.062219 -0.001125 0.0
2.557086 0.970913 0.000143 0.0
1.096643 0.494870 0.006452 0.0
0.488550 0.967087 0.000541 0.0
0.244763 0.129896 0.001791 0.0
2.910663 1.785122 -0.001577 0.0
3.374843 0.605196 -0.001081 0.0
0.140083 2.112660 -0.003209 0.0
0.400999 1.843592 0.001833 0.0
2.669452 1.099406 0.000782 0.0
1.755581 1.729572 -0.002941 0.0
0.484701 1.781703 -0.000680 0.0
0.246334 1.108103 -0.000600 0.0
2.653201 0.397772 0.001162 0.0
1.510907 0.898171 0.003780 0.0
2.994514 0.071779 0.000777 0.0
3.384446 0.254272 -0.001530 0.0
2.318984 0.443928 -0.001163 0.0
0.491611 0.070180 -0.001224 0.0
2.388817 2.000836 0.001344 0.0
3.298744 0.235603 -0.005258 0.0
1.330585 1.601688 0.002272 0.0
1.823246 1.309910 -0.001403 0.0
1.580033 0.190277 -0.001653 0.0
3.339170 1.551982 0.000651 0.0
1.611470 2.116659 0.003805 0.0
2.864608 1.057116 0.002991 0.0
1.737066 0.709591 0.002699 0.0
4.178756 1.640704 0.002503 0.0
0.685124 2.081937 -0.002574 0.0
3.906842 0.929718 0.000542 0.0
3.290707 1.428588 -0.003790 0.0
1.357507 1.674010 0.001996 0.0
2.881884 1.624215 -0.002570 0.0
0.101233 0.558199 0.000343 0.0
2.317023 1.776810 -0.001887 0.0
2.908099 0.346262 0.003860 0.0
0.721205 1.548505 -0.001675 0.0
0.533676 0.115701 0.003599 0.0
