2.130466 1.104630 -0.003142 0.0
2.494866 0.574718 -0.000018 0.0
2.659196 0.314278 -0.001505 0.0
4.052954 1.545507 0.001943 0.0
4.174507 1.552939 -0.002197 0.0
4.181646 0.578178 0.001598 0.0
0.241562 1.744444 -0.005131 0.0
2.818270 0.016797 -0.001438 0.0
0.865657 1.109559 0.002457 0.0
2.406626 0.932703 0.003584 0.0
4.650056 1.541340 0.004639 0.0
4.253117 1.121089 0.000974 0.0
2.154387 1.617489 -0.004243 0.0
2.812533 1.653557 0.003920 0.0
4.197575 0.861985 -0.000969 0.0
1.824763 1.089834 -0.000738 0.0
1.159085 1.323944 0.000858 0.0
3.638701 0.054417 0.002503 0.0
2.171909 0.670425 0.000623 0.0
0.105213 1.579696 0.002430 0.0
3.851963 1.497631 0.003081 0.0
2.672728 0.544420 0.002134 0.0
3.673087 1.710517 -0.002003 0.0
0.877237 0.329920 0.000753 0.0
1.796989 0.141375 0.002316 0.0
3.808326 1.129558 -0.004758 0.0
2.641739 0.290362 0.001144 0.0
3.653714 1.768839 -0.001171 0.0
2.971848 1.067927 -0.000084 0.0
1.023402 0.559799 -0.004355 0.0
1.079492 0.586840 0.006305 0.0
1.063169 1.048401 -0.000834 0.0
0.594203 1.896842 0.001059 0.0
3.859639 0.581652 0.002834 0.0
3.858790 0.603462 -0.001446 0.0
0.830109 0.765807 -0.004167 0.0
1.993989 0.130898 0.003024 0.0
2.732915 1.070241 -0.001640 0.0
4.164922 1.396962 0.001384 0.0
1.776110 1.140563 0.001499 0.0
0.190086 1.639433 -0.002402 0.0
1.165083 1.662942 0.005476 0.0
3.889998 1.737800 -0.000962 0.0
0.024665 1.022126 0.002611 0.0
4.030975 1.741033 -0.005841 0.0
3.377468 0.929796 0.001958 0.0
3.620192 1.519322 0.000505 0.0
0.553185 1.815294 -0.000106 0.0
1.192017 0.295704 0.000407 0.0
1.720871 0.821794 0.000022 0.0
2.284326 0.559615 0.003266 0.0
1.535220 1.258611 0.004535 0.0
3.108039 0.345550 0.000967 0.0
1.602381 1.657112 0.002474 0.0
2.408209 0.662065 -0.000318 0.0
3.379190 1.884833 0.001450 0.0
2.225393 1.001130 -0.004304 0.0
0.545219 1.715633 0.001056 0.0
1.128288 0.754863 0.001028 0.0
2.307121 1.461024 -0.000743 0.0
1.300054 1.451173 -0.000911 0.0
2.278837 1.020010 -0.000367 0.0
0.578446 0.548437 -0.000886 0.0
1.687327 1.236634 0.000350 0.0
3.846616 1.334186 0.003197 0.0
2.352930 1.285987 0.001013 0.0
2.702226 0.637751 -0.000434 0.0
0.911156 1.276087 0.001988 0.0
0.585967 0.939129 -0.002861 0.0
2.889386 0.219279 -0.003490 0.0
3.063618 1.073886 -0.002351 0.0
0.676162 0.915679 0.005331 0.0
4.531238 1.739106 -0.007348 0.0
1.267448 1.009981 -0.001761 0.0
4.196489 0.938086 0.000890 0.0
4.700329 1.762114 0.001178 0.0
2.739983 1.922506 0.000744 0.0
3.681599 0.525483 0.002395 0.0
4.250929 0.831532 0.001311 0.0
3.803327 1.108645 -0.003920 0.0
0.675224 1.243102 0.000696 0.0
3.026475 0.547475 -0.004146 0.0
3.710977 0.615790 -0.002405 0.0
3.226117 1.702104 0.004059 0.0
3.573011 1.468705 0.002689 0.0
4.026999 1.535142 0.001777 0.0
3.615510 0.140635 0.003185 0.0
1.400222 1.558235 0.001091 0.0
3.338374 1.008572 0.000126 0.0
2.733205 0.823036 0.002035 0.0
0.145739 0.054977 0.000038 0.0
0.773793 0.442285 -0.000617 0.0
0.797578 1.889932 0.001612 0.0
1.805832 1.466710 -0.001307 0.0
3.831605 0.974971 0.005107 0.0
2.004212 1.870086 0.002983 0.0
2.678537 1.965189 0.003071 0.0
3.802887 1.017223 0.002741 0.0
1.923472 0.088080 -0.001387 0.0
2.107879 2.009495 -0.000524 0.0
4.224227 0.365324 0.004843 0.0
3.228120 1.738574 -0.001055 0.0
4.461920 1.816690 -0.001503 0.0
1.364367 1.303404 -0.002653 0.0
4.485897 0.786161 -0.003596 0.0
0.654823 0.387419 -0.005744 0.0
1.601071 1.598329 0.003357 0.0
3.428588 0.236261 -0.000548 0.0
0.669943 1.034795 -0.001821 0.0
3.786946 0.907639 -0.000111 0.0
1.321383 0.070960 -0.000518 0.0
4.060117 1.370305 0.002870 0.0
4.617315 0.423957 -0.000644 0.0
1.852000 1.326888 0.000964 0.0
2.514701 1.152146 0.001059 0.0
1.312676 1.025917 -0.002619 0.0
1.339619 1.784386 -0.001601 0.0
0.395188 0.521550 -0.000717 0.0
2.792401 0.776824 0.001940 0.0
3.473148 0.192292 -0.002019 0.0
4.523830 1.099728 0.002119 0.0
4.676045 0.259193 -0.000345 0.0
0.638765 1.491484 -0.000890 0.0
4.647605 0.332616 0.001062 0.0
0.133662 0.586188 -0.001114 0.0
1.438728 0.110789 -0.003014 0.0
1.471115 0.432087 -0.001183 0.0
1.036784 1.810695 -0.004524 0.0
1.665817 2.048067 -0.002119 0.0
3.170714 1.108049 -0.000140 0.0
2.588484 0.474367 -0.000629 0.0
1.915927 0.839236 0.000248 0.0
4.182108 2.007440 -0.002011 0.0
2.463546 1.179005 -0.002348 0.0
3.740377 0.909578 -0.005339 0.0
0.284825 0.946020 0.001369 0.0
3.312219 0.188720 0.000884 0.0
1.074941 0.610161 -0.003401 0.0
1.652752 1.747938 -0.006030 0.0
2.000543 0.197882 -0.003786 0.0
2.246711 0.014789 0.004070 0.0
2.235256 0.724625 0.004327 0.0
4.706922 1.812655 0.000762 0.0
1.929033 1.700229 -0.001242 0.0
2.605248 0.249622 -0.000507 0.0
4.745845 0.414155 -0.002009 0.0
3.731753 0.344910 -0.003018 0.0
4.682105 1.970235 -0.000818 0.0
0.136694 0.117616 0.000075 0.0
3.612559 0.633565 0.001289 0.0
4.060977 0.844968 -0.000516 0.0
4.613245 1.424260 0.001995 0.0
0.359586 1.485361 0.001663 0.0
1.502700 0.551819 -0.001494 0.0
1.544008 0.013182 -0.002738 0.0
4.382937 1.306121 -0.000655 0.0
3.198083 1.543508 -0.004726 0.0
0.338009 1.013518 0.000341 0.0
1.906643 0.525767 0.001336 0.0
4.404867 2.034176 -0.001630 0.0
0.344896 1.352599 -0.000581 0.0
0.203768 0.602312 -0.005418 0.0
2.092081 0.262144 -0.001628 0.0
1.966373 1.549998 0.001936 0.0
3.904900 0.022504 -0.001880 0.0
4.157019 1.737275 0.000451 0.0
4.307919 0.718368 0.004504 0.0
3.447359 0.391703 -0.004490 0.0
2.393996 0.840350 0.001455 0.0
1.898474 0.177477 -0.000449 0.0
1.698720 0.552529 0.002083 0.0
3.557427 0.532654 -0.000710 0.0
2.293421 1.319993 0.002886 0.0
3.570732 0.175667 -0.000874 0.0
3.580812 0.022771 0.004628 0.0
1.333987 1.650237 -0.000389 0.0
3.187819 1.026626 -0.001054 0.0
4.303450 1.170439 0.002360 0.0
1.333173 1.435867 0.002679 0.0
2.694191 0.445013 -0.004750 0.0
0.954786 0.660720 0.002092 0.0
4.101621 0.097715 0.003994 0.0
1.158223 1.460802 -0.001207 0.0
1.285989 2.034219 0.003006 0.0
1.935698 1.817586 0.001985 0.0
1.469088 1.941699 0.001451 0.0
4.441589 0.265767 0.003254 0.0
2.753116 0.077146 -0.001664 0.0
2.485317 0.276234 0.000435 0.0
1.401820 1.624246 -0.001276 0.0
2.520034 0.979491 0.000251 0.0
2.023673 1.495870 0.001600 0.0
4.178071 0.399442 0.003012 0.0
0.225199 1.329116 0.003373 0.0
3.161751 1.680060 0.000569 0.0
2.577101 1.262790 0.000010 0.0
3.539538 0.847314 0.002148 0.0
0.827334 0.442248 -0.002204 0.0
4.712689 0.785858 0.002042 0.0
4.845168 0.723355 -0.001077 0.0
3.223161 1.147101 -0.001014 0.0
2.613637 2.043512 0.000459 0.0
4.757007 1.249263 0.004609 0.0
2.809617 1.396803 -0.001798 0.0
1.239388 0.905493 0.002056 0.0
1.116125 0.004710 -0.002902 0.0
3.164913 0.902000 -0.000779 0.0
4.101827 1.011802 0.001693 0.0
0.521331 0.639882 0.000316 0.0
2.534384 1.310854 0.002091 0.0
1.249813 1.163693 -0.000993 0.0
2.155002 0.536385 -0.003271 0.0
4.432104 0.413090 0.000226 0.0
0.019431 1.138229 -0.004355 0.0
0.788920 2.003258 0.002388 0.0
2.446455 0.585910 -0.004761 0.0
1.590297 1.389733 -0.002964 0.0
4.170573 0.771651 0.003578 0.0
2.056771 0.976275 0.004015 0.0
2.805256 0.944911 0.000724 0.0
2.866406 1.925987 -0.000003 0.0
2.806146 0.981712 0.002039 0.0
3.988554 1.016492 0.003538 0.0
1.460758 0.231726 0.004975 0.0
0.267081 1.817216 0.000630 0.0
2.659029 1.505937 0.001551 0.0
1.123651 1.768263 0.000535 0.0
0.792179 1.922990 -0.004256 0.0
3.603714 0.122961 -0.000470 0.0
3.812690 0.345207 0.000371 0.0
2.816805 1.067133 -0.002581 0.0
2.196003 0.814314 0.000779 0.0
2.348482 1.265651 0.000190 0.0
4.631351 1.692575 -0.001352 0.0
1.165719 0.369018 0.000410 0.0
3.980198 1.100336 -0.001427 0.0
2.927115 0.533653 0.004581 0.0
1.234087 2.012797 -0.001290 0.0
1.466118 0.648214 -0.005259 0.0
0.971611 1.087230 -0.005913 0.0
0.426517 1.233350 0.001675 0.0
0.306793 0.935563 -0.000063 0.0
3.828621 1.707625 0.004063 0.0
0.788744 1.199390 -0.000473 0.0
4.022844 1.699148 0.000242 0.0
0.249687 0.942964 -0.001024 0.0
2.946087 0.056663 0.001471 0.0
4.357463 0.789966 -0.001159 0.0
2.688659 1.809691 -0.001923 0.0
3.882879 1.515450 0.001598 0.0
1.582611 1.071339 0.003429 0.0
3.922508 0.280275 0.000558 0.0
0.951092 1.034671 0.005648 0.0
3.339496 1.672910 -0.000528 0.0
0.936910 0.084091 -0.003183 0.0
2.606677 0.650752 0.005313 0.0
4.342283 2.030056 -0.000074 0.0
1.472075 1.195601 -0.000565 0.0
4.368662 0.777473 0.002501 0.0
4.141090 1.149214 -0.002561 0.0
4.321694 0.656004 -0.002363 0.0
0.688852 0.407249 -0.000468 0.0
3.381890 1.400148 -0.001160 0.0
4.355844 1.062080 -0.000857 0.0
3.691503 0.160598 0.000547 0.0
1.627650 0.475440 0.001133 0.0
2.701787 0.549235 0.001205 0.0
4.560114 0.827422 -0.003532 0.0
2.238114 0.496874 -0.000970 0.0
4.121989 0.724225 0.002771 0.0
2.140869 0.831614 0.000322 0.0
3.247875 0.933376 0.001100 0.0
0.501912 1.814882 -0.003490 0.0
0.360309 0.080928 -0.000026 0.0
4.847621 1.976650 -0.000970 0.0
3.832639 0.509685 -0.002514 0.0
1.364136 0.486904 0.002942 0.0
3.161727 1.125103 -0.000478 0.0
4.718731 0.091648 0.000794 0.0
2.379193 0.790642 0.002547 0.0
3.043602 1.932872 0.001250 0.0
3.687082 1.554580 -0.002322 0.0
2.679992 0.706565 0.000367 0.0
4.848699 1.245706 0.002681 0.0
3.580062 1.464391 -0.000214 0.0
1.772864 0.170132 -0.000906 0.0
0.494980 1.107748 0.000384 0.0
4.100399 0.660205 0.001745 0.0
4.637502 1.250316 -0.002041 0.0
1.012933 1.803665 0.000687 0.0
0.543054 2.016864 0.000118 0.0
0.722299 0.039247 0.003981 0.0
4.075801 0.334373 0.000523 0.0
2.859004 0.708601 -0.001424 0.0
0.615916 1.600295 -0.003571 0.0
1.685681 0.087827 -0.000698 0.0
1.972673 0.613339 0.000310 0.0
2.465621 0.805009 -0.000438 0.0
3.794441 0.667765 -0.000559 0.0
0.387441 2.011108 -0.000934 0.0
2.043103 1.559647 -0.002597 0.0
1.118699 0.893233 -0.001253 0.0
3.519902 1.250364 0.000174 0.0
0.537095 1.741668 0.003846 0.0
2.021362 0.573285 -0.002826 0.0
0.793524 1.797869 0.003043 0.0
0.562287 0.040716 0.002478 0.0
3.226946 0.812954 0.001272 0.0
1.847141 1.063030 -0.005734 0.0
2.675541 1.238387 -0.001328 0.0
4.275934 0.225647 0.001320 0.0
1.817884 0.330416 0.002542 0.0
1.836983 1.795141 -0.000671 0.0
4.318946 1.103922 0.002115 0.0
1.208384 0.604491 -0.000330 0.0
0.258460 1.007963 0.003128 0.0
4.241299 1.936006 -0.002502 0.0
0.812749 1.284319 -0.002506 0.0
0.975879 0.959823 0.001791 0.0
4.731299 0.063872 -0.002859 0.0
0.601131 0.149404 0.000657 0.0
1.581000 0.640674 -0.002919 0.0
1.374607 2.033825 -0.001307 0.0
3.466431 0.685662 -0.002608 0.0
2.521960 0.745045 0.002674 0.0
0.039065 1.249644 0.000192 0.0
0.747791 1.665864 -0.000174 0.0
1.878882 1.557993 0.000209 0.0
2.910683 1.906478 0.001661 0.0
2.074940 1.599718 -0.000610 0.0
3.118973 0.790745 -0.002659 0.0
0.200627 1.109382 -0.001042 0.0
2.437782 0.028290 0.000738 0.0
2.120283 1.533398 -0.001529 0.0
3.778142 1.351572 -0.003124 0.0
3.108432 1.975338 0.000442 0.0
4.092517 0.571742 -0.001167 0.0
0.264197 1.559009 -0.002229 0.0
2.564798 0.675147 -0.002626 0.0
3.361139 0.822100 -0.000276 0.0
3.557709 1.805577 0.001108 0.0
0.571311 0.771173 0.002044 0.0
4.605576 1.925982 -0.001102 0.0
4.482560 1.779783 -0.000666 0.0
1.958988 0.996736 0.001711 0.0
1.821431 1.389077 0.004551 0.0
4.253749 1.698916 0.002262 0.0
0.100372 1.253410 0.001473 0.0
3.935913 0.109858 -0.001622 0.0
4.428312 0.991146 0.000363 0.0
2.580621 0.200485 0.002381 0.0
4.455995 0.494428 0.001422 0.0
4.582289 1.999911 -0.001967 0.0
3.566480 1.742431 -0.000994 0.0
2.492854 1.698310 0.000076 0.0
4.396223 1.732863 -0.004775 0.0
2.955681 0.536314 -0.000077 0.0
3.988971 1.102912 -0.000750 0.0
1.693004 0.279948 0.004587 0.0
4.642939 1.464224 -0.000094 0.0
1.694658 1.311270 -0.000614 0.0
2.593381 0.233411 0.004433 0.0
4.684200 0.382492 0.003145 0.0
3.712756 1.984485 -0.003277 0.0
2.792389 1.657631 0.003445 0.0
1.700794 1.322401 0.001880 0.0
2.773183 0.067229 -0.001487 0.0
2.987212 1.863653 0.002583 0.0
0.643364 1.647695 0.002292 0.0
2.373096 0.896349 0.002137 0.0
1.103311 1.433891 0.000261 0.0
4.622217 0.288414 -0.001157 0.0
3.943094 1.634281 -0.001670 0.0
1.000908 1.844640 -0.002296 0.0
3.089172 0.146428 0.006470 0.0
1.365216 0.475344 0.001633 0.0
4.381356 0.522654 -0.001392 0.0
3.012650 0.050602 0.000365 0.0
3.419638 1.715737 0.000035 0.0
0.866152 0.778506 -0.000851 0.0
3.401863 1.411693 0.003088 0.0
1.167150 1.873714 -0.002343 0.0
2.052299 0.451132 -0.001092 0.0
2.906558 1.809946 0.004886 0.0
2.393798 1.322062 0.000088 0.0
2.773655 1.656930 -0.001925 0.0
1.388845 1.434679 0.001713 0.0
0.330917 1.727100 0.001036 0.0
3.694488 2.039809 0.002252 0.0
0.650967 0.467988 -0.000525 0.0
4.084954 0.492092 0.005293 0.0
2.057185 0.268837 -0.001921 0.0
2.804544 1.644249 -0.001068 0.0
4.366170 0.695932 0.001521 0.0
1.642834 1.873126 0.000921 0.0
4.682084 1.862475 -0.001104 0.0
3.017104 0.434644 -0.002247 0.0
0.636998 1.625489 0.001115 0.0
0.802317 1.118288 0.002223 0.0
3.533221 1.083180 0.000575 0.0
1.618800 1.818378 0.002823 0.0
2.564798 1.050287 -0.003341 0.0
4.797650 0.859234 -0.000936 0.0
4.838815 1.428698 -0.000784 0.0
1.263603 1.851048 -0.001103 0.0
2.717864 1.888980 0.001677 0.0
0.684991 0.931563 0.000624 0.0
2.589306 0.527768 0.002675 0.0
3.618702 1.181605 0.001475 0.0
4.816398 0.743849 -0.005268 0.0
4.512632 1.492513 0.003174 0.0
2.784916 1.820834 0.002948 0.0
0.634939 0.275644 -0.001281 0.0
1.129143 0.732213 -0.001665 0.0
3.390496 1.285056 -0.000095 0.0
1.900664 1.459530 -0.004050 0.0
3.740711 1.460191 -0.001457 0.0
0.322247 0.397773 0.000168 0.0
0.999094 0.225525 0.004801 0.0
0.502267 0.164585 -0.000104 0.0
1.882653 1.139476 -0.000534 0.0
4.166717 0.992400 -0.000689 0.0
2.218243 0.855679 0.004576 0.0
4.200443 0.577449 -0.000448 0.0
2.047075 1.625646 0.002141 0.0
2.893245 0.318277 -0.000295 0.0
0.433945 1.784924 -0.000218 0.0
2.319708 1.246848 0.002084 0.0
1.891615 2.032587 -0.003636 0.0
4.060748 0.537002 -0.002311 0.0
4.340241 1.466022 0.001897 0.0
0.613956 1.628815 -0.000009 0.0
0.800007 1.708535 0.007552 0.0
0.209627 1.476463 -0.003102 0.0
4.056066 0.372930 -0.000898 0.0
0.214562 2.005222 -0.000810 0.0
2.896839 1.972128 0.002647 0.0
3.239602 1.546046 0.002834 0.0
4.776899 1.392251 -0.002299 0.0
1.730543 1.390140 -0.000765 0.0
2.347146 0.983478 0.001133 0.0
3.497988 0.208600 0.005798 0.0
1.417440 1.309423 0.001385 0.0
2.351962 2.016478 0.006446 0.0
4.401301 0.812204 0.002138 0.0
0.824898 1.025484 0.001775 0.0
1.115302 0.754977 -0.001505 0.0
3.305076 0.532124 0.001058 0.0
1.217255 1.815860 -0.000540 0.0
2.663582 1.432428 0.003137 0.0
3.360127 1.385074 0.000309 0.0
3.202560 0.372327 0.003007 0.0
1.863021 1.242739 -0.001345 0.0
2.896548 1.935837 0.004768 0.0
3.303270 1.048780 -0.004740 0.0
3.323660 0.547528 0.002020 0.0
2.111728 0.427801 -0.000704 0.0
2.178634 1.050313 0.006697 0.0
4.233944 0.187786 0.001649 0.0
3.897447 0.200987 -0.003784 0.0
1.910421 0.598252 0.001215 0.0
0.207088 0.738007 0.001668 0.0
0.835952 0.346989 0.000676 0.0
1.559117 1.398770 0.002018 0.0
0.044965 0.915410 -0.000311 0.0
2.997221 1.900981 -0.001342 0.0
1.154531 0.033028 -0.000893 0.0
4.622528 0.261968 -0.004932 0.0
2.596066 1.668512 -0.001625 0.0
3.384292 0.997034 0.001672 0.0
4.694499 1.811053 -0.000762 0.0
3.062842 1.495877 0.000627 0.0
1.106663 0.379268 0.001351 0.0
0.417162 1.843877 -0.001191 0.0
0.393925 1.305021 -0.003787 0.0
0.709318 1.642280 -0.000836 0.0
4.008444 0.942920 -0.000034 0.0
4.177865 0.369793 0.002265 0.0
0.423888 1.852969 -0.005224 0.0
1.941595 1.386126 -0.001601 0.0
3.904644 0.350956 0.002540 0.0
1.539294 1.619848 -0.000697 0.0
3.922721 0.449476 -0.001622 0.0
0.807589 0.526981 -0.003143 0.0
4.721170 0.477087 0.000526 0.0
3.201918 1.029175 -0.002729 0.0
3.072368 1.350813 0.002505 0.0
4.457591 0.257028 0.000475 0.0
1.656643 1.261672 -0.000700 0.0
2.944570 0.609267 0.003830 0.0
1.591225 0.280038 0.001602 0.0
1.048930 1.233626 -0.003906 0.0
1.410999 0.765869 -0.002054 0.0
0.234878 0.134443 0.001342 0.0
3.648424 1.221480 0.001220 0.0
3.890497 0.123192 0.003174 0.0
2.022337 0.936464 0.004327 0.0
3.506405 0.084889 0.004960 0.0
0.100127 0.683124 -0.002368 0.0
3.566747 1.579089 -0.000408 0.0
3.832909 1.925885 0.001291 0.0
0.252501 1.217268 -0.001942 0.0
1.266348 1.179749 0.003142 0.0
0.008955 1.927346 0.000304 0.0
2.871536 1.799252 0.006520 0.0
2.187018 1.797427 0.002430 0.0
1.975922 0.505348 0.001769 0.0
4.557388 0.573631 0.001156 0.0
4.542325 1.184748 0.004989 0.0
2.049210 1.423262 -0.001645 0.0
3.800981 1.971962 -0.001833 0.0
2.294983 0.286876 -0.002106 0.0
4.342963 1.897563 0.005386 0.0
4.375394 1.550485 0.000850 0.0
3.569266 1.514049 -0.001986 0.0
3.162104 0.482873 0.001258 0.0
4.330115 0.428210 -0.001125 0.0
4.282280 1.208174 -0.001017 0.0
2.888868 0.798669 0.000189 0.0
2.308622 2.020910 -0.003449 0.0
2.202747 0.773334 -0.002403 0.0
2.920986 1.998764 -0.001705 0.0
3.204137 1.078755 0.001439 0.0
1.598600 0.735738 -0.001761 0.0
0.777209 1.747871 -0.001768 0.0
2.672184 0.526457 0.000256 0.0
2.339984 1.584259 -0.001253 0.0
1.802274 0.329708 0.001764 0.0
0.671596 0.153254 -0.005079 0.0
3.973424 0.827431 -0.001102 0.0
3.736092 1.077949 -0.001673 0.0
4.709025 0.353389 0.003578 0.0
2.199577 1.407379 0.003181 0.0
2.743707 1.141842 -0.001117 0.0
1.057470 1.886395 0.001728 0.0
1.653860 1.536910 -0.002077 0.0
4.800334 1.135310 -0.004225 0.0
3.019367 1.504624 0.005789 0.0
0.611542 1.694426 0.000014 0.0
4.744000 1.691373 -0.001695 0.0
2.762109 0.901766 0.003748 0.0
2.868295 0.324594 0.000297 0.0
1.567626 0.308496 -0.001011 0.0
0.991362 0.123553 0.001571 0.0
3.988533 1.811487 -0.002125 0.0
0.885026 0.170825 0.000099 0.0
2.737847 2.026531 -0.002117 0.0
3.467946 2.024216 0.000843 0.0
2.946162 1.795390 0.001556 0.0
2.761023 1.578071 0.000723 0.0
0.456280 1.775250 -0.000957 0.0
1.872438 0.729855 -0.001845 0.0
0.321361 1.437600 -0.000356 0.0
3.857684 1.491660 -0.001804 0.0
0.064683 0.242284 -0.002616 0.0
3.975623 0.160492 0.004588 0.0
0.103238 2.025571 -0.000466 0.0
1.229521 1.195577 0.003302 0.0
3.644342 1.287577 0.001026 0.0
0.178193 0.718681 -0.002236 0.0
4.084377 1.747816 0.002408 0.0
1.359902 0.256951 -0.000601 0.0
0.397284 1.291431 -0.001207 0.0
0.286698 0.226893 -0.001811 0.0
2.263560 1.263107 0.001774 0.0
2.642260 1.141480 0.002503 0.0
3.537551 0.793234 -0.001465 0.0
0.888998 1.373784 0.002109 0.0
1.422724 2.026123 -0.001846 0.0
4.524349 0.996793 0.006345 0.0
3.755666 1.232898 -0.000259 0.0
0.571215 0.754374 -0.000610 0.0
3.214419 1.576957 0.003331 0.0
3.096388 0.534565 -0.000724 0.0
4.135152 0.541146 -0.002287 0.0
1.581901 1.233694 -0.002109 0.0
3.281307 0.252895 0.001583 0.0
4.606123 0.101396 0.002947 0.0
1.012863 1.398964 -0.001636 0.0
0.118032 0.552981 -0.001251 0.0
2.693892 1.964426 -0.002416 0.0
1.186117 1.408950 -0.001621 0.0
2.190091 1.795406 0.002717 0.0
2.681662 0.597024 -0.004161 0.0
0.546385 0.524121 0.002819 0.0
0.250044 1.620930 0.000329 0.0
3.404139 1.428549 -0.002098 0.0
3.801597 0.040690 -0.002096 0.0
2.582154 1.466378 0.003009 0.0
4.097261 1.822058 -0.000226 0.0
1.167532 0.706604 0.004778 0.0
1.434791 0.228395 -0.002681 0.0
3.458934 1.091124 0.003148 0.0
3.154118 1.422332 -0.001684 0.0
3.657877 1.030184 -0.004484 0.0
0.157917 1.109334 -0.000963 0.0
1.709254 1.904363 0.001289 0.0
1.333751 1.076150 -0.000714 0.0
0.231329 0.163919 -0.002452 0.0
0.424316 1.273617 -0.002669 0.0
2.099504 0.733758 0.000511 0.0
3.618936 0.142884 -0.000908 0.0
3.916998 1.427181 0.001873 0.0
3.769017 1.772641 -0.000608 0.0
4.142733 0.374349 -0.004067 0.0
2.209891 1.826446 0.002404 0.0
3.142356 0.583219 -0.000961 0.0
4.259551 0.342713 -0.001331 0.0
0.845487 0.333824 0.000169 0.0
4.667321 0.469317 -0.001709 0.0
2.066476 0.206422 0.000661 0.0
1.891758 1.629834 -0.001621 0.0
2.975626 0.886551 0.003532 0.0
0.041229 0.616033 0.002388 0.0
2.875883 1.293270 0.000603 0.0
3.329467 1.934411 0.003318 0.0
2.344033 0.602380 0.003282 0.0
0.884982 0.796495 0.001018 0.0
0.521500 1.277478 0.001242 0.0
3.898858 0.242377 -0.000127 0.0
0.224077 1.803915 -0.000992 0.0
1.013693 0.321358 -0.002345 0.0
1.552548 1.882309 0.000882 0.0
1.190104 1.233249 -0.004765 0.0
0.164276 1.046704 -0.000622 0.0
1.136188 1.792046 0.002228 0.0
4.445296 0.925285 0.000142 0.0
1.976623 1.657872 0.002908 0.0
1.214707 1.228696 0.000066 0.0
1.317943 1.633675 0.003043 0.0
0.868608 1.294188 0.002584 0.0
2.570476 0.009730 0.001171 0.0
2.257586 1.249374 0.002047 0.0
0.963512 0.848115 -0.004886 0.0
4.216673 0.659501 -0.004022 0.0
3.765579 1.666868 -0.001132 0.0
1.741280 1.975971 -0.004284 0.0
1.937011 1.502313 -0.002728 0.0
2.009117 0.030577 -0.002166 0.0
3.182231 0.029816 -0.000249 0.0
3.124750 0.817173 0.000766 0.0
2.026525 0.529490 -0.001495 0.0
3.862399 0.010561 -0.000365 0.0
0.026283 0.898820 0.003683 0.0
1.367884 1.594559 -0.001263 0.0
1.265345 1.561031 0.001722 0.0
1.952941 0.400849 -0.000690 0.0
2.291653 2.027698 -0.000986 0.0
2.294649 0.341493 -0.002606 0.0
2.554153 1.500376 -0.003943 0.0
3.251801 0.792520 0.000097 0.0
2.555542 0.748329 -0.002323 0.0
0.361794 1.292995 -0.007184 0.0
3.873654 0.230845 -0.001042 0.0
0.950162 0.982412 0.000949 0.0
4.432577 1.578993 -0.003727 0.0
2.822248 0.595204 0.000454 0.0
3.023253 0.769995 -0.002357 0.0
4.742846 0.472743 0.002402 0.0
3.222770 0.665731 -0.000278 0.0
1.703201 0.118701 0.000316 0.0
3.798364 0.721225 -0.001522 0.0
3.448520 0.074724 -0.000692 0.0
1.977368 1.105229 -0.000228 0.0
4.746073 1.780422 0.000483 0.0
4.663123 0.522064 -0.000139 0.0
4.075439 1.664349 0.000979 0.0
2.932122 1.354058 0.001219 0.0
2.567078 0.798562 0.000494 0.0
4.289379 0.314938 0.000326 0.0
2.769722 1.848524 -0.001011 0.0
4.668908 1.437720 0.003767 0.0
1.158426 1.695827 0.002698 0.0
2.475842 1.714761 -0.000884 0.0
3.183522 0.687167 0.001221 0.0
0.640434 1.118706 -0.002575 0.0
2.820952 0.802125 -0.002801 0.0
2.556676 1.606204 -0.000991 0.0
2.818286 1.938032 0.001168 0.0
0.249783 1.004190 -0.000812 0.0
2.966943 0.625885 -0.003241 0.0
0.761377 1.670041 -0.001480 0.0
4.095811 1.153373 -0.000259 0.0
0.773393 1.703250 -0.003204 0.0
0.422278 0.475282 0.002840 0.0
0.991199 1.052597 -0.000714 0.0
1.159740 0.357061 -0.000005 0.0
4.825975 0.451607 -0.000024 0.0
3.357763 1.777048 0.000760 0.0
4.277180 1.514601 -0.000260 0.0
3.516937 2.039983 -0.005061 0.0
1.197402 1.069229 0.001137 0.0
4.373245 0.366090 -0.002345 0.0
2.646883 0.735294 0.000067 0.0
2.370030 0.289969 0.002159 0.0
3.988700 1.061296 -0.002649 0.0
2.006381 0.476172 -0.001382 0.0
3.496687 0.029730 0.001600 0.0
1.360759 0.106919 0.000652 0.0
1.867425 1.852198 -0.002121 0.0
3.116511 1.320596 -0.000124 0.0
4.292502 1.018612 0.001813 0.0
2.815708 1.330021 -0.001471 0.0
1.719132 1.973372 0.002388 0.0
0.911030 0.451776 0.007036 0.0
1.638260 1.520467 0.003700 0.0
2.896323 0.074623 -0.001391 0.0
4.377739 1.889519 -0.000668 0.0
1.856523 1.214596 -0.000741 0.0
2.218262 1.288643 -0.000129 0.0
2.743268 1.683185 0.000943 0.0
1.522605 1.523847 -0.000989 0.0
1.304444 1.423567 -0.002652 0.0
3.555655 0.210575 -0.003328 0.0
1.841937 0.109909 -0.000257 0.0
3.552635 0.545361 -0.002209 0.0
4.318487 1.722206 -0.000107 0.0
1.558890 1.890094 0.003227 0.0
1.859265 0.321698 -0.003935 0.0
3.992994 1.085483 -0.001523 0.0
3.532553 1.543590 0.002470 0.0
2.315156 1.296267 -0.003354 0.0
3.903256 0.064242 0.001238 0.0
3.562340 2.046263 0.002856 0.0
3.154189 0.288906 0.001875 0.0
2.896897 0.180199 0.005458 0.0
0.192753 0.036146 0.000183 0.0
1.480900 0.244017 -0.003222 0.0
2.320932 0.464970 -0.001038 0.0
1.256211 1.780168 -0.003926 0.0
1.043384 0.815648 0.000600 0.0
1.406733 0.526129 -0.002639 0.0
1.460961 0.581193 -0.001266 0.0
1.698051 0.132913 0.002583 0.0
4.317408 0.609590 -0.002284 0.0
1.971092 0.283764 -0.005234 0.0
4.238179 0.667720 -0.001541 0.0
4.534918 0.388912 0.001081 0.0
4.078372 0.349401 -0.004210 0.0
3.845481 1.639734 -0.000231 0.0
2.903440 1.860890 -0.001758 0.0
0.784990 0.012449 -0.002121 0.0
3.817556 0.678133 0.001827 0.0
2.357861 0.995326 0.003332 0.0
2.449934 0.945221 -0.003479 0.0
3.584293 1.796698 -0.002216 0.0
2.066520 0.195476 0.002196 0.0
3.396920 1.335244 -0.004269 0.0
2.646431 0.597413 -0.003368 0.0
3.784015 1.907801 0.001981 0.0
2.209485 1.525164 0.000561 0.0
0.931431 1.687004 -0.001426 0.0
4.738908 0.443247 -0.001799 0.0
2.981507 1.087239 0.000834 0.0
3.029881 1.173436 -0.000542 0.0
0.425625 0.458580 -0.002615 0.0
3.922226 0.109623 -0.004232 0.0
1.089397 1.408941 0.001732 0.0
2.592745 1.162148 -0.002329 0.0
0.990949 0.354123 0.000727 0.0
4.797925 1.914489 -0.002717 0.0
4.654600 1.689359 -0.001009 0.0
2.421294 0.831112 0.002742 0.0
0.499195 1.744041 0.000735 0.0
4.287207 0.824228 -0.000775 0.0
0.763313 0.216932 -0.003196 0.0
4.590360 1.728465 0.000924 0.0
2.537822 2.013978 -0.002206 0.0
1.354829 0.595482 0.004508 0.0
2.245987 0.567603 -0.001240 0.0
2.739438 1.529902 0.000266 0.0
3.423996 1.063466 -0.001838 0.0
1.706100 1.442084 -0.003164 0.0
3.168213 0.223282 0.000994 0.0
2.901250 1.729099 0.000321 0.0
2.239235 0.025115 -0.000713 0.0
0.737953 0.904157 -0.000968 0.0
0.229025 1.703104 -0.003117 0.0
0.121633 0.628293 0.002106 0.0
3.493799 1.048758 0.000998 0.0
3.227081 1.081539 -0.004024 0.0
3.562195 0.914527 -0.004835 0.0
3.987935 0.697815 0.002228 0.0
4.303566 0.259091 -0.005652 0.0
1.721312 1.787050 -0.001191 0.0
4.631207 1.534573 0.000228 0.0
1.756990 0.970285 0.005787 0.0
1.542421 1.020496 -0.001599 0.0
1.834164 1.568248 0.000631 0.0
4.166748 0.411237 -0.002426 0.0
3.865532 1.547233 -0.003501 0.0
4.302524 0.916210 0.001671 0.0
1.695437 1.717707 0.001296 0.0
1.315632 1.143063 0.000198 0.0
3.880354 0.029235 -0.000238 0.0
1.672391 1.155049 0.001644 0.0
3.728652 1.606581 0.004507 0.0
2.624383 0.104521 0.003157 0.0
2.483785 1.841614 -0.002494 0.0
4.541697 1.091062 -0.003659 0.0
3.290186 1.456488 0.005978 0.0
3.179375 2.018735 -0.001081 0.0
4.642688 1.287142 -0.000973 0.0
0.159181 0.907051 -0.001645 0.0
3.823767 0.597488 -0.001435 0.0
1.491723 1.719709 0.001411 0.0
0.354116 0.709527 0.001228 0.0
1.397581 0.925688 0.003047 0.0
1.419607 1.932055 0.000181 0.0
3.816612 2.004707 0.000880 0.0
4.073009 0.911364 -0.001858 0.0
0.418394 1.271359 -0.003050 0.0
3.020099 1.523337 0.003104 0.0
2.703431 1.144523 0.000339 0.0
0.122513 1.130731 -0.001378 0.0
3.801019 1.059397 0.000353 0.0
4.069044 1.522072 0.001792 0.0
2.210961 1.477698 -0.002028 0.0
1.005832 1.364305 -0.001064 0.0
4.496202 0.488512 -0.000145 0.0
4.159383 1.096811 0.003188 0.0
0.369138 2.023336 -0.001473 0.0
3.725794 1.822301 0.003734 0.0
0.203802 0.337088 0.004825 0.0
0.253550 1.440749 0.001591 0.0
0.632929 1.254999 -0.001032 0.0
2.933174 0.718374 0.002897 0.0
0.229614 1.201977 -0.003702 0.0
1.419505 0.294570 -0.002523 0.0
0.312472 1.613789 0.001753 0.0
1.335120 0.500682 -0.000161 0.0
4.057691 1.255069 -0.000085 0.0
0.111574 1.151463 0.001110 0.0
4.254754 0.973180 -0.001841 0.0
1.383015 1.002521 0.000341 0.0
4.086007 0.581802 0.000119 0.0
1.007667 0.411061 0.003925 0.0
4.739668 0.638026 -0.003013 0.0
1.171737 2.031153 0.002022 0.0
4.217593 1.692954 0.000504 0.0
1.657619 1.069518 -0.000470 0.0
4.327414 0.416783 0.001294 0.0
1.890881 1.581699 -0.004898 0.0
3.289204 1.026843 -0.000270 0.0
4.100149 1.186418 -0.001168 0.0
2.064950 1.097076 0.001915 0.0
4.120799 1.090312 -0.002021 0.0
3.161083 0.668734 0.001743 0.0
3.002373 0.536932 0.001605 0.0
1.228532 0.483372 0.003067 0.0
4.543881 0.545019 0.002095 0.0
2.205642 0.678913 -0.001794 0.0
3.729779 0.803004 -0.001058 0.0
1.358612 1.008186 0.004096 0.0
2.323584 0.943837 -0.003409 0.0
1.457526 0.249660 0.004813 0.0
2.557609 0.536740 0.001022 0.0
4.645360 1.048359 0.000619 0.0
3.120045 1.120470 -0.000146 0.0
1.015550 0.542553 0.004878 0.0
3.878041 1.208347 -0.002029 0.0
4.457970 0.368894 0.002237 0.0
3.982848 2.022335 -0.003963 0.0
2.552185 1.078332 -0.001634 0.0
1.390751 1.037962 -0.001893 0.0
4.376886 1.024692 -0.000103 0.0
0.054700 0.028201 -0.002117 0.0
0.633222 1.068080 -0.002532 0.0
1.866325 0.313991 -0.003595 0.0
0.880296 0.091335 -0.003613 0.0
2.446435 1.051472 -0.002895 0.0
3.623142 0.806421 -0.000186 0.0
3.517417 1.338761 0.001065 0.0
2.106836 1.168066 -0.000221 0.0
1.322103 1.658884 -0.001970 0.0
1.836672 0.388177 -0.000137 0.0
3.444111 1.651704 -0.002904 0.0
0.468051 1.723372 0.001053 0.0
2.432046 0.228470 -0.003198 0.0
2.264633 0.578926 0.003889 0.0
0.688520 1.303763 -0.002695 0.0
3.494586 0.577377 -0.001846 0.0
2.014712 0.370595 -0.002590 0.0
1.898730 0.922714 0.005697 0.0
1.539936 0.765203 0.001283 0.0
0.665250 1.241113 -0.000494 0.0
2.956880 0.954446 -0.001590 0.0
3.013042 1.492767 0.003824 0.0
0.501230 1.672893 0.001611 0.0
1.391228 1.267720 -0.001945 0.0
2.185096 0.988865 0.001090 0.0
3.567757 0.034960 0.002488 0.0
0.001337 1.914376 0.001656 0.0
4.140293 0.865586 -0.001287 0.0
1.326408 1.526450 -0.004555 0.0
1.942627 1.439468 -0.005499 0.0
3.496378 1.304286 -0.001895 0.0
4.266455 0.041675 -0.004924 0.0
0.697105 0.251256 0.003640 0.0
1.487340 1.635152 0.004565 0.0
4.028303 0.457634 -0.000441 0.0
2.991433 1.240239 -0.002439 0.0
3.120058 0.871177 0.000040 0.0
0.524509 0.348564 -0.005622 0.0
2.857308 0.048387 -0.001914 0.0
0.157360 1.170280 -0.002210 0.0
2.934499 0.811173 -0.002458 0.0
4.801089 0.457289 -0.000263 0.0
4.051122 1.862726 -0.000918 0.0
0.193372 0.261216 0.001268 0.0
3.298572 0.355456 -0.001840 0.0
0.498370 1.472868 -0.002880 0.0
1.639232 1.200651 -0.000523 0.0
2.931655 0.938963 -0.003431 0.0
2.084566 0.700027 -0.001289 0.0
4.700146 0.795583 -0.000996 0.0
2.009664 1.255534 -0.000364 0.0
2.350153 1.884638 0.003107 0.0
3.294867 0.312740 -0.002440 0.0
0.594941 1.713272 -0.001378 0.0
3.499172 0.166393 -0.000677 0.0
3.282172 2.024487 0.004520 0.0
4.262079 0.442418 -0.004516 0.0
1.655105 0.567710 -0.000267 0.0
1.109525 0.328006 -0.000809 0.0
2.275447 0.243953 -0.001717 0.0
0.922415 0.855348 0.005098 0.0
0.303464 0.780269 0.001107 0.0
1.938140 0.740910 0.000127 0.0
3.848207 1.288338 -0.004718 0.0
4.274062 0.247227 0.000278 0.0
0.299507 0.950456 0.001847 0.0
4.059581 0.337439 -0.000151 0.0
3.589499 1.362535 0.004829 0.0
3.360248 1.029167 0.001904 0.0
1.154212 0.681924 0.003983 0.0
2.696367 0.111754 0.000943 0.0
4.817325 0.924112 -0.002415 0.0
3.826447 1.777742 -0.001162 0.0
2.250467 0.782871 0.001791 0.0
3.402099 1.118644 0.003875 0.0
0.490315 1.124868 0.004455 0.0
4.516977 0.996646 -0.000721 0.0
2.742740 0.191580 -0.002094 0.0
1.874529 0.362861 0.001323 0.0
4.586839 1.883748 -0.003030 0.0
2.210090 1.464983 0.004072 0.0
2.003858 0.585263 0.002736 0.0
1.526796 0.114882 0.000839 0.0
0.973683 1.081257 -0.001852 0.0
3.989559 0.124463 0.002702 0.0
1.474162 0.385142 0.003878 0.0
3.265122 1.756871 0.000793 0.0
0.975334 1.593362 0.002317 0.0
4.126945 1.894363 -0.001627 0.0
1.909638 1.219577 0.001549 0.0
2.811387 1.915589 0.000674 0.0
1.528042 1.932784 -0.000814 0.0
1.323111 1.235846 -0.001446 0.0
3.123574 0.337298 -0.001672 0.0
1.137330 1.838923 -0.002336 0.0
0.854419 0.408737 0.001768 0.0
4.247794 1.341647 -0.001744 0.0
0.868199 1.583658 0.001068 0.0
2.054830 0.818871 -0.000232 0.0
1.157613 0.204542 -0.000712 0.0
3.451614 0.537605 -0.002055 0.0
4.600185 0.370833 -0.002187 0.0
1.559189 0.015799 -0.001039 0.0
4.434887 1.536254 0.005246 0.0
1.476951 1.766517 -0.004684 0.0
1.984050 0.076311 0.002466 0.0
3.942688 1.976778 -0.002926 0.0
4.518285 1.576663 -0.000863 0.0
3.982529 0.785192 0.002777 0.0
2.579337 0.506582 0.001004 0.0
2.841499 1.372257 0.003102 0.0
4.840050 1.512989 0.002536 0.0
4.395048 1.820563 0.004345 0.0
3.453061 1.153898 0.001045 0.0
3.226361 1.661775 -0.004342 0.0
2.922229 1.937823 -0.002044 0.0
0.386376 1.573779 -0.000276 0.0
1.123252 0.199723 -0.004331 0.0
1.222900 1.226450 0.000004 0.0
3.035099 1.078503 -0.000651 0.0
3.821312 0.050696 -0.002237 0.0
4.514917 1.004623 -0.001718 0.0
1.195021 2.026664 -0.000756 0.0
4.847849 1.546778 0.003445 0.0
1.129049 0.425950 -0.001216 0.0
3.753800 0.712590 -0.003180 0.0
4.485728 1.327273 -0.003846 0.0
4.220797 0.977260 0.002519 0.0
0.768993 1.777105 -0.003235 0.0
1.631401 1.709452 -0.001781 0.0
2.412815 1.204630 0.000367 0.0
3.389254 1.149463 0.000826 0.0
0.529471 1.627588 0.000620 0.0
2.105999 1.813302 -0.003034 0.0
2.482445 0.988745 0.006496 0.0
0.539477 0.411601 0.002895 0.0
2.915312 1.298346 -0.001679 0.0
1.088955 0.868687 0.001226 0.0
4.835506 0.207554 -0.000811 0.0
2.581908 1.123648 0.005009 0.0
3.725898 0.535934 0.001814 0.0
1.541302 0.245682 -0.002381 0.0
3.009860 0.626741 0.001714 0.0
2.118428 1.227106 -0.003812 0.0
3.903481 0.531758 0.001479 0.0
1.961372 1.951385 0.001184 0.0
4.490103 0.482846 -0.000588 0.0
4.811632 0.682120 0.000820 0.0
3.418362 0.747018 0.002903 0.0
0.251890 1.665098 0.002302 0.0
2.505404 0.512672 0.004656 0.0
2.302565 1.118528 0.001165 0.0
4.146197 1.159668 -0.002397 0.0
0.066739 0.732472 0.001627 0.0
1.611825 2.023690 0.000246 0.0
1.387595 2.038936 0.002424 0.0
2.640892 1.638245 0.000743 0.0
1.497993 0.897428 -0.002289 0.0
4.092942 2.040456 -0.003504 0.0
3.079830 2.026446 0.002605 0.0
4.237520 1.412367 -0.002056 0.0
1.764977 0.951132 0.001575 0.0
4.156742 1.849607 0.002743 0.0
2.096115 2.027060 0.002186 0.0
4.758554 0.730344 0.002933 0.0
4.713479 0.253618 -0.000984 0.0
4.434167 1.883453 -0.002516 0.0
0.570284 1.604917 0.002540 0.0
4.721892 0.321085 -0.002157 0.0
1.826582 1.306889 0.003668 0.0
2.387952 0.406945 -0.000577 0.0
3.320460 2.019393 0.002792 0.0
1.809275 1.114488 -0.000295 0.0
3.581598 1.847778 -0.002657 0.0
3.646288 1.019709 0.000148 0.0
3.144941 1.881335 0.001808 0.0
4.539310 2.003673 -0.004332 0.0
0.727490 1.238593 -0.002988 0.0
4.756974 0.119022 -0.000037 0.0
1.211192 0.450229 0.004902 0.0
1.781926 1.651032 0.004864 0.0
4.624160 1.765997 -0.002782 0.0
3.371138 1.192002 -0.002762 0.0
0.931949 1.305177 -0.000071 0.0
0.641753 1.982760 0.002656 0.0
2.653332 0.036784 0.000774 0.0
0.766716 1.227121 -0.002940 0.0
3.157007 0.538406 -0.001157 0.0
3.794033 0.728927 0.000090 0.0
0.348200 1.602729 -0.000405 0.0
1.395304 0.313963 0.003693 0.0
1.447007 0.781150 0.002687 0.0
1.770253 0.985826 -0.002726 0.0
1.081382 1.338512 0.000216 0.0
3.184083 1.776544 0.002202 0.0
3.300131 1.784285 -0.000138 0.0
1.497878 0.598337 0.002200 0.0
3.525403 1.202978 -0.004835 0.0
4.632645 1.059317 0.000596 0.0
4.230696 0.158873 0.002461 0.0
1.725185 0.745731 -0.002148 0.0
2.623419 0.020577 -0.002047 0.0
3.860210 0.114061 -0.001587 0.0
2.744414 0.080487 -0.001589 0.0
0.966137 1.126165 0.000575 0.0
2.237306 0.499112 0.000499 0.0
3.486886 1.973784 -0.003146 0.0
3.193100 0.174628 0.000429 0.0
3.563641 1.865602 0.000775 0.0
0.064417 0.361752 -0.000214 0.0
2.595739 1.340832 0.002355 0.0
0.220086 1.611806 -0.001189 0.0
2.196637 1.867951 0.003011 0.0
0.072252 1.631601 -0.002362 0.0
2.931293 0.889408 -0.001640 0.0
2.832304 0.170645 0.000434 0.0
2.869607 0.507588 -0.001027 0.0
1.485414 0.884083 -0.001601 0.0
1.706259 0.353985 -0.001119 0.0
2.303357 0.045302 -0.001405 0.0
3.287297 0.325669 0.001247 0.0
4.032137 1.482250 -0.001651 0.0
3.375157 0.032541 -0.003525 0.0
4.246459 0.817324 -0.001892 0.0
1.241969 0.341531 -0.002860 0.0
1.766977 1.169629 0.000539 0.0
2.298422 1.709064 0.001091 0.0
1.658670 1.825424 0.001594 0.0
0.039915 0.544911 -0.000377 0.0
0.252668 1.048203 0.000427 0.0
1.720854 1.498374 0.003888 0.0
0.800419 0.408897 -0.001452 0.0
0.282078 0.887324 0.001774 0.0
0.379293 1.818372 -0.006446 0.0
1.166501 1.215723 0.000501 0.0
2.060096 0.341465 0.000380 0.0
2.229717 0.303604 -0.002605 0.0
3.843734 1.631427 0.004175 0.0
3.910568 0.674131 -0.002610 0.0
3.345453 0.044516 0.000282 0.0
3.841853 0.407420 0.001129 0.0
2.180990 0.317162 -0.000637 0.0
3.812745 0.075354 0.001108 0.0
0.962677 1.778016 -0.001892 0.0
0.295791 1.153073 -0.000446 0.0
4.396692 1.730541 0.002967 0.0
0.997083 0.343058 0.000637 0.0
3.828561 1.816349 -0.004554 0.0
2.948003 1.744094 -0.000112 0.0
2.035354 0.224150 0.000690 0.0
2.644727 0.309968 -0.002189 0.0
0.618116 0.115763 -0.000436 0.0
2.727261 1.917066 -0.001983 0.0
1.790552 1.102851 0.003944 0.0
4.432975 0.377519 -0.003840 0.0
2.931645 2.044380 -0.001609 0.0
1.062277 1.846853 -0.000748 0.0
3.286425 0.332690 -0.003948 0.0
2.947643 1.853091 0.000193 0.0
1.268806 0.508928 -0.000598 0.0
0.322908 1.775079 0.002159 0.0
0.295648 0.971726 0.000924 0.0
1.718405 1.134641 0.000936 0.0
4.570827 0.885898 -0.002898 0.0
0.495712 0.512243 -0.000889 0.0
1.384639 0.999731 -0.002774 0.0
2.354097 0.521896 0.001589 0.0
2.322815 0.814294 -0.002487 0.0
1.061330 0.773678 0.003665 0.0
0.048376 1.919521 -0.002106 0.0
3.332628 0.463311 0.002273 0.0
4.024309 0.292877 0.003055 0.0
3.565450 1.360643 -0.003848 0.0
3.900489 1.821870 0.000338 0.0
2.319018 1.922697 -0.004127 0.0
0.604914 2.010881 -0.000028 0.0
2.315329 0.137185 0.005641 0.0
2.448471 1.424536 0.001669 0.0
1.795152 0.651194 -0.001275 0.0
1.876667 1.897282 -0.000487 0.0
4.175949 1.035047 0.001861 0.0
2.392114 1.481135 0.003123 0.0
2.166065 0.698904 0.001123 0.0
0.795352 1.875113 0.005418 0.0
3.298544 1.437101 0.002662 0.0
1.347565 1.919059 -0.001258 0.0
2.315834 0.427760 -0.002189 0.0
1.361463 0.936657 -0.002179 0.0
2.609684 0.813107 -0.002304 0.0
3.248828 1.094565 -0.001423 0.0
0.284613 1.967391 -0.001622 0.0
4.520102 1.935873 -0.001381 0.0
3.795212 1.973325 0.002954 0.0
4.113247 1.312805 0.001273 0.0
4.208712 2.014002 -0.001146 0.0
0.607783 0.446530 0.001498 0.0
2.862569 1.656235 -0.000565 0.0
1.881257 1.581312 0.003307 0.0
4.585070 0.976101 0.000548 0.0
0.488753 1.232058 -0.000166 0.0
2.980903 0.805056 0.002851 0.0
0.163306 1.571640 -0.002746 0.0
1.320540 0.515071 0.004026 0.0
4.294048 1.459255 -0.002961 0.0
1.411042 1.914029 0.001451 0.0
4.727735 1.861310 -0.001539 0.0
3.748748 1.477207 -0.000150 0.0
1.457753 1.727134 -0.000344 0.0
4.260922 0.968794 0.001423 0.0
2.052293 0.141597 0.000452 0.0
1.760887 0.023682 -0.000944 0.0
4.349825 1.789235 0.000049 0.0
2.267792 0.804767 -0.000281 0.0
4.554058 1.564277 -0.001123 0.0
3.718397 0.169037 0.001354 0.0
3.192235 1.183531 -0.000094 0.0
2.230745 1.575198 -0.000743 0.0
1.473624 0.955862 -0.005229 0.0
1.097263 0.291195 -0.004166 0.0
3.639464 1.007142 0.004738 0.0
2.854613 0.608194 -0.001147 0.0
0.172872 2.034634 -0.003718 0.0
0.545294 2.025623 -0.003257 0.0
2.638344 0.870243 0.003287 0.0
0.299145 1.870737 -0.000592 0.0
0.839240 0.694061 -0.001703 0.0
1.235637 1.913620 0.000735 0.0
2.978425 0.943115 0.000818 0.0
3.770287 0.892752 -0.000147 0.0
2.075062 1.830208 -0.002203 0.0
3.705556 1.952764 0.000145 0.0
0.381087 1.806758 0.001601 0.0
2.802563 0.585946 0.003907 0.0
4.369984 0.310835 -0.001827 0.0
4.438797 0.566222 0.002664 0.0
4.791046 0.921931 -0.003375 0.0
1.692670 0.803732 0.000876 0.0
3.249874 0.973847 -0.000990 0.0
0.223671 1.975693 0.002942 0.0
0.965710 0.625322 0.000333 0.0
2.569520 0.555884 0.000998 0.0
0.805149 1.083964 -0.002805 0.0
3.583751 1.262157 -0.000982 0.0
1.151201 0.023598 -0.001199 0.0
2.782646 1.565422 0.000432 0.0
3.388776 1.716083 0.003383 0.0
1.249271 1.388599 0.003376 0.0
2.395786 1.489608 -0.000123 0.0
0.773866 0.596876 0.002538 0.0
4.770368 1.247103 0.001912 0.0
0.785279 0.700241 -0.002688 0.0
2.923858 1.948797 -0.002945 0.0
1.501162 0.880035 0.003075 0.0
1.953658 1.450502 0.003864 0.0
3.723452 1.369220 0.001082 0.0
1.640342 1.308964 -0.001450 0.0
0.623956 0.675607 0.001745 0.0
0.445057 1.624744 -0.001432 0.0
4.719329 0.636759 0.005402 0.0
1.405459 0.872191 -0.001357 0.0
2.837246 0.419680 0.005336 0.0
3.492017 0.568259 0.000965 0.0
0.549966 1.521264 -0.000306 0.0
2.336365 0.078573 -0.000619 0.0
1.827371 0.676291 0.001264 0.0
0.219356 0.608151 0.002890 0.0
0.453146 0.062649 0.001866 0.0
1.784884 0.884020 -0.002820 0.0
2.742301 0.231786 0.000908 0.0
1.324712 0.428467 -0.003599 0.0
4.571037 1.911972 0.004333 0.0
1.841801 1.304666 -0.002185 0.0
2.402288 1.938317 -0.001031 0.0
1.122890 0.638485 -0.000519 0.0
3.621532 0.632662 -0.000814 0.0
4.690776 0.550024 -0.005781 0.0
3.861236 1.420219 -0.003899 0.0
1.724794 0.741849 -0.001298 0.0
4.456492 0.637687 0.001813 0.0
1.740045 0.528382 -0.002922 0.0
0.056832 0.836622 -0.000398 0.0
3.596615 1.915955 -0.001295 0.0
0.728861 1.809842 0.002297 0.0
3.397139 1.892642 0.001815 0.0
0.133824 0.439738 0.001411 0.0
3.915414 1.658124 -0.004071 0.0
2.267641 1.136782 0.002281 0.0
1.873162 1.466701 -0.000408 0.0
1.413194 0.602286 -0.004488 0.0
1.211327 2.020922 0.004366 0.0
4.644648 0.199478 -0.000234 0.0
1.241085 0.666385 -0.003838 0.0
2.226196 1.121448 0.001211 0.0
4.711881 2.022559 -0.004068 0.0
1.635240 0.286190 0.002373 0.0
3.261030 1.539777 -0.001527 0.0
4.059207 1.830937 -0.000791 0.0
3.693607 0.372640 0.001025 0.0
1.310021 0.501277 0.002941 0.0
2.371552 0.715700 0.002919 0.0
0.215593 1.104526 -0.002323 0.0
4.039543 1.082973 -0.001678 0.0
1.445244 0.441905 0.002853 0.0
1.441098 1.657026 -0.003284 0.0
3.385750 0.547800 0.002493 0.0
2.634146 0.208761 -0.001611 0.0
4.183817 1.518023 -0.000443 0.0
1.204511 1.983283 -0.000293 0.0
0.339602 0.985419 0.005525 0.0
3.788302 0.822368 0.002522 0.0
0.127644 1.619675 -0.000177 0.0
2.390197 1.102842 -0.001781 0.0
1.585556 1.148970 -0.001840 0.0
0.210457 0.202155 -0.003279 0.0
2.752203 0.644502 0.002258 0.0
3.194355 1.690767 0.004540 0.0
4.430329 0.174654 0.001784 0.0
0.840938 1.909601 0.003830 0.0
1.909679 0.385827 0.002130 0.0
3.311263 0.503620 -0.002250 0.0
2.700402 1.966488 -0.002866 0.0
1.411087 0.584401 0.002852 0.0
1.783632 0.156468 0.000440 0.0
1.122074 1.793670 -0.000889 0.0
2.298298 1.914195 -0.001375 0.0
4.230670 1.751783 0.000940 0.0
3.827803 0.115728 -0.005837 0.0
2.828828 1.260775 0.003972 0.0
3.858208 1.827576 -0.002798 0.0
4.102237 1.450751 -0.000839 0.0
2.755005 0.642848 -0.000107 0.0
0.702150 1.025613 0.000471 0.0
1.419776 0.869718 0.001696 0.0
0.519215 0.182377 0.004294 0.0
1.279379 0.789807 -0.000600 0.0
3.259056 0.311765 0.000049 0.0
0.652754 0.042252 -0.000548 0.0
3.815988 1.696696 -0.000068 0.0
4.431516 1.435134 0.000436 0.0
1.561718 0.350541 0.002292 0.0
4.839170 1.580020 -0.000991 0.0
0.475279 0.548646 -0.003138 0.0
1.579350 0.581471 -0.000785 0.0
2.922430 -0.005137 0.003265 0.0
2.905642 1.756404 -0.004505 0.0
0.289973 1.413607 0.000232 0.0
3.036885 0.113740 0.000321 0.0
3.170560 0.718969 0.001830 0.0
2.353243 0.173659 0.003838 0.0
1.772398 1.448852 -0.000692 0.0
2.597784 1.131296 0.000688 0.0
4.810944 1.182164 -0.005044 0.0
3.052988 1.892048 -0.000952 0.0
1.310663 1.654619 0.004229 0.0
0.625675 0.483855 -0.001585 0.0
4.353090 1.112268 0.002545 0.0
3.087037 0.793099 -0.000651 0.0
0.088626 1.120131 0.001070 0.0
4.332780 1.239114 0.000033 0.0
0.275641 1.882173 -0.000964 0.0
3.963957 0.405172 -0.003644 0.0
4.323002 2.021622 -0.001855 0.0
2.174793 1.139310 0.002627 0.0
3.735382 1.704512 0.001022 0.0
4.699832 0.111666 0.001766 0.0
3.800680 1.815388 -0.000107 0.0
1.965340 0.221278 0.000167 0.0
1.094074 1.302865 0.004047 0.0
4.287648 1.594437 0.005350 0.0
1.265654 1.764224 -0.001016 0.0
4.323206 1.054149 -0.001859 0.0
0.083291 1.029520 -0.003246 0.0
4.570266 0.677583 0.003121 0.0
2.070835 0.803581 0.000339 0.0
0.459660 0.989751 -0.002935 0.0
3.945208 1.026908 0.001994 0.0
4.158899 0.947999 -0.002023 0.0
0.776718 0.285727 -0.001375 0.0
2.607287 0.397604 0.000754 0.0
1.596841 0.593323 -0.001567 0.0
0.833517 1.554565 0.000936 0.0
4.369839 1.388608 -0.004858 0.0
2.798190 1.786868 0.002750 0.0
1.731931 1.294558 0.000475 0.0
3.376019 0.405777 0.000853 0.0
3.060973 0.396378 -0.002245 0.0
4.576965 1.161574 0.000161 0.0
0.663799 1.368421 0.003140 0.0
3.887179 0.436100 -0.002326 0.0
4.482408 0.561331 -0.005915 0.0
4.278878 0.834810 -0.002077 0.0
3.400418 0.893581 0.004664 0.0
0.274999 1.137701 0.000939 0.0
0.760996 1.969341 -0.000604 0.0
0.068459 0.761694 0.002114 0.0
4.666116 1.133161 -0.005339 0.0
2.927791 1.181449 0.001711 0.0
4.850321 1.090528 -0.002434 0.0
4.822053 0.066773 -0.000777 0.0
2.564844 0.878240 -0.002912 0.0
0.235392 1.244184 0.000921 0.0
1.878158 1.129345 -0.000895 0.0
2.911670 0.043758 0.001361 0.0
3.238960 1.797660 0.002334 0.0
0.375890 0.308423 -0.001150 0.0
0.031190 1.053228 -0.003045 0.0
4.524594 1.138754 0.000291 0.0
0.134358 1.891382 0.000129 0.0
1.644052 0.721561 0.003628 0.0
2.857419 0.824554 -0.000629 0.0
2.921635 0.906030 -0.003626 0.0
3.377632 0.352057 -0.001866 0.0
4.526752 0.512791 0.000066 0.0
2.679009 1.096263 -0.001224 0.0
1.751109 0.946809 0.002210 0.0
4.473948 1.272069 -0.001145 0.0
4.214768 0.890364 -0.000517 0.0
3.756060 0.900899 0.001713 0.0
1.433699 1.142043 -0.001900 0.0
1.868796 0.100390 0.000758 0.0
3.714458 1.286617 -0.000091 0.0
3.661820 0.019588 -0.001734 0.0
2.523606 0.905000 -0.001288 0.0
3.071705 1.914481 0.002705 0.0
0.858019 1.335821 0.000596 0.0
2.150850 0.316292 -0.002357 0.0
3.212992 0.265914 -0.000479 0.0
2.342054 1.629911 -0.001350 0.0
0.492830 1.774465 -0.001381 0.0
1.822831 0.066447 -0.001259 0.0
0.385415 1.577499 -0.000881 0.0
4.369162 0.411666 0.001161 0.0
1.927067 1.723153 0.002329 0.0
4.687766 1.314397 0.001792 0.0
3.609583 1.662865 -0.000836 0.0
4.632352 1.728962 -0.000455 0.0
2.271671 0.410815 0.001111 0.0
0.788233 0.111884 -0.000224 0.0
4.145796 1.590073 -0.003303 0.0
1.712328 0.521229 -0.001688 0.0
2.484068 1.926349 -0.001767 0.0
0.994618 0.818296 -0.001069 0.0
2.814523 0.260908 0.000173 0.0
4.440439 1.742655 -0.001150 0.0
4.426576 1.920418 0.000373 0.0
4.544301 1.376064 -0.004306 0.0
2.166172 1.716162 -0.001337 0.0
1.984016 1.334262 0.000910 0.0
1.503458 0.307791 -0.001647 0.0
1.979162 1.628377 -0.001091 0.0
2.322403 1.520853 -0.001052 0.0
4.034541 1.704700 0.002790 0.0
1.131826 1.119588 -0.001477 0.0
2.557087 0.667290 -0.002665 0.0
2.748452 0.047586 -0.003137 0.0
1.713229 1.069707 -0.000402 0.0
3.635411 2.039981 -0.003855 0.0
3.739929 0.752706 0.000423 0.0
3.774971 0.243375 0.000570 0.0
3.631647 1.280146 -0.001059 0.0
0.077356 0.866629 -0.001597 0.0
0.886450 0.265551 0.004838 0.0
1.063256 0.159382 -0.002100 0.0
2.031212 0.066898 0.002992 0.0
3.911851 0.340096 -0.000832 0.0
3.288063 0.777528 -0.001535 0.0
4.779508 0.644299 0.001311 0.0
4.842304 1.678745 0.002658 0.0
0.021514 0.343769 0.002899 0.0
4.700650 0.466283 0.001068 0.0
0.944241 1.462146 0.000588 0.0
2.584154 0.414465 0.002283 0.0
0.634633 1.178947 -0.001277 0.0
1.886180 1.350992 -0.001584 0.0
1.498347 1.905365 -0.001364 0.0
4.126717 1.282369 0.002382 0.0
2.852579 1.470349 0.003188 0.0
4.510403 0.422481 0.001149 0.0
0.836034 1.004545 -0.000891 0.0
1.676378 1.561875 0.001477 0.0
3.697853 0.079105 -0.002630 0.0
2.507200 0.444194 0.001944 0.0
4.373281 0.423990 0.006066 0.0
4.462728 0.160811 -0.002561 0.0
3.841799 1.068878 0.000204 0.0
1.708929 1.333890 0.000027 0.0
3.657919 0.403434 0.001460 0.0
3.198342 0.506664 -0.001350 0.0
4.087108 0.840404 0.001076 0.0
4.302822 1.554006 -0.003485 0.0
3.114213 1.610423 -0.001884 0.0
1.848714 1.712168 -0.001338 0.0
0.552537 0.284387 -0.005530 0.0
3.609121 0.611943 -0.001290 0.0
2.582317 0.558265 0.002546 0.0
1.829082 1.589530 -0.003477 0.0
0.371714 1.350014 0.001253 0.0
2.055593 2.037000 -0.003794 0.0
0.362425 0.018638 -0.009185 0.0
2.176067 1.527945 -0.002158 0.0
0.572060 1.125616 0.002454 0.0
1.941402 0.704366 0.000850 0.0
0.339125 0.184845 0.002225 0.0
2.467685 1.805097 0.001333 0.0
3.652049 0.571909 -0.000089 0.0
0.320914 0.549092 0.001140 0.0
0.639180 0.976432 0.004294 0.0
2.211658 0.530386 -0.000085 0.0
3.348707 1.845191 0.002411 0.0
3.164334 1.437428 0.001976 0.0
2.723153 0.526706 0.002379 0.0
0.448057 0.308355 0.002351 0.0
2.646134 1.952244 0.003215 0.0
1.701538 0.087996 0.000724 0.0
4.745089 0.877584 0.000065 0.0
4.400039 0.933211 0.000278 0.0
2.966668 0.614444 -0.001333 0.0
0.879244 1.544857 0.002900 0.0
2.094827 1.210579 -0.000753 0.0
3.347720 1.919858 0.000883 0.0
1.002656 1.071318 0.003241 0.0
2.007739 1.371659 0.005333 0.0
0.230772 0.748179 -0.000574 0.0
2.290338 0.616344 -0.002325 0.0
1.913199 1.551166 0.000716 0.0
1.134776 0.782981 0.000533 0.0
4.555019 0.803684 0.002444 0.0
4.515908 1.679183 0.004591 0.0
2.635879 0.127903 -0.001327 0.0
0.677559 1.139719 0.002793 0.0
0.936173 0.156302 -0.000512 0.0
0.198368 0.512144 0.004074 0.0
0.079215 0.620443 0.000043 0.0
3.759446 0.012780 0.000271 0.0
1.289863 1.693297 -0.002065 0.0
1.241467 1.730733 0.002272 0.0
0.636928 1.439685 0.002260 0.0
3.790948 0.226677 -0.004401 0.0
0.820313 0.529643 -0.000198 0.0
1.936052 1.850270 0.005165 0.0
4.399645 1.360217 -0.002265 0.0
2.041829 0.061777 -0.002588 0.0
3.458212 1.586179 0.001884 0.0
4.411867 1.008615 0.000573 0.0
2.873203 0.444121 -0.002369 0.0
0.439100 0.967546 -0.002180 0.0
3.589180 1.201113 0.003250 0.0
0.257520 1.029340 -0.001443 0.0
0.790484 0.186859 -0.000771 0.0
3.423327 1.818332 -0.001029 0.0
1.998087 0.242581 -0.000223 0.0
2.512102 0.982210 -0.001354 0.0
0.073718 1.571931 -0.002180 0.0
3.761188 1.909000 -0.002079 0.0
4.373530 1.279186 -0.003092 0.0
3.818859 1.202025 -0.005303 0.0
