0.908260 1.157217 -0.000750 0.0
3.027785 0.330853 -0.004357 0.0
4.262884 1.114714 0.000882 0.0
0.103180 1.483300 0.001050 0.0
2.862216 2.089927 -0.003931 0.0
2.119040 0.242876 -0.001215 0.0
2.474290 0.304580 -0.000715 0.0
2.096251 1.296241 -0.001788 0.0
0.904014 1.821859 -0.003043 0.0
0.784944 1.126413 -0.002090 0.0
3.658357 1.433113 -0.003484 0.0
0.432145 1.238351 -0.001673 0.0
1.734014 0.564331 -0.000271 0.0
1.658695 0.359431 0.001679 0.0
1.055837 1.822880 -0.004266 0.0
3.584329 2.182873 0.000247 0.0
0.199079 1.954871 0.002371 0.0
1.788555 0.923334 0.003028 0.0
3.178489 1.675477 -0.002903 0.0
0.732696 0.694455 -0.000674 0.0
1.210273 0.204543 0.001473 0.0
4.353710 0.530916 -0.003635 0.0
0.638006 0.326745 -0.000268 0.0
3.949963 2.260462 -0.003562 0.0
2.458524 0.419067 0.004410 0.0
0.481487 1.175456 -0.000957 0.0
0.967021 0.414325 0.000587 0.0
2.483443 0.615369 -0.000505 0.0
1.785849 0.858372 0.000406 0.0
3.186267 0.642631 0.000309 0.0
1.295019 1.500729 -0.002868 0.0
2.735087 0.712477 0.001727 0.0
2.432454 0.020631 0.002698 0.0
3.706929 0.427797 -0.003280 0.0
1.526365 2.180842 -0.001528 0.0
1.031991 0.701751 -0.003347 0.0
0.443098 0.833237 0.002003 0.0
0.561935 2.176900 0.002208 0.0
3.568847 1.573185 0.002302 0.0
0.310857 0.512803 0.000980 0.0
2.535709 0.168070 -0.000515 0.0
1.636953 0.798505 -0.000523 0.0
3.565181 1.366566 0.003556 0.0
4.280043 2.068800 0.001823 0.0
1.578463 0.121002 0.000659 0.0
3.582745 1.324073 0.001644 0.0
0.578215 1.567185 0.007037 0.0
2.462141 0.665762 0.003372 0.0
1.159029 1.077785 0.000894 0.0
2.327945 0.536062 0.004462 0.0
2.133119 1.071978 -0.004625 0.0
1.284042 0.838310 0.003954 0.0
0.167899 1.192839 0.001809 0.0
0.743932 1.064716 -0.002853 0.0
1.483382 1.209013 -0.001506 0.0
3.303841 2.181948 0.001197 0.0
3.456866 0.699877 -0.002617 0.0
3.944213 0.810670 0.000575 0.0
0.664302 1.629352 0.000131 0.0
1.783899 1.625928 0.001961 0.0
0.262060 2.083600 0.001223 0.0
0.589157 1.830630 -0.002596 0.0
1.361971 0.914910 -0.000536 0.0
0.470726 1.475908 0.000029 0.0
3.586032 0.510429 -0.001186 0.0
1.965709 2.093286 0.001050 0.0
1.327907 0.445401 0.000754 0.0
2.961662 0.649455 0.003146 0.0
0.433972 1.877273 -0.000226 0.0
2.743360 2.204790 -0.002807 0.0
4.031296 1.881449 -0.002896 0.0
0.768743 0.495429 -0.000693 0.0
3.408065 0.870898 -0.001912 0.0
2.301383 0.316758 -0.003868 0.0
1.273880 0.347269 -0.002541 0.0
1.461584 0.352424 -0.001612 0.0
1.269158 0.266602 0.002464 0.0
3.561165 0.227758 0.001109 0.0
2.103933 1.862368 -0.002619 0.0
2.377173 0.624674 -0.002692 0.0
1.136792 0.273457 -0.001345 0.0
1.002199 1.788303 0.000753 0.0
0.490143 2.268417 0.000655 0.0
2.593708 2.241284 0.005473 0.0
1.420530 1.773590 -0.004064 0.0
2.954770 2.128269 -0.001195 0.0
2.638881 1.457698 -0.000641 0.0
2.761914 1.123843 -0.002022 0.0
2.445674 0.641397 0.003228 0.0
0.319164 1.741214 0.000495 0.0
2.338379 0.089689 -0.001038 0.0
2.925925 0.089546 0.000727 0.0
1.426778 0.133326 -0.001270 0.0
1.041445 1.956667 -0.000351 0.0
3.563696 1.488229 -0.000759 0.0
2.849568 0.780459 0.001251 0.0
0.547505 1.465812 0.001262 0.0
0.184580 2.248203 -0.002687 0.0
3.966551 0.377505 -0.000205 0.0
3.809747 0.990177 0.001169 0.0
1.266227 1.861262 -0.000461 0.0
3.505055 0.484045 -0.003043 0.0
1.907457 1.464923 -0.000658 0.0
0.985818 1.554587 0.000229 0.0
2.513708 0.502011 -0.000449 0.0
2.147016 0.537026 -0.002188 0.0
2.513194 0.262904 -0.000574 0.0
2.542005 1.790929 -0.001912 0.0
4.036981 1.781548 -0.004968 0.0
0.961544 0.862415 -0.000890 0.0
3.448930 1.924823 0.000084 0.0
0.238433 0.506998 0.002976 0.0
4.038775 2.191184 -0.003908 0.0
2.475596 0.705257 -0.002366 0.0
1.210852 0.433263 -0.002140 0.0
2.862147 2.270172 0.000517 0.0
3.280656 0.958050 -0.000695 0.0
3.899998 2.091646 -0.000789 0.0
1.364803 1.822053 0.002953 0.0
3.678295 1.785822 0.000638 0.0
2.022432 1.854450 -0.003232 0.0
2.853264 0.296679 0.002197 0.0
1.517631 0.073166 -0.004802 0.0
3.415762 0.981135 0.003222 0.0
4.146001 0.602532 0.001331 0.0
2.810162 1.683052 0.000969 0.0
1.538135 2.076821 0.002071 0.0
0.154214 1.197967 0.001945 0.0
1.923656 1.511231 0.004048 0.0
1.116616 0.498449 -0.001022 0.0
1.768469 2.025804 0.000880 0.0
1.238895 1.206992 -0.005383 0.0
3.861781 0.016097 -0.000450 0.0
0.784341 0.541285 -0.001067 0.0
4.294013 0.204016 -0.001917 0.0
0.158854 1.571698 -0.003242 0.0
3.090043 0.896472 0.000588 0.0
2.732712 0.741142 0.002211 0.0
4.065884 0.042258 0.004614 0.0
3.942483 1.835301 -0.000244 0.0
1.692805 1.289592 0.002681 0.0
4.155809 1.769632 -0.000878 0.0
0.375122 2.001432 -0.005101 0.0
4.065545 1.174933 -0.000702 0.0
1.638540 1.565012 -0.004032 0.0
2.396893 1.169734 0.001524 0.0
0.963413 1.146905 -0.003256 0.0
1.827448 1.977061 0.003008 0.0
1.223102 2.085525 -0.000500 0.0
1.175030 0.725689 -0.002269 0.0
3.207056 1.098712 -0.001037 0.0
0.778240 0.335243 -0.002883 0.0
2.038871 2.207134 0.001954 0.0
1.433573 1.835266 0.003347 0.0
2.758969 1.652668 -0.000625 0.0
0.023784 1.820277 0.002634 0.0
2.820260 0.777636 0.004295 0.0
2.352760 1.357108 -0.003571 0.0
1.830805 0.958936 0.003565 0.0
4.136001 1.272789 0.002302 0.0
3.786019 2.294680 0.001907 0.0
0.773743 0.308203 0.001235 0.0
3.625300 0.097049 -0.006541 0.0
2.164219 1.849185 -0.003834 0.0
3.293982 1.415756 0.000241 0.0
2.577195 1.730164 -0.004271 0.0
3.731357 1.439526 0.003139 0.0
3.497302 2.016997 -0.002960 0.0
0.757613 0.955716 -0.001789 0.0
3.599682 0.217461 0.004794 0.0
2.018859 2.204937 -0.002334 0.0
0.170601 0.502229 0.000270 0.0
2.137872 2.059712 -0.003809 0.0
4.114740 2.163604 -0.002437 0.0
1.963832 1.229072 -0.000962 0.0
1.772993 0.330603 0.003398 0.0
4.086384 1.711033 0.000661 0.0
4.161617 0.985173 -0.000308 0.0
2.630187 0.425427 0.004720 0.0
2.490145 1.471263 -0.001331 0.0
3.284715 0.070247 -0.001240 0.0
2.899423 0.068789 0.000138 0.0
4.326131 1.664909 0.004899 0.0
1.860932 1.317651 -0.001428 0.0
1.085541 0.106539 -0.002268 0.0
3.562248 0.240996 0.000695 0.0
2.419761 0.807922 -0.003813 0.0
3.287992 0.749787 -0.002007 0.0
1.113650 0.174022 0.001855 0.0
2.252648 0.713400 -0.003449 0.0
3.194064 1.659939 -0.000308 0.0
3.430477 0.885301 -0.001256 0.0
2.336432 1.945890 0.002540 0.0
2.895962 2.037978 0.001644 0.0
1.222411 0.617659 -0.000015 0.0
0.962799 1.950076 0.002066 0.0
2.241778 0.081664 -0.001934 0.0
0.917055 2.019415 0.000727 0.0
3.265267 1.986307 0.001376 0.0
3.818703 1.260880 -0.004378 0.0
1.305899 0.425772 0.001303 0.0
3.956957 1.521226 -0.002674 0.0
0.209890 1.903454 -0.001003 0.0
1.058501 1.028038 -0.000925 0.0
3.231311 0.595081 0.002123 0.0
4.188596 0.531651 0.004194 0.0
2.144021 0.565089 -0.002962 0.0
4.224844 1.444690 -0.001081 0.0
1.630551 0.784603 0.004491 0.0
3.950020 1.211699 0.001823 0.0
1.378379 1.833763 0.005150 0.0
2.747714 0.825160 0.001138 0.0
1.156563 0.140909 0.000664 0.0
0.514759 0.881253 -0.001431 0.0
0.112192 0.640107 -0.000720 0.0
0.391457 1.910019 -0.000352 0.0
1.526281 0.057934 0.000538 0.0
2.271895 0.810049 0.000457 0.0
2.364732 1.762896 -0.004181 0.0
3.711879 0.873009 -0.001732 0.0
0.977373 1.708149 -0.000528 0.0
4.293039 1.328071 0.000176 0.0
2.044534 1.511496 -0.001761 0.0
3.972103 0.528091 -0.002104 0.0
0.734117 1.264735 -0.000016 0.0
0.710927 1.509160 -0.000029 0.0
0.549424 1.276698 -0.003703 0.0
2.769230 0.907002 0.001298 0.0
0.365475 1.827569 0.004476 0.0
3.321385 2.098856 -0.002509 0.0
1.299417 1.999438 -0.002462 0.0
4.112538 1.524997 0.003771 0.0
0.215134 1.881192 0.002166 0.0
2.388324 0.696749 -0.002672 0.0
2.973991 0.693794 -0.000986 0.0
3.008519 1.232012 0.003552 0.0
1.270752 1.575986 -0.000846 0.0
1.735299 1.300346 -0.003000 0.0
1.911176 0.586495 0.001385 0.0
4.076761 1.429541 -0.004978 0.0
1.059938 0.422472 -0.006274 0.0
2.387018 1.096236 -0.001558 0.0
1.201157 1.923652 0.002286 0.0
1.430971 0.815781 0.000500 0.0
1.226381 2.083416 -0.001675 0.0
2.459265 1.596628 0.002748 0.0
1.659564 2.183658 -0.002264 0.0
3.191979 1.857808 0.001635 0.0
0.477281 0.518723 -0.001236 0.0
1.104950 1.292643 0.002407 0.0
0.244031 2.291857 0.002611 0.0
4.094667 1.405876 -0.003380 0.0
0.072203 0.381142 -0.004026 0.0
2.871556 0.042991 0.000129 0.0
1.239329 0.807088 0.002724 0.0
2.685186 1.660738 0.001351 0.0
3.246392 0.018574 -0.001256 0.0
2.101796 2.128705 -0.000460 0.0
3.384518 0.139778 -0.002746 0.0
4.000956 0.803438 0.002880 0.0
1.413310 0.483004 0.002353 0.0
1.672303 1.646268 0.002332 0.0
1.874490 0.783142 0.001157 0.0
3.372780 1.417011 -0.002034 0.0
0.857476 1.067725 -0.000847 0.0
2.165005 1.025729 0.002266 0.0
1.903256 0.100184 -0.001075 0.0
0.401517 1.294230 -0.002743 0.0
1.935697 0.958542 0.003956 0.0
2.226281 0.995420 -0.000564 0.0
0.690185 1.559143 -0.001524 0.0
3.201681 0.891642 0.000089 0.0
3.582145 1.446575 -0.000773 0.0
3.284197 1.615315 0.000600 0.0
0.252181 1.679797 0.002717 0.0
0.570242 1.820780 0.001050 0.0
0.466705 1.373935 -0.002811 0.0
2.803642 1.999975 -0.000607 0.0
0.817043 0.234308 -0.001978 0.0
4.080990 1.614245 -0.000107 0.0
0.742339 1.558442 -0.000286 0.0
1.410042 1.349827 -0.000590 0.0
2.526424 0.154187 -0.001952 0.0
1.769501 1.326225 0.001428 0.0
0.397390 1.942548 0.002008 0.0
3.601854 2.265769 0.002713 0.0
2.930568 1.079642 0.000046 0.0
1.572226 0.751205 0.000654 0.0
1.339059 0.314826 -0.002178 0.0
2.362505 1.277608 -0.000026 0.0
2.819837 0.186974 -0.004115 0.0
0.234126 1.171716 -0.000296 0.0
4.004933 1.133810 0.001714 0.0
1.289149 0.080854 0.001213 0.0
2.588465 1.777748 -0.001813 0.0
2.489553 0.381894 -0.002632 0.0
2.110862 1.162740 -0.000742 0.0
0.871411 1.967646 -0.000541 0.0
2.968230 0.319479 -0.002489 0.0
2.888323 0.122725 0.000567 0.0
0.168354 1.511752 -0.001264 0.0
2.867901 1.578945 0.001536 0.0
4.147450 2.062246 -0.001330 0.0
2.694833 0.518698 -0.000460 0.0
3.054468 0.336705 -0.000293 0.0
1.044100 1.422849 0.003768 0.0
3.357516 2.040779 -0.001884 0.0
1.623453 1.093094 0.002066 0.0
3.909049 1.924908 -0.001342 0.0
1.930719 1.908229 -0.001464 0.0
0.335915 0.779792 0.000328 0.0
1.391294 1.410422 0.002255 0.0
2.700093 0.858685 -0.004015 0.0
1.261999 1.409536 -0.002236 0.0
0.044150 0.800580 -0.002203 0.0
-0.002444 1.048010 0.001441 0.0
4.156046 0.776617 -0.000766 0.0
0.398799 1.363467 -0.004271 0.0
0.058831 1.081577 -0.005415 0.0
2.368633 0.791151 0.002831 0.0
3.861119 0.003463 0.000048 0.0
4.199344 0.275426 -0.001238 0.0
0.808055 1.697272 -0.000410 0.0
1.292538 0.275014 -0.001688 0.0
4.030795 0.489609 -0.004524 0.0
3.067671 0.048850 0.001396 0.0
1.966868 2.215926 0.000465 0.0
4.284193 0.177601 0.000142 0.0
3.780784 0.262195 -0.003460 0.0
1.093502 2.035045 -0.007211 0.0
3.956881 0.170908 -0.000057 0.0
0.847579 0.532566 0.001732 0.0
0.573914 1.317438 -0.001248 0.0
3.289121 0.553511 0.002374 0.0
0.421425 2.182806 0.004671 0.0
2.955848 1.194757 0.002516 0.0
3.661995 2.035052 -0.002443 0.0
0.285583 1.899387 0.003265 0.0
2.338028 1.444887 -0.002192 0.0
0.388417 1.989574 0.003366 0.0
0.054557 1.329021 -0.001435 0.0
2.467036 0.385230 0.000643 0.0
0.914206 1.122888 0.000549 0.0
2.434729 0.998298 -0.000674 0.0
2.897268 0.407109 0.005455 0.0
3.598472 1.886599 0.003616 0.0
3.939767 0.577052 0.002939 0.0
3.278801 1.335323 0.002211 0.0
2.556404 2.191519 -0.001837 0.0
2.176348 1.969130 0.000755 0.0
0.184322 0.123569 0.004041 0.0
0.832835 0.835553 0.002270 0.0
1.629744 1.978548 0.002038 0.0
2.578945 0.137859 -0.001699 0.0
2.283252 2.202972 0.004729 0.0
0.084097 0.152613 0.000095 0.0
3.579435 1.543238 0.000351 0.0
2.606509 0.394081 0.000635 0.0
4.186580 0.262332 0.002048 0.0
1.278509 1.083058 -0.000663 0.0
0.095350 2.213327 0.000303 0.0
3.625011 1.659882 -0.003018 0.0
1.902375 1.441662 -0.002056 0.0
1.631861 0.822895 0.005561 0.0
2.331446 0.869447 0.002481 0.0
0.575272 1.585595 -0.001208 0.0
2.804538 0.924854 -0.002091 0.0
1.008572 0.223693 0.001801 0.0
1.443041 1.467417 0.000193 0.0
2.442343 0.558865 -0.000408 0.0
0.148495 0.648118 -0.003006 0.0
3.851447 0.727062 -0.001118 0.0
0.198471 1.207617 -0.000235 0.0
1.102459 0.400763 -0.003240 0.0
2.676417 1.412767 -0.000382 0.0
0.147655 0.247487 0.004054 0.0
2.893860 1.905070 -0.002618 0.0
3.480279 2.029513 -0.001271 0.0
0.033153 0.861760 0.001282 0.0
4.012319 1.573699 0.000598 0.0
2.571898 2.124213 0.004581 0.0
1.588944 2.033439 -0.004909 0.0
1.199134 0.065322 -0.001274 0.0
1.557928 1.004516 -0.003514 0.0
2.617482 1.174110 0.003189 0.0
0.737940 1.350577 -0.003081 0.0
1.093276 1.678404 0.001049 0.0
2.676638 1.851317 0.002386 0.0
3.335765 1.099940 -0.005515 0.0
3.711514 1.489839 0.001635 0.0
1.430575 1.190637 -0.004904 0.0
3.478570 1.021210 -0.002755 0.0
1.527068 0.589171 0.001912 0.0
0.098532 2.263868 0.002434 0.0
2.390539 0.899188 -0.001889 0.0
0.112589 2.142160 0.002298 0.0
0.074962 1.037282 -0.002484 0.0
0.196856 1.916698 -0.001056 0.0
2.285283 0.821024 -0.002792 0.0
0.971690 0.486631 -0.001439 0.0
1.328984 2.266126 -0.001286 0.0
0.099094 0.483543 -0.001865 0.0
2.953673 2.072891 0.000158 0.0
2.415331 1.557462 0.007011 0.0
2.808338 1.838856 0.005118 0.0
2.371222 1.769817 0.003555 0.0
2.077441 0.424057 0.001043 0.0
2.852040 1.561214 0.003402 0.0
1.370702 1.843161 0.004603 0.0
1.218339 1.043719 0.002703 0.0
2.869876 2.135163 0.000875 0.0
1.618599 0.713520 -0.006840 0.0
1.954504 1.600090 -0.000050 0.0
3.976199 1.351018 -0.002637 0.0
3.273560 0.585948 0.002947 0.0
0.275288 1.232477 -0.002461 0.0
1.439133 1.912283 -0.001370 0.0
3.468006 1.863471 -0.003150 0.0
2.664349 1.627632 0.003493 0.0
0.786185 1.695392 0.003919 0.0
3.433067 1.913277 -0.007381 0.0
1.496735 1.372659 -0.001189 0.0
2.557700 0.739367 -0.004557 0.0
4.117384 1.857909 0.003147 0.0
2.795948 2.016315 -0.003098 0.0
3.848148 0.494898 -0.002205 0.0
3.657881 0.714311 0.003500 0.0
0.979200 1.071389 -0.001230 0.0
2.838960 1.680489 -0.001826 0.0
3.944124 0.938654 -0.001143 0.0
0.692965 0.485141 -0.001297 0.0
1.475200 0.027689 0.000051 0.0
2.410112 1.732173 0.001823 0.0
0.335379 0.094125 -0.001466 0.0
2.986496 0.556663 -0.004901 0.0
4.007582 0.022495 0.002204 0.0
0.520278 0.530172 0.002560 0.0
3.057052 1.586034 0.003979 0.0
2.897888 1.150260 -0.005163 0.0
0.920653 1.046938 0.001164 0.0
0.095936 1.427180 0.000324 0.0
2.965575 0.107883 -0.002326 0.0
0.503305 0.318183 0.005046 0.0
2.622336 1.551733 0.003908 0.0
0.676966 2.077015 0.001352 0.0
4.264405 0.022827 -0.003863 0.0
3.567825 0.974593 0.001278 0.0
4.250416 0.962088 0.001850 0.0
4.179304 1.936393 0.001280 0.0
3.502484 0.357632 0.006586 0.0
4.048231 1.351027 -0.002014 0.0
2.218920 2.034339 0.001672 0.0
2.386516 0.270086 0.003470 0.0
2.680055 0.221070 0.002628 0.0
0.200854 1.299317 0.002202 0.0
1.660952 0.673131 0.004153 0.0
1.149577 2.001000 0.005566 0.0
3.930548 0.574312 0.000808 0.0
2.615817 2.071700 0.002825 0.0
0.208663 0.333500 -0.001780 0.0
0.277793 0.085166 0.005761 0.0
0.228598 2.211382 -0.001717 0.0
4.027490 0.496719 -0.000330 0.0
3.222740 1.307554 -0.003237 0.0
4.065401 2.171147 -0.001508 0.0
0.439054 0.654296 0.004127 0.0
3.404111 0.636827 -0.000133 0.0
0.571184 1.155810 0.001594 0.0
3.725812 0.765989 0.001943 0.0
0.027764 1.383961 0.005282 0.0
1.927286 0.084948 -0.000626 0.0
4.202731 1.319713 -0.006261 0.0
0.572183 0.974838 0.000994 0.0
2.777971 1.199341 0.001141 0.0
0.501439 0.358130 0.001439 0.0
3.163920 0.833540 -0.000936 0.0
0.673693 0.274950 -0.000196 0.0
3.462307 1.119356 0.001106 0.0
0.751936 1.030012 -0.001485 0.0
3.840336 0.951932 0.001621 0.0
2.310871 1.084102 0.000904 0.0
0.604991 2.114668 -0.001366 0.0
3.155700 0.975852 -0.001979 0.0
0.119904 1.994423 -0.000466 0.0
1.508587 1.214037 0.001535 0.0
1.943280 2.100827 -0.000183 0.0
0.663511 1.017683 0.002933 0.0
0.638909 0.186508 0.005851 0.0
2.872984 1.005236 0.000271 0.0
0.037475 0.590475 0.001164 0.0
3.607209 1.762870 -0.000784 0.0
3.191961 0.507662 -0.001608 0.0
2.369926 1.830400 0.000406 0.0
1.119726 0.941553 0.003548 0.0
3.251728 1.172520 0.001240 0.0
1.215966 0.693541 -0.000786 0.0
1.237342 0.786049 0.002804 0.0
3.393015 0.854885 0.001435 0.0
4.118411 1.805698 -0.000281 0.0
0.373561 1.959678 0.001194 0.0
2.705385 1.206022 0.002643 0.0
2.740105 2.057713 -0.001913 0.0
2.638268 0.004091 0.000212 0.0
3.261454 2.133639 -0.000326 0.0
0.565783 1.722492 -0.002912 0.0
0.416410 0.531095 0.000748 0.0
3.024496 2.081807 -0.005004 0.0
1.306531 1.885945 0.000171 0.0
2.165158 2.236231 -0.000648 0.0
2.603454 0.411068 0.001539 0.0
0.758019 1.895723 0.003608 0.0
2.657940 1.306906 0.000212 0.0
3.246985 1.844246 0.001637 0.0
0.468387 1.758413 -0.004045 0.0
3.955976 0.219909 -0.001181 0.0
1.972310 2.148071 -0.007109 0.0
1.875268 2.046356 -0.003333 0.0
2.855738 0.598390 -0.000582 0.0
2.081877 0.653708 -0.003082 0.0
1.477503 0.218465 -0.003951 0.0
2.221364 0.938600 0.000280 0.0
3.572087 1.609260 0.002508 0.0
4.112361 2.209624 -0.003662 0.0
3.433401 1.552073 -0.001193 0.0
2.586966 0.495519 -0.000462 0.0
1.549537 0.656531 0.000116 0.0
2.668487 1.456758 0.000523 0.0
1.269589 2.032391 -0.001929 0.0
3.936687 0.927686 0.001131 0.0
2.369735 1.984907 -0.002389 0.0
3.660970 1.881048 -0.000703 0.0
3.948281 1.883028 0.001448 0.0
0.505265 0.817436 0.000951 0.0
3.209852 1.194301 0.000030 0.0
4.350615 0.547994 -0.000372 0.0
3.619831 0.739115 0.001001 0.0
0.853063 1.050788 -0.001942 0.0
1.841192 1.278044 0.002687 0.0
2.455836 2.048761 0.001156 0.0
3.955935 0.098564 0.000814 0.0
1.757225 0.388367 0.003094 0.0
2.596858 0.221991 -0.000414 0.0
0.299890 1.153952 0.002803 0.0
4.166468 0.337001 0.004804 0.0
0.270969 1.289584 -0.000378 0.0
3.801654 0.105703 0.002905 0.0
1.905562 0.411879 0.000197 0.0
2.640447 0.404906 0.000581 0.0
1.635301 0.822831 0.000328 0.0
3.334353 1.157748 -0.001241 0.0
2.675136 1.229089 -0.000563 0.0
0.016663 1.596672 0.000867 0.0
1.071569 0.512298 0.001696 0.0
1.371483 0.891111 -0.000961 0.0
1.431332 1.692714 0.000339 0.0
0.091231 0.023979 -0.002232 0.0
1.519863 1.864859 -0.005025 0.0
3.418388 0.573803 -0.002324 0.0
0.206185 1.249868 0.001859 0.0
1.003547 0.479705 -0.002357 0.0
2.203517 1.027311 -0.001017 0.0
2.523912 0.752814 -0.000831 0.0
0.721344 1.105897 0.000432 0.0
2.782144 0.535313 -0.002778 0.0
2.318023 0.271199 -0.000079 0.0
0.071515 0.985822 -0.002994 0.0
1.509439 1.099007 0.001485 0.0
0.911477 1.921043 0.001435 0.0
1.367092 0.149458 -0.004335 0.0
1.004134 1.531886 0.002092 0.0
3.861198 0.066882 0.000096 0.0
1.184356 0.929851 -0.000429 0.0
1.703251 1.846653 0.003240 0.0
2.824362 1.610824 -0.003746 0.0
4.085843 0.929098 -0.001810 0.0
2.808633 0.288761 0.000068 0.0
0.012057 1.489110 0.004081 0.0
4.035843 0.298616 -0.000945 0.0
1.704748 1.617028 0.002417 0.0
3.773782 0.267007 -0.004362 0.0
4.301730 0.890879 -0.004260 0.0
3.415331 1.576848 -0.000772 0.0
0.212487 1.031069 -0.001571 0.0
0.630353 0.081704 0.004141 0.0
2.755529 1.354893 -0.000063 0.0
0.597634 2.017675 0.001148 0.0
1.390313 0.303494 0.000278 0.0
2.948071 1.058410 -0.000181 0.0
2.574888 0.451734 0.000857 0.0
0.046276 0.200837 0.000537 0.0
0.524923 1.257031 -0.003291 0.0
3.916939 0.480543 -0.001322 0.0
0.932686 2.263677 0.001069 0.0
1.193108 1.903923 -0.001819 0.0
2.918751 1.595830 -0.002208 0.0
3.909472 0.874761 -0.001072 0.0
1.349350 1.309962 0.001225 0.0
1.022411 0.661025 0.002677 0.0
0.876763 1.955523 -0.000162 0.0
3.717912 1.521768 0.003701 0.0
0.163737 0.307414 0.005393 0.0
1.646758 1.903910 0.002712 0.0
1.742456 0.097803 0.000222 0.0
0.698410 0.185779 -0.000504 0.0
2.848445 0.926354 0.000599 0.0
1.040683 1.231988 -0.001032 0.0
0.010297 1.455499 -0.001786 0.0
0.527197 1.262106 0.002009 0.0
2.990999 0.739875 0.001011 0.0
2.989562 1.519483 0.005700 0.0
2.902959 1.693085 0.000367 0.0
2.506691 0.926190 -0.004451 0.0
2.763351 0.524198 0.000915 0.0
3.775961 0.519266 -0.000779 0.0
3.357801 0.824274 -0.002518 0.0
0.922464 2.204505 -0.000182 0.0
0.537438 1.186774 -0.000375 0.0
2.899911 0.947115 -0.002593 0.0
1.284304 1.180039 0.002892 0.0
4.064340 0.466120 0.002456 0.0
2.891916 1.345566 -0.001011 0.0
2.187513 1.053500 -0.000153 0.0
0.743285 1.367918 0.001338 0.0
1.748180 1.759171 -0.003637 0.0
2.700199 2.078193 -0.004799 0.0
1.903588 0.405794 0.001608 0.0
1.620123 2.025495 -0.003136 0.0
0.950899 2.176721 -0.006759 0.0
0.169602 0.240986 -0.004744 0.0
3.399314 0.689415 0.001745 0.0
3.746092 1.399638 -0.000171 0.0
1.047649 0.646111 0.000183 0.0
1.487253 1.945632 0.000363 0.0
1.856929 0.045155 0.002728 0.0
3.807307 1.125123 -0.004058 0.0
2.796915 0.687440 0.001560 0.0
0.364868 1.919944 0.002055 0.0
1.137409 2.028005 -0.000432 0.0
1.902009 0.326951 -0.001136 0.0
2.733531 2.169879 -0.002641 0.0
1.321186 2.135430 0.002313 0.0
0.417422 0.987873 0.002459 0.0
2.419247 0.238357 -0.002982 0.0
3.940171 0.417685 0.002806 0.0
1.912979 1.521426 0.006128 0.0
4.016645 1.861710 -0.001984 0.0
2.663249 0.685112 0.003651 0.0
1.273217 0.410680 0.001655 0.0
2.890577 1.541930 0.000549 0.0
2.957844 0.841789 0.000052 0.0
1.310152 1.167574 0.003124 0.0
1.900385 0.373034 0.001496 0.0
3.771817 0.564446 0.001160 0.0
2.314304 1.494013 -0.006654 0.0
3.074780 1.024238 -0.002980 0.0
1.613381 0.456944 0.001813 0.0
0.220632 1.156043 0.002552 0.0
4.290127 0.276346 -0.002041 0.0
1.127577 0.251652 -0.001318 0.0
0.726546 0.236486 -0.000449 0.0
1.625409 1.239660 0.006661 0.0
1.552678 0.155085 -0.001725 0.0
3.894886 1.233048 -0.000057 0.0
0.404112 0.061130 -0.001866 0.0
1.460876 1.892662 0.002080 0.0
0.997292 0.304698 -0.000109 0.0
2.280045 0.272457 0.000370 0.0
3.381479 0.141244 0.001242 0.0
2.048226 1.847994 0.000990 0.0
0.610983 0.485989 -0.001608 0.0
3.042206 1.821404 0.001390 0.0
1.283828 0.275707 -0.002973 0.0
1.161938 0.580725 0.000026 0.0
0.299795 1.803128 0.000430 0.0
2.831200 0.970971 0.001212 0.0
1.181169 1.218250 -0.004059 0.0
2.590402 0.476507 -0.005749 0.0
3.126017 0.142436 0.003411 0.0
0.212104 0.151552 0.002465 0.0
0.731728 0.842752 0.000305 0.0
4.288437 0.296006 -0.006686 0.0
3.042341 1.864658 -0.006018 0.0
1.379410 1.684716 -0.002516 0.0
0.898207 0.102105 -0.003754 0.0
2.187561 0.948585 -0.001293 0.0
2.143544 2.077342 0.000148 0.0
2.788177 1.584466 0.000344 0.0
2.163124 0.323849 0.000353 0.0
1.810605 1.798981 -0.002705 0.0
4.142633 2.231474 0.000737 0.0
3.663184 0.970859 0.004365 0.0
0.057111 2.089483 0.003753 0.0
0.116264 2.064187 -0.001636 0.0
1.276001 0.418808 -0.000817 0.0
1.151891 1.427663 0.000636 0.0
0.873153 0.385089 0.000088 0.0
2.039001 1.699533 -0.001648 0.0
3.950202 0.435736 -0.000987 0.0
2.466927 0.312141 0.001583 0.0
3.899719 0.188882 0.004970 0.0
1.634716 0.879556 -0.002420 0.0
1.849121 1.351371 -0.001425 0.0
0.093886 1.517769 -0.001826 0.0
3.424807 0.237721 0.002196 0.0
4.196899 0.559239 0.001869 0.0
1.437672 1.593792 -0.003708 0.0
2.847070 0.165260 -0.001337 0.0
2.332706 0.631656 0.003004 0.0
2.993014 0.764870 -0.001956 0.0
2.071547 1.399897 0.007142 0.0
1.505608 0.363999 -0.001115 0.0
4.261508 0.760368 -0.001277 0.0
1.450403 0.950042 0.002953 0.0
0.061320 0.681901 -0.001686 0.0
3.104031 1.460295 0.002140 0.0
1.847896 2.243174 -0.000726 0.0
2.320237 1.721267 0.001888 0.0
0.101119 1.669971 -0.000045 0.0
0.141833 1.149245 -0.005897 0.0
2.036221 0.854278 -0.002069 0.0
1.019344 0.233169 0.003444 0.0
2.875656 0.585255 -0.003736 0.0
3.439146 1.043805 0.002871 0.0
0.802717 2.044475 -0.001140 0.0
3.986949 0.227055 0.004320 0.0
2.235164 0.517711 -0.005307 0.0
0.357647 0.947395 -0.006731 0.0
1.109059 0.385192 -0.000880 0.0
3.698785 1.961888 0.001212 0.0
0.257207 2.088931 0.001184 0.0
1.387011 1.665429 0.003538 0.0
1.115548 1.285350 0.003054 0.0
1.113472 1.504084 -0.001987 0.0
1.494240 2.225713 0.004107 0.0
1.676067 1.147797 0.002729 0.0
0.921633 1.758885 -0.000279 0.0
1.530558 0.179338 0.001074 0.0
0.030561 1.032462 -0.003567 0.0
2.343681 1.777817 0.001717 0.0
0.324002 2.247770 0.003236 0.0
0.171254 0.123849 0.000664 0.0
1.648021 0.632065 0.002476 0.0
1.892652 0.121750 -0.000984 0.0
1.557907 1.135493 0.002837 0.0
1.711549 1.407992 0.001289 0.0
3.854830 0.039011 0.000449 0.0
0.207851 0.332880 0.004121 0.0
1.173416 0.449282 -0.000208 0.0
4.164659 0.283186 -0.002174 0.0
3.802781 0.484009 -0.005931 0.0
2.694820 1.499838 0.002631 0.0
1.636196 0.029556 -0.002669 0.0
2.296538 0.938865 0.002444 0.0
1.948666 1.423289 0.000031 0.0
0.495496 0.525812 0.000536 0.0
0.270033 0.146863 0.001793 0.0
2.413309 1.503253 0.001241 0.0
1.687794 0.794788 0.002797 0.0
1.668706 1.712248 -0.004217 0.0
4.025218 1.292140 -0.001198 0.0
2.388833 1.333933 0.000666 0.0
2.340169 0.424641 0.002829 0.0
3.867815 2.110614 -0.001233 0.0
3.517224 0.433810 0.002752 0.0
0.747130 0.939934 -0.003176 0.0
3.062423 1.464172 0.000058 0.0
1.193134 1.046063 0.000123 0.0
3.974311 2.281713 -0.002464 0.0
2.375551 1.420008 -0.002069 0.0
2.827615 2.184659 0.000338 0.0
3.218682 2.076288 0.004069 0.0
2.774603 0.135721 -0.002699 0.0
0.869189 1.877077 0.000342 0.0
0.217367 0.423637 0.002654 0.0
0.645839 0.040528 -0.000024 0.0
0.637914 1.327491 -0.001606 0.0
4.162141 0.699130 -0.003473 0.0
3.095159 1.116467 0.001103 0.0
4.175629 0.598383 0.004831 0.0
0.820957 1.666156 0.002158 0.0
0.649166 1.716985 -0.001677 0.0
2.674503 1.976644 0.000550 0.0
3.989586 1.271016 -0.000058 0.0
1.233144 2.196672 -0.000913 0.0
3.440767 0.663614 -0.000885 0.0
0.280046 1.692500 0.000889 0.0
2.147185 1.278819 -0.002469 0.0
1.020744 1.658723 -0.000290 0.0
4.108021 1.644403 -0.007708 0.0
2.918640 0.770960 -0.002422 0.0
3.721290 1.218633 0.001256 0.0
2.309525 0.843886 -0.003717 0.0
0.291983 2.264418 0.000066 0.0
3.988879 0.896369 0.000160 0.0
1.818079 0.287359 -0.002378 0.0
0.238339 0.848168 -0.001291 0.0
2.851877 2.249430 0.000250 0.0
4.094934 1.325621 -0.000944 0.0
3.990112 2.044867 0.000311 0.0
2.535276 1.717902 -0.005509 0.0
2.121983 2.268775 -0.000030 0.0
2.453913 0.367050 0.002971 0.0
3.244328 0.682419 -0.000409 0.0
2.397373 1.689846 -0.000380 0.0
1.641355 0.734609 0.002575 0.0
1.140146 1.164091 -0.000874 0.0
1.119867 0.891587 0.002787 0.0
4.073098 1.015950 -0.002738 0.0
1.220675 2.082491 0.000676 0.0
1.417624 0.778441 -0.000316 0.0
2.004227 0.997818 -0.000643 0.0
2.131440 1.585955 0.001188 0.0
2.593035 0.992918 0.001816 0.0
3.022687 0.885488 0.000394 0.0
2.812629 1.963025 -0.003698 0.0
3.935416 0.264641 0.001284 0.0
3.409540 1.456458 0.003992 0.0
3.182548 0.162989 0.001937 0.0
2.893109 1.053574 0.000220 0.0
0.985107 1.016269 -0.001786 0.0
2.759673 0.586764 0.003683 0.0
2.577229 1.490165 -0.001554 0.0
2.410245 1.894959 -0.000206 0.0
2.122584 0.197654 -0.000969 0.0
2.781335 0.546226 0.003111 0.0
0.987209 1.465951 -0.001833 0.0
0.109073 0.645247 0.002255 0.0
3.911192 1.045012 -0.003313 0.0
0.700244 0.601185 0.004979 0.0
3.697790 1.360575 0.002523 0.0
4.188960 1.828525 -0.000456 0.0
0.061585 1.063418 0.002462 0.0
3.918586 0.771084 0.001045 0.0
3.727954 1.495228 -0.000211 0.0
0.317972 0.593717 0.001610 0.0
3.013750 0.281741 -0.002741 0.0
0.144618 2.206732 0.003335 0.0
1.822209 1.432600 -0.002188 0.0
1.718028 0.648096 -0.000324 0.0
1.978263 0.119738 -0.001162 0.0
2.152284 0.877831 0.007316 0.0
0.455615 1.425293 -0.001968 0.0
1.045775 1.880416 -0.000503 0.0
2.792265 0.273289 -0.003832 0.0
2.332413 2.040512 -0.001105 0.0
1.491206 0.535120 -0.003642 0.0
1.242249 1.366757 -0.000555 0.0
3.245821 1.138453 -0.002310 0.0
1.326244 1.490681 0.002981 0.0
1.377821 2.244407 -0.003663 0.0
4.161557 0.796787 -0.000035 0.0
3.406338 0.157823 0.003883 0.0
2.679176 1.958785 -0.004800 0.0
1.165239 0.174197 -0.000379 0.0
2.078072 0.480309 0.002877 0.0
3.005377 2.129616 -0.002910 0.0
2.100936 1.993327 -0.003610 0.0
3.007593 1.049295 0.003447 0.0
1.374199 1.080910 0.001355 0.0
0.242340 1.356740 -0.002824 0.0
3.427367 0.451171 0.004493 0.0
0.742502 1.623378 0.002406 0.0
3.784485 2.216754 -0.001509 0.0
2.101305 1.928716 0.001734 0.0
3.131633 1.059441 -0.003708 0.0
3.115572 1.062684 0.003062 0.0
4.098344 1.139826 -0.003598 0.0
2.135522 1.087474 -0.001636 0.0
4.032704 0.265697 -0.001405 0.0
0.014420 2.147471 -0.000507 0.0
0.168002 1.260035 0.000680 0.0
0.013582 1.560110 -0.007282 0.0
3.926901 0.663907 0.001829 0.0
1.484317 1.233800 0.000637 0.0
0.272172 0.980938 -0.002238 0.0
3.621368 0.591682 0.003140 0.0
3.790050 1.354359 -0.001886 0.0
2.496941 0.822078 0.001016 0.0
2.958533 0.005560 0.001231 0.0
2.305157 1.677617 -0.002470 0.0
1.043412 1.199620 -0.000243 0.0
4.017701 1.038611 0.002489 0.0
2.158873 1.451145 0.003101 0.0
4.074282 1.981240 -0.000559 0.0
4.360172 0.775598 0.002328 0.0
2.489339 1.849460 0.000933 0.0
0.205078 0.113589 0.003228 0.0
3.035861 1.305751 0.001827 0.0
0.008368 0.319845 0.001494 0.0
3.336994 0.140894 0.002606 0.0
1.358284 0.800526 -0.005865 0.0
0.763693 1.069706 -0.000955 0.0
1.505790 2.142845 0.000891 0.0
0.215697 1.555437 0.000330 0.0
2.033971 1.545204 -0.000351 0.0
3.938704 1.684218 0.000002 0.0
0.504185 2.052431 0.001584 0.0
0.283125 1.808725 -0.001576 0.0
4.244572 0.178629 -0.004089 0.0
2.497712 0.978934 -0.002216 0.0
0.883249 1.695267 0.000971 0.0
3.838012 1.166488 -0.000195 0.0
2.860274 0.177909 0.000778 0.0
1.359903 1.395193 0.002628 0.0
3.571048 1.057987 0.001728 0.0
1.061187 0.782877 0.000769 0.0
0.733632 1.858063 -0.000371 0.0
1.003751 1.912486 -0.000699 0.0
1.894212 2.045450 0.002144 0.0
4.258100 2.071314 0.002211 0.0
4.148890 0.506091 0.001958 0.0
1.360419 0.852539 -0.004248 0.0
0.924642 1.392118 0.003532 0.0
0.970484 1.023959 -0.001087 0.0
0.112616 1.860986 -0.001849 0.0
0.208655 1.519851 0.002285 0.0
1.615943 1.153341 -0.002841 0.0
4.331217 1.284649 -0.001107 0.0
2.141469 1.117097 0.000142 0.0
3.557678 0.208061 -0.003042 0.0
3.481931 0.036388 -0.003261 0.0
4.296771 1.171532 -0.000899 0.0
1.883991 2.161774 0.001732 0.0
4.117585 0.770387 -0.000491 0.0
0.719363 2.182743 0.000381 0.0
0.211696 1.799134 -0.002593 0.0
0.654098 1.178823 -0.003004 0.0
2.098136 1.745238 0.003456 0.0
0.270316 2.100142 0.001929 0.0
2.238455 0.887135 -0.000153 0.0
0.567619 1.681095 -0.001962 0.0
1.829123 0.555381 -0.000926 0.0
3.495477 1.873117 0.000040 0.0
3.839902 1.873012 0.002527 0.0
3.156635 0.318597 0.000365 0.0
1.064184 1.541676 -0.000219 0.0
3.845307 1.993628 -0.001943 0.0
2.672904 0.590813 0.004768 0.0
2.980271 0.294388 -0.002566 0.0
4.246799 1.970641 -0.002741 0.0
2.875444 1.938261 0.000745 0.0
2.121939 2.160430 0.001035 0.0
1.079523 0.068343 -0.001212 0.0
3.617418 1.937306 0.000042 0.0
3.623662 2.040988 -0.002598 0.0
3.910440 1.781551 -0.001768 0.0
0.711461 1.144380 -0.004383 0.0
4.329487 0.712211 -0.001069 0.0
1.994057 1.970790 0.003987 0.0
4.343098 1.966369 0.001033 0.0
1.872047 1.403385 0.001434 0.0
0.763872 0.852014 -0.000463 0.0
3.919714 0.501018 0.001723 0.0
2.322891 0.100354 -0.003087 0.0
4.148450 0.918550 0.003492 0.0
3.764615 1.821170 0.000584 0.0
3.459762 1.124162 -0.000977 0.0
3.722748 0.908266 0.001365 0.0
0.502267 2.096328 0.001195 0.0
4.048208 1.048870 0.004584 0.0
1.721224 0.897715 -0.000792 0.0
1.953378 0.805638 -0.005171 0.0
2.490307 2.128035 -0.000619 0.0
1.580709 1.254344 -0.002692 0.0
2.387337 0.141892 0.000733 0.0
0.387533 1.811150 -0.000433 0.0
2.089839 1.355776 -0.001359 0.0
2.753118 2.164161 0.001726 0.0
1.430435 1.666717 -0.001296 0.0
2.195916 1.063421 -0.003004 0.0
0.338808 0.452108 -0.000871 0.0
3.083098 0.206841 0.004237 0.0
4.194535 0.390406 0.001201 0.0
0.446134 1.756269 0.001468 0.0
1.752601 0.688673 0.000186 0.0
1.252256 0.602888 0.004534 0.0
1.189841 1.373359 -0.003880 0.0
0.164153 0.426501 -0.000670 0.0
3.968750 0.844801 0.001993 0.0
1.110946 0.637240 0.002140 0.0
0.972496 0.644332 -0.002418 0.0
3.723862 1.821763 -0.003845 0.0
4.069937 1.845389 -0.003627 0.0
1.925582 0.162100 0.000301 0.0
2.708675 1.287915 0.000376 0.0
2.776475 0.410410 -0.001546 0.0
3.948062 1.858758 -0.003275 0.0
2.234102 1.916676 -0.004092 0.0
3.398670 0.228738 -0.000704 0.0
0.309047 1.518671 0.003962 0.0
1.914523 1.082345 -0.002792 0.0
1.941413 0.071418 -0.003342 0.0
3.374493 1.141679 -0.003592 0.0
1.597636 2.266775 -0.004911 0.0
0.677905 0.431014 0.001690 0.0
3.270032 1.806144 0.003151 0.0
1.896413 0.475999 0.002221 0.0
0.291924 0.758152 0.002460 0.0
0.067870 2.033087 0.003263 0.0
3.341891 2.047051 0.000033 0.0
3.539066 2.061460 -0.000697 0.0
2.263686 1.363261 -0.001273 0.0
1.572154 1.817903 -0.000636 0.0
3.680872 0.693935 -0.001816 0.0
0.966418 1.137209 0.002249 0.0
4.219274 1.140665 0.001967 0.0
3.099492 2.117431 -0.003157 0.0
0.206085 1.594814 0.002741 0.0
1.909589 1.845711 0.000284 0.0
3.844506 0.107386 0.001838 0.0
0.551850 0.906410 -0.000189 0.0
3.104177 1.111312 -0.003176 0.0
0.566647 1.518284 0.005263 0.0
2.307023 1.142272 0.003269 0.0
3.814458 1.363454 -0.001245 0.0
2.227689 0.221674 0.001800 0.0
2.048669 0.979487 0.001207 0.0
1.828829 0.099698 0.001611 0.0
3.463316 2.141714 0.001343 0.0
3.100061 0.356198 0.000844 0.0
0.363357 0.848908 0.000065 0.0
0.876845 0.379912 -0.002020 0.0
3.131212 1.832319 0.000934 0.0
0.818661 0.447243 -0.001596 0.0
0.273475 1.610232 -0.000155 0.0
0.010823 1.021934 -0.000359 0.0
2.280093 1.770421 0.004618 0.0
0.062874 0.436930 -0.002691 0.0
1.508668 0.235958 -0.002026 0.0
1.348403 0.518188 -0.000292 0.0
1.696129 1.335718 -0.004913 0.0
3.813962 0.910608 -0.000427 0.0
0.358066 0.917284 -0.001760 0.0
1.086234 0.920099 0.001481 0.0
0.383291 0.323150 0.001428 0.0
3.776730 0.009537 0.001116 0.0
1.275274 0.525046 0.001565 0.0
0.162806 0.889053 -0.001872 0.0
4.079011 2.014830 -0.001503 0.0
3.543568 1.575435 -0.002039 0.0
2.718504 1.479730 0.002987 0.0
0.070417 0.472430 -0.001978 0.0
4.017327 1.273102 -0.000415 0.0
2.734367 0.797935 -0.005218 0.0
3.153165 1.543855 -0.002910 0.0
3.200276 1.124634 0.000563 0.0
4.290768 0.676615 0.000850 0.0
2.592278 1.819044 0.005193 0.0
3.991786 1.763056 -0.000344 0.0
3.128848 0.152426 -0.001819 0.0
0.036081 1.838084 0.003609 0.0
2.925401 0.695985 -0.001519 0.0
3.977516 0.255829 0.003909 0.0
3.132234 1.557139 0.003052 0.0
1.635416 0.391677 -0.002840 0.0
3.620961 1.908969 0.001608 0.0
0.737816 1.798105 -0.000913 0.0
2.145726 1.627108 0.003207 0.0
0.555818 0.092662 -0.000554 0.0
1.271521 1.917538 0.001723 0.0
2.352537 1.787235 0.001833 0.0
2.453722 2.014827 -0.001541 0.0
4.303759 0.982649 -0.001965 0.0
0.609321 0.916426 0.000382 0.0
0.772157 1.594450 0.003156 0.0
3.902604 2.187961 0.002086 0.0
0.647226 0.683018 -0.000794 0.0
0.911129 1.068934 -0.001384 0.0
1.545246 0.531974 0.002452 0.0
0.078529 0.653176 0.000115 0.0
0.076120 0.628999 0.002092 0.0
1.779874 0.867801 0.000697 0.0
2.647425 0.288895 0.000011 0.0
4.167462 1.183941 -0.001611 0.0
3.690493 1.320954 0.001574 0.0
4.090300 1.523327 0.003229 0.0
3.566334 1.883636 -0.001817 0.0
0.128048 1.519541 -0.001980 0.0
2.139174 0.940310 -0.000238 0.0
2.596059 0.001844 0.276308 0.0
3.915808 -0.000660 0.193430 0.0
3.697636 -0.002923 0.072875 0.0
2.388981 -0.004002 0.185301 0.0
1.499204 0.002882 0.063488 0.0
1.124933 -0.005031 0.064910 0.0
1.666859 -0.004400 0.113710 0.0
2.285963 -0.000400 0.182158 0.0
1.706460 -0.002458 0.043355 0.0
3.366769 -0.001939 0.027795 0.0
1.131756 -0.002595 0.212912 0.0
4.181745 -0.002004 0.279334 0.0
2.045155 0.001137 0.121309 0.0
0.380834 -0.003737 0.082337 0.0
3.605851 0.002796 0.135868 0.0
0.309146 -0.002592 0.049730 0.0
2.529358 -0.000088 0.121672 0.0
2.147515 -0.007082 0.285612 0.0
3.535354 -0.000669 0.224025 0.0
2.432443 -0.005929 0.284827 0.0
0.228135 -0.003931 0.222969 0.0
3.895735 -0.001643 0.209419 0.0
2.775407 0.000450 0.138767 0.0
2.386096 -0.006422 0.040109 0.0
3.775221 -0.000604 0.140687 0.0
3.425731 -0.000474 0.154517 0.0
2.180387 -0.002229 0.076208 0.0
0.352315 0.001301 0.030031 0.0
1.605140 -0.001631 0.252604 0.0
4.248674 -0.004506 0.198884 0.0
3.650792 0.002596 0.090700 0.0
2.482169 0.001819 0.065257 0.0
3.178299 -0.003603 0.062111 0.0
2.531639 -0.002129 0.244888 0.0
0.370024 -0.001016 0.158413 0.0
1.980302 -0.002428 0.132541 0.0
3.367492 0.001123 0.244242 0.0
3.728061 0.001800 0.181423 0.0
1.750372 -0.000647 0.215023 0.0
2.324589 -0.001514 0.029185 0.0
2.668232 -0.000898 0.258165 0.0
2.729704 0.001951 0.041819 0.0
3.107537 0.003930 0.186866 0.0
3.970375 0.001343 0.222457 0.0
4.005875 -0.001183 0.252140 0.0
1.477886 -0.002368 0.029659 0.0
0.625771 -0.003924 0.086072 0.0
3.477541 -0.000712 0.076579 0.0
1.378020 -0.000091 0.025155 0.0
3.818387 0.001864 0.142125 0.0
4.147760 -0.000434 0.260452 0.0
3.262173 0.001667 0.107006 0.0
1.451212 -0.002305 0.285610 0.0
2.244016 0.000852 0.188658 0.0
1.783410 -0.004431 0.182129 0.0
0.522136 -0.000178 0.052459 0.0
2.198907 -0.002953 0.279804 0.0
1.648503 -0.001649 0.054274 0.0
3.982491 0.003289 0.093453 0.0
4.178483 -0.001788 0.185133 0.0
2.251169 -0.000338 0.202961 0.0
0.021349 0.000774 0.122133 0.0
0.729846 -0.005736 0.260730 0.0
3.415526 -0.004558 0.242482 0.0
1.871508 0.000903 0.271680 0.0
1.542080 0.002681 0.230993 0.0
0.899829 -0.002362 0.105800 0.0
0.757316 0.000061 0.194471 0.0
2.186198 -0.001594 0.005741 0.0
0.836196 -0.001227 0.222806 0.0
1.433008 0.001647 0.019211 0.0
3.290115 0.005420 0.200446 0.0
1.844044 -0.003141 0.257136 0.0
3.474580 -0.000207 0.287084 0.0
3.040740 -0.000256 0.154045 0.0
2.993051 -0.000494 0.227667 0.0
2.738488 0.002002 0.059072 0.0
4.325638 -0.004574 0.153529 0.0
0.785817 -0.005955 0.151765 0.0
3.941320 -0.001292 0.160287 0.0
3.209254 0.000901 0.238969 0.0
0.569162 -0.000804 0.270336 0.0
2.645779 -0.000885 0.055828 0.0
3.217359 0.001016 0.244645 0.0
4.104704 0.003355 0.084975 0.0
2.011028 0.001897 0.200193 0.0
3.945573 0.000278 0.228464 0.0
3.719364 0.000754 0.260047 0.0
3.349162 0.001032 0.167791 0.0
4.006182 -0.000561 0.243165 0.0
1.298361 -0.003093 0.062965 0.0
3.526771 0.001619 0.106432 0.0
3.292726 -0.000840 0.143645 0.0
1.068525 -0.005254 0.199075 0.0
2.030268 -0.000396 0.265735 0.0
2.083542 0.001158 0.208391 0.0
2.545130 0.000129 0.133676 0.0
4.144263 0.003771 0.092268 0.0
2.318711 -0.000935 0.007126 0.0
3.771057 -0.001864 0.285625 0.0
4.331997 -0.001682 0.134542 0.0
3.171066 0.000040 0.059100 0.0
0.416361 -0.002933 0.240850 0.0
3.306491 -0.001923 0.072481 0.0
3.799758 0.003475 0.005982 0.0
2.908504 -0.001608 0.226056 0.0
3.989151 0.001721 0.252451 0.0
1.292732 0.001792 0.114958 0.0
0.718940 -0.001102 0.038157 0.0
0.951372 -0.000027 0.050681 0.0
1.903110 0.003199 -0.000169 0.0
1.581791 0.000371 0.116883 0.0
1.922655 0.004648 0.092215 0.0
1.466217 0.000104 0.145197 0.0
3.405978 -0.000059 0.032303 0.0
3.240686 -0.000409 0.211716 0.0
3.907430 -0.001450 0.060050 0.0
3.468067 -0.000817 0.086491 0.0
2.011224 -0.000621 0.104282 0.0
4.102093 0.000948 0.095262 0.0
3.249828 -0.002887 0.275693 0.0
2.435424 -0.004808 0.280276 0.0
0.732601 0.001083 0.063750 0.0
0.642845 0.003243 0.179996 0.0
1.923297 0.002087 0.266771 0.0
2.553353 0.000495 0.099985 0.0
1.542177 -0.001611 0.283043 0.0
2.795904 -0.001508 0.153098 0.0
3.577315 0.003103 0.101518 0.0
3.399219 -0.000186 0.019741 0.0
0.826301 0.004069 0.188994 0.0
1.314564 0.000711 0.285359 0.0
3.745380 -0.004132 0.268434 0.0
0.329839 0.001999 0.041075 0.0
2.185355 -0.000455 0.116915 0.0
3.784679 0.000768 0.005654 0.0
2.516566 -0.004260 0.217682 0.0
3.150375 -0.002501 0.110591 0.0
0.702489 -0.001364 0.259372 0.0
3.777758 -0.000618 0.196619 0.0
2.726838 -0.005230 0.284453 0.0
3.555487 -0.001514 0.070470 0.0
3.061409 0.001124 0.065955 0.0
1.747402 0.001081 0.168576 0.0
3.134290 0.005743 0.023855 0.0
1.620129 -0.002820 0.145340 0.0
2.768265 -0.003512 0.121799 0.0
2.575634 -0.000725 0.287704 0.0
0.781294 0.000022 0.224368 0.0
2.489242 -0.000741 0.255851 0.0
0.086664 0.004117 0.044008 0.0
2.280841 -0.003681 0.059276 0.0
2.151336 -0.000246 0.183312 0.0
2.933895 -0.001311 0.036257 0.0
2.188841 0.003423 0.211611 0.0
4.329997 -0.003871 0.074892 0.0
2.531096 0.000155 0.107453 0.0
0.626357 0.001134 0.131246 0.0
1.936288 0.000927 0.009631 0.0
3.514191 -0.001833 0.133610 0.0
2.259377 0.000819 0.124243 0.0
3.840906 0.005415 0.242151 0.0
3.518811 -0.002148 0.136535 0.0
4.179469 0.001591 0.288131 0.0
4.320811 0.003557 0.054346 0.0
2.525463 -0.003215 0.074201 0.0
2.527047 0.000615 0.124271 0.0
3.938741 -0.002641 0.224244 0.0
0.772110 -0.003406 0.139522 0.0
3.421089 -0.004756 0.045593 0.0
1.821712 -0.003143 0.185687 0.0
0.370367 0.000803 0.069474 0.0
3.291867 -0.000980 0.075345 0.0
2.394245 -0.002227 0.171521 0.0
4.285725 -0.005778 0.242053 0.0
1.848151 -0.002709 0.153136 0.0
0.067139 -0.000851 0.152589 0.0
3.214811 -0.000867 0.060204 0.0
0.202892 0.006327 0.171177 0.0
2.353831 -0.001511 0.271387 0.0
0.407397 -0.003142 0.229328 0.0
2.768656 0.001082 0.118558 0.0
2.169453 -0.004921 0.259678 0.0
3.422845 -0.002223 0.105537 0.0
4.187048 0.001930 0.204961 0.0
2.394497 -0.001138 0.016709 0.0
1.859474 -0.000538 0.264268 0.0
0.119009 -0.001477 0.191950 0.0
1.815509 -0.001530 0.240362 0.0
0.495078 -0.002450 0.043776 0.0
2.547805 -0.001261 0.070988 0.0
0.857823 0.001920 0.261060 0.0
3.723223 -0.000803 0.013470 0.0
0.424996 -0.000678 0.041869 0.0
4.155668 -0.003674 0.235866 0.0
0.255382 0.002300 0.018711 0.0
1.565188 -0.001496 0.276230 0.0
1.783394 0.000729 0.282329 0.0
4.160782 0.001321 0.173861 0.0
2.017472 -0.001846 0.048695 0.0
2.647073 -0.001719 0.203453 0.0
0.136796 -0.002024 0.246938 0.0
3.864184 -0.007375 0.139447 0.0
2.634346 0.000576 0.045493 0.0
4.073480 -0.000215 0.246658 0.0
1.234035 0.001441 -0.000491 0.0
1.785300 -0.004163 0.157457 0.0
3.619476 -0.000278 0.192389 0.0
0.329501 0.001216 0.065243 0.0
2.969872 -0.005412 0.126134 0.0
3.783422 0.003110 0.232912 0.0
0.705388 -0.002705 0.037566 0.0
4.038708 0.005309 0.156128 0.0
1.741475 0.000707 0.170713 0.0
3.642287 -0.001678 0.219669 0.0
3.016612 -0.002741 0.121932 0.0
1.544819 0.001490 0.006096 0.0
3.551294 0.000436 0.078393 0.0
3.284386 0.001063 0.253728 0.0
2.799586 0.000338 0.239758 0.0
3.537854 -0.002889 0.254818 0.0
1.531390 -0.002494 0.059494 0.0
2.484487 -0.001414 0.205165 0.0
3.376361 -0.003593 0.260358 0.0
2.428230 0.001362 0.217174 0.0
0.222470 0.005048 0.023475 0.0
1.285225 -0.003307 0.140294 0.0
3.674564 -0.004086 0.230353 0.0
3.012866 -0.006244 0.131822 0.0
1.086505 -0.002014 0.165261 0.0
0.509440 -0.002518 0.208846 0.0
2.628471 -0.002239 0.133353 0.0
4.096779 -0.004472 0.143617 0.0
4.026335 -0.001355 0.076666 0.0
3.232204 0.000103 0.232929 0.0
0.449150 -0.000176 0.045094 0.0
2.621894 -0.003122 0.275229 0.0
2.205949 0.001282 0.135625 0.0
3.049036 0.002465 0.100504 0.0
2.767078 0.000150 0.112471 0.0
1.030784 -0.004834 0.024367 0.0
1.760888 -0.001752 0.132289 0.0
2.427719 -0.003030 0.062340 0.0
1.993526 0.001445 0.066447 0.0
2.780221 -0.001623 0.082940 0.0
3.698514 0.002598 0.124564 0.0
3.887603 0.001664 0.274238 0.0
1.930427 -0.003165 0.063842 0.0
0.317413 -0.002413 0.160851 0.0
2.945273 -0.002776 0.089218 0.0
0.994799 -0.004573 0.134929 0.0
3.707525 -0.000441 0.175945 0.0
1.710385 -0.002138 0.098912 0.0
2.337212 -0.004357 0.021357 0.0
4.028940 -0.000126 0.160595 0.0
3.463604 -0.003151 0.161614 0.0
2.727325 -0.003781 0.266909 0.0
3.700308 0.003703 0.223554 0.0
3.070766 -0.001618 0.049602 0.0
3.095469 -0.002489 0.020843 0.0
0.355533 0.002408 0.051462 0.0
0.448315 0.000934 0.226146 0.0
1.918070 0.000056 0.109025 0.0
1.452865 -0.002919 0.082724 0.0
2.970496 -0.007829 0.139994 0.0
3.241899 -0.001449 0.138174 0.0
1.856165 -0.000350 0.200919 0.0
1.430306 0.000207 0.005375 0.0
3.103086 0.000659 0.275169 0.0
3.087899 -0.003756 0.005324 0.0
3.792703 0.000469 0.058587 0.0
2.722248 -0.000406 0.155497 0.0
3.546127 -0.001773 0.077126 0.0
0.087685 -0.004307 0.224184 0.0
0.440450 0.001459 0.007386 0.0
4.166905 0.001719 0.066310 0.0
3.911089 0.003545 0.113449 0.0
3.900986 -0.000330 0.168535 0.0
2.858638 -0.002292 0.180098 0.0
3.668291 0.003132 0.121398 0.0
3.053326 -0.001920 0.111000 0.0
0.546843 -0.002914 0.247530 0.0
4.337060 0.002607 0.007740 0.0
3.010498 -0.001799 0.260203 0.0
0.169486 -0.002089 0.164009 0.0
4.284472 0.001620 0.171254 0.0
1.528212 -0.003304 0.233501 0.0
3.630169 0.002852 0.207537 0.0
2.805200 -0.000068 0.203767 0.0
1.819942 -0.000862 0.059772 0.0
3.119473 -0.003304 0.148947 0.0
1.572336 0.000036 0.085648 0.0
1.706043 -0.005877 0.223980 0.0
3.854434 -0.001879 0.200777 0.0
1.979546 0.003607 0.056161 0.0
2.363566 0.002799 0.077532 0.0
0.127348 -0.002274 0.120613 0.0
0.751623 0.002725 0.279846 0.0
1.148797 0.000087 0.051748 0.0
1.731633 -0.003629 0.087161 0.0
1.871112 -0.000123 0.114882 0.0
3.030134 0.002563 0.086573 0.0
2.973808 0.002061 0.217871 0.0
1.263821 -0.006770 0.183044 0.0
0.364260 0.004272 0.060394 0.0
0.450268 0.001980 0.191288 0.0
2.179556 -0.001700 0.070583 0.0
3.901750 0.000798 0.095444 0.0
2.687665 0.002169 0.250615 0.0
0.957622 -0.000766 0.057413 0.0
1.332886 -0.002097 0.242936 0.0
0.316357 -0.002148 0.130054 0.0
0.907567 0.002980 0.039741 0.0
1.377338 -0.002182 0.152808 0.0
3.810394 -0.000139 0.279829 0.0
2.051604 0.003106 0.053826 0.0
1.711769 0.000027 0.168446 0.0
0.744213 -0.001893 0.031101 0.0
2.000138 0.000846 0.226469 0.0
0.566804 -0.001889 0.002698 0.0
3.388196 -0.002687 0.152901 0.0
1.307012 -0.001580 0.120110 0.0
1.736882 -0.000455 0.198777 0.0
1.498513 -0.001077 0.224807 0.0
1.805728 -0.000533 0.240239 0.0
1.156013 -0.001811 0.238066 0.0
1.117397 -0.002343 0.020559 0.0
2.810635 -0.001865 0.115700 0.0
4.100547 0.002035 0.264999 0.0
2.633337 -0.000709 0.141458 0.0
1.816602 0.000030 0.264529 0.0
2.128931 0.000257 0.210646 0.0
1.510474 0.001482 0.057220 0.0
4.068121 -0.001102 0.172588 0.0
3.169085 0.000110 0.125011 0.0
0.284579 -0.001843 0.005549 0.0
3.443222 -0.000562 0.055406 0.0
3.198983 0.004258 0.021635 0.0
0.387803 -0.001037 0.139038 0.0
1.759430 0.002186 0.038392 0.0
2.070723 -0.000356 0.005180 0.0
3.654486 -0.006741 0.195904 0.0
1.648687 -0.003735 0.007730 0.0
3.806841 0.003745 0.036825 0.0
2.513090 0.002473 0.163178 0.0
0.118332 0.006115 0.223456 0.0
4.247904 -0.001359 0.103999 0.0
2.646356 -0.002065 0.028840 0.0
3.387466 -0.002521 0.278897 0.0
0.787263 0.002389 0.021472 0.0
2.932779 -0.004903 0.105353 0.0
1.981979 0.004325 0.232785 0.0
1.313069 -0.006876 0.172687 0.0
3.676122 -0.000295 0.116130 0.0
2.811306 0.000576 0.137648 0.0
2.898968 -0.002289 0.131860 0.0
4.100147 -0.001909 0.123185 0.0
1.111945 -0.000546 0.181181 0.0
0.066442 0.000393 0.284305 0.0
2.470306 0.000783 0.148591 0.0
1.946689 -0.000893 0.186541 0.0
4.143900 -0.000706 0.039003 0.0
2.439700 0.000222 0.150272 0.0
0.459217 -0.002175 0.220225 0.0
3.655824 -0.001378 0.162761 0.0
2.600760 0.002825 0.040873 0.0
0.997722 -0.002953 0.288096 0.0
4.357847 0.000584 0.192185 0.0
2.521001 -0.001197 0.122772 0.0
0.914271 0.001134 0.076220 0.0
0.181376 -0.003082 0.114784 0.0
2.586028 0.002573 0.070530 0.0
0.098913 0.003265 0.179890 0.0
3.421212 0.002714 0.144626 0.0
2.317624 -0.003532 0.254542 0.0
0.508436 0.002733 0.245099 0.0
0.232896 -0.001390 0.168534 0.0
3.038029 0.002062 0.143398 0.0
1.673768 -0.004042 0.032431 0.0
0.593810 0.001959 0.220023 0.0
2.163269 -0.002822 0.078158 0.0
0.265544 -0.000171 0.069276 0.0
3.037284 -0.004852 0.238786 0.0
3.254836 -0.003296 0.010098 0.0
0.319354 -0.006592 0.109950 0.0
3.860349 0.000752 0.270857 0.0
0.436651 -0.002144 0.238497 0.0
2.172586 -0.003273 0.162451 0.0
1.398102 -0.003522 0.006747 0.0
4.033788 -0.000128 0.209712 0.0
0.896969 -0.001393 0.148608 0.0
4.181479 -0.003745 0.280952 0.0
2.427369 0.000260 0.044658 0.0
4.157729 -0.002662 0.155999 0.0
1.460196 -0.001536 0.150418 0.0
2.028349 0.001796 0.269790 0.0
3.594934 -0.004997 0.056167 0.0
0.623221 -0.000635 0.260061 0.0
2.786998 -0.001940 0.199891 0.0
1.878596 -0.000178 0.051108 0.0
2.200976 -0.001399 0.123987 0.0
3.734882 0.000572 0.080829 0.0
1.887900 0.002946 0.127209 0.0
0.400271 0.001274 0.136887 0.0
1.479302 -0.004390 0.234143 0.0
1.585421 0.002367 0.080901 0.0
3.682825 0.000677 0.035765 0.0
1.028413 -0.002468 0.127255 0.0
3.552899 -0.000726 0.080330 0.0
2.821621 0.000795 0.084183 0.0
3.903417 0.000697 0.020666 0.0
3.203649 -0.003029 0.221932 0.0
0.415771 0.000013 0.003307 0.0
1.313342 -0.005306 0.019360 0.0
0.024767 -0.000288 0.056058 0.0
2.810633 -0.000944 0.228245 0.0
0.173814 -0.006035 0.110360 0.0
3.768143 -0.000487 0.110924 0.0
2.657647 -0.002830 0.016920 0.0
3.175955 -0.000436 0.153846 0.0
0.160165 -0.000401 0.028174 0.0
0.064817 0.000525 0.031203 0.0
3.151421 0.003188 0.273621 0.0
0.507351 -0.003781 0.205673 0.0
4.332436 0.001618 0.066962 0.0
1.726577 -0.002639 0.258112 0.0
2.153602 0.001502 0.114051 0.0
1.380674 -0.001675 0.039750 0.0
1.040111 0.002023 0.101673 0.0
1.325917 -0.001808 0.135728 0.0
0.645497 0.000205 0.122831 0.0
1.809808 -0.002302 0.030983 0.0
4.311035 0.004364 0.265665 0.0
0.757761 0.002178 0.179369 0.0
0.233448 0.002353 0.082905 0.0
3.481985 -0.005732 0.272864 0.0
1.836540 -0.000155 0.273504 0.0
1.913940 -0.002192 0.222642 0.0
3.735501 -0.004203 0.232112 0.0
2.612169 0.004759 0.253842 0.0
3.616249 -0.004565 0.015680 0.0
4.233505 -0.004556 0.144296 0.0
