3.588578 0.136556 0.002417 0.0
3.309979 0.413271 0.003480 0.0
3.266920 1.254482 -0.001487 0.0
3.382982 0.517487 -0.000460 0.0
0.405720 1.681860 0.004722 0.0
3.974426 0.878030 -0.000910 0.0
2.158644 0.417465 0.002624 0.0
0.107781 1.189836 0.001221 0.0
0.910247 1.356084 -0.000839 0.0
3.836765 0.355784 -0.004578 0.0
3.330242 1.513154 -0.004523 0.0
3.440821 1.726753 0.001925 0.0
2.474156 0.783637 0.001047 0.0
4.026161 0.787704 0.001773 0.0
3.119712 1.952897 -0.000610 0.0
3.105269 0.534752 -0.000509 0.0
0.348692 1.886740 -0.000567 0.0
0.475356 1.832503 -0.000920 0.0
0.476460 0.448416 -0.000030 0.0
3.676079 1.652895 0.001325 0.0
2.720578 1.567128 0.004221 0.0
3.651253 0.294765 -0.003360 0.0
3.057744 0.016172 0.001557 0.0
1.569114 1.208821 -0.002468 0.0
1.095518 0.456366 0.003167 0.0
2.546638 0.841805 0.002008 0.0
3.012173 0.634457 -0.001946 0.0
1.831921 0.608932 0.004658 0.0
2.325122 1.314001 0.000157 0.0
0.670484 1.160056 0.003639 0.0
2.656652 1.639424 0.000730 0.0
2.270498 1.773974 0.000699 0.0
2.010132 0.116837 0.001786 0.0
0.266897 0.453592 0.007640 0.0
3.191473 1.391573 0.002514 0.0
2.773382 1.870984 -0.003814 0.0
0.738387 1.129161 0.000084 0.0
3.382667 1.136752 0.001468 0.0
0.502855 1.094994 0.000612 0.0
1.562329 1.815731 0.001030 0.0
1.281099 1.770190 -0.000585 0.0
3.610295 0.654168 0.001253 0.0
2.958768 1.490083 -0.006020 0.0
3.305882 0.075618 0.002813 0.0
2.887280 0.628097 0.003728 0.0
0.859461 1.116443 -0.001257 0.0
2.397822 1.681478 0.000698 0.0
1.643270 0.460898 0.002534 0.0
3.999293 1.251047 -0.003261 0.0
0.147325 0.765151 0.000101 0.0
0.090215 1.959444 0.003043 0.0
3.871919 1.373561 0.003022 0.0
0.667911 1.089709 0.002209 0.0
3.615497 1.934009 -0.000018 0.0
3.253229 1.960976 0.000929 0.0
3.086928 1.192106 0.002725 0.0
1.693735 0.958140 -0.005812 0.0
2.310927 1.186807 0.003023 0.0
1.742816 1.758834 0.002820 0.0
0.520801 0.094927 0.002709 0.0
2.688434 0.236219 0.003211 0.0
3.883335 0.474197 0.000938 0.0
3.444191 1.561590 -0.002216 0.0
1.418677 1.802029 -0.002455 0.0
3.553764 1.459109 -0.001225 0.0
3.938591 1.273992 0.002617 0.0
0.811307 1.365635 -0.000679 0.0
3.042727 1.173300 -0.000632 0.0
1.695814 0.543011 -0.002708 0.0
3.970533 1.861974 0.001009 0.0
1.852995 0.859601 0.000882 0.0
3.322176 0.895043 -0.001629 0.0
3.065962 1.634095 -0.002364 0.0
0.730594 0.285338 0.004203 0.0
2.547823 1.690561 0.001555 0.0
2.187538 1.006913 -0.000963 0.0
1.207475 0.953819 0.001865 0.0
3.869758 0.692487 0.003712 0.0
1.012050 0.998169 0.001311 0.0
0.395187 0.161212 -0.005119 0.0
3.540527 1.435231 -0.002006 0.0
1.259045 1.852345 0.000374 0.0
3.405682 1.901057 -0.002322 0.0
2.031090 1.454336 -0.005833 0.0
0.782944 0.072483 0.003173 0.0
3.160529 0.747329 -0.004832 0.0
3.717257 0.442053 -0.004554 0.0
2.368891 0.734581 0.002451 0.0
1.353421 0.642928 0.000490 0.0
0.954381 1.521329 0.000168 0.0
0.705190 0.476629 -0.003773 0.0
3.493345 0.797431 0.003129 0.0
2.077532 0.967311 -0.001634 0.0
0.519605 0.636079 0.001526 0.0
1.092671 0.558471 0.002753 0.0
0.722114 1.211010 0.002354 0.0
3.986649 1.299582 0.000281 0.0
3.491722 0.965725 -0.000450 0.0
2.947139 0.066382 -0.002787 0.0
0.576429 0.631281 -0.002415 0.0
0.185643 1.807741 0.005989 0.0
1.115396 1.446216 -0.000048 0.0
1.173778 1.017188 -0.002376 0.0
1.494699 1.901471 0.000728 0.0
2.575455 0.319492 -0.001711 0.0
0.993389 0.924391 -0.001566 0.0
2.159527 0.770820 0.000594 0.0
3.644093 0.686176 -0.004624 0.0
1.505802 0.774410 -0.001440 0.0
3.826780 1.503096 0.002970 0.0
3.735601 1.915701 -0.005685 0.0
0.214885 1.800663 0.000993 0.0
3.090950 1.876053 -0.000802 0.0
3.993717 0.494583 -0.006926 0.0
1.250715 0.476120 0.004640 0.0
3.408532 1.742704 0.003425 0.0
1.709733 0.096045 0.000623 0.0
3.372360 0.176431 0.005411 0.0
0.729375 1.254468 -0.000835 0.0
2.403611 0.284164 0.000665 0.0
0.286930 1.451240 0.004764 0.0
0.655028 0.654142 -0.005655 0.0
1.883417 1.658209 0.002272 0.0
3.112418 1.225698 -0.004192 0.0
2.198110 0.845175 0.002933 0.0
3.434577 0.710733 -0.000969 0.0
3.561260 0.159622 0.002409 0.0
3.685120 1.316397 -0.000202 0.0
2.708074 0.475224 0.001354 0.0
2.254118 1.380962 -0.003627 0.0
3.232656 0.292118 -0.000382 0.0
2.292242 0.611979 0.000071 0.0
2.469509 0.699211 0.001933 0.0
0.601502 1.533154 0.002190 0.0
0.135818 1.491925 -0.002203 0.0
3.196749 1.408653 0.001569 0.0
1.043036 0.445751 -0.000677 0.0
2.388638 1.255511 0.000861 0.0
3.896892 1.064735 0.002741 0.0
1.800018 0.503818 -0.002839 0.0
2.400036 0.496288 0.003855 0.0
3.118738 1.835942 0.003008 0.0
2.195967 0.848845 -0.002266 0.0
4.116342 1.400600 -0.000486 0.0
3.199369 1.984115 -0.004440 0.0
4.119744 0.207820 -0.000921 0.0
4.030607 0.619354 -0.000766 0.0
0.125135 1.016687 -0.001402 0.0
3.269599 1.159024 0.002630 0.0
2.696705 0.083536 0.004720 0.0
0.024431 0.733848 0.005746 0.0
0.109544 0.311763 -0.002807 0.0
3.345800 1.141119 0.001372 0.0
1.573225 1.844318 0.003807 0.0
2.847053 0.278830 -0.001871 0.0
3.032123 1.857569 0.002269 0.0
3.359372 0.234539 -0.000082 0.0
0.683647 1.396748 -0.000208 0.0
3.552728 1.460563 0.004304 0.0
3.143119 1.434465 -0.003137 0.0
3.455620 0.650358 -0.001858 0.0
1.068945 1.887834 0.000884 0.0
1.154536 0.908914 -0.003367 0.0
1.855944 1.644422 -0.000162 0.0
1.359604 1.134759 0.002765 0.0
3.706184 0.067025 -0.002273 0.0
0.528104 0.301247 -0.002442 0.0
0.116581 0.383282 -0.000085 0.0
3.769620 0.414753 0.001693 0.0
1.781505 0.302343 -0.001821 0.0
0.304703 0.128888 0.001180 0.0
2.819453 0.804953 -0.002118 0.0
3.504535 1.306562 -0.001089 0.0
2.832628 0.459505 -0.001803 0.0
0.100675 1.531488 -0.000473 0.0
3.101944 0.795587 0.002302 0.0
1.874789 1.025891 0.000785 0.0
0.013074 1.069178 0.001033 0.0
2.458987 0.511979 -0.000605 0.0
0.844316 0.740769 -0.002672 0.0
4.057651 0.538088 -0.000038 0.0
3.169110 1.947392 0.003751 0.0
1.029442 0.908812 -0.005577 0.0
1.322280 0.524902 0.000074 0.0
0.693608 0.456202 0.001395 0.0
2.583974 1.068571 0.002869 0.0
3.755754 1.729778 -0.000832 0.0
1.315323 0.453298 0.003240 0.0
1.577671 1.807745 -0.000002 0.0
3.619652 0.074970 -0.003126 0.0
1.030065 1.608792 0.002516 0.0
0.378617 1.185774 -0.003812 0.0
4.052339 1.103105 0.002369 0.0
3.371677 0.318429 -0.003100 0.0
0.463661 1.024722 0.003702 0.0
2.203859 0.776432 -0.000709 0.0
0.478826 1.757399 0.001667 0.0
3.586264 0.802750 -0.001409 0.0
2.866583 1.388292 -0.001123 0.0
1.759534 1.259765 -0.004166 0.0
0.233256 0.052463 -0.000081 0.0
3.917579 0.151745 -0.002014 0.0
3.932128 1.368000 0.003576 0.0
3.189925 1.440808 -0.001111 0.0
0.499724 0.229258 -0.000800 0.0
1.424583 0.585271 -0.002164 0.0
3.771621 1.017674 -0.001516 0.0
3.029601 1.154897 -0.005260 0.0
3.379289 1.543000 0.000244 0.0
2.011389 1.920001 0.005743 0.0
2.781605 0.665507 0.000455 0.0
3.231312 0.218311 0.000951 0.0
1.856643 1.168766 -0.001228 0.0
3.873547 0.867566 0.003338 0.0
2.282101 1.444357 -0.002990 0.0
3.282272 1.978327 0.001057 0.0
0.029111 0.488472 0.003136 0.0
1.945079 0.982259 -0.002263 0.0
3.990465 1.552787 0.000359 0.0
0.532328 0.725619 0.005174 0.0
2.738768 0.309166 -0.000727 0.0
0.699170 0.236301 -0.004713 0.0
2.194210 0.388872 0.000263 0.0
2.451431 1.258799 0.002443 0.0
0.555580 1.432430 -0.003055 0.0
2.340387 1.847521 0.003260 0.0
0.229534 1.112781 0.002020 0.0
3.523215 1.026265 0.000600 0.0
3.904423 0.758412 0.003942 0.0
2.958525 1.138301 0.000547 0.0
3.143670 1.880975 -0.003800 0.0
1.220853 0.464642 -0.001147 0.0
3.976289 0.100437 -0.000200 0.0
2.312960 1.469867 0.000057 0.0
2.796695 1.667739 -0.001375 0.0
2.769168 1.653629 0.000200 0.0
0.666597 0.110609 -0.004060 0.0
3.791904 0.152665 -0.001835 0.0
4.123032 0.703818 -0.001493 0.0
3.346954 1.323844 0.000930 0.0
0.714484 1.682468 -0.000149 0.0
1.460073 1.126652 0.001175 0.0
2.333242 1.253126 -0.004432 0.0
0.836872 0.918591 -0.002976 0.0
3.429540 0.933506 0.001068 0.0
0.531536 0.055831 0.000434 0.0
2.724407 1.940471 0.001994 0.0
3.239434 1.315344 -0.000365 0.0
0.323931 0.738296 0.000736 0.0
0.845780 1.029735 0.001170 0.0
3.269488 0.915581 -0.002626 0.0
0.718858 0.031745 0.003012 0.0
0.625061 0.230817 -0.001532 0.0
1.821045 1.267910 0.001748 0.0
0.917203 0.497961 0.000897 0.0
2.205829 1.199124 0.000086 0.0
3.396618 0.884723 0.000797 0.0
2.828794 1.850264 0.002035 0.0
-0.000491 1.256710 -0.001864 0.0
0.196770 0.230026 0.001009 0.0
1.608580 0.994613 -0.001035 0.0
0.743766 0.528558 0.002704 0.0
0.834444 0.342214 -0.001320 0.0
2.873295 1.594760 -0.000245 0.0
0.295581 1.465865 -0.002885 0.0
2.606510 0.156716 0.002491 0.0
3.874196 1.282220 0.002342 0.0
3.520672 0.843359 -0.002262 0.0
2.013436 1.971455 0.002437 0.0
1.492590 1.009242 -0.000633 0.0
2.662331 0.137585 0.003313 0.0
2.988276 1.328164 0.001594 0.0
1.411252 0.478939 0.000339 0.0
0.291857 1.712367 -0.004058 0.0
0.504211 0.172488 -0.000544 0.0
0.348044 1.728492 0.000151 0.0
2.536248 0.525730 0.002954 0.0
3.160368 0.937002 0.000914 0.0
1.030427 0.486847 -0.000315 0.0
2.696203 0.283248 -0.004057 0.0
1.527201 1.509115 0.001058 0.0
2.192696 0.259521 -0.001792 0.0
2.934071 0.038980 0.000117 0.0
0.330527 0.820673 0.000411 0.0
1.859221 0.393221 -0.001144 0.0
0.500011 1.382914 -0.002890 0.0
2.008242 0.683453 -0.004858 0.0
3.967194 1.544349 -0.000840 0.0
1.210694 0.935921 -0.000390 0.0
0.624757 0.762172 0.001394 0.0
4.001302 0.375739 -0.003600 0.0
1.080671 0.056184 -0.003472 0.0
4.086547 1.173115 -0.003750 0.0
2.977251 1.440335 -0.004006 0.0
1.808696 0.360701 -0.004134 0.0
0.455366 0.298436 -0.000864 0.0
0.795875 0.699798 0.001785 0.0
2.333598 1.621384 0.003705 0.0
3.513278 1.389292 0.001936 0.0
1.902617 1.489542 0.001209 0.0
0.133675 1.409878 -0.005271 0.0
1.911696 1.734261 0.003293 0.0
2.917597 0.994693 0.003006 0.0
1.152035 1.958887 -0.002089 0.0
1.402859 0.213118 0.000470 0.0
3.992340 1.299294 0.000373 0.0
3.237204 1.675648 0.002904 0.0
0.798079 0.161482 0.000956 0.0
2.678992 1.069358 0.000823 0.0
0.478862 0.052755 -0.000887 0.0
1.188023 0.765099 -0.001357 0.0
0.250006 1.624044 0.000748 0.0
2.166144 0.396551 -0.003997 0.0
2.954731 0.669542 0.001132 0.0
3.489457 1.500162 -0.001777 0.0
0.132081 1.077174 0.000453 0.0
1.179208 0.525630 -0.001135 0.0
2.895969 1.629479 0.002796 0.0
0.837517 0.747376 -0.000688 0.0
1.003583 1.123538 0.001457 0.0
0.642003 0.826401 0.002057 0.0
1.650140 0.095116 0.000405 0.0
0.240695 1.890609 0.002104 0.0
1.863940 0.541039 -0.001958 0.0
0.005848 0.867909 -0.001884 0.0
2.626092 1.127524 0.002162 0.0
0.441427 1.431152 0.000477 0.0
3.026790 1.401479 0.000630 0.0
1.759084 0.714453 -0.001093 0.0
3.212996 1.726743 -0.001472 0.0
1.006456 1.652177 0.002218 0.0
3.051380 1.321580 0.001161 0.0
1.904141 1.928038 -0.001810 0.0
0.236076 0.622192 -0.003143 0.0
3.985942 1.558426 0.001118 0.0
0.691801 0.729045 0.000424 0.0
2.861150 0.647581 0.000129 0.0
3.579670 1.735365 -0.005920 0.0
1.879062 0.533896 0.000350 0.0
2.099990 0.654163 -0.002027 0.0
1.923465 1.611692 -0.000655 0.0
1.370505 1.235636 0.003328 0.0
2.292857 1.277738 -0.004123 0.0
3.520900 1.989478 0.003086 0.0
3.646099 0.416014 0.002943 0.0
1.375021 0.369707 0.002049 0.0
0.860309 1.191043 0.000796 0.0
3.954116 1.131130 -0.002834 0.0
2.885807 0.350639 0.001080 0.0
0.352449 1.234684 0.001317 0.0
1.901081 1.693540 0.003088 0.0
2.386363 1.395985 0.002738 0.0
1.512559 1.049572 -0.001788 0.0
1.918983 0.492271 -0.000481 0.0
1.206135 1.631637 0.001148 0.0
0.311250 1.483631 -0.000510 0.0
0.393724 0.886315 -0.001894 0.0
1.171122 1.403742 -0.000618 0.0
2.854045 1.090321 -0.000025 0.0
0.186921 0.362878 -0.005522 0.0
2.699231 1.712650 0.001866 0.0
2.974591 0.930015 0.001252 0.0
2.423669 1.608017 -0.003264 0.0
3.370998 0.561883 -0.000029 0.0
2.759075 0.480668 0.001445 0.0
0.014358 1.862500 -0.000940 0.0
2.702799 0.020915 -0.000001 0.0
1.124326 1.083256 0.001736 0.0
0.962809 0.335294 -0.002621 0.0
2.986472 1.651766 -0.001470 0.0
0.717816 0.768703 -0.001137 0.0
3.438945 1.142929 -0.001132 0.0
2.098093 0.868984 0.001885 0.0
3.695050 1.226247 -0.002735 0.0
3.716988 1.815905 0.000282 0.0
3.589753 1.864545 -0.002703 0.0
2.068840 0.304629 0.000952 0.0
1.275408 1.548454 -0.003317 0.0
1.110594 1.107311 -0.000493 0.0
3.558687 1.313722 -0.000600 0.0
2.872794 0.616336 0.001239 0.0
3.579912 1.395572 -0.001694 0.0
3.396425 1.839194 -0.000959 0.0
0.995368 1.333218 -0.004507 0.0
1.708489 0.838884 0.003438 0.0
3.116194 1.737834 -0.001438 0.0
2.586230 1.252280 -0.000497 0.0
1.037299 0.299133 0.001577 0.0
0.829829 0.699329 -0.003046 0.0
0.896095 0.332323 0.002967 0.0
2.328780 1.891506 -0.001279 0.0
0.157623 0.029161 0.000907 0.0
0.304828 0.463386 0.001102 0.0
1.158788 0.352005 -0.001918 0.0
2.496633 0.764292 0.002467 0.0
1.091660 1.798143 -0.005030 0.0
3.155205 0.682418 -0.002180 0.0
0.520767 1.858075 0.004869 0.0
2.676891 0.972973 -0.000336 0.0
1.402650 1.617338 -0.002926 0.0
1.419882 0.349810 -0.000186 0.0
1.247431 0.733681 -0.004806 0.0
1.980147 0.301880 -0.000325 0.0
3.474867 0.629197 0.000826 0.0
0.362338 1.452491 -0.003808 0.0
3.528012 0.351530 0.000431 0.0
1.546460 0.774277 0.000447 0.0
3.625548 1.052953 0.001694 0.0
2.690385 0.989826 0.000223 0.0
2.345833 0.762424 -0.002125 0.0
3.747264 1.488023 0.000318 0.0
1.015985 0.314374 -0.002005 0.0
1.736169 0.125177 -0.000621 0.0
3.874551 0.286879 -0.002113 0.0
1.078747 0.646584 0.000415 0.0
1.895907 1.782296 0.002232 0.0
4.092143 1.635246 -0.000666 0.0
2.313955 1.201711 -0.002508 0.0
3.418527 0.707415 0.000448 0.0
2.069336 0.085145 0.002857 0.0
0.845435 1.674967 -0.002621 0.0
1.508301 0.148925 0.001749 0.0
3.479273 1.238774 -0.002501 0.0
2.084691 1.290543 0.001225 0.0
2.882649 1.089873 -0.000353 0.0
3.901272 0.530477 -0.001900 0.0
3.925053 0.167884 0.003389 0.0
2.018139 1.861047 0.001545 0.0
0.464595 1.897235 -0.003568 0.0
2.705549 0.620426 -0.000416 0.0
0.801422 0.421088 -0.001572 0.0
1.182429 1.917958 -0.002608 0.0
0.718181 0.566837 0.002886 0.0
3.639229 0.772125 -0.002072 0.0
0.159526 0.370038 -0.002739 0.0
2.978657 0.282279 -0.000381 0.0
0.621180 0.750409 -0.000516 0.0
3.577467 0.891670 0.003661 0.0
2.010516 0.409846 -0.002583 0.0
3.421754 0.156678 -0.004875 0.0
0.076152 1.464552 -0.005588 0.0
0.770223 0.583089 0.000237 0.0
0.115878 0.088841 -0.001191 0.0
1.564145 0.479381 -0.005422 0.0
1.267129 1.533231 -0.004855 0.0
3.744286 -0.000005 0.001278 0.0
1.408027 0.820269 -0.002677 0.0
2.971404 1.134992 0.000234 0.0
3.948000 1.209690 0.003188 0.0
3.544481 0.881747 0.007927 0.0
3.225011 1.579862 -0.000609 0.0
0.059006 1.277469 -0.001848 0.0
3.192073 1.422655 -0.001773 0.0
1.877823 1.155549 -0.003558 0.0
0.582415 0.009962 -0.001476 0.0
3.607482 0.573282 0.001846 0.0
1.083076 0.669012 0.000746 0.0
0.665332 1.177270 -0.001643 0.0
2.610691 1.914889 0.000655 0.0
2.811228 1.291263 0.001989 0.0
1.115019 0.910541 -0.001508 0.0
0.374025 0.919027 -0.001599 0.0
2.411992 1.284319 0.000941 0.0
2.236439 1.279884 -0.004035 0.0
1.039431 0.924546 -0.003763 0.0
0.866987 1.770023 0.002491 0.0
3.829892 1.540404 0.001565 0.0
0.262501 1.513046 -0.001066 0.0
2.844990 0.368920 0.004556 0.0
1.503829 0.869235 -0.001917 0.0
2.267966 0.263031 0.002346 0.0
0.611379 1.765661 -0.003371 0.0
1.892512 0.006036 0.000084 0.0
0.420837 0.572324 -0.000155 0.0
1.002242 0.937955 -0.001915 0.0
3.667792 0.644830 0.001922 0.0
2.001828 1.733391 -0.003933 0.0
3.611743 1.543933 -0.004013 0.0
1.368298 0.222652 -0.001801 0.0
0.939130 0.355439 -0.005647 0.0
2.577487 0.702888 0.000770 0.0
3.797638 0.938027 0.000301 0.0
3.113296 1.060610 -0.000857 0.0
3.509714 0.697748 -0.003351 0.0
0.071326 1.666830 -0.001328 0.0
1.233946 0.553455 0.000959 0.0
3.211026 1.706578 -0.002379 0.0
0.368653 1.265429 -0.002476 0.0
2.921614 0.917539 -0.001813 0.0
3.931906 0.527480 0.005933 0.0
2.203505 1.000130 -0.001326 0.0
3.321326 1.291196 -0.002417 0.0
2.328227 1.783066 0.000139 0.0
0.733532 1.222631 -0.001048 0.0
2.845376 1.920578 0.003887 0.0
1.713193 1.113937 0.002355 0.0
0.835130 1.455795 -0.000893 0.0
0.036268 1.729291 0.001749 0.0
2.389965 0.465966 0.002650 0.0
0.738639 1.646388 0.001305 0.0
1.142459 0.224908 0.003035 0.0
2.236233 0.783926 -0.000443 0.0
1.314960 0.102777 -0.002925 0.0
2.109471 1.411373 0.000204 0.0
2.108191 1.442853 0.001329 0.0
0.689942 1.504261 0.000590 0.0
1.897332 1.709046 0.001345 0.0
0.520589 1.595909 0.000380 0.0
1.993091 0.762416 0.000952 0.0
3.933198 1.811823 -0.004421 0.0
1.118890 1.021833 0.005014 0.0
2.679522 0.085368 -0.000028 0.0
0.648943 0.139656 0.000319 0.0
1.674164 1.753941 -0.001210 0.0
1.063211 1.449035 -0.003256 0.0
2.023126 1.753850 0.004283 0.0
2.684186 1.415900 0.002795 0.0
2.004597 1.924018 0.000577 0.0
1.966047 1.149716 -0.003198 0.0
0.480619 0.051258 0.001531 0.0
2.705734 0.977743 -0.002801 0.0
1.564479 1.539887 0.000111 0.0
0.242231 0.099583 0.002561 0.0
1.064456 1.066942 -0.001244 0.0
2.399518 0.206251 -0.002763 0.0
1.467228 0.451166 0.002501 0.0
1.441253 1.245934 0.004484 0.0
2.304369 0.112428 -0.001294 0.0
2.772713 0.762149 -0.004288 0.0
0.676772 1.486420 0.000646 0.0
2.069567 1.354630 0.003041 0.0
0.330672 1.677339 -0.000257 0.0
0.650111 1.341485 -0.003318 0.0
1.991306 1.272295 0.001635 0.0
2.235635 1.491245 0.003232 0.0
0.830970 0.357045 -0.001673 0.0
0.618879 1.597056 0.000356 0.0
0.898315 0.749944 0.001397 0.0
3.944521 0.512316 -0.001358 0.0
3.221499 1.518351 0.000983 0.0
3.971699 0.219393 0.001266 0.0
4.046423 0.784659 0.000618 0.0
2.947883 0.976212 0.002606 0.0
0.546725 1.884644 0.000535 0.0
2.033021 1.349529 0.000048 0.0
3.310520 1.055079 0.002222 0.0
2.613862 1.836709 -0.004299 0.0
3.247884 1.221358 -0.000525 0.0
1.521230 0.176924 -0.003471 0.0
0.564858 1.361792 0.000248 0.0
2.103023 0.364039 0.001185 0.0
0.539417 1.763300 -0.000759 0.0
1.171792 0.607396 -0.002493 0.0
3.061837 1.923686 0.003193 0.0
0.859911 0.116895 -0.001240 0.0
0.347002 0.658801 0.000650 0.0
1.635192 1.756153 0.000192 0.0
2.317720 1.170395 0.000712 0.0
0.408164 1.044437 0.003104 0.0
1.213162 1.340348 0.001501 0.0
3.172646 1.598564 -0.000842 0.0
1.675961 1.674780 -0.001889 0.0
2.755158 0.392810 -0.002912 0.0
0.514466 1.303494 -0.002649 0.0
0.559059 0.842169 -0.001207 0.0
2.265963 1.731336 -0.002422 0.0
2.645155 0.120219 -0.001761 0.0
1.799520 0.283077 0.004555 0.0
3.663461 1.224938 -0.000229 0.0
2.567479 1.798257 0.001940 0.0
1.451278 1.467900 0.003346 0.0
1.482392 0.105520 -0.000204 0.0
0.956522 1.012676 -0.000849 0.0
3.129227 0.325501 0.006974 0.0
3.578482 0.307531 0.007560 0.0
3.628067 1.869996 -0.002024 0.0
3.889205 0.720968 0.003100 0.0
1.644629 0.251358 -0.002488 0.0
0.169569 1.539582 0.000186 0.0
3.589476 0.815315 0.001692 0.0
2.088012 1.350448 -0.000455 0.0
1.915164 0.537195 0.000949 0.0
0.527058 0.171569 0.001451 0.0
0.112400 0.540657 -0.001695 0.0
2.699839 1.621648 0.005461 0.0
2.454047 0.349392 -0.002795 0.0
1.496589 0.337270 -0.000134 0.0
3.834249 0.027172 0.000289 0.0
0.125425 0.923971 -0.000501 0.0
0.510726 0.168755 -0.005207 0.0
2.369312 0.634592 0.003001 0.0
0.075681 0.297668 0.000904 0.0
3.580289 1.604397 -0.003506 0.0
0.245210 1.380566 0.002357 0.0
1.025395 1.042987 -0.003057 0.0
1.698711 0.032211 -0.004553 0.0
2.098481 0.904236 0.000534 0.0
1.199102 1.947614 -0.001724 0.0
2.468859 1.918720 0.000473 0.0
3.830643 0.525602 0.001861 0.0
3.753235 1.685024 0.002505 0.0
3.253219 0.909650 -0.000301 0.0
3.821897 0.471332 -0.002844 0.0
2.107853 0.899729 0.000810 0.0
3.572731 0.841748 0.001126 0.0
0.426324 0.537249 -0.000863 0.0
0.559013 1.409280 -0.002521 0.0
1.979925 1.416790 0.005125 0.0
0.792967 1.694244 0.003159 0.0
2.808174 1.290729 0.000240 0.0
2.489318 1.072390 -0.000076 0.0
2.013641 1.167741 -0.000268 0.0
2.876929 0.848179 -0.001406 0.0
4.091660 1.819341 -0.001919 0.0
3.659595 0.477342 0.001339 0.0
1.478844 0.140311 -0.001823 0.0
1.647959 1.457350 -0.000351 0.0
2.544203 1.981440 0.002331 0.0
0.178188 0.932368 0.004238 0.0
0.905728 0.742595 0.001769 0.0
0.958714 0.874484 0.001662 0.0
2.269907 1.393783 -0.000672 0.0
1.080774 1.468075 0.000344 0.0
0.994458 0.117516 -0.000144 0.0
2.337942 0.260068 -0.000463 0.0
3.994296 0.217901 -0.002098 0.0
0.703470 0.835009 -0.002580 0.0
3.993483 0.925067 -0.001133 0.0
2.083451 0.447989 -0.006104 0.0
3.797755 1.300432 -0.002210 0.0
3.028886 0.387411 -0.000230 0.0
0.522706 0.098104 -0.000308 0.0
3.383084 0.833903 0.001860 0.0
4.103195 1.595742 0.000644 0.0
3.217273 0.612038 0.001171 0.0
1.950123 0.105107 -0.001272 0.0
1.504588 0.454409 -0.003179 0.0
1.596045 0.442735 0.001122 0.0
2.852477 1.014281 0.002131 0.0
3.288970 0.339091 0.003481 0.0
3.669469 0.674667 -0.003862 0.0
0.068881 1.731098 -0.006295 0.0
1.341723 0.670674 0.000110 0.0
0.464719 0.670566 -0.001965 0.0
0.094436 0.879476 -0.003112 0.0
1.392183 0.117044 -0.000396 0.0
1.054217 1.607806 0.000081 0.0
3.272536 1.703864 -0.001439 0.0
4.097252 0.331721 -0.000528 0.0
3.751746 1.555821 0.000647 0.0
1.141217 0.807083 -0.002986 0.0
3.681654 1.759540 0.001472 0.0
1.470340 1.592929 0.000299 0.0
1.461626 0.433396 0.002574 0.0
1.643000 1.614166 0.001615 0.0
2.262925 0.069034 0.003280 0.0
3.030409 1.844031 -0.000431 0.0
2.638656 0.197867 0.005106 0.0
3.655072 0.122473 0.001779 0.0
3.253407 0.894629 0.001709 0.0
2.110761 0.509251 0.003738 0.0
0.957242 1.681181 0.001453 0.0
2.977088 1.427600 0.001417 0.0
2.860724 0.409674 0.004414 0.0
0.765768 0.602508 -0.003059 0.0
0.068372 0.848670 0.001202 0.0
0.134581 1.331125 0.000066 0.0
0.642652 0.861608 -0.003858 0.0
2.358958 0.227632 -0.000564 0.0
1.432876 0.669408 0.000182 0.0
1.392045 1.344990 -0.001159 0.0
3.050242 0.263942 -0.002099 0.0
3.814555 1.335966 0.001387 0.0
0.706094 1.417870 0.004593 0.0
1.363699 1.953872 0.002484 0.0
2.978797 1.310776 0.001777 0.0
2.864250 0.657299 -0.000101 0.0
0.330100 1.553926 -0.002640 0.0
2.724397 0.932184 -0.001625 0.0
2.797567 0.877987 0.006533 0.0
0.142150 0.568098 -0.001232 0.0
3.133821 1.808853 0.000500 0.0
4.106694 1.296279 0.001734 0.0
2.562665 0.746259 -0.003026 0.0
0.244365 0.348355 0.000962 0.0
1.325605 0.024695 0.001627 0.0
2.393219 1.607876 -0.001602 0.0
0.999703 1.772548 0.000909 0.0
3.130590 0.776417 -0.001976 0.0
2.150568 0.375280 0.000805 0.0
0.900237 1.807188 0.001483 0.0
0.339576 0.100882 -0.003100 0.0
0.113598 0.519286 0.006916 0.0
3.126079 0.982378 -0.005238 0.0
3.669655 0.807078 0.000650 0.0
1.479195 1.968702 -0.000708 0.0
3.263915 1.102826 0.000944 0.0
2.191244 0.628560 -0.002421 0.0
1.959144 0.918462 0.002551 0.0
3.178049 1.488550 0.002161 0.0
3.760118 1.966002 0.000601 0.0
0.579497 0.330503 -0.000276 0.0
0.282610 0.839045 0.004261 0.0
2.700843 1.785754 0.002091 0.0
2.995920 0.808567 0.000686 0.0
2.375011 0.176120 -0.002663 0.0
2.571645 0.020228 -0.002854 0.0
2.095583 0.853868 -0.000764 0.0
0.011973 1.269473 0.002744 0.0
1.389729 0.962106 0.002134 0.0
2.701231 0.609766 0.002272 0.0
2.443367 0.151223 -0.003502 0.0
3.605215 0.955362 -0.006093 0.0
1.739528 1.496523 -0.002901 0.0
3.061913 0.485186 -0.002006 0.0
2.396532 1.126016 0.001041 0.0
3.104082 0.159771 0.000411 0.0
3.363908 1.771750 -0.000810 0.0
4.110218 0.355252 -0.001563 0.0
4.101741 1.621966 -0.000147 0.0
1.377961 0.410722 0.003890 0.0
0.683381 0.473057 -0.002202 0.0
1.763093 1.055444 -0.002307 0.0
3.959046 1.670235 -0.001140 0.0
2.153274 0.826500 0.002691 0.0
0.925009 1.065703 -0.000346 0.0
3.195893 0.573994 -0.001042 0.0
0.158075 1.245807 0.005717 0.0
0.914150 1.304668 0.006090 0.0
3.463119 1.686351 0.000040 0.0
2.257924 0.756884 0.000349 0.0
1.689382 0.717997 0.003177 0.0
1.136388 0.801827 0.005367 0.0
3.463965 0.974065 -0.001343 0.0
1.389459 0.095959 -0.000233 0.0
2.847365 1.485666 -0.000281 0.0
1.144648 0.917459 -0.000311 0.0
1.721670 1.449943 -0.004250 0.0
1.269613 0.919251 -0.001380 0.0
3.424660 1.236836 -0.005156 0.0
0.175047 0.373172 -0.002272 0.0
1.438247 1.380894 -0.000181 0.0
0.189813 1.421703 0.003031 0.0
1.380984 0.846764 0.001465 0.0
1.755993 1.540627 0.000301 0.0
0.063979 1.603098 -0.005574 0.0
1.675233 0.323057 0.002497 0.0
2.715413 0.537583 -0.000208 0.0
0.800663 1.915824 0.002625 0.0
3.141676 1.708744 -0.000582 0.0
2.753921 0.749587 0.004533 0.0
3.685975 1.842579 -0.000784 0.0
0.310933 0.798973 -0.003387 0.0
2.182297 0.298464 0.005857 0.0
0.572711 1.641373 0.000740 0.0
0.579418 0.506671 0.000001 0.0
3.122476 0.307488 0.000380 0.0
2.954013 1.867506 0.003328 0.0
3.774559 0.236839 0.002891 0.0
1.603544 0.656447 0.000450 0.0
3.653255 1.789796 -0.000291 0.0
1.661067 1.498030 -0.000590 0.0
1.802439 0.031354 -0.001494 0.0
3.845587 0.190819 0.001329 0.0
3.323119 1.862175 0.001935 0.0
1.336414 0.215457 -0.000804 0.0
0.497802 0.414955 0.002720 0.0
3.017229 0.467626 0.001903 0.0
1.186733 0.906808 0.001057 0.0
2.150734 0.007486 0.000108 0.0
1.308527 1.427836 -0.002625 0.0
2.509131 1.046348 0.001301 0.0
2.685684 0.803598 0.001870 0.0
2.125938 0.088555 -0.003987 0.0
3.933677 1.164339 0.000178 0.0
3.797059 0.848513 -0.000173 0.0
3.550384 1.645354 0.000647 0.0
3.010711 0.746931 0.001132 0.0
4.044327 1.453164 -0.001451 0.0
1.950156 1.268668 -0.002443 0.0
1.064029 0.452502 0.002766 0.0
3.848452 0.484662 0.000097 0.0
3.336151 0.437029 -0.000668 0.0
1.414205 0.489008 -0.005421 0.0
2.791418 1.240779 0.001739 0.0
2.519624 1.724200 -0.001490 0.0
0.187528 0.266750 0.004940 0.0
2.583466 0.104280 -0.001445 0.0
1.927051 1.668917 0.000619 0.0
0.081673 0.611744 -0.002732 0.0
0.958102 0.906997 0.006356 0.0
3.351614 0.457214 -0.000643 0.0
3.498784 1.948811 0.001462 0.0
0.741800 0.018469 0.003816 0.0
1.474972 1.131208 0.000257 0.0
0.487851 0.712450 0.000999 0.0
1.267839 1.747618 0.004689 0.0
0.721518 0.788626 0.001452 0.0
1.663399 0.551768 0.001115 0.0
0.102905 0.304332 0.003097 0.0
2.473309 1.777917 0.001720 0.0
1.802502 1.002372 0.002316 0.0
0.097513 1.259404 -0.000797 0.0
2.229649 0.279845 0.000698 0.0
2.691643 0.617652 0.003411 0.0
4.001502 0.511507 -0.000404 0.0
2.091942 1.438428 -0.000820 0.0
0.790613 1.270501 0.001120 0.0
2.510471 1.713336 -0.002899 0.0
0.935946 0.167176 0.002669 0.0
1.998410 0.843813 0.002205 0.0
2.516525 0.831425 -0.000453 0.0
2.056523 1.706567 0.002210 0.0
2.420355 0.459798 -0.006952 0.0
2.102151 0.962738 0.002003 0.0
1.074990 1.269646 0.003590 0.0
1.812783 0.754900 -0.000841 0.0
3.373216 0.714485 -0.001534 0.0
1.492898 0.862530 -0.007412 0.0
4.067754 0.136928 -0.003075 0.0
3.738958 0.863551 0.002078 0.0
0.318603 0.338094 0.000607 0.0
2.113969 0.904230 0.001151 0.0
2.043444 1.955340 -0.000385 0.0
3.030612 1.225298 -0.002672 0.0
2.476572 1.125824 0.001774 0.0
1.704793 1.237818 0.000826 0.0
3.008246 0.213335 -0.000883 0.0
3.139250 1.238205 0.000180 0.0
1.113829 1.406192 -0.006370 0.0
0.246660 1.387706 0.001403 0.0
0.281204 0.666995 0.001826 0.0
2.580417 0.229942 -0.000103 0.0
2.140990 1.090462 -0.003532 0.0
3.842505 0.826431 -0.003519 0.0
2.066711 1.714159 -0.000420 0.0
3.553121 1.609651 -0.004362 0.0
0.914317 1.023364 -0.002876 0.0
1.620301 0.809302 -0.001394 0.0
2.920569 0.829915 0.001900 0.0
1.894766 1.695300 -0.001461 0.0
0.368892 0.038451 0.000494 0.0
0.156603 1.768612 0.001925 0.0
3.097640 0.682785 -0.002002 0.0
2.643096 0.909367 0.000434 0.0
3.127823 0.442760 0.002215 0.0
2.692279 1.840963 0.004179 0.0
0.917921 0.305732 -0.001464 0.0
1.234368 0.039084 0.002468 0.0
0.338783 1.522427 -0.001247 0.0
0.964716 1.979975 -0.001684 0.0
1.581670 1.233187 0.003011 0.0
1.989254 0.724703 0.006978 0.0
1.945344 0.813721 -0.002230 0.0
3.794968 1.982937 -0.002289 0.0
4.106132 0.203045 0.003653 0.0
0.336168 1.625311 0.000793 0.0
0.155169 1.089706 0.003629 0.0
3.890874 0.300856 -0.001517 0.0
1.331913 0.008794 0.000150 0.0
4.041392 0.891657 -0.001625 0.0
3.661953 1.679152 0.000203 0.0
0.859028 1.950564 -0.002139 0.0
0.101232 0.843176 -0.001394 0.0
0.173743 1.561676 0.000206 0.0
1.033131 1.902339 0.004806 0.0
2.912657 0.757715 0.005198 0.0
0.511858 0.820218 0.002614 0.0
3.329165 1.033897 0.002337 0.0
2.869622 1.019232 -0.002005 0.0
0.087804 1.930731 0.002950 0.0
1.266904 1.379737 0.001246 0.0
1.270362 0.962396 -0.001728 0.0
0.831220 0.235872 -0.000571 0.0
3.086643 1.293675 -0.002274 0.0
3.528349 1.819893 0.003488 0.0
2.555274 0.142079 -0.001825 0.0
3.855871 0.723677 -0.000276 0.0
1.791085 0.661996 0.000818 0.0
3.335150 1.401981 0.002260 0.0
3.211973 1.845930 0.001731 0.0
3.322655 1.240881 0.003861 0.0
0.148241 0.793897 0.000661 0.0
2.745484 1.005042 -0.005994 0.0
1.700397 0.145309 -0.002929 0.0
1.316324 1.576384 -0.004838 0.0
1.232173 0.728644 -0.000095 0.0
2.222090 0.035740 0.004445 0.0
3.887331 1.849698 -0.000701 0.0
2.503180 1.431912 -0.004201 0.0
2.125255 0.979082 -0.000751 0.0
0.474378 0.528819 0.002286 0.0
1.769071 0.122203 0.001310 0.0
3.603180 0.259325 -0.002369 0.0
0.158493 0.728593 0.000048 0.0
3.662045 0.351343 0.001003 0.0
0.996878 1.970307 0.002938 0.0
1.460773 1.534070 0.003021 0.0
1.684365 0.678498 0.001886 0.0
0.720339 1.480711 -0.001360 0.0
0.645646 0.160146 0.000642 0.0
2.444358 0.731412 0.000366 0.0
2.972613 0.135908 0.002989 0.0
1.766528 1.277282 -0.003253 0.0
2.418340 0.189762 -0.001382 0.0
-0.002243 1.314536 -0.001250 0.0
3.056500 1.660126 -0.002110 0.0
0.583819 0.196928 -0.000831 0.0
1.099369 1.886349 0.000474 0.0
3.896888 1.275662 0.000715 0.0
3.848058 0.180277 0.002367 0.0
1.772848 1.498763 -0.002981 0.0
3.201453 1.654061 0.004779 0.0
3.275973 1.918066 0.000663 0.0
3.714816 1.857260 0.001197 0.0
1.730950 0.008528 -0.001747 0.0
2.627815 1.185775 0.003507 0.0
0.245976 1.580013 -0.001101 0.0
0.264610 1.452075 0.001028 0.0
0.385588 0.203626 0.001653 0.0
2.349626 1.550966 -0.001186 0.0
0.425264 1.592819 -0.000735 0.0
2.798759 1.940206 0.002165 0.0
0.381468 1.734911 0.002295 0.0
1.433006 1.697277 -0.000030 0.0
2.782467 1.267845 -0.003480 0.0
1.032579 0.529803 0.000708 0.0
3.790175 0.353392 -0.000895 0.0
0.774658 1.975437 -0.001626 0.0
3.438812 0.674747 -0.003107 0.0
0.268539 1.831453 0.000475 0.0
3.122247 0.888421 0.003686 0.0
0.714994 0.111354 0.001066 0.0
3.497459 0.943334 -0.001485 0.0
2.017944 0.034011 0.001136 0.0
1.760175 0.590779 0.000345 0.0
2.186771 0.432998 -0.001901 0.0
1.846771 0.096522 0.001319 0.0
0.115153 0.018856 0.001000 0.0
3.602259 1.410181 0.003688 0.0
0.240473 1.282274 -0.001243 0.0
0.643931 1.414635 -0.008466 0.0
0.540821 1.237452 0.000027 0.0
3.441585 1.866859 0.002547 0.0
1.343758 0.614491 0.005093 0.0
4.015116 1.111410 0.003230 0.0
2.607225 0.652597 0.001124 0.0
2.119575 0.178137 -0.000121 0.0
1.817968 0.433319 0.001347 0.0
4.051743 1.807870 0.002318 0.0
3.408407 0.792160 0.000210 0.0
0.683457 1.086628 -0.000925 0.0
2.554423 1.197862 0.000221 0.0
1.599680 1.364102 0.004242 0.0
2.706615 0.902493 0.001445 0.0
1.915958 0.532486 0.001907 0.0
0.182017 1.406215 -0.001856 0.0
2.713893 1.053428 0.000224 0.0
3.151416 1.411108 0.003500 0.0
3.856256 0.589200 0.003764 0.0
3.343363 0.604208 0.001529 0.0
0.575296 1.100142 0.004650 0.0
2.678259 0.869171 -0.000913 0.0
1.168508 0.231970 -0.004214 0.0
2.979050 0.285984 0.002850 0.0
2.167189 0.905238 -0.002461 0.0
0.778516 1.767093 -0.003843 0.0
1.520231 1.297139 0.003046 0.0
0.503541 1.640353 0.000379 0.0
0.331817 0.745636 -0.001932 0.0
0.843739 1.215807 -0.001934 0.0
2.652447 0.162412 0.001141 0.0
1.218885 1.647525 0.006266 0.0
1.913500 1.750066 0.000288 0.0
3.669642 1.658013 0.002294 0.0
4.090461 1.638879 -0.001730 0.0
1.465885 0.805569 0.001364 0.0
1.742439 1.511215 -0.000339 0.0
1.013571 1.289196 -0.000516 0.0
1.315732 1.216504 -0.001375 0.0
2.220987 1.266842 -0.003289 0.0
1.023315 0.215029 -0.003077 0.0
3.656878 1.487106 -0.000305 0.0
0.702964 1.921389 0.000565 0.0
2.322102 1.529096 -0.003050 0.0
3.228247 0.126841 -0.001303 0.0
2.546915 1.198240 -0.001547 0.0
2.988614 1.923496 -0.004234 0.0
2.948503 0.978542 -0.001891 0.0
0.123674 1.621937 0.003313 0.0
1.019687 1.912725 0.003426 0.0
3.764012 1.508282 0.000529 0.0
3.667113 1.441694 -0.003208 0.0
1.685265 0.159521 0.003401 0.0
3.335872 0.601648 -0.000025 0.0
1.580328 0.916980 -0.002876 0.0
0.724873 1.762860 0.002081 0.0
1.740568 0.682281 0.001870 0.0
1.830881 0.641206 -0.000135 0.0
1.280598 0.330287 0.000980 0.0
1.466680 1.195417 -0.002037 0.0
0.672145 1.409403 -0.002844 0.0
0.835920 0.433599 -0.003980 0.0
1.202337 0.207823 -0.004257 0.0
1.981256 1.498885 0.000283 0.0
1.561500 1.296157 0.000524 0.0
2.359443 1.330592 0.003613 0.0
1.994324 1.384025 0.003421 0.0
0.649374 1.332392 -0.000227 0.0
2.486442 0.415267 -0.000491 0.0
3.563562 1.658016 -0.000125 0.0
1.283419 1.606426 -0.005242 0.0
3.178723 0.248563 -0.000951 0.0
2.708613 1.351917 0.004979 0.0
2.841657 0.974600 0.003713 0.0
4.096231 1.165298 0.003786 0.0
0.071894 1.504058 0.001346 0.0
2.743669 0.314334 0.001689 0.0
0.379597 0.443317 -0.003625 0.0
3.793342 0.012638 0.000991 0.0
1.160994 1.488880 -0.004191 0.0
1.561055 0.245352 -0.001854 0.0
0.311282 0.458041 -0.001581 0.0
0.336305 1.405298 0.004006 0.0
2.678198 1.633927 -0.000628 0.0
0.960905 1.705174 -0.001026 0.0
2.321505 1.622874 0.001060 0.0
4.104399 1.092434 -0.001657 0.0
0.710872 0.646129 0.000504 0.0
4.050015 1.843031 0.002432 0.0
1.653052 1.477066 -0.000112 0.0
0.232678 1.233441 0.001851 0.0
4.103942 1.432906 -0.000005 0.0
-0.000221 1.011205 0.002314 0.0
3.287739 0.285129 -0.001429 0.0
2.163675 1.810489 0.003224 0.0
0.127718 0.427521 0.003447 0.0
0.142666 1.939245 -0.000171 0.0
0.447932 1.608960 0.002320 0.0
2.536424 0.600043 0.002704 0.0
2.900176 0.150316 0.004785 0.0
0.914951 1.399828 -0.001397 0.0
1.313445 0.505533 -0.001036 0.0
3.052021 1.955225 0.002236 0.0
2.878260 0.861035 0.002100 0.0
3.609395 0.916835 0.003925 0.0
0.976892 0.553452 0.000514 0.0
2.170253 1.448352 0.001301 0.0
1.360760 1.686752 -0.002031 0.0
3.319923 0.662620 0.002686 0.0
2.927453 0.814905 -0.000523 0.0
3.792521 1.072158 -0.003606 0.0
2.337406 1.018961 0.002117 0.0
3.204011 1.234942 0.000551 0.0
3.975415 0.490227 0.001277 0.0
3.739335 1.944972 -0.003409 0.0
1.561569 1.433056 -0.002408 0.0
2.790985 1.368780 -0.002158 0.0
0.197886 0.307811 0.003478 0.0
2.194006 1.646773 -0.000556 0.0
3.369263 1.673552 0.002390 0.0
0.825836 1.597616 -0.004055 0.0
1.132985 1.119416 0.001792 0.0
3.510908 1.460165 0.000481 0.0
3.479485 0.072746 0.001596 0.0
0.508223 1.283373 0.003538 0.0
2.670117 0.179001 0.002631 0.0
1.467737 0.391796 0.000438 0.0
0.397901 1.750384 -0.000710 0.0
0.386082 0.918965 -0.003043 0.0
1.652264 1.584564 0.000659 0.0
0.947357 1.547667 0.004254 0.0
0.141281 0.547738 -0.002568 0.0
0.716145 1.342662 0.000656 0.0
1.127260 0.178615 0.002214 0.0
1.564485 1.292198 -0.007100 0.0
1.569755 1.865478 -0.001520 0.0
2.534225 1.242766 0.003189 0.0
0.303590 0.924207 -0.000969 0.0
0.845678 1.072383 -0.002323 0.0
4.010843 1.685030 -0.000603 0.0
1.862402 0.907294 0.001164 0.0
3.348433 1.201095 -0.001098 0.0
2.559799 1.619666 -0.003578 0.0
1.439011 1.435887 -0.000492 0.0
0.062102 0.303301 -0.000079 0.0
3.113326 1.030970 0.001535 0.0
0.773418 0.597057 0.000560 0.0
1.929032 1.967554 0.000872 0.0
1.220659 1.547059 -0.002897 0.0
0.289819 1.577919 0.000331 0.0
2.127411 0.652666 -0.002480 0.0
1.949904 1.278014 0.000206 0.0
0.064378 0.526832 0.002663 0.0
3.756071 0.375123 0.001081 0.0
3.198761 1.698209 -0.002217 0.0
3.097961 0.563534 -0.000713 0.0
0.188469 1.222606 0.004620 0.0
1.041284 0.280291 0.002902 0.0
2.773342 1.378875 0.000191 0.0
3.054280 1.669222 0.000742 0.0
3.121654 0.017375 0.002380 0.0
3.314666 1.345326 0.005550 0.0
3.587499 0.180731 -0.002235 0.0
0.245366 1.873226 0.001396 0.0
0.222810 1.452107 0.000026 0.0
1.801234 0.009832 -0.000261 0.0
3.592672 0.566695 0.000995 0.0
2.280606 1.342286 -0.000507 0.0
1.913992 1.587139 0.002074 0.0
1.756352 1.515607 0.002956 0.0
1.493013 0.732886 -0.001684 0.0
3.769383 1.102339 0.001985 0.0
0.371451 1.311573 0.001689 0.0
3.408664 1.847770 -0.003926 0.0
1.808474 0.248253 0.002285 0.0
0.439561 0.938882 0.003325 0.0
3.254107 1.107720 0.003979 0.0
1.774861 1.363896 0.001505 0.0
2.036833 1.479524 0.004232 0.0
1.658327 0.998497 -0.000003 0.0
2.920435 1.816168 -0.000364 0.0
1.046122 0.812288 -0.000122 0.0
3.659782 1.939125 0.001917 0.0
0.564207 0.603550 0.003366 0.0
0.601388 0.525109 0.000657 0.0
3.434486 1.957606 -0.000385 0.0
0.216783 0.551094 0.002444 0.0
0.674198 1.146063 0.005066 0.0
0.924876 1.878442 -0.001996 0.0
0.855780 1.202799 -0.000760 0.0
0.954740 0.933450 -0.007372 0.0
1.564901 0.840819 0.000295 0.0
1.616278 0.442391 0.002277 0.0
2.950346 1.238212 0.004591 0.0
0.617749 1.209794 0.000446 0.0
2.864059 1.637071 -0.001741 0.0
3.717817 0.472235 -0.000761 0.0
1.334048 0.109813 -0.001268 0.0
2.604004 1.066394 0.001824 0.0
3.756604 0.442227 -0.000505 0.0
1.100363 0.972669 -0.002195 0.0
0.515078 1.912451 -0.002270 0.0
1.764422 0.816056 0.000529 0.0
1.477765 0.811775 -0.002728 0.0
3.292739 0.049333 0.001874 0.0
0.195075 0.860258 0.000440 0.0
0.958659 1.527423 0.001742 0.0
0.766242 1.478325 0.002635 0.0
3.170516 0.429643 -0.000196 0.0
0.842931 0.677514 0.000432 0.0
3.782208 0.896908 0.002305 0.0
1.332534 0.655822 -0.000143 0.0
0.992979 1.411777 -0.002674 0.0
1.393883 0.419828 0.000223 0.0
1.731376 1.524623 0.005074 0.0
3.395571 0.710116 -0.000909 0.0
2.019569 0.532036 0.000792 0.0
2.960097 1.367807 0.002300 0.0
0.513309 0.935742 -0.004096 0.0
0.967192 0.073987 -0.000553 0.0
2.683297 1.526013 -0.003133 0.0
2.594573 1.377457 -0.002059 0.0
3.726172 0.102430 -0.002557 0.0
0.827902 0.520105 0.000385 0.0
0.797884 0.510395 -0.001748 0.0
2.606119 1.017965 -0.000250 0.0
0.559951 0.535772 0.002780 0.0
3.498300 1.817908 -0.007055 0.0
2.543543 1.473244 -0.003756 0.0
1.629969 1.624297 -0.001611 0.0
2.714849 1.953494 0.001240 0.0
2.908040 1.811112 -0.001716 0.0
2.748399 1.077625 0.001414 0.0
1.434999 0.698751 0.000357 0.0
0.467542 1.498770 -0.000159 0.0
3.886600 0.396179 -0.001169 0.0
1.916986 0.432530 -0.002923 0.0
0.944961 1.800557 0.001597 0.0
2.519266 1.687988 0.000398 0.0
1.563362 1.154241 0.000788 0.0
3.547768 1.673184 -0.001064 0.0
1.072540 1.864636 -0.000236 0.0
1.015051 0.146449 0.000388 0.0
0.636930 0.871484 0.002038 0.0
3.665589 0.151052 -0.000298 0.0
4.121062 1.434621 -0.000405 0.0
2.701888 1.750411 0.001154 0.0
3.779508 0.257269 -0.002827 0.0
3.960514 1.204584 -0.000041 0.0
2.229999 0.961030 -0.000707 0.0
0.910569 0.959063 -0.000210 0.0
0.650518 0.376964 -0.003823 0.0
0.380085 0.706637 -0.007998 0.0
2.090680 1.570273 0.004408 0.0
1.204467 1.808131 0.000500 0.0
3.236334 1.255457 0.000423 0.0
3.852575 1.033224 -0.001245 0.0
0.714400 0.881959 0.003153 0.0
2.408920 0.033405 -0.002530 0.0
2.467082 1.951683 0.000699 0.0
2.302814 0.277159 0.002063 0.0
1.855165 1.516993 -0.000942 0.0
0.209997 0.701306 0.003797 0.0
3.109924 1.639311 0.000852 0.0
2.045244 1.209084 -0.000670 0.0
3.656976 0.845244 0.000859 0.0
2.773636 1.447572 -0.001725 0.0
1.855753 0.923864 0.000870 0.0
1.563030 1.042732 -0.000204 0.0
2.313810 0.674796 -0.000159 0.0
0.906070 1.418094 -0.000580 0.0
1.743499 1.606316 0.003362 0.0
1.136998 0.682520 -0.000996 0.0
0.742202 1.390012 -0.002596 0.0
2.112106 1.444951 -0.001292 0.0
2.002684 1.879651 0.000469 0.0
2.375012 0.902526 -0.003384 0.0
2.663459 0.858253 -0.003823 0.0
2.711073 0.260687 0.001400 0.0
1.793679 1.908522 0.000963 0.0
3.736593 0.973091 -0.000211 0.0
0.072376 1.927099 -0.004336 0.0
2.333203 0.514610 -0.001473 0.0
2.106510 1.647681 -0.002276 0.0
2.351695 1.275697 -0.000092 0.0
3.363636 0.723554 0.003890 0.0
2.402913 0.755409 0.000768 0.0
3.350311 1.944298 0.001301 0.0
2.727995 0.433372 0.001792 0.0
4.003487 0.650995 0.000189 0.0
3.198508 1.573928 -0.004789 0.0
0.607504 1.108274 0.000485 0.0
2.930743 1.330496 0.004263 0.0
0.620842 0.913161 0.001943 0.0
1.969812 1.415259 0.000453 0.0
0.240020 1.074122 -0.002917 0.0
0.306726 0.957161 -0.003901 0.0
2.381890 1.866430 0.000992 0.0
0.515078 0.884918 0.002858 0.0
1.430692 0.528746 0.002962 0.0
1.691540 0.333429 0.002076 0.0
1.337815 1.042073 -0.001261 0.0
1.504924 1.901153 0.001078 0.0
3.063278 0.851521 -0.002185 0.0
2.509023 1.634869 0.002653 0.0
3.974136 1.098507 -0.000109 0.0
3.421380 1.784255 -0.000609 0.0
2.266286 0.093016 0.000473 0.0
1.482226 1.960403 -0.001703 0.0
0.522041 0.684761 0.002127 0.0
3.531709 1.243160 -0.000890 0.0
2.691365 1.955426 -0.000099 0.0
1.770822 0.194542 -0.000581 0.0
2.378778 1.433317 0.001629 0.0
1.230468 1.707663 -0.002345 0.0
2.496980 1.469988 0.002843 0.0
3.645110 1.511732 0.000956 0.0
2.866117 1.682100 0.002164 0.0
0.245612 1.888369 -0.001395 0.0
0.552790 0.595999 -0.003742 0.0
2.793636 0.743625 -0.001274 0.0
2.976266 1.494521 -0.002965 0.0
2.246343 0.477513 -0.001555 0.0
0.599757 0.473726 0.000385 0.0
3.066448 1.672838 -0.000175 0.0
1.925176 1.846172 0.000951 0.0
1.237387 1.480977 -0.000463 0.0
3.438529 0.683669 0.002692 0.0
1.262501 1.510714 0.002009 0.0
1.641759 0.161157 -0.002522 0.0
1.421542 1.250391 0.001243 0.0
3.745328 0.249771 0.001389 0.0
2.504251 1.303079 -0.001178 0.0
0.411573 0.605096 0.001462 0.0
3.470263 0.643507 -0.003453 0.0
1.247382 0.153526 -0.003049 0.0
1.693785 0.690317 -0.001982 0.0
0.609413 1.035165 -0.001843 0.0
3.297631 0.458286 0.003947 0.0
3.960445 0.280892 -0.001247 0.0
0.772825 1.574372 -0.003838 0.0
3.306197 0.219111 -0.000152 0.0
2.139668 0.769683 -0.002144 0.0
0.094807 0.170275 0.004181 0.0
3.290845 1.234357 0.001489 0.0
1.062364 0.303162 0.001127 0.0
2.792104 1.502185 -0.000835 0.0
1.493008 0.867987 -0.004462 0.0
2.554136 1.762756 0.001564 0.0
1.001542 0.397804 -0.001235 0.0
1.772618 0.771558 0.004426 0.0
2.442921 0.385876 0.004512 0.0
0.803017 1.451984 -0.002114 0.0
2.380778 0.706134 -0.002390 0.0
3.013298 1.952034 -0.001127 0.0
4.030261 1.165676 0.001663 0.0
2.673430 1.799444 0.001723 0.0
1.234286 1.523135 0.000592 0.0
3.883079 0.987943 0.003226 0.0
2.249764 1.542128 0.000782 0.0
0.096051 0.698336 -0.001431 0.0
2.604569 0.635024 -0.001309 0.0
0.075951 0.647921 -0.001674 0.0
0.001999 1.687642 -0.001442 0.0
1.178046 1.927427 -0.004599 0.0
3.773522 1.231225 0.002210 0.0
2.445798 0.681459 0.001604 0.0
3.983037 0.402546 -0.001545 0.0
3.771233 1.395756 -0.001025 0.0
0.217350 1.048922 -0.001926 0.0
1.390841 0.621691 0.000217 0.0
1.502105 0.155319 -0.001994 0.0
3.113731 0.763780 0.005374 0.0
1.522300 1.929012 -0.003989 0.0
0.280797 0.069828 -0.000478 0.0
1.374935 1.592076 0.003261 0.0
3.566876 1.548453 0.002161 0.0
1.529378 1.048500 0.001612 0.0
3.266646 1.147245 -0.000724 0.0
0.980462 0.065793 0.003466 0.0
3.107749 1.176948 -0.002030 0.0
1.258921 0.018308 -0.005502 0.0
2.087386 0.593616 -0.000202 0.0
0.491570 1.016372 0.002390 0.0
3.901229 0.593662 -0.000334 0.0
1.433974 1.043396 0.000364 0.0
3.417084 0.765832 -0.000169 0.0
0.258421 0.258850 -0.000697 0.0
1.977091 0.005696 0.002877 0.0
1.430533 0.851773 -0.000033 0.0
3.108212 0.790789 -0.004880 0.0
3.968510 0.370929 -0.000635 0.0
2.248756 1.245924 0.000214 0.0
0.810546 1.287919 -0.004053 0.0
2.131191 1.414740 0.000214 0.0
2.074697 1.132688 -0.000744 0.0
2.852051 0.385226 0.001395 0.0
1.146545 0.096300 0.001389 0.0
0.626970 0.862176 -0.000897 0.0
3.039870 1.830245 0.002625 0.0
1.480392 0.339195 -0.001476 0.0
3.710190 0.761274 -0.002153 0.0
4.006396 1.688143 -0.001657 0.0
2.976245 0.768076 0.000833 0.0
0.890574 0.546147 0.001435 0.0
1.242484 1.610119 0.001565 0.0
2.882239 1.407367 0.000518 0.0
1.604342 1.110645 0.001756 0.0
3.792200 1.216209 -0.000240 0.0
1.864704 1.970578 -0.001870 0.0
3.405438 1.144378 -0.003545 0.0
2.684283 0.689452 -0.001364 0.0
3.570734 0.217824 -0.004375 0.0
0.514245 0.500226 -0.003899 0.0
2.392029 1.793464 -0.002613 0.0
1.175819 0.788689 0.000731 0.0
1.541535 1.485248 0.000074 0.0
3.409385 1.692497 -0.001219 0.0
0.979609 0.010397 0.000199 0.0
3.960273 0.410161 -0.000202 0.0
0.643206 0.882542 -0.000715 0.0
3.502528 0.892913 0.003915 0.0
3.669932 1.743536 0.003966 0.0
3.864213 1.248610 0.001051 0.0
3.329454 0.247279 0.002249 0.0
2.352276 1.743601 -0.000323 0.0
1.998513 1.685679 -0.000211 0.0
3.152661 0.892181 -0.000573 0.0
1.428917 1.963674 0.001299 0.0
1.768287 0.131092 -0.001016 0.0
3.655336 1.541391 0.003642 0.0
1.593342 1.100422 0.000631 0.0
1.595734 0.818932 0.000878 0.0
1.083527 1.557651 -0.000688 0.0
2.267349 1.712643 0.005695 0.0
3.818435 0.596317 -0.003141 0.0
3.866461 1.014745 0.003987 0.0
1.165508 1.194136 0.005677 0.0
2.937713 1.008020 0.005527 0.0
2.453886 0.912258 -0.002620 0.0
1.077222 1.002737 0.000394 0.0
3.066609 1.079754 0.002061 0.0
1.829736 1.668472 0.002082 0.0
4.044220 0.743690 0.001059 0.0
3.534224 1.768783 0.000288 0.0
3.951726 0.356728 -0.003537 0.0
1.760050 0.008224 0.001075 0.0
1.770147 0.073978 -0.001510 0.0
4.012763 1.698397 0.002299 0.0
2.310418 0.540726 0.004406 0.0
1.409119 0.848663 -0.004100 0.0
4.125108 0.539471 -0.001201 0.0
3.577955 0.309948 0.001372 0.0
0.848698 1.320599 0.002090 0.0
2.033686 0.035711 0.002104 0.0
3.439425 1.118792 0.001020 0.0
3.038517 1.935927 0.006096 0.0
0.927483 1.124765 -0.001426 0.0
3.805859 0.911627 -0.000690 0.0
3.136123 0.620889 0.000008 0.0
2.239383 0.651762 -0.004691 0.0
3.328189 1.817328 -0.000865 0.0
2.261684 0.512432 -0.000390 0.0
0.841187 1.742992 0.002969 0.0
2.526508 0.731771 -0.000705 0.0
1.463794 0.028791 -0.009064 0.0
2.278815 0.820682 -0.001929 0.0
2.508576 1.501910 0.002850 0.0
1.879541 1.006810 -0.001188 0.0
0.216450 0.230845 0.006669 0.0
1.757656 1.625111 0.003049 0.0
1.614805 1.299622 0.001907 0.0
0.501182 0.121384 0.001680 0.0
1.976323 1.635037 0.005315 0.0
2.703024 1.962963 -0.000896 0.0
1.244236 0.765037 0.007162 0.0
1.092372 1.017734 -0.000439 0.0
3.200020 0.899585 -0.000743 0.0
1.163743 0.328171 0.000101 0.0
3.710679 0.689990 -0.000407 0.0
3.785928 1.682102 -0.000733 0.0
2.455703 0.267107 -0.000901 0.0
1.973181 1.764182 -0.005365 0.0
1.060998 1.340868 0.001771 0.0
1.250876 1.853966 -0.001673 0.0
2.476287 1.139270 0.001548 0.0
1.067913 0.730202 0.003871 0.0
1.121417 0.416317 -0.000577 0.0
1.047878 0.048525 -0.005337 0.0
2.544227 1.901649 -0.000814 0.0
3.646768 0.605484 0.002308 0.0
3.059565 1.197292 -0.001520 0.0
0.122345 1.969393 -0.001123 0.0
2.876099 1.459481 -0.002038 0.0
0.077335 0.582985 0.004624 0.0
3.778321 1.303307 0.000983 0.0
2.112809 1.238951 -0.002291 0.0
1.237126 1.152402 -0.001672 0.0
1.565472 1.610512 0.001320 0.0
0.709797 1.325600 0.003637 0.0
3.094868 0.270156 0.003860 0.0
2.269637 1.553082 -0.002066 0.0
4.036091 1.174798 0.004895 0.0
1.439909 0.931545 0.001052 0.0
2.113484 0.614894 -0.004039 0.0
3.436145 1.648596 -0.001838 0.0
2.156877 1.039102 0.005384 0.0
0.446789 0.017768 0.001912 0.0
4.108272 0.378942 -0.002386 0.0
3.325848 0.352214 0.002263 0.0
1.907460 0.015520 0.001173 0.0
1.964578 0.036658 -0.003259 0.0
4.087829 1.456714 0.002437 0.0
2.245699 1.304645 -0.001658 0.0
0.451240 0.140493 -0.000991 0.0
1.946486 0.295455 0.000042 0.0
0.639592 0.548221 -0.000368 0.0
0.488882 1.626676 0.000826 0.0
3.261826 1.516494 -0.000185 0.0
1.081639 0.174232 -0.003618 0.0
3.225611 0.215822 0.002876 0.0
0.263764 0.514828 -0.001431 0.0
0.433235 1.905137 0.001033 0.0
2.395430 1.676172 0.004218 0.0
1.018223 1.939484 -0.001426 0.0
1.868746 0.136533 0.000335 0.0
0.985324 0.622273 -0.000862 0.0
3.422762 0.927396 -0.002548 0.0
4.024836 1.926559 -0.003215 0.0
2.167502 1.635225 -0.002796 0.0
2.401066 1.312076 -0.000842 0.0
3.882324 0.188914 -0.000595 0.0
2.167933 1.659397 0.002248 0.0
1.941634 1.562897 -0.005181 0.0
0.495492 1.489984 0.002193 0.0
1.408982 0.989583 0.001683 0.0
2.357762 1.502387 -0.004011 0.0
3.978540 1.860098 0.000518 0.0
0.010592 0.570657 -0.000314 0.0
0.197822 1.412791 0.000449 0.0
0.755707 1.615585 0.000629 0.0
0.423180 0.043336 0.000451 0.0
3.766266 1.736458 -0.001703 0.0
2.420657 0.227066 -0.000222 0.0
1.993331 1.156903 0.006863 0.0
1.732803 0.552510 -0.001443 0.0
2.223474 0.414797 -0.001390 0.0
3.181539 0.017194 -0.000038 0.0
2.814823 0.222374 -0.003514 0.0
2.543784 1.936111 -0.001525 0.0
1.473042 0.122798 -0.002430 0.0
2.212076 0.967419 -0.004489 0.0
0.033482 0.535529 -0.001419 0.0
4.102931 1.297300 0.004936 0.0
1.187724 0.164372 -0.002113 0.0
0.377515 1.125763 -0.000325 0.0
3.899921 1.809643 0.001024 0.0
2.112156 1.454936 -0.004727 0.0
0.083284 0.950041 0.000656 0.0
0.493067 0.130620 -0.000625 0.0
1.816941 1.463007 0.002556 0.0
0.095087 0.509983 -0.002916 0.0
1.078594 1.896072 -0.001827 0.0
1.990813 0.047411 0.002028 0.0
3.500972 0.287074 -0.001614 0.0
1.706763 1.801616 -0.001168 0.0
2.535641 0.947981 0.000579 0.0
2.467858 1.702926 0.002246 0.0
3.558847 1.279167 -0.001206 0.0
1.064591 0.528081 0.001617 0.0
2.285194 0.614859 0.001094 0.0
3.843735 0.397107 -0.000326 0.0
3.680558 1.087779 -0.000346 0.0
3.745009 0.730586 -0.002410 0.0
4.010543 0.683746 0.000283 0.0
3.200945 0.305452 0.002018 0.0
3.701486 1.753940 0.003352 0.0
1.274762 0.103962 0.001614 0.0
2.189249 0.685498 0.001093 0.0
2.635847 0.013082 -0.000166 0.0
2.861655 0.903355 -0.001734 0.0
3.752263 1.978663 -0.004090 0.0
0.550073 1.380147 -0.000889 0.0
