2.000401 0.285033 0.001185 0.0
4.876988 0.121095 0.001182 0.0
0.907989 1.812319 -0.001211 0.0
4.910537 1.891356 0.001915 0.0
2.027265 0.841703 -0.001939 0.0
0.117364 1.284433 0.004884 0.0
4.671343 0.794114 -0.000441 0.0
3.673969 0.310637 -0.002238 0.0
2.041817 1.308556 0.003130 0.0
0.237394 0.544176 -0.001165 0.0
2.824705 0.669437 -0.003653 0.0
4.095731 1.252852 0.000727 0.0
1.588164 0.110424 0.000895 0.0
4.473482 1.019347 -0.002778 0.0
1.196812 0.112470 0.002458 0.0
4.458849 0.165247 -0.001095 0.0
1.213281 1.261996 -0.003500 0.0
1.929294 1.917025 0.002268 0.0
4.721637 0.111108 0.001735 0.0
1.291086 0.840416 -0.000635 0.0
2.850121 1.744500 -0.001101 0.0
3.144336 1.243642 0.003005 0.0
0.970918 1.686750 0.002291 0.0
3.815578 0.374356 -0.003034 0.0
3.633061 0.700096 -0.001309 0.0
0.936183 1.018252 0.003731 0.0
0.827056 1.285135 0.000256 0.0
3.408011 1.246195 -0.000308 0.0
0.944199 0.135286 -0.000329 0.0
0.140387 0.898608 0.000920 0.0
3.068766 1.970891 0.003849 0.0
0.480066 0.035470 -0.002013 0.0
3.194824 0.785779 0.000982 0.0
1.137965 0.275440 0.000346 0.0
2.614613 1.767679 0.001405 0.0
0.983363 1.107471 0.000372 0.0
1.070128 0.336301 -0.001585 0.0
1.216085 0.524894 -0.000069 0.0
2.373434 1.558826 -0.000778 0.0
2.692880 0.561072 0.000209 0.0
2.459820 0.613497 0.003928 0.0
0.064829 1.009496 -0.007109 0.0
4.344258 1.022580 0.003187 0.0
1.772103 0.997334 -0.000917 0.0
4.562243 0.117844 0.003412 0.0
2.291052 1.323661 -0.006411 0.0
0.438272 1.234982 -0.001873 0.0
4.643632 0.465336 0.001833 0.0
1.735983 1.561629 0.000109 0.0
2.899510 0.852017 -0.000651 0.0
3.264162 0.979067 -0.000984 0.0
2.848083 0.669328 0.000158 0.0
4.589400 1.823585 -0.000933 0.0
2.171392 0.789281 -0.001171 0.0
4.404925 0.256629 0.001740 0.0
1.028599 1.560291 0.002753 0.0
2.592107 0.106549 0.002272 0.0
3.983948 1.950553 0.000728 0.0
1.741821 0.080445 -0.003467 0.0
3.391534 1.333113 0.005000 0.0
2.080551 0.326709 0.000672 0.0
3.432665 0.724244 0.001336 0.0
2.426108 1.837017 -0.002358 0.0
2.669583 0.908800 0.000036 0.0
4.547244 0.083077 -0.001505 0.0
3.383249 0.491686 -0.004832 0.0
2.641067 0.833025 0.001935 0.0
0.139843 1.873127 0.000597 0.0
0.914375 0.863531 -0.001201 0.0
0.096157 1.474613 -0.000397 0.0
1.647073 0.808078 0.004839 0.0
0.990717 0.874267 0.001776 0.0
4.145018 0.170203 0.000181 0.0
1.935757 1.576469 0.005493 0.0
2.591306 1.380632 -0.001698 0.0
2.458861 0.247804 0.004801 0.0
0.351984 1.372621 0.000880 0.0
4.534026 1.927588 0.000360 0.0
1.594463 0.917898 -0.000928 0.0
2.661578 1.968368 -0.002364 0.0
2.994264 0.339992 0.000584 0.0
1.145164 1.568568 0.003541 0.0
4.854464 1.943595 0.001696 0.0
2.688278 0.658691 0.002893 0.0
4.466951 0.368587 -0.002488 0.0
2.084678 0.776940 -0.001957 0.0
4.193206 0.847417 0.001791 0.0
3.237133 1.244711 0.003792 0.0
4.189573 1.765812 -0.000656 0.0
1.942645 1.737033 -0.001361 0.0
2.527147 1.860891 0.007055 0.0
1.119283 1.551489 -0.000764 0.0
4.494330 1.264265 -0.000144 0.0
4.780089 0.775874 -0.002822 0.0
0.526357 1.051816 -0.003640 0.0
3.670737 1.177624 -0.005958 0.0
3.452924 0.867522 -0.001895 0.0
2.270051 0.228317 0.001974 0.0
0.953175 1.572617 -0.002347 0.0
2.781698 0.486204 0.000200 0.0
2.939015 0.296689 0.003166 0.0
1.488222 1.499842 -0.003540 0.0
4.612025 1.526979 0.003547 0.0
3.905532 1.195907 -0.000409 0.0
3.384547 1.361304 -0.001405 0.0
0.493358 0.028748 0.000655 0.0
3.908860 0.457033 0.003864 0.0
3.179771 1.628411 -0.000491 0.0
0.664386 1.157377 -0.001987 0.0
3.066706 0.720314 0.005842 0.0
2.914744 1.836069 0.001789 0.0
1.404442 1.701043 0.001327 0.0
4.295439 1.431934 0.000657 0.0
2.758580 0.034558 0.002725 0.0
1.919605 1.175682 -0.000090 0.0
4.131269 0.025674 0.006345 0.0
4.371178 0.232075 -0.001758 0.0
0.776837 0.608272 0.000560 0.0
1.857903 0.369219 -0.001212 0.0
3.015201 1.884272 0.002827 0.0
4.116933 0.085411 0.001858 0.0
4.873425 1.664331 0.003094 0.0
2.528931 0.297616 0.003492 0.0
4.355013 0.948423 -0.001483 0.0
3.743839 1.631931 0.000307 0.0
2.720557 0.833284 0.001093 0.0
2.658051 0.988142 -0.002919 0.0
1.485039 1.966149 0.000735 0.0
0.228167 1.869432 0.002065 0.0
2.272391 0.264160 -0.004005 0.0
4.790464 1.013462 -0.000554 0.0
4.361501 0.493501 0.001928 0.0
3.581059 0.556774 -0.002268 0.0
1.542639 1.374560 -0.000256 0.0
0.036230 0.506341 0.001041 0.0
3.576145 0.255042 -0.000919 0.0
1.069250 0.585665 -0.005837 0.0
3.826468 0.218997 0.000366 0.0
4.214181 0.496678 -0.000729 0.0
0.299141 1.940220 -0.005659 0.0
3.001293 0.932978 -0.001194 0.0
0.632238 0.820445 0.002344 0.0
4.224692 1.917697 -0.002797 0.0
4.523206 1.829421 0.002729 0.0
0.666125 0.625791 -0.003644 0.0
3.655625 0.537760 -0.001203 0.0
2.521574 1.604017 -0.003337 0.0
1.336749 1.038032 -0.000001 0.0
2.733272 0.951496 0.002481 0.0
2.053069 0.722669 -0.002080 0.0
2.687414 1.871699 0.000682 0.0
4.064309 0.292601 0.002473 0.0
2.062647 1.589852 0.003962 0.0
1.432458 0.077564 -0.000120 0.0
0.377612 1.928412 -0.000333 0.0
1.800285 1.845617 0.000196 0.0
4.172312 0.545645 -0.005136 0.0
1.226115 1.659162 0.000752 0.0
0.247616 1.439986 0.001773 0.0
2.949825 0.306929 -0.001712 0.0
2.808665 1.219337 0.002727 0.0
3.459748 0.495568 0.000706 0.0
0.660823 1.959060 0.002526 0.0
2.811730 1.808711 0.001518 0.0
0.091501 1.062731 0.001075 0.0
0.389069 1.409664 -0.001650 0.0
3.350091 1.759574 -0.001921 0.0
1.961703 0.144843 0.000973 0.0
4.111466 1.130982 0.003677 0.0
1.763425 0.652404 0.000915 0.0
1.422404 0.763839 -0.002165 0.0
1.785258 0.577083 0.001611 0.0
4.623372 0.728996 0.002031 0.0
0.939035 0.852437 -0.001512 0.0
0.472344 0.833532 0.003088 0.0
3.768223 1.582727 -0.002476 0.0
3.199615 1.318902 0.003728 0.0
4.646667 0.528519 0.001827 0.0
2.883012 1.832867 -0.002747 0.0
1.191232 1.866740 -0.001412 0.0
1.514219 1.176967 -0.002276 0.0
2.355429 0.434142 -0.000717 0.0
3.728542 1.556762 0.001718 0.0
4.473984 1.947326 -0.000115 0.0
1.045184 0.413886 -0.002684 0.0
3.325954 0.948815 -0.003912 0.0
2.383307 0.263349 -0.003439 0.0
4.693293 0.664875 -0.000205 0.0
1.093820 1.028925 -0.003512 0.0
1.715774 0.027097 -0.004785 0.0
3.518807 1.065163 0.001800 0.0
1.894082 0.291391 0.001415 0.0
2.962874 1.825666 0.001011 0.0
2.258499 0.188883 0.000845 0.0
3.706650 1.134107 0.000142 0.0
1.205196 1.400183 -0.003684 0.0
3.018088 1.312974 -0.000872 0.0
1.654087 1.248378 -0.000736 0.0
3.636893 1.721443 -0.002410 0.0
2.515577 0.195602 0.001245 0.0
2.890348 1.025677 0.000972 0.0
3.981111 0.760099 -0.002215 0.0
1.268484 0.137372 -0.005100 0.0
3.401116 1.609303 -0.004141 0.0
0.797509 0.997662 -0.003305 0.0
1.012066 0.259728 -0.005880 0.0
0.146865 1.722835 -0.000741 0.0
3.296072 1.206214 0.000061 0.0
4.528807 1.041328 0.000130 0.0
3.354266 1.958082 0.001958 0.0
2.375888 0.103516 -0.001624 0.0
3.262546 0.728139 -0.000927 0.0
1.290809 0.457033 0.002444 0.0
1.718936 1.480471 0.001772 0.0
4.636513 0.751912 0.005107 0.0
4.183658 0.075401 0.001496 0.0
0.676290 1.121984 -0.000493 0.0
2.279966 1.679767 0.005819 0.0
1.907771 1.007052 -0.002335 0.0
1.496465 0.991671 0.003982 0.0
3.859227 0.549730 0.001996 0.0
2.813582 1.774692 0.000051 0.0
2.088608 0.159685 0.003139 0.0
2.747700 0.142910 0.001666 0.0
1.784177 1.364128 -0.002534 0.0
4.729401 1.127989 0.001857 0.0
4.545408 1.148101 -0.000694 0.0
0.459571 0.423708 0.000091 0.0
4.772901 0.261816 -0.004545 0.0
2.212216 1.036301 0.001043 0.0
4.081509 0.917067 -0.001082 0.0
3.076091 0.406439 -0.003431 0.0
2.010585 0.126069 -0.003919 0.0
2.366871 0.954478 0.000296 0.0
2.505290 1.821977 -0.003832 0.0
0.113898 0.978514 0.001799 0.0
2.564780 1.174503 -0.003426 0.0
1.165501 1.437637 -0.000261 0.0
4.588289 0.350647 0.003319 0.0
3.603942 0.965012 -0.004200 0.0
1.863296 0.659286 0.000869 0.0
3.355504 1.216865 0.002777 0.0
4.677058 1.572938 0.001426 0.0
4.395690 0.312524 0.004221 0.0
4.608163 0.092658 0.002212 0.0
3.277890 0.667844 -0.002641 0.0
4.126211 0.568639 -0.000682 0.0
1.728167 0.895845 0.001141 0.0
0.538189 1.635787 -0.001274 0.0
3.884033 1.590849 -0.000689 0.0
3.373004 0.897845 0.000172 0.0
1.233989 0.684864 0.001128 0.0
3.725001 1.179896 0.001551 0.0
3.805275 1.127451 -0.001494 0.0
2.804896 0.645021 0.000406 0.0
1.071501 0.510709 -0.000952 0.0
4.784082 0.558016 -0.003271 0.0
4.521938 1.720317 -0.006135 0.0
3.887571 0.063543 -0.000226 0.0
4.034364 0.067698 0.001157 0.0
4.570548 0.882730 0.002836 0.0
3.485627 0.082138 -0.000998 0.0
1.703013 0.449786 0.000997 0.0
0.836594 1.902888 -0.004120 0.0
4.607579 1.448495 -0.000704 0.0
4.575793 0.699942 -0.000741 0.0
2.009636 1.057572 -0.000015 0.0
0.876365 1.503916 -0.001826 0.0
1.525530 0.727719 -0.000345 0.0
0.727623 1.208727 0.002035 0.0
3.525940 1.448722 0.001801 0.0
3.043682 1.641311 0.002148 0.0
1.067106 1.480874 -0.001089 0.0
2.869016 0.422451 0.000727 0.0
4.028525 0.684794 0.001774 0.0
3.714653 1.246550 -0.000728 0.0
0.382700 0.360189 0.001762 0.0
3.232901 0.238392 0.000648 0.0
3.523637 1.200978 -0.002766 0.0
3.886713 1.779656 -0.000292 0.0
3.444890 1.782365 -0.004342 0.0
3.428358 1.480528 -0.000255 0.0
2.416432 1.031356 -0.000347 0.0
3.469933 0.434662 0.000001 0.0
4.680526 0.328871 -0.000624 0.0
0.576025 0.911245 -0.002851 0.0
3.870617 1.635128 0.003124 0.0
2.369562 1.827801 0.001238 0.0
2.256554 0.992722 -0.001089 0.0
2.292773 1.447957 0.002480 0.0
2.007333 1.711773 0.000872 0.0
2.787022 1.518052 -0.001093 0.0
3.447404 1.485929 -0.001202 0.0
3.089826 0.777827 -0.002530 0.0
4.558739 1.166273 -0.000238 0.0
3.315349 1.879288 -0.002729 0.0
2.668318 0.694248 -0.004123 0.0
3.302167 1.844571 -0.000234 0.0
3.463614 1.797276 0.000744 0.0
0.813796 1.297847 -0.001892 0.0
3.923971 1.325035 0.000705 0.0
2.228407 1.246968 0.002862 0.0
2.137193 1.894896 -0.003677 0.0
3.640883 0.282571 -0.002934 0.0
1.070909 0.403252 -0.003718 0.0
3.421832 1.545682 0.000961 0.0
0.028534 0.107763 -0.000881 0.0
3.386762 0.729852 -0.002724 0.0
1.795508 1.866722 0.003068 0.0
3.687805 0.241737 0.003330 0.0
0.184445 1.640784 -0.003325 0.0
3.709948 1.882757 0.000175 0.0
0.320480 0.363213 0.002434 0.0
1.103198 1.853688 0.000293 0.0
2.045240 1.766925 -0.001141 0.0
2.625229 0.342591 -0.003145 0.0
1.737158 0.634544 -0.003179 0.0
1.627930 1.682483 0.001562 0.0
1.663927 1.790386 0.002942 0.0
3.162225 1.588739 -0.004836 0.0
2.502332 0.722828 -0.001289 0.0
1.966811 1.381505 -0.000402 0.0
3.605406 0.751980 0.006862 0.0
2.814064 0.208112 0.001354 0.0
1.410341 1.692275 0.001958 0.0
1.606493 0.245565 0.002250 0.0
1.901303 0.076877 0.004824 0.0
2.868708 1.709752 0.003929 0.0
0.378326 0.818860 0.000309 0.0
1.782937 0.979749 -0.000918 0.0
3.767285 1.133499 -0.000809 0.0
0.587060 0.487433 0.001511 0.0
3.594070 1.023437 0.000553 0.0
2.834738 1.062146 0.001782 0.0
1.358521 1.161630 -0.003760 0.0
1.586706 1.518413 0.006320 0.0
0.442676 1.605441 -0.002608 0.0
0.299331 1.779827 0.001831 0.0
1.522718 1.464258 -0.002646 0.0
2.862383 0.462479 0.005787 0.0
0.810505 1.918095 0.000752 0.0
3.018307 0.662565 -0.003367 0.0
4.850559 0.073891 -0.000389 0.0
1.962840 1.930323 0.000015 0.0
2.244367 0.208018 0.002455 0.0
0.962455 0.828348 0.004811 0.0
3.317892 1.196752 -0.001972 0.0
2.439062 0.225964 -0.000089 0.0
1.273301 0.637635 -0.000921 0.0
2.681232 0.108155 -0.002076 0.0
2.476662 0.583006 0.003203 0.0
0.942247 1.189669 -0.001737 0.0
3.185059 1.602210 0.001317 0.0
3.272194 0.926477 0.003506 0.0
0.922616 0.041432 0.002507 0.0
0.690365 0.933206 0.000235 0.0
1.523863 1.093483 -0.002280 0.0
0.109286 1.236754 -0.000099 0.0
0.998517 0.327230 0.000615 0.0
4.512300 0.686891 0.001248 0.0
3.025439 1.036221 -0.001344 0.0
2.022827 1.098154 0.001189 0.0
3.076557 1.952647 -0.000826 0.0
0.066426 1.640880 -0.003094 0.0
2.280224 0.709877 0.000365 0.0
2.600158 1.744323 -0.002617 0.0
2.319471 1.394255 0.001572 0.0
2.447442 0.074357 -0.003875 0.0
2.208630 1.229275 -0.002218 0.0
4.217233 0.600750 0.000755 0.0
4.013016 0.943286 -0.000410 0.0
1.708715 0.504855 0.002980 0.0
0.819973 1.693978 0.000617 0.0
3.821455 1.808533 -0.001846 0.0
3.604321 0.383930 0.004390 0.0
1.644400 0.579701 0.002158 0.0
0.134671 1.217903 0.002076 0.0
0.604242 0.408383 -0.001055 0.0
2.668047 0.027034 -0.001353 0.0
0.076466 1.436433 -0.001266 0.0
1.150214 0.419584 0.000167 0.0
2.935596 1.367690 0.000731 0.0
3.485339 0.355247 -0.002919 0.0
1.047378 0.234986 -0.004803 0.0
2.283596 1.387390 0.001339 0.0
3.832432 1.970248 0.000369 0.0
4.485716 1.632954 0.000248 0.0
3.499808 0.496646 0.004097 0.0
3.910708 0.987670 -0.003083 0.0
4.578663 0.052612 0.000727 0.0
4.540315 0.837957 -0.000865 0.0
3.165007 1.414620 -0.000980 0.0
1.908525 0.645815 -0.000652 0.0
4.557184 1.569018 0.003940 0.0
1.463964 1.773996 0.001842 0.0
2.429581 1.075086 0.000554 0.0
1.831951 1.670441 -0.003822 0.0
4.658020 0.340718 0.000975 0.0
3.171677 0.508704 0.003135 0.0
3.561304 0.451787 -0.000095 0.0
3.946568 0.870732 -0.000448 0.0
3.866558 1.443725 -0.000467 0.0
3.278552 1.378412 -0.000680 0.0
1.272654 1.731921 0.000094 0.0
1.362015 1.522511 0.001518 0.0
2.463758 0.856227 0.003426 0.0
1.192646 0.450555 -0.001916 0.0
0.781766 0.170611 0.002017 0.0
0.786291 1.084154 -0.002269 0.0
1.704608 1.503245 -0.002588 0.0
3.322745 1.279186 0.002542 0.0
3.733843 0.137399 -0.002526 0.0
0.590481 1.252880 0.000650 0.0
4.880157 0.322086 -0.000842 0.0
2.717751 1.291554 -0.000125 0.0
2.258834 0.684025 -0.002854 0.0
2.110168 0.456033 0.003514 0.0
2.375284 1.557187 0.000651 0.0
1.732373 0.371811 -0.000482 0.0
4.736637 0.630572 -0.002142 0.0
2.114540 0.677491 -0.004195 0.0
3.948934 0.685674 0.001848 0.0
0.682585 0.755424 -0.000879 0.0
1.856155 1.500290 -0.003107 0.0
2.788588 1.151403 0.000355 0.0
2.430429 0.791550 -0.000269 0.0
4.707125 0.343571 -0.003532 0.0
3.182569 1.692394 -0.001690 0.0
4.418726 1.721643 -0.003473 0.0
1.145480 1.806418 -0.000236 0.0
4.186177 1.857165 0.003458 0.0
0.464376 0.635557 0.004348 0.0
2.496738 1.595087 -0.000088 0.0
2.677560 0.559046 0.001146 0.0
4.781690 1.211305 0.001169 0.0
1.827414 1.841699 -0.000074 0.0
4.102345 1.691465 0.001244 0.0
1.393354 1.817444 0.001494 0.0
1.323708 0.043871 0.001592 0.0
2.671398 0.762860 -0.003314 0.0
4.665286 0.464990 -0.001875 0.0
2.412417 1.679041 0.000189 0.0
3.251930 1.735474 -0.000359 0.0
3.048840 0.151975 0.001780 0.0
2.160075 1.374906 0.004246 0.0
4.337273 1.024682 0.002682 0.0
3.964640 1.384273 -0.000205 0.0
3.932894 1.841558 0.000198 0.0
3.238531 1.612430 0.003141 0.0
1.729547 1.431212 -0.002122 0.0
3.637560 1.307998 0.005423 0.0
4.165314 0.296318 0.005175 0.0
2.789611 0.756662 -0.000802 0.0
3.800295 1.058287 -0.000822 0.0
1.869120 1.929794 0.001463 0.0
4.138212 1.296552 -0.003016 0.0
4.038132 0.099556 -0.003783 0.0
4.302600 0.966078 -0.001531 0.0
2.664003 1.454183 -0.001950 0.0
2.753140 0.819355 0.002866 0.0
2.403930 1.367562 0.001952 0.0
4.156146 1.655560 0.000912 0.0
3.066424 1.206202 0.000480 0.0
2.397391 1.671601 0.002844 0.0
2.320612 0.275975 -0.002067 0.0
2.836993 0.081487 0.002185 0.0
4.585932 1.667505 -0.001629 0.0
0.310587 1.806820 -0.001706 0.0
0.920793 0.683898 0.001094 0.0
2.621969 0.113115 -0.004130 0.0
2.112914 0.967662 -0.003057 0.0
1.666135 0.854061 -0.000015 0.0
4.446881 1.912118 -0.000702 0.0
4.689208 1.587420 -0.002854 0.0
3.393547 1.041881 0.003941 0.0
4.270206 0.765602 -0.001627 0.0
3.456024 1.203125 0.005761 0.0
3.664605 1.211055 0.003146 0.0
0.479318 0.624207 0.006558 0.0
4.773228 1.685968 0.000001 0.0
3.285196 0.383297 0.001907 0.0
2.123096 1.427339 -0.000566 0.0
1.313913 0.763176 0.001370 0.0
0.204645 1.386192 0.002049 0.0
4.826240 1.652295 -0.000522 0.0
3.551128 0.960403 0.002259 0.0
1.749953 1.790900 -0.001672 0.0
2.848256 0.853743 0.003578 0.0
2.003139 0.447007 0.000660 0.0
1.230214 1.830929 -0.000169 0.0
4.214519 0.584887 0.002259 0.0
1.945452 1.252279 -0.001332 0.0
2.947457 0.253063 0.001973 0.0
3.799407 1.614639 0.001170 0.0
0.302814 1.363537 0.001140 0.0
0.071487 1.791637 -0.000357 0.0
1.566924 1.316151 0.001013 0.0
3.361615 0.296977 -0.001334 0.0
1.406415 0.271415 -0.000931 0.0
1.353164 1.089587 -0.000775 0.0
1.263490 0.304475 -0.003829 0.0
0.932856 0.181857 -0.003432 0.0
4.062071 0.640399 0.004574 0.0
4.086259 1.983037 -0.000339 0.0
2.039746 1.430994 -0.002709 0.0
2.487486 1.173056 0.003519 0.0
2.574070 0.618285 0.002332 0.0
2.346303 1.257651 0.004322 0.0
0.158778 0.158052 -0.001515 0.0
4.230516 1.437108 -0.000895 0.0
4.176723 1.434677 0.003662 0.0
4.813405 0.863781 -0.001597 0.0
1.019489 1.077444 0.002608 0.0
0.462376 1.748894 0.003200 0.0
2.735957 1.727260 0.000188 0.0
0.311600 1.945509 0.000679 0.0
1.032449 1.571278 -0.001754 0.0
1.099792 0.744602 0.001701 0.0
1.658215 1.218032 0.006084 0.0
2.689041 1.480708 -0.002855 0.0
2.010485 1.947761 0.001200 0.0
4.916309 0.967841 0.001855 0.0
4.771191 1.474550 -0.003165 0.0
1.626190 0.459304 -0.001091 0.0
1.852570 1.098184 -0.006685 0.0
1.840015 1.906947 0.000638 0.0
0.105811 1.747703 -0.004600 0.0
1.893914 1.104193 0.003509 0.0
4.741848 0.418681 0.002150 0.0
4.333743 1.619835 0.002181 0.0
3.858658 0.423677 -0.001545 0.0
1.974614 1.774342 0.000890 0.0
1.340281 1.333713 0.000741 0.0
0.647075 1.044878 0.002169 0.0
3.454850 1.723948 -0.000323 0.0
1.838110 0.879176 -0.002253 0.0
3.083820 0.738746 0.000241 0.0
0.133095 1.894769 0.001944 0.0
0.628220 0.725818 0.002901 0.0
1.117043 0.209093 0.002551 0.0
0.063189 0.065116 0.002094 0.0
4.875803 1.321761 -0.000066 0.0
3.278685 1.885216 0.002841 0.0
3.483786 0.236987 0.001760 0.0
1.743817 0.931573 -0.002009 0.0
4.246107 1.445413 -0.000370 0.0
4.344278 1.494158 -0.002076 0.0
2.620267 1.027790 -0.002150 0.0
3.908099 0.745111 0.002454 0.0
2.453347 1.488231 -0.001287 0.0
0.058737 0.706207 -0.000489 0.0
2.821917 1.456551 -0.001270 0.0
2.759357 0.232190 -0.001652 0.0
2.696421 0.844603 -0.000149 0.0
2.159761 1.102083 0.000825 0.0
3.667378 1.745199 -0.000527 0.0
2.996099 0.924789 0.001697 0.0
3.061008 1.549002 0.000929 0.0
4.314304 0.693566 -0.000512 0.0
2.791541 1.736038 0.003759 0.0
4.126273 0.129197 -0.000496 0.0
4.090704 0.962169 0.001077 0.0
3.000974 1.024665 0.003682 0.0
0.409813 0.901631 0.001728 0.0
0.567042 0.078132 -0.006098 0.0
4.312147 1.589772 0.000314 0.0
0.570766 1.889360 0.003087 0.0
3.534957 1.885380 -0.006369 0.0
3.896243 0.852106 -0.002080 0.0
3.022910 0.299143 -0.001088 0.0
2.393963 0.696965 -0.000087 0.0
0.117824 1.008719 0.001231 0.0
3.654627 0.430641 -0.002335 0.0
4.626351 1.313617 0.002205 0.0
0.689010 0.237335 0.003254 0.0
2.680444 0.875394 0.003368 0.0
2.972413 1.720729 -0.003671 0.0
0.382246 1.475909 -0.000786 0.0
3.028737 1.491962 -0.003413 0.0
4.303319 1.196818 -0.003849 0.0
4.854081 1.354112 0.001326 0.0
2.281179 0.786738 0.001751 0.0
3.626330 0.903868 0.002762 0.0
0.900893 0.145625 -0.001720 0.0
1.154429 0.633928 0.005531 0.0
4.414863 1.568738 -0.000010 0.0
0.384286 1.020727 0.001254 0.0
0.913044 0.568618 0.001768 0.0
1.161324 0.578733 -0.002897 0.0
3.052876 1.623477 -0.000850 0.0
3.126109 1.725243 0.002190 0.0
1.700861 1.049623 -0.001452 0.0
3.994652 1.945552 0.000028 0.0
4.111133 1.376629 0.001065 0.0
2.310378 0.194776 0.001464 0.0
2.980237 1.312906 0.003872 0.0
1.290356 1.873807 0.000699 0.0
0.036093 1.464316 0.001202 0.0
2.244913 1.182894 -0.001756 0.0
2.181841 0.895888 -0.001572 0.0
2.139371 1.776581 -0.002236 0.0
1.561902 1.795306 -0.002587 0.0
1.440435 1.124669 -0.001301 0.0
3.626850 0.855060 -0.003049 0.0
0.036369 0.493977 0.002119 0.0
3.022848 0.226924 0.002686 0.0
2.034057 0.099696 -0.000026 0.0
0.661790 0.355085 0.000836 0.0
1.272269 0.279030 -0.002118 0.0
4.285890 0.572843 -0.004704 0.0
0.989338 0.986306 -0.000920 0.0
1.562652 1.013341 -0.000616 0.0
1.146441 1.004749 -0.002582 0.0
2.064776 0.956937 -0.003148 0.0
0.192925 0.316442 -0.000953 0.0
1.361044 0.249577 -0.000691 0.0
4.546514 1.136270 0.001965 0.0
4.873329 0.502557 0.002951 0.0
3.321386 0.111932 -0.002947 0.0
0.570189 0.801229 -0.002150 0.0
1.007066 0.651284 -0.003690 0.0
1.140526 1.438277 0.002216 0.0
1.417464 1.082377 -0.000090 0.0
2.961248 0.359185 0.002987 0.0
1.920350 1.342189 0.000439 0.0
3.653789 0.890020 -0.002545 0.0
0.645940 1.968806 -0.002064 0.0
4.505077 0.281720 -0.003875 0.0
2.676684 1.384439 -0.000443 0.0
2.913121 1.259428 -0.002563 0.0
4.145200 1.925650 0.002636 0.0
0.131671 0.938814 -0.003641 0.0
1.706429 1.956110 0.001318 0.0
0.648394 0.121819 -0.003471 0.0
4.179742 1.377389 -0.001735 0.0
4.191632 1.346540 0.000413 0.0
4.670941 1.920989 0.002394 0.0
1.676671 1.046484 -0.000665 0.0
1.207357 0.589792 0.000525 0.0
1.201434 0.131065 -0.000322 0.0
0.360765 0.205669 -0.003306 0.0
3.475365 0.563359 0.000842 0.0
1.599130 1.941438 -0.004118 0.0
3.769060 0.448379 -0.004316 0.0
3.687202 1.320315 -0.000838 0.0
2.542147 1.911160 0.006246 0.0
0.499850 0.959787 -0.004233 0.0
0.899987 1.221363 0.001870 0.0
0.402836 1.666282 0.001887 0.0
0.182293 0.511625 -0.001935 0.0
0.743584 1.308948 0.004310 0.0
3.773773 0.712827 0.000528 0.0
3.283793 1.495332 -0.005650 0.0
0.303210 0.585308 -0.006349 0.0
1.506249 0.394983 -0.000737 0.0
0.269613 0.667844 0.003984 0.0
1.934872 0.038873 -0.002865 0.0
1.049098 0.162758 0.000406 0.0
1.033311 1.380364 -0.001245 0.0
4.924530 1.941436 0.001966 0.0
3.888597 0.307600 -0.001669 0.0
0.996266 0.841329 0.000603 0.0
4.786557 0.859785 0.002402 0.0
3.687211 1.331359 -0.004073 0.0
3.477948 0.837730 -0.001954 0.0
0.594686 0.318692 -0.000168 0.0
1.102351 1.114018 0.000711 0.0
3.950019 0.947941 0.001429 0.0
1.542219 1.131136 -0.004451 0.0
2.339126 0.941423 0.001830 0.0
2.990745 1.514891 0.000460 0.0
0.682943 0.750450 -0.002360 0.0
4.052620 0.920624 -0.003427 0.0
2.947238 0.360140 0.001088 0.0
0.514579 0.778318 -0.002682 0.0
2.651984 0.287382 0.004690 0.0
3.591552 0.380150 0.001777 0.0
0.585524 0.637275 0.001097 0.0
1.606089 0.346554 0.002129 0.0
1.612172 0.588365 0.004443 0.0
2.015100 1.526055 0.005373 0.0
4.217846 0.736629 0.000282 0.0
2.624269 0.219693 -0.000810 0.0
4.092424 0.854795 -0.002416 0.0
2.218607 1.675325 -0.000644 0.0
2.978133 0.257676 0.006667 0.0
1.539329 0.752006 0.002006 0.0
3.238517 0.076270 -0.000386 0.0
1.931858 0.437433 -0.002124 0.0
0.118563 0.715492 0.000488 0.0
2.358229 1.541649 0.002160 0.0
2.889393 0.110065 -0.002654 0.0
0.366945 1.338036 0.002792 0.0
2.758958 0.289907 -0.004312 0.0
4.674352 0.803686 -0.001917 0.0
0.074317 0.477050 0.002326 0.0
1.027320 1.044490 -0.001469 0.0
4.698641 0.896553 -0.001626 0.0
3.006186 1.703511 0.003500 0.0
3.254338 1.511316 -0.000906 0.0
1.691555 0.068760 -0.001050 0.0
1.431664 1.877180 -0.000556 0.0
4.688560 1.952923 -0.001096 0.0
2.454394 0.877558 -0.001608 0.0
4.122675 0.603392 0.003181 0.0
0.326456 1.813375 0.001520 0.0
4.891837 1.927384 0.002795 0.0
3.870511 1.948524 0.003198 0.0
1.841811 1.083905 -0.001204 0.0
2.968378 1.303430 0.002779 0.0
0.153717 1.944461 0.005501 0.0
2.852455 1.588702 -0.003934 0.0
4.759050 0.850915 -0.002435 0.0
2.097313 1.081472 -0.001460 0.0
3.968946 1.418569 -0.000468 0.0
0.965605 0.674286 0.002673 0.0
3.366888 0.289422 0.002141 0.0
2.732717 0.363613 0.001391 0.0
3.658056 1.317167 -0.003570 0.0
1.151432 0.734922 0.000799 0.0
3.943700 0.205343 -0.002659 0.0
0.410736 0.836473 0.002400 0.0
4.718829 1.690160 0.002654 0.0
4.001605 0.975865 -0.004986 0.0
0.944094 1.536877 0.000204 0.0
0.326720 1.089420 -0.000799 0.0
0.999281 0.736024 -0.005158 0.0
4.286561 0.382477 -0.001548 0.0
2.446041 0.866200 -0.000509 0.0
2.773092 0.344993 -0.002061 0.0
4.313083 0.470795 0.000499 0.0
3.208319 1.012411 0.000683 0.0
2.518930 0.572126 -0.001322 0.0
4.224490 0.733223 -0.003525 0.0
0.553018 0.947063 0.001346 0.0
4.126643 1.816705 -0.001084 0.0
2.579899 1.206404 -0.003971 0.0
4.411367 1.356529 -0.001320 0.0
2.745109 0.858788 0.001783 0.0
3.024020 1.793317 0.000755 0.0
4.076339 1.036590 -0.000398 0.0
3.478794 1.235496 0.002390 0.0
1.536732 0.857676 0.001457 0.0
2.688070 0.451262 0.000315 0.0
2.181931 0.519170 -0.000834 0.0
0.366025 1.662286 -0.001300 0.0
4.104867 1.688659 -0.001474 0.0
3.586020 0.369283 0.000535 0.0
4.267645 0.521912 -0.000227 0.0
1.882812 1.384332 -0.005524 0.0
4.937481 1.414726 -0.000207 0.0
1.378586 0.731466 -0.001430 0.0
4.872763 0.220062 -0.000985 0.0
0.762489 1.291243 0.002469 0.0
4.307948 0.959969 0.002106 0.0
2.105710 0.919833 0.001538 0.0
1.172866 0.147333 0.002098 0.0
0.055465 1.285217 0.000768 0.0
3.573554 1.685217 -0.003142 0.0
2.568019 0.671224 0.002397 0.0
1.316376 0.061409 0.000227 0.0
4.617934 1.941536 0.003808 0.0
3.241329 1.013617 0.002768 0.0
4.006963 1.100675 0.000807 0.0
1.176232 0.846895 0.002211 0.0
1.369278 1.641203 -0.002998 0.0
2.303598 1.112370 0.001934 0.0
4.750545 1.687002 -0.000599 0.0
0.184246 0.717891 0.000003 0.0
2.942108 0.820236 0.001867 0.0
3.208024 0.803238 0.002464 0.0
3.081979 0.195117 0.000024 0.0
1.349332 1.310825 -0.002652 0.0
4.854373 1.756056 0.002092 0.0
3.423776 0.224766 -0.002558 0.0
2.790775 0.393332 -0.003216 0.0
2.200172 0.379394 -0.000192 0.0
0.808519 1.088745 -0.001355 0.0
0.053624 1.132566 0.003960 0.0
2.207692 0.118141 0.001341 0.0
3.750405 0.760740 0.001387 0.0
4.940232 0.135743 -0.001811 0.0
0.761683 0.760504 -0.000757 0.0
2.923574 0.125424 -0.000603 0.0
1.707190 0.013175 0.000803 0.0
2.268745 1.176018 0.000056 0.0
1.059811 0.691731 -0.004068 0.0
0.680163 1.907647 0.005033 0.0
3.291669 0.825389 -0.000198 0.0
4.569912 0.076502 -0.000811 0.0
4.773143 1.920615 -0.000455 0.0
3.668638 0.610295 -0.001839 0.0
1.702469 0.575481 0.000839 0.0
0.197986 0.207332 0.002795 0.0
2.633559 1.796605 -0.000128 0.0
2.437587 0.489574 -0.001910 0.0
4.345984 0.662112 -0.003964 0.0
2.450282 0.714966 0.001626 0.0
2.824157 1.601266 -0.000942 0.0
2.647990 1.575759 0.001658 0.0
1.422591 1.962587 -0.006298 0.0
2.310821 0.427759 0.003813 0.0
3.495162 1.820546 0.000391 0.0
0.415208 1.427035 -0.001973 0.0
2.819988 0.407091 0.003655 0.0
2.576144 0.793922 -0.003426 0.0
1.088024 1.585050 0.000318 0.0
0.794861 0.923956 -0.000756 0.0
1.217037 1.691050 0.000172 0.0
2.694993 1.352229 0.000222 0.0
1.041782 1.745968 0.002964 0.0
0.445884 0.363658 -0.006066 0.0
1.505004 1.190934 0.001617 0.0
1.575664 1.199782 -0.002057 0.0
3.834689 0.266236 0.000778 0.0
0.189202 1.625141 0.000014 0.0
3.423220 0.540012 -0.004625 0.0
4.487710 1.522883 0.002122 0.0
2.043423 0.252198 -0.003113 0.0
4.164036 0.292620 -0.003978 0.0
2.681051 1.017327 -0.000278 0.0
1.387645 0.970568 -0.000118 0.0
1.992243 0.375564 -0.002107 0.0
2.872734 1.005167 0.002324 0.0
0.629549 1.237028 0.001746 0.0
1.964880 1.637209 -0.001055 0.0
2.487947 1.671581 -0.000868 0.0
4.927776 1.460030 0.000474 0.0
2.817774 0.813318 -0.004827 0.0
0.418717 0.670143 -0.002364 0.0
1.981086 1.968393 -0.000117 0.0
0.678194 0.743641 -0.001004 0.0
3.598138 1.017380 -0.001094 0.0
1.698690 1.275127 0.000493 0.0
0.541033 0.264590 0.003854 0.0
3.833305 1.378074 -0.000918 0.0
4.614555 0.404094 0.002075 0.0
3.359029 1.966339 0.001381 0.0
4.465209 0.894368 -0.000403 0.0
0.019783 1.435227 -0.001832 0.0
1.573215 1.894793 0.001767 0.0
3.372515 0.779589 -0.002218 0.0
3.207173 1.404636 -0.002551 0.0
4.894080 0.293749 -0.000025 0.0
1.980916 0.845535 0.000555 0.0
3.305373 0.373957 -0.003120 0.0
3.728107 0.013628 -0.001924 0.0
3.929705 1.140782 -0.001115 0.0
1.084485 0.407489 0.002893 0.0
3.411312 1.610924 -0.005162 0.0
2.956388 1.684150 -0.001100 0.0
3.238240 1.156088 0.001870 0.0
3.565695 1.756308 -0.003505 0.0
3.706850 0.365773 0.002325 0.0
2.346152 0.990573 -0.001215 0.0
2.022231 0.443596 -0.000735 0.0
4.549051 0.510240 -0.002216 0.0
2.307025 0.557820 0.003878 0.0
1.586317 0.039469 -0.004545 0.0
3.877527 0.236560 -0.002474 0.0
1.238798 1.081064 -0.000201 0.0
3.654416 1.602161 -0.004074 0.0
2.482176 0.899005 -0.002231 0.0
0.253423 0.991960 0.002346 0.0
2.953081 0.322424 -0.004265 0.0
0.455931 1.313328 0.000051 0.0
2.349624 1.442046 0.002661 0.0
3.545127 1.783698 -0.000276 0.0
4.157224 0.356187 -0.001319 0.0
1.206562 1.367860 0.000282 0.0
4.775983 1.869026 0.003476 0.0
1.705425 1.572778 0.003032 0.0
2.179521 0.922440 -0.003191 0.0
3.600192 0.888696 -0.000725 0.0
3.386963 1.009396 -0.001188 0.0
4.658608 0.340600 -0.000974 0.0
2.042894 0.974857 0.000913 0.0
0.336966 0.845161 -0.004136 0.0
1.249250 1.485924 -0.000454 0.0
2.180408 1.075644 -0.001573 0.0
1.032478 1.371772 0.005306 0.0
3.165798 1.701521 0.002574 0.0
4.561280 1.292862 -0.003267 0.0
2.461476 0.515983 -0.001260 0.0
4.656697 0.396785 0.001409 0.0
2.808058 1.769018 0.004281 0.0
3.545911 1.273103 0.000773 0.0
2.683330 0.964743 0.000538 0.0
0.135124 1.222595 0.000127 0.0
1.446902 0.740849 0.000698 0.0
0.800148 1.610212 0.003587 0.0
4.831112 1.256403 0.001689 0.0
2.404213 0.065154 0.001930 0.0
2.780413 1.395300 -0.000345 0.0
0.683418 0.909255 0.001717 0.0
1.181278 0.782342 -0.001644 0.0
0.860807 0.274973 0.002395 0.0
2.587762 0.656450 0.001447 0.0
3.529878 0.212943 -0.000754 0.0
2.109273 1.709266 -0.000417 0.0
0.375476 1.788917 -0.001321 0.0
4.608300 0.974948 -0.004037 0.0
4.753605 0.773285 0.000752 0.0
4.920983 0.416603 -0.002168 0.0
0.668204 0.161849 0.000541 0.0
3.267804 0.489348 -0.003792 0.0
1.162962 0.866651 0.004426 0.0
4.714810 0.082931 0.002848 0.0
4.439835 1.838895 -0.003565 0.0
4.768922 1.213567 0.001422 0.0
2.042598 1.079958 0.001282 0.0
0.993022 0.813283 0.001234 0.0
2.240129 0.015897 -0.001091 0.0
4.638444 1.790537 -0.004952 0.0
4.846318 0.314885 -0.000034 0.0
1.263659 0.249745 -0.000503 0.0
2.577986 0.248658 -0.003045 0.0
2.495198 0.666698 -0.001873 0.0
4.937125 1.051440 -0.002728 0.0
3.374511 1.777857 0.003644 0.0
2.857796 0.877448 0.005931 0.0
1.095644 1.049302 -0.000852 0.0
2.513954 1.956635 0.003819 0.0
1.693157 1.214328 0.002964 0.0
4.672390 1.575212 -0.001141 0.0
0.319858 1.936357 0.000435 0.0
4.427515 0.367057 0.000980 0.0
0.872560 0.111784 -0.005788 0.0
2.337996 0.610151 -0.000616 0.0
2.965893 1.032074 -0.001512 0.0
4.015551 0.127352 -0.000313 0.0
4.554080 0.127968 -0.000385 0.0
2.498439 0.946111 -0.001688 0.0
2.370644 0.722129 0.003707 0.0
4.868911 1.331104 0.002436 0.0
1.808878 1.350708 -0.002146 0.0
0.522820 0.444436 -0.003046 0.0
3.443191 0.863192 0.002003 0.0
3.230630 1.688230 0.001091 0.0
2.167275 1.703608 0.002119 0.0
2.369777 1.819197 0.005300 0.0
2.793979 0.196990 -0.001666 0.0
2.642260 1.111544 -0.002375 0.0
2.403086 1.856400 0.008187 0.0
1.010132 1.708701 0.002193 0.0
1.032882 1.184997 -0.003847 0.0
2.678520 0.638390 -0.000332 0.0
1.577175 1.429876 -0.000596 0.0
3.335641 1.623596 0.002473 0.0
2.239315 0.094885 -0.000989 0.0
3.814254 1.703324 -0.001705 0.0
2.691479 1.773113 0.001414 0.0
3.429863 1.302601 -0.000514 0.0
1.998008 0.707580 0.002608 0.0
3.685825 0.630123 -0.004677 0.0
3.759551 1.359434 -0.000435 0.0
0.012831 0.932014 0.001671 0.0
1.350076 0.608700 -0.001454 0.0
0.851793 1.457777 0.000690 0.0
3.348586 1.570160 0.000868 0.0
2.908044 0.572266 -0.000518 0.0
4.553416 0.152619 0.002138 0.0
0.280927 0.509440 -0.000004 0.0
0.454352 1.079581 -0.002547 0.0
2.982312 0.862681 -0.004115 0.0
1.214499 1.287647 0.001448 0.0
1.415212 1.731383 -0.001177 0.0
1.993825 0.319095 -0.004450 0.0
0.235534 1.834598 -0.001752 0.0
2.344299 0.447132 -0.001451 0.0
4.548371 1.775377 0.000351 0.0
3.108216 1.102712 -0.001946 0.0
1.947205 1.925874 -0.002199 0.0
2.092105 1.262163 0.002817 0.0
1.786985 0.891420 -0.003685 0.0
3.697029 0.584080 0.001100 0.0
3.098870 0.364572 -0.000149 0.0
4.104062 1.100370 -0.002158 0.0
4.343008 1.520218 0.001457 0.0
3.856560 1.818769 0.000092 0.0
2.770825 0.299851 0.003604 0.0
2.751586 0.843467 -0.001096 0.0
3.678887 0.444677 0.000776 0.0
4.684800 1.175576 0.002334 0.0
1.979314 1.153691 0.000896 0.0
3.237647 1.627820 0.002205 0.0
1.838315 0.167622 -0.003513 0.0
0.148038 0.423362 0.001252 0.0
1.034919 1.218888 0.000969 0.0
4.663205 1.167176 -0.001825 0.0
4.358842 1.720898 0.002024 0.0
0.653209 0.421461 -0.002285 0.0
3.696817 1.968037 -0.002500 0.0
2.661600 1.267447 0.000929 0.0
2.461472 1.319320 0.002151 0.0
1.234077 0.190849 0.002121 0.0
0.138253 0.437307 0.000316 0.0
0.549285 1.177681 -0.000576 0.0
1.910648 0.314918 0.000656 0.0
4.557597 0.346391 -0.000229 0.0
2.110843 1.525349 0.000940 0.0
4.779635 1.053191 0.000846 0.0
0.525392 0.315965 0.002212 0.0
1.052850 0.146766 -0.003184 0.0
4.454676 1.139913 -0.002320 0.0
4.899422 0.953268 -0.001555 0.0
0.564778 1.163563 -0.002318 0.0
4.328069 0.070068 -0.006100 0.0
1.457128 1.769765 -0.004094 0.0
3.666945 0.394530 -0.001928 0.0
0.164844 1.238609 0.001615 0.0
1.229246 0.588003 0.001003 0.0
0.249305 1.606096 0.001192 0.0
0.221708 1.104051 0.002649 0.0
1.882775 0.193392 -0.002208 0.0
0.480045 0.717097 0.003482 0.0
0.978195 0.974263 -0.000011 0.0
4.272833 1.185709 -0.001965 0.0
1.447145 1.613466 0.001806 0.0
1.934157 0.437712 -0.000273 0.0
2.733158 1.804234 0.000676 0.0
1.865489 0.206975 0.001084 0.0
0.001983 1.526252 -0.001358 0.0
1.149552 0.741677 -0.003160 0.0
4.450368 1.257011 -0.000658 0.0
4.651287 1.502805 -0.000568 0.0
4.597145 0.424842 -0.003599 0.0
4.767226 1.182214 0.002687 0.0
4.700485 0.477765 0.001202 0.0
1.289985 1.119717 -0.002598 0.0
2.646403 0.052811 -0.004991 0.0
2.142226 0.743190 -0.000803 0.0
4.466727 1.840112 -0.000846 0.0
1.344583 1.589660 -0.002544 0.0
1.309075 0.084138 -0.001032 0.0
2.392114 0.389748 0.000403 0.0
4.413035 0.981124 -0.002215 0.0
2.153528 1.360510 0.000734 0.0
1.796761 0.510382 0.003012 0.0
4.254291 0.610286 -0.001225 0.0
0.976300 0.128074 -0.002644 0.0
4.544602 1.383295 0.004019 0.0
2.912482 1.044863 0.003153 0.0
0.450427 0.370050 0.000402 0.0
0.802487 0.156927 -0.003187 0.0
1.790358 0.972076 0.001963 0.0
3.912935 1.504695 -0.001704 0.0
2.654108 0.262014 0.001702 0.0
2.991595 0.881900 0.001395 0.0
4.749884 0.019971 0.003972 0.0
2.544978 0.437429 0.000396 0.0
3.048885 0.794722 -0.004250 0.0
3.831459 0.621278 0.004140 0.0
2.487187 1.094827 -0.002521 0.0
2.200364 1.825067 -0.003126 0.0
3.749187 0.069828 -0.001012 0.0
1.117002 1.355402 0.001046 0.0
4.548548 1.360074 -0.001181 0.0
4.409710 1.216469 0.002264 0.0
4.584646 0.946249 -0.001189 0.0
2.363116 0.401519 -0.002781 0.0
3.980728 0.798728 0.000677 0.0
1.026277 1.538794 0.002907 0.0
4.414196 0.593607 0.001345 0.0
3.994254 1.392572 0.000876 0.0
1.201799 1.661461 0.000794 0.0
4.841528 0.293924 0.000868 0.0
4.815490 0.082916 0.000464 0.0
1.314754 0.731967 0.000073 0.0
1.401279 1.506360 -0.002638 0.0
3.547361 1.480695 -0.002123 0.0
4.558972 1.310057 0.000817 0.0
0.549867 1.926961 0.001665 0.0
4.739563 0.732237 -0.000330 0.0
3.312099 1.684507 -0.004627 0.0
4.044835 1.424970 -0.005182 0.0
3.029075 1.515073 -0.001567 0.0
4.903893 1.375580 0.000316 0.0
2.113264 1.582674 -0.001853 0.0
3.112109 0.718431 0.000600 0.0
1.979183 0.360945 0.002078 0.0
0.649087 1.857873 -0.000158 0.0
1.275795 0.332677 -0.003843 0.0
0.826912 1.582926 -0.002657 0.0
2.805400 0.869342 -0.000592 0.0
1.628911 0.117405 -0.001118 0.0
2.799264 0.472662 -0.002381 0.0
4.326550 1.254981 -0.001173 0.0
3.550831 1.277066 0.001180 0.0
2.371967 0.211316 0.002000 0.0
3.383079 0.969889 0.001452 0.0
2.615249 0.658694 -0.006742 0.0
0.670484 1.097357 0.001150 0.0
4.242574 1.363671 -0.003933 0.0
4.888591 1.535160 0.002554 0.0
1.682348 1.262738 0.002492 0.0
3.784151 1.044157 -0.006107 0.0
3.663504 0.149516 -0.002814 0.0
3.623414 0.152167 0.000720 0.0
0.759708 1.841501 0.001726 0.0
4.633100 0.232341 -0.003575 0.0
3.856308 0.743589 0.003201 0.0
4.206662 0.837647 -0.000608 0.0
1.743881 0.775191 0.001199 0.0
2.265731 1.642857 -0.001670 0.0
1.034746 0.839266 0.000379 0.0
4.688783 0.638942 0.003213 0.0
0.297719 0.692890 0.001028 0.0
1.183308 0.846565 -0.004444 0.0
1.163642 0.528562 0.001836 0.0
3.747991 1.923713 0.000595 0.0
4.132381 0.986339 0.001596 0.0
3.186888 0.797425 0.001279 0.0
0.752556 0.135559 -0.001032 0.0
2.557476 1.941227 -0.001874 0.0
4.293145 1.090115 -0.003767 0.0
4.448159 0.143103 0.001864 0.0
4.277027 1.280884 0.000683 0.0
1.841312 1.784678 0.000649 0.0
3.153754 1.056953 0.000350 0.0
3.670502 0.620896 -0.001510 0.0
0.135566 0.672828 -0.001013 0.0
1.431694 0.632676 -0.001013 0.0
4.872082 1.729958 -0.003785 0.0
4.813386 1.554859 -0.003037 0.0
3.035097 0.842870 0.000801 0.0
0.822863 1.595558 -0.001442 0.0
3.119661 1.051722 -0.000081 0.0
0.407913 1.281467 0.003318 0.0
0.879055 0.940602 -0.000237 0.0
0.222968 1.287682 0.002734 0.0
4.018888 1.820864 0.000753 0.0
4.120357 1.006947 -0.001556 0.0
1.654774 0.771359 0.003496 0.0
0.153727 0.016792 0.000485 0.0
3.242387 1.615634 -0.001220 0.0
1.223251 1.307063 0.000538 0.0
2.429578 1.739314 0.001912 0.0
4.909079 1.856685 0.004094 0.0
2.229155 0.493776 -0.003090 0.0
0.759906 1.647506 0.002398 0.0
0.329166 0.264671 0.000219 0.0
4.228063 1.811766 0.000989 0.0
2.903134 0.659283 -0.001064 0.0
0.438980 1.231472 -0.000739 0.0
2.241361 1.330591 -0.004459 0.0
2.930807 0.995540 0.005311 0.0
4.901835 1.082412 -0.001761 0.0
1.811551 0.302458 0.003264 0.0
2.245915 1.880778 0.002230 0.0
1.511519 1.354393 0.003282 0.0
3.032794 0.559754 -0.000473 0.0
4.380090 0.497099 -0.001721 0.0
0.885162 1.305506 -0.002520 0.0
2.340299 0.590524 -0.000715 0.0
4.270249 1.609478 -0.003639 0.0
2.679151 0.664213 0.003220 0.0
3.348572 0.213837 0.000506 0.0
2.193706 1.837964 -0.001427 0.0
3.753023 0.032814 -0.001024 0.0
3.933570 1.892083 -0.000634 0.0
2.596242 0.248281 0.000254 0.0
4.527658 0.203170 -0.000048 0.0
0.334322 0.886691 0.004926 0.0
0.978574 1.635894 0.003926 0.0
0.246431 0.581276 0.002872 0.0
2.431233 0.920068 -0.000496 0.0
1.268669 0.803918 -0.003652 0.0
2.815596 0.484596 0.000574 0.0
4.353896 1.292824 -0.004501 0.0
0.935171 0.212823 0.002002 0.0
0.723723 1.944005 0.004512 0.0
0.034236 1.654206 0.000103 0.0
4.019428 0.064457 0.002419 0.0
1.483775 1.681614 0.002162 0.0
4.209565 1.136598 -0.000763 0.0
2.136087 1.089091 0.000150 0.0
0.068537 1.428426 -0.000138 0.0
4.864410 0.702297 0.002498 0.0
1.271561 0.424167 -0.001148 0.0
4.062110 1.028902 -0.000089 0.0
0.189056 0.638106 -0.000645 0.0
4.485487 0.289948 0.002745 0.0
3.837865 1.330125 -0.000739 0.0
0.413653 1.127939 0.001688 0.0
3.551240 1.202894 0.000166 0.0
2.396498 1.692195 -0.004572 0.0
2.921247 1.007890 0.003147 0.0
4.844724 1.739221 0.001175 0.0
0.845933 1.371598 0.000842 0.0
0.636332 1.616011 -0.003784 0.0
4.852902 0.875433 -0.004145 0.0
4.042683 0.493278 0.000394 0.0
2.282764 1.957419 0.003934 0.0
2.085957 0.604976 -0.000305 0.0
3.450330 0.017983 -0.000747 0.0
3.832129 1.277657 0.000331 0.0
2.419195 1.185506 0.000743 0.0
2.863021 1.581522 -0.003529 0.0
1.291571 0.294472 -0.000394 0.0
0.159305 0.288075 -0.000720 0.0
0.429153 1.073888 0.001242 0.0
1.897628 1.335240 -0.002252 0.0
1.861498 0.243557 0.000608 0.0
3.614338 0.101723 0.000316 0.0
1.806125 0.162685 -0.002209 0.0
4.097119 1.014435 0.001289 0.0
1.159591 0.340133 -0.000340 0.0
1.453127 0.775853 -0.001627 0.0
2.574715 0.659796 0.002206 0.0
0.252033 1.092876 -0.000397 0.0
0.378387 1.019139 -0.003222 0.0
1.176680 0.986473 -0.003478 0.0
3.114257 1.737815 -0.002340 0.0
2.063476 0.516108 -0.002875 0.0
1.849856 1.100429 0.000532 0.0
0.225904 1.834806 0.002145 0.0
0.453604 1.492264 0.000912 0.0
2.477421 1.305248 -0.001178 0.0
0.461340 0.833061 0.001109 0.0
1.065183 1.639712 -0.003010 0.0
4.468428 0.121691 0.002513 0.0
3.837271 0.968665 -0.000795 0.0
0.971461 0.672409 0.001249 0.0
3.199483 0.659318 0.002894 0.0
3.861722 1.588552 -0.003208 0.0
2.870568 1.345335 0.000138 0.0
0.616539 0.783736 -0.005322 0.0
1.214028 1.189541 0.002599 0.0
4.716713 0.108272 0.001565 0.0
4.071080 1.928116 0.001326 0.0
3.905163 1.174494 -0.000848 0.0
0.904109 1.444608 0.002269 0.0
1.716758 1.002914 0.002088 0.0
3.536266 0.099155 -0.000049 0.0
3.959921 0.892477 0.000211 0.0
1.392169 1.960170 -0.000689 0.0
3.086980 1.173752 0.002148 0.0
4.917121 0.620754 -0.003697 0.0
1.057420 1.690829 0.000752 0.0
2.290927 1.946057 0.000910 0.0
1.304550 1.671351 0.001940 0.0
1.194278 1.617374 -0.003563 0.0
1.885972 0.834378 0.000337 0.0
2.433571 0.672404 0.000227 0.0
2.470335 1.148163 -0.002204 0.0
1.248697 1.650272 0.000345 0.0
3.269410 0.976381 0.001714 0.0
3.177123 0.199255 0.000677 0.0
0.573881 0.461400 0.000962 0.0
1.171141 1.905710 -0.003971 0.0
4.208154 1.226557 0.002378 0.0
0.627809 0.863422 0.001530 0.0
3.488439 1.604664 -0.003483 0.0
3.154882 1.701071 -0.000273 0.0
1.467217 1.054971 -0.002555 0.0
0.167741 1.775254 -0.004950 0.0
2.241873 0.882539 -0.004619 0.0
0.871653 1.688387 -0.005297 0.0
4.434287 1.645919 0.004116 0.0
3.663789 1.636556 0.000022 0.0
0.119634 0.913977 0.001265 0.0
1.410198 0.742922 0.001220 0.0
0.232867 1.457069 0.005881 0.0
1.957791 0.565704 0.002694 0.0
3.932160 0.763917 -0.000477 0.0
1.517506 1.409542 0.002198 0.0
3.711238 0.538692 0.001054 0.0
1.750307 1.502602 0.000513 0.0
3.217067 1.494664 0.001449 0.0
2.545859 1.416996 0.000496 0.0
0.892704 1.539804 0.003574 0.0
1.049518 0.928963 -0.000199 0.0
4.639194 0.025137 0.000867 0.0
3.284349 0.332052 -0.000712 0.0
3.685819 1.180144 0.002132 0.0
4.395787 1.857050 -0.004337 0.0
3.616447 0.538109 -0.000218 0.0
0.078331 1.151421 0.003033 0.0
4.583896 0.556857 0.000003 0.0
0.557889 1.864116 0.000066 0.0
2.689455 0.677489 0.002067 0.0
4.065363 1.490006 0.001254 0.0
1.768532 1.418009 -0.000979 0.0
1.408830 1.788697 -0.000874 0.0
3.975579 0.932934 0.000342 0.0
2.648206 0.383137 -0.002562 0.0
0.387061 0.293702 -0.001809 0.0
2.504250 0.189263 -0.002805 0.0
1.499227 0.841470 0.001007 0.0
1.807682 0.469551 -0.000510 0.0
0.926399 1.870027 -0.002293 0.0
1.403761 0.897603 0.001918 0.0
0.506593 1.306131 -0.000538 0.0
3.481847 1.278697 0.001438 0.0
3.231679 0.153924 -0.002956 0.0
2.172375 0.401600 -0.001104 0.0
4.914079 1.223240 0.003611 0.0
2.002569 0.768736 0.002431 0.0
0.009790 1.799102 -0.001801 0.0
2.212255 0.220331 -0.004845 0.0
3.711197 1.540479 0.000987 0.0
0.910843 0.485724 -0.003515 0.0
3.746396 1.478886 -0.003400 0.0
4.078299 0.116601 -0.001459 0.0
2.791168 0.757218 0.000682 0.0
1.087838 0.264593 -0.000257 0.0
0.494948 1.487625 -0.001230 0.0
3.591385 0.326770 -0.002519 0.0
4.395365 0.913733 0.003651 0.0
3.754724 0.861201 0.002839 0.0
2.887514 1.177610 0.000619 0.0
2.801373 1.504879 -0.000126 0.0
2.651079 0.195380 0.002910 0.0
2.092061 1.983027 0.002696 0.0
4.043629 0.507698 -0.002126 0.0
3.094874 1.013988 -0.003161 0.0
1.929153 1.040643 0.001582 0.0
0.583390 0.922193 -0.000916 0.0
1.497429 0.615139 -0.001013 0.0
2.945053 1.386345 -0.001116 0.0
4.286735 0.660156 0.001185 0.0
1.533136 1.364558 -0.000224 0.0
1.356165 1.961400 0.000717 0.0
0.239024 1.656402 -0.001062 0.0
3.628236 0.696507 0.001923 0.0
2.161415 0.557712 0.000542 0.0
0.932112 1.800557 -0.000942 0.0
2.933120 0.030753 -0.001680 0.0
1.501808 0.079176 -0.001688 0.0
3.734441 0.537183 0.000864 0.0
1.100843 1.171095 -0.001160 0.0
4.413564 0.367781 -0.001462 0.0
3.351517 0.737136 -0.000750 0.0
0.648720 0.155862 -0.003680 0.0
2.670165 0.314747 0.001717 0.0
0.395373 1.260243 0.001497 0.0
2.118710 0.823821 0.004428 0.0
1.849457 0.697763 -0.004867 0.0
2.148815 0.104586 -0.000208 0.0
0.585955 0.765402 -0.000214 0.0
1.113093 1.516624 0.000185 0.0
2.314339 1.266890 0.001592 0.0
4.935259 1.405542 0.000921 0.0
3.046628 0.964596 0.000895 0.0
3.949416 1.927160 0.002716 0.0
3.241180 0.636005 -0.002206 0.0
3.907393 1.290748 -0.001486 0.0
0.075185 0.065933 -0.001728 0.0
4.805355 0.139587 0.002703 0.0
0.686432 1.045135 -0.001490 0.0
4.788438 0.204404 0.004557 0.0
1.502550 1.154823 0.000982 0.0
1.539776 0.697010 -0.001809 0.0
4.047806 1.200062 0.003766 0.0
1.615404 1.328872 0.000479 0.0
0.358395 1.605997 0.001221 0.0
2.769246 0.125608 0.002793 0.0
3.209806 0.121075 0.004324 0.0
3.965380 1.134456 -0.003863 0.0
3.831365 1.393691 0.001573 0.0
1.071152 0.450305 -0.000295 0.0
4.608730 1.039083 0.000595 0.0
4.684200 0.973328 -0.004079 0.0
4.576163 1.491682 0.001455 0.0
3.688801 0.454342 0.000055 0.0
3.553872 1.512138 -0.003225 0.0
4.195974 0.687408 0.002306 0.0
0.378806 1.960392 0.001162 0.0
1.522904 1.617118 -0.001300 0.0
3.159071 0.333202 -0.004564 0.0
3.150267 0.968390 0.001494 0.0
4.298622 1.098509 -0.002113 0.0
2.944192 0.842107 -0.001245 0.0
2.650859 1.875241 0.000379 0.0
0.914997 1.410903 0.003871 0.0
1.982228 0.043250 -0.002941 0.0
0.245678 0.723365 -0.001353 0.0
4.407223 1.655828 0.000046 0.0
3.984795 1.629169 0.002252 0.0
1.118194 1.352316 -0.001014 0.0
3.790337 1.804715 -0.001650 0.0
3.356320 1.772453 0.001136 0.0
1.660686 1.828298 0.001396 0.0
1.018836 1.268963 -0.003429 0.0
2.234715 1.220927 -0.001748 0.0
1.070967 0.498662 0.001010 0.0
3.928335 1.167901 -0.001010 0.0
3.095501 1.390730 0.001423 0.0
2.779565 0.768920 0.000850 0.0
1.430812 0.663477 -0.001353 0.0
3.184751 0.045081 -0.001636 0.0
3.855003 0.410487 -0.000147 0.0
3.961177 1.284949 0.002645 0.0
0.628963 0.649202 0.001691 0.0
0.740438 1.747268 -0.002210 0.0
0.338526 1.421698 0.001785 0.0
1.812099 0.170913 -0.004241 0.0
0.282447 0.747457 -0.006126 0.0
0.629414 1.258120 0.001335 0.0
3.276318 1.702534 0.000111 0.0
3.255565 1.343713 0.000959 0.0
1.829577 0.652038 0.004054 0.0
2.594756 0.817135 0.000355 0.0
1.768895 0.501378 -0.002276 0.0
4.175557 1.009492 -0.000861 0.0
1.586569 0.719535 -0.000326 0.0
1.868619 0.949607 0.003607 0.0
3.007507 0.692045 -0.002611 0.0
2.111442 0.271639 -0.002434 0.0
3.780082 1.363820 -0.000084 0.0
1.461876 0.132638 -0.001419 0.0
1.631919 1.404602 0.000213 0.0
4.319878 0.090652 0.005493 0.0
3.217841 1.977190 0.001910 0.0
4.005225 0.407256 0.001729 0.0
3.445906 0.748637 -0.001686 0.0
3.070286 0.698597 -0.000127 0.0
2.225855 1.498956 -0.003968 0.0
4.773949 0.663994 0.006219 0.0
2.421684 1.903691 -0.000637 0.0
0.099927 0.252982 -0.001420 0.0
4.925368 0.675871 0.001190 0.0
2.758501 0.566730 -0.003775 0.0
2.711057 0.134853 0.001637 0.0
1.174192 1.126689 -0.001882 0.0
0.370312 1.904334 -0.002003 0.0
4.898093 0.686073 -0.001705 0.0
0.633554 1.004860 -0.002308 0.0
3.270857 1.232106 0.002012 0.0
3.451257 0.248346 0.001397 0.0
2.498732 0.565613 0.000352 0.0
2.399116 0.213057 0.000311 0.0
1.990705 1.552079 -0.000902 0.0
2.732201 1.377153 -0.003655 0.0
0.537863 0.685981 0.004520 0.0
4.075152 0.202746 -0.000718 0.0
1.106262 1.629965 0.002205 0.0
1.892649 0.431949 0.000109 0.0
0.765760 1.821676 -0.005880 0.0
4.012180 0.450172 0.000663 0.0
0.501008 1.571227 0.002221 0.0
0.989873 1.726282 0.000693 0.0
2.106791 0.645741 -0.004750 0.0
3.004719 1.765941 -0.002545 0.0
1.660252 0.595458 -0.000493 0.0
2.215018 1.090743 -0.001037 0.0
4.371171 0.459531 0.000873 0.0
1.001624 1.806257 0.001537 0.0
0.875821 0.906806 0.000525 0.0
0.177902 0.638685 0.002868 0.0
3.343400 0.397169 0.002190 0.0
3.760033 0.131100 -0.002400 0.0
1.358175 1.661724 -0.001980 0.0
1.533823 1.163679 -0.000236 0.0
0.951599 0.947971 -0.001654 0.0
1.646207 1.566455 -0.004150 0.0
1.886699 1.753456 0.000563 0.0
4.239874 1.224656 -0.000345 0.0
3.217452 1.270633 -0.000196 0.0
4.542875 0.016491 0.001550 0.0
0.472021 1.347098 -0.003448 0.0
2.764702 0.029117 0.001275 0.0
0.423002 0.895973 0.002466 0.0
3.211601 1.357795 -0.004443 0.0
2.347721 0.802202 0.002135 0.0
1.248174 1.394970 0.002378 0.0
0.045275 0.357771 0.001252 0.0
4.187477 0.900082 -0.003687 0.0
3.285998 1.674587 0.006116 0.0
0.674257 1.536680 -0.000213 0.0
0.432204 0.448479 -0.002581 0.0
3.226293 1.016480 -0.001573 0.0
2.745127 1.905165 -0.001998 0.0
3.579510 1.031526 -0.001942 0.0
1.718567 1.244749 -0.003985 0.0
1.323866 0.818786 -0.000353 0.0
2.296933 1.395187 0.000837 0.0
4.579204 0.056402 -0.003199 0.0
2.178608 0.912646 0.002536 0.0
3.256843 0.769565 -0.001188 0.0
2.146069 1.381350 0.000640 0.0
3.306034 1.640993 0.000065 0.0
4.455106 0.605564 0.001056 0.0
3.680191 0.923782 -0.000491 0.0
0.431211 0.987517 -0.006078 0.0
1.080382 1.110337 -0.000277 0.0
4.129397 1.490913 -0.001782 0.0
2.542444 1.864865 0.004929 0.0
4.437661 0.981382 0.004000 0.0
1.410384 0.110124 0.000441 0.0
2.998501 1.085844 -0.001474 0.0
3.741441 0.456460 -0.001252 0.0
3.324479 0.587301 0.000581 0.0
1.537644 1.571212 0.002598 0.0
4.177937 1.333370 0.001844 0.0
4.451976 1.673639 -0.001913 0.0
3.227642 0.573699 0.001505 0.0
2.067354 1.026734 0.000994 0.0
4.811562 1.841511 0.002074 0.0
0.882714 0.597428 0.001565 0.0
2.776510 1.216319 0.001894 0.0
4.198115 1.482501 0.000842 0.0
1.943123 0.236615 0.001825 0.0
4.382817 0.037625 -0.000419 0.0
3.974430 0.497604 0.003151 0.0
0.375078 1.178825 0.001070 0.0
2.193549 1.065268 -0.000698 0.0
0.644275 1.093904 -0.001078 0.0
1.587864 0.495456 -0.000049 0.0
2.971383 1.550799 -0.002821 0.0
1.284714 1.448890 0.000197 0.0
3.103508 0.634388 -0.002607 0.0
0.803763 1.065075 0.001337 0.0
2.412702 0.961403 -0.001872 0.0
2.718154 0.218262 -0.001957 0.0
2.478124 0.784826 0.000928 0.0
3.539572 0.289038 -0.003758 0.0
3.330539 1.714366 0.004183 0.0
3.794037 1.431187 0.002242 0.0
2.644674 1.626237 -0.000676 0.0
4.502130 1.782850 -0.001607 0.0
1.497461 1.639462 0.005236 0.0
