0.91745576 1.36589821 -0.00302676 0.00000000
0.37508543 0.13280102 -0.00408383 0.00000000
2.04487397 0.00669890 0.00013533 0.00000000
0.94105637 1.94558826 0.00119987 0.00000000
0.51514103 0.33568103 0.00193239 0.00000000
4.86816998 0.77889880 0.00259932 0.00000000
3.96812670 0.21814543 0.00052122 0.00000000
0.92421137 1.23426864 -0.00124176 0.00000000
4.96797106 0.08372568 -0.00220748 0.00000000
3.13450944 1.68503598 -0.00347681 0.00000000
1.58674458 0.37950697 0.00411642 0.00000000
0.94418297 0.97541577 0.00204736 0.00000000
2.21851696 1.02207390 0.00086688 0.00000000
3.33217926 0.82017485 -0.00258087 0.00000000
4.20807743 1.10884354 -0.00007111 0.00000000
4.16687341 1.45322636 0.00026878 0.00000000
4.41063187 0.75771505 -0.00187044 0.00000000
0.47336461 0.40326867 0.00005942 0.00000000
1.06386098 0.74266249 0.00191656 0.00000000
4.57072047 1.75072836 0.00223614 0.00000000
4.92270983 0.94589975 0.00076671 0.00000000
1.32809673 1.19422981 0.00082527 0.00000000
1.66068863 1.32703671 -0.00068398 0.00000000
3.46085757 1.85777214 -0.00127110 0.00000000
3.27687621 1.52456622 0.00412825 0.00000000
2.49646865 0.29805114 0.00088804 0.00000000
3.61773446 1.29579335 -0.00044736 0.00000000
4.31095850 0.62247001 -0.00271639 0.00000000
1.54419786 0.61293041 0.00487169 0.00000000
0.19062700 1.42364957 -0.00608642 0.00000000
4.03575121 1.17575800 0.00213166 0.00000000
0.93972526 0.29560843 -0.00150963 0.00000000
2.71077660 0.75857276 -0.00346600 0.00000000
3.50955922 1.42935426 0.00174071 0.00000000
4.39069912 0.78050644 0.00256086 0.00000000
2.10578131 1.90285463 0.00199646 0.00000000
3.28400499 1.49656803 0.00128828 0.00000000
3.07572422 1.94241264 0.00113753 0.00000000
3.48769702 0.87751151 0.00223863 0.00000000
0.38396812 0.31331915 -0.00155137 0.00000000
0.15280825 1.52925729 0.00032303 0.00000000
2.79536431 1.52750459 -0.00037165 0.00000000
2.64236475 0.34664998 -0.00086885 0.00000000
2.69208322 0.37527309 0.00178122 0.00000000
1.31843950 1.10508464 -0.00146536 0.00000000
2.96086318 1.93265125 -0.00251296 0.00000000
0.28604533 1.28433169 0.00308340 0.00000000
3.87913226 1.46144283 0.00094188 0.00000000
3.39247148 1.82617657 0.00005099 0.00000000
3.71462881 1.86233445 0.00482043 0.00000000
3.58276602 2.02368275 0.00042957 0.00000000
3.93943520 2.05970733 -0.00101586 0.00000000
1.92203019 1.48702790 0.00191356 0.00000000
1.17680285 0.16786645 0.00062873 0.00000000
0.51401194 1.56312521 0.00634096 0.00000000
1.03125306 2.02043577 0.00098726 0.00000000
3.04319352 0.50747914 -0.00054351 0.00000000
0.56225470 1.83981901 -0.00062174 0.00000000
4.23427194 0.45477758 -0.00196402 0.00000000
1.93306263 0.60067679 0.00203497 0.00000000
3.77665562 1.70612569 0.00215712 0.00000000
2.15536432 1.02343979 -0.00028404 0.00000000
1.01111522 0.26249661 0.00182412 0.00000000
4.61602455 1.10417208 -0.00236614 0.00000000
4.23176681 0.05023067 -0.00125028 0.00000000
4.21472001 0.95038262 -0.00088735 0.00000000
4.68171775 0.86760355 0.00121021 0.00000000
3.22194986 2.00916121 -0.00227443 0.00000000
0.32849354 0.62173883 -0.00039414 0.00000000
4.12470279 1.95019979 0.00594163 0.00000000
3.36548716 1.36074080 0.00179455 0.00000000
3.58256959 1.82943511 0.00035258 0.00000000
2.98566756 2.00441368 0.00039119 0.00000000
4.53958310 1.61184924 0.00049882 0.00000000
2.62931197 0.15586949 -0.00215576 0.00000000
3.25755044 1.97118181 0.00304736 0.00000000
1.66279200 0.80471729 -0.00031992 0.00000000
4.69416839 1.94630732 0.00060881 0.00000000
2.04987718 1.64377061 -0.00161432 0.00000000
0.56348829 0.50417089 0.00061253 0.00000000
1.67531527 1.56465439 -0.00297739 0.00000000
2.02005499 1.55794559 -0.00088017 0.00000000
2.53525358 1.47564564 0.00502044 0.00000000
0.14440698 1.46777106 -0.00209808 0.00000000
4.65166938 0.41112515 -0.00019979 0.00000000
0.43274274 1.30369103 -0.00179992 0.00000000
3.73855897 0.13388041 -0.00255661 0.00000000
4.19470581 1.05698322 -0.00777562 0.00000000
3.83784850 1.15356674 0.00266522 0.00000000
2.09739499 0.62760423 -0.00052450 0.00000000
4.13143990 1.04283412 -0.00454986 0.00000000
2.90823812 0.85607936 -0.00402259 0.00000000
3.19685040 0.18216274 0.00064397 0.00000000
0.97648711 1.72148110 -0.00365276 0.00000000
2.42474421 1.96782122 0.00466114 0.00000000
0.09290566 1.54528236 -0.00200011 0.00000000
2.42187372 0.21885171 0.00069631 0.00000000
3.77077237 1.09730300 0.00364691 0.00000000
0.37371933 0.78140091 -0.00022005 0.00000000
1.48259873 1.35165459 0.00083242 0.00000000
3.26424891 0.11784199 0.00004970 0.00000000
0.10878535 0.04294996 -0.00015897 0.00000000
0.47940239 0.87392291 -0.00094401 0.00000000
1.29162493 1.96586447 -0.00015275 0.00000000
4.70955992 0.28786155 0.00263754 0.00000000
4.32832951 0.03283345 0.00390900 0.00000000
3.72300324 0.47167558 -0.00100579 0.00000000
1.03149906 0.41899279 0.00246568 0.00000000
3.37804386 1.52067425 -0.00219171 0.00000000
3.29232227 0.57643065 0.00370971 0.00000000
2.52652299 0.83759250 -0.00216980 0.00000000
3.86486854 1.48644606 0.00219027 0.00000000
4.72267917 0.81016692 -0.00106743 0.00000000
2.12170502 1.68252442 0.00007401 0.00000000
1.22406960 1.41251671 0.00251820 0.00000000
2.55782123 1.03738213 -0.00242489 0.00000000
4.60137944 0.40652770 -0.00050089 0.00000000
1.64898635 0.19716613 -0.00161623 0.00000000
4.97180974 1.23556035 -0.00078349 0.00000000
1.71007692 1.02140478 -0.00031221 0.00000000
2.30386492 0.59325148 -0.00476604 0.00000000
2.08775757 0.76091629 0.00220194 0.00000000
3.86181078 1.40128582 -0.00088032 0.00000000
1.39975196 1.65146108 -0.00290985 0.00000000
4.59259538 1.26333411 -0.00294298 0.00000000
1.41134024 1.61931720 0.00273249 0.00000000
0.13029634 0.13796007 0.00557604 0.00000000
1.69756888 1.19383150 -0.00024555 0.00000000
3.32684729 0.61021632 -0.00183190 0.00000000
3.56240250 0.15716882 0.00344215 0.00000000
1.55413962 1.45980066 0.00086171 0.00000000
1.98056682 1.29997699 0.00021887 0.00000000
0.32752823 1.80780713 -0.00169303 0.00000000
4.86855939 1.57164434 -0.00246225 0.00000000
4.28189100 1.99100839 -0.00210085 0.00000000
1.21094038 2.01176772 -0.00082918 0.00000000
3.89813155 1.59371312 0.00297301 0.00000000
0.87356921 1.69161926 -0.00018661 0.00000000
0.71636808 0.58772567 0.00087504 0.00000000
4.56853861 0.93161335 -0.00235134 0.00000000
3.51288843 0.63673954 -0.00155597 0.00000000
1.60773104 0.62360614 0.00295656 0.00000000
4.17751588 0.37928554 -0.00279652 0.00000000
0.16694686 1.46163136 0.00507161 0.00000000
1.97214010 0.79466443 -0.00195978 0.00000000
3.79259624 1.86968281 0.00761234 0.00000000
4.44546118 1.17528066 0.00421871 0.00000000
1.48965842 0.44866738 -0.00095861 0.00000000
3.26066341 1.09773921 -0.00043800 0.00000000
4.12786992 0.39752927 0.00050747 0.00000000
3.20354011 0.59966350 0.00038456 0.00000000
0.76705430 1.99344232 0.00204664 0.00000000
0.22588969 1.43232914 -0.00176914 0.00000000
1.48755702 1.87360151 0.00365952 0.00000000
1.65265351 1.67308952 -0.00347562 0.00000000
3.54588485 1.59362825 -0.00328731 0.00000000
2.33852016 1.82224127 0.00096325 0.00000000
0.18139955 1.36755563 -0.00047470 0.00000000
2.01754458 1.44397297 0.00241787 0.00000000
2.04855460 0.44400396 0.00156667 0.00000000
2.61227104 1.37465665 -0.00081761 0.00000000
3.06512516 0.25008313 0.00056120 0.00000000
2.76626302 0.71668162 0.00284322 0.00000000
0.79280248 1.05806541 0.00521734 0.00000000
2.21680579 1.49434084 -0.00329162 0.00000000
2.94960705 1.89043218 -0.00097655 0.00000000
1.14848034 0.72752174 0.00133313 0.00000000
4.79828774 0.26887303 0.00197417 0.00000000
0.56881565 1.37706607 -0.00040433 0.00000000
1.28901536 0.07297270 0.00166496 0.00000000
4.43327778 0.55573160 0.00087826 0.00000000
3.16708370 0.72155324 0.00383368 0.00000000
1.55399797 0.95786276 0.00343843 0.00000000
4.52922465 0.36108337 0.00394303 0.00000000
0.78479642 1.82862493 -0.00059913 0.00000000
0.77740147 1.24023557 0.00336955 0.00000000
2.21601273 0.87987844 0.00040839 0.00000000
4.57324366 0.99974793 0.00047023 0.00000000
4.77271538 0.26115419 -0.00073251 0.00000000
3.27651208 0.32466967 0.00014037 0.00000000
0.37754144 0.84929453 0.00163504 0.00000000
0.62659627 1.76508911 0.00050909 0.00000000
1.89818704 1.08593426 0.00200716 0.00000000
1.09648077 1.81729905 -0.00420158 0.00000000
4.78642397 0.45777662 0.00376665 0.00000000
2.59463038 0.83798225 0.00179417 0.00000000
1.97891717 1.27813581 -0.00040520 0.00000000
2.35059031 0.72616301 0.00090718 0.00000000
2.14022673 1.55167968 -0.00206025 0.00000000
0.54710713 0.33479394 0.00330086 0.00000000
4.96429183 0.24631314 -0.00045866 0.00000000
1.35099292 1.88913056 0.00148645 0.00000000
2.94194742 0.37716380 -0.00225451 0.00000000
3.05007558 1.54946894 -0.00170278 0.00000000
0.10006358 1.41707588 -0.00096534 0.00000000
3.55898451 0.83467968 -0.00078425 0.00000000
3.48067052 0.60048261 0.00132470 0.00000000
1.22687176 1.61875259 -0.00355016 0.00000000
2.51602163 0.00518487 -0.00291303 0.00000000
4.25558602 1.69051837 -0.00079236 0.00000000
3.52311038 0.28785401 0.00320780 0.00000000
2.50281924 1.18840279 -0.00366931 0.00000000
0.71497132 1.06499500 0.00236724 0.00000000
4.38361992 1.14882029 -0.00247808 0.00000000
3.78215210 0.61319398 0.00112383 0.00000000
4.10388093 1.45525467 -0.00227824 0.00000000
1.72601077 0.61990012 0.00012934 0.00000000
0.54721800 0.41511121 -0.00217403 0.00000000
4.14272013 1.86200484 0.00057755 0.00000000
2.42516700 1.94288523 0.00377129 0.00000000
1.79092379 0.92499613 0.00048447 0.00000000
4.56468697 1.68897183 0.00008078 0.00000000
1.41947356 0.24968688 -0.00194433 0.00000000
0.10503590 0.86205845 0.00303570 0.00000000
1.56026423 0.03564377 -0.00111287 0.00000000
1.84741624 1.01309930 -0.00079361 0.00000000
3.75853998 2.03201703 0.00038726 0.00000000
4.12449416 1.19782048 -0.00046231 0.00000000
1.05042595 0.56619683 -0.00545017 0.00000000
4.84893797 1.83986880 -0.00192690 0.00000000
1.33411124 0.54373013 -0.00046243 0.00000000
3.68988222 1.70904927 0.00220872 0.00000000
1.00561640 0.82811085 -0.00016738 0.00000000
3.46721722 0.82735360 -0.00242428 0.00000000
3.96221805 1.31238775 -0.00507185 0.00000000
1.00273640 0.79141180 -0.00274884 0.00000000
2.34500384 0.79948014 -0.00201920 0.00000000
1.01053242 1.83823707 0.00252122 0.00000000
2.86386037 1.57331738 0.00018513 0.00000000
4.11025176 0.03066864 0.00151592 0.00000000
1.12309473 1.67708312 0.00034032 0.00000000
1.00179027 1.27694179 -0.00181550 0.00000000
2.91664159 1.04537311 -0.00366597 0.00000000
4.90114173 2.07894758 0.00323658 0.00000000
0.85932108 0.66167979 -0.00009344 0.00000000
3.93985199 0.50407948 0.00003265 0.00000000
3.28133840 0.53509479 0.00115059 0.00000000
2.90083413 1.88910430 0.00089037 0.00000000
4.63399271 0.04257353 0.00156022 0.00000000
1.86008506 0.08913903 -0.00061483 0.00000000
0.01134979 1.42501679 0.00224413 0.00000000
3.10362458 1.81170239 -0.00337260 0.00000000
2.75441318 0.56061797 0.00154076 0.00000000
4.32386300 1.31893017 0.00189656 0.00000000
1.44379279 1.50874803 -0.00305938 0.00000000
2.81667305 1.26508376 0.00350545 0.00000000
4.97004209 0.24195149 0.00203799 0.00000000
3.51171397 1.49370093 -0.00361292 0.00000000
3.15841006 0.54874027 0.00094495 0.00000000
1.33441692 1.97084027 -0.00231709 0.00000000
2.24422759 1.28089716 0.00119256 0.00000000
0.56543812 0.66457465 -0.00071006 0.00000000
3.34726704 0.39793783 0.00001839 0.00000000
4.03942302 0.19234089 -0.00163894 0.00000000
2.68120935 0.06549704 -0.00073496 0.00000000
2.77142267 1.52244275 -0.00003396 0.00000000
0.41429194 1.44880496 -0.00137082 0.00000000
2.37744708 1.83597267 0.00207035 0.00000000
2.66345753 0.21291242 -0.00301028 0.00000000
2.72706508 0.87813048 0.00074393 0.00000000
1.49353892 0.59450897 -0.00282721 0.00000000
4.83311741 0.11802757 0.00176066 0.00000000
3.81323857 1.76071021 -0.00057308 0.00000000
0.82316150 0.23755062 -0.00347037 0.00000000
1.41517868 0.97153878 -0.00545451 0.00000000
2.11749869 1.15653420 -0.00203164 0.00000000
0.50085775 0.63979344 -0.00172084 0.00000000
3.01753939 1.61588657 0.00142297 0.00000000
1.23686294 2.01024719 0.00472168 0.00000000
2.42008692 1.43071501 0.00069925 0.00000000
2.81892212 1.41424953 0.00286577 0.00000000
3.52897481 1.51556671 -0.00007021 0.00000000
4.87639484 1.19087177 0.00220927 0.00000000
1.82137243 1.50825948 -0.00197357 0.00000000
4.14518896 1.59559690 -0.00040505 0.00000000
0.67539750 1.00598929 0.00281435 0.00000000
1.69135081 1.57286516 -0.00109188 0.00000000
4.01298085 0.35973320 0.00015409 0.00000000
3.00725339 1.02159474 0.00423969 0.00000000
3.73707936 0.09680802 -0.00144933 0.00000000
1.62041305 2.04536433 0.00078172 0.00000000
3.48739938 0.89521622 0.00181617 0.00000000
0.82449100 0.15644731 -0.00322336 0.00000000
0.80367121 1.37429474 -0.00160212 0.00000000
3.80553085 2.06324154 -0.00130176 0.00000000
2.55467413 1.33474082 0.00166708 0.00000000
2.21886444 0.39112814 -0.00056034 0.00000000
1.65070804 0.27709397 -0.00361319 0.00000000
0.21093427 0.96242494 0.00297059 0.00000000
4.37856727 0.36185046 -0.00304950 0.00000000
2.26694982 1.18661366 -0.00029818 0.00000000
2.27149278 0.06207884 0.00300260 0.00000000
2.32619263 1.11663946 0.00069935 0.00000000
0.96467332 1.60831700 0.00037383 0.00000000
4.24090147 1.62063714 -0.00027284 0.00000000
1.99312539 1.25458737 0.00040060 0.00000000
3.59320539 1.18895686 -0.00703277 0.00000000
0.51341165 0.68083573 -0.00188669 0.00000000
1.17203112 0.52418730 0.00366317 0.00000000
0.63791158 0.68608254 -0.00025584 0.00000000
3.24855860 0.07853078 0.00068884 0.00000000
2.33508819 0.00371389 -0.00225342 0.00000000
2.12038396 0.12913950 -0.00086741 0.00000000
0.39366494 1.58489789 0.00172476 0.00000000
3.67059226 0.84900228 0.00107284 0.00000000
4.64928264 0.99381914 -0.00176592 0.00000000
2.08807552 1.14704185 -0.00112660 0.00000000
4.59325023 1.91281461 -0.00203425 0.00000000
2.79339470 0.19035183 0.00466079 0.00000000
2.68261591 0.84552325 -0.00023976 0.00000000
4.62065579 0.72992813 -0.00451961 0.00000000
2.53194184 1.23759781 -0.00245370 0.00000000
0.17291250 1.64198091 -0.00167901 0.00000000
0.60916872 1.63619582 0.00116639 0.00000000
0.53057842 0.92876788 -0.00242498 0.00000000
2.25735847 1.86754767 -0.00188496 0.00000000
0.09215556 1.72205854 -0.00101815 0.00000000
4.16008074 1.71268266 0.00119662 0.00000000
1.69767173 0.42021457 0.00132272 0.00000000
1.63408488 0.33858010 0.00104805 0.00000000
0.65277240 1.24289952 -0.00311334 0.00000000
0.18164224 0.35283060 -0.00076995 0.00000000
2.24357629 1.54596948 0.00055608 0.00000000
1.35094230 1.14383735 -0.00014810 0.00000000
0.45621590 0.64621003 0.00003825 0.00000000
2.90771077 1.56624816 -0.00067288 0.00000000
0.64029628 1.62288859 -0.00274883 0.00000000
4.71955739 1.28255656 0.00413106 0.00000000
3.63560504 0.60066817 0.00295310 0.00000000
3.13529107 1.80599226 0.00305359 0.00000000
4.96919066 1.20169821 0.00334933 0.00000000
2.33224103 0.11756988 -0.00065907 0.00000000
4.14594876 2.04757232 0.00064250 0.00000000
4.74530502 1.57653604 0.00285146 0.00000000
0.13696499 0.75297044 -0.00442431 0.00000000
2.03862792 0.30834088 0.00371256 0.00000000
4.42604252 1.22988490 0.00009385 0.00000000
0.40178713 0.39559136 0.00123492 0.00000000
3.59651714 1.08689713 -0.00137782 0.00000000
2.46315349 0.03059018 0.00351290 0.00000000
3.91544547 1.35419570 0.00298955 0.00000000
3.01868953 1.31839054 -0.00000678 0.00000000
4.57153203 1.25012995 0.00258215 0.00000000
4.64328949 2.06744376 0.00189376 0.00000000
3.38185745 1.16047258 -0.00048567 0.00000000
2.18836832 1.34806354 -0.00045554 0.00000000
1.41709467 1.76801617 -0.00188338 0.00000000
2.14026000 0.52821401 0.00477028 0.00000000
4.14394434 0.85885048 -0.00039555 0.00000000
1.00473481 1.71934371 -0.00263957 0.00000000
3.89652142 1.05280921 0.00406509 0.00000000
1.29671971 0.66759437 -0.00252973 0.00000000
2.24157362 0.64678773 -0.00256946 0.00000000
2.17455783 0.27867349 -0.00206063 0.00000000
3.11049255 1.95955619 -0.00319663 0.00000000
0.77899297 0.06584819 0.00068359 0.00000000
2.29446009 1.57359953 0.00378702 0.00000000
2.15648953 1.38444092 0.00064308 0.00000000
3.97644438 1.95270682 -0.00438716 0.00000000
1.10813809 1.57508170 -0.00170103 0.00000000
1.08885339 0.88433265 0.00057279 0.00000000
3.75334831 1.81712657 0.00232758 0.00000000
2.43290893 0.53576583 -0.00202534 0.00000000
4.30954688 0.86628212 -0.00239534 0.00000000
1.03568146 0.21024947 -0.00218588 0.00000000
0.43242155 1.36826173 0.00343139 0.00000000
4.56091895 0.05269191 0.00008619 0.00000000
1.58820442 2.02614951 0.00136128 0.00000000
4.66413977 0.37668188 -0.00070722 0.00000000
0.15490861 1.92094987 0.00258612 0.00000000
4.84752559 0.80664169 -0.00090442 0.00000000
2.65409802 0.13351566 -0.00249651 0.00000000
4.87745496 1.75471770 0.00149707 0.00000000
4.26744177 0.60375584 -0.00075041 0.00000000
0.61192886 1.09332901 -0.00136829 0.00000000
1.83164696 1.63533338 0.00076814 0.00000000
4.69711002 0.13242767 0.00024139 0.00000000
3.01163083 0.93676994 -0.00117350 0.00000000
2.58766383 1.68543474 -0.00060333 0.00000000
3.04777009 1.87520767 0.00083979 0.00000000
4.64899296 0.93237569 -0.00482121 0.00000000
2.04177049 0.40629159 0.00137074 0.00000000
4.63027735 0.30614225 0.00122667 0.00000000
3.40136762 0.34128359 0.00296934 0.00000000
1.17066094 0.10987311 -0.00291263 0.00000000
1.89529862 0.72576670 0.00014554 0.00000000
4.71903411 1.36581423 -0.00142666 0.00000000
1.64325111 0.11019127 0.00099413 0.00000000
4.03273230 0.78274365 -0.00306929 0.00000000
0.67072772 1.34371863 -0.00275579 0.00000000
4.90054264 1.81477090 -0.00253833 0.00000000
3.50372873 1.34923564 0.00289533 0.00000000
2.06985371 2.06741951 -0.00092325 0.00000000
2.54037800 2.03343004 0.00194950 0.00000000
4.12898933 0.20456428 -0.00255242 0.00000000
0.35054087 0.40956624 -0.00053220 0.00000000
3.71724096 0.44282976 -0.00203334 0.00000000
2.63233203 2.06125119 -0.00025329 0.00000000
2.28999207 1.40810207 0.00101648 0.00000000
3.04409048 0.10284825 0.00171308 0.00000000
1.38867733 1.93361403 0.00066230 0.00000000
1.39785112 1.71477792 -0.00098354 0.00000000
4.03686503 0.01599522 0.00019180 0.00000000
2.26286721 1.47538489 -0.00118896 0.00000000
3.30249069 0.69711858 0.00281215 0.00000000
1.10889250 1.35156388 0.00095814 0.00000000
4.90215006 1.05427081 0.00440291 0.00000000
0.97193452 0.58752867 0.00409333 0.00000000
0.46463645 1.10624351 0.00222012 0.00000000
2.62254704 1.55087793 0.00101919 0.00000000
1.57037383 0.22743564 0.00353698 0.00000000
1.92083339 1.30819609 -0.00351664 0.00000000
3.39402945 1.86180698 -0.00000724 0.00000000
3.99105072 0.16608801 -0.00265228 0.00000000
3.35507100 0.57688523 0.00224164 0.00000000
4.23457604 1.32326548 0.00002103 0.00000000
4.20698278 1.19207274 0.00078929 0.00000000
4.24648638 1.36406597 0.00626973 0.00000000
2.21538394 1.69794736 0.00322661 0.00000000
3.03344018 1.17702948 -0.00331733 0.00000000
3.67859814 1.18092814 0.00056192 0.00000000
1.74529897 1.58262905 0.00157539 0.00000000
2.46991850 0.24255624 0.00503272 0.00000000
3.24738757 1.31817659 -0.00390569 0.00000000
3.98052181 1.80948666 -0.00040055 0.00000000
2.79666089 2.02134974 0.00022381 0.00000000
4.25009341 2.07771021 0.00337886 0.00000000
3.29444693 0.00667478 0.00107038 0.00000000
4.23913737 1.19776959 0.00242600 0.00000000
4.43043378 1.36875869 -0.00346928 0.00000000
0.57400417 0.04270276 -0.00022674 0.00000000
2.57858560 0.68834355 -0.00157244 0.00000000
3.07480723 0.77273180 -0.00115977 0.00000000
2.77828822 0.11491151 -0.00050793 0.00000000
4.66141050 0.38092784 0.00108906 0.00000000
0.44900012 0.51632265 0.00137638 0.00000000
4.74711308 0.22887477 0.00312475 0.00000000
4.48740477 1.55396448 -0.00271718 0.00000000
2.63475198 1.77208584 -0.00364397 0.00000000
4.01715277 1.91108926 -0.00236876 0.00000000
2.82167816 1.05924046 0.00000284 0.00000000
4.35009815 0.04092840 -0.00129159 0.00000000
4.22165709 1.34916492 0.00298152 0.00000000
4.81259116 0.81294323 -0.00399660 0.00000000
0.79603138 1.59360713 0.00187124 0.00000000
0.31969412 1.38464910 0.00272423 0.00000000
2.57931181 1.74773906 0.00578105 0.00000000
3.39761687 0.60579087 -0.00466796 0.00000000
3.58198731 1.04621780 0.00646310 0.00000000
2.71746001 0.12719207 0.00068082 0.00000000
0.25708169 0.73271990 -0.00092412 0.00000000
4.04264628 0.32604852 -0.00376882 0.00000000
2.36757988 1.18496324 0.00070219 0.00000000
1.42211400 2.05510141 0.00341424 0.00000000
0.60648411 1.90672938 0.00033936 0.00000000
3.87278508 1.36232207 0.00288391 0.00000000
2.30499867 0.46594000 -0.00343444 0.00000000
2.85985987 0.73480526 0.00193316 0.00000000
0.85399075 1.28427433 0.00032586 0.00000000
0.53540802 2.00870505 -0.00063313 0.00000000
1.43443492 0.35638207 0.00136024 0.00000000
4.08309506 0.10885150 -0.00312558 0.00000000
3.65172851 1.34302133 0.00113177 0.00000000
4.95429240 1.43623572 0.00011307 0.00000000
0.98347228 1.13391053 -0.00048919 0.00000000
0.44069201 1.13012933 0.00177392 0.00000000
0.94142916 1.84660010 -0.00011012 0.00000000
0.54095503 1.41562838 0.00096801 0.00000000
0.37021621 1.24170347 -0.00174705 0.00000000
4.04330254 1.67199982 0.00240760 0.00000000
4.44470247 0.40895780 0.00233007 0.00000000
3.24452737 1.04815394 -0.00051095 0.00000000
1.45218668 1.39324227 0.00278247 0.00000000
1.37302402 1.93463984 0.00100971 0.00000000
4.74726829 1.62833427 -0.00045504 0.00000000
0.58828312 0.38445386 0.00075253 0.00000000
4.95115368 2.03348056 -0.00175140 0.00000000
0.41927391 1.66311355 0.00200528 0.00000000
3.26342634 0.13200258 -0.00353067 0.00000000
4.12316196 1.40469344 -0.00094332 0.00000000
0.79501067 0.20292053 -0.00123462 0.00000000
0.65127199 0.36192189 0.00029236 0.00000000
0.19670751 0.00339550 -0.00179171 0.00000000
0.82937221 2.02254156 0.00068636 0.00000000
1.98950999 1.18470708 0.00250156 0.00000000
1.36214848 2.03079442 -0.00087324 0.00000000
4.49809192 1.98230631 0.00381778 0.00000000
0.64582474 2.02406339 0.00309611 0.00000000
0.62056425 1.01163323 -0.00171209 0.00000000
0.33351132 1.22774661 0.00019388 0.00000000
2.98895731 1.95884799 -0.00010036 0.00000000
1.12217215 1.57935791 -0.00148931 0.00000000
0.47743043 0.44231919 0.00409514 0.00000000
0.89347051 1.94221322 0.00078478 0.00000000
4.62789018 0.70721811 0.00062780 0.00000000
4.11256203 1.58264771 -0.00094149 0.00000000
4.58130363 1.70715622 0.00063589 0.00000000
1.63496345 1.52813766 0.00389107 0.00000000
3.89408558 1.71712865 -0.00620876 0.00000000
2.12355009 1.32496053 -0.00097804 0.00000000
4.06706986 0.77722622 -0.00317321 0.00000000
1.80222605 0.26539721 -0.00128003 0.00000000
3.08847997 1.69803081 -0.00211002 0.00000000
3.07469026 0.70385203 0.00115732 0.00000000
1.35198373 0.54691732 0.00062981 0.00000000
2.77309820 1.78482994 0.00039168 0.00000000
4.02227434 0.15873918 0.00046648 0.00000000
1.72380255 0.01482659 -0.00296547 0.00000000
1.07344811 2.06526519 0.00053722 0.00000000
3.89832461 1.49651668 -0.00251973 0.00000000
3.94163270 0.76627472 0.00232299 0.00000000
3.69338725 0.61366191 0.00093325 0.00000000
0.88897843 0.71998796 0.00128538 0.00000000
1.81823337 1.21538291 0.00374074 0.00000000
4.24410836 1.38205347 -0.00585602 0.00000000
1.79842964 0.79208578 0.00309481 0.00000000
2.08291883 0.56604405 -0.00168281 0.00000000
2.76394505 0.16823875 0.00203955 0.00000000
3.64840650 1.51055142 -0.00178353 0.00000000
4.87689083 1.51103026 -0.00761761 0.00000000
0.86386732 0.95628593 0.00197141 0.00000000
2.24046334 0.74741884 0.00183765 0.00000000
2.60603617 0.99451630 0.00078813 0.00000000
3.47854509 1.49402292 0.00304161 0.00000000
1.05798581 0.50005457 0.00058111 0.00000000
0.58922211 1.54357821 -0.00149710 0.00000000
3.93513201 0.58683806 -0.00173179 0.00000000
3.78264448 0.60370854 0.00041008 0.00000000
3.30719563 0.26419684 -0.00236866 0.00000000
4.80273312 0.55366860 -0.00010667 0.00000000
4.51153745 0.53914585 -0.00095984 0.00000000
4.18489354 0.19165970 -0.00013422 0.00000000
2.68844593 0.45198329 -0.00338024 0.00000000
0.66870463 1.51598053 -0.00186354 0.00000000
3.45145109 0.93431710 -0.00355761 0.00000000
3.69240737 1.97939919 0.00098837 0.00000000
3.62317772 1.20058212 -0.00051418 0.00000000
1.18538698 1.66233148 0.00395757 0.00000000
0.51812798 1.26806141 -0.00178586 0.00000000
4.95623830 1.02489947 -0.00097303 0.00000000
4.64911870 1.77179168 0.00135682 0.00000000
4.27931499 1.02977713 0.00098545 0.00000000
1.66777494 0.69134879 0.00067068 0.00000000
2.08977768 1.04611060 0.00348547 0.00000000
2.08582846 0.51295890 -0.00132118 0.00000000
3.99673293 0.49782664 0.00193002 0.00000000
4.59501328 1.74835313 0.00101972 0.00000000
4.81322161 0.93966967 -0.00006098 0.00000000
1.99138898 0.10178772 0.00253116 0.00000000
3.04399233 1.11976901 0.00392519 0.00000000
3.02487597 0.10589067 0.00168600 0.00000000
4.46565069 0.67652350 0.00152644 0.00000000
4.27733242 1.75369665 -0.00185963 0.00000000
2.72472631 1.76643556 -0.00197578 0.00000000
3.37143170 2.07504233 -0.00142974 0.00000000
0.38360357 1.00428538 -0.00189207 0.00000000
3.89946135 0.72316866 -0.00312818 0.00000000
2.18421318 0.52088535 -0.00527643 0.00000000
1.23974274 2.05122568 -0.00461485 0.00000000
0.67877245 1.67133940 0.00169599 0.00000000
2.10804057 1.67106924 -0.00128972 0.00000000
4.53125409 0.39770035 -0.00061063 0.00000000
4.34326823 0.48232571 0.00146569 0.00000000
2.49956266 2.05754487 -0.00160198 0.00000000
2.47595764 0.87953926 0.00218215 0.00000000
0.05737864 0.04135475 -0.00003756 0.00000000
3.63944375 0.01800082 0.00314102 0.00000000
3.56291071 1.75886952 -0.00071124 0.00000000
0.15440860 1.15647545 -0.00246206 0.00000000
1.74753597 2.00034388 0.00134507 0.00000000
0.04491708 1.79896827 0.00363057 0.00000000
1.26504719 0.55345788 -0.00278363 0.00000000
2.24836403 0.21086391 -0.00051194 0.00000000
0.80824682 1.61810087 -0.00156111 0.00000000
4.32175452 0.50433315 0.00381925 0.00000000
4.80056355 2.05818489 0.00312103 0.00000000
2.88062750 0.13580444 0.00496910 0.00000000
2.49271458 0.92984190 -0.00222561 0.00000000
3.70083286 0.02241655 -0.00023649 0.00000000
4.92156010 0.87736225 0.00064418 0.00000000
1.69603591 1.27793740 0.00058116 0.00000000
2.82202151 1.53827121 -0.00348772 0.00000000
0.82194642 1.69512258 0.00292160 0.00000000
2.68244021 2.04913455 0.00227845 0.00000000
0.36972832 1.34264912 -0.00062430 0.00000000
2.71465456 0.93771916 -0.00265117 0.00000000
4.90619368 1.10036330 -0.00009429 0.00000000
4.37508041 0.70856454 0.00376600 0.00000000
1.29414184 1.93114265 0.00059555 0.00000000
4.17558630 1.61770220 0.00186226 0.00000000
4.46737886 1.68700748 -0.00324993 0.00000000
3.75634538 1.71938450 0.00201169 0.00000000
0.55687400 0.38260792 0.00328093 0.00000000
0.48478482 1.83225068 0.00055270 0.00000000
0.33900878 1.58589752 0.00266310 0.00000000
3.13978326 0.67477738 -0.00217373 0.00000000
0.79900946 0.33521639 -0.00041780 0.00000000
1.45820489 0.08745763 -0.00024583 0.00000000
2.02153595 0.52479889 -0.00084183 0.00000000
1.14426291 0.22520276 0.00019370 0.00000000
0.15987333 1.35441662 0.00154501 0.00000000
1.82235331 0.93475275 -0.00127666 0.00000000
0.87987612 0.22990107 -0.00119633 0.00000000
3.77836926 1.00610222 -0.00222838 0.00000000
4.80128733 1.78455423 0.00206122 0.00000000
0.14890191 0.39544304 -0.00071076 0.00000000
0.00310722 1.24341609 0.00098132 0.00000000
4.60965990 0.21625727 0.00206508 0.00000000
3.69277928 0.23965421 0.00040213 0.00000000
0.38816850 0.26743678 0.00262226 0.00000000
1.40964578 2.02172910 0.00097774 0.00000000
1.16066047 0.42179160 -0.00030354 0.00000000
1.17802022 1.07146483 0.00310914 0.00000000
4.53157908 0.92916257 -0.00457627 0.00000000
3.69206088 1.86903245 -0.00190491 0.00000000
2.50376378 1.52854519 0.00460358 0.00000000
3.16861031 0.71765333 -0.00028017 0.00000000
2.51076769 0.65533781 0.00236268 0.00000000
0.76886022 0.43778707 -0.00482296 0.00000000
3.73961418 1.10089405 0.00289005 0.00000000
4.16597065 0.25869244 0.00000477 0.00000000
1.28227119 0.22518705 0.00218087 0.00000000
2.85709433 0.14945931 -0.00277115 0.00000000
1.46150082 0.68215364 0.00036632 0.00000000
4.74833602 1.14819073 -0.00005659 0.00000000
4.09600269 0.70378492 0.00668595 0.00000000
3.39318501 0.70013557 -0.00142446 0.00000000
3.31026337 1.34001353 0.00078658 0.00000000
1.36209617 0.65784942 0.00100743 0.00000000
3.01056145 1.19799043 -0.00527839 0.00000000
4.73469872 1.87203006 0.00049064 0.00000000
4.44499996 1.71718182 0.00258499 0.00000000
0.27351099 1.66926998 -0.00279622 0.00000000
1.00530483 0.14587869 0.00302468 0.00000000
1.07599447 0.77924878 -0.00313746 0.00000000
3.30073633 1.82506489 0.00226431 0.00000000
3.50411150 0.90669985 -0.00175291 0.00000000
4.63922336 2.01415311 -0.00133922 0.00000000
1.63913132 1.92332825 0.00486745 0.00000000
3.16699410 0.19664465 0.00074806 0.00000000
2.04929056 0.77334436 0.00041383 0.00000000
4.04159033 1.18012507 0.00070085 0.00000000
1.63003878 1.72910887 -0.00030683 0.00000000
1.32531824 0.89546552 0.00360315 0.00000000
3.38731682 1.12455132 0.00169117 0.00000000
0.10619244 1.11085724 0.00130332 0.00000000
0.82583609 1.39970532 -0.00297521 0.00000000
2.73936643 0.27045406 -0.00139973 0.00000000
1.99501498 0.73071911 0.00295012 0.00000000
1.74477784 2.04891582 0.00094926 0.00000000
2.69894630 1.53368165 -0.00159472 0.00000000
2.58788027 0.21359219 -0.00326735 0.00000000
2.84387592 0.99735605 0.00322645 0.00000000
4.57588416 1.07832466 -0.00210592 0.00000000
1.76409411 0.05020695 -0.00309883 0.00000000
0.85991523 1.46031273 -0.00058213 0.00000000
3.93021853 1.92466649 -0.00312518 0.00000000
3.83829695 0.73243856 0.00351047 0.00000000
0.17857934 1.40946489 0.00412179 0.00000000
3.16255491 1.10865489 0.00002342 0.00000000
0.23707372 0.10390444 -0.00127361 0.00000000
0.79315697 0.51269728 -0.00127130 0.00000000
3.82812309 2.02244305 -0.00060795 0.00000000
0.40021266 0.53327473 0.00020830 0.00000000
3.64792365 0.82890617 -0.00504197 0.00000000
3.28963499 0.75256823 0.00151209 0.00000000
3.11374727 0.18795633 -0.00363809 0.00000000
0.51972947 1.08149486 -0.00026116 0.00000000
3.06854238 0.69765484 -0.00207056 0.00000000
1.14029802 1.36961689 -0.00228426 0.00000000
1.23886528 0.71069341 0.00294445 0.00000000
4.82986022 1.05407717 -0.00024130 0.00000000
4.73950999 1.79799448 0.00207498 0.00000000
3.81191137 1.14121663 -0.00346417 0.00000000
1.32864683 1.37637388 0.00211353 0.00000000
1.80005775 1.57368040 -0.00247113 0.00000000
2.10051002 1.38266642 -0.00140899 0.00000000
0.88898876 0.18667989 0.00064415 0.00000000
3.55624523 1.41493791 -0.00060609 0.00000000
4.58064697 0.94870855 -0.00666394 0.00000000
4.72912766 0.88422924 0.00334713 0.00000000
0.16083872 0.61339992 -0.00655791 0.00000000
4.04072484 2.01081602 0.00025820 0.00000000
4.82243553 0.28474194 0.00073606 0.00000000
2.46856942 1.96403864 -0.00208747 0.00000000
4.87034840 1.63084046 -0.00048923 0.00000000
0.57611936 1.33034173 0.00045577 0.00000000
3.16912381 0.66087353 -0.00236362 0.00000000
0.21247007 0.90412917 -0.00375931 0.00000000
2.64491075 1.60177872 -0.00338710 0.00000000
1.07524860 0.57553875 -0.00365660 0.00000000
2.72588614 1.87474851 0.00017484 0.00000000
2.80065392 1.14511966 -0.00083514 0.00000000
3.80802354 1.97159853 0.00005922 0.00000000
2.18943788 0.48663220 0.00197242 0.00000000
4.26578170 1.23067369 -0.00078122 0.00000000
0.97322965 0.12157095 -0.00139247 0.00000000
2.53924128 1.01981914 0.00089519 0.00000000
4.85547137 1.57678731 -0.00371969 0.00000000
0.05006993 0.87679589 0.00269178 0.00000000
3.50578241 1.78256900 -0.00236285 0.00000000
1.99751359 1.29248651 -0.00367209 0.00000000
3.92484390 1.65530362 -0.00023335 0.00000000
4.04773661 2.01461406 -0.00079266 0.00000000
4.26648816 1.89844606 0.00071051 0.00000000
3.70201726 1.57790843 -0.00258301 0.00000000
3.33173026 0.93787807 0.00079293 0.00000000
2.28061454 1.12536498 -0.00155402 0.00000000
1.39101459 0.11708323 -0.00618789 0.00000000
3.11430567 1.16025750 0.00215209 0.00000000
1.24674101 0.86507447 0.00168828 0.00000000
3.89333037 0.22619726 0.00313545 0.00000000
1.64048785 0.33662443 0.00370442 0.00000000
4.69971402 1.19161677 -0.00147259 0.00000000
3.96047717 0.10464146 0.00212725 0.00000000
2.26471908 1.30332692 0.00023082 0.00000000
2.09474214 2.02685680 -0.00383926 0.00000000
1.71490497 1.02478415 0.00160995 0.00000000
3.78903390 1.63638657 -0.00031400 0.00000000
3.25001674 1.32615586 0.00417523 0.00000000
0.78889956 0.88447112 -0.00116423 0.00000000
1.60577368 1.05141576 0.00041481 0.00000000
2.35980088 0.11412056 0.00249998 0.00000000
1.88614920 1.27318127 -0.00464021 0.00000000
2.61698419 1.05872343 0.00202951 0.00000000
0.36134789 1.97375514 0.00036288 0.00000000
1.79789145 0.88959659 0.00210786 0.00000000
4.61737882 1.79671540 0.00292023 0.00000000
2.54805189 0.13931928 -0.00181164 0.00000000
3.21947321 0.39461504 -0.00353602 0.00000000
3.70561152 0.29788936 0.00051526 0.00000000
0.94189740 0.10153917 -0.00371284 0.00000000
3.34111973 0.30010392 -0.00334381 0.00000000
0.58787683 1.11613813 -0.00322464 0.00000000
3.69376983 0.79367785 0.00739159 0.00000000
1.18543969 0.15830328 -0.00271145 0.00000000
4.83328329 2.01635552 -0.00136920 0.00000000
2.80314895 0.84231229 0.00228749 0.00000000
4.63500643 1.48222129 -0.00225170 0.00000000
1.56628620 0.22409039 0.00034356 0.00000000
1.93455844 2.01645575 -0.00203976 0.00000000
4.90304755 1.34904166 0.00240669 0.00000000
3.19576248 1.43102208 0.00216701 0.00000000
1.35023186 0.35007212 0.00129911 0.00000000
1.43639606 2.05004813 0.00116273 0.00000000
0.69988783 1.72009807 -0.00156346 0.00000000
2.42512880 1.50803100 0.00238498 0.00000000
2.44620371 1.71495946 -0.00180678 0.00000000
3.94206342 0.54962730 -0.00172139 0.00000000
1.61395320 0.76137540 -0.00550366 0.00000000
3.13590042 1.55316796 0.00262431 0.00000000
1.88480886 1.88376416 -0.00292815 0.00000000
3.33850770 0.82624470 0.00379900 0.00000000
3.54661567 1.35673735 0.00391695 0.00000000
4.61141481 1.25507022 -0.00281790 0.00000000
0.61996937 0.49650911 -0.00006379 0.00000000
1.15426161 0.34777487 -0.00544846 0.00000000
4.86216997 0.28476749 -0.00035853 0.00000000
4.34780085 1.26224066 0.00102370 0.00000000
4.61235558 1.96827417 0.00672979 0.00000000
1.82082274 0.64541256 0.00458811 0.00000000
3.58993439 0.26728185 0.00260963 0.00000000
2.94310073 0.20071449 0.00203664 0.00000000
3.17527513 0.98036779 0.00360626 0.00000000
4.57785047 0.02835054 -0.00465844 0.00000000
3.48231134 0.68917621 -0.00000443 0.00000000
1.73875841 0.59309776 -0.00073911 0.00000000
1.82196864 0.91447449 0.00276075 0.00000000
0.18832060 1.05489559 -0.00256928 0.00000000
3.46889841 0.96822057 -0.00225092 0.00000000
2.37388265 1.08447329 -0.00087268 0.00000000
2.00564291 0.99820569 -0.00313153 0.00000000
1.89348740 0.46266561 -0.00411005 0.00000000
1.45393494 0.45435131 0.00155937 0.00000000
1.19179663 0.70396817 -0.00157399 0.00000000
2.15107534 0.05913098 -0.00206266 0.00000000
1.80196842 2.03026664 -0.00034771 0.00000000
1.11279622 0.14607273 -0.00346420 0.00000000
1.37809853 0.00115049 -0.00130196 0.00000000
3.98637066 1.50292445 -0.00679087 0.00000000
4.61646016 1.80030269 -0.00003370 0.00000000
2.90760049 0.20834930 -0.00210248 0.00000000
4.09105320 1.02271219 -0.00188859 0.00000000
4.43256680 0.87935185 0.00000510 0.00000000
1.33643845 0.09634751 0.00027404 0.00000000
4.81646753 0.93805531 -0.00025849 0.00000000
0.20024816 1.88746167 -0.00692716 0.00000000
2.46162255 1.69150519 -0.00512812 0.00000000
2.17493628 1.63893492 -0.00035421 0.00000000
0.36120492 1.46560386 -0.00169578 0.00000000
4.88743326 0.38959016 -0.00164003 0.00000000
1.35947952 1.78607494 0.00238007 0.00000000
2.30560613 1.73893963 0.00118136 0.00000000
1.62302598 0.25562785 0.00184347 0.00000000
1.28454246 0.60219033 0.00233288 0.00000000
0.38724287 0.53333421 0.00002158 0.00000000
2.37890994 1.34764652 -0.00119414 0.00000000
1.95699033 1.57213506 0.00202028 0.00000000
0.07685309 1.34810544 0.00118904 0.00000000
3.24116444 1.61350041 -0.00144403 0.00000000
0.49077941 0.34841862 0.00222163 0.00000000
3.79783554 1.04736403 -0.00276427 0.00000000
4.70472863 2.05488574 0.00694668 0.00000000
1.25122163 0.20815716 -0.00125341 0.00000000
0.85004841 1.72607050 0.00027365 0.00000000
3.26786699 1.15320370 -0.00022355 0.00000000
0.77518065 1.87659193 -0.00121746 0.00000000
3.15401791 0.90204148 -0.00428082 0.00000000
1.63498573 1.41262474 -0.00133368 0.00000000
1.80794699 0.53350547 0.00462389 0.00000000
3.45025584 0.37281395 0.00254504 0.00000000
1.46677234 0.94357066 0.00254881 0.00000000
3.15380054 0.47090771 0.00360714 0.00000000
2.13289847 0.67493398 0.00000400 0.00000000
2.70078751 0.01673755 0.00579588 0.00000000
2.93632282 0.91398519 -0.00524610 0.00000000
0.68001892 0.76685371 0.00421856 0.00000000
3.73801979 2.05691029 0.00070460 0.00000000
4.89444834 0.92527670 0.00020200 0.00000000
4.04893683 0.28141099 0.00043187 0.00000000
0.99308417 2.03877735 0.00235668 0.00000000
3.04725940 0.26650094 -0.00020703 0.00000000
0.58406925 2.02050623 -0.00388672 0.00000000
0.18358656 0.35812064 -0.00232831 0.00000000
0.10022656 0.29413466 -0.00373234 0.00000000
0.54336605 2.02404281 0.00131199 0.00000000
4.26078261 0.12815562 0.00077063 0.00000000
4.16226500 1.24301715 0.00295804 0.00000000
0.35159292 0.25777786 0.00114889 0.00000000
2.48061380 0.99816645 0.00015610 0.00000000
4.57067375 0.03083141 -0.00579477 0.00000000
0.72974920 1.19286696 0.00101217 0.00000000
0.92449229 1.26708762 -0.00152349 0.00000000
0.33881161 0.70350828 0.00238839 0.00000000
4.45179552 1.11460918 0.00272859 0.00000000
2.47222684 0.05531158 -0.00125930 0.00000000
3.70003792 0.26451188 -0.00207069 0.00000000
1.44670270 0.60689758 0.00050883 0.00000000
1.17752473 1.07443595 0.00088682 0.00000000
1.82472635 0.12128116 -0.00175087 0.00000000
3.92303122 0.45889192 -0.00302172 0.00000000
2.39469165 0.69869662 0.00099917 0.00000000
1.69496265 0.51173233 -0.00278956 0.00000000
4.02069038 1.04494648 -0.00021064 0.00000000
1.96403581 0.06567705 -0.00115979 0.00000000
0.42038225 0.85030406 -0.00176569 0.00000000
2.95053234 0.39966337 0.00294176 0.00000000
3.16813551 0.21754314 0.00220850 0.00000000
0.03540088 1.51030462 0.00347184 0.00000000
0.33831934 1.06597208 -0.00152212 0.00000000
0.74110933 2.02656811 -0.00256664 0.00000000
3.22546620 2.07586063 -0.00077438 0.00000000
1.34804555 0.44512880 0.00177851 0.00000000
2.65713684 0.09118086 0.00128006 0.00000000
4.24086453 0.42356783 0.00357458 0.00000000
4.94908258 0.82061875 0.00106178 0.00000000
3.47270698 1.18318953 0.00715032 0.00000000
0.28939634 0.18909780 0.00256711 0.00000000
3.75918817 1.83543337 0.00504528 0.00000000
3.47071430 1.61057110 0.00245218 0.00000000
4.39741263 1.32708588 -0.00374420 0.00000000
3.14111025 0.15309221 -0.00485966 0.00000000
0.75593449 0.90882716 0.00248907 0.00000000
2.20061923 1.15229492 0.00242590 0.00000000
0.00410598 2.05206463 -0.00145455 0.00000000
0.38306879 0.81158955 -0.00168518 0.00000000
3.39477283 0.14591632 0.00028519 0.00000000
4.58137618 1.41068550 0.00089884 0.00000000
3.20555676 1.99876081 -0.00167959 0.00000000
2.55773643 1.36112382 0.00233025 0.00000000
1.69285536 1.95139909 -0.00403118 0.00000000
4.26670830 1.38418145 -0.00057776 0.00000000
0.34003642 1.61452419 -0.00105657 0.00000000
3.92592229 0.84625052 0.00181356 0.00000000
0.49675976 0.52882334 0.00260778 0.00000000
0.68543774 0.04924498 0.00714636 0.00000000
0.73618840 0.31119192 -0.00396355 0.00000000
4.95843527 0.65606846 0.00110345 0.00000000
4.80112036 1.99063082 -0.00288971 0.00000000
4.51200056 1.75338977 -0.00091364 0.00000000
4.14770618 0.65773351 -0.00000431 0.00000000
1.10710806 1.55898271 0.00193592 0.00000000
0.68171640 0.23180607 0.00207405 0.00000000
2.05905422 0.22094412 -0.00032240 0.00000000
2.21296094 1.89925145 -0.00126651 0.00000000
4.45038551 1.15222956 0.00175561 0.00000000
3.51640298 1.89014177 0.00029429 0.00000000
2.11637673 0.70521614 -0.00271501 0.00000000
0.26468199 0.02729092 0.00176852 0.00000000
3.14179678 0.53144860 -0.00153235 0.00000000
2.37000859 1.23514705 0.00106288 0.00000000
3.53867515 0.63522122 -0.00389135 0.00000000
1.71288068 1.11000384 0.00132742 0.00000000
2.23620963 0.24908107 -0.00310280 0.00000000
0.14339509 1.42004361 -0.00319268 0.00000000
3.37211726 1.99519213 -0.00120723 0.00000000
2.72134441 1.77293974 0.00145779 0.00000000
3.18527523 1.63162549 0.00235293 0.00000000
0.77319583 2.01450611 0.00032517 0.00000000
3.73730249 1.46793495 0.00074946 0.00000000
0.24534321 0.67778558 -0.00249092 0.00000000
3.54206833 0.23360104 0.00237165 0.00000000
3.37454757 1.85766862 0.00140406 0.00000000
4.35236956 1.21671800 0.00241120 0.00000000
3.79869579 0.41904972 -0.00059368 0.00000000
4.10936895 1.00603204 -0.00006123 0.00000000
2.17890877 0.58195254 -0.00035057 0.00000000
2.20153114 0.16299565 -0.00050059 0.00000000
2.68100979 0.52589866 -0.00007224 0.00000000
2.43195619 1.44792445 -0.00071537 0.00000000
4.17269967 0.80296684 0.00000424 0.00000000
3.47796702 0.47398140 -0.00084540 0.00000000
2.12615029 0.54122745 -0.00116349 0.00000000
1.29829533 0.26119195 -0.00096122 0.00000000
4.56279194 0.43685101 0.00367023 0.00000000
3.55588503 0.97361554 -0.00035868 0.00000000
3.21516487 1.93092850 -0.00379424 0.00000000
0.80157779 1.13944467 0.00056274 0.00000000
0.99433126 0.80390851 0.00285129 0.00000000
1.53967524 0.42224894 -0.00220547 0.00000000
0.86181479 1.27907570 0.00090487 0.00000000
2.32265572 1.23121677 -0.00252227 0.00000000
3.07192777 0.74190646 -0.00261948 0.00000000
3.15359569 0.51010517 0.00089344 0.00000000
4.19424582 1.41677814 -0.00175082 0.00000000
3.17979535 1.94054882 -0.00284262 0.00000000
4.00678434 0.74580168 -0.00210132 0.00000000
1.17259434 0.42770019 0.00084088 0.00000000
2.37622914 2.03452552 0.00366227 0.00000000
2.42763189 1.28186709 -0.00497887 0.00000000
4.68815900 0.82314965 0.00297935 0.00000000
1.98113096 1.30538436 0.00387466 0.00000000
2.58007717 0.98967740 -0.00283398 0.00000000
0.41233754 2.00882010 -0.00175698 0.00000000
3.78595952 0.84869873 0.00320068 0.00000000
3.49916381 1.10613944 -0.00009451 0.00000000
4.88592911 0.19133849 -0.00109631 0.00000000
4.95295782 0.02220732 -0.00003430 0.00000000
3.26546571 0.91586544 -0.00138978 0.00000000
3.19005922 1.13872538 0.00154406 0.00000000
3.74132005 1.71270502 0.00192054 0.00000000
0.07933698 0.85874871 -0.00349784 0.00000000
1.93399089 1.01628656 0.00178168 0.00000000
3.15070031 0.68457918 0.00100822 0.00000000
1.04474865 0.05166225 0.00675311 0.00000000
4.59178937 0.90440041 -0.00077847 0.00000000
0.90376510 1.06347434 -0.00086345 0.00000000
2.64645412 1.25680326 0.00356490 0.00000000
0.50084407 1.33411472 -0.00160255 0.00000000
2.03937588 1.46933464 0.00265961 0.00000000
4.86637374 0.36060160 0.00171917 0.00000000
1.67036504 1.28892741 0.00490583 0.00000000
3.80715762 0.04551274 0.00238278 0.00000000
1.70327089 1.04358852 0.00282614 0.00000000
1.67834809 1.50073300 0.00169372 0.00000000
4.54136719 0.48384925 0.00287583 0.00000000
3.23534800 1.70458407 0.00137935 0.00000000
2.74564154 0.27931371 0.00208763 0.00000000
2.29791422 1.40475592 0.00477239 0.00000000
0.58216800 0.22982087 -0.00264735 0.00000000
3.65689570 1.97566042 0.00121097 0.00000000
0.33312934 0.31358892 -0.00086089 0.00000000
3.99087614 1.80075516 -0.00517082 0.00000000
0.42695531 0.82055393 0.00203999 0.00000000
4.26645148 1.72752908 -0.00172668 0.00000000
3.07449625 1.60116043 -0.00327749 0.00000000
4.90711928 0.98727966 0.00422031 0.00000000
3.42203256 1.44387848 -0.00308586 0.00000000
4.10934246 0.82865282 0.00008583 0.00000000
2.19564481 0.12094827 -0.00250002 0.00000000
3.56727661 1.65924770 0.00184926 0.00000000
2.37796610 0.13515358 0.00248015 0.00000000
4.78739808 0.97573155 -0.00435691 0.00000000
3.29399611 2.03502276 0.00238200 0.00000000
3.43225366 1.94829152 -0.00386916 0.00000000
2.18148817 0.46240546 0.00254440 0.00000000
1.41437997 0.75620150 -0.00065677 0.00000000
2.09328709 1.06828180 -0.00148405 0.00000000
1.34358220 0.73392067 0.00345054 0.00000000
2.29311150 1.23475308 0.00101776 0.00000000
2.31684172 0.79368229 0.00266978 0.00000000
3.72867533 0.48618453 -0.00349637 0.00000000
2.55105983 1.80755245 -0.00055341 0.00000000
3.34242699 1.50354938 0.00035494 0.00000000
4.04851610 2.06688663 0.00270748 0.00000000
3.74706262 1.24935546 -0.00131173 0.00000000
3.12023395 1.75764815 0.00374782 0.00000000
4.19283019 1.98465635 -0.00099964 0.00000000
2.26908177 1.55912063 -0.00076781 0.00000000
4.11480279 0.92646724 0.00574331 0.00000000
4.96500084 0.75197877 -0.00387884 0.00000000
2.96221438 1.68722742 0.00336966 0.00000000
2.73617662 2.05441966 0.00191571 0.00000000
0.94314231 0.85124368 0.00093797 0.00000000
4.12861346 1.74982178 -0.00146001 0.00000000
1.47333165 1.44045065 -0.00315454 0.00000000
1.25039037 1.26459852 0.00349065 0.00000000
2.54792622 0.36464535 0.00136322 0.00000000
1.29757360 0.99067154 0.00260019 0.00000000
3.03686571 0.27603216 0.00139205 0.00000000
1.80638965 0.23253392 0.00199476 0.00000000
0.68245737 1.32471626 0.00305134 0.00000000
3.81761642 1.62317241 0.00270910 0.00000000
4.75944972 1.42489583 -0.00067066 0.00000000
0.22183294 0.66858491 -0.00010573 0.00000000
3.05380496 0.31597713 -0.00029388 0.00000000
0.27696789 0.22800852 0.00263997 0.00000000
4.43953013 1.58644867 -0.00057688 0.00000000
1.78315512 1.60816590 -0.00002712 0.00000000
0.05268044 1.22204134 -0.00384674 0.00000000
1.71471988 0.43274052 -0.00103474 0.00000000
1.73409479 1.17234126 0.00016139 0.00000000
0.96978430 1.86694345 -0.00169324 0.00000000
4.48332625 1.79650874 0.00197556 0.00000000
3.22544957 0.31444212 0.00114015 0.00000000
4.95587204 1.23617883 0.00103839 0.00000000
1.99148634 1.19419231 -0.00201335 0.00000000
1.92502537 0.51103676 0.00017099 0.00000000
3.63423288 0.97144907 0.00030386 0.00000000
4.55719836 1.34182107 -0.00528676 0.00000000
2.70620044 2.07135870 -0.00675242 0.00000000
3.64857074 1.99088617 -0.00245742 0.00000000
2.03027213 0.36688522 0.00234954 0.00000000
3.19094859 0.19671163 0.00203307 0.00000000
4.95725367 0.54889745 0.00029134 0.00000000
2.11597275 0.12387756 0.00186767 0.00000000
2.71169594 1.22815158 -0.00582951 0.00000000
0.24097001 1.51101010 0.00297594 0.00000000
1.45384527 1.99556720 0.00180419 0.00000000
2.11948736 0.59204060 0.00745930 0.00000000
4.80550839 0.26879900 0.00565934 0.00000000
2.26697892 0.92776672 -0.00393674 0.00000000
4.23311550 1.84975265 -0.00025762 0.00000000
3.49711098 0.68556297 -0.00141894 0.00000000
3.67730127 0.69946845 -0.00015157 0.00000000
4.44960114 2.07999168 -0.00181229 0.00000000
0.89838852 1.32411145 -0.00187576 0.00000000
0.93367649 1.68011907 -0.00262090 0.00000000
0.56990110 1.71223657 0.00002175 0.00000000
4.60491101 0.98248765 0.00030843 0.00000000
0.06848049 1.33894990 -0.00499150 0.00000000
2.93404333 0.02148122 0.00208859 0.00000000
4.75286773 0.00079049 0.00301673 0.00000000
1.61036976 2.04611964 0.00199954 0.00000000
0.03340308 0.35737450 0.00069000 0.00000000
3.31642855 1.99001349 -0.00169779 0.00000000
4.88013273 1.34063780 0.00059284 0.00000000
3.14794788 0.20395767 0.00031112 0.00000000
2.80513611 1.06182784 -0.00160642 0.00000000
1.93834208 0.56931813 0.00172889 0.00000000
1.11346357 1.80156787 0.00267230 0.00000000
3.11804828 0.55743106 0.00565489 0.00000000
4.70874013 0.22864550 -0.00281071 0.00000000
1.63048134 0.02022723 -0.00098463 0.00000000
0.76892389 2.02343686 -0.00045615 0.00000000
4.49627893 0.82985492 0.00076848 0.00000000
1.45173272 1.04351158 -0.00095630 0.00000000
3.31142755 0.14505352 -0.00275333 0.00000000
4.47319544 1.19429972 0.00469136 0.00000000
0.83310616 0.73097904 0.00122185 0.00000000
0.80555902 0.65239048 0.00078559 0.00000000
0.06845321 0.08911865 -0.00216908 0.00000000
4.16795940 1.20906842 -0.00270314 0.00000000
0.02611021 1.47598028 -0.00390527 0.00000000
1.45407992 0.85607477 0.00153433 0.00000000
3.04016215 1.89616869 0.00029446 0.00000000
2.33048136 0.15676078 0.00119064 0.00000000
3.87002815 1.03251963 -0.00161327 0.00000000
1.98569145 1.69032003 0.00365120 0.00000000
3.18036676 1.85790124 0.00159926 0.00000000
3.47838495 0.34875578 -0.00079605 0.00000000
2.46549888 0.07413712 -0.00369528 0.00000000
3.34051998 0.69253138 -0.00296291 0.00000000
4.19807570 0.43607237 0.00007570 0.00000000
0.94773321 1.43597231 -0.00213681 0.00000000
4.12597812 1.71583900 0.00016377 0.00000000
3.30164523 1.49368343 0.00563484 0.00000000
1.64885894 1.80775947 -0.00118162 0.00000000
