4.259390 -0.001950 -0.001286 1.0
0.193100 0.004210 -0.000829 1.0
1.116341 0.001726 0.002274 1.0
0.222101 0.003216 -0.001524 1.0
0.420693 -0.000288 -0.001722 1.0
3.574013 0.001217 0.000797 1.0
0.308167 -0.002286 0.004918 1.0
4.167701 -0.001563 0.004436 1.0
0.160154 -0.000637 -0.007980 1.0
2.711045 -0.002929 -0.001895 1.0
3.121276 -0.000399 0.002149 1.0
2.388093 -0.000258 -0.000812 1.0
1.794253 0.001058 -0.000101 1.0
3.304771 -0.000963 0.000784 1.0
0.581082 -0.001298 0.002012 1.0
3.092570 -0.003211 0.000270 1.0
0.621462 0.001417 0.001019 1.0
4.272404 0.003140 -0.000205 1.0
1.190293 0.006097 0.001773 1.0
3.076019 -0.002354 0.001097 1.0
0.102956 -0.002866 0.001049 1.0
0.118048 -0.003072 -0.000336 1.0
0.073458 -0.000500 0.001480 1.0
1.303451 -0.004653 -0.003347 1.0
3.565107 0.000534 0.003421 1.0
2.566251 0.000379 -0.006618 1.0
1.432914 -0.002322 0.005424 1.0
1.531808 0.002311 -0.000870 1.0
2.065476 0.003589 -0.000793 1.0
3.367396 0.000786 -0.000026 1.0
0.944462 0.002257 -0.001445 1.0
3.494543 -0.001709 -0.000199 1.0
2.248278 -0.000952 0.000245 1.0
3.753535 -0.002718 0.001358 1.0
3.583592 0.000643 -0.002599 1.0
2.968595 0.000666 -0.000552 1.0
0.689885 -0.002670 0.004332 1.0
2.149650 0.000794 0.000113 1.0
1.898504 -0.001332 -0.002365 1.0
4.089993 -0.000757 -0.000414 1.0
1.486602 0.001787 -0.004469 1.0
1.441679 0.000242 -0.000815 1.0
2.154759 0.001803 -0.003342 1.0
1.018611 -0.000236 -0.004355 1.0
4.244897 0.000860 -0.000023 1.0
3.879705 -0.000409 0.000221 1.0
1.091749 -0.005659 -0.004125 1.0
0.410387 -0.001646 0.003618 1.0
0.458813 0.000335 -0.004364 1.0
2.723600 0.001665 0.000728 1.0
1.694523 0.001105 0.003059 1.0
3.511324 0.001582 0.003157 1.0
3.369461 0.001308 -0.004353 1.0
0.388616 0.004675 -0.000197 1.0
0.072478 -0.002905 -0.000287 1.0
0.130917 0.001941 -0.001090 1.0
1.138916 0.002194 -0.001920 1.0
1.448949 -0.000525 0.000860 1.0
0.298221 0.007749 0.000377 1.0
2.943014 -0.001411 0.000108 1.0
1.676133 -0.001233 0.001799 1.0
2.770380 -0.001648 0.000242 1.0
2.167141 0.000576 0.002747 1.0
3.321801 0.000212 0.003664 1.0
0.330310 0.000640 0.000292 1.0
0.879013 0.000567 -0.000887 1.0
1.741762 0.000592 -0.003993 1.0
1.558900 0.001624 0.000963 1.0
2.618449 -0.002432 0.002195 1.0
1.418667 -0.003102 0.002375 1.0
0.489802 -0.003689 -0.001200 1.0
2.967698 0.000274 -0.000932 1.0
3.585714 0.002478 0.000700 1.0
1.673554 0.004592 -0.001283 1.0
2.629663 0.000101 0.000102 1.0
2.507170 0.002235 -0.001822 1.0
2.239668 0.002461 -0.000759 1.0
4.248584 -0.004423 0.000397 1.0
3.704841 -0.000170 0.001941 1.0
3.170291 0.000340 0.001018 1.0
2.233508 -0.003387 -0.002089 1.0
0.069814 -0.000836 -0.000440 1.0
2.630446 -0.001951 0.003170 1.0
1.943524 -0.000153 0.001599 1.0
2.943086 -0.003730 0.000175 1.0
0.543048 -0.000143 0.000264 1.0
3.127338 -0.005792 -0.003598 1.0
3.932557 0.003758 -0.000809 1.0
4.217241 -0.002969 0.002655 1.0
3.550161 -0.000790 0.004782 1.0
3.126136 0.000460 0.005699 1.0
1.059575 -0.001393 -0.000438 1.0
1.532484 -0.002817 0.003989 1.0
2.795102 0.002548 0.004195 1.0
3.612235 -0.001039 -0.001662 1.0
0.799496 0.001680 -0.001784 1.0
3.766584 -0.002182 0.001634 1.0
2.142106 -0.001711 0.002189 1.0
0.621720 0.000357 -0.000603 1.0
4.142341 0.001481 0.002724 1.0
3.355660 0.002611 0.000451 1.0
0.155747 -0.002912 -0.004067 1.0
0.734498 0.000871 -0.008398 1.0
1.793607 0.004587 0.000312 1.0
1.433535 0.001811 -0.004024 1.0
2.488394 -0.001975 0.000568 1.0
3.027527 0.001852 -0.001987 1.0
1.923486 0.001098 0.002208 1.0
3.055310 -0.007195 -0.004465 1.0
1.886066 0.002137 0.000528 1.0
3.216049 -0.000740 -0.000879 1.0
2.900180 -0.005809 -0.002889 1.0
0.007165 -0.002688 0.001226 1.0
2.109346 0.001727 -0.000393 1.0
1.709437 -0.000118 0.000179 1.0
4.014297 -0.007689 0.002356 1.0
3.210775 -0.000224 -0.003243 1.0
1.848383 -0.000192 0.004118 1.0
1.256929 -0.003448 0.001115 1.0
0.309969 0.004792 0.003818 1.0
0.915454 -0.004273 -0.002123 1.0
4.103864 0.000053 -0.000280 1.0
1.510562 0.003364 0.001566 1.0
4.213676 -0.001593 0.000314 1.0
3.891073 -0.001010 -0.003443 1.0
3.984247 -0.000722 0.002967 1.0
2.537191 0.005897 0.002088 1.0
0.495461 0.001005 0.006563 1.0
0.122854 0.005690 -0.001261 1.0
3.802823 0.000491 0.001157 1.0
2.084909 -0.001707 -0.000161 1.0
1.940781 0.004248 -0.001759 1.0
3.215390 0.000976 0.003082 1.0
2.686371 -0.002994 0.003282 1.0
2.491223 0.003762 -0.000408 1.0
4.009009 0.001814 0.002044 1.0
3.356354 0.001659 0.002385 1.0
1.342724 -0.004741 0.005117 1.0
3.986950 -0.001742 0.002832 1.0
3.871069 -0.004519 0.001465 1.0
3.040507 0.000828 -0.000508 1.0
3.803402 0.000745 0.000664 1.0
2.850240 -0.003872 0.000042 1.0
1.837590 0.002018 -0.004611 1.0
1.610783 -0.000579 0.002170 1.0
2.375126 0.001042 -0.000645 1.0
3.833788 0.002417 0.002900 1.0
3.011868 0.001602 -0.003780 1.0
1.243620 -0.000547 0.005358 1.0
1.078106 0.001349 -0.000536 1.0
3.845246 0.002496 -0.002304 1.0
1.776605 0.004794 -0.001994 1.0
1.822452 -0.000285 0.002188 1.0
1.827778 0.001413 0.001256 1.0
0.200118 0.000056 0.001392 1.0
2.447873 0.004230 0.003531 1.0
0.190377 -0.000604 -0.001054 1.0
2.588227 -0.000302 0.001188 1.0
3.579968 0.000268 -0.001415 1.0
0.129570 -0.000997 0.002320 1.0
0.991942 0.000862 -0.002784 1.0
2.665324 -0.002163 -0.004638 1.0
3.165711 0.000621 0.000172 1.0
4.268190 -0.004513 -0.004184 1.0
0.344388 -0.005568 -0.000277 1.0
0.080500 -0.000977 0.004470 1.0
4.192385 0.000176 0.002142 1.0
2.102981 -0.000199 -0.003028 1.0
2.752644 0.002160 0.003436 1.0
1.096288 -0.005310 -0.000643 1.0
0.657337 -0.002812 -0.000515 1.0
1.173445 -0.001290 -0.000646 1.0
0.970736 -0.001751 -0.001937 1.0
1.999740 -0.000044 -0.000765 1.0
1.249581 -0.002457 -0.002731 1.0
1.662225 -0.000681 0.008046 1.0
3.845033 0.002199 0.001754 1.0
0.126542 0.003041 0.001803 1.0
2.377535 0.002215 -0.002632 1.0
2.006824 -0.000691 -0.001627 1.0
1.502407 0.000153 -0.004246 1.0
3.232554 0.003960 0.003240 1.0
3.059476 -0.002346 0.000604 1.0
3.569570 -0.000171 -0.000710 1.0
3.111059 0.001988 -0.002306 1.0
2.236088 -0.000359 -0.002086 1.0
3.781565 0.000489 0.000633 1.0
2.396256 1.534985 0.005827 0.0
3.866546 0.643100 -0.001608 0.0
2.550991 0.737405 -0.000435 0.0
4.213744 0.552442 0.001968 0.0
4.125930 1.956042 0.000478 0.0
4.081882 0.598635 0.003131 0.0
3.748368 0.062815 -0.000852 0.0
1.151630 1.294504 -0.002249 0.0
1.214059 0.665723 0.001285 0.0
0.462629 1.775274 0.000746 0.0
0.630885 1.699873 0.000940 0.0
2.441199 1.577850 -0.000504 0.0
4.278342 0.488203 0.004089 0.0
3.211154 0.458462 0.004325 0.0
2.335869 1.756519 -0.000950 0.0
3.246845 2.073721 0.006654 0.0
3.632053 0.204765 0.000189 0.0
3.315671 1.259455 0.002662 0.0
2.839682 1.442985 0.001694 0.0
2.299207 0.870791 0.000797 0.0
0.980127 1.138861 -0.000004 0.0
1.968014 1.477855 -0.000559 0.0
3.864953 1.200355 0.000555 0.0
2.421125 0.343840 -0.000852 0.0
3.317655 1.728088 0.000021 0.0
4.123315 1.616074 -0.003224 0.0
1.756914 0.858920 -0.001303 0.0
0.616521 1.587309 0.001197 0.0
1.734500 0.442787 0.001705 0.0
3.871639 1.790476 0.002282 0.0
0.425017 1.013953 0.000975 0.0
1.468744 1.501791 -0.003530 0.0
3.446976 0.590679 -0.000290 0.0
1.780194 0.824393 0.001646 0.0
4.263251 1.178849 0.003082 0.0
3.383670 1.870437 0.000070 0.0
2.137559 1.078483 0.004425 0.0
3.914911 0.795350 -0.001245 0.0
4.297520 1.187486 0.004963 0.0
1.730391 1.472460 0.000028 0.0
2.608413 1.639338 0.002197 0.0
4.125236 1.591271 -0.003307 0.0
0.893156 0.704223 0.001269 0.0
3.266344 0.284480 -0.000380 0.0
2.591288 1.310895 0.003375 0.0
2.997996 0.960993 -0.000528 0.0
1.526168 0.065536 -0.001384 0.0
1.736568 0.555485 0.004973 0.0
4.027949 0.309096 0.001193 0.0
3.959052 1.842386 -0.001185 0.0
1.250058 1.698442 0.002950 0.0
0.801889 0.402783 0.003806 0.0
3.329572 1.616799 0.003411 0.0
2.040677 0.687898 -0.000221 0.0
3.084213 1.106605 0.003663 0.0
0.046440 1.272666 0.003080 0.0
2.512319 0.240822 -0.000160 0.0
0.559748 1.261607 0.003299 0.0
0.554530 0.383088 0.000014 0.0
1.760231 0.111746 -0.000865 0.0
3.273418 1.066714 0.007974 0.0
2.180819 0.562719 0.000066 0.0
3.503307 0.772204 0.004351 0.0
3.728212 0.547386 0.001631 0.0
4.007503 1.792936 0.003779 0.0
3.624147 0.736401 0.001102 0.0
4.166018 0.329522 -0.005602 0.0
1.898753 1.415475 0.001172 0.0
1.533991 0.367655 0.000445 0.0
2.714320 0.969601 -0.001323 0.0
2.499853 1.002117 -0.000489 0.0
4.169656 0.375700 -0.004508 0.0
0.111762 0.924045 0.002399 0.0
0.797892 1.757887 -0.006811 0.0
2.901930 2.008973 -0.000404 0.0
3.564801 0.878289 0.001602 0.0
4.254759 1.139226 -0.001477 0.0
2.198865 0.181931 -0.000362 0.0
0.680565 1.552399 -0.000354 0.0
0.689583 0.978330 -0.000897 0.0
0.275451 0.792754 -0.002695 0.0
1.762464 1.758948 -0.000825 0.0
4.238524 0.562046 0.001539 0.0
1.392937 0.824963 0.000713 0.0
2.854155 1.405674 0.002609 0.0
2.627296 0.819949 -0.000827 0.0
4.094759 2.044104 0.003865 0.0
3.919427 0.541844 -0.001877 0.0
0.079511 1.073240 0.001553 0.0
3.031521 1.592762 -0.000037 0.0
3.758103 0.683997 -0.001560 0.0
3.395844 0.634578 0.001040 0.0
1.771742 1.344506 -0.002090 0.0
3.442111 2.075195 -0.003290 0.0
3.268652 1.624226 -0.000881 0.0
0.051848 1.870102 0.001262 0.0
4.031546 0.012390 0.001971 0.0
2.591899 2.090944 -0.000612 0.0
3.337898 1.534809 0.001339 0.0
3.804579 1.212613 0.004765 0.0
1.566227 1.419758 -0.002217 0.0
3.698561 0.915318 0.003700 0.0
2.798392 0.861931 -0.002862 0.0
1.549977 1.735355 -0.002318 0.0
0.381088 1.225416 -0.001817 0.0
0.937136 1.886651 -0.002661 0.0
1.003455 1.771133 0.000252 0.0
1.571062 2.035283 -0.000713 0.0
0.610269 0.411030 0.000334 0.0
0.108854 1.500558 -0.000309 0.0
2.598482 1.402364 0.000658 0.0
4.301919 0.986911 -0.004810 0.0
1.889426 1.579347 -0.002431 0.0
1.058362 0.016873 -0.002588 0.0
4.239664 0.070548 0.003719 0.0
3.567056 0.305920 -0.001957 0.0
4.163485 0.910795 0.001068 0.0
1.585195 1.071224 0.000331 0.0
2.032792 1.799440 -0.001685 0.0
1.415172 1.871910 -0.004931 0.0
2.671170 1.572753 0.000027 0.0
0.294250 2.131300 0.000963 0.0
2.099447 0.898228 -0.003456 0.0
3.788568 2.131784 -0.001964 0.0
2.971802 1.114537 0.001113 0.0
1.714592 1.536390 -0.000496 0.0
2.114582 0.119679 0.001813 0.0
2.906187 0.932795 -0.001085 0.0
1.931554 0.817083 -0.002264 0.0
0.619123 0.963134 0.003506 0.0
0.859123 1.009784 0.000459 0.0
0.009839 0.417108 0.003773 0.0
1.588493 1.272982 0.002313 0.0
1.120901 0.163069 0.001915 0.0
1.176665 0.873464 -0.002280 0.0
1.505360 2.076060 0.001308 0.0
2.128083 0.121563 -0.002199 0.0
3.532112 1.635097 0.000641 0.0
0.227160 0.198189 0.002221 0.0
3.560169 1.962946 0.000488 0.0
2.992347 1.454767 -0.005631 0.0
1.656845 0.049511 -0.002556 0.0
0.039738 0.747935 -0.002785 0.0
2.103081 1.100923 0.001178 0.0
3.875023 1.462348 -0.003341 0.0
3.935632 1.852183 0.000767 0.0
1.644344 1.095037 0.002671 0.0
3.821032 1.783104 0.004958 0.0
4.290910 1.219293 0.002476 0.0
3.714962 0.765853 0.000054 0.0
3.727868 1.304137 -0.003185 0.0
1.372587 1.289671 -0.001533 0.0
0.935390 1.221103 0.001941 0.0
0.848244 2.062977 0.001932 0.0
3.940141 0.296767 0.001835 0.0
1.292136 1.608351 0.002151 0.0
1.012415 1.881524 0.002918 0.0
4.056217 0.683169 0.001311 0.0
3.638794 0.124375 0.001096 0.0
2.391376 1.683056 -0.002739 0.0
1.347319 0.406007 -0.003303 0.0
2.736880 1.734481 0.001754 0.0
0.489291 1.293118 -0.001078 0.0
0.826021 0.738183 -0.000628 0.0
1.163245 1.010685 0.000175 0.0
3.591774 1.218421 0.000060 0.0
1.520283 1.919521 -0.000041 0.0
2.828648 0.368759 0.005123 0.0
2.918295 1.318071 -0.001232 0.0
1.824021 0.719977 0.000903 0.0
3.392485 1.478726 0.000487 0.0
1.211844 0.232662 0.004704 0.0
1.946707 2.017989 -0.000434 0.0
2.790224 1.928645 -0.002087 0.0
2.481033 1.864004 -0.004495 0.0
2.321533 1.348807 0.001575 0.0
0.801921 0.445494 -0.002368 0.0
1.213475 0.606800 -0.003704 0.0
2.348495 2.098754 -0.003764 0.0
4.234138 1.894644 0.002811 0.0
4.154698 1.582608 -0.000467 0.0
1.270245 2.102471 0.002677 0.0
0.645006 1.616762 -0.003361 0.0
1.058036 1.607630 0.000013 0.0
3.359809 2.025596 -0.001971 0.0
0.434901 1.611193 -0.000301 0.0
2.427933 1.621868 0.003982 0.0
4.128239 1.880125 0.000100 0.0
0.900860 1.266015 0.003989 0.0
3.767875 1.768241 0.002931 0.0
1.751952 1.689543 -0.004350 0.0
0.261923 1.507634 0.002443 0.0
2.665278 0.784078 -0.002507 0.0
3.729643 0.063547 0.003036 0.0
3.021018 1.670490 -0.000763 0.0
1.916930 0.536444 0.001516 0.0
0.387439 0.009738 -0.002425 0.0
1.822876 2.107068 -0.002066 0.0
3.704089 0.145859 0.005092 0.0
0.081401 1.083062 0.002612 0.0
3.390344 1.741595 0.000288 0.0
3.439489 1.494359 0.005444 0.0
3.675518 0.109749 -0.001325 0.0
1.951276 0.493924 -0.002283 0.0
3.432902 1.180250 0.000230 0.0
0.643712 1.908363 0.000112 0.0
1.452534 1.643867 0.003126 0.0
0.852500 1.666472 0.001388 0.0
2.063854 0.452556 -0.002793 0.0
2.930236 1.801078 -0.004016 0.0
1.371789 2.007709 0.001148 0.0
1.584021 1.575190 -0.002816 0.0
0.404980 1.130551 -0.003719 0.0
0.409737 2.125956 0.002051 0.0
3.409875 1.951951 -0.001181 0.0
1.221009 0.688378 -0.005907 0.0
1.365753 0.505921 -0.001411 0.0
4.251202 0.248904 -0.003375 0.0
3.597712 1.438685 -0.000515 0.0
2.074603 2.071576 0.003932 0.0
4.055162 1.672061 0.000317 0.0
3.649798 1.097358 -0.001907 0.0
2.722548 2.129181 0.002359 0.0
0.475062 0.563600 0.000333 0.0
0.173005 0.595942 0.002057 0.0
3.513879 2.078207 -0.003523 0.0
3.041192 2.053860 -0.003994 0.0
1.644094 0.026047 0.000002 0.0
1.305415 0.179206 -0.003412 0.0
1.326117 2.032343 0.000191 0.0
3.528805 0.557896 0.003958 0.0
2.710123 0.873718 0.002853 0.0
3.168914 0.794827 0.003916 0.0
3.984234 0.238327 -0.001069 0.0
2.870140 1.324101 -0.000819 0.0
3.527230 0.803748 0.000019 0.0
3.315744 1.608075 0.000950 0.0
2.222915 1.461209 0.008232 0.0
2.686331 0.862469 -0.000635 0.0
0.358604 0.270814 0.000739 0.0
2.662278 1.161126 -0.000648 0.0
2.662031 1.257787 -0.001685 0.0
0.741033 1.404390 -0.002268 0.0
3.523261 0.617016 0.003496 0.0
2.771966 1.582011 0.001557 0.0
1.586279 0.331733 -0.000103 0.0
3.870678 0.732368 -0.003298 0.0
3.236075 0.367981 -0.007048 0.0
3.308806 0.677703 -0.000671 0.0
3.934791 2.110933 0.004594 0.0
1.376093 0.059850 0.000009 0.0
2.343318 1.698911 -0.000327 0.0
3.260407 1.265685 -0.004294 0.0
2.440747 2.060528 0.000171 0.0
1.389242 0.525262 -0.000391 0.0
3.899035 0.258904 -0.001064 0.0
0.650894 0.439102 0.001563 0.0
0.286263 1.450991 0.000098 0.0
0.609091 0.325746 -0.003946 0.0
1.456451 1.664208 -0.001587 0.0
4.066736 1.831362 0.001703 0.0
2.445610 1.411544 -0.000388 0.0
1.883057 0.919241 0.002137 0.0
3.929247 0.892974 0.002273 0.0
3.725869 1.930400 -0.000944 0.0
0.503669 0.325903 -0.001548 0.0
2.247235 1.182503 -0.000059 0.0
3.165692 0.041108 0.002471 0.0
2.921245 1.732697 -0.000427 0.0
1.209705 2.075687 0.000220 0.0
3.859248 1.559598 -0.001235 0.0
3.491628 0.624640 0.004710 0.0
3.553047 1.024846 0.000040 0.0
3.464070 1.789730 -0.000697 0.0
0.391379 0.299115 0.002733 0.0
3.567940 1.465560 0.002353 0.0
2.810367 0.828781 -0.004805 0.0
3.233555 1.085613 -0.004775 0.0
0.502628 0.624465 -0.003253 0.0
2.266519 1.636337 -0.003387 0.0
3.638173 0.338149 0.003630 0.0
2.419997 0.252112 0.004446 0.0
0.749058 0.774498 0.001807 0.0
2.261173 1.889012 -0.001129 0.0
1.180840 0.818822 -0.002335 0.0
0.267485 0.754054 0.003040 0.0
3.888961 0.095978 -0.001798 0.0
1.920351 1.831221 -0.004710 0.0
3.441730 0.907196 -0.001056 0.0
3.501497 0.276256 -0.004882 0.0
1.033776 1.017248 0.003936 0.0
2.148148 0.913203 -0.002299 0.0
2.713069 0.366950 -0.002332 0.0
1.953616 1.450306 0.005914 0.0
1.421889 1.106213 0.004452 0.0
2.819424 0.606688 0.001533 0.0
0.487451 1.708740 0.000892 0.0
2.044259 0.874271 0.005752 0.0
2.204688 2.118170 -0.001527 0.0
2.387911 1.743468 0.001167 0.0
3.173466 0.140227 0.000529 0.0
4.189558 0.228299 -0.000520 0.0
3.015729 0.886990 0.001199 0.0
3.328285 1.978401 0.000688 0.0
2.838168 0.068722 -0.000145 0.0
0.046563 1.522003 -0.000492 0.0
3.747584 0.107587 0.004442 0.0
3.083333 0.985269 0.002400 0.0
4.285036 1.055402 -0.000983 0.0
0.692376 1.101327 0.003305 0.0
3.608398 1.773266 -0.001851 0.0
3.018701 1.524272 0.001938 0.0
3.049850 1.949083 -0.000336 0.0
1.037224 0.685222 0.002807 0.0
1.371352 1.073179 0.003196 0.0
1.180263 2.032276 -0.002714 0.0
3.534681 1.303082 -0.001169 0.0
1.240288 1.526555 0.001336 0.0
2.689150 0.115258 0.000422 0.0
1.454439 0.530385 0.002650 0.0
0.975869 1.435325 -0.002711 0.0
0.664527 0.346972 -0.000327 0.0
2.365118 1.126657 0.003098 0.0
3.554920 1.883131 -0.001229 0.0
0.812731 0.848866 0.001330 0.0
3.811179 0.054952 0.002760 0.0
4.135187 0.632879 -0.001438 0.0
3.649704 2.060462 0.003658 0.0
3.324699 1.008476 -0.001709 0.0
1.412656 1.868411 -0.001361 0.0
2.899947 0.963864 0.003491 0.0
4.109614 1.119482 0.002733 0.0
1.058628 1.628510 -0.001512 0.0
2.565338 1.740241 -0.001810 0.0
3.254031 0.629992 0.004020 0.0
1.333125 0.997756 0.001923 0.0
0.612034 0.120155 0.001413 0.0
3.956494 1.486589 -0.005002 0.0
0.584620 2.049058 0.001803 0.0
2.908173 2.132796 -0.000453 0.0
1.283573 1.227443 -0.000176 0.0
3.700106 0.646502 0.001935 0.0
0.704494 1.369101 0.001776 0.0
3.417131 1.303571 0.001828 0.0
3.720157 0.901445 -0.001019 0.0
3.807302 0.810261 0.001577 0.0
1.066346 1.717464 -0.001101 0.0
0.226522 1.700134 -0.000592 0.0
1.415580 1.660957 -0.005237 0.0
1.948365 1.357220 -0.002018 0.0
1.586992 1.736319 0.003129 0.0
0.752801 0.455803 -0.002683 0.0
2.384951 1.457932 0.000761 0.0
0.289111 1.210656 0.000553 0.0
1.745850 1.236852 0.000693 0.0
2.098796 1.942803 -0.000721 0.0
4.290010 2.115469 0.000226 0.0
2.472423 0.873446 0.001795 0.0
2.076299 1.433862 -0.001833 0.0
3.528114 1.524729 0.003822 0.0
1.957357 1.950127 -0.001314 0.0
2.897817 1.693297 0.003647 0.0
1.382092 1.228896 -0.002862 0.0
0.410667 1.297435 0.000835 0.0
1.164662 1.211266 0.001694 0.0
2.801292 1.080390 0.003040 0.0
3.542001 0.526410 0.001309 0.0
0.393476 1.193148 0.000705 0.0
2.502942 0.559877 0.000155 0.0
2.255518 1.289798 -0.004430 0.0
0.935056 2.038461 -0.000416 0.0
0.830626 0.965766 -0.001663 0.0
0.564338 1.473560 -0.000186 0.0
3.161525 2.059121 -0.000937 0.0
2.657223 1.524545 -0.004173 0.0
4.064949 0.397801 0.002047 0.0
1.295784 0.763058 -0.005141 0.0
2.901021 1.908946 -0.002955 0.0
0.868261 0.604765 0.000094 0.0
4.291336 0.165468 -0.001015 0.0
0.555941 1.202820 0.000258 0.0
2.363017 2.140156 -0.001904 0.0
2.752274 1.891766 -0.002288 0.0
1.464615 0.753107 0.004337 0.0
2.165371 1.272189 -0.006731 0.0
0.761058 1.486611 -0.002902 0.0
2.912231 1.110501 -0.001208 0.0
0.927406 1.076818 0.001121 0.0
3.030253 1.753923 -0.001737 0.0
3.804980 1.598792 0.000825 0.0
1.360985 0.734315 -0.002236 0.0
1.224068 1.684883 0.000390 0.0
0.582106 0.342617 0.001942 0.0
0.213160 0.636728 -0.000200 0.0
2.542326 1.840908 -0.003430 0.0
3.849854 0.868411 -0.001162 0.0
2.989221 1.276320 0.004898 0.0
2.691341 1.948355 -0.000040 0.0
0.546607 0.366057 -0.002030 0.0
2.423000 0.880905 0.000759 0.0
3.419392 1.755869 0.001975 0.0
1.353656 0.666112 -0.006627 0.0
1.970163 0.019337 -0.000108 0.0
0.227161 0.686838 0.002696 0.0
0.317170 0.118404 0.002975 0.0
2.296386 0.825858 0.000545 0.0
3.422887 0.455599 0.001994 0.0
2.160020 0.366833 -0.001406 0.0
0.867968 1.740986 -0.002421 0.0
1.351004 1.181407 -0.000699 0.0
3.568916 1.490508 0.002390 0.0
2.213825 1.874009 0.001151 0.0
2.478049 0.676895 0.002249 0.0
2.680531 0.306007 0.002102 0.0
3.806550 1.391762 -0.000845 0.0
3.510776 1.357771 -0.000043 0.0
0.013506 0.862603 -0.000621 0.0
3.347225 1.149157 0.000469 0.0
3.870169 1.453716 0.000545 0.0
1.353974 0.467016 -0.003367 0.0
1.085754 0.366480 -0.003839 0.0
2.127326 0.040837 0.001124 0.0
3.896566 0.081276 -0.003237 0.0
1.993777 0.928221 0.003801 0.0
1.530000 1.161537 0.004545 0.0
2.960725 1.657041 -0.000226 0.0
3.425221 1.431042 -0.004956 0.0
0.290059 1.828248 0.000071 0.0
3.066830 0.946314 0.000103 0.0
2.729024 1.366005 0.002352 0.0
2.348384 1.089913 0.003909 0.0
0.384063 1.544110 -0.002310 0.0
0.535272 0.216492 -0.002498 0.0
3.866135 1.772785 0.000312 0.0
3.350889 0.801807 -0.002354 0.0
1.713527 0.297767 0.000706 0.0
0.144979 1.201926 0.002990 0.0
2.648256 0.930559 -0.000916 0.0
3.090498 1.854308 -0.001706 0.0
2.700247 1.773113 0.005043 0.0
2.043367 2.054573 -0.001949 0.0
2.471043 1.772144 0.001627 0.0
2.169185 1.212055 0.001392 0.0
1.386289 1.489983 0.004644 0.0
4.261769 1.510367 -0.002468 0.0
2.261547 0.898122 -0.001903 0.0
1.299341 1.774445 0.001076 0.0
1.878738 1.791912 -0.003334 0.0
3.181639 1.968340 -0.000713 0.0
3.398729 2.116606 -0.000023 0.0
3.124858 1.305815 0.001297 0.0
0.033956 0.045297 0.000439 0.0
0.825609 0.964187 0.001932 0.0
4.225921 1.023267 0.001078 0.0
2.942499 1.342701 0.001630 0.0
3.376312 0.669394 0.002563 0.0
2.527129 0.584164 -0.000226 0.0
3.234634 1.746922 -0.001069 0.0
1.958549 1.959479 0.000588 0.0
0.958025 0.347943 0.001478 0.0
2.893646 0.126745 0.002578 0.0
3.249116 1.223802 -0.004120 0.0
3.603865 0.358196 -0.000471 0.0
0.321317 1.928971 0.002444 0.0
3.999055 1.407729 -0.001762 0.0
2.936342 0.112266 0.001566 0.0
0.933469 1.258092 -0.001509 0.0
0.343021 1.406025 -0.000775 0.0
1.027052 0.475333 0.000800 0.0
2.586443 1.230661 -0.004235 0.0
1.838729 0.765812 -0.002577 0.0
0.111414 1.304543 -0.000857 0.0
1.267117 0.303379 -0.000206 0.0
1.193509 0.747285 -0.001344 0.0
3.481575 1.023390 0.000216 0.0
2.950588 1.857106 -0.002343 0.0
2.459065 1.350454 -0.003748 0.0
3.036877 2.013368 0.002523 0.0
0.095879 1.410831 -0.000623 0.0
2.707141 2.063473 -0.001437 0.0
1.939088 1.589903 -0.003294 0.0
2.965319 0.252671 0.003587 0.0
3.751028 1.057506 0.001098 0.0
2.405087 0.746086 -0.003500 0.0
2.694885 0.821097 0.001706 0.0
0.568183 0.467912 0.000935 0.0
0.388777 1.480060 0.002489 0.0
0.122799 0.981238 -0.002833 0.0
1.553457 0.225934 -0.000199 0.0
3.208394 1.304994 -0.000986 0.0
1.398674 1.211254 0.000534 0.0
3.012701 0.602816 -0.001216 0.0
1.632092 1.415651 0.000327 0.0
4.177914 0.169914 -0.000197 0.0
4.125655 0.003874 -0.001756 0.0
1.005885 1.272072 -0.001676 0.0
2.145958 1.068551 -0.000337 0.0
2.946615 0.098402 0.003329 0.0
2.338941 1.658059 0.000039 0.0
2.492550 0.518579 0.002655 0.0
0.377305 0.029760 0.001934 0.0
3.552030 0.194893 0.003685 0.0
3.835761 1.627440 0.000559 0.0
4.280187 1.958601 -0.001299 0.0
2.552927 1.811082 0.000983 0.0
1.698523 0.879823 -0.003134 0.0
3.575912 1.916414 -0.001937 0.0
2.644687 1.754512 0.001645 0.0
2.052849 0.113336 0.000126 0.0
2.423889 0.184441 -0.000807 0.0
4.099907 1.088295 0.004756 0.0
3.518780 1.014085 -0.001707 0.0
0.126562 1.617272 0.004232 0.0
3.175516 0.220807 -0.002079 0.0
0.011024 1.112164 0.001131 0.0
1.569940 0.140125 -0.001707 0.0
0.123061 1.705094 0.000052 0.0
3.495834 1.019535 0.003740 0.0
3.734360 0.223877 0.004349 0.0
4.296109 0.499629 0.000978 0.0
0.064681 0.855297 0.000848 0.0
2.619547 0.390299 -0.001193 0.0
3.330935 1.684397 -0.000832 0.0
2.680940 0.424643 -0.001095 0.0
2.755686 0.176113 0.001739 0.0
0.232468 1.308376 -0.002284 0.0
2.608725 1.398390 0.003909 0.0
0.347052 1.078276 -0.000308 0.0
2.407695 2.132720 -0.001266 0.0
2.503780 0.050624 -0.001367 0.0
3.539272 0.828407 -0.002891 0.0
3.208348 0.232407 0.000570 0.0
0.700733 1.795918 -0.002057 0.0
3.439052 1.876403 -0.001035 0.0
1.479796 1.169903 0.001745 0.0
3.643237 1.985953 0.004055 0.0
2.668694 2.012428 -0.000406 0.0
4.170449 1.985695 -0.003543 0.0
1.398325 1.038381 -0.001605 0.0
1.545406 0.664642 -0.003463 0.0
1.854883 1.770024 -0.002209 0.0
1.889749 0.695683 0.001864 0.0
0.911240 1.544371 -0.000370 0.0
3.896294 0.009047 -0.000848 0.0
2.882484 1.394732 -0.000248 0.0
0.594099 1.267856 0.000728 0.0
2.118179 0.122375 -0.000157 0.0
0.432682 1.413045 -0.000202 0.0
0.801638 1.826628 0.001654 0.0
2.776188 0.511283 -0.001366 0.0
0.889214 1.407623 0.001130 0.0
0.132381 0.450207 0.001760 0.0
4.300142 0.782425 0.005945 0.0
2.030010 1.332458 0.001361 0.0
1.984736 1.346305 0.003465 0.0
2.188303 0.910641 -0.001667 0.0
2.137511 1.526915 0.000705 0.0
0.304694 0.315929 -0.003045 0.0
0.223885 1.367528 -0.007112 0.0
1.535846 1.916522 -0.005626 0.0
2.867691 0.847874 0.002104 0.0
0.948147 2.036731 0.000285 0.0
2.818026 1.433828 0.003722 0.0
-0.001029 0.904496 -0.003849 0.0
1.084185 1.275895 -0.003483 0.0
3.719842 2.036783 -0.001199 0.0
3.503222 0.457698 -0.002680 0.0
2.954069 0.725120 0.000996 0.0
0.850824 0.941781 0.004189 0.0
0.355945 1.153858 0.002768 0.0
1.455099 0.732850 -0.000011 0.0
0.380777 0.431701 0.003013 0.0
0.516610 2.090514 0.002754 0.0
3.063341 1.650016 -0.002743 0.0
2.881374 0.338449 -0.002376 0.0
0.204049 0.143203 -0.002459 0.0
1.712501 0.092098 0.000161 0.0
3.402939 0.286802 -0.000047 0.0
0.319459 0.740959 0.004164 0.0
4.066822 1.689974 -0.000567 0.0
1.442493 0.188764 -0.001390 0.0
2.309220 1.818850 -0.001896 0.0
4.251554 1.571702 0.001870 0.0
3.857367 1.112346 -0.002193 0.0
2.127152 1.151628 -0.004566 0.0
0.327682 0.323318 0.002116 0.0
2.702719 2.139285 -0.001617 0.0
0.103719 1.276774 -0.004941 0.0
3.626323 0.772463 0.001038 0.0
2.430152 0.230601 -0.000695 0.0
3.519012 0.829699 0.002285 0.0
1.515965 1.723599 0.001397 0.0
1.377551 1.540861 -0.002157 0.0
0.567333 0.083987 -0.002962 0.0
3.151002 1.200593 0.000359 0.0
1.094813 2.035233 0.003080 0.0
3.992125 0.526744 0.001766 0.0
1.264942 1.954719 -0.002783 0.0
0.992291 1.207018 -0.001216 0.0
0.834590 1.532934 -0.001188 0.0
1.537414 0.608003 -0.000997 0.0
1.442742 1.686226 0.001464 0.0
0.362533 2.001938 -0.004924 0.0
1.962516 1.585848 0.001904 0.0
1.360361 2.099012 0.004284 0.0
2.073783 1.653775 -0.000239 0.0
1.845665 1.529604 -0.001389 0.0
3.979230 2.018221 0.000130 0.0
2.380292 1.011147 -0.002954 0.0
3.884595 2.076776 0.001691 0.0
1.773585 0.931863 0.001864 0.0
1.022640 0.169137 0.001340 0.0
1.503541 0.798099 0.001295 0.0
0.038075 2.058522 -0.000601 0.0
1.575859 0.264574 -0.004441 0.0
0.342959 1.270595 0.000928 0.0
2.686130 0.666973 0.000933 0.0
0.385555 0.379666 -0.004595 0.0
3.957132 0.100773 -0.001611 0.0
0.246002 1.116444 -0.000123 0.0
0.721515 0.301293 -0.003550 0.0
1.073955 0.238454 -0.001709 0.0
0.941161 0.373280 -0.000344 0.0
0.894896 0.942513 0.000887 0.0
2.903076 0.536106 -0.003333 0.0
0.480270 1.667507 -0.001544 0.0
1.132428 0.204449 0.002243 0.0
2.744655 1.644326 -0.002207 0.0
4.189950 1.668192 -0.004097 0.0
0.417354 0.265186 0.000613 0.0
2.620638 1.892479 -0.001478 0.0
3.334030 1.571412 0.003446 0.0
2.011668 0.455591 -0.003310 0.0
2.194260 0.938493 0.001180 0.0
2.232920 2.054651 -0.002457 0.0
2.102215 1.024722 -0.000281 0.0
3.103936 0.076654 0.002526 0.0
1.499424 1.725695 0.000512 0.0
1.496026 1.397614 -0.002016 0.0
4.204312 0.492405 -0.000798 0.0
4.306463 1.193941 -0.004559 0.0
1.267716 0.653473 -0.001243 0.0
0.998985 0.874755 0.001067 0.0
1.318577 0.747509 0.003200 0.0
3.772025 1.050253 -0.001312 0.0
1.489019 1.844643 0.002628 0.0
2.986629 0.874708 -0.001564 0.0
2.476540 0.805557 -0.001173 0.0
1.964284 1.552619 -0.000915 0.0
3.789349 0.499098 0.001224 0.0
3.155355 1.399649 0.000202 0.0
3.146602 0.845948 0.000409 0.0
3.666533 0.140466 0.001929 0.0
0.874408 1.095570 -0.001374 0.0
1.208032 0.145146 -0.000974 0.0
3.286234 1.883277 -0.002024 0.0
0.256918 1.299042 0.002339 0.0
3.494772 1.057366 0.002650 0.0
0.968189 0.886998 0.003065 0.0
2.934128 1.819841 -0.002698 0.0
3.510521 0.583913 0.004227 0.0
0.258517 0.615393 -0.004396 0.0
0.937793 0.509472 -0.001491 0.0
2.283265 0.589801 -0.001047 0.0
3.908984 1.067710 -0.003567 0.0
3.013858 1.530473 0.000581 0.0
-0.002203 0.524140 0.003206 0.0
3.727918 0.511628 -0.000341 0.0
2.003915 0.444909 0.000284 0.0
2.220064 0.924684 0.002972 0.0
0.764837 1.757053 0.000972 0.0
3.776794 1.423914 -0.005703 0.0
0.769570 1.731383 0.002810 0.0
4.118001 0.884480 0.002151 0.0
2.454701 0.944313 0.002952 0.0
0.916015 0.495677 0.001708 0.0
0.104356 1.771467 -0.002871 0.0
0.292607 0.215159 0.002046 0.0
0.558195 0.753638 -0.000106 0.0
2.849111 0.883910 -0.002877 0.0
1.330926 1.547012 0.000514 0.0
2.508741 0.119242 0.002346 0.0
1.301473 1.639026 -0.005039 0.0
2.316788 1.878814 -0.001943 0.0
4.265316 1.875011 -0.004202 0.0
0.164402 0.698279 -0.002001 0.0
1.108515 1.167341 -0.005839 0.0
0.389291 0.237156 0.001932 0.0
2.370631 0.931798 -0.000407 0.0
1.971544 0.028679 0.001063 0.0
4.112042 0.718481 -0.000246 0.0
3.476905 0.206635 -0.003622 0.0
3.142188 1.526921 -0.004240 0.0
2.910171 1.783724 -0.002341 0.0
3.227670 1.808594 -0.005210 0.0
0.746971 0.228538 0.001681 0.0
0.075093 1.416878 -0.001377 0.0
2.817790 0.357023 -0.002535 0.0
2.148834 0.807902 -0.001656 0.0
3.325668 1.050046 -0.002229 0.0
3.266907 0.617947 0.000272 0.0
3.315821 2.058475 -0.003914 0.0
3.648570 0.521783 0.000816 0.0
3.829956 0.681486 -0.000240 0.0
1.303246 1.300441 0.000556 0.0
3.295096 0.962967 0.004605 0.0
3.617121 1.241466 -0.002065 0.0
2.259972 2.013977 -0.000452 0.0
2.092797 1.056674 0.000592 0.0
0.168465 0.384652 -0.003409 0.0
4.101065 0.147561 0.002381 0.0
1.796833 0.978573 -0.000106 0.0
1.399178 0.704881 -0.001629 0.0
1.317886 1.769025 -0.001762 0.0
2.577139 1.173471 -0.001252 0.0
2.160415 0.636872 -0.000463 0.0
0.186753 0.972431 0.001141 0.0
0.133112 0.244415 0.000330 0.0
2.472364 1.530863 -0.001518 0.0
2.129409 0.234764 -0.001893 0.0
4.003021 1.159866 -0.000295 0.0
3.524762 0.941091 0.003257 0.0
0.773207 0.099475 -0.005695 0.0
3.490590 0.145720 -0.000685 0.0
1.094272 0.045518 0.001169 0.0
3.089530 0.124586 -0.002692 0.0
0.315715 1.177074 0.003549 0.0
0.547944 1.275309 -0.000950 0.0
3.222768 0.908131 0.001148 0.0
2.910025 0.886243 -0.003348 0.0
2.878996 1.336290 0.000709 0.0
0.668823 1.028313 0.001250 0.0
3.163641 0.605661 -0.002646 0.0
0.605992 1.764230 -0.003281 0.0
1.304559 1.872896 -0.002465 0.0
1.043333 1.829355 0.000604 0.0
3.549610 1.153107 -0.002030 0.0
0.019947 1.450038 0.001148 0.0
1.264520 1.549371 -0.001307 0.0
2.860866 0.217720 -0.005017 0.0
2.169369 1.794589 -0.000695 0.0
2.591511 0.298547 0.002248 0.0
3.853705 1.879920 0.001469 0.0
1.428205 0.983953 0.000198 0.0
0.741857 1.478773 -0.000608 0.0
0.041168 0.928028 -0.004019 0.0
4.221960 1.584416 0.003177 0.0
0.678988 1.411107 0.002972 0.0
2.703494 0.500731 -0.005654 0.0
0.016627 0.270480 -0.003715 0.0
1.664007 1.795304 -0.005548 0.0
3.270664 0.309039 0.000039 0.0
0.508001 0.270571 0.001593 0.0
1.921124 1.702542 0.002873 0.0
0.614338 0.932079 -0.002192 0.0
1.867945 1.099150 0.000119 0.0
0.386127 1.026071 -0.003774 0.0
3.010458 0.666170 -0.001261 0.0
0.488540 0.432551 0.003199 0.0
0.325359 0.586944 -0.002070 0.0
3.020003 1.130261 0.003913 0.0
2.979475 0.721466 -0.004054 0.0
3.603726 1.860365 0.001928 0.0
1.104426 1.849360 -0.003685 0.0
2.518810 0.608931 -0.001456 0.0
1.503666 1.886064 0.002398 0.0
1.535323 2.028867 -0.000338 0.0
3.798675 0.056909 -0.002776 0.0
0.514888 1.517155 -0.003655 0.0
4.297776 0.133972 0.000102 0.0
2.178300 1.110800 0.001221 0.0
4.060398 1.973664 -0.002365 0.0
1.460531 1.781196 -0.002269 0.0
4.225145 1.509231 0.001541 0.0
0.065570 1.122919 -0.000341 0.0
3.412071 0.066117 0.004251 0.0
4.181065 1.915423 -0.002816 0.0
2.686209 0.853247 -0.001164 0.0
2.626348 2.005180 0.000555 0.0
0.059092 2.021705 -0.003481 0.0
1.387327 2.116416 -0.001638 0.0
1.632184 0.111830 -0.000323 0.0
0.101631 2.000986 0.000480 0.0
0.532500 1.785576 0.002903 0.0
0.575857 1.821646 -0.000310 0.0
3.910028 0.963125 0.000395 0.0
2.335685 1.670526 -0.000148 0.0
0.656077 1.475084 0.005905 0.0
1.215659 0.392298 -0.003580 0.0
0.363820 0.821416 0.002801 0.0
2.258530 1.790730 0.000629 0.0
1.982415 0.785998 -0.003931 0.0
0.104888 0.332439 -0.002723 0.0
2.929578 0.002644 0.001643 0.0
2.072982 2.037538 0.002601 0.0
2.303733 1.864119 0.004139 0.0
3.635738 0.198446 0.001199 0.0
3.403642 1.873965 -0.000904 0.0
0.209632 0.176998 -0.003293 0.0
2.994047 0.614799 -0.002354 0.0
3.007398 1.339190 0.002599 0.0
2.598607 1.736779 -0.001488 0.0
2.604426 0.563802 -0.004084 0.0
0.999309 0.329541 0.002205 0.0
3.094894 1.695776 0.000731 0.0
2.216323 0.660950 0.005278 0.0
1.893831 0.768460 0.000764 0.0
2.639913 0.227578 -0.004314 0.0
1.250105 2.043026 -0.000054 0.0
3.515997 1.264135 0.003999 0.0
2.284571 1.495742 0.002269 0.0
3.516341 0.175198 0.002007 0.0
3.161044 1.461298 -0.000863 0.0
4.310459 1.543480 -0.001035 0.0
0.668496 1.679680 0.000549 0.0
3.572645 1.247749 -0.000540 0.0
3.184990 0.650407 0.002011 0.0
3.347291 0.860002 -0.000430 0.0
3.707841 0.753074 -0.002237 0.0
1.199233 0.279969 0.001816 0.0
1.615281 1.492514 -0.004333 0.0
2.211625 1.657979 0.004371 0.0
2.043619 0.258586 0.002759 0.0
1.960017 0.028364 0.002625 0.0
2.250816 0.451588 0.006631 0.0
1.344542 0.942618 0.006278 0.0
1.924440 0.272164 0.000728 0.0
0.284504 0.301571 -0.000204 0.0
2.141845 0.568778 0.007841 0.0
1.617836 1.864804 -0.003956 0.0
2.460426 1.050598 0.002963 0.0
3.946961 2.036415 -0.004521 0.0
2.378598 0.082231 0.001527 0.0
2.537849 2.082845 -0.001432 0.0
3.710034 0.811933 0.000592 0.0
4.055179 0.972048 -0.000040 0.0
0.417707 2.135237 -0.007070 0.0
1.589379 1.834098 0.002885 0.0
1.669136 1.505714 0.000397 0.0
3.764107 0.209942 0.001404 0.0
0.626765 0.389052 -0.005255 0.0
2.976696 2.081186 -0.000817 0.0
2.458188 0.308664 -0.000708 0.0
0.204926 1.423780 0.000175 0.0
1.979039 1.351302 -0.001373 0.0
3.344554 1.029557 -0.002507 0.0
0.696707 2.101351 0.004149 0.0
0.059252 0.758115 0.000719 0.0
1.103542 0.898593 -0.000478 0.0
3.610859 1.743659 -0.001844 0.0
0.136778 0.502484 -0.000860 0.0
2.953473 2.052678 -0.001460 0.0
3.227086 0.686142 -0.001199 0.0
2.101326 0.931018 0.004038 0.0
0.695805 1.292207 -0.004031 0.0
0.831280 1.154973 -0.000319 0.0
1.635903 2.011968 -0.001431 0.0
2.672485 1.121094 -0.002718 0.0
1.963540 1.754975 0.000056 0.0
3.116105 0.338495 0.001681 0.0
0.977085 1.212814 -0.000575 0.0
1.548149 0.534442 0.000433 0.0
2.029134 1.474689 0.002562 0.0
0.301938 0.975727 0.003031 0.0
1.124672 1.672441 0.000590 0.0
3.228906 1.582754 0.001734 0.0
0.017428 1.607640 0.003280 0.0
3.753734 1.704118 0.000089 0.0
4.146626 0.911683 -0.000330 0.0
2.286748 0.414456 -0.006178 0.0
3.366892 1.876335 0.001168 0.0
3.696640 1.987270 -0.001299 0.0
0.702145 1.294074 -0.004543 0.0
0.157199 1.828064 0.000156 0.0
1.311497 1.755567 -0.000220 0.0
0.712161 0.573954 -0.000859 0.0
3.686206 0.238899 0.000464 0.0
3.219837 1.723601 0.000947 0.0
0.210317 0.740505 -0.000260 0.0
2.392482 0.122185 0.001414 0.0
0.252104 2.088535 0.000055 0.0
1.956225 1.328931 0.003245 0.0
1.892268 1.198685 -0.003602 0.0
2.847514 1.219921 -0.004956 0.0
1.590073 1.182852 0.003144 0.0
3.118908 0.202985 0.003980 0.0
2.957568 1.845755 -0.001929 0.0
1.109042 1.125430 -0.002051 0.0
0.756438 0.915784 -0.004327 0.0
0.883760 0.649354 -0.002881 0.0
3.081572 1.214252 0.000649 0.0
4.237271 1.166060 0.000552 0.0
3.110092 1.806791 0.001625 0.0
0.502793 0.165353 -0.000185 0.0
0.975179 0.267010 -0.000534 0.0
0.359605 1.593110 -0.002975 0.0
2.228173 0.385948 -0.003076 0.0
3.577256 1.176229 0.000459 0.0
4.069896 0.097422 -0.000883 0.0
0.089829 0.321739 -0.004462 0.0
0.261852 1.384028 0.005159 0.0
3.079636 1.060260 0.003525 0.0
0.819908 1.863960 0.004658 0.0
1.130014 0.285952 -0.000351 0.0
4.231680 1.865085 -0.000996 0.0
3.149732 0.056891 -0.001455 0.0
2.942822 1.050760 0.001435 0.0
2.052411 1.531552 -0.001622 0.0
1.114433 0.094850 -0.000566 0.0
3.197647 2.097121 -0.002472 0.0
3.090251 1.826812 -0.004765 0.0
2.368010 1.834231 0.002139 0.0
1.160767 1.666744 -0.001346 0.0
0.049847 0.193319 -0.001374 0.0
0.502953 0.299153 -0.002511 0.0
3.481236 0.552500 0.002510 0.0
3.788046 1.570548 -0.003671 0.0
4.004054 0.758540 -0.001046 0.0
1.410559 0.458413 -0.002741 0.0
0.236117 2.048582 0.003653 0.0
1.977432 1.872403 -0.006175 0.0
0.565615 0.476760 0.001634 0.0
0.986619 2.091763 0.000781 0.0
2.782965 1.542477 -0.003873 0.0
3.073568 1.020490 -0.001203 0.0
0.603381 1.273792 0.000232 0.0
0.971988 0.236493 -0.003156 0.0
1.414928 0.188416 0.002381 0.0
1.662695 0.095679 0.002401 0.0
3.536819 1.391658 0.000082 0.0
3.598530 0.278448 -0.001652 0.0
3.586794 0.345973 -0.002568 0.0
0.986860 0.119231 0.003645 0.0
4.224985 1.565058 0.002152 0.0
0.733771 1.929077 0.001079 0.0
3.376639 1.977802 -0.000413 0.0
2.885940 1.209529 0.001591 0.0
0.428075 0.101325 -0.000195 0.0
3.174303 1.129870 -0.002054 0.0
0.087964 0.644122 -0.002132 0.0
2.035467 0.552469 -0.002054 0.0
1.643533 0.902148 -0.001081 0.0
0.265427 0.847000 0.002821 0.0
2.891473 1.555827 -0.003136 0.0
1.656725 0.221258 -0.001698 0.0
4.098268 1.861216 -0.001209 0.0
4.139961 2.088910 0.001564 0.0
1.097332 1.428820 -0.002475 0.0
1.230279 1.027886 0.002253 0.0
1.842460 1.668731 -0.001658 0.0
1.867895 0.584608 0.002964 0.0
0.045217 0.515950 -0.003121 0.0
1.038509 1.132031 0.000634 0.0
1.826765 2.014647 0.000650 0.0
1.967977 2.035674 -0.001537 0.0
3.995239 1.245185 -0.003932 0.0
0.457555 1.944931 -0.003220 0.0
0.601542 1.523033 -0.001664 0.0
3.746741 0.893267 -0.003301 0.0
2.108423 0.408723 0.002838 0.0
2.411698 1.530838 -0.002673 0.0
3.925856 1.909365 0.002081 0.0
4.007370 1.025187 0.001775 0.0
3.851447 1.640104 -0.000388 0.0
2.703229 0.296494 0.001271 0.0
1.873262 1.260154 0.003064 0.0
0.109904 0.102733 -0.003109 0.0
3.419393 1.119707 -0.001559 0.0
2.110018 1.504038 0.001836 0.0
3.182373 1.316208 0.001671 0.0
1.295773 1.305256 0.001111 0.0
0.947512 0.634748 0.000055 0.0
2.734593 2.068175 -0.004570 0.0
1.252356 0.411731 0.000052 0.0
0.712380 1.113716 -0.000645 0.0
2.267811 1.239212 0.004428 0.0
0.947091 1.254746 0.002288 0.0
3.767064 0.281633 0.003184 0.0
1.058991 1.755634 -0.001084 0.0
3.129630 0.553437 -0.006023 0.0
0.912339 0.251343 0.000998 0.0
0.212234 1.571502 -0.001132 0.0
0.241912 1.967995 0.000624 0.0
3.715006 0.864182 -0.001554 0.0
1.847627 1.158619 0.007139 0.0
0.574815 1.350372 -0.002680 0.0
0.737278 1.947326 -0.004908 0.0
1.131422 1.364544 -0.001112 0.0
2.517678 1.030702 0.000572 0.0
3.711715 1.499941 0.001134 0.0
2.388288 1.261070 -0.001474 0.0
1.826000 0.007351 0.001110 0.0
0.842966 1.632451 -0.002378 0.0
3.729338 1.721628 0.002550 0.0
0.357720 1.627959 0.003994 0.0
4.025270 0.831693 -0.004469 0.0
3.000958 0.792273 -0.003563 0.0
3.941842 1.915705 0.002682 0.0
3.523087 0.529094 0.000761 0.0
2.716997 0.154795 -0.001364 0.0
0.256199 0.514539 0.004358 0.0
3.197853 1.289379 -0.000954 0.0
2.533041 0.477789 -0.007399 0.0
2.852630 1.854377 -0.003861 0.0
2.225495 0.930134 -0.000353 0.0
1.506755 1.950682 -0.001135 0.0
0.353230 0.778428 -0.000720 0.0
1.623721 0.319719 0.002989 0.0
0.689523 2.074065 -0.003424 0.0
3.005264 1.624696 -0.001005 0.0
2.832347 0.670922 -0.004850 0.0
2.091113 1.345276 -0.000998 0.0
2.284849 0.825857 0.001460 0.0
3.203754 2.101617 0.001187 0.0
2.020845 0.636983 -0.000651 0.0
0.608691 0.610764 -0.004159 0.0
1.896494 0.001703 0.000351 0.0
0.110726 2.076895 -0.002576 0.0
0.294096 0.590431 -0.000950 0.0
0.959282 0.209169 0.002441 0.0
3.538111 0.825633 0.003252 0.0
3.692423 1.516147 -0.002392 0.0
1.151696 0.482765 0.001669 0.0
0.472473 1.426880 0.000441 0.0
3.097814 1.761135 -0.001715 0.0
0.293869 0.320063 0.002197 0.0
3.248642 0.774065 -0.004275 0.0
0.385784 1.343305 0.002649 0.0
0.792651 0.600621 -0.003273 0.0
0.352065 0.037804 -0.003926 0.0
2.906252 1.524714 0.003223 0.0
0.322281 1.795621 0.000693 0.0
3.971632 1.681124 -0.000761 0.0
3.127545 1.980774 0.001525 0.0
2.678744 1.790649 0.001028 0.0
3.997632 1.189435 -0.001939 0.0
3.619269 1.418480 -0.004975 0.0
1.036242 2.018319 -0.002868 0.0
0.620062 1.320291 0.000973 0.0
2.598555 1.178855 -0.005437 0.0
1.512131 1.553899 -0.001971 0.0
1.344431 1.875201 0.002250 0.0
1.068851 0.658039 -0.000578 0.0
1.607889 1.306193 0.003474 0.0
2.070331 0.365625 0.001506 0.0
2.863760 2.089722 0.001027 0.0
1.325299 1.193191 -0.000290 0.0
3.437785 0.617712 0.002192 0.0
0.343726 0.190347 0.001891 0.0
1.592578 0.172743 -0.001030 0.0
3.785801 1.564419 0.002247 0.0
2.305522 0.988549 -0.001403 0.0
3.400204 0.822003 -0.001152 0.0
4.192712 1.925896 0.000340 0.0
0.178781 2.086270 0.001865 0.0
3.090233 0.322954 0.002883 0.0
0.154461 0.596808 -0.004138 0.0
3.544265 0.300238 -0.001609 0.0
2.759559 0.695283 0.000579 0.0
3.095945 0.510384 -0.001252 0.0
0.095548 1.143023 -0.007751 0.0
1.815938 1.482580 -0.004716 0.0
2.735866 0.936486 -0.000835 0.0
2.210004 0.862497 -0.002746 0.0
0.582279 0.549652 0.000785 0.0
0.089419 0.480856 -0.004388 0.0
2.869555 1.216995 0.001142 0.0
4.186283 1.185907 -0.001264 0.0
3.371308 1.162236 0.000755 0.0
1.021054 0.186631 -0.001864 0.0
3.732721 0.327210 -0.002027 0.0
3.644906 0.806646 0.002045 0.0
3.977333 1.507058 0.000405 0.0
2.356545 0.147098 -0.001984 0.0
0.232223 1.045133 0.005813 0.0
3.489356 1.570989 -0.000813 0.0
2.603778 0.609830 -0.001864 0.0
1.997285 1.355006 -0.005078 0.0
1.185970 0.128372 0.000629 0.0
3.596425 2.048404 -0.002335 0.0
0.690007 1.890124 -0.000292 0.0
0.326788 0.567175 0.000802 0.0
3.941862 0.788547 -0.001567 0.0
2.007189 1.767802 -0.002215 0.0
1.787471 2.071057 0.002398 0.0
3.554221 1.652991 -0.001447 0.0
0.114074 1.775571 -0.000920 0.0
2.006132 0.652324 -0.000438 0.0
2.216746 1.034862 0.000383 0.0
2.094256 0.641055 0.000421 0.0
0.104539 1.796910 -0.003422 0.0
1.229304 1.390537 -0.001097 0.0
3.978864 0.810364 -0.001298 0.0
1.468635 1.268551 0.000445 0.0
4.078466 1.415214 0.000167 0.0
1.961137 0.887269 -0.001701 0.0
4.135852 0.917542 -0.002069 0.0
4.317112 0.555993 0.000288 0.0
3.398041 1.432298 -0.000508 0.0
2.235704 0.565430 0.000546 0.0
3.092398 0.009872 -0.002287 0.0
3.106684 0.181048 -0.002885 0.0
3.066036 1.775021 0.000766 0.0
0.140983 2.069534 0.000029 0.0
2.485658 1.671780 0.000740 0.0
0.761916 0.571985 -0.004654 0.0
0.379791 0.608971 -0.005178 0.0
2.924476 1.078712 0.002541 0.0
2.986023 1.847180 0.000531 0.0
1.699544 1.158142 -0.003078 0.0
0.488585 1.885241 -0.001312 0.0
0.935153 1.042700 0.003072 0.0
1.388839 1.965755 -0.000446 0.0
1.154802 1.440534 -0.000158 0.0
0.842142 1.187283 -0.001088 0.0
3.269508 0.375115 -0.005965 0.0
2.927489 1.905986 -0.005237 0.0
1.330429 1.945847 0.001332 0.0
2.882368 0.095996 0.000820 0.0
3.276107 1.611253 -0.000057 0.0
3.208625 1.510870 0.001151 0.0
4.174920 1.763753 -0.000157 0.0
1.229233 0.128515 0.001518 0.0
2.202318 1.665932 0.002658 0.0
0.786031 2.003496 0.001519 0.0
2.514656 0.922375 -0.001597 0.0
0.881979 1.322889 0.003204 0.0
1.575603 2.106671 -0.001388 0.0
3.339910 2.059838 0.003554 0.0
4.304618 1.866344 -0.002224 0.0
2.492224 0.267169 -0.000644 0.0
3.790545 1.792793 0.000704 0.0
4.215385 0.698428 0.001046 0.0
3.515076 0.094711 -0.002824 0.0
0.563769 0.960858 -0.000474 0.0
0.719518 2.125378 -0.003202 0.0
0.146162 1.634407 0.001290 0.0
1.391691 0.776192 -0.003500 0.0
2.337135 0.537103 0.001725 0.0
3.317652 1.811249 -0.001022 0.0
1.496211 1.883356 -0.001733 0.0
2.622244 0.957743 -0.000453 0.0
1.638751 1.075390 0.002032 0.0
0.108260 2.023934 -0.001328 0.0
0.655501 0.419699 -0.003686 0.0
3.742434 1.856446 -0.003304 0.0
3.576760 1.569011 0.000786 0.0
0.967285 1.969440 0.000689 0.0
1.742127 1.784475 -0.001587 0.0
2.988603 1.949181 0.002745 0.0
2.306595 0.988542 -0.002920 0.0
1.137719 2.015706 0.002236 0.0
2.972129 0.209421 0.000222 0.0
1.703291 2.108686 0.001430 0.0
1.380052 1.380065 -0.002288 0.0
2.587495 0.343761 0.002694 0.0
0.991444 1.704614 -0.001591 0.0
1.989064 0.394041 -0.002366 0.0
3.328428 1.612174 -0.004739 0.0
1.461095 0.306726 -0.000165 0.0
3.003389 0.898499 0.000326 0.0
0.164291 1.362303 0.002160 0.0
4.116822 0.937057 -0.002528 0.0
2.045082 0.820211 -0.000139 0.0
0.182027 1.579657 -0.001639 0.0
1.736391 0.321948 0.001386 0.0
2.156852 1.423646 0.003987 0.0
3.453526 0.463306 0.001035 0.0
2.574434 1.478417 0.000820 0.0
0.080609 1.966634 0.001309 0.0
2.164429 0.687011 -0.000422 0.0
4.072028 1.489581 0.003093 0.0
3.736764 0.349855 0.001602 0.0
4.252909 0.727532 0.005285 0.0
2.204202 0.991918 -0.000755 0.0
0.055894 1.856962 -0.003661 0.0
2.456786 0.712375 0.000994 0.0
2.297734 0.594867 -0.001523 0.0
1.633770 0.018324 -0.001427 0.0
0.710644 1.784091 -0.000169 0.0
2.125697 1.328711 0.000123 0.0
2.841084 0.076213 0.000541 0.0
2.057859 1.012098 -0.004149 0.0
2.618596 1.632255 -0.001138 0.0
4.105592 0.753429 -0.001736 0.0
2.468328 1.092647 0.000800 0.0
1.758401 1.163425 -0.001332 0.0
3.158396 0.851361 -0.000870 0.0
1.032798 0.690185 -0.002263 0.0
0.409228 1.916411 -0.001221 0.0
1.746107 0.621126 0.001655 0.0
0.262162 1.174387 0.004169 0.0
0.294231 1.154865 0.000645 0.0
3.429333 0.841251 -0.005895 0.0
3.266010 0.226781 -0.001111 0.0
3.230537 1.967412 -0.001968 0.0
1.067896 1.127622 -0.000731 0.0
2.955444 1.188558 0.000905 0.0
3.714203 1.122295 -0.004367 0.0
1.912728 0.238128 0.000941 0.0
4.238624 1.818947 0.001155 0.0
1.676750 1.218014 -0.000861 0.0
3.028099 0.718302 0.003511 0.0
2.102690 0.816268 -0.001947 0.0
0.977209 0.549705 -0.000638 0.0
2.803593 0.335576 0.002700 0.0
0.505919 0.749457 0.003714 0.0
1.097214 1.311848 0.002565 0.0
2.603641 1.043143 -0.000850 0.0
2.979611 0.671412 -0.001764 0.0
1.226736 1.343419 0.001930 0.0
1.618436 1.175074 0.000797 0.0
3.268048 1.329856 -0.000674 0.0
0.604697 0.887699 -0.001207 0.0
4.149792 1.983439 -0.000147 0.0
0.697708 0.964121 -0.003448 0.0
2.858801 1.438739 0.000780 0.0
3.784167 1.662610 0.004940 0.0
4.039831 1.592268 -0.001216 0.0
1.613943 0.034741 -0.003879 0.0
0.369343 0.365224 -0.002309 0.0
3.356734 0.052435 -0.002085 0.0
1.162609 2.011755 -0.001108 0.0
3.298383 0.925981 0.001050 0.0
2.293946 0.159610 -0.001341 0.0
3.275089 1.066578 -0.000976 0.0
3.919806 1.972931 -0.001717 0.0
2.778026 1.254937 -0.001628 0.0
1.120811 1.000467 0.002805 0.0
3.431391 1.708903 -0.004121 0.0
2.612501 0.199685 -0.000777 0.0
1.076484 1.754204 -0.001802 0.0
2.848418 1.284413 0.005126 0.0
2.247908 1.867744 0.003534 0.0
0.473747 0.521986 0.003809 0.0
0.112067 1.980961 -0.003696 0.0
0.033530 0.133110 -0.002745 0.0
2.563890 0.631402 0.000453 0.0
2.658514 0.215950 -0.002575 0.0
1.264140 0.767126 -0.001839 0.0
3.523219 0.342420 0.003232 0.0
0.685697 0.035711 -0.000590 0.0
1.525782 1.181944 0.000197 0.0
0.928718 0.288329 -0.001038 0.0
3.238017 0.782920 0.001072 0.0
3.372518 0.742017 -0.004054 0.0
3.543359 1.427154 -0.001829 0.0
1.321659 1.933655 0.002472 0.0
2.117796 1.857373 -0.001245 0.0
3.665613 1.154826 -0.004181 0.0
4.056889 0.709038 -0.000051 0.0
3.210018 0.527824 -0.003772 0.0
2.705869 1.301608 -0.005233 0.0
1.823903 2.072689 -0.007118 0.0
3.174436 1.526297 -0.000101 0.0
3.828136 0.868281 -0.000465 0.0
0.157339 0.463949 0.000850 0.0
0.419030 0.319822 -0.000401 0.0
2.067122 1.365277 -0.002740 0.0
1.417006 0.955343 -0.002827 0.0
0.633365 1.921758 0.001776 0.0
1.575764 0.584336 -0.001962 0.0
1.965610 1.608562 -0.002049 0.0
2.721020 0.697035 -0.001451 0.0
2.556923 0.825778 0.000991 0.0
0.360578 0.862626 -0.000639 0.0
1.122234 1.905418 0.002478 0.0
0.739866 0.542829 -0.005746 0.0
1.021669 1.256110 0.005572 0.0
0.092085 1.041271 0.001783 0.0
3.261626 0.040272 0.002275 0.0
3.217604 0.729600 0.001933 0.0
0.155751 1.777501 0.003327 0.0
2.117695 0.858895 0.001429 0.0
2.379150 0.853426 -0.003708 0.0
1.878733 0.349528 0.001603 0.0
2.494191 0.136329 0.001957 0.0
3.459716 1.090691 0.001217 0.0
0.631065 0.727932 0.000646 0.0
3.152259 0.455195 -0.002791 0.0
1.067738 1.571639 0.001074 0.0
0.978345 1.456261 -0.004005 0.0
2.641906 2.117520 0.002520 0.0
0.973507 0.168949 -0.000675 0.0
2.182125 0.112383 0.004099 0.0
4.099625 2.056961 -0.000264 0.0
2.670815 0.595795 0.000272 0.0
0.085682 1.102204 0.001548 0.0
1.414948 1.224750 -0.001298 0.0
3.591210 1.233918 -0.000521 0.0
0.655200 0.209675 0.002086 0.0
0.707686 0.520637 0.003140 0.0
2.614937 0.806101 -0.001867 0.0
3.797363 0.805318 -0.002259 0.0
2.743228 0.338929 0.003460 0.0
1.918615 0.840310 0.000039 0.0
3.967229 2.028956 0.001619 0.0
1.706644 0.613144 -0.001738 0.0
0.453187 0.756987 0.005599 0.0
2.672851 0.227482 -0.000054 0.0
3.482669 1.452931 -0.000413 0.0
2.223137 0.422219 -0.001132 0.0
3.624151 1.040537 -0.001937 0.0
4.223669 0.788751 -0.000599 0.0
1.386431 1.274598 0.002528 0.0
1.770565 0.326653 0.001177 0.0
0.710703 1.242030 -0.003706 0.0
1.471419 1.582685 -0.001007 0.0
1.705753 0.697690 0.001482 0.0
1.134927 1.646145 0.001560 0.0
2.347276 1.495587 -0.003130 0.0
2.786094 1.217204 0.005021 0.0
1.822182 0.427451 -0.005812 0.0
0.259614 0.920629 0.001746 0.0
2.183309 0.933578 -0.001288 0.0
1.083384 1.130444 0.001302 0.0
1.170797 0.400154 0.002353 0.0
3.238206 0.656706 0.001854 0.0
2.876354 0.508453 -0.003973 0.0
0.471175 0.440413 -0.002238 0.0
0.174928 1.920096 -0.001230 0.0
0.093782 1.082465 -0.002133 0.0
1.011234 0.597802 -0.003031 0.0
1.416318 1.242908 0.000639 0.0
3.518663 0.387852 -0.005240 0.0
0.470893 1.162846 -0.001998 0.0
2.570654 1.630324 -0.001054 0.0
0.671316 1.132287 -0.003202 0.0
2.183949 0.776711 0.003181 0.0
1.834177 1.856734 -0.000074 0.0
1.394619 0.097737 0.000189 0.0
1.297713 0.380764 -0.002502 0.0
