4.43406241 1.50361887 -0.00123656 0.00000000
2.63411135 0.10145428 -0.00080891 0.00000000
1.91011795 0.82598567 0.00134314 0.00000000
4.43681576 1.05707384 0.00102390 0.00000000
2.58711877 1.26280252 0.00237958 0.00000000
2.88537878 1.34792853 0.00041916 0.00000000
4.03618809 1.43524019 -0.00348416 0.00000000
0.55255089 1.69444973 0.00021022 0.00000000
0.69316463 1.37613405 -0.00294414 0.00000000
2.95077361 1.38625917 0.00034701 0.00000000
0.87347180 1.05294053 0.00257071 0.00000000
1.36242326 1.61589089 -0.00177575 0.00000000
0.84217083 1.75757931 0.00173178 0.00000000
4.17490942 0.11416040 -0.00331073 0.00000000
0.71160723 0.84938325 0.00255603 0.00000000
1.94797121 0.98297555 -0.00144172 0.00000000
2.88676696 0.60109965 -0.00142528 0.00000000
2.80357395 1.02212400 0.00005305 0.00000000
1.20403814 1.49634029 -0.00153907 0.00000000
2.16059885 0.81840666 -0.00174543 0.00000000
3.82630296 0.13857477 0.00460825 0.00000000
3.97740461 1.19922039 0.00023439 0.00000000
0.34603183 1.54655656 -0.00097603 0.00000000
3.47078508 1.24924779 -0.00129395 0.00000000
0.66552702 0.55914056 -0.00198999 0.00000000
3.85208856 0.75965553 -0.00192159 0.00000000
1.80374949 1.36075472 0.00110497 0.00000000
2.14538186 1.63385400 -0.00322859 0.00000000
2.03217065 0.68414537 0.00379724 0.00000000
1.84770957 1.37605507 -0.00376338 0.00000000
1.73474113 1.22342021 0.00246147 0.00000000
2.19904363 0.30357527 -0.00160297 0.00000000
1.87648710 1.72093318 0.00048404 0.00000000
2.87359156 1.62956738 -0.00012880 0.00000000
1.22681727 0.04193920 -0.00215475 0.00000000
2.97471578 0.28072122 -0.00308992 0.00000000
1.96887299 0.27026657 0.00313280 0.00000000
0.41023150 0.95128461 0.00051691 0.00000000
3.77570787 0.80272386 -0.00339710 0.00000000
0.69417878 0.91318597 0.00193444 0.00000000
1.18433231 1.08274993 0.00039311 0.00000000
0.29193928 0.14445990 0.00267778 0.00000000
1.61613304 0.63413600 -0.00350592 0.00000000
1.72762199 1.69601008 -0.00311701 0.00000000
3.44257210 0.90770894 0.00401462 0.00000000
0.67105759 1.32716126 -0.00153183 0.00000000
4.25929760 1.11559430 -0.00030955 0.00000000
0.98182016 0.75148128 0.00042976 0.00000000
3.45344998 0.27834267 0.00369238 0.00000000
3.59012751 0.82225635 0.00097450 0.00000000
3.92086494 1.07486159 -0.00070907 0.00000000
2.26749615 1.13252045 -0.00132300 0.00000000
0.76319247 0.18184340 0.00108885 0.00000000
0.53022273 0.17085722 0.00128887 0.00000000
4.21461620 1.21490590 -0.00060477 0.00000000
1.79469835 0.33164328 -0.00128774 0.00000000
1.72021636 0.85728876 -0.00035060 0.00000000
3.72827075 0.64420753 0.00172964 0.00000000
0.19099186 0.68536542 -0.00300241 0.00000000
2.33807078 0.97751307 -0.00605313 0.00000000
0.87783363 1.27275725 0.00199208 0.00000000
2.65364984 0.82407134 0.00198809 0.00000000
3.59102623 0.35387303 -0.00137964 0.00000000
0.12067621 1.50459178 0.00223808 0.00000000
2.52651529 1.65006213 -0.00169343 0.00000000
0.89707918 1.65456135 0.00138566 0.00000000
2.73084290 0.69179869 -0.00151730 0.00000000
1.02699515 0.23150875 0.00023550 0.00000000
2.32422777 0.05551736 -0.00168734 0.00000000
3.90163648 0.15137455 -0.00256842 0.00000000
3.75686678 0.26046283 0.00316945 0.00000000
1.08041804 1.76852152 -0.00191753 0.00000000
2.07751774 0.22112290 -0.00270594 0.00000000
2.16870791 0.53289299 0.00120860 0.00000000
1.72134352 1.64243591 0.00300199 0.00000000
2.18754535 0.02895214 -0.00569897 0.00000000
4.28179016 0.55293976 -0.00134211 0.00000000
2.23611421 0.64578365 -0.00151087 0.00000000
1.59556676 1.10253716 0.00123518 0.00000000
2.65496378 1.78139825 -0.00478582 0.00000000
0.60448159 0.21942592 0.00162787 0.00000000
3.75915660 0.11221153 -0.00342417 0.00000000
1.99598083 0.46364486 -0.00441658 0.00000000
1.07216392 1.08819939 -0.00641499 0.00000000
0.80706460 0.47562910 0.00593495 0.00000000
2.60066804 0.34607581 -0.00129151 0.00000000
2.94012196 0.28242018 -0.00230706 0.00000000
0.11406302 0.14636551 -0.00078308 0.00000000
4.36289859 1.14682734 0.00361330 0.00000000
0.42526901 1.43524815 -0.00195204 0.00000000
0.24420759 0.27990490 0.00145739 0.00000000
1.87810686 0.47576892 -0.00348927 0.00000000
1.66372029 1.17308771 0.00145096 0.00000000
3.65280015 0.14045705 -0.00394526 0.00000000
2.58435732 0.01717910 0.00274180 0.00000000
1.18310856 1.04901637 0.00162841 0.00000000
1.65176453 0.28088026 -0.00143146 0.00000000
0.56598923 0.33068237 0.00018267 0.00000000
3.79521810 0.31665310 0.00022305 0.00000000
0.33374788 1.38461763 0.00161853 0.00000000
2.22807105 0.34492801 -0.00043589 0.00000000
1.08059637 1.47919994 -0.00260740 0.00000000
1.01110116 1.27976138 0.00156776 0.00000000
0.07519207 1.08578823 -0.00018597 0.00000000
0.00080989 0.58046294 -0.00031920 0.00000000
3.58114575 0.37300825 0.00347233 0.00000000
0.29448028 1.29401836 0.00179854 0.00000000
2.56549485 0.91769066 -0.00149806 0.00000000
2.10234554 1.18495614 0.00437596 0.00000000
0.45050325 0.68607715 0.00271200 0.00000000
1.58110290 1.00774908 -0.00059752 0.00000000
2.20589104 0.89278385 0.00231306 0.00000000
4.32140574 1.09121599 0.00120387 0.00000000
1.20668777 1.02591324 -0.00008198 0.00000000
0.91698013 0.48039214 -0.00050301 0.00000000
1.49533642 1.58050308 0.00427762 0.00000000
3.76224888 0.31448188 0.00185833 0.00000000
0.90006423 1.52596697 0.00011240 0.00000000
3.07853594 1.56984577 0.00018952 0.00000000
0.10612385 1.34148880 0.00118671 0.00000000
2.35460375 0.53901607 -0.00131905 0.00000000
0.10970731 0.69630243 -0.00305806 0.00000000
3.89755055 1.14481435 0.00196566 0.00000000
2.06856939 1.69398834 -0.00327349 0.00000000
2.35815531 1.47048428 -0.00097062 0.00000000
1.08158748 0.23990215 -0.00152958 0.00000000
2.97182896 1.06161240 0.00030080 0.00000000
2.42369638 0.77609062 0.00457198 0.00000000
1.97018455 0.38014063 -0.00080688 0.00000000
0.68117062 0.38917314 0.00222481 0.00000000
0.95932992 0.07932491 -0.00147925 0.00000000
0.89530466 1.56280288 -0.00051493 0.00000000
1.03175505 0.66997700 0.00248950 0.00000000
1.09796476 1.38881635 0.00066097 0.00000000
3.46685578 0.46571085 0.00121762 0.00000000
1.50790096 0.68212199 0.00005373 0.00000000
2.14182194 1.29045318 0.00074855 0.00000000
0.80709585 1.67057629 0.00069105 0.00000000
0.75155050 1.06150200 0.00126692 0.00000000
4.35043190 0.66811407 0.00009112 0.00000000
3.90936604 1.14098995 0.00263468 0.00000000
3.65631182 1.10647301 0.00062202 0.00000000
1.32907883 1.54888970 -0.00158632 0.00000000
1.59529435 0.21228635 -0.00241553 0.00000000
1.31061285 0.49473748 -0.00241422 0.00000000
3.23520202 1.51949255 0.00218584 0.00000000
3.89990130 0.32147188 -0.00095541 0.00000000
1.84648578 0.49939113 0.00241157 0.00000000
1.55512798 0.26262986 0.00318656 0.00000000
1.12958141 0.75133433 -0.00063667 0.00000000
2.02555063 0.57773412 -0.00047207 0.00000000
1.76127767 0.10426360 0.00179848 0.00000000
4.14493787 1.35307742 0.00144888 0.00000000
4.01859111 0.65083438 0.00164586 0.00000000
2.91185878 0.16910782 -0.00066203 0.00000000
1.47954686 0.18900864 -0.00011285 0.00000000
2.24053936 1.05311252 0.00357268 0.00000000
1.28826695 1.28359653 0.00136673 0.00000000
1.73102348 0.07429168 -0.00547825 0.00000000
2.24718410 1.05097366 0.00043035 0.00000000
4.15655552 1.56450156 -0.00194912 0.00000000
4.11800987 0.55180942 -0.00093656 0.00000000
4.40836787 0.13716964 -0.00275436 0.00000000
2.01303790 1.28723819 -0.00147823 0.00000000
3.51540565 0.54040079 0.00397819 0.00000000
0.30544891 0.03554423 -0.00247866 0.00000000
2.45388336 0.10215914 -0.00367303 0.00000000
0.36416190 0.07486782 0.00080319 0.00000000
4.30463003 1.38731611 0.00029875 0.00000000
2.71042521 0.61718491 0.00122033 0.00000000
1.33985011 1.06672807 -0.00007852 0.00000000
0.74725598 0.82104295 0.00269115 0.00000000
3.98922734 0.05211051 0.00302493 0.00000000
3.91561466 0.29220045 -0.00094232 0.00000000
2.20726870 0.29725185 -0.00462180 0.00000000
1.20944012 0.43638906 0.00121915 0.00000000
0.59719213 0.15466564 -0.00106691 0.00000000
0.03285015 0.43534227 -0.00452981 0.00000000
1.86334794 0.47172608 0.00527261 0.00000000
4.27237604 1.78375784 0.00271177 0.00000000
0.90490409 1.52044268 -0.00169817 0.00000000
1.71493720 0.00743157 0.00415985 0.00000000
1.91949372 0.65255094 0.00544147 0.00000000
1.86780033 1.23752025 -0.00022061 0.00000000
1.38846315 1.38230437 -0.00203671 0.00000000
1.42265184 0.32123226 -0.00156097 0.00000000
3.66568942 1.60498435 -0.00131454 0.00000000
3.05501128 0.68899632 0.00136728 0.00000000
0.71875501 0.55702485 0.00099240 0.00000000
1.77743912 1.05037844 0.00295018 0.00000000
1.41801452 1.00821411 -0.00007313 0.00000000
4.10202154 1.23397678 0.00099754 0.00000000
0.03793507 1.00268219 0.00219630 0.00000000
2.33836986 0.64180312 0.00014770 0.00000000
0.29376066 1.39500038 -0.00097711 0.00000000
2.67967369 0.53852086 0.00666628 0.00000000
3.27715614 1.19476122 -0.00022939 0.00000000
2.43516133 0.79553268 -0.00170240 0.00000000
2.03059717 0.51437862 -0.00208436 0.00000000
1.62850821 1.01940413 0.00059035 0.00000000
1.50421392 1.43731446 -0.00013469 0.00000000
0.32027069 0.84496408 -0.00360780 0.00000000
2.41701545 1.24616772 -0.00240177 0.00000000
1.58975662 1.26568275 -0.00116599 0.00000000
0.91096101 1.49637911 -0.00171969 0.00000000
1.25199801 0.28035886 0.00239410 0.00000000
1.39544676 0.74097259 0.00042271 0.00000000
3.23080202 1.19456074 0.00052185 0.00000000
3.53562247 1.35178122 -0.00538419 0.00000000
1.02634749 0.36394091 -0.00149782 0.00000000
1.85748995 1.20573760 0.00076240 0.00000000
0.08835425 0.00710696 -0.00272055 0.00000000
1.84865732 0.97347357 -0.00081909 0.00000000
0.39522905 1.35673093 0.00132169 0.00000000
3.09486087 1.62888188 0.00028491 0.00000000
1.53841899 1.26928171 0.00370992 0.00000000
2.28035358 0.06375784 0.00016524 0.00000000
0.16572741 1.63810248 0.00649331 0.00000000
3.14587311 0.82239851 0.00023747 0.00000000
3.30730492 0.43296564 0.00313772 0.00000000
3.76732325 0.23958717 0.00050541 0.00000000
0.19283424 0.91768966 0.00316857 0.00000000
3.30608948 0.92828394 0.00133022 0.00000000
2.14963111 1.19647142 0.00110259 0.00000000
3.74737124 0.08743734 0.00047078 0.00000000
2.05300500 0.74786583 -0.00099211 0.00000000
0.24169681 0.64396025 -0.00072172 0.00000000
2.63687046 1.52007123 -0.00024633 0.00000000
2.38430791 1.46010381 0.00148819 0.00000000
2.14780122 1.57504015 0.00170789 0.00000000
2.31221323 0.61325872 -0.00664084 0.00000000
0.83390599 1.28650752 -0.00284146 0.00000000
2.13508629 1.71937842 -0.00341459 0.00000000
0.06069466 0.85163853 -0.00195880 0.00000000
0.09400041 0.21387799 0.00278131 0.00000000
0.07725286 1.29913685 0.00074865 0.00000000
0.37194073 0.17356258 -0.00259388 0.00000000
3.07601749 0.76127784 0.00007228 0.00000000
0.39037755 0.51449175 -0.00163753 0.00000000
3.82741153 0.63356551 0.00117026 0.00000000
1.78278942 1.50379882 -0.00050153 0.00000000
1.31804603 1.68562195 0.00031765 0.00000000
3.82559872 1.52789747 0.00192714 0.00000000
1.54073052 1.59129527 0.00338557 0.00000000
3.42897177 1.16944859 0.00217737 0.00000000
2.00350276 1.34303938 0.00019974 0.00000000
2.37527735 0.99185594 -0.00211713 0.00000000
0.40514561 0.57655325 -0.00210248 0.00000000
0.14478050 0.02955547 0.00082935 0.00000000
3.44318549 1.71700422 -0.00229231 0.00000000
3.91043526 1.40222459 0.00067883 0.00000000
1.05865571 1.04566373 0.00039555 0.00000000
4.05453085 0.27913866 0.00109307 0.00000000
1.01883573 1.61760923 0.00264476 0.00000000
2.01949579 1.78514034 -0.00137899 0.00000000
1.18728356 1.28480119 -0.00212064 0.00000000
3.02510751 1.45756582 -0.00114800 0.00000000
1.63918246 1.07883801 0.00122310 0.00000000
2.70364555 0.95709656 -0.00065767 0.00000000
2.13988091 1.51145717 0.00168787 0.00000000
4.32111035 1.27409965 -0.00738086 0.00000000
1.56170715 1.44788799 0.00061977 0.00000000
1.03941941 0.67845673 -0.00310870 0.00000000
3.90266130 1.57432460 0.00385883 0.00000000
3.02450092 0.24402378 -0.00299412 0.00000000
0.34496638 0.14835380 0.00035750 0.00000000
1.68298592 0.10893062 0.00240724 0.00000000
1.87582715 1.66745444 0.00227800 0.00000000
2.06667706 1.02287429 -0.00138927 0.00000000
0.53357556 0.01783963 0.00095018 0.00000000
0.24538885 1.62875331 0.00148834 0.00000000
0.48059858 0.38635666 -0.00123830 0.00000000
2.09394412 1.25144581 -0.00559992 0.00000000
3.65981015 1.14967596 0.00136504 0.00000000
0.36483123 0.00687685 0.00195937 0.00000000
3.90259004 1.24010809 -0.00136792 0.00000000
1.85677284 0.11913049 0.00407042 0.00000000
3.31367094 1.56830985 0.00145995 0.00000000
0.32168105 0.62724184 0.00039257 0.00000000
4.34238257 0.44126392 -0.00232363 0.00000000
0.11019467 0.34547150 0.00362623 0.00000000
3.88248079 1.58732544 0.00485171 0.00000000
0.74158456 0.46927211 -0.00015011 0.00000000
4.00780149 0.47031135 -0.00358641 0.00000000
3.83196632 0.47082550 -0.00295106 0.00000000
4.24947321 0.87625402 -0.00184560 0.00000000
3.13748843 0.01603314 -0.00176416 0.00000000
2.81592623 1.38524333 0.00215440 0.00000000
0.92421240 1.64736074 0.00047468 0.00000000
3.94887332 1.25663078 0.00470185 0.00000000
4.07852789 0.28674860 -0.00038993 0.00000000
4.35606382 0.27601488 -0.00022252 0.00000000
3.18164299 1.05526586 0.00235767 0.00000000
4.30656520 1.02258144 -0.00432960 0.00000000
0.55304968 1.78539997 -0.00224106 0.00000000
0.93005838 0.27471449 -0.00119042 0.00000000
0.41535377 0.10389341 -0.00038509 0.00000000
4.11521539 0.42950380 -0.00148463 0.00000000
1.08312938 1.29230264 -0.00215759 0.00000000
0.56082344 0.22315052 0.00190298 0.00000000
1.06464477 1.73611464 -0.00232547 0.00000000
2.67062038 0.79837027 -0.00186975 0.00000000
3.83800042 1.08502046 0.00137453 0.00000000
1.63381570 0.97738423 -0.00213099 0.00000000
1.04517113 0.38334021 -0.00023956 0.00000000
2.19819799 1.49095843 -0.00257635 0.00000000
3.17009416 0.90761046 -0.00010315 0.00000000
1.87620590 0.24449604 -0.00023778 0.00000000
3.09137171 0.95898334 -0.00466045 0.00000000
0.83930104 0.16850974 0.00027446 0.00000000
1.77404736 1.32509349 -0.00041642 0.00000000
1.40470127 0.49213460 -0.00468707 0.00000000
2.56539520 0.06069911 -0.00187775 0.00000000
2.45776867 1.47417220 0.00003455 0.00000000
2.45715371 0.62251271 -0.00060848 0.00000000
0.74510898 0.34704034 0.00149752 0.00000000
1.37288410 1.28505563 -0.00364234 0.00000000
3.26374328 1.14116058 -0.00160145 0.00000000
2.67372509 0.78914391 0.00167067 0.00000000
4.06293892 1.25701764 0.00293478 0.00000000
0.90540982 0.24932475 0.00195434 0.00000000
2.20277839 0.33024868 0.00195453 0.00000000
2.79833157 1.58337310 0.00104369 0.00000000
0.16705552 0.27535133 -0.00152694 0.00000000
0.07133498 1.59307076 -0.00039607 0.00000000
1.20836182 1.72535119 -0.00002288 0.00000000
0.39229392 0.09588092 -0.00085130 0.00000000
1.58822221 0.78530794 -0.00161205 0.00000000
1.13936030 0.44218630 -0.00002687 0.00000000
2.61500448 0.40240493 0.00053199 0.00000000
0.96785657 1.03968166 0.00445061 0.00000000
0.28068312 0.39837020 0.00357530 0.00000000
2.64955492 0.40021158 -0.00096198 0.00000000
0.84707395 0.18200022 0.00261854 0.00000000
0.14940896 0.69788733 -0.00053625 0.00000000
0.23241568 0.76473386 0.00060060 0.00000000
3.63771029 0.37408137 -0.00030487 0.00000000
3.81341204 1.46247346 -0.00168421 0.00000000
0.18351802 1.11691672 0.00562474 0.00000000
3.04261927 0.71075886 0.00121471 0.00000000
1.77595823 1.72561372 0.00017474 0.00000000
0.36676770 1.17129790 0.00110580 0.00000000
4.31338612 0.53205972 -0.00066174 0.00000000
1.25744751 1.26338269 -0.00418908 0.00000000
2.67660550 0.07601176 0.00196267 0.00000000
3.58346603 1.50168598 -0.00145946 0.00000000
2.42926748 0.44136054 -0.00232477 0.00000000
1.12288671 0.25137048 0.00116678 0.00000000
0.64004548 1.45328260 -0.00425204 0.00000000
2.83768977 0.50825469 0.00034369 0.00000000
2.82283183 1.01145708 0.00101898 0.00000000
0.99343230 1.52164833 0.00037584 0.00000000
0.80141245 1.12032080 -0.00080818 0.00000000
0.20593467 0.87906412 -0.00388798 0.00000000
3.75416965 0.69581595 0.00188188 0.00000000
2.30627342 0.89196605 0.00338856 0.00000000
4.10234910 0.63546978 0.00054155 0.00000000
0.73258508 0.01593752 -0.00552476 0.00000000
4.05221087 0.82376931 0.00197229 0.00000000
0.03215818 1.59680078 -0.00151055 0.00000000
0.93358244 0.86038902 -0.00184207 0.00000000
3.24173692 0.22492319 0.00035529 0.00000000
0.59583442 0.73781571 0.00013639 0.00000000
2.50403296 1.40179821 0.00040124 0.00000000
1.50341811 0.23040174 0.00311435 0.00000000
0.83340789 1.27452900 -0.00240668 0.00000000
2.23113339 0.58481818 0.00389824 0.00000000
1.32125295 0.50284125 -0.00018728 0.00000000
0.30357130 1.51238770 0.00062370 0.00000000
0.77755393 0.38724039 -0.00162078 0.00000000
4.39457278 0.70066676 -0.00076909 0.00000000
3.43970389 1.27469597 0.00095681 0.00000000
2.20508306 0.35006669 0.00261679 0.00000000
0.96116141 1.17691108 0.00318311 0.00000000
2.06657460 0.68648320 -0.00294698 0.00000000
2.97037206 0.85681971 0.00352927 0.00000000
3.26603879 0.80935361 0.00296236 0.00000000
0.60401072 0.92470013 -0.00019694 0.00000000
3.37562821 1.57962972 0.00280864 0.00000000
0.88070146 0.34281291 -0.00004310 0.00000000
2.49809944 1.73969311 -0.00312973 0.00000000
0.90980744 0.39200799 0.00086961 0.00000000
0.75999616 0.84560187 -0.00491899 0.00000000
1.75015923 0.37194443 0.00148240 0.00000000
2.01165503 1.70643927 0.00007114 0.00000000
3.74513651 1.48741327 -0.00152746 0.00000000
0.01794070 1.67885112 -0.00242926 0.00000000
2.97515239 1.04216903 0.00343152 0.00000000
3.08559500 0.67714298 0.00104574 0.00000000
1.55092609 0.67708437 0.00131741 0.00000000
4.19965210 1.47472568 0.00011706 0.00000000
2.60178673 0.80615159 -0.00085593 0.00000000
0.34993682 0.50471600 -0.00102123 0.00000000
4.08183049 0.74311077 -0.00345308 0.00000000
2.65278260 0.78464091 0.00061775 0.00000000
2.05671649 0.88784408 -0.00148377 0.00000000
3.53861477 0.17425523 0.00606281 0.00000000
3.15443550 1.55297256 0.00736527 0.00000000
2.38892662 1.17029210 -0.00095973 0.00000000
1.64717421 0.78465145 0.00231345 0.00000000
2.81067102 1.63133979 -0.00164361 0.00000000
4.21553201 0.45849302 -0.00289621 0.00000000
2.34998588 0.51262539 0.00505052 0.00000000
0.98974955 0.80841387 0.00216260 0.00000000
0.96536302 0.88533479 -0.00115214 0.00000000
0.32013244 1.07529277 -0.00123057 0.00000000
4.40376924 0.36737321 0.00152812 0.00000000
3.99964031 1.40422342 -0.00085176 0.00000000
3.38549283 0.58335072 -0.00016310 0.00000000
2.60508856 0.28533230 -0.00221783 0.00000000
1.16413422 1.19254175 0.00251469 0.00000000
2.44046954 1.63555005 -0.00055838 0.00000000
1.50621081 0.08629180 0.00386309 0.00000000
0.89006634 0.53317593 -0.00336805 0.00000000
1.65345356 1.21995668 0.00094389 0.00000000
3.68077283 0.20023981 -0.00079903 0.00000000
4.42042842 1.29461017 -0.00202582 0.00000000
0.37927831 0.43714051 -0.00127287 0.00000000
3.46220927 0.98345027 -0.00582390 0.00000000
1.54034012 1.22965304 0.00434932 0.00000000
3.40228970 0.11309911 0.00215381 0.00000000
0.77289886 1.50890056 0.00054703 0.00000000
4.35632370 1.24946675 -0.00010157 0.00000000
4.14001580 1.47494260 0.00016241 0.00000000
3.61487354 1.26053258 -0.00168116 0.00000000
2.79242297 0.29393645 0.00313651 0.00000000
2.62554341 0.09607235 0.00057052 0.00000000
4.10640711 0.45844596 0.00221116 0.00000000
1.85043552 1.70755118 0.00239704 0.00000000
1.65611214 0.76753521 -0.00034872 0.00000000
2.21676851 0.72234973 -0.00405170 0.00000000
3.15325615 0.53252172 0.00082307 0.00000000
2.41574196 0.90887153 -0.00282388 0.00000000
2.83529921 0.09152623 0.00058062 0.00000000
1.25525884 1.59321048 0.00235071 0.00000000
0.47789888 0.61399283 -0.00134220 0.00000000
1.73978313 1.56830898 -0.00160196 0.00000000
2.99735952 1.49208603 0.00321869 0.00000000
0.88230386 0.70718341 -0.00170778 0.00000000
0.05448792 1.32508300 -0.00453981 0.00000000
1.85834481 0.12379877 0.00234586 0.00000000
1.05038395 0.54990147 -0.00456022 0.00000000
2.46020904 0.47439304 -0.00103277 0.00000000
2.70008836 1.71417094 0.00046335 0.00000000
2.50757257 0.05312323 0.00171792 0.00000000
2.03030646 1.46037182 0.00028538 0.00000000
3.99474481 1.02346606 -0.00069407 0.00000000
1.34453904 0.12862607 -0.00057703 0.00000000
0.30019989 0.68225174 0.00121936 0.00000000
4.27837866 1.58687412 -0.00111524 0.00000000
2.86550111 1.39708403 0.00194554 0.00000000
1.07476304 1.75598589 -0.00212203 0.00000000
3.88485250 0.47861598 -0.00446495 0.00000000
1.39949473 1.24879608 0.00074051 0.00000000
2.27873697 0.35799919 -0.00134506 0.00000000
0.12332650 1.35330781 0.00179969 0.00000000
2.57197272 0.26324362 -0.00276684 0.00000000
2.44355388 1.27197734 -0.00032343 0.00000000
0.79237658 0.79944556 0.00176221 0.00000000
1.13750865 1.07193046 0.00076180 0.00000000
3.82614194 0.77138704 0.00322575 0.00000000
0.64916953 0.86446405 -0.00029660 0.00000000
3.40938690 0.81073519 -0.00149646 0.00000000
3.06881085 1.05201107 0.00028034 0.00000000
1.92276700 0.27151618 0.00216686 0.00000000
3.25492599 0.21801275 -0.00032860 0.00000000
0.47153587 1.55604907 -0.00310864 0.00000000
1.53244669 0.49836160 0.00111833 0.00000000
2.98751740 1.35137586 -0.00340778 0.00000000
2.28116225 0.01780993 -0.00308867 0.00000000
0.73107386 0.76333243 -0.00408357 0.00000000
0.27798403 1.17850264 -0.00261584 0.00000000
3.35985785 1.49337697 0.00116957 0.00000000
2.56831080 1.41636636 -0.00302644 0.00000000
1.05861512 0.20282763 0.00012941 0.00000000
1.26684553 0.18691767 0.00011920 0.00000000
1.93229557 1.71129274 0.00119368 0.00000000
3.28225924 1.22470488 -0.00303430 0.00000000
3.41892603 1.09175938 0.00150619 0.00000000
0.35000029 0.06724595 0.00739186 0.00000000
1.19318969 0.38098288 0.00058416 0.00000000
2.05210969 0.20320764 -0.00075724 0.00000000
1.29538584 0.85928169 -0.00460521 0.00000000
3.34087864 1.30136800 -0.00226422 0.00000000
3.84994499 0.00384275 -0.00314912 0.00000000
3.21143700 0.55079559 -0.00249098 0.00000000
3.01150743 0.97726140 -0.00444950 0.00000000
0.94962098 1.21334349 0.00155911 0.00000000
3.81807116 0.50775542 -0.00083969 0.00000000
3.27659383 1.46534077 -0.00459899 0.00000000
2.17575069 1.58785053 0.00418487 0.00000000
2.31758441 0.39943162 -0.00216692 0.00000000
3.70650984 1.70356570 -0.00232648 0.00000000
0.21693165 1.04597142 0.00130988 0.00000000
2.78774405 0.80549992 -0.00406566 0.00000000
1.69110013 1.08086694 0.00224984 0.00000000
1.65865419 1.45744930 -0.00236411 0.00000000
0.01086902 0.01788435 -0.00061037 0.00000000
1.05114495 1.27103742 0.00042891 0.00000000
2.46880626 1.45559271 0.00030904 0.00000000
0.22323240 0.20323596 -0.00193060 0.00000000
1.44190645 1.66793670 -0.00123978 0.00000000
1.95835367 1.38533916 -0.00243826 0.00000000
0.51942104 1.35509044 -0.00080173 0.00000000
0.53196162 0.52434843 0.00431197 0.00000000
0.58659798 1.33819486 -0.00162563 0.00000000
4.25094733 0.99422554 0.00072193 0.00000000
0.90664047 0.46402186 -0.00052010 0.00000000
4.41963717 1.34982440 0.00197336 0.00000000
4.18985481 1.12235871 -0.00540101 0.00000000
0.86957086 1.50995549 -0.00052834 0.00000000
3.32544751 1.46881580 -0.00135904 0.00000000
0.00325971 0.10826872 -0.00240594 0.00000000
1.25733235 1.11969574 -0.00131872 0.00000000
0.10873077 0.99190831 -0.00032017 0.00000000
4.35906402 0.66266998 0.00097985 0.00000000
2.90705623 1.12356308 -0.00094065 0.00000000
2.77369988 1.50371711 0.00269193 0.00000000
3.48956700 1.01056256 -0.00086512 0.00000000
3.13984183 0.46271191 0.00201762 0.00000000
3.14313225 0.49655354 0.00082505 0.00000000
2.46878676 0.35995570 0.00231403 0.00000000
1.94797147 0.14968907 -0.00301646 0.00000000
0.37737817 0.45601747 0.00474701 0.00000000
2.05861831 0.43811664 -0.00374424 0.00000000
2.99287862 0.20884912 0.00326934 0.00000000
0.76761919 0.24217672 -0.00048932 0.00000000
0.56571934 1.43734377 0.00296576 0.00000000
1.30870088 0.27005217 0.00032254 0.00000000
2.46309084 1.51894760 -0.00206271 0.00000000
3.05892424 0.27679509 -0.00216486 0.00000000
4.20100016 0.81967946 0.00020809 0.00000000
4.08772108 0.08321789 -0.00061113 0.00000000
3.90329820 1.09181203 -0.00292982 0.00000000
0.66612257 0.68551372 -0.00052851 0.00000000
0.60045199 0.45637752 -0.00146020 0.00000000
2.68359134 1.35794408 0.00126977 0.00000000
2.59144347 0.43282489 -0.00159588 0.00000000
1.01927655 0.28205261 0.00178701 0.00000000
3.96925439 0.46416110 -0.00025767 0.00000000
0.38960452 0.36629895 0.00164117 0.00000000
1.37323348 0.45460372 0.00384936 0.00000000
2.15940284 0.70448225 0.00346377 0.00000000
0.66502128 0.86853042 0.00081158 0.00000000
2.73980331 0.81048310 0.00079415 0.00000000
1.20622536 1.55575420 0.00117215 0.00000000
4.04850405 0.85376272 0.00027619 0.00000000
1.68899144 1.40688698 0.00212385 0.00000000
3.79646065 0.10016151 -0.00013411 0.00000000
3.98677020 1.18340494 0.00064451 0.00000000
2.82800399 1.68276060 -0.00488234 0.00000000
2.07560133 0.18908527 0.00028964 0.00000000
0.41490088 0.63765552 -0.00165668 0.00000000
1.07655574 1.02189075 0.00048675 0.00000000
2.48194687 1.48416832 0.00832782 0.00000000
0.32604568 1.11395787 -0.00105064 0.00000000
1.64212307 0.52398141 0.00178573 0.00000000
3.37143437 0.22934200 -0.00080606 0.00000000
0.46515292 1.57348639 0.00496023 0.00000000
1.28250437 -0.00011652 0.00161321 1.00000000
3.91645191 0.00175317 0.00053748 1.00000000
1.26630676 -0.00270192 0.00323526 1.00000000
2.65606911 0.00039749 -0.00257374 1.00000000
0.90967958 -0.00143705 -0.00061537 1.00000000
3.03769092 0.00061941 -0.00137350 1.00000000
4.31604260 -0.00785737 -0.00305019 1.00000000
1.37188217 -0.00127915 -0.00068197 1.00000000
2.08574816 0.00236727 -0.00396967 1.00000000
1.58929192 0.00484318 0.00171481 1.00000000
0.76851398 0.00249056 0.00220940 1.00000000
1.54227058 -0.00024238 0.00020026 1.00000000
3.43832968 0.00146723 0.00210171 1.00000000
1.39357921 -0.00196659 0.00074625 1.00000000
1.19626250 -0.00431616 0.00120116 1.00000000
2.35159404 -0.00056249 -0.00338166 1.00000000
3.24498613 -0.00246671 0.00164674 1.00000000
2.08033991 0.00285027 0.00050758 1.00000000
0.39965294 -0.00062634 -0.00304058 1.00000000
0.67847146 0.00298675 0.00196232 1.00000000
3.91404427 0.00131645 0.00290720 1.00000000
1.36319488 -0.00143609 0.00216428 1.00000000
4.07827021 -0.00237322 -0.00491036 1.00000000
1.81527792 -0.00128524 -0.00163793 1.00000000
1.28243146 -0.00133060 -0.00209852 1.00000000
0.54586135 0.00233351 -0.00309163 1.00000000
3.39192331 -0.00094135 -0.00284150 1.00000000
0.12490912 -0.00263830 0.00308827 1.00000000
2.37226510 0.00487026 -0.00027192 1.00000000
0.46019268 -0.00147074 -0.00041267 1.00000000
0.57695471 -0.00202641 -0.00195413 1.00000000
3.57155661 -0.00050425 -0.00064125 1.00000000
1.80347386 -0.00262854 -0.00076234 1.00000000
0.00284634 0.00285213 -0.00042576 1.00000000
1.15602558 -0.00030450 -0.00146012 1.00000000
3.15186894 0.00159596 0.00306939 1.00000000
3.49685393 0.00349169 0.00041091 1.00000000
0.82090275 0.00335254 -0.00147852 1.00000000
0.54307303 -0.00074338 -0.00553399 1.00000000
2.72523749 -0.00540406 -0.00321273 1.00000000
0.58531477 0.00097266 -0.00195709 1.00000000
2.32747697 0.00282199 0.00380946 1.00000000
2.72683619 0.00192975 -0.00574213 1.00000000
0.77491835 -0.00426183 -0.00343129 1.00000000
3.49666934 -0.00377069 -0.00093800 1.00000000
1.72652615 0.00305535 -0.00107805 1.00000000
1.13295997 0.00129745 -0.00103855 1.00000000
0.73515642 -0.00040908 -0.00178606 1.00000000
2.43890420 0.00333944 0.00141558 1.00000000
4.10794996 -0.00033966 -0.00178903 1.00000000
0.61419359 -0.00122334 0.00063016 1.00000000
1.23404564 -0.00089312 -0.00247338 1.00000000
2.53940854 0.00366484 0.00038806 1.00000000
4.26045998 -0.00224733 0.00262982 1.00000000
1.50622563 -0.00020956 -0.00076960 1.00000000
3.21870625 -0.00283831 -0.00261218 1.00000000
3.94759698 0.00038599 -0.00008133 1.00000000
1.82911777 0.00066497 -0.00128248 1.00000000
0.10454589 -0.00365415 0.00472986 1.00000000
1.44419369 0.00364890 -0.00091596 1.00000000
3.40907449 0.00258535 0.00129992 1.00000000
0.56362517 0.00156670 -0.00416248 1.00000000
2.43792602 0.00085883 0.00331563 1.00000000
0.44768548 -0.00291235 0.00071498 1.00000000
1.76465249 -0.00080272 -0.00269245 1.00000000
0.80038758 0.00321357 -0.00632766 1.00000000
0.40645567 0.00286468 -0.00168380 1.00000000
3.82533564 0.00220553 -0.00276143 1.00000000
0.62160995 -0.00133985 0.00032096 1.00000000
1.53502432 -0.00200348 -0.00379183 1.00000000
1.92903275 -0.00111761 0.00305617 1.00000000
2.94744754 -0.00237246 -0.00220758 1.00000000
1.20826131 0.00242327 -0.00324239 1.00000000
4.19704128 -0.00104784 -0.00268644 1.00000000
2.25468276 0.00379852 0.00367892 1.00000000
2.39976973 0.00074447 0.00588947 1.00000000
1.45341926 -0.00154014 -0.00397844 1.00000000
3.04532012 -0.00070535 -0.00206489 1.00000000
2.51038343 0.00062266 -0.00103617 1.00000000
0.53286526 -0.00083287 -0.00357532 1.00000000
3.13548559 0.00355240 0.00177702 1.00000000
3.11062729 -0.00062927 -0.00332841 1.00000000
2.92263034 -0.00300237 -0.00060944 1.00000000
2.88990116 -0.00162306 -0.00068985 1.00000000
1.11597177 0.00073471 -0.00100376 1.00000000
3.46172733 0.00135294 -0.00065361 1.00000000
1.59348942 0.00422355 0.00169597 1.00000000
0.62093702 0.00098231 0.00060466 1.00000000
3.88737653 -0.00159860 0.00275268 1.00000000
3.69519313 0.00146940 0.00007418 1.00000000
1.08655209 0.00520183 0.00216624 1.00000000
2.79877954 -0.00188132 0.00111287 1.00000000
3.35319849 -0.00492834 -0.00337158 1.00000000
1.16527873 -0.00285767 0.00221753 1.00000000
1.50785509 -0.00299960 -0.00525278 1.00000000
0.61727844 -0.00162016 0.00116992 1.00000000
3.94490152 0.00213987 -0.00093255 1.00000000
0.13504060 -0.00030354 0.00040265 1.00000000
2.99862099 -0.00009669 -0.00234902 1.00000000
3.31791060 -0.00250588 -0.00387123 1.00000000
4.17920736 -0.00064385 -0.00417170 1.00000000
4.22191423 0.00457161 0.00130986 1.00000000
3.69027252 0.00132523 -0.00251819 1.00000000
2.36932323 0.00042804 -0.00068711 1.00000000
3.13108310 0.00131099 -0.00374987 1.00000000
0.92910964 0.00236191 -0.00195987 1.00000000
0.02885290 -0.00180849 0.00116923 1.00000000
2.34885846 -0.00230755 0.00330996 1.00000000
3.90915734 0.00046203 -0.00335577 1.00000000
3.65028023 -0.00361794 0.00026020 1.00000000
0.48128277 0.00286052 0.00109088 1.00000000
2.01913817 0.00216964 0.00329652 1.00000000
0.98796194 0.00242143 -0.00019056 1.00000000
2.72891394 -0.00061702 -0.00191771 1.00000000
1.87979047 0.00033073 0.00141096 1.00000000
1.68618373 -0.00001010 0.00196692 1.00000000
1.20712177 -0.00078374 0.00095374 1.00000000
2.57390303 0.00299761 0.00125216 1.00000000
1.17503734 0.00108119 0.00236073 1.00000000
2.88156500 -0.00258530 0.00244590 1.00000000
3.78682801 -0.00134554 0.00056290 1.00000000
2.37760539 -0.00095058 -0.00631115 1.00000000
2.01133954 -0.00075457 -0.00347190 1.00000000
1.75680867 -0.00280869 -0.00170528 1.00000000
1.49352460 -0.00120287 -0.00000765 1.00000000
2.45798776 0.00068176 0.00290688 1.00000000
4.16130700 -0.00175785 -0.00467424 1.00000000
0.40556776 0.00077949 -0.00322941 1.00000000
0.60896016 0.00447264 -0.00059744 1.00000000
1.98188903 -0.00215614 0.00325701 1.00000000
3.98978070 -0.00185692 0.00243122 1.00000000
1.34559315 -0.00083263 -0.00574685 1.00000000
1.88152669 0.00073578 -0.00201801 1.00000000
3.14459281 0.00354712 0.00311843 1.00000000
3.06851001 -0.00227325 0.00172882 1.00000000
3.98812405 0.00147695 0.00069958 1.00000000
2.04436288 0.00281959 -0.00225766 1.00000000
3.56980962 0.00122713 -0.00125781 1.00000000
3.36500238 -0.00220929 -0.00197516 1.00000000
3.60303844 -0.00433549 -0.00168022 1.00000000
1.37316828 0.00029302 -0.00166477 1.00000000
3.11649854 0.00013558 -0.00118909 1.00000000
1.10219937 -0.00116908 0.00474646 1.00000000
4.43614870 -0.00008939 0.00166950 1.00000000
0.52658722 -0.00041601 -0.00380475 1.00000000
1.55264161 -0.00139580 -0.00303047 1.00000000
2.59935529 0.00054295 0.00062468 1.00000000
2.51973458 0.00202220 0.00308728 1.00000000
0.40391060 0.00014162 0.00046026 1.00000000
0.58236201 -0.00183457 -0.00080024 1.00000000
0.43953693 -0.00005471 0.00078369 1.00000000
3.26230623 0.00263387 0.00162340 1.00000000
3.53233568 -0.00534748 0.00059210 1.00000000
3.72523621 -0.00114042 -0.00429940 1.00000000
1.84673088 0.00349427 -0.00041464 1.00000000
3.28398258 0.00083669 -0.00085297 1.00000000
1.62964779 -0.00174634 -0.00497365 1.00000000
1.49062338 0.00194591 -0.00056216 1.00000000
0.22313420 -0.00034472 0.00331781 1.00000000
2.13959878 -0.00679183 0.00045196 1.00000000
3.16353721 -0.00107860 -0.00424634 1.00000000
0.67885022 0.00185138 -0.00034530 1.00000000
0.98925709 -0.00173554 -0.00096224 1.00000000
2.77972084 0.00127725 0.00436432 1.00000000
0.42374825 -0.00196392 -0.00011168 1.00000000
2.85075093 -0.00147069 0.00065878 1.00000000
1.33371573 -0.00253961 0.00062126 1.00000000
4.28758138 0.00114214 -0.00142168 1.00000000
2.00629591 0.00031979 -0.00206364 1.00000000
1.76713384 -0.00239482 0.00684314 1.00000000
0.62048520 -0.00398408 -0.00458255 1.00000000
4.07335558 0.00134391 0.00126494 1.00000000
3.06927584 -0.00159535 -0.00172562 1.00000000
2.41965353 0.00557367 0.00051015 1.00000000
0.11189224 -0.00425031 -0.00314872 1.00000000
3.11062013 -0.00316145 0.00070003 1.00000000
0.96712191 -0.00108108 -0.00095853 1.00000000
1.53850310 0.00175265 0.00448397 1.00000000
3.26957880 0.00081371 -0.00129039 1.00000000
0.12225828 0.00118989 0.00123473 1.00000000
2.51866418 0.00026729 0.00010514 1.00000000
0.63400530 -0.00203677 -0.00187818 1.00000000
2.51978595 0.00253115 0.00313436 1.00000000
3.14199060 0.00450091 -0.00030255 1.00000000
3.44221286 0.00158667 0.00001951 1.00000000
2.15508128 0.00369035 0.00328652 1.00000000
0.38223803 0.00232083 0.00448326 1.00000000
1.78295405 0.00364697 0.00164080 1.00000000
0.82829309 -0.00170810 0.00058727 1.00000000
1.75486022 0.00392420 -0.00155726 1.00000000
3.72217540 -0.00243621 0.00284241 1.00000000
0.56280240 0.00046492 -0.00150938 1.00000000
4.25489857 0.00036191 -0.00323733 1.00000000
3.60902739 0.00038782 -0.00265644 1.00000000
2.17407236 0.00151472 -0.00122712 1.00000000
1.68833186 -0.00017929 -0.00186034 1.00000000
3.77007098 -0.00175308 0.00019549 1.00000000
1.57901521 0.00286261 -0.00018617 1.00000000
0.05825105 -0.00199688 -0.00082794 1.00000000
0.31196475 -0.00270667 -0.00039976 1.00000000
0.27310704 -0.00061705 0.00211716 1.00000000
0.89316907 0.00024578 0.00210911 1.00000000
1.31690651 0.00101647 -0.00223274 1.00000000
0.92065305 0.00049755 0.00088651 1.00000000
0.72028676 0.00228056 0.00552507 1.00000000
0.61048203 0.00122112 0.00360749 1.00000000
1.89484370 -0.00066453 -0.00019635 1.00000000
3.24495390 0.00365974 -0.00337251 1.00000000
0.89259187 -0.00238973 -0.00107085 1.00000000
1.48559564 0.00487198 -0.00273573 1.00000000
0.44858390 0.00287808 0.00410336 1.00000000
4.00447563 -0.00136062 -0.00310830 1.00000000
2.54376240 0.00394815 -0.00245837 1.00000000
1.91766900 0.00213959 -0.00573668 1.00000000
1.29689369 -0.00094997 -0.00231370 1.00000000
0.18105905 0.00320751 0.00078444 1.00000000
0.70346326 -0.00118832 0.00195805 1.00000000
3.53174371 -0.00210310 0.00437428 1.00000000
3.56158544 0.00010573 0.00229181 1.00000000
3.56024948 0.00626856 -0.00080614 1.00000000
4.41027182 0.00257370 -0.00135031 1.00000000
1.14045212 0.00068943 0.00125805 1.00000000
1.86113372 -0.00366092 -0.00335387 1.00000000
2.47157354 0.00040337 -0.00213203 1.00000000
0.96254490 -0.00066606 -0.00576939 1.00000000
2.16929641 0.00022179 -0.00223003 1.00000000
1.27677007 -0.00200700 -0.00033163 1.00000000
3.88276075 0.00063662 -0.00167416 1.00000000
0.54554558 -0.00075479 0.00040566 1.00000000
2.40923859 0.00100483 0.00372433 1.00000000
3.13577591 -0.00080159 0.00077941 1.00000000
0.77316958 -0.00224937 0.00141408 1.00000000
1.57023227 -0.00023367 -0.00424746 1.00000000
2.79681214 0.00105501 0.00111574 1.00000000
0.55933430 0.00339422 -0.00648954 1.00000000
0.09390148 0.00305725 0.00164620 1.00000000
1.35381492 -0.00209749 -0.00215802 1.00000000
4.08561024 -0.00020043 0.00035522 1.00000000
1.71840302 -0.00222324 0.00237555 1.00000000
2.88925527 0.00027796 0.00070789 1.00000000
1.60020822 0.00072898 -0.00263230 1.00000000
0.11807112 -0.00331158 0.00230157 1.00000000
3.18314679 -0.00199973 -0.00192522 1.00000000
1.55166300 -0.00286066 -0.00218387 1.00000000
2.24262961 -0.00132823 0.00108270 1.00000000
3.56879528 -0.00134028 0.00219729 1.00000000
3.03069515 0.00071240 0.00052255 1.00000000
0.96912566 0.00011372 0.00358650 1.00000000
2.54257926 0.00286278 0.00062234 1.00000000
3.87523748 0.00267191 -0.00092699 1.00000000
3.56537599 -0.00179353 -0.00595003 1.00000000
1.70451062 -0.00133807 0.00001680 1.00000000
2.74295939 -0.00015084 0.00243392 1.00000000
0.26555486 -0.00065448 0.00413442 1.00000000
0.66306985 -0.00104796 0.00072002 1.00000000
0.34918177 -0.00231017 0.00287780 1.00000000
1.70274782 0.00207263 -0.00679342 1.00000000
1.06851895 -0.00348064 -0.00193538 1.00000000
3.64186165 -0.00248196 -0.00174352 1.00000000
2.87803062 0.00666650 -0.00000722 1.00000000
0.03969695 -0.00574371 -0.00118616 1.00000000
2.35640691 0.00279329 0.00148080 1.00000000
1.45519808 -0.00120301 0.00386036 1.00000000
1.78006409 -0.00570619 0.00185298 1.00000000
1.94134929 0.00104359 0.00292863 1.00000000
4.02762091 0.00006544 0.00106785 1.00000000
2.28157089 -0.00531146 -0.00066895 1.00000000
1.96785909 0.00239712 -0.00301322 1.00000000
0.58094940 -0.00005457 -0.00189447 1.00000000
4.33944888 -0.00106271 -0.00028927 1.00000000
0.89461971 0.00080775 0.00093313 1.00000000
0.05200442 0.00171240 -0.00748968 1.00000000
0.73186814 -0.00408786 -0.00077414 1.00000000
3.86548297 0.00052305 -0.00384301 1.00000000
2.52708366 0.00456442 0.00214321 1.00000000
3.97122156 -0.00179861 -0.00015235 1.00000000
2.45962647 -0.00578114 0.00116770 1.00000000
0.21979189 0.00241120 -0.00202062 1.00000000
2.47683782 -0.00190986 0.00230309 1.00000000
2.39257100 -0.00328163 -0.00429300 1.00000000
2.18344647 -0.00087900 -0.00149757 1.00000000
1.22572565 0.00139114 -0.00047384 1.00000000
2.42777941 -0.00113232 0.00106609 1.00000000
2.33880252 -0.00628199 0.00460652 1.00000000
2.05746516 -0.00191787 -0.00050291 1.00000000
2.98080730 0.00150774 0.00322003 1.00000000
3.61647849 0.00340850 0.00189529 1.00000000
0.73047684 0.00124492 -0.00129165 1.00000000
1.45664847 -0.00123269 0.00396493 1.00000000
1.82710519 0.00051040 0.00075736 1.00000000
4.11962704 -0.00158582 -0.00286655 1.00000000
1.46061389 0.00177402 0.00037057 1.00000000
1.53620452 -0.00348057 -0.00292561 1.00000000
1.90211342 -0.00230487 0.00211070 1.00000000
0.76649773 0.00065375 0.00271648 1.00000000
1.11870602 -0.00362147 0.00236357 1.00000000
2.54702011 -0.00070834 -0.00404875 1.00000000
1.46902126 -0.00315255 0.00207512 1.00000000
1.93462068 0.00260396 -0.00585721 1.00000000
2.08597131 0.00095140 0.00464314 1.00000000
1.45107211 -0.00380396 -0.00237090 1.00000000
0.50633029 0.00275280 0.00328601 1.00000000
4.29032718 0.00093583 0.00314584 1.00000000
3.65924376 -0.00277150 -0.00396090 1.00000000
0.25357398 0.00158423 0.00024443 1.00000000
3.26202594 -0.00242990 0.00021421 1.00000000
1.94630312 -0.00030172 -0.00047588 1.00000000
2.69907897 -0.00038841 0.00255472 1.00000000
2.75602364 -0.00265620 -0.00056397 1.00000000
4.42429495 -0.00253219 0.00648533 1.00000000
3.58787805 0.00085844 0.00493536 1.00000000
2.82723543 0.00479489 0.00003338 1.00000000
3.85243323 0.00205339 -0.00068108 1.00000000
0.21617714 -0.00113478 -0.00271222 1.00000000
1.26064543 -0.00011754 -0.00024216 1.00000000
1.95318223 0.00002509 -0.00076829 1.00000000
1.41044380 0.00139519 -0.00284889 1.00000000
0.69856562 -0.00176626 -0.00271285 1.00000000
2.70163620 0.00342314 0.00233454 1.00000000
0.85729120 0.00261638 -0.00194076 1.00000000
0.52704683 0.00224312 0.00202146 1.00000000
4.32175429 0.00002519 0.00184159 1.00000000
3.19742173 0.00032426 -0.00035228 1.00000000
0.66963581 0.00266402 -0.00043405 1.00000000
3.02493913 0.00096096 -0.00369597 1.00000000
4.33502111 0.00139439 0.00088730 1.00000000
0.83898070 0.00085371 0.00022622 1.00000000
2.17524034 0.00159339 -0.00136726 1.00000000
2.62429472 -0.00461464 -0.00181252 1.00000000
2.94901652 -0.00001271 0.00038323 1.00000000
1.45415434 0.00221088 -0.00045555 1.00000000
1.79013239 -0.00208217 -0.00213951 1.00000000
1.33904886 0.00426282 -0.00305434 1.00000000
3.60617556 -0.00112170 -0.00101282 1.00000000
1.44407597 0.00331025 0.00259604 1.00000000
1.78094488 0.00155958 0.00344902 1.00000000
0.38234705 -0.00083886 -0.00045217 1.00000000
0.10615222 -0.00098704 0.00193989 1.00000000
1.83187368 -0.00107903 -0.00168544 1.00000000
2.88556093 0.00186324 0.00255576 1.00000000
4.30361182 -0.00230588 -0.00067809 1.00000000
0.03712524 0.00177840 -0.00099137 1.00000000
2.30366459 -0.00043153 -0.00179926 1.00000000
3.74013496 -0.00025276 0.00416357 1.00000000
3.06500948 -0.00055646 0.00290753 1.00000000
2.56956324 -0.00147038 -0.00198930 1.00000000
1.45459423 -0.00151958 0.00062521 1.00000000
4.02736795 -0.00026050 0.00123039 1.00000000
3.25719826 0.00003849 0.00072863 1.00000000
1.19403259 0.00201207 -0.00066405 1.00000000
3.66714971 0.00144765 -0.00047494 1.00000000
3.31530193 -0.00078912 -0.00373557 1.00000000
1.45020662 -0.00369524 0.00334397 1.00000000
2.80487974 -0.00013849 -0.00013096 1.00000000
0.36935656 0.00426538 -0.00308943 1.00000000
1.19735830 -0.00048480 -0.00093492 1.00000000
0.70819340 -0.00171324 0.00032968 1.00000000
3.76184368 -0.00081830 0.00252406 1.00000000
2.54442636 0.00356096 -0.00116077 1.00000000
3.82686186 -0.00203459 0.00036687 1.00000000
3.87228915 -0.00091211 -0.00472342 1.00000000
0.37998534 -0.00090556 0.00062562 1.00000000
2.68232255 -0.00123309 -0.00066626 1.00000000
2.90950068 0.00198738 -0.00407369 1.00000000
2.45235583 0.00146440 0.00050671 1.00000000
4.19459390 0.00027043 0.00272703 1.00000000
2.40063252 -0.00461982 -0.00142219 1.00000000
3.79243500 0.00468752 -0.00038835 1.00000000
1.36452785 0.00108451 0.00398897 1.00000000
2.33558240 0.00061792 -0.00046210 1.00000000
4.40235170 -0.00291295 0.00119108 1.00000000
1.09987267 0.00067049 0.00014384 1.00000000
0.63092290 0.00178475 0.00172533 1.00000000
1.48530200 0.00245227 0.00063769 1.00000000
2.50316584 0.00114801 -0.00068023 1.00000000
0.42522175 0.00417117 0.00237172 1.00000000
1.08794711 0.00129466 0.00360264 1.00000000
0.50118603 -0.00221170 0.00160546 1.00000000
2.16313226 -0.00246477 0.00106327 1.00000000
0.94509605 0.00156644 -0.00229043 1.00000000
4.33826751 0.00056977 0.00064614 1.00000000
0.52661858 -0.00264963 0.00544882 1.00000000
4.00608536 -0.00284447 0.00207473 1.00000000
2.97875802 -0.00202080 -0.00215014 1.00000000
3.83570603 0.00358494 0.00458318 1.00000000
3.08519105 -0.00216316 0.00119389 1.00000000
1.46397903 -0.00327528 0.00816815 1.00000000
3.39261697 0.00005630 0.00470343 1.00000000
3.09375848 -0.00133219 0.00020662 1.00000000
2.74890060 0.00426104 0.00217776 1.00000000
2.18931580 -0.00163050 -0.00391242 1.00000000
1.35852645 -0.00053723 0.00541615 1.00000000
0.49171183 -0.00200517 -0.00279158 1.00000000
1.41209289 0.00281683 0.00028717 1.00000000
0.81387424 0.00083859 0.00231688 1.00000000
0.78452018 0.00036222 0.00005103 1.00000000
2.95988777 0.00260968 -0.00259374 1.00000000
1.60741345 0.00181368 0.00039796 1.00000000
4.14518777 -0.00330986 -0.07929800 0.00000000
0.49426669 -0.00086228 -0.01215988 0.00000000
3.27001928 0.00027131 -0.10414273 0.00000000
3.04517528 -0.00101564 -0.02330889 0.00000000
1.50433228 -0.00576688 -0.10183764 0.00000000
2.82385104 0.00467012 -0.11462855 0.00000000
3.22691440 -0.00348746 -0.08644455 0.00000000
0.29200691 -0.00264118 -0.09660552 0.00000000
0.31227767 -0.00092613 -0.08306610 0.00000000
2.60173062 0.00067039 -0.07269398 0.00000000
2.78130565 -0.00049978 -0.11283811 0.00000000
0.77490401 0.00338697 -0.00168540 0.00000000
4.30371125 0.00388573 -0.07672260 0.00000000
3.16483270 0.00083925 -0.07348448 0.00000000
1.39645974 0.00042130 -0.06922439 0.00000000
0.52071934 0.00003807 -0.13177680 0.00000000
2.42442235 -0.00045036 -0.06621078 0.00000000
1.45691674 -0.00077322 -0.09298438 0.00000000
0.76432558 0.00162939 -0.02693666 0.00000000
1.87947598 -0.00129058 -0.05859051 0.00000000
2.96711089 -0.00207642 -0.03199281 0.00000000
2.23410303 -0.00464942 -0.11660113 0.00000000
2.64501785 -0.00314164 -0.03842393 0.00000000
3.98507436 0.00030547 -0.06057421 0.00000000
1.70164824 0.00118136 -0.07028531 0.00000000
2.14677308 0.00038131 -0.00374172 0.00000000
3.12752008 0.00094802 -0.07899570 0.00000000
0.01089374 0.00521829 -0.10577044 0.00000000
2.57868981 -0.00073436 -0.03072877 0.00000000
0.99974267 0.00601276 -0.10303209 0.00000000
0.20643640 0.00419914 -0.07300021 0.00000000
1.41585710 -0.00363085 -0.08916424 0.00000000
4.05342958 0.00308782 -0.12456798 0.00000000
3.69357516 0.00294550 -0.10652401 0.00000000
0.48239785 -0.00196326 -0.11298903 0.00000000
4.41384208 -0.00267684 -0.05721438 0.00000000
2.11112519 0.00011495 -0.08145226 0.00000000
1.09017586 0.00166341 -0.12146852 0.00000000
2.86880079 -0.00220634 -0.06689536 0.00000000
3.87723158 0.00022494 -0.11316281 0.00000000
4.28059159 -0.00282102 -0.07699128 0.00000000
3.21874833 -0.00101886 -0.12919301 0.00000000
3.25535247 0.00024371 -0.08794628 0.00000000
3.99860858 0.00127331 -0.00502201 0.00000000
3.82549799 -0.00142084 -0.07954567 0.00000000
1.94828792 -0.00165199 -0.07804991 0.00000000
3.77368183 -0.00052123 -0.01525277 0.00000000
1.77531707 -0.00624817 -0.11599276 0.00000000
1.44513000 -0.00231215 -0.04201453 0.00000000
3.31227539 -0.00320343 -0.13045524 0.00000000
4.16298504 0.00134820 -0.03654456 0.00000000
1.48292565 -0.00075382 -0.10998074 0.00000000
4.05808253 0.00267139 -0.11781157 0.00000000
2.85113702 -0.00198608 -0.11126277 0.00000000
1.92355072 0.00339575 -0.11278646 0.00000000
3.26830805 -0.00110182 -0.11546105 0.00000000
2.91284626 -0.00175658 -0.12420929 0.00000000
2.54030587 0.00071434 -0.10630144 0.00000000
3.31054256 0.00067038 -0.12763602 0.00000000
3.89558272 0.00042524 -0.07004405 0.00000000
1.58219891 -0.00156225 -0.05120250 0.00000000
3.10156492 0.00014405 -0.01373654 0.00000000
1.60770576 -0.00251233 -0.09843739 0.00000000
0.71430622 0.00169378 -0.09950389 0.00000000
4.15442911 0.00149702 -0.06713341 0.00000000
3.96713310 -0.00150415 -0.07869970 0.00000000
3.97436422 0.00072332 -0.09634726 0.00000000
3.71032784 -0.00171547 -0.03426580 0.00000000
4.00464199 -0.00019792 -0.13274743 0.00000000
4.11373698 -0.00146189 -0.08209200 0.00000000
1.80908884 0.00422873 -0.09239919 0.00000000
3.77172584 0.00148427 -0.04912346 0.00000000
0.08114179 -0.00323914 -0.02614937 0.00000000
2.49493352 -0.00375793 -0.00108694 0.00000000
4.01064729 0.00155183 -0.06805429 0.00000000
3.09306703 0.00472383 -0.09708962 0.00000000
1.11874378 -0.00075447 -0.09110072 0.00000000
2.10649290 0.00278440 -0.08190222 0.00000000
3.50891749 0.00321898 -0.00510907 0.00000000
2.13598883 -0.00262565 -0.07693556 0.00000000
2.47494278 0.00011560 -0.09049704 0.00000000
3.11170154 -0.00095964 -0.05914110 0.00000000
2.73699930 -0.00076438 -0.09201270 0.00000000
3.07012612 -0.00137569 -0.05809267 0.00000000
0.49350904 -0.00393922 -0.01050984 0.00000000
2.33391627 -0.00493754 -0.08017408 0.00000000
1.41234059 0.00056324 -0.08797438 0.00000000
2.34233864 -0.00345827 -0.04629229 0.00000000
1.12839962 0.00127258 -0.09227253 0.00000000
3.20492079 0.00007741 -0.03511320 0.00000000
4.05357556 -0.00060062 -0.08546054 0.00000000
4.32399684 0.00350984 -0.07396058 0.00000000
3.40544253 0.00254650 -0.10771368 0.00000000
4.39109334 -0.00256983 -0.10971375 0.00000000
3.34435598 -0.00297943 -0.00448622 0.00000000
2.43075999 0.00431635 -0.07989360 0.00000000
2.35312757 -0.00204861 -0.10569883 0.00000000
2.21298450 0.00148399 -0.08556950 0.00000000
3.29650096 -0.00283022 -0.08307547 0.00000000
4.00495961 -0.00223903 -0.07171604 0.00000000
3.44145224 0.00076041 -0.00257818 0.00000000
3.90712107 0.00174754 -0.05534449 0.00000000
2.03075234 0.00237820 -0.12244001 0.00000000
1.24571662 -0.00006290 -0.06563306 0.00000000
1.65161830 0.00150588 -0.10713984 0.00000000
2.05507033 -0.00543632 -0.09184889 0.00000000
0.24086004 -0.00135698 -0.06178958 0.00000000
2.64918207 -0.00010800 -0.03393231 0.00000000
1.53534235 0.00316371 -0.09048840 0.00000000
2.69482479 -0.00312665 -0.06435860 0.00000000
3.08075039 0.00174532 -0.01038202 0.00000000
1.75926676 0.00192035 -0.11703864 0.00000000
0.22530926 0.00230874 -0.07925959 0.00000000
2.84194195 0.00211927 -0.11435807 0.00000000
