2.898905 0.282640 0.001022 0.0
3.720918 1.117574 0.000651 0.0
3.703238 2.065534 -0.002744 0.0
3.183769 1.569598 -0.000564 0.0
0.869500 0.245444 0.005739 0.0
3.898354 0.519126 -0.000292 0.0
2.013311 2.110923 0.000656 0.0
2.391123 1.150673 -0.000680 0.0
2.356981 1.528891 -0.002024 0.0
1.654739 1.404317 -0.001413 0.0
3.671071 1.293051 -0.000142 0.0
0.109980 1.144721 0.001747 0.0
3.006206 0.815196 0.003028 0.0
1.997250 0.434293 0.003408 0.0
1.556915 0.686443 0.002148 0.0
1.280273 0.851964 -0.000673 0.0
2.142994 2.028903 -0.002836 0.0
4.022904 2.160751 0.001772 0.0
1.958339 1.288066 -0.004325 0.0
4.057386 1.363918 -0.000859 0.0
0.049101 0.359872 -0.000235 0.0
3.789897 1.549703 0.001363 0.0
4.361095 2.025391 -0.001326 0.0
1.670992 0.214902 -0.000262 0.0
4.119065 1.565409 -0.003259 0.0
2.446981 1.458435 0.003374 0.0
0.227213 1.945682 -0.005035 0.0
2.493223 1.602712 -0.001469 0.0
3.266637 1.938384 -0.001117 0.0
3.105196 1.234794 0.000897 0.0
0.251830 0.942549 -0.001477 0.0
2.950405 1.454285 -0.000129 0.0
1.337731 1.736170 -0.002834 0.0
2.824107 1.317506 0.006420 0.0
0.748726 0.916696 -0.009331 0.0
1.477399 1.354037 0.002486 0.0
3.355548 1.143266 -0.004010 0.0
0.578293 0.954100 0.000924 0.0
0.132470 0.396927 -0.002862 0.0
2.925208 1.302594 0.001828 0.0
2.542068 0.248056 -0.000370 0.0
1.391091 1.219105 -0.002331 0.0
4.353656 0.617291 0.002353 0.0
0.314384 0.041209 0.000263 0.0
1.060273 0.156532 0.000671 0.0
3.828824 0.595112 -0.001232 0.0
0.313203 1.602114 -0.005517 0.0
1.350846 0.937391 0.002444 0.0
2.368331 1.972887 -0.000026 0.0
0.781263 0.672034 0.000292 0.0
2.788344 2.283368 -0.000058 0.0
0.176340 2.071607 -0.000810 0.0
1.385375 0.174993 0.001515 0.0
2.688291 1.659825 0.000630 0.0
2.325288 1.044552 0.002041 0.0
3.882497 2.004986 -0.002747 0.0
1.134875 0.500373 0.002959 0.0
1.674296 0.923145 0.001010 0.0
1.942623 2.102971 0.001291 0.0
3.268406 1.893382 0.001203 0.0
0.140144 0.555421 -0.000454 0.0
3.295099 2.230673 0.000468 0.0
1.430423 0.465925 0.007044 0.0
2.644726 1.489394 -0.001078 0.0
4.192085 1.222446 0.008199 0.0
2.749695 0.575953 0.001498 0.0
3.984076 1.077595 0.003309 0.0
0.011144 1.850257 0.000075 0.0
3.515887 1.728904 0.001081 0.0
0.596569 1.055942 -0.000931 0.0
2.229931 0.496672 -0.001536 0.0
2.636660 2.001246 -0.001087 0.0
3.930345 0.810589 0.003427 0.0
4.157548 0.280243 -0.004830 0.0
3.937076 0.960121 -0.003998 0.0
1.194376 2.059581 -0.001508 0.0
2.878384 0.109066 0.001187 0.0
0.296862 1.406915 -0.000587 0.0
0.232826 2.025371 0.002891 0.0
2.059807 0.892490 0.002695 0.0
1.080599 2.044624 0.000407 0.0
2.601055 1.790847 0.000642 0.0
1.359790 2.215548 -0.000335 0.0
3.918028 0.464643 -0.003010 0.0
3.679267 1.860687 0.000939 0.0
1.980837 1.353917 0.000171 0.0
4.186217 2.203926 0.002269 0.0
0.568624 0.006626 0.000765 0.0
1.319199 1.379906 0.003603 0.0
3.727566 0.055300 0.001537 0.0
3.986560 2.123205 0.004203 0.0
0.200055 1.618457 -0.000399 0.0
0.055645 0.291742 0.001805 0.0
0.864822 1.765149 -0.000263 0.0
3.443058 1.953838 0.000517 0.0
0.330199 1.038880 -0.002875 0.0
0.754473 0.593416 0.000306 0.0
4.317811 0.643280 0.004606 0.0
1.703047 1.434102 -0.001453 0.0
0.733335 0.951666 0.001056 0.0
1.189663 1.153792 0.001784 0.0
3.562173 1.142302 0.003579 0.0
2.293196 0.132681 0.000938 0.0
0.958717 0.363795 0.002116 0.0
1.335749 0.687303 -0.000443 0.0
1.919324 0.252609 0.003271 0.0
2.201261 0.771492 -0.002034 0.0
3.168618 2.092890 0.001334 0.0
3.596763 2.101313 -0.002841 0.0
4.306016 1.650565 -0.000591 0.0
4.315173 2.145185 -0.000228 0.0
0.437733 0.916058 0.001256 0.0
1.347106 1.047758 -0.003399 0.0
1.057099 0.726621 0.002953 0.0
1.882700 0.438776 0.000241 0.0
3.981355 1.165885 0.000989 0.0
0.517970 1.849740 -0.001939 0.0
3.362653 0.599356 -0.002531 0.0
3.409971 1.917334 -0.000009 0.0
4.373887 0.409075 -0.000580 0.0
0.779022 1.590240 0.000318 0.0
3.425912 2.186097 0.001227 0.0
3.168440 1.443274 -0.002658 0.0
1.044125 0.583857 0.002265 0.0
1.475011 0.152552 -0.001695 0.0
3.603622 1.509554 0.001126 0.0
1.047843 1.314786 -0.000915 0.0
2.728938 0.746792 -0.003631 0.0
2.382548 0.827091 -0.000981 0.0
4.094094 0.040875 0.000803 0.0
4.170426 2.208830 -0.000180 0.0
2.968689 1.554336 -0.001092 0.0
1.595248 0.800531 -0.003756 0.0
3.203042 2.070340 -0.005611 0.0
1.111603 1.819155 0.004756 0.0
0.947115 0.641161 0.000336 0.0
2.148452 1.921609 0.001183 0.0
3.519839 0.610602 0.003397 0.0
3.266118 1.102609 0.002850 0.0
3.911463 1.511239 -0.001008 0.0
3.132169 1.833948 -0.000571 0.0
1.668621 0.448783 -0.001804 0.0
3.978494 2.213112 -0.002830 0.0
4.247296 0.289248 -0.001494 0.0
1.314912 1.107243 0.002542 0.0
4.360584 0.006019 -0.001922 0.0
0.439554 2.215942 -0.000382 0.0
3.449958 1.273374 -0.003232 0.0
1.020311 0.126018 -0.001815 0.0
3.052689 0.754639 -0.002055 0.0
2.484218 1.087923 -0.004154 0.0
1.533482 2.199887 -0.001981 0.0
1.007909 1.512234 -0.003625 0.0
0.662652 1.073218 -0.002032 0.0
2.048839 1.521093 0.000850 0.0
0.460162 0.720766 -0.001824 0.0
3.635554 1.338328 -0.004191 0.0
1.370241 0.124169 0.002106 0.0
2.649008 0.238698 -0.000207 0.0
1.122917 2.213398 -0.000852 0.0
2.868552 1.863409 -0.002064 0.0
0.215411 1.539592 0.000655 0.0
3.738639 0.259483 0.002473 0.0
3.144704 1.888999 0.003094 0.0
0.362525 1.024225 0.000661 0.0
3.129780 1.159511 -0.001488 0.0
3.693043 1.324711 -0.001258 0.0
0.120858 0.369361 0.000231 0.0
2.798677 1.035872 -0.001374 0.0
0.532001 0.708691 0.002833 0.0
0.556677 1.263495 0.001222 0.0
1.601539 0.780681 0.001231 0.0
2.191693 0.916901 0.001411 0.0
3.966530 0.385746 0.001840 0.0
3.115647 1.053635 -0.000118 0.0
0.014610 1.745608 0.005866 0.0
2.564202 2.018714 0.000644 0.0
2.451249 1.445553 0.003496 0.0
0.843413 0.364879 -0.001836 0.0
2.153556 0.727218 -0.000728 0.0
2.428909 0.222985 -0.000504 0.0
2.737966 1.111225 -0.000512 0.0
1.059925 1.432617 -0.001486 0.0
2.886516 0.706985 -0.002681 0.0
0.226921 1.081091 -0.001093 0.0
4.148572 0.718031 0.003099 0.0
0.901323 1.205601 0.001532 0.0
1.777805 2.151572 -0.001278 0.0
1.973251 1.020505 0.002923 0.0
0.200414 0.299724 0.001138 0.0
2.971369 0.604236 -0.002060 0.0
0.875784 1.375412 -0.000469 0.0
3.905225 1.958696 -0.000468 0.0
1.958065 0.599001 -0.000489 0.0
4.007190 1.619033 0.001284 0.0
3.438549 1.112106 0.003693 0.0
0.445604 0.009146 -0.000938 0.0
1.583583 1.720355 -0.001631 0.0
0.634880 1.209213 0.000325 0.0
2.024884 0.713640 -0.003732 0.0
4.000071 2.217428 0.002606 0.0
3.514118 0.172975 0.001340 0.0
2.882972 1.719470 -0.007528 0.0
2.070249 0.294288 0.000991 0.0
1.595509 1.883039 0.002520 0.0
3.376031 0.847218 0.002135 0.0
1.864718 1.277125 -0.000975 0.0
2.038685 0.715941 -0.000627 0.0
4.068947 0.975742 0.002315 0.0
2.076264 2.001971 0.002023 0.0
-0.000067 1.388666 -0.002439 0.0
4.233909 2.233415 -0.004471 0.0
1.767653 1.808402 -0.005213 0.0
0.377847 0.758519 -0.003460 0.0
2.412347 1.841756 -0.000430 0.0
3.653110 0.568092 0.000839 0.0
1.543254 1.258892 0.003232 0.0
3.224883 1.954953 -0.004525 0.0
2.554816 0.796724 -0.003426 0.0
2.520494 1.313978 0.000268 0.0
2.515589 1.348602 0.000247 0.0
0.000281 0.133106 0.001391 0.0
0.143747 1.798713 0.003456 0.0
3.859276 0.861519 -0.000479 0.0
2.654483 1.832574 -0.003893 0.0
1.816576 0.889618 -0.003579 0.0
3.240160 1.070247 0.000727 0.0
3.440234 0.753282 -0.002325 0.0
1.935475 0.998583 0.004112 0.0
3.183459 0.295030 0.001237 0.0
3.050957 1.805198 -0.002281 0.0
4.083204 1.145952 -0.002016 0.0
3.885319 1.198342 -0.001698 0.0
0.724375 0.720358 0.002243 0.0
3.360627 1.315110 -0.002798 0.0
0.187059 1.592838 0.000367 0.0
0.827729 1.958684 -0.000615 0.0
3.388296 1.234786 0.001376 0.0
2.962768 1.881089 0.000510 0.0
2.480899 0.293856 -0.001672 0.0
3.897001 1.773346 0.000045 0.0
3.495962 0.284578 -0.004031 0.0
1.373262 0.193355 -0.001086 0.0
0.025479 1.617575 -0.000887 0.0
3.248913 0.747807 0.004320 0.0
2.756817 1.902454 0.000848 0.0
1.995950 0.600211 -0.001018 0.0
0.936797 0.324588 -0.002265 0.0
0.638141 1.974636 0.001027 0.0
2.974501 2.206730 0.000961 0.0
4.097486 0.701128 0.002261 0.0
1.030903 1.402365 0.002138 0.0
0.025640 1.703824 0.003910 0.0
1.663136 2.263675 0.000765 0.0
3.796008 0.189521 0.004617 0.0
3.948496 1.715138 0.000293 0.0
3.323041 0.115421 0.001444 0.0
1.563897 0.788815 -0.000034 0.0
1.328274 0.568560 -0.000984 0.0
0.270317 0.422988 -0.000118 0.0
1.444105 2.173040 -0.002024 0.0
4.298686 1.158928 0.000508 0.0
0.310321 2.061669 -0.000247 0.0
0.581883 1.476341 -0.006972 0.0
1.452497 1.019015 0.001705 0.0
2.713844 0.835400 -0.001235 0.0
0.035174 0.281147 0.000876 0.0
4.317379 0.363967 -0.005764 0.0
1.176962 0.850375 -0.003260 0.0
1.015650 0.240397 -0.000632 0.0
2.263119 0.481767 0.001491 0.0
0.732397 0.524321 0.000896 0.0
2.147069 2.066457 -0.001136 0.0
0.253568 0.007506 0.004607 0.0
4.281602 0.257659 0.002765 0.0
3.819195 0.131899 -0.000027 0.0
3.499103 0.272409 0.002548 0.0
1.586700 0.848850 0.004803 0.0
3.453972 0.943756 0.001774 0.0
2.204901 0.304032 -0.000738 0.0
2.629636 1.493357 0.001248 0.0
0.813464 1.550068 0.006566 0.0
3.284592 2.052966 -0.006517 0.0
3.417779 1.229931 0.001088 0.0
3.876043 2.107874 0.000678 0.0
3.485565 1.053089 0.001553 0.0
2.573008 1.581970 0.000390 0.0
3.063589 1.309953 -0.002315 0.0
3.370833 1.892866 -0.000365 0.0
2.565486 0.591340 0.000495 0.0
3.018138 1.369848 -0.001442 0.0
0.395231 0.285870 0.000107 0.0
1.866116 1.459303 0.000674 0.0
4.265546 1.662716 -0.003502 0.0
1.280166 0.254703 -0.000239 0.0
3.186376 0.853092 -0.002329 0.0
3.805473 0.696213 -0.004614 0.0
0.293694 0.023710 0.003038 0.0
2.732773 0.150048 -0.000530 0.0
2.276996 0.371164 -0.003871 0.0
0.030571 2.150211 -0.002140 0.0
3.939999 1.434640 0.002027 0.0
0.699782 0.986728 -0.000799 0.0
2.188455 0.143049 -0.003009 0.0
0.860409 1.852016 0.000862 0.0
2.878627 0.770374 0.003200 0.0
0.560078 1.662638 0.000055 0.0
1.333996 1.251016 -0.002974 0.0
1.100474 1.317140 0.001527 0.0
2.974327 0.394324 0.004332 0.0
2.364280 0.922200 0.003965 0.0
1.365828 1.376127 0.000232 0.0
4.083334 0.009116 0.001517 0.0
0.887666 2.122941 -0.000393 0.0
3.306990 0.655985 -0.003710 0.0
3.578615 2.008709 -0.002148 0.0
3.213644 2.136315 0.000465 0.0
0.212920 0.268576 0.000784 0.0
2.890414 1.756185 -0.002252 0.0
3.389145 1.123431 0.000703 0.0
2.656358 0.783944 -0.004479 0.0
2.038348 0.167276 0.002691 0.0
0.413307 1.806962 -0.003687 0.0
3.972818 2.100414 -0.002531 0.0
0.158234 1.948027 0.000595 0.0
2.098979 0.750078 0.002395 0.0
3.170249 0.643627 -0.003527 0.0
0.770199 0.127170 -0.002147 0.0
2.439457 1.840179 0.001169 0.0
1.459662 1.727210 0.001756 0.0
1.248949 0.833916 0.001420 0.0
2.421176 0.290918 0.003106 0.0
1.601901 2.243196 -0.000584 0.0
0.298454 0.317897 -0.001514 0.0
1.737294 1.732395 -0.000134 0.0
1.031578 2.042507 0.000153 0.0
0.342803 1.928270 0.001257 0.0
1.076593 0.969131 0.000249 0.0
1.682983 1.258194 -0.001432 0.0
3.576037 0.227599 0.001297 0.0
1.500569 1.364751 -0.002076 0.0
3.585434 0.297974 0.003528 0.0
0.123466 1.497145 0.002199 0.0
0.326027 1.184162 -0.003752 0.0
0.425195 1.154272 0.000585 0.0
2.596290 0.242894 0.001843 0.0
1.895772 1.988775 0.000229 0.0
1.502907 0.566835 -0.003144 0.0
2.597805 0.526665 -0.000727 0.0
4.368836 2.268031 0.003444 0.0
0.854899 1.138564 -0.000532 0.0
2.556298 0.398592 0.001844 0.0
0.479189 0.727339 0.000574 0.0
2.790561 0.220774 0.002935 0.0
0.048487 0.485585 -0.001495 0.0
4.111808 1.875841 -0.002134 0.0
0.048782 0.795567 -0.001657 0.0
3.097654 1.966066 0.003505 0.0
3.513291 0.931204 -0.000510 0.0
2.577197 1.331093 -0.002934 0.0
1.236676 1.210437 -0.003420 0.0
0.739367 1.283501 0.000480 0.0
0.168756 0.338580 0.002613 0.0
0.835530 1.151369 -0.000053 0.0
2.701519 1.854329 -0.002263 0.0
1.512897 1.589644 -0.005398 0.0
4.266613 0.678523 0.002827 0.0
0.482301 2.174103 0.001606 0.0
2.643448 0.230862 0.000909 0.0
3.944855 0.457019 0.002787 0.0
1.558623 1.291012 0.003478 0.0
1.951234 1.664218 -0.000440 0.0
0.970923 2.221007 -0.001950 0.0
2.102714 1.413149 0.000673 0.0
3.207793 1.525868 0.003834 0.0
3.249671 0.188408 -0.001804 0.0
3.928709 1.602188 0.001326 0.0
0.976687 0.010895 0.001776 0.0
2.232570 1.033264 -0.000291 0.0
2.207677 0.961561 -0.003145 0.0
3.397415 2.199817 -0.000630 0.0
3.527060 1.460373 0.003413 0.0
0.242448 0.095845 0.000519 0.0
0.375822 0.029209 0.001644 0.0
1.692487 0.062020 0.002595 0.0
3.348152 2.144395 0.004269 0.0
0.263493 1.120776 0.000007 0.0
0.033965 1.647801 0.003143 0.0
1.413326 1.477028 0.003278 0.0
2.094203 1.587889 0.000636 0.0
3.188839 1.180531 -0.001420 0.0
0.688625 0.205232 0.000055 0.0
2.868771 0.207602 -0.001515 0.0
0.391990 1.002704 -0.000334 0.0
0.831480 2.119347 -0.001081 0.0
3.808418 0.268851 0.003088 0.0
0.036504 1.518418 0.001715 0.0
0.844573 1.745883 0.000127 0.0
1.579131 1.190023 0.001670 0.0
4.193161 2.264414 -0.005835 0.0
2.422488 0.269854 0.001325 0.0
3.209663 0.842607 -0.007324 0.0
1.304211 1.734439 -0.000387 0.0
0.254719 2.135467 0.000324 0.0
3.432808 1.585267 0.000448 0.0
1.589086 1.914822 -0.003176 0.0
2.192289 0.387327 0.003306 0.0
2.257981 0.741696 -0.000643 0.0
2.188060 0.478956 -0.000284 0.0
4.068402 0.511098 0.005192 0.0
4.337952 2.171305 -0.002033 0.0
2.214873 0.389481 0.001718 0.0
3.651888 0.525809 0.001279 0.0
2.444290 2.206883 0.000271 0.0
3.647786 1.160830 0.003300 0.0
2.044232 0.215189 0.001480 0.0
3.265750 1.386295 -0.003826 0.0
2.913867 1.191813 0.003770 0.0
3.294508 1.722135 -0.000809 0.0
2.150278 1.661180 -0.004651 0.0
3.366286 0.612303 0.002289 0.0
1.664189 0.937783 -0.001791 0.0
0.699555 0.198255 0.001128 0.0
3.977880 1.221762 0.003780 0.0
0.673999 1.367613 0.001898 0.0
3.539651 0.345202 -0.002266 0.0
3.039085 0.268188 -0.001723 0.0
3.535786 1.696136 0.003131 0.0
3.910458 1.047061 0.000543 0.0
3.393025 0.459620 0.002939 0.0
0.263273 1.563960 0.003517 0.0
1.486074 0.225089 0.003037 0.0
2.706158 0.328355 0.004071 0.0
0.122439 1.452670 0.002007 0.0
1.303746 0.704682 0.005636 0.0
2.073116 2.165770 -0.002663 0.0
0.459206 0.469369 0.002025 0.0
2.926393 1.448654 -0.001468 0.0
0.253562 0.476718 0.001685 0.0
2.191662 0.557343 0.002056 0.0
3.617355 1.736412 0.000958 0.0
3.316423 0.900322 -0.002599 0.0
1.782901 1.325740 -0.001039 0.0
3.742366 0.155813 -0.001244 0.0
1.047427 0.405404 -0.002321 0.0
3.382257 0.188950 -0.000198 0.0
2.241716 1.594865 -0.004444 0.0
1.232819 1.030774 0.002221 0.0
2.748728 0.452692 -0.000293 0.0
3.208342 1.346584 0.004414 0.0
0.800778 1.550827 0.007917 0.0
2.521360 1.428759 0.001309 0.0
2.998223 1.240336 0.001509 0.0
1.176200 2.034070 -0.000122 0.0
0.585732 0.614803 0.000114 0.0
0.681087 0.330104 0.001960 0.0
0.218772 1.688313 0.006436 0.0
2.951548 2.031273 0.001648 0.0
2.360956 0.377571 -0.000369 0.0
2.139156 0.596719 -0.001979 0.0
3.342171 0.694722 0.000046 0.0
2.623807 1.256411 -0.003358 0.0
1.265527 0.867454 -0.002452 0.0
0.910017 0.511598 -0.002338 0.0
2.705852 1.871241 0.001186 0.0
1.277826 0.790993 0.000125 0.0
0.653456 2.140503 0.002996 0.0
1.311286 0.626083 -0.000166 0.0
4.116114 1.805359 -0.000035 0.0
0.623087 2.281892 -0.001690 0.0
3.487547 2.042563 0.000541 0.0
4.262217 0.850676 -0.002222 0.0
4.298836 2.042264 -0.000424 0.0
1.669082 0.625756 0.002499 0.0
0.840871 0.652731 0.002144 0.0
2.912808 1.466138 -0.000105 0.0
0.582803 1.361339 0.004241 0.0
1.637672 0.836663 0.000771 0.0
0.660570 1.441622 -0.000208 0.0
2.173352 0.935987 0.001627 0.0
1.859596 0.954567 0.001092 0.0
0.576937 0.121505 -0.002262 0.0
4.030849 1.989524 -0.004152 0.0
1.060715 0.893673 -0.000085 0.0
4.251647 1.483583 -0.001020 0.0
2.793400 0.650612 -0.000378 0.0
1.561926 1.075614 0.001617 0.0
1.378151 2.283759 -0.003340 0.0
2.752280 1.276205 -0.002113 0.0
4.062147 1.577661 -0.000200 0.0
1.570268 0.913848 -0.000798 0.0
4.171067 0.730259 -0.001288 0.0
0.614327 2.223440 -0.002957 0.0
0.028584 0.317756 0.001211 0.0
2.522506 0.482792 -0.003715 0.0
2.265413 0.117109 0.001357 0.0
0.262317 1.091166 0.004662 0.0
1.603798 1.511950 -0.001300 0.0
0.344281 1.070464 0.002991 0.0
2.614234 2.249982 -0.000313 0.0
2.894850 1.528450 0.005060 0.0
3.930898 0.682015 0.005132 0.0
1.830200 0.562008 -0.001605 0.0
3.525862 0.858132 0.003550 0.0
3.702166 1.065066 0.001876 0.0
3.335419 0.590051 -0.001348 0.0
0.498064 1.449304 0.000137 0.0
0.179361 0.557153 -0.000989 0.0
2.413552 0.036841 -0.000127 0.0
2.807250 1.792217 -0.001662 0.0
1.598332 2.157205 -0.003762 0.0
3.936698 1.721432 -0.003293 0.0
1.302531 0.260438 -0.000385 0.0
2.329396 0.107294 0.002957 0.0
4.147323 1.100279 0.001981 0.0
2.256644 1.498282 0.000600 0.0
1.743182 2.199831 0.002632 0.0
2.465372 1.933881 -0.000598 0.0
1.804979 1.257729 -0.002975 0.0
2.483564 1.724513 -0.001587 0.0
0.211664 0.085107 -0.000104 0.0
1.764096 1.091686 0.001617 0.0
3.601531 0.300385 0.000933 0.0
2.001533 0.001688 0.001340 0.0
0.488368 0.575971 0.003142 0.0
3.769205 1.088400 0.000170 0.0
2.303202 1.886545 -0.002099 0.0
4.244056 0.086282 0.000326 0.0
2.419706 2.062224 0.000357 0.0
1.027473 1.712284 -0.000781 0.0
4.090864 0.552212 -0.004582 0.0
3.856288 1.878347 -0.005357 0.0
1.728412 1.861608 -0.003286 0.0
1.741471 1.916777 0.003038 0.0
0.916726 1.618825 0.000102 0.0
2.802126 0.740476 0.001354 0.0
2.081218 0.096031 -0.003038 0.0
0.517587 1.306035 -0.005482 0.0
3.638109 0.665931 0.001453 0.0
1.421644 1.054635 0.002055 0.0
3.178235 0.027353 0.000562 0.0
1.160323 0.715161 0.003189 0.0
3.219245 0.940447 0.001375 0.0
1.232160 0.288317 0.000162 0.0
3.613032 1.785575 0.008748 0.0
1.089673 1.154545 -0.004212 0.0
2.749016 0.505576 -0.001143 0.0
1.341979 1.281991 -0.001355 0.0
2.374121 0.813858 -0.001995 0.0
4.019798 0.515408 -0.001096 0.0
1.810157 0.865850 0.002445 0.0
0.268144 0.956163 -0.003861 0.0
3.524981 1.180971 -0.001926 0.0
2.607895 1.357019 -0.001114 0.0
0.564147 1.113526 -0.000761 0.0
1.738766 0.716485 -0.002230 0.0
3.429563 1.565880 0.000529 0.0
1.785543 0.919203 0.001480 0.0
2.321070 1.631410 -0.000839 0.0
2.305922 1.144999 0.001350 0.0
4.222166 1.344937 0.003959 0.0
2.279344 1.525142 -0.000645 0.0
2.062493 2.078602 0.000673 0.0
2.732653 1.113752 -0.001152 0.0
2.786595 0.980509 0.001817 0.0
3.456178 0.077833 0.001015 0.0
3.595445 0.520847 0.001989 0.0
0.867396 2.072206 -0.002598 0.0
2.903586 0.268031 -0.000441 0.0
0.951961 1.531551 -0.002787 0.0
2.146829 0.325824 0.007202 0.0
2.079083 2.181123 -0.004729 0.0
1.090738 2.138812 -0.006249 0.0
3.326935 0.024788 -0.000695 0.0
0.892997 0.739362 0.000605 0.0
3.730909 0.688084 -0.001495 0.0
0.360517 1.989536 0.000391 0.0
4.149546 0.032286 0.002009 0.0
0.563094 0.014742 0.000497 0.0
3.637400 0.442981 -0.004361 0.0
2.529308 0.635197 -0.004910 0.0
4.084016 2.182471 -0.003432 0.0
3.883453 1.466452 0.000190 0.0
2.242923 2.126317 -0.001272 0.0
3.106869 0.454751 0.001786 0.0
0.031420 1.975006 -0.001376 0.0
2.031491 1.727637 0.003739 0.0
2.503008 1.483645 -0.002506 0.0
2.669350 1.406661 0.007718 0.0
3.294135 0.956271 -0.000818 0.0
2.227424 0.780267 0.000642 0.0
3.411760 0.772597 0.000354 0.0
4.147921 1.022685 -0.003048 0.0
0.525200 2.183788 0.000074 0.0
3.916088 1.572884 -0.000559 0.0
4.038911 2.289862 0.003833 0.0
0.373823 2.197179 -0.001212 0.0
4.368614 0.413294 -0.000359 0.0
2.311426 1.434298 0.004184 0.0
0.741762 0.594801 -0.000893 0.0
1.074451 0.777186 -0.001046 0.0
2.563390 1.498594 0.000167 0.0
2.192313 0.469583 -0.000317 0.0
1.577770 0.695900 -0.002395 0.0
3.297353 0.800452 -0.001922 0.0
3.567687 0.454056 0.000672 0.0
0.568550 0.993449 0.001161 0.0
2.863558 0.398831 -0.001298 0.0
3.658683 2.065815 0.004822 0.0
0.650562 1.896640 -0.003159 0.0
0.532386 1.642158 -0.003019 0.0
1.809864 1.609059 0.001421 0.0
4.167573 1.090437 -0.000189 0.0
1.341415 1.250672 0.005053 0.0
0.181659 1.695712 0.005041 0.0
0.915773 1.465897 -0.003517 0.0
3.412252 1.291740 -0.001729 0.0
0.431180 1.730886 -0.002134 0.0
1.838125 2.216412 0.002350 0.0
3.661646 1.064841 -0.002588 0.0
4.274133 2.157260 -0.001943 0.0
2.758603 0.202645 -0.001438 0.0
0.654694 0.989034 -0.001068 0.0
0.698538 2.052024 0.001256 0.0
3.401465 1.347022 -0.000204 0.0
3.408711 0.794409 -0.000455 0.0
3.501552 0.319438 0.000415 0.0
2.254117 1.441773 0.005055 0.0
4.216572 1.739297 -0.000127 0.0
2.960426 1.714942 0.001463 0.0
4.291576 1.276206 -0.001660 0.0
4.000425 0.434222 -0.002234 0.0
2.631093 0.708905 -0.000682 0.0
0.505524 0.162696 0.002271 0.0
2.040542 1.194487 -0.003057 0.0
3.962055 0.683176 0.002537 0.0
0.489908 0.340919 -0.002983 0.0
0.826800 0.872162 -0.001033 0.0
1.590727 1.760319 0.002200 0.0
3.597469 0.691402 0.001655 0.0
2.857620 2.202578 -0.002394 0.0
2.596821 1.109000 -0.000583 0.0
0.605916 1.923308 0.000333 0.0
0.748201 1.735714 0.004466 0.0
0.222488 1.693974 -0.000541 0.0
2.474800 0.603486 -0.000415 0.0
0.238159 2.215541 -0.004438 0.0
0.538672 0.330514 -0.002879 0.0
1.100938 1.181919 0.000044 0.0
3.440026 1.220922 -0.000815 0.0
3.337545 1.466574 -0.001344 0.0
0.544306 1.706471 0.002354 0.0
3.715013 2.024623 0.000257 0.0
4.203682 1.360610 -0.000415 0.0
1.585028 0.829140 -0.001787 0.0
0.801365 0.810951 -0.000190 0.0
3.875643 0.064963 -0.000577 0.0
0.280476 1.358439 -0.002447 0.0
3.550829 0.305173 -0.003386 0.0
1.138094 0.167311 -0.001208 0.0
1.336669 0.929653 0.000431 0.0
3.713003 1.140219 0.001052 0.0
0.490074 1.133413 -0.000417 0.0
1.886939 0.977233 -0.001444 0.0
3.134655 0.967198 0.000580 0.0
1.655518 1.616896 -0.002661 0.0
2.386671 0.157686 0.001582 0.0
4.086032 2.275503 -0.000896 0.0
1.882211 0.707902 -0.001570 0.0
1.996500 1.314925 -0.001457 0.0
3.056721 1.534378 0.003467 0.0
1.119024 1.627278 0.003582 0.0
3.677073 0.752855 0.003685 0.0
2.609815 0.962012 -0.001456 0.0
3.062766 1.586861 -0.002661 0.0
0.327263 1.192834 0.001043 0.0
4.173103 2.089990 0.002358 0.0
3.842698 1.494075 0.000522 0.0
0.720477 1.665177 0.000298 0.0
3.362065 0.059209 -0.002657 0.0
0.168288 1.652236 -0.001395 0.0
2.580120 0.963916 -0.003987 0.0
2.714715 1.280375 0.001079 0.0
1.552885 2.103685 0.001312 0.0
0.539658 0.258837 0.002205 0.0
1.534314 0.762149 0.002485 0.0
0.319153 0.845693 0.005740 0.0
3.301251 0.414526 -0.003837 0.0
0.030743 0.791275 -0.002887 0.0
4.121460 0.245273 0.001014 0.0
1.831832 0.098634 -0.002972 0.0
4.265588 1.332767 -0.000184 0.0
0.261405 1.851308 -0.001937 0.0
0.378057 0.889106 0.002954 0.0
0.162158 1.395648 -0.002416 0.0
2.724596 0.290285 -0.002824 0.0
0.247412 0.692306 -0.002480 0.0
2.806131 0.895766 0.002067 0.0
2.110169 0.654151 0.002464 0.0
2.407475 2.284528 -0.004140 0.0
1.784004 2.040638 -0.002661 0.0
2.012798 0.042676 -0.003508 0.0
2.464445 0.622230 0.003727 0.0
1.814021 1.850816 0.000814 0.0
4.305982 1.425790 0.004185 0.0
2.555759 1.310596 -0.001699 0.0
0.992463 0.521337 0.001085 0.0
1.062916 0.449942 0.003313 0.0
2.961930 0.729663 0.001059 0.0
0.240505 2.243445 -0.005580 0.0
0.217608 0.722752 -0.004217 0.0
3.451696 0.370196 -0.001468 0.0
0.234742 1.936846 -0.002470 0.0
0.250394 1.698657 0.005264 0.0
1.683518 1.331436 0.003744 0.0
0.051509 0.631961 -0.003425 0.0
0.953666 0.547569 0.003152 0.0
1.472709 0.336917 -0.000857 0.0
3.153215 1.986860 0.000165 0.0
0.464024 1.668214 0.002436 0.0
1.192000 1.828994 -0.004640 0.0
3.862630 0.815524 0.000342 0.0
2.062961 2.250792 -0.001188 0.0
1.120217 0.013689 -0.001474 0.0
1.656397 1.796969 0.004023 0.0
1.648670 0.715943 0.004166 0.0
1.814131 0.172701 -0.000485 0.0
3.269422 1.157072 -0.001278 0.0
0.607892 1.432440 -0.003379 0.0
2.621649 1.630533 -0.000320 0.0
3.930237 0.634087 -0.001020 0.0
4.356498 1.751007 0.002675 0.0
1.778379 1.530009 -0.002331 0.0
3.570771 0.490340 -0.002676 0.0
2.290986 1.484101 0.001991 0.0
1.508036 0.797393 -0.002310 0.0
2.778855 1.458606 -0.001221 0.0
1.757797 0.171664 0.000067 0.0
1.288137 0.394365 -0.000103 0.0
1.674170 0.171519 0.000009 0.0
3.871945 1.947146 -0.002704 0.0
3.858153 0.436504 0.004544 0.0
1.241928 0.604289 -0.005750 0.0
4.091234 1.499585 -0.003673 0.0
1.762015 0.548156 -0.001122 0.0
3.376703 1.600396 0.002617 0.0
1.431049 0.495878 0.003073 0.0
1.456920 0.032659 0.000249 0.0
0.138583 1.615926 -0.000846 0.0
0.129427 2.048624 0.002060 0.0
3.215189 2.178732 0.001494 0.0
0.394145 0.790549 0.002443 0.0
0.261704 1.431043 -0.000192 0.0
1.889247 1.895692 0.000205 0.0
2.064177 0.016289 0.002128 0.0
3.240494 0.087660 0.003808 0.0
1.584071 0.414501 0.003029 0.0
4.003126 0.293413 -0.001188 0.0
1.975682 2.226250 -0.003433 0.0
0.248038 2.041318 -0.000357 0.0
1.336136 1.243636 -0.001592 0.0
1.354928 0.290547 0.000528 0.0
2.304454 2.017658 0.000795 0.0
1.670221 0.778939 -0.003202 0.0
3.065240 0.654506 -0.001316 0.0
3.537765 1.573693 -0.000695 0.0
0.422820 1.340430 -0.000241 0.0
3.586080 2.072472 -0.004297 0.0
2.852604 1.012631 -0.000259 0.0
1.618332 1.200235 -0.002283 0.0
1.339044 2.264647 -0.004959 0.0
3.474365 0.690233 -0.001746 0.0
1.062791 1.676720 -0.002351 0.0
3.241771 0.571001 0.002519 0.0
3.588428 1.711101 -0.000886 0.0
0.605285 1.306370 -0.000606 0.0
1.633292 1.424616 -0.002791 0.0
2.479081 2.015251 0.000064 0.0
4.308079 0.821560 -0.000557 0.0
3.408287 0.918591 -0.001458 0.0
1.217909 2.198132 0.000079 0.0
1.329780 1.781369 0.002276 0.0
4.167253 0.984786 -0.001031 0.0
1.175662 1.114012 0.001121 0.0
0.328693 1.636604 0.002399 0.0
3.728605 0.758801 0.000109 0.0
3.353639 0.048041 0.001131 0.0
4.031821 1.129563 -0.000065 0.0
3.795224 1.477306 -0.000771 0.0
3.655982 1.516317 -0.001534 0.0
3.120706 0.096533 -0.002126 0.0
0.481582 1.977106 -0.002843 0.0
2.091871 0.275592 0.000093 0.0
0.284639 1.246638 0.000816 0.0
1.476259 1.146062 -0.001579 0.0
3.445929 1.743384 -0.002786 0.0
3.463474 1.637176 -0.000893 0.0
1.795876 1.415305 0.002520 0.0
3.569189 0.337487 0.000266 0.0
2.256226 1.822064 -0.001045 0.0
2.181606 0.536388 0.001628 0.0
2.790923 1.578128 0.006275 0.0
0.226633 0.080540 0.000471 0.0
3.795264 1.604953 -0.002185 0.0
2.756355 0.866261 -0.000570 0.0
3.714373 1.729106 -0.000594 0.0
1.985172 1.028499 -0.000830 0.0
3.606439 0.432104 -0.000736 0.0
0.109472 1.610008 -0.000704 0.0
0.992105 1.780759 0.000070 0.0
0.526422 1.508744 0.001545 0.0
2.565635 0.140118 -0.000546 0.0
2.479185 1.779099 -0.000482 0.0
2.893212 0.730369 -0.002715 0.0
2.708709 0.547924 -0.001390 0.0
3.183692 2.093456 0.001401 0.0
0.995880 1.689392 -0.000369 0.0
2.453781 1.653607 -0.002581 0.0
2.312130 0.213295 -0.001056 0.0
2.812196 0.972513 -0.001951 0.0
2.336625 1.144601 -0.002552 0.0
0.296881 1.513817 -0.002516 0.0
1.572391 0.502682 0.000272 0.0
0.832914 1.494672 -0.002494 0.0
4.099861 0.871892 -0.001651 0.0
3.567493 1.734201 0.000722 0.0
4.322894 1.993471 0.001897 0.0
3.820064 0.982656 -0.000768 0.0
3.402644 1.096928 -0.000467 0.0
0.023419 0.831577 0.000093 0.0
1.316518 1.607953 -0.007831 0.0
3.298611 1.486250 -0.000696 0.0
1.287390 0.266808 -0.000739 0.0
2.261988 1.257304 -0.002372 0.0
4.174714 1.470733 -0.001169 0.0
1.598164 1.206178 0.002922 0.0
2.872802 0.849047 -0.001871 0.0
2.431003 0.183758 0.000503 0.0
2.414355 1.509680 0.002374 0.0
2.132490 1.078058 0.001173 0.0
0.926479 1.697531 0.002534 0.0
2.395091 1.277530 -0.003796 0.0
0.174726 0.992090 -0.002640 0.0
3.464415 0.182008 -0.003345 0.0
2.340302 0.221879 0.000512 0.0
3.617173 1.307456 0.002099 0.0
0.521964 0.145742 -0.000084 0.0
0.356097 1.198732 0.000320 0.0
2.235110 1.797436 0.001549 0.0
2.962387 2.064243 -0.002048 0.0
3.385060 0.186078 0.000162 0.0
4.220172 0.690242 -0.000593 0.0
1.029479 1.634993 -0.001802 0.0
0.981170 1.297244 -0.002744 0.0
4.205385 -0.007247 -0.000281 0.0
4.257074 1.395654 -0.000135 0.0
3.652196 0.269359 0.001592 0.0
4.192025 2.118352 -0.000983 0.0
1.314342 2.092503 -0.001512 0.0
0.127589 1.035214 0.000900 0.0
4.230182 0.824452 -0.001517 0.0
0.103552 0.496192 -0.005676 0.0
0.728941 1.488670 -0.004374 0.0
2.359102 1.387642 -0.001705 0.0
4.242645 1.423223 0.007239 0.0
0.926896 0.095808 -0.002008 0.0
0.514971 0.121810 -0.000307 0.0
0.860895 2.246693 0.001720 0.0
0.280891 1.182608 0.001193 0.0
4.341782 1.583041 -0.002251 0.0
3.775974 1.448247 -0.002884 0.0
0.002604 1.920234 0.001022 0.0
3.274394 0.619551 0.001166 0.0
1.710564 1.836252 -0.003107 0.0
0.058921 2.085172 0.003391 0.0
2.100568 0.841005 -0.001046 0.0
1.187080 0.425246 -0.000078 0.0
0.860141 1.434734 0.000199 0.0
3.847137 1.286877 -0.000785 0.0
2.312388 2.230943 0.003652 0.0
0.977968 2.234260 0.001872 0.0
3.728964 1.854927 -0.001386 0.0
1.297233 1.208461 -0.004280 0.0
1.807000 0.247292 0.005950 0.0
2.882068 0.999724 -0.001594 0.0
2.359789 2.050997 -0.003224 0.0
1.194188 2.179213 -0.000229 0.0
1.662874 1.809813 -0.003078 0.0
1.590306 2.034876 -0.001651 0.0
0.016300 1.847818 -0.003644 0.0
3.947364 1.722864 -0.001438 0.0
3.942063 0.640725 -0.000957 0.0
2.562910 2.127387 -0.001223 0.0
1.383029 1.218802 0.001386 0.0
0.873761 1.642391 -0.002204 0.0
4.365191 1.175252 -0.009297 0.0
1.521759 2.272997 -0.000122 0.0
3.414045 1.594208 -0.002797 0.0
3.817869 1.064096 -0.002564 0.0
3.777624 2.099852 0.005139 0.0
2.221022 1.829658 -0.003730 0.0
0.669716 2.145568 -0.000799 0.0
1.963877 1.628182 0.004475 0.0
1.573070 0.386569 -0.001087 0.0
2.504647 0.538774 0.000135 0.0
1.849381 1.448066 0.000942 0.0
1.849657 0.933643 0.001494 0.0
3.509793 1.207585 -0.000251 0.0
1.168661 2.154248 -0.000826 0.0
3.525602 0.205830 0.002309 0.0
0.744506 0.005156 0.003040 0.0
1.621188 2.185677 -0.001673 0.0
0.669894 0.127565 0.002430 0.0
1.638913 0.456859 0.003745 0.0
3.403536 0.019551 0.000342 0.0
1.014677 1.419310 -0.000816 0.0
2.584983 0.130987 -0.002318 0.0
3.180450 2.214731 -0.000225 0.0
3.845650 2.159442 0.003650 0.0
4.164017 1.276296 -0.002782 0.0
2.536386 1.972983 -0.003256 0.0
1.187164 0.676215 0.002534 0.0
1.978043 1.188833 0.002961 0.0
3.850400 1.602017 -0.000962 0.0
2.586657 0.816761 -0.001641 0.0
1.948000 1.533223 -0.001148 0.0
2.108459 0.944945 0.002843 0.0
2.758341 0.190508 -0.000525 0.0
1.357558 1.079263 -0.001478 0.0
0.796643 1.374607 -0.000072 0.0
4.184206 0.993257 0.000024 0.0
3.690162 2.207091 0.001068 0.0
2.337346 1.232297 0.000315 0.0
4.077650 1.300338 0.000550 0.0
0.372879 0.860682 0.002260 0.0
1.130071 0.599973 -0.000476 0.0
0.010317 1.105052 0.000953 0.0
2.796633 0.703673 0.009255 0.0
3.805571 1.270811 -0.001891 0.0
1.454188 0.366513 -0.000197 0.0
1.789387 0.910722 0.001878 0.0
0.873592 0.299790 -0.000608 0.0
2.820228 0.482507 -0.005171 0.0
3.397518 0.245890 0.000757 0.0
3.034813 0.086566 -0.000193 0.0
2.202885 0.249972 -0.002564 0.0
2.558701 1.714411 0.001381 0.0
0.068763 1.871546 0.001363 0.0
4.044209 0.889185 0.000335 0.0
3.012831 0.791214 -0.001617 0.0
1.425693 2.271988 0.000339 0.0
2.547327 1.431928 -0.003042 0.0
1.566667 0.452032 -0.000588 0.0
0.853792 1.861609 -0.002504 0.0
3.605153 2.217567 -0.001057 0.0
2.254068 0.952409 0.002320 0.0
1.101886 0.690571 -0.003895 0.0
4.321696 1.153628 -0.004538 0.0
2.058323 2.046141 0.001753 0.0
1.578306 1.613563 -0.000669 0.0
3.614820 0.155321 -0.000343 0.0
0.119901 0.909720 -0.003302 0.0
0.480830 0.641414 0.001393 0.0
2.202288 1.398500 0.004497 0.0
2.039424 0.037828 -0.000519 0.0
1.109844 0.582856 -0.002491 0.0
0.053017 0.347089 0.000537 0.0
3.316061 0.860555 0.000919 0.0
2.976016 0.966374 0.001409 0.0
2.095425 0.836373 0.000699 0.0
1.284664 0.249412 0.002080 0.0
2.528070 1.116282 -0.001114 0.0
0.413953 0.341323 -0.000471 0.0
4.359522 0.567169 -0.001326 0.0
2.390706 2.154616 -0.000375 0.0
3.153197 0.885840 0.001210 0.0
3.941095 0.038786 0.000445 0.0
3.734293 1.776702 0.000563 0.0
0.931977 0.736123 0.001645 0.0
1.358098 1.825837 0.001208 0.0
0.526733 1.071789 0.004369 0.0
3.007114 0.293112 0.000213 0.0
3.568536 1.245087 -0.003904 0.0
0.931940 0.623440 -0.000102 0.0
2.751660 1.494197 -0.002346 0.0
2.078013 1.845961 0.001254 0.0
0.281032 2.170398 -0.002592 0.0
1.927110 2.167969 0.003809 0.0
2.261761 1.156065 -0.001553 0.0
0.071823 1.837214 -0.001735 0.0
3.637426 1.954414 -0.004059 0.0
4.106890 1.747237 0.003529 0.0
1.532411 2.118270 -0.003130 0.0
1.352184 2.236896 -0.002866 0.0
3.167993 1.232872 0.001696 0.0
0.564898 2.265253 -0.002862 0.0
3.642675 0.714917 0.001075 0.0
4.177003 0.984558 0.002058 0.0
3.925975 1.354628 -0.001293 0.0
3.747506 0.366995 -0.002813 0.0
0.553680 1.051692 -0.000692 0.0
3.672935 0.830817 -0.000870 0.0
1.016699 2.218354 -0.002750 0.0
4.019310 0.836527 0.001778 0.0
3.322088 1.157544 -0.000202 0.0
1.870542 1.260376 -0.003273 0.0
0.635660 1.137258 0.001151 0.0
0.365094 1.969837 0.003197 0.0
2.304378 1.426667 -0.002207 0.0
0.150793 1.660165 -0.005154 0.0
0.208010 0.284536 -0.003812 0.0
0.843828 1.144315 -0.002412 0.0
3.322658 0.108612 -0.001429 0.0
3.864360 1.488639 0.002426 0.0
3.705520 0.779951 0.003784 0.0
1.190357 1.974728 -0.003349 0.0
0.197106 1.363837 0.000253 0.0
2.482959 1.734970 0.004208 0.0
0.849784 0.583841 0.001931 0.0
1.099386 0.027490 0.000349 0.0
1.483418 1.918768 -0.000122 0.0
3.642984 1.562711 -0.002924 0.0
2.752623 1.137655 -0.000864 0.0
1.826642 1.760837 -0.004864 0.0
3.292716 2.100249 -0.002141 0.0
1.423493 1.416849 0.004640 0.0
3.686737 0.744459 -0.001106 0.0
3.196312 2.041231 -0.001011 0.0
1.943010 0.372271 0.000270 0.0
0.451089 1.162746 0.000490 0.0
2.030610 0.984884 0.002012 0.0
3.514460 0.401117 -0.002932 0.0
4.105879 0.598012 -0.000532 0.0
2.328600 0.711521 -0.000272 0.0
4.111801 1.181172 0.000522 0.0
1.881117 0.817827 0.005708 0.0
2.356755 1.695925 0.003123 0.0
0.262909 1.351586 -0.000412 0.0
3.863097 0.138960 -0.000202 0.0
0.068887 0.235058 0.007049 0.0
3.392998 0.748059 -0.001495 0.0
1.981605 0.900559 0.001811 0.0
0.468712 0.588049 0.000753 0.0
2.476037 1.033181 -0.001817 0.0
2.765299 0.609318 -0.003451 0.0
1.294106 0.998999 -0.003344 0.0
1.405053 1.936460 0.001668 0.0
0.640374 0.740410 -0.004848 0.0
1.362354 0.304660 0.003528 0.0
0.327691 0.475908 0.003493 0.0
0.097568 0.391778 0.003644 0.0
1.237999 2.078884 0.000039 0.0
0.690500 1.961312 0.001071 0.0
0.758132 1.457842 -0.000070 0.0
0.004938 0.494706 -0.000257 0.0
2.547482 0.999971 -0.002524 0.0
3.856431 0.620818 -0.001083 0.0
1.041802 1.716488 0.003232 0.0
0.959242 1.774896 0.001709 0.0
1.839217 1.291122 -0.001310 0.0
3.843108 0.021418 0.002765 0.0
0.532441 1.005897 -0.000633 0.0
1.181776 1.398070 0.002778 0.0
2.298951 1.848076 -0.001716 0.0
2.317693 2.006450 -0.001952 0.0
0.029844 0.554457 0.001263 0.0
0.669331 1.797239 -0.000576 0.0
4.266632 2.049226 -0.004457 0.0
2.441762 1.458243 0.000251 0.0
3.040973 0.389315 0.002035 0.0
2.633255 2.272798 -0.001500 0.0
1.799012 1.872157 -0.003397 0.0
1.314426 0.288016 -0.000417 0.0
1.618165 1.252513 0.000020 0.0
2.186089 1.834140 0.002926 0.0
0.886448 0.600075 -0.000689 0.0
2.057512 2.157852 -0.001017 0.0
2.468349 0.790149 -0.000554 0.0
0.550185 1.155389 -0.002972 0.0
1.212251 2.082807 -0.003121 0.0
2.311823 0.828275 0.002206 0.0
3.860569 1.334507 0.003778 0.0
2.475957 1.235575 -0.002471 0.0
0.856199 1.567793 -0.001235 0.0
3.679169 1.388109 0.001005 0.0
3.719571 1.062509 0.004949 0.0
3.595737 0.249216 -0.002993 0.0
4.282708 0.687679 0.001322 0.0
1.339354 1.134900 -0.000099 0.0
2.102124 0.612488 -0.002482 0.0
1.590660 1.707367 0.002761 0.0
0.661381 2.002947 -0.004635 0.0
1.954088 1.895638 0.000163 0.0
3.120301 1.352198 -0.005250 0.0
0.305694 0.199090 -0.000420 0.0
3.266737 0.438811 -0.003277 0.0
3.147119 1.000530 0.003702 0.0
3.185506 0.177875 -0.001903 0.0
1.289188 1.717618 -0.002970 0.0
0.905229 1.505213 -0.005145 0.0
0.998787 1.837512 -0.002995 0.0
3.055746 1.390592 -0.003566 0.0
2.319457 1.941965 0.000406 0.0
3.483090 1.550184 -0.000936 0.0
2.285612 0.225512 0.002257 0.0
1.400371 1.642896 0.000974 0.0
0.599752 0.540428 0.001317 0.0
1.174934 0.540361 0.000572 0.0
1.067775 0.789308 -0.000633 0.0
0.596631 1.047658 0.000079 0.0
1.440879 0.081362 -0.001168 0.0
1.617124 2.092519 -0.001924 0.0
0.812478 2.225053 0.003167 0.0
1.313901 2.253863 0.000582 0.0
2.063840 2.035966 -0.003264 0.0
0.669129 0.391661 -0.001115 0.0
3.068372 1.953811 0.001705 0.0
0.753419 0.887410 -0.002407 0.0
1.055231 0.962390 -0.001874 0.0
3.314640 2.067167 -0.004017 0.0
0.914376 1.261967 0.001080 0.0
3.938445 0.398496 -0.002435 0.0
4.171231 1.247460 -0.003238 0.0
1.405015 0.530984 0.001273 0.0
1.865862 0.526009 -0.000740 0.0
4.264094 1.471535 -0.002540 0.0
4.141918 1.190312 0.000395 0.0
3.625416 0.930928 0.002574 0.0
3.455061 0.086129 0.001468 0.0
2.518701 1.792624 0.001506 0.0
2.075765 0.811752 -0.002158 0.0
2.387228 0.924158 -0.002410 0.0
3.659438 1.268509 -0.005378 0.0
1.459582 0.790332 -0.004602 0.0
4.147735 1.495864 0.002984 0.0
0.557262 1.658678 0.003050 0.0
0.086235 1.347625 -0.004245 0.0
0.079221 2.225574 0.005208 0.0
2.963908 0.058177 -0.001320 0.0
4.246383 1.985485 -0.002061 0.0
1.174236 0.522761 0.002633 0.0
0.285757 0.306610 -0.001079 0.0
3.107395 0.093636 0.003512 0.0
4.227052 0.050553 -0.002852 0.0
0.328858 1.229907 -0.003437 0.0
2.529124 1.506360 -0.003534 0.0
3.396988 0.235283 -0.005918 0.0
2.183491 2.197328 -0.001048 0.0
1.799509 1.411740 -0.001134 0.0
2.872416 0.401152 0.002219 0.0
1.806387 2.002655 0.000049 0.0
1.945802 2.231851 -0.000936 0.0
0.257157 0.753020 -0.004234 0.0
4.038181 1.752469 -0.002535 0.0
1.647165 1.572544 -0.001542 0.0
2.050292 1.729049 0.001426 0.0
0.671183 0.645638 -0.001543 0.0
1.865952 0.975775 0.002046 0.0
2.513311 0.878258 0.001127 0.0
0.503140 0.366128 -0.001390 0.0
2.968099 1.872799 0.000975 0.0
2.504669 2.051520 0.000464 0.0
3.092291 0.284223 0.003056 0.0
3.564699 0.351415 0.001533 0.0
0.039477 0.637665 0.001442 0.0
0.044367 0.293110 -0.000540 0.0
3.542511 1.361316 -0.002693 0.0
3.278873 1.747182 0.005084 0.0
2.402560 0.456856 0.004042 0.0
4.363714 0.222150 0.000319 0.0
1.260835 0.795252 -0.004072 0.0
0.038150 1.748002 -0.002316 0.0
2.101483 1.297354 0.002837 0.0
0.006661 1.656831 0.002249 0.0
0.916281 1.452497 0.003122 0.0
1.342410 1.943451 0.000506 0.0
3.751751 1.610415 -0.000164 0.0
1.039485 1.701121 -0.002709 0.0
3.311306 1.364077 -0.008502 0.0
3.401177 0.882709 -0.000399 0.0
3.595618 2.065975 0.001118 0.0
3.068798 0.465266 0.002024 0.0
1.780849 1.202633 -0.002916 0.0
0.129012 1.049768 0.000508 0.0
0.964073 2.293282 -0.006055 0.0
0.091575 2.233557 -0.000817 0.0
1.771173 0.862830 -0.000213 0.0
2.195672 2.170370 0.000171 0.0
3.127540 0.920184 0.000506 0.0
3.892131 1.581657 0.001082 0.0
2.589072 0.615150 -0.001062 0.0
3.481661 0.946326 0.002494 0.0
1.865308 0.445537 0.002989 0.0
3.429706 1.141064 -0.000025 0.0
3.266055 0.240452 -0.004468 0.0
3.318403 1.175979 -0.002898 0.0
0.185537 1.323306 0.000927 0.0
0.881315 0.846490 -0.000416 0.0
0.521591 1.644102 0.000751 0.0
0.468029 0.896079 0.001901 0.0
2.875286 0.435042 -0.001135 0.0
3.449481 0.465529 0.006228 0.0
4.058912 0.431931 0.001108 0.0
1.294232 2.180569 0.000329 0.0
2.769134 0.003199 -0.001574 0.0
4.351487 1.818107 0.001109 0.0
4.371487 0.736196 0.000780 0.0
0.741358 0.635800 -0.001956 0.0
1.033472 2.113943 -0.001415 0.0
2.170227 1.785303 -0.001114 0.0
3.154747 0.102103 0.002501 0.0
2.956470 0.172771 -0.000729 0.0
4.088798 0.668601 -0.003963 0.0
2.857754 1.604807 0.003456 0.0
2.799993 2.020235 -0.003409 0.0
2.812789 0.443122 -0.000092 0.0
2.275428 0.022378 -0.005737 0.0
0.652769 2.116762 0.001549 0.0
0.977839 1.271930 0.004310 0.0
2.599171 2.262262 0.000365 0.0
4.146234 1.897438 0.002991 0.0
2.302532 1.178135 0.001183 0.0
4.167784 1.240599 -0.003774 0.0
3.837577 0.872504 0.003070 0.0
3.514877 1.173205 0.000964 0.0
4.193726 0.009906 -0.003361 0.0
2.418471 0.115931 0.003355 0.0
1.770486 0.641191 -0.001089 0.0
1.794821 0.706126 0.000671 0.0
1.028462 0.730421 -0.000526 0.0
4.063629 1.001587 0.002344 0.0
1.514260 1.027502 -0.000681 0.0
0.828420 1.405941 -0.001698 0.0
2.438670 1.631045 -0.005260 0.0
3.541873 1.542443 0.000778 0.0
4.051869 1.801917 -0.001598 0.0
3.850473 2.157601 -0.000469 0.0
3.215960 1.393697 0.000402 0.0
2.656222 1.918889 0.000326 0.0
3.088520 2.004088 0.000097 0.0
1.885265 0.463260 0.001816 0.0
2.695054 1.743696 -0.000507 0.0
3.625765 2.053798 0.002666 0.0
1.392714 1.310548 0.002484 0.0
1.253496 2.003588 -0.002956 0.0
2.579221 0.767708 -0.001227 0.0
2.606277 0.163039 -0.001990 0.0
3.926770 1.497633 0.005190 0.0
1.798114 0.590455 -0.002110 0.0
0.360177 1.027658 0.005178 0.0
0.153839 0.495632 -0.003836 0.0
2.765472 1.272526 0.001042 0.0
1.650792 0.379710 -0.001522 0.0
2.226410 1.136016 0.003584 0.0
0.631326 1.029878 -0.003039 0.0
0.921989 1.989693 0.000020 0.0
1.335741 1.600089 -0.006730 0.0
1.997414 1.030194 -0.003378 0.0
2.474393 1.285912 -0.000395 0.0
3.711604 1.034294 0.003827 0.0
1.715805 0.617249 0.001709 0.0
2.149418 2.232922 -0.001427 0.0
1.650276 1.070063 -0.000536 0.0
1.348570 1.477601 0.003016 0.0
3.452880 0.263226 -0.003910 0.0
2.986714 2.119328 0.001360 0.0
1.641953 0.757634 0.002353 0.0
2.535214 2.271143 -0.004014 0.0
3.727887 1.941178 -0.000848 0.0
2.655274 0.754064 0.000995 0.0
3.264197 0.953968 -0.003385 0.0
0.915604 0.537214 0.001874 0.0
2.267764 0.314822 0.000850 0.0
0.691931 0.918573 0.002454 0.0
1.539022 1.926867 -0.003851 0.0
3.024527 0.580477 -0.001787 0.0
3.825705 0.953436 -0.002467 0.0
3.033194 1.943304 0.004072 0.0
2.293866 0.422174 -0.000472 0.0
3.780713 1.368094 -0.002091 0.0
3.883250 1.839747 0.001940 0.0
1.938216 1.212979 -0.000993 0.0
1.305216 0.838141 -0.003283 0.0
2.534641 2.214018 -0.001837 0.0
0.095291 2.031038 -0.000786 0.0
2.318165 0.266456 0.001397 0.0
1.960199 1.506870 0.002545 0.0
1.165364 0.642025 0.001018 0.0
0.544446 1.880704 -0.003818 0.0
0.544796 0.051269 -0.003183 0.0
0.191997 2.258622 0.000976 0.0
3.231078 1.662137 0.000761 0.0
1.429626 1.641905 -0.001038 0.0
3.987015 1.559426 0.001354 0.0
3.206709 1.282350 0.000697 0.0
3.144386 1.559908 -0.000656 0.0
1.910412 0.481582 0.002897 0.0
2.850358 2.106215 0.003245 0.0
2.469576 1.331476 -0.002268 0.0
2.553474 0.798993 0.000427 0.0
1.070393 0.145264 -0.001059 0.0
3.817658 1.948547 0.002213 0.0
1.336600 1.165631 -0.001369 0.0
3.723243 0.499405 0.000392 0.0
1.708102 1.966892 0.002973 0.0
0.340578 1.898608 -0.002764 0.0
4.317643 1.834798 0.001447 0.0
4.309198 0.406048 -0.002124 0.0
3.462724 2.166846 -0.001836 0.0
1.686027 0.405360 -0.003313 0.0
2.957322 1.315957 -0.001606 0.0
2.969102 0.283811 -0.001494 0.0
3.546452 0.976578 0.003002 0.0
3.503413 1.815584 0.003203 0.0
0.577004 2.003786 -0.003428 0.0
4.083357 0.897594 -0.002542 0.0
1.454504 2.259148 -0.000931 0.0
0.273576 0.943543 -0.001201 0.0
3.599069 1.093944 0.000192 0.0
2.676151 1.489540 0.000174 0.0
1.453561 1.195920 -0.000014 0.0
2.394729 1.992958 -0.003877 0.0
0.418951 1.196836 -0.000583 0.0
1.756481 1.248340 -0.002065 0.0
1.806481 0.315006 0.001953 0.0
0.476566 2.270606 0.002179 0.0
4.311426 0.835354 -0.000233 0.0
3.949045 1.333397 0.003645 0.0
3.811361 0.928454 -0.003098 0.0
0.150715 1.203137 0.002587 0.0
2.046552 0.065925 0.000625 0.0
0.928305 1.862892 0.001290 0.0
1.861125 0.533075 -0.000269 0.0
0.685891 0.031952 -0.003593 0.0
3.739431 0.566487 0.001943 0.0
2.016176 0.144300 0.001245 0.0
3.358554 2.030230 -0.002333 0.0
1.426540 0.462528 0.000725 0.0
1.161656 1.813199 0.002654 0.0
0.698875 1.373766 -0.000996 0.0
0.651011 0.281000 0.000232 0.0
4.244649 1.746625 0.000504 0.0
0.333800 0.728899 0.000527 0.0
3.935642 1.348352 0.000711 0.0
1.844966 0.876773 -0.004218 0.0
1.678654 0.350137 0.000961 0.0
1.929985 2.134829 0.000446 0.0
2.155170 1.554108 -0.001270 0.0
0.101902 0.150152 -0.001684 0.0
2.618172 0.801056 -0.000686 0.0
2.817911 0.229091 0.000227 0.0
3.139577 0.182445 0.001456 0.0
2.734651 1.625441 -0.001275 0.0
0.923474 0.528688 -0.000057 0.0
0.270581 0.751347 -0.005902 0.0
3.985753 0.677662 0.002740 0.0
2.693466 0.714190 -0.002946 0.0
3.597244 1.809527 -0.000059 0.0
0.443085 1.723598 0.000484 0.0
1.276509 1.704860 -0.002366 0.0
1.340537 1.170127 -0.002464 0.0
3.357921 2.276487 -0.001347 0.0
1.384116 1.560422 0.000968 0.0
3.414915 0.448400 -0.000116 0.0
3.712945 1.932118 -0.000003 0.0
0.947132 0.133394 -0.002925 0.0
3.247498 0.275885 0.002800 0.0
0.105408 1.170401 0.000499 0.0
3.489990 0.698126 -0.002937 0.0
4.224853 0.453019 0.002779 0.0
0.961051 1.177080 0.000947 0.0
4.287896 1.354328 0.000752 0.0
2.509299 2.244194 0.000800 0.0
1.605926 0.620394 0.001947 0.0
2.063783 1.110506 -0.001356 0.0
1.582315 1.991900 0.001003 0.0
1.803303 2.191039 -0.000652 0.0
0.749795 0.051749 -0.001689 0.0
4.190028 0.872768 0.002387 0.0
3.160475 1.805638 0.001754 0.0
3.902326 0.401203 -0.001687 0.0
2.240921 2.005803 0.003107 0.0
0.835085 0.310783 0.002640 0.0
3.701292 0.628194 -0.000138 0.0
1.292080 2.030384 -0.002210 0.0
0.293363 1.029732 -0.004190 0.0
1.472723 1.227970 0.003128 0.0
2.175080 1.285382 0.000545 0.0
1.063364 0.193094 0.001180 0.0
2.641692 0.935587 -0.003672 0.0
4.116705 0.125052 0.001942 0.0
2.607947 0.727009 -0.003588 0.0
2.004431 0.807838 -0.003007 0.0
3.112471 1.688711 -0.005467 0.0
0.082663 1.003259 -0.002815 0.0
3.443481 2.198415 0.001443 0.0
0.843302 1.593761 -0.001137 0.0
2.763176 0.503160 0.000591 0.0
2.363831 1.754344 0.002645 0.0
3.564281 1.518791 -0.002832 0.0
3.227719 0.906916 0.001089 0.0
0.047344 0.079739 0.002455 0.0
2.539864 0.358567 -0.000411 0.0
3.075518 0.236009 -0.000892 0.0
2.854132 0.261449 0.000372 0.0
3.900786 0.793663 0.001701 0.0
0.530834 2.156023 -0.000902 0.0
0.622684 0.970565 -0.001343 0.0
2.925199 0.056813 0.002923 0.0
3.671290 0.275461 0.000978 0.0
0.049028 1.823994 -0.003583 0.0
2.192827 0.602976 0.000553 0.0
3.582988 1.217209 0.002144 0.0
0.277404 0.028132 0.002189 0.0
0.600520 1.146423 0.005265 0.0
2.855410 0.166785 0.000828 0.0
2.181569 2.235589 0.007113 0.0
2.218427 2.223854 -0.001098 0.0
0.036277 0.989043 -0.000410 0.0
0.082320 0.815319 0.000482 0.0
3.089895 2.193929 0.001245 0.0
1.009513 0.013999 0.007402 0.0
2.316097 0.546672 0.000753 0.0
1.587581 2.197165 0.000387 0.0
2.744020 1.171843 0.004104 0.0
4.047675 1.962375 -0.009201 0.0
0.961507 0.927936 0.001693 0.0
1.840255 0.348120 0.002503 0.0
3.805017 1.685716 0.004216 0.0
3.706699 1.048110 -0.002876 0.0
2.090820 1.770233 0.001218 0.0
4.356036 0.624864 0.001885 0.0
2.499740 1.978508 -0.001880 0.0
3.521573 0.792225 0.000427 0.0
4.042462 1.368494 0.001718 0.0
3.651708 2.123909 -0.002466 0.0
3.928735 1.092922 -0.003827 0.0
4.029689 2.195920 -0.002124 0.0
3.303401 1.910080 0.001121 0.0
2.486321 0.421539 0.002066 0.0
3.133214 0.197115 -0.001208 0.0
2.750290 0.377509 0.000591 0.0
3.795886 0.219916 0.000936 0.0
1.677536 0.006497 -0.003124 0.0
0.548736 2.060137 0.002970 0.0
0.924995 0.568934 -0.000800 0.0
0.654870 0.557451 0.001104 0.0
2.275947 1.427631 -0.001170 0.0
3.827101 0.083701 -0.004317 0.0
1.125039 1.032252 0.006988 0.0
3.210567 0.452750 -0.001554 0.0
2.937405 1.702807 0.000948 0.0
3.930866 0.545217 -0.003127 0.0
0.069100 2.067470 0.000283 0.0
2.615111 1.978022 0.000113 0.0
2.849155 0.812078 -0.002241 0.0
2.567284 0.580077 0.001971 0.0
1.152509 0.359172 0.000668 0.0
0.485298 2.013203 -0.002410 0.0
1.728195 0.607804 -0.002017 0.0
0.424389 0.923911 -0.001082 0.0
1.807065 0.925185 -0.004093 0.0
3.943753 1.849010 0.002051 0.0
4.075677 2.038870 0.000338 0.0
0.834097 1.765442 -0.001840 0.0
4.094523 1.311192 0.002410 0.0
4.041654 1.007885 0.002224 0.0
3.462119 0.628640 0.000822 0.0
0.254999 1.947262 0.000226 0.0
4.189857 0.732948 -0.000873 0.0
1.372675 1.259072 0.001003 0.0
0.425749 0.726956 0.000057 0.0
0.640762 1.004017 0.004112 0.0
3.519997 0.671358 0.001706 0.0
3.890910 1.230687 -0.001606 0.0
2.820727 0.576627 -0.000695 0.0
2.504679 1.311243 0.002156 0.0
1.783865 1.307583 0.003000 0.0
2.211591 1.394273 0.001198 0.0
4.369374 1.954455 0.001541 0.0
3.715177 0.627584 -0.001123 0.0
0.732180 0.744474 0.001292 0.0
0.078509 1.445786 0.000666 0.0
0.480272 1.093407 -0.002615 0.0
3.223626 1.853449 -0.000117 0.0
1.281451 0.842022 0.001286 0.0
0.991130 0.382081 0.001619 0.0
1.645374 1.666919 -0.001209 0.0
3.644148 2.241227 0.004607 0.0
1.010579 1.630284 0.001394 0.0
0.390077 2.060955 -0.002257 0.0
0.186191 0.943410 -0.001780 0.0
1.326789 1.064073 -0.002780 0.0
-0.000840 0.370346 0.001222 0.0
0.201096 0.358952 -0.001818 0.0
2.315041 0.168978 0.002220 0.0
2.096608 0.653832 0.001173 0.0
1.240686 0.716187 -0.001974 0.0
1.253443 0.103102 -0.001057 0.0
2.917679 1.366545 0.001230 0.0
0.330459 0.296967 0.003273 0.0
2.670427 0.847380 0.001536 0.0
0.036030 1.611603 0.002356 0.0
4.320554 1.809983 0.001266 0.0
3.208183 0.517999 0.003454 0.0
3.114678 1.859997 -0.002725 0.0
2.097958 1.294481 0.003182 0.0
0.214443 2.219237 0.002246 0.0
0.338392 1.648825 -0.001825 0.0
0.136668 0.419221 0.000128 0.0
2.985817 1.693542 -0.001782 0.0
2.101434 1.081696 -0.005201 0.0
2.770503 1.749242 0.001524 0.0
0.085621 0.812520 -0.003687 0.0
2.946441 0.696015 -0.001412 0.0
3.507231 1.680864 0.000089 0.0
2.417111 1.723377 0.001853 0.0
0.653392 1.488034 -0.000241 0.0
2.185159 1.121521 -0.001004 0.0
4.038268 1.910321 0.004100 0.0
2.541480 0.699684 0.000542 0.0
1.005427 1.365054 -0.001301 0.0
