1.952458 0.958426 0.002163 0.0
2.367430 0.601582 0.002415 0.0
1.251535 0.402821 -0.002050 0.0
1.039471 0.878360 -0.001176 0.0
1.801329 1.563652 -0.003286 0.0
3.707492 1.541931 0.001755 0.0
0.747925 0.593269 -0.003703 0.0
3.716824 0.711315 0.000959 0.0
3.448302 0.494159 0.002914 0.0
2.239104 1.068420 0.001248 0.0
0.045698 0.484719 -0.001277 0.0
3.993509 0.142202 -0.001905 0.0
1.734690 0.132280 -0.000911 0.0
3.220531 0.273009 0.000338 0.0
3.371863 0.134593 0.000826 0.0
1.111096 1.569428 0.000376 0.0
3.370665 0.017621 0.000914 0.0
2.836415 0.290914 0.002422 0.0
3.819254 0.927498 0.000911 0.0
3.839065 1.166829 0.000157 0.0
0.715469 0.829753 0.004651 0.0
3.136319 1.582279 0.001836 0.0
1.397560 0.995261 -0.001382 0.0
3.517882 0.980603 -0.002743 0.0
1.830990 1.140695 -0.000250 0.0
2.832216 0.970080 -0.004212 0.0
3.132219 0.321261 -0.000500 0.0
4.038406 1.248294 0.002287 0.0
3.507037 1.566994 0.000892 0.0
2.559226 1.075787 0.004892 0.0
1.945996 1.140749 -0.000053 0.0
2.703019 0.407911 0.001097 0.0
2.108149 0.683436 0.000242 0.0
3.061910 1.572051 -0.002025 0.0
0.588394 0.470691 0.000945 0.0
1.588342 0.355844 -0.001552 0.0
1.391680 1.363980 -0.001056 0.0
0.457452 0.361652 -0.000814 0.0
2.945070 0.383854 -0.000295 0.0
2.008960 0.535612 0.003620 0.0
4.061457 0.173476 0.002678 0.0
0.812500 0.716161 -0.006199 0.0
0.515108 1.559776 0.001215 0.0
2.847544 1.386100 0.002174 0.0
1.641437 0.916245 -0.001247 0.0
3.275739 1.146158 -0.001062 0.0
2.962939 0.390104 -0.002895 0.0
0.470652 0.310738 0.002245 0.0
0.437154 0.237327 -0.001639 0.0
2.653654 1.412164 0.002769 0.0
3.095730 0.493575 -0.000991 0.0
0.465965 1.357029 -0.001273 0.0
1.060204 0.964201 0.003405 0.0
3.048999 0.557299 -0.000468 0.0
0.385808 0.982006 -0.003040 0.0
2.992289 0.660120 0.000791 0.0
1.312654 0.397094 0.001209 0.0
2.362885 0.663990 0.001477 0.0
2.499042 0.137359 0.002332 0.0
0.350363 1.287331 0.000593 0.0
2.095527 0.695089 -0.002641 0.0
1.777669 0.438505 0.005474 0.0
1.879167 0.547585 0.003102 0.0
2.616069 1.304245 -0.001776 0.0
0.405544 0.196742 0.002419 0.0
0.879941 0.467589 0.000387 0.0
2.108938 0.169098 -0.001150 0.0
1.967834 0.501310 0.002740 0.0
0.731273 1.485079 0.001240 0.0
2.803585 1.268965 -0.001518 0.0
3.387099 1.582706 -0.000031 0.0
0.483388 0.306274 0.001178 0.0
1.795067 0.352298 -0.001028 0.0
3.494914 0.393018 -0.000610 0.0
1.769374 0.018333 -0.004005 0.0
4.081351 0.059155 -0.001063 0.0
0.387883 0.364058 -0.000095 0.0
1.692556 0.126342 -0.000908 0.0
1.414965 0.696342 0.001500 0.0
0.165808 0.168235 -0.003299 0.0
2.800225 0.758974 0.001062 0.0
3.074298 1.400104 0.000801 0.0
2.336563 0.607235 0.001594 0.0
2.751203 0.877057 -0.004948 0.0
3.137190 0.173581 0.000123 0.0
1.078824 1.311670 0.000349 0.0
3.396023 0.075466 0.002355 0.0
3.188265 1.205768 0.000767 0.0
1.111264 1.251347 -0.002373 0.0
3.647958 1.020387 -0.001897 0.0
2.861737 0.318133 0.005409 0.0
2.698619 0.402231 0.000770 0.0
0.319988 1.066928 -0.003402 0.0
2.132294 1.262405 0.005272 0.0
3.555550 1.364978 -0.002949 0.0
0.507445 0.513452 -0.001078 0.0
2.362505 1.629063 -0.001089 0.0
3.830109 1.621766 0.000092 0.0
0.567517 0.311581 0.001209 0.0
2.880214 1.341866 0.002544 0.0
0.317632 1.468889 -0.001786 0.0
1.433122 0.213516 0.003502 0.0
1.729779 1.574467 -0.000984 0.0
2.857542 0.931256 0.003846 0.0
0.983854 1.595895 -0.000429 0.0
2.500360 1.072651 0.000652 0.0
2.327458 0.175687 -0.000798 0.0
3.602354 0.042914 0.001465 0.0
3.918571 1.468934 0.000340 0.0
0.395448 1.000189 0.003816 0.0
0.693919 1.313786 -0.000859 0.0
3.059569 0.806838 0.005969 0.0
0.146203 1.419090 0.002139 0.0
3.301270 1.199731 -0.003800 0.0
0.456891 1.627166 0.003157 0.0
3.277256 1.009667 0.000618 0.0
0.711915 0.890741 0.004327 0.0
1.181942 1.152374 -0.002883 0.0
2.188031 0.291579 0.000893 0.0
2.601521 0.812376 0.001218 0.0
1.983453 0.039438 -0.001555 0.0
0.835453 0.242503 0.004392 0.0
0.904773 1.223433 -0.005297 0.0
2.949187 1.614216 -0.003247 0.0
3.399219 0.698087 -0.001473 0.0
1.120057 0.082171 0.002573 0.0
0.291234 0.331278 0.001923 0.0
3.199165 1.111817 -0.005227 0.0
0.483672 0.402908 0.001158 0.0
3.062440 0.605659 0.002753 0.0
2.296070 1.441894 -0.003988 0.0
1.330089 1.338330 -0.004239 0.0
2.890127 1.592987 0.001136 0.0
1.227450 1.290995 -0.000026 0.0
0.401113 0.682812 -0.000616 0.0
1.549085 1.080660 0.000535 0.0
1.608256 0.812028 -0.001476 0.0
1.384237 0.387452 -0.001788 0.0
3.619407 1.506279 0.000470 0.0
0.584804 0.308412 0.004952 0.0
3.369174 1.016887 -0.000845 0.0
2.937225 0.971834 -0.001283 0.0
3.506408 0.035938 0.000670 0.0
2.762562 0.292031 0.000816 0.0
2.179210 1.291574 -0.006630 0.0
1.649864 0.814126 0.003043 0.0
2.509655 0.686077 -0.001994 0.0
1.274148 0.715688 -0.001436 0.0
1.668618 0.879787 0.002570 0.0
2.424225 1.524318 0.000784 0.0
0.719616 0.176283 0.003602 0.0
0.554693 1.366129 0.000888 0.0
1.288453 0.841344 0.001347 0.0
4.101888 0.571798 0.001631 0.0
3.197040 1.272399 -0.002405 0.0
0.899910 0.627892 -0.000436 0.0
3.401551 0.829338 -0.000974 0.0
1.680072 0.456317 0.003013 0.0
3.982853 0.580948 -0.002127 0.0
0.326871 1.301302 0.001709 0.0
3.678030 1.420913 0.002124 0.0
2.201814 1.304092 0.000270 0.0
3.465442 0.251252 -0.000048 0.0
3.973668 0.292740 -0.002231 0.0
4.116741 0.980466 0.000646 0.0
0.066961 0.257866 -0.002040 0.0
1.879519 1.305111 0.001879 0.0
2.891111 1.146340 0.000685 0.0
0.065807 1.203704 -0.002259 0.0
3.797352 1.608299 0.001499 0.0
0.761122 1.296422 0.000998 0.0
1.746031 1.019599 -0.000556 0.0
2.116962 0.229535 0.000757 0.0
3.795785 1.492503 -0.000751 0.0
3.389623 0.673437 -0.004168 0.0
3.605113 1.208586 -0.001527 0.0
2.331862 0.521270 -0.000523 0.0
1.125575 0.504715 -0.000965 0.0
0.963597 0.268969 0.003538 0.0
0.447737 0.581871 -0.000275 0.0
2.820823 1.513190 0.000033 0.0
3.846957 0.987516 0.003136 0.0
2.947780 1.057808 0.002624 0.0
3.300480 0.108411 -0.002949 0.0
1.559690 0.936517 0.004315 0.0
0.593455 0.275323 0.002748 0.0
3.258301 0.401607 0.002107 0.0
2.490485 1.209483 -0.000111 0.0
2.129637 1.473090 0.003504 0.0
0.574190 0.721643 -0.001329 0.0
3.644267 1.240554 -0.004049 0.0
0.698850 1.039144 0.003449 0.0
3.401317 1.558852 0.000175 0.0
1.713913 0.845650 0.001819 0.0
2.395171 1.258612 0.002278 0.0
2.207387 0.508471 -0.000305 0.0
1.896957 1.259987 0.001744 0.0
2.703888 0.397884 0.001675 0.0
0.549803 0.814947 0.002733 0.0
3.389683 0.946996 -0.002004 0.0
1.955904 1.181507 0.002523 0.0
2.010549 0.818767 -0.004272 0.0
3.065491 0.212210 -0.001220 0.0
1.958592 1.614802 -0.000976 0.0
3.470739 1.021728 0.001030 0.0
2.898601 1.457722 -0.000035 0.0
2.413199 0.038173 -0.000290 0.0
2.398777 0.965171 -0.002974 0.0
0.442880 1.239688 -0.002927 0.0
2.655854 0.516821 0.000572 0.0
0.379519 0.085138 0.000140 0.0
0.931704 1.323136 0.000750 0.0
2.651941 0.684747 0.001857 0.0
2.189034 1.373919 -0.000397 0.0
2.606557 1.355529 -0.000155 0.0
0.278931 1.157407 0.000325 0.0
3.537265 1.186714 -0.001819 0.0
2.178751 0.634330 0.000095 0.0
0.752417 0.525059 0.002685 0.0
1.749445 1.478643 0.001473 0.0
1.478502 1.023468 0.001738 0.0
0.274016 1.257106 -0.000269 0.0
2.549384 1.048051 -0.001771 0.0
0.669626 1.030061 0.003208 0.0
1.909098 0.972278 0.002095 0.0
0.789430 0.029562 -0.001713 0.0
0.867182 1.015749 -0.002131 0.0
2.564170 1.231809 -0.004487 0.0
1.429153 0.650820 0.001261 0.0
1.573322 0.572877 -0.003955 0.0
2.936682 1.109518 0.000414 0.0
0.740495 0.557502 0.004355 0.0
3.937513 0.338654 -0.003603 0.0
2.050845 1.362117 0.000115 0.0
2.684585 1.155432 0.005111 0.0
0.446886 0.948107 0.002169 0.0
1.021805 0.391702 -0.001296 0.0
4.119827 0.946446 -0.000031 0.0
1.334510 0.995110 -0.003139 0.0
0.570261 1.037326 -0.000688 0.0
1.277382 1.466883 0.003200 0.0
3.268295 0.113557 0.002870 0.0
1.719184 0.596012 -0.001114 0.0
1.203573 0.105902 -0.000679 0.0
2.901213 0.989012 0.000178 0.0
0.272132 1.574336 0.002038 0.0
2.456043 0.297689 0.000271 0.0
0.474516 1.007359 0.003933 0.0
4.065909 0.267337 -0.001667 0.0
2.773662 0.157794 -0.004132 0.0
3.676602 1.425244 0.004283 0.0
3.460550 1.141032 0.001660 0.0
1.456398 1.471478 0.000203 0.0
1.718806 0.323118 0.005026 0.0
2.977571 0.255704 -0.002092 0.0
1.501688 0.294346 -0.002269 0.0
2.719586 1.599917 -0.000000 0.0
0.833688 0.390575 -0.000500 0.0
2.369878 0.575784 0.001469 0.0
1.201332 0.181392 -0.001385 0.0
3.098613 0.826509 0.000831 0.0
1.717814 0.746161 0.000156 0.0
3.888895 0.934317 -0.000247 0.0
0.006194 0.280590 -0.003993 0.0
1.788470 0.302570 -0.003579 0.0
2.127973 1.609210 -0.002411 0.0
1.571979 0.249079 -0.002311 0.0
3.265798 1.545396 -0.000706 0.0
2.553314 0.625006 -0.002196 0.0
2.239857 0.814544 -0.001480 0.0
3.424232 1.512414 0.002394 0.0
1.008323 0.374310 -0.001483 0.0
1.736906 0.879123 -0.004228 0.0
0.757595 1.069324 0.000810 0.0
2.576567 0.666015 -0.000997 0.0
0.200449 1.424062 0.001435 0.0
0.783618 0.018481 0.002919 0.0
0.478288 1.538624 0.000240 0.0
2.334955 1.325492 -0.000724 0.0
3.859967 0.621096 0.005224 0.0
0.323742 1.616518 0.000099 0.0
1.832177 1.154525 0.001249 0.0
2.219280 1.545544 -0.002185 0.0
2.610227 0.952405 0.002229 0.0
1.620976 1.118970 0.002659 0.0
1.761765 0.197779 0.000631 0.0
3.227091 0.480514 -0.001387 0.0
0.801265 0.792096 -0.007493 0.0
3.015207 0.335602 0.003314 0.0
2.234727 0.457345 -0.003041 0.0
3.577433 0.282083 0.002263 0.0
1.110851 1.122226 0.000400 0.0
1.286267 1.453171 -0.000354 0.0
3.315421 1.594938 -0.005151 0.0
3.840492 1.237848 -0.001523 0.0
0.657199 0.002147 -0.001904 0.0
3.940816 1.517933 0.004602 0.0
0.923878 1.053581 0.001644 0.0
3.620778 0.600812 0.001714 0.0
0.469950 1.201923 0.002463 0.0
3.532455 0.147033 -0.002343 0.0
3.773148 1.199266 -0.003174 0.0
0.229770 0.392237 0.005236 0.0
0.785029 0.474174 0.001170 0.0
1.882718 0.565610 0.003545 0.0
1.782115 1.179786 -0.000121 0.0
2.120943 0.862965 0.003236 0.0
0.438350 1.073289 0.000791 0.0
0.341574 0.161534 0.001015 0.0
2.818150 0.668936 -0.000223 0.0
2.554746 0.456035 0.001932 0.0
0.232395 0.293615 0.003282 0.0
0.477989 0.288773 -0.001367 0.0
3.166032 0.510331 -0.000650 0.0
0.786733 0.904238 0.005160 0.0
4.006044 0.931961 0.001244 0.0
0.631769 0.247235 -0.001652 0.0
1.852418 0.263177 -0.000672 0.0
2.119805 0.488760 0.001678 0.0
0.551975 1.089818 -0.003209 0.0
3.942801 0.217356 0.004047 0.0
2.413252 0.450930 0.008820 0.0
0.331596 0.287916 -0.000027 0.0
3.053677 0.830946 0.002471 0.0
3.499699 0.632297 -0.004515 0.0
2.787937 1.247320 0.001753 0.0
3.355184 0.520290 0.002274 0.0
2.981038 0.255348 0.000317 0.0
1.728676 0.574801 -0.001146 0.0
1.753228 0.961793 0.000880 0.0
0.331962 0.720097 -0.000674 0.0
1.406751 1.430213 -0.000712 0.0
2.868765 0.630237 -0.002659 0.0
1.609505 0.297386 -0.001212 0.0
4.091268 1.027964 0.000508 0.0
3.969870 1.371332 -0.003010 0.0
0.421667 0.816824 -0.000894 0.0
0.045345 0.944458 -0.002132 0.0
0.849932 0.187698 -0.002796 0.0
3.895023 1.301758 -0.003005 0.0
3.596725 1.554338 -0.003963 0.0
1.356834 1.360915 -0.002714 0.0
2.464049 1.327682 -0.001840 0.0
2.624155 1.386304 0.002188 0.0
1.430590 0.871074 -0.001129 0.0
1.392056 0.383981 -0.002350 0.0
0.136403 1.499275 -0.003512 0.0
2.325972 0.189319 -0.000497 0.0
0.915756 0.156327 -0.005002 0.0
0.782188 0.974089 -0.004943 0.0
3.021485 1.374429 -0.001779 0.0
3.143424 0.332490 0.001822 0.0
1.071846 1.438972 -0.002566 0.0
1.259383 0.628057 0.003426 0.0
3.612196 0.653660 0.002691 0.0
2.340011 0.459840 0.001415 0.0
1.664112 0.229945 0.001002 0.0
2.306142 0.757467 0.004485 0.0
1.299182 0.302476 -0.006462 0.0
0.198252 1.152526 0.001961 0.0
3.564964 0.833627 0.000200 0.0
1.057932 0.322844 -0.006888 0.0
0.777567 1.378873 0.002308 0.0
2.442140 0.192315 -0.004354 0.0
0.043061 1.310941 -0.000055 0.0
2.465778 0.691747 -0.001184 0.0
3.127378 1.286247 -0.002142 0.0
2.715924 1.538393 -0.001785 0.0
3.640590 1.351685 0.004896 0.0
1.369774 1.350026 0.002190 0.0
3.015398 0.336510 0.003011 0.0
2.149579 1.533454 -0.001794 0.0
2.264990 1.134137 0.002421 0.0
1.529662 0.910763 0.000069 0.0
2.838796 1.289567 -0.000103 0.0
0.698094 0.304293 0.002269 0.0
3.847702 0.024998 0.002203 0.0
3.941879 1.146352 0.001057 0.0
3.173225 0.908592 -0.000484 0.0
3.547851 0.468881 -0.000530 0.0
1.151486 1.450677 -0.003020 0.0
3.544453 0.357127 0.000499 0.0
3.925231 1.288577 0.000629 0.0
3.106588 1.134178 0.000921 0.0
4.031429 1.449089 0.000277 0.0
2.388919 0.080528 0.000481 0.0
2.066221 1.175300 0.004571 0.0
3.112094 1.622056 0.002169 0.0
1.321927 0.175504 0.002702 0.0
2.409192 1.057523 -0.002987 0.0
2.481642 1.465741 0.000926 0.0
3.589071 0.974896 -0.002666 0.0
1.091607 0.829258 0.001481 0.0
0.573125 0.304658 -0.001375 0.0
1.628734 0.879094 -0.000649 0.0
2.172241 0.530091 -0.001142 0.0
3.527737 1.339645 -0.001222 0.0
2.468089 0.049085 0.001995 0.0
2.893831 0.538130 -0.001369 0.0
3.266347 1.512504 -0.002457 0.0
3.925683 0.312653 -0.003904 0.0
3.269679 1.011291 -0.001144 0.0
3.698030 1.601743 0.003222 0.0
1.801201 0.170608 -0.001073 0.0
3.798603 0.129948 -0.002836 0.0
3.529933 0.804316 -0.000255 0.0
0.277963 0.558473 0.003737 0.0
0.133848 0.725114 -0.000606 0.0
3.890680 0.742159 0.001293 0.0
3.864036 1.210404 0.000938 0.0
1.259709 1.298058 0.001676 0.0
3.620256 1.104598 0.003940 0.0
3.519227 1.335855 0.001139 0.0
1.679118 0.148706 0.000425 0.0
1.479560 0.305155 0.003652 0.0
1.752773 0.030584 -0.002935 0.0
2.876151 1.320761 0.000034 0.0
2.527936 1.395845 0.004057 0.0
2.796867 1.060340 0.001892 0.0
3.059651 0.028651 -0.002380 0.0
1.090502 0.766927 -0.002202 0.0
0.507813 0.889230 0.000398 0.0
1.910281 0.771339 -0.000283 0.0
3.008438 1.297362 -0.000874 0.0
0.767894 1.568444 -0.001998 0.0
3.467240 0.031549 0.001326 0.0
2.635943 0.994058 -0.002292 0.0
1.912710 0.914599 -0.003686 0.0
1.729202 0.930452 0.000850 0.0
0.157570 0.448218 0.003413 0.0
2.015388 1.425922 -0.003541 0.0
1.783083 0.068787 -0.001561 0.0
3.558342 0.250647 -0.003291 0.0
0.741865 1.470727 0.001298 0.0
0.793034 1.333911 0.001611 0.0
1.964793 0.347307 -0.002642 0.0
0.265019 0.804788 0.000648 0.0
2.345811 0.979636 -0.001310 0.0
2.589506 0.272425 0.001017 0.0
1.765039 0.780200 0.000595 0.0
0.060181 0.477192 0.001335 0.0
2.295916 1.335472 0.002574 0.0
0.356186 1.193632 -0.001303 0.0
1.136768 0.807951 -0.001463 0.0
3.452380 0.674315 -0.000223 0.0
1.526635 1.541889 0.002154 0.0
0.294665 0.784375 -0.001643 0.0
1.706087 0.319575 0.000732 0.0
4.017471 0.146292 -0.001918 0.0
3.797646 0.533876 0.003865 0.0
3.478193 0.313137 0.002148 0.0
2.056632 0.709437 0.000360 0.0
0.888508 0.423635 0.002288 0.0
4.082545 1.050940 0.000532 0.0
2.305005 0.491095 0.002095 0.0
1.054605 0.448964 0.002135 0.0
2.980228 1.342524 0.001652 0.0
3.935306 0.277599 0.000008 0.0
1.927829 1.343459 0.002591 0.0
2.868085 1.609408 0.003548 0.0
3.588224 0.627558 0.000964 0.0
3.598669 0.911254 -0.002322 0.0
3.378942 0.282830 -0.002662 0.0
0.193307 0.240037 0.000322 0.0
1.507540 0.825985 -0.003728 0.0
0.972864 1.321777 -0.000026 0.0
2.003369 0.266417 0.000003 0.0
1.793507 0.267600 -0.002534 0.0
3.944621 1.080675 0.000223 0.0
0.899426 0.027526 -0.000929 0.0
3.857338 1.568662 0.005184 0.0
3.746164 0.811981 -0.002456 0.0
0.327141 1.025988 -0.003031 0.0
0.577041 0.705498 -0.000153 0.0
0.619847 1.619954 0.002520 0.0
3.867079 1.566263 0.001197 0.0
2.841559 1.002464 0.000439 0.0
2.893300 0.160431 -0.004050 0.0
1.327303 0.372597 -0.000911 0.0
1.588595 0.349325 0.002642 0.0
3.017988 1.475830 0.001912 0.0
0.543720 1.067267 0.001997 0.0
1.151270 0.938349 -0.002981 0.0
2.694207 0.749792 0.000118 0.0
2.458250 1.530086 0.001638 0.0
2.865658 0.088963 -0.002477 0.0
2.261872 0.335808 -0.000093 0.0
2.332994 0.955209 -0.005130 0.0
2.293447 0.543141 -0.003633 0.0
1.263088 0.539958 0.003502 0.0
2.626302 1.127695 0.000708 0.0
2.161728 1.571541 0.003349 0.0
0.048626 0.657676 -0.005689 0.0
1.349036 0.562710 0.001768 0.0
3.007890 0.346338 0.003085 0.0
3.123604 1.196240 -0.002888 0.0
3.293558 0.207233 0.001193 0.0
0.658438 0.404151 0.003712 0.0
0.430863 0.637475 -0.000486 0.0
3.842226 0.666209 -0.004121 0.0
0.972161 1.075375 0.001372 0.0
1.297051 1.458582 0.001875 0.0
0.265158 0.695398 -0.002320 0.0
2.202434 0.426972 0.002749 0.0
3.746932 1.096298 -0.003658 0.0
2.720658 1.449730 -0.003277 0.0
2.751984 0.525532 -0.003328 0.0
2.774512 1.535418 -0.002089 0.0
1.844702 1.491525 0.000934 0.0
1.772567 0.275686 0.001188 0.0
1.894111 1.178848 -0.000156 0.0
0.785190 0.831956 -0.000589 0.0
2.655742 1.284507 -0.000528 0.0
0.702001 0.827888 -0.002617 0.0
1.649776 0.475077 0.001463 0.0
2.508512 0.571897 0.004496 0.0
0.741670 1.478007 0.002342 0.0
3.796539 1.543257 0.002902 0.0
0.272995 1.410629 0.001782 0.0
0.746535 0.261032 0.004302 0.0
3.247344 0.154761 -0.003835 0.0
0.730291 0.120442 0.001170 0.0
2.779638 0.436656 -0.001618 0.0
2.610493 1.211906 0.000887 0.0
3.597595 0.282746 -0.002907 0.0
2.079302 0.845434 0.003675 0.0
3.055398 0.634834 -0.002857 0.0
3.472681 1.051384 0.001426 0.0
3.895344 0.744062 0.003143 0.0
2.415164 0.441480 -0.000541 0.0
1.814556 0.348776 0.000990 0.0
2.676027 1.456409 -0.000219 0.0
2.121018 0.895185 -0.002720 0.0
0.442126 0.456875 0.002561 0.0
2.048875 0.680750 -0.001636 0.0
1.665037 0.097406 0.002737 0.0
3.115035 0.278044 0.000525 0.0
1.136118 0.469022 -0.003711 0.0
1.261668 0.814953 -0.002616 0.0
2.435235 1.149032 0.001263 0.0
1.372870 0.732658 0.001518 0.0
0.691996 1.590250 0.002288 0.0
0.517886 0.768771 0.001834 0.0
3.092264 1.082214 0.001041 0.0
3.949502 1.025672 -0.001606 0.0
2.357928 1.484590 0.001848 0.0
1.332862 0.715410 -0.001062 0.0
0.807480 0.678232 0.000598 0.0
3.111561 0.189035 -0.003644 0.0
2.536945 1.168160 -0.000420 0.0
1.500736 0.942091 0.003103 0.0
4.043323 1.188659 -0.000931 0.0
1.657973 1.361544 0.001779 0.0
3.502755 0.601991 -0.002546 0.0
2.830460 0.451234 -0.000870 0.0
0.996115 0.047753 -0.000412 0.0
1.539629 0.871788 0.001466 0.0
1.330404 1.496312 0.001104 0.0
2.844095 0.588752 -0.002824 0.0
0.635036 1.622255 0.001360 0.0
2.677413 0.288353 -0.000961 0.0
0.346977 0.830757 0.001503 0.0
3.272110 1.330117 0.002334 0.0
2.553906 1.359828 -0.000206 0.0
2.321885 0.738529 0.004278 0.0
1.390739 1.364867 0.000621 0.0
1.033588 0.482276 -0.000686 0.0
0.350667 1.116400 -0.002454 0.0
2.267556 1.225056 0.001298 0.0
3.045841 0.344617 -0.001077 0.0
2.369889 0.866278 -0.002290 0.0
2.188761 0.927303 0.000019 0.0
0.961213 1.282085 0.003761 0.0
3.238985 0.310758 -0.002484 0.0
0.974795 1.349179 -0.002553 0.0
3.967349 1.261384 0.001571 0.0
3.878410 0.256818 -0.000519 0.0
2.394982 1.135452 -0.002065 0.0
1.205862 0.458712 0.002004 0.0
1.314205 0.440029 -0.000112 0.0
2.496268 1.169598 0.002391 0.0
1.993089 0.099118 0.003468 0.0
0.073450 0.274397 0.008966 0.0
0.758236 0.989162 -0.001621 0.0
1.344593 0.276751 -0.003324 0.0
2.052873 1.615911 -0.002745 0.0
1.553607 0.736423 -0.000348 0.0
1.489005 0.659603 -0.003482 0.0
2.997678 0.771997 -0.001789 0.0
1.752130 0.173625 -0.002130 0.0
0.393405 0.420687 -0.004486 0.0
1.535415 0.704714 -0.001343 0.0
4.007874 1.354011 -0.000281 0.0
1.673514 0.146049 0.003730 0.0
2.986645 1.460310 0.000840 0.0
0.583634 0.791233 0.000610 0.0
1.529474 0.341361 -0.001346 0.0
0.240913 1.528056 0.003096 0.0
1.398358 1.542944 0.000888 0.0
2.896940 0.056214 -0.001477 0.0
0.943274 0.217354 -0.001789 0.0
1.911856 0.714343 0.000406 0.0
0.303418 1.094584 0.000769 0.0
2.455105 0.836047 0.002066 0.0
3.184811 0.718179 -0.001137 0.0
2.196733 0.296175 0.001162 0.0
1.574796 0.426290 -0.003721 0.0
4.037147 0.634656 0.000315 0.0
1.513927 0.400207 -0.003221 0.0
2.456200 1.425881 0.000865 0.0
4.057758 1.255436 0.000934 0.0
1.586814 1.336217 -0.001105 0.0
2.466067 1.153602 0.002652 0.0
2.755221 1.137433 -0.000043 0.0
0.821243 0.349370 0.000727 0.0
2.564801 0.629022 -0.000498 0.0
2.511756 1.388806 0.001206 0.0
3.000670 0.028556 -0.002610 0.0
0.611468 0.562574 0.006399 0.0
3.819057 1.306373 0.001287 0.0
2.510382 0.156828 -0.000144 0.0
1.815849 1.221890 -0.001717 0.0
0.837493 0.787311 0.001505 0.0
3.810598 1.501728 0.000738 0.0
0.948936 1.352085 0.006717 0.0
2.060433 0.913504 0.001971 0.0
2.467094 0.834382 0.001678 0.0
0.788074 1.577054 -0.001629 0.0
4.037613 0.545476 -0.000837 0.0
4.096289 1.348143 0.001165 0.0
3.245404 0.461973 0.001899 0.0
0.008554 0.222151 -0.000512 0.0
3.551402 0.034489 -0.000498 0.0
1.854027 0.849554 -0.002612 0.0
0.033986 1.491406 -0.000631 0.0
0.268691 1.162325 0.001245 0.0
4.037071 0.892709 0.000171 0.0
3.681568 0.674076 0.000979 0.0
3.660341 0.641358 -0.002738 0.0
1.442607 1.524240 0.002559 0.0
1.126564 0.825128 0.005004 0.0
2.048374 0.716706 0.001659 0.0
2.768218 1.414535 -0.000538 0.0
2.212735 1.308990 -0.000140 0.0
2.477237 1.167559 -0.001937 0.0
1.145586 1.015203 0.001320 0.0
0.175673 0.778651 -0.000823 0.0
0.204021 1.369574 -0.003637 0.0
0.494085 1.509670 -0.000932 0.0
1.680804 1.440460 0.001233 0.0
2.500899 0.313085 0.002553 0.0
1.775828 0.273385 -0.001870 0.0
2.998788 0.065200 -0.001150 0.0
0.160784 0.277363 -0.002796 0.0
2.127135 0.276699 -0.001239 0.0
3.963365 0.770250 -0.005718 0.0
2.129860 1.482025 -0.000150 0.0
3.128729 0.106491 -0.000815 0.0
2.303916 1.167955 0.000967 0.0
3.561772 0.013110 0.002591 0.0
3.299628 0.080871 0.004512 0.0
2.774422 1.268078 -0.000281 0.0
2.691838 0.886276 -0.001886 0.0
3.734729 0.236509 0.003603 0.0
1.785164 0.158834 0.002512 0.0
3.674654 1.489794 -0.005047 0.0
1.521187 0.652547 0.003359 0.0
4.098315 0.274536 0.002663 0.0
2.688079 0.900006 0.000560 0.0
1.205333 0.825388 0.001026 0.0
2.263660 0.894222 0.004968 0.0
3.662278 0.297757 0.002662 0.0
2.259851 0.455563 0.001655 0.0
3.117867 1.314253 0.000925 0.0
1.561073 0.865131 0.002998 0.0
0.781065 0.773558 -0.000837 0.0
2.209446 1.137511 0.001366 0.0
1.270171 0.535698 0.002038 0.0
2.906613 0.360434 -0.000895 0.0
3.605217 0.734278 0.000517 0.0
3.323654 0.472436 0.001212 0.0
1.605431 1.432128 0.004432 0.0
3.603398 0.912772 0.001025 0.0
2.607988 1.618611 0.000788 0.0
1.257286 0.699012 0.002521 0.0
2.921688 1.506458 0.001880 0.0
3.653397 1.079099 -0.001143 0.0
3.589826 1.146031 0.003785 0.0
3.180695 1.203769 0.000942 0.0
2.271342 0.756292 0.002017 0.0
0.018118 1.038993 0.000435 0.0
3.316995 0.752887 0.001522 0.0
1.786833 1.536968 -0.000349 0.0
4.043704 0.265384 -0.004431 0.0
1.207639 0.616028 0.000750 0.0
3.424836 0.280016 -0.002547 0.0
0.067688 0.301848 0.000625 0.0
1.516084 1.319366 0.001063 0.0
0.133842 1.082607 -0.003261 0.0
2.891668 1.186936 -0.003898 0.0
1.375586 1.501758 0.000137 0.0
3.617803 0.689389 -0.000963 0.0
1.225722 0.654113 -0.000084 0.0
0.831430 0.798725 -0.000236 0.0
4.103723 0.997222 -0.000876 0.0
3.521366 0.877230 0.000479 0.0
3.740932 0.124881 0.002112 0.0
0.302923 0.999447 0.001927 0.0
1.541885 0.837375 -0.000434 0.0
3.088756 0.927009 0.000429 0.0
3.946390 1.453439 -0.001185 0.0
3.367236 0.338329 -0.002425 0.0
3.732417 0.949663 -0.001896 0.0
1.133455 1.511747 0.000215 0.0
4.008643 0.831171 -0.001485 0.0
2.765073 0.860825 0.000810 0.0
0.695641 1.577204 0.001011 0.0
2.535745 1.363922 -0.000364 0.0
1.577187 0.191152 -0.003392 0.0
2.715283 0.972349 0.000220 0.0
4.103263 1.548909 -0.001803 0.0
2.575789 1.362502 -0.001019 0.0
2.115712 0.458601 0.001507 0.0
2.154963 1.069646 0.000495 0.0
1.557656 1.334063 0.001246 0.0
1.995267 0.553029 -0.001157 0.0
3.146616 0.993127 0.003029 0.0
1.732683 0.079838 -0.000109 0.0
2.043425 0.452882 0.001837 0.0
1.825376 0.985391 -0.003212 0.0
2.748803 0.054532 -0.001380 0.0
4.001094 0.220688 0.002308 0.0
0.234482 0.378229 0.000788 0.0
3.890131 1.056286 -0.001644 0.0
2.051037 0.842685 -0.003293 0.0
0.496242 1.210352 0.002602 0.0
2.389150 0.419623 0.000630 0.0
3.245181 0.367974 -0.005247 0.0
1.249240 0.638088 -0.001767 0.0
3.223968 0.324283 0.006032 0.0
0.936268 0.966490 -0.001055 0.0
2.981762 1.574278 -0.005325 0.0
0.202560 0.717487 -0.000672 0.0
2.835316 0.509113 -0.001243 0.0
3.103847 0.714559 -0.001232 0.0
2.856741 1.213913 -0.003045 0.0
3.814962 1.236770 0.000028 0.0
1.806611 1.449729 -0.001321 0.0
2.707708 1.135473 -0.000212 0.0
2.492400 1.367227 0.000848 0.0
0.764446 0.536460 0.002837 0.0
3.392715 1.253657 -0.006672 0.0
0.737409 0.404666 0.004144 0.0
3.669550 0.993982 0.000229 0.0
2.073029 0.656072 0.002051 0.0
3.487872 0.733462 0.001355 0.0
2.762125 0.406641 0.000065 0.0
0.123054 0.056106 -0.000973 0.0
2.638663 0.506520 0.002352 0.0
0.340005 0.434166 0.003073 0.0
1.700471 0.236269 0.007036 0.0
3.882300 0.736309 -0.003514 0.0
3.729890 1.065101 -0.001250 0.0
3.461962 1.219100 -0.002153 0.0
3.101659 1.213758 -0.000074 0.0
1.593603 0.487425 0.000751 0.0
2.555420 0.774557 0.002869 0.0
2.304716 1.045962 -0.005223 0.0
0.261259 0.979163 0.002939 0.0
3.856812 0.734702 0.002967 0.0
3.068742 1.094539 -0.000697 0.0
2.783780 1.207914 0.000908 0.0
0.820702 1.620258 0.000528 0.0
0.304477 0.444936 0.000237 0.0
2.643142 1.005889 0.003020 0.0
3.765219 0.443533 0.002767 0.0
1.412246 0.099404 0.000256 0.0
2.572444 0.191954 -0.000701 0.0
1.742762 1.087066 0.003713 0.0
1.938202 0.924156 0.001304 0.0
2.676116 0.182399 -0.001711 0.0
3.592387 1.430129 -0.000808 0.0
2.201752 0.176309 0.000776 0.0
3.959735 1.539347 -0.000203 0.0
3.733056 0.282174 0.001575 0.0
0.243673 0.471217 0.002747 0.0
1.342509 1.559511 -0.005541 0.0
0.397682 0.185466 -0.002358 0.0
0.147528 1.130525 0.000653 0.0
0.489812 0.458083 -0.002497 0.0
3.767521 1.529415 0.002018 0.0
0.711698 1.102149 0.000033 0.0
0.944080 0.415897 -0.000324 0.0
3.839382 0.313460 0.002295 0.0
3.433114 0.793772 -0.000438 0.0
0.160621 0.881027 -0.003561 0.0
0.747468 1.048110 0.003391 0.0
0.206807 0.113996 -0.002753 0.0
3.406055 0.630309 0.000609 0.0
2.949847 1.237763 0.003724 0.0
3.595194 0.531274 -0.001114 0.0
3.105800 0.722997 -0.000019 0.0
1.576386 0.808516 0.000900 0.0
2.623507 0.107333 0.002311 0.0
3.774773 1.041233 -0.000504 0.0
3.181374 0.513230 0.002327 0.0
0.575040 0.190011 0.000199 0.0
2.538971 0.969869 0.002075 0.0
2.250121 1.413302 -0.000127 0.0
2.699046 0.921567 -0.004093 0.0
1.975138 0.941081 0.001281 0.0
1.609731 0.478863 0.002292 0.0
0.774222 0.662293 0.001462 0.0
2.636496 1.195424 -0.001216 0.0
1.531610 0.263444 0.000803 0.0
3.100223 0.242838 -0.001812 0.0
1.639700 0.733038 -0.008906 0.0
1.935484 0.622631 0.001826 0.0
2.367083 1.422199 -0.002007 0.0
3.904851 0.341400 -0.002415 0.0
2.257465 1.556083 0.001129 0.0
0.107517 0.940518 -0.000715 0.0
3.092020 0.797404 0.000289 0.0
1.933844 1.527395 -0.002908 0.0
0.952484 0.023016 0.004549 0.0
1.299172 0.310822 0.001431 0.0
3.452028 0.994582 -0.003777 0.0
4.038988 1.458628 0.000938 0.0
3.120532 0.356808 -0.000106 0.0
2.436264 1.333731 0.000180 0.0
3.348747 0.749050 0.000622 0.0
0.109317 0.175903 0.000141 0.0
1.918073 0.662468 0.004458 0.0
0.070671 1.180490 0.003692 0.0
0.848514 1.094337 0.001274 0.0
1.329460 0.123365 -0.002113 0.0
2.597208 0.775027 -0.002508 0.0
4.023562 0.138415 0.000872 0.0
0.083814 1.342150 -0.004319 0.0
1.421366 1.549456 0.002242 0.0
0.822358 0.375193 -0.005040 0.0
2.990149 0.485436 -0.002730 0.0
1.215609 0.101042 -0.001668 0.0
1.658362 1.074184 -0.000957 0.0
2.508216 0.553031 -0.004604 0.0
0.927944 1.528003 -0.001723 0.0
2.600163 1.549193 0.002102 0.0
4.038143 0.331498 -0.001091 0.0
2.696065 1.381616 0.003277 0.0
2.962547 0.815709 -0.002274 0.0
0.933745 0.623196 0.001115 0.0
3.604619 1.577787 -0.002749 0.0
2.467005 0.747201 -0.004054 0.0
1.655053 0.403845 0.000835 0.0
1.441079 1.087867 -0.001972 0.0
1.915074 0.881611 0.002091 0.0
2.533096 1.312158 -0.005313 0.0
0.514006 0.164856 -0.001896 0.0
3.708319 0.738778 -0.001791 0.0
2.311648 0.175024 0.000675 0.0
3.525017 0.598295 0.000230 0.0
2.527300 0.550858 -0.001960 0.0
3.648130 1.150307 0.002364 0.0
2.304285 0.200610 -0.002491 0.0
1.863586 1.312664 -0.002200 0.0
0.934445 1.345233 0.002895 0.0
0.826737 1.237247 -0.000691 0.0
1.586542 0.463058 -0.002280 0.0
3.419454 0.372769 -0.001034 0.0
0.663023 0.525309 0.001343 0.0
2.242120 1.229695 0.006002 0.0
0.631869 1.129429 -0.000201 0.0
1.712588 0.945135 -0.001299 0.0
3.741352 0.195906 -0.002706 0.0
2.387908 0.694886 0.001289 0.0
3.304163 0.264993 -0.001945 0.0
2.788654 0.462377 -0.000390 0.0
4.024794 0.533861 0.000458 0.0
3.548001 0.617260 -0.001727 0.0
1.464863 1.166427 -0.000603 0.0
3.588404 1.110594 -0.000574 0.0
1.337093 0.150309 -0.000084 0.0
1.866152 1.426463 -0.005139 0.0
3.369349 0.982101 0.001190 0.0
0.722738 1.112949 -0.002703 0.0
2.534072 0.468768 0.000930 0.0
2.689934 0.968892 -0.004377 0.0
2.037418 0.321273 -0.001212 0.0
3.628320 1.257267 -0.001262 0.0
3.372546 0.593238 -0.000343 0.0
2.814069 1.561696 -0.003310 0.0
0.588982 1.592009 -0.001068 0.0
1.625744 0.978253 0.005285 0.0
1.095080 0.576213 -0.003421 0.0
3.859709 0.293887 0.002408 0.0
1.502661 0.587787 -0.001010 0.0
3.377379 1.141667 -0.001250 0.0
0.670244 0.668823 0.003797 0.0
2.797719 0.254737 -0.002335 0.0
0.339415 0.659848 0.002134 0.0
1.502689 0.191998 -0.002083 0.0
1.380068 0.309898 -0.003140 0.0
3.597373 0.319196 -0.000162 0.0
1.410437 0.521434 0.003745 0.0
2.749523 1.122199 0.002495 0.0
1.308924 0.056091 -0.002022 0.0
1.706930 0.914653 0.001760 0.0
3.116127 0.393309 -0.001813 0.0
0.746864 0.371866 -0.000494 0.0
2.293998 0.492919 0.003617 0.0
3.572597 0.690264 0.004805 0.0
0.915978 1.008042 -0.001148 0.0
1.145505 0.371544 -0.000889 0.0
0.309289 1.236853 0.000275 0.0
2.410169 1.458971 -0.000382 0.0
2.953540 0.642751 0.004523 0.0
2.336676 0.328369 -0.003683 0.0
2.707490 0.399864 0.000467 0.0
3.959081 0.480285 -0.000300 0.0
3.241142 0.563952 0.000931 0.0
3.812286 0.274475 -0.000543 0.0
0.250706 0.696691 -0.001469 0.0
0.865304 1.496015 -0.006040 0.0
0.457964 0.029568 -0.002435 0.0
2.025955 1.063685 0.002912 0.0
3.423523 0.640870 0.000496 0.0
1.858553 0.587404 0.002331 0.0
2.545131 1.589014 0.007395 0.0
0.990046 1.450068 -0.000754 0.0
3.292210 0.820861 0.005841 0.0
0.509927 0.966134 0.001511 0.0
2.826529 1.628429 0.000237 0.0
0.839156 0.411584 -0.000147 0.0
2.696539 1.065662 0.003473 0.0
1.636950 1.565555 0.000585 0.0
2.490261 0.413351 -0.000757 0.0
0.354816 0.481255 -0.002673 0.0
0.836280 0.479537 0.001577 0.0
2.618314 1.396132 -0.000078 0.0
1.730162 1.467472 0.003608 0.0
2.158269 0.596838 -0.000238 0.0
3.260555 1.107805 -0.001474 0.0
3.097477 1.347024 -0.000883 0.0
1.541521 0.132477 -0.000347 0.0
3.358026 1.063207 -0.001617 0.0
2.073365 0.715572 -0.002345 0.0
1.797247 0.702863 0.005896 0.0
3.194284 0.205498 0.000194 0.0
2.399001 1.263283 0.003653 0.0
1.809864 0.822744 -0.003349 0.0
1.083836 0.691383 0.001445 0.0
2.876487 0.207036 0.003180 0.0
3.664830 0.393473 0.001093 0.0
3.190407 0.125059 0.001377 0.0
0.793906 1.368663 0.000733 0.0
2.423952 -0.003090 -0.001558 0.0
3.355097 1.470263 0.003767 0.0
3.033852 1.224988 -0.002108 0.0
0.423711 1.019552 0.001841 0.0
1.238901 0.923182 0.001744 0.0
3.480244 0.763794 0.002041 0.0
3.036359 1.366046 0.002422 0.0
3.412864 0.849035 0.000800 0.0
1.837113 0.062579 -0.002989 0.0
3.061382 0.692672 0.003467 0.0
1.255944 0.555719 -0.001585 0.0
1.266208 1.381687 -0.000868 0.0
3.869623 1.623632 -0.001348 0.0
3.083108 1.290308 0.000676 0.0
0.032590 1.536116 -0.000467 0.0
1.110741 0.357583 -0.004017 0.0
2.293697 0.151622 -0.000852 0.0
1.870540 0.035481 0.000814 0.0
2.495658 1.031737 0.003323 0.0
2.714027 1.344841 -0.006803 0.0
2.048005 1.546537 0.000414 0.0
0.854304 1.020908 -0.000085 0.0
0.667854 0.563103 0.003477 0.0
1.858673 0.062059 -0.001436 0.0
1.163930 0.979435 0.002364 0.0
0.413046 0.013747 0.000432 0.0
3.875099 0.427114 0.000656 0.0
1.057542 1.599487 0.000138 0.0
1.491431 1.293523 0.004400 0.0
2.286296 0.100469 0.000686 0.0
0.294440 1.539764 -0.004565 0.0
3.404871 1.040021 0.001392 0.0
2.366105 0.722975 -0.002400 0.0
2.938888 0.947181 0.002598 0.0
1.320921 0.831688 -0.000232 0.0
1.278581 0.140148 -0.001486 0.0
2.892385 0.327264 -0.001160 0.0
0.756087 1.332815 -0.003470 0.0
3.562048 1.500129 0.001199 0.0
0.823182 0.888000 0.001586 0.0
3.525179 1.626147 -0.001012 0.0
2.770915 0.540661 -0.000425 0.0
0.054378 0.475755 -0.000707 0.0
0.920401 1.536669 -0.000395 0.0
1.338938 0.286554 -0.001735 0.0
2.713001 1.183057 0.001309 0.0
0.715908 0.417444 -0.001519 0.0
4.034967 0.942180 -0.003823 0.0
1.881738 1.213306 0.003786 0.0
2.412525 0.083824 -0.002000 0.0
0.815289 0.042884 0.005583 0.0
3.497264 1.025981 0.000288 0.0
1.812601 0.741756 -0.002919 0.0
2.705315 0.294568 -0.001089 0.0
2.200715 0.738024 0.002707 0.0
3.873454 1.111873 -0.002588 0.0
0.650611 0.745349 -0.004381 0.0
2.736107 1.561252 -0.001065 0.0
2.403107 1.520587 -0.001306 0.0
2.944841 0.692886 -0.001601 0.0
0.904483 1.101129 -0.002648 0.0
3.400155 1.601764 0.000018 0.0
2.476205 1.559737 0.001495 0.0
4.048200 0.764579 0.002416 0.0
1.778106 0.415709 0.002209 0.0
0.029608 0.413094 0.001639 0.0
2.326103 0.192956 0.000534 0.0
1.050351 0.452577 0.003087 0.0
3.896892 0.907121 -0.001763 0.0
1.312955 1.350894 -0.003318 0.0
3.887317 0.535765 -0.000931 0.0
1.903305 1.461891 0.000195 0.0
2.228710 0.670287 -0.002597 0.0
1.288856 0.809375 0.003695 0.0
0.370797 1.094158 -0.004665 0.0
3.458689 0.923265 -0.005174 0.0
1.897292 0.680735 -0.000496 0.0
2.351080 0.023161 0.001165 0.0
3.091862 0.911445 -0.001508 0.0
2.674853 1.228679 -0.002692 0.0
2.028548 0.509513 0.002095 0.0
3.607963 1.048474 -0.000685 0.0
3.210983 1.007932 -0.001153 0.0
2.301289 0.935620 -0.003097 0.0
3.015030 1.492516 -0.002303 0.0
3.663114 0.133898 0.002421 0.0
3.092656 0.045984 -0.003961 0.0
4.012801 1.385792 0.001657 0.0
0.422613 0.774066 0.002074 0.0
3.372357 1.628477 0.002114 0.0
3.070829 0.665904 -0.000351 0.0
3.435879 1.394375 0.006395 0.0
1.314060 0.981071 0.002893 0.0
0.386629 0.949860 -0.000927 0.0
2.033467 0.519297 -0.001773 0.0
3.158494 1.240332 -0.001396 0.0
3.969404 1.012400 0.002500 0.0
1.280823 1.483815 0.001330 0.0
1.009514 1.398511 0.002110 0.0
0.664696 0.184832 0.000150 0.0
2.789425 0.103739 -0.000539 0.0
0.748531 1.201619 0.000820 0.0
1.095833 0.534383 0.002469 0.0
2.907304 0.852515 0.002154 0.0
2.154581 0.942552 0.000972 0.0
1.133765 1.196913 -0.004494 0.0
3.641425 1.504226 -0.003637 0.0
2.521420 1.316675 -0.002512 0.0
3.644530 0.313896 0.000552 0.0
0.361891 1.278620 0.004810 0.0
0.116975 0.625900 -0.000812 0.0
1.573486 0.559086 -0.002530 0.0
1.435686 1.074664 0.001371 0.0
0.478025 0.363520 -0.001078 0.0
0.547508 0.805962 0.004330 0.0
3.308409 0.712049 -0.000633 0.0
1.217319 0.368474 -0.000559 0.0
0.519974 0.358331 -0.003905 0.0
3.791226 0.333809 -0.002804 0.0
1.034519 0.522202 0.001120 0.0
1.944931 1.431934 0.002565 0.0
2.696918 0.207184 -0.001585 0.0
2.184925 0.458836 -0.001501 0.0
1.920008 0.832908 0.002470 0.0
0.565567 1.045686 0.004438 0.0
3.289100 0.522765 0.000776 0.0
2.943703 0.835458 -0.002540 0.0
0.006125 0.674545 -0.000170 0.0
3.303815 0.182690 0.002294 0.0
3.751887 1.417741 0.005787 0.0
0.239174 0.185503 -0.001128 0.0
3.514199 1.518599 0.000431 0.0
3.372937 0.109107 -0.000144 0.0
0.646110 1.354007 -0.001301 0.0
0.487174 0.882621 0.004823 0.0
0.233569 0.546632 -0.001385 0.0
0.299139 0.421372 -0.002185 0.0
0.476492 0.885295 0.002631 0.0
1.360476 1.246167 -0.002851 0.0
0.559119 0.914324 -0.004859 0.0
2.529189 0.082926 0.003753 0.0
2.256227 0.404542 0.006396 0.0
2.438385 1.094142 0.002098 0.0
3.569168 0.753715 -0.001807 0.0
3.545770 1.339281 0.001831 0.0
2.877162 0.706163 -0.001133 0.0
2.310113 0.332447 -0.001342 0.0
2.451534 0.439124 -0.000908 0.0
1.659559 0.030346 -0.000114 0.0
1.738601 1.441572 -0.001091 0.0
2.063392 1.002365 0.001991 0.0
2.059195 1.241943 0.002144 0.0
0.342237 0.081740 0.002018 0.0
3.124600 1.074678 -0.000464 0.0
2.631786 0.969082 -0.001844 0.0
2.384849 0.024435 -0.001703 0.0
0.662414 0.899053 0.000607 0.0
3.009423 1.191275 -0.001249 0.0
1.242584 1.222870 -0.002792 0.0
1.743838 1.122404 0.000207 0.0
0.259153 0.527681 -0.000625 0.0
2.094014 0.399536 -0.000126 0.0
4.016968 0.612880 0.001027 0.0
3.900890 0.677605 -0.000670 0.0
4.023692 0.338657 -0.002469 0.0
1.239598 0.679525 0.000938 0.0
2.687360 1.160222 0.000727 0.0
3.172919 0.296057 0.002370 0.0
4.124491 1.295313 0.004540 0.0
2.575199 1.180028 -0.001544 0.0
3.001109 1.352778 -0.002920 0.0
3.346931 1.563993 0.000594 0.0
0.242443 1.459302 0.002966 0.0
2.132049 1.514484 -0.001755 0.0
3.121155 0.100424 -0.001086 0.0
3.705443 0.991479 -0.000543 0.0
3.701591 0.583317 -0.001197 0.0
0.497500 0.540324 -0.001554 0.0
3.073686 1.236802 0.003659 0.0
1.413096 0.858096 0.000091 0.0
0.575109 0.417117 -0.001027 0.0
3.967050 0.898437 -0.000207 0.0
0.637531 1.101982 0.002562 0.0
2.283871 1.315103 -0.001704 0.0
0.024791 0.543192 -0.000720 0.0
1.636315 0.666932 -0.000578 0.0
0.688477 0.247673 0.000918 0.0
0.102426 1.243787 0.002438 0.0
3.026613 0.764237 0.001314 0.0
0.654423 1.608654 0.002601 0.0
2.686789 0.586655 0.000111 0.0
1.523326 0.534033 -0.000617 0.0
3.165008 0.074366 -0.003889 0.0
2.956122 1.448884 0.004109 0.0
3.227546 0.839942 -0.002613 0.0
2.831354 0.965372 0.001625 0.0
3.225997 1.223664 0.000851 0.0
1.456495 0.990410 0.003992 0.0
0.484206 0.644397 -0.000974 0.0
2.078332 0.704679 0.001983 0.0
0.689120 1.259682 0.001586 0.0
2.561074 0.075039 -0.001089 0.0
2.374879 1.521163 0.001893 0.0
3.610286 0.930571 -0.002663 0.0
3.584905 0.116445 -0.001032 0.0
1.631497 1.148284 -0.001557 0.0
0.586466 1.542370 0.003209 0.0
0.096380 1.426327 -0.001350 0.0
0.555165 0.271121 0.002540 0.0
1.971598 0.473808 -0.002856 0.0
1.076385 0.766909 -0.000653 0.0
2.149974 0.765457 -0.000755 0.0
2.759751 0.495016 -0.001234 0.0
1.670738 0.715117 0.001485 0.0
2.256168 1.246974 -0.003161 0.0
0.057378 1.211586 -0.001425 0.0
0.557473 0.773700 -0.000852 0.0
0.045062 0.995758 -0.000262 0.0
2.155912 1.327134 0.003345 0.0
1.550284 0.056017 0.000841 0.0
4.003798 0.539560 -0.002590 0.0
2.744942 0.358681 -0.003685 0.0
0.967851 0.220395 -0.003198 0.0
3.245279 0.371878 -0.002304 0.0
3.106406 0.471131 0.001384 0.0
0.633435 0.838915 0.003135 0.0
0.540230 1.440119 0.001394 0.0
0.301408 0.847108 -0.000413 0.0
1.926550 1.222273 -0.000047 0.0
3.816949 0.088357 0.001683 0.0
0.080844 1.522241 -0.000397 0.0
1.554196 0.334474 -0.001133 0.0
3.370323 0.398658 0.001016 0.0
1.350512 0.523074 0.002160 0.0
3.801020 1.314972 -0.002133 0.0
1.901799 0.320734 -0.003691 0.0
0.137005 1.022574 -0.001637 0.0
1.074721 1.485832 -0.001710 0.0
0.412369 0.887409 0.003277 0.0
3.199230 0.121435 -0.000522 0.0
4.113613 0.963421 -0.000739 0.0
0.552520 0.111624 -0.000059 0.0
4.028175 1.352817 -0.000905 0.0
1.970137 1.063089 0.002204 0.0
1.497945 1.630604 0.004221 0.0
1.091794 1.441404 0.004267 0.0
2.745364 0.049105 -0.005146 0.0
0.287302 0.841893 0.001005 0.0
3.875946 0.463801 -0.003210 0.0
2.110798 0.488798 -0.002009 0.0
1.982321 1.261386 0.000619 0.0
3.117019 0.333153 -0.000335 0.0
3.507072 0.013020 0.006576 0.0
3.828905 1.353005 0.000104 0.0
2.107029 1.435163 -0.002682 0.0
3.822687 0.324582 -0.001825 0.0
2.943942 1.493612 -0.000896 0.0
0.380000 1.503714 -0.001247 0.0
1.662421 0.397285 0.000124 0.0
2.115349 0.173898 -0.002004 0.0
3.350693 0.436884 -0.001469 0.0
1.295169 0.512898 0.002532 0.0
0.070495 0.724267 0.002371 0.0
4.005588 0.458779 0.000998 0.0
3.439921 0.126614 -0.002416 0.0
4.055135 0.108565 0.001357 0.0
3.317996 0.294695 0.000874 0.0
3.619037 0.809717 -0.001306 0.0
2.791739 1.538174 -0.001869 0.0
1.055992 1.283586 0.005416 0.0
2.899488 1.558585 0.002942 0.0
3.903415 1.602142 -0.001075 0.0
2.637594 1.237527 0.000644 0.0
1.613132 1.108899 -0.003613 0.0
0.867783 0.520055 0.004591 0.0
3.252214 0.561322 -0.001187 0.0
1.556109 0.446737 0.001437 0.0
2.463512 0.709168 -0.002023 0.0
3.855712 0.235008 -0.002862 0.0
2.986393 0.565802 0.001602 0.0
0.331537 0.876213 0.000161 0.0
3.684021 0.514033 0.002740 0.0
0.069224 0.515211 0.001580 0.0
0.072352 1.089306 0.004020 0.0
2.891425 0.270634 0.002981 0.0
2.859294 1.623903 -0.000315 0.0
0.631647 0.979887 0.000045 0.0
1.236614 0.372051 0.000375 0.0
2.462469 0.571852 -0.002100 0.0
0.076982 1.430828 -0.001817 0.0
0.066399 0.889725 0.003217 0.0
2.632148 0.745368 0.004672 0.0
1.708407 0.530013 -0.001557 0.0
1.412275 0.014208 0.002362 0.0
1.130735 0.023071 0.002743 0.0
0.058216 1.388965 -0.004558 0.0
0.938081 1.465562 -0.003562 0.0
3.482378 0.234496 0.000288 0.0
1.819680 0.460593 0.002035 0.0
3.840095 0.754727 -0.003243 0.0
0.300988 1.586457 0.003132 0.0
2.925131 1.329443 0.001566 0.0
2.436134 0.062370 0.000944 0.0
2.027729 1.609526 -0.001712 0.0
1.240423 0.918452 0.000633 0.0
3.741638 1.119774 0.002893 0.0
1.119751 0.562341 -0.000738 0.0
2.077020 1.316720 0.002873 0.0
0.215231 0.007234 -0.003117 0.0
0.285576 1.278300 -0.002764 0.0
0.368703 1.215550 0.005012 0.0
1.510598 1.595402 0.002086 0.0
2.253459 1.244211 -0.000162 0.0
1.935004 1.448556 0.002793 0.0
0.484597 1.553027 -0.001049 0.0
0.416741 1.263592 0.001578 0.0
3.824893 1.235048 0.001183 0.0
1.402465 0.557357 -0.001253 0.0
0.843281 0.219198 0.000944 0.0
2.390045 1.286922 -0.001609 0.0
0.308751 1.107361 -0.003337 0.0
0.803570 0.321187 0.001428 0.0
3.384027 0.713895 -0.000656 0.0
3.466123 0.507750 -0.002546 0.0
0.699375 0.490609 0.003188 0.0
3.962758 1.058284 -0.001811 0.0
2.242265 0.761072 0.001043 0.0
2.348427 0.331324 -0.001513 0.0
3.959073 1.505729 -0.000001 0.0
2.592064 0.795009 -0.000124 0.0
3.127388 0.834901 -0.002102 0.0
0.271597 0.135865 -0.001661 0.0
1.379650 1.437204 -0.000005 0.0
4.021121 0.176090 -0.000245 0.0
1.255306 1.013849 -0.005247 0.0
1.838472 0.432951 0.000316 0.0
3.259217 0.621135 0.000768 0.0
2.850505 1.214893 -0.000785 0.0
3.376623 0.329105 -0.001903 0.0
3.665208 1.397789 -0.000842 0.0
0.610983 1.187939 -0.002286 0.0
0.037357 1.059239 0.001126 0.0
2.453941 1.308870 -0.002570 0.0
1.885448 0.683793 0.002290 0.0
4.070156 0.653029 -0.001873 0.0
2.268815 0.386598 -0.000808 0.0
2.749799 1.536245 -0.000349 0.0
3.786104 1.126832 -0.002332 0.0
0.399952 0.610095 -0.002750 0.0
1.553046 1.330481 -0.001431 0.0
4.059129 0.395682 -0.000704 0.0
0.499120 1.354675 0.003825 0.0
0.397842 0.028357 -0.005297 0.0
3.924655 1.090291 0.003576 0.0
0.449637 0.001192 0.000032 0.0
2.393080 1.573921 -0.002922 0.0
3.788746 0.965408 0.003494 0.0
4.047653 1.368694 0.002227 0.0
1.408207 0.866757 -0.002126 0.0
1.609364 1.298784 0.004721 0.0
1.485577 0.716181 -0.000397 0.0
3.607797 1.419985 -0.000695 0.0
3.358303 0.755782 0.001067 0.0
3.664689 0.891794 0.005851 0.0
3.173150 0.099263 0.003262 0.0
2.698992 0.269622 0.002208 0.0
1.193543 0.548197 0.000227 0.0
3.611707 0.831330 0.000788 0.0
4.072593 0.929897 0.001264 0.0
1.614403 1.407535 -0.001608 0.0
2.332751 0.169776 -0.003526 0.0
2.898253 1.217497 -0.001482 0.0
0.151599 0.992923 0.002462 0.0
1.789271 0.192063 0.003398 0.0
2.042847 1.280768 -0.002279 0.0
2.110246 1.121409 0.002445 0.0
3.468320 0.270096 -0.002405 0.0
0.022593 0.260820 0.000852 0.0
3.810373 0.425926 0.000002 0.0
0.047999 0.624857 0.002691 0.0
2.658832 0.792550 0.003023 0.0
1.008489 0.780323 -0.000173 0.0
0.956010 0.227146 -0.000581 0.0
2.582759 0.684427 0.003316 0.0
1.090051 0.464381 0.002661 0.0
0.363437 0.917242 -0.001165 0.0
0.455187 0.371597 0.004334 0.0
2.800909 1.045766 -0.002406 0.0
2.219271 0.415640 -0.000695 0.0
2.895118 0.462402 0.000130 0.0
0.855276 0.888788 0.003908 0.0
3.003614 1.210876 -0.000296 0.0
3.012223 1.320918 0.001912 0.0
2.332086 0.832891 -0.003762 0.0
2.088961 0.017760 -0.002157 0.0
2.650514 1.283948 -0.000432 0.0
3.947535 0.682569 -0.002097 0.0
1.158690 0.014260 -0.002713 0.0
2.133487 1.264436 -0.003915 0.0
3.560339 1.078932 -0.001875 0.0
1.169730 0.927340 0.002353 0.0
1.104559 1.292014 0.001657 0.0
2.848266 0.732509 0.001640 0.0
0.805243 0.279954 -0.006095 0.0
1.714377 1.394009 -0.000578 0.0
1.631687 0.327944 0.000857 0.0
2.500981 1.478856 0.000339 0.0
2.355154 0.013927 -0.001396 0.0
1.661690 1.153592 0.000518 0.0
3.728779 0.233280 -0.000316 0.0
3.025280 0.026498 -0.005877 0.0
3.574579 0.616339 0.002390 0.0
0.840724 0.174766 -0.000718 0.0
1.459362 1.543159 0.000726 0.0
2.526837 1.411766 -0.002505 0.0
0.038630 0.059772 -0.004256 0.0
1.041975 1.452284 0.003216 0.0
1.767469 1.045102 0.003991 0.0
4.075775 1.624549 0.002588 0.0
0.984068 1.543505 -0.001935 0.0
1.143414 1.489066 0.000693 0.0
1.684310 0.462060 0.000862 0.0
0.999526 0.535318 -0.001796 0.0
3.089483 1.167500 -0.003407 0.0
2.990938 1.361270 0.003223 0.0
2.929273 0.338560 -0.003031 0.0
3.412218 0.329637 -0.001369 0.0
0.667048 0.614157 -0.001060 0.0
0.384785 1.039354 -0.004140 0.0
0.343386 1.232697 0.003360 0.0
2.625822 0.968188 -0.001476 0.0
2.406111 1.273755 -0.000243 0.0
3.789466 0.169213 0.001299 0.0
2.596557 1.357865 -0.000857 0.0
2.411006 1.519909 0.000040 0.0
3.601591 0.425879 -0.006535 0.0
1.601451 1.603870 0.000044 0.0
0.009374 1.436941 0.002360 0.0
1.548183 0.505649 0.000508 0.0
1.752777 0.235092 0.002766 0.0
0.014332 0.792946 -0.000452 0.0
1.808128 0.623077 0.001473 0.0
2.277405 0.627569 0.001032 0.0
0.974937 0.964791 -0.002383 0.0
0.527617 0.279530 -0.000867 0.0
3.631486 1.545895 0.000224 0.0
2.634288 0.969984 0.001409 0.0
0.822279 0.392336 -0.001581 0.0
3.186423 0.141631 0.000574 0.0
3.245683 0.258175 -0.000743 0.0
3.273083 1.592520 -0.005435 0.0
0.212729 0.776421 -0.002279 0.0
3.948031 0.696233 0.003338 0.0
2.643886 0.252820 0.000457 0.0
0.997161 1.389620 -0.001649 0.0
1.567071 0.907316 0.000623 0.0
2.152153 0.421819 0.002231 0.0
2.540923 0.455679 -0.001548 0.0
3.107984 0.465091 0.000701 0.0
3.356548 0.350407 -0.003144 0.0
0.667055 1.009339 0.002589 0.0
1.987259 1.509325 0.002326 0.0
2.153863 1.086647 -0.001160 0.0
0.312447 1.488960 -0.000539 0.0
1.373361 0.123827 0.001330 0.0
0.794699 0.862843 0.000146 0.0
0.956519 1.397543 0.000485 0.0
4.100991 0.489883 0.000287 0.0
4.082027 1.145885 0.003102 0.0
0.917202 0.354565 0.002244 0.0
0.797656 0.780091 -0.002235 0.0
3.762316 0.699984 0.000624 0.0
1.806882 0.726596 -0.000584 0.0
2.879720 0.835341 0.000826 0.0
0.956853 0.465845 0.000013 0.0
3.262958 0.374160 0.001671 0.0
2.455552 1.098185 -0.000481 0.0
3.278373 1.377729 0.001969 0.0
1.643553 0.797219 0.001052 0.0
0.771054 0.708362 -0.000728 0.0
0.115326 0.778368 0.002792 0.0
3.387025 0.437873 0.000646 0.0
3.614147 0.871831 -0.000612 0.0
0.408500 1.047144 -0.000490 0.0
0.806651 0.660561 0.000172 0.0
0.288205 0.561221 -0.003778 0.0
0.235515 1.523760 0.001046 0.0
2.466742 0.398075 -0.000019 0.0
0.808779 1.325380 -0.000114 0.0
0.479815 1.254512 -0.001302 0.0
3.859043 1.077021 0.000695 0.0
0.237496 1.296092 -0.005959 0.0
1.682222 0.999424 0.003408 0.0
1.634043 1.226353 -0.000787 0.0
4.071488 0.755279 0.006986 0.0
0.767410 1.511387 -0.002201 0.0
0.016669 0.011407 0.001583 0.0
0.244580 0.537640 0.000652 0.0
2.007428 0.671753 -0.000728 0.0
3.366782 0.901248 0.003519 0.0
1.520168 0.725694 -0.004189 0.0
1.709307 1.351479 -0.003849 0.0
1.533069 0.107685 0.001033 0.0
1.486910 1.392437 0.004210 0.0
3.827944 0.731773 0.002731 0.0
2.180389 0.060645 -0.001760 0.0
2.934592 0.410912 0.005829 0.0
3.265332 1.138664 -0.000525 0.0
4.042338 0.289221 0.004509 0.0
2.092703 1.398828 -0.001779 0.0
2.353656 -0.000494 -0.000909 0.0
1.798311 0.392130 0.000791 0.0
0.327180 0.362706 0.000417 0.0
2.898444 1.346571 -0.000197 0.0
0.944151 0.373640 -0.002466 0.0
3.899885 0.499759 -0.001511 0.0
0.385836 0.034776 -0.001466 0.0
1.826061 1.446033 -0.005170 0.0
3.068945 1.095467 0.001753 0.0
1.472563 1.201426 -0.001052 0.0
0.496563 1.196859 0.001729 0.0
1.778301 0.194512 -0.000796 0.0
1.491285 0.254134 0.001775 0.0
0.317787 0.736964 -0.001311 0.0
3.789710 0.942193 0.004368 0.0
1.843973 0.763468 -0.000291 0.0
1.540037 0.846422 0.002211 0.0
2.780405 1.402722 -0.003019 0.0
3.816781 0.039135 0.000279 0.0
3.042221 1.291476 -0.001975 0.0
1.295033 0.377797 0.001949 0.0
0.576797 0.215424 -0.001941 0.0
3.316075 0.243010 0.001307 0.0
1.462189 1.059412 0.000232 0.0
0.285474 1.604149 -0.002766 0.0
2.185275 1.458723 0.000857 0.0
3.168601 1.263213 0.001508 0.0
1.935342 1.429409 -0.002255 0.0
2.032036 1.455594 -0.002757 0.0
0.754913 1.623771 0.001542 0.0
1.601769 1.366029 -0.003807 0.0
2.082719 1.584895 0.000174 0.0
0.154854 1.279062 -0.000380 0.0
0.776723 1.248020 -0.005049 0.0
3.683184 1.174968 -0.001222 0.0
1.312250 0.394575 -0.001241 0.0
1.914496 0.978354 0.001608 0.0
3.210361 1.566302 0.002991 0.0
1.859087 0.018886 -0.000099 0.0
0.168087 0.112301 0.000310 0.0
2.523381 0.808230 -0.002514 0.0
1.783223 0.767841 0.001160 0.0
2.984079 1.565529 0.002666 0.0
0.628053 0.497774 0.000758 0.0
0.381803 1.351364 0.005585 0.0
1.086323 1.205642 -0.000390 0.0
2.025676 0.730527 -0.003029 0.0
2.030812 0.695392 0.001089 0.0
3.768434 0.971635 -0.000092 0.0
0.089548 1.092412 0.003296 0.0
1.573556 1.377800 0.004176 0.0
2.058490 0.742716 0.001473 0.0
2.438433 0.342882 0.004113 0.0
3.168533 1.258774 0.000768 0.0
2.805451 1.368464 0.002455 0.0
3.395407 1.302777 0.004219 0.0
3.517688 1.406152 -0.000254 0.0
1.567622 0.263607 -0.003362 0.0
3.234110 1.562160 0.004005 0.0
