1.782359 1.661099 0.003254 0.0
0.936661 0.080383 0.000090 0.0
0.039266 0.827541 -0.002024 0.0
2.649605 1.177869 -0.003710 0.0
3.324597 1.168502 0.000934 0.0
2.870502 1.422081 -0.002887 0.0
0.392160 0.357421 0.002706 0.0
2.656951 1.122368 -0.003349 0.0
0.353562 0.695898 -0.001278 0.0
3.715511 0.666665 -0.000901 0.0
2.811413 1.432545 0.003672 0.0
1.568237 0.690177 -0.001429 0.0
1.076814 0.829085 0.000418 0.0
1.218507 0.826054 0.001724 0.0
0.067147 1.540685 0.000582 0.0
0.519409 0.226151 -0.000542 0.0
1.392630 1.641266 0.000444 0.0
3.488035 0.630487 -0.000130 0.0
1.015928 0.611850 0.003482 0.0
1.533547 0.797347 -0.001124 0.0
3.056967 1.692381 0.005618 0.0
3.430575 0.419937 -0.003372 0.0
3.286850 1.402713 0.004351 0.0
0.348372 0.243206 -0.005882 0.0
1.350476 0.504711 0.000020 0.0
3.532866 1.537373 0.000414 0.0
2.166818 0.459137 -0.000904 0.0
4.037924 0.748518 -0.003124 0.0
4.098129 0.355526 -0.003659 0.0
3.357423 1.437327 -0.000222 0.0
3.173656 0.622913 0.002489 0.0
0.255038 1.190387 -0.003552 0.0
2.089467 1.065618 0.001965 0.0
1.178143 1.489864 0.000638 0.0
2.844066 1.630793 0.002643 0.0
3.734159 1.189245 0.001278 0.0
0.034040 1.499561 0.001856 0.0
2.186637 1.643944 -0.000395 0.0
2.246437 1.222770 0.004023 0.0
1.955739 1.197322 -0.002671 0.0
3.463475 0.376715 0.003643 0.0
3.102976 1.721085 -0.003311 0.0
2.080990 0.298541 0.002549 0.0
3.266974 0.065388 0.002241 0.0
1.177108 0.033068 0.001456 0.0
1.406959 1.356141 0.001403 0.0
1.578808 0.802299 -0.005751 0.0
0.053927 1.491508 0.001244 0.0
3.490070 1.571644 -0.001871 0.0
0.343349 0.927935 0.002927 0.0
0.047405 0.555687 0.003650 0.0
3.805790 0.412854 0.000868 0.0
1.761287 0.069142 -0.004188 0.0
2.812620 0.307262 -0.001200 0.0
2.398174 0.808477 -0.002086 0.0
3.561225 0.341477 -0.000623 0.0
0.927392 1.367253 0.000204 0.0
1.801107 0.194847 0.000664 0.0
0.576926 1.137662 0.000076 0.0
0.808733 0.140386 -0.001649 0.0
2.846996 0.436155 0.001379 0.0
2.480287 1.035640 -0.003156 0.0
1.384041 1.689789 0.001453 0.0
1.569629 1.406668 -0.004573 0.0
3.109314 0.606841 0.003678 0.0
4.219040 0.752202 0.000399 0.0
3.396354 0.341655 0.000143 0.0
4.279464 1.094083 -0.005442 0.0
2.801093 0.191967 0.003771 0.0
3.548066 1.236662 0.000567 0.0
0.515898 0.779000 -0.001803 0.0
0.108151 0.853323 -0.002103 0.0
3.529478 0.214406 -0.001520 0.0
1.089212 0.615764 0.003025 0.0
2.839772 1.765632 -0.002663 0.0
0.857512 0.122175 -0.000057 0.0
3.925669 0.977186 0.004067 0.0
3.331971 0.963828 -0.000559 0.0
3.542066 0.157182 -0.002386 0.0
1.354257 1.362570 -0.001560 0.0
3.844895 0.085118 -0.000884 0.0
0.495339 0.443055 -0.001527 0.0
0.773924 0.090541 -0.001209 0.0
3.554950 0.975164 0.001671 0.0
1.278290 0.698823 0.003256 0.0
2.137744 0.542350 -0.001232 0.0
4.183620 1.153919 0.001361 0.0
4.121106 1.524837 0.001864 0.0
2.027429 0.212562 0.001408 0.0
0.861678 1.280044 0.001039 0.0
2.873643 0.456392 0.000443 0.0
1.660554 0.695459 -0.000374 0.0
3.433799 1.734813 0.001717 0.0
1.161719 1.047052 0.000494 0.0
1.406488 1.518687 -0.002260 0.0
2.900600 0.978295 0.001253 0.0
1.980819 0.055490 -0.001082 0.0
1.433736 1.681633 0.003252 0.0
2.829421 1.572049 0.002211 0.0
4.164617 0.321892 -0.000787 0.0
2.372382 1.036297 -0.002077 0.0
2.943590 0.070193 0.000339 0.0
2.199755 0.304098 -0.000055 0.0
1.230608 1.201888 0.002558 0.0
3.987828 0.933823 0.001454 0.0
3.935484 1.599537 -0.006562 0.0
1.682858 0.108508 -0.002424 0.0
3.536851 0.493944 0.001672 0.0
3.193604 0.046616 -0.001803 0.0
3.277720 0.886332 -0.004399 0.0
3.505379 1.805688 0.003290 0.0
1.253781 1.507833 0.000480 0.0
4.076571 0.773047 0.000635 0.0
1.912143 1.761513 0.001163 0.0
3.916872 0.926279 -0.001074 0.0
2.965363 0.186356 -0.002121 0.0
1.199013 0.825443 0.000934 0.0
0.734911 1.364165 0.002383 0.0
4.184683 1.694192 -0.002080 0.0
1.855294 0.242091 0.000715 0.0
3.881659 0.243797 0.001255 0.0
0.972182 0.135243 0.002129 0.0
0.436404 0.547094 -0.004087 0.0
1.610758 0.996779 0.000897 0.0
3.869240 0.947280 -0.001091 0.0
2.918058 0.264171 0.004365 0.0
2.300803 1.305143 -0.002855 0.0
3.488481 0.073690 -0.000296 0.0
0.740269 0.964411 0.001101 0.0
0.979818 1.117324 -0.003702 0.0
3.624954 1.265535 -0.001377 0.0
1.068422 0.427823 0.001747 0.0
1.728409 0.972462 -0.004164 0.0
1.284328 1.097183 -0.000780 0.0
2.429204 0.917221 0.002079 0.0
2.079532 0.640845 0.001989 0.0
3.851745 0.265599 -0.002416 0.0
3.475418 0.099416 0.000650 0.0
0.677936 0.447639 -0.001879 0.0
4.253441 0.675493 0.003469 0.0
2.726835 0.983266 0.002644 0.0
0.219864 0.990010 -0.001796 0.0
3.116455 1.415153 0.003461 0.0
0.598330 0.221633 0.004966 0.0
3.212762 0.583823 0.000749 0.0
0.232082 1.767663 -0.001059 0.0
0.053355 0.048131 -0.000180 0.0
0.857576 1.295209 -0.000160 0.0
1.230215 0.704970 0.000282 0.0
4.232766 1.723059 0.002805 0.0
4.267050 1.468278 0.005629 0.0
1.330646 0.346540 -0.001900 0.0
3.335088 0.744945 0.001595 0.0
4.285064 1.732470 0.001216 0.0
2.024093 1.308005 -0.002620 0.0
2.224688 0.780285 -0.002538 0.0
1.231848 1.763986 -0.003454 0.0
1.366267 0.485217 0.000297 0.0
1.823517 0.773477 0.002838 0.0
3.417553 0.263465 -0.000580 0.0
1.667109 1.045865 0.004765 0.0
1.038978 0.674854 -0.001916 0.0
0.743244 0.710715 -0.001202 0.0
3.477400 0.055274 0.002968 0.0
3.005903 1.238033 -0.002711 0.0
4.087216 0.987851 -0.001217 0.0
0.565631 1.762522 -0.000296 0.0
1.821415 0.089756 -0.000292 0.0
3.953618 0.971711 0.000466 0.0
1.807319 0.995840 0.003562 0.0
2.987535 0.058485 0.003542 0.0
3.291705 0.658916 0.000401 0.0
2.277985 0.677556 -0.001114 0.0
2.187313 0.731226 -0.001042 0.0
2.894381 1.623844 0.002329 0.0
0.694030 0.535718 -0.003862 0.0
3.482727 0.162392 0.004995 0.0
2.893538 1.714683 -0.000346 0.0
1.509752 0.709359 -0.003234 0.0
3.775061 0.118168 -0.001279 0.0
1.654194 0.669559 -0.007046 0.0
0.728204 0.489483 0.000727 0.0
2.809512 0.374643 -0.000621 0.0
0.514213 0.828063 0.002818 0.0
0.166524 0.471265 -0.000764 0.0
1.956995 0.568899 -0.002324 0.0
3.138302 0.729084 0.001065 0.0
4.257106 0.145075 0.005712 0.0
1.247983 1.072327 -0.000142 0.0
3.680938 0.702148 0.000490 0.0
0.607157 0.856277 0.003822 0.0
2.862194 1.247371 -0.000570 0.0
2.192845 0.299398 0.001917 0.0
2.411937 1.021819 -0.003146 0.0
3.314595 0.439210 0.003998 0.0
3.666030 1.121748 0.002190 0.0
2.259834 1.206886 0.001169 0.0
2.290550 0.328063 0.000816 0.0
1.685064 1.557530 -0.000216 0.0
1.816040 0.238391 0.005062 0.0
2.656121 0.055797 -0.003104 0.0
2.110343 1.358063 -0.003006 0.0
0.410665 0.025857 -0.000565 0.0
1.296089 1.312899 0.000569 0.0
1.502862 0.927375 -0.002456 0.0
0.483570 1.497250 0.001448 0.0
1.573288 1.523950 -0.001142 0.0
1.323339 1.485447 0.000691 0.0
3.562623 0.835228 -0.000175 0.0
3.905262 1.305255 -0.001106 0.0
4.080611 1.355502 0.000997 0.0
2.182148 0.517802 0.001779 0.0
4.070479 0.215444 0.001395 0.0
2.634206 0.573850 -0.000689 0.0
0.804783 0.942235 -0.000322 0.0
4.322326 0.558820 0.003090 0.0
3.817545 1.576476 0.000839 0.0
0.503070 1.290022 0.000333 0.0
0.997315 0.146426 0.003471 0.0
3.558628 0.640333 -0.001263 0.0
2.761968 1.634139 0.001315 0.0
0.420320 0.162180 -0.002206 0.0
2.360039 0.004850 -0.002190 0.0
3.142755 1.781512 0.003219 0.0
1.319205 0.775407 0.001960 0.0
3.329218 1.156912 0.001992 0.0
2.627825 0.536314 0.000506 0.0
2.357287 0.185871 0.000631 0.0
0.876631 0.286954 -0.001191 0.0
1.192857 1.656004 -0.002190 0.0
1.388589 0.767409 -0.001104 0.0
2.607468 0.466315 -0.000702 0.0
2.092971 1.011005 -0.004332 0.0
0.564590 0.677678 -0.001287 0.0
2.056686 0.123000 -0.004540 0.0
0.088420 1.244186 -0.001581 0.0
2.397789 0.154534 0.004594 0.0
1.518717 1.528732 0.000860 0.0
1.511610 1.063913 -0.000568 0.0
1.512161 0.383925 0.001156 0.0
2.429874 0.702162 0.001007 0.0
2.505137 0.713089 0.005692 0.0
2.592360 1.713910 -0.001192 0.0
3.372786 0.204677 -0.002047 0.0
0.853670 1.082474 0.000904 0.0
3.861507 1.077933 -0.003787 0.0
1.342497 0.766751 0.002101 0.0
2.537026 0.162967 -0.000843 0.0
1.369383 0.551068 -0.001719 0.0
3.774549 0.647573 0.000576 0.0
0.741568 0.746462 0.006020 0.0
0.566831 0.716389 -0.005373 0.0
1.717905 0.704543 0.002957 0.0
2.451816 0.078625 -0.001060 0.0
3.581532 0.216779 -0.002455 0.0
3.263820 0.297966 -0.003400 0.0
3.732427 1.470390 0.002268 0.0
0.599505 1.344796 0.000550 0.0
2.913255 0.268127 -0.001326 0.0
2.087881 0.528952 -0.004140 0.0
2.091445 0.594606 -0.000549 0.0
0.701290 0.417353 0.003345 0.0
3.934453 0.392978 0.001537 0.0
3.838334 0.996372 0.001069 0.0
1.051274 1.517788 -0.002966 0.0
0.874439 0.853510 -0.000600 0.0
1.474290 0.677171 -0.004989 0.0
1.442418 0.630551 0.003891 0.0
3.711226 1.433204 0.002290 0.0
3.345815 0.975814 0.002184 0.0
2.426036 0.008054 -0.001466 0.0
1.026236 1.516796 -0.001024 0.0
0.775658 1.628918 0.001027 0.0
3.959939 0.385219 -0.000277 0.0
2.785057 0.363686 -0.001837 0.0
3.493883 0.062855 -0.001825 0.0
1.549291 0.145704 -0.000568 0.0
0.089406 1.077447 -0.003034 0.0
2.820497 0.993106 0.000321 0.0
2.551428 1.554938 0.001358 0.0
0.389330 0.718728 0.002210 0.0
3.752475 1.017222 -0.004804 0.0
0.111989 0.043558 -0.003059 0.0
3.879523 1.729265 0.000508 0.0
3.935311 1.531658 -0.000690 0.0
1.234425 1.788363 -0.001551 0.0
0.706227 0.902196 0.001781 0.0
2.577937 0.040734 0.001878 0.0
0.458205 1.800742 0.000551 0.0
4.096850 1.812080 0.004259 0.0
0.372850 0.699120 0.000153 0.0
0.395171 1.707124 0.000739 0.0
3.453370 1.496256 -0.005463 0.0
3.995620 1.670168 0.001948 0.0
3.823274 1.600420 -0.002185 0.0
1.522010 1.168686 -0.001194 0.0
2.611941 0.102066 -0.002932 0.0
1.881505 0.232943 -0.001695 0.0
2.374624 0.657677 -0.003162 0.0
2.973806 0.117528 0.001282 0.0
1.316927 1.783948 -0.003606 0.0
3.762038 1.547747 -0.002076 0.0
2.366700 0.541206 0.000771 0.0
0.703169 0.530515 -0.001816 0.0
3.112454 0.489230 0.001878 0.0
3.298930 1.531340 0.000112 0.0
3.577449 1.685517 0.002329 0.0
0.430629 0.634488 -0.004569 0.0
1.590223 0.866578 -0.001079 0.0
2.145704 0.817851 0.001422 0.0
0.843082 1.286574 -0.001001 0.0
0.377781 0.705943 0.001972 0.0
2.467641 0.170141 -0.000812 0.0
1.121300 1.460580 -0.000299 0.0
1.202644 0.979810 0.002122 0.0
2.339360 0.942244 0.004192 0.0
0.322930 1.348850 0.000144 0.0
2.739991 0.037412 0.003479 0.0
0.287549 0.793228 -0.000025 0.0
0.834308 1.010913 -0.000051 0.0
3.693018 1.658132 -0.001031 0.0
1.688605 0.725665 -0.005502 0.0
0.848770 0.529571 -0.001227 0.0
2.906914 1.283382 0.001890 0.0
3.788688 0.528811 0.004777 0.0
0.634919 0.300349 0.000732 0.0
2.288387 1.111608 0.001391 0.0
0.267635 0.168970 0.002371 0.0
1.889433 1.102764 -0.000471 0.0
2.578418 0.616550 -0.000123 0.0
3.976662 1.362878 -0.001038 0.0
2.651645 0.760644 0.004376 0.0
2.519134 0.638169 0.002713 0.0
2.569492 1.158179 0.001315 0.0
1.776064 0.366548 0.004689 0.0
4.039253 0.919827 -0.002450 0.0
3.520953 0.922880 -0.001896 0.0
1.286887 1.738636 0.000194 0.0
2.036607 1.061981 -0.001536 0.0
0.916071 1.616076 0.002645 0.0
1.237928 0.302366 -0.001851 0.0
0.584500 0.381993 -0.000275 0.0
3.687674 1.139089 -0.001656 0.0
2.842783 1.612407 -0.004154 0.0
2.750334 0.109472 0.001110 0.0
1.608317 0.272525 -0.000460 0.0
3.933555 1.216299 0.000132 0.0
1.619663 0.839610 0.001929 0.0
0.830007 0.724853 0.001344 0.0
4.281366 1.647685 -0.001928 0.0
2.541324 0.759803 0.000898 0.0
0.364595 0.612548 -0.001933 0.0
3.391797 0.251214 -0.000442 0.0
3.370552 1.146406 -0.000491 0.0
0.672753 1.673529 -0.001431 0.0
0.977888 1.264717 0.000829 0.0
0.558124 0.836784 -0.000928 0.0
1.184548 1.183775 -0.001195 0.0
2.276006 0.494311 -0.004736 0.0
2.192427 0.032805 0.004636 0.0
2.161950 0.912364 0.002580 0.0
2.257393 0.581842 -0.000726 0.0
3.918345 1.377595 -0.000942 0.0
1.632612 1.275628 -0.001212 0.0
1.755578 1.591746 -0.000222 0.0
1.058312 1.550421 0.001926 0.0
2.396599 0.423856 0.000860 0.0
3.849678 1.198154 0.001336 0.0
1.937010 1.608372 -0.002559 0.0
3.415701 0.146372 -0.000464 0.0
2.694400 0.808196 0.003709 0.0
4.326241 0.901081 -0.001304 0.0
1.934804 0.995444 0.001525 0.0
2.131151 1.005381 -0.000832 0.0
0.788621 1.244046 -0.001972 0.0
0.746505 1.352130 -0.001664 0.0
0.166999 0.722921 -0.002950 0.0
3.088450 0.857509 0.001054 0.0
1.004657 1.594415 -0.000058 0.0
2.272849 0.806757 0.000850 0.0
1.284135 0.138258 0.000201 0.0
4.229198 1.503694 0.001931 0.0
2.539720 0.840313 -0.002378 0.0
3.810622 0.046842 -0.001767 0.0
3.467015 1.094616 -0.001759 0.0
0.446274 0.505831 0.001990 0.0
0.878717 1.407739 -0.002766 0.0
3.251999 0.432358 -0.001657 0.0
3.682342 0.926767 -0.000595 0.0
3.317369 0.488851 -0.001280 0.0
2.517070 1.236782 0.002419 0.0
3.730805 1.469773 0.001805 0.0
1.397989 0.188804 0.004148 0.0
1.665681 1.055773 0.002640 0.0
3.902767 1.014038 0.001901 0.0
2.714676 0.072781 0.000048 0.0
3.935591 0.413960 -0.002016 0.0
0.498937 0.438848 -0.002996 0.0
2.475615 0.538283 -0.001850 0.0
3.767079 0.436740 -0.002664 0.0
4.329448 0.305640 -0.000106 0.0
3.825353 0.495568 0.002023 0.0
3.009427 1.724923 0.002224 0.0
2.182774 0.500445 -0.001357 0.0
1.091119 0.666998 -0.000121 0.0
0.559515 0.937032 0.001366 0.0
2.915066 1.511820 0.000557 0.0
1.521245 1.257941 0.001414 0.0
3.814181 1.157853 -0.002319 0.0
0.911699 0.334303 0.001538 0.0
3.141907 1.015456 0.003021 0.0
4.218015 0.753993 -0.001940 0.0
0.274854 0.092887 -0.003899 0.0
2.649369 0.238042 -0.001613 0.0
1.572890 1.544872 0.001634 0.0
1.850271 0.509700 -0.002294 0.0
4.304357 0.404385 -0.001020 0.0
1.546947 0.900241 -0.004109 0.0
1.450648 1.681559 -0.002928 0.0
2.376752 0.596458 0.003722 0.0
2.528598 1.393163 -0.001182 0.0
3.629310 1.057879 0.000617 0.0
3.238694 1.590873 0.002380 0.0
0.841836 1.357020 0.002926 0.0
2.500210 0.033931 0.003249 0.0
1.175673 0.145909 -0.002084 0.0
0.726832 0.123009 0.000479 0.0
2.799102 1.458124 -0.003432 0.0
1.190834 0.218910 0.001739 0.0
1.940539 1.251667 -0.005422 0.0
3.978306 1.677590 -0.000220 0.0
1.642433 0.016442 0.002338 0.0
3.883799 1.060769 -0.001149 0.0
3.157420 0.830772 -0.000166 0.0
3.788995 0.217395 0.002739 0.0
3.892836 0.784665 -0.003115 0.0
2.573389 1.703334 -0.002397 0.0
2.210102 0.407975 0.003239 0.0
2.023925 1.673110 -0.001103 0.0
1.590506 0.989544 0.000380 0.0
1.151834 0.930789 -0.000978 0.0
3.183589 1.469671 0.001307 0.0
1.054842 1.014009 0.000206 0.0
0.719825 0.328104 -0.001566 0.0
0.297128 1.144106 -0.004133 0.0
1.715864 0.987258 0.001769 0.0
3.421086 1.329864 0.003724 0.0
0.420836 0.497482 -0.000815 0.0
2.921802 0.720272 0.002015 0.0
4.329596 1.114605 0.001568 0.0
2.615285 0.879117 -0.002260 0.0
0.427806 0.090037 0.000452 0.0
0.758607 1.674741 -0.004933 0.0
3.909655 0.076112 -0.000156 0.0
4.248490 0.939742 -0.002878 0.0
2.010103 0.621413 -0.000116 0.0
1.922868 0.335636 -0.000379 0.0
0.316483 1.355435 -0.002297 0.0
3.034316 0.504654 -0.002161 0.0
3.836801 1.359833 0.002980 0.0
0.886104 1.660339 0.000501 0.0
1.941497 0.251222 0.003515 0.0
2.603263 0.895010 0.000630 0.0
2.680159 1.494856 0.004863 0.0
1.212215 0.263241 -0.000094 0.0
1.928699 0.334890 0.000525 0.0
3.496059 0.784006 -0.001772 0.0
3.012863 1.088828 0.003634 0.0
0.969102 0.391893 -0.006285 0.0
3.946602 0.080079 0.000642 0.0
2.300211 0.437973 -0.001462 0.0
2.191602 1.786943 0.001010 0.0
4.042029 1.494405 -0.000380 0.0
0.242684 0.581764 0.003120 0.0
0.143719 0.664141 -0.001155 0.0
0.835980 1.042674 0.001901 0.0
2.269064 0.283125 0.003921 0.0
1.894594 1.215031 -0.002215 0.0
4.181352 1.069144 0.003905 0.0
1.185101 1.184213 -0.000685 0.0
4.234670 0.415399 -0.001515 0.0
2.070540 1.811086 0.001302 0.0
2.128570 0.308541 -0.000929 0.0
1.221366 0.326292 0.000201 0.0
0.025687 1.171241 -0.002393 0.0
2.765327 0.212324 -0.001586 0.0
0.966381 0.229683 0.003130 0.0
3.562770 1.791613 0.000600 0.0
1.612620 1.768544 0.001084 0.0
1.810243 0.791303 0.001095 0.0
0.340018 1.537636 -0.000498 0.0
1.180882 1.504569 0.002996 0.0
1.929692 1.129556 0.003264 0.0
4.020413 0.644530 0.000647 0.0
1.955629 0.219789 0.001486 0.0
3.401884 0.994705 -0.000738 0.0
1.392210 1.545240 0.002530 0.0
3.531659 0.901063 -0.001000 0.0
1.121586 0.725792 -0.006435 0.0
1.557419 0.634077 0.002158 0.0
2.575394 0.342337 -0.002981 0.0
0.419113 1.381754 -0.003559 0.0
4.143954 1.422589 -0.002026 0.0
1.068670 1.628840 -0.003706 0.0
3.321505 0.596326 -0.000679 0.0
0.295638 0.021282 -0.002580 0.0
2.953346 0.760358 -0.003544 0.0
1.364359 0.266947 0.003732 0.0
0.996742 1.179601 -0.002037 0.0
2.920217 0.480610 0.004171 0.0
4.279704 0.767235 -0.001030 0.0
3.487636 0.317428 0.000545 0.0
1.815370 0.696187 0.003044 0.0
4.226200 1.779874 0.000524 0.0
1.198511 0.949146 -0.003387 0.0
0.682125 0.554497 0.000195 0.0
4.172890 0.877527 0.003166 0.0
0.209713 1.171611 -0.002158 0.0
0.428794 1.401732 -0.003188 0.0
3.323962 1.688945 0.000561 0.0
2.993846 1.518067 -0.001582 0.0
0.815779 1.399929 -0.003180 0.0
3.409723 1.207267 0.000332 0.0
1.786176 1.408781 0.000003 0.0
2.898427 1.709088 0.002735 0.0
2.706492 1.644496 0.002009 0.0
2.293290 0.718301 0.004376 0.0
2.918774 0.092814 -0.002106 0.0
1.175742 1.568594 0.001278 0.0
1.006162 1.492424 -0.003525 0.0
3.480729 0.848805 -0.006552 0.0
2.101970 0.291770 0.001806 0.0
2.753569 1.380916 -0.001397 0.0
1.795611 1.689829 0.000727 0.0
1.208145 0.853651 0.001339 0.0
3.189778 0.792806 -0.000247 0.0
1.883925 1.064972 0.001835 0.0
3.697085 1.661499 -0.005369 0.0
1.083872 1.249031 0.004535 0.0
3.025137 0.214068 -0.001718 0.0
0.782240 1.729451 -0.000163 0.0
3.017292 0.045326 -0.000131 0.0
1.669980 1.050323 -0.002930 0.0
1.352323 0.856756 -0.000117 0.0
3.865645 0.543304 -0.002137 0.0
3.738100 1.242707 0.002011 0.0
3.792961 0.893437 0.002253 0.0
2.574006 1.616376 0.005232 0.0
2.502313 1.495562 0.000254 0.0
3.494700 0.635975 -0.002206 0.0
3.292702 0.352035 -0.001915 0.0
2.707541 1.796489 -0.002925 0.0
1.386659 1.040371 0.000410 0.0
0.186754 1.037700 -0.002280 0.0
1.472765 0.003941 -0.001493 0.0
3.251776 1.792245 -0.002940 0.0
3.086932 0.047812 -0.003099 0.0
1.618471 0.431008 -0.000023 0.0
0.794468 1.518960 -0.000758 0.0
0.499881 0.060339 0.002373 0.0
0.532445 1.009582 0.001996 0.0
2.574004 0.392159 -0.001930 0.0
4.027199 1.551228 0.000983 0.0
3.709686 0.538997 0.001283 0.0
0.057573 1.262340 0.002938 0.0
3.817693 1.267336 0.000386 0.0
3.707910 0.914185 -0.000609 0.0
2.353282 0.529156 0.002689 0.0
0.047699 1.532141 0.000311 0.0
2.029878 1.807621 0.002906 0.0
0.347456 1.596175 0.000235 0.0
1.346453 0.042917 0.005571 0.0
4.036050 0.523515 0.001806 0.0
2.441593 1.481641 -0.000089 0.0
2.518138 0.251029 0.001883 0.0
0.047097 0.926593 -0.006371 0.0
3.319483 0.132080 -0.001819 0.0
3.320971 0.273386 0.001007 0.0
2.654028 0.402883 0.003524 0.0
2.407409 0.830353 0.002227 0.0
2.992253 0.738376 -0.001761 0.0
3.800601 0.908500 -0.001040 0.0
0.699745 0.983571 0.000336 0.0
3.578167 1.791674 -0.001569 0.0
0.649525 0.157305 -0.002917 0.0
2.163963 1.807271 0.000797 0.0
4.274759 0.010312 -0.000245 0.0
1.942872 0.537727 -0.004080 0.0
1.082588 1.544607 -0.005298 0.0
2.597405 0.627705 0.001201 0.0
1.067189 1.587346 -0.000419 0.0
2.620210 0.372551 0.001559 0.0
1.807324 0.646081 0.001796 0.0
3.094410 0.098637 0.003051 0.0
4.124258 1.620397 -0.002257 0.0
0.196134 0.843448 0.000286 0.0
0.666189 1.595158 0.001050 0.0
3.399719 0.446135 -0.000542 0.0
1.531724 1.278329 -0.000071 0.0
4.309322 1.654423 0.000648 0.0
0.045418 1.333641 -0.003445 0.0
3.419561 1.560256 -0.001450 0.0
0.145978 1.319797 0.004651 0.0
0.539925 1.098356 -0.001060 0.0
3.972852 1.568512 0.000252 0.0
1.082701 1.029408 0.006509 0.0
3.796476 0.852988 0.004366 0.0
3.148878 0.993285 0.003425 0.0
3.270949 1.484253 -0.000531 0.0
0.998808 0.407345 0.000687 0.0
0.419949 1.422314 0.004049 0.0
4.295519 0.465791 -0.000311 0.0
3.293416 0.717665 -0.000311 0.0
3.886472 0.533045 -0.001279 0.0
0.320213 1.072708 -0.000275 0.0
0.057458 0.625751 0.005549 0.0
2.588626 0.317601 -0.002020 0.0
1.833825 0.192795 0.001699 0.0
1.071752 1.705330 0.000603 0.0
2.610986 0.732508 0.001640 0.0
2.735095 0.250851 -0.002801 0.0
0.100519 0.998964 0.006201 0.0
0.070036 0.592958 0.000698 0.0
2.221865 1.352073 -0.001731 0.0
2.185775 1.735943 0.001615 0.0
1.316631 0.747488 -0.005974 0.0
0.694809 1.098657 -0.002787 0.0
0.543163 1.776340 -0.002493 0.0
1.477115 0.119269 0.002746 0.0
4.083371 0.930094 0.001156 0.0
4.067386 1.791429 0.001356 0.0
2.753099 0.087956 0.002246 0.0
1.618805 1.645632 -0.001205 0.0
4.179469 1.362842 0.004425 0.0
2.532363 1.029742 -0.001853 0.0
3.815638 0.254780 -0.000525 0.0
2.439575 1.817418 0.000257 0.0
0.320965 0.022217 0.000796 0.0
2.638325 0.072871 -0.001261 0.0
3.473135 1.071075 0.003050 0.0
4.283239 0.996508 -0.001746 0.0
1.904176 0.696142 0.002295 0.0
2.537390 1.590997 -0.000670 0.0
0.020090 1.682998 -0.002570 0.0
4.184541 1.783249 0.002652 0.0
3.477529 0.203018 0.000638 0.0
3.994612 0.985193 0.000615 0.0
0.675255 1.028479 0.001125 0.0
1.240908 0.187959 -0.000127 0.0
1.076434 0.146129 0.004058 0.0
2.699279 0.119644 0.002935 0.0
0.733851 0.768019 0.000670 0.0
2.074240 1.165699 -0.000655 0.0
2.683836 0.330038 -0.004846 0.0
1.751110 0.480895 0.000102 0.0
3.609838 0.220565 0.004021 0.0
2.756899 1.524501 0.003048 0.0
1.450772 0.735739 0.001930 0.0
2.144050 1.065683 0.000956 0.0
3.321245 0.485588 -0.003528 0.0
2.360876 0.160732 0.005274 0.0
3.595763 1.446225 -0.001240 0.0
3.033439 0.822625 0.001116 0.0
3.551356 0.359028 0.001096 0.0
2.500270 1.300548 0.001703 0.0
3.567881 1.577412 0.003301 0.0
0.419239 0.992137 -0.000629 0.0
1.980703 0.906309 0.000487 0.0
3.899705 0.536111 -0.002520 0.0
0.899365 0.904322 -0.000815 0.0
1.430265 1.222243 0.004656 0.0
0.969359 0.165486 -0.001220 0.0
4.263608 1.450721 0.000830 0.0
1.760815 0.569179 -0.003836 0.0
1.643290 0.833571 -0.001548 0.0
3.330475 1.786529 0.004073 0.0
3.131963 1.210664 -0.002996 0.0
2.338448 0.791151 0.002518 0.0
2.589706 0.095817 0.003084 0.0
3.565891 0.381272 0.000708 0.0
0.110221 1.409100 0.001373 0.0
0.939150 0.405017 -0.000573 0.0
0.525774 1.331012 0.001531 0.0
1.626949 1.484723 0.003645 0.0
0.460179 1.530006 0.002237 0.0
0.665535 1.266283 0.000981 0.0
0.879101 1.705855 -0.001324 0.0
0.225030 1.512607 0.000819 0.0
1.239443 0.468665 0.002658 0.0
2.702327 1.138823 0.004899 0.0
2.521171 1.348715 0.003220 0.0
3.055536 0.526997 0.000199 0.0
0.575333 1.046410 0.002752 0.0
0.460701 0.867039 0.000251 0.0
2.711579 0.273894 0.003550 0.0
0.975353 0.108560 -0.003281 0.0
1.764680 1.004515 0.002566 0.0
2.427907 1.809977 0.001111 0.0
3.964478 1.304108 0.000416 0.0
3.830894 1.612914 -0.001127 0.0
2.740806 0.190802 0.004012 0.0
3.584375 0.465426 0.000934 0.0
4.313601 1.081591 0.004917 0.0
2.620000 1.539012 0.002239 0.0
4.180172 1.130473 -0.005887 0.0
0.399624 1.419311 0.001302 0.0
3.035572 0.285314 0.000313 0.0
2.348097 0.843010 0.005979 0.0
3.892343 0.818619 -0.003806 0.0
3.411672 0.406938 -0.001178 0.0
4.077697 0.125813 -0.002710 0.0
3.719027 0.357267 -0.000252 0.0
2.369861 0.949718 -0.000497 0.0
1.060151 0.977981 0.000533 0.0
3.750827 1.376187 0.003133 0.0
2.223319 0.260429 -0.001262 0.0
2.191859 0.766307 -0.000424 0.0
2.713055 1.025293 -0.002658 0.0
1.004541 0.419073 0.000998 0.0
3.432957 1.456020 0.003398 0.0
3.053615 1.611229 -0.000521 0.0
1.294239 0.945793 -0.002312 0.0
0.471292 1.166364 -0.000948 0.0
1.129165 0.303004 0.000111 0.0
1.691867 0.801761 0.001717 0.0
1.411327 0.182226 0.000036 0.0
2.435679 0.503311 0.001088 0.0
4.078777 1.293377 0.001619 0.0
1.926059 1.392494 -0.001500 0.0
4.300940 0.352535 0.001590 0.0
2.988603 1.034919 -0.001009 0.0
0.035439 1.516570 0.000416 0.0
0.524457 1.805114 -0.000636 0.0
2.673525 1.154062 -0.000529 0.0
3.638415 1.123074 0.001119 0.0
1.054215 1.355435 -0.002227 0.0
2.840185 0.874173 0.001486 0.0
4.136831 1.566358 0.000502 0.0
2.754404 0.429059 -0.002411 0.0
0.606810 0.546740 0.002080 0.0
1.192890 0.219028 0.003201 0.0
3.862465 0.114314 -0.001706 0.0
0.831579 0.501391 0.003063 0.0
3.630809 0.570428 -0.001068 0.0
1.224192 0.884526 -0.001583 0.0
1.846080 1.009697 0.000347 0.0
3.335133 0.441088 -0.000256 0.0
2.266127 1.762865 -0.001734 0.0
1.084973 1.177951 0.006578 0.0
3.629401 1.598720 0.002935 0.0
3.746987 1.751064 -0.000365 0.0
0.375302 1.203353 -0.002149 0.0
2.859542 1.108213 -0.000369 0.0
3.848226 1.680049 -0.001798 0.0
0.919241 0.598040 -0.001947 0.0
0.556785 1.010240 -0.002876 0.0
3.554100 1.128863 -0.003114 0.0
0.633946 1.679066 0.000427 0.0
4.226114 0.953776 -0.000020 0.0
4.042851 0.878159 -0.001250 0.0
3.177361 0.731771 -0.000667 0.0
0.685900 1.361899 -0.003726 0.0
3.948523 1.165988 0.001656 0.0
1.051988 0.943537 0.002442 0.0
3.269762 0.913895 0.000324 0.0
1.816197 0.130435 0.000564 0.0
0.356547 1.710104 0.001350 0.0
2.300788 1.195262 0.001495 0.0
1.191638 0.178777 0.004208 0.0
1.413150 0.444082 -0.003955 0.0
2.942833 1.324826 0.002643 0.0
2.205098 0.953133 0.001007 0.0
2.751475 0.369661 -0.003571 0.0
0.420990 0.300097 0.003096 0.0
1.636448 0.821123 0.002101 0.0
3.517462 0.313432 -0.003033 0.0
2.874850 0.309493 -0.003454 0.0
2.239361 0.592617 -0.003397 0.0
3.568641 1.116793 0.000270 0.0
3.417348 0.913448 -0.000756 0.0
2.180307 1.566075 -0.000187 0.0
1.213577 0.748600 -0.000415 0.0
3.693870 1.071060 0.002583 0.0
1.782043 1.628838 -0.003009 0.0
1.286122 0.982167 -0.004738 0.0
0.297490 0.164389 -0.001953 0.0
2.522215 1.684167 0.002798 0.0
0.679207 1.015559 0.001958 0.0
4.146864 0.393980 -0.000368 0.0
3.482630 0.451602 -0.001694 0.0
1.006200 0.982025 0.000796 0.0
3.239673 1.081366 0.001125 0.0
2.399994 1.457769 -0.000339 0.0
4.294744 0.349414 -0.001110 0.0
3.077973 1.162179 -0.000924 0.0
3.947255 1.669924 -0.000629 0.0
0.789151 1.316565 0.000242 0.0
2.080359 1.714048 0.001786 0.0
2.831065 0.004880 -0.002228 0.0
1.972973 1.611041 0.001311 0.0
1.239242 0.987198 -0.002288 0.0
0.322318 1.597851 0.002911 0.0
0.421463 0.264004 -0.000672 0.0
2.062456 0.923955 0.003690 0.0
3.854399 0.587362 -0.003664 0.0
0.656122 0.532140 0.005130 0.0
1.474329 0.999895 -0.003414 0.0
1.617746 0.473452 -0.002461 0.0
3.906124 0.054263 0.002488 0.0
2.200027 1.053277 0.001394 0.0
3.542210 1.340126 0.001742 0.0
1.635602 0.772108 0.001969 0.0
0.867928 1.417368 -0.001689 0.0
1.384701 1.513708 0.004401 0.0
0.867011 1.501297 -0.002816 0.0
2.621512 1.186693 0.001389 0.0
4.213504 1.082171 -0.001944 0.0
0.381619 1.499702 0.000330 0.0
0.612219 0.610435 -0.004058 0.0
0.687467 1.447389 -0.000546 0.0
0.129070 0.242527 -0.001208 0.0
3.975992 0.646450 -0.001922 0.0
0.543638 1.105015 0.000650 0.0
0.828795 1.661594 0.001501 0.0
3.574451 1.420128 0.003714 0.0
1.110489 0.801656 0.000725 0.0
1.162777 0.638850 0.003727 0.0
0.557220 0.336099 -0.004465 0.0
4.260354 0.717657 -0.000782 0.0
1.953168 1.493770 -0.002992 0.0
2.261211 0.551427 0.002048 0.0
3.073161 1.287785 0.002691 0.0
1.924430 1.002234 0.003692 0.0
1.162204 0.258904 0.000006 0.0
2.242965 0.243163 -0.004960 0.0
2.504932 0.802012 0.002213 0.0
3.909196 1.034476 -0.000373 0.0
0.919346 1.597198 0.000005 0.0
0.036983 1.537182 -0.000599 0.0
3.237263 0.983302 0.003363 0.0
3.954493 0.229176 -0.000325 0.0
3.179844 1.805578 -0.000018 0.0
1.266168 1.357011 0.002257 0.0
2.671869 1.760669 0.000683 0.0
2.561033 1.717714 -0.000522 0.0
3.494309 1.067729 -0.001606 0.0
2.114093 0.860408 0.001945 0.0
1.069279 0.564626 -0.002962 0.0
3.870736 0.670876 -0.004152 0.0
1.985508 0.688337 -0.001078 0.0
3.892734 1.516082 -0.004290 0.0
0.304351 0.508297 -0.005577 0.0
4.012980 0.009518 -0.000517 0.0
3.785424 0.597100 0.003582 0.0
3.001378 0.386834 0.003384 0.0
3.782389 1.265259 -0.002472 0.0
1.829430 1.762586 0.005556 0.0
2.764884 0.938372 -0.001605 0.0
3.862690 1.761855 -0.000400 0.0
2.570546 1.634625 -0.002056 0.0
0.633907 0.337477 -0.002310 0.0
1.631677 0.792112 0.002329 0.0
0.495202 1.585783 -0.002636 0.0
0.239279 0.733610 0.004292 0.0
2.941932 1.183307 -0.000731 0.0
4.193770 0.323521 -0.000213 0.0
2.660440 1.372097 0.000094 0.0
1.667253 1.359158 -0.003820 0.0
3.422174 0.378804 -0.000499 0.0
2.644701 0.546443 -0.000730 0.0
3.978677 1.639061 -0.005630 0.0
0.198316 1.257029 -0.000501 0.0
1.774251 0.783935 -0.002004 0.0
2.107761 1.491612 0.001702 0.0
3.917508 0.768204 0.002525 0.0
0.629933 0.027322 -0.001154 0.0
2.280808 1.154627 -0.002428 0.0
2.632047 1.615690 -0.001890 0.0
0.282939 0.829726 0.002486 0.0
1.138557 0.875598 0.000517 0.0
0.029807 1.318181 -0.000929 0.0
0.613493 1.141981 -0.002560 0.0
4.217821 0.434516 -0.000413 0.0
1.407506 1.177812 -0.002662 0.0
1.546627 1.188924 0.001033 0.0
0.474138 1.646490 -0.000914 0.0
2.627200 0.047618 0.004519 0.0
1.272823 1.381462 -0.001702 0.0
3.045568 1.707844 -0.000310 0.0
4.269354 0.910119 0.004850 0.0
3.371084 0.389215 0.000744 0.0
2.039481 0.685459 -0.002095 0.0
1.068714 1.506250 -0.001235 0.0
2.270770 1.045747 -0.002360 0.0
1.080103 0.528113 -0.000628 0.0
3.324213 0.292399 0.002078 0.0
2.198942 0.705691 -0.002547 0.0
0.813157 1.450446 -0.002674 0.0
2.330351 1.802871 -0.000052 0.0
1.662955 1.102328 -0.002248 0.0
0.577003 1.236432 -0.003408 0.0
0.679232 0.543753 -0.000677 0.0
0.213008 1.566515 -0.002751 0.0
3.093283 1.200922 -0.002864 0.0
2.470718 0.935269 0.000472 0.0
3.293934 0.137869 0.000421 0.0
2.389474 1.332917 -0.002195 0.0
3.541064 1.653758 0.001874 0.0
1.149804 0.593810 0.003276 0.0
0.623676 0.707308 0.002174 0.0
1.114696 0.472276 0.002567 0.0
2.048873 1.173050 -0.000598 0.0
0.602026 0.879460 -0.000339 0.0
2.700645 1.277114 0.003846 0.0
3.103543 1.615840 -0.001135 0.0
4.315108 0.506553 0.003383 0.0
2.054201 1.107265 -0.003488 0.0
4.022273 0.676306 0.002676 0.0
3.306476 1.674049 -0.001563 0.0
4.168268 0.752801 0.001026 0.0
2.628144 0.959614 -0.000747 0.0
3.863477 1.611169 -0.000609 0.0
1.209075 1.481396 0.000676 0.0
1.657267 0.558574 -0.000981 0.0
4.331070 1.479415 0.002591 0.0
0.182472 0.431392 -0.007088 0.0
2.933309 0.717185 0.002130 0.0
3.966332 1.275749 0.002241 0.0
0.301735 1.598972 0.001052 0.0
4.193053 0.650347 0.003678 0.0
4.003544 0.170049 0.001150 0.0
3.806524 1.604207 -0.001412 0.0
1.187623 0.543845 -0.002065 0.0
2.173199 1.499274 0.000274 0.0
2.361954 0.337537 0.004208 0.0
0.570205 0.892116 -0.003989 0.0
3.289178 0.002675 -0.000791 0.0
3.146307 1.381679 -0.001383 0.0
1.961364 1.209288 0.001763 0.0
1.158150 0.958233 -0.001783 0.0
2.536299 0.475216 0.003318 0.0
1.011830 0.782159 -0.000837 0.0
3.780040 1.231006 -0.001057 0.0
3.726065 1.238664 0.005434 0.0
0.074997 0.384931 0.002160 0.0
3.902006 1.124452 0.002706 0.0
2.503336 1.655948 0.002640 0.0
1.453056 1.085496 -0.004261 0.0
2.910579 0.145869 0.004196 0.0
2.211203 1.501492 -0.000702 0.0
0.367842 1.386594 -0.003762 0.0
4.093349 1.073964 -0.000610 0.0
3.908023 1.113538 0.000429 0.0
1.510579 0.142446 -0.001678 0.0
3.625529 1.527634 0.002054 0.0
0.822096 0.716338 -0.001441 0.0
2.701915 0.331325 -0.000114 0.0
1.470773 0.080352 0.000612 0.0
1.873544 1.281389 0.000103 0.0
2.876277 0.745199 0.001654 0.0
3.023257 0.177355 0.000277 0.0
2.216038 0.104805 -0.002055 0.0
0.072431 1.576602 -0.001760 0.0
3.689801 0.913809 0.002047 0.0
2.326842 0.552187 0.002157 0.0
3.184240 0.121103 0.000235 0.0
1.859288 0.004218 0.179473 0.0
2.466966 0.002929 0.036152 0.0
1.027369 0.004154 0.157999 0.0
2.971121 -0.000387 0.112232 0.0
0.289576 0.005406 0.180678 0.0
4.280886 0.002209 0.162449 0.0
3.879054 0.001147 0.220726 0.0
0.139862 -0.006892 0.050471 0.0
2.439539 0.000881 0.096160 0.0
3.863478 0.001519 0.012286 0.0
1.256278 0.002899 0.170599 0.0
2.150814 -0.000889 0.048357 0.0
0.295595 0.006985 0.142778 0.0
3.407359 -0.004955 0.001269 0.0
3.724290 0.003538 0.118218 0.0
0.039823 0.005647 0.194504 0.0
0.105230 0.004018 0.019901 0.0
0.066336 0.002921 0.219481 0.0
0.608385 0.001705 0.064504 0.0
1.057465 0.001552 0.050105 0.0
1.862283 0.003244 0.229870 0.0
0.554392 0.000379 0.037905 0.0
1.097790 0.002141 0.112557 0.0
3.699423 0.001984 0.021013 0.0
3.961633 0.005838 0.230498 0.0
3.787889 0.006972 0.155247 0.0
4.094174 0.000844 -0.003211 0.0
2.651151 -0.001469 0.097426 0.0
0.777938 0.007860 0.177448 0.0
2.134772 -0.001767 0.202639 0.0
3.834494 0.006721 0.173766 0.0
2.991372 0.002545 0.168830 0.0
2.099420 0.002480 0.244463 0.0
2.509278 -0.000517 0.121678 0.0
3.039319 -0.000032 0.044733 0.0
2.037790 0.002444 0.237634 0.0
0.652270 0.004706 0.123135 0.0
0.483429 0.001872 0.167676 0.0
0.414536 0.002790 0.008392 0.0
1.643500 0.001839 0.173578 0.0
4.080019 0.000832 0.060418 0.0
2.909328 0.002610 0.199897 0.0
0.040508 0.000084 0.237646 0.0
1.910050 0.003979 0.154078 0.0
4.258450 0.004781 0.101443 0.0
1.339789 0.000693 0.026158 0.0
1.579230 0.002101 0.108368 0.0
1.533387 0.002409 0.098545 0.0
0.042005 0.002122 0.219694 0.0
0.738191 0.003972 0.186639 0.0
0.468011 -0.000487 0.064214 0.0
0.740428 0.000169 0.144030 0.0
1.651744 0.003859 0.223259 0.0
4.147825 0.005051 0.216840 0.0
1.266254 -0.001591 0.044158 0.0
0.752673 0.000702 0.243052 0.0
2.626909 -0.000228 0.047598 0.0
0.071655 -0.001821 0.032130 0.0
1.071586 -0.000176 0.051056 0.0
2.947113 0.005635 0.192260 0.0
3.161841 -0.000041 0.144248 0.0
3.195835 0.002918 0.151023 0.0
4.023527 0.001937 0.076400 0.0
0.990444 0.002421 0.075850 0.0
2.404431 0.001483 0.025818 0.0
4.327960 0.004513 0.191973 0.0
0.515658 0.003838 0.166323 0.0
3.863854 0.004813 0.185367 0.0
1.564010 0.003843 0.240597 0.0
3.310474 0.003761 0.202996 0.0
1.135324 0.002457 0.114114 0.0
3.368793 0.002992 0.162351 0.0
0.933538 0.001211 0.224069 0.0
4.060432 0.005170 0.194226 0.0
1.888590 0.005574 0.157413 0.0
3.630430 -0.000974 0.093645 0.0
2.978596 0.000338 -0.001876 0.0
3.286818 -0.001069 0.042279 0.0
3.515277 0.002653 0.056390 0.0
2.246886 0.000581 0.045989 0.0
3.447011 0.001119 0.165287 0.0
2.075429 -0.000846 0.053810 0.0
1.306147 0.003048 0.149070 0.0
1.793143 0.002430 0.236454 0.0
2.443843 0.001544 0.075262 0.0
1.224727 -0.000720 0.136885 0.0
3.276677 0.000279 0.012365 0.0
2.595226 0.004805 0.230322 0.0
0.178712 0.000696 0.041703 0.0
2.357927 0.002626 0.162759 0.0
0.637021 0.003586 0.185587 0.0
0.606413 0.005569 0.172924 0.0
0.500177 0.003408 0.228954 0.0
2.300340 0.005131 0.152492 0.0
1.369001 0.000834 0.058183 0.0
0.086433 -0.001362 0.047673 0.0
0.500148 0.004295 0.138869 0.0
1.631827 0.004243 0.068445 0.0
3.415330 -0.001692 0.023995 0.0
2.336195 0.000603 0.116653 0.0
1.609520 0.006120 0.181013 0.0
3.953345 -0.002955 0.021953 0.0
4.086558 -0.001043 0.081911 0.0
0.614978 0.005135 0.204301 0.0
3.938313 0.001822 0.170133 0.0
4.093610 0.002562 0.192312 0.0
1.110490 -0.003767 0.040638 0.0
4.011460 0.004055 0.242189 0.0
2.920669 0.001823 0.075731 0.0
0.720627 0.001970 0.072793 0.0
4.299794 -0.001082 0.002739 0.0
2.302251 0.002793 0.010504 0.0
1.239403 0.001894 0.182753 0.0
3.179823 0.006548 0.221958 0.0
0.619025 0.002527 0.239583 0.0
0.659652 0.002550 0.091032 0.0
0.134081 0.003951 0.042183 0.0
0.492698 0.006537 0.118706 0.0
3.253679 0.000042 -0.003771 0.0
2.701697 0.003489 0.224781 0.0
3.243773 -0.001145 0.166809 0.0
2.837908 0.001871 0.182293 0.0
2.810671 0.005167 0.198820 0.0
2.286698 0.000291 0.139953 0.0
3.961900 0.001298 0.041580 0.0
0.651855 0.002393 0.207339 0.0
0.093338 -0.000224 0.125836 0.0
1.649541 -0.000837 0.187498 0.0
3.209475 0.002937 0.047142 0.0
1.892763 -0.000965 0.012889 0.0
0.806150 0.003881 0.211307 0.0
1.505845 0.003624 0.076661 0.0
0.948808 0.001210 0.015908 0.0
4.284688 0.003331 0.145671 0.0
3.048160 0.003671 0.198587 0.0
3.855948 -0.000087 0.107277 0.0
3.938742 0.003675 0.119172 0.0
3.017510 0.009066 0.077028 0.0
2.709140 0.008008 0.187584 0.0
2.738417 0.001025 0.226851 0.0
0.262494 0.003170 0.125941 0.0
4.326477 0.004536 0.239994 0.0
3.543796 0.002313 0.123278 0.0
1.604217 0.003541 0.221237 0.0
0.222354 -0.001367 0.027450 0.0
2.278647 0.007215 0.143716 0.0
1.357274 0.001625 0.184403 0.0
1.877543 0.006218 0.219211 0.0
3.568932 -0.000771 0.067963 0.0
0.700815 0.005067 0.187167 0.0
0.728972 0.001269 0.154574 0.0
3.146614 0.001777 0.087629 0.0
3.950761 -0.002409 0.027197 0.0
3.980961 0.001800 0.103228 0.0
0.793153 -0.000253 0.150401 0.0
2.549373 -0.002056 0.096194 0.0
2.595225 0.002893 0.109094 0.0
2.394550 0.004346 0.213261 0.0
3.654754 0.001916 0.216190 0.0
0.665952 0.001805 0.230433 0.0
0.627145 0.006726 0.185787 0.0
0.745207 -0.002008 0.016430 0.0
3.871050 0.000976 0.151131 0.0
3.782059 -0.002417 0.034413 0.0
3.763313 0.005045 0.221806 0.0
0.683563 -0.002397 0.024782 0.0
2.262604 0.009474 0.187115 0.0
1.850498 0.002974 0.052159 0.0
1.772001 0.005803 0.195501 0.0
3.557119 0.003063 0.168628 0.0
1.767421 0.006434 0.175508 0.0
2.251202 0.003614 0.074888 0.0
3.561768 0.001865 0.101285 0.0
0.611027 0.003536 0.224379 0.0
0.573225 0.003648 0.225424 0.0
1.004497 0.001246 0.118613 0.0
0.238314 0.005719 0.203306 0.0
0.642002 -0.000936 0.138200 0.0
3.489310 0.001490 0.062613 0.0
0.712655 0.003561 0.012374 0.0
1.285608 0.004481 0.137177 0.0
0.734774 0.003647 0.132005 0.0
2.201845 0.005233 0.197949 0.0
2.493125 0.002853 0.202851 0.0
2.570479 0.004328 0.241738 0.0
1.860154 -0.000235 0.127638 0.0
4.117799 0.004280 0.192455 0.0
4.042132 0.004032 0.121734 0.0
2.763768 -0.001497 0.021407 0.0
3.539448 0.002260 0.133243 0.0
1.994718 0.000617 0.047874 0.0
3.734232 0.003702 0.213702 0.0
1.968513 0.002485 0.145606 0.0
3.745713 0.004162 0.036106 0.0
3.117350 -0.001948 0.043137 0.0
0.820929 0.001568 0.202431 0.0
1.376957 -0.000253 0.101767 0.0
3.274450 0.001528 0.093297 0.0
3.110942 0.003048 0.067663 0.0
0.997190 -0.000717 0.182951 0.0
0.494563 -0.000070 0.054477 0.0
4.242483 0.002887 0.141854 0.0
0.771792 0.001752 0.227394 0.0
0.781747 -0.002094 0.244276 0.0
1.924860 0.002102 0.072832 0.0
0.702671 0.006306 0.193192 0.0
1.715737 -0.000612 0.047886 0.0
1.452502 0.002269 0.183549 0.0
4.304854 0.000256 0.106188 0.0
2.107701 0.000823 -0.000567 0.0
3.149724 0.003118 0.242354 0.0
0.926735 0.002816 0.195359 0.0
1.124600 0.005184 0.155609 0.0
1.200494 0.002335 0.028456 0.0
0.363950 -0.000660 0.106288 0.0
2.082260 0.007695 0.181430 0.0
4.185138 0.000319 0.067063 0.0
2.867590 0.006286 0.215351 0.0
4.207412 0.000608 0.077256 0.0
3.505486 0.001663 0.242140 0.0
3.459927 0.002079 0.000965 0.0
0.881459 0.002733 0.137975 0.0
0.908176 0.004880 0.192603 0.0
4.107303 0.003448 0.180089 0.0
4.113573 -0.000662 0.143885 0.0
2.302862 0.001957 0.073340 0.0
0.014017 0.004477 0.213994 0.0
0.236989 0.000988 0.115867 0.0
0.158706 0.003682 0.118261 0.0
2.206064 0.006381 0.174912 0.0
3.665496 0.003593 0.188611 0.0
0.882586 0.007775 0.203930 0.0
1.800224 0.003161 0.204244 0.0
0.515368 0.006119 0.151494 0.0
0.021758 -0.000075 0.075194 0.0
3.415399 0.000679 0.024490 0.0
2.451152 0.004176 0.157971 0.0
3.267757 0.002208 0.229642 0.0
2.049249 0.006364 0.063274 0.0
3.911425 -0.000768 0.065464 0.0
0.164176 -0.001419 0.034004 0.0
1.906767 0.001024 0.158473 0.0
2.054450 0.002281 0.193788 0.0
1.857674 0.005412 0.171184 0.0
1.046380 0.005678 0.052297 0.0
1.769247 0.005617 0.230030 0.0
2.507424 -0.001884 0.028500 0.0
0.413897 0.000277 0.010323 0.0
2.045329 0.002349 0.157932 0.0
2.938986 0.004079 0.007316 0.0
4.094054 0.004173 0.076702 0.0
2.198668 0.001224 0.044210 0.0
1.219757 -0.004724 0.088445 0.0
2.019878 0.002812 0.088011 0.0
1.152530 -0.001377 0.148089 0.0
3.144728 0.002893 0.235133 0.0
3.325908 0.001020 0.010353 0.0
1.284742 0.001544 0.048022 0.0
4.317364 -0.003984 0.098314 0.0
1.258084 0.007735 0.240123 0.0
2.335882 0.004116 0.200785 0.0
0.853763 0.006930 0.158741 0.0
2.585764 0.002440 0.209494 0.0
1.958641 -0.002426 0.016768 0.0
2.722290 -0.002687 0.113087 0.0
3.742651 0.010608 0.220974 0.0
3.677051 0.004502 0.224181 0.0
0.040673 0.000579 0.081583 0.0
1.452118 0.003334 0.186579 0.0
3.335413 0.000173 0.140033 0.0
3.284868 0.002525 0.155581 0.0
1.878198 0.002934 0.061841 0.0
0.338019 -0.000749 0.007546 0.0
2.032409 0.001944 0.216234 0.0
1.592875 0.006506 0.199740 0.0
1.554402 0.000247 0.029298 0.0
1.430862 0.006026 0.183005 0.0
0.258257 0.006914 0.243328 0.0
1.414286 0.002555 0.135987 0.0
2.639992 0.003414 0.150428 0.0
1.482637 0.003475 0.226209 0.0
3.087335 -0.002240 0.114775 0.0
1.563538 0.007447 0.222997 0.0
0.320521 -0.002739 0.128450 0.0
1.203326 0.001627 0.145383 0.0
2.722837 0.002124 0.208105 0.0
2.186751 0.002808 0.061531 0.0
4.233124 0.005035 0.210148 0.0
0.224769 0.008166 0.227298 0.0
1.074204 0.003081 0.189712 0.0
1.073281 0.002822 0.231300 0.0
2.713160 0.000170 0.128442 0.0
1.741145 0.000677 0.097051 0.0
2.599732 0.000234 0.036337 0.0
2.805604 0.001872 0.002607 0.0
2.349590 0.006175 0.128722 0.0
2.298202 0.002981 0.097031 0.0
2.044619 0.003202 0.214871 0.0
0.140937 -0.000125 0.025036 0.0
0.444704 0.000029 0.132749 0.0
1.970758 0.001466 0.157958 0.0
0.838435 0.006527 0.226542 0.0
2.983630 0.001363 0.125088 0.0
4.245413 0.000951 0.092885 0.0
0.514474 -0.002604 0.003158 0.0
0.650787 0.002108 0.037692 0.0
3.535281 0.003557 0.227416 0.0
4.096911 0.002507 0.085799 0.0
0.063903 0.003723 0.023412 0.0
2.824774 -0.001163 0.082894 0.0
3.198186 -0.001304 0.014930 0.0
2.850485 -0.001584 0.006376 0.0
3.868911 0.000361 0.015210 0.0
3.393746 0.005232 0.217365 0.0
1.872471 0.005329 0.190891 0.0
0.523352 0.004516 0.199288 0.0
2.154993 0.003640 0.225218 0.0
0.014227 0.002611 0.199263 0.0
1.067158 0.003581 0.223382 0.0
1.824634 -0.003926 0.005420 0.0
1.573668 0.003497 0.127121 0.0
1.339516 -0.000646 0.053526 0.0
1.262028 0.003164 0.193514 0.0
3.141809 0.003515 0.007361 0.0
3.284928 0.002364 0.154472 0.0
0.776181 0.001450 0.080424 0.0
3.140000 0.000626 0.071011 0.0
4.198432 0.002723 0.056299 0.0
3.145802 0.004440 0.136991 0.0
2.161710 0.002978 0.079112 0.0
3.884686 -0.000914 0.070557 0.0
1.670339 0.002735 0.153862 0.0
1.758715 0.000246 0.198481 0.0
1.376290 0.002724 0.099648 0.0
1.874297 -0.000604 0.102488 0.0
0.919148 0.004263 0.087671 0.0
0.766303 0.005403 0.134141 0.0
1.271912 0.004252 0.166076 0.0
3.804108 -0.003803 0.059024 0.0
0.978568 0.002288 0.102946 0.0
3.538604 0.003485 0.102573 0.0
1.350352 -0.000366 0.023508 0.0
4.320387 0.008844 0.222571 0.0
4.091442 0.005056 0.077715 0.0
4.056383 0.005795 0.063134 0.0
1.585774 0.001184 0.097118 0.0
0.381754 0.004342 0.131876 0.0
0.279737 -0.001413 0.086129 0.0
1.189938 0.000771 0.126115 0.0
4.078430 0.002993 0.222223 0.0
4.103001 0.006951 0.108029 0.0
2.026903 0.003402 0.032484 0.0
0.187942 -0.000853 0.118491 0.0
4.288855 0.005357 0.182476 0.0
1.237985 -0.000614 0.082666 0.0
2.357440 0.002687 0.086693 0.0
1.596753 -0.001589 0.026546 0.0
1.976921 0.001151 0.089439 0.0
1.638157 0.003167 0.036098 0.0
1.259942 -0.001949 0.095818 0.0
1.786134 0.003082 0.059729 0.0
1.839974 -0.000560 0.002833 0.0
0.458129 0.001655 0.068790 0.0
2.191510 0.002096 0.109703 0.0
0.865858 0.004739 0.072646 0.0
0.859643 -0.000218 0.054434 0.0
1.220848 0.005889 0.227023 0.0
3.895481 0.007310 0.205518 0.0
3.883728 -0.004042 0.108438 0.0
1.212136 0.000756 0.177157 0.0
1.273436 0.003714 0.111716 0.0
0.607569 0.003360 0.226633 0.0
2.601072 0.000694 0.195960 0.0
3.126859 0.005075 0.228813 0.0
1.467157 0.003393 0.052698 0.0
1.571051 0.000295 0.017075 0.0
4.133234 0.002970 0.216950 0.0
1.654517 -0.000075 0.187755 0.0
2.028896 0.002851 0.037959 0.0
1.119692 0.004409 0.130858 0.0
4.177968 0.001375 0.176637 0.0
0.994494 0.001811 0.125296 0.0
2.927109 -0.001944 0.143453 0.0
0.683257 0.000438 0.101525 0.0
2.145093 0.001474 0.189697 0.0
3.224393 0.000159 0.134449 0.0
2.095086 0.000926 0.180142 0.0
4.195701 0.002223 0.179663 0.0
0.788465 0.008755 0.166775 0.0
2.254256 0.004519 0.048902 0.0
3.098739 0.004147 0.244287 0.0
2.457782 -0.005407 0.004201 0.0
2.258752 0.000159 0.015887 0.0
3.693526 0.004476 0.225171 0.0
2.734643 0.006325 0.202210 0.0
4.124786 0.005461 0.175729 0.0
3.215052 -0.002203 0.017775 0.0
1.316896 0.001504 0.158090 0.0
1.052318 0.000790 0.151539 0.0
3.784988 -0.002959 0.022474 0.0
3.455682 -0.001862 0.012349 0.0
1.931279 0.002617 0.162451 0.0
3.685790 0.002762 0.017816 0.0
2.811858 0.005143 0.117341 0.0
2.749729 0.005722 0.049239 0.0
0.535379 -0.000983 0.079780 0.0
0.178270 0.001152 0.072358 0.0
0.648082 -0.001312 0.108415 0.0
0.544956 -0.002215 0.158684 0.0
0.909780 0.003214 0.185259 0.0
3.799619 0.009527 0.189025 0.0
2.429890 0.008737 0.199264 0.0
0.855374 0.004277 0.117320 0.0
2.680698 -0.001829 0.058288 0.0
3.129455 0.002958 0.184271 0.0
1.937407 -0.001055 0.082920 0.0
3.918324 0.002106 0.068846 0.0
3.119409 -0.001307 0.011239 0.0
1.723706 0.004053 0.076273 0.0
1.825205 0.005088 0.223116 0.0
2.034598 0.005375 0.160085 0.0
1.637148 0.005186 0.112896 0.0
3.168708 0.008000 0.215404 0.0
4.068484 0.002022 0.005563 0.0
0.863376 -0.001500 0.031990 0.0
4.215922 0.007613 0.235722 0.0
3.341181 0.000440 0.222719 0.0
1.085183 0.004055 0.100007 0.0
0.944176 0.002071 0.103730 0.0
1.729978 0.003919 0.106016 0.0
1.125603 -0.004985 0.019022 0.0
2.408533 0.005889 0.230689 0.0
1.055894 0.002459 0.110620 0.0
1.244011 0.012321 0.179739 0.0
4.217947 -0.002237 0.161707 0.0
1.619003 -0.002530 0.087477 0.0
2.406024 0.000781 0.012248 0.0
1.188532 -0.003021 0.027976 0.0
2.815147 0.003046 0.169186 0.0
0.309854 -0.000712 0.076669 0.0
0.425162 0.002758 0.073331 0.0
0.867592 0.002296 0.171428 0.0
3.256009 0.007015 0.155342 0.0
1.027622 -0.001554 0.074216 0.0
2.087380 -0.006121 0.023038 0.0
1.892775 0.003423 0.233830 0.0
3.633514 -0.000846 0.016760 0.0
4.073671 0.000378 0.247613 0.0
3.238327 -0.005804 0.010020 0.0
1.270426 0.000226 0.127956 0.0
2.450819 0.006551 0.062470 0.0
2.817306 -0.000394 0.122734 0.0
0.787589 0.001151 0.167827 0.0
1.832742 -0.000925 0.072908 0.0
3.155680 0.003208 0.209399 0.0
2.805546 0.002795 0.198917 0.0
0.692383 0.000463 0.092526 0.0
2.510143 0.004090 0.164523 0.0
0.914508 -0.001910 0.017323 0.0
2.374262 0.001767 0.189085 0.0
4.304555 0.005694 0.178528 0.0
3.991822 0.003793 0.024086 0.0
3.950458 0.000676 0.158731 0.0
1.525433 0.006322 0.091744 0.0
0.709477 0.003507 0.210450 0.0
0.375884 0.003918 0.153529 0.0
4.127119 -0.003544 0.098609 0.0
3.019387 0.000675 0.127891 0.0
0.379528 0.004778 0.240235 0.0
1.194979 -0.000653 0.009158 0.0
0.174246 0.001619 0.220124 0.0
1.534149 0.001856 0.210678 0.0
3.129299 0.005566 0.234497 0.0
3.028400 0.001530 0.092505 0.0
0.287520 0.002179 0.163112 0.0
2.411411 0.000455 0.203508 0.0
4.184233 0.000662 0.120394 0.0
2.982694 0.002950 0.126083 0.0
2.199816 0.000025 0.157373 0.0
4.180627 0.000084 0.032876 0.0
0.989306 0.001860 0.049068 0.0
4.117031 -0.003169 0.022499 0.0
0.289601 -0.000302 0.045467 0.0
2.479736 0.001178 0.197052 0.0
0.684410 0.008963 0.218695 0.0
1.135189 0.002399 0.071434 0.0
1.458517 0.001964 0.006125 0.0
3.254053 0.003499 0.176999 0.0
3.213432 -0.000754 0.081129 0.0
3.057343 0.007283 0.185154 0.0
0.937269 0.002678 0.072729 0.0
1.935613 -0.002386 0.012934 0.0
0.119104 -0.002040 0.021252 0.0
2.316748 0.002823 0.109256 0.0
3.602689 -0.000146 0.037822 0.0
1.775117 0.006867 0.190277 0.0
0.776938 0.000199 0.049477 0.0
2.779967 0.000359 0.246788 0.0
3.202542 -0.000204 0.112767 0.0
3.867127 0.006770 0.135692 0.0
3.442187 0.005459 0.128065 0.0
2.274877 0.003235 0.200373 0.0
4.101618 0.000344 0.063163 0.0
2.867179 0.005834 0.104117 0.0
3.118403 -0.001329 0.088601 0.0
1.566112 0.001035 0.174653 0.0
4.123935 0.004315 0.190519 0.0
3.995731 0.001568 0.125033 0.0
0.341671 0.005253 0.136373 0.0
3.187530 0.002440 0.146420 0.0
1.658605 -0.000363 0.028198 0.0
1.024823 0.003641 0.192979 0.0
0.005291 0.002083 0.208147 0.0
3.356650 0.004286 0.131845 0.0
1.941062 0.002031 0.090596 0.0
1.887209 0.005727 0.163311 0.0
4.245594 -0.001945 0.051998 0.0
2.747716 0.002032 0.166521 0.0
1.314536 0.004636 0.227336 0.0
1.818903 0.004005 0.172646 0.0
1.660903 0.004673 0.201176 0.0
3.170009 0.005966 0.163581 0.0
3.048564 0.004193 0.121001 0.0
2.625270 0.004516 0.074147 0.0
0.184479 0.004270 0.118746 0.0
3.251993 -0.005511 0.021229 0.0
1.483027 -0.000107 0.111184 0.0
2.639003 0.002351 0.206256 0.0
2.515151 0.003079 0.135651 0.0
1.960959 0.001662 0.019944 0.0
2.420710 0.002567 0.207725 0.0
3.040474 -0.002015 0.105096 0.0
0.741292 0.004068 0.167332 0.0
3.135710 0.004822 0.240001 0.0
2.775334 0.002033 0.178230 0.0
2.183565 -0.004875 0.017308 0.0
2.204075 -0.003364 0.061255 0.0
2.297163 0.006890 0.163644 0.0
3.313335 0.003562 0.000647 0.0
2.347809 -0.000506 0.078501 0.0
3.164131 0.006286 0.175855 0.0
3.051377 0.001120 0.150552 0.0
3.992971 0.000287 0.151491 0.0
0.110172 0.002263 0.065070 0.0
0.926280 -0.000876 0.075523 0.0
1.361138 0.005473 0.091206 0.0
0.462235 0.002149 0.138866 0.0
3.190363 0.005286 0.220777 0.0
1.662343 0.005798 0.219846 0.0
0.807093 0.000196 0.191453 0.0
2.118774 -0.003467 0.108107 0.0
3.360909 0.001489 0.167915 0.0
3.765269 0.006222 0.189280 0.0
3.992333 0.000351 0.045181 0.0
0.746365 0.003167 0.145710 0.0
4.039056 0.002798 0.247658 0.0
3.540389 -0.002582 0.105322 0.0
0.195148 -0.002288 0.085591 0.0
0.414280 0.006475 0.185851 0.0
4.035507 0.002503 0.243959 0.0
0.647724 0.005977 0.208041 0.0
1.513032 0.005545 0.230970 0.0
