1.603782 0.601739 -0.002612 0.0
0.022152 0.915571 -0.001751 0.0
2.608086 1.518438 -0.002032 0.0
3.297244 1.408347 0.005406 0.0
0.159037 1.273047 0.005231 0.0
3.403987 0.893095 0.000804 0.0
1.448053 0.350187 0.004077 0.0
0.457891 1.133912 -0.000094 0.0
2.432875 0.894160 -0.004050 0.0
2.875938 1.072996 -0.001898 0.0
0.334324 0.864147 0.000839 0.0
2.063241 1.875542 -0.006456 0.0
1.454235 1.663515 0.002552 0.0
0.623411 0.365179 -0.000524 0.0
1.859739 1.441368 0.000611 0.0
1.977800 1.399247 0.002539 0.0
3.226903 0.294553 -0.003811 0.0
1.040582 0.148279 0.004368 0.0
4.558076 1.425230 0.002840 0.0
1.537978 0.531902 -0.000094 0.0
4.302239 0.663423 0.000155 0.0
2.540595 0.288719 0.001074 0.0
2.733951 0.590923 0.003466 0.0
0.914981 1.389632 0.000369 0.0
2.315096 0.396208 -0.001345 0.0
3.771724 1.681544 -0.001466 0.0
2.598064 0.940797 0.003681 0.0
4.390560 1.264383 -0.002501 0.0
2.275003 1.871760 -0.002717 0.0
0.955921 0.350156 -0.000564 0.0
2.767897 1.129328 -0.002725 0.0
4.560706 1.383390 -0.000894 0.0
3.429478 0.740349 -0.000902 0.0
0.391845 1.769572 -0.001000 0.0
1.177363 0.497549 0.000889 0.0
0.746828 0.774112 0.000882 0.0
3.782615 0.511253 -0.005260 0.0
2.130922 0.745107 -0.000418 0.0
4.566130 1.056485 -0.001189 0.0
4.047581 1.826579 0.003823 0.0
0.876526 1.358485 0.001170 0.0
2.895390 0.351850 0.000393 0.0
2.265672 1.396014 -0.003842 0.0
2.932990 1.380033 0.000185 0.0
0.932743 1.402491 0.001200 0.0
2.462580 1.191505 0.002789 0.0
1.100281 1.947995 0.000069 0.0
3.724668 0.520600 -0.003049 0.0
0.204603 1.112938 -0.002514 0.0
0.140456 0.250628 -0.002432 0.0
1.581942 1.100213 -0.004283 0.0
0.206311 1.959880 -0.000581 0.0
0.051397 0.711578 -0.003891 0.0
4.480823 1.032323 0.002977 0.0
2.268059 0.432489 -0.002968 0.0
2.166404 1.605244 -0.001354 0.0
2.091182 1.702581 -0.000546 0.0
2.777329 0.001104 -0.004533 0.0
0.379275 1.429187 -0.000982 0.0
2.317020 1.708231 -0.003322 0.0
4.217035 0.704746 -0.003359 0.0
2.953881 1.456933 0.001529 0.0
0.842360 1.091051 -0.000656 0.0
0.315877 0.988576 0.002066 0.0
4.341562 1.880723 0.004175 0.0
2.426319 0.485722 0.000281 0.0
2.402305 0.400025 -0.000397 0.0
2.571599 0.334051 -0.002276 0.0
4.070078 1.185413 -0.002873 0.0
4.252609 0.073054 0.002348 0.0
2.000174 1.359837 -0.002741 0.0
0.118723 1.144543 0.001064 0.0
4.528262 0.029356 0.002218 0.0
1.704114 1.022940 0.000458 0.0
4.052709 0.126073 0.002909 0.0
4.303526 1.049584 0.000349 0.0
0.713956 1.780028 0.003343 0.0
2.867259 1.188225 0.000742 0.0
0.742842 1.743814 -0.003292 0.0
1.504099 1.073147 -0.001913 0.0
2.846679 1.579319 0.003101 0.0
1.605131 0.256174 -0.004448 0.0
3.217755 1.725663 -0.003324 0.0
0.064615 0.928023 0.001036 0.0
1.916142 1.364436 0.001626 0.0
4.560042 0.878866 -0.002030 0.0
4.204504 1.405450 -0.002569 0.0
1.480852 0.440351 -0.002460 0.0
4.180029 1.575777 -0.001595 0.0
1.202885 0.985210 0.001114 0.0
0.962082 0.071735 -0.003860 0.0
0.555932 0.962258 0.001413 0.0
4.281766 0.751841 -0.004437 0.0
1.010576 0.175515 -0.005081 0.0
2.818236 1.174757 0.001169 0.0
1.203462 0.521551 0.000160 0.0
3.946786 1.001041 0.002702 0.0
1.091465 0.594655 0.000538 0.0
1.739768 1.609988 -0.001069 0.0
0.582649 1.274589 -0.003615 0.0
1.279978 0.229908 -0.002169 0.0
0.473650 1.955982 -0.002551 0.0
4.584223 1.046482 -0.000274 0.0
1.354882 1.145620 -0.000825 0.0
3.635517 1.881731 0.000232 0.0
3.637009 0.886434 0.001258 0.0
4.380819 0.203951 -0.003201 0.0
3.084831 0.596721 -0.003019 0.0
3.129831 1.785419 -0.000187 0.0
0.736776 1.924214 -0.001404 0.0
3.343175 0.002284 0.004236 0.0
3.504604 1.538358 0.000060 0.0
1.630098 1.044388 0.002100 0.0
0.124982 1.032064 0.000278 0.0
1.640212 1.823415 -0.001296 0.0
1.326800 1.571910 0.002265 0.0
1.532907 1.684837 0.001874 0.0
0.655977 0.345487 0.004031 0.0
3.673517 0.319427 0.001171 0.0
2.949782 0.178369 0.002297 0.0
4.289290 0.159894 0.000984 0.0
1.593702 1.742302 0.000101 0.0
3.430967 0.884279 -0.000848 0.0
0.487164 0.493773 0.002659 0.0
4.358899 1.583705 0.000731 0.0
2.440982 1.346613 -0.004030 0.0
3.149255 0.863149 0.001053 0.0
1.331701 1.696246 0.002455 0.0
3.471647 1.383579 0.002071 0.0
4.471076 0.389410 -0.004216 0.0
0.597423 1.344263 0.001162 0.0
0.304262 1.903220 -0.002461 0.0
1.313728 0.538083 -0.000322 0.0
1.204250 1.806895 -0.000237 0.0
3.265655 1.372034 0.001808 0.0
2.624619 0.658843 -0.002277 0.0
3.991088 0.566549 -0.005157 0.0
0.636944 1.894166 0.001124 0.0
2.179606 0.077911 -0.004032 0.0
3.823217 0.957222 -0.000757 0.0
0.777719 1.897371 -0.001673 0.0
4.044734 0.554674 0.000958 0.0
0.881219 1.956301 -0.000496 0.0
4.387251 1.569814 -0.004049 0.0
3.776897 0.343408 -0.002246 0.0
0.395033 1.156309 0.000919 0.0
4.610723 1.022169 0.000119 0.0
0.376389 0.542971 0.002037 0.0
2.918236 0.763608 0.002622 0.0
0.679160 0.572728 0.000061 0.0
0.340859 1.241845 0.000681 0.0
2.420978 0.002654 0.000874 0.0
0.538326 0.470770 0.001413 0.0
2.062915 0.697697 -0.000672 0.0
2.921510 0.331689 0.001729 0.0
1.589028 1.439505 0.000477 0.0
3.515724 0.145537 0.001337 0.0
2.663444 1.715253 0.002048 0.0
4.090233 0.349834 0.000212 0.0
4.092284 1.186409 0.001940 0.0
0.016791 0.859449 0.000461 0.0
3.828117 0.315364 0.000232 0.0
1.267470 1.647086 -0.000206 0.0
1.455910 1.059418 0.002280 0.0
0.834000 0.560390 0.000895 0.0
3.708544 1.690061 0.000999 0.0
0.374084 0.868137 -0.003774 0.0
0.804450 0.172166 0.000109 0.0
2.682638 0.615665 0.001847 0.0
3.780359 0.773258 -0.001235 0.0
2.121371 1.464399 0.001409 0.0
3.562709 0.908371 -0.000098 0.0
3.683113 0.976915 0.000272 0.0
2.087431 1.555786 -0.005544 0.0
0.744301 0.335001 -0.001155 0.0
0.870814 1.197059 -0.006173 0.0
4.246053 1.823242 -0.002799 0.0
2.112661 1.728244 -0.004725 0.0
3.231871 1.506726 0.003191 0.0
3.263956 1.286041 -0.001959 0.0
0.956039 0.862428 0.001441 0.0
3.764457 0.251384 -0.000339 0.0
3.486903 1.723240 0.001041 0.0
4.610105 1.861285 -0.000598 0.0
1.185911 0.732036 0.005941 0.0
2.926986 0.890642 -0.001551 0.0
1.162325 1.476947 -0.000552 0.0
1.262697 1.474996 -0.003944 0.0
2.253465 1.766366 0.003053 0.0
3.675086 0.245555 -0.002583 0.0
3.822437 0.231426 0.001958 0.0
4.401087 1.536736 0.004359 0.0
0.874521 0.668708 -0.003872 0.0
2.668475 1.678826 -0.002649 0.0
0.190365 0.767652 0.000352 0.0
2.734331 0.088111 -0.001667 0.0
1.590651 0.922593 0.005267 0.0
4.191213 0.359572 0.001372 0.0
0.990203 1.787777 -0.000787 0.0
4.589604 1.189611 -0.000589 0.0
0.404040 1.539508 0.000971 0.0
3.360043 0.273693 0.000371 0.0
4.209581 1.825100 -0.000796 0.0
4.530284 0.140428 -0.001110 0.0
2.495804 1.206692 0.002414 0.0
0.684194 0.551515 -0.003688 0.0
3.919954 1.442538 -0.000744 0.0
1.404462 0.312846 -0.003768 0.0
3.345771 0.157025 -0.003945 0.0
0.272350 0.664514 0.003598 0.0
0.683891 0.426714 -0.000452 0.0
3.892901 1.812861 -0.000035 0.0
2.252792 1.871648 -0.003208 0.0
1.594439 1.734147 -0.001496 0.0
1.139315 0.289647 0.002652 0.0
2.840059 1.683694 0.000359 0.0
2.428171 0.742169 0.001765 0.0
3.587610 1.080635 0.002948 0.0
1.070925 0.459103 0.000070 0.0
2.188962 0.257670 -0.002027 0.0
2.986758 1.487450 0.001668 0.0
4.128603 1.689177 0.001807 0.0
2.596191 1.864073 -0.002453 0.0
0.815939 1.203227 -0.003124 0.0
2.578168 0.909752 0.003939 0.0
2.356802 0.796990 -0.002466 0.0
1.891832 1.686025 0.000389 0.0
3.541579 0.383859 -0.001847 0.0
3.031373 1.611795 0.000412 0.0
2.579057 0.498458 -0.001127 0.0
3.725517 0.394104 0.003534 0.0
1.475992 0.131642 0.001199 0.0
2.410791 1.576980 -0.004941 0.0
3.886623 1.023586 -0.000014 0.0
1.050323 0.850945 -0.002093 0.0
3.937992 1.790803 -0.007464 0.0
2.417057 0.868160 0.002512 0.0
2.250578 1.527500 0.001188 0.0
0.854129 0.094740 -0.000062 0.0
0.963637 1.345328 0.000404 0.0
3.180698 0.421740 0.002689 0.0
2.230488 0.928060 0.000613 0.0
0.549200 1.661077 0.001453 0.0
0.991199 1.458974 -0.005991 0.0
0.513228 0.490139 -0.005324 0.0
2.908072 0.475681 0.002699 0.0
1.239766 0.684803 -0.003488 0.0
2.139645 1.717936 0.000611 0.0
1.972924 1.644971 0.002391 0.0
2.238259 0.513966 -0.001904 0.0
0.172706 0.759291 -0.000181 0.0
4.221658 0.017029 0.001563 0.0
2.501964 0.576526 -0.002191 0.0
2.101867 0.382154 0.000826 0.0
0.759089 0.786049 -0.001028 0.0
0.168987 0.747571 0.003692 0.0
3.308712 0.750898 0.003768 0.0
0.032527 0.245806 -0.000656 0.0
2.868286 0.408936 -0.001361 0.0
3.672074 0.027304 -0.000717 0.0
0.632536 0.995636 -0.002712 0.0
4.523345 0.205026 -0.002139 0.0
3.395824 1.096451 0.000183 0.0
4.309808 0.114527 0.002223 0.0
0.400612 0.171585 -0.001767 0.0
0.603917 1.917063 -0.000917 0.0
4.379855 0.735549 0.002551 0.0
0.341011 0.985498 -0.002768 0.0
3.361316 0.237472 -0.002655 0.0
1.889139 0.670183 -0.002064 0.0
2.530549 0.201590 -0.005483 0.0
3.274321 0.848287 0.002002 0.0
0.583912 0.923341 0.002585 0.0
0.868501 0.782293 0.001595 0.0
0.568648 1.825818 0.001634 0.0
1.318578 1.847091 0.000998 0.0
0.912868 0.372483 0.000872 0.0
0.693653 1.919248 -0.006270 0.0
2.075250 1.749479 -0.003017 0.0
0.131455 0.209751 -0.003300 0.0
2.534329 1.673814 -0.005630 0.0
4.030945 0.940107 0.005846 0.0
0.357881 1.742247 -0.006659 0.0
2.113387 1.437000 -0.000087 0.0
1.196784 1.759651 0.005466 0.0
0.415941 1.081424 -0.004551 0.0
0.331721 1.037515 0.000931 0.0
2.281532 1.265132 -0.004621 0.0
1.723733 1.764760 0.003938 0.0
3.982096 0.448648 -0.001787 0.0
1.149208 0.665825 -0.002523 0.0
2.384307 0.635446 0.001892 0.0
0.966340 1.824513 -0.000008 0.0
2.607954 0.949695 0.000190 0.0
1.301686 1.254622 0.002552 0.0
1.942355 1.836505 -0.002489 0.0
2.785539 1.804319 -0.000223 0.0
4.304991 1.539286 -0.000898 0.0
0.405471 1.774970 0.004353 0.0
3.192880 1.138103 -0.001917 0.0
2.126879 1.213672 -0.000825 0.0
2.291222 1.650980 0.002241 0.0
4.098733 0.766575 0.000701 0.0
3.917867 0.877273 -0.000534 0.0
4.570663 0.112379 0.000147 0.0
1.494249 1.930400 -0.000594 0.0
4.090760 0.284689 -0.006518 0.0
3.880789 1.203447 -0.000947 0.0
0.484389 0.318994 0.001929 0.0
4.157867 1.072756 0.001657 0.0
3.511393 0.639737 -0.003381 0.0
1.394327 1.938090 -0.001811 0.0
3.551686 1.716102 0.001723 0.0
2.340908 0.601237 -0.000036 0.0
0.289998 1.181571 -0.000680 0.0
4.171492 0.365064 -0.000149 0.0
0.768243 1.599675 -0.002063 0.0
3.584915 1.047718 0.000855 0.0
0.445294 0.715644 -0.000649 0.0
3.476332 0.444961 -0.001447 0.0
2.533915 1.014156 -0.004036 0.0
3.747795 0.735843 -0.002064 0.0
3.540148 1.130748 -0.002988 0.0
2.842667 0.643344 -0.001311 0.0
1.840106 1.175030 -0.005010 0.0
4.076979 1.283083 -0.002572 0.0
4.151659 1.209477 -0.001924 0.0
3.088519 0.819225 0.000957 0.0
3.691512 1.311790 -0.000594 0.0
0.355888 0.994111 0.000686 0.0
2.713668 1.583871 0.000321 0.0
2.228704 1.647327 -0.000066 0.0
2.514342 1.625830 0.003332 0.0
3.019507 1.392502 0.001990 0.0
0.085231 0.902685 0.001390 0.0
3.572680 0.642443 0.002165 0.0
1.836274 1.447485 0.000717 0.0
3.270670 0.661980 -0.000988 0.0
1.526079 0.973973 0.003130 0.0
2.522494 0.251097 0.005196 0.0
1.345760 0.693835 0.000666 0.0
2.494601 1.748406 0.001058 0.0
4.297891 1.954595 0.001150 0.0
2.317180 0.616872 -0.003087 0.0
1.082520 1.532737 -0.001652 0.0
2.339046 0.452925 0.000997 0.0
2.815803 1.405201 0.002930 0.0
0.974714 1.402559 -0.004965 0.0
2.315362 1.812978 -0.001313 0.0
1.920400 1.228939 0.001986 0.0
1.137854 0.473206 0.000291 0.0
4.461386 0.218638 -0.003219 0.0
4.252694 1.930767 -0.002343 0.0
4.110761 0.485349 0.000373 0.0
0.656916 0.188058 -0.000578 0.0
1.728773 0.063442 0.000869 0.0
4.341066 0.533980 0.000909 0.0
4.370665 0.260120 0.000139 0.0
3.393682 0.974932 -0.000624 0.0
2.200983 0.730747 -0.002703 0.0
3.027583 0.379444 0.002289 0.0
1.893615 1.831298 -0.000024 0.0
1.080140 0.855733 0.004012 0.0
2.571107 1.352255 0.003825 0.0
3.793208 0.491410 0.000603 0.0
3.286904 1.483622 0.001472 0.0
0.613227 0.625668 0.003718 0.0
1.991457 0.244691 -0.001843 0.0
2.667486 1.056597 0.001433 0.0
3.531788 0.624055 -0.001361 0.0
4.108799 1.292798 -0.000813 0.0
1.387915 1.758385 0.003265 0.0
4.087025 0.898974 0.002215 0.0
1.191349 1.085966 0.001349 0.0
0.335745 1.216195 -0.003599 0.0
2.172625 1.534423 -0.007343 0.0
2.306700 0.783597 0.000939 0.0
0.915152 0.075447 0.000825 0.0
0.302421 0.259942 0.004619 0.0
0.895782 1.106888 0.002914 0.0
3.275488 0.008451 0.001201 0.0
1.860100 1.217130 -0.001827 0.0
0.427540 0.436255 -0.000578 0.0
0.247642 1.398225 -0.003160 0.0
2.154898 1.671974 -0.000471 0.0
2.090648 1.595529 0.002831 0.0
0.301386 0.656808 -0.001336 0.0
2.929654 0.077348 0.000457 0.0
3.435065 1.924214 -0.000097 0.0
1.013464 1.335440 0.002660 0.0
1.150222 0.387931 0.002955 0.0
2.151420 1.087324 0.000640 0.0
1.296893 0.762943 -0.000921 0.0
0.746720 1.655117 -0.001815 0.0
3.399618 0.587702 0.003669 0.0
3.137315 0.576621 0.000748 0.0
3.684387 1.820980 0.004820 0.0
4.480923 1.924838 -0.005531 0.0
1.083726 1.277046 -0.000790 0.0
0.078821 1.511036 0.000648 0.0
3.963874 0.959200 0.002967 0.0
4.227692 0.059131 0.001264 0.0
1.245659 0.772074 -0.000631 0.0
3.507845 1.362257 0.000022 0.0
4.047852 1.000312 0.002266 0.0
1.127537 0.660804 0.003106 0.0
2.301420 1.113225 -0.003053 0.0
2.029288 1.253294 0.003577 0.0
3.111282 1.139668 -0.004892 0.0
3.948491 0.859783 -0.002753 0.0
0.194411 1.871028 -0.002348 0.0
3.754547 0.670308 0.002518 0.0
1.340331 0.710864 -0.001968 0.0
0.708785 1.555365 -0.003820 0.0
0.455383 0.921981 -0.001155 0.0
0.822582 0.603063 0.001882 0.0
2.836895 0.938341 -0.001031 0.0
4.028854 0.805206 -0.001336 0.0
0.739527 0.956194 0.000347 0.0
0.648169 0.225712 -0.000323 0.0
2.579726 1.187566 -0.000808 0.0
2.184198 0.384903 0.000919 0.0
2.652836 1.558999 0.003833 0.0
2.490320 1.524304 -0.005670 0.0
3.194616 1.835897 0.001610 0.0
4.584894 1.811990 -0.005655 0.0
0.631180 1.553916 0.001583 0.0
3.149390 1.080923 0.001277 0.0
3.395432 0.176874 -0.001398 0.0
0.358061 1.828186 -0.002973 0.0
4.470808 0.082263 0.001401 0.0
1.076672 1.898209 -0.000612 0.0
2.063747 0.082739 -0.000021 0.0
3.262226 1.789232 0.001784 0.0
0.293061 1.593880 0.001559 0.0
2.227068 1.168744 -0.000149 0.0
0.266844 0.104954 -0.001813 0.0
1.038383 1.449623 -0.000143 0.0
2.887788 1.269653 -0.007809 0.0
1.645535 1.140192 0.000987 0.0
4.366694 0.307697 0.004001 0.0
1.031863 1.093120 -0.004261 0.0
4.445797 0.380717 -0.000973 0.0
2.668084 0.103129 -0.000828 0.0
4.069654 1.949618 0.004069 0.0
1.810469 1.904959 -0.001517 0.0
3.356907 0.557147 0.003457 0.0
1.327047 0.504744 0.001601 0.0
3.400669 1.271546 -0.003432 0.0
4.606789 1.157716 -0.001454 0.0
1.596819 1.092436 -0.000959 0.0
0.777607 0.744680 0.004471 0.0
2.402348 0.367804 -0.001699 0.0
3.787767 1.073338 -0.004221 0.0
2.880558 1.955845 0.005229 0.0
2.903291 1.946400 -0.005864 0.0
2.833742 0.663106 -0.001004 0.0
0.728589 0.707432 0.000467 0.0
3.543039 0.971367 0.000077 0.0
4.252358 1.119119 -0.001084 0.0
0.494440 1.139840 -0.002340 0.0
1.125490 1.161429 -0.000921 0.0
2.701661 0.582134 0.001715 0.0
3.051780 0.022374 -0.001443 0.0
1.665673 1.957000 -0.002234 0.0
2.856201 0.742939 -0.000910 0.0
3.945077 0.576754 0.008024 0.0
3.195066 1.433551 0.002515 0.0
0.836202 0.758070 -0.001651 0.0
0.896399 1.224701 -0.001612 0.0
0.890532 1.637999 0.000800 0.0
2.311385 0.150879 -0.001711 0.0
2.649997 1.057985 0.001848 0.0
0.799399 0.048720 0.000243 0.0
0.722042 1.311178 -0.000315 0.0
1.019736 1.471580 0.000518 0.0
4.194769 1.942290 -0.003524 0.0
3.975402 0.336196 0.001707 0.0
1.502823 0.723222 -0.001541 0.0
2.605612 0.267714 0.001430 0.0
0.403124 0.352148 -0.002884 0.0
0.534133 0.706936 -0.002834 0.0
3.305956 0.317782 -0.001195 0.0
2.948273 0.139891 -0.002391 0.0
0.548820 0.652093 0.001930 0.0
1.028811 0.472016 0.001320 0.0
2.034743 1.786654 0.000928 0.0
0.707289 0.960075 0.001530 0.0
2.117484 1.261128 -0.004370 0.0
0.734089 1.434530 0.000526 0.0
0.037086 0.138776 -0.003839 0.0
1.940869 0.414599 -0.000313 0.0
0.128115 0.951451 -0.003050 0.0
2.355894 1.550625 0.000795 0.0
0.057616 1.803053 0.002466 0.0
0.350509 1.139325 0.001313 0.0
1.508813 0.966081 -0.001665 0.0
0.445374 0.014278 -0.001521 0.0
1.284680 1.134985 0.001628 0.0
3.104335 1.076288 -0.001252 0.0
1.554263 0.856558 -0.001784 0.0
2.512413 1.152376 -0.001765 0.0
2.919988 1.571058 -0.003436 0.0
4.620161 1.450509 0.000794 0.0
4.356812 1.177059 0.000275 0.0
0.391234 0.157096 -0.002347 0.0
3.663926 1.372579 -0.000363 0.0
2.792579 1.398706 -0.000439 0.0
2.726803 1.471657 0.002438 0.0
0.729739 0.312154 0.003052 0.0
3.204425 1.377783 0.003317 0.0
1.529352 1.811341 -0.001866 0.0
4.220434 0.928454 -0.006011 0.0
2.595010 1.956410 0.002063 0.0
1.281164 1.946295 -0.001583 0.0
0.146624 1.425369 0.003599 0.0
4.187562 1.015764 -0.001897 0.0
2.969945 0.562218 0.000085 0.0
3.049833 0.605419 -0.000406 0.0
4.034668 0.982489 -0.001968 0.0
0.399390 1.774924 0.003888 0.0
4.157758 0.221020 0.000461 0.0
3.675878 1.194035 0.000838 0.0
3.755597 1.720863 0.002795 0.0
3.852942 1.492177 -0.003149 0.0
1.936520 1.278491 -0.003345 0.0
1.960608 1.327676 0.004045 0.0
3.332893 0.226835 0.001740 0.0
3.852088 1.803913 0.003368 0.0
2.189039 0.755523 -0.001648 0.0
4.607860 0.436076 -0.000244 0.0
4.547340 1.564497 -0.001102 0.0
4.086815 0.353224 0.001527 0.0
0.932188 0.382773 -0.001760 0.0
2.561436 0.034629 -0.001650 0.0
0.109091 1.505866 -0.000873 0.0
3.224896 0.654333 0.001068 0.0
4.276500 0.022528 -0.003677 0.0
2.657655 1.908711 -0.002633 0.0
0.791466 1.023587 0.001479 0.0
1.370369 1.847344 0.002397 0.0
3.598962 0.242208 0.003435 0.0
4.551556 1.433614 -0.000813 0.0
2.102906 0.541626 -0.000920 0.0
0.469116 0.013713 0.000262 0.0
0.061529 1.179102 0.001436 0.0
3.144146 1.769354 0.002148 0.0
4.500578 1.252675 0.001461 0.0
1.552421 1.020079 -0.001578 0.0
1.105959 1.323412 0.000796 0.0
1.126406 1.520809 0.001897 0.0
3.710082 1.814917 0.004415 0.0
0.804948 1.871304 0.001940 0.0
3.498826 0.379702 -0.006295 0.0
2.506314 1.616815 0.000870 0.0
1.344212 1.669301 -0.005616 0.0
2.165286 0.835832 -0.003481 0.0
3.053779 0.443747 0.003103 0.0
4.409405 0.649603 -0.006545 0.0
2.247875 1.658224 0.000819 0.0
4.442342 1.614891 -0.003380 0.0
2.232038 1.353474 0.003102 0.0
2.578750 0.702228 -0.000489 0.0
3.234310 0.844493 0.000210 0.0
2.264847 1.391411 0.000647 0.0
1.910030 1.929301 -0.004369 0.0
2.055734 1.795867 0.002768 0.0
3.910281 0.155712 0.002472 0.0
1.917067 1.331228 -0.001143 0.0
0.949204 0.066423 0.002251 0.0
1.430102 0.262777 0.003006 0.0
4.538241 1.347324 -0.004651 0.0
1.660235 1.134949 0.001570 0.0
0.447798 0.716410 0.003852 0.0
4.014195 0.528530 0.001197 0.0
0.998103 1.674336 0.000369 0.0
3.240891 1.948995 0.004297 0.0
4.163171 1.653612 -0.003954 0.0
3.930644 0.196326 0.003014 0.0
4.498273 1.283445 0.003682 0.0
2.385139 1.514775 0.001647 0.0
0.980919 0.284910 -0.002479 0.0
1.564766 1.793959 0.004373 0.0
2.537285 1.935679 0.001407 0.0
1.696109 1.068231 -0.001116 0.0
3.636823 0.952143 -0.001026 0.0
0.435916 0.069762 0.001171 0.0
1.468203 0.787059 -0.000468 0.0
4.503175 0.281622 -0.002033 0.0
0.519509 0.348152 -0.002571 0.0
2.891844 0.263457 -0.000277 0.0
3.777230 0.327213 0.002506 0.0
2.767316 0.967623 0.001389 0.0
3.757757 0.588463 -0.002687 0.0
0.578861 0.793379 -0.001370 0.0
3.573338 1.118128 -0.001505 0.0
0.854435 0.534587 0.000099 0.0
4.498170 1.511496 0.001164 0.0
3.281591 1.027654 -0.002190 0.0
1.949343 0.473488 0.000815 0.0
1.486410 1.742069 0.001895 0.0
4.293605 0.281389 -0.000096 0.0
3.356768 0.176011 -0.000223 0.0
0.616289 1.240558 0.001100 0.0
1.829503 1.215453 -0.000311 0.0
2.455487 1.243018 -0.004821 0.0
2.631338 0.972937 0.001795 0.0
1.108040 1.377191 -0.002133 0.0
4.167351 0.027233 -0.000456 0.0
3.449704 0.098056 0.003232 0.0
0.644114 0.472651 0.004039 0.0
0.942084 0.840283 -0.001180 0.0
0.573264 1.906608 0.000102 0.0
1.892574 1.340493 0.000201 0.0
0.809563 1.212167 -0.000260 0.0
4.490382 0.888214 0.002496 0.0
2.792492 0.403970 -0.003736 0.0
4.419575 0.494104 0.000101 0.0
0.268725 1.007118 0.000249 0.0
2.031218 1.164241 0.003502 0.0
1.250635 1.895196 -0.004218 0.0
1.079201 1.586144 -0.004485 0.0
2.555617 0.596720 -0.001711 0.0
2.179254 0.647602 -0.002433 0.0
3.055622 1.062106 -0.001285 0.0
2.582445 1.271394 0.004732 0.0
2.110406 0.425903 0.002615 0.0
0.471732 1.560562 -0.000233 0.0
1.018742 0.315254 0.001497 0.0
3.703717 1.450643 0.005194 0.0
2.974635 1.556012 0.001569 0.0
2.629887 0.709548 0.000207 0.0
2.165813 0.177996 0.003406 0.0
0.117208 0.457145 -0.002768 0.0
3.168281 1.374384 0.001222 0.0
2.269171 1.805061 0.001301 0.0
2.527065 0.188599 -0.001168 0.0
1.432255 1.515588 -0.001586 0.0
0.882957 1.467710 0.000248 0.0
0.533502 0.518816 0.000707 0.0
3.268572 1.535286 -0.000482 0.0
2.428034 0.263675 -0.003824 0.0
2.745834 1.203936 -0.001196 0.0
4.609534 0.987708 0.001628 0.0
2.223467 0.900042 0.001286 0.0
1.901796 0.091163 -0.001545 0.0
3.036460 0.462027 0.000060 0.0
3.603015 1.020903 0.003847 0.0
2.824477 0.404553 -0.002639 0.0
4.550883 0.458546 -0.000292 0.0
0.916423 0.556392 0.002002 0.0
1.093418 1.940845 -0.001984 0.0
0.029857 1.368381 0.000917 0.0
3.289780 0.795461 0.002821 0.0
3.411243 0.586474 0.002041 0.0
2.165593 1.840055 -0.000846 0.0
3.515131 1.024691 0.002109 0.0
3.110703 0.295679 0.000148 0.0
2.280804 1.532178 -0.000945 0.0
1.587533 0.302567 0.001870 0.0
1.878006 0.588463 0.001895 0.0
1.163650 1.253653 -0.001237 0.0
4.160308 0.888682 0.000821 0.0
0.783374 1.797154 -0.003331 0.0
1.174359 1.786177 -0.000217 0.0
0.108229 0.313760 0.000992 0.0
3.254389 1.009324 0.000210 0.0
1.789487 1.241677 -0.002771 0.0
4.045412 1.566556 -0.002644 0.0
2.607218 0.277557 0.004102 0.0
0.069253 1.291581 -0.000680 0.0
1.986181 1.117291 -0.002067 0.0
3.111375 0.304438 -0.001158 0.0
4.195497 1.172142 -0.005493 0.0
0.914463 1.219671 -0.001509 0.0
0.345853 1.305060 0.001866 0.0
2.269756 0.706337 0.000768 0.0
3.468483 0.298831 -0.001566 0.0
0.250158 0.182958 0.000795 0.0
1.775778 1.443986 0.000558 0.0
2.051416 0.939437 -0.001874 0.0
0.812735 1.957874 0.001394 0.0
2.024573 0.892653 0.004249 0.0
2.320451 1.582268 -0.001089 0.0
4.216925 1.357164 0.001110 0.0
2.198834 0.958186 -0.003497 0.0
1.073793 0.293864 -0.003966 0.0
3.293451 1.690993 -0.001025 0.0
3.698511 0.842846 -0.001274 0.0
2.044578 0.481673 0.000548 0.0
0.509292 0.095191 -0.000627 0.0
1.363735 0.802989 -0.001262 0.0
4.091388 1.777693 -0.003296 0.0
0.395924 1.595806 -0.001202 0.0
2.567822 1.303931 -0.004034 0.0
0.697632 1.412853 0.004107 0.0
3.128188 1.560442 -0.000382 0.0
2.303335 0.513686 -0.001666 0.0
3.461113 0.269454 0.002972 0.0
1.012786 1.470597 -0.002877 0.0
1.293481 1.138118 0.003090 0.0
0.599628 1.250994 0.000424 0.0
1.639303 1.761238 -0.000093 0.0
1.539247 0.722838 0.000614 0.0
2.501649 1.160544 -0.000410 0.0
3.275007 1.393420 -0.002078 0.0
2.834383 0.549583 -0.002356 0.0
0.903998 1.069231 -0.002826 0.0
2.581378 0.712860 0.001459 0.0
2.055431 0.773474 0.003489 0.0
4.609097 1.366698 0.001931 0.0
1.698092 0.724350 0.001686 0.0
4.220410 0.469513 0.001061 0.0
4.179884 1.800425 0.000425 0.0
0.250273 1.305712 0.003157 0.0
2.400842 0.570749 -0.001819 0.0
0.629117 0.231804 0.001111 0.0
2.707894 0.659441 -0.005581 0.0
4.400034 0.468536 0.001389 0.0
4.351454 1.444149 0.003411 0.0
4.511474 0.842776 0.000861 0.0
3.305719 0.295392 -0.002471 0.0
3.890027 0.264862 -0.002362 0.0
1.907443 0.388453 0.000406 0.0
0.648126 1.627408 -0.000906 0.0
3.913346 0.666893 0.002065 0.0
1.200089 1.363568 -0.004489 0.0
3.312519 0.949876 0.002545 0.0
4.553724 0.016173 -0.002394 0.0
2.509858 0.061432 0.001399 0.0
3.403363 0.613249 -0.000331 0.0
2.416003 1.901751 -0.000144 0.0
2.405168 0.822273 -0.002219 0.0
2.257593 0.806780 -0.001953 0.0
3.342727 0.414224 -0.000544 0.0
0.254131 0.198288 -0.000869 0.0
1.454349 0.189365 -0.002501 0.0
2.168332 0.949967 0.003248 0.0
2.389508 1.127754 0.000374 0.0
0.857292 1.756568 0.002256 0.0
1.925824 0.430811 0.003502 0.0
1.961344 0.940253 -0.000496 0.0
0.449158 1.413612 -0.006036 0.0
1.204968 1.067203 0.005198 0.0
0.686993 0.888468 -0.000000 0.0
2.140705 0.482066 0.002711 0.0
2.151641 1.461481 0.004326 0.0
0.262508 1.285080 -0.001673 0.0
1.949564 1.180366 0.003533 0.0
3.918912 0.484997 0.001508 0.0
3.507470 1.698407 -0.002185 0.0
2.335600 1.420980 0.001871 0.0
3.671103 1.155282 0.000126 0.0
0.083271 1.769617 -0.004929 0.0
2.079327 1.869000 -0.000213 0.0
1.544030 0.664240 0.002031 0.0
2.298794 1.603949 0.000615 0.0
3.364920 1.467677 0.001603 0.0
1.289217 1.376296 0.000353 0.0
4.056603 0.149766 0.002283 0.0
1.903892 0.446442 -0.000485 0.0
0.570522 1.904613 -0.001242 0.0
2.871486 1.839494 0.002478 0.0
4.439985 0.935362 -0.001363 0.0
3.359285 0.464183 -0.002783 0.0
1.499649 1.027238 0.002239 0.0
0.622448 0.772614 -0.002414 0.0
2.742881 0.143849 -0.002497 0.0
1.466481 0.822926 0.001157 0.0
2.802725 1.569677 -0.001109 0.0
4.369141 1.033149 0.003325 0.0
1.421690 0.266947 -0.000527 0.0
3.712022 0.449003 -0.002126 0.0
0.030275 0.137645 -0.000643 0.0
3.117543 0.111665 -0.003408 0.0
0.435452 1.732788 -0.002354 0.0
3.541798 1.235305 0.000188 0.0
1.195726 0.920246 0.003359 0.0
1.812510 1.633655 0.001666 0.0
0.461079 1.321683 -0.001662 0.0
2.399074 1.461862 -0.002264 0.0
2.456569 1.155330 -0.005380 0.0
0.015889 1.584630 0.000769 0.0
3.221789 0.158801 0.002120 0.0
4.556902 0.651433 0.000433 0.0
1.561387 1.094297 0.005525 0.0
3.446485 1.654707 -0.002481 0.0
1.337317 1.237544 -0.000679 0.0
0.956564 1.076606 0.003651 0.0
4.030631 1.064938 -0.005125 0.0
2.460494 0.603747 0.000309 0.0
2.149177 0.838588 -0.004135 0.0
4.129721 0.617741 -0.001859 0.0
0.850170 0.442975 -0.000629 0.0
2.213825 0.240494 0.002793 0.0
4.095910 0.539165 -0.001674 0.0
4.438964 0.159168 0.003801 0.0
2.389867 1.600964 -0.000589 0.0
0.978788 1.307480 -0.003076 0.0
1.950695 0.086115 0.001881 0.0
0.106394 1.121874 0.006562 0.0
1.362988 0.373899 0.000820 0.0
2.354677 1.347865 0.000115 0.0
0.826532 0.130449 0.001844 0.0
3.849970 0.219386 0.000442 0.0
3.965155 1.767237 -0.005536 0.0
4.558955 1.000987 0.004886 0.0
2.664422 0.856178 0.001448 0.0
2.216013 0.873281 -0.001207 0.0
4.486778 0.156897 -0.001631 0.0
1.350650 1.118633 -0.000477 0.0
1.347711 1.226211 -0.004122 0.0
3.391896 1.548673 -0.000098 0.0
2.272288 1.536902 0.001092 0.0
3.489151 0.297081 0.000479 0.0
0.203972 1.788578 -0.001743 0.0
2.672611 1.321765 0.000477 0.0
1.456939 0.533140 0.001740 0.0
3.715903 0.956750 0.000802 0.0
2.590017 0.415020 -0.000136 0.0
3.573150 0.645167 0.001649 0.0
1.820267 1.743263 0.004101 0.0
4.235057 1.508486 0.006126 0.0
1.877735 0.723502 -0.002948 0.0
1.161426 1.305446 0.000965 0.0
3.134778 1.056290 -0.000307 0.0
0.728575 0.929677 -0.001829 0.0
4.353940 1.607764 -0.001710 0.0
1.997096 1.507325 0.003028 0.0
1.910903 1.655617 -0.000291 0.0
0.120756 1.555605 -0.001157 0.0
4.107989 0.411677 -0.003433 0.0
2.147757 0.818836 -0.001641 0.0
1.026483 1.672529 0.001064 0.0
1.090709 1.920550 0.000214 0.0
1.164394 0.999847 0.001430 0.0
2.113390 1.548791 -0.002357 0.0
0.711325 1.607750 0.001609 0.0
0.710753 0.577635 -0.002157 0.0
1.327707 0.780177 0.000005 0.0
0.126018 1.695139 -0.000847 0.0
2.043736 0.958745 -0.002648 0.0
1.238653 0.303824 -0.000230 0.0
1.361534 0.572679 -0.005095 0.0
2.671548 0.051079 0.001142 0.0
2.720179 0.597643 0.002843 0.0
4.108776 0.023303 0.000882 0.0
1.372568 0.861644 -0.003005 0.0
0.557216 0.393634 0.001650 0.0
1.968787 0.575161 -0.000119 0.0
0.140417 1.741523 0.000801 0.0
1.145118 1.481561 0.003208 0.0
3.342105 1.563989 -0.001607 0.0
3.012155 0.068729 -0.003091 0.0
4.182601 0.796952 0.001111 0.0
0.252869 0.535324 0.000417 0.0
1.543403 1.855582 -0.001038 0.0
2.621837 0.696764 -0.003091 0.0
2.120263 0.899098 -0.006308 0.0
2.404969 1.346891 -0.005596 0.0
3.937640 1.734567 0.001265 0.0
4.529061 1.237139 0.000382 0.0
0.892767 0.504173 -0.001839 0.0
0.215006 0.829972 -0.002718 0.0
1.594771 0.908123 -0.004700 0.0
1.742864 1.086414 -0.002047 0.0
3.665046 0.299245 0.001886 0.0
0.685731 1.929396 0.000083 0.0
1.336809 1.216375 0.002551 0.0
1.528402 1.886755 0.002196 0.0
2.131758 0.243071 0.002700 0.0
4.095158 1.954594 -0.002037 0.0
0.993160 1.609854 -0.000081 0.0
4.164661 1.021383 0.001644 0.0
0.374524 0.848149 -0.002983 0.0
0.800158 1.942273 0.000650 0.0
3.640016 0.817311 -0.000146 0.0
3.746913 1.088226 0.000778 0.0
1.063397 1.138322 0.001971 0.0
4.014991 1.874630 -0.001693 0.0
0.031430 1.246633 0.000110 0.0
3.020289 0.749961 0.004153 0.0
1.227941 0.493514 -0.003750 0.0
4.535535 0.760259 -0.002169 0.0
0.893649 0.207277 -0.001964 0.0
3.202766 0.236504 -0.001956 0.0
2.325689 1.011838 -0.000822 0.0
4.271980 0.517386 -0.000145 0.0
0.179086 0.294065 0.006715 0.0
3.969248 1.823619 -0.000848 0.0
2.385413 0.553138 0.002353 0.0
2.158235 1.516510 0.001853 0.0
1.910888 1.233755 -0.000230 0.0
0.255451 1.187329 -0.002488 0.0
0.488496 1.663892 -0.000229 0.0
2.856936 0.619940 -0.002328 0.0
1.652413 0.121921 -0.000794 0.0
1.011422 0.940737 0.006593 0.0
4.098545 1.122265 -0.002400 0.0
1.595614 0.535235 -0.005997 0.0
2.743877 0.026803 -0.000305 0.0
0.975081 0.614959 -0.002321 0.0
3.741720 1.456829 0.001515 0.0
3.498851 0.538406 -0.001454 0.0
4.133779 0.427453 -0.000539 0.0
3.371768 0.385503 0.007217 0.0
2.223716 1.856906 -0.000095 0.0
4.100873 1.633292 -0.001892 0.0
2.607960 0.723057 0.000021 0.0
0.745797 1.632878 0.005758 0.0
1.310441 0.913351 -0.004244 0.0
4.552067 0.816414 -0.001566 0.0
1.810927 1.210053 -0.000410 0.0
1.185262 1.713590 0.002473 0.0
1.915324 1.096847 0.000885 0.0
1.575465 0.276802 0.001268 0.0
1.657717 0.649047 -0.004337 0.0
2.329728 1.476535 0.001016 0.0
0.881079 0.347622 0.003626 0.0
4.310286 1.284174 0.002510 0.0
0.953065 0.684100 0.000975 0.0
1.401521 0.829920 0.001747 0.0
2.293935 1.183984 -0.003047 0.0
1.045516 0.180009 -0.006803 0.0
0.116368 0.108686 0.005834 0.0
1.298370 0.198015 -0.002408 0.0
0.918248 0.806868 -0.000310 0.0
0.205945 0.542495 -0.001634 0.0
2.683599 1.025668 0.001403 0.0
1.155884 0.665330 -0.002676 0.0
0.225347 1.365982 -0.001687 0.0
1.676971 0.583187 -0.002316 0.0
1.747612 1.397256 -0.001657 0.0
3.160686 0.366362 0.000096 0.0
0.199572 0.878458 -0.003512 0.0
2.363630 0.886138 -0.000067 0.0
3.336778 1.126794 0.001358 0.0
2.629804 0.861151 0.001666 0.0
2.074251 0.193438 0.002171 0.0
1.265898 0.422541 -0.002035 0.0
0.491415 0.737553 0.002192 0.0
0.905482 1.447607 0.000328 0.0
0.730284 0.206697 -0.001024 0.0
2.874080 0.180130 0.001014 0.0
3.716637 1.806925 0.002194 0.0
4.297102 1.697256 0.000046 0.0
0.282770 1.616318 -0.001153 0.0
1.600773 1.238086 0.002389 0.0
1.872530 0.127429 0.000817 0.0
3.347473 1.812441 -0.001073 0.0
4.463465 1.160443 -0.002697 0.0
3.859224 1.510202 0.002354 0.0
1.587671 0.369502 -0.002055 0.0
0.739454 0.303671 -0.002127 0.0
4.450512 1.055446 0.000577 0.0
0.731923 0.433434 0.005588 0.0
4.486508 1.311871 0.006257 0.0
2.524176 0.159893 -0.003718 0.0
2.770051 1.339544 0.000371 0.0
2.959800 0.313376 -0.002355 0.0
3.969634 1.291195 -0.001241 0.0
3.980877 0.334206 -0.001663 0.0
3.843343 0.771556 0.001018 0.0
1.580465 0.165117 0.003162 0.0
3.056089 0.325992 -0.002390 0.0
2.544258 0.957636 -0.001409 0.0
1.319179 0.516512 0.003270 0.0
3.142928 1.655388 0.000619 0.0
1.178709 1.092910 -0.002812 0.0
3.046988 0.336735 -0.000421 0.0
0.788943 1.094717 -0.000184 0.0
1.932622 0.188127 0.000543 0.0
0.194930 1.382693 -0.002553 0.0
0.705999 0.853449 -0.003862 0.0
3.682892 0.843323 -0.000545 0.0
2.242037 1.645019 -0.000274 0.0
0.829576 0.825508 0.002962 0.0
0.102480 1.463906 -0.001579 0.0
3.203715 0.367164 -0.001343 0.0
2.430224 0.545293 -0.001895 0.0
2.351471 0.383260 -0.005889 0.0
3.923172 1.895133 0.000854 0.0
1.934383 1.073125 0.000104 0.0
2.161606 1.927399 -0.000171 0.0
2.711276 0.621074 -0.002763 0.0
3.259909 1.789017 -0.004142 0.0
1.039095 0.498364 0.003337 0.0
4.250572 0.525826 -0.000265 0.0
4.361255 1.827386 -0.005065 0.0
2.957017 1.375016 -0.001605 0.0
2.114121 0.108342 -0.001008 0.0
0.003901 0.849746 -0.002490 0.0
1.376728 0.774415 0.003329 0.0
2.343314 1.887321 -0.002940 0.0
1.064356 0.614216 0.000964 0.0
0.226048 0.270857 0.005123 0.0
3.138010 0.267178 0.002561 0.0
1.973113 0.553665 0.000628 0.0
0.961406 0.735524 -0.000354 0.0
0.405764 1.632296 0.001818 0.0
3.521353 0.611414 0.001114 0.0
0.177844 0.531171 0.000352 0.0
2.116331 0.508862 0.002446 0.0
1.756716 1.618698 -0.000647 0.0
0.778296 0.212595 0.000289 0.0
4.125156 0.760247 0.004126 0.0
4.028202 0.890733 0.001140 0.0
4.408074 0.526430 -0.002836 0.0
3.716070 1.357256 -0.001960 0.0
2.815782 1.046811 0.000551 0.0
4.044476 1.842261 0.002666 0.0
2.794776 0.843938 -0.000210 0.0
3.224593 0.586112 -0.002980 0.0
3.853008 1.125334 -0.002047 0.0
2.474755 1.160008 0.000755 0.0
0.796126 1.601141 -0.002014 0.0
2.029977 0.126695 -0.000557 0.0
2.702475 1.917673 -0.006444 0.0
3.030223 0.452415 0.000144 0.0
4.134654 1.318816 -0.003219 0.0
2.213456 0.184675 0.001971 0.0
2.203014 1.924495 -0.003216 0.0
3.581143 1.395261 0.000996 0.0
2.856210 1.862395 -0.003083 0.0
4.553168 0.493622 0.000348 0.0
1.330262 1.296130 -0.000240 0.0
3.274528 0.467317 -0.001109 0.0
4.344151 1.427439 -0.000310 0.0
4.258565 0.090107 0.004104 0.0
0.496763 1.020191 -0.003263 0.0
3.609156 0.249701 0.000737 0.0
3.286581 1.570019 -0.000461 0.0
0.953416 1.658371 -0.004833 0.0
3.206943 0.670378 -0.001154 0.0
2.439487 1.629008 -0.000244 0.0
0.862817 0.714966 -0.004394 0.0
2.572889 0.502521 0.002588 0.0
1.504595 0.349605 0.002003 0.0
0.735901 0.033913 -0.000091 0.0
1.475036 0.592625 0.000200 0.0
2.901927 0.876020 -0.000985 0.0
0.802908 1.848481 0.003743 0.0
4.316478 0.244274 0.000336 0.0
1.078941 1.042604 -0.002385 0.0
3.932108 0.750978 0.000662 0.0
2.277911 1.522767 -0.005040 0.0
2.328591 1.797451 0.003107 0.0
1.814716 0.353447 -0.002169 0.0
0.681730 1.465783 -0.002556 0.0
3.897762 0.851815 -0.004023 0.0
2.071398 1.476977 -0.000194 0.0
3.893461 1.694751 0.004397 0.0
1.966456 0.484431 -0.002796 0.0
1.216979 1.120859 -0.003325 0.0
4.095727 0.376450 -0.002080 0.0
1.780823 0.706543 -0.003053 0.0
4.269364 0.565640 0.003648 0.0
4.485164 1.552958 0.004525 0.0
4.230348 0.202744 0.005200 0.0
2.111072 1.202164 0.001222 0.0
4.339604 1.463597 0.004214 0.0
2.380178 0.817561 -0.002275 0.0
1.831614 1.370729 0.003266 0.0
2.828713 1.741153 -0.000962 0.0
2.034287 0.549312 -0.001007 0.0
2.605237 1.155226 0.002421 0.0
1.228576 0.915700 0.000357 0.0
1.811735 1.710075 0.001489 0.0
0.356869 1.856635 -0.000741 0.0
4.216527 0.506278 0.003023 0.0
2.665215 0.360347 -0.004898 0.0
0.469028 1.336001 -0.000605 0.0
2.196896 1.407363 -0.001427 0.0
2.367865 1.543490 -0.002698 0.0
4.283441 1.343145 0.002087 0.0
4.196301 1.524028 0.002645 0.0
0.020909 0.750893 -0.005191 0.0
3.692238 0.133065 -0.000466 0.0
0.759283 1.073886 -0.000834 0.0
0.426022 0.147183 0.000088 0.0
3.379218 0.788148 -0.004423 0.0
3.275236 1.936985 0.000683 0.0
4.317658 1.918006 0.001108 0.0
0.195825 0.922165 0.001253 0.0
0.410951 0.834512 0.002991 0.0
2.027460 1.076016 -0.000818 0.0
0.970229 0.237605 0.002493 0.0
0.251332 0.700262 -0.002344 0.0
0.100693 0.496913 0.002089 0.0
3.458261 1.592365 0.001609 0.0
2.830860 1.705524 0.002832 0.0
1.738379 1.321795 -0.002259 0.0
0.361749 0.164619 -0.002849 0.0
0.477952 0.085996 0.002570 0.0
0.073236 0.724651 -0.004097 0.0
1.723067 1.963722 -0.001106 0.0
3.326055 0.816886 -0.004138 0.0
0.999507 1.460559 0.003521 0.0
1.073749 1.359827 0.002497 0.0
3.543022 1.302234 0.000463 0.0
1.682491 0.745061 -0.001114 0.0
4.158894 1.002273 -0.005278 0.0
1.628233 1.144654 0.003786 0.0
2.816316 0.234963 0.001545 0.0
0.255977 0.221400 -0.001050 0.0
0.572291 1.561890 0.004589 0.0
0.557378 0.453116 0.002554 0.0
1.484208 0.520934 0.002461 0.0
3.616613 0.594832 0.003235 0.0
3.192581 1.570589 -0.002400 0.0
3.032164 0.836523 0.001200 0.0
3.694410 1.393836 0.001399 0.0
0.622233 1.545885 0.000901 0.0
0.827993 0.095423 0.001438 0.0
1.723953 0.254341 0.000114 0.0
3.769432 1.363504 -0.003118 0.0
2.635364 0.319360 0.002653 0.0
2.921734 0.027229 0.001067 0.0
2.950531 1.753892 -0.000246 0.0
2.026296 1.381024 0.001259 0.0
2.861559 0.159732 0.000559 0.0
0.842805 0.296652 -0.002405 0.0
4.095672 0.216686 0.001874 0.0
2.414592 1.284204 -0.000357 0.0
4.212637 1.537749 0.003428 0.0
0.011883 1.417348 -0.001675 0.0
1.708850 1.285733 -0.002928 0.0
1.781484 1.792662 0.002049 0.0
2.648607 0.914746 -0.003840 0.0
4.472811 0.189018 -0.001701 0.0
0.279309 1.914449 -0.001419 0.0
4.162375 1.803271 0.004352 0.0
3.109364 1.230300 0.003822 0.0
0.186291 1.887516 -0.005018 0.0
4.584737 0.684221 0.004287 0.0
3.481881 1.778695 -0.001742 0.0
1.363423 1.017513 0.002656 0.0
0.999126 0.468330 0.003704 0.0
0.821685 1.293609 -0.002155 0.0
3.613251 1.185393 0.001465 0.0
1.420258 1.121124 -0.000495 0.0
1.321027 0.829595 0.002069 0.0
3.420450 0.555534 0.002751 0.0
4.340740 0.983205 0.002173 0.0
1.756681 1.210881 -0.000735 0.0
1.123245 1.090004 -0.001208 0.0
3.894170 0.409183 -0.000815 0.0
0.034105 0.162511 0.000628 0.0
0.315527 0.905964 -0.002153 0.0
2.431638 0.492835 -0.000166 0.0
4.023478 1.859387 -0.002054 0.0
0.901387 1.419778 -0.000297 0.0
0.924812 1.059322 0.001496 0.0
1.523901 0.301740 0.001992 0.0
0.923622 1.074460 -0.003170 0.0
1.771020 1.002027 0.000127 0.0
1.315498 0.183191 -0.000325 0.0
2.948877 0.311578 -0.001639 0.0
0.515612 0.948541 -0.000304 0.0
2.913481 1.869451 0.003370 0.0
1.615964 0.230995 -0.002200 0.0
3.081677 1.615860 -0.002253 0.0
0.079846 1.579394 0.000995 0.0
4.480454 1.548790 -0.000220 0.0
4.492949 1.800508 0.002158 0.0
4.083101 1.693531 0.000119 0.0
1.658710 0.350987 0.002080 0.0
0.818484 0.766518 0.000335 0.0
1.673603 0.710768 0.002437 0.0
1.752861 0.590905 -0.001514 0.0
1.607724 1.534987 -0.000658 0.0
1.006655 1.448837 -0.000203 0.0
2.821434 1.119502 0.001234 0.0
1.481096 1.082614 0.004147 0.0
1.440858 0.594026 -0.004601 0.0
1.213811 0.151201 -0.000941 0.0
0.085758 0.627860 -0.002403 0.0
2.640678 1.637667 -0.002430 0.0
3.275814 1.504282 -0.002327 0.0
0.660720 1.046738 -0.001912 0.0
0.375024 1.234154 0.004033 0.0
1.442145 0.058385 -0.000868 0.0
1.905942 0.930696 0.002899 0.0
1.767283 1.351445 -0.002921 0.0
2.733275 0.896770 -0.001989 0.0
0.575948 1.259017 0.000769 0.0
0.768341 0.528209 -0.000968 0.0
3.233126 0.224095 0.001620 0.0
2.258468 1.713554 0.001210 0.0
3.123330 0.020389 -0.000511 0.0
0.169112 1.461588 -0.000240 0.0
3.551849 0.516904 0.000890 0.0
1.301422 0.799243 0.000141 0.0
1.848166 0.204059 0.002086 0.0
2.038719 0.035806 -0.000788 0.0
3.913050 1.315600 -0.002562 0.0
1.036067 0.684358 -0.001814 0.0
1.665453 0.281311 -0.002766 0.0
1.770853 0.912382 0.005934 0.0
3.717744 0.805933 -0.000517 0.0
1.324266 1.612160 -0.002127 0.0
1.348029 1.391806 0.003802 0.0
3.012257 0.423194 -0.000338 0.0
3.839862 1.863559 0.004407 0.0
2.264401 1.460817 -0.002384 0.0
0.309294 1.658738 0.003105 0.0
0.403866 0.363400 -0.004193 0.0
0.128800 0.078947 -0.001215 0.0
2.249696 1.454799 -0.002454 0.0
0.852221 0.119965 0.000009 0.0
1.198285 0.453401 0.000494 0.0
0.115525 1.395656 -0.005120 0.0
3.025567 1.030420 -0.000861 0.0
2.113059 1.636713 0.000381 0.0
3.958685 0.989595 0.003996 0.0
2.747894 0.018556 0.003183 0.0
4.118029 1.187183 0.002300 0.0
2.957781 0.030533 0.004015 0.0
1.586234 1.904345 0.003224 0.0
3.624954 1.483500 0.000355 0.0
3.127849 0.314031 0.000836 0.0
0.200152 1.881762 -0.001623 0.0
0.609938 1.572206 0.000302 0.0
1.653723 0.436648 0.001166 0.0
0.181477 0.623138 0.002650 0.0
2.673702 1.304620 0.001900 0.0
3.328717 1.941417 0.000574 0.0
3.407170 1.524691 0.003140 0.0
0.084652 0.106266 -0.001112 0.0
0.379437 1.847958 -0.000905 0.0
0.787979 0.092825 0.001279 0.0
2.377711 1.833527 0.004540 0.0
3.884729 0.220163 -0.005993 0.0
2.186785 0.990601 -0.002028 0.0
1.038925 0.057094 0.002722 0.0
4.096150 1.512473 -0.001636 0.0
1.989521 0.791425 0.003183 0.0
1.834100 0.592528 0.001267 0.0
0.189322 0.157757 0.002003 0.0
2.672569 0.492807 -0.002055 0.0
3.161640 1.370829 -0.000498 0.0
3.907196 0.572934 0.004120 0.0
1.398822 1.189504 0.006144 0.0
0.140270 0.298504 -0.000460 0.0
4.079737 1.575997 0.002498 0.0
3.501704 0.935453 -0.002335 0.0
3.834242 1.818708 0.002125 0.0
3.229186 1.693568 0.001624 0.0
1.157413 0.554931 0.000190 0.0
0.451654 1.157266 0.001253 0.0
2.114394 1.446639 -0.004390 0.0
0.646009 1.414449 -0.001250 0.0
1.950177 1.548866 0.000562 0.0
4.082411 0.671880 0.001459 0.0
1.520223 0.024844 0.001172 0.0
0.592376 0.578299 -0.001408 0.0
3.232427 0.555396 0.000007 0.0
2.497883 0.590800 -0.003653 0.0
3.200275 0.958135 0.001209 0.0
0.271384 0.298365 0.001005 0.0
1.937931 0.376375 0.000928 0.0
3.321437 1.830513 -0.000232 0.0
2.097705 1.860117 -0.007341 0.0
2.484642 0.884878 0.002648 0.0
3.702290 0.409068 -0.001442 0.0
1.926149 1.745473 -0.004690 0.0
0.863588 0.009712 -0.001016 0.0
0.535888 0.747949 0.000858 0.0
1.347737 1.042965 -0.002453 0.0
2.575723 1.109686 -0.001017 0.0
4.159611 0.561229 -0.002737 0.0
0.530813 1.287677 0.001049 0.0
1.892836 0.479305 -0.003908 0.0
2.732676 1.223026 0.001769 0.0
3.832954 0.353143 0.002502 0.0
0.188342 0.085131 -0.000234 0.0
1.057664 0.709267 0.001794 0.0
2.569644 1.610639 -0.000743 0.0
3.487544 0.817401 0.000715 0.0
0.456237 0.224089 -0.003710 0.0
0.282551 1.834694 0.004220 0.0
4.070571 0.934717 -0.003836 0.0
3.997768 0.919595 -0.001472 0.0
4.421709 0.259722 -0.000676 0.0
3.506559 1.786824 0.004741 0.0
3.825308 1.061157 -0.006273 0.0
1.774054 1.292157 -0.000330 0.0
1.859541 0.579794 0.001463 0.0
1.412899 0.475600 0.001360 0.0
1.647632 1.024852 -0.006932 0.0
4.328936 0.244872 0.000182 0.0
2.433179 0.160159 -0.000587 0.0
2.707373 1.381760 -0.003276 0.0
4.055493 1.338096 -0.002011 0.0
0.221799 1.038585 0.006103 0.0
0.260311 0.137561 0.000957 0.0
1.768765 0.637993 0.004405 0.0
2.199260 1.185801 0.001894 0.0
2.021843 1.376397 -0.001293 0.0
0.201651 0.315710 -0.002312 0.0
3.546907 1.096845 -0.001949 0.0
1.628435 1.468038 -0.002621 0.0
3.960084 1.428777 0.004150 0.0
1.061826 0.657482 -0.002152 0.0
1.673722 0.854949 -0.001185 0.0
4.461776 1.914757 0.003427 0.0
2.034832 1.032442 0.001621 0.0
1.960467 0.679297 -0.001109 0.0
4.227753 0.326953 0.001576 0.0
3.274506 1.612388 0.000889 0.0
0.659255 0.483544 -0.002794 0.0
3.163664 1.371738 0.001586 0.0
4.089453 0.756043 0.001512 0.0
0.914468 0.306584 -0.002518 0.0
2.627147 0.411692 -0.003143 0.0
0.474367 0.442753 -0.000494 0.0
3.893665 1.238347 0.000020 0.0
1.950016 0.554569 -0.001981 0.0
1.050586 1.828250 0.002224 0.0
3.682753 1.666608 -0.000245 0.0
1.916410 1.330524 0.001271 0.0
0.914751 0.123549 0.002047 0.0
4.341740 1.566471 0.002682 0.0
2.257903 0.794775 0.001271 0.0
2.837817 0.395558 0.000002 0.0
2.671685 0.815628 0.000884 0.0
0.329036 1.802663 0.000263 0.0
0.852583 0.062518 -0.000069 0.0
0.256470 1.524533 -0.001918 0.0
3.975327 1.611393 0.001028 0.0
1.104797 1.810165 -0.000947 0.0
2.234341 0.019775 0.000978 0.0
2.560607 0.201732 0.006593 0.0
2.381026 1.671015 0.002123 0.0
4.272427 0.144802 0.000936 0.0
1.779814 1.369572 0.002122 0.0
2.959093 0.653599 0.000248 0.0
0.759431 0.886408 0.001554 0.0
2.407169 1.776404 -0.001170 0.0
2.713971 0.128216 0.001953 0.0
2.847273 1.484470 -0.003528 0.0
0.263398 0.575410 -0.001519 0.0
4.326368 0.893813 -0.005224 0.0
4.584250 0.602973 0.001307 0.0
0.411530 0.086817 -0.001100 0.0
0.145799 1.689569 0.000703 0.0
4.136565 0.754727 -0.000291 0.0
1.467520 1.649928 -0.001003 0.0
3.314785 0.724660 0.003803 0.0
1.676473 1.555862 0.001144 0.0
0.006719 0.558585 -0.001503 0.0
3.640088 1.008137 0.003936 0.0
3.658747 0.411538 -0.002835 0.0
3.772840 1.868403 -0.000548 0.0
0.142172 0.933847 0.001827 0.0
3.721680 0.884678 -0.000396 0.0
0.470455 1.131688 -0.000424 0.0
0.043836 1.613885 0.000124 0.0
4.519612 1.214875 0.002616 0.0
1.486303 0.980184 -0.004088 0.0
1.586761 1.961600 0.000361 0.0
2.330824 0.135890 0.002797 0.0
2.507324 0.910986 0.000124 0.0
4.089294 1.703360 0.000225 0.0
3.372829 0.239757 -0.000988 0.0
2.206037 0.778001 0.001008 0.0
1.803253 1.046884 0.000012 0.0
1.645734 1.389047 0.002558 0.0
3.625908 1.283455 0.001186 0.0
3.661000 0.413629 0.000402 0.0
1.549880 1.716270 0.002050 0.0
1.909038 0.227716 0.000333 0.0
2.651063 1.591801 -0.003951 0.0
4.147629 0.317125 0.000312 0.0
4.231553 0.086516 -0.001772 0.0
3.334804 0.349207 0.001190 0.0
2.437204 0.327787 0.000082 0.0
2.893635 1.291241 -0.003485 0.0
0.944800 0.891863 -0.002753 0.0
1.975582 0.327757 0.000472 0.0
1.502007 1.938033 0.000891 0.0
0.458748 0.354080 -0.003235 0.0
4.170122 0.109723 0.001912 0.0
3.730986 0.195003 0.001548 0.0
2.153979 1.090018 -0.001307 0.0
0.642905 1.661068 -0.000239 0.0
4.053775 0.334602 -0.001218 0.0
1.567748 1.119782 -0.002653 0.0
0.076298 0.532045 0.000193 0.0
1.536648 0.285916 -0.005337 0.0
2.909582 1.758744 0.002332 0.0
1.251023 0.477222 -0.002306 0.0
3.979624 0.031789 -0.000099 0.0
4.332215 0.265544 -0.002558 0.0
1.050171 0.748626 0.001500 0.0
2.228584 0.899853 0.004979 0.0
2.895468 1.048495 -0.002467 0.0
2.102877 1.445552 0.000717 0.0
4.558233 0.783637 0.001171 0.0
2.890396 0.990299 -0.001274 0.0
1.393437 0.189989 -0.000589 0.0
4.618094 1.210282 0.000497 0.0
3.654433 1.080345 0.000599 0.0
1.599401 1.314895 0.003990 0.0
2.127118 0.640342 0.004611 0.0
1.364161 0.377980 -0.002609 0.0
0.642466 1.023940 -0.000893 0.0
0.380540 0.183922 -0.000309 0.0
1.191468 0.489301 0.001354 0.0
3.203749 1.341067 -0.001077 0.0
1.070809 0.172749 -0.002470 0.0
4.067316 1.819081 -0.000311 0.0
2.888999 0.674429 0.000008 0.0
0.168162 1.001700 0.003267 0.0
0.494044 0.663897 0.001671 0.0
3.751332 1.244571 -0.000078 0.0
3.914144 0.159743 -0.001340 0.0
0.405393 1.495105 -0.002712 0.0
0.737633 0.504586 -0.003064 0.0
4.124933 0.191509 0.000739 0.0
1.207074 1.530849 -0.002660 0.0
3.395652 0.237632 -0.002690 0.0
0.230479 1.188145 -0.000954 0.0
4.088410 1.218875 -0.002310 0.0
1.709487 0.212283 0.000895 0.0
2.270760 1.939331 -0.000976 0.0
0.534764 0.097496 -0.001057 0.0
0.604811 1.585754 -0.002859 0.0
2.827163 0.381689 -0.003293 0.0
1.214571 0.238356 -0.000370 0.0
4.589808 1.344363 0.004068 0.0
0.125630 1.650530 -0.000965 0.0
1.884293 1.118236 -0.000672 0.0
2.308160 0.240175 -0.002991 0.0
4.520617 1.028653 -0.001591 0.0
0.842919 1.570838 -0.004628 0.0
4.486611 1.635614 -0.004355 0.0
4.055970 1.858890 0.002919 0.0
0.796035 0.821135 0.001823 0.0
2.142750 1.814580 -0.000174 0.0
4.522604 0.940029 0.000450 0.0
4.360111 1.780069 0.001857 0.0
0.976457 1.140698 0.001526 0.0
3.724686 1.126677 0.002855 0.0
3.516124 0.262123 0.002757 0.0
0.350144 0.983028 -0.003544 0.0
3.392218 0.477437 -0.001242 0.0
1.317216 0.365828 -0.000182 0.0
3.241251 1.432786 -0.003205 0.0
2.579651 1.866061 0.002574 0.0
1.048098 0.536288 0.002019 0.0
0.323676 1.893451 -0.004312 0.0
3.117329 1.544842 -0.002488 0.0
3.334671 1.017125 -0.000018 0.0
0.265474 1.077109 0.001688 0.0
4.089475 1.851542 0.000731 0.0
3.091976 0.398220 -0.003901 0.0
4.408688 0.297937 -0.002480 0.0
0.789655 0.706169 0.002270 0.0
3.586485 0.406827 -0.001220 0.0
3.213776 1.757510 0.002941 0.0
1.132747 1.885099 -0.002389 0.0
1.382761 0.556162 -0.005949 0.0
3.717161 0.027011 -0.002421 0.0
0.471769 1.366646 -0.004519 0.0
2.369294 1.504176 -0.001553 0.0
4.078318 1.934750 0.002183 0.0
0.252121 1.175091 0.000011 0.0
1.841178 0.420167 -0.000985 0.0
2.414500 1.036004 -0.001947 0.0
2.480240 1.511048 -0.000846 0.0
3.333460 1.543020 -0.002192 0.0
1.289509 0.610179 0.000398 0.0
0.098537 0.982629 -0.000559 0.0
0.327325 1.092485 0.001634 0.0
2.615880 0.654326 0.000600 0.0
3.913159 1.459906 0.003049 0.0
0.036218 1.219929 -0.000135 0.0
0.700330 0.997385 -0.000194 0.0
0.463953 0.587937 -0.001308 0.0
4.033802 1.500307 0.003154 0.0
1.714675 0.353800 -0.005674 0.0
0.257878 0.766777 0.000822 0.0
1.221811 1.450273 0.000334 0.0
3.717382 1.238984 -0.000278 0.0
2.332048 0.087327 0.003572 0.0
0.229058 0.681614 0.000402 0.0
2.501536 1.801742 0.000310 0.0
4.316218 0.148318 0.000569 0.0
3.499032 0.430186 -0.002252 0.0
4.587753 1.938339 -0.002443 0.0
0.590813 1.362265 -0.000895 0.0
4.505183 1.173799 -0.000922 0.0
3.846952 0.933612 -0.000400 0.0
2.814907 1.048469 -0.002562 0.0
0.750875 1.046802 -0.001408 0.0
4.528343 1.412542 -0.001585 0.0
2.759750 0.712526 0.000211 0.0
0.483119 0.419956 -0.005271 0.0
4.210299 0.139009 0.005399 0.0
0.171853 0.241031 -0.000880 0.0
1.756829 1.522039 -0.000342 0.0
1.826278 -0.001546 0.016308 0.0
3.508524 -0.001418 0.092476 0.0
4.494944 -0.000040 0.001966 0.0
1.045187 0.000080 0.068968 0.0
3.169560 0.000974 0.062172 0.0
0.029638 0.001663 0.202641 0.0
1.393264 0.003996 0.170134 0.0
3.972387 0.003080 0.031486 0.0
0.825476 0.002002 0.088309 0.0
2.643189 0.001188 0.027754 0.0
2.619259 0.003667 0.058611 0.0
3.323360 0.005956 0.185872 0.0
4.012550 0.003912 0.142690 0.0
4.519903 0.006304 0.197729 0.0
3.245459 0.000102 0.046528 0.0
4.383697 0.001744 0.196599 0.0
2.191140 0.002487 0.142441 0.0
1.292484 0.002867 0.209011 0.0
0.800214 0.000583 0.020976 0.0
3.120906 -0.000229 0.116916 0.0
3.588954 0.004109 0.139695 0.0
