2.39152281 0.63418786 -0.00186036 0.00000000
4.45825269 0.63836290 -0.00173037 0.00000000
2.41599731 0.84896776 -0.00263180 0.00000000
1.78007068 0.47969366 -0.00343289 0.00000000
1.51137062 1.59322492 -0.00551964 0.00000000
1.00565884 1.62198733 0.00137974 0.00000000
0.93357560 0.71473503 -0.00145759 0.00000000
2.32727038 1.01632911 -0.00009219 0.00000000
0.49251429 1.11862651 0.00252651 0.00000000
1.09561018 1.81147790 -0.00009116 0.00000000
0.02696485 0.32007538 0.00039185 0.00000000
2.36276203 0.07108951 -0.00086517 0.00000000
3.67400755 0.86710280 0.00107898 0.00000000
2.73981672 0.31311760 0.00397608 0.00000000
0.71184157 0.23037367 0.00338894 0.00000000
0.13276829 0.27884721 0.00101630 0.00000000
2.35362006 1.47838036 -0.00375371 0.00000000
2.63549455 1.53887528 -0.00015414 0.00000000
3.60596584 1.33536333 0.00083357 0.00000000
3.24622412 1.15167354 0.00179748 0.00000000
2.71251265 0.20019785 -0.00062658 0.00000000
1.55550881 0.49689296 0.00267112 0.00000000
1.02019789 1.80873701 0.00201462 0.00000000
3.03036124 1.58369666 -0.00602280 0.00000000
3.64134624 0.92313115 0.00151770 0.00000000
3.82025200 0.34033128 0.00005019 0.00000000
3.23186854 1.63967378 -0.00103080 0.00000000
0.98031984 0.94033685 -0.00486689 0.00000000
4.28229717 1.21702574 0.00095056 0.00000000
3.49907262 1.31183846 0.00137248 0.00000000
0.75835639 0.75795668 0.00041943 0.00000000
0.16016226 1.04552889 -0.00063906 0.00000000
2.97967067 1.38847367 -0.00221105 0.00000000
4.02941999 1.11551088 -0.00283069 0.00000000
2.37069785 0.90617894 -0.00233883 0.00000000
4.42480009 1.29114349 0.00305313 0.00000000
0.51960710 1.52626675 0.00143149 0.00000000
0.27876840 1.08818103 -0.00178353 0.00000000
2.80718182 0.60584284 -0.00172519 0.00000000
3.28188105 1.42573601 -0.00196868 0.00000000
0.24425652 1.22912223 -0.00100667 0.00000000
2.63074139 0.61504368 -0.00320111 0.00000000
1.04588481 1.52566622 0.00202022 0.00000000
3.83433856 1.47912143 0.00291648 0.00000000
2.04282897 0.04910165 -0.00074485 0.00000000
3.41683716 1.47396901 -0.00148353 0.00000000
1.93674826 1.39179362 -0.00285189 0.00000000
3.35842674 0.18973686 -0.00191228 0.00000000
2.17906786 0.47192574 -0.00334360 0.00000000
3.08405913 0.23298378 0.00288562 0.00000000
2.74818657 0.75146316 0.00243203 0.00000000
0.97796762 1.85683952 0.00299879 0.00000000
4.19186025 0.66582440 0.00352093 0.00000000
0.63220438 0.28661491 0.00249802 0.00000000
1.30186077 0.94515523 -0.00176983 0.00000000
3.68967503 1.81060972 -0.00125795 0.00000000
2.84378584 0.80019378 0.00185671 0.00000000
0.37534556 0.06228824 0.00352633 0.00000000
3.46843141 1.33475536 0.00156323 0.00000000
0.11434501 0.84656530 0.00040405 0.00000000
1.00051690 1.36257127 0.00319573 0.00000000
2.93118145 1.31008288 0.00254501 0.00000000
3.62255571 0.62331387 -0.00316940 0.00000000
1.90005527 0.43376077 -0.00128132 0.00000000
3.10225621 1.53123519 0.00192207 0.00000000
3.07772955 0.97111396 -0.00094954 0.00000000
4.33954006 0.17094691 -0.00192971 0.00000000
3.89323848 1.52013504 -0.00110110 0.00000000
1.49304598 1.44804445 -0.00069306 0.00000000
3.06094478 1.49868643 0.00098985 0.00000000
1.77430122 0.19418113 -0.00063001 0.00000000
1.03846012 0.10477870 -0.00131342 0.00000000
1.87526147 0.84503754 -0.00412085 0.00000000
1.57185367 0.11444530 -0.00291284 0.00000000
2.31623609 0.28359477 -0.00239770 0.00000000
1.03203768 0.32829516 -0.00270691 0.00000000
0.63950419 1.52379733 0.00137427 0.00000000
3.97496684 0.60493741 -0.00323661 0.00000000
0.90016680 1.65259504 0.00133010 0.00000000
3.87934019 0.02313834 0.00011673 0.00000000
1.66239470 1.53593676 0.00090570 0.00000000
2.95169576 1.49929719 0.00184487 0.00000000
4.38306787 0.75918861 0.00033573 0.00000000
3.75885665 1.33439223 0.00117069 0.00000000
1.67292733 0.99792026 0.00185889 0.00000000
2.91292286 1.84545128 -0.00174633 0.00000000
3.30798501 0.99327284 0.00312132 0.00000000
1.67847946 1.35934721 -0.00154457 0.00000000
1.41683160 0.56475886 0.00170978 0.00000000
4.42132025 1.63791893 0.00093333 0.00000000
2.11057160 1.57052723 -0.00170966 0.00000000
4.38062631 0.92524318 0.00471010 0.00000000
3.64698345 0.73678059 -0.00111408 0.00000000
2.06797647 0.18209226 -0.00228347 0.00000000
4.33391987 1.57499191 -0.00315823 0.00000000
3.20574133 0.26251315 -0.00330327 0.00000000
3.09716185 1.57717627 0.00002895 0.00000000
1.50202066 1.63668275 -0.00134338 0.00000000
3.25696178 1.16680801 0.00233050 0.00000000
1.37299129 1.08245837 -0.00359677 0.00000000
2.69915425 0.72336457 -0.00058996 0.00000000
0.99192749 0.31688894 0.00107281 0.00000000
2.24752653 0.89555039 0.00198638 0.00000000
3.44044341 0.72860464 -0.00266940 0.00000000
0.89476653 1.81126668 -0.00012012 0.00000000
3.34534699 1.46689363 0.00055383 0.00000000
4.06063603 0.79091588 -0.00222600 0.00000000
0.27391201 1.73598194 -0.00232390 0.00000000
0.16498850 0.27038720 -0.00021484 0.00000000
4.40089080 0.86783581 0.00263407 0.00000000
3.62046318 1.17546634 -0.00134586 0.00000000
4.08470647 0.82283067 0.00075485 0.00000000
1.00462148 0.47963136 0.00306277 0.00000000
4.11929569 1.17558569 0.00068413 0.00000000
1.74221603 1.68837974 -0.00447493 0.00000000
3.16881337 0.55851294 -0.00122962 0.00000000
2.96580457 0.59335164 0.00201646 0.00000000
3.70251663 0.81307005 -0.00260323 0.00000000
0.74019285 1.02781502 -0.00199536 0.00000000
3.05953565 1.27606883 -0.00239384 0.00000000
3.45022559 0.27220448 0.00478776 0.00000000
4.17615542 0.16479102 0.00379230 0.00000000
1.04677381 1.22264884 0.00208674 0.00000000
2.17561995 1.04534971 0.00415713 0.00000000
0.53240440 0.35279339 0.00056603 0.00000000
0.68470842 0.87451168 0.00027566 0.00000000
3.23387297 0.86174301 0.00086537 0.00000000
0.23520109 0.91817909 -0.00015076 0.00000000
3.60134257 0.56531018 0.00059100 0.00000000
2.80787617 0.03876204 0.00770851 0.00000000
2.78723625 0.00654644 0.00171898 0.00000000
0.86948178 1.42724819 0.00015353 0.00000000
4.50132251 1.38557474 -0.00243295 0.00000000
0.94499886 1.21238863 0.00501687 0.00000000
3.28217124 0.55658390 0.00334748 0.00000000
2.65352587 1.11313329 0.00159361 0.00000000
1.92878031 1.28968436 0.00076295 0.00000000
1.78033308 1.03631413 0.00166632 0.00000000
3.26084519 1.73378577 0.00206927 0.00000000
0.52779610 1.31614913 -0.00476734 0.00000000
2.23654265 0.30351125 -0.00476024 0.00000000
3.19698121 1.21907233 0.00172851 0.00000000
0.76936596 1.03693754 -0.00122526 0.00000000
0.28126721 0.79463832 0.00065227 0.00000000
3.94611865 1.84820197 -0.00072111 0.00000000
0.56281796 1.42078084 0.00178849 0.00000000
2.10840922 0.00234314 -0.00194737 0.00000000
2.79601151 1.20259672 -0.00156892 0.00000000
0.99245961 0.60076335 -0.00754874 0.00000000
3.17526108 1.75733348 0.00293782 0.00000000
1.28641988 0.67585496 -0.00112047 0.00000000
1.55639926 0.77181461 -0.00161897 0.00000000
1.15059336 1.60525395 -0.00078656 0.00000000
2.37133021 0.92904824 0.00206788 0.00000000
2.35920707 1.03485387 0.00486321 0.00000000
3.78545522 0.96202685 -0.00054337 0.00000000
4.02426697 1.17821186 -0.00365226 0.00000000
2.41495364 1.24756715 -0.00149518 0.00000000
4.19673169 1.20852685 -0.00120118 0.00000000
1.73548595 1.34626481 0.00490146 0.00000000
3.93184595 0.46312543 -0.00042845 0.00000000
3.32775760 0.63758814 -0.00183823 0.00000000
0.46395364 1.73674429 -0.00040216 0.00000000
3.15905796 1.29073443 -0.00118060 0.00000000
0.97767825 1.49926894 -0.00203489 0.00000000
3.96796353 1.68875472 -0.00135217 0.00000000
3.09812446 1.49427437 0.00201820 0.00000000
2.10116598 0.60448557 -0.00160250 0.00000000
2.40892724 0.55297632 -0.00083878 0.00000000
3.20728393 0.05928465 0.00215802 0.00000000
0.53003349 0.85950638 -0.00178060 0.00000000
3.51928107 1.49961747 0.00020948 0.00000000
2.33995670 0.91623591 -0.00252870 0.00000000
0.10524083 0.67988827 0.00206852 0.00000000
0.75250946 0.91331029 -0.00220702 0.00000000
0.46825585 1.77088036 0.00166027 0.00000000
3.72391411 0.39256796 0.00350264 0.00000000
1.43010470 1.80357738 -0.00185530 0.00000000
1.49933538 1.17302185 -0.00149800 0.00000000
1.61990501 0.01934844 -0.00215209 0.00000000
3.73535214 1.48375993 0.00415506 0.00000000
3.41260056 0.66773735 -0.00030956 0.00000000
1.93865557 1.79668283 -0.00156569 0.00000000
3.06392485 1.76471097 -0.00038921 0.00000000
0.60414292 0.61394158 0.00063637 0.00000000
0.32838667 0.33080840 -0.00269426 0.00000000
2.09600435 1.21006509 -0.00131794 0.00000000
0.65278611 0.96253346 0.00344727 0.00000000
0.36036079 1.85357157 0.00106535 0.00000000
0.83873011 1.03545469 0.00268493 0.00000000
2.33681775 1.33187780 0.00028701 0.00000000
4.41450544 1.23875240 -0.00218228 0.00000000
0.03685545 1.47859191 -0.00104117 0.00000000
3.44199680 1.18948770 -0.00462075 0.00000000
1.69414724 1.44580701 0.00318964 0.00000000
0.81696333 0.58225825 -0.00262496 0.00000000
4.43524614 0.52101406 0.00150055 0.00000000
0.54612463 0.61796976 0.00275775 0.00000000
1.74888913 1.14168406 0.00028918 0.00000000
1.61322965 0.70197689 -0.00146513 0.00000000
0.14655960 0.20695656 -0.00055901 0.00000000
2.90331052 0.23338812 -0.00125821 0.00000000
2.73305405 0.94625291 0.00387974 0.00000000
2.00524573 0.88889320 0.00038760 0.00000000
3.59969002 0.79462167 -0.00162377 0.00000000
1.97136441 0.73993541 0.00199819 0.00000000
3.78140302 1.69471318 0.00011172 0.00000000
1.81639812 0.57384080 -0.00483965 0.00000000
2.43167699 1.31595439 0.00154739 0.00000000
2.42613226 0.76639292 -0.00568790 0.00000000
1.25562104 0.32260222 -0.00196107 0.00000000
3.43379159 1.41176454 0.00015904 0.00000000
0.23234695 1.12031434 0.00024119 0.00000000
2.19719935 1.25267273 -0.00000107 0.00000000
2.21696197 1.64816999 -0.00199945 0.00000000
1.07114142 1.55513855 0.00138369 0.00000000
0.22944614 1.33855654 -0.00644072 0.00000000
3.73700418 0.94417725 -0.00120117 0.00000000
4.02416497 0.82933267 -0.00158323 0.00000000
0.90030713 1.60500938 0.00541219 0.00000000
0.68357752 1.76742956 0.00059212 0.00000000
3.83567236 0.92889880 -0.00044481 0.00000000
4.16349183 0.92981318 -0.00171738 0.00000000
0.95299588 1.27511713 0.00118338 0.00000000
2.64717144 0.45676432 0.00182875 0.00000000
1.71028865 0.47047222 0.00234664 0.00000000
0.55000666 0.88148077 -0.00077068 0.00000000
1.92009378 1.77653510 -0.00267754 0.00000000
2.34204457 0.85900359 0.00247407 0.00000000
4.41408218 0.86933243 0.00057060 0.00000000
4.43915498 1.29906328 0.00217273 0.00000000
0.31032715 1.64391619 -0.00311980 0.00000000
2.03177700 0.39352090 0.00060491 0.00000000
3.74353505 0.15965211 -0.00348898 0.00000000
4.31857812 1.16968653 0.00237765 0.00000000
0.90595082 0.77039659 0.00092229 0.00000000
2.98449524 0.30452776 0.00370516 0.00000000
2.26694230 0.98931281 -0.00131984 0.00000000
4.03167497 0.36503510 0.00507045 0.00000000
0.73914062 0.64646770 -0.00085864 0.00000000
3.89928512 0.80590090 0.00264324 0.00000000
1.55934542 1.32209422 -0.00004637 0.00000000
3.36566121 1.45175898 -0.00324077 0.00000000
3.39143756 0.60258302 -0.00208720 0.00000000
0.82762045 1.22547291 -0.00117037 0.00000000
3.68954457 1.03879427 0.00521758 0.00000000
3.20578026 0.75450976 -0.00237086 0.00000000
2.40231451 1.53734282 -0.00034851 0.00000000
0.64016448 0.71702197 0.00005303 0.00000000
1.33715064 0.32987997 -0.00111854 0.00000000
3.99813077 0.99414922 -0.00153825 0.00000000
1.73419449 0.95923985 0.00298550 0.00000000
4.01533048 1.86214521 0.00157137 0.00000000
0.98202671 1.39233911 -0.00149620 0.00000000
3.10250842 0.51942072 0.00168599 0.00000000
0.05937210 0.06771829 0.00194959 0.00000000
4.12218326 0.80216374 -0.00145922 0.00000000
0.46514230 1.35625615 -0.00005751 0.00000000
2.99498260 1.51274831 -0.00064519 0.00000000
1.55374770 0.00698604 0.00062229 0.00000000
0.02508503 0.52686769 -0.00070077 0.00000000
2.76680714 1.70670454 -0.00152915 0.00000000
0.15845993 1.11822306 -0.00551474 0.00000000
2.11833645 0.17901024 -0.00396918 0.00000000
3.41298452 0.21699302 0.00393001 0.00000000
1.77615524 0.31323864 0.00194686 0.00000000
0.82640087 1.14452107 -0.00111334 0.00000000
3.50382914 1.40946911 -0.00223371 0.00000000
3.96131301 0.37791867 0.00260679 0.00000000
0.42485076 0.88359185 0.00090439 0.00000000
4.26552328 1.39046574 -0.00141162 0.00000000
3.10641217 1.77986602 0.00003973 0.00000000
2.74492168 0.46460266 0.00075856 0.00000000
3.27821089 0.23283802 -0.00296922 0.00000000
3.54242002 1.68972740 -0.00017529 0.00000000
1.51676573 1.72583182 -0.00112681 0.00000000
1.71023177 0.42500348 0.00014914 0.00000000
4.18351554 0.59306999 -0.00254727 0.00000000
2.68695680 0.89384816 -0.00290904 0.00000000
1.53687550 1.08344804 -0.00335181 0.00000000
1.58839811 0.08874882 0.00413496 0.00000000
3.66716926 1.16141813 0.00466251 0.00000000
1.93444717 0.37854727 0.00012338 0.00000000
2.79754914 1.67590860 0.00308798 0.00000000
2.57831320 0.01527629 0.00106024 0.00000000
1.35338880 0.46082302 0.00125063 0.00000000
1.00530311 0.45569535 -0.00096050 0.00000000
1.65657323 0.63169703 0.00154153 0.00000000
1.94197583 0.97942635 -0.00207173 0.00000000
1.68813880 1.10219661 -0.00252968 0.00000000
4.22638863 0.50956506 -0.00101917 0.00000000
2.36005652 0.21508146 -0.00120349 0.00000000
3.97491877 0.48763811 0.00000932 0.00000000
1.79014915 0.41951984 -0.00458674 0.00000000
0.00186404 1.30703547 0.00154666 0.00000000
3.87402756 1.21605492 -0.00050118 0.00000000
0.57166626 0.93434354 -0.00126808 0.00000000
2.22670812 1.48625706 0.00444937 0.00000000
4.20264310 0.33092151 -0.00230854 0.00000000
4.06661332 0.54943857 0.00282508 0.00000000
2.63692017 1.34032188 0.00011829 0.00000000
0.79856472 1.36379774 -0.00412765 0.00000000
0.87195345 0.11868348 0.00376747 0.00000000
0.06989611 0.04415932 -0.00125883 0.00000000
4.43108791 1.22117637 -0.00101015 0.00000000
0.62885658 1.77211181 0.00246657 0.00000000
0.66926345 1.71907217 0.00033030 0.00000000
2.08819703 0.96323865 0.00164173 0.00000000
0.69313268 0.52120294 -0.00183640 0.00000000
1.33776888 0.59360986 0.00268310 0.00000000
1.40962055 0.85018172 0.00207574 0.00000000
1.25534522 0.79911030 -0.00076897 0.00000000
1.93713874 1.86711503 -0.00091718 0.00000000
2.80227698 0.66306940 0.00140244 0.00000000
0.97774888 1.75609448 0.00134939 0.00000000
4.14047236 0.64877367 -0.00012999 0.00000000
2.29516356 1.35657454 -0.00209804 0.00000000
0.65847742 0.66176442 -0.00418978 0.00000000
3.40229447 1.46726953 -0.00056170 0.00000000
0.69919737 0.37242795 0.00246289 0.00000000
1.36370925 0.24379954 -0.00065293 0.00000000
1.12768557 0.50120897 -0.00295246 0.00000000
3.00972661 1.78779446 -0.00159018 0.00000000
2.74104115 0.95542329 0.00088337 0.00000000
3.05285784 1.68704739 -0.00166624 0.00000000
2.09106188 1.82826583 -0.00144786 0.00000000
0.90015533 0.65587473 -0.00227079 0.00000000
0.52042867 1.11704263 -0.00015877 0.00000000
0.77535313 1.28430471 -0.00153346 0.00000000
2.11387194 0.11902399 0.00283222 0.00000000
3.62903212 1.74653680 -0.00039577 0.00000000
2.15031138 1.81085660 0.00194808 0.00000000
3.33477794 0.53733461 0.00057918 0.00000000
4.04581759 1.73219889 0.00182522 0.00000000
2.45381171 0.38550766 -0.00104557 0.00000000
2.43293829 0.86497445 -0.00127070 0.00000000
2.93210683 1.60883967 -0.00151943 0.00000000
2.38560725 0.05000776 -0.00489978 0.00000000
1.92031241 1.86229901 -0.00259797 0.00000000
2.84040249 0.29565512 -0.00351824 0.00000000
2.30275166 0.36388197 -0.00114357 0.00000000
0.59844253 0.86993201 -0.00241028 0.00000000
1.58404387 1.80129966 0.00179096 0.00000000
0.64137731 1.63573862 -0.00156091 0.00000000
1.19083574 0.70077309 0.00019721 0.00000000
1.07334884 1.60692441 -0.00008533 0.00000000
0.08240993 1.16390737 -0.00059200 0.00000000
4.11592292 0.85078069 -0.00223512 0.00000000
0.49298884 0.92878083 0.00315431 0.00000000
2.75551360 1.68853856 -0.00239151 0.00000000
0.85598663 1.62052569 0.00410417 0.00000000
1.42046757 1.66692247 -0.00151672 0.00000000
4.18790875 0.83600665 -0.00038622 0.00000000
1.26057372 0.18238852 -0.00312721 0.00000000
2.91527553 0.18105338 -0.00227369 0.00000000
1.57726681 0.88162050 -0.00009101 0.00000000
0.86582584 0.12341501 -0.00066969 0.00000000
2.14188919 0.48771740 -0.00101840 0.00000000
2.85630193 0.76318289 -0.00357663 0.00000000
0.97319732 1.36435637 -0.00157788 0.00000000
2.44057597 0.61700617 0.00061952 0.00000000
2.09910152 0.71782006 -0.00016453 0.00000000
0.90049545 1.80430234 0.00046006 0.00000000
3.02202099 0.52540169 -0.00032636 0.00000000
0.86126384 0.74856740 -0.00443032 0.00000000
3.09230882 0.58566572 -0.00121410 0.00000000
0.93452455 1.51641043 0.00493211 0.00000000
0.36579950 0.86247084 -0.00134499 0.00000000
1.02875539 0.97966811 -0.00317027 0.00000000
2.71429897 0.48452078 0.00249316 0.00000000
0.41764138 0.37667934 -0.00206173 0.00000000
1.22712272 0.46212360 -0.00333464 0.00000000
1.31168301 1.29471449 -0.00119287 0.00000000
0.56684434 1.54452090 0.00043813 0.00000000
0.28141861 1.44153159 0.00501887 0.00000000
2.09555418 1.06759005 -0.00494949 0.00000000
0.85423910 1.16306463 0.00171061 0.00000000
3.66665934 0.68426635 0.00543797 0.00000000
1.57215750 0.87218968 0.00056522 0.00000000
2.75642575 0.35302430 -0.00034802 0.00000000
0.48827684 0.74595494 0.00234890 0.00000000
2.47082362 1.41648963 0.00356309 0.00000000
3.07537683 1.10151876 -0.00025878 0.00000000
3.65346356 1.25947801 -0.00004806 0.00000000
3.96838247 0.05759139 0.00095010 0.00000000
3.71290374 0.09191742 -0.00460688 0.00000000
2.21570708 1.52643547 0.00125671 0.00000000
0.43557730 0.87642242 0.00602205 0.00000000
2.99074765 0.97906565 0.00124572 0.00000000
4.50546183 1.04383600 0.00327402 0.00000000
3.66526475 0.57372207 0.00212316 0.00000000
3.34289200 0.51067416 -0.00188481 0.00000000
1.45555476 1.11230966 0.00256457 0.00000000
2.91565314 0.73982249 0.00184577 0.00000000
3.98600541 1.72547332 -0.00308640 0.00000000
4.02982888 1.37161886 -0.00209602 0.00000000
0.40268977 0.96785085 -0.00059394 0.00000000
3.49993282 1.25785566 0.00470523 0.00000000
3.51699686 1.28873953 -0.00063060 0.00000000
3.43941032 1.67121997 0.00592398 0.00000000
3.48435981 1.16251771 0.00250464 0.00000000
2.21230824 0.75252946 0.00128154 0.00000000
0.86327243 0.02479479 -0.00447522 0.00000000
4.00549818 0.89557672 0.00183937 0.00000000
3.72045338 1.29095375 0.00285108 0.00000000
1.33383123 0.17905459 -0.00088327 0.00000000
2.32185455 1.83555690 -0.00019283 0.00000000
0.09049137 1.32401624 0.00182432 0.00000000
3.36669949 1.21478682 0.00245586 0.00000000
0.90238235 0.76011037 0.00134469 0.00000000
4.06943580 0.20352514 -0.00199634 0.00000000
2.69850160 1.72764911 -0.00128979 0.00000000
2.26906743 1.23216461 0.00260360 0.00000000
0.06472907 1.70182685 0.00137275 0.00000000
4.06184864 0.46485763 0.00249475 0.00000000
2.56814490 0.74463302 0.00101614 0.00000000
0.76007671 1.20732758 0.00168886 0.00000000
0.02096611 1.48010218 -0.00022634 0.00000000
0.67707425 0.00083857 0.00104065 0.00000000
3.68732021 0.19600730 -0.00106972 0.00000000
1.61443637 0.60516520 -0.00213988 0.00000000
4.14433017 1.20848989 -0.00098701 0.00000000
3.02105538 0.61870385 -0.00007121 0.00000000
1.85433169 0.03490771 0.00038030 0.00000000
3.37462417 1.20671001 -0.00091352 0.00000000
4.11360104 1.76012695 -0.00183732 0.00000000
1.06871584 0.75107869 0.00165136 0.00000000
2.05601711 0.43039701 0.00057055 0.00000000
2.08759048 1.45341557 0.00149593 0.00000000
1.69123386 0.97568503 -0.00034723 0.00000000
3.30870820 0.85715748 -0.00093685 0.00000000
2.54588915 0.02863079 -0.00090553 0.00000000
0.28331779 1.11395501 -0.00058306 0.00000000
0.26512992 0.28943829 0.00185147 0.00000000
3.71060788 0.45935812 -0.00067737 0.00000000
2.87507239 0.75611866 0.00352015 0.00000000
2.97921716 0.07698978 -0.00016573 0.00000000
0.31513053 0.68650458 -0.00270693 0.00000000
1.04020492 1.86414429 0.00264268 0.00000000
1.40428864 1.66458421 -0.00493466 0.00000000
4.50202543 1.57663518 0.00527669 0.00000000
1.50324666 1.48580035 -0.00033943 0.00000000
1.72666777 0.46930062 -0.00071779 0.00000000
0.21442180 0.06393685 -0.00048574 0.00000000
2.17055246 1.66259461 0.00116082 0.00000000
1.76487497 0.19488186 0.00050996 0.00000000
2.70170605 1.34659080 0.00063724 0.00000000
3.09838166 0.42999927 -0.00016931 0.00000000
0.14713532 1.14129225 -0.00267472 0.00000000
1.97281031 0.45797169 0.00559325 0.00000000
3.29397197 0.49638942 0.00130730 0.00000000
2.42791789 1.75015906 0.00130488 0.00000000
1.20564201 1.80076742 -0.00108095 0.00000000
3.06803179 1.74665566 0.00114192 0.00000000
1.77200218 1.29163058 0.00473557 0.00000000
4.19880133 0.04977560 0.00125485 0.00000000
3.75552168 0.47101122 -0.00018355 0.00000000
1.88636706 0.20835736 -0.00300181 0.00000000
1.36970277 0.21312341 -0.00665996 0.00000000
3.77872391 1.83983772 -0.00289179 0.00000000
1.34074570 0.21387608 0.00811657 0.00000000
3.88982245 0.49303743 0.00261342 0.00000000
3.84533446 0.28853253 -0.00098062 0.00000000
2.85518381 0.42707803 -0.00042773 0.00000000
0.23909984 1.83123514 -0.00132724 0.00000000
0.56681060 1.34638465 -0.00203971 0.00000000
1.03751282 1.15796518 -0.00144319 0.00000000
1.40419222 1.85859794 -0.00343836 0.00000000
3.48238008 1.78611260 0.00027500 0.00000000
1.80791417 0.89448842 0.00075623 0.00000000
3.12078302 0.51935481 0.00557715 0.00000000
3.97300853 0.60520414 0.00395230 0.00000000
0.73119315 1.60115081 -0.00076294 0.00000000
2.34963235 1.61680372 0.00235911 0.00000000
0.82311532 1.15607701 -0.00078782 0.00000000
3.37314810 0.27154386 -0.00205409 0.00000000
4.22711360 0.58585087 -0.00202475 0.00000000
0.14536821 0.93509357 0.00220078 0.00000000
3.41869055 0.10857763 -0.00497189 0.00000000
2.11347835 0.31590485 0.00400932 0.00000000
1.71765751 1.43943282 -0.00040728 0.00000000
0.93239592 0.20215654 0.00047363 0.00000000
4.42581351 1.86959318 0.00423145 0.00000000
2.49768367 0.49042007 -0.00337695 0.00000000
0.00027954 0.12604643 0.00022050 0.00000000
2.75359611 0.29047595 0.00181336 0.00000000
3.88828910 0.88926102 -0.00311291 0.00000000
3.65164474 0.12161257 0.00243744 0.00000000
3.80040203 0.89713345 -0.00360543 0.00000000
3.93590975 1.18039504 -0.00052121 0.00000000
4.25368552 0.36510940 0.00117832 0.00000000
1.67623112 0.58910398 -0.00067264 0.00000000
0.48035552 1.77122767 -0.00188773 0.00000000
1.95217789 1.71752045 0.00229664 0.00000000
0.95330997 0.31105917 -0.00040130 0.00000000
0.43927073 1.57381879 0.00390255 0.00000000
1.62236888 0.27321542 -0.00098433 0.00000000
4.27427782 1.81371241 -0.00325528 0.00000000
1.08386115 1.14940623 -0.00066251 0.00000000
4.42592535 1.50373155 0.00356976 0.00000000
1.88179687 1.23655013 -0.00141844 0.00000000
0.96266028 1.03950053 0.00141834 0.00000000
0.18097225 0.21180001 0.00216478 0.00000000
0.55021555 0.09538282 -0.00250730 0.00000000
1.07915981 1.58275295 0.00254298 0.00000000
0.91349358 0.23530082 -0.00040587 0.00000000
1.52631305 1.10954466 -0.00014870 0.00000000
1.80955435 0.94837221 -0.00398464 0.00000000
1.24081758 0.01875674 0.00438353 0.00000000
3.06544085 1.54418415 0.00210087 0.00000000
0.20552682 1.50069248 0.00229786 0.00000000
2.62911750 0.48156884 -0.00011643 0.00000000
0.33421080 0.61281159 0.00015790 0.00000000
4.16570110 1.12497444 0.00474589 0.00000000
1.58597661 1.45071528 -0.00202194 0.00000000
2.54773849 0.89696160 0.00295902 0.00000000
1.37555452 0.99965581 -0.00380137 0.00000000
2.07661148 0.85758571 -0.00605249 0.00000000
3.20806988 0.55606970 0.00002911 0.00000000
0.81176301 0.68139211 0.00172419 0.00000000
2.10284654 1.35616248 -0.00442912 0.00000000
0.77381734 1.76675963 0.00057000 0.00000000
0.38943288 0.78060502 0.00506152 0.00000000
1.52139227 1.69032879 -0.00087472 0.00000000
1.53040847 1.46995753 -0.00133121 0.00000000
1.61644131 1.17881035 0.00197418 0.00000000
2.94635462 0.79471817 0.00303250 0.00000000
2.16870494 1.68295821 0.00104968 0.00000000
3.03105740 0.26204774 -0.00022713 0.00000000
2.51252641 1.31184283 -0.00328327 0.00000000
3.35796812 0.68001633 0.00191202 0.00000000
0.00832477 1.64593584 -0.00409380 0.00000000
4.18167634 1.34297394 -0.00318508 0.00000000
3.05190012 0.89896374 0.00282877 0.00000000
4.39647923 0.11209875 -0.00254510 0.00000000
2.70319417 1.86107514 0.00214331 0.00000000
3.63833969 1.15232146 -0.00168765 0.00000000
2.28051635 0.76160115 0.00088599 0.00000000
3.12862450 0.45898415 -0.00542638 0.00000000
2.70013849 1.73418460 0.00248871 0.00000000
2.32512262 0.92199073 0.00242258 0.00000000
0.39305942 1.55432970 -0.00023805 0.00000000
2.80550364 0.56556749 0.00087481 0.00000000
0.69880613 0.00555990 0.00145163 0.00000000
3.42663752 0.09922729 -0.00288052 0.00000000
1.45633576 1.51483229 0.00007787 0.00000000
2.04700131 1.45715442 0.00529062 0.00000000
2.42051423 1.49116358 -0.00318651 0.00000000
4.21502634 0.64369728 -0.00392002 0.00000000
2.73909673 1.50049214 0.00319286 0.00000000
1.42817627 1.19976508 -0.00130712 0.00000000
2.98886815 0.11736495 0.00253864 0.00000000
1.63658651 0.13904689 -0.00156913 0.00000000
3.67678479 0.68042882 -0.00196235 0.00000000
1.01488369 1.24661852 0.00267206 0.00000000
4.37171388 1.36188121 -0.00316920 0.00000000
4.00419350 0.61025541 0.00026298 0.00000000
0.21495620 1.67481406 -0.00079591 0.00000000
1.78624577 0.87809054 -0.00200814 0.00000000
1.11883843 0.90371610 -0.00191518 0.00000000
1.89874682 0.98612839 0.00152793 0.00000000
1.24655094 1.42604276 -0.00031245 0.00000000
0.98825139 0.44074521 -0.00104925 0.00000000
1.12264869 0.91913278 -0.00677912 0.00000000
2.48967532 1.65622965 -0.00249232 0.00000000
3.41985791 1.77033328 0.00322325 0.00000000
0.78880640 0.50341795 -0.00064422 0.00000000
3.37463477 1.67092792 -0.00115803 0.00000000
1.30263531 1.17657373 -0.00469008 0.00000000
3.48573054 0.61123908 -0.00263936 0.00000000
1.78145163 0.39401096 -0.00374702 0.00000000
2.77032963 1.49314338 -0.00099026 0.00000000
1.04718067 0.66389926 0.00140181 0.00000000
4.40709490 0.87533718 -0.00012557 0.00000000
2.38199457 0.62709102 0.00470741 0.00000000
4.28467377 1.74109461 -0.00007408 0.00000000
2.10128941 1.33542923 0.00031313 0.00000000
0.89491089 1.36384053 -0.00056039 0.00000000
0.00579793 1.71796620 0.00231010 0.00000000
1.40552035 1.77429725 -0.00328522 0.00000000
1.46508018 1.30054041 -0.00282351 0.00000000
1.90666608 1.83979243 0.00093795 0.00000000
2.88490059 0.44491113 0.00087340 0.00000000
2.93053783 0.33091202 -0.00496296 0.00000000
2.79964749 0.85284816 -0.00250505 0.00000000
1.90792515 0.59531293 -0.00053824 0.00000000
3.79018241 0.64121009 -0.00059940 0.00000000
1.02178426 0.17288799 0.00157718 0.00000000
4.43282834 1.14044067 0.00240447 0.00000000
2.85498330 1.04848470 0.00146645 0.00000000
1.33490948 1.82382929 0.00164162 0.00000000
3.31994274 1.67264414 -0.00037810 0.00000000
1.37999891 0.88278732 -0.00242407 0.00000000
0.35674415 1.22432879 -0.00009392 0.00000000
1.26862920 0.72810005 0.00405015 0.00000000
2.07213204 1.41708397 0.00135944 0.00000000
3.39405090 1.74801334 0.00172731 0.00000000
2.48926027 0.63503414 -0.00462883 0.00000000
1.20488261 0.76000905 0.00021311 0.00000000
1.48141994 0.38250419 0.00123272 0.00000000
0.22235407 1.84243119 -0.00178465 0.00000000
2.72365033 1.26664021 -0.00159745 0.00000000
3.85012384 1.85775781 -0.00025902 0.00000000
0.75602704 1.09636306 0.00136714 0.00000000
0.35342584 1.78777312 0.00145903 0.00000000
3.29587386 0.32053154 -0.00045000 0.00000000
0.44162257 0.60059712 -0.00330293 0.00000000
0.36525549 0.21139633 0.00167364 0.00000000
1.87954813 0.27369895 0.00292175 0.00000000
3.88395683 1.24385965 0.00168899 0.00000000
1.23123569 1.57701692 0.00407685 0.00000000
0.57540638 0.29148979 -0.00227942 0.00000000
3.35365061 1.15554539 0.00075970 0.00000000
0.18934040 1.14837060 -0.00164487 0.00000000
2.71203823 0.02582381 0.00305836 0.00000000
3.36459894 1.64957902 -0.00012280 0.00000000
3.63945502 1.46273790 0.00343761 0.00000000
2.69102681 0.02573451 0.00199033 0.00000000
2.27313280 0.89852129 0.00230708 0.00000000
2.06205375 0.57093816 0.00002781 0.00000000
3.14779038 0.13808658 -0.00062832 0.00000000
1.15392479 0.05841384 -0.00228472 0.00000000
4.44480291 0.40505722 0.00207875 0.00000000
3.15518568 0.21065192 -0.00013291 0.00000000
0.35684524 0.53606510 -0.00370598 0.00000000
4.32439392 0.63357566 0.00143197 0.00000000
0.99528690 1.55161832 0.00172280 0.00000000
4.42730432 0.23768959 -0.00194121 0.00000000
2.36292984 1.70465813 0.00148883 0.00000000
2.18343809 0.26555649 0.00227423 0.00000000
0.66135896 0.51676015 -0.00191680 0.00000000
4.27869167 0.74793229 0.00377609 0.00000000
1.35933147 0.53492515 -0.00083706 0.00000000
2.08437633 0.68185001 -0.00134823 0.00000000
3.33684964 0.08941309 -0.00099460 0.00000000
2.26299450 0.11313787 0.00010621 0.00000000
4.13567984 1.14156021 0.00272811 0.00000000
2.27760138 0.11499493 0.00161108 0.00000000
1.81685270 1.73290270 0.00070885 0.00000000
2.40654314 0.82128531 0.00246276 0.00000000
3.86746926 1.57440383 -0.00091713 0.00000000
0.98233359 1.07203110 0.00023713 0.00000000
3.54909832 0.31003331 0.00002979 0.00000000
0.12712867 1.21273840 -0.00305021 0.00000000
4.39481745 1.84582990 -0.00264136 0.00000000
2.50371291 1.60222776 -0.00011748 0.00000000
3.52401687 1.40672731 0.00184692 0.00000000
3.69282814 0.45620087 -0.00031482 0.00000000
0.11684416 1.60075522 -0.00251333 0.00000000
1.97048996 1.07779924 -0.00063983 0.00000000
0.40040675 1.20656377 -0.00015738 0.00000000
3.94096271 0.63691868 0.00591803 0.00000000
1.35035371 1.66726620 0.00180706 0.00000000
0.58681563 0.51655562 -0.00082190 0.00000000
1.68076551 1.64570929 0.00213657 0.00000000
0.76946623 0.90315398 0.00112900 0.00000000
2.04024720 1.26947179 -0.00074209 0.00000000
0.23745876 0.74357833 -0.00164124 0.00000000
1.35184148 0.61754341 -0.00295884 0.00000000
2.96647772 0.51311144 -0.00150503 0.00000000
3.68178276 0.29376835 -0.00350185 0.00000000
3.27381721 1.85520146 0.00198863 0.00000000
3.83461631 0.38160359 -0.00137953 0.00000000
0.94157439 1.67400143 -0.00085544 0.00000000
2.09974236 0.73284815 0.00271357 0.00000000
1.95658017 1.81363441 -0.00285987 0.00000000
1.35191503 0.45483558 -0.00184933 0.00000000
1.70749171 1.73974996 -0.00178132 0.00000000
0.34336398 1.28357254 -0.00027120 0.00000000
3.47696997 1.22951496 -0.00240624 0.00000000
3.55892254 1.38983704 -0.00347760 0.00000000
0.65542659 1.56756855 -0.00054357 0.00000000
0.09831519 0.01448382 -0.00246881 0.00000000
3.83829492 0.58529905 0.00284032 0.00000000
2.40065326 1.86612617 0.00082368 0.00000000
1.51505363 0.61986232 0.00165605 0.00000000
1.55265504 0.59726251 -0.00001331 0.00000000
3.75270973 1.77266272 0.00087227 0.00000000
1.37853458 1.12613102 0.00161977 0.00000000
1.21722990 1.25451451 0.00221607 0.00000000
0.29460406 0.69800772 -0.00470158 0.00000000
4.17797519 1.72601293 -0.00629758 0.00000000
3.04950703 1.41730157 0.00300445 0.00000000
2.52930331 1.43685363 0.00120642 0.00000000
1.46548561 0.17260251 -0.00424296 0.00000000
2.73613804 1.21104957 -0.00304032 0.00000000
0.59996321 0.82801056 0.00070396 0.00000000
0.09687047 1.38181506 0.00034195 0.00000000
0.28560122 1.09728748 0.00146115 0.00000000
0.79278707 0.05818389 0.00000025 0.00000000
0.64019383 0.45248543 -0.00295937 0.00000000
1.72155576 1.05459554 0.00069165 0.00000000
0.62373029 1.10810872 -0.00123318 0.00000000
0.08554568 1.30661805 0.00341394 0.00000000
1.90089930 1.28942414 0.00077796 0.00000000
1.60550233 1.01484543 -0.00045461 0.00000000
0.64881895 0.93501593 -0.00157304 0.00000000
0.76733294 0.40657412 0.00026703 0.00000000
2.54368450 1.65338125 0.00162993 0.00000000
2.11786377 0.32231870 -0.00247208 0.00000000
0.67353224 0.11806990 -0.00060143 0.00000000
3.06450630 1.11905202 -0.00302863 0.00000000
1.80123896 0.06357208 -0.00168977 0.00000000
1.28908853 1.58884406 -0.00048720 0.00000000
0.13682236 0.61305051 -0.00169737 0.00000000
2.76927198 0.26496901 0.00524087 0.00000000
0.59500644 0.78011946 0.00048739 0.00000000
1.99282673 0.34044221 -0.00139752 0.00000000
0.75851038 1.64466154 0.00233813 0.00000000
3.62167213 0.47527962 -0.00075699 0.00000000
0.31896263 1.24837851 -0.00133782 0.00000000
1.04936683 0.92628727 -0.00427272 0.00000000
2.95471154 1.35139955 -0.00276907 0.00000000
2.12023281 0.05412251 -0.00181260 0.00000000
2.47631137 0.55952030 -0.00285453 0.00000000
4.27759050 1.21152704 0.00258460 0.00000000
1.05217823 1.64077427 -0.00124004 0.00000000
1.73993600 0.76501270 0.00251627 0.00000000
0.76665426 0.37628457 0.00148084 0.00000000
2.61199570 0.00707922 -0.00164732 0.00000000
2.43859426 0.02205041 -0.00045774 0.00000000
3.41182395 0.15430436 0.00337144 0.00000000
2.96340226 1.56928120 -0.00071865 0.00000000
1.54402989 0.84584750 -0.00525903 0.00000000
2.49481123 0.46984056 -0.00019040 0.00000000
2.24666434 1.11418391 0.00205187 0.00000000
2.23887447 1.74849344 0.00133513 0.00000000
3.75188046 0.41169962 0.00053817 0.00000000
2.86686515 0.56045536 -0.00139758 0.00000000
3.19298747 0.12887326 0.00590689 0.00000000
2.17651525 0.88075595 -0.00206473 0.00000000
3.78104706 0.74733544 0.00091104 0.00000000
1.67912487 0.90714750 0.00128699 0.00000000
2.07255747 1.49628052 -0.00049767 0.00000000
1.22006529 0.18185898 0.00382778 0.00000000
0.06180704 0.50600219 -0.00191661 0.00000000
3.18884887 0.77009571 0.00083794 0.00000000
1.31077767 0.36996278 0.00203209 0.00000000
3.52223630 0.64813189 0.00030750 0.00000000
1.01162966 0.82766190 -0.00327463 0.00000000
4.01256952 1.29395325 0.00202902 0.00000000
2.88193095 0.62286320 -0.00034818 0.00000000
2.38803546 0.07751045 -0.00091142 0.00000000
2.99330072 0.77789594 0.00059035 0.00000000
1.15790117 1.45895623 0.00337632 0.00000000
0.26463228 0.16918005 0.00270786 0.00000000
4.48409451 0.36359233 0.00121993 0.00000000
0.25781053 0.57171149 -0.00136484 0.00000000
0.47370621 0.44135840 0.00056197 0.00000000
4.03797335 1.03930776 -0.00373342 0.00000000
0.68500310 0.17669331 0.00110571 0.00000000
2.45556245 1.09746652 0.00009299 0.00000000
0.15372791 0.10609810 -0.00055366 0.00000000
0.57439917 1.25711463 0.00084560 0.00000000
2.30975063 1.42337558 -0.00140572 0.00000000
1.36882877 0.60058494 -0.00119705 0.00000000
0.05410265 1.48718730 -0.00112630 0.00000000
3.81208421 1.60114524 -0.00360426 0.00000000
2.74418653 0.90712020 -0.00127177 0.00000000
0.42479433 1.45659218 -0.00157622 0.00000000
0.15388647 0.78543060 0.00095636 0.00000000
2.88272231 0.28866184 -0.00069410 0.00000000
4.21014006 0.75358559 -0.00012999 0.00000000
2.80108715 1.52537049 0.00097358 0.00000000
1.12573396 0.08390494 0.00396190 0.00000000
0.49454383 0.11956244 -0.00048651 0.00000000
1.44309466 0.63452116 -0.00059888 0.00000000
3.74566235 0.31446543 -0.00017316 0.00000000
1.83367515 1.52752258 0.00048767 0.00000000
2.70579286 0.19638028 -0.00207557 0.00000000
2.63945000 0.34460670 -0.00520281 0.00000000
2.57840928 1.16542514 0.00204347 0.00000000
0.73672766 0.64882263 0.00358704 0.00000000
0.05725787 1.02458196 -0.00268319 0.00000000
3.88578492 0.18639885 -0.00150160 0.00000000
2.29275883 0.66465240 0.00191100 0.00000000
2.02426406 0.54871871 -0.00173579 0.00000000
4.35451201 0.97986548 -0.00136302 0.00000000
0.41062194 1.28497163 0.00180847 0.00000000
1.80530983 0.91262004 -0.00037381 0.00000000
1.56859892 0.60706497 -0.00230362 0.00000000
3.61858058 1.68814924 -0.00215543 0.00000000
0.33123985 1.84679505 0.00217320 0.00000000
4.08859276 0.03597453 0.00156623 0.00000000
0.43657517 1.45922263 0.00070545 0.00000000
2.71108537 1.41841005 -0.00126006 0.00000000
1.28064561 0.73936662 -0.00450519 0.00000000
4.29589829 0.73759364 -0.00492675 0.00000000
2.26458887 0.88773978 0.00316486 0.00000000
4.36170180 1.46630580 0.00167222 0.00000000
4.07131917 0.23407175 -0.00071689 0.00000000
0.32430178 1.38849105 -0.00008935 0.00000000
0.13794356 1.50381287 -0.00071186 0.00000000
4.35046430 0.50671084 -0.00013079 0.00000000
3.36188179 0.18268849 -0.00112716 0.00000000
4.20558735 1.46121377 -0.00247936 0.00000000
1.13140590 1.50208621 0.00009437 0.00000000
1.63015677 0.69875678 0.00094353 0.00000000
2.92845820 1.87137063 0.00016533 0.00000000
4.42890547 1.01246051 -0.00323893 0.00000000
2.97996781 1.00978550 0.00294424 0.00000000
1.36691310 1.43387993 -0.00046033 0.00000000
0.21712079 1.06786695 0.00242312 0.00000000
3.30867763 1.85753801 0.00050290 0.00000000
0.81664473 0.02632244 0.00405220 0.00000000
1.05343711 0.19637846 -0.00209385 0.00000000
1.97008806 0.32275219 0.00038752 0.00000000
1.79328867 0.11276910 0.00382099 0.00000000
0.28220004 0.87186752 0.00238190 0.00000000
4.49105238 1.49935307 0.00026847 0.00000000
1.16839040 0.99221951 -0.00354387 0.00000000
2.55188630 0.86611152 -0.00257696 0.00000000
0.39872379 1.12384736 -0.00245186 0.00000000
3.10882846 1.23234040 -0.00022041 0.00000000
3.21069219 1.44943223 0.00000348 0.00000000
1.87183110 0.15926907 -0.00213432 0.00000000
3.14961276 0.93040283 -0.00396389 0.00000000
0.59552141 0.45621359 0.00012051 0.00000000
3.41673561 0.64738243 -0.00155356 0.00000000
2.52745436 1.18668302 -0.00417593 0.00000000
1.31314828 1.15495231 0.00226484 0.00000000
1.62461264 1.28613950 -0.00054542 0.00000000
1.88820903 0.02137708 0.00143453 0.00000000
3.89964658 0.84819535 0.00129101 0.00000000
3.80968554 0.03798967 -0.00497411 0.00000000
1.53124398 1.62754024 0.00202478 0.00000000
2.07017354 0.09808619 -0.00490247 0.00000000
1.45411696 1.46052663 0.00335436 0.00000000
1.22933482 0.52080413 0.00019606 0.00000000
0.20172528 0.49452516 -0.00702835 0.00000000
3.48484239 0.92298768 -0.00208455 0.00000000
2.78201588 1.06953761 -0.00558017 0.00000000
4.00928061 1.42309334 -0.00110558 0.00000000
0.66548990 1.42380242 0.00094812 0.00000000
1.59462450 1.06809568 0.00131624 0.00000000
2.41884469 0.29605546 0.00134242 0.00000000
3.90079048 1.00562323 -0.00064053 0.00000000
1.50086980 1.00304853 -0.00240621 0.00000000
2.25057510 1.33164922 -0.00075851 0.00000000
2.03249578 1.01606175 -0.00124426 0.00000000
2.87708526 1.85931136 -0.00399895 0.00000000
4.30071768 0.55768887 -0.00462062 0.00000000
0.78002999 1.02664424 -0.00421021 0.00000000
0.09063599 1.38278657 -0.00029561 0.00000000
2.01012890 1.46127310 0.00257675 0.00000000
2.71608766 1.47838392 -0.00056262 0.00000000
2.34441259 0.29356546 0.00324771 0.00000000
4.03203468 1.46133448 -0.00047394 0.00000000
1.38718699 0.97530164 0.00151490 0.00000000
1.97495264 1.34824289 -0.00312685 0.00000000
1.20547831 1.63338688 0.00426207 0.00000000
0.48806568 1.80828466 0.00471226 0.00000000
0.68775078 0.88218632 -0.00325916 0.00000000
0.11921461 0.68664941 -0.00002741 0.00000000
1.01477547 0.93169325 0.00074350 0.00000000
1.43235878 0.74179244 0.00035343 0.00000000
3.86810096 1.50914696 -0.00393044 0.00000000
2.39735558 1.72006562 0.00192558 0.00000000
1.12913090 0.64819934 -0.00374584 0.00000000
1.18966150 0.98920199 -0.00162311 0.00000000
0.87380353 0.75602559 -0.00087778 0.00000000
1.00148765 1.50480740 0.00266586 0.00000000
4.06823717 0.84839851 0.00232771 0.00000000
0.08869601 1.70312321 0.00156349 0.00000000
1.09065548 1.75432169 0.00195047 0.00000000
0.48536525 1.46308899 0.00586161 0.00000000
3.05753703 1.01860389 0.00142001 0.00000000
2.08985172 1.38207738 0.00336303 0.00000000
3.24472091 1.40351844 -0.00276992 0.00000000
1.16925305 0.10837523 0.00135375 0.00000000
2.68029871 1.52269908 0.00275196 0.00000000
1.21467149 1.65204397 0.00457025 0.00000000
0.71286317 0.37742746 -0.00107066 0.00000000
0.66802005 0.83785740 -0.00191205 0.00000000
4.22553305 1.20276208 0.00082212 0.00000000
2.09622057 0.45506343 0.00014320 0.00000000
3.18965865 1.79479912 0.00272984 0.00000000
4.20161488 1.70083634 -0.00032164 0.00000000
3.79512826 1.10773082 0.00350215 0.00000000
2.24676956 1.33960625 0.00083868 0.00000000
3.55388669 1.68065609 0.00336222 0.00000000
1.90199784 1.38923869 0.00019282 0.00000000
0.69313474 1.01924641 0.00005627 0.00000000
3.29942905 1.39377934 -0.00000321 0.00000000
3.24017639 1.13657229 -0.00204635 0.00000000
3.79258269 1.67698790 0.00116983 0.00000000
2.21260708 1.56243566 0.00388880 0.00000000
3.80048997 0.04018648 -0.00492640 0.00000000
3.71111341 1.18972147 -0.00000875 0.00000000
1.13441762 0.72129225 -0.00348004 0.00000000
3.65262086 1.77361865 -0.00055944 0.00000000
3.43164977 1.52848468 0.00104942 0.00000000
1.82759606 1.46001883 -0.00286259 0.00000000
2.63678449 0.05471465 -0.00575611 0.00000000
0.92305571 1.38085289 0.00319572 0.00000000
1.67777566 1.10898954 -0.00233923 0.00000000
2.10726106 1.73032297 -0.00029619 0.00000000
0.28922809 1.86509542 -0.00366420 0.00000000
0.54179696 0.68151377 -0.00220031 0.00000000
3.00921057 0.73607011 0.00181492 0.00000000
0.72489905 1.59846674 -0.00097141 0.00000000
2.98164765 0.19320788 0.00264614 0.00000000
1.49170082 1.63600687 -0.00263120 0.00000000
2.01585425 1.47982544 0.00272233 0.00000000
3.23161724 0.66536193 0.00220427 0.00000000
2.57798572 1.43978993 0.00431684 0.00000000
0.21962770 0.89471363 -0.00182828 0.00000000
4.47569084 1.77708488 0.00305609 0.00000000
1.73864492 0.72766896 -0.00416063 0.00000000
0.88100582 1.07170239 0.00265455 0.00000000
1.50115079 1.54184021 0.00298603 0.00000000
0.11823123 1.53742261 -0.00013369 0.00000000
2.46612346 0.69671319 0.00344775 0.00000000
1.28198775 1.66425301 0.00308912 0.00000000
0.48747655 0.76857685 0.00230063 0.00000000
2.93784562 0.58367541 0.00164784 0.00000000
1.69285965 1.78882566 0.00224845 0.00000000
3.50703628 0.76474273 0.00015298 0.00000000
0.87621546 0.23698354 0.00223920 0.00000000
0.10263029 1.17346587 0.00063618 0.00000000
3.53045133 0.34911572 -0.00055765 0.00000000
4.23963639 0.82570248 -0.00271201 0.00000000
2.00605495 1.31346820 -0.00088327 0.00000000
1.18325434 0.92432178 -0.00047685 0.00000000
1.33999747 1.27048267 0.00084455 0.00000000
0.71591304 0.38008937 -0.00066550 0.00000000
1.51821857 0.74249100 -0.00137834 0.00000000
3.04160299 0.30911252 -0.00135626 0.00000000
2.48473878 1.49620397 -0.00308768 0.00000000
0.18640643 0.88959160 -0.00398815 0.00000000
2.39117004 1.24422271 0.00026379 0.00000000
3.54769979 1.79771114 0.00221425 0.00000000
0.52082604 0.90134169 -0.00131931 0.00000000
4.05812327 1.67398450 0.00397254 0.00000000
1.63331878 1.48504158 0.00194316 0.00000000
3.10808686 1.42114893 -0.00185413 0.00000000
2.35630617 0.28945364 0.00051092 0.00000000
3.98244530 0.19865492 -0.00011931 0.00000000
2.40107932 0.13865205 0.00054232 0.00000000
3.45209107 1.49774576 -0.00243847 0.00000000
1.78345597 1.60937569 0.00139776 0.00000000
3.16739102 0.35916999 -0.00145253 0.00000000
2.59378851 1.10872975 0.00405616 0.00000000
3.87108550 0.07159470 -0.00219553 0.00000000
2.06582797 0.27917082 -0.00258552 0.00000000
2.56209846 1.25650997 0.00154694 0.00000000
0.24352948 0.75574180 0.00058840 0.00000000
1.50551383 0.14533362 0.00354053 0.00000000
4.49191982 1.73021014 0.00463584 0.00000000
4.31813956 1.40826630 -0.00007375 0.00000000
0.62207664 0.87235072 -0.00442518 0.00000000
0.86857773 1.07118786 -0.00043984 0.00000000
3.27588035 1.04897441 0.00157858 0.00000000
0.85386691 1.80321898 -0.00165166 0.00000000
3.58002122 0.41937818 0.00113385 0.00000000
2.75994299 1.10558138 0.00304774 0.00000000
1.23426781 0.61192280 -0.00029129 0.00000000
2.86153197 1.33616073 0.00130883 0.00000000
4.24092062 0.16284316 0.00191255 0.00000000
4.04885912 0.28931878 0.00290161 0.00000000
3.51083177 0.60087603 -0.00362736 0.00000000
1.46557626 1.30612320 0.00257581 0.00000000
1.42343278 0.38526869 0.00101556 0.00000000
2.73026157 0.03666448 -0.00078805 0.00000000
3.93851878 1.10516965 -0.00774889 0.00000000
0.73676514 0.88450081 -0.00070913 0.00000000
0.38940346 0.60998710 0.00152446 0.00000000
3.50656524 0.94961540 0.00131577 0.00000000
0.76706696 0.45883082 0.00299803 0.00000000
0.45438722 0.56453201 0.00191168 0.00000000
2.21535819 0.21722261 0.00024223 0.00000000
1.28880945 0.42436933 -0.00080453 0.00000000
0.45787783 1.06183490 -0.00196932 0.00000000
2.42138602 1.38791710 0.00107770 0.00000000
1.46689606 0.99368145 -0.00325217 0.00000000
3.62705142 0.38275659 -0.00295551 0.00000000
3.29788861 0.30657008 -0.00323247 0.00000000
2.61563120 0.05353966 -0.00260236 0.00000000
2.92984088 1.50415091 0.00050403 0.00000000
1.44478725 0.49256482 -0.00182298 0.00000000
4.47770095 0.38568268 -0.00222732 0.00000000
2.94223522 0.83325561 0.00035510 0.00000000
1.69025866 0.89039737 0.00176350 0.00000000
3.07868279 1.30689529 0.00158243 0.00000000
0.31901861 1.86929760 0.00491031 0.00000000
1.35931740 1.22027610 0.00272835 0.00000000
1.64125736 0.84608368 -0.00040237 0.00000000
3.19832950 1.68221611 0.00133502 0.00000000
2.54892988 1.04336172 0.00108489 0.00000000
4.09559844 0.87113555 -0.00352212 0.00000000
3.42564418 1.08634805 0.00075009 0.00000000
4.42293623 1.77065067 0.00108254 0.00000000
2.84289736 0.24398794 -0.00217273 0.00000000
3.53189127 0.20794320 0.00349462 0.00000000
4.34614611 1.23306377 0.00071960 0.00000000
0.28955762 0.11070774 0.00170856 0.00000000
3.85946207 1.33496126 0.00006775 0.00000000
3.89913972 0.35642928 0.00141247 0.00000000
1.08360760 0.90904370 0.00094529 0.00000000
2.82487075 0.45513362 0.00144672 0.00000000
1.62066833 0.93704883 -0.00259581 0.00000000
4.42488998 0.36918313 0.00190154 0.00000000
0.16207725 1.05960751 0.00112128 0.00000000
2.13386518 0.42767952 0.00380929 0.00000000
2.45044860 1.61814633 0.00303660 0.00000000
2.87437948 1.06974658 0.00355500 0.00000000
0.28345433 1.76979550 -0.00066668 0.00000000
2.88415911 0.66600110 0.00058306 0.00000000
3.57235476 0.52442003 0.00287058 0.00000000
1.69895595 1.35385110 -0.00171123 0.00000000
0.95236345 0.09718200 -0.00049054 0.00000000
2.78711888 1.64546674 0.00143228 0.00000000
3.50571810 1.24043929 -0.00336533 0.00000000
3.43349590 0.54140155 -0.00429258 0.00000000
1.28925922 1.54731501 -0.00049217 0.00000000
3.90505371 1.42132481 -0.00165149 0.00000000
1.48292017 0.50092117 -0.00048733 0.00000000
0.34755125 1.69928978 0.00052368 0.00000000
4.25209080 0.10231542 -0.00111174 0.00000000
0.50469734 0.71800207 0.00237266 0.00000000
3.67306478 1.34848871 0.00418345 0.00000000
3.06017474 1.21282926 -0.00062473 0.00000000
1.61106175 0.40676384 0.00247717 0.00000000
1.89130939 0.60393770 0.00068143 0.00000000
0.48856731 0.51022180 0.00100018 0.00000000
4.23130395 0.02263841 -0.00192978 0.00000000
0.08095761 0.59494926 0.00270828 0.00000000
0.97217277 0.06053913 0.00345786 0.00000000
3.16377053 0.97517643 0.00434319 0.00000000
0.75676424 1.59988721 -0.00088602 0.00000000
1.66744196 0.03946049 -0.00038982 0.00000000
2.94894153 0.45295352 0.00280609 0.00000000
1.57322832 0.19773497 -0.00135421 0.00000000
0.64549723 0.10329777 -0.00267593 0.00000000
2.69949286 0.84302910 0.00200126 0.00000000
2.27316931 1.65021732 -0.00097899 0.00000000
2.75349643 0.42845417 0.00375879 0.00000000
1.29920241 1.11945135 -0.00254933 0.00000000
0.37841838 1.20204286 0.00448030 0.00000000
1.66188387 1.83482270 -0.00459838 0.00000000
2.10715305 0.00885025 0.00137670 0.00000000
4.11003525 1.76488383 -0.00205953 0.00000000
4.29309173 0.33178763 -0.00319926 0.00000000
3.69572660 0.12550460 0.00056172 0.00000000
0.58530330 0.06172888 0.00219448 0.00000000
0.35951012 1.39063003 0.00291695 0.00000000
1.90558841 1.39362637 -0.00305645 0.00000000
2.65775211 0.27213691 -0.00056424 0.00000000
3.55284494 1.31553983 -0.00190592 0.00000000
1.51165819 0.12228216 0.00231215 0.00000000
2.58318479 1.10814557 -0.00132922 0.00000000
4.27232970 1.58798221 0.00551790 0.00000000
1.48374251 0.85324619 -0.00162632 0.00000000
3.70369257 1.07498976 0.00235996 0.00000000
3.74590014 0.07224686 -0.00036707 0.00000000
0.03029549 0.66946280 -0.00106997 0.00000000
0.84222657 1.04757472 0.00215289 0.00000000
0.72224850 0.62210321 -0.00171819 0.00000000
4.44380927 1.26367869 0.00490388 0.00000000
1.84182894 0.81748628 0.00096454 0.00000000
1.54277642 0.18470613 0.00201198 0.00000000
2.25658434 0.46576352 0.00001885 0.00000000
1.79234678 1.25440562 0.00095056 0.00000000
1.52586007 1.74773864 -0.00064945 0.00000000
1.85637626 0.04477530 0.00300902 0.00000000
2.75950759 1.25820610 -0.00313805 0.00000000
1.84393795 1.13337509 -0.00310174 0.00000000
4.47072800 0.81913298 0.00161667 0.00000000
3.01400207 1.67990107 -0.00124329 0.00000000
1.64521075 0.00644813 0.00114217 0.00000000
0.17262289 1.80238075 -0.00373023 0.00000000
3.23787400 1.17894562 -0.00144941 0.00000000
0.19297676 0.75976685 -0.00148888 0.00000000
0.31105150 1.26251400 0.00041515 0.00000000
1.95485410 0.59965731 -0.00099320 0.00000000
0.05850332 0.09411277 -0.00201828 0.00000000
4.33517660 1.51605032 -0.00166839 0.00000000
3.26507479 1.18715394 0.00384322 0.00000000
