0.183042 0.303764 0.002120 0.0
1.706462 0.665490 0.000581 0.0
1.174543 1.463070 -0.001262 0.0
2.069348 0.490712 -0.000925 0.0
4.117177 0.589076 0.002109 0.0
3.735163 0.226296 0.000761 0.0
0.695037 0.336268 0.001933 0.0
3.963448 1.577381 0.002703 0.0
2.403823 1.378268 0.002612 0.0
2.209553 0.382505 -0.000523 0.0
0.561138 1.236229 0.005422 0.0
3.797994 0.776234 0.003874 0.0
3.681870 1.198620 -0.000791 0.0
0.078574 1.201723 -0.000697 0.0
1.094453 0.086661 -0.002629 0.0
3.204445 0.576692 0.002793 0.0
2.884024 0.603043 0.000805 0.0
1.421278 1.538077 0.000168 0.0
2.034164 0.481778 -0.001192 0.0
0.377789 0.436548 -0.000333 0.0
1.026715 0.686860 -0.001041 0.0
1.950456 0.597503 0.005493 0.0
2.065341 0.474233 0.003845 0.0
1.964905 0.581058 0.000080 0.0
3.998956 1.534272 0.003507 0.0
2.798684 0.304451 0.006062 0.0
1.104536 1.459664 -0.002226 0.0
0.689680 0.840944 0.004993 0.0
3.540198 0.123575 0.000049 0.0
2.924096 1.340382 0.000950 0.0
3.548676 1.047713 -0.005028 0.0
4.310172 0.186437 0.001382 0.0
2.010968 0.710853 -0.000278 0.0
3.456041 1.581993 -0.000719 0.0
3.291527 1.651552 0.000051 0.0
1.922271 1.646509 0.001164 0.0
3.894554 0.546579 -0.001407 0.0
1.687730 0.498633 -0.001742 0.0
0.482698 1.056108 -0.002098 0.0
0.577284 0.063823 -0.003172 0.0
0.252767 0.462253 0.001837 0.0
1.583156 1.218733 -0.000087 0.0
4.044220 0.098001 0.000865 0.0
0.547891 0.366993 0.000958 0.0
1.335698 0.402583 0.001941 0.0
4.044335 0.793353 -0.001570 0.0
0.256626 0.086902 0.000786 0.0
2.655921 1.077606 -0.003117 0.0
1.364567 0.646662 -0.000061 0.0
1.739665 1.481247 0.000656 0.0
3.846388 0.380214 -0.003477 0.0
1.114399 0.805681 -0.001172 0.0
1.682104 0.722590 -0.002908 0.0
0.021177 0.616857 -0.003485 0.0
2.986799 0.593899 -0.000657 0.0
2.138888 1.601099 -0.001722 0.0
3.981097 1.214528 -0.001744 0.0
3.044386 1.443343 0.002430 0.0
1.578286 0.267855 -0.003111 0.0
2.088866 0.416703 0.000266 0.0
1.766925 1.319764 0.000723 0.0
1.217338 0.084208 0.002724 0.0
0.766803 0.641353 -0.004229 0.0
0.359298 1.108820 0.003542 0.0
3.778868 1.426841 0.001841 0.0
2.622885 0.641175 0.000676 0.0
1.793500 0.703391 0.000995 0.0
4.176159 0.299271 -0.002704 0.0
0.424724 0.450565 -0.000569 0.0
3.373520 0.278229 -0.004708 0.0
0.603241 0.293654 -0.001075 0.0
2.238818 0.500693 -0.002311 0.0
1.619337 1.708873 -0.001817 0.0
3.857427 1.374415 -0.001092 0.0
2.636003 1.777076 0.000444 0.0
2.602558 1.315263 0.000687 0.0
3.865086 0.849050 -0.002089 0.0
2.580277 0.182099 -0.000500 0.0
1.245918 0.967925 0.000536 0.0
0.852777 0.732755 -0.001161 0.0
3.822832 0.912123 -0.000093 0.0
2.799837 0.699888 -0.002157 0.0
3.831188 1.241439 0.003588 0.0
2.281710 0.523793 0.001725 0.0
3.049841 0.897591 0.000353 0.0
3.693170 1.437207 0.002038 0.0
1.895433 1.077864 -0.001234 0.0
3.327559 0.144656 -0.003788 0.0
0.398105 1.498812 0.001814 0.0
3.553400 0.535733 0.000383 0.0
2.705718 1.167486 -0.002302 0.0
4.268644 1.603034 0.002011 0.0
3.457892 0.698616 -0.001438 0.0
2.952834 0.612027 0.000432 0.0
0.944232 0.915891 -0.000313 0.0
2.285348 1.469332 -0.000089 0.0
0.750207 0.841901 -0.001230 0.0
1.085663 1.746680 -0.003480 0.0
2.137418 0.459923 0.001500 0.0
2.605419 1.769186 0.000338 0.0
3.808934 0.231784 0.000937 0.0
3.145562 1.159685 0.001503 0.0
0.462158 1.221955 -0.001178 0.0
2.407214 1.465298 -0.000045 0.0
0.252230 0.803268 0.000268 0.0
0.349163 1.136895 -0.006791 0.0
1.798562 0.526479 -0.001078 0.0
2.240167 1.411681 -0.001825 0.0
4.056546 1.567909 -0.000220 0.0
2.724987 0.367948 -0.003326 0.0
2.617804 1.435181 0.004063 0.0
1.109509 0.388770 -0.003540 0.0
3.801558 1.336141 -0.004409 0.0
1.752702 1.572458 0.002388 0.0
0.019968 1.610809 -0.004187 0.0
1.973214 0.377724 0.001410 0.0
0.184547 0.099964 -0.002506 0.0
0.786154 0.047882 -0.004718 0.0
2.252756 1.223273 0.000523 0.0
2.896629 0.063018 0.002657 0.0
3.290733 0.147700 0.001586 0.0
2.917970 1.380215 0.001816 0.0
2.708763 1.713651 0.000868 0.0
1.294865 1.326560 -0.000594 0.0
1.597006 1.519868 -0.001358 0.0
4.310585 0.051765 0.000673 0.0
1.242076 1.678174 0.001033 0.0
1.034406 1.498567 0.000180 0.0
1.179064 0.860457 -0.001633 0.0
3.457886 1.051288 -0.000272 0.0
1.849598 0.088850 -0.003161 0.0
3.366451 0.088937 0.000777 0.0
2.526489 1.002774 0.000219 0.0
0.864881 0.729322 0.006073 0.0
2.125259 0.868385 -0.005657 0.0
1.199237 0.682582 -0.000040 0.0
1.171178 1.414701 0.003921 0.0
3.525062 1.395569 0.001675 0.0
4.358751 1.092748 -0.002181 0.0
2.722801 1.548097 0.001905 0.0
4.103705 1.682771 0.000522 0.0
1.958769 1.417570 0.000868 0.0
3.149000 0.642899 -0.000188 0.0
3.815779 0.159487 0.000085 0.0
1.987824 0.445028 0.001575 0.0
4.358817 1.488007 0.004607 0.0
4.194646 0.060729 0.001592 0.0
2.043720 1.054124 -0.004262 0.0
3.217750 1.278879 0.002120 0.0
1.370377 0.440195 -0.001130 0.0
2.544057 0.054656 0.001776 0.0
2.123290 0.280425 -0.003526 0.0
2.264469 1.553644 -0.001323 0.0
1.321745 0.722986 -0.000694 0.0
2.109520 1.536579 -0.001334 0.0
2.177301 1.536710 0.003155 0.0
0.542076 0.365534 0.000862 0.0
4.360772 1.389944 -0.000798 0.0
0.335796 1.630430 -0.000168 0.0
4.080583 1.467289 -0.005211 0.0
1.285114 0.508258 0.001606 0.0
1.506978 1.125144 -0.000553 0.0
3.490282 0.673900 0.002717 0.0
2.197658 1.683424 0.001130 0.0
2.474165 0.875342 0.000873 0.0
2.787451 1.199369 0.000054 0.0
2.525598 0.058405 0.000858 0.0
0.431178 1.365633 0.001999 0.0
2.384705 1.613914 0.003602 0.0
4.172515 0.666255 0.000969 0.0
3.240643 1.784574 -0.004445 0.0
2.598929 0.917014 -0.002341 0.0
0.987718 1.121254 0.002252 0.0
2.303489 0.235298 -0.004681 0.0
1.255781 1.609257 0.002696 0.0
0.415912 0.429552 -0.001840 0.0
2.795554 0.366585 -0.001398 0.0
2.130278 1.450853 0.000564 0.0
1.248093 0.725818 -0.001347 0.0
3.511266 0.700958 0.003409 0.0
3.998948 1.172606 -0.001418 0.0
0.986911 0.016198 -0.002859 0.0
1.729027 0.964645 0.003577 0.0
2.799988 1.554746 0.000924 0.0
1.677052 0.522147 -0.000790 0.0
3.642706 1.322652 -0.000470 0.0
0.743070 0.997527 0.001818 0.0
3.913346 0.196976 0.002775 0.0
2.705267 0.359467 0.000022 0.0
3.110686 1.534299 -0.001537 0.0
2.523803 0.958185 0.001204 0.0
3.306285 0.264282 -0.002513 0.0
2.946667 0.706610 0.001235 0.0
1.018108 0.643139 -0.004225 0.0
1.301551 1.064930 -0.000841 0.0
2.049782 0.993455 -0.002360 0.0
0.472320 1.293547 -0.000061 0.0
0.362814 1.197959 0.000716 0.0
2.011569 1.387046 0.002727 0.0
0.830636 0.742497 -0.002489 0.0
3.648191 0.313357 -0.001548 0.0
0.459734 0.674837 -0.003371 0.0
2.755261 1.004325 0.000280 0.0
0.646364 0.753550 0.002985 0.0
0.055031 0.619543 -0.006310 0.0
0.258067 1.107766 0.002990 0.0
3.025307 1.440891 0.002617 0.0
4.131098 0.512901 -0.000834 0.0
1.392227 1.576092 0.000056 0.0
2.535914 1.136791 0.008267 0.0
0.709603 0.789262 0.003541 0.0
4.166315 1.209395 0.001783 0.0
3.003529 0.457174 -0.005015 0.0
3.673530 0.427033 0.002145 0.0
2.083384 1.407903 -0.001724 0.0
0.052013 1.700118 -0.003458 0.0
4.103420 0.387711 0.003003 0.0
0.146702 0.382754 0.003527 0.0
1.958584 0.513210 0.002117 0.0
2.709358 1.555175 0.003180 0.0
1.714610 1.401647 0.005761 0.0
1.729973 0.472894 0.001844 0.0
2.959714 1.400736 0.000482 0.0
2.730600 1.078492 0.002753 0.0
1.675727 0.753145 0.002633 0.0
0.665867 1.119034 -0.003220 0.0
4.334203 0.289581 -0.002240 0.0
3.272751 1.210025 -0.001866 0.0
0.992833 1.115450 -0.001990 0.0
0.201318 0.561577 -0.003179 0.0
2.925879 1.003180 0.003356 0.0
2.487982 1.352611 0.000747 0.0
2.950229 0.011237 -0.000488 0.0
3.610802 0.484206 0.001477 0.0
2.170434 0.035567 0.001429 0.0
2.566653 1.072764 -0.001950 0.0
0.877265 1.273912 -0.000155 0.0
1.435416 0.383021 -0.000789 0.0
1.775223 0.660791 0.001960 0.0
0.638594 1.766908 -0.003497 0.0
1.917199 1.479382 -0.006486 0.0
3.612764 1.599401 0.003999 0.0
0.072646 1.698286 -0.003064 0.0
2.654527 0.482177 -0.000191 0.0
0.228853 0.785089 0.000899 0.0
1.650370 0.544166 -0.000509 0.0
1.931428 1.357726 -0.000595 0.0
0.679581 1.348420 0.003644 0.0
1.361771 0.400897 0.001145 0.0
2.057625 0.844272 -0.002761 0.0
3.424020 1.190721 0.002638 0.0
2.096841 0.937083 0.000919 0.0
1.826787 1.710455 -0.003769 0.0
1.013724 1.447842 -0.000142 0.0
1.921951 0.299583 -0.002176 0.0
0.832879 0.308051 -0.002890 0.0
1.993810 0.911437 0.002037 0.0
2.750735 0.400790 -0.003939 0.0
0.351013 1.353442 0.000587 0.0
0.085737 1.136018 0.001137 0.0
2.498610 1.478925 0.000345 0.0
3.822579 1.166272 -0.001835 0.0
3.528214 0.054919 -0.002506 0.0
0.077574 1.467372 0.003774 0.0
0.002732 0.280360 -0.000490 0.0
1.743883 1.532447 -0.002625 0.0
2.492043 0.454851 0.000685 0.0
2.253574 1.310382 -0.000914 0.0
3.707587 0.373095 0.002618 0.0
2.923375 0.947982 -0.001681 0.0
3.202057 0.181804 -0.002658 0.0
1.771148 0.999698 0.001667 0.0
0.108421 0.222914 0.004448 0.0
0.729926 0.410001 0.001310 0.0
1.743824 1.275173 0.000594 0.0
2.302246 1.059923 -0.001800 0.0
1.432709 0.619260 -0.001692 0.0
1.035512 0.483146 0.001005 0.0
2.931111 1.394796 -0.005010 0.0
3.944228 0.575964 0.001685 0.0
3.423502 0.728784 -0.002044 0.0
1.115761 0.734022 -0.002064 0.0
1.081001 1.118527 -0.000395 0.0
2.023048 0.267056 0.000375 0.0
2.898106 1.171197 -0.004717 0.0
1.928943 1.166718 -0.000747 0.0
2.426300 0.949501 -0.005975 0.0
2.266652 1.393052 -0.002716 0.0
1.071211 0.594435 0.001811 0.0
3.233737 1.255140 -0.002728 0.0
2.970845 1.158547 -0.001128 0.0
3.357410 0.242923 0.000426 0.0
1.068040 1.076348 0.002557 0.0
0.301894 1.232324 0.000581 0.0
2.107408 1.408332 -0.001501 0.0
1.801071 0.813492 -0.002975 0.0
2.249165 1.098977 -0.003975 0.0
4.211084 0.505561 0.003453 0.0
3.169872 0.759732 -0.001360 0.0
0.531970 0.128146 0.004259 0.0
4.308546 0.190565 0.000832 0.0
0.545252 1.451719 -0.002877 0.0
1.194113 1.380734 -0.000431 0.0
2.831005 0.319286 0.001430 0.0
3.651077 0.208560 0.002137 0.0
1.677942 1.196295 0.000614 0.0
0.591466 0.791549 0.001246 0.0
3.558397 1.467467 -0.000988 0.0
3.356861 1.420782 0.007106 0.0
0.293604 0.597421 -0.000008 0.0
2.577998 0.909588 0.000390 0.0
3.122969 1.151798 -0.001534 0.0
3.310617 1.075193 -0.001838 0.0
2.242712 1.702189 -0.000779 0.0
4.187303 0.195451 -0.000647 0.0
3.377431 1.357583 -0.004170 0.0
3.494688 0.562989 -0.001235 0.0
1.584904 0.601346 -0.001057 0.0
2.982099 0.737137 -0.004000 0.0
3.179168 0.970311 0.000847 0.0
0.605898 1.039347 -0.002837 0.0
2.930465 1.276645 0.002669 0.0
3.893776 1.615794 -0.003173 0.0
3.767556 1.402934 -0.001135 0.0
0.569403 1.490529 0.006006 0.0
1.301697 0.493737 -0.004778 0.0
1.676722 0.362807 -0.000977 0.0
2.594558 0.709093 -0.000704 0.0
3.954569 0.690366 -0.000533 0.0
1.068582 1.103387 0.000478 0.0
3.578299 1.343042 -0.000283 0.0
0.873707 1.176051 -0.001601 0.0
2.203250 0.503230 0.000630 0.0
4.272682 1.135577 -0.001152 0.0
3.322005 0.623617 0.001066 0.0
0.800683 0.591116 -0.000026 0.0
0.613111 1.694830 0.004450 0.0
2.175426 1.678510 0.002771 0.0
0.184902 1.103266 -0.001813 0.0
1.020709 0.698004 -0.005988 0.0
4.329140 1.289376 -0.002821 0.0
0.049347 0.868498 -0.003431 0.0
1.217365 1.280963 -0.000511 0.0
0.353335 1.548161 0.002409 0.0
0.436600 0.015945 -0.000051 0.0
1.545022 1.323720 -0.006276 0.0
0.052920 1.351195 -0.001802 0.0
3.388143 0.921628 0.002346 0.0
2.341560 0.174279 -0.003523 0.0
4.079113 1.066196 -0.000130 0.0
3.661306 0.253159 0.002104 0.0
0.330975 0.140580 -0.002724 0.0
3.632554 1.270978 -0.001750 0.0
3.391449 1.114221 -0.000575 0.0
3.564940 0.633439 -0.001046 0.0
1.654129 1.556453 -0.003588 0.0
0.778475 1.435323 -0.001610 0.0
2.796414 0.017983 -0.003240 0.0
3.705345 0.021642 0.001711 0.0
3.207863 0.614839 0.000475 0.0
3.687137 0.094149 -0.001877 0.0
1.016310 0.151149 -0.004177 0.0
3.123130 0.878380 -0.002896 0.0
2.762535 0.065098 -0.001308 0.0
0.984759 1.706156 -0.001443 0.0
0.256830 0.309365 -0.000375 0.0
3.581497 0.786357 0.002486 0.0
2.882320 0.970412 0.004480 0.0
3.643201 1.686527 -0.000333 0.0
2.679995 1.522774 0.005168 0.0
4.139532 0.202764 0.000575 0.0
1.547295 0.338345 0.001819 0.0
1.375421 0.174663 0.002228 0.0
4.245225 0.059565 0.003733 0.0
3.121443 1.644652 0.002440 0.0
1.615051 1.706875 -0.001398 0.0
0.804614 1.704346 0.002165 0.0
1.055707 1.395791 -0.002830 0.0
3.168884 0.286842 -0.001177 0.0
4.142782 0.449647 -0.002344 0.0
1.941103 0.397483 0.003112 0.0
0.572585 1.473352 0.000116 0.0
3.539042 1.186096 0.000488 0.0
0.757518 0.496513 -0.001599 0.0
2.938570 1.100771 -0.003848 0.0
0.109756 1.293468 0.000220 0.0
3.070962 1.209985 0.000321 0.0
4.189906 0.711140 0.003325 0.0
4.019063 0.458181 -0.000648 0.0
0.754113 0.389046 0.001555 0.0
2.227958 0.620375 0.000986 0.0
2.158235 1.491656 0.000960 0.0
3.757390 1.303946 -0.002210 0.0
2.381024 1.071921 0.000014 0.0
3.201845 0.989810 -0.000950 0.0
2.300726 1.382010 -0.001509 0.0
4.220440 0.233029 -0.000101 0.0
3.362955 0.315009 -0.001188 0.0
3.978523 0.872874 -0.001040 0.0
4.287632 1.784052 -0.002206 0.0
2.210975 1.651109 -0.002400 0.0
1.773814 0.686461 0.002410 0.0
3.685606 0.977064 0.001549 0.0
0.317758 0.259902 -0.001477 0.0
0.760661 1.500735 -0.001049 0.0
1.808327 1.013760 0.001646 0.0
2.895350 1.199820 0.001960 0.0
0.707448 0.283200 -0.001755 0.0
4.185313 1.179375 -0.004015 0.0
4.110022 0.101630 -0.002166 0.0
0.197845 0.693609 -0.000814 0.0
1.532083 0.588836 0.000223 0.0
3.697959 0.474080 -0.001566 0.0
4.307806 0.408284 -0.000114 0.0
2.574296 0.413456 -0.003751 0.0
1.164239 0.918587 -0.001141 0.0
1.896008 0.166693 0.001825 0.0
2.164513 0.723978 0.003921 0.0
2.504541 0.791997 -0.002860 0.0
0.999247 0.165013 -0.002521 0.0
3.621304 0.596608 0.000941 0.0
2.923563 1.698929 -0.005134 0.0
3.822795 0.941093 -0.000013 0.0
2.094696 1.115613 0.000465 0.0
3.962982 0.096889 0.001140 0.0
3.669797 0.280669 0.003180 0.0
2.529015 0.476848 0.000791 0.0
1.741373 0.596852 -0.000669 0.0
2.956366 1.318789 -0.000458 0.0
3.229459 0.593248 0.003328 0.0
1.492327 0.897634 0.000768 0.0
0.478738 1.078042 -0.000520 0.0
4.168583 1.517847 0.000971 0.0
1.768483 0.437994 0.003054 0.0
2.500113 0.779188 -0.001197 0.0
4.375586 1.472658 -0.001977 0.0
0.390637 0.121005 0.001519 0.0
3.627557 0.245358 0.000707 0.0
4.353466 0.633446 0.003569 0.0
3.279330 0.901204 -0.003248 0.0
2.816543 0.859666 -0.002185 0.0
2.379661 0.616194 -0.003055 0.0
1.490100 -0.001872 0.003439 0.0
4.220300 0.583069 0.001453 0.0
2.378904 1.302434 0.002531 0.0
2.010614 1.538284 0.002526 0.0
3.740940 1.102235 -0.001969 0.0
3.318888 1.109686 0.002569 0.0
0.443544 1.788706 0.002426 0.0
3.255240 1.282791 -0.002091 0.0
4.205183 0.553465 -0.002692 0.0
1.415387 1.141259 -0.003113 0.0
3.700010 1.636931 0.003526 0.0
0.057784 0.859740 0.002200 0.0
2.230172 1.347711 0.002285 0.0
4.005728 1.671343 -0.002956 0.0
0.454205 0.084807 -0.004303 0.0
2.201603 0.147533 -0.000140 0.0
3.069912 1.768270 0.001132 0.0
0.553233 1.491647 0.004392 0.0
3.104299 1.395901 -0.000575 0.0
0.336085 1.016142 -0.000081 0.0
4.084974 0.009884 0.003209 0.0
0.150224 1.168943 0.000393 0.0
3.081990 1.163005 -0.000760 0.0
1.482822 0.744788 -0.003879 0.0
1.273211 0.940747 0.002677 0.0
1.084176 0.710247 -0.002986 0.0
1.794276 0.547242 0.001765 0.0
2.469225 1.182685 -0.000688 0.0
0.890154 0.687548 -0.000817 0.0
3.790963 0.113752 0.001134 0.0
0.674615 0.330769 0.004113 0.0
4.046864 0.769396 -0.000417 0.0
3.605464 0.808420 0.000432 0.0
0.523485 1.059813 0.001828 0.0
3.284438 1.152488 -0.001983 0.0
3.475142 1.483858 0.001481 0.0
2.219576 1.018275 -0.003656 0.0
0.864397 1.483746 0.001552 0.0
2.209210 1.138876 0.001042 0.0
0.120385 0.298413 -0.000724 0.0
4.327227 1.182515 -0.001620 0.0
4.271179 0.931914 -0.000665 0.0
1.853135 0.737864 -0.000441 0.0
0.593070 0.528219 0.001064 0.0
4.378338 0.384764 -0.003971 0.0
2.764228 0.295770 0.000276 0.0
0.889799 0.967173 -0.001227 0.0
0.736538 1.185101 0.001073 0.0
3.331985 0.100284 -0.000699 0.0
2.732881 0.696003 0.000448 0.0
3.555391 1.468245 0.003202 0.0
0.777945 0.548356 0.000613 0.0
0.294192 1.350395 -0.000299 0.0
4.013075 1.459940 0.000429 0.0
1.039314 0.867572 0.002672 0.0
4.206316 0.386561 0.001086 0.0
1.041468 0.234730 -0.001350 0.0
3.264963 0.186442 -0.001311 0.0
2.310017 1.075454 -0.001654 0.0
4.271263 1.028209 -0.003689 0.0
0.354909 1.089763 0.004390 0.0
3.833795 1.479124 -0.001715 0.0
0.447061 1.317353 -0.000909 0.0
0.751679 0.608269 0.000267 0.0
3.007815 0.020156 -0.001995 0.0
2.335144 0.081302 -0.002399 0.0
1.493590 0.592537 -0.003720 0.0
0.287443 1.344745 0.002755 0.0
0.679186 1.433710 -0.002118 0.0
1.780323 0.594531 -0.001002 0.0
4.126161 1.067205 0.004839 0.0
2.044133 1.771059 -0.001407 0.0
0.419117 0.047496 0.000843 0.0
2.645503 1.770271 0.001823 0.0
2.528894 0.128636 0.001705 0.0
0.060517 0.303574 -0.001083 0.0
3.442181 1.171949 0.002174 0.0
1.187586 0.897151 -0.002690 0.0
4.222387 0.822643 -0.002496 0.0
1.609974 0.307836 0.003352 0.0
2.765526 0.138988 0.001053 0.0
3.594090 1.623228 0.000741 0.0
0.658076 1.490128 -0.001722 0.0
3.952430 0.390968 -0.003557 0.0
2.953581 0.683585 0.000953 0.0
2.672745 1.410915 0.000569 0.0
1.527350 0.383433 -0.000899 0.0
2.499949 1.616527 -0.004509 0.0
0.049910 0.917401 0.000377 0.0
2.506556 0.534668 -0.004889 0.0
3.693973 1.216474 0.002585 0.0
3.212336 0.286706 0.001517 0.0
1.318959 0.691323 -0.002763 0.0
0.821577 0.964817 -0.002186 0.0
0.804287 0.557136 0.000538 0.0
3.137629 0.626993 0.002312 0.0
2.393499 0.614430 0.002836 0.0
3.061088 0.025578 -0.003363 0.0
3.733624 0.807737 0.002106 0.0
2.324295 0.331114 0.000618 0.0
0.936025 1.058208 0.002656 0.0
2.611886 0.735908 0.003666 0.0
2.819715 0.491117 -0.001593 0.0
0.525716 1.327161 0.000964 0.0
3.826918 0.809999 -0.002040 0.0
1.379242 1.009444 -0.001976 0.0
1.158479 1.534461 0.003014 0.0
4.097864 0.307007 0.002971 0.0
2.548760 0.825888 0.000511 0.0
2.485351 1.203968 -0.001299 0.0
1.789320 0.070455 0.004483 0.0
2.926993 0.769340 -0.002040 0.0
0.775697 0.165509 0.000498 0.0
3.527055 0.472500 -0.000936 0.0
0.573956 1.783962 -0.001230 0.0
1.796088 1.368653 0.001332 0.0
2.874262 0.552165 0.000744 0.0
0.277319 1.515923 -0.003986 0.0
3.116481 1.265001 -0.001319 0.0
3.435971 0.431067 -0.000297 0.0
1.744009 0.517735 -0.000622 0.0
3.168763 1.031393 -0.001834 0.0
3.045749 0.019807 -0.001224 0.0
1.252301 1.037328 0.005948 0.0
3.439386 0.246315 -0.001193 0.0
3.022020 0.041620 0.002719 0.0
1.443283 0.337128 0.000247 0.0
3.183646 1.211795 0.000736 0.0
1.042747 1.082814 0.004922 0.0
0.732483 0.693867 0.000100 0.0
2.839844 0.911248 0.002088 0.0
2.358038 1.105466 -0.002720 0.0
0.698122 0.834602 -0.002458 0.0
2.456419 1.294964 -0.006327 0.0
0.308939 1.715823 0.006015 0.0
3.406247 1.496819 -0.001566 0.0
2.573723 0.623715 -0.000540 0.0
2.617218 1.167119 -0.002003 0.0
4.356878 0.890846 -0.003539 0.0
3.101636 0.091610 0.002341 0.0
3.654874 0.956258 0.001023 0.0
3.174213 1.325412 0.000613 0.0
2.697053 0.097844 0.002295 0.0
1.890985 0.298138 0.000619 0.0
1.482771 0.143652 0.000415 0.0
2.321509 1.014860 0.000199 0.0
1.053221 1.648202 -0.002008 0.0
3.253885 0.109788 0.003382 0.0
2.501819 1.536071 -0.004681 0.0
4.154943 1.401262 -0.001410 0.0
0.670347 0.846352 0.002194 0.0
3.352817 1.213678 0.001538 0.0
2.894322 0.338160 -0.000502 0.0
1.859866 1.391802 0.000646 0.0
0.581560 0.544072 -0.003547 0.0
0.174000 0.128210 0.000081 0.0
0.517902 0.491373 0.002445 0.0
0.493218 0.881387 -0.001782 0.0
4.086672 0.806235 0.001106 0.0
1.833655 0.243487 -0.005360 0.0
3.086488 0.692243 -0.000157 0.0
0.578614 1.233190 -0.001718 0.0
3.551152 1.069641 0.002941 0.0
2.483885 0.123761 0.001495 0.0
3.507111 1.535141 -0.002655 0.0
0.044635 0.683675 0.006587 0.0
1.012826 0.836300 0.000447 0.0
4.138561 0.640570 0.000512 0.0
1.676071 1.675532 -0.003237 0.0
3.434285 1.593645 -0.005343 0.0
1.521640 0.291797 0.001166 0.0
1.986006 1.109397 0.002519 0.0
2.103060 0.542582 0.002327 0.0
2.630415 1.001371 -0.001768 0.0
3.808320 0.182544 0.002624 0.0
0.366773 0.112819 0.004394 0.0
1.731279 1.284577 -0.002889 0.0
1.062682 1.644356 0.003083 0.0
4.361758 0.891951 -0.002247 0.0
0.597286 1.745193 -0.001484 0.0
3.597370 0.764337 -0.003552 0.0
0.230990 1.388354 -0.001134 0.0
0.076726 1.474449 0.000377 0.0
1.053391 0.389647 0.004378 0.0
1.675863 1.592705 0.002847 0.0
1.970126 1.204095 0.004478 0.0
2.942399 0.393536 0.001937 0.0
3.146545 0.991131 0.003712 0.0
3.028651 0.072147 0.001585 0.0
3.990868 1.021280 -0.003529 0.0
0.500443 1.052670 -0.003656 0.0
0.886672 0.525825 0.002580 0.0
0.187787 0.262344 0.002969 0.0
1.816032 1.187423 0.000434 0.0
3.174776 0.183221 -0.001353 0.0
1.535748 0.010394 -0.004069 0.0
1.355624 0.081418 0.000100 0.0
2.628280 0.198350 0.001640 0.0
3.505395 1.287850 -0.001034 0.0
3.039568 1.353780 -0.004740 0.0
1.248860 1.719473 -0.003091 0.0
2.127525 0.213010 0.000498 0.0
3.620319 0.387623 -0.002011 0.0
1.240959 0.001695 -0.000798 0.0
0.528808 1.363963 0.000032 0.0
3.427155 1.084665 0.000772 0.0
3.122254 0.234649 0.002288 0.0
1.404274 1.385426 -0.001207 0.0
2.018331 0.147161 0.000698 0.0
0.735531 0.777261 0.000012 0.0
3.190813 0.671161 0.000316 0.0
1.076009 0.520158 0.000686 0.0
3.604424 1.238396 0.007255 0.0
2.544296 0.137386 -0.000725 0.0
3.230963 0.021655 -0.001358 0.0
4.087793 1.025782 -0.000075 0.0
4.274528 0.406239 0.000121 0.0
1.214103 0.709072 0.001368 0.0
2.298691 1.634702 -0.000624 0.0
1.280371 1.431670 -0.001600 0.0
0.151484 0.907051 0.000574 0.0
1.529104 0.135267 -0.000973 0.0
1.818661 1.719333 0.001657 0.0
1.929066 1.321164 0.001910 0.0
1.643571 0.020396 -0.001529 0.0
1.768284 0.975872 0.001011 0.0
3.740261 0.298833 0.001587 0.0
0.378919 0.107494 0.002356 0.0
3.959060 0.398668 0.000672 0.0
0.753423 0.334342 -0.000783 0.0
4.232166 1.119138 -0.000205 0.0
1.200913 0.948260 -0.001010 0.0
0.459882 0.780472 0.003507 0.0
4.177801 1.345760 -0.000957 0.0
3.496742 0.492810 0.002832 0.0
4.262356 0.656043 0.000796 0.0
4.121541 0.670520 -0.004784 0.0
3.472943 1.516601 0.000578 0.0
2.647290 1.370202 0.002850 0.0
0.373508 0.915511 0.000029 0.0
2.022035 1.642177 -0.000417 0.0
3.393176 0.257100 -0.001675 0.0
3.765384 1.206090 -0.000246 0.0
1.209801 0.356016 -0.002283 0.0
2.985686 0.410922 -0.003378 0.0
1.104072 0.056809 0.003843 0.0
3.402698 1.074583 -0.003858 0.0
2.208467 1.747112 0.000913 0.0
0.002514 0.376162 0.003424 0.0
2.932337 1.404759 -0.002385 0.0
2.275961 1.088105 -0.002561 0.0
1.563623 0.864819 -0.001553 0.0
2.518270 0.604228 -0.003096 0.0
3.830309 0.286628 -0.000285 0.0
4.055219 0.945416 -0.001493 0.0
2.847113 0.831747 0.002906 0.0
0.443009 0.911320 -0.003157 0.0
3.617252 1.428405 0.001204 0.0
0.386844 0.954634 0.000375 0.0
0.684882 1.127264 0.004452 0.0
1.094611 0.143039 0.001003 0.0
3.696084 1.023839 0.001646 0.0
0.402168 0.536996 0.003292 0.0
4.094671 1.442037 0.002466 0.0
2.612492 1.753303 0.003141 0.0
4.120649 1.348053 -0.000329 0.0
1.364153 1.242183 0.001552 0.0
2.354081 1.337730 -0.000632 0.0
3.015352 0.752415 -0.004191 0.0
3.977508 1.686902 0.001315 0.0
1.933378 0.069719 -0.000068 0.0
1.226321 1.782935 0.005060 0.0
4.380657 1.419011 -0.001097 0.0
3.374501 0.900186 0.002356 0.0
1.641414 0.483280 -0.000867 0.0
1.791447 0.219412 -0.003464 0.0
0.273315 0.878863 -0.000723 0.0
3.776249 1.284960 -0.002930 0.0
1.733579 1.724051 0.002339 0.0
2.043566 1.160135 0.001262 0.0
3.125932 0.265486 0.001194 0.0
1.399774 0.531837 0.001081 0.0
1.121920 1.171883 -0.001183 0.0
3.382632 0.174721 0.001170 0.0
3.774928 0.261264 0.004846 0.0
0.478555 0.400455 -0.001292 0.0
2.389216 1.184184 0.001558 0.0
0.003184 0.434400 0.003176 0.0
1.786352 1.067837 -0.004583 0.0
0.308474 0.067559 -0.001784 0.0
0.358074 0.514933 0.001390 0.0
3.328847 0.038880 -0.000333 0.0
2.942626 0.530177 -0.001428 0.0
3.331585 1.312694 -0.007087 0.0
2.477607 1.711884 0.002048 0.0
2.427482 0.638291 -0.000462 0.0
1.429563 1.764546 0.000670 0.0
1.616525 0.663002 0.001483 0.0
4.212728 0.227267 0.001246 0.0
3.206575 1.375210 0.000768 0.0
1.395822 0.864762 0.001924 0.0
2.777439 1.153480 0.001932 0.0
1.432560 1.068430 0.002858 0.0
1.675062 1.726136 -0.000427 0.0
1.377813 1.433243 -0.003075 0.0
0.296951 0.632872 -0.000656 0.0
2.565846 1.259363 -0.000305 0.0
3.589283 1.493650 0.000628 0.0
3.671961 0.133429 -0.005139 0.0
2.300325 0.795692 -0.000503 0.0
0.028225 1.384278 -0.000921 0.0
0.558747 1.264094 -0.005006 0.0
3.928771 1.117394 -0.001093 0.0
3.747166 1.508422 -0.000851 0.0
2.303947 1.682317 0.000300 0.0
0.027329 1.400710 -0.000354 0.0
1.435949 0.240771 0.001720 0.0
0.932742 0.675486 -0.001550 0.0
2.764106 0.688160 0.002718 0.0
4.106677 0.717867 -0.002083 0.0
2.368094 0.320780 0.000142 0.0
3.615895 0.088173 0.002593 0.0
3.277732 0.045795 0.002429 0.0
3.993027 0.158311 -0.003181 0.0
2.406365 0.448036 -0.004803 0.0
2.525153 1.459256 0.000390 0.0
1.159172 0.222475 0.001884 0.0
0.281249 0.688093 0.000373 0.0
0.254173 0.004821 0.003043 0.0
2.533489 0.388689 0.003246 0.0
1.204651 1.557214 0.002600 0.0
1.812686 1.062702 0.001671 0.0
2.178022 1.067887 -0.001491 0.0
0.850848 1.527796 -0.002391 0.0
3.439808 1.417591 0.000622 0.0
2.924932 1.557685 0.003580 0.0
0.964299 0.526316 0.000920 0.0
1.739890 0.191896 0.002164 0.0
4.009139 1.744912 -0.002966 0.0
3.610053 0.638198 -0.002814 0.0
3.546849 0.517999 -0.002223 0.0
1.952093 0.512857 -0.000568 0.0
0.334984 0.182932 0.001888 0.0
0.365023 0.031111 0.000148 0.0
4.005103 1.685187 0.001236 0.0
1.458295 1.727680 -0.001816 0.0
2.853779 0.062067 -0.001621 0.0
1.654092 1.580823 0.004241 0.0
1.857377 0.940840 -0.004381 0.0
3.737249 1.679008 0.000270 0.0
2.626412 1.752494 0.001027 0.0
0.451263 0.452050 -0.000998 0.0
0.471373 0.902782 -0.001465 0.0
0.050307 0.226141 0.007692 0.0
0.508166 0.881268 -0.005421 0.0
1.358450 0.225910 0.000571 0.0
2.320332 0.170418 -0.000176 0.0
2.390285 0.699402 -0.004686 0.0
1.745064 0.981974 0.002513 0.0
2.630867 0.612325 -0.002363 0.0
0.794456 0.978395 -0.002413 0.0
2.436562 1.596242 -0.000704 0.0
1.310463 0.652075 -0.002002 0.0
2.849961 1.611870 0.004652 0.0
2.375373 0.627242 -0.002912 0.0
0.384038 1.610828 -0.000186 0.0
1.273297 1.097393 0.000143 0.0
2.119893 0.576665 0.002521 0.0
1.943156 1.127332 -0.000122 0.0
4.284216 0.747495 -0.004334 0.0
3.032883 0.331131 0.000051 0.0
1.877434 1.153350 0.000131 0.0
2.067685 0.128891 0.001203 0.0
2.655992 1.520332 0.002427 0.0
0.217129 0.395519 0.003635 0.0
0.766422 0.983789 0.000697 0.0
1.312562 1.633193 -0.004098 0.0
3.185662 0.369474 0.002838 0.0
3.498806 0.509702 -0.003290 0.0
2.983277 1.396723 0.000653 0.0
2.798717 0.739009 0.001258 0.0
3.883549 0.630696 0.000589 0.0
1.273923 1.076805 0.000537 0.0
3.624067 0.301436 -0.000590 0.0
2.711793 1.649840 0.003481 0.0
1.538288 1.150765 0.001192 0.0
0.599862 0.324608 -0.003133 0.0
1.237661 1.350860 -0.001778 0.0
1.485359 1.632907 0.007166 0.0
1.456597 0.145548 0.001989 0.0
2.185724 0.883946 -0.002512 0.0
2.356241 0.102260 0.000678 0.0
0.166589 1.616374 0.001466 0.0
2.776037 1.488837 0.005447 0.0
0.802907 1.355326 0.000285 0.0
1.106251 0.820892 -0.002604 0.0
0.765719 1.005393 -0.001952 0.0
2.186281 0.272695 0.000491 0.0
4.130329 0.845203 0.000497 0.0
0.039599 1.111849 -0.001382 0.0
1.194495 0.929715 -0.003654 0.0
3.215784 0.244013 -0.002483 0.0
0.994542 0.932714 -0.000036 0.0
0.727421 0.594992 0.000320 0.0
0.536862 1.719734 0.000686 0.0
0.739641 0.377457 0.001585 0.0
3.165081 1.013457 -0.000661 0.0
0.320364 1.565484 -0.004863 0.0
0.943170 0.082409 -0.002118 0.0
4.338972 0.363199 -0.001665 0.0
0.986447 1.222539 0.000685 0.0
3.853518 0.619398 0.001803 0.0
3.598730 0.919755 -0.001617 0.0
0.579085 1.031864 0.002757 0.0
2.707870 1.011580 -0.000363 0.0
0.779725 0.942168 -0.000724 0.0
1.294163 0.968825 -0.001217 0.0
0.754899 1.785649 0.001977 0.0
4.009830 1.255739 0.001411 0.0
4.189391 0.840666 0.001021 0.0
2.148891 1.738758 0.001872 0.0
2.389476 0.183295 0.001382 0.0
3.150093 0.180065 -0.000350 0.0
2.587152 0.676295 -0.000582 0.0
0.413191 1.058440 -0.000314 0.0
1.663176 0.406790 0.000284 0.0
2.417344 0.405521 -0.001762 0.0
4.119864 0.449330 -0.002649 0.0
0.263326 1.079527 0.000375 0.0
1.266806 0.576879 0.001260 0.0
2.070157 0.346771 -0.002536 0.0
0.501042 1.028665 -0.001923 0.0
0.525151 0.384115 -0.000101 0.0
0.690513 0.848166 0.003827 0.0
2.496231 0.154797 0.001611 0.0
3.722539 0.688246 0.001328 0.0
1.355151 1.187221 -0.003507 0.0
1.439437 0.618945 -0.001208 0.0
2.146197 1.403726 -0.001442 0.0
1.523939 0.639889 -0.001359 0.0
0.350050 1.400266 0.002093 0.0
3.435571 1.686416 0.004603 0.0
4.106089 1.639817 0.004210 0.0
0.969261 0.643089 0.001188 0.0
4.223756 0.554279 -0.002598 0.0
3.153512 1.659039 0.001105 0.0
0.775714 1.071182 -0.000310 0.0
3.256867 0.750071 0.000846 0.0
0.300043 1.440002 -0.000626 0.0
0.689625 0.490783 0.000416 0.0
3.898162 0.510060 -0.001112 0.0
3.577838 0.878311 -0.000543 0.0
0.051012 1.000124 0.000553 0.0
0.666197 1.053485 -0.001641 0.0
1.810460 0.281091 0.001532 0.0
1.462711 1.310653 -0.000602 0.0
1.659793 0.780320 0.002958 0.0
3.651366 0.026729 0.004691 0.0
1.155529 1.631249 0.002941 0.0
1.219142 1.132361 0.001878 0.0
3.653483 0.041168 -0.001996 0.0
0.628758 1.320759 0.001301 0.0
1.261751 0.461765 -0.002466 0.0
3.399144 1.762563 -0.002102 0.0
0.261149 1.213430 0.001384 0.0
2.779036 1.068457 0.000170 0.0
4.333941 0.293163 0.000607 0.0
0.883431 1.157756 0.000096 0.0
3.928279 0.487527 0.001797 0.0
3.692810 0.159878 -0.000886 0.0
4.208088 1.158731 0.000121 0.0
2.426973 0.665726 0.002678 0.0
2.280429 0.108414 -0.001383 0.0
2.556853 0.435424 0.000519 0.0
2.606359 1.316082 0.001942 0.0
3.808860 0.529494 0.001001 0.0
2.122706 0.420700 -0.003485 0.0
2.160222 0.591215 0.002421 0.0
2.290123 0.241368 -0.002441 0.0
3.015277 0.984572 0.003235 0.0
0.067749 1.755786 -0.002487 0.0
2.540498 1.636452 -0.005737 0.0
1.121122 1.041862 0.000751 0.0
1.129389 0.512629 0.001801 0.0
3.101961 1.341683 0.001737 0.0
1.102728 0.968646 -0.001544 0.0
0.676052 0.058834 0.001822 0.0
2.434182 1.023163 -0.000630 0.0
3.508473 1.278804 -0.000968 0.0
3.145229 0.643484 -0.001810 0.0
3.098096 0.655575 0.000862 0.0
2.363907 0.745323 -0.002950 0.0
0.116967 1.746464 -0.000809 0.0
1.520748 0.445769 0.000846 0.0
3.573986 0.871252 0.000747 0.0
2.731970 0.161376 0.004474 0.0
4.018556 1.435387 0.003450 0.0
4.162372 0.280015 0.000184 0.0
1.039485 1.571164 0.003309 0.0
1.406671 0.027029 0.008533 0.0
1.574918 1.139721 0.000349 0.0
1.145455 1.132608 0.005268 0.0
2.210969 1.414692 -0.002531 0.0
4.135127 0.955074 -0.001117 0.0
0.819270 0.967968 -0.004136 0.0
3.039774 0.675046 -0.001386 0.0
4.260911 1.182612 0.000677 0.0
3.930972 0.641596 0.004307 0.0
1.453710 0.193718 0.002094 0.0
3.530549 0.089202 0.000468 0.0
0.957069 0.612209 -0.001133 0.0
0.407217 0.287066 -0.002541 0.0
2.450317 1.533322 -0.000523 0.0
0.245437 0.876655 -0.001622 0.0
3.054247 1.773902 0.001581 0.0
0.307340 0.017501 -0.001133 0.0
3.122828 1.206433 0.001527 0.0
2.053372 0.225165 -0.001715 0.0
3.309194 1.582726 -0.002683 0.0
3.657350 0.648936 0.001746 0.0
2.688052 1.058911 -0.001649 0.0
1.881651 0.375766 0.003447 0.0
3.508876 0.303923 -0.000951 0.0
4.237877 0.961593 0.003907 0.0
4.162803 0.477902 0.000358 0.0
0.743682 0.592061 0.000889 0.0
1.712439 1.738479 -0.002417 0.0
4.202053 1.529492 0.001487 0.0
1.004314 0.448021 -0.002737 0.0
3.784300 1.108624 -0.002011 0.0
1.602526 0.030038 0.006451 0.0
2.369421 1.342902 0.002839 0.0
3.154015 0.688934 0.001860 0.0
4.055644 1.749431 0.001631 0.0
2.398414 1.268146 -0.000304 0.0
0.986934 1.516071 -0.001287 0.0
1.243668 1.510138 0.002723 0.0
3.246468 1.285340 -0.001115 0.0
2.363826 1.653098 0.001213 0.0
2.399576 1.204896 -0.001931 0.0
3.090490 0.726822 0.005806 0.0
2.423284 0.007668 -0.000958 0.0
1.841701 1.160625 0.000180 0.0
1.763942 0.006028 -0.003972 0.0
1.900567 1.658676 -0.003107 0.0
0.006216 0.741747 0.003594 0.0
0.676802 0.451470 -0.001542 0.0
2.582205 0.006277 -0.001523 0.0
3.780728 0.694990 -0.001050 0.0
0.308018 0.466124 0.001135 0.0
0.988915 1.078086 -0.000029 0.0
1.730577 0.910496 -0.003253 0.0
0.302893 0.768661 -0.000693 0.0
2.831405 0.952903 -0.002104 0.0
4.314129 0.064484 0.004036 0.0
3.329635 1.583451 0.001362 0.0
3.583650 1.277726 -0.002884 0.0
3.777021 1.264732 -0.000681 0.0
0.612575 1.400185 -0.002764 0.0
4.231898 1.676897 -0.002070 0.0
2.734214 1.477866 0.005152 0.0
0.266131 0.078361 0.002594 0.0
0.875406 0.414894 -0.000832 0.0
2.115491 0.926605 -0.000693 0.0
1.918772 1.746658 0.002901 0.0
3.235662 1.173891 -0.001472 0.0
0.415022 0.030460 0.004555 0.0
0.949442 1.550559 0.000632 0.0
0.512824 0.400067 0.002867 0.0
4.058559 0.527451 -0.003156 0.0
3.624569 0.267470 -0.000239 0.0
2.299887 1.237780 -0.004195 0.0
1.985873 1.600923 -0.003731 0.0
3.269368 1.530550 -0.000714 0.0
1.228245 0.687495 0.001338 0.0
2.065282 0.818280 -0.002360 0.0
3.831736 0.454323 -0.004046 0.0
0.664651 1.032007 -0.001703 0.0
1.414144 0.084850 0.002448 0.0
3.993157 1.355393 -0.001739 0.0
0.618505 0.717123 -0.003463 0.0
1.101972 0.812994 0.002398 0.0
0.423142 0.680601 0.000553 0.0
1.848415 0.535049 0.000508 0.0
1.267225 0.780040 0.000527 0.0
3.110281 0.189357 -0.002948 0.0
2.632701 1.538204 -0.001621 0.0
0.251677 0.105366 -0.001811 0.0
4.323704 0.423947 0.001335 0.0
1.504465 0.019281 -0.004254 0.0
2.904780 0.529897 -0.001023 0.0
0.871028 1.393593 -0.003363 0.0
4.306705 0.854725 -0.002310 0.0
1.986678 1.226345 -0.002183 0.0
1.820853 0.773456 0.003422 0.0
2.497685 1.609919 -0.005897 0.0
3.240478 1.286957 -0.002871 0.0
0.730452 0.160952 0.000596 0.0
1.688755 1.496626 -0.001580 0.0
4.361945 1.775183 0.000383 0.0
0.080429 0.669202 -0.001780 0.0
1.274988 0.390702 0.000775 0.0
4.167987 0.656561 0.001658 0.0
3.199584 0.198289 -0.001970 0.0
3.510881 0.092907 -0.004713 0.0
2.253039 0.569570 0.003142 0.0
1.960595 1.170620 -0.001302 0.0
1.297354 0.542672 -0.003145 0.0
0.543657 1.116996 -0.002373 0.0
3.591772 0.440463 0.000798 0.0
3.850491 0.408882 0.000276 0.0
3.047503 0.859694 -0.004523 0.0
1.534949 1.379492 0.001050 0.0
3.151013 1.171358 0.000155 0.0
2.262801 1.573216 0.005855 0.0
0.636810 0.360857 -0.001151 0.0
0.046933 0.886339 0.001002 0.0
2.968825 0.619564 -0.001580 0.0
1.066292 1.730930 -0.006752 0.0
1.573726 0.353359 0.006949 0.0
1.476635 1.692918 0.000430 0.0
3.005819 0.193524 0.000577 0.0
2.141818 1.625215 -0.002873 0.0
2.973823 1.029260 -0.003610 0.0
0.741240 0.447004 0.003574 0.0
0.067023 0.398780 0.002840 0.0
1.347477 0.955734 -0.000607 0.0
4.159769 1.063325 -0.001729 0.0
3.444605 1.423312 -0.000106 0.0
1.398828 0.065914 -0.001009 0.0
3.126822 0.016121 0.001768 0.0
1.676839 0.079251 0.002426 0.0
3.301434 0.591471 0.001912 0.0
0.247676 1.397514 0.003656 0.0
2.485625 0.131289 -0.002056 0.0
3.131493 0.419962 0.000103 0.0
4.367412 1.648112 -0.002871 0.0
2.192122 0.942930 0.004365 0.0
0.842843 1.137170 -0.002534 0.0
3.198979 1.472236 -0.003081 0.0
3.749036 1.152864 0.004609 0.0
1.001365 0.042545 0.000288 0.0
0.668512 1.660265 -0.001470 0.0
2.884286 1.401638 -0.001291 0.0
0.697409 1.380149 -0.004854 0.0
0.847944 1.635294 -0.002235 0.0
1.468028 0.012267 0.005653 0.0
2.070208 0.830963 0.000857 0.0
0.688548 0.238307 0.005669 0.0
3.535562 1.066114 -0.001466 0.0
0.706299 0.933723 -0.002189 0.0
1.819549 0.304617 0.002568 0.0
3.659392 1.328555 -0.002946 0.0
3.256098 0.645810 -0.005750 0.0
1.275391 0.860128 0.001278 0.0
2.597341 1.215585 -0.000000 0.0
2.538713 1.323311 -0.004629 0.0
0.157809 1.265794 0.000878 0.0
0.192171 0.834649 0.000198 0.0
3.109998 0.745856 0.000184 0.0
4.187546 0.660558 -0.000541 0.0
0.012903 1.296439 0.000612 0.0
4.255246 0.810209 0.004257 0.0
0.912436 1.727719 0.001012 0.0
2.436212 0.742494 0.001468 0.0
2.169221 0.756137 -0.003992 0.0
0.800921 0.364465 -0.000059 0.0
1.857090 0.740945 0.000311 0.0
0.409004 1.740198 0.000185 0.0
1.282154 0.647964 -0.002179 0.0
1.239023 1.039178 0.001432 0.0
0.150937 1.417236 0.000164 0.0
2.806501 1.512365 -0.001255 0.0
2.771840 0.148797 -0.000699 0.0
0.696057 0.377490 -0.000875 0.0
3.198762 1.550837 -0.000597 0.0
1.181573 0.708281 -0.004263 0.0
0.870385 1.514353 0.001605 0.0
2.728467 0.232609 -0.002201 0.0
2.846419 1.440228 0.000016 0.0
0.189307 1.287072 -0.001504 0.0
2.052841 1.512684 0.001196 0.0
2.637311 1.027804 0.000988 0.0
0.638028 0.160548 0.001495 0.0
3.784435 0.608492 0.000470 0.0
0.715684 0.748145 0.002935 0.0
1.725259 0.826657 0.004214 0.0
0.974799 1.469224 0.002382 0.0
1.671982 1.468385 -0.002588 0.0
3.186688 1.648277 0.000158 0.0
4.064795 0.673300 -0.001550 0.0
3.366906 0.697917 0.002749 0.0
3.145920 1.421709 -0.003558 0.0
3.291372 1.080591 -0.002422 0.0
0.866034 1.694232 0.007165 0.0
3.277145 0.469240 0.002337 0.0
4.319354 1.550808 -0.002109 0.0
3.094419 0.720406 0.001530 0.0
2.210835 0.720979 0.003208 0.0
1.931187 1.682320 -0.001263 0.0
3.883793 1.522306 0.002002 0.0
3.546122 0.369102 -0.000375 0.0
2.352840 0.875380 0.002534 0.0
2.905574 0.857742 -0.000804 0.0
0.329694 0.006228 0.001707 0.0
1.079057 0.646923 0.000755 0.0
1.948140 0.596000 0.002673 0.0
2.749711 1.773805 0.003021 0.0
0.928426 0.129884 -0.001294 0.0
1.714813 0.034124 0.005606 0.0
1.989392 1.188375 -0.001489 0.0
0.654382 0.523077 -0.000324 0.0
2.544347 1.159577 0.002132 0.0
3.706238 1.054976 -0.000112 0.0
1.448214 1.680524 -0.005766 0.0
0.015186 0.628725 -0.001652 0.0
2.597093 1.764038 0.001891 0.0
3.660704 1.273481 0.003358 0.0
0.960048 1.551892 0.000530 0.0
2.003323 1.518898 -0.000366 0.0
1.599783 1.672371 -0.002298 0.0
2.152053 1.477992 -0.002154 0.0
3.552023 0.330972 0.004357 0.0
3.654384 0.799430 0.000674 0.0
3.962660 1.382064 0.001823 0.0
2.408930 0.907108 -0.001180 0.0
0.886912 1.353545 0.002634 0.0
1.211901 1.702115 -0.000536 0.0
2.624636 0.568071 -0.003866 0.0
0.858232 1.378419 0.001527 0.0
2.933730 1.413308 -0.000106 0.0
2.369580 0.125070 0.001158 0.0
2.240321 0.064506 0.002576 0.0
2.141315 0.556276 0.004389 0.0
0.877339 1.140726 0.002350 0.0
0.609271 0.972411 -0.000947 0.0
2.678217 0.487555 0.004854 0.0
3.833186 0.929516 0.001276 0.0
3.305657 1.302891 0.001606 0.0
2.054525 1.731395 -0.000166 0.0
3.303950 1.353461 0.003507 0.0
2.431159 0.845523 0.000735 0.0
1.862565 0.534053 -0.001835 0.0
0.049266 0.884903 0.002716 0.0
0.521892 0.582960 -0.000103 0.0
4.359078 0.794153 0.001555 0.0
4.078841 0.253611 0.005977 0.0
3.463186 0.056866 -0.001193 0.0
2.651857 0.266148 0.000548 0.0
0.636457 0.060613 0.002608 0.0
2.405418 1.323841 -0.006278 0.0
3.987971 1.411948 -0.001994 0.0
0.495974 1.048735 -0.000557 0.0
1.385432 1.508286 0.005231 0.0
3.480738 1.164628 -0.003405 0.0
4.388870 1.443985 -0.001604 0.0
4.143274 1.655843 0.004119 0.0
2.583938 0.232944 -0.000007 0.0
1.997261 1.493476 -0.006915 0.0
3.076316 1.408994 0.000016 0.0
1.594554 0.415239 0.000090 0.0
3.024845 1.250416 0.000297 0.0
1.599036 1.327475 0.001104 0.0
0.345801 1.789207 0.005894 0.0
1.425542 0.560699 0.001291 0.0
1.321401 1.494850 0.000466 0.0
2.718933 0.031260 0.001491 0.0
4.327056 0.670707 -0.005027 0.0
0.772252 0.838561 0.000241 0.0
0.521780 1.004374 0.004433 0.0
4.030319 0.142733 0.007991 0.0
0.182300 0.222256 0.003213 0.0
2.302530 0.895918 0.007795 0.0
2.394823 1.540700 -0.000155 0.0
0.879892 0.477198 0.002288 0.0
4.194282 1.461770 -0.005117 0.0
0.338653 1.245188 -0.001974 0.0
3.913709 1.192611 -0.002079 0.0
0.278492 0.959502 0.002246 0.0
2.881522 0.992762 0.001878 0.0
3.151037 1.630727 -0.001333 0.0
2.340858 0.577185 -0.001572 0.0
4.207345 1.297090 -0.002654 0.0
2.163400 0.125120 -0.000153 0.0
2.588354 0.463816 -0.002671 0.0
2.046261 1.701807 -0.004172 0.0
2.395292 0.600693 -0.001956 0.0
1.139099 0.039337 -0.000595 0.0
2.170414 0.933146 -0.004364 0.0
2.911087 0.873496 0.000369 0.0
0.673408 0.440613 0.000638 0.0
0.993127 1.215488 0.001547 0.0
0.014833 1.654915 0.002190 0.0
2.121971 0.677259 0.005431 0.0
2.843449 0.726797 0.001012 0.0
4.114629 0.053812 -0.001872 0.0
3.036689 1.583133 -0.002416 0.0
0.986465 0.923390 -0.002989 0.0
3.013668 1.713428 -0.000148 0.0
2.115674 0.594429 0.003969 0.0
0.959047 0.349091 -0.003877 0.0
0.017650 1.750544 0.002256 0.0
1.264421 0.400089 -0.001621 0.0
3.082898 1.675822 0.000653 0.0
3.281700 1.452801 0.002155 0.0
2.567161 1.567062 0.002420 0.0
0.106803 1.274483 -0.000046 0.0
1.255468 1.130561 0.001033 0.0
3.167074 1.646091 -0.001079 0.0
2.917818 0.417148 -0.000569 0.0
0.359668 0.090812 -0.000429 0.0
2.783613 0.602526 -0.000535 0.0
3.406666 1.488919 -0.004943 0.0
0.635413 0.212392 -0.000581 0.0
2.664633 1.321241 0.001078 0.0
3.810615 1.632175 -0.002851 0.0
0.927209 0.416256 -0.001633 0.0
2.574311 1.062806 0.003753 0.0
3.725694 1.393198 0.000647 0.0
1.292759 1.369244 0.003838 0.0
0.271356 1.332649 0.001055 0.0
1.433746 1.071810 -0.001762 0.0
4.123018 0.119788 -0.001074 0.0
0.116484 1.322031 -0.002989 0.0
1.308275 1.598973 0.001589 0.0
4.284606 0.747365 0.001566 0.0
0.269811 1.540496 0.004827 0.0
2.106919 0.299065 0.005354 0.0
1.215151 1.723937 0.000060 0.0
3.761376 0.937197 0.001132 0.0
0.902299 0.217067 0.000866 0.0
2.739752 1.588761 -0.000722 0.0
1.203886 0.916362 0.002255 0.0
1.163622 1.222550 -0.000461 0.0
3.329383 0.593069 0.000361 0.0
1.789081 0.541611 -0.001121 0.0
1.412352 0.400572 -0.003609 0.0
3.693177 1.125187 0.003587 0.0
2.107336 1.034393 -0.001626 0.0
4.240422 1.736784 0.001569 0.0
1.694660 1.136303 -0.001298 0.0
0.109635 0.524439 0.002382 0.0
3.348352 0.065750 0.001129 0.0
3.354119 1.225957 -0.000443 0.0
2.000084 0.446391 0.000132 0.0
1.903490 1.661394 -0.003586 0.0
1.137556 0.386087 -0.002521 0.0
1.260191 0.223162 -0.001102 0.0
3.963872 1.352412 -0.002443 0.0
0.912728 1.396315 0.003017 0.0
3.413799 0.521823 0.002556 0.0
2.358688 1.698164 -0.002907 0.0
3.403411 1.397696 0.002842 0.0
0.382922 0.217250 0.002919 0.0
2.165909 1.202140 -0.004010 0.0
2.031534 1.291457 -0.000608 0.0
3.367221 0.019280 0.000213 0.0
2.978065 1.623432 -0.001771 0.0
1.200353 0.503322 -0.000686 0.0
4.035541 1.422128 -0.002254 0.0
0.545780 1.493024 0.001660 0.0
4.001514 0.244897 -0.000875 0.0
2.110329 0.355767 0.003812 0.0
2.537444 1.635561 -0.000104 0.0
1.000928 1.290827 -0.002232 0.0
1.844263 0.793661 0.000290 0.0
1.999215 0.246239 -0.001810 0.0
2.204493 0.896089 0.001651 0.0
0.933249 0.946256 -0.000559 0.0
1.324096 1.059534 0.000306 0.0
4.283187 0.931294 0.002152 0.0
1.659776 1.463506 0.003498 0.0
2.937424 1.146918 0.000740 0.0
1.096194 0.728571 -0.001023 0.0
3.524425 0.145749 0.001621 0.0
1.668033 0.890685 0.002788 0.0
1.327191 1.785111 -0.002850 0.0
0.287842 0.079067 -0.000897 0.0
2.844482 0.214659 0.001557 0.0
1.887737 0.672681 -0.002619 0.0
3.650466 0.078584 0.003516 0.0
3.430281 1.760594 0.002193 0.0
1.218189 0.358823 -0.002969 0.0
0.397979 1.233929 0.000662 0.0
2.534422 1.642472 0.001710 0.0
1.917237 0.840443 -0.000362 0.0
3.936995 0.861689 -0.003010 0.0
1.470166 0.041823 0.005436 0.0
1.627668 0.480989 0.001161 0.0
0.019161 0.027220 -0.001070 0.0
1.795212 1.613781 -0.000753 0.0
1.165038 1.258931 0.001371 0.0
2.085569 1.047885 -0.001478 0.0
4.107035 1.461428 0.000748 0.0
3.141872 0.882328 0.003035 0.0
4.309323 1.571214 -0.000636 0.0
4.221777 1.579194 0.000230 0.0
4.387567 0.530992 -0.004535 0.0
1.862105 1.645792 0.000686 0.0
3.386856 0.257976 -0.001793 0.0
3.235192 1.315430 0.002443 0.0
2.315739 0.736220 -0.002116 0.0
3.450950 1.419602 0.000136 0.0
0.161779 0.434418 0.005786 0.0
1.382446 0.012943 -0.000376 0.0
2.011261 1.501616 -0.002508 0.0
2.915536 0.402586 -0.000386 0.0
1.436873 0.945838 0.001292 0.0
2.626679 1.563008 -0.000813 0.0
0.932970 1.494627 0.004045 0.0
4.189798 0.217735 0.003793 0.0
0.658260 1.712969 0.000178 0.0
3.552584 0.608893 -0.005147 0.0
0.046623 0.020389 0.002092 0.0
2.471196 0.139756 0.001648 0.0
0.055143 0.338456 -0.002733 0.0
1.648996 1.677667 -0.005129 0.0
1.323318 1.214946 0.002133 0.0
0.656615 1.504093 0.000627 0.0
1.101623 0.292856 -0.004459 0.0
3.752365 1.513606 0.000986 0.0
4.060489 0.142216 -0.002311 0.0
3.449860 0.798597 0.001545 0.0
0.568635 1.329861 -0.000521 0.0
1.859380 0.207886 -0.004084 0.0
0.049168 1.175126 -0.004784 0.0
1.204688 0.342740 -0.002928 0.0
1.350794 0.659436 0.000017 0.0
3.699878 0.445614 0.001870 0.0
3.300630 0.673993 -0.000505 0.0
1.923234 0.257633 0.001305 0.0
0.452199 0.142838 -0.001817 0.0
2.229701 0.185442 -0.001800 0.0
0.577753 0.616596 0.001755 0.0
3.887261 0.972050 -0.000031 0.0
1.817500 0.035315 0.000953 0.0
4.238974 0.147151 0.003854 0.0
3.034341 0.939799 0.001715 0.0
4.149433 1.287313 0.000144 0.0
1.169620 0.458123 0.000340 0.0
3.314349 0.358750 -0.000923 0.0
3.703262 0.209468 -0.003314 0.0
2.089373 0.344761 0.002968 0.0
1.023365 0.240366 -0.004281 0.0
0.386726 1.260222 -0.000727 0.0
3.715624 1.050617 -0.002746 0.0
3.773398 1.619927 -0.001224 0.0
1.829670 0.126168 0.005869 0.0
1.768295 0.720238 -0.003335 0.0
4.013551 0.649001 0.003124 0.0
1.491037 0.951052 -0.000570 0.0
1.539121 0.637526 -0.000750 0.0
2.889794 1.520012 0.000892 0.0
1.515114 1.415452 0.002813 0.0
3.746590 1.669476 -0.001293 0.0
1.925618 1.063173 -0.001463 0.0
3.784211 0.134115 -0.002255 0.0
2.888963 1.745057 0.001452 0.0
1.139035 0.182807 0.003278 0.0
2.518086 0.908231 0.002339 0.0
3.200452 0.619731 -0.006203 0.0
1.290629 1.494160 0.001433 0.0
2.043759 1.523440 0.004797 0.0
4.245260 1.561595 0.001253 0.0
4.366794 0.509214 0.001612 0.0
4.012019 0.249832 -0.000774 0.0
1.597562 1.672831 0.000604 0.0
3.406205 0.854279 0.000587 0.0
0.949699 1.381149 -0.003272 0.0
2.036331 1.695940 -0.000590 0.0
0.892230 1.099321 -0.000601 0.0
0.599954 0.992275 0.003790 0.0
2.631183 1.592731 -0.003084 0.0
2.425843 0.679363 0.000336 0.0
1.175597 0.629608 -0.001469 0.0
0.966043 0.778892 -0.002711 0.0
3.758975 0.316627 0.004509 0.0
1.698350 0.077938 0.005768 0.0
2.476428 1.278629 0.001593 0.0
3.500078 0.627149 0.004380 0.0
2.776570 1.417562 0.004179 0.0
4.346768 0.468897 -0.001816 0.0
0.333101 0.557309 0.000493 0.0
0.764411 0.339029 -0.001018 0.0
2.388769 0.187754 -0.003622 0.0
0.618121 0.480045 0.001353 0.0
4.117974 1.113332 -0.000917 0.0
1.056013 0.835049 -0.000726 0.0
2.632472 0.437843 -0.001311 0.0
1.957961 1.462379 0.000821 0.0
0.091328 0.356822 0.003307 0.0
1.983322 1.002049 -0.001361 0.0
1.600586 0.080212 -0.000320 0.0
2.517761 0.002523 0.001139 0.0
4.141527 0.814167 -0.003270 0.0
3.314440 1.433473 -0.001128 0.0
3.127599 0.859070 0.000561 0.0
2.539351 1.663046 0.000845 0.0
1.297541 0.459886 -0.000326 0.0
0.651072 0.178853 0.002238 0.0
3.526338 0.657059 -0.002312 0.0
4.274362 0.652234 0.005362 0.0
2.390423 1.193361 -0.001792 0.0
3.397758 1.777983 0.000238 0.0
0.119215 0.426046 0.002206 0.0
4.279439 0.310757 0.002028 0.0
2.639921 0.887867 0.000842 0.0
0.384045 0.783890 -0.008265 0.0
3.153536 0.846280 -0.000925 0.0
0.328002 1.185819 0.004960 0.0
1.079816 1.464762 0.002857 0.0
3.130719 0.114835 -0.001484 0.0
0.765585 0.419657 -0.000105 0.0
3.401782 0.252342 -0.004844 0.0
3.890167 0.302384 -0.001940 0.0
1.019418 1.349706 -0.000739 0.0
2.495502 1.349735 -0.000021 0.0
3.569437 0.063685 0.001276 0.0
1.236676 1.555952 -0.003383 0.0
3.489083 1.531955 -0.004139 0.0
1.084865 0.711488 0.001670 0.0
0.179321 1.296149 -0.000285 0.0
3.298282 0.129061 -0.000735 0.0
3.909916 1.065238 -0.001699 0.0
0.666715 1.534392 -0.002161 0.0
1.669492 1.397827 0.000586 0.0
3.170499 1.666368 -0.004973 0.0
3.627564 0.151078 -0.000380 0.0
3.811129 0.672559 0.001217 0.0
0.135216 1.666870 0.000109 0.0
0.184162 0.451951 0.002093 0.0
4.319966 1.476922 -0.000546 0.0
0.088511 1.674130 -0.002879 0.0
3.284457 0.368416 0.000482 0.0
0.747990 0.793533 0.002862 0.0
2.063431 0.407277 -0.004574 0.0
1.813136 1.133085 -0.001227 0.0
4.377870 1.260215 -0.001180 0.0
1.782759 1.436545 0.002729 0.0
0.951609 1.283884 -0.002482 0.0
0.516460 0.325295 -0.000032 0.0
1.092468 1.706951 -0.000877 0.0
3.587657 0.418785 -0.001279 0.0
0.715256 1.549402 0.000495 0.0
1.660859 1.598268 0.002849 0.0
2.460135 1.203083 -0.002617 0.0
2.630188 1.188715 0.001371 0.0
2.389310 1.118877 -0.001486 0.0
1.291479 1.545340 0.001896 0.0
2.817178 0.944154 0.001202 0.0
3.073030 1.661635 -0.000015 0.0
3.571234 1.254536 0.003138 0.0
0.916731 1.639562 -0.000437 0.0
2.787451 0.153766 -0.002814 0.0
1.799336 1.581712 -0.002368 0.0
1.514425 0.294255 0.002893 0.0
1.106246 1.500194 0.004480 0.0
3.539347 0.378866 0.001231 0.0
1.113344 1.380695 0.001133 0.0
3.670926 0.842927 0.000721 0.0
3.802441 0.673066 -0.002759 0.0
4.168403 0.053989 0.000240 0.0
3.735045 0.833991 0.000143 0.0
0.769133 0.108359 -0.004345 0.0
1.044156 1.634205 0.001005 0.0
1.097566 1.156118 -0.001938 0.0
1.452196 1.718508 -0.001889 0.0
2.804813 1.630441 -0.001916 0.0
2.626471 0.423863 -0.005881 0.0
3.599726 0.469584 -0.002303 0.0
0.205108 0.926310 0.002351 0.0
0.737804 1.501578 -0.002283 0.0
2.167749 0.659773 -0.001320 0.0
3.711318 1.340590 -0.000593 0.0
0.316001 0.240507 0.004246 0.0
1.591953 0.813247 0.005659 0.0
0.583485 0.940829 -0.001101 0.0
4.062327 0.733292 -0.002707 0.0
2.585689 1.610635 0.000423 0.0
2.999408 0.957450 -0.003188 0.0
0.431075 0.585020 0.003621 0.0
