1.89476555 0.94956953 0.00325572 0.00000000
1.34971623 0.09026714 -0.00018792 0.00000000
3.18673174 1.54051038 -0.00488186 0.00000000
0.23318663 1.42240387 0.00267350 0.00000000
1.64644684 0.78081482 0.00330070 0.00000000
3.37661304 0.51055294 0.00304982 0.00000000
0.35697178 0.84567703 0.00032446 0.00000000
4.54414330 1.62388045 0.00571998 0.00000000
0.19866143 0.58853644 -0.00023214 0.00000000
0.94102389 1.50245492 -0.00104268 0.00000000
3.16069846 0.55777955 0.00047120 0.00000000
0.18245776 1.32441311 0.00128517 0.00000000
3.25946265 1.54410252 -0.00002984 0.00000000
3.52803559 0.19421695 -0.00177225 0.00000000
0.51885987 1.17548053 0.00120509 0.00000000
3.89588788 0.30629893 -0.00181269 0.00000000
0.50833349 1.03114142 0.00348856 0.00000000
1.22197385 0.71549298 0.00390908 0.00000000
1.78176951 0.00592659 -0.00009494 0.00000000
1.30520569 1.15431819 0.00314726 0.00000000
4.56416737 1.57199681 -0.00031575 0.00000000
4.28363126 0.71866681 -0.00146422 0.00000000
4.46519967 0.52640549 -0.00213653 0.00000000
1.24056953 0.86350999 0.00123952 0.00000000
0.42517746 1.31041009 0.00076258 0.00000000
0.02501361 1.32758670 0.00208710 0.00000000
1.54510419 1.15917955 0.00016487 0.00000000
2.64556344 0.43850207 0.00279814 0.00000000
0.33621945 0.17911565 -0.00471949 0.00000000
1.52421583 0.75442522 -0.00117728 0.00000000
1.78356609 1.00129672 -0.00196612 0.00000000
0.64397397 1.30661535 0.00049046 0.00000000
1.82631878 1.41481151 0.00096099 0.00000000
0.48968820 0.18902880 -0.00031361 0.00000000
0.73899639 0.12301904 0.00083553 0.00000000
3.45918542 1.56787857 0.00195049 0.00000000
4.08072865 1.25548336 0.00027724 0.00000000
2.63092751 0.97963991 -0.00152115 0.00000000
3.17438689 1.19214666 0.00296202 0.00000000
1.67152011 1.38691147 0.00171676 0.00000000
0.71036796 0.44669059 -0.00126592 0.00000000
3.39289973 0.26010085 -0.00335374 0.00000000
2.05772497 0.67205894 0.00492604 0.00000000
1.15707278 0.85891693 0.00440873 0.00000000
1.02067109 1.74714765 0.00159311 0.00000000
0.58579500 0.14217860 -0.00133399 0.00000000
2.07577655 0.23356462 0.00243161 0.00000000
1.08661070 1.01258819 0.00201846 0.00000000
4.17018107 1.64547290 -0.00232375 0.00000000
0.97245831 0.05373096 -0.00203106 0.00000000
2.72034143 0.92160661 0.00196116 0.00000000
2.86658482 0.35036217 -0.00034519 0.00000000
0.87907018 0.93886327 0.00207162 0.00000000
0.45462120 0.81470610 -0.00172623 0.00000000
3.11335392 0.90211917 -0.00259206 0.00000000
1.20575409 1.27153592 -0.00000612 0.00000000
0.77453851 1.68267344 0.00383202 0.00000000
1.19109493 1.52745320 0.00095691 0.00000000
4.39378756 1.33003604 0.00053658 0.00000000
1.13972230 0.02166946 0.00016773 0.00000000
0.89755500 0.41197810 -0.00393041 0.00000000
2.96613827 0.51116857 -0.00252153 0.00000000
4.50352158 1.77711310 0.00168971 0.00000000
2.97125320 0.52552103 -0.00152706 0.00000000
0.63971638 1.22572637 0.00362063 0.00000000
4.21912815 1.14313737 -0.00315445 0.00000000
2.22413981 0.34147086 -0.00648214 0.00000000
1.23634721 1.55223726 0.00082587 0.00000000
3.01372490 1.70011345 -0.00184448 0.00000000
0.45665207 0.14927286 -0.00177574 0.00000000
4.20130046 1.50835909 0.00070909 0.00000000
4.20652667 0.33676414 0.00063904 0.00000000
4.04586790 0.70774855 0.00269165 0.00000000
2.09950017 1.29154562 -0.00165087 0.00000000
2.17562212 1.24776227 0.00250092 0.00000000
3.95830392 1.77721879 0.00059026 0.00000000
2.61192558 1.53366925 0.00213016 0.00000000
2.76005772 0.74933778 -0.00134735 0.00000000
1.42471003 0.63287920 0.00006586 0.00000000
1.31425677 1.73507040 -0.00071528 0.00000000
4.57942711 1.76273419 0.00027126 0.00000000
4.43270280 1.36928012 -0.00057587 0.00000000
2.89817828 0.50955252 0.00154235 0.00000000
4.16469722 0.00399999 0.00297388 0.00000000
2.36949557 1.00180925 0.00329146 0.00000000
4.15012821 0.82571942 -0.00147180 0.00000000
1.06140715 0.76634997 0.00542080 0.00000000
3.91735041 1.09575188 0.00273342 0.00000000
1.29271982 0.88445330 -0.00297844 0.00000000
2.56512207 1.69661041 0.00269069 0.00000000
0.63429523 0.93260219 -0.00297253 0.00000000
1.78927826 1.08517184 0.00366951 0.00000000
2.67635744 1.74935644 0.00114010 0.00000000
1.06056736 0.40170622 -0.00060909 0.00000000
0.37931577 1.35459788 -0.00213394 0.00000000
0.92596477 0.68190535 -0.00462396 0.00000000
3.61749694 1.66292541 0.00001890 0.00000000
1.68574849 1.48688821 -0.00019099 0.00000000
4.53579279 0.98839665 -0.00058826 0.00000000
2.57058591 0.03078511 0.00115206 0.00000000
3.79626333 1.76901192 0.00067279 0.00000000
3.81760605 0.99762239 -0.00011637 0.00000000
4.40276273 1.75606906 0.00047372 0.00000000
2.73662020 1.55560538 0.00136266 0.00000000
3.70485233 0.59527655 0.00244951 0.00000000
0.13948528 0.55863605 -0.00559307 0.00000000
2.78896413 0.80827598 -0.00038056 0.00000000
2.77953415 0.86282968 -0.00104988 0.00000000
1.22681061 1.10169256 -0.00016661 0.00000000
0.31374546 1.53779737 -0.00053499 0.00000000
0.04814557 1.37783460 0.00000106 0.00000000
1.35316966 1.45718406 0.00307068 0.00000000
1.62766457 0.50108440 -0.00243370 0.00000000
4.70246071 1.38798232 -0.00176669 0.00000000
1.43878089 0.32978230 -0.00087126 0.00000000
3.90023426 1.11182763 -0.00161676 0.00000000
1.24868215 0.69341691 0.00175726 0.00000000
2.04864735 0.19354558 0.00067600 0.00000000
0.00670565 0.60437890 0.00146436 0.00000000
0.88515642 0.65888048 0.00304697 0.00000000
4.54051700 0.19252375 -0.00268080 0.00000000
1.95862091 1.41904188 -0.00092663 0.00000000
1.73857064 1.19573460 -0.00148301 0.00000000
1.06358152 1.45030438 -0.00355509 0.00000000
4.50196367 1.21872897 -0.00148983 0.00000000
1.35374856 1.09762144 -0.00252243 0.00000000
2.34213391 0.44295309 -0.00045621 0.00000000
0.96707088 1.44365059 -0.00303341 0.00000000
3.15116232 1.26158288 0.00042675 0.00000000
2.07894995 1.02581216 0.00225558 0.00000000
3.79889651 0.09243136 -0.00410810 0.00000000
0.44561905 0.43031182 -0.00147693 0.00000000
4.52355840 0.36475012 -0.00426310 0.00000000
0.73871155 1.07972541 0.00324434 0.00000000
4.59440753 0.00946947 0.00157801 0.00000000
1.84931387 0.17571432 0.00128035 0.00000000
4.09076096 0.28376944 -0.00181487 0.00000000
4.38533550 0.83072834 0.00025913 0.00000000
3.60856773 1.45015055 0.00296128 0.00000000
2.88257143 1.62530558 0.00168529 0.00000000
2.82548349 0.93973672 0.00151791 0.00000000
1.37021777 0.99527602 -0.00123216 0.00000000
3.10497352 1.60851470 -0.00352605 0.00000000
2.81113474 0.30570860 -0.00484365 0.00000000
4.25593545 1.31548961 0.00168701 0.00000000
4.34651344 0.89986841 0.00627105 0.00000000
1.72256157 0.03785025 0.00551474 0.00000000
0.28026837 1.76139377 0.00219140 0.00000000
4.45960465 1.75633743 -0.00095557 0.00000000
3.03472143 0.89807685 -0.00100845 0.00000000
0.33536860 0.45364630 0.00331737 0.00000000
3.06521367 0.92966604 0.00464060 0.00000000
2.78000608 1.31610388 0.00163251 0.00000000
3.32049633 0.29714967 0.00312956 0.00000000
0.16968491 1.31501347 -0.00130374 0.00000000
2.25138268 1.20813775 -0.00010138 0.00000000
3.17396698 1.46808505 0.00291178 0.00000000
1.01544796 0.95258289 -0.00200475 0.00000000
0.90438748 1.54824268 0.00027451 0.00000000
1.60091845 0.38862734 0.00185952 0.00000000
0.22390597 0.26371836 -0.00147535 0.00000000
3.88195263 1.68504905 -0.00002931 0.00000000
0.39037366 1.58044710 -0.00320938 0.00000000
2.43905289 0.13756343 -0.00304080 0.00000000
4.56585845 0.68274530 0.00099752 0.00000000
3.47813109 1.04941359 -0.00307352 0.00000000
4.18481270 0.32967333 0.00115857 0.00000000
2.38249557 1.29205456 -0.00003491 0.00000000
0.72387510 0.37446768 0.00265779 0.00000000
0.70098662 0.26960817 0.00420346 0.00000000
2.39434493 1.51578013 0.00139338 0.00000000
3.40470712 0.74231002 -0.00120408 0.00000000
1.25458576 1.77145358 0.00077260 0.00000000
2.71837416 0.00505135 -0.00125537 0.00000000
0.64830426 1.70288032 0.00147848 0.00000000
1.12931469 1.25369041 -0.00009959 0.00000000
2.51839379 0.39374174 0.00146943 0.00000000
3.16695111 1.80395222 0.00114116 0.00000000
1.02590963 1.64633038 -0.00130988 0.00000000
3.57974265 1.74509360 0.00051762 0.00000000
0.61807979 1.63516253 0.00171681 0.00000000
3.61184686 0.59920425 0.00186937 0.00000000
2.26118817 1.40773899 -0.00160767 0.00000000
2.77078316 1.58607804 -0.00210512 0.00000000
1.60307267 0.84263772 -0.00137862 0.00000000
0.82373278 0.57389503 0.00213027 0.00000000
0.36321737 0.75012268 0.00266213 0.00000000
0.27839457 1.30910786 -0.00265879 0.00000000
4.23401474 1.78668012 0.00033694 0.00000000
1.72973965 0.87374644 -0.00227358 0.00000000
1.06267182 0.89953558 0.00055499 0.00000000
1.95904316 0.51717121 0.00454180 0.00000000
1.08470779 0.01796765 -0.00199534 0.00000000
2.52801572 1.80098331 0.00142582 0.00000000
3.32194635 1.02800720 -0.00039003 0.00000000
0.35754490 1.47043903 0.00280895 0.00000000
4.41381655 1.02015018 0.00375589 0.00000000
4.51210297 1.14716488 -0.00333091 0.00000000
1.28550141 0.59198816 -0.00324295 0.00000000
4.19047895 0.56408608 0.00204975 0.00000000
1.72170124 1.18750495 -0.00044120 0.00000000
2.70730579 1.14854692 0.00045714 0.00000000
4.34357348 1.73811942 -0.00089985 0.00000000
0.31645440 1.77394768 0.00122711 0.00000000
3.66587177 1.34316061 0.00361430 0.00000000
0.03896522 1.23295435 -0.00096167 0.00000000
4.09103681 1.74813842 0.00036115 0.00000000
3.28305701 0.52273543 0.00118139 0.00000000
3.78001526 0.35171828 -0.00304889 0.00000000
0.29051502 1.59989777 -0.00097695 0.00000000
1.83938743 1.65787067 -0.00165212 0.00000000
0.23936092 0.43106297 0.00141814 0.00000000
3.73984208 1.02335890 -0.00286723 0.00000000
2.00172449 0.55427470 -0.00380500 0.00000000
3.63583016 1.38540938 0.00430620 0.00000000
1.59671173 0.02986321 -0.00067312 0.00000000
2.67389760 1.43728438 0.00002430 0.00000000
0.75984097 0.01389681 -0.00108516 0.00000000
2.80967205 0.64104376 -0.00056677 0.00000000
2.70330871 0.88122408 -0.00002515 0.00000000
3.42444569 0.00733379 -0.00171201 0.00000000
1.54290740 1.06897287 -0.00211617 0.00000000
1.82414331 1.22249454 -0.00048436 0.00000000
4.47039759 0.98751136 0.00133256 0.00000000
3.37398276 1.32492074 0.00206184 0.00000000
1.56418220 0.88819049 0.00036923 0.00000000
1.01740974 1.28734459 0.00069718 0.00000000
1.11720292 0.45316155 0.00347544 0.00000000
1.06747170 0.11308875 0.00160521 0.00000000
0.34457584 1.67969225 0.00030578 0.00000000
2.89998976 1.32525284 -0.00383805 0.00000000
3.37980729 0.08792549 0.00180159 0.00000000
3.07675723 0.69058571 0.00333550 0.00000000
0.02080983 0.32556884 -0.00089118 0.00000000
2.05414510 0.37775966 0.00292906 0.00000000
2.23661240 1.27810545 -0.00447768 0.00000000
4.27139472 1.70247070 -0.00323164 0.00000000
0.37195073 1.43743860 0.00252625 0.00000000
4.17640688 1.26581082 -0.00044092 0.00000000
3.69630148 1.75808240 0.00478179 0.00000000
2.07885277 0.59492867 -0.00033897 0.00000000
2.82481573 1.23052712 0.00166729 0.00000000
3.45426604 1.76720967 0.00085515 0.00000000
3.56131692 0.49084678 0.00197870 0.00000000
1.47838344 0.79843818 0.00082719 0.00000000
0.15657352 1.07281777 -0.00309452 0.00000000
1.69348616 1.04748075 0.00153936 0.00000000
4.04150761 1.35061042 0.00472337 0.00000000
3.76595073 1.71459279 -0.00566965 0.00000000
0.30122506 1.61542463 0.00026214 0.00000000
3.55176220 0.29695889 0.00005649 0.00000000
3.33341415 0.08769762 -0.00084387 0.00000000
0.09622174 0.54444986 -0.00167186 0.00000000
0.14019561 0.30550328 -0.00061356 0.00000000
0.44154741 0.53320046 -0.00242463 0.00000000
1.76109857 1.32525248 -0.00105791 0.00000000
0.97315772 0.99205413 -0.00060879 0.00000000
0.66039815 0.87097067 -0.00156055 0.00000000
1.38713396 0.63922524 0.00270863 0.00000000
3.51625613 1.11272304 -0.00036820 0.00000000
1.80807992 1.35251129 -0.00055974 0.00000000
3.41966068 1.34523111 0.00315168 0.00000000
0.23402268 0.55537441 0.00253024 0.00000000
0.98825609 0.28068260 0.00232874 0.00000000
4.19222224 0.53532076 -0.00102923 0.00000000
4.41852835 1.58432637 -0.00242816 0.00000000
2.88765770 0.18856253 0.00436016 0.00000000
1.86201381 1.07001292 -0.00403515 0.00000000
1.38945384 0.86491024 0.00194108 0.00000000
2.00265322 0.41354768 0.00014807 0.00000000
2.74161267 0.12867730 0.00199452 0.00000000
3.82822509 1.60439763 0.00265718 0.00000000
4.72320353 1.27047539 -0.00120982 0.00000000
1.69760799 0.47969606 0.00122710 0.00000000
3.95109332 1.40948318 -0.00314567 0.00000000
2.14768178 0.15133014 -0.00015002 0.00000000
1.75221665 0.31923369 -0.00047616 0.00000000
0.98494320 1.65409324 -0.00352072 0.00000000
3.32523399 1.78957265 -0.00018855 0.00000000
1.47632536 1.77888486 0.00298707 0.00000000
3.66207178 0.31292767 0.00143399 0.00000000
1.49504331 1.52858520 -0.00295056 0.00000000
2.41256202 1.04260307 0.00428582 0.00000000
3.15042204 0.95600207 -0.00003578 0.00000000
1.39293835 0.97232654 0.00157280 0.00000000
0.51309537 0.15757592 0.00506811 0.00000000
0.27694941 1.00940944 -0.00213898 0.00000000
0.97076527 1.59550826 0.00128747 0.00000000
1.19727558 0.39625127 -0.00241045 0.00000000
0.26816703 0.79919685 0.00064530 0.00000000
4.38227506 0.08341847 -0.00059999 0.00000000
1.25385017 1.27199988 0.00164953 0.00000000
4.60700934 0.17379983 0.00003855 0.00000000
4.56622379 0.64637438 0.00447186 0.00000000
3.20172906 1.00268372 -0.00023940 0.00000000
2.84837672 1.56054666 -0.00025071 0.00000000
1.03957975 0.14476297 0.00146409 0.00000000
4.29610805 0.13427083 -0.00263934 0.00000000
0.19690716 1.36431993 0.00106458 0.00000000
4.62369287 0.62065202 -0.00165902 0.00000000
0.10250837 0.34487483 -0.00342022 0.00000000
4.10041957 0.18093261 0.00417791 0.00000000
0.88881695 0.47025490 0.00507319 0.00000000
1.49613273 0.59965748 -0.00142584 0.00000000
0.87095136 1.56731714 -0.00063464 0.00000000
2.35924546 1.79270500 -0.00304197 0.00000000
2.73705979 1.23219925 -0.00089620 0.00000000
1.67008760 0.60706031 -0.00126822 0.00000000
1.53238358 1.02847196 -0.00053377 0.00000000
3.29538679 0.01590659 -0.00141721 0.00000000
2.17406344 0.53064926 -0.00120304 0.00000000
2.91556747 0.88553609 0.00116514 0.00000000
0.18522215 0.00906620 -0.00074222 0.00000000
3.15225569 0.02302559 -0.00525723 0.00000000
4.08787962 1.12346462 -0.00218814 0.00000000
1.96325691 1.73048274 0.00146244 0.00000000
2.98787735 1.33329696 0.00057890 0.00000000
1.40730281 1.76868809 0.00215233 0.00000000
4.24675111 0.11564016 0.00127377 0.00000000
2.62331271 0.52730194 0.00390374 0.00000000
3.46129202 1.40643395 0.00165660 0.00000000
4.31036241 1.10751805 -0.00127224 0.00000000
1.57297110 0.19979700 0.00145540 0.00000000
3.03154382 0.42282132 0.00027938 0.00000000
0.49850971 1.14324548 0.00360949 0.00000000
2.80602195 0.69141973 -0.00307023 0.00000000
1.94060593 1.70389567 0.00163358 0.00000000
1.24597509 0.33886217 -0.00190621 0.00000000
2.34771038 0.51578673 -0.00122018 0.00000000
2.35300879 0.68900127 -0.00477321 0.00000000
2.51255332 0.79206042 0.00120563 0.00000000
2.54163635 1.76081824 -0.00475954 0.00000000
4.27119542 0.95625828 -0.00360626 0.00000000
3.25788507 0.13115459 0.00067127 0.00000000
2.01623766 0.87352490 0.00334495 0.00000000
4.63778001 0.92654204 0.00018786 0.00000000
3.28911066 1.62625891 -0.00327115 0.00000000
3.71215827 1.19430596 -0.00157823 0.00000000
4.43897333 0.95173099 0.00353811 0.00000000
0.29979029 1.67251746 -0.00280620 0.00000000
1.38779977 0.31398914 -0.00044097 0.00000000
4.59378514 1.78113195 0.00109059 0.00000000
3.69381924 0.68115947 -0.00355327 0.00000000
1.98711121 1.23543279 -0.00042859 0.00000000
1.56579346 1.45001514 -0.00155444 0.00000000
4.47144727 0.82070359 0.00029968 0.00000000
3.06081301 1.36206660 -0.00000587 0.00000000
1.48740020 0.98993196 0.00029975 0.00000000
4.56730992 0.85539732 0.00148703 0.00000000
1.18957373 0.69350716 -0.00180278 0.00000000
1.99222234 1.50133676 -0.00338771 0.00000000
1.89465298 0.62753171 -0.00014487 0.00000000
4.35826848 0.51600649 -0.00175089 0.00000000
3.59713619 0.77191425 -0.00053682 0.00000000
2.66349119 1.06371304 -0.00080496 0.00000000
1.20050653 1.63444824 0.00069155 0.00000000
2.55916094 0.76259214 0.00340077 0.00000000
2.62998966 1.48346099 0.00365016 0.00000000
1.92156021 0.54208775 -0.00257658 0.00000000
1.45200136 0.04331492 -0.00152564 0.00000000
2.49397394 1.79848710 0.00136431 0.00000000
3.60937169 1.40747926 0.00281447 0.00000000
4.55003065 1.33191233 -0.00146504 0.00000000
3.00802122 1.38739617 -0.00060094 0.00000000
3.78454919 0.52573634 0.00059561 0.00000000
2.15180229 0.09233892 0.00109638 0.00000000
2.76505320 0.99605841 0.00084183 0.00000000
3.05661035 0.56169843 0.00120330 0.00000000
1.58549053 0.15183152 -0.00460590 0.00000000
2.82440821 0.35340038 -0.00173015 0.00000000
3.05547233 1.23572050 0.00035137 0.00000000
1.08337781 1.29664747 0.00213039 0.00000000
3.74226282 0.98681709 -0.00090016 0.00000000
4.71124847 0.36273563 0.00065039 0.00000000
0.90762797 0.85990450 -0.00178524 0.00000000
0.74844456 0.81005711 -0.00008013 0.00000000
4.48766632 0.22170131 -0.00499943 0.00000000
0.34210697 1.75170648 -0.00028635 0.00000000
0.52455511 0.74313036 -0.00010980 0.00000000
0.49206704 0.57784500 0.00041767 0.00000000
0.43942177 0.29902152 -0.00111919 0.00000000
2.11926819 0.32002390 0.00065478 0.00000000
4.60570714 0.37135711 0.00139248 0.00000000
1.31518650 0.21008936 -0.00102613 0.00000000
1.30030765 0.85152691 -0.00253449 0.00000000
4.41025099 1.60663271 -0.00103915 0.00000000
3.97025663 1.53222058 0.00094830 0.00000000
3.26198581 1.29848436 -0.00027368 0.00000000
1.40435580 0.15670784 0.00170592 0.00000000
2.31764983 1.13267738 0.00008880 0.00000000
3.58500341 0.03995399 -0.00488394 0.00000000
2.21119987 1.75462763 -0.00348523 0.00000000
3.21338907 0.24012037 0.00102782 0.00000000
0.53684056 1.65204300 0.00207848 0.00000000
3.93018574 0.31773441 0.00172492 0.00000000
3.50306048 0.72234765 -0.00176990 0.00000000
2.60270579 0.46104076 0.00129793 0.00000000
0.64315919 1.74828234 -0.00238845 0.00000000
2.75033198 0.70264710 -0.00016249 0.00000000
1.09367401 1.30245157 -0.00089969 0.00000000
2.38779359 1.07195504 -0.00300674 0.00000000
1.01437169 1.28250711 0.00552950 0.00000000
3.07937842 1.54590226 0.00276521 0.00000000
0.36591816 1.41530907 0.00379539 0.00000000
0.08097982 0.80141391 -0.00236745 0.00000000
4.49517352 1.18560420 -0.00123018 0.00000000
3.95331959 0.92505025 -0.00227753 0.00000000
4.63760936 0.05314429 0.00098634 0.00000000
0.65588739 0.96809072 -0.00247837 0.00000000
2.76104350 1.35851074 0.00348752 0.00000000
3.03631712 0.20993866 0.00174153 0.00000000
3.53062386 0.55053386 0.00062448 0.00000000
0.74291220 1.62037325 0.00002968 0.00000000
2.61633940 0.78135509 0.00113330 0.00000000
3.46508824 0.63857735 -0.00007041 0.00000000
3.57896843 0.86369061 -0.00377834 0.00000000
3.69944549 0.31237895 -0.00325753 0.00000000
0.29421316 1.65120292 -0.00064436 0.00000000
2.23982870 0.36622870 -0.00166984 0.00000000
2.69834021 0.16821143 0.00273707 0.00000000
0.58550115 1.07618792 0.00102429 0.00000000
0.58110935 0.22591928 -0.00049115 0.00000000
0.27460986 0.35880828 0.00041532 0.00000000
4.21532800 0.82867097 -0.00175234 0.00000000
2.35369440 0.85441198 -0.00235082 0.00000000
4.22167628 1.66282420 -0.00181499 0.00000000
2.84103387 0.65305538 -0.00189783 0.00000000
1.35576275 0.32589067 0.00017378 0.00000000
3.40571721 1.40789228 0.00036099 0.00000000
0.60278676 0.25636860 -0.00125052 0.00000000
1.45513546 0.59524353 -0.00189048 0.00000000
0.10147549 0.44619991 0.00149763 0.00000000
4.43366148 0.34674721 -0.00020707 0.00000000
4.60218731 0.93617223 0.00129699 0.00000000
2.43134239 0.65703665 -0.00235861 0.00000000
3.50805307 0.06708169 -0.00166172 0.00000000
1.38303679 1.55951934 0.00014718 0.00000000
4.46407526 0.63502724 0.00270508 0.00000000
1.96723931 1.27753911 0.00207560 0.00000000
0.99360981 1.35878601 -0.00030869 0.00000000
0.89164565 0.24906417 0.00146289 0.00000000
3.86427213 1.04383915 0.00015811 0.00000000
0.41111234 1.24148783 -0.00030156 0.00000000
2.07790011 0.12259896 0.00365188 0.00000000
0.96882054 0.86484805 0.00161499 0.00000000
0.38783315 0.54251249 -0.00273249 0.00000000
0.88644391 1.67439268 0.00241369 0.00000000
3.82485045 1.20980365 -0.00229622 0.00000000
2.86531930 0.34618030 -0.00345719 0.00000000
2.77104585 0.55199291 -0.00289898 0.00000000
4.58825575 1.53697068 -0.00313117 0.00000000
0.24145361 1.05439657 -0.00071782 0.00000000
3.30586633 0.42579073 -0.00168639 0.00000000
3.07339477 0.35148016 0.00173366 0.00000000
2.99258978 0.11040006 -0.00096474 0.00000000
3.60164343 0.59534470 -0.00050142 0.00000000
3.25624458 0.17265277 -0.00031313 0.00000000
4.19229447 0.59225697 -0.00120305 0.00000000
3.57885307 0.29666286 -0.00079656 0.00000000
1.02422920 0.38310654 0.00226689 0.00000000
1.46160662 0.50713409 0.00292045 0.00000000
3.94724640 1.79363275 0.00271481 0.00000000
3.41386201 0.90021741 0.00268021 0.00000000
4.53975117 1.42963349 -0.00125985 0.00000000
2.61116238 0.36413252 0.00018668 0.00000000
0.35604538 0.48065018 -0.00149518 0.00000000
2.49542406 0.57299348 -0.00036118 0.00000000
1.83086076 1.52557118 0.00173217 0.00000000
1.78017060 0.01976650 0.00368099 0.00000000
2.02982713 1.47591251 -0.00173587 0.00000000
4.13620376 1.29596263 -0.00097071 0.00000000
0.90683760 1.56119398 0.00323991 0.00000000
1.36067807 0.17169069 -0.00247418 0.00000000
4.65282516 0.60949278 -0.00304743 0.00000000
2.45941354 0.97864004 -0.00438734 0.00000000
0.78251146 0.32119721 -0.00097270 0.00000000
4.04481244 1.21087878 0.00063382 0.00000000
1.45725299 0.19586210 -0.00209899 0.00000000
4.30202863 1.17963879 0.00265221 0.00000000
2.67151351 0.38037213 0.00121215 0.00000000
4.19488886 0.57127100 -0.00516919 0.00000000
4.58400953 0.60516171 0.00210806 0.00000000
1.25707459 0.42134854 0.00395307 0.00000000
1.27070993 0.37756702 -0.00442750 0.00000000
1.70397049 1.06254284 0.00071058 0.00000000
1.75334634 1.27545820 0.00134797 0.00000000
1.42975077 1.78647413 -0.00096689 0.00000000
1.61502355 1.49925816 0.00207844 0.00000000
3.12232212 1.62796033 0.00062618 0.00000000
0.77783199 0.42986179 0.00050083 0.00000000
0.56057207 0.49565485 0.00098300 0.00000000
1.84758469 1.34919127 -0.00115818 0.00000000
4.35515024 0.16517976 -0.00153541 0.00000000
0.72720134 1.20939112 0.00057772 0.00000000
2.39509852 1.49560501 0.00248430 0.00000000
1.30670341 1.44343079 -0.00146215 0.00000000
4.41742644 1.41228618 0.00438067 0.00000000
1.24618983 0.09197808 -0.00285923 0.00000000
0.92512061 1.53058156 -0.00002096 0.00000000
1.16305010 1.54735956 -0.00011039 0.00000000
3.90827822 1.06824885 0.00108236 0.00000000
3.32650811 1.56156851 -0.00323341 0.00000000
0.10106083 0.02469083 -0.00123446 0.00000000
4.44713099 1.60046735 -0.00037523 0.00000000
2.07686059 0.03079383 -0.00463531 0.00000000
4.40686916 1.24076588 0.00118322 0.00000000
1.05713492 1.47566517 0.00164912 0.00000000
0.48608027 1.42213753 0.00317878 0.00000000
0.76139674 1.80623812 -0.00118473 0.00000000
2.97980043 1.33821930 0.00195163 0.00000000
2.26924361 0.95534577 0.00178118 0.00000000
2.09985343 1.02783418 0.00405941 0.00000000
1.55999258 0.84787296 -0.00158633 0.00000000
1.40960684 1.04796849 -0.00116789 0.00000000
4.64637205 0.52976223 -0.00364186 0.00000000
1.88311142 1.68170787 -0.00157152 0.00000000
3.60047310 1.67852536 0.00069714 0.00000000
2.45054292 0.47826453 0.00238179 0.00000000
0.13005210 0.27304736 0.00155043 0.00000000
0.66319859 0.26052198 -0.00028829 0.00000000
3.96914577 0.02150374 0.00113364 0.00000000
4.16497413 0.61837952 0.00005260 0.00000000
3.52838310 0.59099903 0.00190989 0.00000000
3.59097685 0.06748785 -0.00134898 0.00000000
3.70407193 1.34277850 0.00312174 0.00000000
0.89131333 1.08805287 0.00133133 0.00000000
2.68645552 0.82120672 0.00310978 0.00000000
3.85450113 0.89574970 0.00278390 0.00000000
3.83405751 1.30670590 0.00483487 0.00000000
0.78518272 1.04889193 0.00098341 0.00000000
4.03973356 1.07371475 0.00243825 0.00000000
0.87421848 1.48493003 0.00283832 0.00000000
3.06494447 1.07998835 0.00094437 0.00000000
1.99705797 0.01261954 -0.00237260 0.00000000
1.78022939 1.74576933 0.00183378 0.00000000
0.49246486 1.31428799 -0.00030864 0.00000000
1.86695585 1.07168255 -0.00087113 0.00000000
0.55007745 1.54107751 -0.00148083 0.00000000
0.79166347 1.70079871 -0.00321213 0.00000000
1.06746592 0.87955494 0.00325683 0.00000000
4.35271093 0.70371203 -0.00441881 0.00000000
2.00127389 0.38718720 -0.00079481 0.00000000
4.26574684 1.62468698 -0.00153182 0.00000000
4.16768838 0.92602152 0.00265257 0.00000000
1.08525765 1.20118147 0.00151639 0.00000000
3.04187870 0.53864458 0.00123191 0.00000000
0.56821419 0.17986753 0.00010524 0.00000000
1.26621841 1.24545181 0.00026475 0.00000000
4.30783328 1.54948024 0.00288587 0.00000000
0.70068173 0.04071397 0.00258490 0.00000000
3.79927139 1.12267246 -0.00045328 0.00000000
2.67341631 0.37207678 -0.00043886 0.00000000
3.05226757 0.99708045 -0.00135866 0.00000000
4.66777135 0.33839403 0.00058924 0.00000000
0.22600519 0.65665310 -0.00077469 0.00000000
1.94438057 0.56832757 -0.00113397 0.00000000
3.13120987 0.05247251 -0.00232364 0.00000000
4.61556210 1.79669595 -0.00305882 0.00000000
4.35402867 0.09578682 0.00239235 0.00000000
3.37659457 0.56419528 0.00351572 0.00000000
2.97209772 0.34086302 -0.00251711 0.00000000
3.76515568 0.38137988 -0.00078287 0.00000000
1.51431148 0.16999063 -0.00320019 0.00000000
4.29404993 1.77251852 -0.00051819 0.00000000
3.67665543 1.54826116 0.00118121 0.00000000
1.12052649 1.04190421 0.00195837 0.00000000
0.38620003 1.77914031 0.00096899 0.00000000
3.62530593 1.01129044 0.00167278 0.00000000
2.96149113 0.76388789 -0.00233089 0.00000000
0.35826712 1.80497488 -0.00086761 0.00000000
2.80202786 0.33372592 -0.00299580 0.00000000
3.40885309 1.69005569 0.00048227 0.00000000
2.34115187 1.44674228 -0.00419263 0.00000000
2.43919091 0.27437568 0.00146264 0.00000000
2.67450521 0.58682605 0.00417934 0.00000000
0.38594412 1.79342954 -0.00140320 0.00000000
0.67066605 1.15328789 0.00066263 0.00000000
3.15947936 0.75874211 -0.00311345 0.00000000
2.29349094 0.38751169 -0.00132812 0.00000000
2.00909337 1.30922964 0.00271657 0.00000000
4.47753921 0.32180393 -0.00007940 0.00000000
4.37507873 1.60329470 0.00039231 0.00000000
3.21618069 1.55191745 -0.00246424 0.00000000
3.81837699 1.21424040 0.00076404 0.00000000
2.50496810 0.89266409 0.00373062 0.00000000
2.11797863 0.53893004 0.00331493 0.00000000
2.10705764 0.31707292 0.00008677 0.00000000
0.95302319 1.39226069 -0.00099451 0.00000000
1.91446663 1.59296146 0.00009680 0.00000000
3.72609635 0.31574576 0.00019883 0.00000000
4.40409893 0.88997299 0.00083252 0.00000000
3.99874251 1.25184869 0.00037684 0.00000000
0.09594364 1.58521550 0.00164651 0.00000000
4.32719584 0.85112026 -0.00409851 0.00000000
2.53431921 0.82818656 -0.00644654 0.00000000
3.66749773 1.66513536 0.00159546 0.00000000
3.32135356 0.44724277 -0.00243011 0.00000000
4.71374864 1.44828628 0.00146685 0.00000000
0.36453796 1.38487870 -0.00127027 0.00000000
0.09977230 0.74389038 0.00352915 0.00000000
0.33540253 1.48294188 0.00134801 0.00000000
0.78030293 1.00074476 -0.00049691 0.00000000
3.80996373 0.51094408 0.00307362 0.00000000
2.16120486 0.44949271 0.00180047 0.00000000
0.09891973 0.13121711 0.00338527 0.00000000
1.00445180 1.55853967 -0.00034153 0.00000000
0.62304212 0.52165161 0.00526954 0.00000000
0.60599552 1.39538600 0.00010664 0.00000000
3.12462782 1.09959906 -0.00210944 0.00000000
2.79369758 0.56573860 -0.00107019 0.00000000
3.90321995 0.44885383 0.00174195 0.00000000
3.52577900 1.42161424 -0.00459857 0.00000000
0.37487167 1.44116767 0.00042102 0.00000000
1.45500449 0.99285502 -0.00070118 0.00000000
1.98690483 0.40547427 0.00145111 0.00000000
2.36724928 0.28145545 -0.00657793 0.00000000
2.44469990 1.60454564 0.00305798 0.00000000
2.82869720 0.58262902 -0.00090928 0.00000000
3.21521325 1.07607735 0.00054729 0.00000000
0.93630970 0.98103432 -0.00335300 0.00000000
1.61114405 1.10141080 -0.00228947 0.00000000
3.26503532 0.43783954 0.00286712 0.00000000
1.54691050 0.43293929 -0.00496598 0.00000000
0.95743533 1.74484910 -0.00140241 0.00000000
3.28509345 0.68364640 -0.00191454 0.00000000
0.46838976 0.19421372 0.00168108 0.00000000
0.75658735 0.26147989 0.00033027 0.00000000
1.91452291 1.22702339 0.00090543 0.00000000
1.56757888 0.55510657 0.00387159 0.00000000
3.21586486 1.31434008 -0.00036638 0.00000000
0.31492935 1.68547500 0.00352679 0.00000000
0.29433677 0.92343767 -0.00125208 0.00000000
0.24133893 1.04501696 -0.00155304 0.00000000
3.30872854 0.16435950 -0.00466958 0.00000000
0.72282034 0.21768246 -0.00018055 0.00000000
0.48267444 1.46999055 0.00098209 0.00000000
4.54795352 0.61551824 -0.00284469 0.00000000
0.57564697 0.06071635 -0.00244033 0.00000000
4.03574850 1.30837352 0.00360942 0.00000000
0.08095292 1.02406112 0.00325328 0.00000000
3.49370382 0.21484959 0.00023580 0.00000000
0.23557205 0.20614943 -0.00289532 0.00000000
2.73185523 0.72121737 0.00007757 0.00000000
0.98168813 0.94933998 0.00212982 0.00000000
0.42797307 1.41419973 -0.00080352 0.00000000
3.34089333 0.14209621 0.00185084 0.00000000
3.74044338 1.76287945 -0.00367390 0.00000000
1.94442748 0.09980142 0.00250269 0.00000000
1.82835050 0.91494155 -0.00206903 0.00000000
0.51539525 1.21896074 0.00115189 0.00000000
1.22931260 0.48703757 -0.00469521 0.00000000
0.02645938 0.42268856 -0.00013247 0.00000000
1.77997207 1.71647345 0.00141713 0.00000000
3.45393476 0.12904970 0.00735874 0.00000000
4.42439836 1.08189564 -0.00013816 0.00000000
0.20176704 1.09677655 0.00443458 0.00000000
1.49569817 0.74154132 -0.00083018 0.00000000
4.42904012 1.03508684 0.00564694 0.00000000
3.69899368 0.05392078 -0.00103631 0.00000000
3.48357751 0.65981435 0.00331385 0.00000000
3.91576429 0.62641242 0.00096857 0.00000000
1.10002739 1.05365761 -0.00118230 0.00000000
0.53774105 0.39806087 -0.00425915 0.00000000
3.50503026 1.68044420 -0.00251940 0.00000000
0.31509956 0.64178153 -0.00004860 0.00000000
3.66916190 1.68399935 -0.00306263 0.00000000
2.63438955 1.23797693 0.00102884 0.00000000
2.41562632 0.06615758 -0.00319442 0.00000000
2.38494379 1.39258091 0.00233900 0.00000000
2.47553372 1.09167995 0.00152388 0.00000000
1.74076927 1.52991401 -0.00074428 0.00000000
4.68585833 0.78976190 0.00113590 0.00000000
0.07603749 1.53596219 0.00094547 0.00000000
0.91943276 0.79869923 -0.00010518 0.00000000
3.02517157 0.67849460 0.00088298 0.00000000
4.66475038 1.27689735 0.00439313 0.00000000
3.75531364 0.01035071 0.00458116 0.00000000
2.02729969 1.08116759 0.00353529 0.00000000
4.46321300 0.19902765 -0.00123943 0.00000000
2.62543055 0.77109443 0.00002058 0.00000000
1.79759779 1.45782553 -0.00280531 0.00000000
2.24952668 0.56192289 0.00631735 0.00000000
2.89755620 0.06057659 0.00271195 0.00000000
4.05749431 1.10758848 0.00074117 0.00000000
2.16018308 0.78108828 -0.00157392 0.00000000
2.50486943 0.86793128 -0.00064513 0.00000000
3.25897678 1.67482251 0.00024819 0.00000000
1.82363493 1.20016910 0.00037582 0.00000000
3.75107697 0.92124215 0.00261528 0.00000000
2.87966689 0.04087296 0.00039526 0.00000000
0.96977732 0.83549469 -0.00168223 0.00000000
3.48267869 1.42442082 -0.00271525 0.00000000
1.58558855 0.72915682 -0.00171464 0.00000000
3.19918047 1.64009909 -0.00447472 0.00000000
0.50131356 0.99462905 -0.00086979 0.00000000
4.10496907 0.93496879 0.00240710 0.00000000
3.00642345 1.58463450 0.00062378 0.00000000
2.33150405 1.37085167 -0.00033306 0.00000000
3.02036836 1.16135047 0.00112169 0.00000000
0.29835442 0.25269590 0.00350350 0.00000000
1.67384834 0.49917426 0.00306627 0.00000000
2.48930637 0.26006929 0.00378847 0.00000000
0.97115111 0.46908623 0.00099192 0.00000000
3.12275887 1.50189054 0.00097860 0.00000000
1.86978661 1.80876317 -0.00129427 0.00000000
1.97118091 1.53029198 -0.00180452 0.00000000
1.48392751 0.75687654 -0.00232067 0.00000000
2.48876687 0.48990668 -0.00298288 0.00000000
1.01589227 0.99237385 -0.00125860 0.00000000
4.66759040 1.54719989 -0.00046777 0.00000000
1.89190482 0.65403938 -0.00554873 0.00000000
3.27336289 1.74308494 0.00690184 0.00000000
3.68634855 1.42346492 -0.00089867 0.00000000
4.71502240 1.41858664 -0.00238453 0.00000000
1.35422133 1.72609794 -0.00371467 0.00000000
3.42690474 0.41808760 0.00169273 0.00000000
2.39142565 0.18057055 0.00169630 0.00000000
2.34351327 0.04059058 -0.00413205 0.00000000
2.32986193 0.10825245 0.00307623 0.00000000
0.29957600 0.47450125 0.00397722 0.00000000
2.23526720 0.11778483 0.00017811 0.00000000
4.58935023 1.52556235 -0.00480655 0.00000000
2.86769651 0.15977844 -0.00357370 0.00000000
1.55004124 0.85593660 -0.00218846 0.00000000
2.51918904 0.94264155 -0.00000313 0.00000000
1.07433276 0.19386204 -0.00096373 0.00000000
1.13862422 1.63625556 0.00110580 0.00000000
4.68323447 1.23317976 0.00038052 0.00000000
3.48496100 0.09890454 0.00127988 0.00000000
0.49918488 1.09409809 -0.00043268 0.00000000
1.36076220 0.33136610 -0.00295572 0.00000000
2.28441569 1.09568474 -0.00175004 0.00000000
4.38668999 0.62841797 -0.00072339 0.00000000
4.35542640 0.56013843 -0.00054484 0.00000000
1.48172304 0.66991127 0.00085594 0.00000000
1.87208906 1.13418951 -0.00068126 0.00000000
0.13061100 1.31263667 -0.00085251 0.00000000
4.67310850 1.58157234 -0.00044971 0.00000000
1.66879557 1.30768962 0.00233278 0.00000000
1.10978187 0.76462103 0.00180753 0.00000000
1.06670283 1.63804633 -0.00276591 0.00000000
4.57048701 0.26143046 -0.00074477 0.00000000
3.07568230 1.09240952 -0.00083120 0.00000000
1.43534723 1.60042351 0.00026888 0.00000000
4.22113065 0.70651933 0.00163583 0.00000000
3.84998176 0.96422528 0.00144710 0.00000000
4.10585805 0.99935014 -0.00187753 0.00000000
3.25833758 0.57919813 0.00176858 0.00000000
3.08979474 0.89920037 -0.00352251 0.00000000
2.76051950 0.66266809 0.00346272 0.00000000
1.33845811 1.59865862 -0.00310265 0.00000000
2.79457068 1.44426628 -0.00030853 0.00000000
0.87276034 0.77675030 0.00187020 0.00000000
0.37884228 0.81425891 -0.00032689 0.00000000
1.57203741 0.83523352 -0.00085725 0.00000000
1.99120445 0.46176647 0.00041874 0.00000000
2.90670746 1.48351907 0.00116468 0.00000000
4.51115347 1.64581233 0.00177167 0.00000000
2.23714972 0.51923838 0.00079603 0.00000000
2.28640359 0.24495472 0.00137226 0.00000000
3.19534634 1.17655530 0.00374926 0.00000000
1.71612460 0.27885560 -0.00143376 0.00000000
1.92321716 1.05137098 0.00298473 0.00000000
1.31808231 1.64914342 0.00018871 0.00000000
0.63647190 1.19965181 0.00123547 0.00000000
1.45111449 1.01691448 0.00126793 0.00000000
3.20425279 0.76523911 -0.00139187 0.00000000
1.20022209 0.05095607 -0.00132033 0.00000000
2.65126965 0.38402847 0.00269618 0.00000000
3.74790426 1.26115025 0.00052156 0.00000000
3.19808224 1.08091628 -0.00032076 0.00000000
0.90776706 1.07211184 0.00255877 0.00000000
2.76148890 0.35173193 0.00240627 0.00000000
0.98059473 0.32847294 -0.00107578 0.00000000
0.66965719 1.48411192 0.00175267 0.00000000
3.31888009 1.03876386 -0.00158516 0.00000000
1.84390155 1.75338922 -0.00487537 0.00000000
2.61008713 1.55563975 -0.00071695 0.00000000
4.59434758 1.51676256 0.00347981 0.00000000
3.86304716 0.73024504 -0.00010492 0.00000000
2.10580274 0.05379996 0.00052140 0.00000000
3.73020660 0.80598509 0.00253292 0.00000000
2.14021699 0.71022516 0.00036885 0.00000000
0.38841927 1.36777623 -0.00255591 0.00000000
2.42037422 0.64507812 0.00320025 0.00000000
0.14317228 1.59305723 -0.00103000 0.00000000
4.46398281 0.62962675 0.00418348 0.00000000
2.17001077 0.17888893 -0.00177219 0.00000000
3.22186310 1.19503883 -0.00390042 0.00000000
0.69164883 1.12420892 0.00607326 0.00000000
3.46809744 0.77377938 0.00012335 0.00000000
2.71313524 0.46184743 0.00054312 0.00000000
3.86903772 0.91514641 0.00220521 0.00000000
3.82730634 0.02416436 0.00043218 0.00000000
1.66939707 1.45416625 0.00370405 0.00000000
3.77470848 1.04493625 -0.00176742 0.00000000
0.96569907 0.27337861 0.00239618 0.00000000
4.01785091 0.22257566 0.00182720 0.00000000
3.20877129 0.43605097 0.00161780 0.00000000
4.42329302 0.10420582 0.00407975 0.00000000
4.30863120 1.69378793 -0.00004619 0.00000000
1.07488251 0.30616314 0.00055940 0.00000000
3.50905209 0.95128348 -0.00249477 0.00000000
4.30076465 1.23710624 -0.00251177 0.00000000
4.49974523 0.28982231 -0.00232927 0.00000000
0.13788061 1.25454223 0.00462238 0.00000000
2.07701009 0.74447475 0.00079002 0.00000000
0.69254624 0.11731214 -0.00068844 0.00000000
1.71518278 0.58485391 -0.00143398 0.00000000
4.29346733 0.19980635 0.00341254 0.00000000
2.35506255 1.62464865 -0.00097365 0.00000000
3.57459409 1.08215323 -0.00052444 0.00000000
4.58999788 0.13739440 -0.00036720 0.00000000
3.27876170 1.00328796 -0.00148068 0.00000000
1.11405133 0.93153545 -0.00073317 0.00000000
2.99609599 0.37162290 0.00099097 0.00000000
0.45858548 0.19298229 -0.00392698 0.00000000
0.02693178 0.53667658 -0.00192579 0.00000000
1.68381842 1.15348442 -0.00039341 0.00000000
2.63960223 1.57106852 0.00661994 0.00000000
1.45035046 1.66817580 0.00241025 0.00000000
3.71994828 1.19230128 -0.00202423 0.00000000
1.07870851 0.43360205 -0.00086104 0.00000000
4.52134661 1.64904220 -0.00332049 0.00000000
3.06745414 1.30246137 -0.00301773 0.00000000
1.46226664 0.46148053 -0.00072455 0.00000000
4.01259701 0.94136335 -0.00333770 0.00000000
0.20287480 0.11182717 0.00344576 0.00000000
3.69142749 1.77197773 0.00440236 0.00000000
1.35081659 1.36381431 -0.00064550 0.00000000
0.76499430 1.80349128 -0.00079423 0.00000000
1.65081512 0.46341490 -0.00494030 0.00000000
2.38893294 0.02171823 -0.00035831 0.00000000
3.17747704 1.61163670 0.00272981 0.00000000
1.25286791 0.58903984 0.00086304 0.00000000
1.12429965 0.39980511 -0.00497080 0.00000000
3.83035828 0.16623876 -0.00069329 0.00000000
2.12874916 1.81065647 -0.00390331 0.00000000
2.73059987 0.42798212 -0.00263198 0.00000000
1.70911435 1.16546532 -0.00025466 0.00000000
1.41520293 0.63717045 0.00073432 0.00000000
3.88132943 0.60935624 0.00131449 0.00000000
1.25293611 1.14817699 -0.00045744 0.00000000
3.76241984 1.64314267 -0.00223842 0.00000000
0.02359840 1.04005768 -0.00416892 0.00000000
2.58851581 0.60909969 -0.00653547 0.00000000
3.21849353 0.35520538 0.00538743 0.00000000
0.82650054 0.21439553 0.00059898 0.00000000
4.05491934 0.42151583 0.00273207 0.00000000
3.81489771 1.78621140 -0.00253586 0.00000000
2.88376152 1.50807299 -0.00610660 0.00000000
2.79093017 0.34648708 -0.00286626 0.00000000
0.69943588 0.46967884 0.00018195 0.00000000
2.77692188 0.28467770 0.00230194 0.00000000
0.81876295 0.83285642 -0.00035193 0.00000000
3.81474552 0.58137728 0.00120422 0.00000000
1.99771348 0.15646222 0.00156849 0.00000000
1.54566202 0.97884078 0.00188740 0.00000000
3.87394778 0.49927889 -0.00647110 0.00000000
3.09140951 1.03749463 0.00079328 0.00000000
3.39408270 1.21481116 -0.00026687 0.00000000
2.28092339 0.37791756 -0.00313124 0.00000000
3.59419855 0.98380986 -0.00119188 0.00000000
1.51454191 0.38278254 -0.00214939 0.00000000
2.87411686 1.04309051 -0.00063774 0.00000000
2.87781676 1.35135421 0.00324533 0.00000000
2.16081641 0.19001137 0.00031222 0.00000000
0.40944349 0.73424622 -0.00277995 0.00000000
4.44428043 0.88027011 0.00325201 0.00000000
0.76431775 1.11454662 0.00058335 0.00000000
1.52363952 1.47355468 0.00082832 0.00000000
4.00308972 0.73057438 0.00524795 0.00000000
2.99751030 0.97387764 -0.00199596 0.00000000
4.51831936 0.92041768 -0.00003421 0.00000000
0.49869581 1.60325340 0.00154119 0.00000000
0.67216106 1.29186314 -0.00158743 0.00000000
3.18270705 0.86625362 0.00335943 0.00000000
1.72908399 0.28077331 0.00054299 0.00000000
3.14752317 1.66873881 0.00521967 0.00000000
2.60817349 1.67723409 -0.00192853 0.00000000
3.74127596 0.55254055 -0.00596353 0.00000000
2.58700199 0.33163921 0.00445216 0.00000000
2.28378148 0.90903038 0.00128921 0.00000000
1.09948456 0.84857062 -0.00400510 0.00000000
1.86567855 0.09871327 -0.00072841 0.00000000
0.20970647 0.27941476 0.00066072 0.00000000
3.36358242 0.59981341 0.00145194 0.00000000
1.23552542 0.14176694 0.00236049 0.00000000
3.47625363 1.55491375 0.00190227 0.00000000
2.84367745 1.32761105 0.00196498 0.00000000
3.08246145 0.55747498 -0.00111713 0.00000000
2.72717533 0.85619425 0.00261599 0.00000000
1.43788044 1.70802175 0.00274327 0.00000000
0.89105500 0.41509672 0.00245511 0.00000000
3.37755874 0.13694593 -0.00074617 0.00000000
0.86526245 0.00540411 -0.00273261 0.00000000
0.22708977 1.39393067 -0.00074938 0.00000000
2.29389336 0.08088253 0.00269480 0.00000000
0.02711360 0.74647807 -0.00388176 0.00000000
0.87923170 0.85808063 -0.00077961 0.00000000
0.97968986 0.20877228 -0.00029146 0.00000000
0.10723491 1.59078009 -0.00213622 0.00000000
0.48990415 1.80696178 0.00203956 0.00000000
0.91602089 1.55875761 -0.00086222 0.00000000
3.07463786 0.62230611 -0.00119883 0.00000000
0.99945135 0.94157451 0.00332371 0.00000000
1.63924218 0.48159736 0.00023907 0.00000000
0.91280991 0.76051139 -0.00146805 0.00000000
1.78190949 1.69352780 0.00229328 0.00000000
4.38839148 0.38286150 -0.00223638 0.00000000
3.32808565 0.22337217 0.00362886 0.00000000
4.21005077 1.04917732 0.00025531 0.00000000
2.30892235 1.28527609 -0.00008806 0.00000000
3.34139261 1.43733739 0.00424612 0.00000000
3.46066343 0.01068255 0.00302322 0.00000000
0.02514097 1.34115770 0.00320029 0.00000000
1.69664432 0.28087722 0.00411644 0.00000000
0.70338870 0.88908202 0.00001004 0.00000000
1.24796409 0.21480559 -0.00194427 0.00000000
3.51010637 1.54707332 -0.00107418 0.00000000
0.51131259 0.17632580 -0.00002857 0.00000000
3.68716612 0.16706136 -0.00265818 0.00000000
3.88118268 0.60481887 -0.00189483 0.00000000
2.56410358 0.16832930 -0.00170424 0.00000000
4.21771807 0.71159737 -0.00183841 0.00000000
0.28987277 0.36771801 0.00277350 0.00000000
3.39260529 0.82457243 0.00106901 0.00000000
2.85441067 1.23647141 -0.00160793 0.00000000
3.43131511 0.08043551 -0.00018960 0.00000000
3.33808876 1.53811810 0.00380064 0.00000000
4.29272434 0.18780375 -0.00120740 0.00000000
4.48482365 0.03247860 0.00112270 0.00000000
3.47897044 1.71681584 -0.00045404 0.00000000
0.65289233 1.38195271 -0.00477872 0.00000000
0.32910897 0.67661635 0.00332194 0.00000000
4.54166954 0.04013020 -0.00373849 0.00000000
4.42849730 0.62639615 -0.00116651 0.00000000
0.34301386 0.61296079 0.00290359 0.00000000
1.02333907 0.43020228 -0.00479436 0.00000000
2.87599453 1.71163551 -0.00367400 0.00000000
4.61344978 1.27858675 -0.00144413 0.00000000
1.07084001 0.72272075 -0.00192945 0.00000000
1.74326174 0.35432393 0.00453984 0.00000000
2.81628025 1.77311490 -0.00077968 0.00000000
3.77134127 0.32417928 -0.00585875 0.00000000
3.41959352 1.12822367 -0.00208366 0.00000000
2.21314791 1.67689023 -0.00365475 0.00000000
1.50990735 0.42421031 -0.00313908 0.00000000
0.07459488 0.67424869 -0.00194885 0.00000000
0.02960177 1.19588299 -0.00484206 0.00000000
2.06593715 0.17843104 -0.00031757 0.00000000
2.26003232 1.22972133 -0.00087970 0.00000000
3.68926758 1.10382342 0.00274637 0.00000000
1.39886694 0.83779299 0.00386144 0.00000000
2.21436099 0.75848890 -0.00034727 0.00000000
2.64157605 0.80452226 0.00351854 0.00000000
4.66758615 1.72911952 -0.00216742 0.00000000
2.91087211 0.49866401 0.00120441 0.00000000
3.89041185 0.88302039 -0.00365608 0.00000000
0.22259971 0.91616279 0.00044723 0.00000000
0.34128554 0.55005319 0.00114253 0.00000000
4.38759052 0.55214371 0.00086938 0.00000000
4.18238255 0.92129179 -0.00033811 0.00000000
3.88552249 0.75769285 0.00093076 0.00000000
1.98148834 0.13968903 -0.00141975 0.00000000
4.37758519 0.56241628 -0.00197796 0.00000000
1.84820461 0.75878664 0.00241861 0.00000000
1.51349589 0.63317803 0.00167256 0.00000000
1.84676753 0.95103796 -0.00323579 0.00000000
0.98341072 0.17660837 0.00022612 0.00000000
2.87862328 1.39518982 -0.00077167 0.00000000
1.05525268 0.06338822 -0.00579064 0.00000000
1.77994224 0.40296164 0.00041070 0.00000000
0.15380599 0.73442985 -0.00182398 0.00000000
2.96600977 1.00097264 -0.00342018 0.00000000
4.60749281 0.50329329 -0.00033290 0.00000000
1.27881563 1.61550917 -0.00033188 0.00000000
0.79614070 1.80683610 0.00017984 0.00000000
4.03563155 0.19372969 0.00092084 0.00000000
1.92503781 0.52820532 -0.00232768 0.00000000
1.53533334 0.29696773 0.00695956 0.00000000
2.66983584 1.23743457 0.00168468 0.00000000
2.33906232 0.62378011 -0.00001078 0.00000000
2.59566612 1.60436494 0.00152800 0.00000000
0.14295995 0.56488490 0.00113543 0.00000000
2.96131054 0.01221871 -0.00148686 0.00000000
1.41043564 0.55510007 0.00191791 0.00000000
3.56620983 1.12755864 0.00412630 0.00000000
0.53384951 1.24181228 0.00129972 0.00000000
1.06494362 0.15222145 -0.00420631 0.00000000
4.47340224 1.56145985 0.00264749 0.00000000
2.16164489 0.31474386 0.00138064 0.00000000
0.56521165 1.43223187 0.00120428 0.00000000
4.52263327 1.37719572 0.00028706 0.00000000
0.77770804 0.57960066 -0.00175014 0.00000000
4.19167388 1.68789452 0.00046046 0.00000000
4.45202072 0.62942217 -0.00006931 0.00000000
1.56138098 1.40650493 -0.00140828 0.00000000
2.18238540 1.77210373 -0.00219629 0.00000000
2.64410197 1.72963829 -0.00508764 0.00000000
4.40393587 0.79178892 -0.00187641 0.00000000
0.40018749 1.23877631 0.00700249 0.00000000
4.31886564 0.37161405 -0.00186452 0.00000000
3.58676097 1.19612818 0.00155920 0.00000000
0.62153270 0.95237283 -0.00113765 0.00000000
0.63833114 0.13056822 -0.00383333 0.00000000
0.46991396 0.51738329 0.00094445 0.00000000
1.35708062 0.86576222 0.00162965 0.00000000
0.04463874 1.52023552 -0.00032968 0.00000000
0.45917634 0.56690967 -0.00439483 0.00000000
1.33846284 1.52297771 0.00253393 0.00000000
1.82714365 0.83228499 -0.00363677 0.00000000
4.04830066 1.71419972 0.00345757 0.00000000
3.05075489 0.71330473 0.00076641 0.00000000
1.31666919 1.50702120 -0.00053716 0.00000000
0.49565688 0.53892577 -0.00174857 0.00000000
4.45365432 1.33818831 -0.00210610 0.00000000
1.08594311 1.74268634 -0.00124575 0.00000000
3.83436580 1.70760115 0.00061212 0.00000000
3.29957781 1.73543011 -0.00489007 0.00000000
2.32419946 0.59077923 0.00123271 0.00000000
0.76487797 0.12994383 -0.00220471 0.00000000
1.25056548 1.62263657 -0.00036905 0.00000000
4.20763241 0.01018621 -0.00402794 0.00000000
2.31428004 0.18498751 -0.00151583 0.00000000
4.56836002 1.59618615 -0.00076144 0.00000000
2.14921891 1.16195691 -0.00106343 0.00000000
0.93188356 1.63777199 -0.00152185 0.00000000
4.21829806 1.68631281 -0.00042317 0.00000000
2.69619725 0.55092448 -0.00045945 0.00000000
0.78935501 0.17973107 -0.00126392 0.00000000
2.15368125 0.35238046 -0.00145432 0.00000000
4.17907829 0.18298341 0.00146762 0.00000000
3.28269121 0.03715169 -0.00159099 0.00000000
1.32376048 1.50734211 -0.00096632 0.00000000
1.69292000 1.39578519 0.00400063 0.00000000
3.37173749 1.71377778 0.00095138 0.00000000
2.21630412 1.55894339 0.00302410 0.00000000
2.95463032 1.37607149 0.00240840 0.00000000
1.37644058 0.45035908 0.00006131 0.00000000
0.75961398 0.90822296 0.00136898 0.00000000
4.07851026 1.51749720 0.00133394 0.00000000
4.38645076 1.50350908 0.00027797 0.00000000
2.88617697 0.51066009 0.00351345 0.00000000
1.35920159 1.26259349 0.00120017 0.00000000
2.48631935 0.06080171 -0.00231693 0.00000000
3.07058981 1.71555583 0.00100055 0.00000000
1.13571649 0.54378110 0.00168982 0.00000000
2.71857105 1.13573580 -0.00026760 0.00000000
3.96642176 0.53095816 -0.00473971 0.00000000
4.23710508 1.62417617 -0.00163347 0.00000000
3.51307365 0.27744892 -0.00278637 0.00000000
2.43422238 1.11558780 0.00132726 0.00000000
1.41622227 1.47486864 -0.00118409 0.00000000
3.82792206 1.18143745 -0.00506469 0.00000000
0.97859810 0.90860968 0.00131741 0.00000000
0.90463723 0.77309727 0.00411038 0.00000000
2.49695532 0.44874439 -0.00235236 0.00000000
3.46580701 0.60672802 0.00008805 0.00000000
3.11520745 1.20685025 -0.00167307 0.00000000
4.23855297 1.10336373 -0.00409768 0.00000000
2.83272604 0.06534570 -0.00032768 0.00000000
4.63033172 1.40198430 -0.00069067 0.00000000
3.54251529 1.38390483 -0.00473345 0.00000000
1.71357420 0.41058170 0.00184505 0.00000000
2.67491752 0.26096071 0.00251195 0.00000000
0.27555441 0.99775370 -0.00197028 0.00000000
2.60945335 1.15567234 0.00056820 0.00000000
1.50113409 0.05485022 -0.00394044 0.00000000
3.76341010 1.44183222 -0.00119924 0.00000000
3.52863681 1.23562250 -0.00373590 0.00000000
4.43337574 0.76316085 -0.00034965 0.00000000
1.50075610 0.56231121 -0.00106390 0.00000000
3.92939045 0.00540707 0.00640547 0.00000000
0.14040203 0.31010246 0.00018747 0.00000000
2.95619560 0.28238488 -0.00138831 0.00000000
3.41692456 0.38987478 -0.00164487 0.00000000
0.72884420 1.13280467 -0.00172171 0.00000000
