2.223538 2.389190 -0.002943 0.0
4.077993 1.916135 0.001132 0.0
3.377075 0.403641 0.003954 0.0
0.466375 0.043950 -0.005709 0.0
1.175571 0.867664 -0.003748 0.0
1.806938 0.196365 0.000348 0.0
3.439008 0.740301 0.000305 0.0
4.199063 1.788955 -0.002409 0.0
2.095272 0.371700 0.001224 0.0
1.126944 0.445578 0.001592 0.0
0.728900 0.098781 0.001199 0.0
4.174932 0.449103 0.003323 0.0
0.661288 2.402059 0.003680 0.0
3.267575 0.791731 -0.003067 0.0
3.181933 2.065795 0.002607 0.0
3.553129 0.809748 -0.000225 0.0
2.645222 0.154318 0.001957 0.0
0.382253 1.780470 0.001142 0.0
0.150513 1.916141 0.000741 0.0
2.694626 2.223849 0.001129 0.0
4.145976 0.441615 -0.001530 0.0
1.826199 0.605775 0.000830 0.0
2.170537 0.738251 -0.002679 0.0
2.872575 1.127395 -0.000297 0.0
3.908315 2.062705 -0.000612 0.0
2.244712 0.532317 -0.000012 0.0
2.760887 0.593508 0.001936 0.0
2.225254 0.448885 0.006099 0.0
3.256070 1.423382 -0.001654 0.0
0.903944 2.073671 -0.002532 0.0
3.282705 1.960338 0.000776 0.0
3.333664 2.235850 -0.001487 0.0
1.491521 0.330545 0.001015 0.0
0.755273 1.045543 0.003416 0.0
1.824440 1.135112 0.002049 0.0
1.779694 2.269676 0.001292 0.0
0.809886 1.441648 -0.002042 0.0
2.322211 0.698525 -0.001972 0.0
2.822653 1.352754 -0.001364 0.0
0.214043 1.720490 -0.001113 0.0
2.685766 0.260673 0.003529 0.0
3.616621 1.914826 0.000084 0.0
1.688801 0.735703 0.000982 0.0
2.039877 1.166435 0.003259 0.0
2.055485 1.884061 0.000757 0.0
3.594485 0.169207 -0.000169 0.0
1.604357 1.790777 -0.001573 0.0
1.029120 1.605028 -0.006040 0.0
2.140021 0.605719 -0.001049 0.0
0.967566 2.323417 -0.001327 0.0
3.295783 1.296134 -0.001871 0.0
3.453715 2.060952 0.002352 0.0
0.948632 1.707482 -0.001773 0.0
3.560855 0.961870 0.003775 0.0
3.792111 0.438496 0.000590 0.0
0.472661 1.073455 0.001630 0.0
0.255819 0.226369 0.001818 0.0
3.684539 0.084330 0.000912 0.0
0.019394 0.810080 0.003912 0.0
1.381136 2.027489 0.003313 0.0
1.088401 1.719395 0.001803 0.0
0.985315 1.350905 0.000602 0.0
4.168113 0.146082 -0.000126 0.0
3.697557 0.342219 -0.000872 0.0
2.728205 0.500543 0.002227 0.0
0.960839 2.171506 0.000263 0.0
3.810345 1.101297 0.003794 0.0
1.905540 1.983851 0.001497 0.0
2.083528 2.480668 0.001562 0.0
1.438005 0.426312 0.000742 0.0
3.954980 2.140140 0.001513 0.0
0.826740 0.429822 -0.001728 0.0
0.848685 2.126743 0.000080 0.0
4.214681 0.058855 0.001495 0.0
0.416597 0.771125 -0.000910 0.0
1.510116 0.369176 0.000025 0.0
0.336166 0.638263 0.003745 0.0
2.882642 1.769830 0.002778 0.0
0.934944 0.370023 -0.001678 0.0
2.173834 1.424217 0.000217 0.0
0.891080 0.069925 -0.000163 0.0
3.862521 0.408580 -0.000195 0.0
0.927629 0.299732 0.003628 0.0
1.718572 1.290740 0.001018 0.0
3.014686 1.967855 -0.000009 0.0
1.224408 1.162923 0.003581 0.0
2.924105 0.195849 -0.002501 0.0
4.093963 1.686480 0.000143 0.0
1.061171 1.153420 -0.003476 0.0
3.846817 1.783715 0.003897 0.0
2.227023 1.074569 0.003732 0.0
3.442157 0.195146 -0.002016 0.0
3.146213 1.096525 0.000767 0.0
0.218056 1.802399 0.005020 0.0
4.096110 1.240950 -0.001337 0.0
3.416780 0.543370 -0.002852 0.0
2.871547 2.075642 0.003587 0.0
3.989254 1.190754 0.001355 0.0
1.727206 0.893997 0.002339 0.0
0.002765 1.872127 0.002459 0.0
2.754218 2.162579 -0.004570 0.0
0.717209 0.802108 0.000868 0.0
0.852411 1.166221 -0.004392 0.0
1.285067 0.190102 -0.001340 0.0
4.162853 0.011742 -0.002697 0.0
1.486040 1.324376 0.000329 0.0
2.133937 2.438735 0.002562 0.0
1.200098 2.182989 -0.000904 0.0
4.004832 1.887349 -0.002448 0.0
3.930931 0.306069 0.003153 0.0
1.521178 0.816585 -0.000150 0.0
3.928305 0.427374 0.002210 0.0
4.155520 0.486770 0.001817 0.0
2.245565 0.850201 0.000224 0.0
1.570721 1.984451 -0.002747 0.0
0.312313 0.960964 -0.000203 0.0
1.085329 1.244451 -0.004533 0.0
2.012719 0.296171 0.003046 0.0
3.681374 2.373422 0.001046 0.0
2.942994 0.029001 0.003350 0.0
0.465554 0.885128 -0.003438 0.0
2.362492 1.240306 -0.003089 0.0
0.678267 1.904980 -0.001442 0.0
1.048015 1.014779 -0.002750 0.0
1.603610 0.832596 -0.003942 0.0
2.347647 1.571364 -0.000534 0.0
1.399210 2.267488 0.003144 0.0
0.645716 2.008851 0.003042 0.0
0.562772 0.469444 -0.000651 0.0
3.408814 1.365315 -0.002535 0.0
0.769796 2.075049 -0.003046 0.0
0.797652 2.368363 -0.001397 0.0
2.968084 1.968557 0.002028 0.0
2.943580 2.168988 0.004359 0.0
1.226791 1.834240 0.000103 0.0
1.787700 0.490302 -0.003160 0.0
0.595347 1.339728 0.000587 0.0
0.132353 0.440698 -0.002586 0.0
1.688631 2.086384 0.002050 0.0
4.006018 0.758873 -0.000787 0.0
1.288662 0.829090 0.004140 0.0
1.436853 2.149521 -0.001188 0.0
0.431168 1.834738 -0.000287 0.0
1.841572 1.333764 0.002905 0.0
3.100194 0.406767 -0.004519 0.0
0.621906 2.361518 -0.001325 0.0
2.466502 1.163905 0.003052 0.0
3.352351 1.557486 0.000954 0.0
1.754396 1.241253 0.000659 0.0
4.086024 1.371032 -0.000118 0.0
1.993718 0.421378 0.001366 0.0
2.016163 0.369132 -0.001707 0.0
0.993306 0.105295 -0.002639 0.0
3.119942 1.583033 0.001326 0.0
2.902815 1.673607 -0.003659 0.0
2.668637 1.064588 0.001598 0.0
4.057365 2.370280 0.001910 0.0
0.732843 2.167631 -0.000993 0.0
1.599494 2.323785 -0.002333 0.0
2.693931 0.872891 -0.000598 0.0
2.281824 0.910039 -0.005146 0.0
3.353092 2.059128 0.000648 0.0
1.929159 2.090575 -0.000599 0.0
3.492228 0.226091 -0.002742 0.0
3.536512 2.164191 -0.003491 0.0
0.966966 2.087614 -0.002347 0.0
0.207853 2.342842 0.001330 0.0
2.722109 0.903310 0.000699 0.0
0.464096 0.488310 0.000249 0.0
4.015937 0.799731 0.003060 0.0
2.423854 0.232535 0.000877 0.0
3.586626 0.316754 -0.001495 0.0
3.480422 0.803504 0.001703 0.0
1.282520 1.484276 0.002139 0.0
0.210674 1.561654 0.004009 0.0
2.147451 1.550901 0.003699 0.0
1.925230 1.142301 0.002771 0.0
1.219417 0.203462 0.002904 0.0
2.733988 1.140938 0.004421 0.0
2.134696 2.203005 0.000668 0.0
0.951340 0.489098 0.000004 0.0
1.270722 0.720010 -0.000310 0.0
3.742038 2.099805 -0.000564 0.0
1.206206 0.656569 0.005758 0.0
2.195232 0.266395 -0.001730 0.0
3.541821 0.624359 -0.001781 0.0
1.797548 0.243809 -0.002463 0.0
3.537782 1.043800 -0.004244 0.0
2.940410 0.804416 -0.003284 0.0
2.805500 0.476459 -0.000646 0.0
2.657730 0.600834 0.003426 0.0
2.884606 0.758454 -0.002487 0.0
1.931913 0.389108 0.001707 0.0
1.246174 1.039546 -0.000327 0.0
2.160348 2.157119 -0.002545 0.0
2.463935 1.718258 -0.001596 0.0
2.733163 2.441187 -0.002110 0.0
1.876899 1.991163 -0.001977 0.0
3.502448 0.055535 0.003510 0.0
0.826021 1.373694 0.005601 0.0
2.512365 2.111572 0.004009 0.0
3.525006 1.333865 -0.005703 0.0
0.091983 1.465628 -0.001957 0.0
3.107586 0.749729 -0.001210 0.0
2.799198 1.096764 0.001357 0.0
3.330897 0.190657 -0.001628 0.0
1.692545 2.058061 0.003953 0.0
2.036562 2.192400 -0.000204 0.0
0.055667 1.744718 0.001412 0.0
2.880764 2.347219 -0.002792 0.0
3.491669 1.319815 -0.003919 0.0
0.939881 1.558146 0.000045 0.0
1.847196 1.631575 0.001818 0.0
4.104318 1.197392 -0.001348 0.0
4.033429 0.905436 -0.001946 0.0
0.650728 1.669401 -0.002141 0.0
2.793234 0.882665 0.004876 0.0
0.459847 2.265607 0.004738 0.0
1.957867 1.218611 0.000538 0.0
4.049998 0.941475 -0.002779 0.0
0.265311 1.075824 0.000529 0.0
0.778522 1.341626 -0.002970 0.0
2.103722 2.316708 -0.001185 0.0
3.456236 0.657884 0.000598 0.0
0.402205 2.459091 0.000302 0.0
3.942964 1.233464 -0.001613 0.0
2.199711 2.344556 -0.000454 0.0
1.224572 0.683479 0.001500 0.0
2.387056 1.469685 -0.003106 0.0
1.739732 1.575866 0.000852 0.0
1.474486 1.645750 -0.000283 0.0
0.399445 0.358953 -0.004218 0.0
1.947113 1.541409 0.000324 0.0
1.219331 1.522271 0.004249 0.0
0.288138 2.134513 0.002637 0.0
2.631603 1.319176 -0.000682 0.0
0.370556 1.113693 -0.001016 0.0
1.784293 0.001592 0.000263 0.0
1.979552 1.296038 -0.000132 0.0
4.067195 1.398238 -0.000737 0.0
0.373621 1.191624 -0.000403 0.0
3.829907 1.992666 -0.000308 0.0
2.926600 1.794875 0.000007 0.0
1.639839 2.008658 0.000711 0.0
4.099494 0.699317 -0.001060 0.0
2.553017 2.112820 -0.002882 0.0
3.573433 1.690687 -0.000964 0.0
1.021878 2.442646 0.001149 0.0
3.647675 2.213700 0.002160 0.0
2.484283 2.028990 0.002841 0.0
3.227973 1.146823 -0.002226 0.0
0.202708 0.532672 -0.001661 0.0
4.120954 1.877097 -0.001506 0.0
2.367399 0.173613 -0.003559 0.0
0.164463 0.422826 0.000073 0.0
3.184691 0.301440 0.000591 0.0
1.432115 0.662761 0.003965 0.0
2.838160 2.177040 0.000472 0.0
0.847318 0.048454 -0.000114 0.0
0.746022 1.157355 -0.000678 0.0
3.897403 1.157220 -0.000879 0.0
0.758208 1.575379 -0.003013 0.0
0.148503 1.726262 0.002404 0.0
1.219417 1.979458 -0.000616 0.0
2.037897 1.366059 0.000537 0.0
3.489743 0.674020 -0.001605 0.0
0.696668 0.992486 -0.000128 0.0
0.040863 1.259713 0.001976 0.0
3.580082 0.271501 -0.003817 0.0
1.404725 1.359415 0.001521 0.0
2.469236 1.961779 0.002352 0.0
0.951225 0.007716 -0.000112 0.0
0.672684 0.029204 0.000366 0.0
1.424834 2.096640 -0.003660 0.0
1.636948 0.704294 0.002709 0.0
3.676805 0.527648 -0.001654 0.0
2.603434 1.382092 -0.000035 0.0
4.072160 2.104201 -0.001284 0.0
0.841487 1.005583 0.004023 0.0
0.022299 0.873202 0.005503 0.0
1.106952 2.481812 -0.001343 0.0
1.781207 0.541053 -0.004798 0.0
2.891707 1.569921 0.000329 0.0
3.406799 0.806882 -0.005185 0.0
2.202877 2.137193 0.001134 0.0
1.436821 2.230752 -0.000789 0.0
1.273456 1.480790 -0.000126 0.0
0.427558 1.913295 0.004744 0.0
1.193553 1.047213 0.000136 0.0
2.128271 1.552043 -0.001782 0.0
2.259689 0.431476 -0.001963 0.0
2.051593 1.295002 0.000588 0.0
0.646356 0.436042 -0.000726 0.0
3.351402 1.704279 -0.000989 0.0
0.510366 0.531597 0.002742 0.0
2.866060 0.162123 -0.001518 0.0
3.416644 0.578299 -0.001707 0.0
3.445163 1.685565 -0.002360 0.0
3.716869 0.057715 0.003491 0.0
3.724334 1.422268 -0.000178 0.0
3.971808 0.350300 -0.003167 0.0
0.952666 0.527502 -0.000162 0.0
0.835155 1.560999 0.005294 0.0
3.229768 0.367186 -0.000089 0.0
0.154724 0.252085 -0.000628 0.0
2.288160 2.196786 -0.002068 0.0
3.351607 1.049308 0.001817 0.0
1.871672 2.387740 -0.000328 0.0
1.057127 0.168635 -0.000916 0.0
3.038134 2.449591 0.002237 0.0
3.400316 1.305713 -0.002476 0.0
1.591989 0.386057 0.007901 0.0
2.578794 1.377721 0.003626 0.0
3.457362 2.122067 -0.003529 0.0
3.248282 0.535381 0.001479 0.0
1.814897 0.000631 -0.001118 0.0
3.826557 1.012803 -0.002618 0.0
3.018407 0.717296 0.002127 0.0
0.160545 0.283994 0.000762 0.0
0.186889 0.442875 -0.000998 0.0
3.994876 0.528562 0.000277 0.0
0.216488 0.245203 0.002172 0.0
0.548068 1.193811 0.002411 0.0
2.019021 2.421143 -0.004904 0.0
0.493440 2.277749 -0.005028 0.0
2.336302 1.801408 -0.003253 0.0
1.258203 0.476589 0.000712 0.0
1.074348 0.839340 0.001099 0.0
0.701674 0.209151 -0.000429 0.0
3.834492 1.722595 -0.002171 0.0
1.305583 1.369540 0.003194 0.0
3.262117 1.482005 -0.001073 0.0
2.181514 1.694755 -0.002102 0.0
2.245421 2.363381 -0.004759 0.0
3.742408 0.554003 -0.001784 0.0
0.262851 2.223407 0.002402 0.0
1.955783 0.532964 0.003712 0.0
2.447874 0.423826 -0.001651 0.0
1.623697 0.077328 -0.002082 0.0
2.153268 2.105478 -0.001768 0.0
1.540503 2.004988 0.002960 0.0
3.597991 1.911570 0.006975 0.0
2.278786 0.326413 0.002446 0.0
0.324936 1.998256 0.000257 0.0
3.721093 0.532875 0.002512 0.0
4.095661 2.127838 -0.002141 0.0
2.001007 0.038145 -0.000764 0.0
1.039356 1.481135 -0.000368 0.0
3.631120 1.997524 -0.000977 0.0
4.233536 1.497817 -0.001075 0.0
1.736535 2.095669 0.001104 0.0
2.220914 0.076752 0.000268 0.0
4.124558 1.101636 -0.002277 0.0
0.100379 1.688252 0.000274 0.0
3.508269 0.218803 0.001545 0.0
2.560366 0.508558 0.001712 0.0
0.419699 0.980810 0.003436 0.0
2.902978 0.025922 -0.000549 0.0
1.142167 0.951045 0.000298 0.0
2.401037 0.902825 0.001326 0.0
0.923083 0.830301 0.003337 0.0
4.186555 0.886467 -0.003944 0.0
0.085145 0.974050 -0.001467 0.0
3.433854 1.552393 0.000155 0.0
1.270423 2.343670 0.002075 0.0
1.115472 1.482703 -0.000736 0.0
1.913190 1.104745 0.000239 0.0
3.597065 1.185612 0.004681 0.0
1.205150 0.427050 0.000256 0.0
4.060916 2.477238 -0.005347 0.0
1.804830 0.828524 0.002567 0.0
0.012921 1.397368 -0.002460 0.0
0.292582 2.095341 -0.001985 0.0
3.366203 1.511637 -0.003940 0.0
3.604832 0.850150 0.003251 0.0
3.494579 1.719025 -0.002333 0.0
3.114769 1.349878 -0.000204 0.0
0.088876 0.493750 0.003272 0.0
0.165393 2.080023 0.001878 0.0
1.710366 1.225453 -0.001378 0.0
4.117215 1.102573 0.000094 0.0
3.655628 0.647164 0.001844 0.0
3.510489 1.422542 0.000942 0.0
1.004974 1.612437 0.001600 0.0
2.880696 1.165776 0.001685 0.0
3.483599 1.663951 0.003393 0.0
3.026991 1.812291 0.001138 0.0
1.955930 2.177787 0.001785 0.0
0.480664 0.001210 -0.001345 0.0
0.418120 1.091424 -0.001829 0.0
2.926593 0.608019 -0.000688 0.0
2.899361 1.453531 0.002253 0.0
1.563770 0.518347 -0.000792 0.0
3.145067 0.621647 0.003152 0.0
3.556480 0.321618 0.001686 0.0
2.779089 2.169567 -0.000740 0.0
2.248435 1.716925 -0.005073 0.0
3.102194 0.319624 -0.002606 0.0
0.610154 1.240947 -0.004888 0.0
4.170337 1.488952 0.001560 0.0
0.281276 0.106761 -0.002581 0.0
0.432073 2.488373 0.000931 0.0
3.760060 2.474803 -0.002361 0.0
3.036551 1.073917 0.001813 0.0
1.926317 1.769110 0.003953 0.0
3.132840 1.728412 -0.001027 0.0
3.307643 1.514884 -0.001705 0.0
1.166496 0.490098 -0.005324 0.0
0.596895 0.556493 0.001330 0.0
2.026047 0.851812 0.000985 0.0
1.125548 0.130632 0.003408 0.0
0.918424 1.908024 0.002660 0.0
2.813304 0.230150 -0.003650 0.0
2.231763 2.158212 -0.002754 0.0
0.999915 0.541509 0.003266 0.0
1.012369 1.482070 -0.000168 0.0
0.595115 2.344678 -0.003093 0.0
3.111436 0.956491 0.002205 0.0
0.122507 1.564081 0.005000 0.0
4.233798 0.358541 0.003034 0.0
2.347308 0.693946 -0.000747 0.0
0.632102 2.269819 0.000278 0.0
2.007831 1.205413 0.000199 0.0
4.107433 1.510768 -0.000068 0.0
2.936387 2.140099 -0.003273 0.0
1.082735 0.826896 0.007043 0.0
3.607004 1.486583 0.002753 0.0
1.229088 1.189085 0.001936 0.0
0.082439 1.157539 0.002497 0.0
1.980770 0.644667 0.005645 0.0
1.629952 1.938329 -0.005139 0.0
2.106566 1.302891 -0.003073 0.0
2.349998 0.351330 0.000692 0.0
1.402791 0.242389 -0.000094 0.0
0.817940 2.024195 0.000309 0.0
2.862901 0.941442 -0.003204 0.0
4.101826 0.319396 -0.002281 0.0
0.829409 1.855792 -0.001214 0.0
1.126898 0.298668 0.003913 0.0
3.865317 2.361281 -0.000579 0.0
4.149763 1.836009 0.001956 0.0
0.486758 2.021202 0.002427 0.0
2.435540 1.085786 0.001486 0.0
1.752809 1.967206 0.003503 0.0
1.966773 0.098896 0.002887 0.0
3.098298 0.356493 0.001441 0.0
0.647626 1.141762 -0.001500 0.0
2.032649 0.490960 0.001369 0.0
3.362207 0.460679 -0.000800 0.0
1.237526 0.849860 -0.003707 0.0
3.337777 2.077347 0.000953 0.0
0.877811 2.487567 -0.001282 0.0
3.514055 0.370453 -0.002314 0.0
3.504422 0.461035 0.000448 0.0
1.011631 1.123779 -0.005205 0.0
0.139735 0.008979 0.002521 0.0
2.743178 0.302753 -0.006182 0.0
1.016871 0.879592 -0.002522 0.0
2.069634 1.422982 -0.002251 0.0
3.792909 0.171892 -0.001696 0.0
1.498169 1.017698 -0.000123 0.0
0.560346 1.853727 0.001716 0.0
2.438241 1.267457 0.000855 0.0
2.018215 0.910133 0.001431 0.0
0.574006 2.404605 -0.000945 0.0
0.019074 2.430477 -0.004308 0.0
1.403064 0.386137 0.000023 0.0
2.893231 2.485197 -0.001044 0.0
4.056321 0.861447 -0.000919 0.0
4.041541 1.833495 0.000288 0.0
4.054816 0.417771 0.003657 0.0
4.045142 2.033876 0.002390 0.0
1.371173 1.427315 0.001106 0.0
3.820632 1.810461 0.002354 0.0
1.119998 0.722508 -0.001145 0.0
4.166532 1.729757 -0.002321 0.0
0.844236 0.942654 0.003088 0.0
1.152675 1.814127 -0.002433 0.0
3.638187 1.597762 -0.002429 0.0
0.002681 2.474507 0.002840 0.0
3.406801 0.882147 -0.001251 0.0
2.821181 0.669681 -0.000172 0.0
2.096026 1.771456 -0.003368 0.0
1.597369 0.148766 0.000175 0.0
0.874056 0.413792 0.000130 0.0
3.136742 1.930919 0.001273 0.0
3.806152 2.402229 -0.000251 0.0
0.842860 0.385759 0.000739 0.0
1.802653 0.464072 -0.002092 0.0
0.606118 0.919575 -0.000899 0.0
3.878202 2.030190 -0.001389 0.0
4.014942 0.756652 0.001407 0.0
1.378515 0.228923 0.002443 0.0
2.146693 1.863099 -0.002268 0.0
0.627597 2.030076 -0.002211 0.0
3.980297 1.055808 -0.003731 0.0
2.480395 1.496881 -0.001278 0.0
1.210042 0.282077 0.001647 0.0
3.928725 1.627380 0.001824 0.0
3.979246 2.291545 0.003212 0.0
0.393313 0.353090 -0.001413 0.0
0.365780 1.167493 -0.003497 0.0
2.545700 0.596139 0.002392 0.0
1.701933 0.958918 0.000644 0.0
1.865602 0.718283 0.000277 0.0
2.322515 1.498136 -0.004458 0.0
1.809406 2.137039 -0.001074 0.0
0.224335 1.307054 0.002418 0.0
3.845222 1.092833 0.001423 0.0
3.723806 2.438648 -0.000442 0.0
0.767660 0.355897 -0.000899 0.0
1.552041 1.826967 -0.001189 0.0
0.566572 0.385567 0.003077 0.0
2.012797 1.924619 -0.003721 0.0
2.710975 1.319761 -0.000584 0.0
3.432297 1.668212 0.000943 0.0
3.068079 1.728677 -0.001498 0.0
0.320752 0.238251 -0.000781 0.0
2.377548 1.049716 -0.001171 0.0
4.156038 0.735172 -0.002095 0.0
0.368037 1.201919 -0.001791 0.0
0.138307 1.706290 -0.000486 0.0
0.506225 1.186084 -0.002224 0.0
1.442323 0.847216 0.000033 0.0
3.667011 0.406800 0.000648 0.0
0.413147 0.871224 0.003215 0.0
0.020731 2.287789 0.000624 0.0
0.990782 2.363417 0.004575 0.0
1.111575 2.338695 0.003147 0.0
1.800137 0.136127 -0.002810 0.0
0.955645 1.441794 -0.002067 0.0
0.034913 0.648489 -0.003390 0.0
3.907185 1.604979 0.000558 0.0
1.522645 1.213873 -0.000798 0.0
2.343745 0.912658 0.004664 0.0
0.681898 1.087404 -0.001815 0.0
3.860127 0.778061 0.001364 0.0
0.377839 0.521996 0.001229 0.0
0.368638 0.392441 0.001134 0.0
1.421934 2.342128 -0.004116 0.0
1.145622 0.298586 0.000781 0.0
2.458074 1.809024 -0.000266 0.0
2.024996 2.166844 -0.000881 0.0
3.463623 1.252634 0.002585 0.0
0.772661 1.496589 -0.003460 0.0
3.848015 2.452467 0.000853 0.0
0.965069 1.124237 -0.000178 0.0
3.858637 2.336183 0.000631 0.0
1.677526 2.006851 -0.003173 0.0
4.068829 1.621146 0.000970 0.0
2.898169 2.419374 0.000577 0.0
0.786559 1.186273 -0.003084 0.0
0.164913 2.094242 0.001648 0.0
3.893975 0.145867 -0.000578 0.0
0.983570 1.987677 -0.000685 0.0
4.002251 2.340942 -0.004166 0.0
3.824142 0.779296 0.004286 0.0
2.984339 0.643910 -0.000648 0.0
2.339803 2.484206 -0.004363 0.0
0.055385 0.673707 0.000035 0.0
0.643098 0.546868 -0.004786 0.0
2.788212 0.643057 -0.002339 0.0
2.798090 1.909517 0.002360 0.0
3.462301 1.259949 0.000365 0.0
2.114023 1.211884 -0.000976 0.0
2.734284 1.577965 -0.002078 0.0
2.964002 0.599123 0.005463 0.0
4.190006 0.351154 -0.000298 0.0
1.280210 1.222755 -0.002887 0.0
3.388192 1.678376 -0.002494 0.0
3.753178 1.560269 -0.002559 0.0
4.171212 2.385040 0.002267 0.0
2.862843 0.251964 -0.005585 0.0
1.416892 1.753853 -0.000478 0.0
1.067110 1.523374 0.001209 0.0
2.234214 1.918111 -0.000524 0.0
2.841376 1.634013 -0.001041 0.0
1.757515 0.858931 0.001733 0.0
1.855889 0.752710 -0.004278 0.0
3.964862 1.493399 0.002259 0.0
2.229838 1.732555 -0.000554 0.0
2.539682 1.453878 -0.000612 0.0
2.530085 1.562618 0.001185 0.0
1.945175 1.744976 0.001874 0.0
3.057365 1.757226 -0.000097 0.0
1.179950 0.523100 0.000484 0.0
1.086211 1.675471 -0.002264 0.0
4.223960 0.342686 0.002209 0.0
2.712692 1.827759 -0.001005 0.0
1.290094 2.229699 0.006803 0.0
0.500807 0.689383 0.001550 0.0
2.493768 0.632123 0.005475 0.0
4.055601 1.405492 -0.001247 0.0
0.680436 2.235516 0.000845 0.0
0.820770 0.927809 0.003286 0.0
1.374400 1.783757 -0.003942 0.0
3.669513 0.091356 0.001992 0.0
2.810240 1.175581 0.002083 0.0
0.525519 2.445367 -0.001828 0.0
3.288767 1.111294 0.003923 0.0
0.470286 1.982081 0.001273 0.0
0.052386 0.912411 0.001782 0.0
1.292552 0.822123 -0.000336 0.0
3.859866 2.437385 0.001787 0.0
4.163908 2.239062 0.003755 0.0
1.223679 2.231846 -0.004079 0.0
3.330913 0.538014 -0.002077 0.0
1.400904 0.587148 -0.002855 0.0
3.641340 1.016785 -0.000446 0.0
3.681676 1.340399 -0.000537 0.0
3.314690 0.068381 -0.004345 0.0
2.343557 1.752304 0.004694 0.0
2.468065 1.305161 0.001557 0.0
0.473829 2.097555 0.003177 0.0
1.168759 2.372828 -0.001552 0.0
4.104592 1.414418 0.003808 0.0
3.736464 1.595705 -0.000794 0.0
2.460519 2.430963 -0.001801 0.0
3.874866 0.551903 -0.003171 0.0
0.002029 1.384878 0.000484 0.0
0.501885 0.052848 -0.000769 0.0
3.092949 1.663881 0.002656 0.0
1.529540 1.245159 -0.003486 0.0
4.157750 0.406964 0.000341 0.0
0.989951 2.348438 0.000311 0.0
3.765736 0.238272 -0.000199 0.0
2.843713 1.235551 -0.000485 0.0
1.348337 0.543036 0.002047 0.0
1.120103 0.286233 -0.000613 0.0
2.737723 2.177777 -0.007164 0.0
2.673314 1.839152 0.002473 0.0
1.671088 2.062225 -0.001912 0.0
3.625416 2.450840 -0.001367 0.0
1.600612 0.248613 -0.001382 0.0
0.823345 0.227253 -0.001458 0.0
3.430499 0.751427 0.000063 0.0
4.018265 2.199826 0.001223 0.0
4.102389 1.190847 -0.001860 0.0
1.490682 0.813270 0.009545 0.0
4.008951 1.595171 0.002235 0.0
2.482277 1.943583 0.003163 0.0
0.515017 2.109072 -0.001599 0.0
0.408397 0.064198 0.000216 0.0
3.255516 2.268644 0.000061 0.0
3.725785 0.503270 0.000754 0.0
1.928312 2.065346 -0.002993 0.0
1.380480 1.180803 -0.006962 0.0
2.312676 2.342953 0.003191 0.0
3.142039 0.731841 -0.002954 0.0
1.446196 0.511527 0.001598 0.0
2.937988 2.304261 0.001498 0.0
0.953111 1.014188 -0.001463 0.0
1.461818 1.243987 -0.001191 0.0
2.988784 0.745476 0.003721 0.0
1.250771 1.313082 -0.000294 0.0
3.162746 1.479488 -0.001788 0.0
2.653222 0.108808 0.002090 0.0
4.106264 2.026409 0.002724 0.0
1.489044 2.344957 -0.000250 0.0
0.466256 1.382880 -0.000828 0.0
3.651507 1.423822 0.005707 0.0
1.796690 1.236372 -0.000014 0.0
1.454675 2.122044 0.000847 0.0
2.517933 0.582067 -0.002946 0.0
2.698596 1.458930 -0.000869 0.0
4.054175 0.530399 -0.000219 0.0
3.404907 2.197838 -0.000601 0.0
1.944991 2.027296 -0.004761 0.0
1.244218 0.225990 0.002830 0.0
1.045128 1.652774 0.002440 0.0
2.093787 1.582709 -0.000933 0.0
2.249302 2.182973 0.000343 0.0
2.271422 0.048177 0.000392 0.0
2.194702 0.930276 0.000818 0.0
3.617509 0.180968 -0.002964 0.0
1.301972 0.104498 0.001830 0.0
0.841661 1.775982 -0.000177 0.0
2.831072 0.977305 0.002504 0.0
1.518834 2.278711 -0.001850 0.0
3.780780 0.239258 -0.007577 0.0
3.887459 0.361409 0.003468 0.0
0.509968 0.431809 0.001799 0.0
1.333395 2.139555 -0.001490 0.0
3.954534 1.458395 0.004238 0.0
4.097752 1.173647 -0.000724 0.0
2.207772 0.776881 0.005675 0.0
2.658976 1.805631 -0.000753 0.0
1.736519 0.680204 0.004025 0.0
1.330231 1.388831 0.000203 0.0
1.252050 2.334095 0.003850 0.0
1.209621 0.921105 0.000231 0.0
0.362861 2.141992 0.002445 0.0
3.394197 1.943987 0.000052 0.0
0.050728 1.427992 0.001427 0.0
0.104901 2.118088 0.003920 0.0
0.474119 0.364085 0.001796 0.0
2.919062 0.878302 -0.002445 0.0
0.940083 1.887439 0.003518 0.0
3.947153 1.014742 0.000810 0.0
0.381361 1.102838 0.001246 0.0
0.589355 0.167111 0.000829 0.0
2.821510 0.094188 -0.000751 0.0
1.223637 0.897441 0.001138 0.0
0.397610 1.078956 -0.001052 0.0
4.026256 1.765703 -0.001333 0.0
0.186836 2.215361 -0.000422 0.0
2.974692 0.344694 -0.001398 0.0
2.272892 1.724042 0.004831 0.0
3.010734 0.745655 0.002368 0.0
1.202532 0.841588 -0.000216 0.0
1.817810 0.685250 0.002903 0.0
2.886953 0.680726 0.000255 0.0
-0.002121 0.060256 -0.001973 0.0
0.770609 1.266494 0.003234 0.0
3.998174 1.134783 -0.003325 0.0
2.857378 1.605086 -0.001324 0.0
2.717409 1.550334 0.002533 0.0
2.083283 0.238851 -0.002415 0.0
3.805774 0.779436 -0.001663 0.0
1.672842 2.144753 0.000048 0.0
2.767195 0.724918 0.000923 0.0
3.926719 1.310035 -0.001465 0.0
0.611021 1.310451 -0.001385 0.0
0.842730 0.921145 -0.001672 0.0
2.189708 1.727245 -0.000321 0.0
2.706826 0.668003 -0.002433 0.0
2.831792 1.282636 0.005091 0.0
3.224647 0.689825 -0.000781 0.0
1.711477 1.873930 -0.004796 0.0
0.277451 0.817632 0.001228 0.0
1.518301 0.998360 -0.001359 0.0
3.766480 0.143478 -0.001152 0.0
1.987002 1.903876 -0.001090 0.0
2.592120 1.588886 0.001547 0.0
3.487769 1.201172 0.002590 0.0
0.810691 0.863175 -0.001673 0.0
3.113355 2.226372 -0.001740 0.0
2.143150 1.727018 0.001204 0.0
2.209675 2.145405 0.002011 0.0
0.640792 1.379673 -0.001628 0.0
3.442426 1.592695 -0.002078 0.0
2.400792 1.608588 0.004310 0.0
0.150955 0.468017 0.006562 0.0
4.235766 2.120609 0.000754 0.0
0.109248 1.053805 0.001552 0.0
1.631986 1.789750 0.001964 0.0
1.849771 1.770532 0.001291 0.0
3.331654 2.300455 0.001492 0.0
3.550094 0.727802 0.001520 0.0
0.904336 1.684775 0.001323 0.0
3.453626 0.341516 0.002520 0.0
3.483425 2.263993 -0.002925 0.0
3.098587 0.596208 -0.000636 0.0
1.348163 2.261306 0.002204 0.0
0.414537 0.533114 0.001141 0.0
2.890074 0.200481 0.000346 0.0
2.298507 1.103353 0.002561 0.0
0.544552 1.255694 0.001243 0.0
0.206556 0.266921 -0.000655 0.0
3.600123 0.584162 -0.000895 0.0
2.101021 2.285721 -0.002593 0.0
3.057924 1.821086 0.003602 0.0
2.120686 2.349906 -0.004325 0.0
3.957168 2.473812 0.000729 0.0
3.457260 0.757730 0.002490 0.0
1.754301 1.520143 0.001296 0.0
3.342007 1.115298 0.004051 0.0
0.036838 0.790521 -0.001034 0.0
3.397132 0.469865 -0.002479 0.0
0.921865 1.897245 0.000956 0.0
2.665768 1.252906 -0.002433 0.0
2.918234 1.877839 -0.001640 0.0
3.911494 1.361981 0.002057 0.0
3.452299 1.186415 0.001095 0.0
3.073382 1.075748 0.003637 0.0
1.729817 1.848433 0.000636 0.0
4.136143 2.233691 0.002526 0.0
2.327798 1.522999 0.003497 0.0
3.566499 1.138438 -0.002186 0.0
2.362826 1.099545 0.000441 0.0
1.260241 0.072570 0.000780 0.0
3.826503 2.129232 0.004002 0.0
1.198908 0.074672 0.003201 0.0
1.529089 2.060542 0.001571 0.0
2.356046 1.174241 0.003833 0.0
1.057650 0.782082 -0.003592 0.0
0.520414 1.544574 0.007328 0.0
4.164922 1.312074 0.001021 0.0
1.730190 1.770118 -0.005258 0.0
1.257209 0.038005 -0.001877 0.0
3.361477 1.425482 0.001386 0.0
1.473944 0.815010 -0.001789 0.0
2.280482 2.149177 0.003209 0.0
0.749588 0.173740 -0.003154 0.0
2.591473 0.252750 0.001830 0.0
2.074261 1.116096 -0.002504 0.0
0.927175 2.002795 0.001352 0.0
0.277854 0.133011 0.003469 0.0
1.753995 0.203451 0.001010 0.0
2.713818 0.037465 -0.004812 0.0
2.982492 0.941130 -0.001279 0.0
3.204215 0.174914 -0.002121 0.0
1.591155 1.015163 -0.000372 0.0
0.477156 1.651911 0.000295 0.0
0.430328 1.202063 -0.000480 0.0
2.702513 1.703859 -0.001765 0.0
1.202775 2.393005 -0.000192 0.0
0.311178 1.936189 -0.001718 0.0
2.900876 0.928229 -0.000369 0.0
2.941447 2.088110 -0.002926 0.0
3.597724 0.510461 0.003535 0.0
1.433062 1.740649 -0.002374 0.0
3.792402 0.637532 -0.000143 0.0
1.903020 1.084710 -0.002506 0.0
1.089544 2.420860 -0.002440 0.0
0.203797 2.262460 0.000623 0.0
1.796141 0.506445 0.001756 0.0
2.048225 1.770831 -0.002575 0.0
1.307813 1.227288 -0.001707 0.0
3.472224 2.308961 -0.001038 0.0
3.000011 0.107687 -0.002152 0.0
3.156286 2.010557 -0.001798 0.0
0.121863 0.424724 -0.004386 0.0
3.517631 0.034649 0.001836 0.0
1.496053 1.548894 0.002395 0.0
0.118495 1.644868 0.003992 0.0
0.042043 0.190109 0.002819 0.0
3.000703 2.417645 -0.000020 0.0
3.566601 1.197392 0.001926 0.0
0.067236 1.460164 -0.000452 0.0
0.658814 2.394201 -0.002647 0.0
3.610256 0.850442 0.003728 0.0
0.618387 0.833026 -0.003438 0.0
3.481930 0.384407 0.000880 0.0
1.464195 0.885250 -0.002510 0.0
1.189839 0.885629 0.000472 0.0
2.855420 0.530442 -0.002037 0.0
2.658994 1.842419 -0.004448 0.0
1.450799 1.337913 -0.004479 0.0
2.484881 1.298380 -0.002959 0.0
3.892420 2.285454 0.001181 0.0
2.538037 2.338860 -0.000025 0.0
2.062905 1.307781 0.002967 0.0
3.992553 0.865876 -0.002752 0.0
1.016638 0.343246 -0.002174 0.0
3.032794 0.883454 0.001160 0.0
3.821875 1.882567 -0.000084 0.0
2.941851 1.175509 0.000311 0.0
2.476999 0.978023 0.001676 0.0
1.812365 1.418548 -0.002817 0.0
1.851243 1.758671 0.002895 0.0
3.644379 2.364777 -0.001991 0.0
4.163396 1.649033 0.001077 0.0
1.751547 0.618113 0.002851 0.0
3.122870 2.283042 0.000240 0.0
2.767399 0.236229 0.000933 0.0
3.531360 1.249512 -0.004917 0.0
0.785945 1.441869 -0.004332 0.0
1.623901 0.792523 0.000547 0.0
3.232694 0.065204 0.002244 0.0
3.721831 0.659486 -0.003477 0.0
4.170622 2.386871 0.000665 0.0
0.450127 1.808381 0.003160 0.0
0.915423 0.931261 0.002844 0.0
3.204594 0.249483 -0.001560 0.0
3.052588 2.086162 0.002820 0.0
3.498745 2.431960 -0.000361 0.0
1.815237 0.287563 -0.004661 0.0
1.700104 2.447886 0.004218 0.0
2.432764 0.153096 -0.000816 0.0
3.419622 0.109309 -0.001268 0.0
3.640149 1.059868 0.004086 0.0
3.412359 2.109234 -0.002032 0.0
4.075333 2.069269 0.000315 0.0
0.983709 2.417136 0.000205 0.0
0.288151 0.644836 -0.003277 0.0
3.238401 1.914952 -0.002011 0.0
2.188873 0.953733 0.002201 0.0
1.775435 2.302417 -0.001503 0.0
1.554561 2.420505 -0.005335 0.0
2.485169 2.460124 0.002232 0.0
0.963608 2.342768 0.002725 0.0
3.992305 1.335213 0.002149 0.0
1.317652 0.293511 0.003145 0.0
1.145147 2.280532 0.001417 0.0
3.618496 0.610926 -0.002580 0.0
1.658634 1.005828 -0.000014 0.0
2.565877 2.176673 0.003454 0.0
0.992363 1.339172 0.002198 0.0
3.820112 2.404702 0.001592 0.0
1.865784 2.485029 0.001951 0.0
3.268614 1.752394 0.000863 0.0
2.043907 0.001157 -0.002189 0.0
0.000383 1.191303 -0.002707 0.0
0.261485 1.611114 -0.002079 0.0
2.973130 1.806995 0.002765 0.0
1.481900 0.199348 -0.003238 0.0
0.770823 1.564870 0.003429 0.0
2.887654 2.121023 0.000222 0.0
1.964622 0.987527 0.000738 0.0
2.045821 2.453153 -0.000124 0.0
3.502973 1.217832 0.000396 0.0
2.613600 0.491488 0.005081 0.0
3.897147 0.247365 -0.001328 0.0
3.454690 1.127231 -0.000158 0.0
1.381443 0.898995 0.003368 0.0
1.725715 0.461276 0.006209 0.0
2.899419 0.077979 -0.003570 0.0
3.553197 0.990336 -0.000660 0.0
1.443461 0.345749 0.003943 0.0
3.401265 0.879478 0.001080 0.0
1.783402 1.051173 0.000170 0.0
0.592226 1.956156 -0.000490 0.0
3.125599 0.743547 -0.004981 0.0
4.201699 0.825731 -0.000634 0.0
2.822811 0.111200 -0.001209 0.0
2.539841 1.086547 -0.000574 0.0
1.893488 0.393265 0.002508 0.0
0.006189 0.265589 -0.002905 0.0
2.877813 0.359141 -0.003246 0.0
3.777021 0.780403 -0.004368 0.0
1.715747 0.204895 -0.004291 0.0
3.206072 0.189266 -0.000808 0.0
3.644182 0.263384 -0.001390 0.0
0.006254 0.301031 -0.004924 0.0
3.773459 1.428087 0.000437 0.0
1.554989 1.497440 -0.004923 0.0
2.079524 0.171026 0.000292 0.0
4.141567 0.403113 0.001857 0.0
3.538684 2.218305 0.002260 0.0
1.961829 0.114771 -0.002966 0.0
1.254817 0.824230 -0.001092 0.0
1.078162 2.353294 -0.002202 0.0
3.579911 0.691690 0.002346 0.0
3.991992 1.761337 -0.003293 0.0
0.558477 0.329033 -0.002171 0.0
1.990629 2.482824 0.001776 0.0
1.686185 0.188235 -0.002648 0.0
4.163319 0.511301 -0.001860 0.0
0.473513 0.540880 0.000809 0.0
2.091740 0.021618 0.007243 0.0
0.009026 1.593903 -0.000673 0.0
3.927515 0.363036 0.001859 0.0
3.874048 0.476289 -0.000398 0.0
1.440315 1.625476 0.001306 0.0
2.447598 1.081268 0.001153 0.0
3.847696 1.482992 0.001395 0.0
2.087631 1.660428 -0.000746 0.0
1.712675 1.128515 0.000302 0.0
3.742380 0.252312 0.000787 0.0
0.549629 0.172894 0.001476 0.0
0.908219 1.170777 -0.000878 0.0
0.095503 1.573355 0.000795 0.0
2.203118 2.194268 -0.001532 0.0
3.704287 1.352192 0.001090 0.0
2.481153 0.385825 -0.001115 0.0
2.022857 0.935727 0.004404 0.0
0.696697 1.092633 0.000669 0.0
3.803208 2.479009 0.000416 0.0
3.189688 0.436298 -0.003190 0.0
2.875073 1.517398 -0.005317 0.0
0.127564 2.284125 0.001389 0.0
1.452549 1.465758 0.001072 0.0
1.496467 1.657661 0.000007 0.0
2.219740 1.183605 0.002849 0.0
3.283384 0.987404 0.002462 0.0
2.569876 2.242601 0.002837 0.0
2.666702 0.657640 0.001884 0.0
3.408021 1.721225 0.002546 0.0
3.539624 1.652775 -0.000344 0.0
1.650217 2.348702 0.001873 0.0
1.881719 1.594624 0.000362 0.0
0.031147 1.811165 0.001926 0.0
2.670389 1.944877 0.000167 0.0
3.756240 0.582161 0.000630 0.0
4.062311 2.387769 0.001591 0.0
2.910769 1.191893 -0.000633 0.0
0.939884 2.210208 -0.000935 0.0
1.899211 0.272401 0.000453 0.0
2.219583 1.896318 -0.005193 0.0
1.944163 2.282230 -0.002656 0.0
1.078978 1.803159 -0.003272 0.0
1.193970 0.560981 -0.000070 0.0
1.106940 0.896689 -0.001926 0.0
2.946432 1.171731 0.002277 0.0
0.657382 1.858092 0.003483 0.0
1.266689 0.172907 -0.000315 0.0
3.795267 0.406506 -0.001042 0.0
3.479559 0.776866 -0.003799 0.0
0.969184 1.377263 -0.000602 0.0
1.270689 1.201029 -0.001976 0.0
4.081069 1.803030 -0.002333 0.0
3.320375 1.889569 -0.002178 0.0
1.601533 1.313047 0.000769 0.0
1.910238 1.402779 -0.001200 0.0
2.201952 2.155749 0.004855 0.0
3.342887 1.061754 -0.001986 0.0
3.326545 1.078317 0.002264 0.0
0.118521 0.089915 0.006602 0.0
3.877072 1.584464 0.003068 0.0
1.196302 2.330210 0.001561 0.0
0.409463 1.708711 0.001905 0.0
2.358418 1.036935 -0.000008 0.0
1.764900 0.657536 0.003596 0.0
3.059714 0.878629 -0.006257 0.0
2.044208 2.134272 -0.000486 0.0
3.564195 0.668733 0.000944 0.0
1.327843 0.614955 0.000434 0.0
1.770463 2.251285 0.001495 0.0
1.537941 1.547651 -0.000264 0.0
0.760792 0.915785 -0.001214 0.0
0.257675 0.352538 0.000984 0.0
1.327829 1.260518 0.001363 0.0
2.827218 1.324049 -0.003770 0.0
2.419511 0.747152 0.001369 0.0
1.778921 1.554701 0.000520 0.0
3.502469 1.800469 0.003094 0.0
3.268483 1.752261 0.003189 0.0
0.886189 2.034096 -0.002947 0.0
1.662926 1.783040 -0.001125 0.0
1.310069 2.452329 0.003667 0.0
0.710984 1.742290 -0.000128 0.0
4.224745 1.307855 0.000923 0.0
2.428843 2.116191 0.004393 0.0
3.316746 1.170966 -0.001512 0.0
0.300120 0.211686 -0.000571 0.0
3.206086 0.677062 0.000530 0.0
3.214890 2.057942 0.001608 0.0
4.002983 0.565700 0.001844 0.0
3.771220 2.050185 -0.000749 0.0
2.126570 1.241619 -0.002430 0.0
1.156360 1.707979 0.003326 0.0
4.198205 1.197778 0.002192 0.0
1.545119 0.228381 0.002806 0.0
0.811395 1.968128 0.003502 0.0
0.393020 1.331872 -0.000244 0.0
2.563498 0.971207 0.000182 0.0
3.797132 0.194211 0.005674 0.0
3.288986 0.137257 0.002512 0.0
4.100911 1.141322 0.002872 0.0
2.993891 0.923403 0.001668 0.0
3.393494 2.316386 -0.000090 0.0
4.155816 1.415006 0.002976 0.0
3.707653 0.874830 0.000285 0.0
2.438354 2.237726 -0.002760 0.0
0.811912 1.325663 0.002841 0.0
2.266276 0.762990 0.004980 0.0
1.092443 1.666739 0.000478 0.0
0.673485 0.170576 -0.001451 0.0
2.509986 1.777680 -0.000136 0.0
2.033671 1.711331 0.003353 0.0
1.408704 1.546886 -0.003195 0.0
2.759153 2.085148 0.000925 0.0
0.165647 2.234104 -0.002469 0.0
0.324965 0.727586 0.004884 0.0
0.068537 1.928088 0.001482 0.0
3.068579 1.612908 -0.002963 0.0
1.448040 2.088686 0.000275 0.0
2.548751 0.024785 -0.002882 0.0
1.414680 2.040870 -0.003259 0.0
2.828431 0.083290 -0.000698 0.0
0.478080 1.700711 -0.002459 0.0
3.929080 0.188603 0.000811 0.0
3.886553 0.062836 -0.002640 0.0
2.419516 1.584693 -0.002467 0.0
1.562943 0.709125 0.004484 0.0
3.991928 0.787861 -0.000459 0.0
1.954154 1.409165 -0.003804 0.0
0.600381 2.423699 -0.000215 0.0
2.661193 1.682999 0.000118 0.0
3.262617 1.765333 -0.000796 0.0
1.630598 1.892219 -0.003329 0.0
2.349892 2.040026 0.000735 0.0
0.388734 2.031705 -0.001529 0.0
0.342586 2.343156 -0.000395 0.0
1.019142 1.615373 -0.001490 0.0
3.907566 1.540439 0.001545 0.0
2.227065 2.213534 -0.000419 0.0
3.126620 0.810461 -0.002855 0.0
1.227036 0.318818 -0.000786 0.0
4.239709 1.112759 0.000067 0.0
1.921214 1.635647 0.001520 0.0
2.562754 0.959894 0.002707 0.0
1.006890 1.502246 -0.000436 0.0
1.402082 1.893599 -0.001863 0.0
2.861778 0.641614 -0.002017 0.0
1.349723 2.126671 -0.001201 0.0
1.631313 1.229461 0.003796 0.0
2.916796 1.416131 0.000782 0.0
2.833141 1.521418 0.002450 0.0
3.032427 1.311181 -0.000249 0.0
2.144406 0.015914 0.005575 0.0
0.205414 2.145059 -0.001948 0.0
0.173610 2.084528 0.000242 0.0
1.528075 1.693996 -0.002163 0.0
2.111337 1.816735 -0.002788 0.0
1.617743 1.409938 -0.001099 0.0
3.359849 1.885053 0.000491 0.0
2.130844 1.273378 -0.002527 0.0
3.145747 2.428442 0.002368 0.0
2.962473 1.644764 0.000056 0.0
1.058715 2.146419 -0.003404 0.0
3.403422 0.372818 -0.003640 0.0
3.370141 0.615089 -0.001346 0.0
1.532658 0.454294 0.000401 0.0
3.306098 0.546102 0.001364 0.0
3.991216 0.393477 -0.004449 0.0
3.838779 1.187316 -0.000456 0.0
0.983016 1.972821 0.001263 0.0
1.356964 0.402045 -0.000125 0.0
0.501226 0.722816 0.001457 0.0
2.997503 0.610751 0.001551 0.0
3.489293 1.697488 0.001792 0.0
3.489479 0.387130 -0.002060 0.0
1.525257 1.457998 0.003367 0.0
0.943312 2.210351 0.001439 0.0
1.879419 2.059572 -0.000812 0.0
3.804102 2.135614 0.002880 0.0
1.674073 1.955751 0.005776 0.0
1.123923 0.009197 -0.004067 0.0
3.967939 0.420531 0.001580 0.0
3.827041 1.753915 0.002155 0.0
4.071241 0.234230 -0.002160 0.0
1.987992 1.775367 -0.003010 0.0
1.805897 0.128224 -0.000948 0.0
2.803832 0.718253 -0.000598 0.0
3.066048 1.676258 0.004125 0.0
0.910364 1.553342 -0.001003 0.0
2.280165 0.754598 -0.002502 0.0
1.871327 2.409834 -0.000590 0.0
2.433301 1.174368 0.002428 0.0
0.837137 0.584624 -0.004880 0.0
2.376663 1.590392 -0.001621 0.0
1.867141 0.418872 -0.000531 0.0
1.057066 2.483294 -0.000818 0.0
2.350393 1.460698 -0.000451 0.0
2.525338 0.318245 -0.001444 0.0
3.753345 0.402385 -0.002341 0.0
2.688697 0.581345 -0.000332 0.0
2.584190 1.327278 -0.000786 0.0
2.216240 0.578539 0.000138 0.0
4.153300 0.276598 0.002945 0.0
1.474948 2.216044 -0.001932 0.0
2.477022 0.171848 -0.001201 0.0
3.909330 2.104823 0.006683 0.0
2.079054 0.319983 0.000167 0.0
3.439524 2.232130 -0.000801 0.0
1.812817 1.670935 -0.000132 0.0
0.031508 0.750738 0.001936 0.0
2.861724 0.709509 0.001802 0.0
0.664930 1.794492 0.002823 0.0
1.230250 0.911914 0.002952 0.0
0.372235 1.932155 0.000107 0.0
1.565155 0.945204 -0.000113 0.0
3.896986 2.239106 0.000331 0.0
3.500406 0.505916 -0.000244 0.0
2.886295 1.139638 0.003415 0.0
2.260502 1.306331 -0.001829 0.0
1.420134 0.158257 0.005003 0.0
4.021998 1.963674 -0.000069 0.0
2.224776 0.058277 0.001175 0.0
0.475536 0.121856 0.001791 0.0
2.325422 2.168194 0.000272 0.0
2.179325 0.979989 0.001239 0.0
2.633807 2.296399 -0.002313 0.0
1.340988 1.347388 0.005647 0.0
2.228311 2.450464 -0.003182 0.0
1.160055 0.632685 -0.002509 0.0
3.761955 2.102201 -0.000915 0.0
3.907650 1.834585 -0.000019 0.0
0.237195 2.186865 -0.001699 0.0
3.414553 1.657871 0.001013 0.0
2.883112 1.312160 0.001932 0.0
0.628890 0.740888 -0.000544 0.0
3.794507 0.196424 -0.001406 0.0
4.111036 2.247096 0.000505 0.0
2.926776 0.766190 0.000693 0.0
3.033623 0.340525 0.000815 0.0
2.660562 2.488723 -0.001580 0.0
4.036709 1.900424 0.004271 0.0
1.048403 0.762089 -0.001617 0.0
0.638157 2.244445 0.000839 0.0
3.287857 2.045067 -0.002624 0.0
0.002440 1.055156 0.002320 0.0
3.508472 2.281741 -0.000517 0.0
3.283003 1.913877 -0.000038 0.0
2.356068 2.207599 0.003653 0.0
1.281836 1.157449 -0.001405 0.0
2.099713 2.264120 0.002240 0.0
0.389912 2.027850 -0.002748 0.0
0.323200 1.228758 0.000433 0.0
2.954508 0.369960 0.000246 0.0
1.455329 1.306061 -0.004568 0.0
0.768316 1.048191 -0.000241 0.0
0.855421 2.232919 0.001038 0.0
3.496426 1.263999 -0.001304 0.0
2.806696 2.148567 0.000321 0.0
0.906371 1.792839 0.004689 0.0
3.646750 0.894743 0.003102 0.0
0.597351 2.413478 -0.000254 0.0
1.617847 1.395085 0.003573 0.0
0.574919 0.101862 -0.001070 0.0
3.955478 2.014314 0.001742 0.0
2.962719 1.848168 0.003337 0.0
2.391608 1.896880 -0.002390 0.0
3.291743 0.162779 0.005310 0.0
0.752848 0.320837 -0.000341 0.0
1.376775 1.265119 -0.002166 0.0
1.811263 0.615084 -0.002533 0.0
1.019006 0.819596 -0.004935 0.0
0.339287 0.062266 -0.002057 0.0
0.102796 0.475888 0.001777 0.0
0.141495 2.017420 0.001920 0.0
3.645466 0.455170 -0.000901 0.0
4.048908 0.511959 0.004152 0.0
3.861615 0.586164 -0.000546 0.0
3.983437 1.833742 0.000909 0.0
2.352035 2.471211 -0.001784 0.0
0.310405 0.278988 0.002577 0.0
1.971758 0.837119 0.001209 0.0
1.673362 1.122655 0.002946 0.0
1.763328 0.357680 -0.000915 0.0
2.767105 0.333205 0.003488 0.0
1.302197 0.172589 -0.001573 0.0
0.453666 1.289749 0.003473 0.0
2.500990 0.157519 -0.000259 0.0
0.198598 0.348428 -0.001341 0.0
4.215681 1.140867 0.000149 0.0
2.152141 0.865931 -0.003721 0.0
1.815514 0.178827 0.002799 0.0
2.768039 1.136172 0.004186 0.0
2.043561 1.831667 -0.003740 0.0
3.569891 1.822108 0.002614 0.0
0.180107 0.562336 -0.005239 0.0
1.877749 0.023585 0.000951 0.0
4.031487 0.630167 -0.001824 0.0
2.633942 0.994234 0.001589 0.0
4.086309 1.321650 -0.003486 0.0
0.162360 2.138929 -0.002357 0.0
1.930050 2.185647 0.003092 0.0
3.764478 0.255928 -0.001867 0.0
3.093828 0.529495 0.001547 0.0
0.352895 1.355897 -0.002857 0.0
3.965339 1.472519 0.003830 0.0
3.946462 1.007260 0.001155 0.0
4.165403 1.989441 -0.003645 0.0
3.727081 0.989800 0.005626 0.0
3.162798 1.053238 -0.001913 0.0
0.131401 0.614557 0.000109 0.0
4.058008 2.020828 0.004505 0.0
3.806985 1.516183 -0.001733 0.0
1.729353 0.664334 0.003415 0.0
2.662263 1.332913 0.003126 0.0
0.003916 2.409406 0.000976 0.0
0.157871 0.075805 -0.002976 0.0
2.186617 0.029528 -0.005157 0.0
3.445612 0.938877 0.002333 0.0
3.965176 0.961255 -0.002040 0.0
3.837908 0.760695 0.003992 0.0
2.927635 1.075334 -0.001159 0.0
3.593887 1.950932 0.004697 0.0
0.236640 0.422424 0.000354 0.0
0.313390 1.262969 -0.003000 0.0
0.391513 1.300827 -0.000590 0.0
3.373928 0.841037 -0.001213 0.0
3.157467 1.751983 0.002388 0.0
2.038627 0.637814 0.001807 0.0
0.129030 1.452957 -0.002297 0.0
2.134995 0.324635 -0.000913 0.0
0.685627 2.233753 -0.001560 0.0
3.866043 2.365766 -0.004197 0.0
0.748340 0.297313 0.000203 0.0
1.796078 1.931928 -0.002438 0.0
0.652401 1.306554 -0.002387 0.0
3.171621 1.419201 0.000931 0.0
0.236404 2.293790 0.004317 0.0
3.593998 1.101156 0.002245 0.0
3.242459 2.169881 0.003881 0.0
3.889405 1.755873 -0.001013 0.0
0.676025 0.584785 -0.003177 0.0
2.472442 0.179972 -0.001764 0.0
3.480578 1.803181 -0.001465 0.0
1.306287 2.408074 0.001521 0.0
2.602925 1.796872 0.001518 0.0
0.908534 1.345420 0.001973 0.0
2.960141 1.380243 0.002166 0.0
2.540832 0.734443 0.001930 0.0
3.147419 2.184759 -0.001623 0.0
3.965919 2.286935 -0.001926 0.0
2.122862 2.148850 -0.005744 0.0
1.708890 1.377182 0.003367 0.0
1.885265 0.236947 -0.000351 0.0
1.753370 0.045790 0.001048 0.0
1.352794 2.358564 -0.002741 0.0
4.173512 1.443777 0.002483 0.0
0.721548 1.109798 -0.001944 0.0
2.591212 0.104688 0.000151 0.0
1.566099 0.823052 0.002120 0.0
1.884760 0.206553 0.001439 0.0
3.295271 2.189135 0.003282 0.0
2.054439 1.908262 -0.002014 0.0
0.023623 0.742047 0.000119 0.0
3.969264 0.587767 -0.001342 0.0
0.584024 1.523123 -0.004525 0.0
3.788397 1.644176 -0.000332 0.0
2.658099 0.147401 -0.003262 0.0
1.420686 1.817773 -0.003295 0.0
2.347336 1.672564 0.001606 0.0
2.813428 0.785118 0.000080 0.0
0.165077 0.959954 -0.001225 0.0
3.450188 0.514959 0.002489 0.0
3.884853 0.795840 0.000834 0.0
1.887436 2.406831 0.004204 0.0
1.731715 0.903694 -0.000299 0.0
3.295779 0.344361 0.002482 0.0
1.003867 1.687171 0.000765 0.0
0.397323 0.337948 0.000394 0.0
2.704804 1.293010 0.001043 0.0
1.776380 0.699205 0.002210 0.0
1.859843 0.425311 -0.003182 0.0
2.265433 1.235178 -0.000595 0.0
0.171566 0.316591 0.000879 0.0
0.751770 0.860155 0.000036 0.0
4.070888 2.228167 -0.000299 0.0
1.027823 2.386979 0.000299 0.0
0.675212 1.313631 -0.004456 0.0
1.378435 1.220690 -0.001202 0.0
0.920910 0.782012 0.000836 0.0
1.467004 1.678257 -0.003696 0.0
0.173224 2.236998 -0.005008 0.0
3.540916 0.121326 0.002015 0.0
3.658757 1.011309 -0.001529 0.0
1.797898 0.917747 -0.003715 0.0
3.316299 1.638446 -0.005962 0.0
2.434081 0.089323 -0.000885 0.0
0.130154 0.580319 0.001887 0.0
0.569555 0.141933 -0.000429 0.0
3.946403 1.922344 0.000413 0.0
1.938842 0.279716 -0.003285 0.0
1.531935 2.011272 -0.000447 0.0
1.037219 0.611395 -0.003436 0.0
2.946221 0.399740 0.003505 0.0
0.186314 1.472495 -0.000666 0.0
1.435401 0.615518 0.003423 0.0
0.937287 0.327098 -0.000813 0.0
4.128261 2.204409 0.000796 0.0
4.047598 1.016243 0.002778 0.0
1.426688 1.920659 0.000419 0.0
1.284877 2.336843 -0.003259 0.0
1.401804 1.771661 0.004014 0.0
2.044691 2.023953 -0.002218 0.0
3.531804 0.706083 0.000523 0.0
2.205591 0.061679 0.000264 0.0
0.489179 1.183048 0.001895 0.0
2.736443 2.075400 -0.001517 0.0
0.662605 0.822641 -0.000477 0.0
1.487995 2.236971 0.003175 0.0
3.385148 1.564374 -0.003179 0.0
1.681807 2.371937 0.003973 0.0
2.226645 2.071192 -0.000755 0.0
2.216787 0.026577 -0.000543 0.0
3.807881 1.842000 0.003184 0.0
1.504617 1.533061 -0.000382 0.0
2.473741 2.126643 0.000444 0.0
0.771718 0.840350 0.001458 0.0
2.308228 2.017583 0.001767 0.0
3.603421 0.136073 -0.004534 0.0
3.470126 1.331145 -0.000388 0.0
3.918051 1.875036 -0.001410 0.0
1.635708 1.318160 -0.002564 0.0
3.422214 0.905390 0.004403 0.0
0.024753 0.117297 0.001644 0.0
1.913744 1.125206 0.003813 0.0
1.898391 1.697497 -0.002296 0.0
3.952579 0.385869 -0.001527 0.0
1.134082 2.229440 -0.003794 0.0
3.934593 1.179018 0.007075 0.0
1.241632 1.857143 0.002120 0.0
2.206600 0.900600 -0.000273 0.0
3.806519 0.721985 0.001608 0.0
3.689315 0.910057 -0.003103 0.0
3.663615 1.411429 -0.001962 0.0
0.535159 1.457749 0.000763 0.0
4.094928 2.401876 -0.003295 0.0
1.690525 2.279160 -0.002229 0.0
1.480595 2.214166 0.002481 0.0
0.846558 1.186505 0.002101 0.0
3.269772 1.616220 -0.004139 0.0
3.116718 2.382418 0.001911 0.0
0.074252 1.407999 0.001606 0.0
0.089983 2.179046 -0.003221 0.0
2.995305 2.003189 -0.000354 0.0
1.148632 1.079235 0.000137 0.0
2.529107 1.051041 -0.000597 0.0
0.391035 0.290632 0.000479 0.0
2.114478 0.067712 -0.001327 0.0
0.067875 0.453801 0.002314 0.0
0.562429 0.353617 0.000508 0.0
3.917674 1.462108 -0.001437 0.0
3.561851 2.239072 -0.003202 0.0
1.750197 0.078029 0.005147 0.0
3.026824 0.715644 -0.001812 0.0
4.207611 1.944626 0.001780 0.0
1.209727 0.748167 0.001504 0.0
2.097796 0.041265 0.001548 0.0
3.154902 2.325735 0.002012 0.0
2.663892 1.099319 0.000315 0.0
3.466506 0.436911 0.001035 0.0
0.457391 0.825813 0.001422 0.0
2.886344 0.140558 -0.000167 0.0
2.497506 0.756727 0.002460 0.0
3.891152 2.228273 0.000048 0.0
3.973498 1.074751 0.002506 0.0
0.100697 1.686875 -0.002949 0.0
2.301410 1.921289 -0.005839 0.0
0.984267 1.822981 -0.003877 0.0
3.040345 1.170723 0.003631 0.0
2.217085 0.274862 0.002480 0.0
0.441180 0.597339 -0.002011 0.0
0.234807 0.202648 -0.002639 0.0
3.591071 0.432159 0.007317 0.0
3.621350 0.046121 0.000503 0.0
2.719127 2.399684 -0.005149 0.0
1.312988 0.579769 -0.003332 0.0
0.650039 2.092148 -0.003629 0.0
0.781263 0.944645 -0.001019 0.0
2.124342 1.669674 -0.002571 0.0
0.620968 0.967957 0.002594 0.0
2.532817 1.988072 0.000910 0.0
2.035125 0.328369 -0.002179 0.0
1.157437 0.351448 -0.001933 0.0
2.478082 1.872618 -0.000434 0.0
3.868331 0.774363 0.000115 0.0
0.436628 2.084221 -0.000305 0.0
2.824013 1.442708 -0.001607 0.0
0.637111 1.672906 -0.002501 0.0
0.905995 2.490956 0.002040 0.0
1.889592 1.903082 -0.001631 0.0
3.153166 0.575152 0.002618 0.0
0.726729 0.852042 -0.003059 0.0
0.472845 0.319330 0.003270 0.0
0.562261 0.205866 -0.001241 0.0
3.707405 1.321546 0.002107 0.0
0.811090 1.509511 -0.001770 0.0
3.940754 0.219536 0.001822 0.0
2.517379 0.210954 0.001109 0.0
2.362351 1.223016 -0.000987 0.0
0.502907 1.225535 0.001956 0.0
3.055873 1.983057 0.003267 0.0
1.817669 0.111010 -0.000630 0.0
0.880073 0.826651 -0.000797 0.0
2.846308 2.408502 0.001153 0.0
3.036095 1.789049 0.002832 0.0
0.006121 1.793009 -0.005149 0.0
2.232656 2.458791 -0.002355 0.0
1.411126 0.872597 0.005279 0.0
4.190323 0.999998 0.001104 0.0
2.937656 1.183041 0.003317 0.0
1.862373 0.806584 -0.001863 0.0
3.687433 0.271570 0.000039 0.0
2.076549 0.087060 0.005761 0.0
0.416418 1.712023 0.004086 0.0
3.377790 2.151518 -0.000088 0.0
2.601222 2.355128 -0.001745 0.0
3.771244 1.417725 0.001120 0.0
2.428792 1.717712 -0.003626 0.0
1.492909 2.399147 0.001145 0.0
2.892888 0.065757 -0.003038 0.0
1.310130 2.386149 -0.001115 0.0
3.284281 2.086027 -0.002749 0.0
2.264455 0.211145 0.003380 0.0
0.583956 2.215661 -0.001801 0.0
0.326172 0.669068 0.002086 0.0
2.077243 0.247668 -0.003579 0.0
1.040635 0.073635 -0.001296 0.0
0.616528 1.142938 -0.003228 0.0
2.414294 1.171733 -0.000758 0.0
2.823211 1.593829 -0.000938 0.0
1.560723 1.962881 -0.000630 0.0
2.600406 1.810918 0.000166 0.0
3.025777 0.073125 -0.001296 0.0
0.231161 1.067776 0.003648 0.0
0.857324 2.000301 -0.001889 0.0
1.584433 1.835522 0.000622 0.0
1.904715 1.737352 -0.000871 0.0
3.154315 0.655006 0.003066 0.0
1.517933 2.422647 0.000948 0.0
3.499588 1.054509 -0.002481 0.0
1.521788 0.273564 -0.001361 0.0
1.455763 1.103370 -0.000246 0.0
2.456238 1.794729 0.001627 0.0
3.620182 0.565222 -0.001730 0.0
1.181025 1.643242 -0.001769 0.0
2.344207 0.313838 0.004394 0.0
2.840419 0.682523 -0.002224 0.0
1.810157 1.847210 -0.000815 0.0
2.608007 0.469898 0.004790 0.0
1.395941 0.619641 -0.003258 0.0
2.221935 1.213576 0.001399 0.0
1.168243 1.943916 0.005069 0.0
0.890195 0.110267 -0.002436 0.0
2.060539 0.932159 0.003388 0.0
1.211616 0.623127 0.001731 0.0
1.563231 0.211033 0.000623 0.0
0.299903 1.098047 -0.006076 0.0
3.564071 0.326678 -0.005145 0.0
3.503908 1.659895 -0.001517 0.0
0.095067 1.956895 0.002280 0.0
3.276015 1.244633 0.002788 0.0
1.339055 0.620853 0.000288 0.0
3.865066 1.508170 -0.000823 0.0
0.792606 0.335415 0.000033 0.0
0.374480 1.712541 0.000758 0.0
1.761109 0.732494 -0.006451 0.0
4.077513 0.671015 0.001395 0.0
2.565744 1.504682 -0.001153 0.0
3.913653 1.110188 -0.002658 0.0
2.075687 0.384131 -0.000292 0.0
0.698422 1.662681 -0.001594 0.0
0.922924 2.128703 0.000812 0.0
1.715323 0.978481 0.003651 0.0
3.862555 2.144537 0.003770 0.0
1.442649 1.644404 0.003383 0.0
