2.48245984 1.37934234 0.00024407 0.00000000
2.73676726 1.62385988 0.00420977 0.00000000
1.76737867 0.13330181 0.00072514 0.00000000
1.81018680 0.51713242 0.00329099 0.00000000
2.63214547 0.09702273 -0.00100904 0.00000000
3.84756561 0.71867862 0.00184404 0.00000000
2.66342944 0.96956446 -0.00000833 0.00000000
0.37912406 2.13025258 -0.00345060 0.00000000
4.26827654 0.30490625 0.00131615 0.00000000
0.98994429 1.71270421 -0.00165770 0.00000000
0.88002235 2.15378450 -0.00181910 0.00000000
3.81392438 1.55279753 -0.00080389 0.00000000
2.24469659 1.86282739 -0.00052912 0.00000000
2.31511069 1.57168954 -0.00050994 0.00000000
1.19397216 1.29595700 -0.00334510 0.00000000
0.32362636 0.08975039 -0.00051299 0.00000000
1.56511329 1.71660318 0.00039948 0.00000000
2.84556489 0.37257547 -0.00238669 0.00000000
1.83318583 1.58400011 -0.00121817 0.00000000
3.50905506 0.17586862 -0.00107542 0.00000000
3.25345562 1.24937169 -0.00102803 0.00000000
2.49287188 0.12123768 0.00002736 0.00000000
2.20347654 1.03704079 -0.00121091 0.00000000
3.38361794 2.03398453 0.00237744 0.00000000
0.17026253 0.29427010 -0.00509119 0.00000000
3.52507204 0.91416519 -0.00659351 0.00000000
0.15464256 0.81553215 0.00064086 0.00000000
2.54722708 0.76830870 0.00264611 0.00000000
2.70661110 0.45085261 -0.00265221 0.00000000
3.14893220 1.05863136 -0.00673940 0.00000000
3.91704154 0.21294075 -0.00260398 0.00000000
2.57989339 1.80468362 0.00232187 0.00000000
2.84298674 2.01242899 0.00346859 0.00000000
1.03351737 0.71923473 0.00363621 0.00000000
2.20947885 0.77563473 0.00030767 0.00000000
1.11089654 1.68026237 -0.00173398 0.00000000
2.17187302 0.87124269 0.00109979 0.00000000
3.79794256 0.68114879 0.00191846 0.00000000
2.15795816 0.85278616 0.00077786 0.00000000
2.13728437 0.86833497 -0.00055604 0.00000000
1.70797578 0.61063353 0.00048385 0.00000000
1.25317939 1.69582803 -0.00373009 0.00000000
1.53807316 0.25462130 -0.00164043 0.00000000
4.41234266 1.80264859 -0.00028485 0.00000000
3.85397789 1.31979525 0.00219071 0.00000000
2.54387343 0.38004496 0.00025386 0.00000000
4.41863205 1.77302299 -0.00208556 0.00000000
3.45251120 0.88545243 -0.00420524 0.00000000
3.18060110 1.29870954 -0.00282046 0.00000000
1.75048924 0.40548660 -0.00049234 0.00000000
1.15345613 1.79617506 -0.00426925 0.00000000
4.43658350 2.29260508 0.00656900 0.00000000
4.27731978 1.51575780 -0.00403154 0.00000000
2.23428943 0.10117639 -0.00037553 0.00000000
2.20166250 0.14163118 0.00036369 0.00000000
0.14175073 0.82970853 -0.00244494 0.00000000
0.51232786 0.67260339 -0.00265227 0.00000000
3.26682240 2.08648556 0.00156600 0.00000000
2.06090332 0.37634991 -0.00329459 0.00000000
2.18245967 0.83471870 0.00125510 0.00000000
4.08179435 1.54954006 0.00476418 0.00000000
3.26619905 0.77953459 0.00272215 0.00000000
0.15937588 0.29580852 0.00051868 0.00000000
1.65349883 1.52416335 -0.00045417 0.00000000
3.79410998 0.33257992 0.00211606 0.00000000
2.66487889 0.94409662 0.00143256 0.00000000
4.19176285 0.79518403 0.00420857 0.00000000
4.02092887 1.99535300 -0.00010201 0.00000000
0.57590351 0.75146568 -0.00200440 0.00000000
4.08039070 1.38396969 0.00416594 0.00000000
2.72660451 0.71107133 -0.00004926 0.00000000
1.24851996 0.88481257 -0.00057184 0.00000000
0.87016073 2.06405381 0.00326054 0.00000000
3.85623625 1.82302590 0.00188511 0.00000000
0.65442084 0.60511903 -0.00116201 0.00000000
2.97109792 0.47288054 -0.00254044 0.00000000
1.59331013 0.70104577 -0.00095372 0.00000000
2.15480577 0.18467953 -0.00252256 0.00000000
1.43376261 0.08406804 0.00351666 0.00000000
2.15127514 0.48424167 0.00115788 0.00000000
0.61386481 0.62667245 -0.00273944 0.00000000
1.37634933 2.29570413 -0.00386801 0.00000000
0.54408244 2.15237096 -0.00048708 0.00000000
3.22979534 0.43013499 -0.00149562 0.00000000
0.02470590 0.24672249 -0.00169039 0.00000000
3.37656918 1.69239254 -0.00213976 0.00000000
0.40469895 0.69506443 -0.00030209 0.00000000
3.19724007 1.31734664 -0.00070350 0.00000000
0.11847486 0.96763412 0.00146723 0.00000000
2.36051127 1.34312496 0.00210900 0.00000000
3.95481655 1.60239397 -0.00121401 0.00000000
0.97731044 0.21944132 -0.00004774 0.00000000
1.69864957 1.66094264 0.00171018 0.00000000
0.69817238 0.63225825 -0.00112610 0.00000000
2.76716150 0.44057265 0.00174428 0.00000000
2.84251202 1.47736031 -0.00146097 0.00000000
3.52239790 1.52451468 -0.00268451 0.00000000
3.70485062 1.10469293 -0.00325107 0.00000000
3.15070874 1.51522681 0.00045494 0.00000000
3.71098035 1.04182710 0.00031507 0.00000000
3.09158918 0.09546267 -0.00086432 0.00000000
2.09453756 0.92188977 0.00134855 0.00000000
3.24628354 1.91084641 0.00074618 0.00000000
2.34586541 0.12364249 -0.00119041 0.00000000
0.09379951 0.57422437 -0.00064056 0.00000000
3.34686748 0.48496134 -0.00172052 0.00000000
1.25317709 1.38837442 0.00436814 0.00000000
4.27649526 0.49589245 -0.00262120 0.00000000
4.14354739 0.57630629 -0.00047530 0.00000000
4.11271159 1.29499149 -0.00389693 0.00000000
1.65960385 1.02599330 0.00253460 0.00000000
1.74272762 1.51948712 0.00063462 0.00000000
0.33929513 2.03707575 -0.00054923 0.00000000
3.98183717 0.14975321 -0.00161273 0.00000000
2.75660836 1.49583045 0.00066816 0.00000000
0.13208118 2.17111065 -0.00105003 0.00000000
1.74461346 1.91716627 0.00092219 0.00000000
3.75837271 0.76996075 0.00133704 0.00000000
2.06211216 0.97283950 0.00143855 0.00000000
1.69711380 2.31184244 0.00057788 0.00000000
0.80186946 2.18864461 -0.00179567 0.00000000
0.76346702 1.68489517 0.00139379 0.00000000
4.26024580 0.82667717 -0.00088002 0.00000000
2.30481248 0.77912034 -0.00018330 0.00000000
1.71542111 1.81102279 -0.00004938 0.00000000
4.01209686 0.84336502 0.00177658 0.00000000
2.94355848 0.65883878 0.00073248 0.00000000
0.60308864 2.25883247 -0.00069208 0.00000000
0.59075862 1.46143245 -0.00131067 0.00000000
1.86886698 0.62106851 0.00389880 0.00000000
0.02965897 1.19126283 -0.00262666 0.00000000
0.95586384 1.21435090 -0.00156162 0.00000000
1.14705073 1.84717299 -0.00047913 0.00000000
2.97738314 1.53994627 -0.00034866 0.00000000
3.72130231 2.12401283 -0.00009195 0.00000000
0.37851700 2.02831130 -0.00146559 0.00000000
4.44116457 0.64861263 0.00074931 0.00000000
3.21180941 0.20104625 -0.00571408 0.00000000
3.53536664 0.49892080 -0.00066615 0.00000000
2.01933149 2.17899493 -0.00313489 0.00000000
1.84667804 0.21228926 -0.00149158 0.00000000
1.86853979 1.74443046 0.00233154 0.00000000
1.15456909 1.33845895 -0.00401887 0.00000000
2.44996006 0.62102512 0.00296709 0.00000000
1.58915137 0.84809323 -0.00035951 0.00000000
3.54786288 0.52191968 -0.00031783 0.00000000
2.50345582 2.26545518 0.00098142 0.00000000
0.12707789 1.03230484 0.00096918 0.00000000
0.20252378 1.52215476 0.00244980 0.00000000
0.80260200 2.21180687 -0.00361041 0.00000000
3.91813544 0.21401732 -0.00243657 0.00000000
2.94404109 2.24295322 -0.00102004 0.00000000
4.27911589 0.62566790 -0.00624636 0.00000000
1.38418958 1.41363486 -0.00138569 0.00000000
2.67994211 0.04381055 -0.00043781 0.00000000
0.48336465 1.13276617 -0.00202433 0.00000000
1.94292399 0.58503753 -0.00457558 0.00000000
1.68118448 1.27299665 0.00279358 0.00000000
2.90934405 1.92741345 0.00317039 0.00000000
0.69008029 2.05539509 0.00731159 0.00000000
4.36820067 0.85792039 -0.00219898 0.00000000
3.03493261 0.39866634 0.00004499 0.00000000
1.62171829 1.96816355 -0.00262479 0.00000000
1.61029172 0.67334221 0.00113184 0.00000000
2.33552219 1.37595566 -0.00105905 0.00000000
3.52129356 1.53694445 -0.00190589 0.00000000
0.30997156 0.93456616 -0.00175349 0.00000000
0.52213614 1.60280674 0.00124414 0.00000000
1.68059020 1.14900158 0.00257930 0.00000000
4.29127652 2.28597341 -0.00239287 0.00000000
2.94244737 1.88693173 0.00011752 0.00000000
0.84296153 0.84495349 -0.00040105 0.00000000
1.75648625 0.65535638 0.00243322 0.00000000
2.63123965 0.06852748 -0.00068443 0.00000000
4.44783863 1.41008171 0.00052585 0.00000000
0.01740463 1.91283813 -0.00424007 0.00000000
4.18079327 1.38610268 -0.00086126 0.00000000
1.28432013 2.21310030 -0.00017903 0.00000000
2.69074492 1.96771539 0.00147117 0.00000000
1.85227952 1.39295519 0.00432560 0.00000000
0.79884188 0.36856045 -0.00105236 0.00000000
1.61110407 0.68857843 0.00424397 0.00000000
2.35492764 1.08154030 -0.00112932 0.00000000
4.42474213 1.33218291 -0.00441686 0.00000000
3.18792935 0.16188342 -0.00020651 0.00000000
2.07025843 0.41949927 0.00123092 0.00000000
0.80166140 1.62833463 0.00145492 0.00000000
3.52708915 1.82649461 -0.00196389 0.00000000
2.63376941 1.29804587 -0.00040578 0.00000000
1.53140371 1.54592989 -0.00060479 0.00000000
4.46222865 1.86828907 0.00108245 0.00000000
3.33152566 1.23472128 -0.00563166 0.00000000
0.14086375 1.39623609 0.00230275 0.00000000
2.46566842 0.68426598 0.00096368 0.00000000
2.08134912 0.50562414 0.00531083 0.00000000
3.74536186 1.80479282 -0.00454576 0.00000000
0.71229259 1.14097659 -0.00016283 0.00000000
1.35310278 2.09270767 0.00062668 0.00000000
2.60876619 1.47858822 -0.00198849 0.00000000
3.55165785 1.85971309 0.00256167 0.00000000
3.02356911 1.82332657 -0.00070568 0.00000000
4.18396499 0.10061204 0.00124827 0.00000000
3.22220249 1.59615954 0.00282230 0.00000000
1.61470704 1.96476878 -0.00020769 0.00000000
0.13255702 1.32264873 0.00095417 0.00000000
2.29516856 0.80413033 -0.00011750 0.00000000
2.69779829 0.39981071 0.00213250 0.00000000
0.58858690 0.66294426 0.00307079 0.00000000
1.86133501 0.16812361 -0.00494255 0.00000000
1.38570527 1.84662490 -0.00095784 0.00000000
4.24095513 0.90968095 0.00246503 0.00000000
1.43761963 2.01188241 0.00334424 0.00000000
1.84315018 0.89500982 0.00063689 0.00000000
0.29023377 1.89864729 -0.00008091 0.00000000
2.68983155 1.41177298 -0.00086983 0.00000000
3.09578947 1.43924275 0.00255131 0.00000000
4.21242216 1.17766832 0.00577042 0.00000000
2.97405293 0.57448881 -0.00009604 0.00000000
0.93117921 1.61870761 -0.00413118 0.00000000
4.07431269 0.23360129 -0.00008813 0.00000000
0.68220925 0.03926752 -0.00230892 0.00000000
2.59240832 2.29115383 0.00549770 0.00000000
1.59552812 1.92375031 0.00010271 0.00000000
1.71984454 1.64492093 0.00289585 0.00000000
4.46846544 0.56207553 0.00345760 0.00000000
2.05576862 1.07676055 0.00121873 0.00000000
0.35183744 1.14703448 0.00325652 0.00000000
4.26877400 0.13222515 -0.00810304 0.00000000
4.23058197 0.01534868 0.00073573 0.00000000
4.13963605 0.24796647 -0.00105063 0.00000000
2.91585645 0.71254607 -0.00391454 0.00000000
3.77709991 0.72972622 -0.00332598 0.00000000
1.21177168 1.54553492 -0.00176900 0.00000000
1.39387592 0.10964497 -0.00102523 0.00000000
1.51820872 1.25176944 0.00181487 0.00000000
3.01380363 1.01501783 0.00274422 0.00000000
3.66540058 0.23893049 -0.00073016 0.00000000
4.31944909 0.73986274 -0.00169876 0.00000000
1.35125529 0.67513884 -0.00139270 0.00000000
0.56589755 1.55773808 0.00017041 0.00000000
3.83054877 0.42967563 0.00328860 0.00000000
2.26144736 1.62475668 -0.00288288 0.00000000
1.14889077 0.20305345 -0.00337158 0.00000000
1.67501660 0.59212286 0.00011519 0.00000000
1.99175288 0.82600301 0.00129755 0.00000000
3.41687297 0.16682817 0.00141759 0.00000000
2.63149485 0.61796113 0.00415537 0.00000000
2.47886161 0.63582976 0.00037891 0.00000000
4.26056294 2.18923985 -0.00012047 0.00000000
1.54678546 2.19770533 0.00414523 0.00000000
4.14554201 0.87365651 0.00094082 0.00000000
0.06279456 2.22432620 0.00288608 0.00000000
1.05019306 1.39306990 0.00162344 0.00000000
2.23944231 1.36987022 -0.00382333 0.00000000
2.53984992 0.26518797 -0.00111680 0.00000000
1.59445132 1.43838883 0.00133766 0.00000000
1.11121480 1.99509310 -0.00141859 0.00000000
3.41391539 0.33059892 0.00244167 0.00000000
1.63809424 1.78746529 -0.00040704 0.00000000
3.11539116 0.22077170 0.00101976 0.00000000
3.49395329 2.05059443 0.00011891 0.00000000
3.79714101 1.74638522 0.00293087 0.00000000
2.88353045 1.74536812 -0.00221349 0.00000000
1.97399304 0.45511021 0.00456534 0.00000000
1.76456168 0.59560011 -0.00145746 0.00000000
1.60085003 0.54564179 -0.00311581 0.00000000
0.32205494 0.70272106 -0.00074852 0.00000000
3.26900558 0.26375347 -0.00300106 0.00000000
3.38773379 0.82298730 -0.00305749 0.00000000
2.26644070 0.21850980 0.00283361 0.00000000
3.77053017 0.69446403 0.00145226 0.00000000
4.07118854 0.03066588 -0.00259348 0.00000000
2.60575379 1.13465266 0.00022740 0.00000000
1.17216642 0.44637704 0.00149902 0.00000000
3.27264361 0.48194786 0.00120447 0.00000000
3.59583824 1.38163304 -0.00232968 0.00000000
2.98299545 1.89958988 0.00303076 0.00000000
2.14663197 2.16466845 -0.00199313 0.00000000
1.02947961 1.21399631 0.00284805 0.00000000
1.31214363 2.28585547 0.00046747 0.00000000
1.88926583 0.39257484 0.00446278 0.00000000
1.60606235 1.04532572 -0.00095865 0.00000000
1.91547510 0.41770302 -0.00096155 0.00000000
2.44599126 2.03310903 0.00004627 0.00000000
2.16613315 2.30981930 -0.00330195 0.00000000
3.25339636 1.78782224 0.00435505 0.00000000
3.63561732 1.27267534 -0.00135380 0.00000000
0.07147203 1.00968014 0.00433508 0.00000000
0.68166683 2.12545234 -0.00393597 0.00000000
0.42494031 0.03554957 0.00544942 0.00000000
2.08793070 2.02866487 -0.00081382 0.00000000
3.54804005 1.04354177 0.00131150 0.00000000
0.31495535 0.24183102 0.00186806 0.00000000
1.04811363 2.16657772 -0.00245713 0.00000000
0.54012574 1.49906991 0.00035667 0.00000000
3.38624564 1.62669847 0.00236652 0.00000000
3.54689359 1.84663900 -0.00191475 0.00000000
4.44324144 0.33128056 0.00154008 0.00000000
2.07886561 1.60318822 -0.00436209 0.00000000
0.32641495 1.43894502 0.00259103 0.00000000
3.64235198 1.08566711 -0.00098302 0.00000000
0.75312888 2.16904410 0.00228090 0.00000000
1.07532592 0.98657948 -0.00088280 0.00000000
0.93046318 2.20366210 -0.00455544 0.00000000
3.50631302 1.35355464 -0.00129402 0.00000000
2.04837895 1.14101886 0.00153713 0.00000000
0.77412274 0.56863485 0.00258904 0.00000000
2.43386935 1.63511245 0.00354196 0.00000000
4.13121924 1.78012990 0.00216440 0.00000000
1.82940246 0.00720751 0.00237408 0.00000000
4.12794395 2.03638532 0.00073807 0.00000000
1.76490560 0.07675188 0.00088383 0.00000000
0.22024117 0.70988584 0.00391131 0.00000000
0.18229327 0.42753763 0.00221221 0.00000000
1.21727158 0.66078086 0.00188504 0.00000000
3.27491639 0.32203851 -0.00333330 0.00000000
2.88707700 0.91420356 -0.00592496 0.00000000
1.24603037 1.15854608 0.00267328 0.00000000
0.60532021 1.28121191 -0.00351692 0.00000000
4.43116734 0.28348798 -0.00198623 0.00000000
0.14944913 1.81388845 -0.00012937 0.00000000
2.35606804 1.37680815 -0.00276482 0.00000000
2.39971698 2.23614908 0.00273402 0.00000000
2.70852796 0.01137381 -0.00315634 0.00000000
1.99048551 1.13055505 -0.00239253 0.00000000
4.38858273 0.04666423 0.00188491 0.00000000
2.64192503 0.91391850 0.00197655 0.00000000
2.07913729 0.31882183 0.00242534 0.00000000
0.43918144 1.79641483 -0.00629659 0.00000000
1.07135549 1.48403105 0.00653420 0.00000000
0.51193326 1.82079370 0.00177863 0.00000000
1.85299739 0.45942467 -0.00310278 0.00000000
1.89342428 0.04631006 0.00089140 0.00000000
0.62608692 1.65806500 -0.00335258 0.00000000
0.99642966 0.33734422 -0.00186631 0.00000000
4.20651163 1.33828765 0.00120345 0.00000000
0.75956979 1.32569530 0.00001818 0.00000000
0.67005433 1.38720739 -0.00242481 0.00000000
1.76940762 0.04939166 0.00302861 0.00000000
1.05509738 1.89153743 0.00301010 0.00000000
0.68951700 0.59266063 -0.00306640 0.00000000
0.16088567 1.57255351 0.00141620 0.00000000
1.60476981 0.02336311 -0.00149691 0.00000000
0.96876010 0.56674950 0.00094263 0.00000000
2.49635983 0.90200872 -0.00196800 0.00000000
3.09029727 1.18984424 0.00196036 0.00000000
4.48060714 1.29382397 -0.00205888 0.00000000
0.09753527 1.23410830 -0.00417963 0.00000000
3.94774141 0.36019556 0.00233522 0.00000000
0.30028552 1.21375533 0.00244250 0.00000000
1.55708680 1.81499558 -0.00029947 0.00000000
4.11429552 0.38673255 0.00209056 0.00000000
4.25091608 1.29239066 -0.00077518 0.00000000
4.15994243 0.48266527 -0.00294096 0.00000000
4.25434467 1.29321174 0.00144678 0.00000000
0.32770128 1.40260782 0.00170680 0.00000000
2.46638174 1.07217411 -0.00108595 0.00000000
2.06285071 1.44053336 -0.00114464 0.00000000
1.33745856 1.26354888 -0.00097483 0.00000000
0.25715187 0.68671061 -0.00080634 0.00000000
1.24775168 1.68529536 -0.00140028 0.00000000
0.54401124 1.69944392 0.00279034 0.00000000
3.47012054 1.89841636 0.00094970 0.00000000
3.58484787 1.85380497 0.00149412 0.00000000
1.25735104 0.89094746 0.00146583 0.00000000
3.69689611 0.02266909 -0.00041003 0.00000000
3.15504380 1.28649663 -0.00198414 0.00000000
2.33741050 1.93239016 -0.00281971 0.00000000
1.73552591 1.12301740 0.00180795 0.00000000
1.14163091 0.53846482 0.00357573 0.00000000
1.52369987 0.04465140 0.00218066 0.00000000
2.61862476 2.28795653 0.00045838 0.00000000
3.92634683 1.50237354 0.00013914 0.00000000
2.36592250 2.10739948 -0.00011073 0.00000000
2.44505043 1.71063441 -0.00093618 0.00000000
3.09546550 1.00673378 0.00487073 0.00000000
4.26850456 0.82395081 0.00063883 0.00000000
1.79539926 2.03106344 0.00106359 0.00000000
4.22533432 2.02335410 0.00387179 0.00000000
1.29549569 2.14759675 -0.00365979 0.00000000
3.02738505 0.98522157 0.00163626 0.00000000
1.36036880 0.13911071 -0.00277309 0.00000000
3.90413406 0.82436334 0.00301512 0.00000000
0.74816476 1.70030183 0.00189773 0.00000000
1.20818679 0.86911718 0.00075304 0.00000000
1.70292645 0.16365263 0.00232756 0.00000000
0.70995835 0.94584796 0.00319625 0.00000000
4.03012066 0.87634556 0.00079288 0.00000000
4.39287305 1.76863556 -0.00157757 0.00000000
3.65891418 2.25976712 0.00461538 0.00000000
2.30309838 1.42319709 0.00251010 0.00000000
0.58589810 1.88593405 -0.00197472 0.00000000
3.02857564 1.28915325 0.00448842 0.00000000
4.27843298 2.15232330 -0.00281585 0.00000000
2.83972873 1.88606626 -0.00076549 0.00000000
3.86267277 0.43063429 -0.00279010 0.00000000
4.42999647 2.26077688 -0.00197841 0.00000000
1.00001073 2.20139877 -0.00170181 0.00000000
3.81567562 1.36561246 0.00039764 0.00000000
4.31307299 1.64017708 0.00079367 0.00000000
3.88874884 0.14020057 -0.00024608 0.00000000
1.92058108 0.77169026 0.00425023 0.00000000
0.14204300 1.40265694 -0.00346982 0.00000000
0.86413319 1.75912070 -0.00084221 0.00000000
0.61002032 1.69466997 -0.00261360 0.00000000
2.57140814 1.01953348 -0.00131841 0.00000000
3.89162382 1.85545027 0.00672794 0.00000000
1.39835307 0.04969965 -0.00194738 0.00000000
0.26057963 0.35585461 0.00267417 0.00000000
0.85690353 0.35733125 0.00473612 0.00000000
4.35416814 0.84016659 -0.00765630 0.00000000
3.82447352 2.24016802 0.00036361 0.00000000
3.94627293 0.10497332 -0.00296329 0.00000000
0.66993396 0.42566889 0.00039839 0.00000000
2.43036972 0.93015883 0.00049605 0.00000000
1.38671862 0.47423003 -0.00095902 0.00000000
3.81685011 0.95758111 -0.00442184 0.00000000
1.66130471 1.17977100 0.00149898 0.00000000
0.18180746 1.36733134 0.00064158 0.00000000
0.30894457 1.39162691 -0.00500620 0.00000000
0.86955433 1.22593348 -0.00069478 0.00000000
2.53467801 1.78084493 -0.00041447 0.00000000
1.08651954 0.14765734 0.00080825 0.00000000
3.61877387 1.07810097 -0.00152653 0.00000000
4.14386122 1.90137919 -0.00240770 0.00000000
2.33565059 0.15260110 0.00024987 0.00000000
2.29715816 0.30140048 -0.00372720 0.00000000
1.51742311 1.12855956 0.00396687 0.00000000
0.41775784 1.22050466 0.00035363 0.00000000
4.11397442 1.37626224 -0.00096864 0.00000000
3.30178114 1.15315316 0.00409138 0.00000000
1.37199105 2.19931628 0.00256750 0.00000000
3.66341597 1.07365827 0.00018568 0.00000000
4.12777213 1.25994565 0.00430827 0.00000000
3.20422591 0.71998492 0.00049743 0.00000000
0.15219886 0.72068714 0.00470441 0.00000000
1.01544412 1.57900872 -0.00131311 0.00000000
2.43923863 1.57159459 -0.00044373 0.00000000
1.44551863 1.81733746 -0.00569164 0.00000000
2.71844213 0.38960045 -0.00421308 0.00000000
3.31967224 0.91845895 -0.00070543 0.00000000
3.98777640 1.27472481 0.00201996 0.00000000
4.08911694 1.05269890 -0.00371942 0.00000000
1.81864167 2.08110277 0.00064849 0.00000000
1.44507877 0.30690231 0.00022759 0.00000000
1.71463232 0.33255223 -0.00441384 0.00000000
2.56296173 2.01071327 0.00276862 0.00000000
3.70903340 0.29821170 -0.00184826 0.00000000
0.52884943 2.18571659 -0.00146141 0.00000000
4.05613262 1.18746314 -0.00343846 0.00000000
0.21508764 2.25386711 -0.00301222 0.00000000
2.15773549 2.11619897 -0.00221302 0.00000000
1.39288429 0.78550125 -0.00037236 0.00000000
0.70357728 1.43777488 -0.00066656 0.00000000
4.01881190 1.85322585 0.00338608 0.00000000
0.28296569 0.36345115 0.00007225 0.00000000
0.98121596 2.05070064 -0.00351497 0.00000000
1.62504772 1.23128180 -0.00210209 0.00000000
0.75182634 0.79430460 0.00004985 0.00000000
0.92640395 0.33651711 0.00244249 0.00000000
1.57723086 1.59889166 -0.00158013 0.00000000
2.75245589 1.31003946 0.00176835 0.00000000
4.18568922 0.08668838 -0.00332869 0.00000000
2.33791084 1.74257610 -0.00208710 0.00000000
2.53225918 1.21750318 -0.00029527 0.00000000
0.67059803 1.14285559 0.00349827 0.00000000
1.35923920 1.45066629 0.00164785 0.00000000
3.76107265 2.27667472 0.00219653 0.00000000
2.52665446 0.45769150 -0.00305294 0.00000000
3.27194436 0.02827521 0.00035576 0.00000000
0.02894286 1.34796466 0.00106373 0.00000000
3.33710946 0.41462129 -0.00103050 0.00000000
0.54764656 1.52809204 0.00409107 0.00000000
0.90300750 0.92145664 -0.00302659 0.00000000
0.68514818 2.25588360 -0.00307158 0.00000000
1.69580081 1.59303189 0.00184550 0.00000000
2.33140829 2.06950503 -0.00102177 0.00000000
3.42940038 1.21165328 0.00514692 0.00000000
2.67380486 0.59186533 0.00175676 0.00000000
4.35280895 0.50949496 0.00104964 0.00000000
4.25771855 2.27798684 -0.00202827 0.00000000
0.97666070 1.26105965 -0.00275343 0.00000000
4.00584156 0.31801674 -0.00215904 0.00000000
4.41020773 2.20220999 -0.00245241 0.00000000
3.36619811 0.66888377 -0.00382291 0.00000000
3.56216259 1.38453049 0.00676817 0.00000000
3.81634884 1.08561515 0.00157512 0.00000000
0.69674434 1.62853694 0.00398066 0.00000000
4.07120024 1.64583946 -0.00179229 0.00000000
0.67183505 1.87115693 0.00310786 0.00000000
1.33478553 1.38145669 0.00124941 0.00000000
0.57310702 1.29451043 0.00033320 0.00000000
0.84744022 0.88680102 0.00363105 0.00000000
1.35300487 2.00891795 -0.00076074 0.00000000
3.68641086 1.84953695 -0.00105697 0.00000000
0.86372198 1.71532210 0.00007412 0.00000000
2.27665754 0.59840546 0.00088681 0.00000000
2.85838518 1.95426140 0.00108034 0.00000000
1.73187327 0.17245212 0.00245691 0.00000000
1.47953818 1.17218423 0.00012377 0.00000000
4.01917405 0.00055684 -0.00431329 0.00000000
0.55135463 1.96602414 0.00595557 0.00000000
2.63899051 0.47395456 -0.00262200 0.00000000
2.29500952 1.84736750 -0.00263800 0.00000000
3.86702157 0.56639702 0.00351891 0.00000000
1.17049451 0.97516549 0.00022666 0.00000000
1.59343021 0.31431277 -0.00136606 0.00000000
1.78691506 1.70874839 -0.00086360 0.00000000
2.53954377 0.83094841 -0.00416993 0.00000000
3.77461332 1.07871452 -0.00295540 0.00000000
1.21225247 1.44608997 -0.00481857 0.00000000
3.76434464 1.08600722 -0.00162219 0.00000000
0.13478860 2.16623463 -0.00252435 0.00000000
2.94839152 2.08869070 -0.00432699 0.00000000
3.10202953 1.66698138 -0.00016399 0.00000000
1.12618748 1.63262618 0.00002654 0.00000000
1.15978064 0.49339555 0.00425730 0.00000000
0.23924177 1.06657608 -0.00352596 0.00000000
3.49125688 0.83333857 0.00225761 0.00000000
4.31867732 0.58250245 0.00340859 0.00000000
1.57304762 0.57321041 0.00188984 0.00000000
3.59693260 0.68238358 0.00236171 0.00000000
2.42653245 1.99992035 -0.00278930 0.00000000
1.69832454 1.91281903 -0.00113678 0.00000000
1.31415834 0.93782825 -0.00011428 0.00000000
2.55108976 1.45423084 -0.00170558 0.00000000
0.69456088 0.05976881 0.00066848 0.00000000
4.30258723 1.83184825 -0.00233641 0.00000000
3.71954427 1.13774683 0.00099337 0.00000000
2.57654076 1.00773812 0.00260290 0.00000000
2.93428653 1.59058592 0.00173316 0.00000000
2.72320953 0.93381044 0.00275033 0.00000000
3.11518173 1.19786218 -0.00067135 0.00000000
4.23960148 0.80735437 0.00255795 0.00000000
0.76164275 0.54246817 0.00398320 0.00000000
3.52797692 0.86812601 -0.00767484 0.00000000
2.22780610 1.30537515 -0.00036803 0.00000000
1.49471432 1.70127556 -0.00308272 0.00000000
0.17328720 1.35832892 0.00083812 0.00000000
1.00632651 1.13393822 -0.00002988 0.00000000
1.24694340 0.33528344 -0.00084424 0.00000000
0.32117567 1.20853263 -0.00137157 0.00000000
1.23045656 0.84414150 -0.00054399 0.00000000
2.88964724 1.63439983 -0.00029006 0.00000000
3.63593937 0.38639380 0.00168569 0.00000000
0.71442574 2.27606130 0.00176600 0.00000000
4.36573635 2.08237520 -0.00276110 0.00000000
3.07486551 1.50013974 0.00146353 0.00000000
0.36918769 0.05035457 0.00027153 0.00000000
2.19058919 0.84432283 -0.00002941 0.00000000
3.33302705 1.92653678 0.00568499 0.00000000
3.30450230 0.24198654 -0.00155646 0.00000000
3.83798771 0.69715338 -0.00192965 0.00000000
2.07183781 1.45791824 0.00165335 0.00000000
4.00021383 1.61616923 0.00174933 0.00000000
0.93667513 1.51086656 -0.00124918 0.00000000
3.32492053 1.07356124 0.00207768 0.00000000
0.93224055 1.58533242 -0.00010525 0.00000000
3.34463220 0.98762303 0.00136293 0.00000000
2.44649844 0.05050040 0.00486706 0.00000000
1.54613749 2.26444774 0.00285076 0.00000000
3.48499512 0.68241925 -0.00278044 0.00000000
1.00359628 0.51364240 -0.00176324 0.00000000
0.24506958 0.94744087 -0.00413343 0.00000000
3.80859776 1.22467188 0.00031493 0.00000000
2.64674118 2.15141368 -0.00161327 0.00000000
4.18036990 1.67840916 0.00174638 0.00000000
0.38229218 1.83200103 0.00016228 0.00000000
1.34918028 1.19973426 0.00120820 0.00000000
0.72602454 1.71163666 -0.00599312 0.00000000
0.72238103 0.00945129 0.00209750 0.00000000
4.36409809 0.21501169 0.00323433 0.00000000
1.64402763 1.77332580 0.00281525 0.00000000
0.53949110 1.44892357 0.00277392 0.00000000
4.27162558 0.61432810 0.00091900 0.00000000
4.14629169 0.94915481 -0.00206038 0.00000000
2.94897111 1.28692661 0.00311369 0.00000000
4.31173117 2.11029098 0.00369766 0.00000000
3.36030184 1.89688601 0.00143529 0.00000000
4.19371325 2.18012245 0.00153185 0.00000000
1.46643503 1.61382569 -0.00690039 0.00000000
3.88200403 0.56346825 -0.00442767 0.00000000
2.33472985 0.61102878 -0.00084309 0.00000000
0.00638383 0.81448040 -0.00279379 0.00000000
1.79021032 0.08807749 -0.00223570 0.00000000
1.63816940 0.23922889 -0.00103878 0.00000000
0.63466925 0.59076999 0.00151735 0.00000000
0.70906455 2.10086375 -0.00518613 0.00000000
2.93297917 0.44023369 -0.00467813 0.00000000
0.91423224 2.05448727 0.00080785 0.00000000
2.10088429 1.70897865 -0.00114809 0.00000000
0.16509737 0.42374695 -0.00118114 0.00000000
3.06497962 0.99779038 -0.00219364 0.00000000
1.19606792 0.62195900 -0.00001568 0.00000000
2.04100150 1.23724926 -0.00044602 0.00000000
0.01304846 0.54281195 -0.00370005 0.00000000
1.79182303 0.25230325 -0.00192367 0.00000000
4.13871560 1.05765880 -0.00056889 0.00000000
0.38570448 0.08224589 0.00277493 0.00000000
2.97579248 1.96042929 -0.00326809 0.00000000
0.97319992 2.17888151 0.00237903 0.00000000
2.61008603 0.14172945 0.00287302 0.00000000
3.80319614 2.06422301 0.00304679 0.00000000
3.93763378 0.58558091 -0.00013550 0.00000000
2.63308649 0.47878138 0.00308814 0.00000000
0.58289085 1.56806786 -0.00311178 0.00000000
1.88915983 2.26465558 -0.00229550 0.00000000
1.04920406 1.95820356 -0.00305635 0.00000000
0.08944723 1.04653115 -0.00151441 0.00000000
2.98093603 1.66338810 0.00168240 0.00000000
0.51964378 0.42178213 0.00295872 0.00000000
2.43564465 0.54134190 -0.00066889 0.00000000
0.05501234 0.27021915 0.00128074 0.00000000
1.46921160 0.36097853 0.00198413 0.00000000
4.08515211 1.16601045 -0.00191487 0.00000000
3.29053306 0.19232081 0.00039118 0.00000000
1.45293467 1.46192631 -0.00319830 0.00000000
1.89841567 1.46500386 -0.00064754 0.00000000
0.74250662 0.61928014 -0.00168670 0.00000000
3.19178651 0.14033009 -0.00320148 0.00000000
3.65877237 2.22063159 -0.00351891 0.00000000
4.23751083 1.16143727 -0.00721380 0.00000000
4.40619635 0.22288910 -0.00227152 0.00000000
3.30306752 0.84100074 0.00063721 0.00000000
0.13419169 0.47865479 0.00190842 0.00000000
0.12263429 1.59850836 -0.00101278 0.00000000
1.31564166 1.90792514 -0.00237206 0.00000000
2.40050062 1.41721051 -0.00009666 0.00000000
1.68883258 1.49234484 -0.00461457 0.00000000
1.27826826 1.56240297 -0.00292390 0.00000000
1.08677226 1.47520171 -0.00110626 0.00000000
1.87310652 0.08210665 -0.00194190 0.00000000
0.10293674 1.30898851 -0.00433030 0.00000000
3.63173158 0.04156814 -0.00170057 0.00000000
2.02272900 0.08733990 -0.00250435 0.00000000
4.13276826 1.86266054 -0.00257394 0.00000000
2.02798344 1.79074585 -0.00253062 0.00000000
0.34560492 1.95211812 -0.00204673 0.00000000
3.84664059 0.77303481 -0.00192906 0.00000000
0.70088526 1.99189643 -0.00290052 0.00000000
1.35807987 1.52715961 0.00133113 0.00000000
1.82985948 1.19379123 0.00520139 0.00000000
4.17648258 1.77594311 0.00331394 0.00000000
2.49867485 1.62742785 -0.00322329 0.00000000
0.46800521 1.71203485 -0.00265586 0.00000000
2.65188927 2.26012481 -0.00056648 0.00000000
1.14569436 1.40140844 -0.00185950 0.00000000
3.42379615 0.42427297 -0.00109302 0.00000000
1.63959423 0.82988191 -0.00226947 0.00000000
3.65684161 1.23440010 0.00145162 0.00000000
3.48420586 1.76429183 0.00041307 0.00000000
3.54262662 0.27939899 0.00239314 0.00000000
0.32366179 1.70958711 0.00114973 0.00000000
3.30894467 0.68890937 -0.00299561 0.00000000
0.58714467 0.14217548 -0.00011644 0.00000000
3.72790268 2.06170862 -0.00450323 0.00000000
3.84131770 0.16547049 0.00126787 0.00000000
3.19632575 0.19173974 -0.00382454 0.00000000
1.77857742 1.33189597 0.00066712 0.00000000
2.44207826 0.67789917 0.00031391 0.00000000
3.08971190 0.47046033 -0.00113264 0.00000000
2.01671953 1.32701454 -0.00090325 0.00000000
2.58438571 0.19895130 -0.00399684 0.00000000
0.33383163 0.31064981 -0.00467390 0.00000000
1.49634003 1.99574236 -0.00210508 0.00000000
1.84216864 1.93419500 0.00002141 0.00000000
2.74956635 0.53991647 -0.00225389 0.00000000
0.68108936 2.03402966 -0.00168168 0.00000000
1.18165467 1.85104823 0.00257533 0.00000000
0.65079376 1.18439728 -0.00052313 0.00000000
2.58898116 1.28858090 0.00370183 0.00000000
0.95161050 0.74820777 0.00237212 0.00000000
1.02895813 1.45182190 0.00084279 0.00000000
2.82343700 1.30249038 -0.00305378 0.00000000
3.44435919 0.53423016 0.00169535 0.00000000
2.07065605 2.15067902 0.00104650 0.00000000
0.23594402 0.07586749 0.00092652 0.00000000
1.18966357 1.66956519 0.00041556 0.00000000
0.25069810 1.34693494 0.00404998 0.00000000
1.78813750 0.07214169 0.00433508 0.00000000
2.17708133 0.19604781 -0.00114367 0.00000000
0.86123249 2.21671515 -0.00217479 0.00000000
0.21723396 2.13781820 0.00039022 0.00000000
1.78847331 2.00365556 0.00041504 0.00000000
0.59427702 0.00262667 0.00060546 0.00000000
3.50220923 1.15261001 -0.00289782 0.00000000
0.84357231 2.11233283 0.00211193 0.00000000
1.72714016 0.06722602 0.00056053 0.00000000
3.51112207 0.26757052 -0.00350191 0.00000000
2.81522924 2.05592036 -0.00319118 0.00000000
1.95783105 0.68760884 0.00186899 0.00000000
0.64445456 0.53936941 0.00612083 0.00000000
3.90570999 0.74712233 -0.00185254 0.00000000
3.56327544 1.83626479 0.00220554 0.00000000
4.13665736 1.54940077 -0.00120433 0.00000000
0.41134171 1.77677199 0.00140987 0.00000000
1.60818701 0.63245255 -0.00042002 0.00000000
1.75684922 0.46544932 -0.00222010 0.00000000
0.59274618 0.32669524 0.00262524 0.00000000
0.40615407 1.25984956 0.00424379 0.00000000
3.80362219 0.46542717 0.00058248 0.00000000
1.49575737 1.91522274 -0.00121309 0.00000000
0.82712345 1.02126972 -0.00043956 0.00000000
0.68426407 1.45443779 -0.00263234 0.00000000
3.45356032 0.01319233 -0.00528211 0.00000000
2.85849168 1.68228792 -0.00115006 0.00000000
3.42936995 0.78737697 0.00102362 0.00000000
0.60003652 0.96473243 0.00036584 0.00000000
0.06890503 1.29256745 0.00372919 0.00000000
1.35260610 0.55354393 -0.00101125 0.00000000
3.10302436 1.04399646 0.00091255 0.00000000
3.94561629 1.59061862 0.00118678 0.00000000
1.44827345 0.42794465 0.00216249 0.00000000
1.51540051 1.38984794 -0.00218165 0.00000000
0.06517340 0.60133607 -0.00169107 0.00000000
0.30793104 0.68170251 -0.00352865 0.00000000
2.47500824 2.14048018 -0.00085260 0.00000000
1.68842832 1.99073812 -0.00170502 0.00000000
1.39867571 2.14076347 -0.00163088 0.00000000
0.75714670 0.74199766 0.00311205 0.00000000
0.88342508 1.23164159 0.00183847 0.00000000
2.88713882 2.08187913 -0.00107857 0.00000000
2.20738971 0.92951612 0.00019104 0.00000000
0.39389910 2.25405301 0.00123855 0.00000000
1.83567258 1.87701510 0.00064148 0.00000000
2.52316752 0.17713871 -0.00074119 0.00000000
2.64993192 0.69764691 0.00257267 0.00000000
0.02724609 0.79462501 -0.00022226 0.00000000
2.62664373 0.69140796 -0.00205044 0.00000000
2.33049415 1.56965432 -0.00200671 0.00000000
3.99861491 2.14373822 0.00199033 0.00000000
3.02597530 0.48269180 -0.00064811 0.00000000
3.81011512 1.75904963 -0.00013637 0.00000000
0.98459111 2.26843337 -0.00020605 0.00000000
0.17138602 0.98357943 0.00080256 0.00000000
3.98258994 2.25096292 -0.00027358 0.00000000
2.21849868 0.66955501 0.00006325 0.00000000
0.04348427 1.93870468 0.00247376 0.00000000
1.52729377 1.97371711 0.00253506 0.00000000
0.02053164 2.21159742 0.00151818 0.00000000
2.51432246 1.21523580 0.00268340 0.00000000
0.65374618 2.12607525 0.00221313 0.00000000
3.88571450 1.05665327 -0.00265322 0.00000000
4.33715829 1.28294782 -0.00274959 0.00000000
2.34945378 1.01976102 -0.00190827 0.00000000
2.68142177 0.94066355 -0.00330105 0.00000000
1.29209291 0.14366310 -0.00015333 0.00000000
1.09703744 1.67866108 0.00238622 0.00000000
3.04482468 0.41103198 0.00335489 0.00000000
3.52482781 2.00597928 0.00327373 0.00000000
1.53045448 1.37540117 0.00391324 0.00000000
2.46419485 2.15250326 0.00356749 0.00000000
0.86823420 2.23086365 0.00057740 0.00000000
0.67052914 1.14175648 0.00107488 0.00000000
2.05357522 0.55743915 -0.00440175 0.00000000
3.62186408 1.48391968 0.00000306 0.00000000
0.17608688 1.33641926 0.00105988 0.00000000
1.25433812 0.04436111 -0.00273974 0.00000000
2.38599528 1.74602364 0.00178790 0.00000000
0.46011725 0.31310211 0.00238903 0.00000000
0.66792624 1.95683652 0.00502948 0.00000000
1.60586212 1.19971668 0.00041070 0.00000000
2.32400980 1.42533851 0.00071346 0.00000000
2.26940299 1.08058357 0.00047143 0.00000000
0.40351072 1.45702530 -0.00108369 0.00000000
3.14287481 1.87842247 0.00024806 0.00000000
2.17328518 0.62420776 0.00114758 0.00000000
0.46416490 1.87676507 0.00111431 0.00000000
4.17513275 0.91673243 0.00030022 0.00000000
2.81811431 1.79926848 -0.00038871 0.00000000
0.35117631 0.53376083 -0.00064896 0.00000000
0.92488944 0.65891661 -0.00168691 0.00000000
4.07120027 1.51322522 0.00257083 0.00000000
2.76934427 0.92772287 0.00073902 0.00000000
2.16080907 1.38162283 0.00067612 0.00000000
1.85576776 1.03492859 -0.00106689 0.00000000
3.02015806 0.99875013 -0.00062222 0.00000000
3.03823248 1.70855059 -0.00227006 0.00000000
0.05266386 0.61892436 -0.00054414 0.00000000
4.11254916 2.30718974 -0.00056156 0.00000000
4.24810939 1.30287058 -0.00097892 0.00000000
3.83382204 0.67989777 0.00275123 0.00000000
4.25168044 0.60478169 -0.00388973 0.00000000
2.30184542 1.38527193 0.00168712 0.00000000
4.30634907 1.55975941 -0.00206641 0.00000000
1.71906471 2.30365244 -0.00155873 0.00000000
3.01989506 1.14042813 0.00321845 0.00000000
3.69694368 0.32321207 0.00169637 0.00000000
1.30170269 1.24380508 -0.00157139 0.00000000
1.32689652 0.55145135 -0.00357342 0.00000000
2.67649601 1.43455083 -0.00182382 0.00000000
2.71187860 0.79575673 0.00001098 0.00000000
2.24996092 1.20551462 0.00019988 0.00000000
1.09945883 1.85130631 0.00271533 0.00000000
2.20330455 1.68988347 0.00007476 0.00000000
3.61612511 2.24903257 0.00258903 0.00000000
4.40621828 0.88579095 0.00501904 0.00000000
3.65367389 1.73028167 0.00370704 0.00000000
3.70202618 0.54371805 -0.00081562 0.00000000
2.17256016 0.88240330 -0.00355986 0.00000000
2.91269488 1.09538014 0.00293113 0.00000000
3.85412946 0.49455597 -0.00191592 0.00000000
3.16811519 0.88851674 -0.00095256 0.00000000
0.55738015 1.29289383 -0.00249805 0.00000000
0.00995105 1.51708329 0.00196515 0.00000000
1.65729934 1.68215447 -0.00231433 0.00000000
1.20745859 2.17326882 -0.00152744 0.00000000
3.84291504 0.87029322 0.00407096 0.00000000
4.21602134 0.44601636 -0.00056743 0.00000000
2.37310419 1.02680306 -0.00036949 0.00000000
4.00522529 1.46036537 -0.00005838 0.00000000
3.78710596 1.60064277 -0.00179517 0.00000000
2.10884599 0.99928607 0.00167689 0.00000000
1.99712583 0.84430837 0.00057785 0.00000000
1.65098346 0.94906748 0.00104583 0.00000000
3.98377942 0.41674870 0.00460510 0.00000000
2.17182278 0.89401309 -0.00200059 0.00000000
2.84820546 0.01416518 0.00040205 0.00000000
0.88118767 1.58502394 -0.00173051 0.00000000
1.57087870 0.79359384 -0.00218577 0.00000000
1.90872456 1.04140394 -0.00243836 0.00000000
3.06856443 0.80059647 -0.00164734 0.00000000
1.20315426 0.70096577 0.00092163 0.00000000
2.80634612 1.95066670 -0.00232443 0.00000000
2.78521569 0.91858117 -0.00292969 0.00000000
3.32376127 0.30355932 -0.00061479 0.00000000
4.38257499 0.27156270 -0.00123971 0.00000000
2.97119036 1.09222876 -0.00027902 0.00000000
1.89768606 1.79323979 0.00090467 0.00000000
2.12996864 2.27130170 0.00311772 0.00000000
1.65002611 0.89062815 -0.00086336 0.00000000
3.40848313 0.36861260 -0.00319609 0.00000000
1.22857115 1.69947791 0.00122127 0.00000000
4.46013352 0.37677788 0.00303764 0.00000000
1.62464101 0.91340412 0.00307766 0.00000000
1.63225972 0.70001267 0.00347130 0.00000000
1.17644811 0.22629649 0.00072918 0.00000000
2.03547121 0.90203298 -0.00109393 0.00000000
4.07185267 1.68944293 -0.00151381 0.00000000
4.39605723 0.34163213 0.00066387 0.00000000
3.46857793 0.48326362 -0.00246533 0.00000000
4.34131913 2.08175323 -0.00237931 0.00000000
2.22134700 1.01163998 0.00318251 0.00000000
3.39297052 1.08398667 -0.00355404 0.00000000
2.46315051 1.69312370 -0.00090545 0.00000000
1.03332057 2.24321327 0.00251271 0.00000000
4.45926867 0.88754865 0.00287800 0.00000000
1.21636694 0.84556900 0.00606055 0.00000000
0.30044996 0.74516950 0.00289041 0.00000000
3.48370142 0.92156457 -0.00075907 0.00000000
1.07564912 0.33683906 0.00101361 0.00000000
1.49649081 1.57601688 -0.00180757 0.00000000
3.97067197 1.23198527 0.00252737 0.00000000
0.55933233 0.42784096 -0.00141541 0.00000000
0.47043589 2.28389851 0.00144029 0.00000000
0.77508325 1.89251038 0.00228051 0.00000000
2.09768219 1.62010507 0.00043607 0.00000000
4.06953905 2.28761841 -0.00518697 0.00000000
2.84711721 0.55788301 -0.00124623 0.00000000
2.67187602 1.36578765 -0.00728907 0.00000000
2.76139378 1.53124523 0.00515002 0.00000000
1.33697514 0.07503485 -0.00240461 0.00000000
2.18616385 0.00509868 -0.00066343 0.00000000
1.08730777 1.84242519 -0.00156016 0.00000000
1.47051737 0.36883285 -0.00224433 0.00000000
2.67513008 1.05506873 -0.00301701 0.00000000
2.13745201 1.48056974 -0.00060917 0.00000000
4.43404720 1.07826356 0.00138809 0.00000000
2.02752672 2.10960226 -0.00127643 0.00000000
2.93807027 1.36075569 -0.00017465 0.00000000
3.85336218 1.89542724 0.00143236 0.00000000
0.03050085 2.22259214 -0.00145991 0.00000000
1.00621249 0.48103336 0.00311561 0.00000000
0.15629186 1.58592672 0.00264254 0.00000000
1.68204381 1.88633178 -0.00229433 0.00000000
0.09446154 0.41598215 0.00182004 0.00000000
1.86011409 1.04079436 0.00049879 0.00000000
3.41248757 0.85838360 0.00226529 0.00000000
3.23627175 2.02495950 0.00145622 0.00000000
0.87344482 0.88686983 -0.00207192 0.00000000
3.15078493 1.69521093 0.00164381 0.00000000
2.39866527 1.82085638 0.00730349 0.00000000
0.35399882 1.45329205 0.00666482 0.00000000
2.02053740 2.10855074 -0.00223433 0.00000000
2.94745879 1.05074847 -0.00275800 0.00000000
1.57313494 0.41024527 0.00007692 0.00000000
0.61483275 1.32021919 -0.00082327 0.00000000
3.16940764 0.22829763 -0.00262265 0.00000000
3.37544141 1.51757440 -0.00008958 0.00000000
2.31081713 1.74106558 -0.00179591 0.00000000
2.15830740 2.30632215 0.00471169 0.00000000
0.79959176 1.75918360 -0.00017232 0.00000000
3.66232725 0.25734616 -0.00190799 0.00000000
1.03427191 1.64990014 -0.00084018 0.00000000
2.00682023 0.38864524 0.00064667 0.00000000
1.60250694 1.22984543 -0.00211917 0.00000000
3.37580116 1.35895503 -0.00294598 0.00000000
3.69528541 0.59316502 -0.00015955 0.00000000
1.18789666 1.27695026 0.00159911 0.00000000
1.94535111 1.47436888 0.00155826 0.00000000
0.20260050 0.63125958 -0.00153325 0.00000000
4.02991477 0.98144188 -0.00082010 0.00000000
2.43039541 0.66371318 -0.00162290 0.00000000
2.62188046 0.91470324 -0.00262786 0.00000000
4.26630658 1.73085794 -0.00792142 0.00000000
3.95758882 2.18954581 -0.00536502 0.00000000
3.93525194 1.11040416 -0.00402458 0.00000000
0.69734548 0.40366035 -0.00226959 0.00000000
3.47995462 0.38969715 0.00127372 0.00000000
0.84431671 1.47599014 -0.00589615 0.00000000
3.80625451 2.08569453 -0.00257850 0.00000000
2.98609006 0.33953397 0.00032101 0.00000000
0.40933392 0.23658617 0.00000449 0.00000000
1.65746569 0.21241546 0.00310284 0.00000000
3.56112380 1.43594726 0.00367001 0.00000000
1.79263804 2.27300246 0.00270120 0.00000000
2.09644915 0.06066067 -0.00085881 0.00000000
0.71419922 0.08911366 -0.00033075 0.00000000
3.26145419 1.99979835 -0.00486977 0.00000000
3.19754336 0.77316396 0.00092780 0.00000000
1.82185095 2.00283009 -0.00302025 0.00000000
4.04025742 1.54864925 0.00607567 0.00000000
3.29473616 1.37011150 -0.00213880 0.00000000
1.74520842 0.35418709 -0.00248021 0.00000000
3.66698941 0.08174412 0.00444012 0.00000000
1.98635687 1.95803596 0.00034732 0.00000000
3.95399023 0.65941603 0.00186383 0.00000000
3.28767610 0.27073077 0.00437549 0.00000000
4.15263147 1.46683555 -0.00450746 0.00000000
0.22599143 1.43994558 -0.00234591 0.00000000
1.19675040 2.13300298 -0.00042241 0.00000000
2.84172445 0.64994386 0.00435752 0.00000000
2.61218876 2.03302687 0.00081729 0.00000000
2.94084012 0.26645268 -0.00072580 0.00000000
1.90463233 0.07300420 -0.00154637 0.00000000
0.16828965 2.10718107 -0.00269647 0.00000000
1.73626758 0.98507408 0.00138677 0.00000000
3.62962711 1.30130187 0.00049471 0.00000000
1.66313207 0.02646523 0.00035983 0.00000000
2.00302726 1.46091546 -0.00001970 0.00000000
1.66775506 1.94568610 0.00269009 0.00000000
1.67408031 0.39100380 -0.00244132 0.00000000
2.99347624 1.34464451 -0.00376913 0.00000000
3.04650460 1.44075728 0.00044309 0.00000000
3.85906372 1.82455440 0.00122025 0.00000000
0.94195748 1.28232334 0.00206290 0.00000000
3.81900262 0.69489101 -0.00217906 0.00000000
2.51877752 1.77047103 0.00256280 0.00000000
2.48830858 0.48583258 0.00164979 0.00000000
0.25677101 0.33067216 0.00004522 0.00000000
0.02912688 1.67645788 -0.00162045 0.00000000
3.50842960 2.06710545 -0.00053616 0.00000000
1.05471498 1.45107944 0.00172095 0.00000000
0.44664284 1.01427098 -0.00028962 0.00000000
2.13067977 0.07163598 -0.00139764 0.00000000
3.85255823 0.81659909 -0.00313512 0.00000000
0.57610742 2.24643585 0.00191238 0.00000000
3.10886789 1.95450373 0.00473307 0.00000000
4.28218028 0.12677261 0.00710600 0.00000000
1.66236200 0.47001824 0.00034702 0.00000000
1.45780357 1.88148677 -0.00283726 0.00000000
3.19241227 1.73818798 -0.00147862 0.00000000
2.69711310 0.22230845 -0.00556610 0.00000000
0.29182412 0.55031594 -0.00092897 0.00000000
1.44615628 1.04731991 0.00275883 0.00000000
0.81268963 1.71744066 0.00201942 0.00000000
1.61993490 1.75953892 -0.00010373 0.00000000
3.76373063 0.07789985 0.00257102 0.00000000
1.75836625 0.24050669 0.00057366 0.00000000
2.45743462 0.63193434 0.00096229 0.00000000
2.64450944 1.07986352 -0.00137137 0.00000000
0.93439746 0.05492800 -0.00448496 0.00000000
0.58943098 0.79602421 0.00266849 0.00000000
3.77776767 0.31824138 0.00104703 0.00000000
2.64735462 2.07681227 -0.00170731 0.00000000
3.34538798 0.79229133 0.00022558 0.00000000
1.65901524 0.52621512 0.00013496 0.00000000
1.24228294 0.58207799 -0.00036694 0.00000000
1.11988106 0.47304901 -0.00034855 0.00000000
2.09621168 1.70257151 -0.00363588 0.00000000
4.02927993 2.26362993 0.00343490 0.00000000
1.06298988 2.21967623 0.00168838 0.00000000
1.37011171 1.75997496 0.00123845 0.00000000
1.76825666 2.17027561 -0.00238287 0.00000000
3.57163374 0.96306203 0.00042286 0.00000000
2.58233874 1.38318010 -0.00323085 0.00000000
1.48309536 1.87711414 -0.00056932 0.00000000
2.61186400 0.86828802 -0.00231650 0.00000000
2.88825626 0.45778643 -0.00062464 0.00000000
2.05109374 0.03401035 0.00232717 0.00000000
4.02009822 2.24616810 -0.00172805 0.00000000
3.83132084 0.67579756 0.00162595 0.00000000
3.74871222 0.23272162 -0.00159396 0.00000000
1.91725124 1.81673970 -0.00375724 0.00000000
3.19133155 0.60999644 0.00094421 0.00000000
4.36250887 1.41011377 0.00462552 0.00000000
4.13711441 0.12742529 -0.00615796 0.00000000
0.26817976 0.91857839 -0.00178366 0.00000000
2.22306267 2.10669448 0.00114472 0.00000000
3.95085272 1.05710549 0.00376756 0.00000000
0.32900663 0.54828366 0.00057742 0.00000000
2.65103280 1.96787840 0.00135993 0.00000000
1.91525269 1.59288928 -0.00016410 0.00000000
3.51648614 1.95645466 -0.00170675 0.00000000
3.46079876 1.05175980 0.00014768 0.00000000
2.57232284 1.02202497 0.00135442 0.00000000
1.80575062 0.50831393 -0.00083234 0.00000000
0.88601864 1.23519957 -0.00169759 0.00000000
1.29553248 1.71499292 -0.00102685 0.00000000
0.63231897 0.61230750 0.00090612 0.00000000
0.76135555 1.09841456 -0.00333460 0.00000000
3.30571950 1.13760210 -0.00174358 0.00000000
3.96944612 0.12353669 -0.00121068 0.00000000
1.94360267 1.77310906 -0.00189230 0.00000000
0.22744501 1.10616016 -0.00086315 0.00000000
1.48533703 0.18632418 -0.00014707 0.00000000
2.24881285 0.43326584 -0.00216469 0.00000000
1.15922266 1.14658625 -0.00466515 0.00000000
1.10704268 1.51265908 0.00249663 0.00000000
3.45880376 0.20222178 -0.00383080 0.00000000
3.39979798 1.39889513 -0.00186970 0.00000000
4.47814008 0.17734944 0.00291313 0.00000000
1.98308341 1.33476667 0.00178794 0.00000000
3.99990508 1.15078391 0.00483271 0.00000000
1.14610033 0.53232869 -0.00182978 0.00000000
4.00652430 1.01757760 0.00122644 0.00000000
2.24542539 2.00529667 0.00387790 0.00000000
1.74074690 0.76019226 -0.00317026 0.00000000
4.07714010 0.53306464 -0.00153638 0.00000000
3.92788086 1.21600724 -0.00297715 0.00000000
3.62677404 1.09210744 -0.00106789 0.00000000
2.63486825 0.05419406 0.00460527 0.00000000
0.95288693 1.09038791 -0.00096576 0.00000000
3.12906154 0.05805916 -0.00004321 0.00000000
4.35518145 0.81595872 -0.00019149 0.00000000
1.28146866 0.78686429 -0.00409978 0.00000000
2.04660758 2.20975156 -0.00078300 0.00000000
1.30734136 1.30064127 0.00362720 0.00000000
2.80337602 1.15545758 0.00653257 0.00000000
1.88693481 1.99209139 0.00146755 0.00000000
1.55846517 0.38925730 0.00264932 0.00000000
2.49775115 0.66455810 0.00233197 0.00000000
3.84616893 0.33976268 -0.00194300 0.00000000
0.56972071 1.87451654 0.00316604 0.00000000
0.52084100 1.59596595 -0.00137604 0.00000000
4.32605935 0.47485129 0.00013449 0.00000000
0.39938751 1.66614896 0.00102475 0.00000000
0.88197888 1.21363500 0.00006700 0.00000000
1.39201322 0.45015375 0.00035800 0.00000000
2.73062439 1.54797138 0.00344765 0.00000000
1.03010072 0.54852523 -0.00086325 0.00000000
2.12169127 0.20497640 0.00293771 0.00000000
1.95012143 1.04596991 0.00149725 0.00000000
0.60514701 1.25771131 -0.00291184 0.00000000
0.36452679 0.32386147 0.00228022 0.00000000
2.50804876 1.09966690 0.00501216 0.00000000
4.41922717 2.02272849 0.00062921 0.00000000
4.18311773 1.49666710 0.00095086 0.00000000
0.51595313 1.51645342 0.00044850 0.00000000
1.07529684 1.05341670 -0.00045681 0.00000000
2.83310660 0.55346335 0.00055825 0.00000000
3.60522951 0.52459747 0.00272488 0.00000000
2.42285941 0.13304302 0.00049537 0.00000000
0.40872238 1.56686290 -0.00084999 0.00000000
4.04980511 0.66893395 -0.00212876 0.00000000
2.26870770 1.95531054 0.00277807 0.00000000
2.27701961 0.97643494 0.00338574 0.00000000
1.71760983 2.27182418 0.00121690 0.00000000
3.41472973 0.47374011 0.00318736 0.00000000
0.97948871 1.39718638 -0.00538027 0.00000000
0.57600923 1.77165174 -0.00275272 0.00000000
2.04599358 1.60716999 0.00346311 0.00000000
0.04885859 1.66674430 -0.00265349 0.00000000
0.70042735 0.40454475 0.00443909 0.00000000
3.34378041 1.24134871 0.00225576 0.00000000
3.76974415 0.98528502 -0.00040319 0.00000000
3.81367113 1.15648009 0.00303927 0.00000000
3.12216799 0.10490797 -0.00108885 0.00000000
