3.439281 0.605278 0.002841 0.0
2.337056 0.987170 -0.000326 0.0
4.852937 1.139023 0.001930 0.0
4.117806 1.192677 -0.003268 0.0
3.125286 1.670407 0.004881 0.0
2.808180 1.744339 0.001063 0.0
2.678644 0.566286 -0.003085 0.0
4.073067 0.794477 -0.004655 0.0
4.448258 0.081986 -0.000666 0.0
1.794391 1.024660 -0.003694 0.0
1.764422 0.908283 -0.005589 0.0
0.588548 0.053000 0.001267 0.0
3.298039 0.777385 -0.000948 0.0
0.583940 0.537985 -0.000564 0.0
4.365516 1.857126 -0.002447 0.0
1.693285 0.126727 0.000876 0.0
4.337404 1.163968 0.002389 0.0
3.127284 0.898534 -0.000553 0.0
0.242511 1.267289 0.002456 0.0
0.922743 1.477515 -0.004439 0.0
1.561815 0.823492 -0.004948 0.0
1.687878 1.463061 -0.000428 0.0
0.702360 0.506185 0.001456 0.0
1.101092 1.314715 0.001316 0.0
4.102916 1.446422 -0.003102 0.0
3.451936 1.027436 0.005107 0.0
3.183707 1.764269 0.000808 0.0
3.340105 0.568878 -0.001630 0.0
1.376381 1.221090 0.000866 0.0
0.658022 0.594794 -0.001129 0.0
0.359224 1.335557 0.009136 0.0
0.919441 1.585634 -0.000474 0.0
0.593157 0.853738 -0.001649 0.0
1.796736 0.328693 0.001561 0.0
1.902650 0.163385 0.001883 0.0
3.054210 1.327281 -0.000531 0.0
2.012869 1.747192 -0.001713 0.0
0.890351 1.831939 0.002587 0.0
2.232580 0.053443 0.005343 0.0
1.122734 0.103746 0.003413 0.0
3.708031 1.507957 0.002105 0.0
3.874417 0.281058 0.002199 0.0
1.764274 0.135516 -0.001441 0.0
2.315085 0.055211 -0.003253 0.0
0.034302 0.979033 -0.003052 0.0
4.134821 0.753640 0.000734 0.0
2.629821 0.108011 0.002572 0.0
2.470362 1.534812 0.001758 0.0
0.318785 0.576425 0.000257 0.0
1.375934 0.745585 0.003074 0.0
0.170191 1.803798 -0.002914 0.0
4.335001 0.754664 0.003892 0.0
2.645013 0.134669 -0.000615 0.0
1.555519 0.521175 0.000372 0.0
4.553160 0.172107 0.001385 0.0
0.867624 1.352471 0.001623 0.0
1.950378 0.757919 0.001060 0.0
3.524146 0.844364 0.000548 0.0
0.601542 1.595691 0.001212 0.0
0.824850 1.204303 0.001063 0.0
4.756299 1.688211 -0.000616 0.0
4.734292 0.687704 0.002638 0.0
2.908300 1.834314 -0.003615 0.0
2.133835 1.285529 -0.002364 0.0
2.253989 0.820722 0.000303 0.0
3.673125 1.132914 -0.005809 0.0
1.378164 1.015701 0.000215 0.0
1.358678 1.416318 0.000712 0.0
0.726359 1.070217 0.003695 0.0
2.382459 0.945951 -0.003348 0.0
3.918089 1.289835 -0.000869 0.0
2.902437 0.005814 -0.000498 0.0
3.024640 0.828374 -0.001305 0.0
2.695362 0.383152 -0.001545 0.0
4.160793 1.535033 -0.005213 0.0
3.697920 1.685723 0.000114 0.0
3.564897 1.724784 -0.000678 0.0
0.876669 1.763453 0.001168 0.0
2.115047 0.864735 0.004220 0.0
0.236773 0.403506 0.005104 0.0
0.489273 1.782831 0.001845 0.0
2.949734 0.970672 0.001157 0.0
2.971240 1.824054 -0.004678 0.0
3.087144 1.358566 -0.002992 0.0
1.946873 1.660325 -0.000651 0.0
3.353339 1.224199 -0.000553 0.0
1.583386 1.674460 -0.000913 0.0
4.776932 1.110369 -0.001059 0.0
3.093388 0.607559 -0.003616 0.0
2.931997 1.234667 0.003513 0.0
4.468477 1.540331 0.001463 0.0
2.038295 1.648308 -0.001779 0.0
4.871468 0.212160 -0.000846 0.0
3.009598 0.250349 0.002003 0.0
0.963463 1.405957 -0.000956 0.0
1.324118 1.146558 0.000656 0.0
3.372931 1.223024 0.003111 0.0
0.503566 1.577992 -0.004177 0.0
3.063850 1.086198 -0.001913 0.0
3.245706 1.646367 0.002540 0.0
3.110912 0.436294 0.000690 0.0
3.853298 1.357834 0.004394 0.0
1.241736 1.591652 0.001225 0.0
3.054521 1.706693 0.003175 0.0
0.533897 0.066356 0.000091 0.0
2.678080 0.306179 0.000184 0.0
1.931403 0.795770 0.003572 0.0
0.851892 0.534592 -0.004948 0.0
0.210769 1.817922 0.002090 0.0
2.571651 1.817578 -0.000095 0.0
1.128351 0.067291 -0.003862 0.0
1.030278 1.454675 0.002788 0.0
3.757632 0.282163 -0.001793 0.0
4.312069 0.264580 0.000798 0.0
1.369391 0.909230 0.000440 0.0
1.847784 1.462438 -0.005246 0.0
1.850246 0.819778 0.000928 0.0
4.635793 0.723446 -0.000545 0.0
1.594499 0.366783 -0.000928 0.0
3.715268 0.331125 -0.000196 0.0
1.709959 1.791171 -0.000951 0.0
2.854810 0.046369 0.001480 0.0
4.695243 1.302420 0.007474 0.0
4.229147 0.671971 -0.001723 0.0
4.570221 1.112718 -0.006108 0.0
4.593239 1.481539 0.002609 0.0
3.971652 1.563402 -0.005059 0.0
2.272962 1.101065 -0.000556 0.0
2.919669 1.716538 -0.001904 0.0
2.406471 1.564281 0.004979 0.0
1.157168 0.426548 0.006254 0.0
2.002824 0.136914 0.004901 0.0
4.086472 0.329114 0.001166 0.0
1.000045 1.652145 0.000839 0.0
3.242322 1.077691 -0.000470 0.0
2.620157 0.428885 -0.004442 0.0
3.298514 1.040999 0.000914 0.0
0.508646 1.565931 0.002671 0.0
4.216276 0.036407 -0.002258 0.0
0.726510 0.593982 0.001348 0.0
4.190018 0.167751 0.000965 0.0
0.892917 1.012427 -0.000742 0.0
3.676252 0.956090 -0.000791 0.0
3.330063 1.188204 0.000442 0.0
3.146497 0.116027 -0.001532 0.0
3.124171 1.769135 -0.000117 0.0
4.248726 0.317795 0.002068 0.0
0.324380 0.700036 -0.004685 0.0
2.351130 0.486660 0.000510 0.0
3.718650 1.193743 -0.002250 0.0
2.680885 0.949873 0.000387 0.0
0.351910 1.732418 0.000208 0.0
0.884546 1.442999 -0.003156 0.0
3.063289 1.681324 0.000225 0.0
4.328291 0.425637 -0.004395 0.0
4.678172 1.166569 0.001053 0.0
1.534566 0.646727 -0.000616 0.0
3.732501 0.208311 -0.002102 0.0
4.454029 0.066065 0.000240 0.0
4.294567 1.071767 -0.003792 0.0
4.652453 1.427006 0.002177 0.0
0.830139 1.052806 -0.000202 0.0
0.990543 0.591834 0.001164 0.0
0.339609 1.075650 -0.002241 0.0
2.166437 1.596321 0.004033 0.0
1.878641 0.077979 -0.000295 0.0
3.378984 0.261141 0.001121 0.0
0.230371 1.185948 0.000857 0.0
4.115130 1.127061 -0.004205 0.0
2.392522 1.234729 -0.000045 0.0
4.799753 1.133679 0.000658 0.0
1.719205 0.793309 -0.002719 0.0
0.984103 0.984216 0.004790 0.0
0.263032 0.093365 -0.001454 0.0
3.244306 1.462707 0.003619 0.0
0.904807 0.890749 0.000328 0.0
2.697724 1.258909 0.000893 0.0
0.090022 1.287471 0.002119 0.0
4.408885 0.687547 -0.000725 0.0
4.807249 1.253025 0.004530 0.0
0.305792 0.304033 0.002746 0.0
0.827958 0.482490 0.000600 0.0
2.021181 0.371810 -0.002808 0.0
2.679647 1.141767 0.002349 0.0
2.667053 0.202341 -0.001752 0.0
1.950617 0.275857 -0.006115 0.0
1.478754 0.039442 0.000613 0.0
3.760460 1.687121 -0.000134 0.0
2.502876 1.207043 -0.000015 0.0
4.631042 0.084110 0.000783 0.0
3.567664 0.019388 0.004807 0.0
4.714071 0.356596 0.000394 0.0
4.584081 0.149960 0.003678 0.0
3.324300 0.946769 0.002536 0.0
4.445067 0.443555 -0.000525 0.0
2.080226 0.308375 0.000007 0.0
1.964999 0.253346 0.003480 0.0
2.421761 1.485085 0.003896 0.0
0.202185 1.366055 -0.001759 0.0
2.797537 0.074795 0.003532 0.0
1.546095 0.146928 0.001704 0.0
1.695898 1.797883 -0.001983 0.0
1.585683 0.451108 0.001274 0.0
4.421499 0.651022 0.001036 0.0
0.821911 0.242618 -0.000491 0.0
3.981253 1.112566 0.003068 0.0
2.805381 0.859348 0.004616 0.0
4.341250 0.321774 0.001608 0.0
1.605295 0.613593 -0.001617 0.0
0.191910 0.013788 0.002677 0.0
4.630377 0.151135 0.002505 0.0
1.752920 0.573623 0.001428 0.0
3.627002 0.948802 -0.004555 0.0
4.868859 0.142402 0.002536 0.0
0.942756 0.604796 0.002795 0.0
0.779419 1.304007 0.002546 0.0
3.291829 1.597703 0.003854 0.0
0.069811 0.308020 0.006219 0.0
3.557309 1.135238 0.000398 0.0
1.052654 0.471815 0.001473 0.0
0.958136 0.685384 0.000967 0.0
1.143492 1.202002 0.004189 0.0
1.485840 1.015649 -0.002447 0.0
0.360881 1.465411 -0.001185 0.0
0.589202 0.937027 0.001377 0.0
3.657424 0.191770 -0.004873 0.0
0.958282 0.470172 -0.000974 0.0
0.075620 1.735903 0.001329 0.0
1.807719 0.220763 -0.001032 0.0
2.812706 1.678594 -0.001892 0.0
0.604273 1.423545 0.000186 0.0
0.413823 1.787550 0.006378 0.0
1.645408 0.354593 0.000460 0.0
4.507883 1.752711 -0.003985 0.0
2.408405 0.909147 0.000098 0.0
1.070249 1.223136 -0.002121 0.0
1.676129 1.478319 0.002659 0.0
4.418185 0.344269 0.002285 0.0
2.020324 1.191767 -0.002349 0.0
3.505214 1.818727 -0.001233 0.0
4.260526 1.685867 0.000337 0.0
4.702132 0.682121 0.000696 0.0
2.471973 0.535128 0.000304 0.0
3.660797 0.561363 -0.004139 0.0
4.674458 1.595442 0.003861 0.0
2.875977 0.068543 -0.003374 0.0
0.656500 1.353686 0.002592 0.0
4.411245 1.306367 -0.004386 0.0
4.188774 0.486898 0.002859 0.0
3.697430 1.721483 -0.000127 0.0
2.459416 1.044401 -0.001328 0.0
0.767955 0.293729 0.000537 0.0
0.126179 0.928332 -0.002578 0.0
2.578888 0.020364 0.000293 0.0
1.684665 0.419336 0.005750 0.0
0.096828 1.729705 0.002683 0.0
3.039260 1.795483 0.002626 0.0
4.206469 0.833461 0.005523 0.0
1.749139 0.132545 0.001407 0.0
4.055568 1.020068 0.001166 0.0
0.987333 0.853730 -0.004006 0.0
3.258713 1.594308 -0.001771 0.0
1.681065 1.136358 0.002422 0.0
3.110611 1.855762 0.002181 0.0
0.449540 0.984581 -0.002099 0.0
2.308940 1.155706 0.001345 0.0
3.211705 1.716514 -0.000462 0.0
2.520181 1.673072 -0.004171 0.0
3.699746 0.966851 0.000995 0.0
1.869704 0.293116 -0.002912 0.0
4.152675 0.717873 0.000379 0.0
2.068611 1.211857 0.000228 0.0
3.214911 1.769798 0.002898 0.0
3.329014 1.526084 -0.002434 0.0
2.090281 1.215663 -0.002280 0.0
4.185703 1.476008 -0.000377 0.0
2.679285 0.625532 0.000130 0.0
3.598554 1.781410 -0.001273 0.0
1.766124 0.982982 0.000234 0.0
2.363860 1.362722 0.002435 0.0
2.491443 0.923825 0.005076 0.0
3.718877 1.141614 0.002436 0.0
3.416174 0.721131 0.004745 0.0
1.037026 0.544282 -0.005026 0.0
0.918860 1.533749 0.002839 0.0
2.576273 1.140696 0.000543 0.0
3.732432 1.422844 -0.002745 0.0
3.762418 0.995065 0.000971 0.0
2.497457 0.283009 -0.001844 0.0
3.988089 0.203752 -0.002269 0.0
0.837660 0.380652 0.001720 0.0
0.962955 0.559917 0.003467 0.0
4.430991 1.133090 -0.003808 0.0
1.336525 0.269919 -0.002782 0.0
0.478949 0.200315 -0.000686 0.0
0.475987 0.110574 -0.002435 0.0
1.607724 1.502533 -0.003293 0.0
2.750247 0.063981 -0.003629 0.0
1.080672 1.349460 0.002714 0.0
2.556112 0.393912 0.001211 0.0
1.291389 1.442306 -0.000607 0.0
1.486237 0.784311 -0.002496 0.0
3.099177 1.034795 0.001970 0.0
0.308447 0.264171 0.000123 0.0
0.440425 1.286439 0.005767 0.0
4.782613 0.435193 -0.003229 0.0
3.958794 0.360272 -0.005661 0.0
0.345293 1.114259 -0.000327 0.0
3.392452 0.057732 -0.001042 0.0
0.533634 0.021412 0.002362 0.0
4.083236 0.526580 -0.002545 0.0
1.624718 0.769981 -0.001655 0.0
4.762008 1.000521 -0.004925 0.0
1.561081 0.185239 -0.000749 0.0
3.669266 1.537219 0.000534 0.0
2.689799 0.525314 0.000425 0.0
2.077047 0.747018 -0.001035 0.0
2.952969 0.890178 -0.002788 0.0
4.734901 0.653299 0.003519 0.0
4.302571 1.664858 -0.000297 0.0
2.707588 0.924204 0.003398 0.0
4.449350 0.095692 -0.002677 0.0
0.950558 1.466660 0.001066 0.0
4.649078 1.697158 0.001100 0.0
2.741407 1.822882 0.002681 0.0
4.868421 0.941723 -0.001898 0.0
4.491482 0.863626 -0.000498 0.0
2.835174 0.471896 0.004424 0.0
0.339384 0.784220 -0.001716 0.0
2.045945 0.463357 -0.001939 0.0
3.901162 0.719179 0.000387 0.0
2.953418 1.589404 0.001577 0.0
0.926526 0.070170 -0.001855 0.0
2.315621 0.837021 0.002889 0.0
2.117798 0.026846 0.000745 0.0
4.555222 1.244196 -0.003403 0.0
3.197280 0.518893 0.004167 0.0
2.988620 0.968590 -0.003263 0.0
4.516345 0.498066 -0.001298 0.0
4.736022 0.272424 0.003527 0.0
2.694241 1.440905 -0.002865 0.0
2.766008 0.820330 -0.002470 0.0
1.685882 0.139753 0.000814 0.0
4.445494 0.258965 0.000069 0.0
2.053245 0.553590 -0.001332 0.0
0.251796 0.346365 -0.002245 0.0
1.702621 0.863979 0.000394 0.0
2.804322 0.505860 0.003007 0.0
1.090644 0.128550 0.002529 0.0
2.829547 0.731146 -0.001632 0.0
3.334781 1.200628 -0.000740 0.0
3.718917 0.844942 -0.002056 0.0
2.410300 1.177917 -0.000604 0.0
0.211293 1.862925 -0.000449 0.0
4.257102 0.752009 0.000019 0.0
4.297740 0.361676 0.000923 0.0
3.472381 0.247718 -0.000841 0.0
3.741432 1.751510 -0.000163 0.0
4.285517 0.804857 -0.002334 0.0
4.366445 0.685085 -0.002023 0.0
0.869831 1.869876 -0.000301 0.0
4.831169 1.740037 -0.006568 0.0
1.442170 1.756697 -0.003588 0.0
2.355203 1.022612 0.001553 0.0
1.433265 0.283961 0.005310 0.0
2.072700 1.377647 -0.003830 0.0
3.887422 1.239366 0.000119 0.0
3.594456 1.845954 -0.002454 0.0
2.494891 0.610518 -0.000667 0.0
2.060039 1.600794 -0.001969 0.0
0.328507 1.134371 0.000003 0.0
0.246784 1.735931 -0.001116 0.0
2.156533 1.187904 0.003726 0.0
4.264687 0.679118 0.000684 0.0
2.011809 1.786190 -0.001551 0.0
4.433733 0.847729 -0.000663 0.0
2.527972 1.435646 0.002385 0.0
1.808145 0.921335 -0.001746 0.0
3.721063 0.753318 0.000680 0.0
3.814250 1.002953 -0.003102 0.0
1.021508 0.088550 0.002933 0.0
1.715885 1.534637 -0.000046 0.0
4.879106 0.934010 0.000012 0.0
3.363478 1.091276 -0.004241 0.0
1.661920 0.419103 -0.000176 0.0
0.166376 1.032330 0.001291 0.0
0.807633 0.842918 0.003139 0.0
0.627596 1.321122 0.000304 0.0
1.154476 0.106896 -0.001878 0.0
2.937755 0.919141 -0.000928 0.0
1.544547 1.145517 -0.003430 0.0
1.286344 1.302192 0.004343 0.0
1.181823 0.772843 0.001913 0.0
3.204248 0.183965 -0.000612 0.0
0.331808 0.467619 0.001354 0.0
4.222470 1.124256 0.000882 0.0
4.059174 1.458780 0.007006 0.0
0.133385 0.332173 0.001583 0.0
3.583257 0.444120 -0.003853 0.0
2.760734 1.200709 0.002054 0.0
1.385284 1.117921 0.002271 0.0
3.256937 0.229390 0.003469 0.0
4.266912 0.526783 0.000477 0.0
1.999294 0.347811 -0.003202 0.0
3.238035 1.418454 0.004397 0.0
3.743903 1.134072 -0.000981 0.0
0.994738 1.817119 0.002216 0.0
2.040793 0.980037 -0.001128 0.0
1.517693 1.075007 0.002700 0.0
1.639096 1.774191 0.001198 0.0
4.621542 1.308455 0.002713 0.0
3.233505 1.331163 -0.001257 0.0
2.823929 0.233304 0.001278 0.0
3.929234 0.582993 -0.002661 0.0
3.005551 0.882231 -0.001071 0.0
2.191831 1.637563 -0.000133 0.0
4.331234 1.379951 -0.000875 0.0
4.245023 0.734555 0.001604 0.0
3.329990 0.110006 0.002109 0.0
1.873113 1.080500 0.002088 0.0
4.065307 1.660749 -0.002344 0.0
2.775106 0.393788 0.004867 0.0
2.271502 1.131257 -0.001184 0.0
0.581674 1.600139 0.004594 0.0
3.083151 0.205475 0.000504 0.0
0.820501 0.243621 -0.000722 0.0
4.276646 1.326432 -0.005489 0.0
1.720544 1.485715 -0.002799 0.0
1.053780 0.038380 -0.003592 0.0
4.836696 0.694020 -0.004372 0.0
2.952420 1.709656 -0.001111 0.0
0.553911 1.016296 -0.002642 0.0
4.056905 1.224488 0.006081 0.0
4.873436 1.828148 0.001535 0.0
3.608119 1.680676 0.002317 0.0
0.890190 1.802467 0.002237 0.0
1.497051 0.106789 0.002529 0.0
0.231245 0.182927 -0.002522 0.0
3.909231 1.823216 0.004092 0.0
0.434694 0.139006 -0.003700 0.0
3.114797 0.643141 -0.001182 0.0
2.055067 0.366711 -0.000142 0.0
1.481708 1.229708 -0.000939 0.0
0.740821 1.056137 0.000772 0.0
1.527079 0.028366 0.001577 0.0
4.087625 1.687283 0.002015 0.0
3.656703 0.185577 -0.000777 0.0
2.025173 1.592886 -0.001483 0.0
3.618499 0.613267 -0.004557 0.0
3.372862 0.832260 -0.000739 0.0
1.627057 0.918883 -0.000415 0.0
1.589821 0.218054 0.005319 0.0
4.505532 1.680400 0.000856 0.0
4.675647 1.223798 -0.001046 0.0
0.273675 1.746017 -0.000558 0.0
3.924433 0.005080 0.000081 0.0
0.450111 1.786893 0.004618 0.0
3.124365 1.268968 0.003416 0.0
3.907930 0.508717 -0.000507 0.0
1.109262 0.952360 0.002704 0.0
1.956214 0.742745 0.001227 0.0
2.716831 0.243163 -0.002282 0.0
3.162409 0.927662 0.002370 0.0
3.644315 0.781764 -0.000035 0.0
3.171645 0.774450 0.002956 0.0
3.220013 0.106383 0.003859 0.0
1.906452 1.303041 -0.005224 0.0
4.725464 1.552338 0.000300 0.0
1.461481 0.358916 -0.005449 0.0
0.400940 1.622929 -0.001891 0.0
1.975622 0.301459 0.003703 0.0
1.464843 0.770926 0.004201 0.0
1.882462 0.446116 0.000029 0.0
1.194189 1.305251 -0.000326 0.0
1.026189 1.534456 0.000677 0.0
0.041446 1.329042 -0.000864 0.0
3.337049 0.772432 0.003036 0.0
3.307180 0.984910 0.000308 0.0
2.581271 0.774738 -0.002511 0.0
3.193027 1.806111 0.004668 0.0
2.565459 0.011021 -0.001082 0.0
0.261661 0.301877 -0.004620 0.0
3.275790 1.683341 -0.000011 0.0
0.889265 0.311658 -0.001921 0.0
4.563036 1.328971 -0.001982 0.0
1.704998 0.841978 0.004840 0.0
4.303838 0.473371 0.005801 0.0
1.540245 0.897199 -0.002104 0.0
3.370114 0.418626 -0.002929 0.0
0.410769 1.513826 0.003560 0.0
0.130696 0.153868 -0.000679 0.0
2.574256 0.599831 0.000240 0.0
3.487657 1.016686 0.001151 0.0
1.200347 1.800620 -0.000724 0.0
1.753625 0.247633 0.002879 0.0
1.627043 0.509161 0.001219 0.0
1.967589 1.677352 0.000639 0.0
3.327911 0.193554 0.001770 0.0
4.544741 1.482322 -0.001350 0.0
2.776311 0.355691 0.003870 0.0
4.117084 1.090829 0.001102 0.0
0.960118 0.410505 0.002176 0.0
2.171294 1.345706 -0.002770 0.0
2.346995 0.776930 0.003216 0.0
4.341108 0.266504 -0.002536 0.0
0.709526 0.922137 0.000830 0.0
2.508389 0.985453 0.003844 0.0
2.587248 0.966403 -0.005983 0.0
3.227350 0.210449 -0.004147 0.0
0.412980 1.836524 -0.002998 0.0
2.028785 1.585994 0.002401 0.0
0.556638 0.148371 0.002668 0.0
1.584566 1.195263 -0.002120 0.0
3.254915 1.523868 -0.002075 0.0
1.954975 0.465840 0.000591 0.0
4.103026 1.265243 0.002955 0.0
3.632344 0.953242 0.003230 0.0
4.798026 0.911042 -0.001810 0.0
2.690095 1.153361 -0.002242 0.0
2.598239 1.435440 -0.005184 0.0
1.396909 0.617259 0.001740 0.0
4.624866 1.029893 0.003658 0.0
2.311644 0.177707 0.000942 0.0
4.180728 0.056494 0.001871 0.0
1.784495 1.601454 -0.003058 0.0
0.867656 1.022484 0.002599 0.0
4.221432 1.430627 0.000679 0.0
1.382058 1.578544 -0.003409 0.0
0.807162 1.561400 0.001665 0.0
4.744378 0.819691 0.000539 0.0
1.565248 1.736722 0.001169 0.0
3.766176 0.059035 -0.000076 0.0
1.084567 0.947631 0.001073 0.0
1.382946 0.060347 0.000761 0.0
2.339295 1.018301 -0.002752 0.0
1.816870 1.689381 -0.005206 0.0
2.885327 0.175769 0.001695 0.0
4.409243 1.107392 -0.002365 0.0
1.325824 0.179340 -0.003004 0.0
3.754403 0.836005 -0.000178 0.0
2.583410 1.309434 -0.002924 0.0
0.424417 0.669315 0.000966 0.0
0.121469 0.862406 -0.000611 0.0
3.867680 0.626182 0.005278 0.0
3.619824 1.863752 0.001184 0.0
1.334745 1.528919 -0.002549 0.0
1.335112 0.110270 0.000653 0.0
1.702124 1.461397 0.000732 0.0
4.099317 0.695872 0.003955 0.0
2.341399 0.038654 -0.002170 0.0
1.220425 1.458568 0.002426 0.0
3.486998 0.156225 0.000289 0.0
0.279431 0.312107 -0.000758 0.0
0.378557 1.747355 -0.001799 0.0
0.198427 0.190013 -0.001659 0.0
3.803827 1.611478 -0.002694 0.0
1.387755 1.016709 0.000294 0.0
0.124525 0.235934 -0.000679 0.0
3.976591 0.358319 -0.000464 0.0
4.555385 0.749114 0.003603 0.0
0.947507 0.527611 -0.001507 0.0
1.293310 0.819858 0.000438 0.0
4.037060 0.332875 -0.006017 0.0
0.616433 1.214726 -0.002974 0.0
3.600902 1.288893 0.002637 0.0
1.975849 1.105086 0.001822 0.0
2.104868 0.157098 -0.001440 0.0
2.748479 0.406946 -0.002553 0.0
3.980838 1.343791 -0.000911 0.0
0.178466 0.947259 0.001253 0.0
3.748704 0.716891 0.002454 0.0
3.594443 0.144695 0.001119 0.0
3.093707 1.651284 -0.000236 0.0
4.806777 0.022053 -0.000671 0.0
4.652083 1.818808 0.004331 0.0
3.862664 1.332002 0.002400 0.0
3.601972 0.147276 0.000107 0.0
2.829457 1.550917 -0.001042 0.0
2.735354 0.120301 -0.001075 0.0
2.033490 0.024161 -0.000099 0.0
1.335979 1.009674 -0.000698 0.0
0.212853 0.668823 -0.003099 0.0
3.649048 0.279710 0.002525 0.0
4.792740 1.141206 -0.003301 0.0
0.558716 0.653937 0.000080 0.0
1.546876 1.027793 -0.000963 0.0
2.957558 0.996991 -0.001873 0.0
3.568371 0.396721 -0.001663 0.0
0.807201 1.287931 0.002560 0.0
0.207509 0.952022 0.003843 0.0
0.332853 0.083452 0.000719 0.0
4.453286 1.190620 0.001236 0.0
0.578695 1.145417 -0.000175 0.0
1.400971 1.755054 -0.000209 0.0
3.244039 0.864174 0.002346 0.0
2.806934 0.308634 0.000369 0.0
1.767874 0.833182 -0.000897 0.0
2.794192 0.659547 -0.000418 0.0
2.586943 1.207695 -0.001347 0.0
3.321881 0.492763 -0.001168 0.0
2.950304 0.537458 -0.000707 0.0
3.819651 0.668600 -0.001471 0.0
1.367361 0.503528 0.000079 0.0
3.069761 0.993945 -0.002634 0.0
3.331039 0.624508 -0.001181 0.0
4.377178 1.862994 0.001378 0.0
1.241851 0.139141 -0.000684 0.0
3.553621 1.198902 0.000155 0.0
1.202927 0.571837 0.002148 0.0
1.850637 0.618556 -0.001728 0.0
3.611769 1.280551 -0.000647 0.0
3.707222 0.613998 0.002296 0.0
3.015248 1.543353 0.000828 0.0
1.562823 1.068547 -0.002477 0.0
4.085256 1.263929 -0.003376 0.0
2.011725 0.641383 -0.000285 0.0
2.577878 1.571365 0.000606 0.0
1.501166 0.745804 0.004737 0.0
1.140327 1.103468 0.000886 0.0
4.050340 0.464142 0.000311 0.0
0.037929 0.388009 0.000537 0.0
2.716628 0.461383 -0.000979 0.0
3.473878 0.216845 0.001518 0.0
0.692530 1.485375 0.001327 0.0
0.519550 0.891227 -0.005439 0.0
1.992861 1.469013 0.005434 0.0
3.693978 0.699604 0.000932 0.0
2.807731 0.818139 -0.000055 0.0
1.113906 1.150746 -0.002212 0.0
2.954933 0.752846 0.004199 0.0
3.690097 1.870238 0.000649 0.0
3.116792 0.953213 0.000082 0.0
4.238198 0.250577 -0.000004 0.0
0.966393 0.436259 0.000517 0.0
2.716403 0.594439 0.000578 0.0
2.016442 1.274819 0.000521 0.0
1.006761 0.284336 0.003453 0.0
1.727289 1.149559 -0.003459 0.0
1.861052 1.546946 -0.005882 0.0
4.764066 1.526788 0.004070 0.0
4.879271 1.264167 -0.004466 0.0
1.857138 0.667705 0.000949 0.0
3.329614 1.633501 0.001046 0.0
4.202970 1.790578 -0.004647 0.0
2.236006 1.460864 0.000467 0.0
4.471271 0.563475 -0.001067 0.0
0.917302 1.554995 -0.000230 0.0
2.179852 1.017649 -0.001262 0.0
1.651867 1.792622 -0.005386 0.0
0.031593 0.269301 -0.002508 0.0
3.701317 0.851564 -0.001194 0.0
3.202494 0.255287 -0.001281 0.0
3.595712 1.029822 -0.001145 0.0
3.773847 1.086795 -0.001918 0.0
3.915052 0.156370 -0.000014 0.0
0.167366 1.591918 0.001906 0.0
3.238896 0.606510 0.006187 0.0
2.246664 0.371072 0.000086 0.0
4.309156 1.411227 -0.005078 0.0
4.859024 1.813880 -0.003491 0.0
3.125700 0.391366 -0.001453 0.0
3.256531 0.338372 -0.003208 0.0
0.970682 0.523387 0.002367 0.0
4.430897 1.406856 -0.001489 0.0
2.951990 1.099742 0.001873 0.0
3.245151 1.325435 -0.003115 0.0
2.663439 0.591887 -0.002223 0.0
4.864991 0.952615 0.000049 0.0
4.443768 1.200202 -0.002786 0.0
2.220639 0.932033 -0.004076 0.0
3.847350 0.174356 -0.000621 0.0
0.517600 0.304717 0.002810 0.0
0.119770 1.146925 0.001950 0.0
1.860332 0.975770 -0.001759 0.0
0.830055 0.154571 0.000348 0.0
2.745111 0.331448 0.003960 0.0
0.845828 0.224018 0.003000 0.0
0.531415 1.084807 -0.001859 0.0
4.292984 1.259088 0.001599 0.0
1.967129 0.912555 0.002516 0.0
2.102199 0.145288 0.002486 0.0
3.306606 1.776228 0.001820 0.0
3.395336 1.278476 -0.002378 0.0
2.829261 0.542554 -0.002165 0.0
3.382099 0.629429 -0.002635 0.0
2.342665 1.609959 0.001257 0.0
2.987544 0.956353 0.000643 0.0
3.485544 1.464700 0.005658 0.0
3.313055 1.684942 -0.001561 0.0
2.832978 0.149644 0.000588 0.0
0.731913 0.337336 0.002364 0.0
4.620738 0.124665 0.001763 0.0
2.896047 1.450635 0.003747 0.0
1.641154 0.932407 0.002217 0.0
3.568089 1.658813 0.001620 0.0
1.518125 0.650557 -0.000228 0.0
0.327747 1.689648 0.004605 0.0
0.038554 1.046342 0.000757 0.0
2.086595 0.170288 -0.001371 0.0
2.421808 1.385759 -0.000692 0.0
3.994442 1.786572 0.002257 0.0
1.599473 0.707404 -0.002815 0.0
0.592095 0.458059 -0.001298 0.0
3.221626 0.723069 -0.003124 0.0
0.317757 0.800799 0.004478 0.0
1.999052 0.831033 0.001871 0.0
2.251111 1.711344 -0.000021 0.0
1.120953 1.048822 0.000032 0.0
1.321809 0.729948 -0.003732 0.0
1.236929 1.797327 0.000933 0.0
0.665591 0.971268 0.002261 0.0
4.653528 0.097996 0.001927 0.0
2.697082 0.816856 -0.005682 0.0
3.578773 0.357673 0.001637 0.0
4.392842 0.434703 -0.006539 0.0
1.690746 0.568611 0.002651 0.0
3.468937 1.284907 0.002796 0.0
4.031998 0.828443 0.001116 0.0
0.812069 1.174530 -0.000361 0.0
4.608335 0.724434 0.000612 0.0
3.864720 1.754613 0.001382 0.0
1.153451 1.722701 0.000675 0.0
2.742837 1.539648 -0.000544 0.0
2.338442 0.800713 -0.003564 0.0
4.679938 0.291659 0.002668 0.0
3.667267 1.268628 0.000293 0.0
4.424204 1.646359 0.002035 0.0
1.429398 1.176472 0.002592 0.0
1.163271 0.776690 -0.000281 0.0
3.448906 1.055868 0.002096 0.0
2.960350 0.193718 0.000555 0.0
1.447935 0.682832 -0.002034 0.0
2.144384 1.164203 0.001688 0.0
3.222590 0.597753 0.003494 0.0
2.014594 0.632943 -0.000545 0.0
2.324073 1.798040 0.004150 0.0
1.303531 0.040662 0.003188 0.0
0.919949 1.171014 -0.000460 0.0
1.564235 0.084320 0.002355 0.0
0.561447 1.302824 -0.000926 0.0
0.694869 0.140870 0.002661 0.0
0.669765 0.932755 0.000837 0.0
3.866663 0.442423 -0.004639 0.0
1.619529 1.787131 0.002347 0.0
3.766456 0.281842 0.000677 0.0
1.329617 1.815629 -0.000723 0.0
1.761595 0.565276 0.002248 0.0
3.925898 1.073726 -0.000275 0.0
3.613899 1.603141 -0.002368 0.0
1.974983 0.604881 -0.000381 0.0
1.310350 1.282321 0.002434 0.0
2.466906 1.533025 0.000825 0.0
4.448810 0.668813 -0.002814 0.0
2.230557 1.436006 0.000398 0.0
0.322669 1.483802 0.002271 0.0
3.159356 0.983446 0.001750 0.0
0.738239 1.650731 0.003360 0.0
2.703602 1.593966 -0.001650 0.0
3.767745 0.867682 -0.001077 0.0
1.360131 1.776435 -0.000215 0.0
0.353268 0.195249 0.001553 0.0
4.667462 0.116476 -0.001195 0.0
0.041848 1.000216 -0.000668 0.0
1.537404 1.291902 -0.001714 0.0
3.163352 1.652703 -0.002098 0.0
0.088583 0.284390 -0.000059 0.0
0.673331 0.834050 -0.002972 0.0
1.780741 1.285952 -0.000772 0.0
3.075524 0.544979 0.002003 0.0
1.097781 0.045564 0.000278 0.0
4.271715 1.301204 0.003539 0.0
3.846711 0.122043 -0.003247 0.0
3.352006 0.965425 0.002660 0.0
1.158379 0.731019 0.000105 0.0
4.370309 0.867403 0.001530 0.0
3.955650 0.532439 0.004488 0.0
3.301005 0.104145 -0.004876 0.0
1.151973 1.823780 0.002545 0.0
0.984001 0.323788 -0.006772 0.0
0.833442 1.022134 0.002813 0.0
0.393601 1.709200 0.003081 0.0
3.809616 0.916058 0.002066 0.0
4.056550 1.269731 -0.000457 0.0
2.067211 1.109563 -0.000522 0.0
2.572238 1.407829 -0.001720 0.0
0.196622 0.490811 0.000078 0.0
3.986653 1.271675 -0.001637 0.0
2.323528 0.605070 0.000971 0.0
3.145611 0.463955 0.001309 0.0
2.610108 0.849553 -0.003388 0.0
2.363437 0.777954 -0.000531 0.0
4.536903 0.242404 0.003416 0.0
3.855320 1.708575 0.004495 0.0
2.142384 0.636688 -0.002086 0.0
3.889476 1.824083 -0.001765 0.0
1.575265 1.113016 -0.000742 0.0
1.441786 1.598812 -0.000308 0.0
0.702541 1.139071 -0.001423 0.0
2.541219 0.002191 0.002921 0.0
4.676162 1.450122 -0.000644 0.0
1.647565 1.465205 0.001577 0.0
0.651712 0.857546 0.001415 0.0
2.229934 1.124274 0.000216 0.0
0.370013 1.229954 0.000168 0.0
4.329655 1.539524 0.001904 0.0
3.609228 0.784428 -0.001389 0.0
0.673150 1.705345 -0.007501 0.0
1.093098 0.078897 -0.004566 0.0
4.723484 1.670105 0.005116 0.0
4.287926 0.248244 -0.000303 0.0
2.426660 0.007478 0.000496 0.0
4.255617 1.833367 -0.001289 0.0
2.607017 1.101088 -0.001997 0.0
3.892441 0.260431 0.002792 0.0
3.939209 0.562861 -0.001885 0.0
0.567279 0.651843 0.001944 0.0
0.760503 0.521965 -0.000404 0.0
1.427903 0.514641 0.000998 0.0
3.330912 1.336079 0.000172 0.0
4.599897 0.520232 -0.001138 0.0
2.715764 0.290116 0.000744 0.0
2.632460 1.144688 0.001015 0.0
0.530851 1.858904 -0.000805 0.0
2.875082 1.256941 0.001836 0.0
1.893841 0.418183 -0.006892 0.0
3.145714 1.279292 0.000561 0.0
4.481875 0.074837 -0.001182 0.0
3.261609 0.572307 0.002343 0.0
3.625644 1.682155 -0.001575 0.0
3.888511 1.673707 0.001109 0.0
3.208061 1.837409 0.003991 0.0
3.749841 1.672530 0.004116 0.0
1.655725 1.272666 0.003627 0.0
4.190252 0.206440 0.005266 0.0
1.298355 1.575593 -0.003915 0.0
3.936095 1.330979 0.000993 0.0
0.862774 0.215443 0.006674 0.0
1.459225 1.018978 -0.000034 0.0
2.116131 1.003262 -0.003836 0.0
0.023721 1.758506 -0.000915 0.0
4.707154 0.419966 -0.004813 0.0
4.062920 0.397998 0.000902 0.0
2.468129 1.456883 0.004711 0.0
4.561634 1.654672 0.002653 0.0
2.403790 0.500971 0.000476 0.0
4.730157 0.644187 0.001449 0.0
2.551137 1.611587 0.004296 0.0
2.355652 0.884517 0.001837 0.0
4.151811 0.300221 0.005953 0.0
0.193865 0.842249 0.002816 0.0
2.898371 0.914675 -0.000227 0.0
3.435103 0.143206 0.000990 0.0
4.645426 1.015796 -0.003920 0.0
2.175815 0.913732 0.001142 0.0
2.902398 0.192782 0.003270 0.0
2.880899 1.704434 0.002778 0.0
2.229258 1.032478 -0.002208 0.0
4.204258 0.078627 -0.002212 0.0
2.964295 1.182169 0.005230 0.0
4.087396 1.639296 -0.000387 0.0
2.897640 0.845734 -0.001067 0.0
1.930036 1.137553 0.001102 0.0
1.393608 1.410086 0.000566 0.0
0.957824 0.895924 -0.003296 0.0
4.689041 1.360781 0.001747 0.0
3.269107 1.589788 -0.003698 0.0
2.574942 0.457262 0.001179 0.0
4.476333 0.033999 -0.000800 0.0
2.570345 0.795478 -0.001723 0.0
4.125268 1.640408 -0.004603 0.0
1.492443 0.394145 0.000870 0.0
3.602619 0.393346 0.000123 0.0
4.241981 0.231374 0.002966 0.0
1.094030 0.585812 0.001704 0.0
2.926890 1.337186 0.000448 0.0
3.222531 0.709469 0.001559 0.0
0.828738 1.638813 0.000131 0.0
4.856010 1.226349 -0.001431 0.0
3.498478 0.607312 0.001346 0.0
0.169573 1.812800 -0.002940 0.0
3.887816 1.123325 -0.003561 0.0
1.857879 1.801787 -0.002234 0.0
1.103524 0.691463 0.001202 0.0
4.706980 0.839897 0.001509 0.0
1.836246 1.181109 -0.004403 0.0
4.596589 1.509014 -0.002434 0.0
0.430537 0.794233 0.002100 0.0
2.714382 0.159462 0.001063 0.0
1.309865 0.191425 0.000655 0.0
0.464765 0.783150 0.001052 0.0
1.352740 0.601548 -0.002665 0.0
2.696248 1.552844 0.000255 0.0
4.439022 0.194896 -0.003472 0.0
3.334297 1.116590 -0.002972 0.0
2.829339 0.129587 -0.001257 0.0
3.607914 0.129714 -0.002589 0.0
3.941024 0.448636 0.000556 0.0
3.077155 0.271598 0.003725 0.0
2.176874 0.375593 0.002907 0.0
4.757191 0.269385 -0.001325 0.0
3.199816 0.724119 -0.003037 0.0
0.520178 1.674241 0.001788 0.0
1.636175 0.768676 0.005302 0.0
1.075652 1.629262 0.000931 0.0
1.503541 0.368447 -0.000073 0.0
1.166201 0.438440 0.000544 0.0
2.935614 1.435990 0.003974 0.0
3.596713 1.318042 0.000869 0.0
1.308136 0.870028 -0.002125 0.0
3.730511 0.709985 -0.001787 0.0
3.539701 0.655057 0.001577 0.0
1.771797 0.347570 -0.000179 0.0
3.664278 1.155047 0.001078 0.0
1.781353 0.010155 0.002068 0.0
3.723584 0.849532 0.001984 0.0
0.482452 0.833817 0.003988 0.0
2.756280 1.423837 0.002059 0.0
0.959910 1.402839 -0.003529 0.0
3.487641 0.948216 0.001395 0.0
3.737803 0.996932 -0.000454 0.0
0.449686 0.243430 -0.004468 0.0
1.338248 1.814877 -0.001700 0.0
0.822769 0.183137 0.000517 0.0
3.150522 0.215381 -0.001823 0.0
2.159270 0.647823 -0.001429 0.0
3.917007 0.560580 -0.001122 0.0
0.248306 0.026806 -0.001439 0.0
4.878201 0.205969 0.001533 0.0
2.128328 0.803157 0.000347 0.0
3.910849 0.723394 -0.001932 0.0
2.871946 0.589581 -0.000321 0.0
1.110804 1.290101 0.002217 0.0
4.481198 1.089464 -0.004442 0.0
2.461076 1.751600 -0.002105 0.0
4.819212 1.078823 0.001069 0.0
1.116296 1.007244 -0.008320 0.0
4.504005 0.345774 0.000587 0.0
1.691739 0.276266 -0.003263 0.0
1.447821 0.614169 -0.004263 0.0
3.935098 0.311429 -0.002468 0.0
0.957826 1.052859 -0.002282 0.0
4.785883 0.348855 0.003030 0.0
3.002574 1.741539 0.001132 0.0
1.924782 0.015411 0.002960 0.0
0.361045 1.438621 -0.000273 0.0
0.473968 1.099262 -0.000816 0.0
1.053217 0.742777 -0.008279 0.0
2.624890 0.701715 -0.000664 0.0
0.872182 1.032316 0.000908 0.0
0.806070 1.329780 -0.002320 0.0
1.997640 0.620809 -0.002921 0.0
4.194045 0.208422 -0.000689 0.0
2.579180 1.345882 0.001924 0.0
2.881817 1.179658 0.001402 0.0
4.379818 1.251715 0.001441 0.0
2.010783 1.789943 0.001372 0.0
2.937000 0.842457 0.000459 0.0
3.142039 1.655993 -0.000796 0.0
3.126107 1.418771 -0.004869 0.0
1.633469 0.749682 0.000627 0.0
0.756994 1.630811 0.000864 0.0
3.247508 0.920511 -0.004490 0.0
3.454759 1.656731 -0.001145 0.0
4.324903 0.890752 -0.002226 0.0
1.801298 0.070110 -0.003123 0.0
2.880111 0.194398 -0.000168 0.0
3.771013 0.010239 0.000674 0.0
3.752318 0.047608 -0.001110 0.0
2.517087 0.151649 0.003442 0.0
4.498878 1.151643 0.003119 0.0
2.651459 0.391268 -0.001061 0.0
2.600056 1.543840 0.000217 0.0
3.601371 0.620816 0.001505 0.0
4.629377 0.912433 0.001737 0.0
2.573187 0.511782 -0.002235 0.0
2.531178 0.954739 -0.000794 0.0
4.411887 0.643908 -0.000306 0.0
1.080731 1.525240 0.001003 0.0
1.717425 1.398735 -0.002024 0.0
3.339384 0.428078 -0.003384 0.0
2.335322 0.217013 0.000413 0.0
4.630487 0.854496 0.002876 0.0
3.632323 0.658806 0.000630 0.0
2.963314 0.782072 0.003430 0.0
4.825927 1.334867 -0.001064 0.0
4.686993 0.425777 -0.000596 0.0
2.427334 0.149164 -0.005133 0.0
4.140227 1.661875 -0.004953 0.0
2.453012 0.627752 -0.000672 0.0
3.762893 1.551451 -0.000018 0.0
4.752802 1.769733 0.000504 0.0
4.514102 1.331566 -0.000800 0.0
0.643862 1.180899 0.003251 0.0
3.728096 0.321098 0.003431 0.0
3.073653 1.120330 -0.000953 0.0
2.033355 1.812508 -0.001637 0.0
1.820407 0.543163 -0.003020 0.0
0.462100 0.889489 0.001125 0.0
4.332691 1.106861 0.000015 0.0
2.614098 0.954124 0.004067 0.0
3.793032 0.931078 0.000773 0.0
4.325646 0.922062 0.002084 0.0
3.985650 0.350606 -0.002199 0.0
3.021060 0.605316 -0.004797 0.0
0.231262 0.627747 -0.001088 0.0
4.649980 1.262352 0.001422 0.0
0.934837 1.446231 0.000134 0.0
3.923086 1.243633 0.001463 0.0
2.064560 1.331942 -0.003168 0.0
0.400620 1.831854 -0.002569 0.0
1.780188 1.266857 -0.002884 0.0
0.853178 1.552109 -0.002645 0.0
0.280690 1.406903 -0.003779 0.0
2.512185 0.101811 -0.006732 0.0
3.997919 1.085308 -0.002403 0.0
3.499161 1.250521 0.000546 0.0
3.762984 1.520712 -0.001791 0.0
1.474224 1.624499 0.000588 0.0
2.724327 0.966649 -0.001374 0.0
0.845174 0.189110 0.002085 0.0
0.387585 0.552628 0.002264 0.0
3.617309 1.244014 -0.003339 0.0
3.322003 1.777163 0.001626 0.0
0.288086 0.495850 -0.001832 0.0
4.835210 0.975496 -0.001444 0.0
1.950859 1.802975 0.002001 0.0
1.860719 1.545843 -0.001329 0.0
3.900357 0.874745 -0.000787 0.0
1.524725 0.993841 0.000645 0.0
3.145028 0.585633 -0.003119 0.0
4.063327 1.082194 -0.000812 0.0
2.164033 0.910105 0.003757 0.0
1.594475 0.759912 -0.000089 0.0
2.200137 1.025566 -0.000193 0.0
3.744518 0.542634 0.000928 0.0
4.134616 1.407564 -0.004363 0.0
4.393557 1.578050 -0.000136 0.0
2.047791 1.293408 -0.003991 0.0
3.077703 1.078775 -0.001962 0.0
1.843689 0.328935 -0.000555 0.0
0.295689 1.559827 0.001046 0.0
4.143687 0.260637 0.002020 0.0
2.211934 0.752779 -0.000738 0.0
3.286644 1.343379 0.001345 0.0
1.672311 1.517748 0.002933 0.0
2.679365 1.770926 0.002773 0.0
2.840228 0.746282 -0.004958 0.0
4.550341 1.533237 -0.001026 0.0
3.234004 1.248894 0.002757 0.0
3.785588 1.796038 -0.001167 0.0
2.002364 0.755407 -0.001547 0.0
4.450109 0.296576 -0.000368 0.0
0.817595 0.095727 -0.004662 0.0
2.696728 0.674650 0.002941 0.0
1.300020 1.355752 -0.001617 0.0
4.509294 0.105130 -0.002291 0.0
1.581011 0.885023 -0.003770 0.0
1.714103 1.546594 0.002539 0.0
2.933211 1.798652 0.000629 0.0
1.968297 1.070235 -0.001515 0.0
4.421654 0.778544 -0.000514 0.0
3.535676 1.399810 0.003582 0.0
3.208506 0.861596 -0.003623 0.0
0.334414 0.162487 0.001613 0.0
3.588996 1.113110 0.000704 0.0
1.635125 0.412009 0.004467 0.0
2.223421 0.301554 0.000506 0.0
3.782461 0.317009 -0.002013 0.0
2.760721 0.203976 -0.001908 0.0
3.599854 1.444196 -0.004690 0.0
0.935167 1.206255 0.005425 0.0
2.052441 1.058304 0.000672 0.0
1.503599 0.855596 -0.004177 0.0
3.264890 0.530283 0.003305 0.0
4.129041 1.065370 -0.003080 0.0
0.663292 0.095749 0.001856 0.0
0.087972 0.076733 -0.003540 0.0
0.366765 1.752321 -0.001683 0.0
0.310671 0.799649 -0.001347 0.0
0.691608 0.107406 -0.001070 0.0
3.586874 0.490191 0.001306 0.0
0.750274 0.683395 0.002835 0.0
0.585706 0.199087 -0.003530 0.0
1.032959 0.527346 0.002044 0.0
4.836452 0.728272 0.002793 0.0
0.479555 0.610350 -0.003939 0.0
0.953178 0.906819 -0.002957 0.0
3.456585 1.771560 0.002165 0.0
1.501792 1.251090 -0.000148 0.0
3.194899 1.630605 0.004758 0.0
1.704754 0.831819 0.000188 0.0
1.985797 0.280987 0.004711 0.0
3.832713 1.194772 0.000965 0.0
4.018378 0.656452 0.000455 0.0
2.081997 0.794892 0.004197 0.0
0.695422 1.558270 -0.004762 0.0
4.599778 0.805145 0.001519 0.0
4.144853 0.704025 -0.002070 0.0
4.838884 1.348246 0.000159 0.0
3.640710 1.820187 0.002286 0.0
4.741423 0.391193 -0.000244 0.0
2.213517 1.744671 0.002531 0.0
2.144095 0.117804 0.001560 0.0
2.643680 1.769763 0.000062 0.0
3.435600 0.818829 -0.003408 0.0
4.307936 0.607867 0.001920 0.0
4.684530 0.123230 -0.000777 0.0
0.686600 1.430354 -0.004943 0.0
2.564290 0.506748 -0.001977 0.0
4.244273 1.022563 0.001608 0.0
1.785536 1.121784 -0.000628 0.0
3.108307 1.706547 -0.001134 0.0
3.539029 0.020928 0.000918 0.0
4.538417 1.053854 0.000873 0.0
3.710665 0.924790 0.001149 0.0
2.767247 0.676387 0.000952 0.0
4.846819 1.444458 0.005049 0.0
0.845643 0.465031 0.000657 0.0
2.060415 0.226809 -0.000551 0.0
4.556758 0.566545 0.003229 0.0
2.487393 0.957547 0.003068 0.0
3.375234 1.225848 0.004240 0.0
0.609849 1.291423 0.002539 0.0
3.811353 1.758658 0.001177 0.0
2.292310 0.331935 -0.001405 0.0
2.759620 0.114021 0.006147 0.0
1.297365 1.071059 -0.001171 0.0
1.750995 0.535944 0.000713 0.0
3.311922 1.704053 -0.002660 0.0
4.685006 0.785012 -0.000333 0.0
1.397875 0.073794 0.001168 0.0
3.184204 0.074238 0.002831 0.0
4.447001 0.193623 0.001944 0.0
3.157888 0.437516 -0.001984 0.0
2.702173 1.193014 -0.002731 0.0
0.512222 0.500001 0.003074 0.0
4.452078 0.342882 0.000143 0.0
4.790649 1.065959 0.001364 0.0
4.600962 0.376333 0.002422 0.0
1.737676 1.855905 -0.003351 0.0
0.625275 0.008036 0.002419 0.0
3.902446 1.384513 0.002019 0.0
1.981145 1.837630 0.005802 0.0
2.054232 0.499861 -0.003763 0.0
2.091734 0.510126 -0.000479 0.0
4.101082 1.410714 -0.003102 0.0
4.626770 0.790510 -0.002522 0.0
1.231197 0.801124 0.003685 0.0
1.220466 1.765935 0.006499 0.0
2.115692 1.452562 0.000201 0.0
0.021150 1.142468 -0.000526 0.0
2.994602 0.630482 0.000385 0.0
2.308927 0.275147 -0.002184 0.0
3.068726 1.115271 0.003947 0.0
4.084804 1.650008 0.000853 0.0
4.426239 1.864977 -0.002836 0.0
3.945233 0.251829 -0.002961 0.0
4.649079 0.322976 -0.002642 0.0
3.446306 1.802813 -0.001852 0.0
0.052657 0.634618 0.000356 0.0
1.848639 1.548170 -0.000334 0.0
4.816805 0.364942 0.002037 0.0
0.062334 1.586866 0.000576 0.0
2.825170 1.395093 -0.002082 0.0
0.314576 0.808107 -0.000406 0.0
0.133335 0.362935 -0.000061 0.0
3.714474 1.448098 -0.002180 0.0
0.712903 0.733564 -0.006215 0.0
2.802546 1.852552 -0.001969 0.0
4.731598 1.750892 -0.002560 0.0
3.049504 0.648585 0.001612 0.0
1.544825 0.142577 -0.001785 0.0
2.333405 1.838404 -0.002658 0.0
0.180434 1.854395 0.001024 0.0
3.005269 0.543830 0.001856 0.0
2.113220 0.231770 0.000169 0.0
2.951202 1.729699 -0.000124 0.0
3.721998 1.123980 0.001737 0.0
0.018461 0.520060 -0.002885 0.0
1.155959 0.653334 -0.007357 0.0
2.337987 1.277962 0.002629 0.0
2.111721 1.217921 0.002216 0.0
1.700621 0.189906 -0.000603 0.0
2.130283 0.066516 -0.003640 0.0
3.531962 0.958505 -0.002125 0.0
2.762413 0.570651 -0.004644 0.0
4.728151 0.146678 0.000466 0.0
0.532552 0.357927 0.003557 0.0
4.840072 0.843951 -0.004907 0.0
3.399897 1.638640 -0.001885 0.0
1.860187 1.393998 0.003394 0.0
3.343191 0.395180 0.006567 0.0
1.000069 0.922879 -0.001528 0.0
0.220222 0.467462 -0.000115 0.0
0.900368 0.836467 -0.001184 0.0
2.678751 1.322394 0.004861 0.0
2.061026 1.603345 0.001515 0.0
1.040727 1.779514 -0.002617 0.0
1.881905 0.746466 -0.001629 0.0
0.902596 0.844201 0.004971 0.0
1.131877 1.404258 0.003830 0.0
0.996252 1.108539 -0.001171 0.0
3.537616 0.438965 -0.004281 0.0
3.230833 0.962895 0.001685 0.0
1.708698 0.456052 -0.000057 0.0
3.327587 1.665226 -0.004282 0.0
0.659247 0.802153 0.001294 0.0
3.229732 0.993910 0.005894 0.0
3.255123 0.122674 -0.000883 0.0
1.064115 0.574889 -0.002110 0.0
2.824784 0.615066 -0.000819 0.0
0.621178 0.662601 -0.003839 0.0
1.912568 1.453906 -0.000099 0.0
2.725125 1.160202 -0.000823 0.0
2.227429 0.351102 0.000257 0.0
4.463611 0.600543 0.001643 0.0
4.384627 1.839358 0.000473 0.0
2.325117 0.223474 -0.001762 0.0
3.385451 1.391083 0.000652 0.0
0.627379 0.276496 0.001934 0.0
3.548802 1.852282 -0.002617 0.0
2.324422 0.312144 -0.003566 0.0
2.693961 1.798936 0.001000 0.0
1.138096 1.817015 -0.000439 0.0
2.829535 1.108287 0.000247 0.0
2.828308 0.965739 -0.003978 0.0
0.386720 0.147224 0.005577 0.0
0.854630 0.306033 -0.000360 0.0
3.269748 0.128324 -0.000830 0.0
3.603540 0.076283 0.001738 0.0
2.912542 0.721669 0.002070 0.0
0.203957 0.633458 0.000141 0.0
0.929572 0.827102 -0.001476 0.0
2.842723 1.274283 0.005648 0.0
3.170000 1.632602 0.004865 0.0
0.211090 0.177713 0.002588 0.0
1.218161 0.473317 -0.002726 0.0
1.857594 0.319662 -0.001088 0.0
0.988906 0.336970 0.001367 0.0
3.804111 1.662421 0.000523 0.0
0.471120 0.884462 0.000638 0.0
4.119104 0.506816 -0.001397 0.0
3.809994 1.765594 -0.006519 0.0
3.227082 0.905492 0.002283 0.0
2.364456 0.522720 -0.001449 0.0
3.039947 1.178019 -0.002853 0.0
4.795221 0.216749 -0.000489 0.0
4.402857 0.389618 -0.005317 0.0
3.482652 1.169559 0.000128 0.0
0.132901 0.507536 -0.000107 0.0
1.982785 0.750332 -0.001574 0.0
2.109523 0.262184 0.001670 0.0
1.539116 1.413802 0.002530 0.0
1.607314 1.664048 -0.000524 0.0
1.132605 0.400615 0.000594 0.0
1.713097 1.388412 0.000481 0.0
2.880174 0.485498 -0.003280 0.0
4.509980 1.822337 0.000498 0.0
2.106012 0.686694 -0.001562 0.0
0.493016 1.704799 -0.005233 0.0
0.646088 0.146972 0.001944 0.0
4.839136 0.725374 -0.000389 0.0
3.851802 0.041860 0.002151 0.0
0.365040 1.142851 0.006201 0.0
0.115666 0.747672 -0.001526 0.0
1.557512 1.346557 0.001435 0.0
3.026928 0.626762 -0.000756 0.0
4.070553 0.239300 0.001026 0.0
0.696351 0.157813 0.001373 0.0
0.987343 0.095387 0.001160 0.0
0.081031 0.594166 0.003987 0.0
3.934487 0.870281 0.002315 0.0
0.709640 0.568051 -0.003336 0.0
4.403986 0.615039 -0.002854 0.0
0.388877 1.662073 0.001488 0.0
0.144772 0.571983 -0.000251 0.0
3.146431 1.291626 -0.004910 0.0
0.059653 1.085138 0.001760 0.0
1.169120 0.271437 0.003682 0.0
0.911677 1.573810 0.003777 0.0
2.633174 1.693315 0.000827 0.0
3.744505 0.235260 -0.004200 0.0
0.948651 0.417498 -0.002774 0.0
3.431191 1.851051 0.001278 0.0
2.316033 1.589328 -0.000481 0.0
0.479732 1.855932 0.000995 0.0
0.697159 1.848352 0.000592 0.0
4.357759 1.673654 -0.000375 0.0
2.649243 0.420361 0.005318 0.0
3.855983 1.228211 0.001870 0.0
0.909648 0.813552 0.000865 0.0
0.190397 0.339096 0.001834 0.0
4.609942 0.522421 -0.002887 0.0
4.107904 1.714934 0.000941 0.0
4.552244 1.113176 0.003053 0.0
1.234914 0.331086 -0.003310 0.0
4.305005 1.844943 -0.001498 0.0
0.470801 0.553947 -0.002331 0.0
3.956634 0.537581 0.002286 0.0
0.566873 1.390792 -0.001263 0.0
3.792050 1.267532 0.001314 0.0
1.649803 1.387971 -0.001407 0.0
0.466010 1.102316 0.001845 0.0
3.518597 0.089125 -0.000501 0.0
1.022875 1.746667 -0.000886 0.0
3.817395 0.485217 0.002091 0.0
0.339978 1.855933 -0.001824 0.0
2.970425 0.389130 0.001765 0.0
4.173175 1.408116 0.000121 0.0
3.965713 0.107926 0.004575 0.0
0.268990 0.857401 0.000694 0.0
4.451847 0.432342 -0.002496 0.0
2.490340 0.031078 -0.002824 0.0
3.090707 0.053763 0.004511 0.0
4.156827 1.374315 -0.003306 0.0
0.707183 1.801133 -0.001996 0.0
1.388955 1.459002 0.000078 0.0
0.610001 0.872476 0.001413 0.0
4.792512 1.104291 0.003631 0.0
0.527710 1.109280 0.001704 0.0
2.506710 0.920359 -0.001975 0.0
3.083540 1.847252 -0.000626 0.0
3.178686 1.018075 -0.001674 0.0
4.751109 0.034011 -0.002075 0.0
4.426098 1.632119 0.001275 0.0
4.482987 0.476806 0.000960 0.0
0.291730 0.102660 0.000780 0.0
1.727321 0.595596 -0.001973 0.0
0.587163 0.676175 -0.002026 0.0
1.980255 1.269207 -0.000033 0.0
0.506020 1.255407 0.003265 0.0
2.005320 1.859259 0.000362 0.0
2.685666 1.099442 0.004077 0.0
0.559978 0.463496 -0.002066 0.0
0.349532 0.483610 0.001859 0.0
3.048225 1.495235 -0.002699 0.0
1.449886 0.986367 0.000747 0.0
1.088220 1.667311 0.001759 0.0
3.078098 0.702860 -0.000086 0.0
0.465301 1.224206 -0.002449 0.0
4.772273 0.957541 -0.001340 0.0
3.847207 0.720871 0.003548 0.0
2.757971 0.394663 0.004331 0.0
2.700007 1.787853 -0.000326 0.0
1.592740 0.819168 0.003488 0.0
1.780366 1.349077 -0.002195 0.0
1.172872 0.099730 -0.001971 0.0
4.640273 0.461761 0.001927 0.0
1.752400 1.392696 -0.002832 0.0
4.140654 1.262645 -0.003028 0.0
4.536232 0.293088 0.001577 0.0
1.122252 1.176072 0.000892 0.0
0.209177 1.428421 -0.002755 0.0
1.071878 1.376866 -0.002077 0.0
1.598621 1.641977 -0.001605 0.0
1.693147 1.809682 0.000239 0.0
3.399584 0.122975 0.000448 0.0
2.430985 0.756101 0.000345 0.0
1.084237 0.476633 -0.000274 0.0
0.888843 0.942913 0.002386 0.0
1.457004 1.187952 0.003084 0.0
1.582732 0.629570 -0.001065 0.0
1.339588 1.725235 0.001220 0.0
2.145538 1.816025 0.000996 0.0
4.613755 0.313493 0.000423 0.0
3.100423 1.724982 -0.000325 0.0
0.629971 1.115888 -0.001909 0.0
0.508508 1.569214 0.001434 0.0
1.636707 0.169244 -0.001661 0.0
0.636002 1.836022 0.005940 0.0
1.543171 1.151014 -0.001608 0.0
3.786856 0.080014 0.002385 0.0
0.680471 0.639446 0.002135 0.0
3.530716 0.566270 -0.004572 0.0
4.280672 0.395579 -0.001412 0.0
3.760685 1.147585 -0.003729 0.0
0.184330 0.165736 -0.002598 0.0
1.428341 1.026171 -0.003921 0.0
2.627906 1.705847 -0.000492 0.0
0.046920 0.063228 -0.001442 0.0
1.498506 1.412905 -0.002377 0.0
1.298489 1.123072 -0.002572 0.0
2.923698 0.709180 0.000881 0.0
2.417239 0.230919 0.002925 0.0
0.459909 0.820604 0.003457 0.0
3.559820 1.144546 -0.001843 0.0
0.854785 1.347203 -0.000855 0.0
1.780238 0.052658 -0.002030 0.0
1.850761 1.458285 0.003421 0.0
2.419642 0.167813 -0.000757 0.0
3.820466 1.305014 -0.001991 0.0
1.016799 1.660933 0.003849 0.0
2.792872 1.762624 -0.001331 0.0
2.843525 0.487783 -0.000709 0.0
4.701401 1.289508 -0.001684 0.0
2.468998 1.433805 -0.003978 0.0
4.463749 0.507198 0.006168 0.0
2.969505 0.686831 0.002571 0.0
3.276662 0.743522 -0.000117 0.0
0.104904 0.637778 -0.003049 0.0
2.412683 1.338558 -0.001069 0.0
3.325773 1.092175 0.001945 0.0
1.360528 0.134082 0.002447 0.0
3.969509 1.456461 -0.005784 0.0
3.384815 0.570800 -0.000609 0.0
2.655307 0.315472 -0.000128 0.0
1.332281 0.667169 -0.001904 0.0
4.227792 0.535465 0.004652 0.0
1.822395 1.386023 -0.000970 0.0
1.359239 1.268929 -0.000443 0.0
1.623994 1.347360 -0.006155 0.0
2.825712 1.397572 0.000575 0.0
2.671434 0.433294 -0.003018 0.0
2.511918 1.273420 0.000248 0.0
1.496668 0.567288 0.002286 0.0
0.284379 1.497737 0.000743 0.0
4.872590 1.815922 0.001685 0.0
0.919654 0.724228 0.002586 0.0
2.159285 0.132716 0.003769 0.0
0.935640 1.145190 0.003889 0.0
4.187263 0.197389 0.001879 0.0
0.640838 0.224767 0.001457 0.0
3.374026 0.996500 0.001459 0.0
1.314498 1.464954 0.000815 0.0
0.635738 1.276790 -0.003552 0.0
3.045986 0.310430 -0.000598 0.0
4.461683 1.095944 0.003184 0.0
1.728823 0.273320 0.001085 0.0
1.115367 1.163002 0.004676 0.0
4.836150 0.826640 -0.000815 0.0
1.283145 0.568844 -0.002636 0.0
3.130330 0.628533 -0.000386 0.0
0.226234 0.592682 -0.000927 0.0
0.481868 0.358395 -0.002424 0.0
2.836926 0.495051 0.003748 0.0
3.580128 1.297727 0.002258 0.0
1.410408 0.872004 -0.001188 0.0
2.175102 0.887462 0.001682 0.0
0.919443 1.746583 0.004077 0.0
3.969500 0.024741 0.002054 0.0
1.506159 0.130924 -0.000170 0.0
2.367121 0.609412 0.001273 0.0
1.873458 0.724006 -0.001082 0.0
4.346782 1.108816 -0.001470 0.0
2.463489 0.358192 -0.001914 0.0
0.727755 1.852573 -0.002528 0.0
1.963692 1.069529 0.001027 0.0
4.225743 1.648659 0.002715 0.0
4.466474 1.143967 -0.000486 0.0
2.453621 0.234906 -0.001300 0.0
4.884067 0.216374 -0.002299 0.0
3.949379 1.553201 0.000695 0.0
2.767750 1.245558 0.000302 0.0
3.455190 1.750756 0.002599 0.0
3.744676 0.828645 -0.003403 0.0
3.732231 1.204851 0.002319 0.0
1.763211 1.418010 -0.003706 0.0
2.559891 0.220367 0.001016 0.0
4.831348 1.244944 -0.002619 0.0
4.007589 0.864526 0.002241 0.0
0.208200 1.288855 0.000196 0.0
2.548878 0.207179 0.001068 0.0
1.517857 0.109321 -0.001586 0.0
0.883154 0.569602 -0.004279 0.0
4.277696 0.073992 0.000399 0.0
0.533643 1.419052 -0.002034 0.0
1.451116 0.667825 -0.000717 0.0
3.620471 0.461913 0.001968 0.0
4.694344 0.295988 -0.000086 0.0
2.723869 0.436766 0.002233 0.0
0.687432 1.099123 -0.002391 0.0
0.161870 0.220695 -0.000628 0.0
2.818329 0.804501 0.005273 0.0
0.657884 0.284542 0.004259 0.0
0.141376 1.790742 0.002979 0.0
3.794876 1.469924 -0.000359 0.0
1.127493 0.994383 0.001556 0.0
2.040910 0.295671 0.004785 0.0
2.440277 1.057234 0.003285 0.0
1.979766 1.811916 -0.001275 0.0
3.649625 1.073347 -0.002712 0.0
0.736679 0.939368 0.001806 0.0
4.269618 0.644634 0.001909 0.0
4.744197 0.215925 -0.001041 0.0
0.368793 1.327969 0.001177 0.0
3.351915 1.682656 0.002125 0.0
3.053917 1.152184 -0.002127 0.0
1.027147 1.468761 0.002938 0.0
2.170744 0.293658 -0.004958 0.0
0.480021 0.607134 0.000555 0.0
4.404149 0.587450 0.001247 0.0
1.069809 0.953817 0.002242 0.0
0.143714 0.995408 0.003676 0.0
1.233890 0.604617 0.001482 0.0
2.225547 1.333318 -0.000453 0.0
1.998065 1.242319 0.001588 0.0
3.277862 0.413861 0.002133 0.0
3.877555 1.328893 0.004770 0.0
4.233311 1.614031 -0.002707 0.0
0.439051 1.834699 -0.003213 0.0
4.199856 1.463346 -0.000637 0.0
1.061027 1.125811 0.000772 0.0
4.807300 1.409495 0.000733 0.0
3.661604 1.013250 0.001426 0.0
0.966787 1.284320 0.001365 0.0
0.247323 0.668985 -0.002989 0.0
1.260383 1.135460 0.001915 0.0
2.371589 1.869995 -0.001540 0.0
1.354164 1.333275 -0.004052 0.0
0.154737 0.246741 0.000742 0.0
2.213403 0.945543 0.000195 0.0
4.258923 0.203824 -0.000032 0.0
1.602248 0.628276 -0.000900 0.0
4.292543 1.403893 0.002365 0.0
0.549569 1.019445 0.000863 0.0
0.125492 0.971987 -0.002695 0.0
1.229969 1.207804 -0.005551 0.0
2.785956 0.906452 -0.001116 0.0
0.034521 1.086045 0.000549 0.0
3.467045 0.314487 0.002116 0.0
4.428954 0.692890 0.000975 0.0
1.947127 0.210252 0.001743 0.0
3.324837 1.057137 0.002750 0.0
1.606520 0.844160 -0.000994 0.0
