2.389109 0.549291 0.000050 0.0
0.888643 1.474993 -0.004671 0.0
1.813467 0.570724 -0.004121 0.0
1.026524 0.413628 -0.000783 0.0
3.383906 1.658909 0.002104 0.0
2.769269 1.295678 -0.000345 0.0
3.025036 2.097567 -0.000898 0.0
0.747945 2.118990 -0.004759 0.0
1.337497 0.777083 -0.002392 0.0
1.010323 1.626327 0.000664 0.0
3.633098 0.364208 -0.001498 0.0
2.972805 2.039413 0.002145 0.0
3.521796 1.970506 -0.002395 0.0
1.307811 0.517915 0.004791 0.0
3.906655 0.208371 0.002221 0.0
1.973272 1.714860 0.000717 0.0
1.877998 0.644559 -0.000679 0.0
1.316573 1.787675 -0.003029 0.0
0.715348 1.484179 0.000858 0.0
1.948301 0.242109 -0.001792 0.0
3.872708 1.280300 -0.004608 0.0
0.120511 0.831315 0.001331 0.0
2.187638 1.623204 -0.000932 0.0
2.856847 0.525614 -0.000383 0.0
1.038723 1.091213 0.000078 0.0
1.077929 0.060669 -0.000143 0.0
0.580005 2.128682 0.003864 0.0
3.205821 0.161683 -0.001506 0.0
3.036908 1.671451 0.002170 0.0
1.597846 0.507507 -0.001169 0.0
2.804656 1.336546 -0.002200 0.0
2.308774 0.364426 0.001482 0.0
2.058214 0.056067 -0.000866 0.0
4.327956 1.961043 -0.000769 0.0
3.591488 0.567905 0.000252 0.0
0.498518 1.909865 -0.004488 0.0
4.278084 1.779908 0.003519 0.0
0.191399 0.595738 0.001922 0.0
1.144708 2.162784 0.000088 0.0
1.134801 2.008199 0.002908 0.0
2.818630 0.841842 0.000213 0.0
0.630154 1.457213 -0.000632 0.0
0.315743 0.883560 0.000927 0.0
2.887439 0.606072 -0.000528 0.0
2.228369 1.902255 -0.002741 0.0
0.366332 1.674292 0.000415 0.0
1.602514 0.321016 0.002269 0.0
1.204860 2.008884 0.002190 0.0
2.003622 1.026649 -0.000224 0.0
0.691593 1.520837 0.000814 0.0
4.007691 1.001907 -0.002774 0.0
1.335386 1.757370 0.004318 0.0
3.839805 1.713490 -0.001979 0.0
4.262534 0.047186 0.002008 0.0
3.170080 2.076130 -0.001254 0.0
1.259266 1.268812 0.002483 0.0
3.663920 1.300623 0.000393 0.0
1.057169 1.350035 -0.001775 0.0
1.616722 0.293661 -0.000753 0.0
1.966355 0.671580 -0.003242 0.0
1.794082 1.753270 -0.000482 0.0
2.048294 0.261653 0.003258 0.0
1.420048 0.565199 0.001137 0.0
2.813562 0.487143 0.002070 0.0
2.197799 0.587581 -0.004182 0.0
3.064430 1.686261 -0.002710 0.0
1.158016 0.542136 0.000250 0.0
1.138284 1.902843 0.001275 0.0
1.161370 1.935387 0.000556 0.0
3.413198 0.441556 -0.002281 0.0
2.939572 0.993368 0.001456 0.0
1.326370 2.034289 0.002614 0.0
0.074734 0.786879 0.002491 0.0
2.929861 1.094349 0.001713 0.0
0.348045 1.460876 0.002057 0.0
1.525165 2.013952 0.000402 0.0
1.790029 0.282893 -0.002246 0.0
3.951998 1.060812 0.000782 0.0
2.918328 1.811252 0.001195 0.0
0.552187 1.718402 0.003630 0.0
3.011279 1.140167 -0.002922 0.0
2.326051 0.483386 -0.005201 0.0
0.714152 1.269788 0.001189 0.0
1.204483 1.272559 -0.000929 0.0
4.461431 0.974769 -0.004627 0.0
4.338983 0.719732 -0.001951 0.0
3.429876 1.140504 -0.004870 0.0
0.878713 1.788146 0.003506 0.0
3.755301 1.168892 0.001595 0.0
1.822086 0.988073 0.001723 0.0
3.147419 0.447203 -0.002334 0.0
2.818902 0.005593 -0.000170 0.0
2.201265 0.859665 -0.002258 0.0
4.331841 2.125306 -0.001118 0.0
1.174712 2.072734 0.001438 0.0
1.340069 0.310320 0.000694 0.0
2.864970 0.599495 -0.000940 0.0
1.364910 0.917964 -0.004846 0.0
4.129439 1.440972 0.000034 0.0
0.071785 0.445889 0.001097 0.0
4.249455 1.148888 0.000442 0.0
3.272263 0.106914 -0.003162 0.0
1.992640 0.299811 -0.002620 0.0
0.912885 0.581395 -0.003285 0.0
0.148153 0.044501 0.002944 0.0
4.218332 1.702569 -0.002548 0.0
3.733900 1.248769 -0.000993 0.0
2.644473 0.104041 -0.002308 0.0
3.464384 1.087170 -0.001547 0.0
1.553618 1.197442 -0.002139 0.0
0.751073 0.523442 0.003681 0.0
1.504437 1.898132 -0.001327 0.0
0.119530 0.737208 -0.000124 0.0
1.878979 0.936242 -0.002362 0.0
0.111418 1.113152 0.000477 0.0
2.751146 0.248449 0.001048 0.0
4.386078 0.892343 -0.000502 0.0
3.559871 1.204235 0.002069 0.0
3.519156 1.611917 0.001024 0.0
0.352932 0.881790 0.000895 0.0
1.882686 1.850247 -0.001104 0.0
3.775883 0.347149 -0.003450 0.0
0.542599 1.375089 -0.000013 0.0
0.036796 1.364215 0.001346 0.0
2.607918 0.252927 -0.000956 0.0
0.617333 2.131783 0.002554 0.0
4.488473 0.528963 0.001651 0.0
3.470449 1.628752 -0.002816 0.0
0.661992 1.808259 -0.002435 0.0
3.928585 0.176510 0.002374 0.0
2.167795 1.517068 -0.002707 0.0
0.840076 1.209397 0.001772 0.0
0.354808 0.395026 -0.002283 0.0
0.187713 1.015060 -0.000449 0.0
0.749839 1.331890 -0.000623 0.0
1.674440 0.199176 -0.003287 0.0
0.489632 0.496691 -0.002750 0.0
0.148469 0.260096 -0.003930 0.0
2.612990 1.456190 -0.001998 0.0
0.789656 2.123793 0.000471 0.0
1.671095 1.871824 -0.000049 0.0
1.515347 0.178144 -0.004510 0.0
0.877780 1.947112 -0.000282 0.0
3.375744 0.030516 0.001634 0.0
3.821538 0.473626 -0.000042 0.0
3.298646 0.405025 0.000773 0.0
4.021289 2.056394 0.000037 0.0
0.808037 1.010511 -0.004415 0.0
1.773492 1.862561 0.001799 0.0
1.218497 1.840079 0.001364 0.0
1.633495 1.100901 -0.003932 0.0
3.266892 2.162020 -0.001613 0.0
1.111084 0.398875 -0.002163 0.0
0.912990 0.757915 -0.000982 0.0
2.637460 1.537412 0.005121 0.0
4.095909 1.067169 -0.000091 0.0
0.991325 0.211050 0.001861 0.0
0.689346 1.259435 -0.002875 0.0
0.544905 0.098965 0.001487 0.0
0.880717 0.750165 0.002840 0.0
0.849892 0.030469 0.001053 0.0
2.077925 1.692595 -0.003572 0.0
1.399173 0.877454 -0.003119 0.0
2.076864 1.698095 0.000645 0.0
0.689263 0.445254 -0.002005 0.0
0.072342 0.903167 -0.000109 0.0
1.672722 2.067280 0.001302 0.0
0.082751 1.031353 0.001715 0.0
1.347994 0.996516 0.000814 0.0
1.966407 0.771213 -0.003205 0.0
0.085445 0.619427 -0.001228 0.0
0.739398 0.905867 -0.000830 0.0
4.363495 0.164361 -0.000916 0.0
1.257085 1.257768 0.000269 0.0
2.389237 1.886156 -0.000503 0.0
2.976030 0.202160 0.000442 0.0
4.268007 1.811194 -0.004472 0.0
4.179335 0.363782 -0.000148 0.0
2.223126 1.198979 0.003542 0.0
1.401296 0.383086 0.003238 0.0
2.187208 0.608906 0.001104 0.0
0.643729 1.851985 -0.000147 0.0
0.611381 1.719085 -0.004823 0.0
1.084178 0.384722 0.002633 0.0
0.109494 0.140531 -0.000914 0.0
2.573796 0.682293 0.001962 0.0
3.151826 1.434986 -0.001018 0.0
1.630129 1.757529 -0.001127 0.0
1.453954 0.871870 0.000475 0.0
1.628022 0.719019 0.005319 0.0
1.508272 1.905902 -0.000894 0.0
4.335414 0.538362 -0.000501 0.0
2.673689 1.897938 0.000491 0.0
1.812233 1.664109 0.001143 0.0
3.631336 0.871165 -0.002833 0.0
2.864922 0.803716 0.000888 0.0
2.163263 1.165852 -0.000053 0.0
2.312633 1.368630 -0.000760 0.0
3.912018 0.888252 -0.003181 0.0
0.161802 0.014051 -0.000303 0.0
0.897408 0.439447 0.003821 0.0
3.171600 1.034721 0.004122 0.0
3.230606 1.960773 -0.000754 0.0
1.605845 0.301742 0.001199 0.0
0.133569 1.211805 0.001224 0.0
2.023486 0.885777 -0.000530 0.0
0.619111 1.701616 -0.001165 0.0
3.596940 0.681294 -0.003329 0.0
3.094757 0.300348 0.001477 0.0
0.244213 2.036004 0.001961 0.0
1.380120 1.568304 -0.003765 0.0
0.424003 1.503417 0.002109 0.0
4.059974 0.643902 -0.000185 0.0
2.162406 0.230649 -0.003874 0.0
3.341114 0.333315 -0.001558 0.0
3.216316 0.263038 0.000429 0.0
4.152311 0.086584 0.001376 0.0
1.832275 0.432546 0.003696 0.0
3.555560 1.589212 0.001468 0.0
0.008683 1.049718 0.002085 0.0
3.888959 0.355037 -0.000857 0.0
1.598094 0.840913 0.006042 0.0
1.957461 1.846816 -0.001752 0.0
4.165207 1.263932 0.004457 0.0
3.577518 0.691823 -0.001435 0.0
1.317302 0.709572 0.000194 0.0
3.698831 0.932752 -0.004634 0.0
3.635428 0.276663 0.001773 0.0
1.998707 1.192890 -0.001497 0.0
0.247003 1.753101 -0.002493 0.0
2.718189 1.186262 0.005016 0.0
1.736005 1.978080 -0.001503 0.0
0.210999 0.724943 -0.001445 0.0
2.459337 0.014612 0.002684 0.0
1.923014 0.353771 -0.000451 0.0
0.279640 0.585927 -0.000421 0.0
3.788311 1.672018 0.005403 0.0
0.262610 1.871625 -0.000541 0.0
1.841499 0.882517 0.003845 0.0
3.173131 1.929152 0.002583 0.0
3.089957 1.613082 -0.005381 0.0
1.111355 1.546896 -0.001510 0.0
4.198057 0.530119 -0.000689 0.0
1.487374 0.180382 0.003876 0.0
2.965715 0.346226 0.003081 0.0
1.335497 1.085027 0.003409 0.0
1.221592 0.956403 0.002001 0.0
0.760750 0.212617 -0.004495 0.0
0.604115 0.991249 -0.005138 0.0
1.488787 2.176357 0.000901 0.0
1.212793 0.560413 -0.000041 0.0
0.344448 1.417039 -0.005099 0.0
0.982553 1.175207 0.002643 0.0
1.835269 0.487808 0.003284 0.0
4.301679 1.253447 -0.001146 0.0
0.723190 1.999460 -0.003493 0.0
0.431808 1.952391 -0.000904 0.0
4.245205 1.961954 0.002105 0.0
4.319957 0.027184 0.001329 0.0
1.370249 0.685674 -0.005141 0.0
2.197791 1.248157 -0.000691 0.0
2.835410 1.607159 -0.001780 0.0
3.512090 1.058468 -0.000762 0.0
0.287959 0.397402 0.000301 0.0
3.878328 0.536315 -0.002928 0.0
1.752934 0.988115 0.001455 0.0
3.974968 1.324359 -0.005777 0.0
4.028661 0.409061 -0.001109 0.0
4.247087 1.166748 0.001944 0.0
4.515191 1.854944 0.000369 0.0
1.197664 1.718212 -0.000325 0.0
3.549591 1.901771 -0.000661 0.0
0.119748 0.845290 0.000818 0.0
1.319000 2.064617 0.000890 0.0
0.662888 0.207640 0.004976 0.0
4.359543 0.242083 -0.001713 0.0
2.510748 1.821687 0.002137 0.0
3.277739 0.481385 0.001109 0.0
2.551184 1.704227 0.003003 0.0
2.819523 2.105275 0.000221 0.0
2.403545 0.112095 0.003719 0.0
0.807055 1.382047 -0.000465 0.0
0.772550 1.417715 0.000447 0.0
1.357318 1.604801 -0.002330 0.0
1.713691 1.975524 -0.003959 0.0
3.826006 1.802512 -0.005612 0.0
0.904469 2.025757 -0.004472 0.0
4.260198 1.703506 0.000449 0.0
1.731185 0.019172 0.001859 0.0
4.394282 0.197054 -0.003121 0.0
1.665776 0.946264 -0.006734 0.0
1.423825 2.146193 -0.000705 0.0
2.946511 0.602440 -0.000477 0.0
0.034717 1.703340 0.001520 0.0
3.040508 0.612978 -0.001764 0.0
3.149760 0.215218 -0.000760 0.0
1.754713 0.749786 -0.001011 0.0
1.553366 0.603764 -0.000723 0.0
2.442232 1.746427 -0.003234 0.0
3.327713 0.255121 -0.001569 0.0
4.312636 0.890589 -0.001552 0.0
3.669520 1.640368 -0.001998 0.0
0.728688 1.979115 -0.001138 0.0
2.546423 0.577535 0.000722 0.0
3.644382 0.346722 -0.001222 0.0
1.470845 0.830818 0.001890 0.0
0.395368 1.364061 0.000312 0.0
1.226146 1.801327 0.001638 0.0
0.118580 0.295688 0.001081 0.0
0.876348 2.161926 -0.003553 0.0
3.751948 0.919184 0.003895 0.0
0.939559 0.812113 0.000126 0.0
2.620299 0.722733 -0.002413 0.0
0.676103 1.604188 -0.005826 0.0
4.415583 2.186501 -0.001645 0.0
4.472932 0.897993 0.000997 0.0
0.953712 1.084390 0.000868 0.0
3.205432 0.357014 0.000351 0.0
1.905923 0.187831 0.000076 0.0
1.525301 0.643799 -0.004469 0.0
3.680796 0.991784 -0.002254 0.0
0.159378 0.785013 0.001784 0.0
3.916781 0.878152 -0.000573 0.0
1.981133 0.798713 -0.001108 0.0
3.524424 0.549540 0.003991 0.0
0.551501 1.669235 0.001645 0.0
1.333844 1.350895 0.000332 0.0
2.878545 0.143464 -0.000674 0.0
0.512979 0.436221 -0.002167 0.0
1.031995 1.089385 -0.002520 0.0
2.281317 0.894849 0.001081 0.0
3.932550 0.266191 0.001510 0.0
3.592327 1.463059 0.003413 0.0
4.167882 1.531935 -0.000883 0.0
4.439138 1.896907 0.000082 0.0
3.000927 1.803370 -0.001552 0.0
3.868973 1.995638 0.004091 0.0
4.390758 1.974248 -0.005625 0.0
2.515728 0.694558 0.000600 0.0
2.952328 1.399973 -0.005345 0.0
0.422402 1.118809 -0.001141 0.0
2.153589 1.831200 -0.001859 0.0
3.179086 0.616093 0.001243 0.0
2.149497 1.369521 0.001007 0.0
3.639026 2.061585 -0.000501 0.0
0.287726 0.726968 -0.000538 0.0
1.710637 1.549874 0.002061 0.0
3.751037 0.489296 0.002665 0.0
4.438372 2.141886 -0.001123 0.0
4.157755 1.278924 0.003732 0.0
3.377021 2.014135 0.000557 0.0
3.843519 0.718325 -0.001879 0.0
0.184604 2.074143 -0.002282 0.0
3.294413 0.107702 0.003490 0.0
4.474583 0.553321 0.000899 0.0
3.857349 2.085771 -0.001956 0.0
3.896808 2.169524 0.002960 0.0
1.698070 1.613506 0.000779 0.0
3.646312 1.976070 0.002747 0.0
0.239679 0.763824 0.000324 0.0
3.984665 0.847013 0.001606 0.0
2.741405 1.636953 -0.001662 0.0
0.895702 0.639794 -0.004385 0.0
1.215043 0.555664 0.000405 0.0
0.038459 0.835228 0.000321 0.0
0.252680 0.710294 -0.001756 0.0
1.074769 1.826042 0.000455 0.0
3.165904 1.066332 0.001219 0.0
4.263969 1.856065 -0.000753 0.0
3.646314 0.098993 -0.001242 0.0
0.987463 1.363554 -0.001336 0.0
4.331492 2.079125 -0.001065 0.0
3.174126 1.944278 0.001410 0.0
2.297944 1.158366 0.001342 0.0
0.360866 1.303721 0.000137 0.0
3.102535 1.966116 -0.001760 0.0
0.521243 1.160657 -0.001616 0.0
0.911447 2.017204 0.001391 0.0
1.480599 1.541036 0.001651 0.0
2.408176 1.699884 -0.000105 0.0
0.288393 1.024841 0.001518 0.0
0.181569 1.894670 -0.004340 0.0
3.847086 1.800320 0.000559 0.0
0.700435 1.038616 0.000994 0.0
0.757962 0.573305 -0.002513 0.0
3.076127 0.751594 -0.001944 0.0
1.496156 0.100748 -0.001054 0.0
3.322596 1.498546 0.000224 0.0
3.384881 0.782239 0.000606 0.0
3.307903 1.125096 0.000445 0.0
3.470381 1.548395 -0.001128 0.0
2.108176 0.884000 0.000186 0.0
1.438494 0.023707 -0.002066 0.0
3.393462 1.690758 0.004131 0.0
1.979210 1.717252 0.000811 0.0
0.856178 1.965121 -0.000715 0.0
1.583222 0.542418 -0.003887 0.0
2.335534 1.847185 0.002123 0.0
2.180362 1.182174 -0.002799 0.0
2.692358 0.274338 -0.002441 0.0
4.259904 1.433025 0.002857 0.0
1.846827 0.646978 -0.006000 0.0
2.979088 1.927868 -0.003576 0.0
0.001112 1.873786 -0.001330 0.0
3.811528 1.779753 -0.002452 0.0
4.280064 1.657547 0.005361 0.0
0.882431 2.180140 0.000568 0.0
0.362665 2.151672 -0.002249 0.0
4.515316 0.635958 0.001574 0.0
1.598603 0.928034 0.003028 0.0
3.035324 0.759721 -0.001355 0.0
4.025683 1.066076 0.004071 0.0
0.783450 0.478961 0.003381 0.0
3.247365 1.151313 -0.003474 0.0
0.443754 1.004362 0.001547 0.0
0.276880 0.955988 0.002941 0.0
2.670783 1.045664 -0.002201 0.0
4.492395 0.520062 -0.004885 0.0
1.943082 0.286535 0.001928 0.0
1.695237 0.627918 0.000690 0.0
1.778101 1.063519 -0.001632 0.0
0.705493 1.935419 -0.003454 0.0
2.885270 1.288793 -0.005430 0.0
3.192690 1.491319 -0.000656 0.0
1.119598 0.519730 0.000904 0.0
4.367498 0.682903 0.002389 0.0
0.827851 2.104800 0.000422 0.0
1.840076 0.319809 -0.001882 0.0
1.446590 2.177606 -0.001016 0.0
3.214772 1.771643 0.002027 0.0
1.911394 1.779805 0.001054 0.0
3.348777 0.456411 -0.000192 0.0
4.425690 1.521142 0.000549 0.0
3.923231 0.345928 -0.001574 0.0
4.333277 1.088147 0.001421 0.0
4.118645 1.563153 -0.000124 0.0
3.103514 0.889270 0.000020 0.0
2.637279 0.744159 0.000332 0.0
2.661051 1.798645 -0.001327 0.0
0.007224 1.873001 0.000113 0.0
3.174162 1.888351 -0.000282 0.0
0.289728 1.267726 0.001660 0.0
1.036527 0.307595 -0.001753 0.0
0.304488 0.708089 0.006238 0.0
2.229995 1.584622 -0.001937 0.0
1.928828 1.385722 -0.004481 0.0
0.433624 1.787070 0.000820 0.0
0.958095 1.582611 -0.000875 0.0
1.174268 0.934864 0.000476 0.0
4.490192 0.865871 -0.000282 0.0
3.828515 0.417885 -0.003416 0.0
1.105886 2.123627 0.001392 0.0
0.464236 0.037958 0.000134 0.0
1.255761 1.857057 0.000250 0.0
1.499566 1.524539 0.001346 0.0
2.100172 0.903510 0.001144 0.0
3.045546 1.040530 0.003082 0.0
3.988536 1.910031 0.002277 0.0
3.300414 0.503924 -0.001388 0.0
4.298858 1.724245 -0.001732 0.0
0.392424 2.011308 0.004712 0.0
3.501983 0.736282 0.001128 0.0
0.112531 0.547362 0.004047 0.0
0.689225 1.886954 -0.001368 0.0
3.367698 0.729752 -0.004836 0.0
1.339371 1.898973 -0.003157 0.0
0.221722 0.645436 0.000095 0.0
1.622642 1.239974 0.001004 0.0
3.713107 1.282683 -0.000057 0.0
4.117711 1.775565 0.003872 0.0
1.562426 2.152371 0.002833 0.0
4.168419 0.126100 0.001921 0.0
3.005096 1.786635 -0.003223 0.0
4.214410 0.649908 0.003534 0.0
1.476355 1.830691 0.001699 0.0
2.447688 0.517642 -0.001746 0.0
3.137370 1.840764 0.004044 0.0
2.532917 1.856181 0.003393 0.0
2.931762 0.350100 0.003964 0.0
3.867037 0.874812 -0.001734 0.0
1.960742 0.904911 -0.002875 0.0
3.576989 1.183348 0.000676 0.0
0.928275 0.712118 0.000645 0.0
1.710303 0.633353 0.001894 0.0
0.833231 1.415638 -0.004283 0.0
1.247378 1.749102 0.001859 0.0
3.019841 1.701748 0.002933 0.0
4.456399 2.066015 0.000447 0.0
0.740801 0.664157 -0.001014 0.0
3.447393 2.186698 0.000555 0.0
0.059483 0.690400 0.001661 0.0
0.598933 0.803284 0.003556 0.0
2.784782 0.440461 -0.001976 0.0
1.998134 0.351634 -0.001572 0.0
4.337001 1.314541 -0.000587 0.0
2.737617 1.552244 0.002014 0.0
3.957753 0.823306 0.002218 0.0
2.113101 1.238753 0.002889 0.0
3.492401 0.547474 0.004107 0.0
4.484703 0.429182 0.000350 0.0
1.222795 1.108494 0.002285 0.0
1.898905 1.957999 -0.005970 0.0
2.442058 1.722947 0.000601 0.0
4.502899 0.040204 0.003250 0.0
2.558597 1.879243 -0.004246 0.0
2.338891 0.654191 -0.001940 0.0
3.179494 1.815247 -0.000944 0.0
3.536982 0.675094 0.001014 0.0
1.491395 1.820916 -0.006303 0.0
0.363431 0.907531 -0.003974 0.0
1.367137 0.795117 0.001900 0.0
0.281701 2.048692 0.001380 0.0
0.114548 2.137196 -0.000831 0.0
4.295603 2.062403 -0.002563 0.0
2.606620 0.387231 0.001125 0.0
2.286016 0.311794 0.002926 0.0
3.191410 0.545679 -0.002938 0.0
3.623744 0.594246 0.002085 0.0
3.340044 1.154103 -0.000447 0.0
0.468782 1.299566 0.001164 0.0
2.859800 1.896404 -0.002311 0.0
0.322242 2.048375 0.000489 0.0
3.895193 1.465478 0.000577 0.0
3.424595 1.862220 0.001326 0.0
1.749611 1.533410 -0.003478 0.0
2.498030 1.757052 0.001139 0.0
2.534836 1.944856 -0.001565 0.0
0.603637 0.334178 0.001884 0.0
1.928914 0.657860 -0.000260 0.0
2.893765 1.567534 -0.000204 0.0
2.801268 1.394383 -0.001605 0.0
2.588030 1.031359 -0.002492 0.0
0.159087 2.027381 0.002584 0.0
0.647785 1.931527 0.004147 0.0
1.178585 0.156497 -0.001708 0.0
0.855268 1.135207 -0.003584 0.0
3.452006 0.529232 0.000869 0.0
1.661039 1.866492 0.001441 0.0
1.841567 0.975858 -0.001815 0.0
2.051112 2.047270 0.001626 0.0
1.344770 1.221852 0.002059 0.0
3.954647 1.556439 -0.001941 0.0
1.395993 0.377870 0.001613 0.0
0.878526 0.728125 0.000572 0.0
1.111861 2.129861 -0.001349 0.0
0.843468 1.810749 0.000014 0.0
2.200690 1.133757 -0.002257 0.0
1.524087 1.817679 0.001477 0.0
1.681365 0.128776 0.002576 0.0
0.691988 0.622609 0.000879 0.0
2.448234 0.985364 -0.003666 0.0
1.260452 1.206694 0.000244 0.0
1.718080 1.815781 -0.002827 0.0
3.856937 0.515301 -0.002389 0.0
0.400027 1.262293 -0.003264 0.0
1.015777 0.290295 -0.003644 0.0
0.078443 0.990653 -0.002938 0.0
4.127642 1.211188 0.000551 0.0
2.152594 1.871776 0.000225 0.0
2.715030 1.770336 0.003952 0.0
3.620170 1.256539 0.003472 0.0
1.317364 2.029625 0.003413 0.0
0.504173 0.134680 0.001757 0.0
1.471589 1.306089 0.003112 0.0
0.717307 1.095664 -0.002461 0.0
3.540838 0.898895 0.002840 0.0
1.955820 0.034110 -0.002359 0.0
0.788461 1.658135 -0.001701 0.0
1.320487 0.614633 -0.001256 0.0
3.544336 1.445886 0.000289 0.0
3.822368 1.017647 0.000860 0.0
0.537588 0.655090 0.001774 0.0
4.388896 0.317867 -0.001005 0.0
2.466688 0.935825 0.003378 0.0
4.526557 0.334149 0.000628 0.0
2.909706 0.414204 0.000779 0.0
1.625186 0.062721 -0.002239 0.0
1.445376 1.483752 0.001482 0.0
4.011145 0.837960 0.001151 0.0
3.742236 0.015071 0.001439 0.0
2.955206 1.689859 0.001832 0.0
3.656592 1.591657 0.003198 0.0
1.004837 1.161896 0.000689 0.0
1.792888 1.543187 0.000907 0.0
2.334715 0.080753 -0.001977 0.0
4.376828 0.593935 -0.001757 0.0
1.335349 1.181240 -0.001817 0.0
0.690471 1.222940 0.005786 0.0
2.767453 1.217694 0.002230 0.0
1.937171 0.210588 0.002047 0.0
1.518167 1.162882 0.000909 0.0
2.697022 1.242278 -0.003023 0.0
0.578986 0.067571 -0.001771 0.0
2.368865 1.640002 -0.001906 0.0
4.039789 1.882462 0.000050 0.0
2.071638 0.819683 -0.002937 0.0
0.092955 1.363549 0.002366 0.0
1.077378 2.012596 0.002440 0.0
1.645078 0.819747 0.002153 0.0
0.658821 2.195623 0.002170 0.0
4.290644 1.830979 0.004640 0.0
2.362438 2.037998 -0.001435 0.0
2.681387 2.144634 0.001278 0.0
3.756498 0.798256 -0.001418 0.0
3.929802 1.345782 -0.001123 0.0
3.221513 1.703996 -0.002215 0.0
3.831426 1.982193 -0.001859 0.0
4.097392 0.429454 0.001665 0.0
0.158849 0.921711 0.001639 0.0
1.053421 1.592908 -0.000002 0.0
0.839160 0.885619 -0.000255 0.0
0.195252 0.986227 -0.003408 0.0
4.491032 2.165021 -0.003703 0.0
0.151048 1.155962 0.003525 0.0
2.883675 1.937312 0.003717 0.0
0.858052 0.805535 0.001905 0.0
0.690213 0.877676 -0.002252 0.0
0.556073 1.415690 0.000709 0.0
3.706599 2.189220 -0.001396 0.0
1.525205 2.048892 -0.001758 0.0
2.762594 1.879414 0.002311 0.0
2.320760 0.657439 0.003367 0.0
2.661140 0.269082 0.003462 0.0
1.103687 2.151895 0.002342 0.0
2.820007 0.263333 0.000642 0.0
1.690742 0.903459 0.002910 0.0
2.152003 0.135798 -0.001916 0.0
0.824576 2.069757 0.001197 0.0
4.461338 1.048863 -0.000722 0.0
2.243973 0.717689 -0.001695 0.0
1.923787 2.200133 -0.001215 0.0
4.072337 0.988623 0.002900 0.0
2.705237 0.242519 0.000613 0.0
4.219552 0.878945 0.000282 0.0
0.104001 1.077051 0.000853 0.0
1.931966 0.600221 0.002013 0.0
0.514053 0.941546 0.002916 0.0
3.101632 0.861674 -0.002462 0.0
2.226153 1.490424 -0.002942 0.0
4.194809 0.402821 0.001714 0.0
1.117876 1.115691 -0.000932 0.0
2.184202 1.708764 -0.004108 0.0
3.932495 0.696651 0.002084 0.0
4.341517 1.500081 0.002056 0.0
1.284159 0.316156 0.000876 0.0
3.042221 0.804757 -0.000485 0.0
2.723673 1.860818 0.002604 0.0
3.287201 1.570269 -0.003372 0.0
2.751546 1.068651 -0.000980 0.0
0.057478 1.559971 0.000098 0.0
1.741578 0.473580 0.002573 0.0
2.226552 0.556406 0.003903 0.0
3.754751 1.438380 0.000314 0.0
2.439537 0.970690 0.004207 0.0
1.615906 0.833584 0.002166 0.0
4.365028 1.579691 0.000346 0.0
0.300350 0.358944 0.001726 0.0
0.003451 1.425240 -0.001060 0.0
1.508616 1.997313 -0.004540 0.0
3.682466 1.708823 -0.003388 0.0
3.787316 1.857824 -0.002038 0.0
2.771548 0.226662 -0.001004 0.0
3.073570 0.877964 0.003884 0.0
1.658809 1.442387 -0.000818 0.0
0.077702 2.019706 -0.000868 0.0
0.996997 2.069583 -0.000155 0.0
0.668378 0.056181 0.003167 0.0
2.543941 2.169381 0.001917 0.0
2.192680 0.861063 -0.000187 0.0
4.443418 1.338830 -0.000251 0.0
1.206657 0.643330 -0.005769 0.0
1.114539 1.523054 0.000993 0.0
1.829167 2.154096 -0.001703 0.0
2.268267 2.110484 -0.001799 0.0
3.215379 0.851733 -0.001217 0.0
0.462776 1.390361 -0.003225 0.0
1.967357 2.083612 -0.001836 0.0
1.214840 0.756163 -0.001409 0.0
3.195349 0.496680 -0.000695 0.0
1.265508 1.879181 -0.002974 0.0
3.687284 1.335310 -0.001401 0.0
1.450530 0.850921 0.003793 0.0
1.682616 0.838341 0.001992 0.0
0.256041 0.640270 0.002014 0.0
3.373886 2.133363 0.004829 0.0
3.770661 0.792823 -0.000041 0.0
0.715405 1.659546 -0.001477 0.0
4.115109 1.808399 0.002121 0.0
3.364800 1.502878 0.000856 0.0
2.779113 0.986403 0.003377 0.0
3.198450 1.766909 -0.001718 0.0
0.086679 1.289688 -0.001627 0.0
1.796648 0.301242 0.002198 0.0
1.243430 0.330815 -0.000786 0.0
0.753196 0.083842 0.000342 0.0
1.811644 0.608358 -0.001252 0.0
2.461501 0.366092 -0.002502 0.0
4.017782 1.930066 0.001990 0.0
0.901801 1.811155 0.002575 0.0
3.060029 0.596446 -0.001651 0.0
1.978321 0.135256 0.000201 0.0
2.089485 0.485010 0.001971 0.0
2.631168 1.530339 0.000069 0.0
2.291018 0.218593 0.006229 0.0
3.715571 0.575010 0.004119 0.0
3.081937 1.799070 -0.001354 0.0
1.362758 0.408581 0.000479 0.0
1.547106 0.881887 0.000258 0.0
3.393335 1.106907 -0.002219 0.0
1.965329 2.198081 -0.000325 0.0
4.324341 0.487172 -0.000966 0.0
2.229050 0.012276 0.001340 0.0
3.159687 0.015881 0.001247 0.0
4.088584 0.876363 0.000673 0.0
2.237244 1.094111 -0.001234 0.0
1.743203 1.078386 0.001673 0.0
2.683077 0.998790 0.001489 0.0
0.302645 0.136950 0.001830 0.0
3.305347 1.702241 -0.001230 0.0
4.020411 1.556358 -0.000118 0.0
3.714127 1.697732 -0.002786 0.0
2.987593 0.654152 0.000259 0.0
0.432798 0.195690 0.002094 0.0
4.424524 0.703992 -0.001540 0.0
2.936765 1.335100 0.003438 0.0
2.564726 1.421521 -0.001082 0.0
2.155006 1.840961 0.002233 0.0
0.985994 1.984844 -0.000767 0.0
1.349498 0.135154 0.001943 0.0
3.011494 2.157079 -0.002847 0.0
0.101785 0.014191 -0.002572 0.0
1.138207 0.335326 0.001545 0.0
3.222948 0.616525 -0.002837 0.0
3.131106 0.616764 -0.004240 0.0
2.135225 0.553731 -0.001109 0.0
4.439491 0.600349 0.000112 0.0
1.669412 1.595198 0.000737 0.0
2.942786 1.060610 0.003374 0.0
1.566910 0.047015 -0.005094 0.0
2.669841 2.015012 0.001486 0.0
0.135239 1.798088 0.002734 0.0
1.004262 1.506882 -0.001513 0.0
0.934567 0.032491 -0.000795 0.0
4.221873 0.985389 0.000037 0.0
1.356165 0.649950 -0.001493 0.0
0.942784 0.832867 -0.000899 0.0
2.842106 2.083774 0.001688 0.0
3.001177 0.347682 -0.002162 0.0
2.450245 0.574033 -0.001707 0.0
0.169310 1.906503 -0.004237 0.0
0.319536 0.282767 -0.002169 0.0
2.568024 1.113649 -0.001500 0.0
4.117832 1.701701 0.001226 0.0
1.362040 0.152749 -0.000254 0.0
4.408643 0.897509 0.000065 0.0
0.957363 0.634140 -0.005632 0.0
3.442623 0.585096 0.000715 0.0
4.151190 1.920259 0.003119 0.0
3.969998 1.818288 0.003468 0.0
3.635236 0.632794 0.001057 0.0
0.667044 1.033291 0.003077 0.0
0.405234 0.315300 0.004524 0.0
2.597256 0.309824 -0.001650 0.0
2.084023 1.101041 0.000349 0.0
2.413158 0.216661 0.001645 0.0
3.594960 0.753956 0.000733 0.0
3.034026 0.108428 0.000311 0.0
1.903350 1.133260 -0.001784 0.0
1.951083 1.426145 -0.001539 0.0
3.068247 1.587550 -0.000098 0.0
0.746286 1.896111 -0.002936 0.0
4.052592 1.178434 0.000624 0.0
0.925918 2.012120 -0.001619 0.0
1.765402 1.194708 -0.001466 0.0
4.138600 2.044238 0.005294 0.0
4.013258 1.196697 -0.001115 0.0
1.535995 0.986473 0.001389 0.0
2.355240 1.676915 0.001172 0.0
1.036558 1.914898 -0.002087 0.0
2.201990 1.561261 0.002478 0.0
3.952822 1.324719 -0.001497 0.0
1.207311 1.674102 0.000781 0.0
3.163660 2.087093 -0.001708 0.0
1.700724 0.632125 -0.002128 0.0
0.332630 1.579752 0.002347 0.0
3.147506 1.059111 0.000119 0.0
2.276542 0.671049 -0.000644 0.0
0.496876 0.844327 0.002430 0.0
0.185041 0.370212 0.001618 0.0
3.629748 0.347529 -0.000471 0.0
2.159822 1.843315 0.001542 0.0
3.334875 0.688178 0.000088 0.0
1.764386 0.069250 0.002411 0.0
1.381970 1.052440 -0.000237 0.0
3.077785 2.147194 -0.000997 0.0
2.676028 0.017220 -0.001641 0.0
4.318832 1.959056 0.003214 0.0
0.908100 0.264514 0.000316 0.0
2.053556 1.122036 0.002238 0.0
3.813118 0.246346 0.003200 0.0
1.603064 1.083892 -0.001597 0.0
4.423044 1.125349 0.000932 0.0
2.587219 2.166669 -0.000823 0.0
4.263712 1.952345 -0.001422 0.0
1.692812 1.201752 -0.002555 0.0
4.081979 1.432978 -0.002049 0.0
2.572888 1.704204 0.002435 0.0
4.356242 0.767848 -0.002039 0.0
4.207430 0.875906 -0.000754 0.0
1.439882 0.825063 0.002319 0.0
1.591825 0.056244 -0.002475 0.0
1.146611 0.254703 -0.001070 0.0
0.652297 2.042262 -0.000936 0.0
4.196275 0.966133 -0.000876 0.0
2.297175 0.000969 0.000228 0.0
2.583586 2.170531 0.002048 0.0
0.931099 0.156925 0.000351 0.0
1.194029 0.590098 -0.004080 0.0
0.732410 1.815529 0.003838 0.0
1.846128 2.176152 -0.001096 0.0
3.186727 0.438366 -0.001390 0.0
0.514902 2.125971 -0.002063 0.0
3.942180 1.461078 -0.001393 0.0
0.426027 0.032297 0.002490 0.0
4.439264 1.678023 -0.001982 0.0
1.581489 0.534354 0.000521 0.0
2.829256 0.066217 -0.001166 0.0
1.997115 0.607852 0.002177 0.0
0.006863 1.631846 -0.000264 0.0
3.263847 0.955061 -0.002178 0.0
2.290903 1.936825 0.000106 0.0
3.590459 1.769901 0.001896 0.0
3.855670 0.728310 -0.001912 0.0
2.465643 0.732393 0.001040 0.0
1.661563 0.020090 0.003756 0.0
2.386720 0.588221 -0.004849 0.0
1.345260 1.453367 0.001623 0.0
0.878541 0.427436 -0.001097 0.0
3.943779 0.816361 0.001038 0.0
2.929584 1.460969 0.001136 0.0
0.810279 1.915106 0.001589 0.0
2.175641 0.519019 0.004906 0.0
2.465737 0.005301 -0.000870 0.0
0.203793 0.126796 -0.003684 0.0
1.784414 0.594725 0.000759 0.0
1.963356 0.764046 0.003050 0.0
2.296117 1.464639 -0.004950 0.0
0.970740 1.601990 0.001288 0.0
0.644266 0.359797 -0.002277 0.0
2.310227 0.451085 0.000491 0.0
2.505125 1.453883 0.004408 0.0
2.481247 0.514790 0.001001 0.0
3.147287 1.641379 0.000302 0.0
4.058170 0.877748 -0.000490 0.0
2.524150 0.796537 0.001269 0.0
3.799053 0.565684 -0.004567 0.0
4.464858 0.717088 0.002779 0.0
3.412470 1.058935 0.000157 0.0
1.608327 0.389583 0.000781 0.0
0.260207 0.313338 -0.001446 0.0
1.228091 1.061858 0.004315 0.0
1.010146 0.289916 -0.001742 0.0
0.803725 0.328448 -0.004973 0.0
3.639600 0.081725 0.001799 0.0
1.852441 0.293478 0.003727 0.0
3.394279 1.875428 -0.000927 0.0
1.539282 0.601596 0.001960 0.0
2.321556 0.343179 -0.003766 0.0
2.309011 1.800158 0.002598 0.0
3.716936 1.718796 -0.002691 0.0
2.553616 1.698929 0.002528 0.0
0.511126 1.444260 0.003978 0.0
2.887152 1.424130 -0.001834 0.0
0.934386 0.676900 0.000120 0.0
1.049860 0.196257 -0.001584 0.0
1.762340 0.747262 -0.002787 0.0
4.404792 2.042883 0.002382 0.0
2.090043 0.048277 0.003204 0.0
0.139958 0.789465 0.001800 0.0
0.590159 0.805445 -0.000791 0.0
2.638589 0.541644 -0.002792 0.0
0.130580 0.925290 -0.001151 0.0
3.063169 1.587940 0.002422 0.0
2.597588 1.426645 0.001369 0.0
2.185049 1.897089 -0.001659 0.0
0.679596 0.694054 0.000050 0.0
3.892091 0.394613 0.005663 0.0
3.720029 1.055242 0.004345 0.0
1.846320 1.209204 0.001582 0.0
0.970640 0.271247 0.000403 0.0
0.693712 1.678292 0.000249 0.0
3.212229 2.095451 0.003133 0.0
3.268668 1.394784 -0.001486 0.0
3.189333 1.954673 0.001828 0.0
3.421106 1.532348 -0.002824 0.0
1.045555 1.246797 0.003359 0.0
4.227392 0.568812 0.004318 0.0
0.017329 0.921423 -0.000490 0.0
0.734701 1.788029 -0.001356 0.0
0.907054 1.532935 -0.001432 0.0
3.390480 1.613427 0.001899 0.0
1.068748 1.671304 0.004601 0.0
2.514541 1.237111 -0.000386 0.0
2.671106 1.650003 -0.000681 0.0
3.715148 0.104914 -0.000130 0.0
4.369801 1.163148 -0.000833 0.0
0.169580 0.104231 -0.004314 0.0
0.201060 0.298991 -0.000052 0.0
1.910075 1.977016 -0.002405 0.0
0.371417 0.674989 0.001350 0.0
2.610017 0.606487 -0.001682 0.0
3.941113 0.342131 -0.003304 0.0
1.309864 0.574857 0.001013 0.0
1.904288 2.204203 -0.002117 0.0
3.397240 1.153938 0.000430 0.0
2.501096 0.206796 0.002300 0.0
2.709364 1.834610 -0.002306 0.0
0.928090 1.493548 -0.003063 0.0
2.819492 1.447218 0.002282 0.0
0.878318 2.093724 0.003077 0.0
2.643314 1.236908 -0.001107 0.0
2.998060 0.185490 0.001480 0.0
0.348376 0.785094 -0.000608 0.0
3.526889 0.801126 -0.000838 0.0
3.996849 1.810264 0.000793 0.0
0.652743 0.690645 -0.002149 0.0
4.315003 0.172706 -0.000641 0.0
1.158547 2.185457 0.001735 0.0
4.214867 0.309159 -0.003907 0.0
3.717425 1.819535 -0.000577 0.0
2.670365 1.280030 -0.000501 0.0
2.064005 0.873435 0.005380 0.0
4.517172 1.278360 0.000613 0.0
0.584166 0.978956 0.003559 0.0
3.601814 0.885598 0.002545 0.0
3.130183 2.135838 0.004144 0.0
4.479556 1.810495 -0.002654 0.0
0.140546 1.768693 0.001794 0.0
0.670549 1.104546 0.002504 0.0
2.729241 1.277688 -0.002630 0.0
1.104993 0.811014 -0.000206 0.0
1.088527 0.336855 0.002573 0.0
3.606492 2.089022 0.000187 0.0
3.747366 2.169051 -0.003033 0.0
2.947569 1.895746 -0.003022 0.0
0.988985 2.058282 -0.001059 0.0
4.436721 0.276229 0.003593 0.0
0.671181 2.052749 0.004549 0.0
2.002162 1.182212 0.004457 0.0
4.257995 1.492940 0.000312 0.0
2.893185 2.113817 0.001846 0.0
0.228313 1.004107 -0.001971 0.0
0.261236 0.037925 -0.002227 0.0
0.478037 1.009943 -0.003048 0.0
0.660165 1.179255 -0.000185 0.0
0.330571 2.160172 -0.000627 0.0
4.255608 1.174111 -0.000516 0.0
3.711136 1.029208 0.000804 0.0
2.227657 0.821618 0.000833 0.0
3.140578 2.094172 0.005386 0.0
2.613230 0.518153 -0.003190 0.0
2.961076 1.721970 -0.003068 0.0
4.489597 0.325347 0.004754 0.0
0.460251 1.328534 -0.000218 0.0
3.894963 1.909559 -0.000207 0.0
1.608155 0.332555 -0.001636 0.0
3.766774 1.057008 -0.000213 0.0
2.095449 1.223140 -0.000160 0.0
1.568117 1.419594 0.002875 0.0
1.719770 1.142900 -0.001015 0.0
3.719690 0.471594 0.002051 0.0
1.931305 1.132603 -0.004200 0.0
3.724735 1.787097 0.000012 0.0
1.188815 0.710394 0.000420 0.0
3.344381 0.051883 0.000322 0.0
1.068655 0.872328 -0.002203 0.0
4.415289 1.517339 -0.001054 0.0
2.164329 0.201628 -0.004341 0.0
3.159275 1.179361 -0.001360 0.0
4.047111 0.730805 -0.005461 0.0
0.949573 1.270759 0.003622 0.0
2.401439 1.283780 -0.004177 0.0
3.915600 0.913965 0.003372 0.0
1.958620 1.965128 -0.001097 0.0
2.432087 1.250426 0.003749 0.0
0.962436 2.004905 0.002721 0.0
0.609690 0.929616 0.000560 0.0
3.026734 1.353034 0.000798 0.0
0.671313 1.062781 0.003016 0.0
4.346460 2.142137 -0.000838 0.0
1.909335 0.998198 0.000563 0.0
2.820591 1.454167 0.000016 0.0
0.914611 1.968631 0.000704 0.0
3.161254 0.545429 0.001833 0.0
4.349186 1.204560 0.004242 0.0
2.396267 1.031060 0.002922 0.0
3.349948 0.195799 0.000183 0.0
0.994530 1.104485 0.000823 0.0
2.887762 0.546779 0.000706 0.0
3.147702 1.409470 0.004363 0.0
3.612642 0.465037 -0.000257 0.0
4.091487 0.764584 0.002475 0.0
2.447318 1.563581 -0.001683 0.0
1.778602 0.173085 -0.000559 0.0
1.753946 0.617131 0.005483 0.0
0.708843 0.222945 -0.004239 0.0
3.426631 0.128330 -0.001900 0.0
3.963967 1.678605 0.000857 0.0
2.757581 1.446083 0.001031 0.0
2.353561 2.022745 -0.001096 0.0
4.408897 0.023929 0.001346 0.0
0.243910 1.057932 -0.000330 0.0
1.480735 1.091657 0.001184 0.0
1.196715 0.047021 -0.000962 0.0
0.733077 2.174883 -0.002074 0.0
0.406215 1.768889 0.002917 0.0
3.539207 1.715789 0.002856 0.0
0.709477 0.533955 0.003406 0.0
3.346776 1.084607 -0.005831 0.0
0.344441 1.321109 -0.002117 0.0
0.330686 1.201076 -0.000146 0.0
0.217306 1.955112 -0.001280 0.0
3.959889 1.399278 0.001266 0.0
3.607778 0.492445 0.001546 0.0
1.369763 0.975160 0.002259 0.0
3.255650 1.335053 0.003582 0.0
1.717069 1.461850 0.000295 0.0
1.623872 0.147401 -0.003288 0.0
3.207143 2.012839 -0.000845 0.0
0.282012 0.054961 0.001480 0.0
1.804153 0.054183 -0.001901 0.0
3.445456 0.580733 0.000143 0.0
3.903517 0.202815 0.000492 0.0
3.028682 1.892307 0.000456 0.0
3.760431 0.703813 0.003566 0.0
1.657430 1.994707 -0.000033 0.0
0.890997 1.366160 0.000332 0.0
3.338124 0.946635 -0.001889 0.0
0.909657 0.810871 0.000481 0.0
3.565071 0.946731 0.002455 0.0
0.156769 1.819815 -0.002520 0.0
0.328944 1.170943 -0.002478 0.0
1.764319 2.112586 0.000750 0.0
0.020163 1.609479 0.003591 0.0
3.792058 2.173441 0.003939 0.0
1.338057 1.844473 0.000797 0.0
4.442945 1.960722 0.001395 0.0
3.808923 1.665600 0.002876 0.0
3.942589 0.204837 -0.002607 0.0
0.088720 1.330495 0.000230 0.0
3.281271 1.554359 -0.004160 0.0
2.016359 1.740690 -0.001831 0.0
4.376256 2.196840 -0.001081 0.0
1.457822 1.997553 -0.002490 0.0
2.415359 0.647571 0.005945 0.0
0.345488 0.948230 0.003200 0.0
2.295030 1.961186 0.001103 0.0
2.211099 0.870224 -0.001478 0.0
4.001532 1.932677 0.004302 0.0
0.530102 0.945772 0.001245 0.0
0.916818 0.239975 0.001455 0.0
3.651297 0.272019 -0.001190 0.0
1.078303 2.085154 0.002504 0.0
0.169043 0.569946 0.000288 0.0
1.955034 0.423853 0.000314 0.0
4.073823 1.853282 0.004355 0.0
1.647319 2.084773 -0.004357 0.0
0.459457 0.659868 0.001436 0.0
3.416099 1.206691 0.000815 0.0
4.225827 1.337313 0.000443 0.0
2.249538 0.456130 0.001327 0.0
1.982160 1.642297 -0.000253 0.0
0.485960 0.931687 0.003051 0.0
4.162423 1.634791 0.003317 0.0
0.404180 0.981499 0.001418 0.0
3.300262 1.420897 0.001065 0.0
2.553829 0.079987 -0.001642 0.0
1.080076 1.919696 -0.000721 0.0
0.767970 0.804736 0.000319 0.0
1.281365 0.180738 -0.002977 0.0
1.392871 0.077882 -0.002373 0.0
4.430575 1.402144 0.000585 0.0
4.178680 1.732774 0.001468 0.0
4.203997 0.959242 -0.004623 0.0
0.066760 1.300983 0.001880 0.0
2.391686 1.637052 0.003691 0.0
0.389252 0.774291 -0.000468 0.0
0.073865 0.365497 -0.003814 0.0
2.550750 0.238043 -0.002450 0.0
0.621022 0.144546 0.000783 0.0
0.211768 1.101204 -0.001905 0.0
4.235304 1.418136 -0.003016 0.0
0.164624 1.881579 0.000607 0.0
3.586897 0.598028 0.000984 0.0
1.163990 0.901598 0.001466 0.0
3.698238 0.127265 0.000587 0.0
3.827977 0.213274 0.000138 0.0
4.212676 1.890469 -0.001476 0.0
2.808153 1.556757 0.003578 0.0
2.565988 1.897533 0.000822 0.0
3.184989 1.191642 -0.004830 0.0
0.489462 0.538870 0.002352 0.0
0.445034 1.817186 0.001232 0.0
2.355508 0.472517 -0.000113 0.0
4.352159 1.304079 -0.001281 0.0
1.075842 1.785085 0.001869 0.0
3.937846 0.451397 -0.001585 0.0
2.327082 0.494203 -0.004884 0.0
3.954860 1.572752 -0.000903 0.0
2.847596 1.347159 -0.001092 0.0
1.818489 1.656423 -0.003280 0.0
0.819520 0.608512 0.001039 0.0
2.317403 0.084123 -0.000359 0.0
1.595275 0.121156 -0.001368 0.0
2.984152 1.966054 -0.001675 0.0
0.709742 1.983784 -0.002788 0.0
4.061227 0.941342 -0.003876 0.0
2.522383 0.454987 -0.006936 0.0
1.010658 1.853182 -0.001913 0.0
0.042894 1.383257 0.001835 0.0
3.003604 0.341458 -0.000145 0.0
3.000119 0.931064 -0.003201 0.0
2.294072 2.152540 0.003781 0.0
2.192245 2.005284 0.002891 0.0
3.555404 1.053662 0.000723 0.0
1.630467 2.161155 0.002252 0.0
1.168797 0.568501 -0.000279 0.0
1.160426 0.314847 0.002307 0.0
2.781507 1.459652 -0.003228 0.0
4.251459 1.925775 0.001718 0.0
0.132137 1.416006 0.000428 0.0
1.729353 1.057884 -0.000244 0.0
1.067583 2.133398 0.000026 0.0
2.096693 1.865577 -0.005791 0.0
3.688208 1.402941 -0.002696 0.0
1.378096 0.793776 0.001390 0.0
2.136130 1.209948 -0.000452 0.0
1.475900 1.065707 0.000152 0.0
4.327347 1.530110 0.004365 0.0
1.743240 1.609718 -0.000589 0.0
1.800581 0.037919 0.000032 0.0
2.781735 0.316854 -0.001317 0.0
2.668387 1.415909 -0.003347 0.0
0.004487 1.321422 0.001107 0.0
4.137334 0.095467 0.004084 0.0
1.607130 0.311679 -0.002229 0.0
1.148469 2.122229 0.004793 0.0
4.343955 2.035264 0.005747 0.0
2.309012 1.043312 0.001940 0.0
3.328766 1.153542 -0.001392 0.0
2.513697 0.285526 -0.000131 0.0
0.032555 1.440725 0.002183 0.0
1.065613 1.836223 -0.004588 0.0
1.988198 0.843814 -0.000554 0.0
2.402545 1.196664 -0.000969 0.0
1.694852 0.539272 0.000780 0.0
1.852273 1.058183 0.000308 0.0
4.131214 2.070845 -0.006826 0.0
0.186337 1.651214 0.000493 0.0
1.714684 1.039912 0.001578 0.0
4.303575 0.182766 0.002272 0.0
0.984049 0.432554 0.004793 0.0
4.330596 1.806334 -0.000561 0.0
0.901276 0.977556 0.002988 0.0
0.659594 0.323356 -0.001177 0.0
2.014061 0.291096 0.000031 0.0
1.425819 1.189716 -0.002917 0.0
3.647744 0.736109 0.004657 0.0
4.065149 1.960923 -0.002134 0.0
4.348966 0.187658 -0.000574 0.0
4.287808 1.340805 -0.000868 0.0
3.666105 1.285795 0.002232 0.0
0.726468 0.623301 0.001000 0.0
2.893393 0.332460 -0.006125 0.0
2.781659 0.511923 -0.004436 0.0
0.028338 0.388512 -0.003289 0.0
2.668367 1.836102 0.004494 0.0
0.396776 0.451318 0.001723 0.0
3.349278 0.963909 0.001233 0.0
3.121912 1.589896 0.002931 0.0
0.888641 1.046726 0.000984 0.0
0.753185 1.361652 0.003051 0.0
1.483110 1.129541 0.002388 0.0
0.157250 1.245105 0.006106 0.0
1.348433 2.126964 -0.002102 0.0
3.469320 2.055134 -0.000863 0.0
1.928408 1.379295 -0.000573 0.0
0.629900 1.297755 -0.000168 0.0
3.348654 1.646096 -0.000419 0.0
1.917915 0.448044 0.002337 0.0
1.220520 1.804011 -0.001490 0.0
3.360571 1.454335 0.003792 0.0
2.841614 1.359977 0.001717 0.0
0.506042 0.718963 0.003359 0.0
3.888128 1.377506 -0.001243 0.0
2.974859 0.957644 0.004080 0.0
2.588670 1.645234 -0.002499 0.0
2.411708 1.917437 -0.001422 0.0
1.587685 1.582436 0.000914 0.0
0.076399 1.620021 -0.000861 0.0
2.223728 1.166864 -0.001250 0.0
3.147856 0.008831 0.000341 0.0
1.815998 0.206679 -0.003218 0.0
1.051940 2.065541 0.001622 0.0
2.392458 1.634664 0.003266 0.0
0.734320 2.026182 0.000403 0.0
0.067145 0.292335 0.001272 0.0
1.019622 1.694900 0.000714 0.0
2.691854 0.081515 0.000631 0.0
1.318545 -0.000437 -0.004197 0.0
4.192911 2.024031 -0.001885 0.0
3.873536 1.508673 -0.001797 0.0
0.818772 1.873538 -0.002557 0.0
0.962061 1.044517 0.005036 0.0
1.134207 0.732792 0.000761 0.0
0.712429 1.261375 0.003737 0.0
4.375831 1.626749 0.001045 0.0
2.533966 2.041564 0.003708 0.0
3.442259 1.586979 0.003265 0.0
3.696703 1.488377 0.001471 0.0
1.378871 1.285858 0.001261 0.0
0.759121 1.998040 -0.001350 0.0
0.998757 1.438212 -0.002128 0.0
0.232458 2.096535 -0.003985 0.0
0.257869 0.796955 -0.001628 0.0
0.720370 2.032352 0.002714 0.0
2.990269 1.421884 0.003193 0.0
4.259637 1.222647 0.001025 0.0
4.021304 2.101199 0.000882 0.0
2.638362 0.575343 0.000651 0.0
2.044580 0.916444 0.001418 0.0
0.553940 0.093198 -0.000791 0.0
0.924371 0.507297 -0.003537 0.0
3.690329 1.175254 -0.000733 0.0
1.081618 1.261797 0.003023 0.0
3.943328 0.866244 -0.002614 0.0
1.222265 0.175371 0.001751 0.0
3.930087 1.415617 0.000801 0.0
1.311017 1.251284 -0.001662 0.0
0.750189 0.005591 0.001266 0.0
2.761138 1.512405 0.002662 0.0
1.560543 0.125668 0.004269 0.0
2.512502 2.202460 0.000225 0.0
0.912614 0.417251 0.000232 0.0
0.507077 0.674169 0.002412 0.0
1.214783 1.762553 -0.002142 0.0
4.266323 1.119433 -0.002201 0.0
3.269138 1.880020 -0.003598 0.0
2.348618 1.447747 -0.000077 0.0
3.579900 1.139864 0.000026 0.0
0.491557 0.690226 -0.001766 0.0
3.965589 0.230303 -0.000698 0.0
2.263017 1.474820 -0.002120 0.0
3.358573 0.920475 -0.001350 0.0
0.610239 0.324806 0.004431 0.0
4.310614 0.024699 -0.003149 0.0
3.008779 1.354855 -0.000850 0.0
3.485438 0.351939 -0.002498 0.0
1.823165 1.254440 0.001595 0.0
0.929316 0.077694 0.000375 0.0
1.201671 1.174540 0.001273 0.0
1.453830 0.669189 0.001349 0.0
3.681119 0.129277 0.001633 0.0
0.955899 1.652777 -0.001188 0.0
1.023848 1.631917 -0.002146 0.0
0.882795 1.447132 0.000954 0.0
0.934935 1.368689 0.003913 0.0
3.851697 1.190482 0.001310 0.0
2.058305 0.411976 0.002866 0.0
2.643564 1.291542 0.000131 0.0
0.228332 1.068455 -0.002672 0.0
4.326215 1.435885 -0.003389 0.0
3.202982 0.585222 -0.001142 0.0
2.322740 0.917211 -0.001137 0.0
1.680117 0.836527 -0.000572 0.0
2.598987 1.283667 0.000897 0.0
3.990083 1.391035 0.000795 0.0
1.314515 0.217098 0.000945 0.0
2.321254 0.329502 -0.000914 0.0
1.126309 1.899910 -0.000371 0.0
1.153132 0.303365 0.000658 0.0
1.707964 1.357144 0.006037 0.0
3.596087 1.363944 -0.008953 0.0
1.984653 1.233070 0.003661 0.0
3.536750 1.114946 -0.000323 0.0
0.443863 1.828577 -0.001979 0.0
4.479622 1.471432 -0.001217 0.0
1.714685 2.051486 -0.002311 0.0
0.695164 0.551608 0.000321 0.0
0.361303 1.583384 -0.000264 0.0
1.168656 0.352563 -0.002497 0.0
1.893444 0.084009 0.001159 0.0
0.787566 0.392331 0.002485 0.0
2.291820 0.877948 -0.005474 0.0
0.926699 0.680563 -0.002504 0.0
2.129434 1.832625 0.000112 0.0
0.501134 1.135260 0.004852 0.0
1.486342 1.912890 -0.003570 0.0
4.107891 1.772955 -0.002485 0.0
4.118305 0.230162 0.002931 0.0
0.214044 1.853581 -0.000533 0.0
0.314646 0.070924 -0.004332 0.0
2.288214 2.093674 -0.000746 0.0
4.412186 1.011572 0.002003 0.0
0.229190 1.128748 0.000897 0.0
3.227538 0.775492 0.003003 0.0
2.296273 0.093326 -0.000760 0.0
3.118772 0.541054 0.003400 0.0
4.202719 1.477069 -0.000256 0.0
3.523964 0.821409 0.000611 0.0
1.585906 1.195387 0.000108 0.0
4.140633 1.919017 -0.005404 0.0
4.355322 1.579479 -0.002593 0.0
2.268014 1.968420 -0.002209 0.0
0.717213 1.758561 0.001041 0.0
2.343602 0.144842 0.004872 0.0
3.011090 0.613795 -0.004145 0.0
4.002652 0.011283 -0.005152 0.0
0.362527 0.881855 0.000076 0.0
1.098080 2.074321 0.001601 0.0
4.075901 0.057091 0.001855 0.0
2.730837 0.543589 0.000839 0.0
1.312896 0.470660 -0.001387 0.0
0.045670 2.162895 0.001691 0.0
3.491344 1.344442 0.004599 0.0
3.687695 0.084619 0.003612 0.0
0.153358 0.756228 -0.001998 0.0
4.312538 2.121780 0.003142 0.0
0.742812 1.373836 -0.000794 0.0
2.834345 1.928643 0.000476 0.0
0.792092 1.112498 0.001501 0.0
1.320219 1.334810 0.001811 0.0
2.136555 1.084112 -0.002220 0.0
3.200748 0.352585 -0.003374 0.0
2.829858 1.208127 0.001744 0.0
4.156155 1.168569 -0.001628 0.0
3.072733 0.212530 -0.002952 0.0
0.888687 2.049605 -0.002042 0.0
3.631990 1.960922 0.003151 0.0
1.153927 0.443333 0.003250 0.0
3.177423 1.658507 0.001100 0.0
2.839287 0.578451 0.003840 0.0
1.039599 0.314517 0.004363 0.0
2.818092 0.567787 -0.000421 0.0
3.808385 0.179919 0.001021 0.0
2.417795 1.684865 0.000675 0.0
1.658619 1.853276 -0.000007 0.0
2.238843 0.293524 0.001089 0.0
1.831577 0.186839 -0.004299 0.0
2.898468 1.581280 0.000625 0.0
0.887237 0.721660 -0.000376 0.0
4.307356 1.117667 -0.001322 0.0
2.727966 0.176496 0.001762 0.0
0.934482 0.558355 -0.003662 0.0
2.835521 0.446715 0.002589 0.0
0.841241 0.051512 0.003985 0.0
0.000023 1.062801 -0.003063 0.0
3.571994 1.558711 0.002765 0.0
3.343697 0.758735 0.003137 0.0
1.752209 0.184346 -0.000551 0.0
3.251513 0.099211 0.003513 0.0
0.331427 1.154837 0.001808 0.0
3.683514 0.861005 0.002881 0.0
2.322198 0.117744 -0.000204 0.0
2.375605 0.722014 0.002021 0.0
4.016933 1.064738 -0.005721 0.0
1.504987 0.529438 -0.000243 0.0
3.617168 1.415652 -0.004265 0.0
3.113741 0.769201 0.000255 0.0
1.020811 2.100071 -0.001984 0.0
2.486180 1.004503 0.005014 0.0
0.155745 0.965003 -0.000629 0.0
0.841855 2.010329 -0.000186 0.0
3.013650 1.609937 0.005098 0.0
0.695739 0.751070 -0.002663 0.0
1.885993 0.091365 0.001711 0.0
4.310498 0.822189 -0.000733 0.0
1.635669 2.167658 -0.001108 0.0
3.404162 1.709500 0.002614 0.0
1.334461 0.358841 0.004872 0.0
3.313655 1.798578 0.003297 0.0
2.199870 1.703960 0.003779 0.0
1.847027 1.690162 -0.005914 0.0
4.218235 0.705917 0.000831 0.0
0.407498 2.185600 -0.002409 0.0
2.142037 1.415598 0.001312 0.0
3.903256 0.989575 -0.001897 0.0
2.411590 0.698119 -0.001583 0.0
2.343008 0.001463 -0.001151 0.0
1.511156 0.205916 0.000895 0.0
1.100253 1.434435 -0.000958 0.0
4.078547 0.143730 -0.000044 0.0
0.261677 0.171556 -0.000382 0.0
2.894714 0.030354 0.001154 0.0
1.692019 1.297499 0.003294 0.0
2.278401 1.036673 -0.006210 0.0
3.543182 0.477663 0.000212 0.0
3.447099 0.458073 -0.002253 0.0
1.110203 0.305387 -0.003714 0.0
2.676034 0.073291 0.001013 0.0
3.482226 0.392797 0.000258 0.0
0.059226 0.135503 -0.004674 0.0
2.119927 1.860541 0.001913 0.0
2.046070 1.134125 -0.000328 0.0
0.670036 1.082625 -0.000186 0.0
4.522467 1.134555 0.001433 0.0
0.592432 1.829956 0.003698 0.0
2.890403 1.989953 -0.001985 0.0
2.710034 0.261359 -0.005177 0.0
0.398131 0.165531 -0.000069 0.0
2.692957 0.120280 -0.001955 0.0
2.080909 2.042302 0.003945 0.0
1.840695 0.745644 0.004093 0.0
2.291630 1.859206 0.002498 0.0
3.728554 0.143518 -0.002981 0.0
2.341521 0.218280 0.000991 0.0
3.167459 1.114436 -0.000372 0.0
2.124117 0.775960 -0.005393 0.0
1.729495 2.089155 -0.001386 0.0
0.744933 1.462280 0.002904 0.0
3.047350 0.397016 0.000419 0.0
3.016079 0.910519 -0.000354 0.0
4.419872 1.509852 -0.000651 0.0
4.264138 0.067513 0.000370 0.0
3.584062 1.095482 -0.004987 0.0
1.586808 2.086974 0.005755 0.0
3.701845 0.186555 0.004729 0.0
3.569261 0.887210 0.001310 0.0
3.641199 1.596273 -0.002210 0.0
4.482658 1.568892 -0.002888 0.0
2.728495 1.319031 -0.002634 0.0
3.936771 0.870028 -0.002093 0.0
0.545281 0.875074 0.002832 0.0
2.679284 2.043502 0.000530 0.0
4.143964 1.214366 -0.001505 0.0
0.162675 0.018057 0.000252 0.0
2.994680 0.095094 -0.003195 0.0
0.263519 1.531413 0.004298 0.0
0.500048 2.026541 -0.002521 0.0
1.899227 1.427410 0.001379 0.0
4.426827 0.922569 0.002824 0.0
4.052450 2.162040 0.001022 0.0
3.694133 1.753139 0.000047 0.0
1.057609 1.012936 -0.001165 0.0
1.517463 2.140555 0.002446 0.0
0.027907 0.518466 0.000344 0.0
1.839807 1.358002 -0.000837 0.0
2.654503 1.902887 -0.005697 0.0
3.614568 0.222916 -0.000244 0.0
0.751136 0.639694 0.000622 0.0
1.822345 1.619703 0.000420 0.0
3.306664 0.243362 -0.002806 0.0
0.967560 0.990193 0.004434 0.0
0.973649 1.137601 -0.001498 0.0
3.371175 1.957350 -0.000602 0.0
3.872670 1.539837 0.001170 0.0
4.061793 1.654858 0.004922 0.0
1.630878 1.457509 0.001412 0.0
2.252684 0.929494 -0.000052 0.0
3.065723 1.887598 0.000571 0.0
0.866820 0.670293 -0.002932 0.0
1.648324 2.007521 -0.001699 0.0
2.523459 0.689266 -0.002156 0.0
0.817672 1.062158 0.002716 0.0
0.868160 0.702868 0.001718 0.0
0.164707 1.766796 0.003536 0.0
1.360325 0.763355 -0.004101 0.0
1.744029 1.539866 -0.000041 0.0
4.060543 0.128472 -0.001621 0.0
1.699968 1.165349 -0.000334 0.0
3.171719 0.478037 0.004155 0.0
3.795750 1.496382 -0.000540 0.0
0.444239 1.991746 0.003188 0.0
4.380133 0.738897 0.002826 0.0
3.170861 2.153815 -0.000339 0.0
4.523506 1.991935 0.001362 0.0
4.036245 1.654844 -0.002280 0.0
2.640417 1.449661 -0.000246 0.0
1.050120 0.270194 0.001132 0.0
0.514528 1.404342 -0.001817 0.0
3.456837 1.255883 -0.002665 0.0
3.791586 1.788647 -0.001106 0.0
0.591122 0.666604 -0.000743 0.0
1.557503 1.411598 -0.003614 0.0
4.300630 1.714830 -0.001304 0.0
3.923293 0.835803 -0.005104 0.0
1.288246 0.539703 0.002369 0.0
1.674498 0.488679 0.001815 0.0
1.387736 0.342608 0.000055 0.0
4.502892 1.696648 0.002821 0.0
4.245972 1.634428 -0.002016 0.0
3.847801 1.804711 0.002910 0.0
1.538481 0.554429 -0.000045 0.0
3.758290 1.597847 0.001427 0.0
3.792683 0.025080 -0.000938 0.0
0.586985 1.976714 0.001513 0.0
2.357814 0.745352 -0.001305 0.0
3.496193 0.438473 0.002477 0.0
1.200141 0.892418 -0.000684 0.0
4.327739 0.052789 0.003664 0.0
0.703850 1.957134 0.001431 0.0
3.448314 0.809435 0.001885 0.0
3.106661 0.738503 -0.000818 0.0
2.519805 0.535806 -0.001287 0.0
1.092239 1.134345 -0.000426 0.0
1.995886 1.448137 0.000124 0.0
0.998647 1.580730 -0.002061 0.0
1.762148 0.543971 0.001571 0.0
3.114347 1.014149 0.001478 0.0
0.324024 1.856066 0.001059 0.0
4.083773 0.670852 -0.001021 0.0
2.365165 1.558708 0.001713 0.0
4.294720 1.042670 -0.003964 0.0
4.504531 1.545832 0.000658 0.0
2.885626 0.955373 0.000409 0.0
1.500141 1.157257 -0.001327 0.0
3.960729 1.055674 -0.001422 0.0
4.275044 1.138010 0.000418 0.0
0.938998 2.167105 0.002664 0.0
2.124123 1.127519 0.002850 0.0
2.787318 0.154252 -0.000556 0.0
2.732124 1.664880 -0.000016 0.0
1.409326 0.615832 0.001650 0.0
4.172921 1.214094 -0.001088 0.0
