2.551045 1.253755 0.002167 0.0
2.986469 0.465335 0.000913 0.0
2.186950 0.952408 0.003937 0.0
2.913164 1.548083 0.002035 0.0
3.311259 0.060895 -0.000158 0.0
3.774577 0.882822 0.003029 0.0
3.749536 0.093370 -0.001748 0.0
4.254494 0.263124 -0.002196 0.0
4.370794 0.613713 0.000109 0.0
2.513575 0.226666 -0.000728 0.0
0.184190 1.587156 0.003312 0.0
4.010156 1.289876 -0.000750 0.0
2.597460 0.752071 -0.000566 0.0
2.798858 1.865229 -0.003551 0.0
3.974034 0.039097 0.003001 0.0
0.510525 1.389291 -0.002994 0.0
4.189377 1.408351 -0.000609 0.0
2.379063 2.082006 -0.001638 0.0
2.227000 1.642150 0.000629 0.0
1.863631 0.188081 -0.001536 0.0
4.357017 0.296512 -0.001398 0.0
2.713309 0.573056 0.001167 0.0
2.063887 0.388597 -0.001575 0.0
3.337456 1.766586 -0.003857 0.0
1.969563 1.761337 0.002397 0.0
1.459722 1.510139 -0.002186 0.0
1.220466 1.569915 0.001286 0.0
2.767499 1.658824 -0.001940 0.0
4.198268 1.625725 0.000800 0.0
3.344702 1.267308 0.005593 0.0
3.324531 1.253640 0.001827 0.0
2.635028 0.954072 0.001284 0.0
0.520962 0.162735 0.002852 0.0
3.027735 1.043584 -0.001607 0.0
4.036447 0.023542 0.002155 0.0
3.364830 0.373671 0.003528 0.0
1.678712 1.711166 -0.000687 0.0
1.681297 1.199638 0.000872 0.0
0.913954 0.226802 0.003599 0.0
3.239093 0.553546 -0.003549 0.0
2.943624 0.774018 -0.002151 0.0
0.655598 0.244649 0.001195 0.0
1.016727 0.797188 0.000169 0.0
1.677781 1.481022 0.000285 0.0
1.531291 0.141371 -0.000457 0.0
2.042402 1.949419 0.004545 0.0
0.446441 1.767575 0.001560 0.0
2.984645 1.325383 0.000589 0.0
1.733917 0.689298 -0.002359 0.0
2.197274 0.305487 -0.001489 0.0
2.470821 0.620322 -0.002114 0.0
4.236953 0.219221 -0.000503 0.0
0.687661 0.185248 -0.000368 0.0
1.953306 0.743202 -0.001843 0.0
3.056513 0.101063 0.002220 0.0
1.642707 0.442823 -0.001234 0.0
3.477744 1.410688 0.005424 0.0
2.954213 1.595619 0.004388 0.0
0.766830 0.317823 0.001781 0.0
2.685150 1.401617 0.002451 0.0
4.015793 1.542282 -0.000983 0.0
2.271701 0.722615 -0.000668 0.0
3.442261 0.416671 0.000966 0.0
3.849829 0.168176 0.000393 0.0
3.388470 0.913106 0.000368 0.0
2.589259 0.094612 -0.002680 0.0
2.315132 1.311950 -0.004461 0.0
2.587652 0.529714 0.001164 0.0
1.271433 1.764237 0.001667 0.0
1.781511 1.847419 -0.000611 0.0
1.416296 0.654380 -0.000047 0.0
3.870695 0.841869 -0.002503 0.0
0.091931 0.967548 0.003271 0.0
3.605778 1.333810 0.002747 0.0
3.995555 2.086401 0.000768 0.0
4.065531 0.535444 -0.003029 0.0
4.290003 0.158582 -0.005672 0.0
1.147938 0.244572 -0.004242 0.0
3.185914 1.445897 -0.000873 0.0
3.087914 1.269316 -0.000552 0.0
3.063231 0.761718 -0.000559 0.0
4.318700 0.478707 -0.000673 0.0
3.291835 1.050465 -0.000866 0.0
1.522482 0.095007 0.004922 0.0
4.353711 0.912791 -0.001639 0.0
0.242084 0.885085 0.000591 0.0
3.733872 0.985755 -0.003232 0.0
2.048894 1.994544 -0.005043 0.0
4.080221 0.239453 0.002144 0.0
1.989202 0.197823 0.002333 0.0
4.244478 1.003918 -0.003584 0.0
1.370648 1.076676 -0.000895 0.0
0.376945 0.090768 -0.003188 0.0
3.719558 1.710963 0.000875 0.0
1.615117 0.647274 0.001690 0.0
3.892098 0.806817 -0.004625 0.0
0.301397 0.787819 0.001187 0.0
1.762746 0.111238 -0.002987 0.0
0.164425 1.222662 -0.006355 0.0
1.685638 0.323926 0.003079 0.0
4.198799 0.637445 -0.000324 0.0
0.434997 0.707817 0.002926 0.0
3.693700 0.204769 0.001649 0.0
0.794927 0.956478 -0.001847 0.0
2.243167 1.299747 0.000998 0.0
3.027266 0.455969 0.003823 0.0
1.834260 1.827199 0.001172 0.0
0.331465 1.085075 -0.001299 0.0
3.010823 1.697879 0.000452 0.0
2.121369 1.376870 0.005535 0.0
0.874091 0.567112 0.000657 0.0
1.016492 1.070249 0.003935 0.0
2.468982 1.377609 0.000400 0.0
4.148843 1.926927 0.003334 0.0
1.800376 1.351439 0.000746 0.0
3.441389 1.503686 0.000961 0.0
3.334099 0.831302 0.001288 0.0
0.314928 0.404661 -0.000249 0.0
1.234385 1.134519 -0.001882 0.0
0.085546 1.936191 0.002655 0.0
3.406664 1.499343 -0.002889 0.0
3.632361 0.431055 -0.000892 0.0
1.198632 0.898771 -0.001204 0.0
1.216979 0.758538 -0.001104 0.0
0.343213 1.943905 0.001726 0.0
3.225583 1.640657 0.003487 0.0
0.427604 0.477542 0.001975 0.0
0.977325 1.784011 0.001614 0.0
3.255328 1.750853 0.000478 0.0
3.288853 1.822679 0.003869 0.0
3.954686 0.907400 0.003016 0.0
4.204938 0.323172 0.004589 0.0
2.923834 1.510169 0.006735 0.0
2.249899 1.032155 -0.001126 0.0
3.424202 0.001104 -0.001310 0.0
2.768570 0.397928 0.003391 0.0
2.777394 0.226634 0.000291 0.0
3.033560 1.567196 -0.001743 0.0
0.205297 1.759753 0.002456 0.0
3.427540 1.566369 -0.002189 0.0
1.281002 1.212845 -0.002585 0.0
3.658188 1.411236 -0.004414 0.0
1.526783 1.483272 0.003975 0.0
3.021822 1.282461 -0.000029 0.0
4.234036 1.308027 0.000063 0.0
3.292140 0.302939 0.000535 0.0
3.382025 1.901194 -0.000956 0.0
0.238744 0.780490 -0.000488 0.0
2.467631 1.108164 -0.006418 0.0
1.804192 1.491174 0.003093 0.0
4.246151 1.183243 -0.003343 0.0
0.604143 0.965400 0.002686 0.0
0.420853 0.085588 -0.002689 0.0
3.594328 1.004307 0.002360 0.0
3.122233 0.151309 0.002992 0.0
3.400399 1.340403 -0.001524 0.0
2.490668 0.106884 -0.004082 0.0
3.314908 0.823292 -0.003288 0.0
3.307458 1.200800 -0.002785 0.0
4.197554 0.328060 -0.001188 0.0
0.221530 0.915264 -0.000955 0.0
4.189128 0.903895 0.003075 0.0
4.083385 1.637416 0.000799 0.0
1.612285 0.348669 0.001401 0.0
0.480573 0.353504 -0.003407 0.0
3.330602 0.033923 -0.002989 0.0
0.200235 0.718067 0.002687 0.0
1.223768 0.506397 -0.000844 0.0
2.764551 0.365071 -0.004830 0.0
1.687868 0.973842 0.004950 0.0
1.737862 0.867154 0.001970 0.0
1.717872 1.742628 0.000018 0.0
4.085100 0.678309 0.001870 0.0
4.285757 1.250945 0.004313 0.0
1.779079 1.758682 0.000355 0.0
3.696043 0.282954 -0.000543 0.0
4.233500 1.719273 -0.002454 0.0
2.882222 1.930053 0.002251 0.0
0.699563 1.799388 0.000370 0.0
4.387889 2.011433 0.000749 0.0
3.083630 1.343718 -0.002379 0.0
3.632150 0.350511 -0.000545 0.0
1.718429 1.101705 -0.006126 0.0
2.144095 0.096171 -0.004860 0.0
2.002210 1.399492 0.000601 0.0
3.274934 1.381308 0.000065 0.0
2.409643 1.243783 -0.001396 0.0
0.716340 0.916835 -0.001697 0.0
3.953095 0.852984 0.000956 0.0
3.490083 0.835839 -0.002806 0.0
0.034914 0.964912 0.004874 0.0
1.483386 1.494586 0.005417 0.0
3.840753 0.318540 -0.002386 0.0
3.854653 0.033817 -0.001609 0.0
0.338682 1.594467 0.001042 0.0
2.064854 1.861177 -0.005066 0.0
2.543147 0.560281 -0.000321 0.0
2.497789 0.987894 -0.002709 0.0
2.374539 1.930516 -0.000339 0.0
0.487565 0.609464 -0.004208 0.0
1.704519 0.874173 0.004344 0.0
1.301777 1.681931 0.000153 0.0
1.705435 0.338516 -0.004278 0.0
2.638845 1.337743 0.002254 0.0
1.301134 0.893924 -0.001898 0.0
3.512215 1.526812 -0.004016 0.0
3.734556 0.179083 0.001176 0.0
2.617185 0.066920 -0.000129 0.0
4.105650 1.964763 0.002107 0.0
4.226654 0.454262 -0.002555 0.0
2.736482 2.077011 0.000806 0.0
4.244198 1.799655 0.001318 0.0
0.056834 0.637217 -0.000233 0.0
1.990174 1.854809 -0.000950 0.0
3.684331 0.679082 -0.005242 0.0
3.465962 1.616875 -0.005980 0.0
4.363381 0.236556 -0.000283 0.0
1.524403 1.518737 -0.001933 0.0
1.942379 1.418919 -0.000178 0.0
1.705515 0.937904 0.001603 0.0
3.467559 1.509891 -0.002650 0.0
2.839983 2.030924 0.000503 0.0
0.152362 0.138357 0.000055 0.0
1.570030 1.765628 0.002909 0.0
0.712793 1.575078 -0.003381 0.0
2.030316 0.898535 0.004732 0.0
4.058780 1.172563 0.000793 0.0
1.819945 0.695752 0.000161 0.0
3.208373 0.476388 -0.003329 0.0
1.388797 0.049989 -0.006722 0.0
0.189875 0.673811 -0.001176 0.0
1.197983 0.099922 -0.004001 0.0
1.452208 0.143484 -0.002353 0.0
1.483426 1.084460 0.007235 0.0
3.954881 1.145821 -0.003112 0.0
2.196510 0.062482 0.002752 0.0
1.303636 1.410770 0.001928 0.0
0.510155 0.267275 -0.002367 0.0
1.101184 1.742017 -0.000213 0.0
0.655053 0.217118 0.002647 0.0
2.319008 1.821316 -0.001351 0.0
4.249769 0.711054 -0.001104 0.0
1.566297 1.844261 0.002639 0.0
2.333808 1.963191 -0.003680 0.0
4.260945 0.533847 0.000697 0.0
2.427068 0.219307 -0.003251 0.0
2.226364 0.991928 0.000974 0.0
4.347556 0.904118 -0.000961 0.0
0.830933 1.091072 0.001335 0.0
2.552139 0.747849 0.001740 0.0
1.233118 2.043063 0.002657 0.0
3.056908 2.085141 -0.002973 0.0
2.692759 0.360514 0.001295 0.0
4.061443 1.221232 -0.002953 0.0
4.221661 1.987296 -0.001964 0.0
0.170844 2.088759 -0.004633 0.0
3.782493 0.298416 0.002909 0.0
3.915290 0.548257 -0.003492 0.0
1.579774 0.919763 -0.004542 0.0
3.407942 0.108236 -0.003551 0.0
2.816571 1.488485 0.001681 0.0
3.129120 0.983364 -0.000312 0.0
1.590688 1.032344 0.000021 0.0
1.162595 1.576757 -0.001516 0.0
0.320187 0.866025 -0.002936 0.0
3.509508 1.521776 -0.002148 0.0
3.788200 0.204666 -0.000648 0.0
3.986613 1.179060 0.002582 0.0
1.285149 0.811263 -0.000067 0.0
2.684566 2.078409 -0.006365 0.0
1.907441 0.190167 -0.001809 0.0
0.069344 0.313371 -0.002565 0.0
2.923653 1.551625 0.003273 0.0
2.634573 0.683616 0.000670 0.0
1.572655 0.956203 -0.000859 0.0
1.676450 1.587903 0.000739 0.0
2.541236 1.552839 -0.004157 0.0
3.499482 1.141746 -0.001461 0.0
3.935569 2.078019 0.006921 0.0
3.428869 0.245082 0.001018 0.0
1.779046 0.192853 -0.001737 0.0
3.560644 0.688550 -0.000274 0.0
2.813781 1.722456 0.001254 0.0
3.075702 0.965504 -0.001684 0.0
0.666704 0.112255 -0.002896 0.0
1.345567 1.089827 -0.000919 0.0
1.740136 1.456591 0.003110 0.0
1.470736 0.666219 -0.001342 0.0
0.817282 1.062310 0.002803 0.0
3.458550 1.070062 -0.000900 0.0
2.086987 1.612337 0.003000 0.0
3.984034 0.044228 -0.000868 0.0
1.398870 0.463618 -0.000821 0.0
4.170481 0.378697 -0.000080 0.0
1.686691 0.442881 -0.002854 0.0
0.812390 1.295923 -0.001732 0.0
4.390898 0.202651 -0.000875 0.0
1.119947 2.036784 -0.004558 0.0
3.382862 0.679491 -0.001136 0.0
4.262178 0.400494 0.000617 0.0
2.914627 0.169983 -0.003815 0.0
2.241781 0.249006 0.000919 0.0
1.624481 0.613324 0.000431 0.0
2.781621 0.386072 -0.001414 0.0
2.427366 1.086281 -0.001740 0.0
1.928907 1.025963 -0.002029 0.0
3.612569 2.038889 -0.001533 0.0
4.100957 1.569359 0.005316 0.0
1.453685 1.580164 0.001778 0.0
4.243119 1.290382 0.003920 0.0
4.325043 1.913118 0.000809 0.0
1.632706 1.590182 -0.003120 0.0
0.398885 1.630739 0.001340 0.0
0.291395 0.615614 -0.002603 0.0
3.480509 0.104802 -0.002890 0.0
3.539225 1.539063 -0.000312 0.0
0.310912 1.803256 -0.002996 0.0
0.991314 0.863048 0.003035 0.0
0.306776 0.942600 -0.002048 0.0
0.055229 1.895547 0.001589 0.0
3.538292 0.176328 0.002831 0.0
0.336766 0.802712 -0.000175 0.0
1.573502 1.982740 0.002602 0.0
2.294152 0.065494 0.004260 0.0
3.031230 1.099592 0.002606 0.0
2.330616 1.097101 0.000423 0.0
3.857868 0.231591 0.000494 0.0
3.758650 0.203010 0.000709 0.0
0.607399 1.773466 -0.004700 0.0
2.539769 1.429838 -0.005245 0.0
3.671853 0.390859 -0.002820 0.0
0.411988 0.190301 0.002960 0.0
3.749404 0.875394 -0.002048 0.0
1.462869 1.283476 -0.002126 0.0
0.393791 2.087123 0.000802 0.0
2.338631 1.116913 0.002078 0.0
3.058626 2.014229 -0.003413 0.0
0.539503 1.628921 -0.000559 0.0
2.844276 1.790189 -0.001663 0.0
3.706688 1.583056 0.000283 0.0
3.644007 0.896411 -0.006440 0.0
1.482605 0.447723 -0.002989 0.0
0.113260 0.405616 -0.001423 0.0
1.151922 1.951281 0.003752 0.0
2.488282 1.789675 -0.002074 0.0
0.582881 0.772292 0.001903 0.0
3.673939 1.114750 -0.000684 0.0
0.266642 1.417162 0.001811 0.0
1.621451 0.757884 -0.005188 0.0
2.772218 1.443503 -0.004564 0.0
1.793398 0.244981 -0.000187 0.0
1.175711 1.644622 -0.001286 0.0
2.005153 0.391728 -0.002156 0.0
1.061960 1.902718 -0.003272 0.0
2.678822 0.007719 0.000479 0.0
0.222573 0.192466 -0.001891 0.0
3.205255 0.557359 -0.003094 0.0
3.798796 1.374179 0.003061 0.0
3.700267 0.574466 -0.000161 0.0
2.616888 0.363154 -0.003028 0.0
3.702779 1.131549 0.000962 0.0
3.878199 1.505085 0.001111 0.0
1.950388 0.260805 -0.002453 0.0
0.334680 0.403217 0.002875 0.0
4.375768 1.132094 0.003499 0.0
4.177689 1.547041 0.000541 0.0
2.680125 1.480502 -0.001601 0.0
3.654476 0.950873 -0.000615 0.0
1.619764 0.555270 -0.001553 0.0
2.728556 1.512612 -0.003234 0.0
0.929412 1.435597 0.003837 0.0
0.300497 0.340703 0.000860 0.0
3.201153 0.424489 0.000511 0.0
0.841058 0.803213 -0.000191 0.0
2.230199 0.910485 -0.002933 0.0
2.389530 1.170537 0.000045 0.0
3.547460 0.438819 -0.000521 0.0
0.566358 2.046412 0.000569 0.0
3.463611 0.269247 -0.002189 0.0
3.871258 0.070617 -0.001749 0.0
2.129621 0.442920 -0.001934 0.0
1.045868 0.902549 -0.000534 0.0
4.002653 1.977078 0.001905 0.0
3.753135 1.262625 0.004840 0.0
1.585972 1.528579 -0.002893 0.0
0.053912 1.054626 -0.003054 0.0
4.004063 0.267312 0.000024 0.0
3.648870 1.320675 -0.000712 0.0
0.119898 0.470099 -0.003506 0.0
3.814549 1.753031 0.001637 0.0
3.046707 1.386644 -0.001285 0.0
3.455129 2.074450 -0.002216 0.0
3.448130 1.524585 -0.001656 0.0
0.766545 1.999126 0.001251 0.0
3.826559 0.785393 0.002067 0.0
2.243642 1.681994 -0.000151 0.0
1.035798 1.748466 -0.001535 0.0
0.716181 0.785036 -0.004556 0.0
4.272276 0.384241 -0.001970 0.0
1.231426 1.456550 0.002514 0.0
3.465488 1.484208 0.000364 0.0
0.075286 1.207726 0.002231 0.0
3.521157 2.004337 -0.002560 0.0
2.901161 2.067327 -0.000939 0.0
3.858757 0.619485 -0.003418 0.0
0.662107 1.920552 0.000498 0.0
3.234810 0.931413 0.001625 0.0
0.080132 0.343061 0.001623 0.0
3.413424 1.090246 0.002775 0.0
4.125275 0.766740 -0.000652 0.0
2.176521 1.589465 -0.002815 0.0
2.703976 0.394479 -0.004172 0.0
2.127098 1.305205 -0.000878 0.0
3.318863 1.960516 0.000274 0.0
4.383214 1.621834 0.005004 0.0
3.293566 1.691688 0.003101 0.0
1.220530 1.807083 -0.004018 0.0
3.769324 0.902463 -0.000718 0.0
3.289468 1.281756 0.000037 0.0
0.061280 1.114518 0.002217 0.0
1.754706 0.225690 -0.000294 0.0
1.567451 0.685338 -0.001946 0.0
1.493980 1.280914 -0.001132 0.0
4.243725 0.591472 0.000055 0.0
3.557043 0.635685 -0.000266 0.0
3.221336 0.966956 0.003840 0.0
0.096122 0.688519 0.003333 0.0
2.230234 1.648670 -0.001140 0.0
1.633600 0.787725 -0.000698 0.0
0.217379 0.980817 0.002698 0.0
2.589580 1.488845 -0.000266 0.0
2.746070 0.333607 -0.002465 0.0
3.774552 2.036020 -0.003104 0.0
2.815551 0.617651 0.001265 0.0
2.582305 1.572777 0.001310 0.0
4.171831 1.152281 -0.000939 0.0
3.841297 1.811039 -0.002025 0.0
0.051051 1.166164 -0.001697 0.0
3.522483 0.720388 -0.000540 0.0
0.798355 0.973095 -0.001465 0.0
1.440434 1.328275 0.000983 0.0
1.753866 1.206472 -0.001624 0.0
4.231700 1.836345 -0.001176 0.0
0.628572 2.072340 0.005449 0.0
2.472768 0.890904 0.001976 0.0
2.489294 0.363619 -0.003297 0.0
1.910183 1.174140 0.000235 0.0
1.978646 1.359899 -0.000786 0.0
0.612068 0.835753 -0.001302 0.0
3.391327 0.793422 0.001464 0.0
3.381106 1.182934 -0.003077 0.0
2.497708 0.994288 0.002365 0.0
0.016608 1.864174 -0.001009 0.0
2.603032 1.044775 -0.000592 0.0
0.012448 1.509118 -0.004383 0.0
3.588153 2.045813 -0.000145 0.0
0.062624 0.844510 -0.005612 0.0
0.298904 1.269985 0.001766 0.0
2.420225 0.729735 0.004245 0.0
3.525907 1.794992 0.003104 0.0
1.668900 1.227563 -0.004771 0.0
1.367262 0.322043 -0.000177 0.0
1.653971 0.011991 -0.001615 0.0
4.183556 0.591205 -0.005321 0.0
0.773040 0.921412 -0.003758 0.0
1.939841 1.701689 0.001207 0.0
1.088979 0.978176 -0.000016 0.0
0.869366 0.310953 -0.001846 0.0
1.357834 1.749752 -0.000978 0.0
1.505361 1.832439 -0.004295 0.0
3.377167 1.247656 -0.001105 0.0
2.797635 2.008498 0.003368 0.0
0.194259 0.289738 0.004655 0.0
3.800012 1.244784 0.000450 0.0
0.213808 1.335701 0.000147 0.0
0.150592 1.830728 0.001642 0.0
0.452132 0.937336 0.002599 0.0
0.507977 0.481037 0.000104 0.0
4.374163 1.849175 0.000659 0.0
1.831970 1.787867 0.000960 0.0
2.911862 0.999156 0.003122 0.0
3.953615 0.294114 -0.003788 0.0
0.446733 0.426515 0.000502 0.0
3.286775 1.538056 0.000161 0.0
2.602083 1.763521 0.003939 0.0
1.200318 1.451624 0.001506 0.0
1.928355 0.252317 -0.002210 0.0
1.178281 0.660459 0.001566 0.0
2.253751 0.378131 0.000247 0.0
1.563134 1.127503 0.002016 0.0
1.369368 1.775383 -0.000659 0.0
1.853316 0.472099 0.003835 0.0
2.714307 0.599602 0.001424 0.0
1.698907 1.747925 0.004052 0.0
0.348107 1.348847 -0.003051 0.0
3.067275 0.824800 -0.003794 0.0
1.984726 1.398069 -0.001673 0.0
2.770676 0.609039 0.000876 0.0
2.709748 0.286367 0.003635 0.0
0.924094 0.342539 -0.003460 0.0
0.326439 0.847403 -0.001019 0.0
2.545997 1.670800 -0.000808 0.0
0.066080 1.233548 0.003089 0.0
0.443901 1.519725 -0.000885 0.0
2.809923 0.935492 0.002469 0.0
3.481961 0.198881 0.000693 0.0
0.066758 0.066546 -0.002764 0.0
1.493800 1.615777 0.000720 0.0
3.493629 0.164366 0.002018 0.0
4.179618 0.128883 0.001260 0.0
1.288589 0.533918 0.003220 0.0
4.097149 0.340734 0.001813 0.0
2.648177 1.534843 -0.001631 0.0
1.998231 0.560168 -0.000878 0.0
1.078101 1.292339 0.000627 0.0
2.641488 0.809902 0.002702 0.0
0.567774 1.323598 0.001245 0.0
0.256682 0.371483 0.000013 0.0
0.803534 0.273740 -0.000536 0.0
3.768081 0.609718 -0.003396 0.0
0.382716 1.668561 -0.002396 0.0
4.087807 1.011082 -0.001037 0.0
1.186248 0.925171 0.001703 0.0
3.300688 0.649309 0.006696 0.0
4.093507 1.621229 -0.002677 0.0
0.635702 0.458672 0.003573 0.0
1.307529 0.947638 0.001927 0.0
3.280461 1.097079 0.001182 0.0
3.756968 0.749607 0.003681 0.0
3.167761 1.014447 0.003205 0.0
4.164564 1.460106 0.003467 0.0
3.808019 0.598804 -0.002452 0.0
3.124455 0.126924 -0.000524 0.0
2.554459 1.187867 -0.000697 0.0
4.063909 1.347181 -0.001644 0.0
1.447536 0.324621 -0.003947 0.0
2.973476 1.760525 0.000260 0.0
2.816095 0.059410 0.000616 0.0
2.377226 0.468001 -0.000130 0.0
2.656177 2.070397 -0.000957 0.0
0.248411 1.766425 -0.002195 0.0
0.492590 1.430365 -0.003142 0.0
3.422529 1.989976 -0.000716 0.0
3.504334 0.089180 0.002704 0.0
1.116241 0.583038 -0.002361 0.0
4.182130 1.310511 0.001522 0.0
3.720275 0.905271 -0.004248 0.0
3.402337 0.719942 -0.002148 0.0
1.498145 2.013107 0.001262 0.0
0.837368 0.372196 -0.002286 0.0
0.619854 0.834651 -0.000226 0.0
2.325241 0.447359 0.000646 0.0
1.761493 1.449724 0.003539 0.0
1.951891 1.544274 0.000020 0.0
4.364788 0.537298 0.000058 0.0
3.084538 1.131905 0.002140 0.0
1.167138 1.640705 0.002359 0.0
1.850119 0.304724 0.000204 0.0
3.493276 1.251541 -0.001833 0.0
1.824090 1.592834 0.002844 0.0
0.362742 1.664564 0.001939 0.0
3.602604 0.409858 0.000669 0.0
2.963821 0.192357 0.003220 0.0
3.589244 1.561578 0.000933 0.0
0.615417 0.028016 0.007867 0.0
0.159891 1.928576 0.000378 0.0
0.133710 1.687675 0.001135 0.0
2.799074 0.907658 0.005027 0.0
4.329684 0.087301 0.000827 0.0
2.970126 1.730768 0.001171 0.0
3.480423 0.684285 0.000090 0.0
2.085733 1.719487 0.001467 0.0
4.067815 0.629740 -0.003247 0.0
2.588645 0.377679 0.000242 0.0
2.055982 0.163266 0.000286 0.0
2.280422 0.231262 0.004625 0.0
1.376809 1.720712 0.002969 0.0
0.786503 0.725411 -0.002571 0.0
1.478615 0.282571 0.004297 0.0
2.859320 1.415951 0.001266 0.0
3.282103 1.998680 -0.000723 0.0
2.829313 1.869225 -0.000493 0.0
2.908904 1.455107 -0.002284 0.0
0.033162 1.385319 0.000313 0.0
1.831674 0.802368 -0.001255 0.0
3.509581 1.937167 -0.002117 0.0
3.646375 0.308895 0.003005 0.0
1.949481 1.952001 0.001258 0.0
2.501949 0.589384 0.002016 0.0
2.781606 1.734348 0.001053 0.0
3.199976 1.194019 0.002408 0.0
2.967673 1.946391 0.001220 0.0
3.111295 0.938329 0.003586 0.0
1.803764 1.507147 -0.003337 0.0
1.094719 1.783600 -0.000403 0.0
2.937378 1.006221 -0.001950 0.0
0.695969 0.542730 0.000236 0.0
3.018227 1.411164 0.002064 0.0
1.732011 1.034144 0.000920 0.0
3.349953 0.953217 0.001378 0.0
1.042576 1.511127 0.003379 0.0
0.626542 1.178901 -0.002286 0.0
2.463872 2.037426 -0.002761 0.0
0.812576 1.266684 0.000231 0.0
2.732759 1.189011 0.002849 0.0
0.337037 0.799065 -0.002521 0.0
2.140625 0.660182 -0.003455 0.0
2.516421 1.877025 0.000195 0.0
0.103200 1.462717 0.004195 0.0
4.330147 0.628294 -0.000600 0.0
1.476927 0.842986 0.000091 0.0
2.127123 1.302081 0.002814 0.0
3.243697 0.653405 0.002311 0.0
3.104676 -0.003296 -0.000474 0.0
1.704100 0.849317 -0.001976 0.0
3.572596 0.035821 -0.000929 0.0
3.247717 0.930366 0.000239 0.0
1.948979 0.859147 -0.001455 0.0
3.853668 0.205972 0.000017 0.0
3.454517 1.307669 0.000660 0.0
0.887031 0.995110 -0.000638 0.0
2.778433 1.217960 -0.004869 0.0
3.193254 0.951983 -0.000934 0.0
4.068131 0.997082 -0.003596 0.0
4.150511 1.729874 -0.001168 0.0
1.419445 1.509860 0.000354 0.0
0.876071 0.929089 -0.004417 0.0
1.371272 1.401177 0.002203 0.0
4.021337 1.018262 0.000870 0.0
0.418064 1.945900 -0.001144 0.0
1.883352 0.133928 0.003888 0.0
2.001099 2.088208 0.002564 0.0
2.264522 1.166729 0.002161 0.0
2.874368 0.199055 0.001507 0.0
3.197335 1.440541 0.002450 0.0
1.917085 1.337657 0.001913 0.0
0.107369 0.350969 0.001230 0.0
0.537900 0.547145 -0.002044 0.0
2.147608 1.399373 -0.002541 0.0
4.283782 2.058619 -0.000791 0.0
3.843245 0.692224 -0.000637 0.0
2.783915 1.302439 -0.002138 0.0
0.051919 0.128437 -0.002997 0.0
0.291464 1.941119 0.001415 0.0
0.911080 0.377672 -0.002125 0.0
0.882337 1.786456 0.004566 0.0
0.777567 0.825069 0.001644 0.0
3.359311 0.947938 -0.000687 0.0
2.380224 0.632800 -0.001807 0.0
2.156119 0.618469 -0.001683 0.0
3.955087 0.786005 -0.001587 0.0
1.513863 1.770208 0.000197 0.0
0.188142 0.424062 -0.003001 0.0
1.706352 0.292992 -0.004024 0.0
0.786803 0.034587 -0.001079 0.0
1.819352 0.733116 0.005856 0.0
0.815835 0.493697 -0.000179 0.0
1.103527 0.415929 0.001859 0.0
0.645268 1.059210 0.003765 0.0
0.465982 0.274449 0.001849 0.0
2.803297 0.197359 0.004119 0.0
4.300039 0.782315 -0.000987 0.0
3.101240 2.046943 0.003030 0.0
0.089770 0.220330 -0.003092 0.0
0.870755 0.662888 -0.001827 0.0
1.071306 1.928122 -0.001922 0.0
4.025108 1.115641 0.002967 0.0
0.117022 0.499384 -0.000101 0.0
1.113091 0.677965 -0.000792 0.0
2.265039 0.889771 0.001323 0.0
0.243280 0.794294 0.008356 0.0
2.168780 0.646988 -0.002589 0.0
0.735319 0.680519 -0.000620 0.0
0.458605 0.289189 -0.004168 0.0
1.194634 0.719316 -0.002090 0.0
0.944167 0.763476 -0.002194 0.0
0.705869 0.104862 0.003019 0.0
2.267935 0.471351 0.004011 0.0
2.999902 1.575310 0.003341 0.0
4.067165 1.541368 -0.003027 0.0
1.032559 0.853941 0.001940 0.0
2.871086 0.869000 0.001259 0.0
1.666461 1.389776 -0.001850 0.0
2.662615 0.212892 0.002129 0.0
0.142086 0.650489 0.000015 0.0
3.365301 0.628070 0.002896 0.0
0.543769 1.215953 0.004977 0.0
3.746578 1.482117 0.000885 0.0
3.849673 1.955723 -0.004461 0.0
1.148571 1.944386 0.000413 0.0
2.808221 1.835967 -0.000135 0.0
3.984566 0.593036 -0.000406 0.0
0.836549 0.096450 -0.000211 0.0
0.037899 0.353487 -0.001003 0.0
0.134314 0.850791 0.003060 0.0
3.510444 0.417186 -0.001127 0.0
1.229405 0.035253 -0.001719 0.0
2.543633 1.418557 -0.002498 0.0
3.689782 0.478493 -0.002272 0.0
0.472530 1.465710 -0.002293 0.0
1.232738 0.525961 0.001415 0.0
3.995599 0.712027 -0.002936 0.0
0.238242 1.688967 -0.003722 0.0
3.349911 0.424873 0.005592 0.0
2.186837 0.854006 -0.001206 0.0
2.175031 1.853459 0.000772 0.0
1.645888 1.903115 -0.001864 0.0
0.669941 1.170706 0.000487 0.0
1.544735 0.809855 -0.001950 0.0
3.296824 1.481094 0.001085 0.0
1.687191 1.297476 0.002184 0.0
1.327998 1.172548 0.000459 0.0
0.841956 1.816824 -0.000378 0.0
2.584403 1.357793 -0.000532 0.0
3.316191 1.359451 0.000219 0.0
2.515541 1.602038 -0.005265 0.0
0.945428 1.549988 -0.001088 0.0
3.560096 0.364042 0.000240 0.0
0.855124 1.071973 -0.003390 0.0
2.335367 1.176829 -0.003899 0.0
4.231455 1.375417 -0.000537 0.0
3.003494 0.048245 -0.000188 0.0
2.731509 0.503668 -0.002645 0.0
2.532229 0.658527 0.001819 0.0
3.637627 0.563213 -0.001005 0.0
3.848481 0.856325 0.001480 0.0
4.038870 0.146735 -0.001118 0.0
2.698014 1.544823 0.003736 0.0
1.016200 0.114282 0.001347 0.0
1.475690 1.055409 0.000558 0.0
0.194107 1.417334 0.000774 0.0
2.670666 1.562777 -0.006083 0.0
4.009398 0.226049 0.000788 0.0
1.343149 0.771841 0.003151 0.0
0.707211 0.462763 -0.003425 0.0
3.133180 0.911637 -0.001890 0.0
2.131469 0.399125 -0.007157 0.0
3.425792 0.049236 0.004297 0.0
2.320964 1.360365 -0.001664 0.0
3.925451 1.442704 0.005518 0.0
1.382388 0.457721 -0.000980 0.0
3.017683 1.633343 0.001929 0.0
1.882833 1.223966 -0.000551 0.0
3.143275 0.749388 0.003676 0.0
3.122792 0.417025 0.000233 0.0
3.669531 1.064028 -0.002269 0.0
0.944903 0.245488 0.000592 0.0
2.017703 0.132831 -0.004909 0.0
0.990676 1.049974 -0.001718 0.0
1.954187 0.488534 -0.000349 0.0
2.811922 0.007398 -0.001613 0.0
0.567617 0.422727 -0.003887 0.0
3.560641 1.767907 -0.004517 0.0
1.615383 1.278040 0.000751 0.0
2.209961 1.076265 0.000166 0.0
1.243101 0.528149 -0.001612 0.0
3.544999 2.039937 -0.008051 0.0
3.065789 2.003025 -0.000594 0.0
1.071888 2.023217 -0.000255 0.0
0.990301 1.207882 -0.000194 0.0
1.519047 0.358446 0.003711 0.0
4.199872 0.879658 -0.003526 0.0
0.962094 0.421631 0.003713 0.0
1.181252 1.233914 -0.002061 0.0
3.413894 1.670711 -0.000344 0.0
0.879111 0.974190 0.002180 0.0
3.519987 0.348979 0.006274 0.0
0.695715 1.933282 0.001553 0.0
0.184816 0.139379 -0.000927 0.0
1.293389 1.453028 -0.000542 0.0
1.064207 1.843985 -0.003713 0.0
2.109029 0.039795 0.001465 0.0
2.014052 1.454195 -0.001801 0.0
3.139855 0.452065 0.001602 0.0
4.142173 0.345113 -0.001241 0.0
1.848916 0.801656 0.000489 0.0
3.826340 0.861464 -0.000708 0.0
2.096984 0.803320 -0.003558 0.0
2.288572 0.691628 0.001741 0.0
3.258136 1.747709 0.002333 0.0
2.285325 1.474033 0.002133 0.0
1.111884 1.599205 0.000013 0.0
2.085415 0.715217 -0.000652 0.0
2.396666 2.011750 0.000106 0.0
3.997904 2.026419 0.004570 0.0
1.364513 1.153679 -0.002860 0.0
0.488505 0.692330 -0.004189 0.0
2.626677 1.854609 -0.001128 0.0
1.729711 1.983150 -0.001755 0.0
4.050005 0.866764 -0.003514 0.0
1.304957 0.650792 -0.002079 0.0
4.187011 0.634798 0.000312 0.0
0.845766 1.289194 -0.000352 0.0
4.128719 0.076119 0.000117 0.0
2.961999 1.272843 0.002539 0.0
1.490856 1.290168 0.002291 0.0
2.081911 1.065543 -0.001618 0.0
0.188206 0.522282 0.000826 0.0
1.963584 1.946688 0.007317 0.0
2.542341 0.010281 0.001253 0.0
3.893905 0.940240 0.002714 0.0
1.614627 2.070235 0.000476 0.0
1.239441 0.216029 0.000040 0.0
4.076545 0.940905 -0.001473 0.0
0.266464 1.624777 -0.004048 0.0
2.013362 0.201227 -0.001007 0.0
0.193627 1.331646 -0.000977 0.0
0.487122 1.421890 0.000401 0.0
0.577933 1.998971 -0.002090 0.0
0.700091 0.503542 0.003492 0.0
3.634738 1.375525 0.001953 0.0
0.904764 1.830023 -0.003272 0.0
2.117308 1.337648 -0.001881 0.0
2.640641 1.450291 -0.000059 0.0
4.260456 1.447905 0.002143 0.0
0.593095 1.832304 0.002056 0.0
3.662670 0.150537 -0.001645 0.0
1.278403 1.977898 0.000741 0.0
0.067982 2.018813 -0.006285 0.0
2.628797 0.239665 -0.003470 0.0
3.308790 0.773803 -0.001948 0.0
3.974098 0.346191 0.000970 0.0
2.897590 0.837594 -0.001933 0.0
2.459943 1.275828 0.000334 0.0
3.879107 0.360543 0.000835 0.0
0.816675 1.663201 0.001628 0.0
2.020039 0.375892 -0.001449 0.0
0.661455 0.782842 -0.001580 0.0
4.073828 1.781061 -0.000863 0.0
3.150792 0.137603 -0.000370 0.0
0.741115 1.205697 0.001024 0.0
1.813124 0.163028 -0.002734 0.0
4.136177 0.621445 -0.000959 0.0
0.659228 1.576399 0.002857 0.0
1.543045 1.915103 0.002754 0.0
0.183820 1.042659 -0.004036 0.0
0.823130 0.418244 -0.002683 0.0
3.063966 1.626875 -0.000869 0.0
0.205666 0.684472 0.001853 0.0
3.179216 0.990922 0.002820 0.0
3.016728 1.732269 0.000531 0.0
1.600117 0.198430 0.004117 0.0
4.373223 1.218534 0.000998 0.0
1.416639 1.458638 -0.002308 0.0
2.823000 1.502810 -0.005139 0.0
2.388018 1.168494 -0.000098 0.0
3.257483 1.589841 0.000860 0.0
0.202827 2.068561 -0.002440 0.0
2.014925 0.624096 0.002260 0.0
3.368496 1.189581 -0.006340 0.0
3.618711 1.657931 -0.001251 0.0
1.508782 0.791797 0.000677 0.0
2.211486 1.434521 0.002053 0.0
1.640620 1.887571 -0.001340 0.0
2.956838 1.947409 0.003293 0.0
3.903571 0.714411 0.001447 0.0
0.212082 1.702005 0.001265 0.0
2.544029 2.008161 0.000107 0.0
1.962918 0.673981 0.003407 0.0
0.356930 1.436515 -0.002573 0.0
3.023512 1.350324 -0.000091 0.0
3.029059 1.256015 -0.002069 0.0
0.681181 0.146254 -0.000176 0.0
1.238346 0.747040 0.000459 0.0
1.299348 1.260922 0.000442 0.0
3.360016 1.274588 -0.001295 0.0
0.091190 1.461178 -0.002172 0.0
1.389505 1.016350 0.004688 0.0
2.777245 1.431702 -0.001240 0.0
2.626962 0.580953 0.006325 0.0
0.446120 1.732378 -0.000947 0.0
1.210767 2.002370 -0.003403 0.0
0.504619 1.888069 0.000349 0.0
1.830531 1.835479 -0.003460 0.0
1.663484 1.659476 0.001028 0.0
0.932417 1.192786 -0.005777 0.0
0.809780 1.424090 -0.000448 0.0
3.465043 0.523470 0.002763 0.0
1.022961 1.308454 0.002457 0.0
0.643458 0.867191 -0.007087 0.0
3.451693 1.063778 -0.003281 0.0
3.297427 0.943356 -0.003775 0.0
2.706094 0.690077 0.002308 0.0
3.055372 2.069915 -0.002887 0.0
3.288928 1.929456 0.004020 0.0
0.752045 0.388889 0.000693 0.0
3.777890 1.458235 -0.000326 0.0
0.225774 0.147821 -0.002858 0.0
1.259341 1.829049 -0.000319 0.0
3.543326 0.484420 0.001933 0.0
1.083102 1.673007 -0.004827 0.0
0.426081 0.931801 -0.002856 0.0
0.587860 1.335364 -0.003945 0.0
4.167144 0.147960 0.002017 0.0
1.121447 0.325750 0.000764 0.0
0.941020 2.070318 -0.000134 0.0
2.838744 1.687198 -0.004911 0.0
1.177240 1.063930 -0.004377 0.0
2.638993 0.091456 0.003730 0.0
0.127018 1.015193 -0.002285 0.0
2.738119 1.290631 -0.000140 0.0
3.517033 0.866995 0.001897 0.0
2.932318 1.659179 -0.001047 0.0
1.181236 0.041937 0.000777 0.0
2.889073 0.357983 0.002574 0.0
1.950486 2.069215 0.003718 0.0
4.342224 0.142195 -0.000460 0.0
1.514192 1.553984 0.001826 0.0
1.485006 1.891611 -0.000345 0.0
0.182333 2.001291 0.003305 0.0
0.352287 0.988559 0.000908 0.0
1.351386 1.714782 0.000597 0.0
0.391233 0.100478 -0.003730 0.0
1.392339 0.907486 0.003500 0.0
3.939872 2.067336 0.001299 0.0
4.244733 0.305096 -0.002951 0.0
3.849348 1.998355 -0.000770 0.0
0.624339 0.145957 0.000418 0.0
1.846748 1.097297 -0.000869 0.0
3.901069 0.237102 0.000376 0.0
0.316155 0.543089 -0.001927 0.0
4.051171 1.512996 -0.002737 0.0
4.222886 0.874522 -0.005175 0.0
3.379564 1.563164 -0.001718 0.0
0.645093 1.350605 0.000153 0.0
3.746804 1.638397 0.004850 0.0
1.431437 0.872265 -0.001805 0.0
2.788261 0.861391 0.002808 0.0
0.888529 0.164209 0.002963 0.0
0.643157 0.181513 0.000970 0.0
3.951004 1.751195 -0.002189 0.0
2.731446 0.117474 0.002798 0.0
2.897881 1.014767 -0.000290 0.0
2.913282 1.066752 -0.000509 0.0
2.766632 1.866002 0.004789 0.0
3.920941 1.771097 -0.000958 0.0
0.426763 0.723535 -0.000839 0.0
4.213212 0.967662 0.003003 0.0
2.442648 0.936925 0.000375 0.0
2.114540 1.521736 -0.000820 0.0
1.087463 0.375709 -0.004340 0.0
3.894696 1.270997 0.000429 0.0
3.095728 1.310668 -0.000287 0.0
3.699882 0.326213 0.000597 0.0
4.380371 1.605900 -0.002219 0.0
3.949201 0.448484 0.003261 0.0
4.224967 0.168852 -0.005070 0.0
2.713394 1.817176 0.001741 0.0
3.204004 0.532935 -0.001444 0.0
4.005616 1.282986 -0.003931 0.0
3.899672 1.247574 0.000651 0.0
3.972265 1.208564 -0.000475 0.0
0.493534 1.203184 0.001573 0.0
1.524443 0.185718 -0.002202 0.0
4.274473 0.887674 0.000738 0.0
1.654861 0.383386 -0.003903 0.0
0.110119 0.329050 -0.001026 0.0
2.009221 0.829212 -0.001390 0.0
1.677332 1.664872 0.000795 0.0
1.304812 0.392712 -0.001721 0.0
3.752475 0.567746 -0.000924 0.0
1.188420 1.231713 0.001640 0.0
2.902299 0.783930 0.005632 0.0
3.163388 0.702904 0.001452 0.0
3.701824 0.091780 -0.002513 0.0
4.060915 0.477793 -0.002036 0.0
3.992872 1.746799 -0.001645 0.0
2.107009 1.232515 -0.000174 0.0
2.728760 0.098641 -0.001517 0.0
3.627936 0.004202 -0.000112 0.0
0.963525 1.646202 0.002676 0.0
2.545443 0.572446 0.004186 0.0
2.301110 0.992254 -0.000558 0.0
0.802120 0.853763 0.005385 0.0
1.888993 1.385313 0.003636 0.0
2.438410 1.703109 0.000045 0.0
3.099255 0.641127 -0.001723 0.0
1.400122 0.041153 0.004668 0.0
3.200194 1.633419 0.004685 0.0
0.486612 0.257841 -0.005027 0.0
2.170142 1.244488 -0.000625 0.0
2.233466 1.494487 -0.000439 0.0
4.036785 0.066742 0.004193 0.0
0.264783 0.907721 -0.001697 0.0
0.420500 0.974261 -0.001591 0.0
3.121197 0.024572 0.001560 0.0
3.841317 0.926681 -0.005130 0.0
1.013667 0.693787 0.002491 0.0
3.089586 0.975459 -0.002459 0.0
4.117806 0.485857 0.000959 0.0
3.210981 1.960956 -0.000131 0.0
0.369181 0.293926 0.004471 0.0
2.215924 0.591146 -0.005049 0.0
0.890101 1.197348 -0.002911 0.0
1.643597 1.637343 -0.000964 0.0
2.682479 1.075090 0.002276 0.0
3.139488 1.824879 0.002084 0.0
1.759354 1.891145 -0.000507 0.0
4.058057 1.071986 0.001629 0.0
3.309622 1.838708 -0.000948 0.0
2.446627 1.649883 0.001565 0.0
0.353923 1.533111 -0.001684 0.0
3.469903 0.620071 0.000214 0.0
2.707492 1.321551 0.002643 0.0
3.079938 2.048648 0.001535 0.0
3.311941 1.926694 0.001975 0.0
3.188201 1.237760 -0.000078 0.0
2.652112 0.455361 0.002640 0.0
3.923161 1.583896 -0.002408 0.0
0.353769 1.445396 0.003146 0.0
1.901036 1.497462 0.000938 0.0
0.226279 0.796228 0.004724 0.0
2.140303 0.547956 -0.000566 0.0
2.345091 0.416863 0.000548 0.0
1.421320 1.250984 -0.000487 0.0
1.622271 1.624824 0.000411 0.0
0.034045 0.604784 -0.004667 0.0
4.248794 1.423858 -0.001039 0.0
1.724280 1.121645 0.004550 0.0
1.383004 0.658079 0.000929 0.0
0.235055 1.768855 0.001272 0.0
2.511671 1.808698 -0.003075 0.0
0.537029 0.633381 0.002319 0.0
0.719418 2.060802 -0.001237 0.0
1.198469 1.840963 -0.001209 0.0
2.188657 0.357985 -0.001669 0.0
0.199374 2.086434 0.002198 0.0
2.481950 0.369439 0.003957 0.0
3.214049 1.913349 -0.000079 0.0
2.239435 0.619742 0.002215 0.0
1.176615 0.520992 -0.005091 0.0
3.445288 0.609362 -0.001881 0.0
1.923828 0.156567 -0.001106 0.0
2.692090 1.217160 0.002607 0.0
0.478528 1.707560 0.001697 0.0
3.564333 0.470813 0.000166 0.0
0.459417 1.488992 -0.004288 0.0
2.685710 0.814272 -0.003340 0.0
0.999291 1.773188 -0.004145 0.0
4.318463 1.700773 0.006201 0.0
3.813851 0.069688 0.001449 0.0
0.961997 0.767814 -0.000649 0.0
1.657596 1.209022 0.004771 0.0
0.207806 0.198861 0.005062 0.0
0.110634 1.298416 -0.001880 0.0
4.364334 0.421501 -0.000135 0.0
1.208717 0.397145 0.005026 0.0
2.369949 1.303773 -0.004213 0.0
1.875520 1.291238 -0.002746 0.0
2.389762 2.067793 0.000682 0.0
0.746451 0.816677 0.000321 0.0
4.318976 1.920932 0.002255 0.0
0.562297 0.347027 0.004210 0.0
1.449295 0.624186 -0.000952 0.0
0.470544 1.491184 -0.000568 0.0
4.271523 1.769362 0.000285 0.0
0.822796 1.020475 0.002405 0.0
1.586954 0.519648 0.001514 0.0
3.394544 1.118460 0.003852 0.0
3.066011 0.346872 -0.000583 0.0
4.246767 0.004428 0.000504 0.0
0.082867 1.493052 -0.001564 0.0
3.535018 0.006268 0.002899 0.0
2.622048 0.755957 0.002845 0.0
1.494446 1.488952 -0.001872 0.0
3.612430 1.222638 -0.003528 0.0
1.492514 0.362002 -0.003006 0.0
3.820830 0.092481 0.004195 0.0
1.325788 1.552129 0.002030 0.0
2.733430 1.754384 -0.000269 0.0
3.288306 0.021750 0.000803 0.0
3.591369 1.783352 0.000489 0.0
3.105654 0.936642 -0.000406 0.0
1.028436 1.865793 0.001266 0.0
3.697541 2.034526 0.000607 0.0
0.667185 1.859770 -0.000264 0.0
2.182181 0.057593 0.003581 0.0
0.541155 0.678624 0.000722 0.0
3.720536 0.300930 0.000433 0.0
2.753958 1.530372 -0.001325 0.0
3.572184 1.485783 -0.001411 0.0
3.915081 0.350039 -0.001329 0.0
1.312702 0.291459 0.001368 0.0
2.652346 0.858434 -0.002480 0.0
4.111382 0.560263 -0.002420 0.0
3.460003 1.134532 -0.001324 0.0
4.231851 0.481680 0.001271 0.0
1.952334 0.624122 -0.002825 0.0
3.766836 0.212917 0.003079 0.0
0.190132 0.653766 0.001739 0.0
0.677262 0.970948 -0.000948 0.0
0.698686 1.726975 0.000734 0.0
2.076346 1.400192 0.002901 0.0
1.671829 0.147303 0.002270 0.0
0.478824 1.364504 0.003727 0.0
0.582094 1.233484 -0.002409 0.0
2.794591 0.882482 0.000532 0.0
3.054246 0.922666 -0.001445 0.0
1.118740 0.956858 0.000756 0.0
2.829356 0.360286 0.001288 0.0
1.484532 1.644545 0.001041 0.0
0.486274 1.582278 0.000152 0.0
0.267135 1.589577 -0.003061 0.0
3.601542 1.194267 0.000927 0.0
2.450919 1.372093 -0.006621 0.0
3.660008 0.609505 0.002015 0.0
3.247209 1.178273 -0.002061 0.0
3.452166 1.865267 0.001418 0.0
2.899149 0.498392 -0.002180 0.0
2.413878 2.077609 -0.003990 0.0
1.937583 0.401126 -0.007139 0.0
3.198257 1.883345 -0.000042 0.0
2.811193 0.100592 0.005121 0.0
4.387990 0.616496 0.002103 0.0
1.293130 0.584242 0.002884 0.0
2.009785 0.940181 -0.002043 0.0
0.502954 1.165440 -0.002789 0.0
3.943908 1.457563 -0.001739 0.0
2.343504 1.695898 0.002227 0.0
1.820820 0.114845 0.000499 0.0
2.168428 0.714393 0.004158 0.0
2.298327 1.161613 0.001366 0.0
2.856905 1.964261 -0.000549 0.0
3.904173 0.899568 0.001830 0.0
3.738504 0.907825 0.000693 0.0
1.703673 1.151378 -0.003747 0.0
1.784982 0.430066 -0.001735 0.0
1.076024 1.362477 -0.000216 0.0
4.140531 0.466526 0.001884 0.0
2.314784 1.841907 -0.001702 0.0
2.248674 0.368588 -0.000831 0.0
3.941402 0.951193 0.003461 0.0
3.736111 1.709480 -0.002889 0.0
3.471379 0.411794 -0.001620 0.0
2.686850 1.037560 0.007000 0.0
1.406809 0.084057 -0.001206 0.0
3.159848 1.930978 -0.005819 0.0
1.993677 1.176258 0.005930 0.0
2.705914 1.490426 0.002746 0.0
4.183727 0.556137 -0.000963 0.0
2.403293 0.276912 -0.000474 0.0
2.367146 1.095063 -0.002136 0.0
1.897904 1.270468 -0.003106 0.0
3.213976 1.798042 0.002611 0.0
2.322896 0.851238 -0.001711 0.0
1.490564 0.509286 0.001368 0.0
0.982989 1.332724 -0.000942 0.0
2.219595 0.190397 0.002196 0.0
1.034605 1.007424 -0.003030 0.0
0.126035 1.900500 0.001981 0.0
2.860714 1.137421 0.002884 0.0
4.055033 1.281792 -0.004080 0.0
0.939000 0.578457 -0.004241 0.0
0.381634 0.630159 -0.000983 0.0
2.551285 1.409044 0.003421 0.0
1.615250 1.283910 -0.002687 0.0
1.704409 1.170924 -0.001391 0.0
4.312167 1.852119 -0.004825 0.0
2.161854 0.212027 -0.002399 0.0
0.776378 1.795614 -0.000099 0.0
0.725411 0.129340 0.003076 0.0
1.330971 1.451576 -0.002604 0.0
3.246278 0.735211 -0.000049 0.0
3.297243 1.419060 -0.000405 0.0
0.700773 0.132260 -0.000118 0.0
3.115571 1.668092 0.002576 0.0
0.664948 1.400039 -0.003808 0.0
1.006464 0.597230 0.000286 0.0
0.564755 0.649967 0.001498 0.0
1.475661 0.614075 0.000013 0.0
0.034516 0.823967 0.001210 0.0
2.285867 0.053068 -0.000749 0.0
0.883888 1.249583 -0.001602 0.0
3.022850 1.544652 -0.000002 0.0
2.257714 1.031991 -0.003292 0.0
3.967920 0.587386 0.001424 0.0
0.655805 1.186649 -0.000001 0.0
3.714184 2.009747 -0.002254 0.0
3.597646 1.544343 -0.000439 0.0
3.258978 0.934638 0.001077 0.0
0.290550 0.627626 0.000713 0.0
4.311908 1.508654 0.004889 0.0
1.667101 0.241639 0.000005 0.0
1.372708 1.475289 0.002123 0.0
0.818681 1.067167 -0.004031 0.0
1.627994 0.533476 -0.000385 0.0
2.866686 1.521420 -0.002157 0.0
2.612865 1.488050 -0.001338 0.0
4.127159 0.863168 -0.003977 0.0
3.863940 1.900819 0.001210 0.0
3.852353 1.751331 0.001830 0.0
3.600923 1.762100 0.000144 0.0
4.325735 2.036275 -0.001648 0.0
0.661683 0.029990 -0.001924 0.0
0.814239 1.429129 -0.007165 0.0
3.637754 0.016670 0.004442 0.0
4.030543 1.615029 0.000260 0.0
4.117294 1.397273 -0.002446 0.0
3.102321 0.555050 -0.003889 0.0
3.092643 0.937695 0.003189 0.0
3.419213 1.889364 -0.000581 0.0
3.843513 0.492916 -0.001064 0.0
1.366111 1.963186 -0.002038 0.0
0.274592 0.449688 -0.003313 0.0
4.369684 1.978268 0.000782 0.0
3.133677 0.195195 -0.003117 0.0
0.723933 0.867795 -0.000706 0.0
2.533827 0.935327 0.000791 0.0
0.668840 1.792425 -0.000248 0.0
3.765254 0.854128 0.003236 0.0
0.668235 1.636700 0.002465 0.0
1.936728 1.108253 0.002785 0.0
0.961259 0.005327 -0.003905 0.0
3.460851 1.910572 -0.003592 0.0
2.883617 0.906018 0.000381 0.0
2.442637 2.038266 0.000446 0.0
0.009885 1.475566 0.000632 0.0
0.224835 1.558672 0.002646 0.0
4.039239 1.690067 0.001553 0.0
3.674052 1.056599 -0.005069 0.0
4.017916 0.940942 -0.002671 0.0
3.991617 1.254381 -0.000900 0.0
1.290088 0.668908 0.000913 0.0
3.539925 0.262950 -0.001706 0.0
3.504861 0.947859 -0.001378 0.0
1.517557 2.068245 -0.001881 0.0
0.348810 0.969530 -0.000706 0.0
1.453450 1.763487 0.002542 0.0
1.667409 1.609958 0.000165 0.0
1.199569 1.440297 0.006008 0.0
2.713193 1.069587 0.001232 0.0
4.204264 1.041148 -0.002744 0.0
0.728295 0.265415 -0.001427 0.0
3.816468 0.564328 -0.000397 0.0
0.663831 1.361935 0.001679 0.0
1.945559 0.148402 -0.000119 0.0
2.619568 1.210394 0.001335 0.0
1.750641 0.869057 -0.000127 0.0
2.151818 0.940673 -0.000214 0.0
0.105808 1.985481 0.000731 0.0
0.223195 0.075143 -0.001675 0.0
0.338202 1.220330 -0.000279 0.0
2.112070 0.400093 -0.002596 0.0
3.968822 0.123367 0.002114 0.0
3.683548 1.853771 -0.000722 0.0
3.237100 0.661894 -0.000985 0.0
0.057816 1.546957 -0.007538 0.0
2.028380 1.365666 0.003199 0.0
1.692769 0.575350 0.000645 0.0
2.319577 1.098347 0.004040 0.0
0.968496 1.861834 -0.001461 0.0
4.008707 1.204003 -0.001389 0.0
1.040037 0.870032 0.000765 0.0
0.592696 1.820285 -0.003802 0.0
4.199366 1.757401 0.000580 0.0
0.625106 1.280100 -0.000471 0.0
3.861951 1.421126 0.000931 0.0
1.928884 1.205709 0.000288 0.0
0.392633 0.116587 -0.003461 0.0
0.600975 1.964241 0.006558 0.0
0.024218 1.199562 -0.004203 0.0
0.955075 0.680541 -0.000754 0.0
2.459622 2.057729 -0.000146 0.0
0.427469 0.949194 0.000268 0.0
0.851676 1.667054 -0.000649 0.0
3.156011 1.842646 0.000971 0.0
4.283404 1.865425 -0.001127 0.0
0.378235 1.958536 -0.003467 0.0
1.654946 1.180067 0.000585 0.0
1.808734 0.059905 0.003484 0.0
4.185857 0.470663 0.001176 0.0
4.098617 1.883538 -0.004378 0.0
2.017764 1.759166 -0.000981 0.0
0.585888 0.261538 -0.002514 0.0
1.878030 0.163672 -0.003340 0.0
3.299253 1.392611 -0.002817 0.0
1.126730 0.356461 0.000318 0.0
0.002291 1.621733 0.000043 0.0
4.128429 1.523441 -0.000783 0.0
3.490694 0.028893 0.000423 0.0
0.279732 0.021707 -0.003413 0.0
0.282807 1.114157 -0.005406 0.0
3.872513 1.440303 -0.000636 0.0
3.238730 0.830867 -0.001895 0.0
1.871806 1.202147 0.005874 0.0
0.872688 1.510661 -0.003054 0.0
3.893559 1.535312 0.001356 0.0
1.067507 0.448669 0.000195 0.0
0.709295 0.529466 -0.001653 0.0
3.959379 1.157204 -0.002134 0.0
3.264564 0.663047 0.001680 0.0
0.953814 0.078140 0.003004 0.0
0.273625 1.798427 0.005787 0.0
3.433715 1.326875 0.000475 0.0
1.423367 1.159106 0.003213 0.0
0.982862 0.691787 -0.000057 0.0
0.637345 0.779713 0.003921 0.0
2.435742 0.283293 0.000605 0.0
3.999412 0.999241 0.001730 0.0
0.186059 1.595824 -0.002410 0.0
2.643315 1.480260 0.000533 0.0
4.356322 1.333838 0.002126 0.0
2.773880 2.064244 -0.000956 0.0
0.484985 1.157745 0.002936 0.0
1.580843 1.447961 -0.001093 0.0
0.311228 1.419046 -0.002972 0.0
4.063591 1.252836 0.001762 0.0
4.194660 1.271145 -0.006907 0.0
2.572037 0.823753 -0.001496 0.0
0.225440 1.855094 0.000167 0.0
1.932798 0.686365 -0.000608 0.0
1.990729 1.605388 0.000570 0.0
3.401154 0.684778 -0.001448 0.0
1.215380 1.385172 -0.001580 0.0
1.434922 1.424318 -0.002060 0.0
0.525040 0.415953 0.003417 0.0
2.481542 1.532489 -0.002195 0.0
0.385445 1.242227 -0.001012 0.0
1.565710 1.968537 0.001669 0.0
1.114935 1.163462 0.001325 0.0
1.233277 1.233852 -0.000680 0.0
1.357219 0.663990 0.000131 0.0
2.594112 0.595579 0.004311 0.0
0.045561 0.508009 0.001908 0.0
4.063041 0.432534 -0.001445 0.0
1.530942 2.021725 0.001504 0.0
3.282518 0.126220 0.001812 0.0
1.726694 0.191243 0.000642 0.0
4.161030 0.615712 -0.003324 0.0
4.213921 1.037163 0.004097 0.0
2.525057 0.931371 0.002366 0.0
3.688480 0.348612 0.000940 0.0
3.600105 1.444321 -0.002321 0.0
3.849203 0.558616 0.001468 0.0
4.272702 0.754196 0.004390 0.0
2.186745 0.180915 -0.001399 0.0
2.803192 1.180094 0.001830 0.0
1.645416 0.083794 0.001460 0.0
3.724408 0.400681 -0.005011 0.0
3.320925 1.301890 0.001186 0.0
1.409327 1.386453 0.001459 0.0
0.324819 1.561096 -0.002145 0.0
2.522520 1.752687 -0.003414 0.0
2.905820 1.151389 0.000766 0.0
2.201092 2.058531 -0.001465 0.0
3.130043 0.849740 -0.003497 0.0
1.920077 2.023221 -0.002632 0.0
3.475466 0.811598 0.003036 0.0
3.356985 1.105669 -0.000080 0.0
3.499669 1.375551 -0.001507 0.0
2.644311 0.041066 -0.001440 0.0
2.150506 0.674644 0.002486 0.0
4.318655 1.558915 0.000053 0.0
0.609407 1.057132 0.001179 0.0
4.249639 0.274633 -0.001139 0.0
3.641218 1.896797 0.001328 0.0
1.615143 0.068214 -0.000230 0.0
1.294648 2.032007 -0.000149 0.0
0.843298 1.328360 0.000687 0.0
1.712200 1.350339 0.001812 0.0
4.232560 1.022239 0.001263 0.0
2.594251 0.535353 -0.000760 0.0
2.236543 1.163491 -0.000893 0.0
0.787471 0.599363 -0.000914 0.0
0.876546 0.156410 0.000019 0.0
3.898819 0.571314 -0.001628 0.0
1.804885 0.250527 0.001430 0.0
0.105113 0.167395 -0.000729 0.0
0.704581 1.689908 -0.000210 0.0
2.066356 0.470258 -0.004313 0.0
0.212611 0.659571 -0.002022 0.0
0.944596 1.399708 0.003451 0.0
1.604795 0.281917 0.000121 0.0
0.384867 0.527624 -0.000612 0.0
1.025249 1.211398 -0.002737 0.0
3.553269 1.693577 -0.001205 0.0
1.580029 0.385351 -0.003846 0.0
0.703928 1.440933 -0.001973 0.0
0.500348 0.213178 -0.001311 0.0
3.791695 0.936007 -0.004524 0.0
0.526879 0.694362 0.001536 0.0
4.239025 1.347535 -0.001732 0.0
2.099389 1.971803 0.003371 0.0
0.491476 1.464609 0.001303 0.0
2.558565 1.569882 -0.004473 0.0
4.275332 1.473016 0.002273 0.0
0.511242 1.776870 -0.000311 0.0
0.996081 1.363649 0.000736 0.0
3.495337 1.865810 -0.002390 0.0
2.637071 0.012498 0.000947 0.0
0.187599 1.528263 0.000698 0.0
0.836273 0.304409 -0.001131 0.0
0.818879 1.597679 0.000568 0.0
3.203833 1.536267 0.000195 0.0
1.890465 2.068557 -0.001263 0.0
3.209323 1.077176 0.003601 0.0
2.396780 0.057765 0.001704 0.0
0.669734 1.138449 -0.002787 0.0
3.717121 0.777673 -0.002245 0.0
1.209763 1.196916 0.003588 0.0
1.026560 0.679390 -0.001349 0.0
1.071444 0.326491 -0.000829 0.0
3.535888 1.066367 0.003332 0.0
2.394430 1.388375 0.001155 0.0
2.545101 0.699618 0.000144 0.0
2.117333 1.760357 0.000232 0.0
0.654857 1.169432 0.002115 0.0
0.974622 1.626656 0.002701 0.0
3.444275 0.209952 0.000540 0.0
2.055384 2.050578 0.003755 0.0
1.820857 0.150744 0.006570 0.0
1.574374 0.129063 -0.000789 0.0
4.371351 0.989409 0.000008 0.0
1.557093 0.018724 0.002576 0.0
4.146114 0.021634 0.001934 0.0
3.373343 1.709954 0.000222 0.0
3.103534 0.993802 0.001301 0.0
1.171818 0.885702 -0.000098 0.0
4.215100 0.791961 -0.001883 0.0
1.983200 1.537929 0.001439 0.0
3.727382 1.971685 -0.002769 0.0
1.377401 1.526141 0.003070 0.0
1.178156 0.013294 0.001906 0.0
3.941273 1.512256 0.000392 0.0
3.302803 2.013812 -0.001988 0.0
2.688254 1.907528 0.003403 0.0
1.447306 0.678962 -0.004712 0.0
0.735651 1.083849 -0.000348 0.0
3.193010 1.474000 -0.003633 0.0
2.024753 0.967829 -0.000796 0.0
0.574577 1.608241 -0.000074 0.0
2.480667 0.494932 0.000043 0.0
3.071079 0.785992 0.004395 0.0
3.596134 0.151953 0.000185 0.0
1.723039 0.084783 -0.003370 0.0
3.041894 1.562330 0.004100 0.0
1.161990 1.019563 0.001402 0.0
2.574307 1.493769 0.000941 0.0
3.879514 1.939254 -0.001582 0.0
2.145269 1.127996 0.002838 0.0
3.060512 1.021815 0.004613 0.0
2.875791 1.687669 -0.000665 0.0
2.325804 1.220421 0.002398 0.0
2.398485 0.481284 0.004940 0.0
3.479583 1.030468 0.000006 0.0
1.246934 0.747715 0.002810 0.0
2.263990 1.602971 0.004481 0.0
1.950534 0.053173 -0.002780 0.0
1.956169 1.821369 0.000779 0.0
2.997718 1.082483 -0.000898 0.0
1.183312 0.207310 0.002387 0.0
1.787199 0.905663 0.001484 0.0
2.003793 1.250679 0.001993 0.0
2.801289 1.574912 0.000885 0.0
4.277962 1.362234 -0.000604 0.0
0.106487 1.430944 0.002170 0.0
1.378504 1.104857 -0.002935 0.0
1.606836 1.388005 -0.000777 0.0
2.346089 1.957989 0.001570 0.0
1.535814 0.910535 0.001255 0.0
2.105820 1.692080 -0.000657 0.0
2.083155 0.646097 -0.002345 0.0
2.210112 1.202140 -0.002156 0.0
3.167087 1.892218 -0.000696 0.0
4.295570 0.966491 -0.002451 0.0
3.334133 0.211711 0.000323 0.0
3.128592 0.302383 -0.001628 0.0
0.319506 1.513051 0.001944 0.0
3.584854 0.441467 -0.001196 0.0
1.585611 0.920994 0.003961 0.0
4.230924 2.041761 0.000151 0.0
2.825358 0.546113 0.001682 0.0
3.649035 0.964955 0.000876 0.0
2.594056 1.964943 -0.003181 0.0
3.505729 1.668673 0.004587 0.0
0.437038 2.060500 -0.000291 0.0
3.480670 1.655138 0.000655 0.0
3.739907 1.212245 0.003263 0.0
2.974686 1.684107 0.000709 0.0
2.207855 0.223929 -0.000058 0.0
1.742110 0.658224 0.000854 0.0
0.808354 1.479586 0.002437 0.0
2.181014 0.284615 0.000650 0.0
2.261534 0.983110 -0.001729 0.0
1.562868 0.993583 0.000622 0.0
1.362096 0.403777 -0.002369 0.0
3.009246 0.531659 0.001909 0.0
3.313317 1.165860 -0.001289 0.0
1.005402 0.926669 0.003293 0.0
3.561318 1.051093 0.000468 0.0
3.983754 0.776567 -0.001186 0.0
2.341998 2.033414 0.002064 0.0
4.217058 1.664508 -0.001524 0.0
4.296850 1.576799 -0.001175 0.0
3.835957 0.428402 -0.001806 0.0
0.165060 1.674727 0.000975 0.0
4.236018 0.587500 0.001255 0.0
3.055850 1.744696 -0.000224 0.0
3.827807 1.310223 0.002073 0.0
4.037829 0.263387 0.000241 0.0
0.730916 0.148094 0.002797 0.0
2.083568 1.330267 -0.001579 0.0
0.684683 1.744334 -0.002173 0.0
3.486878 1.074276 0.001413 0.0
1.868643 1.226927 0.002786 0.0
2.436196 1.986104 -0.000307 0.0
4.047731 0.484087 0.002291 0.0
0.705946 1.319448 0.000520 0.0
3.253555 0.562479 -0.001251 0.0
3.912127 1.596311 0.000692 0.0
1.606872 0.622924 0.002695 0.0
0.697626 1.476486 -0.003668 0.0
1.425158 0.634969 0.002692 0.0
0.067318 1.090484 -0.001162 0.0
0.542649 0.596390 -0.000402 0.0
1.046843 0.405134 0.003316 0.0
2.311085 1.204095 0.001023 0.0
2.751439 0.499989 -0.001620 0.0
2.487140 1.323922 0.000928 0.0
1.345230 0.857351 -0.005766 0.0
0.055736 0.974892 -0.000135 0.0
0.161671 1.956908 0.002055 0.0
3.677150 0.275817 0.002244 0.0
