2.10958850 1.59189801 -0.00454104 0.00000000
0.60186804 0.40305689 -0.00441262 0.00000000
1.31063833 0.11077268 -0.00121283 0.00000000
1.11343062 0.90245249 0.00302611 0.00000000
4.15922338 0.45119782 -0.00040632 0.00000000
0.38991434 0.19568810 0.00322591 0.00000000
1.03996407 0.01542752 -0.00008477 0.00000000
3.56952864 0.61149374 -0.00196584 0.00000000
0.93125884 1.08113857 0.00222901 0.00000000
1.98737728 1.52668490 -0.00101458 0.00000000
2.66733217 1.70526915 -0.00104303 0.00000000
3.53592314 0.82645885 0.00059026 0.00000000
3.35627048 1.32898890 -0.00076495 0.00000000
3.07689278 0.07056587 -0.00296306 0.00000000
1.04232443 1.48741718 -0.00175091 0.00000000
4.01098320 1.53170478 -0.00086792 0.00000000
0.85580531 0.09747842 0.00535755 0.00000000
3.25593405 0.41346554 0.00085840 0.00000000
2.82604330 1.81285483 0.00210790 0.00000000
1.34454661 1.37488391 -0.00075041 0.00000000
1.85900212 1.29124908 -0.00175948 0.00000000
3.25785169 0.43208748 0.00339126 0.00000000
1.28319168 1.51616291 0.00268088 0.00000000
3.67486873 1.36741951 -0.00247829 0.00000000
3.69920019 1.37469773 -0.00048930 0.00000000
2.85491245 0.01081057 0.00237284 0.00000000
3.90360332 0.51939014 0.00014532 0.00000000
1.01436849 0.52834788 -0.00117646 0.00000000
0.72756748 0.70585148 -0.00151431 0.00000000
2.46714575 0.60818917 -0.00174826 0.00000000
0.82379172 1.62288432 -0.00173834 0.00000000
2.37990321 1.03074197 0.00100058 0.00000000
3.40406440 1.39425475 0.00316397 0.00000000
3.60522998 1.47538805 -0.00041744 0.00000000
0.62580255 0.87776908 -0.00413784 0.00000000
1.83006595 0.24336037 -0.00214560 0.00000000
1.10413025 1.59846950 -0.00269986 0.00000000
0.20279161 0.64434907 -0.00005754 0.00000000
1.58200037 0.14693494 -0.00361167 0.00000000
1.79374746 1.04891309 0.00210554 0.00000000
2.39769424 1.32024990 0.00401783 0.00000000
1.52953358 0.92280333 -0.00340339 0.00000000
3.71343110 0.50616452 0.00195988 0.00000000
1.98640053 1.70982978 0.00155206 0.00000000
3.46905027 1.70298433 0.00421350 0.00000000
1.73431714 0.96681874 0.00276175 0.00000000
3.48585961 0.93309236 -0.00333645 0.00000000
0.11018836 0.10250561 -0.00137081 0.00000000
0.96278944 1.29939925 0.00098448 0.00000000
1.45979539 0.23208092 0.00458552 0.00000000
3.62994404 0.20842082 0.00158038 0.00000000
3.35145308 1.70766424 0.00055166 0.00000000
2.23831554 0.94448373 -0.00251309 0.00000000
3.63721564 1.18503299 -0.00054948 0.00000000
3.32521226 0.81075947 0.00136240 0.00000000
3.88101828 1.40796954 -0.00217420 0.00000000
3.42253200 1.22611974 0.00278981 0.00000000
1.42867644 0.50351082 -0.00481452 0.00000000
4.15568781 0.70210323 0.00053076 0.00000000
2.63576128 0.70810580 -0.00128424 0.00000000
1.86934069 0.81024188 -0.00209110 0.00000000
3.95022828 0.46248012 -0.00307873 0.00000000
2.55468805 0.75047893 -0.00108777 0.00000000
2.31677395 0.94282690 0.00022830 0.00000000
3.00273148 1.05511699 -0.00048599 0.00000000
4.13473039 0.91616137 -0.00043742 0.00000000
2.58495929 0.21878020 0.00069313 0.00000000
0.21958193 0.04437239 -0.00374705 0.00000000
0.94285614 0.80571575 -0.00043683 0.00000000
2.53756237 1.43645640 0.00522591 0.00000000
2.83151589 0.15585825 0.00317917 0.00000000
0.18936513 0.49021008 0.00148724 0.00000000
0.57762327 1.81411350 -0.00204828 0.00000000
0.57420463 1.15267106 -0.00470850 0.00000000
3.59387104 0.34938145 -0.00428022 0.00000000
1.51880445 1.41303191 -0.00082204 0.00000000
2.14224977 1.76116054 -0.00561307 0.00000000
2.61933545 0.88730229 0.00389087 0.00000000
3.04254741 0.76422512 0.00168421 0.00000000
1.26813080 1.35003983 -0.00051418 0.00000000
1.71063135 0.46152312 0.00221825 0.00000000
1.67667009 1.59633370 -0.00054766 0.00000000
3.53994028 1.52852583 0.00593251 0.00000000
3.88322491 0.84839516 -0.00559702 0.00000000
3.59647145 0.56696889 -0.00084777 0.00000000
0.28361764 0.59573997 -0.00091885 0.00000000
3.02801393 0.29831932 0.00172087 0.00000000
2.58117452 0.67986332 -0.00076459 0.00000000
2.40746188 0.56146290 -0.00467244 0.00000000
3.00453036 0.25881425 -0.00315942 0.00000000
0.17548044 0.23845007 0.00145533 0.00000000
4.13572679 0.06467561 0.00240873 0.00000000
3.27828862 1.74485436 -0.00197417 0.00000000
1.44406953 0.37660582 -0.00282777 0.00000000
1.09946588 1.28238346 0.00167558 0.00000000
2.78420939 1.67887809 -0.00114445 0.00000000
3.24795064 1.75235815 -0.00215257 0.00000000
4.13173083 0.11316118 0.00177738 0.00000000
0.02911824 0.23920093 -0.00293217 0.00000000
1.58152857 1.07231945 0.00338499 0.00000000
1.34914305 0.90630097 0.00147164 0.00000000
3.32754647 0.13590264 -0.00015251 0.00000000
0.46605404 1.51763525 -0.00066754 0.00000000
3.11611505 0.85782021 0.00093039 0.00000000
0.06709763 1.62225220 0.00039063 0.00000000
2.64849009 0.40863038 0.00471634 0.00000000
2.23124009 0.56004663 -0.00380204 0.00000000
0.72330709 0.68096043 0.00099857 0.00000000
3.25275172 0.07119870 -0.00111751 0.00000000
3.76947919 1.04263088 -0.00067621 0.00000000
2.85207807 0.29073453 -0.00126551 0.00000000
1.89522832 0.05906688 -0.00116688 0.00000000
2.92220587 1.71997781 0.00424132 0.00000000
0.72124068 0.22463434 0.00180577 0.00000000
0.03021197 1.79301245 -0.00358869 0.00000000
0.84911965 0.88728108 -0.00183948 0.00000000
0.43713715 0.28736419 -0.00150761 0.00000000
3.36305728 1.43295692 -0.00047294 0.00000000
0.90051366 1.56575756 0.00322186 0.00000000
3.11957805 0.99342772 -0.00392442 0.00000000
1.77630992 0.05231921 0.00438477 0.00000000
2.24685570 0.07347612 -0.00195362 0.00000000
0.47293403 1.54068455 -0.00048637 0.00000000
0.03551047 0.94251829 -0.00302515 0.00000000
0.31426634 0.80036514 -0.00252303 0.00000000
0.32385329 0.63711730 0.00384957 0.00000000
3.79578689 1.51396823 0.00378575 0.00000000
3.96455680 0.41865137 0.00586296 0.00000000
3.08995225 0.45034434 0.00427105 0.00000000
1.17796289 0.52702512 0.00121079 0.00000000
3.86901431 1.53966407 0.00409883 0.00000000
3.65888531 1.70211967 -0.00125067 0.00000000
2.91220939 1.62489296 0.00084074 0.00000000
2.93510854 0.83523540 0.00324258 0.00000000
2.44681725 1.30009962 0.00664879 0.00000000
1.43882673 1.27887047 -0.00005548 0.00000000
0.33717901 0.44604003 0.00125914 0.00000000
3.20231081 1.73351412 -0.00261636 0.00000000
2.41705833 0.08823926 0.00223627 0.00000000
2.30156508 0.71919356 0.00096709 0.00000000
1.88145565 1.15834322 -0.00079797 0.00000000
1.26594381 1.04256864 0.00577006 0.00000000
2.66514002 1.78508746 0.00033496 0.00000000
0.89606580 1.65041428 0.00105245 0.00000000
3.61219586 0.55536561 -0.00163755 0.00000000
0.36715363 0.75976459 -0.00194274 0.00000000
3.93526038 0.81855392 -0.00032931 0.00000000
2.34274045 1.43282487 -0.00093723 0.00000000
3.27587235 0.93879325 0.00497706 0.00000000
2.05677493 0.64323362 0.00328534 0.00000000
0.68663838 0.10895639 -0.00107764 0.00000000
2.11038750 1.54031453 0.00255379 0.00000000
0.51349054 1.20508359 0.00089611 0.00000000
3.44730442 0.65819802 0.00093120 0.00000000
0.86130367 1.48826600 0.00184093 0.00000000
0.16336287 0.22731780 0.00045772 0.00000000
2.39642642 0.29130520 -0.00355729 0.00000000
1.65351145 0.33431797 -0.00209852 0.00000000
3.06119291 0.23079535 0.00048934 0.00000000
1.43672237 1.66757917 -0.00083756 0.00000000
3.70748745 0.25642127 -0.00073485 0.00000000
1.52198986 0.57008286 -0.00130149 0.00000000
0.55343777 1.55207817 0.00119864 0.00000000
2.61604526 1.58331691 0.00087683 0.00000000
0.99159980 0.04398368 0.00306469 0.00000000
0.10159320 1.86361201 0.00123455 0.00000000
2.36311251 0.87438125 0.00017709 0.00000000
2.13633551 1.67598031 0.00177156 0.00000000
0.38676289 0.65551418 0.00024529 0.00000000
0.70917056 0.78390485 0.00211091 0.00000000
1.03793207 1.27344994 0.00048295 0.00000000
1.06416270 1.62180839 -0.00108794 0.00000000
1.66261037 0.89482415 -0.00216671 0.00000000
0.27301548 0.34207361 -0.00194350 0.00000000
3.67894249 1.40549356 -0.00240162 0.00000000
0.58571418 0.22048512 0.00096426 0.00000000
1.53208486 0.11443511 -0.00241435 0.00000000
4.14171153 0.30505443 -0.00028071 0.00000000
0.83557977 0.25570721 0.00343444 0.00000000
3.40056862 0.00752426 0.00393508 0.00000000
1.27103037 1.69069963 -0.00115865 0.00000000
0.81693583 0.30680981 0.00359013 0.00000000
3.17090474 0.33183716 -0.00000462 0.00000000
2.44170946 1.86199174 -0.00112444 0.00000000
0.07970853 1.29970449 -0.00215046 0.00000000
1.30410867 0.70175959 0.00282433 0.00000000
0.62314408 1.30362295 -0.00073757 0.00000000
3.95392827 0.65785255 0.00173090 0.00000000
1.93588768 0.82097187 -0.00106894 0.00000000
0.58928748 0.49636088 0.00108887 0.00000000
2.06651431 0.27725023 -0.00139053 0.00000000
3.59678896 1.11786685 0.00125643 0.00000000
2.31385127 1.67516762 0.00329144 0.00000000
2.60917085 0.47609882 -0.00134096 0.00000000
2.81260437 0.63371177 -0.00064230 0.00000000
3.46573404 0.04942528 -0.00428012 0.00000000
3.29134700 0.42242502 0.00063274 0.00000000
3.23894980 0.35474635 0.00198750 0.00000000
3.83970385 0.29019225 -0.00155170 0.00000000
4.11606490 1.57991605 -0.00113887 0.00000000
0.16923821 1.58196185 -0.00214152 0.00000000
2.07544197 1.84192791 0.00218577 0.00000000
3.00612266 0.43371385 0.00220560 0.00000000
2.43570970 0.85268408 -0.00482103 0.00000000
1.90944126 0.57839482 -0.00328703 0.00000000
3.94040855 0.82987249 0.00047211 0.00000000
1.22700578 0.19138152 0.00252562 0.00000000
0.89904324 1.19063656 0.00123817 0.00000000
3.51135946 0.41140232 0.00006052 0.00000000
3.94357063 1.69869662 -0.00054745 0.00000000
2.06353336 1.15045559 0.00413969 0.00000000
2.96761113 0.67083818 -0.00363313 0.00000000
0.13571082 0.44749566 0.00256330 0.00000000
0.50505347 1.06226789 -0.00071813 0.00000000
0.81557806 1.57005692 -0.00129481 0.00000000
0.03730554 0.80505857 -0.00271987 0.00000000
0.41967024 1.09408277 -0.00525825 0.00000000
3.61446821 0.71343081 0.00067839 0.00000000
2.18849937 0.70906649 -0.00340172 0.00000000
0.94987170 1.74792099 -0.00024711 0.00000000
3.08673420 0.45198561 0.00002546 0.00000000
1.41603630 0.39979794 0.00128422 0.00000000
1.43470860 0.76315984 0.00431179 0.00000000
2.16387930 0.23596859 -0.00334347 0.00000000
3.98055585 0.37723411 0.00292808 0.00000000
4.21099821 0.05187837 0.00575076 0.00000000
1.82416077 0.21517132 0.00284083 0.00000000
1.90017060 0.16658341 0.00331078 0.00000000
1.44041653 1.11568909 0.00132430 0.00000000
0.82017591 1.18952131 -0.00123143 0.00000000
4.15497063 1.24218656 -0.00579251 0.00000000
1.61881068 1.59933562 -0.00344722 0.00000000
0.32433806 0.03692438 -0.00073860 0.00000000
1.23512661 1.86987395 -0.00221473 0.00000000
0.46073102 0.92994934 -0.00011213 0.00000000
0.19459581 1.37224217 -0.00144136 0.00000000
0.79128210 0.72984815 -0.00069840 0.00000000
2.37322373 1.30443070 0.00172869 0.00000000
1.48797523 1.12322321 0.00354022 0.00000000
0.28208396 0.06703196 -0.00080693 0.00000000
4.14591756 0.86025985 0.00000545 0.00000000
2.08690598 0.96948232 0.00189201 0.00000000
2.65134947 1.81321490 0.00288543 0.00000000
3.11484792 1.82840435 0.00141915 0.00000000
1.66709609 1.65069857 0.00389186 0.00000000
3.57174335 0.75734051 0.00000314 0.00000000
0.72217264 1.69623192 -0.00122062 0.00000000
1.83596642 0.08391996 0.00111522 0.00000000
0.20735930 1.50170810 -0.00316110 0.00000000
1.97477458 1.28121279 0.00201310 0.00000000
0.50781460 1.07133686 -0.00138722 0.00000000
1.71637924 0.88178760 -0.00471490 0.00000000
0.94894647 0.69011963 -0.00347013 0.00000000
1.43085397 0.80881161 0.00115110 0.00000000
0.46777978 1.61944724 -0.00002856 0.00000000
2.04659221 1.29508381 0.00096851 0.00000000
3.05577069 1.49837716 -0.00451777 0.00000000
3.93253595 0.06407581 0.00305755 0.00000000
3.53503239 1.43010824 -0.00013549 0.00000000
1.04249018 0.70664888 -0.00219925 0.00000000
0.92855504 1.49943765 -0.00007805 0.00000000
1.84160418 0.14262851 -0.00119982 0.00000000
3.12841023 0.11032004 -0.00124022 0.00000000
2.12073116 0.76500046 0.00058861 0.00000000
4.15206021 1.76412636 0.00078224 0.00000000
1.87454042 1.25835902 0.00019307 0.00000000
0.39391516 0.77853470 0.00044644 0.00000000
0.88055405 0.89160499 0.00225155 0.00000000
3.12447336 0.91016424 0.00730502 0.00000000
1.98541996 0.26153900 0.00227152 0.00000000
0.17366945 1.59870453 -0.00256297 0.00000000
2.99184248 0.94850414 0.00119252 0.00000000
0.39322407 1.49078995 0.00295187 0.00000000
1.65044307 1.14377895 0.00018803 0.00000000
1.93210296 1.25515960 -0.00235777 0.00000000
3.20846018 0.70097542 0.00181125 0.00000000
3.56487837 0.83398974 -0.00211874 0.00000000
2.40251678 0.49134662 -0.00275935 0.00000000
2.85254627 1.42323916 0.00163615 0.00000000
4.27101518 0.26675797 -0.00063804 0.00000000
3.58404660 1.76987901 0.00075402 0.00000000
4.16287514 0.89553534 -0.00057994 0.00000000
4.19637088 0.64648949 0.00060657 0.00000000
1.77218861 1.40587290 -0.00098357 0.00000000
0.75836737 0.20379234 -0.00162466 0.00000000
4.21075460 0.35289354 -0.00147254 0.00000000
2.26075594 0.49138674 -0.00027102 0.00000000
3.01480050 0.14708145 0.00012263 0.00000000
2.68247393 0.97298993 0.00045186 0.00000000
0.40629731 0.06428406 0.00436169 0.00000000
1.52981483 0.54264375 -0.00010223 0.00000000
3.71817639 1.66115403 -0.00056825 0.00000000
0.69783378 1.43080458 0.00081603 0.00000000
3.11537375 0.60194068 0.00293684 0.00000000
1.79699274 1.60285070 0.00238819 0.00000000
2.70523523 1.56580413 0.00220987 0.00000000
0.40090146 0.45185177 0.00052392 0.00000000
2.31571718 1.51177336 -0.00284107 0.00000000
3.34333002 0.26518395 0.00169738 0.00000000
3.27008556 0.51554510 0.00491653 0.00000000
3.19450141 1.48864622 0.00059727 0.00000000
1.87479355 0.34829419 -0.00077560 0.00000000
0.90030699 1.39355125 0.00184014 0.00000000
2.48542560 0.74841222 -0.00028226 0.00000000
0.89988503 1.82813519 0.00049224 0.00000000
3.00129827 0.98335963 -0.00282980 0.00000000
0.87259351 1.24390853 -0.00018395 0.00000000
3.66246682 0.26295247 0.00175817 0.00000000
3.32398578 0.43106463 0.00375381 0.00000000
1.57056363 1.07878202 -0.00145880 0.00000000
0.42673606 0.07700276 0.00276134 0.00000000
0.84640890 0.54185187 0.00082025 0.00000000
3.32756844 0.03545817 0.00166034 0.00000000
0.31547070 0.26189966 -0.00125323 0.00000000
1.94612844 1.12895875 -0.00067979 0.00000000
4.09544050 0.02458989 -0.00091752 0.00000000
0.04235620 1.04816089 -0.00365632 0.00000000
2.12623287 0.06862229 0.00169740 0.00000000
4.12925502 1.78431399 0.00295232 0.00000000
3.87164370 0.32930021 -0.00185401 0.00000000
3.19613874 1.19554242 0.00066714 0.00000000
3.59594693 1.63061279 -0.00178787 0.00000000
4.03683580 0.33690229 -0.00133647 0.00000000
2.97655284 0.21307494 -0.00364119 0.00000000
1.51285739 1.62790722 0.00601117 0.00000000
1.46527967 1.58610852 -0.00425544 0.00000000
2.30575393 0.45285079 -0.00113613 0.00000000
4.25837327 0.38466639 -0.00136149 0.00000000
2.99364138 0.31603690 -0.00295875 0.00000000
0.13911974 0.62833613 0.00047218 0.00000000
3.81735970 0.87643096 0.00020349 0.00000000
4.09803106 0.52805732 -0.00105588 0.00000000
1.83704629 1.25288442 -0.00232473 0.00000000
0.94306314 1.68899630 0.00168818 0.00000000
0.28055239 0.42842700 -0.00342569 0.00000000
0.50074707 0.30894852 -0.00132190 0.00000000
3.27075943 1.19569967 -0.00123427 0.00000000
1.00674395 0.51208098 0.00362756 0.00000000
0.87395827 1.19441559 0.00037824 0.00000000
0.42237219 0.84898676 0.00128555 0.00000000
1.91340203 0.97569326 -0.00285585 0.00000000
2.45602940 1.56060103 -0.00012241 0.00000000
2.76410645 1.12637890 -0.00159996 0.00000000
3.52393073 0.73268255 -0.00167150 0.00000000
0.28871183 0.94683479 0.00309701 0.00000000
2.88077806 0.85862050 -0.00054676 0.00000000
1.68135591 0.71858737 0.00191063 0.00000000
3.02873853 1.07406418 0.00124087 0.00000000
2.19321678 1.61714144 -0.00041551 0.00000000
1.84470663 0.24573368 -0.00018386 0.00000000
2.29977808 1.51626282 0.00678763 0.00000000
0.63148705 0.76477357 -0.00203442 0.00000000
2.52806566 0.37817061 0.00209742 0.00000000
1.56468324 0.45887939 0.00285321 0.00000000
0.97572622 0.49256906 0.00052344 0.00000000
3.57419751 1.84577144 -0.00213646 0.00000000
4.08599686 1.60025710 -0.00206954 0.00000000
0.65189665 0.16706856 -0.00163521 0.00000000
2.11514475 0.57810520 0.00057323 0.00000000
2.66961056 1.73885542 -0.00092580 0.00000000
3.16533774 0.19758119 0.00164603 0.00000000
3.41892111 1.09729319 0.00060848 0.00000000
4.20565199 0.01344547 -0.00023125 0.00000000
1.70729079 0.21821050 0.00242595 0.00000000
2.88186249 0.20640096 0.00300197 0.00000000
1.69216820 0.65803552 -0.00141867 0.00000000
0.06718449 0.95619570 0.00201214 0.00000000
1.47734239 1.40533160 0.00217502 0.00000000
4.07323191 1.44311124 0.00010778 0.00000000
1.16587696 0.99491329 -0.00018941 0.00000000
0.85543803 0.58901073 0.00277307 0.00000000
2.97166483 0.33444337 0.00294951 0.00000000
2.55158463 1.53408194 -0.00055710 0.00000000
1.67422195 1.00134556 -0.00376811 0.00000000
1.16956226 1.71522220 0.00258398 0.00000000
3.52046369 0.92418353 -0.00094733 0.00000000
4.14640708 0.45071517 -0.00204067 0.00000000
2.98388238 1.78653355 0.00494489 0.00000000
1.19137589 1.03496962 0.00008036 0.00000000
0.07231604 1.44249867 -0.00221179 0.00000000
0.14061873 1.48473805 -0.00433520 0.00000000
3.75045453 0.57248106 0.00078471 0.00000000
0.20349069 0.89632095 -0.00093306 0.00000000
1.81766359 1.56388142 -0.00383866 0.00000000
4.23435010 0.27695203 -0.00086620 0.00000000
0.23374371 0.59444846 -0.00436854 0.00000000
0.09898593 1.25829559 0.00152211 0.00000000
4.00690585 1.14601115 0.00386011 0.00000000
4.15363296 1.06649713 0.00339440 0.00000000
3.68365759 0.40337878 -0.00378645 0.00000000
2.34392656 1.07407789 -0.00434698 0.00000000
3.92926414 0.18335700 -0.00296221 0.00000000
1.96093800 0.12868554 0.00216371 0.00000000
1.60863628 0.06582515 0.00012886 0.00000000
0.48699231 1.72947348 0.00096146 0.00000000
2.99454942 1.74972877 -0.00026229 0.00000000
1.47369372 0.22765419 0.00194100 0.00000000
1.64140954 1.27254300 0.00088149 0.00000000
1.34623443 0.22276532 -0.00349078 0.00000000
1.13612959 0.19176950 0.00068847 0.00000000
2.07841210 1.20768358 -0.00012088 0.00000000
2.50211040 0.72582626 0.00011558 0.00000000
0.13928660 1.04018562 0.00060310 0.00000000
4.14382539 1.01040041 -0.00320227 0.00000000
3.57873430 0.87846166 -0.00275862 0.00000000
4.26218196 0.88442111 0.00006745 0.00000000
3.71082689 1.77702443 -0.00294993 0.00000000
2.52115856 0.73778871 -0.00226041 0.00000000
3.10408886 1.25890739 -0.00302235 0.00000000
1.89748324 0.86902525 -0.00336822 0.00000000
3.08153402 1.41679383 0.00428021 0.00000000
3.34697888 1.61094557 0.00524375 0.00000000
0.82416754 0.00917176 -0.00244763 0.00000000
3.74363830 1.52674092 -0.00331106 0.00000000
3.66581191 1.23901170 -0.00032845 0.00000000
1.45628070 0.84798224 -0.00066414 0.00000000
0.16005571 0.75802009 0.00008326 0.00000000
0.34778373 0.72242674 -0.00387658 0.00000000
0.20645050 0.20099049 0.00063530 0.00000000
2.43656916 1.42638400 0.00064790 0.00000000
2.54210518 1.19075690 0.00383186 0.00000000
1.40556732 1.29673966 0.00202601 0.00000000
0.80939529 0.87142339 -0.00394486 0.00000000
1.16684628 0.98042445 -0.00176981 0.00000000
3.77494146 1.45941360 -0.00252347 0.00000000
2.13832575 1.85781526 -0.00112443 0.00000000
2.09249071 1.78363343 -0.00050462 0.00000000
1.00444859 0.56771313 -0.00001865 0.00000000
2.38381927 1.02085743 0.00060104 0.00000000
1.70732084 0.40807851 -0.00150506 0.00000000
3.58231552 0.30813969 0.00209265 0.00000000
2.38920502 1.02204705 0.00169201 0.00000000
0.66777642 0.21414682 0.00143386 0.00000000
2.44740000 0.96156633 -0.00091769 0.00000000
2.09994076 1.22113595 -0.00319376 0.00000000
3.94903575 1.63382991 -0.00487388 0.00000000
0.70379183 1.06561712 0.00076338 0.00000000
2.36762517 1.56364761 -0.00164490 0.00000000
4.11456053 1.66671207 0.00049813 0.00000000
1.95403237 0.18363287 0.00050417 0.00000000
1.51029259 0.78883052 0.00070297 0.00000000
0.35140502 1.64071484 0.00320522 0.00000000
3.29592206 1.04528095 -0.00009869 0.00000000
1.84929355 0.80242149 -0.00170958 0.00000000
0.93808055 0.15352920 0.00676835 0.00000000
3.27807699 1.48638393 0.00127612 0.00000000
3.29698016 0.36188317 0.00058821 0.00000000
2.53865452 1.30104794 -0.00089426 0.00000000
1.90423759 0.91342503 0.00249100 0.00000000
1.75500641 0.80086689 -0.00232164 0.00000000
3.40732489 0.64222922 -0.00340128 0.00000000
3.36334422 0.84621219 -0.00074984 0.00000000
2.24686922 0.45819334 0.00342274 0.00000000
2.34571989 0.03839326 -0.00043168 0.00000000
2.72658511 1.21939236 0.00240903 0.00000000
1.92975189 0.75656702 0.00232462 0.00000000
2.67197734 0.78133245 0.00025701 0.00000000
0.10034548 1.50092033 0.00043326 0.00000000
0.65951853 0.67099794 0.00603492 0.00000000
0.26695680 1.09881363 -0.00181764 0.00000000
3.33201557 0.63045888 0.00318367 0.00000000
2.84688088 0.22341595 0.00219805 0.00000000
2.47886039 0.99427134 0.00174871 0.00000000
0.14486102 1.34438658 -0.00368753 0.00000000
2.54569226 1.63192026 -0.00099622 0.00000000
2.83934299 1.03549083 0.00002060 0.00000000
0.23139376 0.45303297 -0.00153983 0.00000000
3.64233456 0.05168553 0.00432873 0.00000000
3.50100058 0.33612226 -0.00066062 0.00000000
3.42033780 1.81175357 -0.00089522 0.00000000
1.74966319 0.38994793 -0.00038322 0.00000000
1.66224624 0.21042093 0.00351913 0.00000000
3.18772262 0.76979521 -0.00181928 0.00000000
3.51614068 0.08627715 -0.00156959 0.00000000
3.19010088 0.27509619 0.00273734 0.00000000
1.00181006 0.48004803 -0.00118097 0.00000000
2.09314408 1.53822498 0.00650531 0.00000000
3.96889317 1.09763365 -0.00104511 0.00000000
3.68138833 1.65856258 -0.00112133 0.00000000
1.81096519 1.59723970 -0.00292247 0.00000000
0.58132929 1.53405269 -0.00266036 0.00000000
1.49906099 0.98432655 0.00321518 0.00000000
2.99077914 1.17211559 0.00096487 0.00000000
3.71876715 1.70559741 0.00244209 0.00000000
0.51487453 1.86583100 0.00178861 0.00000000
0.69388670 1.78647486 -0.00349085 0.00000000
3.73854526 1.10477487 0.00167576 0.00000000
3.71323236 0.63337041 -0.00127535 0.00000000
2.70993112 1.67562166 0.00184340 0.00000000
2.95402067 1.53779068 0.00420290 0.00000000
0.73751684 0.64551532 -0.00205114 0.00000000
3.19277332 0.35005541 -0.00055226 0.00000000
3.48124560 1.05660259 0.00307461 0.00000000
1.21987178 0.20834908 -0.00069134 0.00000000
1.13541971 0.26127014 -0.00156003 0.00000000
2.98747173 1.63895896 -0.00157652 0.00000000
0.78722763 1.22711037 -0.00153894 0.00000000
2.30285777 1.30511360 -0.00266691 0.00000000
2.89324994 0.20360059 0.00421790 0.00000000
2.61797694 0.32952768 -0.00006183 0.00000000
1.15412098 1.48529750 0.00458137 0.00000000
1.00350877 1.68364229 -0.00017102 0.00000000
2.52408180 0.38719932 0.00192941 0.00000000
2.05836751 0.77265361 -0.00121169 0.00000000
0.69359822 0.77704485 0.00270415 0.00000000
2.47276533 1.79512273 0.00036251 0.00000000
2.93309945 0.00719176 -0.00055386 0.00000000
0.25776204 1.20346298 -0.00080387 0.00000000
0.64002413 0.09308318 0.00070427 0.00000000
3.33128845 1.52128142 0.00526872 0.00000000
1.68691405 1.74102554 -0.00192203 0.00000000
2.54513647 0.82750080 -0.00155682 0.00000000
2.29119604 0.75634748 0.00236801 0.00000000
2.85474303 1.59444462 -0.00586685 0.00000000
2.58142934 0.61896962 -0.00198208 0.00000000
1.25885516 0.30837683 -0.00047073 0.00000000
0.50434947 0.14179788 -0.00082961 0.00000000
3.86161518 1.32455272 0.00489595 0.00000000
3.29061914 1.81466023 0.00321355 0.00000000
4.05452743 1.86200960 0.00162368 0.00000000
2.43591708 1.33064889 0.00094372 0.00000000
2.88408686 0.12234617 0.00134055 0.00000000
2.67859508 1.28503332 0.00328734 0.00000000
2.13090013 0.82746402 -0.00334229 0.00000000
3.10305726 0.39539890 -0.00113681 0.00000000
2.22531181 1.86648804 0.00278747 0.00000000
2.67892264 1.16038023 0.00295420 0.00000000
2.04196557 0.76370309 -0.00204446 0.00000000
3.35340363 1.56709428 0.00143546 0.00000000
0.18484169 0.93502549 -0.00447387 0.00000000
3.06132661 0.72295683 0.00311759 0.00000000
0.15996734 1.59203929 -0.00425008 0.00000000
1.31650714 0.16929902 -0.00133494 0.00000000
2.51790342 0.38928223 0.00083976 0.00000000
1.55570473 0.09862662 -0.00110739 0.00000000
1.93406557 0.18380445 -0.00193358 0.00000000
0.06271111 0.30214411 -0.00097349 0.00000000
1.62228851 0.81363820 -0.00334786 0.00000000
2.09088938 1.25394456 0.00473439 0.00000000
2.78913664 1.75093586 0.00191146 0.00000000
0.05788450 0.52363209 -0.00001740 0.00000000
0.48537545 1.28310700 -0.00085071 0.00000000
0.88758896 0.40396606 0.00155532 0.00000000
3.36517516 1.40952523 0.00046515 0.00000000
0.35430753 0.23186215 -0.00001140 0.00000000
2.81851872 1.09036314 -0.00198915 0.00000000
3.87446280 1.69307928 0.00281397 0.00000000
3.33232683 0.12364196 0.00013387 0.00000000
1.00667621 0.64958768 -0.00046590 0.00000000
1.84099120 0.39723779 0.00085326 0.00000000
2.49780907 1.31610110 0.00064235 0.00000000
2.82970424 1.36878633 -0.00234208 0.00000000
3.64146475 0.18295915 -0.00308232 0.00000000
4.00444324 0.62582455 0.00036812 0.00000000
1.52848273 1.65146846 0.00165139 0.00000000
2.55217772 0.34352186 -0.00404137 0.00000000
2.21593424 0.89802054 0.00180505 0.00000000
0.46310960 0.16595791 -0.00100255 0.00000000
1.85862065 1.80860044 0.00259537 0.00000000
3.83523986 0.35534843 -0.00195090 0.00000000
4.04156374 0.49249556 0.00247664 0.00000000
2.69789206 0.78843731 -0.00077293 0.00000000
0.23836497 0.65219021 0.00060691 0.00000000
0.49618370 1.79824285 -0.00174121 0.00000000
0.55935821 0.79245604 -0.00007759 0.00000000
2.88856199 1.47764174 0.00244688 0.00000000
2.06986870 1.39849447 -0.00222456 0.00000000
3.55573096 1.77545671 -0.00461142 0.00000000
4.11356170 0.67640470 -0.00440235 0.00000000
2.13746177 0.14528917 0.00153587 0.00000000
0.89640519 1.14681891 0.00154003 0.00000000
2.10619521 1.53042264 -0.00367323 0.00000000
2.36917343 1.59516403 -0.00119218 0.00000000
0.37566451 1.51467505 -0.00079590 0.00000000
2.77221087 1.60787886 -0.00514391 0.00000000
3.50693599 0.12139804 -0.00038923 0.00000000
2.37911484 1.15360921 0.00150875 0.00000000
0.23247514 1.35435381 0.00211859 0.00000000
2.57893476 0.43629084 0.00331675 0.00000000
3.55378317 0.15357245 0.00076876 0.00000000
3.49971902 0.94120844 -0.00164822 0.00000000
3.49791141 1.16381025 0.00166821 0.00000000
3.79489908 1.85928845 0.00049970 0.00000000
3.43136441 0.19531239 0.00008642 0.00000000
0.33897477 1.51922460 0.00223637 0.00000000
0.06939624 0.41864945 0.00259877 0.00000000
1.99997378 1.57250247 -0.00150455 0.00000000
2.87417342 1.32767636 0.00337274 0.00000000
2.89044649 1.52209133 -0.00061913 0.00000000
0.61059039 0.98393080 -0.00628532 0.00000000
0.33448800 0.40410966 -0.00319279 0.00000000
3.41165495 0.06784929 -0.00115020 0.00000000
1.12944698 1.63188143 -0.00012483 0.00000000
0.72294908 1.66754764 -0.00109695 0.00000000
0.31724542 1.10264709 0.00244484 0.00000000
1.51288828 0.66076765 -0.00016939 0.00000000
1.97436488 0.95802185 -0.00226660 0.00000000
3.50005105 0.16328961 -0.00150858 0.00000000
0.19581583 0.02649017 -0.00159843 0.00000000
0.01629957 1.24223094 -0.00134442 0.00000000
3.98821334 1.61441570 0.00487642 0.00000000
2.81528393 0.76010832 0.00048113 0.00000000
1.51312550 0.11463896 0.00188206 0.00000000
1.88729745 1.41276745 -0.00328307 0.00000000
3.78064799 1.07973368 0.00011146 0.00000000
3.60644012 0.10543211 0.00160765 0.00000000
0.13338926 1.26584494 0.00054609 0.00000000
1.53118416 1.45543877 -0.00228642 0.00000000
1.30500680 1.19477309 -0.00223873 0.00000000
2.68646539 1.73640811 -0.00048151 0.00000000
0.59185444 0.15010680 -0.00009353 0.00000000
1.05187750 1.17585998 -0.00156781 0.00000000
2.16190362 0.18780708 -0.00003677 0.00000000
0.51933531 0.93065659 0.00200677 0.00000000
0.07795794 1.65869112 -0.00381674 0.00000000
2.20605254 1.33455436 0.00049483 0.00000000
0.34717107 0.19759909 0.00324865 0.00000000
2.71199490 1.80546789 -0.00225730 0.00000000
0.81569208 1.08077379 -0.00070965 0.00000000
0.57940673 0.60323225 0.00104872 0.00000000
3.93876550 1.14538967 0.00250407 0.00000000
1.76945162 0.19379354 0.00114939 0.00000000
1.47539586 1.72688780 -0.00043783 0.00000000
2.77440715 0.45709718 -0.00000788 0.00000000
3.26218277 0.94594276 0.00064270 0.00000000
2.06064403 0.79802070 0.00053373 0.00000000
3.23422436 1.16009074 -0.00069522 0.00000000
0.92048064 0.96144863 -0.00289526 0.00000000
1.73595327 0.08053257 -0.00143269 0.00000000
2.20256781 0.49546489 -0.00011588 0.00000000
0.60385382 0.25283716 -0.00195441 0.00000000
0.24316598 1.65016155 0.00062160 0.00000000
4.11989222 1.12226688 -0.00119534 0.00000000
1.11356455 1.67620971 0.00304925 0.00000000
0.49336339 0.64467805 0.00109991 0.00000000
0.38205150 0.82478393 -0.00195573 0.00000000
2.29701164 0.37704002 0.00257147 0.00000000
3.60159251 0.87260745 0.00331717 0.00000000
2.01586904 0.29636244 0.00253570 0.00000000
0.32124355 0.05312392 0.00282550 0.00000000
3.42409909 0.97546020 0.00060873 0.00000000
0.34728999 0.15245386 0.00059179 0.00000000
1.05751875 0.62985272 0.00031893 0.00000000
1.35135112 0.41793469 0.00102821 0.00000000
0.56396267 1.46673227 0.00069022 0.00000000
2.84902284 1.72923869 0.00217416 0.00000000
0.47760083 0.34733515 -0.00188061 0.00000000
1.91652262 0.89651332 -0.00556915 0.00000000
3.16669583 1.81071709 0.00260553 0.00000000
3.86720869 0.84310688 0.00115616 0.00000000
0.07234983 0.15840171 0.00215881 0.00000000
2.66507001 1.13126413 -0.00176767 0.00000000
3.31590118 0.91837431 0.00019814 0.00000000
3.21560025 0.42243631 -0.00240244 0.00000000
3.15853116 0.42327449 -0.00270038 0.00000000
0.32717885 1.85151688 0.00001818 0.00000000
2.65188079 1.61846328 0.00191863 0.00000000
0.05035061 1.17606916 -0.00304748 0.00000000
2.49857186 0.75789728 -0.00095051 0.00000000
2.19390413 1.06804037 0.00078510 0.00000000
2.05214939 0.96437931 0.00028904 0.00000000
1.33131071 1.86280609 0.00072613 0.00000000
3.16353098 1.13264045 -0.00159244 0.00000000
1.61540848 0.11764069 0.00165441 0.00000000
2.14667625 1.73301574 0.00147659 0.00000000
1.69856587 1.76813159 -0.00026408 0.00000000
1.42136619 0.38028036 0.00275211 0.00000000
3.13021393 0.05817693 0.00110054 0.00000000
1.80429411 1.02048966 0.00032472 0.00000000
2.87615436 0.61429857 -0.00169970 0.00000000
0.85968359 0.92132382 0.00466719 0.00000000
1.11253513 1.00597720 -0.00493652 0.00000000
3.46111508 1.82034969 0.00279516 0.00000000
0.72510443 1.49756681 0.00199090 0.00000000
1.47258044 1.85976830 -0.00283501 0.00000000
0.94770581 0.07673733 0.00049367 0.00000000
3.22409899 0.70855907 -0.00338590 0.00000000
1.84464613 0.22412954 0.00112356 0.00000000
0.13192084 1.79472144 0.00207061 0.00000000
2.05734814 1.67860204 0.00070773 0.00000000
0.79635784 1.39412872 -0.00288074 0.00000000
1.75139922 0.78175409 -0.00279781 0.00000000
1.72918531 0.72125449 -0.00316268 0.00000000
2.02866529 1.28455325 -0.00092142 0.00000000
3.44802751 1.29160736 0.00018878 0.00000000
0.90981574 1.73493571 0.00289736 0.00000000
1.93691464 1.16107444 -0.00207848 0.00000000
0.17433885 0.11981104 0.00163067 0.00000000
1.36448343 0.94238608 0.00296219 0.00000000
1.79872388 0.17508008 0.00180081 0.00000000
4.09867234 0.32963081 0.00105025 0.00000000
1.33524921 1.58186788 -0.00023028 0.00000000
0.39499587 1.71703975 0.00256030 0.00000000
3.24433271 0.07533014 0.00326121 0.00000000
0.24818079 1.32216523 -0.00435270 0.00000000
1.40805927 1.37366363 0.00172527 0.00000000
3.23592152 0.85435445 0.00322698 0.00000000
3.66972155 0.82749161 0.00669857 0.00000000
3.67488196 1.84392102 0.00150134 0.00000000
3.84514197 0.48073928 0.00048919 0.00000000
0.01938349 1.08215942 0.00296309 0.00000000
2.95376933 0.62214469 -0.00049422 0.00000000
1.30953232 1.37798517 -0.00458263 0.00000000
3.69193294 1.67669842 -0.00074137 0.00000000
0.32431229 1.49309256 -0.00395642 0.00000000
3.82938110 0.27684615 0.00209204 0.00000000
4.22407969 0.19732179 0.00296633 0.00000000
1.56491394 1.09018971 0.00308268 0.00000000
1.44050937 0.26340205 0.00054767 0.00000000
0.95341235 0.09581547 0.00271292 0.00000000
1.53763712 0.83231653 0.00186601 0.00000000
2.72244459 1.43269392 0.00040358 0.00000000
3.83182475 1.80236019 0.00288991 0.00000000
0.25244985 1.46069897 -0.00245551 0.00000000
2.42708535 0.12339828 -0.00255766 0.00000000
2.05743296 0.16077241 -0.00278303 0.00000000
0.90429340 0.21530186 0.00230898 0.00000000
2.96628527 1.86576546 0.00229943 0.00000000
1.98251981 1.39770993 0.00345876 0.00000000
2.12654887 0.76489497 0.00242662 0.00000000
0.71872533 0.09859294 -0.00185095 0.00000000
1.99157261 0.95942959 0.00083794 0.00000000
3.07717836 0.72162557 -0.00115352 0.00000000
0.80353216 1.14127898 0.00107112 0.00000000
3.68402312 0.51151431 0.00577312 0.00000000
1.86032798 1.59936097 0.00024513 0.00000000
0.99625904 1.77058562 -0.00210818 0.00000000
1.45967422 1.70303285 0.00196814 0.00000000
1.71228896 1.26756259 0.00011375 0.00000000
1.43961425 1.37728504 0.00131899 0.00000000
3.18222124 0.76348202 -0.00022102 0.00000000
0.72704306 0.61650662 0.00200903 0.00000000
3.14701951 1.62795660 0.00368833 0.00000000
3.45469729 1.50132691 0.00532095 0.00000000
3.38492603 1.70515154 0.00105342 0.00000000
0.67145253 1.37477479 0.00150036 0.00000000
0.45919945 0.60451699 0.00102820 0.00000000
1.67244382 0.09159341 0.00578504 0.00000000
3.75497233 0.60365380 0.00306362 0.00000000
0.58805408 0.95185292 0.00148380 0.00000000
0.75877162 0.64406928 0.00043868 0.00000000
4.03452303 1.71667495 -0.00240223 0.00000000
1.37432064 1.77581682 -0.00417689 0.00000000
3.83687236 0.69036524 0.00162137 0.00000000
1.92863745 1.85887746 0.00534920 0.00000000
0.72715618 1.36648560 0.00055233 0.00000000
2.91443903 1.55130198 -0.00013325 0.00000000
1.72548908 0.06767626 -0.00554904 0.00000000
2.39368299 0.57987926 -0.00301708 0.00000000
3.31660606 1.72216467 0.00051773 0.00000000
3.85423631 0.72803781 0.00470010 0.00000000
1.90165211 0.51009543 0.00250580 0.00000000
1.47659246 0.49241329 -0.00380162 0.00000000
2.62875416 0.90055629 -0.00060180 0.00000000
1.68705022 1.33343273 0.00299807 0.00000000
0.52590975 1.44680629 -0.00004072 0.00000000
0.06524974 1.64564743 0.00694399 0.00000000
4.27064869 1.42039769 -0.00391283 0.00000000
1.51021543 0.64352361 0.00067890 0.00000000
2.08463691 0.72954296 -0.00242669 0.00000000
3.89548396 0.38066535 0.00168956 0.00000000
2.17532752 1.26644111 0.00003492 0.00000000
4.03210916 1.26611676 0.00079713 0.00000000
2.89719534 1.70513178 0.00061102 0.00000000
0.28809812 1.69305339 0.00266889 0.00000000
0.49610178 0.32632393 -0.00064586 0.00000000
0.70814927 1.27073454 -0.00181435 0.00000000
1.22953357 1.15069689 0.00161047 0.00000000
2.48149558 1.07811226 -0.00105437 0.00000000
4.13172207 0.41749734 0.00174205 0.00000000
1.38600147 0.24347003 0.00086964 0.00000000
3.21141692 1.27098630 -0.00241574 0.00000000
3.64472663 1.18924686 0.00343625 0.00000000
2.57565218 0.01039456 -0.00102021 0.00000000
0.26090094 0.52076175 0.00002381 0.00000000
2.14119906 1.78357306 -0.00218932 0.00000000
0.46291101 0.63773540 -0.00560713 0.00000000
2.46093304 1.66906666 0.00140597 0.00000000
1.75824751 0.29184734 0.00084661 0.00000000
3.62647719 0.88042918 -0.00208569 0.00000000
1.70183568 0.70480369 0.00122550 0.00000000
0.65582426 0.46644500 0.00325550 0.00000000
3.17570732 1.76653784 0.00630865 0.00000000
0.11379851 1.69774852 -0.00179546 0.00000000
0.71239399 1.28387024 -0.00055022 0.00000000
2.05683945 1.17750843 -0.00007726 0.00000000
0.23711696 1.73514524 -0.00118366 0.00000000
2.40375973 1.23203764 -0.00354069 0.00000000
2.05483322 0.40795998 -0.00233237 0.00000000
0.96004771 1.69109578 0.00066925 0.00000000
1.10743272 0.32132034 -0.00244527 0.00000000
2.96059773 0.01087178 -0.00169941 0.00000000
2.73857177 1.57020767 -0.00134081 0.00000000
2.62367368 0.26006220 0.00158790 0.00000000
0.35936578 0.77528168 0.00403332 0.00000000
3.63197396 0.24231165 -0.00054906 0.00000000
1.52149605 1.57874415 0.00203003 0.00000000
4.02232072 1.31918378 -0.00218085 0.00000000
0.17057592 1.14103468 -0.00013204 0.00000000
3.68066701 0.71602857 0.00008489 0.00000000
1.61573285 1.40286188 -0.00079708 0.00000000
0.20591280 0.53460133 -0.00088548 0.00000000
2.89571364 0.37665605 -0.00095369 0.00000000
3.18276809 0.03337926 0.00398640 0.00000000
2.23444036 0.03192446 0.00592889 0.00000000
2.65975880 1.29247632 -0.00217967 0.00000000
0.58508375 0.43578697 -0.00403723 0.00000000
3.06907093 1.78964632 0.00046615 0.00000000
1.36507523 0.78192366 -0.00435916 0.00000000
0.88761219 1.74202891 0.00195758 0.00000000
3.30544853 0.62757264 0.00097483 0.00000000
1.40166551 0.26015858 -0.00211328 0.00000000
0.07040427 0.76005762 0.00504733 0.00000000
3.69647247 0.74897180 0.00053443 0.00000000
3.28134989 1.22352240 -0.00139585 0.00000000
2.96954326 0.54439411 0.00042769 0.00000000
0.30499071 0.39025890 -0.00446243 0.00000000
2.77863101 0.10704492 -0.00176704 0.00000000
1.16772965 0.56812925 0.00115107 0.00000000
1.56524671 1.85529311 -0.00440299 0.00000000
3.03777657 1.76868120 -0.00253730 0.00000000
2.13951791 1.28811908 0.00178685 0.00000000
3.57169094 0.93858020 -0.00035396 0.00000000
0.55184753 1.44026440 -0.00444003 0.00000000
3.65307657 1.84064634 0.00097938 0.00000000
1.83239170 1.63589284 -0.00619133 0.00000000
3.82300632 0.71152404 0.00639443 0.00000000
0.76932332 0.89481644 0.00310359 0.00000000
2.04840991 0.52680364 -0.00328519 0.00000000
1.31217125 1.48893297 -0.00080026 0.00000000
1.36704064 1.06038172 -0.00059535 0.00000000
2.35621199 1.28743279 -0.00038067 0.00000000
2.32026659 0.12465212 0.00085766 0.00000000
0.90743822 1.25515444 0.00110761 0.00000000
2.10605747 0.21375696 -0.00023466 0.00000000
0.34881797 1.14972048 0.00051046 0.00000000
1.40529393 1.81703543 -0.00395234 0.00000000
3.89615435 1.19942032 0.00224754 0.00000000
0.22906551 0.33380787 -0.00020335 0.00000000
3.95181570 0.53081027 -0.00326195 0.00000000
0.86640582 1.70491754 0.00013211 0.00000000
2.08677617 0.88506284 0.00017685 0.00000000
4.09607605 1.03929171 0.00483656 0.00000000
1.72411220 1.58086958 0.00675141 0.00000000
0.07397164 0.16802730 0.00264378 0.00000000
3.52721806 0.78514508 -0.00582707 0.00000000
3.50689998 0.00023232 -0.00409181 0.00000000
0.05236030 0.77606428 -0.00444312 0.00000000
0.96097039 1.76338882 0.00338663 0.00000000
0.98225642 1.62186683 -0.00064209 0.00000000
2.31381985 0.89247047 0.00566955 0.00000000
0.43308386 0.62493572 -0.00147763 0.00000000
3.01743547 0.88079663 -0.00388696 0.00000000
1.98121206 1.41036142 -0.00220948 0.00000000
3.70767756 1.58907819 -0.00373865 0.00000000
0.50806961 0.21078932 0.00141212 0.00000000
0.78773160 0.62684643 -0.00113709 0.00000000
1.65281190 0.29252954 0.00111846 0.00000000
2.21692815 0.90859761 0.00464450 0.00000000
0.27298806 0.58806527 -0.00118940 0.00000000
1.05369991 1.21302936 -0.00033992 0.00000000
3.01811146 1.16858342 -0.00149932 0.00000000
2.14377751 0.13807107 0.00415795 0.00000000
0.77652897 0.33234262 0.00067306 0.00000000
2.38517081 1.28389600 0.00120692 0.00000000
1.40763614 1.20941813 -0.00020529 0.00000000
2.31795830 1.35994617 -0.00119555 0.00000000
3.80471598 1.17986432 -0.00150098 0.00000000
2.99376429 1.83997439 -0.00068157 0.00000000
1.82499295 0.09195677 0.00020344 0.00000000
1.08166224 0.62410119 0.00099864 0.00000000
1.86451778 0.24624560 0.00011718 0.00000000
3.67721085 1.11083148 0.00475882 0.00000000
2.38154631 1.15669704 0.00278885 0.00000000
1.10696057 0.55501764 0.00171877 0.00000000
2.98198982 0.58975769 0.00275612 0.00000000
4.06475034 0.64981523 0.00579364 0.00000000
2.38284653 0.66757078 0.00026366 0.00000000
0.02878099 0.26792397 -0.00181836 0.00000000
2.51260354 1.34941899 0.00178493 0.00000000
2.42189300 0.58225106 -0.00227347 0.00000000
2.70327850 0.61224348 -0.00126401 0.00000000
2.32860574 1.09360938 0.00093568 0.00000000
2.50731480 1.75999071 -0.00111343 0.00000000
4.15450293 0.75044421 0.00442081 0.00000000
4.15681023 1.25338512 -0.00069061 0.00000000
1.99595603 1.71367602 -0.00114924 0.00000000
0.59761200 0.66780649 -0.00600042 0.00000000
2.91711459 1.64872708 -0.00048302 0.00000000
3.24145442 1.40157319 -0.00014692 0.00000000
0.45219997 0.50066316 0.00423509 0.00000000
2.71887659 1.82861831 -0.00012005 0.00000000
0.88483542 0.02090638 -0.00146798 0.00000000
1.71419952 0.10440848 0.00233896 0.00000000
2.34272123 0.82183110 0.00082060 0.00000000
3.15224118 1.14214919 0.00129652 0.00000000
3.52959476 0.62826361 -0.00003268 0.00000000
0.30214401 0.46507146 -0.00398346 0.00000000
0.75379204 0.15008117 0.00195619 0.00000000
2.97693041 0.92550933 0.00072963 0.00000000
2.74852161 0.80138267 -0.00040664 0.00000000
1.12630866 1.29605206 0.00179023 0.00000000
4.00142655 0.19336717 0.00380961 0.00000000
2.11740019 1.73744617 -0.00465137 0.00000000
0.47907161 0.89348415 -0.00083414 0.00000000
1.41900747 1.08932743 -0.00024928 0.00000000
2.23313908 1.32372955 0.00389649 0.00000000
0.17751301 0.19032738 0.00168462 0.00000000
2.87233711 1.03836468 -0.00480139 0.00000000
4.08412802 1.85856986 -0.00214867 0.00000000
1.47427332 1.13583648 -0.00109175 0.00000000
3.07079620 0.95323538 -0.00053061 0.00000000
1.25244663 1.46511597 0.00185895 0.00000000
4.03914376 0.32719869 -0.00089774 0.00000000
0.18659203 1.32930559 0.00653806 0.00000000
2.87618001 1.70463845 0.00253785 0.00000000
2.77286729 1.81501219 -0.00279724 0.00000000
3.92723584 0.44935318 -0.00042696 0.00000000
2.46193342 1.61582759 0.00010051 0.00000000
0.88673478 1.80465576 0.00017672 0.00000000
1.49984301 1.08729596 -0.00167678 0.00000000
0.62700099 0.75365049 -0.00179481 0.00000000
1.46692369 0.21310582 -0.00447858 0.00000000
4.08552247 0.34836623 -0.00208976 0.00000000
2.84211019 0.12193241 -0.00156838 0.00000000
2.17422450 0.94228056 -0.00292555 0.00000000
1.35692826 1.63401341 -0.00105583 0.00000000
1.00304855 1.56449655 0.00137855 0.00000000
3.61188789 1.62413751 0.00151307 0.00000000
0.59914062 0.66887630 0.00094337 0.00000000
4.10357033 0.93730925 0.00466563 0.00000000
0.41480228 1.43918532 0.00005416 0.00000000
0.12494632 0.60721194 -0.00096500 0.00000000
2.48489285 0.87373211 0.00172018 0.00000000
0.45805288 0.53470209 0.00308630 0.00000000
1.78948321 1.55850846 0.00240117 0.00000000
3.17033650 1.08001539 0.00443080 0.00000000
4.18060326 1.83243341 -0.00446692 0.00000000
3.83982282 1.22437063 0.00215392 0.00000000
3.93744435 0.56739427 -0.00152874 0.00000000
2.35350404 1.01224310 0.00128648 0.00000000
1.72252468 1.29355156 0.00518462 0.00000000
2.89369233 1.81779392 0.00122333 0.00000000
1.32312207 0.57498161 -0.00527803 0.00000000
0.68288781 1.62737100 0.00424023 0.00000000
0.15237457 1.76165882 -0.00083919 0.00000000
1.54548482 1.84468322 0.00164170 0.00000000
1.63442213 0.17899605 -0.00249725 0.00000000
3.96545057 0.87651890 0.00341087 0.00000000
3.70231008 0.34698953 0.00201877 0.00000000
3.33081080 0.53162579 -0.00157409 0.00000000
1.56001534 0.90742778 -0.00328658 0.00000000
0.33555307 1.16957873 -0.00283275 0.00000000
3.15555596 0.96817537 0.00230103 0.00000000
0.56300392 1.76487517 -0.00337429 0.00000000
2.43104901 1.63183725 -0.00050621 0.00000000
0.23021204 0.22069455 -0.00352430 0.00000000
1.53414066 0.69452469 0.00012669 0.00000000
0.41957029 1.28494536 0.00153725 0.00000000
1.67200531 1.08581339 0.00181300 0.00000000
3.43327621 0.90704015 0.00000875 0.00000000
2.64882564 0.28378724 0.00006891 0.00000000
0.86572991 1.05069755 0.00150423 0.00000000
1.76842463 0.12676904 -0.00155532 0.00000000
2.58667922 1.16338438 0.00353405 0.00000000
3.45136680 0.28458646 0.00359514 0.00000000
0.50952353 0.71829604 0.00302930 0.00000000
1.34594111 0.09275177 0.00676517 0.00000000
0.07331352 0.54936097 -0.00260712 0.00000000
0.92035200 0.30343538 -0.00143010 0.00000000
4.18099028 0.63600162 -0.00114719 0.00000000
1.25742640 0.82350436 0.00087824 0.00000000
2.14701580 1.37701193 -0.00011185 0.00000000
3.30059888 1.61118625 0.00006007 0.00000000
2.30386847 1.50103750 0.00156862 0.00000000
2.11527693 1.04586136 -0.00291402 0.00000000
0.81051046 1.73741072 0.00259971 0.00000000
3.44954509 1.61940424 -0.00314590 0.00000000
1.00049488 1.08934656 -0.00238131 0.00000000
0.85240989 0.51343079 -0.00061854 0.00000000
1.02866110 0.87260875 0.00116062 0.00000000
1.79758486 0.51799626 0.00353600 0.00000000
3.43615329 0.29705396 -0.00265553 0.00000000
2.02547882 0.12195184 -0.00296294 0.00000000
3.05555146 0.75925573 0.00086387 0.00000000
3.31232804 1.84142566 0.00369807 0.00000000
3.92466402 0.68898141 -0.00012145 0.00000000
1.16946077 0.68664317 -0.00040828 0.00000000
1.74538190 0.47936889 0.00265838 0.00000000
0.75625683 0.87761339 -0.00038013 0.00000000
2.45218201 0.89212952 -0.00174748 0.00000000
2.74717780 1.51720136 -0.00019311 0.00000000
3.53020570 1.52939531 -0.00075206 0.00000000
1.28316566 1.63706332 0.00005932 0.00000000
2.43730361 0.35984156 0.00149114 0.00000000
3.17526652 0.64092333 0.00224443 0.00000000
2.05237700 0.79471707 -0.00007042 0.00000000
2.50134272 0.30644549 -0.00124035 0.00000000
2.22836568 0.98018200 -0.00243034 0.00000000
0.09609293 1.20885321 -0.00072169 0.00000000
2.82392659 1.09891603 0.00132138 0.00000000
3.76918922 1.12930170 -0.00274937 0.00000000
3.33347038 1.45267399 0.00265031 0.00000000
1.95965048 1.52150644 -0.00157190 0.00000000
1.31249794 0.55233202 0.00181537 0.00000000
3.49942023 0.50626790 0.00174879 0.00000000
2.36998274 1.40370821 0.00026320 0.00000000
2.50838483 0.27073889 -0.00195403 0.00000000
2.03626129 1.81554167 0.00153863 0.00000000
2.75976696 0.81725060 0.00006055 0.00000000
4.10734404 0.88278305 0.00347801 0.00000000
4.12304166 1.29817730 0.00233684 0.00000000
3.20426824 0.58743256 -0.00107730 0.00000000
2.46960306 1.85838295 -0.00206419 0.00000000
2.23669789 1.80063431 -0.00374578 0.00000000
0.72145897 0.39146365 -0.00238105 0.00000000
3.43598977 1.60026960 0.00490000 0.00000000
4.02550122 0.28394502 0.00269672 0.00000000
2.18717506 1.08316949 -0.00019214 0.00000000
3.42993788 1.17938146 -0.00336834 0.00000000
0.83005672 0.36741519 0.00241423 0.00000000
3.33928767 0.66378863 0.00151537 0.00000000
0.72199231 0.35904887 -0.00057400 0.00000000
0.17460038 0.15712648 0.00503686 0.00000000
0.79073579 0.37676126 0.00082393 0.00000000
2.99190529 1.77070888 0.00132700 0.00000000
0.03071717 1.13624877 -0.00065928 0.00000000
3.46775628 0.60422598 -0.00065963 0.00000000
3.28805067 1.84194152 -0.00379154 0.00000000
1.42480943 0.62116773 -0.00279076 0.00000000
4.24481676 0.24128970 -0.00036900 0.00000000
2.74408477 1.43435393 0.00429837 0.00000000
2.75399624 1.82212186 -0.00182277 0.00000000
3.01639902 1.28962797 0.00168608 0.00000000
1.20665288 0.54443348 0.00166968 0.00000000
1.42004675 1.42592640 -0.00123052 0.00000000
3.99492618 0.53491865 -0.00113003 0.00000000
1.73508890 1.28037472 0.00189278 0.00000000
1.57194404 0.53599206 0.00040566 0.00000000
2.97912270 0.27044547 0.00457353 0.00000000
1.99474886 1.46773890 -0.00015653 0.00000000
4.22208340 1.63159255 0.00126501 0.00000000
3.22112843 1.62180681 -0.00107799 0.00000000
2.26054261 1.09658880 -0.00333746 0.00000000
2.69120263 1.27084448 -0.00078933 0.00000000
2.67901204 0.16108034 -0.00162258 0.00000000
1.81946228 0.66097727 0.00592793 0.00000000
1.63375422 1.36828335 -0.00207072 0.00000000
2.76977713 1.11073476 0.00175862 0.00000000
2.22806669 1.75266049 0.00030197 0.00000000
0.07637379 0.45859766 -0.00034316 0.00000000
0.35594701 1.72742347 -0.00063484 0.00000000
2.82224880 1.13882472 0.00004857 0.00000000
0.98448108 0.73243189 0.00174140 0.00000000
3.01201055 0.37860155 0.00030645 0.00000000
3.99242022 1.30292140 -0.00104862 0.00000000
1.56336928 1.43636151 0.00170484 0.00000000
1.73786066 1.74532903 -0.00225933 0.00000000
0.22544796 1.43253766 0.00225770 0.00000000
0.79758893 1.72383170 -0.00081373 0.00000000
1.33926919 0.62915269 0.00572674 0.00000000
3.99706171 0.16159167 -0.00044688 0.00000000
1.28890048 0.03459521 0.00017718 0.00000000
1.10995155 0.52215009 0.00095349 0.00000000
2.90125147 0.30287112 0.00062554 0.00000000
0.03964744 0.69468591 0.00343456 0.00000000
0.87623328 0.15638859 -0.00354047 0.00000000
3.35615900 1.13990663 0.00260429 0.00000000
3.85465512 0.69572051 0.00149214 0.00000000
4.13996989 0.71904592 -0.00021356 0.00000000
1.53430686 1.65427915 0.00076875 0.00000000
3.62259652 0.99848406 -0.00025250 0.00000000
1.93732717 0.76302868 0.00647023 0.00000000
3.98263767 1.85562295 0.00154533 0.00000000
3.41484448 0.18499223 0.00058092 0.00000000
1.10648945 1.31480872 0.00299005 0.00000000
2.75891046 0.10010923 -0.00002908 0.00000000
2.94863885 0.83215431 -0.00361756 0.00000000
