0.73521939 1.30613628 0.00217544 0.00000000
2.01281546 0.66987499 -0.00010181 0.00000000
4.16398852 1.21304806 -0.00283495 0.00000000
1.46637248 2.00983755 -0.00024976 0.00000000
3.26934049 0.05453966 -0.00428011 0.00000000
1.52071045 0.18724456 0.00237381 0.00000000
1.34101720 0.47061266 -0.00146593 0.00000000
2.28445749 1.04502081 -0.00313218 0.00000000
2.96852674 1.40212637 0.00084462 0.00000000
0.66612415 1.48558628 -0.00158571 0.00000000
2.80243996 0.04898908 -0.00124485 0.00000000
0.86754956 1.40734205 -0.00322443 0.00000000
1.47636246 0.27146227 0.00040908 0.00000000
1.36971725 0.57390088 -0.00172222 0.00000000
3.95914311 1.79073630 0.00069655 0.00000000
3.57093523 1.21604532 -0.00348698 0.00000000
0.98261407 0.60959046 -0.00123949 0.00000000
3.20008363 1.89640625 -0.00433924 0.00000000
3.23433013 1.81654576 0.00671515 0.00000000
0.38081447 0.57086837 -0.00278959 0.00000000
1.38066399 0.59388196 -0.00354112 0.00000000
1.95093630 0.08890735 0.00381165 0.00000000
4.10829398 1.08326476 0.00023014 0.00000000
2.03370121 1.57874066 -0.00266570 0.00000000
4.13077318 0.62814295 0.00372273 0.00000000
2.38729951 0.43627308 0.00251819 0.00000000
0.91141827 1.64681235 -0.00048708 0.00000000
1.43521818 1.30962480 0.00295685 0.00000000
3.21031933 0.32213119 -0.00201532 0.00000000
2.19191623 0.29119531 0.00046366 0.00000000
1.67532726 1.91147172 0.00054115 0.00000000
3.25498124 1.97845008 0.00514229 0.00000000
2.30937775 1.51845337 -0.00504820 0.00000000
0.81121568 1.92617612 -0.00138130 0.00000000
2.34996136 1.29940034 -0.00069450 0.00000000
1.43489045 0.31718813 -0.00149954 0.00000000
3.30510333 0.77057250 -0.00302202 0.00000000
1.20797587 1.43697369 0.00030547 0.00000000
4.14613990 0.79025903 0.00559614 0.00000000
1.90027507 1.22011727 0.00215721 0.00000000
1.65284727 2.05234827 0.00030772 0.00000000
1.85500427 1.50731040 0.00415135 0.00000000
3.11160020 0.54776768 0.00113055 0.00000000
0.20375347 0.72781113 -0.00207943 0.00000000
1.23109344 0.09326599 0.00232751 0.00000000
3.63377893 1.52581527 0.00396985 0.00000000
3.45340831 1.48503309 0.00093008 0.00000000
0.30990049 1.85148196 0.00058130 0.00000000
3.35040196 2.06003036 -0.00440225 0.00000000
3.69892694 2.10632386 0.00098947 0.00000000
1.57910856 0.51993813 0.00104470 0.00000000
0.96368682 1.65125460 -0.00078759 0.00000000
0.87769477 2.00934277 -0.00099060 0.00000000
1.42869393 1.12244478 0.00086514 0.00000000
2.24173541 0.77640969 -0.00075831 0.00000000
1.05730457 0.22727833 0.00010019 0.00000000
3.44966767 1.95211585 0.00199160 0.00000000
2.23800991 1.94366491 0.00107525 0.00000000
3.52334807 1.63055895 0.00063215 0.00000000
1.82469879 1.80858925 0.00170636 0.00000000
3.64838529 0.41480476 0.00162275 0.00000000
0.70964336 1.57909997 -0.00074419 0.00000000
1.96630116 1.90467660 0.00206121 0.00000000
4.15892119 1.40571409 -0.00074516 0.00000000
1.87795479 1.99484864 -0.00084127 0.00000000
0.30553273 0.44066587 0.00063101 0.00000000
3.52073865 0.24677013 -0.00610924 0.00000000
0.17355787 1.28715181 0.00152652 0.00000000
2.16672884 1.80898670 -0.00034558 0.00000000
3.74887325 1.66646233 -0.00148704 0.00000000
0.70500787 0.93117298 -0.00318782 0.00000000
0.08543562 1.96863970 0.00322031 0.00000000
0.29538960 0.73371827 0.00183680 0.00000000
3.89193660 1.67268057 -0.00555242 0.00000000
1.26341274 0.07269775 0.00075130 0.00000000
1.07566725 2.11276501 0.00267705 0.00000000
0.02638996 1.56799758 0.00303639 0.00000000
3.58489645 0.79531677 0.00283827 0.00000000
2.76262252 1.68018222 0.00192642 0.00000000
0.59367549 2.05614868 -0.00023312 0.00000000
2.90812854 1.07070801 -0.00241756 0.00000000
4.07011178 1.19407797 -0.00263898 0.00000000
3.63889241 1.99654600 -0.00214541 0.00000000
2.30395576 0.66092567 0.00091624 0.00000000
3.61602158 1.25042093 0.00070254 0.00000000
3.25452758 1.69477418 0.00483170 0.00000000
2.21441576 2.10412503 -0.00207848 0.00000000
2.26352851 1.29016909 -0.00338875 0.00000000
2.87400719 0.23798924 -0.00365603 0.00000000
1.22041702 0.76650625 0.00043980 0.00000000
2.67999577 1.85103987 -0.00333242 0.00000000
2.02178140 0.05905310 0.00299435 0.00000000
0.64666198 1.52691431 -0.00248372 0.00000000
4.03825025 0.55407049 -0.00196610 0.00000000
2.03073782 2.13268648 0.00333074 0.00000000
2.24394837 1.83012097 0.00279934 0.00000000
3.06726110 0.92376478 0.00170310 0.00000000
3.18472641 0.03052450 -0.00200405 0.00000000
1.34288082 0.70250694 0.00184885 0.00000000
1.71009209 1.91177768 -0.00087989 0.00000000
2.33918843 0.65232957 0.00022914 0.00000000
1.58717550 1.53098496 0.00256472 0.00000000
0.26946012 1.64940787 0.00490627 0.00000000
3.44189438 0.93971382 0.00022248 0.00000000
1.58114707 1.32670467 0.00188905 0.00000000
0.57241580 1.19958731 0.00116477 0.00000000
0.94010714 1.53371013 0.00241279 0.00000000
1.38777712 0.59583284 -0.00580439 0.00000000
0.46153247 1.89060833 0.00320213 0.00000000
3.05656426 2.14547461 0.00163638 0.00000000
3.03167729 1.78935066 0.00213642 0.00000000
2.31685375 1.38271488 0.00126709 0.00000000
0.17617498 0.71635129 0.00032783 0.00000000
2.11653308 1.76514282 -0.00429671 0.00000000
3.27720063 0.42153146 0.00066386 0.00000000
2.84589109 1.73054769 -0.00109774 0.00000000
3.49506698 0.89867358 -0.00158140 0.00000000
2.78972420 1.32669790 -0.00280604 0.00000000
1.09686893 1.89902689 0.00042043 0.00000000
0.62909816 1.72041448 0.00293984 0.00000000
3.18695083 1.04386742 -0.00023910 0.00000000
1.02012077 0.59599592 0.00091319 0.00000000
1.42364997 1.04854217 0.00091411 0.00000000
3.88776480 1.19528812 -0.00162367 0.00000000
0.90541805 2.11590123 -0.00235716 0.00000000
0.70031766 1.44181867 -0.00158367 0.00000000
0.98056699 0.45351842 -0.00040126 0.00000000
2.96477209 1.29681033 -0.00179847 0.00000000
1.21513646 0.84662037 0.00170974 0.00000000
2.59797143 0.19773596 -0.00041207 0.00000000
2.41558024 1.65956144 -0.00258568 0.00000000
3.44657240 1.50744701 0.00188126 0.00000000
3.78941782 0.72788070 0.00788422 0.00000000
1.61359796 0.99831089 0.00082852 0.00000000
4.18069591 0.49963006 -0.00009197 0.00000000
1.74078243 1.60505114 -0.00306676 0.00000000
3.48236950 1.17757692 -0.00461444 0.00000000
1.51013029 0.95330536 -0.00288058 0.00000000
0.32891029 2.16229692 0.00174169 0.00000000
1.43652950 1.39923417 -0.00538771 0.00000000
2.66343799 0.47090194 -0.00219437 0.00000000
1.08291309 1.28632306 -0.00384037 0.00000000
1.57388723 2.12847249 -0.00499354 0.00000000
0.42700988 1.06607553 -0.00408909 0.00000000
4.00167032 1.85945793 -0.00279525 0.00000000
2.60656965 1.11132874 0.00165975 0.00000000
2.79596752 1.91954072 0.00146293 0.00000000
3.50300217 1.29884112 -0.00351223 0.00000000
0.60131686 0.54888425 -0.00188699 0.00000000
2.62894632 0.06889430 0.00051546 0.00000000
2.98191752 0.61444014 -0.00104020 0.00000000
1.93898437 0.89665840 -0.00281653 0.00000000
0.22509476 2.11800880 0.00230513 0.00000000
3.75296710 1.05023362 0.00071701 0.00000000
3.33861607 0.85367864 0.00332769 0.00000000
2.59264823 2.00817613 -0.00138226 0.00000000
1.23562300 0.85950800 0.00237361 0.00000000
3.90229691 1.88839964 -0.00153861 0.00000000
4.08131499 0.45371241 -0.00028058 0.00000000
3.60961751 1.21356845 -0.00035541 0.00000000
1.90276411 1.13499873 -0.00073142 0.00000000
3.79930975 0.09086851 0.00058917 0.00000000
2.91640557 0.96306905 0.00143419 0.00000000
1.34123933 0.29447067 -0.00485870 0.00000000
2.58760120 0.55366198 0.00122123 0.00000000
2.75731131 2.10303785 0.00292106 0.00000000
2.05886636 1.09879645 -0.00124010 0.00000000
3.69859734 1.60795583 0.00176476 0.00000000
3.82513355 0.73173470 -0.00068824 0.00000000
0.30024537 0.62166004 0.00029017 0.00000000
2.40012965 1.00570226 -0.00475901 0.00000000
0.50058526 0.59880426 -0.00060694 0.00000000
2.78630724 0.84366681 -0.00156056 0.00000000
2.39264363 1.51923808 -0.00420300 0.00000000
0.71574119 1.95592595 0.00562753 0.00000000
1.96775508 1.62761732 -0.00066483 0.00000000
0.16257948 0.02100288 -0.00297403 0.00000000
2.44814714 0.22383105 -0.00665830 0.00000000
2.00150984 0.63162003 0.00180735 0.00000000
2.88449992 1.20403098 0.00193414 0.00000000
3.22359402 1.98502473 -0.00432770 0.00000000
2.41907536 0.56489307 0.00180238 0.00000000
2.15521792 1.18029116 -0.00162960 0.00000000
0.06146131 1.04789917 0.00330103 0.00000000
1.63971492 1.18841335 -0.00586549 0.00000000
2.25109884 0.69718341 0.00570822 0.00000000
1.56848080 1.58595244 -0.00033022 0.00000000
0.07702874 1.97758341 0.00161226 0.00000000
3.65498740 1.10993305 -0.00327580 0.00000000
3.16675814 1.71868515 -0.00407352 0.00000000
1.76619030 1.28065491 0.00085627 0.00000000
2.94416300 2.07214359 -0.00267408 0.00000000
3.41726356 0.25320866 0.00373286 0.00000000
3.21430761 1.34719526 0.00188664 0.00000000
2.93550104 1.47979600 0.00052933 0.00000000
3.95394920 1.31469306 -0.00051249 0.00000000
0.93548383 0.86156284 0.00059790 0.00000000
1.28992251 0.57040000 -0.00266869 0.00000000
3.36915341 0.74455274 -0.00025321 0.00000000
3.43837943 0.73404500 0.00258751 0.00000000
3.77737262 0.75393771 0.00020744 0.00000000
0.89631330 1.55566467 -0.00055159 0.00000000
1.31850691 0.46736824 0.00451875 0.00000000
3.84913797 1.19753143 -0.00166193 0.00000000
1.02137336 1.41170016 0.00083395 0.00000000
2.00362366 1.85461668 0.00047798 0.00000000
0.65544899 1.54674128 0.00189308 0.00000000
1.56981881 1.90754042 0.00158511 0.00000000
0.28714691 0.00633760 0.00027131 0.00000000
0.67496303 2.06731272 -0.00348163 0.00000000
3.05814513 0.48324013 0.00181419 0.00000000
2.06956270 0.23842796 -0.00273670 0.00000000
1.99597117 0.10604732 0.00036902 0.00000000
4.15481033 1.24689865 -0.00008956 0.00000000
3.26353852 1.61132372 -0.00286416 0.00000000
1.03582565 1.54078666 0.00061702 0.00000000
0.99865771 0.18766538 0.00131205 0.00000000
1.97285575 1.39311392 -0.00104630 0.00000000
2.00006732 1.18900322 -0.00234157 0.00000000
1.18590180 0.58468338 0.00331735 0.00000000
2.48089243 1.83833640 0.00125644 0.00000000
2.59029062 0.11536570 -0.00276470 0.00000000
2.68085255 0.76120271 0.00354477 0.00000000
3.53895709 1.08141708 -0.00007089 0.00000000
1.17801937 2.02200122 -0.00040237 0.00000000
4.00442070 1.93960467 -0.00183329 0.00000000
3.82685512 1.64609646 -0.00193446 0.00000000
0.27502638 1.23384230 -0.00211198 0.00000000
3.27976092 0.54717375 0.00182228 0.00000000
0.80382936 0.04928397 -0.00051991 0.00000000
3.29160287 1.65179466 -0.00077076 0.00000000
1.34465951 0.72490267 0.00157075 0.00000000
3.96833738 0.87060521 -0.00093885 0.00000000
0.88095597 1.55436782 -0.00296163 0.00000000
2.31384955 0.34188019 -0.00455822 0.00000000
0.45133579 0.10199206 -0.00543949 0.00000000
1.30667527 2.12748294 0.00403639 0.00000000
1.76060881 1.90671904 -0.00323066 0.00000000
0.40353381 1.58203167 -0.00103365 0.00000000
2.58215088 0.65951525 0.00136825 0.00000000
0.30270808 1.48579890 -0.00464363 0.00000000
2.63110553 0.94430572 -0.00218799 0.00000000
4.00506689 2.14055514 -0.00170267 0.00000000
0.84471206 1.30815719 -0.00098752 0.00000000
3.72405548 0.29606703 0.00260830 0.00000000
2.41286203 1.47090358 0.00077139 0.00000000
3.52916063 1.19307534 0.00095435 0.00000000
1.22973035 2.03015312 -0.00000787 0.00000000
1.89629890 1.40116840 -0.00158293 0.00000000
0.20300271 1.82408536 0.00266819 0.00000000
3.90912671 0.30922697 0.00165743 0.00000000
0.28937952 0.59626945 -0.00097824 0.00000000
3.77765499 0.22244540 0.00234780 0.00000000
3.84019938 0.22317937 0.00040841 0.00000000
0.67120025 0.52049827 0.00041828 0.00000000
3.34626734 0.24392936 0.00230629 0.00000000
3.12201444 1.32224376 0.00132656 0.00000000
0.44669870 0.46633985 0.00374716 0.00000000
1.65138257 1.49974600 -0.00151662 0.00000000
1.12324504 0.86080177 -0.00355649 0.00000000
0.16036238 0.97187637 0.00162754 0.00000000
0.33475721 0.02762715 -0.00156131 0.00000000
1.79003196 0.37823732 0.00048041 0.00000000
3.65107846 0.71098035 -0.00077890 0.00000000
2.40544070 1.14847458 0.00175994 0.00000000
0.72509598 1.31633901 -0.00019651 0.00000000
3.76186134 1.00417961 -0.00237662 0.00000000
0.75140454 1.36927342 -0.00278088 0.00000000
3.77283867 1.26198358 -0.00169570 0.00000000
2.87042301 0.58504688 0.00125452 0.00000000
1.24967447 0.09060542 0.00158588 0.00000000
2.93937840 1.07856854 0.00274015 0.00000000
1.75392042 1.79247410 -0.00372910 0.00000000
2.51476200 1.79656465 0.00011909 0.00000000
0.30425379 1.41455121 0.00107252 0.00000000
4.03904709 1.36277075 -0.00336895 0.00000000
0.58054022 1.98668122 -0.00051956 0.00000000
2.13810231 1.66212295 0.00161598 0.00000000
2.70977522 1.75253093 0.00095854 0.00000000
2.43274038 1.36164088 0.00204848 0.00000000
2.97181539 0.07203496 0.00287043 0.00000000
1.01601780 1.44192535 -0.00018659 0.00000000
2.35820735 1.99373045 0.00007123 0.00000000
3.93240539 0.92198602 -0.00232685 0.00000000
0.19443135 0.63953655 0.00221796 0.00000000
1.66475388 0.33688643 -0.00450496 0.00000000
0.88911338 1.50477206 0.00121450 0.00000000
1.46945353 1.05447853 -0.00256296 0.00000000
1.50627736 0.73264092 -0.00051150 0.00000000
4.07697725 0.41932032 0.00255810 0.00000000
3.52220800 1.71183945 -0.00162288 0.00000000
3.17760389 0.34526419 0.00156439 0.00000000
2.62048622 2.17685120 0.00016778 0.00000000
0.91529134 1.54472819 0.00004366 0.00000000
2.67643794 1.99811664 -0.00149206 0.00000000
3.79622280 0.85654553 0.00749323 0.00000000
2.50022175 2.16846819 -0.00254085 0.00000000
0.67442694 1.41828184 0.00443338 0.00000000
0.92527993 0.93298658 0.00386964 0.00000000
2.23481447 2.02248805 0.00031735 0.00000000
1.21652549 1.35377588 0.00198893 0.00000000
2.20550508 0.14873480 0.00296218 0.00000000
0.62737311 0.71940580 -0.00022745 0.00000000
1.64960374 1.07610833 -0.00082659 0.00000000
2.48024442 1.20318172 0.00340444 0.00000000
2.31588563 0.87416807 0.00187270 0.00000000
1.06079728 1.82211801 0.00328371 0.00000000
0.09679073 1.25516153 0.00147126 0.00000000
3.57075568 1.78500566 -0.00476683 0.00000000
1.64586370 0.77936887 -0.00448467 0.00000000
3.48160519 0.66445612 0.00252789 0.00000000
1.09640741 2.16677597 -0.00159663 0.00000000
1.29522256 1.48328298 -0.00150857 0.00000000
1.24648709 0.87372923 -0.00095297 0.00000000
3.86305381 1.81885426 -0.00385287 0.00000000
1.24054380 1.94233151 0.00123142 0.00000000
2.49099841 0.49196960 0.00012438 0.00000000
0.17759536 0.85390259 0.00289268 0.00000000
2.21294642 1.74288425 0.00198597 0.00000000
0.53105662 0.04982845 -0.00365244 0.00000000
2.18648292 2.16929204 0.00264363 0.00000000
3.24879386 0.05207821 -0.00399773 0.00000000
0.98768765 1.18347200 0.00215840 0.00000000
0.45914864 1.84506892 -0.00302192 0.00000000
1.73949034 2.10730412 -0.00318560 0.00000000
0.64507165 1.13250751 0.00323032 0.00000000
1.49211601 0.84645859 -0.00112246 0.00000000
4.15492134 0.76602868 0.00368791 0.00000000
2.22686495 0.93126468 0.00118407 0.00000000
3.09543745 1.59034609 -0.00322195 0.00000000
2.68605133 1.23475621 0.00114640 0.00000000
3.53568731 1.99365084 -0.00094363 0.00000000
3.80900330 1.79797712 0.00710037 0.00000000
2.73336947 0.93272984 -0.00153011 0.00000000
2.82404914 0.79908686 0.00115265 0.00000000
1.89199250 0.67319815 -0.00374847 0.00000000
0.03345477 0.83719177 0.00337260 0.00000000
3.75475022 0.75559687 0.00017664 0.00000000
2.46201891 1.86315313 0.00041454 0.00000000
0.78879423 2.12473783 0.00245349 0.00000000
0.39006530 1.44970028 0.00047848 0.00000000
2.53151994 0.19178207 0.00413097 0.00000000
2.52921352 1.91436679 -0.00154330 0.00000000
2.36788382 0.44294743 -0.00279405 0.00000000
0.65959554 2.06749784 -0.00014242 0.00000000
0.39760492 1.59170361 0.00155518 0.00000000
2.25306013 0.43907578 -0.00533290 0.00000000
3.22075108 1.31219302 0.00136354 0.00000000
0.99447975 1.16837942 -0.00324103 0.00000000
0.46796426 1.12976872 -0.00424398 0.00000000
1.04503638 1.25495613 -0.00091341 0.00000000
1.09150832 1.06093803 0.00022826 0.00000000
2.92265143 1.13712846 0.00065919 0.00000000
0.83123330 1.32643322 0.00264362 0.00000000
3.25790901 0.06576035 -0.00259372 0.00000000
3.90279756 1.73423833 0.00138971 0.00000000
1.06589399 0.77531422 0.00223413 0.00000000
1.26828579 0.25097615 0.00258404 0.00000000
0.62742220 1.74311823 -0.00136621 0.00000000
3.93128227 0.34425167 0.00251886 0.00000000
2.80792669 1.14643016 0.00034745 0.00000000
2.00559868 1.68436215 0.00548475 0.00000000
1.62973227 1.48946037 -0.00147417 0.00000000
2.63367542 1.24036230 0.00516276 0.00000000
3.46884626 0.26847655 -0.00300288 0.00000000
1.48745903 0.59242589 -0.00411731 0.00000000
4.14661507 0.92441351 0.00246686 0.00000000
2.97804274 1.95965891 -0.00200106 0.00000000
2.34412315 0.96574307 -0.00156522 0.00000000
2.94695526 0.89293904 0.00174501 0.00000000
1.16727689 1.27365604 0.00331755 0.00000000
3.57256364 1.03829507 0.00038605 0.00000000
3.54423271 0.72242008 -0.00105067 0.00000000
1.99484642 0.52712706 -0.00114866 0.00000000
1.81016324 1.19927448 -0.00025604 0.00000000
2.26349360 0.32517939 -0.00208207 0.00000000
2.36877981 1.84536069 0.00485821 0.00000000
1.52785771 0.06272806 -0.00013665 0.00000000
0.93664798 0.37652786 0.00309213 0.00000000
0.28242768 1.53033463 0.00111747 0.00000000
0.11332690 0.17622177 -0.00134030 0.00000000
0.37563317 0.47594231 -0.00136988 0.00000000
2.59864375 1.02235604 0.00031159 0.00000000
3.07417986 0.45547356 -0.00256019 0.00000000
3.06920646 0.01246241 0.00482330 0.00000000
1.12176370 2.13838315 0.00352099 0.00000000
0.31782536 1.62286751 0.00389202 0.00000000
2.16296842 1.60483485 0.00425196 0.00000000
3.87705825 1.18921069 -0.00005425 0.00000000
3.04407343 1.94634583 -0.00126543 0.00000000
0.70559908 1.38198743 0.00150243 0.00000000
3.97524232 2.11443392 0.00272330 0.00000000
3.98341723 2.14837082 0.00289302 0.00000000
3.36721585 0.96329550 0.00130682 0.00000000
1.01837222 1.12653115 -0.00016040 0.00000000
2.26921374 1.06014832 0.00216052 0.00000000
2.90811501 0.40226249 0.00216592 0.00000000
3.23772238 0.67096572 -0.00197030 0.00000000
3.90379468 1.87241075 -0.00275591 0.00000000
2.22558163 1.46660339 0.00091422 0.00000000
4.15538281 0.76038879 0.00446282 0.00000000
2.99332736 0.51724709 0.00351081 0.00000000
1.87241345 1.70205071 -0.00528105 0.00000000
0.72945283 0.02997955 0.00416032 0.00000000
0.79626684 0.72665190 0.00127823 0.00000000
0.30037976 2.12581689 0.00067789 0.00000000
1.59707203 0.17996259 0.00175435 0.00000000
0.03042448 2.08131427 0.00087925 0.00000000
3.51577545 0.08294405 0.00107396 0.00000000
0.58117554 0.03926156 0.00228523 0.00000000
2.96663657 0.10701003 -0.00145874 0.00000000
2.06443773 0.54905940 -0.00080251 0.00000000
3.83326371 1.27407714 0.00090628 0.00000000
0.62507181 1.53776352 -0.00130471 0.00000000
0.39005563 1.92932452 0.00018239 0.00000000
1.27215118 0.44669439 0.00010530 0.00000000
3.33550352 0.23252141 -0.00082091 0.00000000
3.38141517 1.45843137 0.00094339 0.00000000
2.53464296 0.70612221 0.00033292 0.00000000
2.51885929 1.25512633 0.00050457 0.00000000
0.22392922 1.57258941 -0.00014861 0.00000000
3.25385270 1.82115060 0.00320239 0.00000000
1.17816419 1.91407097 -0.00328088 0.00000000
1.57726623 0.61047114 -0.00125094 0.00000000
0.65833271 1.86232752 -0.00063749 0.00000000
0.82497677 0.48891651 0.00126496 0.00000000
3.66952291 1.92390841 -0.00214092 0.00000000
2.11050609 0.33423834 -0.00064358 0.00000000
3.59978285 1.56539249 0.00005671 0.00000000
0.43021788 0.49236428 -0.00109470 0.00000000
0.86825402 0.23562631 0.00013844 0.00000000
0.05030262 0.90282020 0.00310355 0.00000000
0.74102264 1.93206286 0.00084130 0.00000000
3.34619532 0.22756120 -0.00349161 0.00000000
0.29550915 1.05158801 0.00484775 0.00000000
0.79600302 2.11362804 -0.00070940 0.00000000
0.69050571 2.09786694 -0.00249393 0.00000000
2.12351596 0.92670786 0.00082010 0.00000000
0.47039232 0.02972065 0.00148491 0.00000000
2.71437719 0.00695845 0.00412059 0.00000000
1.56342763 1.38590148 0.00391109 0.00000000
2.10662525 1.55762502 0.00108610 0.00000000
1.85650885 2.17427841 -0.00093739 0.00000000
3.25006772 0.97383078 0.00362891 0.00000000
0.03224855 0.81869266 -0.00098149 0.00000000
1.63070380 1.21584420 0.00164335 0.00000000
1.09675581 0.87834246 0.00217139 0.00000000
0.38768741 0.66193555 -0.00008853 0.00000000
2.69875083 0.20174880 0.00129826 0.00000000
3.17499938 0.18998128 0.00195921 0.00000000
2.57413264 2.14131382 -0.00154516 0.00000000
2.00778756 1.86345298 -0.00178593 0.00000000
0.60751417 0.06599764 -0.00145449 0.00000000
2.34803823 1.11159715 -0.00181762 0.00000000
1.29673919 1.30448905 -0.00077130 0.00000000
3.96063933 1.75098631 -0.00023060 0.00000000
2.97833519 1.55128436 -0.00206786 0.00000000
2.59062949 2.16459813 0.00027759 0.00000000
0.00654773 0.75275045 -0.00041076 0.00000000
0.72647737 1.71514719 0.00118612 0.00000000
1.44680063 1.41125259 0.00100757 0.00000000
2.94933121 1.22444662 -0.00024800 0.00000000
1.49202612 0.15505251 -0.00131780 0.00000000
1.81284336 1.74295557 0.00189488 0.00000000
1.47639824 1.78552876 0.00080423 0.00000000
0.40187924 1.49712090 0.00064972 0.00000000
3.45939271 0.86509930 -0.00089135 0.00000000
0.17545321 0.87667227 -0.00129218 0.00000000
3.04770055 1.32129073 0.00661537 0.00000000
1.26145948 1.47053971 0.00427506 0.00000000
1.97429075 0.03065054 0.00076529 0.00000000
3.49931773 2.07910978 0.00508738 0.00000000
0.62100680 1.53061848 0.00465832 0.00000000
0.73702284 1.29114186 -0.00160569 0.00000000
0.05018119 1.96075162 0.00185233 0.00000000
1.36859022 2.04378233 -0.00178868 0.00000000
1.15840328 0.49090635 0.00006679 0.00000000
3.21811767 0.49286155 -0.00197448 0.00000000
3.41233844 1.13768593 -0.00159767 0.00000000
1.07401842 0.54741936 0.00016820 0.00000000
1.67946402 0.60652589 -0.00073641 0.00000000
3.96426229 2.09626055 0.00545315 0.00000000
3.54804514 0.05561240 0.00373159 0.00000000
0.48620003 0.67614447 -0.00114991 0.00000000
1.56093328 0.51435702 0.00369404 0.00000000
1.69254630 1.88842169 -0.00235102 0.00000000
3.24992639 1.30881180 -0.00221668 0.00000000
2.20051076 0.75525743 0.00302328 0.00000000
3.68254552 0.00715722 0.00059358 0.00000000
1.62114299 0.07089292 -0.00011216 0.00000000
3.36505901 1.48574266 0.00326109 0.00000000
3.69200674 1.51418802 -0.00179801 0.00000000
3.84423908 1.53304069 -0.00015911 0.00000000
3.60599810 0.51381784 -0.00135666 0.00000000
2.03895692 1.18160234 -0.00128613 0.00000000
3.12189524 1.54136959 -0.00235731 0.00000000
1.99878239 0.39735332 0.00050833 0.00000000
0.52003199 1.25284341 0.00501352 0.00000000
3.24546794 1.39017464 0.00277963 0.00000000
0.75332538 0.19387563 -0.00319170 0.00000000
0.65599685 1.12180025 0.00126341 0.00000000
1.34880610 0.90795059 0.00263731 0.00000000
2.03510537 2.16410816 -0.00216516 0.00000000
1.68986719 0.08529748 0.00417218 0.00000000
3.84483468 1.55619444 -0.00219962 0.00000000
1.91777776 1.54927847 0.00575571 0.00000000
2.15055792 2.16578178 -0.00071324 0.00000000
2.82202053 1.40879126 -0.00377663 0.00000000
2.10939503 1.96745783 -0.00118201 0.00000000
2.38639889 0.96017941 0.00044526 0.00000000
0.17600074 0.54763744 0.00036297 0.00000000
3.95718593 1.17756349 0.00175346 0.00000000
3.46954023 1.11905893 -0.00253279 0.00000000
3.86270441 1.06178600 0.00142099 0.00000000
0.10899534 0.42235586 0.00267011 0.00000000
1.66142682 0.41640776 -0.01028497 0.00000000
3.36119146 0.67576259 0.00312181 0.00000000
3.51346436 1.07458314 0.00052593 0.00000000
4.05647748 2.12629251 -0.00337090 0.00000000
1.24416912 0.21633618 0.00050121 0.00000000
2.20272551 1.41212575 -0.00128577 0.00000000
2.91310961 0.61241229 0.00301147 0.00000000
1.67820287 1.12873558 0.00675765 0.00000000
0.74796752 1.99315441 0.00141059 0.00000000
1.80156629 0.56482319 0.00056832 0.00000000
0.08445896 1.34206569 -0.00179127 0.00000000
1.56398112 1.88937994 -0.00012377 0.00000000
1.24657662 1.13264175 -0.00115234 0.00000000
3.23419411 2.17137979 0.00265869 0.00000000
0.21191917 2.01779017 0.00035198 0.00000000
2.80973527 1.99491669 0.00253641 0.00000000
0.50609679 1.90527430 0.00211837 0.00000000
2.20005323 1.24541062 -0.00325824 0.00000000
2.81003958 1.03172339 -0.00115499 0.00000000
1.91904005 0.18016903 -0.00080991 0.00000000
3.12753993 0.19120700 -0.00087466 0.00000000
1.39151969 0.67511480 0.00090256 0.00000000
0.19036582 1.29577621 -0.00180470 0.00000000
0.29486735 1.72602746 -0.00172092 0.00000000
1.03518728 2.05870202 0.00251661 0.00000000
2.07750614 0.76791538 0.00251915 0.00000000
2.58145548 1.36286382 -0.00005827 0.00000000
0.67689522 0.84348326 -0.00160355 0.00000000
1.22962803 1.85052751 0.00095886 0.00000000
0.01641161 0.41463449 0.00531857 0.00000000
2.51373662 1.61078917 0.00210449 0.00000000
0.45018572 1.96931282 -0.00170080 0.00000000
1.42688582 1.33283413 0.00127390 0.00000000
3.21343897 1.39836576 0.00030842 0.00000000
0.31121243 0.74620848 -0.00321042 0.00000000
1.46378648 1.15499066 -0.00304884 0.00000000
1.05724073 1.99307166 0.00231573 0.00000000
1.09207763 1.07793726 0.00039227 0.00000000
0.39701922 1.01637368 -0.00210111 0.00000000
0.94238330 0.93347098 0.00148691 0.00000000
1.53987780 0.67508714 0.00023510 0.00000000
0.06404651 1.56725579 0.00537512 0.00000000
3.37834819 1.27823083 0.00394962 0.00000000
1.34696706 1.33244912 0.00117009 0.00000000
2.62707346 1.68589556 -0.00188389 0.00000000
2.40734997 0.15635944 0.00037376 0.00000000
2.15291326 0.52355011 -0.00200914 0.00000000
2.43774790 0.10581972 0.00046750 0.00000000
0.72042562 0.58640534 -0.00313478 0.00000000
1.37981309 1.97480690 0.00021894 0.00000000
2.40170639 1.64697683 -0.00134522 0.00000000
1.95836603 1.28005822 0.00266135 0.00000000
0.85827630 0.14533056 0.00073604 0.00000000
2.22845792 1.15570634 0.00095533 0.00000000
3.26246040 1.79363015 -0.00230889 0.00000000
0.09055454 1.74358242 0.00003765 0.00000000
0.39488693 0.46300880 -0.00160986 0.00000000
1.76447707 0.73369882 -0.00095103 0.00000000
3.95232311 1.79415496 -0.00125821 0.00000000
2.44013783 0.11993707 0.00243166 0.00000000
1.88789306 1.26492593 -0.00089203 0.00000000
1.19549752 2.08888852 -0.00221249 0.00000000
3.56506866 1.41066732 -0.00058572 0.00000000
2.40549815 0.72977829 -0.00236248 0.00000000
4.16403150 0.64749829 0.00026121 0.00000000
2.17122208 0.31086646 0.00103779 0.00000000
2.98246416 0.18380149 0.00124172 0.00000000
3.87527547 0.49900681 -0.00393650 0.00000000
0.52900524 0.63250953 -0.00177878 0.00000000
1.24828806 1.89693328 0.00140439 0.00000000
1.85964319 1.50197812 -0.00160624 0.00000000
0.73704557 0.86277402 -0.00169102 0.00000000
3.11812901 1.36716776 0.00169944 0.00000000
2.22119028 0.91983008 -0.00068822 0.00000000
2.14432628 1.23334457 -0.00081465 0.00000000
0.49164762 0.62889839 -0.00098271 0.00000000
1.03627408 1.64613377 0.00099600 0.00000000
1.66766228 0.28976096 -0.00357034 0.00000000
2.70426330 0.61907461 0.00014013 0.00000000
1.46897836 0.37793420 -0.00186129 0.00000000
0.56545635 1.27869197 0.00199006 0.00000000
0.84738087 1.77372557 0.00286007 0.00000000
3.00407664 1.98689372 -0.00253214 0.00000000
4.06866813 1.65886312 0.00418931 0.00000000
2.43735837 0.35059759 -0.00321974 0.00000000
0.73105406 1.70157589 0.00072082 0.00000000
3.10064262 0.41449351 0.00114897 0.00000000
3.70298311 0.72400788 -0.00107329 0.00000000
1.94281541 1.89902510 -0.00142507 0.00000000
1.69206880 1.63183070 -0.00188210 0.00000000
2.79217891 0.69679053 0.00008511 0.00000000
1.91193264 1.43435944 0.00166321 0.00000000
0.51664033 0.70630431 -0.00692180 0.00000000
1.12780262 1.12671618 0.00163241 0.00000000
3.51742979 1.06761270 0.00070299 0.00000000
3.00788733 2.01548160 -0.00267530 0.00000000
3.19493357 1.15268542 -0.00169990 0.00000000
3.05115815 1.84747144 -0.00403413 0.00000000
0.69557671 0.96916484 0.00034876 0.00000000
0.53661933 0.88544773 0.00257881 0.00000000
3.80940021 0.63194044 -0.00397671 0.00000000
3.94662632 1.48691991 -0.00106512 0.00000000
3.29730660 1.53264499 -0.00130779 0.00000000
0.71269460 1.49397389 0.00387208 0.00000000
2.97848476 0.68820432 0.00251222 0.00000000
3.79087029 0.87472547 -0.00082905 0.00000000
1.72036657 0.81282956 -0.00105766 0.00000000
1.42204793 2.01091150 0.00165079 0.00000000
3.08715001 1.60283982 0.00459195 0.00000000
1.68319499 0.97882768 -0.00135085 0.00000000
0.69752932 1.41857916 -0.00284965 0.00000000
2.35064749 0.89954015 0.00014096 0.00000000
1.08756248 0.27906204 0.00239449 0.00000000
1.04563720 1.07342112 -0.00286614 0.00000000
2.02635535 1.74719586 -0.00285148 0.00000000
3.51472532 0.28219617 -0.00013591 0.00000000
2.84054612 1.71843417 -0.00158037 0.00000000
1.80103817 2.09371171 -0.00096760 0.00000000
2.68767871 1.08629873 -0.00064527 0.00000000
2.38140932 1.11340628 0.00274777 0.00000000
0.02738669 1.10969837 -0.00072908 0.00000000
3.18031498 1.31684876 -0.00185230 0.00000000
3.21240123 1.90339622 -0.00193948 0.00000000
2.30940580 0.97113525 0.00339950 0.00000000
1.05510133 0.70945984 -0.00223378 0.00000000
3.93855010 1.00089621 -0.00061241 0.00000000
2.88281039 0.07184566 0.00040698 0.00000000
0.65539322 1.33962827 -0.00178294 0.00000000
1.43881725 0.86852719 0.00134783 0.00000000
0.14677027 0.03591091 -0.00123828 0.00000000
3.99112846 1.63956992 0.00316290 0.00000000
2.82970558 2.07104352 0.00095570 0.00000000
3.57317816 0.65028277 -0.00123423 0.00000000
1.34241728 0.06149154 -0.00066841 0.00000000
3.19173362 2.15712584 0.00066520 0.00000000
4.15136236 0.68774620 0.00572380 0.00000000
2.89435791 1.04943623 -0.00073722 0.00000000
3.72415261 1.54636508 -0.00119305 0.00000000
0.43173557 0.69410940 0.00119456 0.00000000
1.09531621 0.93192584 -0.00209030 0.00000000
1.59607543 0.52188044 0.00417438 0.00000000
2.80511261 1.91762359 0.00127548 0.00000000
1.47586766 0.58179199 0.00172635 0.00000000
2.80325456 1.07059535 -0.00168113 0.00000000
2.16428586 0.61800511 -0.00337041 0.00000000
0.93803203 1.04720969 -0.00225962 0.00000000
0.33755837 1.14133153 -0.00108528 0.00000000
0.45841645 1.13337366 0.00129375 0.00000000
3.70205896 1.36269960 -0.00193542 0.00000000
1.66368693 0.11744276 0.00163930 0.00000000
1.75970255 2.03600763 0.00124086 0.00000000
1.03989654 0.00458685 -0.00210660 0.00000000
1.16632818 1.70965271 0.00167424 0.00000000
2.82962639 1.18757616 -0.00062573 0.00000000
2.54973775 2.16104225 -0.00089920 0.00000000
3.74184173 1.54825911 -0.00130863 0.00000000
0.18429730 0.26138824 -0.00199667 0.00000000
0.35821650 1.55206128 -0.00191525 0.00000000
1.96060948 1.80653229 0.00028115 0.00000000
3.92028682 1.52261681 0.00354192 0.00000000
1.54913116 1.48851115 0.00405513 0.00000000
3.73644253 0.10700519 -0.00171770 0.00000000
0.79835730 1.14453285 0.00060309 0.00000000
1.33274535 0.98858035 0.00124728 0.00000000
2.94533949 1.83310941 0.00092788 0.00000000
2.67589020 1.16979841 0.00045995 0.00000000
3.96974972 0.95475528 0.00593749 0.00000000
1.34876165 2.04945135 0.00238748 0.00000000
3.41067462 1.39685803 -0.00264310 0.00000000
2.26845418 1.22344752 -0.00596167 0.00000000
0.29113036 0.07406799 -0.00165663 0.00000000
3.43109926 1.28177201 0.00447368 0.00000000
2.85817422 2.05608712 0.00132961 0.00000000
1.20137920 0.25334161 0.00180639 0.00000000
3.71780949 2.08994785 -0.00037142 0.00000000
2.15046222 0.42653429 0.00326917 0.00000000
1.86310147 1.54992004 0.00179007 0.00000000
1.09409790 1.42894114 0.00271724 0.00000000
3.34506582 0.08204141 0.00214536 0.00000000
2.00008160 0.14523265 -0.00297785 0.00000000
0.86159127 0.15182834 0.00210970 0.00000000
1.76872959 0.06441347 -0.00101758 0.00000000
1.15503662 1.43507074 0.00143009 0.00000000
2.77223286 0.90843045 0.00220197 0.00000000
1.50850938 0.68013989 0.00239385 0.00000000
2.80550576 1.35679858 0.00173147 0.00000000
3.56640890 2.06558069 -0.00186587 0.00000000
2.38188285 2.02619023 -0.00289387 0.00000000
2.47765489 1.18223982 0.00291756 0.00000000
1.83910799 0.69416877 -0.00244996 0.00000000
1.23263163 0.41819740 -0.00181748 0.00000000
0.91630612 1.98425403 -0.00027730 0.00000000
0.63608546 0.85504543 0.00102236 0.00000000
1.62626167 0.53495774 0.00362709 0.00000000
3.27639343 0.23334500 -0.00185126 0.00000000
1.65086097 0.07609888 0.00620939 0.00000000
4.07296279 0.46797078 0.00387008 0.00000000
2.67538509 2.04145345 -0.00192804 0.00000000
3.61707871 0.44708670 0.00254265 0.00000000
2.32916586 1.59462207 0.00186853 0.00000000
0.71178137 1.76081736 0.00504104 0.00000000
0.33433969 0.81547733 0.00022602 0.00000000
3.55000066 1.60307661 0.00326737 0.00000000
0.58813541 0.26960176 -0.00023398 0.00000000
3.77568348 0.01902982 0.00043806 0.00000000
2.08055045 1.37605774 0.00260317 0.00000000
0.51204207 1.35579440 -0.00293926 0.00000000
0.20380877 1.43513255 -0.00287950 0.00000000
0.90634981 1.28283728 0.00090455 0.00000000
0.71490363 1.17030577 0.00294484 0.00000000
2.67184614 0.32408423 0.00004715 0.00000000
4.00475440 0.87882644 -0.00126500 0.00000000
1.02823617 1.46297088 0.00280809 0.00000000
1.55884362 0.74144516 0.00221377 0.00000000
0.31576862 1.25143796 0.00249056 0.00000000
3.23490875 1.49393637 0.00265762 0.00000000
1.27675729 0.43556239 0.00209293 0.00000000
1.72927040 0.16882420 -0.00190440 0.00000000
2.98030871 0.53198007 0.00444897 0.00000000
1.57386246 1.89331880 0.00118540 0.00000000
2.28769611 1.57731847 -0.00316440 0.00000000
1.98047085 0.25358319 -0.00020378 0.00000000
1.11578199 1.15743806 0.00132820 0.00000000
2.46950077 1.34910116 -0.00227153 0.00000000
0.13925203 1.35086610 -0.00452267 0.00000000
0.11904339 0.44414050 -0.00025682 0.00000000
1.86858201 0.54063266 0.00225031 0.00000000
3.28472961 0.93972921 -0.00389638 0.00000000
2.96603863 0.18740295 0.00086798 0.00000000
2.53025452 1.55206851 0.00011866 0.00000000
3.38302247 1.99053709 -0.00174671 0.00000000
0.89848080 1.55586589 0.00044160 0.00000000
0.04519956 1.84560372 0.00436711 0.00000000
2.81278649 1.76409898 0.00073883 0.00000000
1.92281652 1.59790500 -0.00353824 0.00000000
1.91289269 0.23982769 -0.00426389 0.00000000
3.27910924 1.89883324 -0.00279468 0.00000000
0.77963421 1.96804000 -0.00127604 0.00000000
1.24150944 2.14435308 0.00649463 0.00000000
1.93792362 1.01976256 0.00074714 0.00000000
3.34498879 0.84532779 -0.00090857 0.00000000
2.92887622 2.05852434 -0.00197241 0.00000000
3.97165561 1.89903804 0.00589003 0.00000000
1.93925156 0.97490777 -0.00516169 0.00000000
2.66771439 2.16978689 0.00253236 0.00000000
3.41080355 1.33647448 -0.00031375 0.00000000
1.18777324 0.77704391 -0.00190276 0.00000000
0.15296336 0.78418662 0.00220662 0.00000000
4.14585847 0.83933340 -0.00626168 0.00000000
3.09298126 1.12466198 0.00101965 0.00000000
1.31612992 0.44374618 0.00268787 0.00000000
1.52334808 0.49890861 0.00389135 0.00000000
3.66152807 0.06018506 -0.00123315 0.00000000
3.77830131 0.62255117 0.00137495 0.00000000
1.51543036 0.00430677 -0.00271046 0.00000000
1.70264280 0.69681190 -0.00082573 0.00000000
0.89317151 0.01331697 0.00070828 0.00000000
3.27849050 1.06438885 -0.00184872 0.00000000
0.65796268 1.05167653 -0.00029529 0.00000000
0.36350366 0.43547531 0.00424338 0.00000000
1.33531163 1.86954599 0.00025459 0.00000000
1.71519853 1.28676186 0.00231097 0.00000000
3.09303098 0.83759694 -0.00036656 0.00000000
1.78500486 2.02247293 -0.00203666 0.00000000
3.07306210 0.03043097 0.00210037 0.00000000
2.57550369 0.99934919 0.00414616 0.00000000
2.88438626 0.26202657 0.00338181 0.00000000
4.07581205 0.07417120 -0.00254531 0.00000000
1.93926732 1.14064767 0.00198183 0.00000000
0.73140704 1.92113547 0.00164737 0.00000000
2.28178184 0.43568394 0.00338759 0.00000000
0.11392094 1.85834898 0.00345777 0.00000000
0.88838077 1.98258468 0.00212718 0.00000000
0.29703272 0.29023814 0.00090467 0.00000000
0.46147347 2.02131274 0.00199166 0.00000000
0.63812557 1.52755259 0.00369253 0.00000000
2.51477836 1.66718818 0.00046938 0.00000000
4.13188001 1.23161786 0.00496052 0.00000000
1.98799886 0.09289406 0.00169314 0.00000000
3.07598289 0.25069627 -0.00156085 0.00000000
0.03575317 0.10019373 0.00157405 0.00000000
2.01902182 0.68961165 -0.00072143 0.00000000
2.95356315 1.22136718 0.00427563 0.00000000
3.49988851 1.12893937 -0.00204147 0.00000000
3.12580106 0.74744733 -0.00376396 0.00000000
1.83275336 1.12771014 -0.00068934 0.00000000
1.65543839 0.99002031 0.00130093 0.00000000
4.09107043 0.26257947 -0.00398148 0.00000000
3.98723836 0.20860906 0.00133766 0.00000000
2.87639677 0.26139964 -0.00209879 0.00000000
1.76180001 0.69099266 -0.00102604 0.00000000
0.66132935 1.03238764 -0.00093667 0.00000000
3.68906373 0.50131967 0.00468019 0.00000000
1.65563937 0.11356898 -0.00000082 0.00000000
0.04356930 0.94635382 0.00043654 0.00000000
2.24758348 1.28274814 0.00034234 0.00000000
4.01541667 0.25055690 -0.00279715 0.00000000
0.15588465 0.23940303 -0.00387018 0.00000000
0.46674657 0.39958042 0.00163137 0.00000000
1.74104129 0.11559726 -0.00730220 0.00000000
1.55250063 0.99764934 0.00168741 0.00000000
3.05545952 2.08655252 -0.00251440 0.00000000
1.52560178 1.94249809 0.00398287 0.00000000
2.59358659 1.21190780 0.00474605 0.00000000
2.11308612 1.15048074 -0.00336450 0.00000000
0.68616475 0.22794448 -0.00025830 0.00000000
1.29539698 0.03230777 0.00143811 0.00000000
1.44627239 1.50546836 -0.00189517 0.00000000
0.79952957 0.99742781 -0.00161460 0.00000000
3.08387476 1.42596533 -0.00485762 0.00000000
1.68888747 0.24789124 0.00037187 0.00000000
1.38061907 0.58471384 0.00325935 0.00000000
1.14577733 0.87412778 0.00116419 0.00000000
0.66371433 0.64211104 -0.00208633 0.00000000
0.17480069 1.32404620 0.00207199 0.00000000
2.85554870 1.51309262 0.00215127 0.00000000
2.62071599 0.78673065 0.00313935 0.00000000
0.34034324 0.24007739 -0.00430158 0.00000000
1.20193366 1.90019706 -0.00164935 0.00000000
3.64549827 1.81944125 -0.00134069 0.00000000
2.40677808 1.68924826 -0.00357164 0.00000000
2.10724056 2.13592283 0.00046781 0.00000000
1.63032840 0.02287814 -0.00021642 0.00000000
3.82284221 1.50849545 -0.00098280 0.00000000
1.71961997 1.95674478 -0.00060190 0.00000000
3.66567610 2.14971793 -0.00230808 0.00000000
0.99796201 2.16304923 -0.00077077 0.00000000
2.91620473 0.18541995 -0.00275993 0.00000000
2.03486795 1.92436283 -0.00051199 0.00000000
4.11863919 1.01302468 0.00549059 0.00000000
3.77764679 1.53632783 -0.00155875 0.00000000
2.29483698 0.27002323 -0.00098378 0.00000000
2.44204360 1.03592228 -0.00290847 0.00000000
2.75270574 1.62229506 0.00367986 0.00000000
0.38836951 0.84270662 0.00084093 0.00000000
2.93968873 1.54972246 0.00405405 0.00000000
3.08230259 1.96706505 0.00038735 0.00000000
2.64973196 2.06672179 0.00131283 0.00000000
0.22328500 0.95545032 -0.00368071 0.00000000
0.99104995 1.09457707 -0.00004469 0.00000000
2.81801218 1.89989176 0.00094976 0.00000000
1.97711419 0.86835103 0.00174794 0.00000000
2.85226470 1.36421695 0.00008667 0.00000000
2.05846151 1.32556885 -0.00225372 0.00000000
2.71704125 0.21678197 0.00027217 0.00000000
2.35216514 0.12479306 0.00047737 0.00000000
0.26998892 1.15115963 -0.00624210 0.00000000
2.38921162 0.87708387 0.00154726 0.00000000
3.68285012 1.63429010 0.00035013 0.00000000
0.73192237 1.82401156 0.00078137 0.00000000
1.60099734 1.34194422 0.00370940 0.00000000
1.56732162 1.14964434 -0.00457975 0.00000000
1.39975166 1.01235030 0.00027226 0.00000000
2.79633849 0.28404790 -0.00050985 0.00000000
1.28251048 1.99921101 -0.00206343 0.00000000
1.37608325 0.38029408 -0.00348169 0.00000000
0.87769823 0.76677680 0.00423148 0.00000000
3.17201032 0.33942771 0.00319336 0.00000000
3.20735389 0.59534945 0.00215732 0.00000000
2.28933770 1.21061842 0.00325437 0.00000000
0.77324379 2.18963360 -0.00242191 0.00000000
4.03760299 0.19829365 -0.00025382 0.00000000
3.03069776 1.13782796 -0.00460919 0.00000000
2.39854605 0.29464240 -0.00382066 0.00000000
2.90213683 2.02668748 0.00174496 0.00000000
1.38400881 0.36285005 0.00332919 0.00000000
1.88052780 0.42076431 -0.00038578 0.00000000
2.18353718 2.13895634 0.00161622 0.00000000
1.81927399 0.53093548 -0.00243608 0.00000000
2.66273996 1.94366497 -0.00099526 0.00000000
2.74200587 0.09172204 0.00137306 0.00000000
0.99118554 0.03341031 -0.00003928 0.00000000
1.62242529 2.16063602 0.00455236 0.00000000
1.53592878 1.22397612 0.00127450 0.00000000
2.51740755 0.60988616 -0.00047623 0.00000000
2.95123059 0.20798360 -0.00278423 0.00000000
1.46103156 1.10778597 0.00358127 0.00000000
1.86360890 1.69915219 -0.00065925 0.00000000
1.74004743 1.48892990 0.00166189 0.00000000
3.97846394 0.30546480 0.00432117 0.00000000
3.91507874 1.25562727 -0.00556061 0.00000000
2.12134136 1.22928096 -0.00019299 0.00000000
3.64619564 0.73809249 0.00445671 0.00000000
3.84127102 1.28023464 0.00055401 0.00000000
1.75035311 1.74150186 -0.00162445 0.00000000
2.04849635 1.34831368 -0.00005076 0.00000000
1.32015962 1.81917032 -0.00039855 0.00000000
2.04688130 1.11073709 0.00314378 0.00000000
1.71983061 1.89781384 -0.00300606 0.00000000
4.16690332 0.49846328 0.00091435 0.00000000
0.78051773 1.84612169 0.00119089 0.00000000
3.04701040 1.27368392 0.00140940 0.00000000
1.54183233 0.84420075 0.00276601 0.00000000
3.16652041 1.15850073 -0.00457460 0.00000000
0.63491420 1.15832446 0.00244565 0.00000000
1.92838686 2.15316606 -0.00355841 0.00000000
0.51476367 1.91024453 -0.00112356 0.00000000
1.74856139 1.55585711 0.00023010 0.00000000
2.76238734 1.99455170 0.00376183 0.00000000
2.01568122 1.00817897 -0.00115207 0.00000000
1.15603414 1.41308002 0.00059778 0.00000000
3.79757382 0.03874846 -0.00615613 0.00000000
4.12997760 0.44428896 0.00214899 0.00000000
2.95694526 1.16494102 0.00215651 0.00000000
4.09995213 0.09618930 -0.00401743 0.00000000
1.18465353 1.99618286 0.00199474 0.00000000
3.69466913 1.99429585 0.00378597 0.00000000
3.63118364 0.64705176 0.00016991 0.00000000
1.32840791 0.19970407 0.00570034 0.00000000
1.28888388 0.63665055 -0.00290718 0.00000000
3.71892623 1.66175169 0.00018773 0.00000000
3.67175709 1.38582675 -0.00141521 0.00000000
3.50072082 0.56361017 -0.00047479 0.00000000
0.26955114 1.13297147 0.00016839 0.00000000
3.72109844 0.74213544 0.00118753 0.00000000
1.70879953 0.26738020 -0.00234780 0.00000000
3.75576202 1.69323413 0.00164198 0.00000000
0.86900609 2.09358954 -0.00375470 0.00000000
1.31146133 0.59610878 0.00036096 0.00000000
3.54839703 1.13845050 0.00143190 0.00000000
3.17787393 1.55559938 0.00107949 0.00000000
0.99776263 0.35362950 -0.00114950 0.00000000
0.49975653 1.19669343 -0.00307020 0.00000000
0.77219749 1.40793585 0.00195869 0.00000000
1.31317806 1.83271090 -0.00145496 0.00000000
3.23244187 2.16846353 -0.00304122 0.00000000
3.08023636 1.31115186 -0.00267346 0.00000000
3.90782161 1.17837183 0.00145025 0.00000000
0.55924549 1.38025050 0.00027111 0.00000000
1.08261082 0.34152749 -0.00432830 0.00000000
0.46003885 1.33040436 -0.00060551 0.00000000
2.69574819 1.97212808 -0.00045874 0.00000000
1.04605389 0.48324260 0.00197372 0.00000000
2.78061861 1.27823664 0.00259125 0.00000000
0.02899525 0.45439588 0.00085650 0.00000000
1.86252217 1.11889125 0.00058627 0.00000000
0.21267613 0.85956791 0.00098912 0.00000000
2.67882888 1.79268880 -0.00022795 0.00000000
0.43246598 1.43875072 0.00119824 0.00000000
0.27591461 0.56456091 0.00106287 0.00000000
2.14541865 1.56839067 -0.00001134 0.00000000
4.07642417 0.09798313 0.00271419 0.00000000
3.46303457 0.49976527 0.00106336 0.00000000
3.91708476 0.53582128 -0.00122255 0.00000000
1.94104048 1.60754274 -0.00770211 0.00000000
2.78214786 0.80301726 0.00156383 0.00000000
3.83065661 0.23474119 0.00520760 0.00000000
1.05531584 0.06126583 0.00167233 0.00000000
2.68805240 1.72697854 -0.00182980 0.00000000
2.87240191 0.08521194 0.00127279 0.00000000
3.29560054 1.16690924 -0.00032572 0.00000000
0.55297892 1.57021246 0.00022087 0.00000000
2.40854125 0.60558685 -0.00306397 0.00000000
0.01312443 1.15574067 0.00171514 0.00000000
3.81555148 0.13055155 -0.00210201 0.00000000
2.46985345 1.50247834 0.00084604 0.00000000
0.16924601 2.07137690 0.00012895 0.00000000
2.71628237 2.03268737 0.00411704 0.00000000
3.77427478 1.35300792 0.00267503 0.00000000
3.05363497 1.58098007 -0.00209038 0.00000000
0.82627493 0.69423197 -0.00180588 0.00000000
0.57842111 0.47680317 0.00014047 0.00000000
2.96289589 0.89444415 0.00027149 0.00000000
4.08702702 1.14288513 -0.00129383 0.00000000
0.70350083 1.93401822 0.00511711 0.00000000
2.13045184 1.50168556 -0.00010724 0.00000000
3.95581116 1.87591390 -0.00137902 0.00000000
3.64596571 1.84341002 -0.00200593 0.00000000
1.71484482 0.18485020 -0.00153804 0.00000000
1.69627998 0.07146760 -0.00253821 0.00000000
2.25938659 1.80296943 0.00139186 0.00000000
1.70785305 0.44220126 -0.00226543 0.00000000
0.19487422 1.79235061 0.00190362 0.00000000
2.40569062 0.12784922 0.00573279 0.00000000
0.22473531 0.96431006 -0.00098152 0.00000000
2.89179117 1.37434283 0.00693526 0.00000000
3.62992641 1.18577627 -0.00086454 0.00000000
1.89262374 0.76391671 0.00166803 0.00000000
1.96194777 0.07035758 -0.00172201 0.00000000
3.55667217 1.76167468 -0.00084305 0.00000000
1.58401955 0.19159061 -0.00489613 0.00000000
1.03856920 0.81526213 0.00489441 0.00000000
2.22261701 1.33127622 -0.00191280 0.00000000
1.48910556 1.42368992 -0.00158623 0.00000000
1.72441218 1.37267846 0.00066633 0.00000000
3.52262821 1.83312378 0.00003540 0.00000000
1.48083730 0.77916009 -0.00143438 0.00000000
0.92010359 1.96400134 0.00246145 0.00000000
1.39390428 1.32898075 -0.00101535 0.00000000
2.47213597 0.81177227 -0.00448434 0.00000000
0.92315430 1.37066944 0.00246675 0.00000000
0.21193352 0.03279701 -0.00220380 0.00000000
0.96225409 1.14622056 -0.00031668 0.00000000
1.43022218 1.16187823 0.00060799 0.00000000
3.19492736 1.74899106 0.00096116 0.00000000
4.15683362 1.35700861 0.00233402 0.00000000
0.51198126 1.25815971 -0.00151782 0.00000000
2.73892482 0.08218892 0.00089740 0.00000000
1.35024125 0.09777782 -0.00419034 0.00000000
4.10967986 2.14344450 -0.00021213 0.00000000
3.92493326 0.87223866 -0.00305707 0.00000000
3.32180502 2.18141957 -0.00298057 0.00000000
2.55760475 0.52622783 -0.00219642 0.00000000
1.84399139 0.52538237 -0.00143487 0.00000000
3.06247812 1.84105095 0.00390801 0.00000000
0.64569217 1.02629866 0.00002337 0.00000000
1.84888350 1.44772688 -0.00286154 0.00000000
3.93189113 0.38502057 0.00324135 0.00000000
1.58990483 0.42515495 0.00006425 0.00000000
2.84514766 1.55258115 -0.00033167 0.00000000
0.11220806 1.21064283 0.00060280 0.00000000
3.54772939 1.88797784 -0.00294903 0.00000000
4.09032891 1.00865169 -0.00293210 0.00000000
2.00565379 0.79636113 0.00065914 0.00000000
3.79598708 1.78669903 0.00273138 0.00000000
1.90309706 1.55294006 0.00122057 0.00000000
3.87693544 1.63490942 0.00130500 0.00000000
2.13054224 0.82842955 -0.00181356 0.00000000
3.19632883 1.72445209 -0.00233251 0.00000000
2.10180913 1.10578675 0.00120977 0.00000000
2.97678949 1.10102327 0.00121075 0.00000000
3.67189771 0.11558081 0.00336098 0.00000000
1.00137612 1.73766796 0.00102091 0.00000000
1.76456711 0.25202331 -0.00190073 0.00000000
2.62107017 1.82937813 0.00213112 0.00000000
0.59509754 0.13426005 -0.00181390 0.00000000
3.67150289 0.94259632 -0.00073156 0.00000000
0.45945567 1.20615343 -0.00027558 0.00000000
3.93022959 1.92016674 0.00197996 0.00000000
0.39100864 0.54511783 -0.00296682 0.00000000
2.47543063 0.21772703 -0.00402128 0.00000000
1.90639157 1.68569610 -0.00023417 0.00000000
3.29494003 0.12513897 -0.00377699 0.00000000
0.35670150 1.40218012 0.00295037 0.00000000
2.73792607 0.99739041 0.00044606 0.00000000
2.92904406 0.76078661 0.00142354 0.00000000
4.16021137 1.19061043 -0.00239669 0.00000000
1.52090233 1.09585321 0.00164134 0.00000000
1.27004792 1.04045550 -0.00494580 0.00000000
1.63589354 1.35048134 -0.00206439 0.00000000
0.10842362 1.85840128 -0.00326780 0.00000000
4.06415061 1.73712026 -0.00235494 0.00000000
2.71945130 1.20866531 -0.00180600 0.00000000
2.56339424 1.40606508 0.00198747 0.00000000
1.15820881 0.13663912 -0.00132929 0.00000000
0.27238245 2.13775337 0.00108498 0.00000000
0.69175501 1.68441292 -0.00031536 0.00000000
0.10285377 2.03266816 -0.00069618 0.00000000
2.53518929 1.18288913 -0.00249472 0.00000000
3.26859956 1.47624598 -0.00163054 0.00000000
1.78460008 0.58811374 -0.00151968 0.00000000
0.89619967 0.59893625 0.00235264 0.00000000
2.92682894 1.45755377 0.00074857 0.00000000
0.78755017 2.10566208 -0.00111411 0.00000000
1.16426521 1.80470613 -0.00216297 0.00000000
0.04743473 1.60224948 -0.00278573 0.00000000
1.95798589 0.91510869 -0.00130965 0.00000000
3.71018382 0.90283620 0.00162272 0.00000000
2.21885960 1.09572772 0.00200688 0.00000000
3.73389017 0.22015218 -0.00139430 0.00000000
3.43000447 0.05004541 -0.00173900 0.00000000
3.98166778 0.91535304 0.00399711 0.00000000
2.92720378 0.78789157 -0.00108374 0.00000000
3.10767985 1.19647050 0.00402624 0.00000000
