2.22298352 1.72764866 0.00149262 0.00000000
2.46852838 1.97003135 0.00126852 0.00000000
2.08173488 0.89964968 -0.00430828 0.00000000
2.98011144 1.39787624 -0.00195949 0.00000000
1.56495751 0.20653433 0.00621128 0.00000000
2.56629022 0.26157671 -0.00058935 0.00000000
1.18831259 0.08664088 -0.00290123 0.00000000
1.75465067 1.21255424 -0.00079853 0.00000000
1.72389217 0.59278677 0.00305981 0.00000000
2.87799501 1.20580143 -0.00264457 0.00000000
3.82999022 1.01765555 0.00138206 0.00000000
4.83093204 0.16708890 -0.00467033 0.00000000
2.90084659 0.97442402 0.00699560 0.00000000
1.92974627 0.37417937 0.00086606 0.00000000
2.06573044 1.09927967 -0.00164989 0.00000000
2.85438380 0.33003913 -0.00179618 0.00000000
3.66292436 0.30245157 0.00268237 0.00000000
3.61109965 1.85331849 -0.00079338 0.00000000
3.30916805 0.11838620 0.00062501 0.00000000
4.16428486 0.06777919 -0.00064155 0.00000000
1.92630613 1.75051378 -0.00228439 0.00000000
1.98500227 0.63605877 -0.00099253 0.00000000
1.16716759 1.24341863 0.00209699 0.00000000
1.02898269 0.80406523 -0.00223610 0.00000000
2.04652697 1.00540681 -0.00132113 0.00000000
1.57279121 0.79908244 -0.00117283 0.00000000
3.30937675 0.51505381 0.00014764 0.00000000
1.03122963 0.43805246 0.00083607 0.00000000
0.40720306 1.66483270 -0.00103619 0.00000000
1.37775572 0.97613175 0.00120260 0.00000000
2.00463851 0.90604629 -0.00367233 0.00000000
1.97555875 1.10673762 0.00285562 0.00000000
0.74450409 0.11109979 0.00290774 0.00000000
0.35298448 1.10701526 -0.00063437 0.00000000
4.55637575 0.32589299 0.00330744 0.00000000
3.96267810 0.12914019 -0.00022196 0.00000000
2.47335662 0.12676686 0.00662730 0.00000000
0.98513127 0.60579889 0.00308710 0.00000000
3.29450133 0.64888491 -0.00047232 0.00000000
3.11470463 0.60535510 0.00096528 0.00000000
0.05874686 0.72342732 -0.00042168 0.00000000
4.10046038 0.20795639 0.00383047 0.00000000
0.24299758 1.49100620 -0.00246516 0.00000000
1.63636902 0.07476413 -0.00242062 0.00000000
1.64022410 1.50457616 0.00497465 0.00000000
4.86431649 0.76415290 0.00094555 0.00000000
3.39290305 1.90010576 -0.00066966 0.00000000
1.87656063 0.19424933 -0.00063054 0.00000000
1.82888795 1.39190904 -0.00110922 0.00000000
1.98515803 1.47839170 0.00119148 0.00000000
3.76938483 0.06179821 0.00129649 0.00000000
3.75296028 1.54391747 0.00070976 0.00000000
1.77491424 0.79313345 -0.00395477 0.00000000
0.31619816 1.56681036 -0.00013887 0.00000000
4.91568420 0.36990657 -0.00311244 0.00000000
3.47177686 1.80015902 0.00183096 0.00000000
2.59685569 0.72627583 0.00352721 0.00000000
4.03749510 1.32344411 0.00264516 0.00000000
3.19074242 0.10664166 0.00211178 0.00000000
3.81383265 0.27977657 -0.00080636 0.00000000
0.17399608 0.24530599 -0.00063116 0.00000000
4.75446227 0.37282276 -0.00083795 0.00000000
1.42899367 0.32875027 -0.00115962 0.00000000
3.06490423 0.37472235 -0.00285764 0.00000000
3.41473673 0.70508444 0.00003289 0.00000000
0.95438604 1.11740862 0.00007447 0.00000000
0.70102371 0.32735108 0.00104008 0.00000000
3.53702351 1.34525655 0.00136359 0.00000000
2.22316245 0.16577920 -0.00054812 0.00000000
0.92841419 1.22193161 0.00068838 0.00000000
1.64155002 0.12725220 0.00142240 0.00000000
4.91314844 1.30249533 -0.00064117 0.00000000
1.02743116 1.81127243 0.00271885 0.00000000
1.83951072 1.57948915 0.00243617 0.00000000
3.53285596 0.94647967 0.00083709 0.00000000
0.27254086 1.16574320 0.00143409 0.00000000
1.47598141 0.76472360 -0.00247823 0.00000000
4.01453106 0.06482798 0.00304750 0.00000000
4.63361241 0.39510073 0.00200169 0.00000000
1.63058513 0.45438105 -0.00124151 0.00000000
3.86488510 1.60611043 -0.00384659 0.00000000
1.14373675 1.98816856 0.00120647 0.00000000
4.83354390 0.68116303 0.00081320 0.00000000
0.64961455 0.94781934 -0.00146111 0.00000000
3.14467600 1.55786845 -0.00045913 0.00000000
1.96738316 1.79894517 -0.00065707 0.00000000
1.09940632 1.04454718 0.00366173 0.00000000
3.42676437 0.20530215 -0.00191346 0.00000000
3.55645323 0.99313628 -0.00070863 0.00000000
0.98666092 1.24757327 0.00499688 0.00000000
2.19906460 1.01665864 -0.00072286 0.00000000
0.92940818 0.18157851 0.00462500 0.00000000
3.95751506 0.68086570 -0.00528658 0.00000000
3.55692691 1.32625308 -0.00108415 0.00000000
1.79799039 1.06786894 0.00214427 0.00000000
0.50477517 0.83348668 -0.00138824 0.00000000
4.36936939 0.49633839 0.00162713 0.00000000
2.79122495 0.75609762 0.00150020 0.00000000
0.76102732 0.89849919 -0.00188364 0.00000000
0.83592197 1.79903956 -0.00094827 0.00000000
2.28091768 1.64808455 0.00671447 0.00000000
1.38200633 1.30331317 0.00256759 0.00000000
2.11260198 0.31277580 -0.00401295 0.00000000
4.62851580 1.81790984 0.00109497 0.00000000
4.74088733 0.02287498 -0.00315884 0.00000000
1.64524536 0.68414456 -0.00180563 0.00000000
3.71696613 0.16989021 -0.00047421 0.00000000
2.04671261 0.85071670 -0.00413570 0.00000000
1.52436239 0.38556329 -0.00106588 0.00000000
2.90038476 1.09130050 -0.00000506 0.00000000
0.39887973 0.74545733 -0.00485648 0.00000000
0.82366278 0.19759542 0.00036814 0.00000000
2.60106972 0.97758728 0.00110119 0.00000000
1.57494538 1.71459674 -0.00420785 0.00000000
4.34737295 1.82170729 -0.00059386 0.00000000
2.34971544 0.24125514 0.00067437 0.00000000
3.93357038 0.43260472 -0.00063732 0.00000000
4.89608976 0.95048483 -0.00404129 0.00000000
0.08223379 0.15589425 -0.00021747 0.00000000
4.64154474 0.98090430 -0.00127099 0.00000000
1.52563424 1.34980229 0.00064355 0.00000000
3.28568198 0.18647403 -0.00167338 0.00000000
3.91157598 1.31219122 -0.00217174 0.00000000
4.19478926 1.56974342 -0.00090830 0.00000000
1.20301671 1.61344550 0.00133642 0.00000000
2.22436946 1.60825350 -0.00081290 0.00000000
0.90642835 0.03893139 0.00474404 0.00000000
3.41458140 0.32937454 -0.00332881 0.00000000
1.50239189 0.22380814 0.00200129 0.00000000
2.94174793 0.61056662 -0.00056057 0.00000000
0.10479775 1.43460201 0.00313262 0.00000000
3.96732637 0.68082686 -0.00205064 0.00000000
4.13627045 1.49337527 0.00311420 0.00000000
0.46022990 0.52750235 -0.00224768 0.00000000
3.14646270 0.80922995 0.00150194 0.00000000
3.38859931 1.01003311 0.00093580 0.00000000
0.92878911 0.88851133 -0.00158114 0.00000000
3.15350599 0.67624715 -0.00416682 0.00000000
4.11067305 1.50074314 0.00619990 0.00000000
3.75524711 0.34762777 -0.00021599 0.00000000
2.41208976 1.89662764 0.00303674 0.00000000
3.46813818 1.95167793 -0.00286756 0.00000000
0.76948691 1.43120328 0.00038867 0.00000000
2.79828824 0.81705070 -0.00284906 0.00000000
0.32104616 1.45834214 0.00341692 0.00000000
2.49489357 0.50139086 -0.00580097 0.00000000
3.48954246 0.55268418 0.00743780 0.00000000
0.21869314 1.07869758 0.00141933 0.00000000
4.87536635 0.16424923 -0.00216313 0.00000000
4.56712001 1.30646767 -0.00062755 0.00000000
3.30954281 1.76315228 -0.00179882 0.00000000
2.72795138 1.10967671 0.00391153 0.00000000
2.23863593 1.23784418 0.00391747 0.00000000
2.27681703 0.19543803 0.00381870 0.00000000
2.84171652 0.36257832 0.00416287 0.00000000
2.21767795 0.54072965 -0.00152978 0.00000000
1.78297171 1.29460963 -0.00043101 0.00000000
1.64236276 0.57195624 -0.00166563 0.00000000
3.15662921 1.19045780 -0.00406818 0.00000000
0.39879411 1.82937129 0.00281168 0.00000000
3.99774685 0.42907624 -0.00362845 0.00000000
2.84535355 1.60545838 0.00030855 0.00000000
0.91057680 1.61925811 0.00387538 0.00000000
2.17225336 0.50816080 -0.00055208 0.00000000
0.41149207 1.51407967 0.00257306 0.00000000
4.70137576 0.59378973 -0.00218785 0.00000000
3.69125950 0.61995881 -0.00026071 0.00000000
4.46582012 0.64257475 0.00039598 0.00000000
3.13571619 1.80027251 -0.00549352 0.00000000
2.28864593 0.79746431 -0.00298004 0.00000000
3.20556387 1.33203961 0.00377785 0.00000000
2.70834754 0.18120729 -0.00199190 0.00000000
0.38610472 0.24794128 0.00200905 0.00000000
3.63543420 0.89375529 0.00151179 0.00000000
0.60281932 1.41591185 0.00054281 0.00000000
0.71243619 1.91180442 -0.00233471 0.00000000
3.49537282 1.54297921 -0.00052252 0.00000000
3.69148118 0.83799850 -0.00119434 0.00000000
4.77275760 1.29458312 -0.00190124 0.00000000
2.41167591 0.23068000 -0.00207527 0.00000000
3.35921481 0.24161819 0.00229027 0.00000000
4.71387805 1.92426348 -0.00379855 0.00000000
4.34503826 0.76001319 0.00047886 0.00000000
4.43565830 0.10849058 0.00370882 0.00000000
1.81487676 1.75124475 0.00237337 0.00000000
0.97689683 0.36256710 -0.00462645 0.00000000
3.23197666 1.22947460 -0.00331101 0.00000000
3.28116364 0.81839325 -0.00120955 0.00000000
4.29947669 0.81727891 -0.00048147 0.00000000
1.49685056 1.94216033 -0.00091460 0.00000000
1.19399998 1.76209145 -0.00263080 0.00000000
3.72844763 0.41372813 0.00110029 0.00000000
0.70988220 1.42251162 0.00215288 0.00000000
1.59893235 1.83177669 -0.00812113 0.00000000
3.08318750 0.25343300 -0.00005724 0.00000000
3.27185182 0.25574230 -0.00198568 0.00000000
0.92401254 0.95771077 0.00536031 0.00000000
1.34252091 2.01408349 -0.00187693 0.00000000
1.02003095 1.33537786 -0.00159861 0.00000000
3.00265540 1.58281841 0.00050805 0.00000000
2.47627544 0.90882798 0.00206581 0.00000000
0.51200437 1.54324159 -0.00016707 0.00000000
0.00059098 1.38691872 -0.00311741 0.00000000
4.88541286 1.62328104 -0.00248441 0.00000000
0.69149205 0.08649799 -0.00903827 0.00000000
3.44049673 1.15749642 0.00078301 0.00000000
3.85016390 0.52072779 -0.00082838 0.00000000
4.15127182 1.85412173 0.00054322 0.00000000
2.73366334 0.83301521 -0.00527190 0.00000000
0.40033499 1.34795609 -0.00199734 0.00000000
0.59229288 1.01983164 -0.00184582 0.00000000
0.84482034 0.76020090 -0.00393563 0.00000000
3.97689789 0.74411625 0.00376741 0.00000000
0.43424890 1.73349686 0.00362270 0.00000000
1.03009245 1.33040249 0.00530772 0.00000000
3.63475990 1.47385987 0.00088409 0.00000000
0.66859745 0.00376411 -0.00361284 0.00000000
2.23833790 1.51296864 -0.00337444 0.00000000
4.20357799 1.35361142 -0.00528218 0.00000000
1.75573523 1.92629840 0.00287608 0.00000000
1.92244748 1.56874123 -0.00005664 0.00000000
3.69474108 1.82316128 0.00257424 0.00000000
4.22912145 0.68435597 0.00466681 0.00000000
4.23215978 0.67842138 -0.00608121 0.00000000
1.40569573 1.89722786 0.00527319 0.00000000
2.90270697 1.72228150 0.00097582 0.00000000
0.03280978 1.37532762 -0.00196197 0.00000000
1.42564390 0.40119989 -0.00396964 0.00000000
3.71810225 0.54851723 -0.00089554 0.00000000
3.21872007 1.60042167 0.00157585 0.00000000
3.58128361 0.01434919 -0.00531770 0.00000000
4.32624289 1.81687493 0.00416691 0.00000000
1.13496050 0.22749506 0.00383302 0.00000000
4.18103338 0.16164562 0.00252540 0.00000000
4.87317607 0.47384658 -0.00257645 0.00000000
4.12788995 1.59724071 -0.00523103 0.00000000
0.88218186 0.22326743 0.00124751 0.00000000
4.31254717 1.69201666 -0.00029003 0.00000000
4.81119406 1.24559437 0.00229927 0.00000000
0.72497263 1.16805949 0.00090973 0.00000000
3.65857975 0.95281140 -0.00086510 0.00000000
3.24569253 0.18463464 -0.00067011 0.00000000
2.42364147 0.92105309 -0.00393756 0.00000000
2.94920125 0.08605405 0.00074831 0.00000000
3.57474919 1.34948884 0.00083314 0.00000000
0.32679307 1.02551488 0.00129654 0.00000000
2.67438402 1.46896558 0.00214586 0.00000000
0.67409149 1.16202540 0.00032488 0.00000000
2.01292197 0.08356528 -0.00030564 0.00000000
0.42398396 1.86600284 0.00162539 0.00000000
3.32266443 1.53942452 -0.00309475 0.00000000
4.51162389 1.61345902 -0.00188352 0.00000000
1.46430472 1.23557926 0.00044045 0.00000000
3.29848269 0.79669388 -0.00152567 0.00000000
3.69657415 0.85897059 0.00191842 0.00000000
3.96805040 1.56314295 0.00002519 0.00000000
2.24627875 0.19087361 -0.00147426 0.00000000
0.94516534 1.85982394 -0.00070900 0.00000000
1.85790337 1.78184185 -0.00184693 0.00000000
0.28701509 1.23076400 0.00128805 0.00000000
2.32510823 0.49667022 0.00092283 0.00000000
3.44962218 0.13451023 -0.00223997 0.00000000
3.71227790 0.60385283 0.00288803 0.00000000
2.30507280 0.51861435 -0.00049450 0.00000000
4.88362068 0.88291111 0.00138183 0.00000000
2.97714241 1.44413363 -0.00070314 0.00000000
1.42705405 0.12926326 0.00038799 0.00000000
3.24060562 1.57917424 -0.00135112 0.00000000
3.12620443 1.77101474 -0.00102618 0.00000000
2.01032035 0.89713536 0.00106869 0.00000000
3.76163983 0.95107993 -0.00016973 0.00000000
3.25812531 1.29266019 0.00021254 0.00000000
0.15409489 0.40434397 -0.00510691 0.00000000
2.16178631 1.73657291 0.00057030 0.00000000
4.04211857 0.51190499 0.00040728 0.00000000
2.50166575 1.23587106 0.00140142 0.00000000
2.50950004 1.98274326 -0.00035105 0.00000000
1.18501485 0.17108612 -0.00278105 0.00000000
2.78056323 1.14786591 -0.00320469 0.00000000
1.53310526 1.76537939 0.00143869 0.00000000
4.56555026 0.52562790 -0.00015213 0.00000000
1.66031972 0.64210670 -0.00160758 0.00000000
4.14770234 0.54603292 0.00683889 0.00000000
4.57027570 1.24303443 -0.00217711 0.00000000
4.92756420 0.78997746 0.00154032 0.00000000
3.63323514 2.00810423 -0.00300310 0.00000000
1.38359111 1.97560550 0.00348669 0.00000000
1.98293471 1.53533586 -0.00144832 0.00000000
1.02354455 1.23367990 -0.00122713 0.00000000
3.74193038 0.93223213 -0.00148886 0.00000000
4.73394907 0.80127728 -0.00408577 0.00000000
2.42645416 0.84824097 0.00520988 0.00000000
0.92468215 0.37738184 0.00414145 0.00000000
1.84029986 1.70485634 -0.00115289 0.00000000
4.74335792 0.90718633 0.00125648 0.00000000
4.23108559 0.21830251 -0.00042078 0.00000000
3.57705375 1.04691486 -0.00090978 0.00000000
2.34959499 0.48507995 -0.00191947 0.00000000
0.15617740 0.72017586 0.00093605 0.00000000
3.41656413 0.98416361 -0.00280839 0.00000000
4.57928871 0.56601692 0.00317770 0.00000000
1.21829057 1.59492150 -0.00087431 0.00000000
1.65530556 1.09716591 0.00272772 0.00000000
2.71413070 1.87097663 -0.00521736 0.00000000
1.37602714 0.66300033 0.00087788 0.00000000
3.74963195 1.57587677 0.00194798 0.00000000
1.00537626 1.76232058 -0.00321898 0.00000000
1.24461545 1.68964131 -0.00187300 0.00000000
4.64584980 0.45936934 -0.00147540 0.00000000
0.59583454 0.03083957 0.00026973 0.00000000
0.95014717 1.96856192 0.00518151 0.00000000
4.34416863 1.46462943 0.00500977 0.00000000
2.29945623 0.70546357 -0.00098686 0.00000000
2.80647462 0.05145167 -0.00375093 0.00000000
4.14756666 0.22040542 0.00113222 0.00000000
2.09859718 1.74809603 -0.00378204 0.00000000
4.13415931 1.53204602 0.00013005 0.00000000
0.79551567 0.77815977 0.00144737 0.00000000
2.17608692 1.67227649 -0.00526608 0.00000000
1.86899400 0.85546494 -0.00437049 0.00000000
0.54121378 1.00581802 -0.00041794 0.00000000
0.53229072 1.08700157 0.00446361 0.00000000
2.63558408 0.70521653 -0.00370363 0.00000000
2.26176850 1.51454625 0.00401814 0.00000000
1.91257532 1.13846226 -0.00090817 0.00000000
0.29068260 1.25713579 -0.00033703 0.00000000
4.16635585 2.01626175 -0.00071728 0.00000000
3.73939470 1.72200233 0.00142384 0.00000000
4.50603108 0.94563830 -0.00056562 0.00000000
4.82974272 0.27104109 0.00030077 0.00000000
4.52232068 1.99109019 -0.00156912 0.00000000
2.12138936 1.44677740 0.00077329 0.00000000
1.56727095 0.70387705 -0.00156980 0.00000000
1.48450868 1.54115499 0.00064080 0.00000000
0.75033137 0.32427543 0.00283988 0.00000000
1.05349077 0.56790866 -0.00053197 0.00000000
4.82655201 1.53693457 -0.00017364 0.00000000
1.26263563 0.53990062 -0.00079660 0.00000000
2.17181277 1.58973726 -0.00231052 0.00000000
4.25487386 0.60876739 0.00199849 0.00000000
3.55674276 2.00624013 0.00179385 0.00000000
1.28691419 0.51932814 0.00387615 0.00000000
0.63931582 1.84625775 0.00253659 0.00000000
2.24932961 1.11850072 -0.00134640 0.00000000
2.68355990 1.15116684 0.00049771 0.00000000
1.45136074 1.65509647 0.00303128 0.00000000
1.78789003 1.91774397 -0.00027584 0.00000000
4.12916668 1.06957269 0.00044313 0.00000000
3.87354458 0.33121575 -0.00227557 0.00000000
4.02289078 0.18742966 0.00080926 0.00000000
3.27019593 1.69554539 -0.00160678 0.00000000
2.33969647 1.85880443 0.00217097 0.00000000
3.87291786 0.05595562 0.00238560 0.00000000
1.74714843 1.01072796 0.00106497 0.00000000
4.76593588 1.30268087 -0.00076512 0.00000000
4.87555365 0.51393984 -0.00048572 0.00000000
4.36097562 0.50509870 0.00400255 0.00000000
2.84905453 0.76123993 -0.00221769 0.00000000
1.98109456 0.50343950 0.00312821 0.00000000
4.52963120 0.46862586 -0.00306379 0.00000000
0.67111230 0.80993995 0.00256110 0.00000000
0.54143737 1.48142535 -0.00292396 0.00000000
2.02854290 1.07830082 0.00336508 0.00000000
0.53050628 1.40139732 0.00208014 0.00000000
3.72865414 1.78643179 -0.00445245 0.00000000
2.68479384 0.98517758 0.00128004 0.00000000
1.16685812 0.13217866 0.00219368 0.00000000
1.89128417 0.08089148 -0.00534204 0.00000000
3.19130851 1.18735527 -0.00143348 0.00000000
2.56598402 1.37013573 0.00218486 0.00000000
1.74223507 0.57039193 -0.00126157 0.00000000
3.75011420 0.39073972 -0.00360179 0.00000000
0.46328723 1.37513579 0.00137040 0.00000000
3.55389890 1.13287665 0.00273885 0.00000000
4.80113028 1.31971321 -0.00107873 0.00000000
0.60494740 1.24284753 -0.00122472 0.00000000
3.67861889 1.36480476 0.00148584 0.00000000
2.63563925 1.41593820 0.00658100 0.00000000
2.52253805 1.94233041 0.00000276 0.00000000
3.64671349 1.98483063 0.00036874 0.00000000
0.42657073 1.19481656 0.00697350 0.00000000
2.54171316 1.20055377 -0.00060236 0.00000000
0.91389882 1.92087580 -0.00224615 0.00000000
4.22171521 1.10346398 -0.00219958 0.00000000
4.52233953 1.77371154 0.00127314 0.00000000
3.04074109 0.58482182 0.00103625 0.00000000
2.08804767 0.42022495 -0.00201200 0.00000000
4.90173043 1.18280178 0.00116058 0.00000000
0.16152448 1.47661630 -0.00037099 0.00000000
4.30731055 1.55120809 0.00061338 0.00000000
4.39093364 1.24589675 0.00028744 0.00000000
0.71433999 0.32901463 -0.00264099 0.00000000
4.79177537 0.45467771 -0.00042303 0.00000000
3.18784036 0.97574644 0.00239943 0.00000000
0.60104030 1.32718206 -0.00282852 0.00000000
2.60648873 0.82753731 -0.00167650 0.00000000
4.78691392 1.66012952 -0.00068625 0.00000000
3.60321100 0.09081050 -0.00370036 0.00000000
0.19140527 0.06932084 0.00278847 0.00000000
2.74556042 0.75142650 0.00269585 0.00000000
0.99067154 1.65895155 -0.00186521 0.00000000
0.31719937 0.40020959 0.00427919 0.00000000
1.62349771 0.28452232 -0.00086341 0.00000000
2.85727997 0.72182917 -0.00174168 0.00000000
1.69518690 0.82041607 0.00242815 0.00000000
1.44442107 0.19780184 -0.00163702 0.00000000
1.27479831 1.81791673 0.00302819 0.00000000
2.70088586 0.18996960 0.00000849 0.00000000
4.19131122 0.36430172 -0.00030844 0.00000000
0.19097057 0.45801228 0.00388165 0.00000000
3.43195797 0.67913205 0.00120970 0.00000000
4.89273370 1.69475077 0.00323970 0.00000000
0.47942192 1.70053802 0.00082681 0.00000000
2.80987844 0.69407192 -0.00003796 0.00000000
3.20191812 1.64709392 -0.00145900 0.00000000
1.53911026 0.60533798 -0.00042883 0.00000000
4.56078609 1.63280712 -0.00192824 0.00000000
0.98652071 1.24432022 0.00012248 0.00000000
1.96343828 1.70368564 -0.00070699 0.00000000
1.95936088 0.81537194 0.00384616 0.00000000
4.88038574 0.94893255 -0.00346264 0.00000000
0.87426599 1.38086548 0.00024210 0.00000000
1.83343641 1.39379535 -0.00506297 0.00000000
0.55695560 0.56722469 0.00125861 0.00000000
1.01162805 0.80344597 -0.00729661 0.00000000
0.31656730 0.41429649 -0.00026332 0.00000000
2.03403511 0.86133635 -0.00197741 0.00000000
4.05393022 0.61417191 0.00057656 0.00000000
0.12303272 0.72583736 -0.00263193 0.00000000
2.64694187 1.72721046 0.00104481 0.00000000
4.77257847 1.81521261 -0.00385056 0.00000000
0.60953445 0.32546337 0.00130610 0.00000000
4.68673478 0.63547992 0.00346271 0.00000000
0.40790718 0.28672848 -0.00054781 0.00000000
3.36335564 1.20973116 0.00330533 0.00000000
3.28023912 0.72848621 -0.00157272 0.00000000
1.14724401 0.18720734 -0.00050711 0.00000000
1.67847888 1.09903105 0.00289991 0.00000000
2.16360243 0.20578388 -0.00171031 0.00000000
3.96073474 0.21517020 -0.00074736 0.00000000
0.85244543 0.46939983 0.00264910 0.00000000
1.62306538 1.70583783 0.00234442 0.00000000
2.79461898 1.38223536 0.00217345 0.00000000
1.25719545 0.46867344 0.00089276 0.00000000
3.79891816 1.08790258 -0.00672216 0.00000000
1.72306684 1.80827921 0.00137714 0.00000000
1.65047412 0.36155888 0.00222124 0.00000000
2.87429981 0.92409705 0.00418619 0.00000000
4.20115933 1.80829293 -0.00144999 0.00000000
0.35400874 1.47978214 0.00020615 0.00000000
2.41055963 1.14682641 -0.00142013 0.00000000
3.13937778 1.23699129 -0.00684493 0.00000000
3.62932314 1.89510728 0.00297326 0.00000000
1.71575904 0.54247721 -0.00185877 0.00000000
4.08378033 0.20659370 0.00139959 0.00000000
1.79693958 0.28133595 0.00076075 0.00000000
2.48993762 0.78537400 0.00236494 0.00000000
2.62459648 1.09262977 -0.00030232 0.00000000
4.47974895 1.33870131 -0.00121446 0.00000000
4.61754063 0.47677536 0.00097540 0.00000000
0.52485816 1.63688408 -0.00430536 0.00000000
0.30178922 0.66550766 0.00326656 0.00000000
3.36151135 1.57768059 -0.00205229 0.00000000
4.04304131 1.98931662 -0.00056742 0.00000000
2.38058730 1.77048452 -0.00123998 0.00000000
1.04461229 1.94291425 0.00382092 0.00000000
0.39035326 0.20796913 0.00065824 0.00000000
4.05746446 0.72551418 -0.00212052 0.00000000
4.46854687 1.67440422 0.00013521 0.00000000
3.96724294 0.23110502 -0.00321880 0.00000000
3.84042606 0.18909066 0.00306857 0.00000000
4.65218476 0.59666921 -0.00048563 0.00000000
4.88586289 1.48265534 0.00091491 0.00000000
1.30054687 1.52579736 0.00233552 0.00000000
1.56230454 0.87875615 -0.00154316 0.00000000
2.98153908 0.81204022 0.00244327 0.00000000
0.72133192 0.28265831 -0.00029823 0.00000000
1.68699173 1.46149623 -0.00032864 0.00000000
3.28204304 1.45383945 -0.00285254 0.00000000
4.23306528 0.00524015 -0.00035835 0.00000000
4.08553911 0.24667830 -0.00133549 0.00000000
1.68699386 1.27554838 0.00345173 0.00000000
3.61781854 0.27667580 -0.00561108 0.00000000
3.33905041 1.10782693 -0.00385956 0.00000000
3.87957947 0.22239507 -0.00154921 0.00000000
2.96536715 1.99090990 0.00652863 0.00000000
3.82826103 0.84509330 -0.00136728 0.00000000
3.65475782 1.76830555 0.00185309 0.00000000
0.63505413 1.97156817 0.00371210 0.00000000
3.73516659 1.00163882 -0.00307529 0.00000000
1.64465875 0.21041528 0.00286651 0.00000000
3.87936603 0.60474881 0.00101826 0.00000000
0.60168182 0.59775278 0.00152527 0.00000000
3.59043908 1.62343564 -0.00195677 0.00000000
0.26743209 0.84537195 -0.00478816 0.00000000
3.21936775 0.86057125 -0.00063379 0.00000000
4.29059746 0.36640686 0.00212046 0.00000000
0.23823051 1.41926411 -0.00182919 0.00000000
2.04838306 0.29151397 0.00154125 0.00000000
0.20559374 1.24055202 0.00143286 0.00000000
1.18144731 0.31084523 -0.00123289 0.00000000
3.49245377 0.45176847 0.00172026 0.00000000
2.45821153 0.99044368 -0.00121624 0.00000000
3.17470311 1.40522746 0.00172015 0.00000000
2.13968743 0.81077971 -0.00302681 0.00000000
1.82805572 0.31280030 0.00002385 0.00000000
2.03608453 1.64051129 -0.00229749 0.00000000
2.59092064 0.04373391 -0.00035423 0.00000000
4.78625662 1.49310272 0.00267917 0.00000000
1.27456046 0.41368898 0.00199461 0.00000000
3.71318876 1.89260277 -0.00275816 0.00000000
3.32143809 1.48788168 0.00322425 0.00000000
1.65239008 1.14599265 -0.00196525 0.00000000
1.67923976 0.01056144 0.00498659 0.00000000
2.22264887 1.12769874 -0.00076841 0.00000000
2.68167173 0.66355167 0.00015695 0.00000000
4.90335501 1.04274372 -0.00252897 0.00000000
0.56753111 0.34382829 0.00089451 0.00000000
0.78826635 1.40477722 0.00063110 0.00000000
4.28089789 1.15324635 -0.00145483 0.00000000
2.73304405 1.47440930 0.00283000 0.00000000
3.35932734 1.80773045 0.00557973 0.00000000
2.15163370 1.29551695 0.00028159 0.00000000
3.13940166 1.66133449 -0.00214308 0.00000000
1.93450811 0.49362735 0.00346920 0.00000000
3.71708154 1.04629120 -0.00197881 0.00000000
2.47752989 0.70033962 -0.00207525 0.00000000
1.71621285 0.18412100 0.00697278 0.00000000
1.09794612 1.10222912 0.00042285 0.00000000
1.80422891 1.62372464 0.00141053 0.00000000
3.92920867 0.55572789 -0.00085528 0.00000000
0.04695725 1.59447988 0.00132859 0.00000000
0.01570476 1.71645752 0.00478926 0.00000000
1.19970775 1.17721395 0.00084479 0.00000000
3.56097338 1.32587995 0.00107889 0.00000000
3.19538460 1.24971538 0.00265389 0.00000000
0.35582889 1.58242012 -0.00067118 0.00000000
2.58881306 0.79926393 -0.00283647 0.00000000
2.00636738 1.74941187 0.00208701 0.00000000
2.11125175 1.02377823 0.00552367 0.00000000
3.06377653 0.91759388 0.00241073 0.00000000
1.29965146 0.12581871 -0.00144144 0.00000000
2.98817436 1.71447322 -0.00146720 0.00000000
0.56514847 1.07997916 0.00037557 0.00000000
4.91821745 0.01059173 -0.00316779 0.00000000
2.10618357 0.31375131 0.00072844 0.00000000
2.89499187 1.13832853 -0.00142071 0.00000000
0.38360611 0.80924432 -0.00068577 0.00000000
4.05246200 1.67470868 0.00098657 0.00000000
0.29021277 1.88638546 -0.00506198 0.00000000
0.18713077 1.27887453 -0.00115714 0.00000000
1.94096598 1.60429131 0.00067221 0.00000000
1.54903384 0.27839175 -0.00130965 0.00000000
2.96072160 1.12131799 0.00477203 0.00000000
1.94195644 0.61211268 0.00146698 0.00000000
3.89941180 0.27476854 -0.00092453 0.00000000
1.77684840 0.81102432 0.00441822 0.00000000
4.77608662 1.07317598 -0.00064018 0.00000000
1.81233691 0.59205211 -0.00457235 0.00000000
3.35811182 1.55805018 -0.00065506 0.00000000
4.49445601 0.03682770 0.00513157 0.00000000
4.35504357 0.46562935 0.00237702 0.00000000
2.26645297 0.75677033 -0.00322062 0.00000000
4.02682876 0.62401717 -0.00434123 0.00000000
4.25023721 1.31101232 0.00070349 0.00000000
0.94114515 1.68068614 -0.00316472 0.00000000
1.35492889 0.70386358 0.00043358 0.00000000
4.71438227 0.78541137 -0.00013423 0.00000000
3.53756100 2.00524643 0.00276871 0.00000000
3.69771585 1.11623936 0.00199256 0.00000000
4.13386197 1.85343941 -0.00754039 0.00000000
1.29240396 0.90713807 -0.00181321 0.00000000
3.38251988 0.44388637 0.00017771 0.00000000
2.78687526 1.10148204 -0.00049605 0.00000000
0.55858000 0.67117656 0.00010420 0.00000000
1.33713669 0.37455546 -0.00267589 0.00000000
4.04296986 0.47203778 -0.00102355 0.00000000
2.93265470 0.72164606 0.00273026 0.00000000
2.31406238 1.67484798 -0.00173642 0.00000000
1.04903395 1.16834271 -0.00235597 0.00000000
2.66814228 0.97225578 -0.00325500 0.00000000
1.62528776 0.89735711 -0.00010526 0.00000000
0.11056563 1.85373872 -0.00119580 0.00000000
2.38359264 0.64385780 0.00014521 0.00000000
0.39094848 0.79233050 -0.00166922 0.00000000
3.12156064 1.39592494 -0.00438045 0.00000000
3.17512805 0.26649906 0.00248479 0.00000000
1.99953818 0.69548619 0.00134406 0.00000000
0.34142219 0.19036518 0.00044119 0.00000000
0.00723313 0.55380737 0.00141825 0.00000000
4.50228417 1.44028628 0.00176279 0.00000000
2.98541861 1.72009879 -0.00271133 0.00000000
0.23519306 0.91685751 -0.00071560 0.00000000
3.66575856 1.95204823 -0.00067282 0.00000000
4.88811970 0.98128593 0.00338181 0.00000000
2.07283903 1.42213998 0.00436722 0.00000000
2.47232554 1.17895872 0.00091781 0.00000000
0.69498169 1.59052441 -0.00196670 0.00000000
0.16777093 0.15966644 -0.00151705 0.00000000
1.27297411 1.94591558 0.00474008 0.00000000
0.66702456 1.49864641 0.00185329 0.00000000
4.12963977 1.59448553 -0.00060448 0.00000000
2.02624444 0.77621059 -0.00585337 0.00000000
3.00732614 1.19869679 0.00160959 0.00000000
0.52705975 0.39914185 0.00013055 0.00000000
1.97483685 0.02626543 0.00054939 0.00000000
4.81084559 1.68548440 -0.00085525 0.00000000
0.69535446 1.70760520 -0.00353168 0.00000000
4.41248951 1.53344991 -0.00177877 0.00000000
1.94334958 1.06194955 0.00574283 0.00000000
4.08489578 1.95658122 -0.00532450 0.00000000
0.69602716 0.63073123 -0.00240982 0.00000000
1.26993637 1.79239898 0.00133004 0.00000000
0.11470771 0.27151945 -0.00032449 0.00000000
1.34866937 0.37416313 0.00009245 0.00000000
4.84629357 0.32373362 -0.00039361 0.00000000
1.85542427 0.78414667 -0.00011878 0.00000000
2.68824404 0.93761833 -0.00238812 0.00000000
2.10982764 1.63286683 0.00151783 0.00000000
4.24223449 0.09580094 0.00003322 0.00000000
1.09470253 1.22993643 0.00271538 0.00000000
0.16470965 1.91783596 0.00041930 0.00000000
1.39629722 1.16336073 -0.00087013 0.00000000
2.84280333 0.20696957 -0.00339170 0.00000000
4.40798525 1.28130664 -0.00019615 0.00000000
3.27478292 0.44728093 0.00116641 0.00000000
0.00732479 1.91030150 0.00138135 0.00000000
3.03874021 1.53872511 0.00132023 0.00000000
3.41525136 0.16226726 -0.00266168 0.00000000
1.92864457 1.20611004 0.00131735 0.00000000
1.95411360 1.37929599 -0.00228108 0.00000000
1.57501541 0.22054235 0.00059007 0.00000000
3.29211484 0.85303347 -0.00429796 0.00000000
4.45160485 1.77262250 -0.00251193 0.00000000
4.17425198 0.74165816 0.00018092 0.00000000
0.19305728 0.80782360 -0.00096605 0.00000000
0.76388059 0.35324008 -0.00230010 0.00000000
2.25807316 0.75817079 0.00122730 0.00000000
4.81080414 1.25315157 0.00099879 0.00000000
3.95984761 0.80816611 0.00273796 0.00000000
0.45813133 1.02379296 -0.00085848 0.00000000
4.06975927 0.59050282 0.00067986 0.00000000
3.35047563 1.24881417 -0.00111890 0.00000000
1.33254855 0.65872884 -0.00321131 0.00000000
3.86282738 1.65344096 -0.00593912 0.00000000
1.26145637 0.67393084 -0.00112503 0.00000000
0.52370695 1.27600112 -0.00026110 0.00000000
1.56345343 0.04946929 0.00162505 0.00000000
4.62170419 0.59399014 -0.00142940 0.00000000
1.23817449 0.54387874 -0.00002322 0.00000000
0.09247333 1.70429622 0.00084863 0.00000000
3.28646603 0.20761714 -0.00014160 0.00000000
0.65520471 1.30617856 0.00110092 0.00000000
3.03701460 1.78492901 -0.00324095 0.00000000
2.47520790 0.28154827 -0.00114302 0.00000000
0.02773145 0.27317393 -0.00076019 0.00000000
1.62660365 0.97900847 0.00355530 0.00000000
0.72004437 0.58664644 -0.00011988 0.00000000
3.71175240 1.87052478 -0.00086039 0.00000000
0.87305081 1.71286923 -0.00081104 0.00000000
1.37254019 1.03045897 0.00086717 0.00000000
1.47160490 0.01617403 -0.00281470 0.00000000
4.09685000 1.26515732 -0.00107125 0.00000000
4.17041139 1.50600688 0.00072693 0.00000000
2.28553139 0.45351162 0.00218742 0.00000000
4.27266650 1.13352468 -0.00098979 0.00000000
0.44686648 1.98466621 0.00192636 0.00000000
2.93099342 0.48136173 0.00127411 0.00000000
0.47341939 0.49048037 0.00275584 0.00000000
2.57449552 1.26399897 -0.00158259 0.00000000
3.58842854 1.51495465 -0.00129042 0.00000000
4.89666059 1.46978171 -0.00111238 0.00000000
3.17233223 1.11770744 0.00181704 0.00000000
4.71152216 1.91787660 -0.00190665 0.00000000
2.26245552 0.98956261 0.00285236 0.00000000
2.04531298 1.14960381 0.00398902 0.00000000
4.28066547 1.20603658 0.00158358 0.00000000
1.33369760 0.47079979 -0.00504477 0.00000000
4.16548224 1.67511221 0.00090912 0.00000000
1.57361076 1.66749598 0.00027395 0.00000000
2.07875286 0.78143606 -0.00170365 0.00000000
2.46278950 1.51866189 -0.00009388 0.00000000
2.44563645 1.77965273 0.00211416 0.00000000
2.18912740 1.94746803 0.00099799 0.00000000
3.68829899 0.48802353 0.00307901 0.00000000
2.85507009 1.31022589 0.00400438 0.00000000
1.67818949 0.43214655 0.00276170 0.00000000
3.99657047 1.12153572 0.00176360 0.00000000
3.18684113 1.44991683 0.00120635 0.00000000
2.74435966 1.23840839 -0.00057785 0.00000000
4.04277767 0.66596707 -0.00196144 0.00000000
0.43922826 0.74699006 -0.00315501 0.00000000
4.28453836 0.93187933 0.00057698 0.00000000
1.70224649 1.78048363 -0.00098881 0.00000000
4.18283156 1.14905587 0.00622931 0.00000000
2.08409501 0.05301959 -0.00027871 0.00000000
3.80235625 0.31254136 0.00217352 0.00000000
1.85630201 1.85025242 0.00389415 0.00000000
2.57737155 0.92761700 -0.00023728 0.00000000
1.23534640 1.56343687 -0.00274749 0.00000000
0.84407161 1.54237606 0.00395575 0.00000000
0.39820487 0.86151934 -0.00167313 0.00000000
0.42990976 1.47925045 -0.00009310 0.00000000
4.28692650 0.66905203 0.00134306 0.00000000
1.06586470 1.93920739 0.00382019 0.00000000
2.62079182 1.19849496 -0.00158190 0.00000000
1.83454084 0.39674036 0.00253481 0.00000000
1.21485238 1.04037335 -0.00111115 0.00000000
4.84449306 1.61665710 -0.00207922 0.00000000
0.31215874 1.75500568 -0.00054036 0.00000000
0.38544488 0.03427501 0.00392572 0.00000000
1.81420677 1.06609480 0.00210392 0.00000000
0.03482449 1.10636659 -0.00290260 0.00000000
3.24274153 0.50884712 -0.00010300 0.00000000
4.42100378 0.57152603 -0.00412690 0.00000000
1.83315355 1.43687163 -0.00279015 0.00000000
0.37880760 0.84379174 -0.00026907 0.00000000
4.07220410 0.49919670 -0.00115587 0.00000000
0.18203243 0.47227485 0.00005699 0.00000000
3.05230591 0.32040386 0.00393092 0.00000000
0.90007135 0.17077152 -0.00270544 0.00000000
1.92779634 1.91452972 0.00329441 0.00000000
1.74752046 1.98898727 0.00027629 0.00000000
0.72841877 1.76376715 0.00028722 0.00000000
2.36268005 1.03946921 -0.00000209 0.00000000
3.82617668 0.41896979 0.00004953 0.00000000
1.94014223 1.53686871 -0.00197338 0.00000000
4.03042352 0.04041598 -0.00201899 0.00000000
2.30702817 0.07095476 -0.00236320 0.00000000
4.26010152 1.28968446 -0.00009126 0.00000000
0.32201493 1.01956614 -0.00360472 0.00000000
4.25203746 0.89592845 0.00477605 0.00000000
0.67951441 1.52868818 -0.00092532 0.00000000
2.58414100 0.69570396 0.00228765 0.00000000
0.40995949 0.52437051 0.00281482 0.00000000
2.63853653 1.41329886 0.00082772 0.00000000
1.78650222 0.16329525 0.00160626 0.00000000
4.48420631 0.49428715 0.00577830 0.00000000
2.67628876 1.38829541 0.00089139 0.00000000
1.79660413 1.56469171 0.00278219 0.00000000
3.61114248 0.90398632 0.00275860 0.00000000
2.18168493 1.48140579 -0.00270245 0.00000000
2.44375013 1.78700780 -0.00016363 0.00000000
3.93994035 1.95827817 -0.00017292 0.00000000
0.80753617 0.97422470 -0.00306280 0.00000000
3.97462144 0.32284214 0.00307922 0.00000000
3.13546077 0.35963287 -0.00080116 0.00000000
0.78823993 1.16522857 0.00091709 0.00000000
4.51186753 0.44752602 -0.00339875 0.00000000
3.02998716 0.03927403 -0.00309191 0.00000000
1.94270410 1.28939247 -0.00271637 0.00000000
2.70681303 1.37053345 0.00051859 0.00000000
2.52791551 0.63845408 0.00211699 0.00000000
4.50205777 0.72367688 0.00213194 0.00000000
0.33571125 0.25897563 -0.00207834 0.00000000
1.01277504 0.12248742 -0.00424402 0.00000000
1.82417260 0.75821114 0.00086617 0.00000000
1.43996622 0.71433077 0.00290554 0.00000000
1.14188939 0.11569074 0.00355071 0.00000000
4.83170638 0.78414780 0.00305682 0.00000000
0.05879825 1.38262204 -0.00227183 0.00000000
3.96741667 0.23270099 0.00048731 0.00000000
2.30975498 2.00003822 -0.00422314 0.00000000
0.50278579 1.20918718 -0.00030866 0.00000000
2.83375347 0.29336278 -0.00057227 0.00000000
0.43248738 0.78773728 0.00043839 0.00000000
0.29777551 1.99218808 -0.00140709 0.00000000
4.27905244 0.45924122 -0.00243836 0.00000000
3.83456958 1.05110484 0.00319826 0.00000000
4.14922245 0.39037289 0.00348787 0.00000000
2.10512215 1.74629259 0.00032589 0.00000000
1.72486226 0.47633253 -0.00539427 0.00000000
1.31037287 1.60039342 -0.00275345 0.00000000
2.54644149 0.66447576 -0.00238616 0.00000000
3.71438991 0.28189964 -0.00060016 0.00000000
0.29170417 1.57160246 0.00004153 0.00000000
0.63674617 1.57622394 0.00241364 0.00000000
0.74486888 0.86864273 -0.00245145 0.00000000
0.26698258 0.95497668 -0.00387138 0.00000000
0.92576625 1.13298676 -0.00050191 0.00000000
0.33378667 0.88068947 -0.00133500 0.00000000
3.66422849 0.07194427 0.00019756 0.00000000
1.11489835 0.23036651 0.00255348 0.00000000
1.67437441 0.76030455 -0.00120602 0.00000000
2.38268394 1.48320796 -0.00002640 0.00000000
0.90527548 0.84412282 0.00260448 0.00000000
4.73822757 0.50450076 0.00333458 0.00000000
2.10919464 0.86021053 0.00164452 0.00000000
4.79396292 0.70120392 -0.00034055 0.00000000
4.00248528 1.66058638 -0.00327557 0.00000000
3.15794908 1.15282517 -0.00358069 0.00000000
3.81728639 1.68415131 -0.00374703 0.00000000
2.41818193 2.01578783 0.00172885 0.00000000
3.12029869 0.93809519 -0.00061284 0.00000000
3.07229778 0.42500768 0.00104629 0.00000000
4.00330454 0.61791962 -0.00330760 0.00000000
4.58105769 1.71061458 0.00158322 0.00000000
2.93316156 0.56061932 -0.00289302 0.00000000
2.56343114 0.00022318 0.00025202 0.00000000
2.73568779 0.13668208 0.00024397 0.00000000
3.25985000 1.60828640 -0.00000603 0.00000000
2.48002074 1.52601440 0.00269106 0.00000000
3.60612967 0.43734914 -0.00132635 0.00000000
3.64003710 0.34593166 -0.00081310 0.00000000
3.83116337 0.82562725 -0.00063965 0.00000000
3.00413039 1.47567389 -0.00529552 0.00000000
2.63444537 1.68485336 -0.00077404 0.00000000
3.18500769 0.76183900 -0.00176898 0.00000000
4.09751663 1.91882084 0.00054554 0.00000000
2.45399221 1.76322203 -0.00190169 0.00000000
0.97264064 0.64797208 -0.00414115 0.00000000
3.16107481 1.97781902 -0.00716282 0.00000000
4.33722675 0.18763253 -0.00151749 0.00000000
0.81939329 1.20889571 -0.00148297 0.00000000
4.14125130 1.13024457 0.00118177 0.00000000
2.09749375 1.93173638 -0.00217902 0.00000000
1.14624247 0.65382755 0.00014533 0.00000000
2.93333228 1.68439252 0.00358592 0.00000000
1.35397031 1.81365337 0.00316505 0.00000000
2.80120419 0.49381759 -0.00195716 0.00000000
3.17949628 1.72354358 0.00015231 0.00000000
3.15898454 1.68660896 0.00237352 0.00000000
0.98861838 0.76804708 -0.00239325 0.00000000
3.08250933 1.61107081 0.00014150 0.00000000
1.06855172 0.34826444 0.00333672 0.00000000
2.49832399 1.93420394 0.00034995 0.00000000
3.63755677 0.37385557 -0.00369447 0.00000000
4.51861381 1.61975055 -0.00026380 0.00000000
3.03783533 1.98778290 0.00026038 0.00000000
3.14986297 2.00746969 -0.00336499 0.00000000
1.71393361 1.66477108 -0.00011631 0.00000000
2.93854072 0.96669954 0.00153714 0.00000000
0.59503020 1.40715781 -0.00206765 0.00000000
0.57821674 1.68975214 -0.00067673 0.00000000
2.90033800 1.59636031 0.00190399 0.00000000
3.18412597 0.93240926 -0.00197755 0.00000000
2.18705788 0.38303445 -0.00339640 0.00000000
0.06760274 0.58253159 -0.00267137 0.00000000
3.00841312 1.63194953 0.00151373 0.00000000
3.22256705 0.58524823 -0.00268107 0.00000000
0.84698366 1.74099425 0.00284537 0.00000000
4.59893715 0.22411436 0.00098980 0.00000000
0.85825852 1.33435767 -0.00046194 0.00000000
2.64029001 1.56336441 0.00537408 0.00000000
1.37122665 1.69486388 -0.00204211 0.00000000
4.45444684 1.90256607 0.00043709 0.00000000
4.91640586 1.90421740 0.00273510 0.00000000
1.06687469 1.43974263 -0.00010527 0.00000000
0.92894043 1.03759885 0.00282545 0.00000000
1.11264077 1.59024230 0.00361665 0.00000000
0.57496488 0.09813484 -0.00154415 0.00000000
4.89618761 1.69598445 -0.00144495 0.00000000
3.43441192 1.91077531 -0.00096297 0.00000000
1.66668647 0.39802207 0.00501314 0.00000000
3.64779802 1.93662017 -0.00008697 0.00000000
0.99241184 0.38687214 -0.00064789 0.00000000
0.29013579 0.26305392 -0.00038697 0.00000000
0.90407065 1.03543631 0.00083932 0.00000000
0.63954783 0.72975148 0.00160055 0.00000000
4.06089033 0.08962791 0.00169808 0.00000000
3.11258210 0.39399696 -0.00070360 0.00000000
3.18596094 0.61671537 -0.00099635 0.00000000
0.63929013 1.82840192 0.00081065 0.00000000
4.07536639 1.19727340 0.00220574 0.00000000
2.12224323 0.31059180 -0.00146750 0.00000000
4.53944238 1.45781576 -0.00307892 0.00000000
1.03861571 0.09621693 -0.00211299 0.00000000
1.49135165 0.94997816 -0.00156575 0.00000000
2.11982937 1.85292712 -0.00111433 0.00000000
3.16343070 0.23338827 -0.00101738 0.00000000
3.44885706 1.45439952 -0.00193920 0.00000000
3.23828715 1.72129645 -0.00157353 0.00000000
2.98985796 1.19984128 -0.00086783 0.00000000
3.31111713 1.11452307 -0.00125837 0.00000000
3.00456426 0.35458884 0.00015853 0.00000000
0.26955060 0.50334088 -0.00104520 0.00000000
4.55035847 1.20569124 0.00071800 0.00000000
2.13460254 0.03528487 0.00033865 0.00000000
0.81751305 1.16474711 0.00164176 0.00000000
2.49483695 0.31677107 -0.00053524 0.00000000
4.64291186 1.92210057 -0.00165171 0.00000000
4.05212300 0.05626063 0.00226219 0.00000000
3.43700392 0.81404529 -0.00335312 0.00000000
4.51680666 0.34829657 0.00197460 0.00000000
1.95876244 1.05985819 0.00173321 0.00000000
2.42659405 1.65206706 0.00103517 0.00000000
4.53938637 0.35489669 0.00617959 0.00000000
3.49589983 0.54517922 -0.00068469 0.00000000
4.67128425 0.02360492 0.00220739 0.00000000
1.05414289 0.08117241 0.00022566 0.00000000
3.96386084 0.02841075 -0.00449076 0.00000000
2.22671145 1.28910531 0.00360569 0.00000000
2.63996184 1.84033022 -0.00150452 0.00000000
0.23692864 1.97158060 0.00141744 0.00000000
0.36510370 1.54882446 0.00365753 0.00000000
0.81082529 1.90842077 0.00051731 0.00000000
4.60662397 0.41257701 -0.00081574 0.00000000
1.38093197 0.07243915 0.00127734 0.00000000
4.52302692 0.07751569 0.00242303 0.00000000
0.15818472 0.54601309 0.00283467 0.00000000
3.40761054 1.55225771 0.00236451 0.00000000
1.79349486 1.90052259 -0.00004478 0.00000000
4.67460742 1.22997657 -0.00119703 0.00000000
4.43745635 0.77960080 0.00252509 0.00000000
3.24008423 0.92169287 0.00198738 0.00000000
3.15004887 1.92950367 -0.00544637 0.00000000
1.69052555 1.09070694 0.00384356 0.00000000
2.96666062 0.09369754 0.00053613 0.00000000
4.07645108 1.60937212 0.00229901 0.00000000
1.78245902 1.42432820 0.00092526 0.00000000
1.36179370 1.22744520 0.00495702 0.00000000
2.38933813 0.64315341 -0.00053005 0.00000000
1.52873027 0.04372584 -0.00123625 0.00000000
3.81339312 0.34243655 -0.00503809 0.00000000
2.50832670 1.34472547 0.00114581 0.00000000
3.80522514 0.04225769 -0.00086584 0.00000000
2.11290307 0.14716440 0.00248442 0.00000000
2.43770826 0.22953982 -0.00201515 0.00000000
1.74378076 1.38355830 -0.00130981 0.00000000
4.69692010 1.46064016 -0.00106608 0.00000000
3.90551547 0.86476232 -0.00242212 0.00000000
2.88440688 1.54944885 -0.00534906 0.00000000
0.57238985 0.16963601 -0.00395055 0.00000000
2.89088633 0.48866492 0.00404331 0.00000000
0.56827903 1.33961672 -0.00010295 0.00000000
4.87892996 1.80145129 -0.00045306 0.00000000
1.19307215 1.72309465 0.00008710 0.00000000
2.15205957 1.43087745 0.00014297 0.00000000
1.21874779 0.01278161 -0.00000427 0.00000000
4.85693472 0.25391085 0.00101899 0.00000000
1.68697187 0.00275420 0.00003151 0.00000000
0.67804227 1.61842920 0.00053653 0.00000000
1.01315801 0.32131453 -0.00062389 0.00000000
2.94602463 0.22025576 0.00131913 0.00000000
3.73429604 0.35948471 0.00218090 0.00000000
0.34001360 0.57211930 -0.00034183 0.00000000
2.96811699 0.55473995 -0.00041701 0.00000000
4.30870229 1.89830415 0.00480521 0.00000000
1.66703932 1.22484664 0.00052087 0.00000000
1.48612162 1.06537528 -0.00294938 0.00000000
1.31364717 1.78604406 -0.00309169 0.00000000
3.90772222 1.99573232 -0.00279144 0.00000000
0.14012699 1.90367070 0.00051742 0.00000000
0.77472129 1.66163039 -0.00227662 0.00000000
1.37899280 0.76071690 0.00168725 0.00000000
0.84054738 1.00247604 0.00656848 0.00000000
1.61722134 1.35885600 0.00208143 0.00000000
0.81457170 0.43167280 -0.00100294 0.00000000
1.41033196 1.10684947 0.00455861 0.00000000
3.78705812 0.23854803 0.00331266 0.00000000
4.75288879 1.25306951 -0.00034358 0.00000000
2.89482656 1.38122662 0.00299292 0.00000000
0.72703967 0.57960481 0.00215363 0.00000000
0.43769638 0.95656410 0.00194824 0.00000000
4.24961098 0.06908348 -0.00000138 0.00000000
2.05971779 1.79998393 -0.00326220 0.00000000
1.00277303 0.10856866 0.00236030 0.00000000
3.54708988 1.11419273 -0.00001692 0.00000000
4.51388199 1.54549356 0.00132964 0.00000000
2.59317943 2.00489766 -0.00180367 0.00000000
3.32494496 0.64798640 -0.00035490 0.00000000
1.18576491 0.67626527 -0.00046829 0.00000000
2.99883245 0.71927051 0.00224804 0.00000000
1.99664333 0.07458285 -0.00229519 0.00000000
2.66303420 1.27341321 0.00250885 0.00000000
2.97372391 0.12943436 -0.00178657 0.00000000
0.84597677 0.81153973 0.00357391 0.00000000
0.36100883 1.60267726 0.00011840 0.00000000
3.49973195 1.16726234 -0.00455341 0.00000000
2.79426001 1.41104982 0.00130398 0.00000000
3.53154532 1.43163688 0.00378850 0.00000000
4.53397152 1.71387378 -0.00386390 0.00000000
0.12284169 0.24007924 -0.00259102 0.00000000
0.92474263 1.24113899 0.00122071 0.00000000
0.92135870 1.46510985 -0.00168892 0.00000000
3.11666710 1.89107770 -0.00192559 0.00000000
1.18186941 0.97081685 -0.00107932 0.00000000
3.05343614 0.77258676 0.00052896 0.00000000
3.40090111 1.48670269 0.00203231 0.00000000
3.56245981 0.68873021 -0.00181533 0.00000000
4.22505382 1.77292196 0.00306090 0.00000000
4.03187512 1.19152618 0.00492966 0.00000000
3.75695833 0.18341850 -0.00397275 0.00000000
0.91014474 0.16552063 -0.00081841 0.00000000
1.70520586 0.25390943 0.00275996 0.00000000
0.27434313 0.28636093 -0.00078082 0.00000000
3.64852535 0.23935050 -0.00051998 0.00000000
0.67055980 1.77587507 -0.00050531 0.00000000
4.26698354 1.17360979 -0.00251711 0.00000000
1.41039553 0.27506547 0.00085682 0.00000000
0.01925144 1.76126800 0.00124513 0.00000000
1.76581148 1.32012477 0.00343370 0.00000000
1.85456828 0.48217065 -0.00065746 0.00000000
4.92496972 0.96238585 0.00110115 0.00000000
3.81152777 0.83259491 -0.00003833 0.00000000
1.67148257 0.39242856 0.00204998 0.00000000
2.29102032 0.11605010 -0.00071477 0.00000000
2.36140859 0.44816080 0.00116721 0.00000000
0.70712537 0.77841018 -0.00449314 0.00000000
4.80624054 0.68485267 -0.00165332 0.00000000
0.33081262 0.83398930 0.00235493 0.00000000
1.56889034 0.15939786 0.00180766 0.00000000
0.90700476 0.65355719 0.00470343 0.00000000
1.90789629 1.63594978 -0.00261132 0.00000000
1.35227093 0.98700505 -0.00075733 0.00000000
1.11317152 1.86183142 0.00064854 0.00000000
0.34745665 0.24215920 0.00310660 0.00000000
4.80468553 1.42665927 0.00231771 0.00000000
4.27356319 0.25302048 -0.00115063 0.00000000
2.83740246 0.70691651 0.00282990 0.00000000
0.27242821 1.96103716 -0.00073666 0.00000000
2.06780891 0.73267120 -0.00228454 0.00000000
1.35426485 0.83948266 -0.00021546 0.00000000
1.83639992 1.98242349 0.00048673 0.00000000
0.38438027 1.11769383 -0.00150514 0.00000000
0.21342320 1.41877896 -0.00157734 0.00000000
3.88617453 0.10771261 -0.00050628 0.00000000
0.92497558 0.00112354 0.00217335 0.00000000
3.03343610 0.51892835 -0.00177029 0.00000000
1.10905744 0.50891593 0.00015686 0.00000000
1.67854841 1.02097493 -0.00232575 0.00000000
2.93773965 1.64080464 0.00061613 0.00000000
4.65583927 0.17531325 0.00238745 0.00000000
1.46787053 0.40264583 -0.00038205 0.00000000
4.56369142 0.54713316 -0.00122020 0.00000000
2.81451511 1.88541962 0.00323091 0.00000000
2.87696139 0.62281113 0.00028975 0.00000000
1.13257857 0.01585111 0.00099942 0.00000000
0.00617229 1.91713523 0.00030919 0.00000000
3.94830257 0.90497244 0.00147952 0.00000000
1.14237518 1.89382278 0.00208632 0.00000000
4.89281332 1.34894792 -0.00098833 0.00000000
1.22225663 0.11139719 -0.00224845 0.00000000
4.78668341 0.32529614 0.00323916 0.00000000
4.10402112 1.12323608 0.00183087 0.00000000
2.14328608 0.36539498 -0.00168053 0.00000000
3.24868612 1.33638210 -0.00251611 0.00000000
4.06612326 0.29632663 0.00612892 0.00000000
4.58280617 1.75119792 0.00043333 0.00000000
4.91571229 0.59899948 -0.00158269 0.00000000
1.00231858 1.76534232 -0.00142156 0.00000000
1.94525364 1.49388563 -0.00374354 0.00000000
1.45255963 0.17516240 0.00045889 0.00000000
4.26130477 1.24621426 -0.00106995 0.00000000
3.24539203 1.99144663 0.00379012 0.00000000
0.69142553 1.40054905 -0.00008350 0.00000000
2.04811701 1.34431141 -0.00118329 0.00000000
1.91907216 1.13855984 0.00123893 0.00000000
2.01605605 1.34182206 -0.00430802 0.00000000
4.09853922 1.94164724 -0.00146883 0.00000000
1.96896811 0.14055541 0.00312548 0.00000000
4.06496420 0.30236224 -0.00344287 0.00000000
2.07613288 0.79876127 0.00040531 0.00000000
4.90302502 0.14516798 0.00610987 0.00000000
3.65055719 0.80286232 0.00412113 0.00000000
4.54896661 1.54470201 0.00010367 0.00000000
4.44581416 0.13249259 -0.00064999 0.00000000
1.84357734 0.85446750 0.00081470 0.00000000
2.09858677 1.45442357 0.00123646 0.00000000
1.48040822 0.30888270 0.00355514 0.00000000
4.13795318 0.07806264 0.00197947 0.00000000
1.47968049 1.26810155 0.00027062 0.00000000
1.19013671 1.18676918 -0.00041695 0.00000000
4.76532167 0.16876588 0.00314639 0.00000000
1.38540633 0.22317417 -0.00380924 0.00000000
0.05599174 0.18862091 -0.00364483 0.00000000
2.95172211 1.13770713 -0.00166970 0.00000000
0.47350034 1.70364456 -0.00069634 0.00000000
1.88734794 1.35449320 -0.00501275 0.00000000
0.80050208 0.45309684 -0.00271306 0.00000000
2.20350833 0.61267907 0.00056739 0.00000000
3.00085056 1.93620364 -0.00263624 0.00000000
3.20941521 0.71700138 0.00062646 0.00000000
4.41277492 1.68748664 -0.00171100 0.00000000
3.55470885 0.97820092 -0.00098272 0.00000000
3.39166609 1.28361746 0.00196192 0.00000000
1.95174730 0.82035690 -0.00262521 0.00000000
4.00048108 1.88682817 -0.00081401 0.00000000
