0.425269 0.563016 0.001581 0.0
1.660986 1.962716 -0.002580 0.0
3.524059 0.776675 -0.000814 0.0
1.486984 0.164990 0.004974 0.0
0.325180 1.968220 0.001475 0.0
0.440832 1.257642 -0.000658 0.0
3.136241 1.424778 0.001143 0.0
1.825694 1.035181 -0.001831 0.0
1.159989 0.406914 -0.002334 0.0
2.452483 1.645135 0.002905 0.0
3.110754 1.775163 0.001588 0.0
3.478929 0.762369 -0.002646 0.0
4.158545 1.850457 -0.002548 0.0
1.935811 2.019396 0.002007 0.0
2.451244 0.702480 0.000617 0.0
3.831903 0.314438 -0.004616 0.0
0.258738 1.632873 0.004037 0.0
0.566698 1.397028 0.000205 0.0
2.081134 1.618056 0.001186 0.0
2.404192 0.990353 0.003844 0.0
2.277937 1.291986 -0.000479 0.0
3.997056 0.467493 -0.002766 0.0
1.643848 0.544174 0.001793 0.0
3.741848 2.120636 0.000912 0.0
2.707352 0.616175 -0.004520 0.0
0.717885 0.784474 -0.003085 0.0
2.198079 0.988391 -0.001210 0.0
4.184661 1.635112 0.002034 0.0
4.130902 2.070002 0.002289 0.0
2.823773 1.316167 0.001639 0.0
2.093804 0.581194 0.003032 0.0
2.929324 1.605841 0.003346 0.0
0.138942 1.440096 -0.002605 0.0
1.250639 0.317166 0.002846 0.0
3.264052 1.265104 0.000787 0.0
2.880038 0.914053 -0.001176 0.0
1.604348 1.519286 -0.000393 0.0
0.914158 1.553588 -0.002615 0.0
2.996006 0.058915 0.001171 0.0
4.583580 0.787758 0.000943 0.0
2.400383 0.077791 0.002671 0.0
2.451578 1.674910 -0.000208 0.0
2.595639 1.840404 -0.001735 0.0
3.923947 0.413067 -0.003253 0.0
2.052367 1.997848 0.001776 0.0
1.722795 0.693227 0.001703 0.0
1.134569 1.218701 -0.001219 0.0
2.070174 0.816125 -0.002269 0.0
0.534534 1.189747 0.004467 0.0
1.106090 0.488915 0.002112 0.0
0.574383 0.065938 0.001727 0.0
2.362059 1.643584 -0.000942 0.0
2.221144 1.549913 -0.000201 0.0
3.805219 0.151155 -0.000640 0.0
3.543685 1.933434 0.001653 0.0
2.135385 0.743815 -0.000201 0.0
4.506817 1.068707 0.000027 0.0
4.186372 0.389633 -0.002936 0.0
0.021313 1.754386 -0.001520 0.0
3.426661 0.555504 0.001959 0.0
3.767510 1.084447 0.004592 0.0
1.247407 0.827669 0.001969 0.0
4.132141 0.125455 -0.000142 0.0
2.831093 2.110103 -0.004158 0.0
1.802335 0.850864 -0.000841 0.0
2.124887 2.125054 -0.001873 0.0
3.851070 0.254232 -0.001226 0.0
2.232253 2.116051 0.003310 0.0
0.082854 1.744911 0.005457 0.0
3.862865 0.000208 -0.001019 0.0
1.870374 0.979952 0.000188 0.0
1.979368 1.784314 0.000910 0.0
2.471891 1.358886 -0.002319 0.0
1.621005 0.518745 0.000737 0.0
1.120786 1.693905 -0.000137 0.0
2.311795 0.662808 -0.001921 0.0
1.622000 1.718986 -0.002227 0.0
1.450866 1.491107 0.003108 0.0
0.289201 1.881806 -0.000011 0.0
3.933397 0.173464 -0.000545 0.0
1.642163 1.208935 -0.001097 0.0
1.540823 0.117206 -0.000395 0.0
2.467642 1.286430 0.001129 0.0
3.639460 0.223628 0.006010 0.0
1.320064 1.968084 -0.001872 0.0
4.315945 1.687568 0.000930 0.0
2.853535 1.387482 -0.002597 0.0
2.552876 0.685011 0.000575 0.0
1.216880 1.604419 0.003848 0.0
1.768334 1.164037 0.000208 0.0
1.469395 0.908489 -0.001961 0.0
3.581477 1.898490 -0.004413 0.0
4.106716 1.619471 -0.000426 0.0
4.325284 1.307465 -0.002262 0.0
2.507834 1.594077 0.004959 0.0
3.510975 1.903635 -0.000667 0.0
4.280897 2.031098 -0.004730 0.0
3.085069 1.090430 -0.001451 0.0
3.765397 2.038329 -0.003236 0.0
2.768714 1.403400 -0.002058 0.0
2.525992 1.821464 0.002309 0.0
1.291418 0.516248 -0.001833 0.0
0.181541 0.969706 -0.000128 0.0
3.705135 1.211567 0.000336 0.0
3.381364 1.663669 0.001220 0.0
2.504824 1.111000 -0.002793 0.0
1.435535 0.791119 -0.000348 0.0
4.194866 1.755928 -0.000989 0.0
2.545129 1.073094 0.000761 0.0
2.506353 0.678361 -0.000693 0.0
2.452480 0.454043 -0.001289 0.0
1.463941 1.838142 -0.000075 0.0
2.537270 1.132121 -0.002893 0.0
0.407275 1.959529 -0.002950 0.0
3.499491 0.578414 0.000922 0.0
1.336456 1.987619 0.004475 0.0
3.066011 0.957172 -0.004571 0.0
1.903826 1.695052 -0.002695 0.0
3.478872 1.797401 0.003506 0.0
0.821609 0.046524 -0.001038 0.0
3.017192 1.433163 -0.002963 0.0
2.373092 0.583472 -0.003462 0.0
0.036288 2.050375 -0.000258 0.0
3.903284 0.679465 -0.000189 0.0
0.592677 1.938372 0.001949 0.0
4.206911 0.617176 0.002561 0.0
3.007450 0.078601 -0.002019 0.0
3.484345 0.081907 -0.000968 0.0
1.771436 0.493473 -0.002710 0.0
3.906609 1.549307 -0.002087 0.0
3.569214 0.522490 -0.003930 0.0
4.243387 1.654396 -0.000840 0.0
0.697291 1.583252 0.001172 0.0
0.802847 1.198986 0.001997 0.0
1.322992 1.654906 0.004595 0.0
0.777862 1.820965 0.005443 0.0
3.336341 1.636257 0.001731 0.0
0.630156 1.295902 -0.001513 0.0
1.265449 0.815376 0.000444 0.0
4.532957 0.359633 -0.002301 0.0
4.071704 0.212656 -0.003326 0.0
4.553854 1.044475 0.000535 0.0
3.004698 0.233436 0.003161 0.0
2.565832 1.562169 0.000003 0.0
0.193105 2.126342 -0.000171 0.0
1.194829 0.524018 -0.000732 0.0
1.561902 1.451734 0.000293 0.0
2.132943 1.655362 -0.002146 0.0
1.229244 1.047048 0.001103 0.0
2.345719 1.736012 0.000540 0.0
0.345671 1.324086 -0.003348 0.0
4.517495 1.197552 -0.001420 0.0
4.481319 0.042324 0.002612 0.0
1.792312 1.138568 -0.001684 0.0
2.381904 1.171689 0.000037 0.0
1.667884 1.673536 0.007912 0.0
2.364978 1.926706 -0.003374 0.0
1.049325 1.397739 0.004156 0.0
4.622407 0.176123 0.002857 0.0
1.065203 0.742637 0.001070 0.0
0.294115 0.950929 -0.001956 0.0
0.956987 1.333559 0.001640 0.0
1.562330 0.248936 0.004598 0.0
1.560391 0.404310 0.000202 0.0
0.280390 1.974197 0.001086 0.0
3.420062 0.929697 0.003975 0.0
2.601348 1.264292 0.000604 0.0
4.007346 0.270612 -0.001228 0.0
3.367332 1.435714 -0.004395 0.0
3.179419 1.990763 0.005303 0.0
2.490594 1.507513 -0.002053 0.0
1.537636 1.476543 -0.000123 0.0
0.803420 1.666749 0.001087 0.0
2.289572 1.237703 -0.003545 0.0
0.598635 1.489543 0.003460 0.0
3.135136 0.719090 0.000753 0.0
1.263855 1.762303 0.000585 0.0
3.890014 1.615172 0.003121 0.0
3.539181 0.588540 -0.001007 0.0
2.268293 1.704175 0.003244 0.0
0.786613 1.353015 0.000333 0.0
2.004012 1.574459 0.001423 0.0
4.655745 0.508902 -0.001153 0.0
1.843636 0.745924 0.000206 0.0
1.956021 1.689814 -0.000796 0.0
0.730079 1.597082 0.001425 0.0
4.506837 0.806166 0.003039 0.0
2.825629 2.049855 0.000421 0.0
2.568306 1.545134 -0.004281 0.0
1.694992 0.813001 0.001443 0.0
3.457838 0.944855 -0.004265 0.0
4.388856 1.039806 -0.001997 0.0
2.543703 1.066727 -0.000941 0.0
0.608400 0.137656 -0.001704 0.0
1.068708 1.588219 -0.002335 0.0
1.302570 0.948522 -0.002096 0.0
4.308758 1.504406 -0.001443 0.0
3.695742 1.224976 0.001246 0.0
4.568240 1.606576 0.000448 0.0
0.122190 2.096978 0.000828 0.0
1.324522 0.421643 0.001864 0.0
2.310350 0.535608 -0.001100 0.0
0.922934 1.606808 -0.000462 0.0
1.587392 1.126994 0.000013 0.0
2.164432 1.039904 -0.002293 0.0
0.909546 1.440280 -0.001194 0.0
1.526335 0.499631 0.001918 0.0
4.172275 0.872969 0.000154 0.0
1.971773 1.179458 -0.000491 0.0
1.312189 0.870147 0.002791 0.0
2.092582 0.516248 -0.001794 0.0
0.219213 2.102243 -0.000025 0.0
1.042808 0.391376 0.000072 0.0
2.598199 0.805546 0.001405 0.0
2.801465 0.698793 0.000965 0.0
0.137244 1.462504 0.001546 0.0
1.219137 1.594241 0.001610 0.0
1.055109 1.259802 0.002245 0.0
2.834575 1.725364 0.005515 0.0
0.158884 1.687870 -0.004162 0.0
1.870386 1.335975 0.001369 0.0
3.061320 1.067606 0.001879 0.0
3.277397 1.735967 -0.002001 0.0
3.202259 0.153709 0.001084 0.0
3.924804 0.167752 0.003506 0.0
0.224689 1.578204 0.000702 0.0
3.319260 0.999031 0.000077 0.0
2.245722 1.914365 0.000472 0.0
0.431553 1.013989 -0.000584 0.0
2.565768 0.541769 -0.001253 0.0
4.267655 1.544331 -0.001347 0.0
4.541081 0.539902 0.002228 0.0
0.316738 1.610414 -0.001535 0.0
2.358349 0.234711 0.001635 0.0
0.294413 0.207415 0.003250 0.0
1.491156 0.191479 0.001545 0.0
2.222878 1.974730 0.003093 0.0
3.181709 0.490934 -0.001348 0.0
0.638856 1.476614 -0.002602 0.0
1.858286 0.669842 -0.000389 0.0
1.316999 1.142435 0.002329 0.0
0.811132 1.498378 -0.005866 0.0
3.475627 0.928065 -0.001984 0.0
4.472562 1.671600 0.004830 0.0
1.372022 1.192458 0.001351 0.0
0.659052 0.791771 -0.001926 0.0
1.580387 1.763785 0.001889 0.0
0.140314 1.461579 -0.001450 0.0
0.012207 1.198540 -0.003966 0.0
0.800054 1.281289 0.000024 0.0
2.954662 0.672664 0.005269 0.0
3.123607 0.946628 -0.003161 0.0
0.476718 1.263522 -0.000756 0.0
0.076534 1.072616 0.001354 0.0
4.546097 0.229141 -0.004364 0.0
4.007390 0.491968 -0.002570 0.0
2.649228 1.971538 -0.000250 0.0
0.894254 1.288543 0.000464 0.0
3.707217 1.417788 0.001543 0.0
0.974415 2.095269 0.000871 0.0
0.304660 0.839429 -0.002627 0.0
3.567459 0.468834 -0.001794 0.0
1.356415 1.935961 0.002768 0.0
0.963836 1.119591 0.000904 0.0
1.481279 0.155134 0.001092 0.0
0.030582 0.115336 -0.003174 0.0
1.186204 1.043196 0.003314 0.0
0.804119 1.017079 -0.005090 0.0
1.225444 0.513398 -0.003380 0.0
0.534353 0.400596 0.002751 0.0
4.402089 1.227396 0.002979 0.0
4.574253 1.332381 -0.000190 0.0
2.314151 0.878147 -0.001785 0.0
2.517205 1.755493 0.000731 0.0
3.530234 1.616691 -0.001214 0.0
1.892295 0.819500 -0.002443 0.0
3.430698 1.004388 -0.002639 0.0
3.947767 1.709339 0.002795 0.0
4.457352 0.432533 -0.002446 0.0
2.741539 2.064543 0.002763 0.0
2.376098 1.109137 0.002178 0.0
4.400079 1.609434 0.000643 0.0
0.920389 0.416132 -0.000912 0.0
1.684010 2.113611 -0.002032 0.0
0.695360 0.978805 0.001870 0.0
0.589140 1.214493 -0.001853 0.0
4.644820 0.778937 -0.001217 0.0
2.287248 1.885331 -0.001728 0.0
0.142408 0.923137 0.000845 0.0
3.549392 0.126760 0.000410 0.0
2.016861 1.436533 -0.001153 0.0
2.938856 1.146471 -0.002438 0.0
3.539244 1.017445 -0.000319 0.0
3.383936 0.921919 -0.001101 0.0
3.668772 0.887091 -0.005876 0.0
1.144622 0.794702 0.000152 0.0
4.470132 1.177858 0.000990 0.0
0.697399 1.778561 -0.002086 0.0
2.860267 1.365278 -0.003342 0.0
3.429266 0.671271 -0.005675 0.0
1.914058 2.104713 0.003159 0.0
2.494142 1.173086 0.002627 0.0
3.325547 1.696808 -0.001366 0.0
3.641146 2.123345 -0.000003 0.0
3.137578 0.017945 0.004194 0.0
4.605010 1.436888 0.002953 0.0
3.575144 0.642760 -0.001547 0.0
3.151885 1.661423 0.000502 0.0
3.914347 0.600709 0.007464 0.0
3.904364 1.252558 0.002607 0.0
2.888737 1.999823 -0.000134 0.0
1.942216 1.241760 0.002053 0.0
0.124569 0.739555 -0.004846 0.0
1.085147 0.979697 0.001232 0.0
0.890216 0.307950 -0.001187 0.0
2.935896 0.274902 -0.000616 0.0
4.484267 1.239401 -0.005542 0.0
1.987950 1.362172 -0.002432 0.0
0.126890 0.458964 -0.001368 0.0
3.312104 1.273679 -0.001789 0.0
0.339887 0.376145 0.001496 0.0
2.490240 0.307796 0.006136 0.0
4.546835 1.753579 -0.002263 0.0
4.474369 1.775233 -0.000049 0.0
3.673357 2.055646 0.001779 0.0
3.130500 1.672352 -0.002807 0.0
3.168785 1.286684 0.004898 0.0
2.386208 0.569023 0.000847 0.0
3.552924 1.366052 -0.000676 0.0
3.069355 0.845538 0.000863 0.0
3.588500 0.682631 -0.003294 0.0
3.984324 2.036453 -0.000479 0.0
3.943167 0.903416 -0.006841 0.0
3.200091 1.323835 -0.001654 0.0
3.001141 0.638997 0.002880 0.0
0.090783 0.551131 0.002442 0.0
3.591692 0.401676 -0.005959 0.0
3.448157 0.249243 -0.000393 0.0
2.608582 1.931523 -0.001242 0.0
2.587305 1.044280 0.001378 0.0
2.493694 0.671301 0.000708 0.0
3.467113 0.788393 -0.001205 0.0
3.001449 0.652785 -0.000955 0.0
2.363292 0.696898 0.003398 0.0
1.277413 1.039102 -0.003731 0.0
4.215961 0.980648 0.000367 0.0
1.374984 1.693764 0.002085 0.0
3.507836 0.928431 0.005833 0.0
4.586489 1.638748 -0.001100 0.0
0.628627 1.267332 0.003771 0.0
3.633466 1.276646 -0.000791 0.0
3.618711 1.081990 -0.004493 0.0
0.719106 0.945929 -0.001684 0.0
0.318468 0.566625 -0.000267 0.0
4.296749 1.584079 -0.000460 0.0
4.298110 0.496717 -0.000356 0.0
1.799162 1.425495 -0.002074 0.0
2.039417 1.689692 -0.003102 0.0
2.230974 1.390652 0.001945 0.0
2.410386 0.546730 0.000763 0.0
0.504451 0.025690 0.000826 0.0
0.363593 1.383531 -0.001240 0.0
0.449788 1.912834 0.002726 0.0
0.284760 0.127004 -0.002395 0.0
3.549528 1.755688 0.004642 0.0
3.498877 0.220660 0.002913 0.0
1.707094 1.269765 -0.002005 0.0
1.567796 1.721113 -0.002669 0.0
4.551231 1.071131 0.004267 0.0
2.084364 0.730940 0.002011 0.0
1.872866 1.590686 0.000068 0.0
1.927649 1.439833 -0.001418 0.0
0.814403 0.715301 0.000350 0.0
1.802430 1.896644 0.000195 0.0
1.422334 0.448743 -0.003975 0.0
1.606253 0.425451 -0.003299 0.0
3.304525 0.127666 -0.001240 0.0
0.512138 1.839882 0.003301 0.0
1.299050 1.506308 0.000268 0.0
2.120577 1.495431 0.001276 0.0
0.724960 1.931598 0.001243 0.0
1.430240 1.728339 -0.001172 0.0
3.794281 0.391601 0.000152 0.0
4.456348 0.604479 0.003877 0.0
3.226038 0.958292 0.000248 0.0
1.971338 1.311456 0.002105 0.0
1.222145 0.523092 0.003047 0.0
1.575864 1.631473 -0.000253 0.0
0.802504 1.473559 -0.002426 0.0
3.300522 1.443358 -0.000185 0.0
3.107551 1.120355 0.001548 0.0
0.852856 0.817754 -0.001237 0.0
2.703222 1.349728 -0.000295 0.0
1.164867 1.421722 -0.001296 0.0
2.410011 1.559745 -0.000638 0.0
3.222784 1.843843 -0.000155 0.0
3.055489 1.023835 -0.003525 0.0
0.374759 0.697320 0.002652 0.0
3.876274 1.549163 0.001364 0.0
0.999452 0.940894 0.001231 0.0
1.143848 1.328665 -0.002295 0.0
0.560438 1.872662 0.002731 0.0
0.016814 1.814368 0.004191 0.0
3.469834 1.111210 0.003774 0.0
2.258812 0.404828 -0.004887 0.0
1.951166 0.223721 0.000627 0.0
1.801379 0.248140 -0.000381 0.0
2.048653 0.444869 0.000078 0.0
2.674535 1.134425 0.002189 0.0
2.307500 1.018602 0.002362 0.0
3.346714 0.711645 -0.005643 0.0
1.411497 0.124338 0.002631 0.0
1.183340 1.000916 0.003434 0.0
3.409083 1.302154 0.000039 0.0
0.472877 0.583077 -0.001991 0.0
2.180589 1.554574 -0.001047 0.0
0.527760 0.044049 0.000303 0.0
0.535613 1.728198 -0.000385 0.0
0.569045 1.687978 0.002446 0.0
2.668008 0.178645 0.004232 0.0
1.097840 1.056388 0.003308 0.0
3.679612 0.486417 -0.001826 0.0
3.924764 1.848547 0.001800 0.0
2.388894 1.615991 -0.003802 0.0
3.585486 1.800436 -0.002036 0.0
3.209404 1.175583 0.002094 0.0
1.492205 1.132752 -0.000505 0.0
3.272043 0.269260 -0.000490 0.0
2.567844 1.705748 -0.002043 0.0
1.471689 0.011623 -0.001826 0.0
1.821690 0.766614 0.000670 0.0
4.435188 1.524613 0.001447 0.0
0.016209 1.346457 -0.000318 0.0
3.766145 0.261410 -0.000318 0.0
4.258042 1.287696 0.000681 0.0
3.344114 1.598066 -0.002467 0.0
0.200210 2.055540 -0.000814 0.0
0.836842 1.419047 0.000633 0.0
3.323222 1.516419 -0.001571 0.0
3.251892 0.618393 -0.000699 0.0
1.659609 0.118287 -0.001787 0.0
4.371979 0.093476 0.000783 0.0
4.095187 1.171580 0.002683 0.0
0.533590 1.684797 0.000557 0.0
3.479047 0.878173 0.001155 0.0
3.412530 1.648955 -0.001465 0.0
3.268540 0.845522 -0.000522 0.0
4.341568 0.226859 0.003963 0.0
3.463254 1.526461 0.002887 0.0
2.631397 1.636264 0.001789 0.0
3.651046 1.108724 0.000556 0.0
3.293204 0.725391 -0.000500 0.0
3.226952 2.042175 -0.000571 0.0
0.923898 0.011478 -0.000531 0.0
1.851274 2.084943 -0.000908 0.0
2.878928 0.902649 0.002595 0.0
2.140783 2.110916 0.000089 0.0
3.428072 1.006414 -0.001790 0.0
0.675283 2.106499 -0.002198 0.0
0.272012 2.072815 0.001707 0.0
2.650217 0.324290 -0.001457 0.0
1.780368 1.689909 -0.000344 0.0
0.940928 0.628419 0.003390 0.0
2.970831 1.675632 -0.002940 0.0
2.850719 1.683450 0.000355 0.0
0.131265 1.115346 0.000161 0.0
4.190043 1.533163 0.002006 0.0
4.335015 1.426094 -0.002215 0.0
3.766849 1.797226 0.000379 0.0
3.710274 1.813966 -0.001977 0.0
0.624562 0.180841 0.000511 0.0
0.784282 0.737853 0.003322 0.0
3.487538 1.900617 -0.001425 0.0
2.897390 1.249660 -0.001017 0.0
2.278381 0.561989 0.002132 0.0
1.262409 1.782371 -0.000461 0.0
2.875808 1.126908 0.001674 0.0
4.623055 1.159018 0.002752 0.0
1.095669 0.476649 -0.000320 0.0
1.401230 2.079076 -0.001167 0.0
3.575673 1.262914 -0.002470 0.0
0.575816 0.647340 -0.001165 0.0
3.176316 1.883103 0.001743 0.0
1.576355 1.244938 -0.003625 0.0
1.032905 1.590565 0.005209 0.0
2.021815 1.106091 0.000226 0.0
3.228102 0.257397 -0.002352 0.0
3.405922 1.187477 0.003146 0.0
1.871393 1.851494 -0.001783 0.0
3.118376 1.386086 0.003887 0.0
2.583165 0.492640 -0.002042 0.0
1.858059 1.571686 -0.000378 0.0
1.121217 0.984941 0.000790 0.0
1.211678 0.154646 -0.004443 0.0
0.110689 0.231323 -0.000626 0.0
0.245718 1.633894 0.000638 0.0
1.810400 0.328116 0.003469 0.0
3.088545 0.405175 0.003636 0.0
2.136913 0.366317 -0.000693 0.0
2.958796 0.652677 0.004030 0.0
2.981019 1.100182 0.006507 0.0
3.822412 0.009113 -0.000410 0.0
3.064410 1.091717 0.001660 0.0
2.264989 1.073541 0.000012 0.0
0.730551 0.424607 -0.000639 0.0
3.422249 2.011619 0.003180 0.0
0.564645 1.406607 -0.004696 0.0
1.269560 0.077823 -0.000670 0.0
1.930769 1.372652 0.000306 0.0
0.488061 1.451691 0.003022 0.0
4.059877 1.645486 0.002227 0.0
0.508472 0.106687 0.002346 0.0
1.887164 1.466592 0.002769 0.0
1.367458 0.906306 0.001300 0.0
2.026165 0.593315 0.002521 0.0
2.045275 0.700133 -0.004620 0.0
3.007869 0.077884 0.001021 0.0
4.015595 1.114988 0.000917 0.0
0.371714 0.947932 0.001919 0.0
0.066904 1.459289 -0.000500 0.0
0.175099 1.097807 -0.000106 0.0
4.489403 0.722993 0.000341 0.0
2.482557 0.880105 0.002519 0.0
3.544373 0.019575 -0.002436 0.0
1.867928 1.296756 0.001007 0.0
3.653138 0.587395 -0.000664 0.0
3.589212 2.021841 0.001590 0.0
0.954828 1.179729 0.001396 0.0
3.590617 1.246450 -0.001754 0.0
4.020634 0.225366 0.003119 0.0
1.636800 1.107439 0.002748 0.0
2.959461 0.160048 0.002207 0.0
1.194451 0.095594 -0.005507 0.0
3.942934 1.513711 0.000430 0.0
0.966089 1.876097 0.000277 0.0
4.661788 1.522032 0.002737 0.0
0.538011 0.080772 -0.000110 0.0
3.602166 0.958298 -0.004128 0.0
3.161605 1.673467 -0.004450 0.0
4.278289 1.948737 0.002630 0.0
1.973812 0.628968 -0.000297 0.0
2.541831 0.872692 -0.001832 0.0
1.240777 1.159230 0.000576 0.0
2.518992 1.509022 -0.005457 0.0
1.277404 0.304749 -0.001659 0.0
1.762614 1.487302 -0.004110 0.0
3.822480 0.751661 0.003934 0.0
3.209958 2.048831 0.001357 0.0
1.591779 1.731804 -0.000813 0.0
2.148251 0.871814 -0.000937 0.0
4.422571 0.061972 -0.000522 0.0
0.285713 0.887928 -0.001112 0.0
4.187920 0.930196 -0.002848 0.0
2.270019 0.829530 0.001400 0.0
3.825616 0.333510 -0.000047 0.0
0.830805 0.338924 0.000412 0.0
2.825704 2.030036 0.001754 0.0
3.115465 1.402324 0.002394 0.0
4.519735 1.527792 -0.002570 0.0
1.203913 1.836625 -0.001036 0.0
0.010660 0.582142 0.000877 0.0
0.970704 0.909288 -0.001121 0.0
4.459194 1.194464 -0.003504 0.0
0.477010 0.292201 -0.001756 0.0
3.124045 1.482049 0.001743 0.0
4.616238 1.555485 0.005535 0.0
0.690451 2.026327 -0.000288 0.0
3.356778 1.441830 0.000290 0.0
2.778053 1.323212 -0.001757 0.0
2.360373 0.173866 -0.001301 0.0
3.787897 1.418631 0.002600 0.0
3.471962 2.076273 -0.001835 0.0
4.598073 0.374178 0.002254 0.0
2.888300 0.707175 0.001118 0.0
1.730931 0.641093 -0.000199 0.0
0.035414 0.591689 0.000252 0.0
4.402501 0.398161 -0.000594 0.0
0.126088 0.371977 -0.000380 0.0
2.085286 1.756215 0.000333 0.0
0.836268 0.126540 0.000841 0.0
4.409746 1.226591 0.003784 0.0
2.284844 1.701338 -0.002527 0.0
1.238138 1.802080 0.000393 0.0
1.674600 0.134622 0.002794 0.0
4.115169 0.273748 0.004596 0.0
2.812800 1.958167 0.000568 0.0
1.314736 1.284227 0.002038 0.0
3.371331 0.873795 0.000616 0.0
1.281704 0.731143 0.001362 0.0
1.240907 2.007222 0.005345 0.0
2.891544 0.451471 -0.000523 0.0
0.999057 0.863441 0.004262 0.0
2.746313 1.864533 0.002597 0.0
3.234900 0.849481 -0.002416 0.0
3.165605 0.604097 0.003758 0.0
4.041228 0.104548 0.000461 0.0
0.327236 1.355083 -0.000786 0.0
0.195803 1.753070 -0.001044 0.0
4.500899 0.954517 -0.003033 0.0
1.644272 1.387920 -0.003829 0.0
1.864759 1.298439 -0.004915 0.0
0.176576 0.312609 -0.000187 0.0
2.240714 1.074523 -0.002089 0.0
4.507292 0.807628 -0.001781 0.0
4.443770 1.816758 0.002229 0.0
1.915726 0.274785 -0.003414 0.0
4.595967 0.706438 0.004594 0.0
1.404402 0.713478 -0.001478 0.0
2.436395 0.537832 -0.002090 0.0
2.210688 0.290004 0.000389 0.0
0.142079 1.702928 -0.000119 0.0
0.934490 1.348796 0.002288 0.0
2.495232 0.470773 -0.001372 0.0
4.000881 1.723531 -0.002550 0.0
1.250596 0.967102 -0.001182 0.0
0.527069 0.618719 -0.000384 0.0
3.577569 1.683812 -0.001584 0.0
1.510116 1.496964 -0.002887 0.0
3.232948 1.520882 -0.002707 0.0
2.196871 1.389419 -0.001197 0.0
2.751783 0.313701 0.000732 0.0
2.964279 0.136628 -0.001897 0.0
3.553272 1.695880 -0.001576 0.0
0.273813 1.315751 -0.002125 0.0
2.206251 1.821361 -0.003067 0.0
0.247487 0.028667 -0.003691 0.0
2.236279 1.966302 0.001309 0.0
2.248527 0.082446 -0.001165 0.0
3.168189 1.618059 -0.002736 0.0
3.298887 0.855757 0.002732 0.0
0.692950 1.933265 0.000140 0.0
0.956543 0.226174 -0.002482 0.0
0.299048 0.365441 -0.002454 0.0
1.704164 1.049592 0.002877 0.0
2.168797 1.320570 0.000705 0.0
3.548445 1.708057 0.003778 0.0
3.236953 2.075612 -0.000147 0.0
1.912105 1.013703 0.000702 0.0
3.546203 1.389019 0.004045 0.0
1.847706 2.055290 -0.002630 0.0
0.255742 0.487359 0.000472 0.0
2.821928 0.686481 0.001387 0.0
0.731155 1.941931 -0.004056 0.0
2.437665 0.232159 0.002667 0.0
0.600989 0.790945 0.004012 0.0
4.234589 0.635932 -0.001060 0.0
2.255554 2.134957 -0.002657 0.0
0.275157 1.479049 0.004837 0.0
1.663651 1.625517 0.002472 0.0
1.044582 0.313571 -0.003637 0.0
3.276557 1.795106 0.001051 0.0
0.190872 1.407604 0.001834 0.0
0.713507 1.194636 -0.001799 0.0
3.158146 1.575325 -0.004115 0.0
3.983427 0.428952 -0.002068 0.0
3.321404 1.084976 0.002126 0.0
3.074720 1.994318 0.004571 0.0
0.868240 0.076939 -0.001645 0.0
3.183995 1.100307 -0.001519 0.0
1.169624 1.507072 -0.002687 0.0
3.001635 1.116755 0.002395 0.0
3.786254 1.631159 0.000735 0.0
1.782987 1.817451 -0.000395 0.0
0.393264 1.723537 -0.001848 0.0
1.436454 0.826908 -0.001455 0.0
1.602029 0.628596 0.006692 0.0
0.405533 0.084808 0.002999 0.0
3.348740 0.510986 -0.006615 0.0
0.927182 0.204484 -0.000500 0.0
2.592371 0.160319 0.002597 0.0
3.160554 1.390132 0.000834 0.0
2.470349 1.502594 0.001496 0.0
1.023473 0.069530 -0.000579 0.0
2.810225 1.937386 0.003081 0.0
3.819103 0.492468 0.001027 0.0
2.779094 0.210138 0.000747 0.0
0.432875 1.974570 0.002707 0.0
2.290548 0.073353 -0.004909 0.0
1.730845 0.197778 -0.001318 0.0
3.450733 0.903936 0.005617 0.0
0.703497 1.172866 0.000484 0.0
1.079986 0.862529 0.000168 0.0
0.505671 1.760096 0.000593 0.0
3.214459 1.624805 0.000959 0.0
2.398981 0.755429 0.000143 0.0
3.743600 2.001182 -0.002573 0.0
1.860966 0.400459 -0.001748 0.0
0.914945 0.680343 -0.004175 0.0
2.886089 0.720761 -0.004360 0.0
1.990391 0.097936 -0.000248 0.0
2.673072 1.317476 -0.001227 0.0
1.617564 0.227100 -0.003725 0.0
1.555246 1.537764 0.001502 0.0
3.881941 1.440000 -0.001703 0.0
3.504643 1.847813 0.001937 0.0
2.806736 0.826561 -0.002542 0.0
1.163057 1.959351 -0.002945 0.0
0.406367 0.622124 -0.001662 0.0
4.123463 0.189560 0.002966 0.0
2.510983 0.584773 0.001089 0.0
1.826675 0.781766 0.000714 0.0
3.201053 0.172630 0.001346 0.0
0.360194 0.281114 0.000703 0.0
3.410033 1.331683 0.000381 0.0
4.189554 1.636904 0.000077 0.0
2.746502 0.240591 0.001711 0.0
2.281742 0.955876 -0.003421 0.0
1.746168 0.193524 0.002467 0.0
4.269953 2.121820 -0.001788 0.0
1.562794 1.572009 -0.000609 0.0
1.924182 2.009968 -0.004794 0.0
1.732415 0.593031 -0.004605 0.0
0.179837 1.672969 -0.001045 0.0
4.567920 1.204239 -0.003054 0.0
1.431444 0.388196 -0.000960 0.0
4.043410 1.976652 -0.001295 0.0
0.631578 1.839235 -0.001424 0.0
4.331114 1.440925 0.001742 0.0
3.344360 1.467152 0.000140 0.0
0.743147 1.362596 -0.001405 0.0
1.339977 1.057452 -0.005175 0.0
0.885040 1.742559 -0.000794 0.0
1.973226 0.455944 -0.001943 0.0
1.965866 0.801195 0.000658 0.0
1.133297 1.947364 -0.002154 0.0
2.806487 0.450833 -0.001244 0.0
4.428343 0.936757 0.001726 0.0
2.434953 0.890378 -0.000414 0.0
1.756841 2.126964 -0.001383 0.0
4.559508 0.468424 -0.003237 0.0
2.780230 1.959314 0.001725 0.0
1.652926 1.797353 0.000003 0.0
4.550870 1.127828 -0.000383 0.0
4.474582 1.218818 -0.002612 0.0
1.227367 1.059354 -0.002668 0.0
3.106064 0.812026 0.002609 0.0
0.812283 0.502284 0.002240 0.0
0.077997 1.467498 -0.001543 0.0
4.581087 1.820507 -0.001695 0.0
0.308403 1.871751 -0.003911 0.0
3.196770 1.475226 -0.001802 0.0
3.829968 2.070830 0.000384 0.0
0.473746 1.919409 0.000764 0.0
4.096831 0.860374 -0.001197 0.0
2.053334 1.694911 0.002562 0.0
4.402945 0.375468 0.001223 0.0
3.866841 0.485903 -0.002764 0.0
3.443275 0.891282 -0.003121 0.0
0.413354 1.716962 -0.000000 0.0
1.827269 1.037085 -0.003670 0.0
3.043736 0.513538 -0.002478 0.0
2.221724 1.532383 -0.002004 0.0
2.589451 0.435777 0.000970 0.0
2.618615 1.846092 0.000063 0.0
3.890516 0.855367 0.002129 0.0
1.711083 1.742657 0.000339 0.0
2.092073 0.290452 0.000103 0.0
1.969358 1.015006 -0.004708 0.0
1.784050 1.926005 -0.003048 0.0
2.488799 0.832257 0.001580 0.0
3.428020 0.506292 -0.002278 0.0
1.080002 1.520291 0.001376 0.0
1.720826 1.201052 0.004047 0.0
1.629288 0.470446 0.000115 0.0
2.378963 0.766300 0.001829 0.0
1.041063 0.167773 0.000422 0.0
2.463751 1.004477 -0.004060 0.0
3.709055 0.389996 -0.001137 0.0
1.809010 0.173915 -0.001075 0.0
4.318027 1.626044 -0.002447 0.0
0.715377 0.274104 -0.004749 0.0
2.724292 1.745738 0.004324 0.0
1.586633 0.867531 -0.001488 0.0
4.531754 1.998594 0.002027 0.0
2.938231 0.696412 0.003520 0.0
2.928631 0.420458 -0.000899 0.0
1.979001 0.607141 -0.004239 0.0
1.024561 0.650869 -0.000529 0.0
4.509912 0.645721 0.002627 0.0
2.509007 0.902047 -0.001468 0.0
0.892925 0.387154 0.001462 0.0
1.903645 1.852679 -0.002862 0.0
4.504365 1.504597 -0.001376 0.0
1.700043 1.516441 0.003556 0.0
2.169711 0.813346 0.001177 0.0
0.899654 0.512339 -0.001610 0.0
2.093890 0.195495 0.000815 0.0
3.256934 1.399449 0.002112 0.0
3.470677 0.152539 -0.002819 0.0
1.572293 0.370477 -0.001066 0.0
0.148798 0.696980 -0.001912 0.0
2.959333 0.856101 -0.001376 0.0
2.858886 1.904462 -0.001834 0.0
1.527881 1.066973 0.003101 0.0
1.316010 0.126053 0.000431 0.0
0.121536 0.768715 0.001171 0.0
1.590232 0.535097 -0.002678 0.0
0.211013 0.898753 0.001612 0.0
0.118951 2.074972 0.000238 0.0
1.169219 0.043042 -0.001070 0.0
2.422109 1.408504 0.001579 0.0
0.312929 1.080889 -0.000969 0.0
4.328875 1.179980 -0.001377 0.0
1.895843 1.125677 0.004038 0.0
3.951532 1.449531 0.001333 0.0
2.048445 1.666453 -0.000448 0.0
0.868281 0.550715 -0.001550 0.0
0.319730 0.998771 0.000932 0.0
1.122499 0.847937 -0.007113 0.0
2.540824 1.364248 -0.001022 0.0
4.495560 0.065149 0.002128 0.0
1.840583 0.234449 -0.002077 0.0
0.616878 0.775850 0.001505 0.0
0.231763 0.905888 -0.003326 0.0
0.554130 1.853917 -0.004403 0.0
1.351698 1.066408 0.002556 0.0
4.474164 1.864391 0.001387 0.0
4.622263 1.301680 -0.004847 0.0
0.316815 0.591389 -0.002173 0.0
1.158362 1.765272 0.002785 0.0
3.026806 1.681896 0.000444 0.0
2.215269 1.776427 0.001971 0.0
4.467079 1.620647 -0.003280 0.0
2.393590 0.131395 -0.003455 0.0
0.716815 0.048034 -0.001059 0.0
1.964387 1.922185 -0.000062 0.0
2.363191 1.454321 -0.004057 0.0
1.227418 0.419926 -0.002756 0.0
3.593539 0.855350 -0.003114 0.0
2.550356 2.017780 0.003883 0.0
1.700482 1.808969 -0.000126 0.0
2.139458 1.366355 0.001696 0.0
2.379653 1.381077 0.001627 0.0
4.003865 0.441987 0.001251 0.0
4.460450 0.279547 0.000719 0.0
4.243567 1.111242 -0.000934 0.0
1.307639 1.734980 -0.000373 0.0
3.589603 0.638764 0.002318 0.0
3.923771 2.117167 0.002276 0.0
0.907656 0.887329 -0.000341 0.0
2.686087 1.745896 -0.001161 0.0
2.401815 0.028467 -0.000059 0.0
4.238918 2.098345 0.001181 0.0
4.236136 0.310458 -0.004289 0.0
2.838313 0.200345 -0.000493 0.0
2.695244 1.019299 -0.001341 0.0
2.001529 1.569968 0.001973 0.0
2.596702 1.571578 -0.001147 0.0
0.287954 0.713484 0.001516 0.0
3.735260 0.694029 0.001145 0.0
0.446205 1.270069 0.001181 0.0
0.281988 1.942161 0.003834 0.0
3.594640 1.846789 -0.001616 0.0
1.251416 1.718803 -0.002246 0.0
2.508983 1.730619 0.002135 0.0
1.989818 1.960808 -0.002821 0.0
0.566183 1.520219 -0.001305 0.0
2.758362 0.860364 0.004076 0.0
3.378871 0.772559 0.002015 0.0
2.566331 0.527187 -0.002059 0.0
0.464367 0.514222 0.000739 0.0
2.624029 0.795164 0.001061 0.0
0.904774 1.678795 0.000355 0.0
1.106201 1.715002 -0.003572 0.0
0.467867 0.612242 -0.002159 0.0
1.777275 1.997559 -0.001449 0.0
1.297334 0.348331 0.001543 0.0
3.616003 0.548443 0.003451 0.0
3.809332 1.246015 -0.000162 0.0
0.673240 1.091885 -0.001120 0.0
0.740708 1.510015 -0.000731 0.0
3.046850 0.264723 -0.001258 0.0
4.505788 0.732485 -0.001190 0.0
4.640673 1.671428 0.005925 0.0
0.143624 1.614819 0.006936 0.0
1.522899 1.120318 0.004340 0.0
1.978985 1.429052 -0.001019 0.0
2.594241 1.517836 0.001924 0.0
4.364588 1.543553 0.002435 0.0
1.310803 2.038193 -0.000710 0.0
3.169853 1.336989 -0.001484 0.0
1.673497 0.370941 0.002856 0.0
3.849297 0.058521 -0.003601 0.0
2.704204 2.030591 -0.002025 0.0
3.238047 0.524772 0.002470 0.0
0.838067 0.687615 -0.001908 0.0
0.588407 0.378071 0.003094 0.0
4.293996 1.883461 0.000475 0.0
0.884296 1.718282 0.001735 0.0
2.053964 1.869998 -0.000410 0.0
1.631419 0.328660 -0.003647 0.0
2.518405 1.967958 0.004609 0.0
0.618563 0.182732 -0.000136 0.0
2.031749 1.297162 0.001383 0.0
1.232249 0.256995 0.004307 0.0
3.007493 0.118938 -0.000955 0.0
3.620201 1.517047 0.000226 0.0
1.695244 1.554731 0.000653 0.0
2.904954 1.655571 0.004682 0.0
0.209614 1.558326 0.002455 0.0
1.610055 1.758251 0.005496 0.0
0.735798 1.148032 -0.000950 0.0
3.153827 2.011341 -0.001239 0.0
3.438773 0.214826 0.001896 0.0
0.611023 2.033972 0.001227 0.0
4.144924 1.730628 -0.000627 0.0
3.209827 0.285095 0.000963 0.0
1.662113 0.109425 0.000298 0.0
0.885216 1.703142 -0.000972 0.0
4.386076 1.333780 0.001616 0.0
3.774259 0.674850 0.002381 0.0
0.425110 0.303175 0.000010 0.0
3.931521 0.149663 -0.002079 0.0
1.403586 1.172585 -0.000697 0.0
2.112770 0.169221 0.002872 0.0
0.895698 1.723644 -0.001114 0.0
0.772553 1.950315 0.000735 0.0
2.269775 0.353532 0.005943 0.0
3.864448 0.850009 0.001832 0.0
2.965829 0.776019 -0.000664 0.0
3.139122 1.494877 0.003422 0.0
2.570365 0.091867 -0.000059 0.0
2.709705 1.168642 -0.000079 0.0
3.700633 0.928536 -0.002744 0.0
4.360015 1.585753 0.000447 0.0
0.876046 1.918573 -0.001116 0.0
3.014657 0.232462 -0.002855 0.0
4.121800 1.345304 -0.001210 0.0
0.089187 2.104582 0.002554 0.0
1.693239 0.759175 0.002548 0.0
1.204343 0.239873 -0.000102 0.0
3.841847 0.874541 0.000531 0.0
2.009331 1.036352 0.001218 0.0
1.551296 1.157228 0.000626 0.0
2.083892 1.375931 0.002801 0.0
1.259256 0.042600 -0.007390 0.0
2.064448 0.737377 -0.003558 0.0
3.433716 0.095025 -0.002361 0.0
1.511724 1.384909 -0.002263 0.0
3.966361 1.522116 0.001952 0.0
4.213653 1.482092 -0.003074 0.0
0.945555 0.519551 0.000076 0.0
3.239185 0.495593 0.000838 0.0
4.633005 1.186192 0.002554 0.0
1.539629 2.065200 0.003428 0.0
2.370012 1.801739 0.003870 0.0
1.412454 1.371103 0.003135 0.0
1.014721 0.300361 0.001116 0.0
3.833101 1.490387 0.004199 0.0
0.604235 0.961665 -0.002397 0.0
3.646510 0.981942 -0.003385 0.0
2.729766 0.802127 -0.001530 0.0
1.561879 1.843907 0.003230 0.0
1.022140 1.251504 0.000743 0.0
0.222811 0.555080 0.002408 0.0
1.298519 1.904102 -0.007673 0.0
2.618006 0.559867 0.000849 0.0
2.533002 0.435927 0.001095 0.0
4.061683 0.266563 0.000545 0.0
0.404217 0.677675 -0.003196 0.0
0.557105 0.110139 0.001006 0.0
0.527805 0.573202 0.006096 0.0
2.786896 1.064068 0.002398 0.0
3.080346 2.122642 -0.003415 0.0
0.645855 1.117112 -0.000606 0.0
1.932188 0.507494 -0.000046 0.0
1.761660 0.479918 0.000559 0.0
1.679743 1.294042 0.005783 0.0
1.723129 1.612883 0.000516 0.0
0.992318 1.320126 -0.003205 0.0
4.663874 0.741573 -0.003890 0.0
2.334814 0.023311 -0.002005 0.0
0.715152 1.569265 0.000668 0.0
0.330748 0.420394 -0.001673 0.0
0.057399 2.108016 0.000586 0.0
0.439721 1.056886 0.004221 0.0
0.737117 1.009732 -0.003276 0.0
3.975995 0.950432 0.003396 0.0
0.524385 1.155078 0.003156 0.0
1.875650 0.396012 -0.005036 0.0
1.811187 0.724796 0.000253 0.0
0.593477 0.405937 -0.002284 0.0
3.444722 0.390040 -0.002897 0.0
2.673632 0.067766 0.001230 0.0
2.861433 0.385223 0.001759 0.0
3.281300 0.577744 -0.001250 0.0
0.372886 1.576976 0.003228 0.0
3.685246 0.519800 -0.003149 0.0
0.137750 0.412729 -0.003479 0.0
2.921709 0.195953 0.000599 0.0
1.022008 1.515469 -0.000482 0.0
1.065247 2.138354 -0.000065 0.0
4.115307 1.164699 0.002528 0.0
2.307193 0.840235 -0.002954 0.0
4.080277 1.803686 -0.000437 0.0
3.245306 0.108145 -0.000083 0.0
2.470979 0.033543 0.000500 0.0
0.125707 1.285513 0.002988 0.0
1.390506 0.193793 -0.000074 0.0
0.568961 1.360634 -0.000549 0.0
3.857511 0.973132 -0.000142 0.0
3.322690 1.939883 0.001154 0.0
2.999991 1.998158 -0.000466 0.0
4.566446 0.676912 0.001403 0.0
4.320889 1.395474 0.002552 0.0
0.440157 1.416980 -0.002012 0.0
1.303474 0.018598 -0.000548 0.0
1.604316 0.494522 0.000097 0.0
1.755081 1.711153 -0.000514 0.0
3.759365 0.113304 0.002416 0.0
0.596943 1.208262 0.001794 0.0
3.923912 0.978706 -0.001023 0.0
3.726162 0.265153 -0.000598 0.0
2.339814 0.750772 0.002186 0.0
3.341112 1.845777 0.000602 0.0
4.659559 0.750542 -0.000048 0.0
3.138962 1.570215 -0.003320 0.0
1.623901 1.073374 -0.003557 0.0
1.924427 0.216699 -0.002373 0.0
3.490513 1.639726 -0.001616 0.0
1.846546 0.420174 -0.000039 0.0
3.229347 0.167441 -0.007169 0.0
1.427383 0.882981 -0.001823 0.0
3.907983 0.606680 -0.000343 0.0
4.627540 0.453201 -0.003042 0.0
0.033820 1.207511 -0.002305 0.0
1.261465 1.549402 -0.001833 0.0
4.620884 1.151760 0.000438 0.0
2.076123 2.052029 -0.003015 0.0
0.417321 0.477236 -0.002864 0.0
0.792905 0.326940 0.000749 0.0
2.494188 0.746842 -0.001230 0.0
1.813649 0.142876 0.002671 0.0
2.203618 0.960122 0.002105 0.0
2.460398 2.023280 0.002105 0.0
3.750144 1.526268 -0.003805 0.0
0.720415 0.963202 0.001627 0.0
0.677115 0.222213 -0.001845 0.0
3.271460 0.373544 -0.000560 0.0
4.159960 1.372560 -0.001274 0.0
1.278480 2.025133 -0.001241 0.0
2.673618 1.069329 0.003364 0.0
0.100952 0.717840 0.001592 0.0
2.408397 0.516776 -0.001045 0.0
1.891480 0.375724 0.003845 0.0
2.141745 0.486175 0.000742 0.0
4.229927 0.780296 -0.002786 0.0
1.054586 0.081119 -0.000180 0.0
1.641182 1.117068 0.003156 0.0
4.328788 1.725685 0.002561 0.0
2.060666 0.077075 -0.000652 0.0
0.051761 0.724547 -0.003590 0.0
0.943989 0.467546 -0.004284 0.0
2.648565 1.776496 0.002088 0.0
4.160551 1.193984 -0.002807 0.0
2.871437 1.888068 -0.001121 0.0
2.426655 1.000046 -0.003480 0.0
4.663857 1.013886 0.001287 0.0
4.283889 1.654969 -0.001798 0.0
0.652640 0.646283 0.000670 0.0
3.680914 0.734066 0.003314 0.0
1.064806 1.876616 0.000910 0.0
0.831116 0.779096 -0.001194 0.0
0.828018 1.127345 0.003797 0.0
4.535332 0.647676 -0.000191 0.0
1.033115 1.474332 -0.001266 0.0
0.279849 1.399359 -0.008765 0.0
0.312084 0.934986 0.000391 0.0
0.048824 0.529468 0.006893 0.0
1.818542 1.577967 0.001240 0.0
2.515048 0.847018 0.001822 0.0
2.339902 1.660004 0.000570 0.0
0.623727 1.451183 -0.003013 0.0
1.013863 0.265120 0.002123 0.0
4.360979 1.671165 0.001080 0.0
2.011398 0.076232 0.001130 0.0
0.900305 1.064119 -0.000736 0.0
1.195234 0.961000 -0.003532 0.0
2.131491 2.052265 0.003438 0.0
3.664845 1.552050 0.001999 0.0
3.083908 0.030048 0.001057 0.0
4.101612 1.799306 -0.000292 0.0
1.443953 1.518010 0.001674 0.0
0.257381 1.869353 -0.002707 0.0
3.466090 1.052741 -0.001637 0.0
1.242181 0.137859 0.000024 0.0
1.226334 0.190720 -0.003331 0.0
2.789562 1.984686 -0.003973 0.0
1.058563 0.492845 0.006703 0.0
1.218771 2.054010 0.002246 0.0
0.243748 1.556313 0.000288 0.0
2.677903 1.764639 0.004024 0.0
4.343427 1.446310 0.001507 0.0
2.730385 1.262845 0.001528 0.0
1.254893 0.053321 0.000200 0.0
0.450626 0.357913 0.004257 0.0
2.757896 1.413899 -0.006115 0.0
0.532130 1.509644 0.000728 0.0
2.129759 1.910952 0.001947 0.0
3.975146 0.781804 -0.003291 0.0
2.088803 0.256956 -0.001879 0.0
1.738949 0.515311 -0.003555 0.0
3.889770 0.504991 -0.001990 0.0
0.109961 1.105591 -0.003829 0.0
4.208508 1.196150 0.005431 0.0
3.319525 1.456576 0.000541 0.0
3.801312 1.245448 -0.003521 0.0
2.238986 2.100002 -0.000639 0.0
4.604145 1.361162 -0.003905 0.0
2.139780 1.588706 0.001556 0.0
3.268377 0.920245 0.001126 0.0
4.220127 0.821570 -0.001889 0.0
1.752834 1.816998 0.001316 0.0
3.893440 1.807462 0.003637 0.0
4.114382 0.999150 -0.003115 0.0
3.362926 0.042270 0.001118 0.0
4.548393 2.022899 -0.006083 0.0
3.364861 1.858844 -0.000835 0.0
3.627233 1.714817 0.001579 0.0
3.701799 1.748321 -0.003334 0.0
0.058054 0.663263 0.001304 0.0
2.697429 1.155432 -0.002991 0.0
0.756445 0.109758 -0.004461 0.0
1.242900 0.694556 0.000703 0.0
4.401357 1.439253 0.002950 0.0
2.008989 1.807021 -0.004156 0.0
1.170817 1.368699 -0.000515 0.0
1.689280 1.235976 -0.000273 0.0
4.322288 1.251320 -0.000305 0.0
1.023917 1.014915 0.001178 0.0
4.269006 1.265420 0.001997 0.0
1.590699 1.690240 -0.004211 0.0
2.762737 0.436009 0.003366 0.0
1.879929 1.651722 0.002903 0.0
4.384012 1.813692 -0.000298 0.0
4.416804 0.521005 -0.002265 0.0
1.480007 1.975414 0.001741 0.0
4.145681 0.627922 -0.002358 0.0
1.833002 0.169823 -0.000914 0.0
2.995086 0.967130 0.001942 0.0
2.999622 0.503251 -0.002380 0.0
0.784264 0.894195 -0.000176 0.0
1.281071 1.750171 -0.002175 0.0
3.206027 0.432914 0.002647 0.0
3.437495 0.031509 0.000107 0.0
3.807544 1.336355 0.002375 0.0
3.281374 0.485095 -0.001959 0.0
3.448782 1.269676 -0.000962 0.0
4.582750 2.082939 -0.004002 0.0
0.861859 0.432995 -0.002761 0.0
2.422846 2.043084 0.000161 0.0
4.011633 0.874794 -0.002812 0.0
4.386447 1.537077 0.000459 0.0
0.513203 0.706754 0.002348 0.0
3.735538 0.545625 0.000761 0.0
3.665650 0.446507 -0.004519 0.0
0.293874 0.046149 0.001148 0.0
3.893697 0.423104 0.002746 0.0
1.663159 1.156449 -0.003154 0.0
0.645950 1.547063 0.000322 0.0
4.249593 2.108488 0.003248 0.0
3.239066 0.859555 -0.002513 0.0
2.178609 0.523161 -0.001626 0.0
2.161286 0.641879 0.002685 0.0
3.762481 1.179762 -0.005058 0.0
3.890397 1.749191 -0.000228 0.0
1.218078 1.842422 0.003634 0.0
0.086084 0.848242 -0.001554 0.0
3.299556 1.429813 0.002185 0.0
0.139156 1.193404 0.000609 0.0
2.613695 0.728880 0.000690 0.0
4.129915 1.201642 0.006736 0.0
3.592541 1.091510 -0.001307 0.0
3.170692 0.116718 0.000880 0.0
3.544180 2.041118 -0.000049 0.0
3.710866 1.473860 -0.000415 0.0
1.213841 0.917795 -0.000344 0.0
0.683509 1.901116 0.001728 0.0
3.915000 0.203294 -0.000580 0.0
4.316418 2.123853 0.000514 0.0
3.285645 0.105094 0.002557 0.0
2.036045 0.625823 -0.002826 0.0
4.065149 1.424473 0.003814 0.0
3.935300 1.893377 -0.000309 0.0
0.107675 1.557212 0.001357 0.0
2.110106 1.807422 0.002759 0.0
1.064343 0.633422 -0.001878 0.0
4.403062 2.119892 0.000303 0.0
1.608791 1.443756 0.001081 0.0
4.231303 1.138094 0.003365 0.0
0.064581 0.008374 0.002515 0.0
3.680246 1.856451 -0.000288 0.0
3.561468 1.438722 0.005012 0.0
1.068604 1.560334 -0.002444 0.0
3.924122 1.661527 0.003339 0.0
0.310066 1.222495 -0.000679 0.0
1.644540 1.463238 -0.002602 0.0
3.013838 1.668046 -0.002537 0.0
3.144239 0.153540 -0.000919 0.0
2.312103 0.160306 0.003765 0.0
4.150352 0.094532 -0.000492 0.0
1.289985 0.659125 -0.001347 0.0
1.570668 0.264244 0.000397 0.0
4.548899 1.476357 -0.002328 0.0
4.005699 0.527484 -0.000202 0.0
0.202405 0.128674 -0.004375 0.0
1.139311 0.852975 -0.000594 0.0
3.361296 0.400716 -0.005604 0.0
3.218300 0.730782 0.002950 0.0
4.171526 1.910252 0.000488 0.0
2.798003 0.747022 0.000966 0.0
2.039449 1.093303 0.001001 0.0
0.551738 1.606742 -0.003270 0.0
4.665045 2.072169 -0.000597 0.0
2.262223 1.055398 -0.000194 0.0
1.555049 1.533885 0.000740 0.0
0.780339 1.074576 -0.007551 0.0
4.012003 0.742171 -0.004570 0.0
3.507211 0.131476 0.000236 0.0
1.632215 1.962398 -0.003288 0.0
0.866756 0.941566 0.002432 0.0
4.157007 0.517581 0.001453 0.0
0.846316 0.074652 0.000238 0.0
0.821977 0.795073 -0.002689 0.0
1.210578 0.928338 0.001790 0.0
2.139839 2.006693 -0.002414 0.0
0.549461 0.260882 -0.004284 0.0
2.801600 0.401608 -0.002371 0.0
2.525698 1.903590 0.001250 0.0
4.062448 1.938102 -0.001858 0.0
2.801556 1.089986 -0.003562 0.0
1.781722 0.052405 -0.000337 0.0
0.307241 2.131113 -0.000717 0.0
1.453405 1.600759 0.001161 0.0
2.271703 0.225654 0.000730 0.0
0.365826 1.186460 -0.003170 0.0
4.121295 0.018655 -0.000998 0.0
1.230874 1.046509 -0.000337 0.0
2.488381 0.243517 0.006135 0.0
4.164854 1.208199 0.004550 0.0
0.200846 0.772617 0.000258 0.0
1.491467 0.440522 -0.000580 0.0
0.857623 0.163854 0.001451 0.0
0.352669 1.273169 0.000164 0.0
4.116838 1.537018 0.001921 0.0
0.552059 1.386627 -0.003218 0.0
1.772308 1.153416 -0.001940 0.0
1.976022 0.031661 -0.000654 0.0
0.270980 0.347443 0.000333 0.0
0.570084 1.516598 0.002434 0.0
1.960090 0.026089 0.001709 0.0
4.385084 1.793083 0.002550 0.0
4.424431 1.158011 0.001981 0.0
2.339293 1.982185 0.004148 0.0
0.986628 0.905257 -0.001284 0.0
1.633551 0.623050 0.004148 0.0
3.677407 0.900896 0.001303 0.0
0.682544 1.606830 0.002368 0.0
3.302128 1.224418 0.001449 0.0
1.451166 0.747830 0.003086 0.0
1.274889 1.134245 -0.003161 0.0
1.537378 1.289749 0.003620 0.0
3.229632 1.858595 -0.003221 0.0
3.701159 0.265972 -0.000410 0.0
0.866920 1.632582 0.003728 0.0
3.062778 0.357757 -0.002120 0.0
2.970271 1.971305 0.002081 0.0
2.852334 1.707961 0.002859 0.0
3.187540 0.193646 -0.004778 0.0
0.593246 1.296877 -0.002323 0.0
3.451395 2.025361 0.002706 0.0
3.705083 1.886003 0.002960 0.0
2.592209 0.206141 -0.000840 0.0
2.092249 1.519477 -0.004821 0.0
1.092173 0.933845 -0.001523 0.0
2.610345 0.592303 0.001918 0.0
0.732154 1.552612 -0.000897 0.0
1.240195 0.352336 0.004690 0.0
2.209660 1.577408 -0.002493 0.0
0.106610 1.001135 -0.002226 0.0
2.644874 1.304873 0.000314 0.0
0.611906 0.130127 0.001010 0.0
3.000395 0.367363 0.000316 0.0
2.808666 1.235522 0.000067 0.0
0.728272 0.367567 -0.001787 0.0
4.481444 0.524555 -0.003355 0.0
0.808859 2.022613 0.002047 0.0
3.283551 0.064300 0.003135 0.0
2.587614 0.100214 -0.002158 0.0
3.727115 1.134671 -0.000078 0.0
1.165339 1.037806 0.004297 0.0
4.318710 1.523526 -0.001158 0.0
1.089276 1.637842 -0.002659 0.0
4.220625 1.429663 0.000933 0.0
0.968997 0.975118 0.002554 0.0
1.420347 1.918078 0.001801 0.0
1.043056 0.728337 0.003633 0.0
2.014030 1.170618 -0.002459 0.0
2.197341 1.607922 0.006041 0.0
2.321145 0.120861 0.001417 0.0
0.257912 0.651511 -0.002838 0.0
1.115121 0.524926 0.001511 0.0
3.339670 0.344941 -0.002688 0.0
1.581796 0.498799 0.000981 0.0
3.662522 0.841282 0.001279 0.0
0.718113 1.656328 -0.002661 0.0
0.769730 0.675418 0.001615 0.0
0.450152 1.970856 -0.001031 0.0
4.401192 0.830539 0.002120 0.0
3.927822 0.890258 -0.003089 0.0
0.119260 1.536067 0.002200 0.0
3.021880 1.192190 -0.002001 0.0
2.044745 1.918419 0.003100 0.0
0.259959 0.107640 0.001936 0.0
4.338083 0.201598 -0.002601 0.0
1.020755 0.455688 -0.001938 0.0
4.442756 0.542132 0.001654 0.0
4.661331 0.586437 -0.000028 0.0
1.716103 0.745250 0.001768 0.0
2.977749 1.436105 -0.003954 0.0
4.485555 1.176690 0.003556 0.0
3.005912 2.119340 -0.004212 0.0
1.372533 1.131419 -0.002311 0.0
1.720608 1.656942 0.001960 0.0
0.286107 2.129126 0.001859 0.0
0.952759 1.661912 0.002792 0.0
0.808118 1.643134 0.002461 0.0
3.851546 0.297380 0.002249 0.0
1.751879 1.751866 -0.002847 0.0
1.410354 0.596872 -0.001914 0.0
2.080300 1.248182 0.000613 0.0
4.171039 0.152924 0.000674 0.0
3.883342 1.665175 0.000831 0.0
3.309528 0.142850 0.003064 0.0
0.268210 1.503374 -0.002309 0.0
2.874471 1.230957 -0.002090 0.0
1.855911 0.601932 0.003185 0.0
3.128774 0.369534 -0.000239 0.0
3.579289 0.401024 0.000310 0.0
3.135682 0.659561 0.004136 0.0
0.816627 1.616869 -0.001804 0.0
4.398363 0.939688 -0.001266 0.0
3.254430 0.853414 -0.000608 0.0
0.366663 0.010988 0.002331 0.0
2.666924 0.134620 0.001198 0.0
3.946842 0.745119 -0.005603 0.0
0.765993 1.778616 -0.002652 0.0
1.127619 1.032323 -0.001386 0.0
0.213982 1.354192 -0.001320 0.0
0.264852 2.103885 -0.000341 0.0
3.558322 0.366840 0.003127 0.0
1.240752 1.624085 -0.002260 0.0
3.994379 1.750555 -0.001421 0.0
1.187448 1.885871 0.000200 0.0
4.037647 1.041984 0.003687 0.0
1.113283 1.667663 -0.000289 0.0
4.057009 0.572809 -0.001751 0.0
0.213051 0.215182 0.006359 0.0
3.915524 1.314095 -0.003030 0.0
3.993723 1.158603 -0.001730 0.0
0.794196 0.277029 -0.000935 0.0
2.511823 1.675006 -0.001823 0.0
4.089019 1.942126 -0.000327 0.0
0.667353 1.376580 0.004752 0.0
0.206140 0.920812 0.001358 0.0
3.514606 0.989150 -0.000697 0.0
2.971773 1.105133 -0.002717 0.0
4.289787 0.770884 -0.000161 0.0
3.608320 1.491508 0.002102 0.0
4.215346 1.737312 -0.002198 0.0
4.535792 1.399845 0.000192 0.0
4.272876 0.461071 -0.002190 0.0
4.414032 1.343345 -0.000293 0.0
1.609187 0.015253 0.002803 0.0
4.052660 1.769310 -0.000812 0.0
2.677017 1.795804 -0.002978 0.0
2.133138 0.427990 0.000021 0.0
2.217686 0.867046 -0.003569 0.0
3.819208 1.981843 0.004145 0.0
3.039272 0.305447 0.000971 0.0
1.211934 1.585572 -0.000214 0.0
3.856642 1.243713 -0.003201 0.0
2.828588 0.209991 -0.002221 0.0
4.333872 1.802380 0.000287 0.0
4.167264 0.326392 -0.000702 0.0
1.679695 1.067951 0.003101 0.0
4.009789 0.234792 -0.004197 0.0
4.145459 0.249171 0.003787 0.0
0.938812 1.237288 -0.001733 0.0
2.578694 1.210448 -0.001139 0.0
4.455928 1.465773 0.002596 0.0
1.382063 0.752104 0.001887 0.0
1.590113 1.346718 -0.004299 0.0
0.590419 1.521771 -0.002770 0.0
4.359291 0.412037 -0.000698 0.0
3.936590 1.425747 -0.001384 0.0
0.291460 0.874486 0.000402 0.0
4.008828 0.308155 -0.000771 0.0
1.473037 1.971069 0.004134 0.0
1.964797 1.469037 -0.000298 0.0
4.663444 1.033396 0.003606 0.0
3.994121 0.007292 -0.001446 0.0
3.559764 1.992339 0.004951 0.0
1.956135 0.532259 0.000665 0.0
4.610273 0.320628 0.000129 0.0
3.309699 0.878930 -0.006194 0.0
3.359360 1.983536 0.000959 0.0
4.091492 0.550935 0.001379 0.0
3.882434 1.251075 0.002955 0.0
1.890370 2.062546 0.002677 0.0
3.752763 1.826633 -0.000086 0.0
3.646325 1.532483 0.000500 0.0
4.194038 2.102326 -0.001258 0.0
4.659703 2.122979 0.002233 0.0
0.910313 1.725172 -0.000233 0.0
0.980759 0.148214 0.005070 0.0
3.975614 0.439625 0.000739 0.0
2.681595 0.176479 -0.000410 0.0
4.203688 0.194086 -0.003545 0.0
0.714302 1.512386 0.003307 0.0
0.320943 1.043359 -0.002668 0.0
3.517826 0.829872 -0.000096 0.0
1.855923 0.282584 -0.000210 0.0
2.265103 0.768069 0.001543 0.0
0.456145 0.852996 0.000376 0.0
0.412473 1.175782 0.001351 0.0
0.957344 2.107159 -0.001531 0.0
4.480673 1.168681 0.002433 0.0
3.027670 1.396513 0.002525 0.0
3.260602 1.183901 -0.003241 0.0
3.130487 1.179935 -0.001001 0.0
3.057147 0.903690 -0.000246 0.0
2.654047 0.659344 0.003130 0.0
4.158182 0.393941 -0.000883 0.0
2.584876 1.775346 -0.000263 0.0
2.130539 0.460285 0.001592 0.0
2.457145 1.127428 -0.000387 0.0
0.442893 1.418250 -0.000388 0.0
3.615170 1.572159 0.005075 0.0
2.576258 0.547465 -0.002122 0.0
3.469368 1.934804 0.001570 0.0
0.655058 1.314335 0.001104 0.0
0.158071 2.035792 0.001289 0.0
0.315764 0.184226 0.001707 0.0
2.654330 1.114861 -0.001635 0.0
4.292259 0.960887 0.001322 0.0
1.741008 0.972954 -0.001240 0.0
0.418075 0.575182 0.002179 0.0
4.216809 0.271773 0.002121 0.0
2.699728 1.268387 0.000303 0.0
3.162162 0.129606 -0.001109 0.0
1.713625 1.198083 0.001707 0.0
0.278391 1.092882 -0.004910 0.0
4.304874 0.968353 -0.003101 0.0
1.996732 0.923684 0.000580 0.0
0.569222 2.053700 -0.003863 0.0
3.890977 1.602637 0.001916 0.0
2.305712 1.222653 0.002354 0.0
3.928020 1.070041 0.005563 0.0
1.052295 0.458679 -0.001058 0.0
1.720615 1.692800 -0.003490 0.0
1.183036 1.451039 0.002238 0.0
3.894391 2.053047 -0.000324 0.0
3.485308 0.106929 0.001265 0.0
1.738625 0.329611 0.001515 0.0
1.705410 1.142224 0.004677 0.0
1.112624 0.417867 -0.001321 0.0
2.123660 1.402557 -0.003259 0.0
3.769599 1.373245 -0.001787 0.0
1.959789 1.215269 0.001255 0.0
0.812445 0.159394 0.000330 0.0
3.933156 0.622758 -0.000575 0.0
1.932049 1.876787 0.002015 0.0
1.173004 1.765345 0.003144 0.0
0.509800 0.348917 0.000925 0.0
1.429110 0.543855 -0.002992 0.0
2.449051 0.068470 -0.002848 0.0
3.378735 0.904444 -0.000714 0.0
3.650306 0.025019 0.003299 0.0
3.234663 0.625325 -0.001146 0.0
0.412343 1.188834 0.003294 0.0
1.920805 1.631347 0.002900 0.0
0.458034 0.758529 -0.001625 0.0
4.490087 0.508693 -0.000523 0.0
0.577367 1.090421 0.000111 0.0
3.193509 0.663902 0.000964 0.0
1.281901 1.974396 0.001436 0.0
3.336006 0.263532 -0.000004 0.0
3.395073 2.088030 -0.003589 0.0
0.722771 0.178136 -0.000744 0.0
1.293652 1.412925 -0.000421 0.0
3.771307 0.595690 0.002778 0.0
2.042674 0.615024 0.003276 0.0
3.002191 0.276041 0.004386 0.0
3.251764 0.491939 -0.005786 0.0
2.506335 0.264508 -0.001037 0.0
1.999615 1.093184 0.002130 0.0
2.828426 1.084768 -0.001004 0.0
1.613597 1.040157 -0.002463 0.0
4.250559 0.608237 -0.000332 0.0
2.091661 1.881355 -0.005731 0.0
3.695104 1.711393 -0.001046 0.0
2.843397 1.252354 -0.002002 0.0
4.021717 1.658417 0.001068 0.0
1.821088 1.680928 0.003843 0.0
1.960849 0.013154 -0.002437 0.0
3.256605 1.488991 0.001830 0.0
1.911366 0.245326 -0.001582 0.0
3.037699 0.811948 -0.000508 0.0
0.976753 1.246869 -0.003668 0.0
0.027214 1.118634 0.000499 0.0
1.434611 0.042408 -0.003122 0.0
3.765238 0.838842 -0.003527 0.0
1.887114 2.127200 0.003888 0.0
3.655744 1.861605 0.003828 0.0
2.468638 0.982182 -0.004276 0.0
0.581335 0.577720 -0.000849 0.0
4.287210 1.232664 0.000651 0.0
0.558715 0.797289 -0.000077 0.0
0.684556 1.269721 0.001204 0.0
3.666979 0.276232 -0.003498 0.0
1.473693 2.001747 0.002119 0.0
2.785897 1.103204 0.001582 0.0
