0.425012 1.846569 0.002719 0.0
3.591089 1.401005 -0.000426 0.0
4.146904 1.316519 -0.006911 0.0
1.384567 1.289288 0.000826 0.0
4.068499 1.667883 0.000019 0.0
1.971724 0.053327 0.002789 0.0
3.759115 1.620257 0.003055 0.0
2.948760 0.852629 0.002166 0.0
0.338789 1.327604 0.000793 0.0
1.602511 0.585634 0.001362 0.0
2.046360 1.717981 0.003638 0.0
4.044242 1.407784 -0.005042 0.0
0.167655 1.488812 -0.004503 0.0
4.217366 1.395409 -0.004239 0.0
4.113557 0.356498 -0.002005 0.0
0.705878 1.084515 0.000639 0.0
4.612554 1.176794 -0.003569 0.0
2.484280 1.125790 0.001209 0.0
1.074141 1.507766 0.001525 0.0
0.308534 0.946342 -0.001194 0.0
2.051216 1.099032 0.004414 0.0
0.706378 0.221070 0.000388 0.0
0.529571 1.783776 -0.000219 0.0
3.459190 1.736353 0.001916 0.0
3.283048 1.633306 0.000557 0.0
3.906344 0.907231 0.001945 0.0
3.529419 1.809071 -0.000014 0.0
0.641920 0.442132 -0.002753 0.0
0.336340 1.918176 0.002742 0.0
3.350496 0.349032 0.000469 0.0
1.844220 1.170516 -0.003584 0.0
1.493884 0.756546 -0.001154 0.0
4.075135 1.666212 0.002914 0.0
0.806172 0.199284 0.001095 0.0
2.302319 1.386440 0.005432 0.0
2.181485 0.875122 0.000421 0.0
2.355075 1.099671 -0.002073 0.0
3.420974 0.779524 0.000485 0.0
1.741850 0.172976 -0.000597 0.0
3.863490 0.045356 -0.002758 0.0
3.954193 0.431068 -0.000506 0.0
0.405785 1.919142 0.001448 0.0
0.457928 0.251567 -0.001644 0.0
0.097414 1.428500 -0.003622 0.0
2.066480 1.027096 -0.001476 0.0
3.098618 1.312286 -0.001690 0.0
3.448095 1.875308 0.001013 0.0
0.177379 1.047469 -0.000038 0.0
0.631998 0.832168 -0.004877 0.0
3.270961 1.436789 0.000784 0.0
0.080214 0.969301 0.000615 0.0
0.067784 0.008475 -0.000054 0.0
3.216445 0.672580 -0.001171 0.0
3.967692 1.029070 -0.002804 0.0
2.518030 0.809805 0.004469 0.0
2.317138 0.472218 0.005582 0.0
1.593551 0.883222 -0.001134 0.0
0.647520 0.406568 0.000088 0.0
2.427552 0.758825 -0.001891 0.0
0.407275 0.983318 -0.001298 0.0
3.777162 0.915480 0.000749 0.0
0.308982 0.657821 0.000980 0.0
3.170869 1.633514 -0.000567 0.0
3.177207 0.985663 -0.001048 0.0
3.481296 0.702452 0.004714 0.0
1.377753 1.753441 -0.004243 0.0
0.387737 0.568038 -0.000681 0.0
2.852549 1.302442 -0.004505 0.0
0.155059 0.618435 0.006629 0.0
0.334296 0.549409 0.000221 0.0
4.338663 0.225771 -0.002954 0.0
3.511728 1.463633 -0.002381 0.0
0.732452 1.839989 -0.002843 0.0
3.973931 0.487967 0.000672 0.0
4.435114 1.285682 0.004927 0.0
1.860240 1.726197 -0.002637 0.0
1.551417 0.072048 0.000387 0.0
0.659066 0.259527 -0.000144 0.0
3.328833 1.297611 0.004582 0.0
2.389105 0.305899 0.002791 0.0
0.331215 0.760060 0.002652 0.0
2.562940 0.920824 -0.000612 0.0
3.336889 0.752889 0.003105 0.0
0.294968 0.933295 0.001998 0.0
3.360698 1.189741 0.001586 0.0
4.352574 0.305552 0.003392 0.0
2.538114 1.471950 -0.000246 0.0
3.372855 0.171928 0.001682 0.0
1.343622 1.305506 0.002225 0.0
3.587352 0.336428 -0.003944 0.0
0.025074 1.616158 -0.002172 0.0
4.544850 0.455564 0.002132 0.0
1.114568 1.295939 0.002691 0.0
1.627905 1.808971 0.001203 0.0
0.420617 0.839993 0.002565 0.0
1.745354 1.007528 0.002074 0.0
2.284660 0.180483 -0.002707 0.0
1.874207 0.661641 -0.001932 0.0
0.202890 1.628110 0.004143 0.0
3.288811 1.334415 0.000788 0.0
3.878795 0.856689 -0.000203 0.0
3.850188 0.429744 -0.004301 0.0
1.105453 1.237474 -0.000403 0.0
3.048198 0.908975 -0.000339 0.0
1.891727 1.674915 0.002417 0.0
4.428568 1.053430 0.003803 0.0
2.945816 0.359652 0.002981 0.0
3.699310 0.800194 0.004912 0.0
3.912435 1.142221 0.002402 0.0
1.284482 1.049402 -0.000507 0.0
2.287968 1.721765 -0.000172 0.0
0.183871 0.041449 -0.001734 0.0
2.046405 1.044590 0.000408 0.0
1.954373 1.943251 0.004013 0.0
4.295302 1.274857 -0.002225 0.0
4.164213 1.693545 0.001808 0.0
2.997131 0.419907 0.002097 0.0
1.096797 0.178096 -0.002891 0.0
0.205543 0.183240 0.000642 0.0
1.338894 1.008830 -0.000475 0.0
3.123710 1.868501 -0.003648 0.0
1.900526 1.211690 0.001676 0.0
4.002427 1.288888 0.002108 0.0
2.203787 0.678606 0.002220 0.0
1.631990 0.422291 -0.000075 0.0
2.680482 0.438963 0.001295 0.0
0.989006 0.737548 -0.001373 0.0
4.239367 1.359805 -0.002905 0.0
2.388657 1.294233 0.000540 0.0
3.099691 0.587803 0.001184 0.0
1.818945 1.275142 0.003769 0.0
3.564762 1.529958 -0.004648 0.0
0.781598 0.511211 0.004811 0.0
2.661703 0.175207 -0.001620 0.0
4.311652 0.394884 0.000991 0.0
3.294824 1.402231 -0.003598 0.0
1.424098 1.140393 -0.000052 0.0
4.376442 1.639040 0.002574 0.0
0.751502 1.111808 -0.002487 0.0
4.568795 0.533758 0.004178 0.0
1.294275 1.570689 0.001018 0.0
3.026685 0.184534 -0.001235 0.0
0.292356 0.399422 -0.000287 0.0
3.656513 1.559425 -0.001143 0.0
2.475277 0.808729 -0.001784 0.0
2.687029 0.825138 -0.001024 0.0
2.197693 1.511614 -0.000004 0.0
1.187926 0.988297 0.000901 0.0
4.356364 1.326990 -0.000847 0.0
2.647443 1.653738 0.003564 0.0
1.340176 0.888617 0.004848 0.0
0.099076 0.366295 0.001267 0.0
3.916312 0.969870 0.002727 0.0
1.085346 1.339387 0.001718 0.0
1.896085 1.556113 -0.002291 0.0
3.827380 0.917248 0.000094 0.0
0.898162 1.166608 -0.000219 0.0
0.031904 0.048825 0.002284 0.0
3.165661 1.581714 0.000510 0.0
1.761615 0.952832 0.002380 0.0
3.706926 1.036824 0.002306 0.0
1.894942 0.876483 -0.001590 0.0
4.113229 0.176730 0.002393 0.0
0.917813 1.386640 0.001826 0.0
3.569925 0.156868 0.003543 0.0
1.135672 0.329638 -0.000087 0.0
4.003636 0.853464 0.003150 0.0
4.202590 0.845113 0.000668 0.0
0.038157 0.441337 -0.002520 0.0
2.593647 0.047854 -0.000417 0.0
4.010818 0.371947 0.003017 0.0
2.836981 0.698488 -0.000104 0.0
2.900451 1.250854 -0.000294 0.0
2.204084 1.289760 -0.002029 0.0
1.721070 1.478805 0.002906 0.0
1.785051 0.897449 -0.000183 0.0
3.878385 1.730679 -0.000281 0.0
0.466340 1.294805 -0.000074 0.0
0.077474 1.913552 -0.005155 0.0
1.940156 1.386081 0.002195 0.0
1.913036 1.815706 0.005657 0.0
4.364591 1.945556 -0.007838 0.0
1.851137 1.143421 0.002522 0.0
4.206010 1.226836 -0.000614 0.0
2.885743 0.280111 0.002536 0.0
3.738509 0.135816 0.002164 0.0
3.285362 0.828015 0.000624 0.0
3.104557 0.342546 0.000154 0.0
0.213694 0.796431 -0.002446 0.0
3.309041 1.740535 0.002704 0.0
2.437857 1.297479 0.002794 0.0
4.311010 0.806089 0.001212 0.0
3.737412 1.207404 -0.000532 0.0
3.879464 1.578880 -0.001499 0.0
0.005980 0.907731 0.000742 0.0
3.784001 1.656134 -0.001937 0.0
3.514538 1.334110 -0.004452 0.0
1.426264 0.727282 -0.001171 0.0
0.670113 0.989328 0.000906 0.0
0.744288 0.066184 -0.001473 0.0
2.737484 0.245190 -0.002285 0.0
4.314158 1.287972 -0.000976 0.0
2.212182 0.075126 -0.003059 0.0
4.084076 1.171098 0.004772 0.0
1.111099 0.920508 0.002426 0.0
1.495361 1.783943 0.003225 0.0
1.558506 1.003434 0.000781 0.0
3.610938 1.809452 0.004812 0.0
3.858556 1.660742 0.001374 0.0
3.671608 0.072941 0.002322 0.0
0.959821 0.464936 -0.002373 0.0
0.609696 0.038265 -0.005509 0.0
0.715385 0.482690 0.000444 0.0
0.002963 0.870831 -0.002313 0.0
3.408050 0.362971 -0.000745 0.0
0.723877 1.939812 -0.001003 0.0
0.651262 0.245268 -0.001785 0.0
1.317169 1.382798 -0.001611 0.0
0.634864 1.366507 -0.001222 0.0
2.655593 0.369986 -0.000538 0.0
1.088497 1.580839 -0.001036 0.0
2.987808 1.074563 -0.003015 0.0
0.837523 0.458616 0.003519 0.0
2.699522 0.722414 -0.000613 0.0
1.234285 1.583465 -0.002597 0.0
1.230042 1.581273 0.002682 0.0
0.574841 1.790622 0.000000 0.0
0.339445 1.190830 0.001182 0.0
1.756853 1.249383 -0.000120 0.0
0.063246 0.092917 0.002311 0.0
3.258476 1.589624 0.003215 0.0
0.081098 0.095247 -0.000759 0.0
2.288213 1.366934 -0.004073 0.0
3.068885 1.429173 0.001221 0.0
2.421016 0.543308 -0.003269 0.0
0.571484 1.106105 -0.002942 0.0
3.048461 1.623342 0.000096 0.0
1.836879 0.365519 0.005206 0.0
0.622643 0.904905 0.001107 0.0
0.266196 1.749184 0.003001 0.0
3.041684 0.722211 0.000779 0.0
0.377761 0.058231 0.000419 0.0
2.895879 0.617177 0.002113 0.0
2.611700 1.196597 -0.000466 0.0
3.778145 1.668035 0.000882 0.0
4.222889 1.486306 0.002295 0.0
0.115101 0.777130 0.001032 0.0
3.268019 1.460110 0.001986 0.0
1.120889 0.650072 -0.000509 0.0
0.427144 0.700427 0.004294 0.0
4.277113 0.224614 0.001175 0.0
1.792392 1.545754 0.003140 0.0
0.402684 1.798544 0.000354 0.0
2.421719 0.741364 -0.001361 0.0
1.272421 0.896027 0.002350 0.0
1.637722 1.176876 0.001037 0.0
2.622714 1.941058 0.000840 0.0
1.434586 0.833942 -0.003415 0.0
3.426166 0.301406 -0.002881 0.0
0.238831 0.743019 -0.002047 0.0
0.202359 1.696107 0.003680 0.0
0.430082 1.845905 -0.000252 0.0
1.405772 1.871462 -0.002782 0.0
1.877806 1.024781 -0.003538 0.0
2.070369 1.394786 0.000635 0.0
0.338651 1.946329 0.003438 0.0
1.712610 1.782879 0.000111 0.0
4.532729 0.311386 -0.000348 0.0
1.433718 1.512067 0.000219 0.0
1.536785 1.374510 0.000929 0.0
4.433566 1.170347 0.002149 0.0
0.783534 0.502732 -0.001122 0.0
0.274185 1.571875 -0.001745 0.0
0.398933 0.522660 0.000913 0.0
0.111592 1.437563 0.000286 0.0
1.132053 1.872193 0.002333 0.0
3.084112 0.049014 0.003250 0.0
0.411231 1.891661 -0.000022 0.0
2.226093 0.466700 -0.001907 0.0
2.946477 1.374325 -0.002514 0.0
0.332891 1.158500 -0.002188 0.0
1.187198 0.789995 0.001782 0.0
3.870533 0.084591 -0.001603 0.0
4.255386 1.345826 0.000091 0.0
2.693226 0.247885 -0.000190 0.0
4.124949 1.297609 -0.002052 0.0
2.101460 1.797256 -0.002839 0.0
0.339903 0.535173 -0.001508 0.0
0.002425 0.314559 -0.000611 0.0
3.736436 1.209821 0.004550 0.0
3.123512 0.342521 -0.002571 0.0
4.584959 1.658069 0.005172 0.0
0.476757 1.307978 0.002416 0.0
2.868144 1.690502 0.001310 0.0
2.236874 1.601842 0.002096 0.0
1.701798 1.064894 0.002569 0.0
4.458303 0.302737 0.001180 0.0
3.866666 0.952977 -0.001909 0.0
3.356324 0.762816 -0.000925 0.0
0.874889 0.376539 0.001744 0.0
3.017985 1.023618 -0.003436 0.0
2.821558 0.548661 -0.003380 0.0
0.065981 1.398034 0.001479 0.0
3.617237 0.871209 0.004553 0.0
1.724169 1.904628 0.001163 0.0
4.572524 0.668076 -0.001867 0.0
0.811657 1.071091 0.000215 0.0
3.565034 0.451102 -0.000042 0.0
1.173814 0.112573 -0.005648 0.0
2.264784 1.024975 0.001800 0.0
3.725931 0.826763 0.001889 0.0
3.978206 0.477533 0.003202 0.0
4.244886 0.432723 0.002966 0.0
1.737417 1.522308 -0.002825 0.0
4.489276 1.681826 -0.003905 0.0
2.348733 1.257069 -0.002571 0.0
1.098127 0.210021 -0.002689 0.0
2.955799 1.819065 -0.001269 0.0
2.666694 1.939402 0.000769 0.0
0.145337 1.419722 -0.000787 0.0
0.093475 1.743409 0.000042 0.0
3.026711 1.087552 -0.002250 0.0
1.123788 0.724077 -0.003695 0.0
1.999638 0.925361 -0.001499 0.0
3.058239 1.454717 -0.001103 0.0
0.682664 0.206358 -0.002003 0.0
2.514339 0.928906 0.003334 0.0
1.087213 1.705785 0.001505 0.0
0.082195 0.751918 -0.003466 0.0
1.889895 0.401586 -0.001974 0.0
4.454563 1.215976 0.000532 0.0
2.790727 1.659248 -0.000614 0.0
4.008280 1.105779 -0.000674 0.0
2.367648 1.029295 0.005711 0.0
2.885613 0.583226 0.001121 0.0
3.398636 0.516651 -0.001974 0.0
4.405667 0.429891 -0.001250 0.0
0.513733 1.160529 -0.004876 0.0
0.499372 0.469200 0.002981 0.0
3.116760 1.001555 -0.000147 0.0
4.403205 0.846395 -0.003227 0.0
2.166946 1.101344 0.004512 0.0
2.428859 0.618856 -0.003399 0.0
2.877356 0.750745 -0.000308 0.0
0.002213 0.467471 0.001743 0.0
1.369171 1.209571 -0.003477 0.0
0.372394 1.325362 0.002317 0.0
2.136326 0.374388 0.003560 0.0
0.821887 1.563067 -0.000369 0.0
4.021257 1.036829 -0.006113 0.0
4.025296 0.918947 0.001930 0.0
1.284005 0.850185 0.003766 0.0
0.844795 1.176306 -0.003384 0.0
1.619995 1.829472 -0.003106 0.0
2.716303 0.699991 -0.000612 0.0
3.722646 0.939044 -0.001721 0.0
3.312388 1.908930 0.000200 0.0
1.405041 0.896992 0.002338 0.0
0.879599 1.404636 -0.000829 0.0
2.582079 0.382646 0.000966 0.0
3.765115 0.630397 -0.001941 0.0
2.710681 1.617876 -0.003950 0.0
1.601256 1.580291 0.001650 0.0
2.177300 1.238717 -0.001036 0.0
0.208935 1.749509 0.001270 0.0
0.943387 0.566232 0.002268 0.0
2.292058 1.387779 -0.000309 0.0
3.945382 0.242062 -0.001190 0.0
4.279570 0.239356 0.009282 0.0
2.828597 1.403995 0.003055 0.0
2.375702 1.770759 0.000174 0.0
0.467232 1.172061 0.000110 0.0
3.259450 0.718638 0.002945 0.0
0.831170 0.754576 0.002570 0.0
4.398054 0.852026 -0.000971 0.0
3.492181 1.566174 0.003141 0.0
3.013805 1.377224 -0.006711 0.0
1.529786 0.456691 -0.000726 0.0
0.081371 1.746057 -0.004347 0.0
3.370166 1.246330 -0.003877 0.0
4.508596 1.531389 -0.000604 0.0
4.128256 1.487992 -0.001525 0.0
2.142135 1.073395 0.000151 0.0
3.467908 0.403022 0.001080 0.0
2.537624 0.263605 -0.001430 0.0
3.044796 1.286819 -0.000433 0.0
2.125092 1.213421 -0.001393 0.0
0.584980 0.198278 -0.002685 0.0
3.300455 0.847510 0.003368 0.0
2.285905 1.328135 0.002029 0.0
2.420702 1.303176 0.001251 0.0
0.254089 1.948114 -0.000363 0.0
3.050877 1.880360 -0.002328 0.0
1.042963 1.701505 0.000702 0.0
1.447814 0.111999 0.001750 0.0
2.819613 1.637204 -0.000613 0.0
4.537981 0.123173 0.004408 0.0
0.738307 0.285634 -0.001480 0.0
4.276985 1.122382 0.003108 0.0
2.768647 0.867893 -0.002710 0.0
0.996971 0.320563 0.001571 0.0
3.213212 1.696137 0.001502 0.0
1.332898 0.930985 0.000223 0.0
4.180611 0.156178 -0.001318 0.0
4.194926 1.864580 -0.000043 0.0
0.522694 1.201835 -0.005155 0.0
1.969517 1.117844 0.000645 0.0
2.882098 0.527160 -0.001810 0.0
1.479753 1.830995 0.000100 0.0
0.700781 1.752750 0.000474 0.0
0.990772 0.420862 -0.000069 0.0
1.634695 1.491210 -0.002405 0.0
2.840243 1.038856 -0.002545 0.0
3.739594 1.211276 -0.000832 0.0
1.823919 0.458167 0.000538 0.0
3.492475 0.427021 0.003065 0.0
2.542689 0.616388 0.002641 0.0
2.287986 0.624802 -0.003035 0.0
1.912548 1.530785 -0.003841 0.0
0.977576 0.195081 0.000952 0.0
2.463970 0.854764 -0.000878 0.0
4.072451 0.179905 -0.002863 0.0
4.261254 1.052675 -0.002465 0.0
4.527363 0.906894 0.001308 0.0
2.802984 1.546300 -0.002705 0.0
3.853698 0.796394 -0.002635 0.0
1.649653 1.405268 -0.000357 0.0
3.605539 1.063074 0.005041 0.0
1.677834 1.724737 -0.003883 0.0
1.544530 0.748988 0.000908 0.0
1.973689 1.885353 0.001274 0.0
0.613665 0.041408 0.001595 0.0
1.925036 0.982986 0.000167 0.0
3.841449 0.159777 0.004123 0.0
3.264247 0.815667 -0.003633 0.0
3.663176 0.662103 -0.000177 0.0
2.436560 1.340700 -0.003737 0.0
2.005903 0.065164 0.002646 0.0
2.714385 1.479475 -0.002491 0.0
4.596120 1.593899 -0.000086 0.0
4.042273 1.404556 -0.001170 0.0
1.978114 0.394776 0.000089 0.0
3.811070 1.795781 0.000783 0.0
4.434817 0.829017 -0.003293 0.0
2.238973 0.087587 0.000069 0.0
2.608401 1.009095 0.003650 0.0
0.334202 1.777309 -0.002536 0.0
0.667973 0.938231 0.001869 0.0
4.012841 0.372267 -0.001780 0.0
0.483256 0.277140 -0.000816 0.0
2.429522 1.275895 -0.003158 0.0
4.615035 1.091890 -0.003182 0.0
2.854812 1.287852 0.003808 0.0
3.713771 0.318197 0.001295 0.0
1.850272 0.157737 -0.001193 0.0
4.561797 0.566147 -0.004038 0.0
3.735864 1.424962 -0.003241 0.0
1.137335 0.431126 -0.004995 0.0
0.332263 1.194863 0.001462 0.0
1.993405 1.881735 -0.001588 0.0
1.426728 1.571514 0.000217 0.0
3.650035 0.469578 -0.000715 0.0
1.410692 1.909914 -0.007684 0.0
1.412708 0.553725 -0.000158 0.0
2.599753 1.697544 0.005678 0.0
3.848447 0.435322 -0.003996 0.0
2.664903 0.671804 0.000080 0.0
1.984886 0.417966 -0.003186 0.0
1.805088 0.994112 0.000414 0.0
0.223504 0.668879 -0.002992 0.0
4.473106 0.786683 -0.001281 0.0
3.568783 1.666239 -0.000843 0.0
1.620205 0.156004 0.003458 0.0
1.586269 0.450033 0.001350 0.0
1.005435 0.580772 0.000196 0.0
0.636606 1.912950 0.004976 0.0
0.920392 0.383630 0.003742 0.0
2.658539 0.915989 -0.005374 0.0
4.252000 0.355138 -0.001587 0.0
0.591585 0.669583 0.003059 0.0
3.901846 0.559789 -0.003845 0.0
2.657383 0.097245 -0.002018 0.0
2.180884 1.641015 -0.000513 0.0
4.395986 0.923318 -0.003593 0.0
2.538637 0.954368 -0.003895 0.0
1.989327 0.052654 0.001570 0.0
4.086897 0.523744 -0.000850 0.0
1.596863 1.916566 0.001171 0.0
4.436603 0.565405 -0.001724 0.0
1.240003 1.928167 0.002038 0.0
2.571237 0.783666 -0.001765 0.0
1.795681 1.116465 -0.001455 0.0
0.214661 0.707750 -0.000336 0.0
3.416333 1.100896 -0.001478 0.0
4.516519 1.778274 0.003385 0.0
0.102736 1.019486 0.006315 0.0
4.604956 0.981281 0.003122 0.0
3.776583 0.798808 -0.005110 0.0
0.513882 0.600811 -0.001119 0.0
1.828831 1.677492 -0.000497 0.0
3.438391 1.666741 0.001847 0.0
2.149582 0.732739 -0.000066 0.0
2.339474 0.333550 0.002160 0.0
3.186582 1.000635 0.000174 0.0
3.390603 0.409775 0.002496 0.0
2.985912 0.603748 0.002936 0.0
0.668850 0.984375 0.000677 0.0
3.192733 0.596057 -0.003599 0.0
0.700346 1.243281 0.002402 0.0
4.238867 1.280791 0.002057 0.0
1.352859 0.536768 -0.000927 0.0
2.184768 1.444053 -0.000932 0.0
1.800164 1.488400 0.000738 0.0
2.843899 1.180233 0.000385 0.0
0.696205 1.435395 -0.001240 0.0
2.062630 1.842894 0.002435 0.0
3.617387 0.977030 0.000090 0.0
2.910968 0.318365 0.007334 0.0
4.124991 1.409625 -0.000267 0.0
3.230076 1.156456 0.004769 0.0
1.585375 1.877886 0.003866 0.0
0.037634 1.127562 -0.000746 0.0
2.015472 1.532426 -0.000481 0.0
3.397708 0.384712 0.000624 0.0
1.767040 0.373913 0.000694 0.0
1.028558 1.761982 -0.000449 0.0
2.979836 0.149496 -0.000821 0.0
2.781431 0.758495 0.003239 0.0
3.751291 0.709361 -0.001546 0.0
3.443325 1.768257 0.002123 0.0
4.544337 0.518799 0.002067 0.0
1.476982 0.423955 -0.005577 0.0
0.830717 0.937934 -0.001200 0.0
3.154057 1.001593 0.002130 0.0
1.033801 1.560107 0.000540 0.0
1.788131 0.461078 0.000216 0.0
2.252669 0.145970 -0.001922 0.0
3.397916 0.285869 0.001955 0.0
3.288172 0.699445 -0.003455 0.0
2.173794 1.747951 -0.000470 0.0
0.025977 0.892612 -0.000654 0.0
2.808903 1.404699 0.000872 0.0
3.229681 0.738104 -0.003959 0.0
4.153771 1.417133 -0.000843 0.0
1.200708 0.976218 0.002462 0.0
2.312522 1.052211 0.000386 0.0
0.454607 1.370866 -0.004142 0.0
3.009345 1.711299 0.000608 0.0
4.285353 1.506088 -0.002662 0.0
3.491460 0.091705 -0.000495 0.0
1.697158 0.453382 0.002100 0.0
1.782301 1.448577 0.003255 0.0
3.530946 0.262733 0.004824 0.0
1.588104 0.251889 0.003134 0.0
1.080204 0.957674 0.000834 0.0
1.205973 0.506337 0.003299 0.0
-0.000539 0.501230 0.002397 0.0
4.506075 1.093165 0.000028 0.0
2.970597 1.796871 -0.002525 0.0
0.727950 0.980321 -0.005198 0.0
4.551657 1.937400 -0.003318 0.0
3.022917 0.523171 -0.000711 0.0
3.781193 0.971937 0.003674 0.0
3.133038 1.328036 -0.002270 0.0
0.496280 1.893429 -0.000076 0.0
3.598017 1.567645 -0.001412 0.0
4.319332 0.167632 0.001700 0.0
1.169503 0.987317 0.001239 0.0
3.900571 1.217982 0.002209 0.0
1.813060 0.844267 -0.002296 0.0
2.506081 1.819121 -0.003966 0.0
0.800637 0.620464 -0.004921 0.0
2.390916 0.587797 0.001627 0.0
1.983505 1.175712 0.002094 0.0
3.026479 1.892122 -0.000693 0.0
2.600317 1.219108 -0.000115 0.0
1.454709 0.230375 -0.002376 0.0
4.463565 1.078982 0.004348 0.0
1.547873 0.972517 -0.001536 0.0
1.853130 0.407677 0.003383 0.0
2.042515 1.519830 -0.002049 0.0
1.362851 0.447659 0.005959 0.0
3.619054 1.838045 -0.000694 0.0
4.465561 0.125322 0.001326 0.0
3.395836 1.426253 0.000538 0.0
1.696694 0.077850 0.004105 0.0
2.344666 0.060276 -0.000410 0.0
0.667529 1.316154 -0.002841 0.0
2.631619 0.439863 0.000664 0.0
3.292577 1.513071 -0.000495 0.0
2.112447 0.831114 0.000672 0.0
4.170656 0.692131 -0.002092 0.0
1.357145 0.652344 -0.002409 0.0
1.172394 1.225700 -0.002375 0.0
2.204057 1.269984 0.000633 0.0
2.271566 1.471634 -0.000847 0.0
1.837011 0.411994 -0.001322 0.0
0.692987 1.134026 -0.000244 0.0
4.277726 1.083812 -0.002658 0.0
2.405517 1.624820 0.001625 0.0
0.600564 1.363309 -0.000578 0.0
1.849065 0.139906 0.004630 0.0
1.626290 0.599530 -0.003120 0.0
1.814492 1.588940 -0.000263 0.0
4.280117 1.213509 0.000413 0.0
3.469060 0.132389 0.001648 0.0
0.346274 0.048974 0.001651 0.0
4.227684 0.601267 0.004021 0.0
3.196412 0.209840 0.005006 0.0
3.725216 0.372688 -0.000106 0.0
2.274312 0.982057 0.000924 0.0
3.232850 1.951148 -0.001958 0.0
1.874390 1.641940 0.000821 0.0
0.822273 1.097222 0.002362 0.0
0.153446 1.693997 0.000988 0.0
3.235822 0.983806 0.002816 0.0
0.575391 0.407985 -0.003326 0.0
3.793392 0.227897 0.000703 0.0
3.965656 1.244586 0.002953 0.0
3.377614 0.092992 0.000132 0.0
3.925973 1.330370 -0.002970 0.0
0.006484 0.992017 -0.001688 0.0
2.321083 0.200575 0.000042 0.0
4.426759 0.195143 0.002145 0.0
0.049253 1.649139 0.000615 0.0
1.309127 1.655748 -0.000422 0.0
0.331638 0.559293 -0.004806 0.0
2.834851 1.433207 -0.003768 0.0
3.061831 0.357323 -0.000935 0.0
0.177174 1.504561 0.002060 0.0
1.456432 0.558227 -0.000790 0.0
3.866969 1.850117 0.001770 0.0
3.076008 1.101306 0.000067 0.0
2.649904 0.653358 -0.001290 0.0
3.733589 1.723363 0.000146 0.0
1.958268 1.027493 0.001774 0.0
3.371908 0.968407 -0.001156 0.0
2.487233 0.629644 -0.000073 0.0
4.579735 0.615439 0.001225 0.0
2.206388 1.143298 -0.004457 0.0
3.056168 0.646084 0.001121 0.0
1.945910 1.291620 -0.002317 0.0
2.578132 0.102773 0.002049 0.0
4.227055 1.597511 0.004531 0.0
4.491690 0.414338 0.003316 0.0
0.589370 0.967826 0.001787 0.0
4.163272 0.218429 -0.001687 0.0
4.104724 0.203466 -0.001118 0.0
2.342118 0.613788 -0.000574 0.0
1.830598 0.727873 0.002143 0.0
2.075262 1.676601 -0.003139 0.0
3.476830 1.422096 -0.001133 0.0
0.975298 0.605964 0.003512 0.0
2.543540 1.004305 0.003682 0.0
2.887127 0.676621 0.002024 0.0
2.700647 0.779066 -0.001795 0.0
1.340981 0.538320 0.005748 0.0
3.963861 1.550123 -0.002932 0.0
3.289068 0.924194 -0.002541 0.0
2.579467 1.778914 -0.003292 0.0
4.387515 1.734030 0.001860 0.0
1.803939 0.302553 0.002204 0.0
2.086059 1.925277 0.005387 0.0
3.586157 1.392234 0.002295 0.0
3.713322 0.760474 0.000732 0.0
1.234163 1.007610 -0.001899 0.0
1.474030 1.414174 0.001532 0.0
2.461267 0.969200 0.003130 0.0
2.144883 1.326885 0.003646 0.0
3.681549 1.830094 0.001137 0.0
3.978221 0.529717 -0.000560 0.0
1.137082 1.323004 0.000334 0.0
0.355699 1.788987 0.004447 0.0
4.281663 0.607638 -0.000208 0.0
2.747458 0.512999 0.000741 0.0
1.674976 1.462701 -0.001021 0.0
2.330425 0.746116 -0.000472 0.0
4.173125 1.542691 -0.002235 0.0
3.339621 1.686955 -0.004776 0.0
2.394464 1.412557 -0.003329 0.0
0.945210 0.109968 0.000660 0.0
2.845947 1.816016 0.006900 0.0
3.529949 0.457815 0.001722 0.0
1.694403 1.662039 -0.000658 0.0
4.407171 0.466288 0.004042 0.0
3.165162 1.226849 0.001659 0.0
3.051549 0.495860 0.001658 0.0
1.490287 1.011848 -0.000345 0.0
0.986052 1.894779 0.002978 0.0
3.660380 0.432194 -0.001414 0.0
1.378812 0.774578 -0.000044 0.0
3.350346 0.148815 0.002827 0.0
2.626924 0.678916 0.000114 0.0
4.100274 1.565013 0.002917 0.0
0.445867 0.346138 -0.008091 0.0
1.420038 1.075900 0.000479 0.0
0.139112 0.829085 -0.000279 0.0
0.023222 0.645241 0.002995 0.0
3.314541 1.458203 0.002809 0.0
1.037341 1.328743 -0.003855 0.0
2.373159 0.077954 0.000075 0.0
0.834778 0.971830 -0.002736 0.0
1.423916 0.866183 -0.004250 0.0
2.887899 1.346465 0.003695 0.0
4.454434 1.495279 0.000719 0.0
3.755953 0.904619 -0.001678 0.0
2.313815 0.245303 -0.002815 0.0
0.643022 1.289593 -0.000490 0.0
3.663924 0.586910 -0.002303 0.0
4.549477 1.394857 0.000520 0.0
0.231069 1.324891 0.001788 0.0
2.493979 0.109409 0.008255 0.0
0.656845 1.831512 0.003307 0.0
2.445935 0.872173 -0.004455 0.0
3.057826 0.901930 0.001530 0.0
2.178251 0.096280 -0.003633 0.0
3.188961 0.849630 -0.001392 0.0
1.010522 1.342838 0.003419 0.0
2.236155 0.987558 0.001628 0.0
3.427645 1.920500 -0.002816 0.0
2.144436 0.203651 -0.002475 0.0
1.871623 1.695064 0.002366 0.0
1.144432 1.745855 -0.000214 0.0
3.828502 1.952484 0.001637 0.0
3.872200 0.952598 0.002244 0.0
3.629185 1.771337 -0.000349 0.0
3.072778 0.431444 0.003702 0.0
3.216618 0.990373 -0.001311 0.0
2.240084 1.490634 -0.002178 0.0
1.880322 1.013797 0.002366 0.0
4.579501 1.863508 0.001548 0.0
1.052975 0.627247 -0.004045 0.0
3.829846 1.117500 0.002362 0.0
2.895242 1.468885 -0.001823 0.0
0.649635 1.106142 -0.000370 0.0
4.524230 0.610421 0.001326 0.0
3.712718 1.616940 0.002648 0.0
3.078817 1.723398 0.003327 0.0
4.003167 0.329197 -0.001058 0.0
4.146637 0.826426 0.001004 0.0
3.162860 1.269119 -0.003165 0.0
1.361345 0.102586 -0.000566 0.0
0.177748 0.898550 -0.002661 0.0
3.044880 1.777147 0.001675 0.0
3.313816 1.475181 0.000329 0.0
2.678962 0.723094 0.001527 0.0
0.429546 0.602646 0.001665 0.0
1.575850 0.439561 -0.000792 0.0
3.983072 1.819243 -0.001326 0.0
2.365656 0.686299 -0.003184 0.0
2.698366 0.273946 -0.002022 0.0
0.976501 0.641964 0.003362 0.0
3.660549 1.555264 0.001040 0.0
3.833561 0.977663 0.002623 0.0
2.285918 0.204111 0.004534 0.0
3.147893 0.295408 -0.002352 0.0
0.688996 1.077363 -0.003771 0.0
0.917590 1.538434 0.000618 0.0
1.587701 0.515178 -0.003098 0.0
1.432604 0.418664 -0.001318 0.0
3.272741 1.391344 0.004629 0.0
0.486154 1.172280 -0.000095 0.0
0.191369 0.984167 -0.005711 0.0
1.763798 1.068133 0.001319 0.0
3.190390 1.947393 -0.000886 0.0
0.292821 1.066132 0.003031 0.0
3.665114 0.128583 -0.003303 0.0
2.844970 0.468230 0.001953 0.0
4.384465 0.066973 -0.001032 0.0
3.125756 1.934576 -0.001759 0.0
0.156236 0.609654 -0.001025 0.0
1.232959 0.919679 0.001520 0.0
4.237540 1.852473 0.001103 0.0
2.496541 0.450651 0.000903 0.0
1.809596 0.380852 -0.000350 0.0
3.597469 0.906181 -0.000219 0.0
3.642402 1.909683 -0.002276 0.0
3.580271 0.315444 0.000024 0.0
1.487974 1.679280 -0.001671 0.0
2.235291 0.892910 0.002574 0.0
0.946473 1.121357 0.002028 0.0
1.187073 0.301374 0.005231 0.0
2.250333 0.450916 -0.003693 0.0
2.849558 0.336821 0.001063 0.0
3.997036 0.374094 0.006088 0.0
1.014359 0.766880 0.002305 0.0
0.641131 0.850352 0.000065 0.0
3.236400 1.128286 -0.001042 0.0
0.288861 1.793785 -0.000528 0.0
0.379655 1.618386 0.003234 0.0
1.701912 1.112115 -0.000446 0.0
0.445024 1.162345 -0.003215 0.0
1.524874 0.564755 -0.002287 0.0
4.528063 0.251053 0.002429 0.0
2.996491 0.922663 -0.004177 0.0
1.800795 1.671821 -0.001750 0.0
1.301827 1.331303 0.001203 0.0
4.202377 0.380965 -0.001734 0.0
0.505941 0.793165 -0.000838 0.0
1.538059 1.018995 0.001023 0.0
2.154592 0.976998 0.000632 0.0
3.611223 1.773386 0.001934 0.0
3.171413 0.394479 -0.002384 0.0
4.341197 0.332910 0.001273 0.0
3.632140 0.398275 -0.000213 0.0
3.613858 1.816317 -0.001076 0.0
3.740266 1.243952 0.001783 0.0
1.723692 0.801633 0.000588 0.0
0.012494 0.568393 0.002964 0.0
2.950593 1.657612 -0.000874 0.0
0.780006 1.783765 -0.001419 0.0
4.421731 0.499730 -0.000910 0.0
0.778606 1.269014 -0.004217 0.0
3.567169 1.041809 0.001120 0.0
2.138002 1.006571 0.001565 0.0
1.695942 1.214123 0.000955 0.0
1.181810 1.545649 0.000016 0.0
2.484480 0.981613 0.004754 0.0
0.572015 1.645717 0.000426 0.0
2.471831 0.925226 -0.000343 0.0
1.209134 0.709403 -0.004898 0.0
3.526772 1.099287 0.002943 0.0
0.337766 0.530168 0.001626 0.0
4.236988 0.588002 0.002035 0.0
2.734543 1.465638 -0.000631 0.0
4.352364 1.780364 -0.002049 0.0
2.615276 1.933063 -0.000482 0.0
1.430265 0.890994 0.001315 0.0
3.336942 1.363920 -0.001636 0.0
0.107295 1.414148 0.003068 0.0
1.200777 1.135359 -0.000889 0.0
2.343939 1.405718 0.002689 0.0
2.308992 0.522317 0.001175 0.0
2.496676 0.626997 0.000479 0.0
2.050422 0.459794 -0.000731 0.0
0.848295 1.767889 -0.001209 0.0
4.566445 1.525087 -0.001308 0.0
2.329601 0.106554 0.001842 0.0
1.676836 1.469824 0.005473 0.0
2.045490 1.916693 0.000548 0.0
2.978230 0.799638 0.000917 0.0
0.689211 0.327424 0.000708 0.0
1.517880 0.833974 -0.001089 0.0
0.551983 1.069005 -0.000252 0.0
3.910584 1.773958 -0.000215 0.0
3.997597 0.957072 -0.000852 0.0
3.423790 1.043169 -0.003411 0.0
2.863115 0.708461 0.002067 0.0
1.205050 1.474365 0.003747 0.0
3.119775 1.406422 0.003160 0.0
1.767445 0.245074 -0.000398 0.0
4.218458 1.464294 -0.004049 0.0
3.794173 1.842999 0.002517 0.0
2.862475 1.558632 -0.005331 0.0
3.639003 0.074191 -0.001650 0.0
4.418607 1.692474 -0.004696 0.0
0.110998 1.787552 0.002240 0.0
2.440963 0.270843 -0.003278 0.0
3.301812 1.384413 -0.000543 0.0
0.830814 0.684706 0.001867 0.0
2.941492 0.291403 -0.003233 0.0
2.903434 0.199161 -0.003430 0.0
2.739567 0.111926 -0.004601 0.0
0.306984 0.547032 -0.001586 0.0
2.341598 1.013783 -0.002996 0.0
0.683510 1.656186 -0.001062 0.0
1.657786 0.475579 0.000761 0.0
2.037723 0.836128 0.000514 0.0
2.243140 1.470814 0.001056 0.0
3.257263 0.631718 0.000230 0.0
3.905150 0.446184 -0.003796 0.0
0.458798 0.877845 -0.003632 0.0
1.898922 1.437557 0.001460 0.0
3.629858 0.950891 -0.001420 0.0
0.921175 0.231633 -0.000495 0.0
3.709299 0.130844 -0.000747 0.0
0.121383 1.471636 0.003730 0.0
0.887315 0.345683 -0.000610 0.0
1.961915 0.520692 -0.001188 0.0
3.780468 1.323714 0.001219 0.0
1.289547 1.678054 0.004204 0.0
2.658092 1.581116 -0.001196 0.0
3.186449 0.001232 -0.002081 0.0
1.061684 1.157108 0.000323 0.0
0.845588 1.245421 -0.002970 0.0
1.152898 0.249834 0.004619 0.0
0.645114 0.173923 -0.003261 0.0
0.944535 0.790610 0.000865 0.0
0.869298 1.522478 0.006554 0.0
0.632695 1.255386 0.003578 0.0
2.998007 0.422726 0.004975 0.0
3.544226 0.415110 0.005667 0.0
1.083633 1.324511 0.004668 0.0
2.367009 1.748646 0.000862 0.0
2.637546 1.615631 -0.000604 0.0
0.132372 1.309644 -0.000043 0.0
2.020660 1.094736 -0.001523 0.0
0.756287 1.499531 0.002583 0.0
3.079917 1.650676 0.002148 0.0
3.910697 0.776184 -0.002744 0.0
1.338207 1.127000 -0.004049 0.0
0.186386 0.892507 -0.002869 0.0
2.488351 0.969850 0.001903 0.0
2.812084 1.594624 0.001743 0.0
3.013219 1.513750 -0.000666 0.0
3.576353 0.727111 -0.000076 0.0
2.258455 0.358762 -0.000229 0.0
0.055705 1.336068 -0.001156 0.0
1.232727 0.284315 -0.007065 0.0
1.961598 1.328168 -0.004282 0.0
1.678489 0.979188 -0.001577 0.0
4.435953 0.462153 0.002003 0.0
3.381859 0.649440 0.002204 0.0
2.729729 1.795547 0.001645 0.0
2.902134 0.038800 0.001833 0.0
0.815753 1.418136 -0.005565 0.0
0.859804 1.762274 0.000027 0.0
4.478717 0.403806 -0.002511 0.0
0.470879 1.251836 -0.002195 0.0
3.138952 0.620945 0.000087 0.0
1.250117 1.482359 -0.001962 0.0
0.068380 1.835916 0.000878 0.0
4.381726 1.308630 0.003730 0.0
2.244190 0.548677 0.001139 0.0
1.744138 0.478314 -0.001496 0.0
1.028594 0.325054 0.001707 0.0
2.215525 1.243027 0.001418 0.0
2.558940 1.335901 0.001478 0.0
1.139477 1.542489 0.000776 0.0
4.041609 1.665800 -0.001162 0.0
3.211383 0.121774 0.000739 0.0
3.836106 1.749501 0.001215 0.0
0.550389 1.102427 -0.003591 0.0
0.227568 0.538596 0.003658 0.0
1.260438 1.587077 0.001253 0.0
1.384642 1.398027 0.001770 0.0
3.993521 0.995237 -0.000711 0.0
0.976259 0.362217 0.003644 0.0
4.428869 0.679613 0.004025 0.0
3.701428 1.792437 0.000385 0.0
0.870190 0.450535 -0.000930 0.0
4.514821 0.120514 -0.001424 0.0
0.811768 1.044524 -0.002174 0.0
4.577703 1.150822 0.003493 0.0
1.860026 1.249575 -0.000505 0.0
2.226477 0.761922 -0.002035 0.0
2.872791 1.120056 -0.000417 0.0
4.290402 1.195864 -0.002547 0.0
1.106396 0.252523 -0.001546 0.0
3.210161 0.298409 0.003353 0.0
4.027633 1.441452 -0.000796 0.0
2.504545 0.625971 0.000054 0.0
1.177772 0.563854 -0.003105 0.0
4.225953 0.855191 0.003768 0.0
2.980458 0.830360 0.002032 0.0
3.600434 0.800616 -0.007134 0.0
1.084728 0.218701 0.002292 0.0
0.025589 1.604824 0.002440 0.0
0.217857 0.337451 0.001725 0.0
2.496822 1.403670 0.003252 0.0
3.023936 1.242404 -0.001044 0.0
2.337742 1.390664 -0.001772 0.0
4.530108 0.213799 -0.000855 0.0
3.284592 0.293803 0.001155 0.0
2.465809 1.409838 0.002392 0.0
0.188829 0.729294 0.001244 0.0
0.744445 0.888444 0.004794 0.0
4.004683 0.223960 -0.001097 0.0
2.221297 0.356664 -0.002522 0.0
2.287053 0.865233 0.000893 0.0
0.041593 0.641619 0.000742 0.0
0.577055 1.561095 0.001753 0.0
2.804522 0.576678 0.000553 0.0
4.139473 0.614916 0.001505 0.0
2.490994 0.521752 -0.002449 0.0
1.160065 1.154700 -0.006723 0.0
3.634594 1.339822 0.006418 0.0
2.989848 1.031320 -0.001273 0.0
0.902665 1.367335 -0.001667 0.0
3.716881 1.849262 0.002527 0.0
3.401757 1.095058 0.002462 0.0
3.572329 0.208411 0.000580 0.0
2.643450 1.172985 -0.000867 0.0
2.353017 1.175925 0.000123 0.0
2.288518 0.343752 0.000162 0.0
4.480493 0.054382 -0.000070 0.0
2.969868 1.792596 -0.001851 0.0
1.488409 0.577919 0.001832 0.0
0.807369 1.415139 -0.002425 0.0
0.095967 0.757147 0.001746 0.0
4.080333 0.102874 -0.001237 0.0
0.795273 1.687777 0.002539 0.0
0.061499 0.229820 -0.002144 0.0
3.903460 0.437834 0.001385 0.0
0.381733 1.509836 0.001437 0.0
2.228930 0.574142 -0.002740 0.0
2.591046 0.267326 0.000790 0.0
2.517976 1.011504 -0.002785 0.0
1.112150 1.464835 -0.001579 0.0
0.289610 1.099805 -0.001645 0.0
1.115673 1.460078 -0.000534 0.0
2.482982 1.910879 -0.000519 0.0
4.437724 1.944683 0.002219 0.0
3.252395 1.096391 -0.004026 0.0
2.109739 1.204716 -0.000993 0.0
0.382381 0.266028 -0.002123 0.0
3.139774 0.433442 -0.000062 0.0
3.350804 1.227213 -0.001113 0.0
2.648781 0.661349 0.000013 0.0
4.301462 0.492837 -0.003650 0.0
4.029461 1.720911 -0.004276 0.0
3.160810 0.236578 0.000296 0.0
1.549909 1.338306 -0.000332 0.0
2.703932 0.667742 -0.001561 0.0
1.305875 1.430984 0.000680 0.0
4.378247 0.297183 -0.004008 0.0
2.215323 0.372110 0.000694 0.0
4.364714 0.788287 0.005215 0.0
3.723706 1.838257 -0.002274 0.0
0.575878 0.517910 0.003678 0.0
0.223961 0.949895 0.002941 0.0
3.594144 1.911235 0.001440 0.0
0.523906 1.804848 0.000745 0.0
0.060602 1.118055 0.001065 0.0
1.486540 0.197382 -0.004899 0.0
4.229232 1.536467 0.002467 0.0
3.636083 1.644658 0.000783 0.0
1.350064 1.209715 0.000065 0.0
3.873207 1.430784 -0.002179 0.0
2.358691 0.832199 -0.001004 0.0
2.045136 1.277994 -0.001956 0.0
1.558612 0.401882 0.003457 0.0
0.168298 0.960233 -0.002059 0.0
3.144082 1.690608 -0.002378 0.0
3.432727 1.714281 -0.004607 0.0
3.350688 1.641884 0.003758 0.0
0.842295 0.192411 -0.001698 0.0
3.239615 0.620896 -0.003436 0.0
3.233616 0.076763 -0.001984 0.0
0.499844 1.219655 -0.000561 0.0
0.526298 0.756710 -0.000362 0.0
0.608732 1.482168 -0.006339 0.0
2.036040 1.930290 -0.003355 0.0
0.276607 0.422922 -0.002224 0.0
0.569835 1.926233 -0.001089 0.0
1.361057 0.169122 -0.001936 0.0
4.388073 0.970940 0.003999 0.0
0.760522 1.398196 0.001185 0.0
0.582968 0.623329 0.003480 0.0
1.401683 0.132475 0.000861 0.0
3.208733 1.163758 0.002810 0.0
1.291383 1.444579 0.000934 0.0
3.805851 0.621998 -0.004374 0.0
3.471796 0.585254 0.004501 0.0
0.747576 1.384618 -0.001182 0.0
3.724717 1.302967 -0.000752 0.0
2.376018 1.551159 -0.001962 0.0
1.407801 1.440137 -0.001578 0.0
1.933990 0.766814 0.002171 0.0
3.327033 0.510563 -0.003636 0.0
1.288253 0.997467 0.006384 0.0
0.889205 1.872446 -0.000133 0.0
1.193718 0.367018 0.000375 0.0
0.672830 1.924497 0.001428 0.0
0.358208 1.209643 0.003184 0.0
1.754472 1.430217 -0.002428 0.0
3.043483 0.290276 0.003935 0.0
4.131345 1.755730 -0.003817 0.0
2.803472 0.498858 -0.000362 0.0
4.168389 0.870887 -0.001507 0.0
3.593124 0.919861 -0.001428 0.0
0.090534 -0.000946 0.002268 0.0
4.402852 1.567895 -0.001691 0.0
3.397673 1.911623 0.002334 0.0
0.475986 1.171220 -0.002283 0.0
0.417661 0.153945 0.000626 0.0
2.699113 1.706501 -0.001741 0.0
0.716883 1.872547 -0.000355 0.0
1.343968 0.599092 0.000199 0.0
0.869657 1.153103 0.004321 0.0
0.723779 0.775614 0.004502 0.0
2.709799 0.063119 -0.003965 0.0
2.923689 1.416097 -0.000688 0.0
2.189280 1.418805 0.001367 0.0
2.914625 1.267729 0.000920 0.0
2.438058 1.111173 -0.000930 0.0
1.935543 1.859971 -0.000758 0.0
2.420016 1.879181 0.001816 0.0
2.964049 0.136640 -0.001112 0.0
2.127417 0.962473 -0.002644 0.0
1.564082 0.730581 -0.000737 0.0
1.013499 1.081132 0.001273 0.0
4.065211 1.536351 0.003744 0.0
0.238483 1.953607 -0.000399 0.0
1.970062 1.234424 -0.001008 0.0
0.001271 0.581699 0.003621 0.0
2.247199 1.078843 -0.003668 0.0
1.996803 1.522362 -0.004953 0.0
0.945575 1.711432 -0.001479 0.0
0.961345 0.772742 -0.000478 0.0
3.216864 0.558201 -0.003207 0.0
3.718434 1.281091 0.003871 0.0
3.611060 1.827570 0.000574 0.0
3.287874 1.186862 0.002293 0.0
0.245235 0.198332 0.000864 0.0
2.459363 1.546402 -0.000089 0.0
4.403292 0.577791 0.001937 0.0
4.497421 0.726482 0.001212 0.0
3.353489 1.861589 0.002515 0.0
0.673561 1.890461 -0.001848 0.0
2.011325 1.666636 0.001542 0.0
3.206882 0.097144 0.005313 0.0
4.397393 0.897349 -0.001958 0.0
2.898382 1.614781 -0.001008 0.0
4.158845 1.602369 0.001311 0.0
2.972665 1.576510 0.000734 0.0
3.421516 0.173985 0.001907 0.0
4.611417 0.684977 0.006216 0.0
2.052464 1.443373 -0.003303 0.0
2.838960 0.654017 -0.000369 0.0
1.732680 0.551175 -0.000885 0.0
3.502836 0.029394 -0.002679 0.0
1.276391 0.120535 0.001601 0.0
2.806238 1.234718 -0.003228 0.0
0.274978 0.805615 -0.000276 0.0
1.315390 0.938353 0.000082 0.0
3.943504 0.399808 0.000156 0.0
1.769568 1.521195 0.001202 0.0
3.063814 1.056448 0.001961 0.0
3.035607 0.969789 0.000171 0.0
0.807228 1.509889 0.001327 0.0
1.570013 0.432828 -0.000591 0.0
0.098790 0.192527 -0.001872 0.0
2.360748 0.587780 -0.001134 0.0
0.695850 1.108278 -0.000760 0.0
0.447937 1.303428 -0.001932 0.0
4.083013 0.668345 -0.000120 0.0
1.760733 0.728181 -0.000286 0.0
1.809763 0.126547 -0.001976 0.0
1.487254 1.356811 -0.001463 0.0
1.966404 1.685421 -0.001015 0.0
4.557018 1.040354 0.001617 0.0
2.203414 1.773496 -0.004103 0.0
3.333471 1.407253 -0.004756 0.0
0.938134 0.834891 0.000336 0.0
2.692235 1.290377 0.001345 0.0
2.053942 1.053193 -0.003005 0.0
3.707430 0.177820 -0.001576 0.0
3.916297 0.536543 0.001350 0.0
0.805574 1.344377 0.001940 0.0
1.609193 1.455299 0.003242 0.0
4.305237 1.658746 -0.000263 0.0
0.449853 0.243777 0.000554 0.0
1.959101 0.030752 -0.001620 0.0
2.356292 0.317106 0.000799 0.0
4.159091 0.096957 0.003374 0.0
1.879291 0.606595 -0.000886 0.0
2.077991 1.086233 0.002037 0.0
4.091063 0.724473 -0.001077 0.0
1.809094 0.352305 -0.001855 0.0
4.606208 1.192506 -0.000104 0.0
0.055908 0.249324 0.002201 0.0
0.464546 0.655867 0.000170 0.0
0.479383 0.729594 0.000735 0.0
3.149969 0.805183 0.000268 0.0
4.259807 1.917639 -0.001923 0.0
2.316429 1.063803 -0.001071 0.0
4.329412 1.731479 0.001442 0.0
3.562756 1.629917 0.000667 0.0
4.344512 0.739746 -0.002719 0.0
2.197391 1.498075 0.000002 0.0
2.732708 0.948700 0.000416 0.0
1.153222 1.231148 -0.000226 0.0
1.997261 1.668701 0.001544 0.0
0.606189 0.775153 -0.003260 0.0
0.056766 0.786485 0.001169 0.0
0.366057 0.351938 0.003545 0.0
2.169394 1.048647 0.002770 0.0
4.106366 1.051186 0.003695 0.0
2.588672 0.608266 0.000844 0.0
2.042985 0.399633 -0.000451 0.0
0.330811 1.127845 0.000431 0.0
4.277924 0.440495 0.001018 0.0
0.781084 1.636206 0.000639 0.0
2.998484 1.099216 -0.001956 0.0
0.362755 1.450789 -0.002303 0.0
1.215242 1.164908 0.003274 0.0
1.744017 0.051313 -0.002177 0.0
1.018514 1.063779 0.003609 0.0
2.256161 0.913076 -0.000278 0.0
4.463163 0.612848 0.001689 0.0
4.187791 0.554823 -0.006648 0.0
0.345214 1.707984 0.001147 0.0
2.566331 1.136054 -0.000115 0.0
1.884307 1.779481 0.003012 0.0
0.215891 0.216838 0.003441 0.0
4.215148 1.447468 -0.003938 0.0
1.827895 1.245099 -0.003445 0.0
3.779824 1.380115 0.000470 0.0
3.037783 1.806045 -0.004587 0.0
2.403733 0.828888 -0.003148 0.0
3.409548 0.694188 -0.002703 0.0
4.537577 0.537099 0.003930 0.0
2.845437 0.412567 0.004040 0.0
4.231267 0.836592 0.000185 0.0
3.879948 0.913502 0.002225 0.0
2.211661 1.818660 0.000824 0.0
2.213884 1.831425 -0.000476 0.0
0.495162 0.550769 -0.000318 0.0
2.170515 1.478509 0.002028 0.0
1.177063 0.440314 -0.001135 0.0
0.422192 0.278260 0.000557 0.0
1.552524 0.405035 0.000446 0.0
1.728600 0.146967 -0.004581 0.0
3.744035 0.802736 0.002100 0.0
0.632834 0.628492 0.001555 0.0
0.502110 0.394972 0.001988 0.0
2.488524 1.939017 -0.002408 0.0
1.849005 1.787732 0.001319 0.0
0.920426 1.867618 -0.001014 0.0
2.648185 1.859657 0.004033 0.0
4.013857 1.328478 -0.000051 0.0
0.778189 1.830380 -0.000692 0.0
1.596575 0.226280 0.001573 0.0
2.684238 0.316314 -0.001193 0.0
1.473912 0.632264 0.002944 0.0
3.609363 1.760753 0.000716 0.0
3.214298 0.764178 0.001149 0.0
0.749414 0.619342 0.000007 0.0
0.318125 0.615174 0.002841 0.0
4.099844 1.178118 -0.001637 0.0
4.221378 1.022998 -0.003045 0.0
2.939614 1.225552 0.001207 0.0
0.478002 1.917329 -0.001290 0.0
2.444936 0.279342 0.000866 0.0
2.303457 0.155135 -0.001283 0.0
0.718073 0.724039 0.000387 0.0
2.094133 1.927050 -0.000060 0.0
1.987106 0.878480 0.002957 0.0
1.063340 0.224113 0.001810 0.0
4.140751 1.247158 -0.001182 0.0
1.327701 1.560091 -0.001888 0.0
0.856764 0.318444 0.000531 0.0
3.251825 1.310102 -0.001167 0.0
2.743654 0.148729 0.000170 0.0
3.341741 0.860447 -0.003517 0.0
1.958581 0.433683 -0.003950 0.0
0.037135 0.752365 -0.001092 0.0
2.956470 0.518131 -0.003220 0.0
2.160754 0.389852 0.003135 0.0
1.448287 0.996952 -0.002594 0.0
3.319979 0.235548 -0.000735 0.0
2.339725 0.321433 0.003491 0.0
3.507100 0.718029 0.001003 0.0
1.769670 1.002642 0.000914 0.0
4.263405 0.268842 0.000636 0.0
2.013071 1.502131 -0.003640 0.0
3.929020 0.952822 -0.002268 0.0
1.437986 1.191182 -0.000075 0.0
0.410957 0.950946 0.000946 0.0
2.952317 1.309659 0.001199 0.0
0.241482 1.915638 0.000540 0.0
3.541428 1.106944 0.006131 0.0
0.961731 0.029400 -0.002772 0.0
1.632518 1.571560 0.000829 0.0
1.172377 0.532993 -0.000784 0.0
1.738752 1.873489 0.000309 0.0
0.216341 1.608205 0.000321 0.0
0.728859 0.543529 -0.000347 0.0
3.716447 0.132980 0.000928 0.0
0.589369 0.417791 0.002170 0.0
2.140330 0.875985 0.002371 0.0
2.024916 0.667236 0.001272 0.0
1.052468 1.765785 0.001805 0.0
0.781503 0.414654 -0.001583 0.0
1.395619 1.812659 0.000288 0.0
2.938151 1.492419 -0.004393 0.0
1.370408 1.725534 -0.001967 0.0
2.938884 0.012134 -0.001526 0.0
2.822667 1.141206 -0.000469 0.0
4.167388 1.828800 -0.003859 0.0
0.224004 0.616791 -0.003934 0.0
2.286658 1.649815 -0.000098 0.0
1.404713 1.484976 0.003913 0.0
4.030335 0.520548 -0.000312 0.0
0.356678 1.938068 0.001337 0.0
0.778978 1.116344 0.001057 0.0
2.394571 0.554381 -0.001448 0.0
2.647111 0.011881 -0.001213 0.0
3.358119 0.322135 0.002598 0.0
3.062985 0.627479 -0.002080 0.0
3.751671 1.796313 -0.001574 0.0
1.691375 0.650955 -0.002602 0.0
1.305267 0.699747 0.001063 0.0
4.121472 1.084875 0.001489 0.0
1.185181 0.914001 0.002970 0.0
4.431721 1.228627 0.000466 0.0
3.873551 1.890443 0.001570 0.0
2.030847 0.265823 -0.000104 0.0
0.398099 1.392023 -0.002358 0.0
3.190962 0.910781 0.000173 0.0
0.023756 1.198823 -0.000438 0.0
0.983394 0.728953 -0.000928 0.0
0.298200 0.176377 -0.003719 0.0
3.445479 1.548147 -0.000561 0.0
1.607950 0.662657 -0.000985 0.0
0.208088 1.384914 -0.000806 0.0
1.586835 1.879631 0.000603 0.0
0.739502 0.724871 -0.006752 0.0
0.618008 1.602994 -0.004267 0.0
4.537930 1.051906 0.005628 0.0
1.407017 1.057704 -0.002797 0.0
0.535675 0.655980 0.001893 0.0
2.093593 0.790794 -0.000919 0.0
3.125093 0.292494 -0.004237 0.0
4.613663 0.819023 0.004322 0.0
2.440702 1.476124 0.003474 0.0
1.015326 0.205888 0.001516 0.0
2.996795 1.138963 -0.004812 0.0
2.192673 1.089436 0.002643 0.0
0.516046 0.768583 0.000817 0.0
0.274738 1.568104 -0.001175 0.0
3.152757 1.085104 0.001831 0.0
2.111858 0.743303 0.001189 0.0
4.502519 0.602419 0.006503 0.0
0.161493 0.980140 -0.004973 0.0
3.415883 1.598456 -0.001665 0.0
0.507165 1.173690 0.001968 0.0
3.665649 1.637879 -0.000592 0.0
4.042119 1.934554 -0.000747 0.0
0.811948 0.519071 -0.003624 0.0
3.989746 1.444663 -0.000413 0.0
3.484726 0.070533 0.003278 0.0
3.695593 1.002096 -0.000090 0.0
0.922207 1.319210 0.004099 0.0
4.417563 1.173268 -0.001019 0.0
0.854983 1.130327 -0.001112 0.0
2.865375 1.244403 -0.002410 0.0
4.349491 1.437045 -0.004356 0.0
4.497609 0.716451 -0.001785 0.0
0.876562 1.304056 -0.000981 0.0
2.467512 0.039848 0.002151 0.0
1.349873 1.090795 0.005832 0.0
1.502999 1.321274 -0.000024 0.0
3.787617 1.736550 -0.002536 0.0
4.568460 0.500119 0.003358 0.0
3.159679 0.526876 -0.003390 0.0
0.197240 1.475176 0.001021 0.0
0.925873 0.600159 0.001361 0.0
4.326191 1.703231 -0.001743 0.0
2.697832 0.660648 -0.000358 0.0
3.928238 0.392419 0.003601 0.0
0.461524 1.343306 -0.000944 0.0
2.175459 1.220747 0.004553 0.0
2.369222 1.934244 -0.002299 0.0
4.487020 1.007745 0.000969 0.0
0.265923 0.389254 -0.000319 0.0
1.663834 1.852803 0.001576 0.0
2.159501 1.109976 0.003816 0.0
1.610509 1.032483 0.001202 0.0
3.145740 0.339876 0.003805 0.0
1.120390 1.799304 -0.001467 0.0
1.218790 1.356594 -0.002131 0.0
0.089141 0.729596 0.000587 0.0
2.516387 1.733499 0.003868 0.0
1.768428 0.382755 0.000673 0.0
2.240628 0.850162 0.000422 0.0
3.403789 0.107752 0.001699 0.0
2.489871 1.351920 -0.006170 0.0
4.433859 0.086347 -0.000809 0.0
1.121760 0.278606 0.001372 0.0
0.782030 1.369583 -0.002739 0.0
2.635710 1.952336 0.000572 0.0
4.371516 1.673213 0.003494 0.0
2.009694 1.172919 0.000022 0.0
0.003133 1.109385 0.002940 0.0
0.133176 0.103789 -0.000538 0.0
3.861890 0.033134 -0.002134 0.0
2.138504 1.659626 0.000600 0.0
2.387257 0.405744 -0.000806 0.0
4.230821 1.686809 -0.000667 0.0
3.312572 1.423210 0.001241 0.0
4.530062 1.600030 -0.002270 0.0
2.729752 0.979386 0.000479 0.0
1.651487 1.202578 0.002994 0.0
0.895785 1.754050 -0.000993 0.0
2.011315 1.843674 0.001699 0.0
3.061971 1.427325 -0.002653 0.0
3.079172 0.364228 -0.003021 0.0
3.440587 0.208016 0.000636 0.0
1.422601 0.345765 0.001297 0.0
4.494570 1.253575 0.000380 0.0
0.960875 0.798199 -0.000888 0.0
2.437821 0.613947 -0.000948 0.0
3.831515 0.462238 0.004633 0.0
2.609096 1.019931 -0.000453 0.0
2.193507 0.750575 -0.000800 0.0
2.041943 0.156105 0.001816 0.0
1.640788 1.441285 0.002300 0.0
1.701350 1.828431 0.000098 0.0
4.293512 1.765834 -0.000444 0.0
2.944000 0.098367 -0.000337 0.0
0.807657 1.536766 -0.000140 0.0
4.473029 0.299634 0.000861 0.0
3.167747 0.218837 0.001003 0.0
4.572482 0.142929 0.004522 0.0
1.638654 0.968693 0.001603 0.0
3.380261 1.073656 -0.002227 0.0
2.456919 0.196024 -0.000398 0.0
4.305943 0.329982 -0.000909 0.0
2.791381 0.204580 0.000251 0.0
0.282624 0.551014 0.000681 0.0
0.445311 0.252378 0.006157 0.0
3.486610 0.952410 0.003445 0.0
2.016914 1.701747 -0.000198 0.0
1.883241 0.965715 0.001130 0.0
4.418563 1.553455 0.001367 0.0
2.993513 0.712628 -0.001391 0.0
3.312741 0.791088 -0.000470 0.0
0.230557 1.589512 -0.003313 0.0
1.048781 0.531278 0.001800 0.0
1.379789 1.669548 0.001351 0.0
3.807034 1.658314 0.004401 0.0
0.127907 0.821022 -0.002487 0.0
0.568934 1.102154 -0.001446 0.0
4.029409 1.949789 0.003881 0.0
0.652843 1.043825 -0.001265 0.0
1.643287 1.282007 -0.000089 0.0
3.435462 0.953407 0.002878 0.0
2.512537 0.954678 0.000042 0.0
1.933433 1.380697 -0.003966 0.0
3.460953 0.994407 0.001009 0.0
3.797029 0.033807 -0.003240 0.0
2.424385 1.873955 -0.000465 0.0
0.242343 0.869417 0.002955 0.0
3.338798 0.529077 0.003091 0.0
1.281107 0.030431 -0.001552 0.0
3.484035 1.778989 0.003255 0.0
0.370576 1.561549 0.001267 0.0
1.259519 1.219412 0.002041 0.0
1.859818 0.357970 -0.000018 0.0
0.115708 0.063468 0.002410 0.0
0.034257 1.376961 -0.003609 0.0
3.706760 0.740939 0.002181 0.0
4.514173 1.343348 0.003464 0.0
4.524560 1.126341 -0.000418 0.0
0.439915 0.883602 0.000907 0.0
3.352401 1.716371 0.003832 0.0
0.860447 1.559359 -0.000139 0.0
4.103475 1.417564 0.003879 0.0
3.534559 0.647277 0.000623 0.0
3.040148 1.363727 0.001171 0.0
2.310937 1.656068 0.000394 0.0
4.020711 0.638697 0.002296 0.0
0.803888 1.690014 -0.002615 0.0
4.484583 0.937677 0.002787 0.0
3.616447 0.982379 0.002635 0.0
1.716582 0.762623 -0.000127 0.0
3.741848 1.361556 0.000064 0.0
2.931054 0.700656 -0.005242 0.0
2.363287 0.323790 -0.004795 0.0
0.684647 1.728002 0.003687 0.0
3.594290 0.860613 0.002617 0.0
4.403280 1.732876 -0.002598 0.0
1.563314 1.709409 0.001661 0.0
3.917840 0.684494 0.003597 0.0
4.575979 0.307401 0.001491 0.0
0.095235 0.392312 -0.004221 0.0
2.264769 0.439694 0.002548 0.0
2.574243 0.063162 0.000325 0.0
1.207173 1.407613 0.000345 0.0
4.021990 1.444607 0.001088 0.0
4.501812 1.740205 -0.002109 0.0
2.791514 1.511814 0.000094 0.0
0.957710 1.706553 0.005332 0.0
4.123153 1.635952 0.001784 0.0
1.196433 1.262796 -0.005424 0.0
3.103243 1.843661 0.002046 0.0
4.413249 0.723132 -0.000937 0.0
2.667822 0.257254 0.004529 0.0
2.029616 1.879294 -0.002006 0.0
2.317640 0.870682 0.001811 0.0
2.080942 1.582994 0.001342 0.0
2.862169 0.163345 0.002302 0.0
2.711041 0.234788 -0.002484 0.0
0.311701 1.441163 0.000994 0.0
1.248811 1.702181 -0.003106 0.0
4.046223 1.629808 0.004223 0.0
3.374669 0.070740 -0.003221 0.0
2.101939 0.454172 0.001910 0.0
1.969749 1.841793 0.002697 0.0
2.985025 0.252467 -0.003716 0.0
1.562627 0.815595 -0.002190 0.0
2.147402 0.988139 0.001485 0.0
0.903361 1.814252 -0.000256 0.0
0.040315 0.412791 -0.001396 0.0
1.390766 0.620579 -0.006246 0.0
0.145704 0.140922 0.000688 0.0
2.858802 0.177051 -0.001454 0.0
1.226773 0.672095 -0.000188 0.0
0.800080 0.273804 -0.003024 0.0
3.690463 1.289013 0.003225 0.0
2.205755 0.973338 0.001608 0.0
1.149455 1.382648 -0.001267 0.0
4.443234 0.478152 -0.001506 0.0
4.453502 1.473443 0.000432 0.0
2.219093 1.910724 0.002087 0.0
3.023780 1.630173 -0.003871 0.0
3.934232 1.147663 0.000143 0.0
3.065932 1.786687 0.002881 0.0
0.085352 0.929594 0.001115 0.0
0.839675 0.862456 0.004387 0.0
0.571669 1.379444 0.004476 0.0
2.485598 1.509236 -0.005214 0.0
3.834222 0.792110 0.001637 0.0
3.900390 0.499617 -0.001166 0.0
1.308718 0.905621 -0.001459 0.0
2.482332 1.075275 0.000623 0.0
2.357299 1.027102 -0.003565 0.0
3.225284 1.598688 0.002476 0.0
2.418558 1.666876 -0.001614 0.0
2.185901 0.618632 -0.001488 0.0
2.426672 0.190653 0.000951 0.0
1.318937 0.695006 -0.005632 0.0
