1.65276473 0.97775190 -0.00038397 0.00000000
2.35644259 1.66799629 0.00166981 0.00000000
2.35283725 1.27754800 0.00056609 0.00000000
4.37784957 0.26477985 -0.00073565 0.00000000
4.13833013 1.13104703 -0.00024354 0.00000000
0.66626002 1.62568136 -0.00231528 0.00000000
0.91595772 1.02572757 0.00075692 0.00000000
4.07865400 0.88806865 -0.00173896 0.00000000
2.89784113 0.27163887 -0.00157481 0.00000000
0.58225699 0.05352456 -0.00129948 0.00000000
0.05915252 1.57782586 -0.00051090 0.00000000
4.04624333 1.93912900 0.00389646 0.00000000
2.98687127 1.24114639 0.00112417 0.00000000
4.41629422 0.20064551 -0.00080774 0.00000000
4.08882252 0.97741322 0.00023085 0.00000000
4.39229284 0.07733616 0.00288458 0.00000000
3.95297210 1.04364737 0.00160054 0.00000000
3.87887315 1.62735824 -0.00163639 0.00000000
2.64113666 0.93996279 0.00343576 0.00000000
0.46578267 0.75955626 0.00063462 0.00000000
1.53211247 0.79084177 -0.00054194 0.00000000
0.94261258 1.35604401 -0.00038917 0.00000000
2.48558509 1.86304425 0.00377064 0.00000000
0.43968669 1.03391840 0.00027698 0.00000000
4.17069088 0.72080567 0.00591374 0.00000000
3.23772684 0.70515283 -0.00154483 0.00000000
0.17778831 1.01752178 -0.00087042 0.00000000
3.44288202 0.85253589 -0.00152487 0.00000000
4.45886314 0.84347099 0.00150057 0.00000000
3.57778600 1.21712040 -0.00325643 0.00000000
3.54047496 0.33597962 0.00085755 0.00000000
0.79535004 2.08316391 -0.00106400 0.00000000
1.12507611 0.19486282 -0.00080198 0.00000000
3.44511858 1.39518896 0.00181893 0.00000000
2.09441284 0.97053524 -0.00230980 0.00000000
3.72577506 1.37123303 0.00278226 0.00000000
0.38178470 1.55666710 -0.00371566 0.00000000
2.12931850 1.95440996 -0.00019572 0.00000000
1.99944981 0.76831964 0.00179183 0.00000000
2.20214112 0.99085895 0.00201520 0.00000000
4.12963541 0.66575947 -0.00461671 0.00000000
2.56814908 1.51757272 0.00322762 0.00000000
3.50007736 1.13323223 -0.00156608 0.00000000
1.15280575 1.99080531 -0.00069755 0.00000000
4.18613441 1.72035323 0.00036761 0.00000000
4.43404287 1.66795248 -0.00035699 0.00000000
4.21090206 0.10459756 -0.00101396 0.00000000
0.46467667 1.86595160 0.00369430 0.00000000
3.27913261 1.11039807 0.00203467 0.00000000
1.05613595 1.22233634 0.00202368 0.00000000
1.07271455 1.99661964 0.00022148 0.00000000
3.87018855 0.15870994 0.00108035 0.00000000
2.96677819 1.16433414 0.00423743 0.00000000
2.91085927 0.60724209 0.00031557 0.00000000
2.20249745 0.42425176 0.00163933 0.00000000
2.32312832 1.04267139 -0.00316101 0.00000000
0.64708652 0.03943713 -0.00097959 0.00000000
0.58486831 0.99227698 0.00063227 0.00000000
4.25800379 2.06289468 -0.00094090 0.00000000
2.20376846 0.39483449 -0.00003470 0.00000000
4.38340794 0.06746008 -0.00176354 0.00000000
2.37447009 1.40638933 0.00190631 0.00000000
0.15833614 0.52481287 -0.00268291 0.00000000
2.07221965 0.57445142 0.00061619 0.00000000
2.34875423 0.32510965 0.00129068 0.00000000
3.98373941 0.86283142 -0.00022855 0.00000000
1.78296132 1.22650409 -0.00667851 0.00000000
4.48839408 0.17023064 -0.00102472 0.00000000
1.60537390 0.69703982 -0.00030437 0.00000000
0.48812688 0.23534730 -0.00025393 0.00000000
4.31339064 0.49090160 -0.00356017 0.00000000
1.15618323 0.52356204 0.00104323 0.00000000
0.88004507 0.15190666 -0.00158054 0.00000000
4.03548869 1.27161784 -0.00078324 0.00000000
4.38771113 0.25584988 0.00015988 0.00000000
2.35605456 2.11503882 0.00070931 0.00000000
3.38304443 1.26419603 -0.00457646 0.00000000
0.26342330 1.35764564 0.00254475 0.00000000
0.14091039 0.79983094 0.00087851 0.00000000
0.53527315 0.06454942 -0.00165947 0.00000000
4.33512664 1.43140673 -0.00030109 0.00000000
2.51763314 1.92471731 0.00019577 0.00000000
1.80937460 0.73731514 0.00109785 0.00000000
0.44906719 1.45621870 -0.00565946 0.00000000
0.94374501 0.90781511 0.00010049 0.00000000
2.53065605 2.03994481 0.00073622 0.00000000
4.41303360 0.40846887 0.00073418 0.00000000
3.05878222 0.76930916 -0.00137645 0.00000000
1.32784064 0.43665786 0.00157322 0.00000000
3.33306041 0.98843104 -0.00238428 0.00000000
2.20123792 0.87287140 0.00106029 0.00000000
4.01421329 2.04115424 0.00036080 0.00000000
3.07115458 0.23643781 -0.00235115 0.00000000
4.24955278 1.75138502 0.00725264 0.00000000
0.15307202 1.34358171 0.00080944 0.00000000
2.51153389 1.35326071 -0.00049820 0.00000000
1.31530096 0.16231348 0.00445310 0.00000000
1.98124689 1.10745025 0.00093787 0.00000000
2.78933750 1.00861578 0.00189526 0.00000000
1.71238379 1.69715347 0.00221110 0.00000000
3.73577205 2.04626895 -0.00217627 0.00000000
2.77972530 0.18070620 -0.00151461 0.00000000
2.20426621 1.34257088 -0.00168278 0.00000000
1.44599164 1.13287280 0.00238090 0.00000000
1.03885334 1.11514010 -0.00424173 0.00000000
1.62037095 0.25699289 -0.00001124 0.00000000
2.28742766 0.16740006 0.00382576 0.00000000
1.70956620 0.00691072 0.00134877 0.00000000
1.19440796 1.56292044 -0.00426535 0.00000000
4.49647573 1.99627875 0.00305706 0.00000000
2.59343612 1.32588245 0.00168797 0.00000000
0.28680463 1.70173328 -0.00327016 0.00000000
3.78657778 1.17395704 0.00108345 0.00000000
0.05158247 0.21825625 0.00308600 0.00000000
1.80083500 0.46520383 0.00122890 0.00000000
3.59682888 1.25419274 0.00003880 0.00000000
3.83004029 1.39344489 -0.00283214 0.00000000
4.54890647 1.03207082 -0.00197879 0.00000000
0.51503553 0.29168803 -0.00003212 0.00000000
2.75488317 1.89165300 -0.00267561 0.00000000
1.89715580 0.94892954 -0.00143357 0.00000000
0.11730964 0.08458859 -0.00126488 0.00000000
0.06409305 0.21596194 -0.00111054 0.00000000
0.30845551 1.12615897 0.00101318 0.00000000
2.28955224 1.98161216 0.00296767 0.00000000
2.57829589 0.95276318 0.00054292 0.00000000
3.20267256 1.15070425 0.00027289 0.00000000
0.69523403 1.60636046 0.00370628 0.00000000
0.62204049 1.84237209 0.00045764 0.00000000
3.90150447 2.08894487 0.00076927 0.00000000
0.67360043 1.70523276 -0.00265249 0.00000000
3.72822537 1.80429484 0.00106755 0.00000000
4.51548809 1.00545864 0.00174641 0.00000000
3.39376168 0.02386531 0.00019696 0.00000000
1.43911996 0.55718227 0.00142612 0.00000000
3.97227079 1.22987734 0.00004530 0.00000000
0.03637771 1.33652983 -0.00275795 0.00000000
1.07069530 0.14349703 0.00341347 0.00000000
0.68116765 0.18536386 -0.00138537 0.00000000
0.48595954 0.95852078 -0.00094309 0.00000000
4.27072762 2.14795909 0.00098943 0.00000000
4.53082065 0.96981027 0.00205803 0.00000000
3.62573772 0.63213993 -0.00136936 0.00000000
1.87007473 1.04886917 -0.00246500 0.00000000
0.78954401 1.86950507 0.00175365 0.00000000
2.68548436 1.51394457 -0.00012654 0.00000000
4.10218864 2.05847563 0.00374661 0.00000000
0.12831649 1.11108929 0.00303029 0.00000000
3.20610281 0.56523762 0.00059737 0.00000000
1.55623477 1.85917042 0.00068201 0.00000000
2.78063257 1.34327000 -0.00227765 0.00000000
0.27248430 0.70159484 -0.00106000 0.00000000
1.71655359 2.13378659 -0.00001160 0.00000000
0.03519609 1.97516961 0.00372888 0.00000000
2.96286959 1.28568146 -0.00384181 0.00000000
4.50811782 1.67549948 0.00412501 0.00000000
2.14322544 1.50138910 0.00103641 0.00000000
0.67461741 2.02817638 0.00131446 0.00000000
2.51402797 0.90721351 0.00231025 0.00000000
2.70085738 0.71683141 -0.00157731 0.00000000
4.07970901 2.15343594 0.00062951 0.00000000
3.83340276 0.11923976 0.00210134 0.00000000
0.63567831 0.74267844 0.00243491 0.00000000
3.19967351 1.84736989 -0.00252545 0.00000000
3.11764415 1.12006286 -0.00177890 0.00000000
3.44391652 2.07062773 0.00073583 0.00000000
2.82897732 0.78823446 0.00596407 0.00000000
0.89878664 1.54469796 -0.00065676 0.00000000
0.74740428 0.01653071 -0.00071592 0.00000000
4.55845250 0.71782092 0.00331568 0.00000000
1.20217464 1.40019020 0.00002136 0.00000000
1.29276195 1.13565301 0.00433846 0.00000000
0.47234156 0.81422375 -0.00080331 0.00000000
4.36528025 1.12435294 -0.00040617 0.00000000
1.37606567 1.94852462 0.00332782 0.00000000
4.06900996 0.64448085 0.00330352 0.00000000
4.56260587 1.32276342 0.00173086 0.00000000
0.65133385 1.55345794 -0.00269283 0.00000000
3.79753467 0.16909082 -0.00191487 0.00000000
3.18169739 0.28654569 -0.00120790 0.00000000
3.93897680 1.52198347 -0.00296819 0.00000000
0.83392971 1.60210564 -0.00304361 0.00000000
2.10239528 1.71244429 0.00066546 0.00000000
0.39387772 1.92761562 -0.00598397 0.00000000
1.78745433 1.72652078 0.00169678 0.00000000
3.60561962 0.25213347 -0.00207316 0.00000000
1.27147853 0.93177252 0.00128542 0.00000000
0.23122540 1.00100135 -0.00116667 0.00000000
4.03354394 0.37086573 0.00568740 0.00000000
0.16532859 0.98676490 0.00149898 0.00000000
0.57501100 1.44922174 -0.00208472 0.00000000
4.34978019 1.80341330 0.00091781 0.00000000
3.70949650 1.14704576 0.00257803 0.00000000
1.44122693 1.59153964 -0.00087520 0.00000000
1.91076634 1.45329181 0.00354856 0.00000000
0.48130630 1.74092710 -0.00192310 0.00000000
4.46168376 1.58785242 0.00201291 0.00000000
2.02042297 1.77939143 -0.00058416 0.00000000
3.61383027 2.15604927 0.00103588 0.00000000
1.25932311 1.05292437 0.00098939 0.00000000
3.79371804 1.60514422 0.00487669 0.00000000
0.20635644 1.06699748 0.00084328 0.00000000
0.87574659 1.87911585 -0.00053415 0.00000000
1.93358646 0.30983977 0.00054602 0.00000000
0.96948026 0.95165394 -0.00013026 0.00000000
1.21547817 1.73381018 -0.00284491 0.00000000
2.26890013 1.60701946 -0.00340430 0.00000000
1.85400545 1.00485308 -0.00462602 0.00000000
3.05507805 0.50247876 0.00022431 0.00000000
2.83467802 0.30525040 -0.00075148 0.00000000
2.14387039 0.83496190 0.00016116 0.00000000
0.21289402 0.59474971 -0.00010208 0.00000000
0.65060028 1.29206968 0.00336702 0.00000000
3.86856904 0.00340551 0.00300519 0.00000000
0.82180753 1.12846143 0.00352276 0.00000000
0.29630843 2.04334817 0.00325458 0.00000000
2.72135311 0.11380420 -0.00350974 0.00000000
4.35186190 0.50069613 -0.00017974 0.00000000
0.75727195 0.06222844 0.00298385 0.00000000
4.18189964 1.06254637 0.00109176 0.00000000
1.49931282 0.12958538 0.00033227 0.00000000
3.62595745 1.98753687 0.00262550 0.00000000
1.33615780 0.20354467 0.00107941 0.00000000
2.36193103 0.60829283 0.00461871 0.00000000
1.60004792 0.14180733 -0.00273779 0.00000000
1.35492961 0.28008542 -0.00247388 0.00000000
2.98205268 2.13543168 -0.00180115 0.00000000
2.98927745 0.47200014 -0.00109392 0.00000000
2.78703388 0.76121854 0.00346986 0.00000000
1.12957571 1.41499680 0.00090744 0.00000000
3.96638438 0.58824373 -0.00119852 0.00000000
3.73136210 1.33937054 0.00029018 0.00000000
1.99649173 0.16250370 -0.00313396 0.00000000
2.10064074 0.84945301 0.00076055 0.00000000
2.43778823 1.46588831 -0.00425912 0.00000000
0.27116298 1.79706185 0.00019856 0.00000000
0.10215596 0.52760172 -0.00157100 0.00000000
4.29033705 2.12859886 -0.00165852 0.00000000
3.97080557 1.86054540 -0.00312128 0.00000000
4.45462759 0.11596715 0.00576751 0.00000000
4.56523617 1.22256786 -0.00222583 0.00000000
1.74366344 0.02507675 0.00183518 0.00000000
3.90477254 1.09942188 0.00233248 0.00000000
0.57383755 1.45545598 -0.00244004 0.00000000
0.06245735 0.73599477 -0.00070678 0.00000000
0.56033810 0.35392830 0.00016092 0.00000000
2.02313514 0.58907047 0.00178953 0.00000000
1.72040244 0.79465921 0.00088163 0.00000000
0.94837708 0.96491722 -0.00072629 0.00000000
4.30081483 0.52967772 -0.00200141 0.00000000
0.80010873 0.65738058 -0.00172276 0.00000000
4.19530586 1.14486259 0.00188592 0.00000000
0.16211218 0.15632237 -0.00133190 0.00000000
3.58403248 1.86077115 -0.00005121 0.00000000
2.13557397 0.66681527 0.00104491 0.00000000
4.49099623 2.15344289 -0.00174210 0.00000000
4.35550337 0.07606939 0.00160561 0.00000000
1.94572741 1.06404073 -0.00094566 0.00000000
0.69225582 1.03444901 0.00161558 0.00000000
2.73175194 1.50492532 0.00069525 0.00000000
2.33463989 1.36907913 0.00046038 0.00000000
1.27017429 0.34677096 0.00189776 0.00000000
0.73027748 1.52143298 0.00176350 0.00000000
1.71957920 0.14204461 0.00411870 0.00000000
3.06983115 0.54325607 -0.00111568 0.00000000
2.19091498 0.23925106 -0.00245139 0.00000000
1.86680975 1.59186190 0.00260215 0.00000000
0.81476478 1.07732881 -0.00206458 0.00000000
3.29258427 1.34600313 -0.00116886 0.00000000
4.02540649 1.23642705 0.00153625 0.00000000
0.82707578 1.98469969 -0.00022088 0.00000000
4.13212033 0.41799144 -0.00370489 0.00000000
0.05171824 0.77713183 -0.00143621 0.00000000
2.67566080 1.02412534 0.00156341 0.00000000
4.30976789 0.15206517 0.00272870 0.00000000
4.30383655 1.60080373 0.00211469 0.00000000
2.30072307 1.47680204 0.00148056 0.00000000
3.37071062 0.78725899 0.00399689 0.00000000
0.26946552 1.89293908 -0.00125585 0.00000000
1.46513955 0.64003865 0.00364279 0.00000000
0.25963922 0.68608136 -0.00230140 0.00000000
3.08934859 2.14208352 -0.00304307 0.00000000
3.69348750 0.28257804 -0.00109557 0.00000000
1.13511132 0.45322027 -0.00257635 0.00000000
4.01686175 2.01721240 -0.00198745 0.00000000
4.07258757 1.18924560 -0.00205532 0.00000000
3.33118511 1.53292940 -0.00106495 0.00000000
0.89001288 1.89978271 -0.00181078 0.00000000
3.98851179 1.54963908 -0.00128203 0.00000000
3.95432889 0.95967225 0.00180892 0.00000000
0.07342493 0.59713805 0.00234830 0.00000000
1.46502361 1.30944334 -0.00213604 0.00000000
3.94114294 0.46185446 -0.00291103 0.00000000
2.18605121 1.77666410 -0.00195945 0.00000000
1.34947186 0.99008318 0.00048509 0.00000000
0.16371448 0.00490101 -0.00209610 0.00000000
0.99097805 2.08895323 0.00293497 0.00000000
2.52629943 1.94876016 0.00307926 0.00000000
0.97396289 1.71523057 -0.00044940 0.00000000
1.06964983 0.44651971 0.00042692 0.00000000
2.44700026 1.03621599 -0.00158859 0.00000000
3.49801749 0.29476435 0.00197593 0.00000000
3.96783514 0.10468409 0.00187900 0.00000000
0.95112400 0.71112171 0.00112679 0.00000000
3.45124474 0.45236592 -0.00027421 0.00000000
1.83398438 0.46469695 -0.00046316 0.00000000
3.50286462 0.36989722 -0.00567144 0.00000000
0.90285631 0.91967703 -0.00208443 0.00000000
1.28875146 0.42418632 -0.00029563 0.00000000
4.26870255 0.39538443 -0.00280117 0.00000000
4.16860890 1.37971475 -0.00089258 0.00000000
1.66376872 0.78333001 0.00223591 0.00000000
2.63121677 1.81075468 0.00600240 0.00000000
3.56497295 0.79851949 -0.00292084 0.00000000
0.61100448 0.69577360 0.00236741 0.00000000
1.31680950 1.22885707 0.00200563 0.00000000
1.85817880 1.51187168 -0.00304231 0.00000000
2.32675654 0.47607779 0.00077136 0.00000000
1.44980984 1.68867059 0.00052839 0.00000000
3.71496494 1.80171278 -0.00402186 0.00000000
4.45374560 1.07003582 -0.00072893 0.00000000
2.76383954 1.08609463 -0.00003969 0.00000000
4.34985932 0.97977662 -0.00324578 0.00000000
2.16798160 1.90051359 0.00255713 0.00000000
1.39566147 1.34567941 -0.00444871 0.00000000
0.02699007 0.22428980 0.00085417 0.00000000
1.77377002 0.01943794 0.00068990 0.00000000
1.22108564 1.74394639 0.00227786 0.00000000
3.23332438 1.06139869 -0.00510027 0.00000000
2.27779347 2.05560118 0.00325890 0.00000000
3.03743069 1.50477410 -0.00135514 0.00000000
4.22527295 1.45880338 -0.00456403 0.00000000
2.93243590 1.21449754 -0.00245879 0.00000000
2.61783785 0.12559493 0.00132317 0.00000000
2.59002145 1.90373387 -0.00189635 0.00000000
1.49135017 0.50433027 -0.00224569 0.00000000
4.45002248 0.24356112 -0.00259615 0.00000000
2.40209567 1.15504186 0.00444388 0.00000000
3.71653433 1.56221420 0.00147092 0.00000000
1.88222143 1.72749379 -0.00028287 0.00000000
2.80155058 1.40386546 0.00035860 0.00000000
0.09887967 1.81795397 0.00386238 0.00000000
4.11076292 2.15857206 -0.00236101 0.00000000
4.22191887 1.33834801 -0.00278902 0.00000000
0.45626037 0.83396689 -0.00190081 0.00000000
2.84860777 0.11347643 0.00496945 0.00000000
2.19770158 1.96550412 0.00088099 0.00000000
1.50248081 0.56526026 -0.00215348 0.00000000
3.31375413 0.71228089 0.00540734 0.00000000
3.44269599 0.10585088 -0.00448482 0.00000000
4.54120786 0.65001340 0.00042154 0.00000000
4.01670795 1.43857406 0.00034257 0.00000000
3.36253668 1.97995802 0.00028652 0.00000000
1.65823971 0.96325354 0.00188888 0.00000000
0.80401661 1.05226421 -0.00035955 0.00000000
0.38021410 0.76420579 -0.00240917 0.00000000
2.61811753 1.40111726 -0.00393835 0.00000000
0.67916645 1.63624124 -0.00526317 0.00000000
2.46543315 1.39671895 -0.00363163 0.00000000
2.80598184 0.04465946 -0.00128904 0.00000000
0.23137180 1.51920306 0.00106911 0.00000000
3.34729237 0.96096388 0.00016761 0.00000000
3.00466052 0.65521130 0.00047664 0.00000000
0.11580312 1.98223665 -0.00088611 0.00000000
0.49629111 1.20452886 -0.00070015 0.00000000
4.39837010 0.86562945 -0.00386971 0.00000000
2.49472352 0.25815982 -0.00018549 0.00000000
0.92354866 2.05730220 0.00120860 0.00000000
2.66161371 0.64952165 -0.00121710 0.00000000
3.62474982 1.20000320 0.00351011 0.00000000
1.77098989 1.38621473 -0.00213054 0.00000000
0.18756422 1.68656673 0.00048588 0.00000000
3.90026774 1.47675736 -0.00112898 0.00000000
1.62973826 0.41782595 -0.00061930 0.00000000
1.00221698 1.34589954 -0.00044029 0.00000000
0.49381411 1.15654530 0.00382551 0.00000000
1.92532887 0.46903567 0.00198090 0.00000000
2.53186015 0.15314100 -0.00217046 0.00000000
1.03466824 0.12878154 0.00136741 0.00000000
2.41929757 1.47770661 0.00181301 0.00000000
4.52315223 1.31672786 -0.00134972 0.00000000
1.46423690 1.76376119 0.00299120 0.00000000
2.38819813 1.51610369 -0.00227847 0.00000000
4.47867743 1.41971680 -0.00248044 0.00000000
4.05735869 1.54838941 -0.00386649 0.00000000
1.72968298 0.65313908 -0.00575633 0.00000000
4.25509939 1.86447892 -0.00111746 0.00000000
3.78470869 0.34256099 0.00029941 0.00000000
2.51038871 1.20629905 -0.00323280 0.00000000
0.17861379 1.51732353 0.00036531 0.00000000
0.03795310 0.56021112 -0.00019186 0.00000000
2.01340096 1.82002219 -0.00471088 0.00000000
3.23539198 0.41762551 -0.00104653 0.00000000
3.71114553 0.99783481 -0.00041189 0.00000000
3.32079597 0.57807714 -0.00156345 0.00000000
2.90627950 1.47172546 -0.00461249 0.00000000
1.81947878 0.07521605 -0.00080547 0.00000000
2.54691512 1.67685033 0.00245047 0.00000000
3.83023027 0.70319444 0.00086407 0.00000000
0.76118323 1.83261232 -0.00050716 0.00000000
0.57051353 0.07873807 0.00003897 0.00000000
1.49173299 0.02231384 0.00146620 0.00000000
4.51301628 0.08922323 -0.00123773 0.00000000
3.02003324 1.39698353 -0.00329378 0.00000000
0.45841545 0.82856336 -0.00203958 0.00000000
1.15256876 1.64041257 -0.00099875 0.00000000
2.39522242 0.05443288 0.00123849 0.00000000
1.46928936 0.86866384 -0.00095024 0.00000000
0.63217998 1.43994821 0.00167896 0.00000000
0.09350399 1.96939181 -0.00039495 0.00000000
4.43024808 0.77403244 0.00031189 0.00000000
2.59958128 1.08543522 0.00205506 0.00000000
2.94915593 0.91797362 0.00986565 0.00000000
3.91719883 0.82215022 -0.00042538 0.00000000
2.31469377 1.60606440 0.00015365 0.00000000
0.39595991 1.82093752 -0.00044399 0.00000000
2.76886419 1.13485726 0.00031830 0.00000000
3.17814471 1.85567579 0.00058281 0.00000000
2.73660172 1.68626964 -0.00026495 0.00000000
4.57095381 1.11677169 -0.00157983 0.00000000
4.47130205 0.13940852 0.00244568 0.00000000
4.05043021 0.51399982 -0.00280371 0.00000000
4.31166525 2.07758561 -0.00191160 0.00000000
0.24051550 0.14837704 0.00008089 0.00000000
1.07509024 0.85282000 -0.00384231 0.00000000
2.93283070 0.63899545 0.00360132 0.00000000
1.23522856 1.15589798 -0.00088196 0.00000000
0.00477126 1.99638362 -0.00085504 0.00000000
3.48282757 0.46759653 0.00100164 0.00000000
0.98737114 1.69160442 -0.00494784 0.00000000
2.47801768 1.27962489 0.00649895 0.00000000
4.35404996 0.77775387 -0.00207996 0.00000000
4.13344201 1.04117187 -0.00078892 0.00000000
2.83077328 0.37670075 -0.00067584 0.00000000
4.19301265 1.94305446 0.00262583 0.00000000
1.64038241 1.31847169 0.00227432 0.00000000
1.87866144 1.43895811 -0.00247534 0.00000000
2.60323346 0.24802483 -0.00116494 0.00000000
1.15649952 1.68496890 -0.00287936 0.00000000
2.03160091 0.77176863 0.00156509 0.00000000
0.00654288 0.75499587 0.00428469 0.00000000
4.15619664 1.95876277 0.00194910 0.00000000
1.16881430 2.13790252 -0.00266014 0.00000000
1.39831162 1.04744532 0.00101709 0.00000000
1.12202027 0.31138389 0.00668806 0.00000000
0.46194474 1.83258084 -0.00078109 0.00000000
0.55465811 1.42368825 -0.00178469 0.00000000
4.00417652 0.96143393 -0.00279427 0.00000000
3.81168803 0.00021040 0.00196082 0.00000000
0.36835137 1.01196435 -0.00363600 0.00000000
2.45477941 1.56818851 0.00410597 0.00000000
0.03357537 1.84459361 0.00186949 0.00000000
1.47437805 0.74882585 0.00315441 0.00000000
0.11497504 1.26231220 -0.00231974 0.00000000
2.75317593 0.15234762 0.00175980 0.00000000
0.11318535 0.73111498 0.00117273 0.00000000
3.14458428 1.44106464 -0.00321527 0.00000000
1.14724423 1.95654196 -0.00076726 0.00000000
3.00216638 0.68109470 -0.00022441 0.00000000
0.42241518 1.02282739 -0.00086893 0.00000000
1.79838081 2.10317339 -0.00030659 0.00000000
0.00546700 1.99825952 0.00217765 0.00000000
3.36415950 0.76214540 0.00171303 0.00000000
2.89373130 0.91871842 0.00142548 0.00000000
2.12957443 1.13758683 -0.00238289 0.00000000
1.78358264 0.15040976 0.00356853 0.00000000
0.69135323 1.94059484 -0.00181268 0.00000000
0.55265132 0.00485054 -0.00102593 0.00000000
2.01500076 1.63086307 0.00084734 0.00000000
2.03022918 1.55588175 -0.00245710 0.00000000
3.98043628 0.74641427 -0.00239220 0.00000000
3.75303757 0.71432574 -0.00176760 0.00000000
4.30638747 0.90991247 -0.00016053 0.00000000
2.73386804 1.45068493 0.00407566 0.00000000
3.15219514 1.13822641 -0.00030642 0.00000000
0.06377517 0.97530676 -0.00147754 0.00000000
4.30211940 1.30511369 0.00080917 0.00000000
0.50059025 0.37192929 0.00144761 0.00000000
2.16258625 0.57970521 0.00180109 0.00000000
4.15425082 1.09276420 0.00223115 0.00000000
4.32408543 1.29690904 -0.00000449 0.00000000
0.44682686 0.47303120 -0.00201352 0.00000000
3.49379573 1.92231697 -0.00447536 0.00000000
0.19254482 1.46796609 0.00320828 0.00000000
3.04321515 0.77671172 0.00049657 0.00000000
2.18301919 1.70400796 0.00122506 0.00000000
0.51443238 0.20036102 0.00085379 0.00000000
1.47101765 1.30545193 -0.00137754 0.00000000
2.31978594 2.03827804 0.00204179 0.00000000
1.95064974 0.91761900 0.00402424 0.00000000
0.21435161 0.73224953 0.00547345 0.00000000
1.24801284 0.10269772 -0.00121204 0.00000000
2.50097166 0.41728386 -0.00099283 0.00000000
2.79745965 1.94658742 0.00122039 0.00000000
2.82029449 1.36035982 -0.00061472 0.00000000
3.05543512 0.71827295 0.00263560 0.00000000
2.15564228 0.17410136 0.00210736 0.00000000
1.44478955 0.25895493 -0.00182471 0.00000000
1.52610772 0.81091247 0.00312503 0.00000000
0.82061906 1.32532129 0.00029282 0.00000000
2.00623167 2.09302692 -0.00313551 0.00000000
0.26808107 1.59008988 0.00131005 0.00000000
0.53896001 1.43230127 -0.00349079 0.00000000
4.24589388 0.11678181 0.00030541 0.00000000
3.20941328 0.03709640 0.00154098 0.00000000
3.60559699 1.91018563 0.00384062 0.00000000
2.61572399 0.39069205 0.00246954 0.00000000
2.31659801 1.66248812 0.00660140 0.00000000
3.92000164 0.73104130 0.00154877 0.00000000
2.50751121 1.63644627 -0.00379294 0.00000000
0.52271802 0.56057251 0.00283497 0.00000000
0.10068087 0.46107899 -0.00410184 0.00000000
0.79705196 1.00861740 -0.00173201 0.00000000
3.56202602 0.36905116 -0.00389499 0.00000000
0.71736831 1.63301610 -0.00039158 0.00000000
2.08762233 1.05559477 0.00125375 0.00000000
0.07344827 1.48300485 -0.00337226 0.00000000
3.94513021 0.77331813 0.00027824 0.00000000
3.10612395 0.17969982 0.00425628 0.00000000
3.12322122 1.66213363 0.00315346 0.00000000
1.69099577 0.13672555 0.00004026 0.00000000
2.38065469 1.76000728 -0.00258739 0.00000000
0.29231624 0.97569916 0.00517565 0.00000000
4.14013104 1.61168433 0.00134161 0.00000000
2.58240041 0.60159490 -0.00079513 0.00000000
1.40032354 1.16051894 0.00285212 0.00000000
0.86940933 0.21999973 0.00034275 0.00000000
4.51316396 0.85966885 0.00276172 0.00000000
0.42498929 0.19660948 -0.00237650 0.00000000
1.21390334 0.90413193 -0.00427110 0.00000000
3.63472358 0.15722360 0.00323600 0.00000000
1.17456305 0.27598923 -0.00124609 0.00000000
1.33743578 1.56132756 -0.00257381 0.00000000
3.68699663 0.31719358 0.00444704 0.00000000
3.40602350 0.34662972 0.00295274 0.00000000
2.86797354 1.10941311 0.00135028 0.00000000
2.71984116 0.92718311 -0.00084051 0.00000000
0.94130097 1.81516716 0.00027519 0.00000000
4.04286209 0.96045041 0.00040550 0.00000000
4.48643270 1.71258009 -0.00060659 0.00000000
1.79645818 1.21255340 -0.00005941 0.00000000
2.39501981 0.97306703 0.00189426 0.00000000
4.04500973 1.25551444 -0.00382525 0.00000000
3.83002492 1.77972175 -0.00152098 0.00000000
4.04187344 1.24022701 -0.00254228 0.00000000
4.03503170 0.43070655 0.00027979 0.00000000
4.25990427 0.73170896 0.00129596 0.00000000
4.20072822 0.90807619 0.00275357 0.00000000
2.77442673 1.98434224 0.00081102 0.00000000
2.74833039 1.85425592 0.00265089 0.00000000
1.12235269 0.55394501 -0.00155956 0.00000000
1.90473547 2.12849397 -0.00320453 0.00000000
2.44648630 1.25407123 -0.00088490 0.00000000
3.35987350 2.06787296 0.00391395 0.00000000
0.81450142 1.83594793 -0.00368937 0.00000000
1.81885147 1.55677316 0.00112203 0.00000000
0.77243383 1.44626922 -0.00497000 0.00000000
0.90136192 0.19949090 -0.00040364 0.00000000
0.14015340 1.35343713 0.00055847 0.00000000
4.21169320 0.62971167 0.00030785 0.00000000
3.99670613 1.41959297 -0.00208190 0.00000000
4.44055773 1.83307892 -0.00436203 0.00000000
0.00191265 0.18166473 0.00042366 0.00000000
3.59376376 0.85994825 -0.00002181 0.00000000
2.18337977 0.15960595 0.00128657 0.00000000
0.55774446 0.40747608 -0.00217234 0.00000000
3.25022885 1.41457372 -0.00268715 0.00000000
2.26881507 1.58168887 0.00054458 0.00000000
4.35532133 1.14982688 -0.00197406 0.00000000
3.94334379 1.62714765 -0.00258792 0.00000000
1.12311815 1.11548291 0.00248136 0.00000000
3.54002650 0.62977802 0.00080922 0.00000000
3.52629906 1.46586654 -0.00162397 0.00000000
3.44218832 2.07831636 -0.00075105 0.00000000
4.12560596 0.19208311 -0.00406783 0.00000000
0.80033111 0.00692165 -0.00253940 0.00000000
3.16574034 0.47805683 0.00056184 0.00000000
2.26879375 1.92299634 -0.00399886 0.00000000
3.89582627 0.00097015 -0.00079880 0.00000000
0.31034228 0.44234727 -0.00198948 0.00000000
4.10773060 0.70267931 -0.00088632 0.00000000
4.46823288 0.02526180 -0.00117856 0.00000000
0.42571456 1.71157381 -0.00063777 0.00000000
2.25746251 0.88875738 0.00421739 0.00000000
3.96061661 2.11450932 0.00338379 0.00000000
1.91803852 1.94249471 0.00073607 0.00000000
1.07744428 0.79741743 -0.00064720 0.00000000
3.88684436 1.21105408 -0.00140852 0.00000000
3.33842766 1.14697139 -0.00229194 0.00000000
0.39215963 1.92619680 -0.00207996 0.00000000
2.72583594 1.46020179 -0.00149473 0.00000000
2.27286473 1.99093307 -0.00235970 0.00000000
4.21727960 1.12194004 0.00122069 0.00000000
4.01983364 1.48387421 0.00008335 0.00000000
1.22865859 2.08016109 -0.00119440 0.00000000
2.90648593 0.31428061 -0.00201261 0.00000000
0.18207327 2.03598369 -0.00388224 0.00000000
2.06701822 1.39445987 -0.00399670 0.00000000
1.41840088 0.75353857 0.00051618 0.00000000
1.25816306 0.37499200 0.00142732 0.00000000
3.71203773 0.95333338 0.00046133 0.00000000
1.46121303 2.05695639 -0.00407213 0.00000000
2.38660786 1.85230012 0.00076234 0.00000000
0.12006564 1.06479206 0.00133273 0.00000000
3.89432111 1.54078481 0.00269109 0.00000000
1.79831002 1.67268682 0.00230187 0.00000000
0.35721411 1.32253854 0.00404316 0.00000000
2.28057928 0.45768040 -0.00155514 0.00000000
0.71924432 0.71263277 0.00173423 0.00000000
2.52350193 1.46132176 0.00001415 0.00000000
0.88135248 0.68924560 -0.00201734 0.00000000
4.02661234 0.17679001 -0.00146850 0.00000000
0.25069737 1.38612425 -0.00339559 0.00000000
3.11905950 2.06690680 0.00082890 0.00000000
1.31809538 0.85195046 -0.00018033 0.00000000
0.62478118 0.02219722 0.00172413 0.00000000
3.91173396 0.67005951 0.00017237 0.00000000
2.33919030 0.47746231 0.00070039 0.00000000
4.16893300 2.04844731 -0.00281101 0.00000000
0.39953270 1.69368113 0.00065449 0.00000000
0.12910301 1.58140644 0.00025911 0.00000000
3.12026512 2.11589030 -0.00440003 0.00000000
3.51898802 1.78131923 0.00203461 0.00000000
0.90466208 0.25659279 -0.00267433 0.00000000
0.88749533 1.33057890 0.00262047 0.00000000
0.57625510 0.21146162 -0.00072501 0.00000000
2.63387961 0.75146476 0.00024712 0.00000000
3.71206654 1.22809575 0.00268025 0.00000000
0.01453698 1.92551850 0.00306456 0.00000000
2.23352530 2.11605713 0.00100730 0.00000000
2.94929394 0.58211581 0.00221320 0.00000000
1.43774685 0.73211300 -0.00437266 0.00000000
4.15378401 0.69229236 0.00179837 0.00000000
0.85452353 2.00197609 0.00122570 0.00000000
0.31673877 0.39425998 -0.00108439 0.00000000
2.38566211 2.07252312 0.00236006 0.00000000
3.42079374 0.08025333 -0.00185144 0.00000000
0.31631837 0.66900685 0.00183427 0.00000000
4.14598422 0.20108893 0.00092275 0.00000000
3.91030326 1.80971494 0.00265489 0.00000000
1.98517755 1.92652295 -0.00215156 0.00000000
1.95735455 0.04114099 -0.00027225 0.00000000
3.96553071 1.11281717 -0.00154210 0.00000000
0.51036363 0.58061193 0.00024607 0.00000000
2.39943496 0.52713947 0.00112506 0.00000000
0.57331498 1.32225888 -0.00161850 0.00000000
2.94625311 1.36207521 0.00096013 0.00000000
4.32416109 1.82605796 -0.00123413 0.00000000
3.32527680 0.94255159 -0.00031404 0.00000000
2.90143064 0.10914984 -0.00122742 0.00000000
2.78489536 1.54973892 0.00098063 0.00000000
3.89780057 1.64494817 -0.00116064 0.00000000
2.38868398 1.58765734 0.00648486 0.00000000
0.59442088 1.12066535 -0.00229173 0.00000000
0.66720718 1.53565903 0.00223845 0.00000000
1.13426983 1.02959960 -0.00315763 0.00000000
2.59373724 0.52954171 0.00003474 0.00000000
1.80133338 1.13049299 -0.00044851 0.00000000
3.49270910 0.69764778 -0.00071425 0.00000000
1.62741551 1.66219162 -0.00216344 0.00000000
3.99862994 0.93859285 -0.00729367 0.00000000
3.79167329 1.02960554 -0.00079364 0.00000000
2.86778253 0.66299201 0.00031563 0.00000000
4.31381762 1.95296321 0.00280204 0.00000000
1.48006914 1.47405115 0.00232049 0.00000000
1.99719869 1.60503901 0.00270376 0.00000000
0.90057599 0.41007142 -0.00240650 0.00000000
4.35927330 0.06571015 -0.00123387 0.00000000
2.42238469 1.03774556 0.00244862 0.00000000
2.86164096 0.70541271 -0.00211843 0.00000000
0.21576889 1.43086564 0.00401253 0.00000000
0.20333675 1.25800798 -0.00179032 0.00000000
0.86101087 1.97294154 -0.00388739 0.00000000
2.36758331 0.49850842 -0.00273251 0.00000000
2.68779699 2.10956948 0.00037731 0.00000000
0.38395908 0.67194378 -0.00449317 0.00000000
2.97256164 1.62930909 -0.00059428 0.00000000
3.83410612 0.24585865 0.00140186 0.00000000
1.63516834 0.34393458 -0.00078009 0.00000000
2.56661544 1.26949156 -0.00195313 0.00000000
3.86977500 0.73265263 0.00055759 0.00000000
4.50025792 0.64139035 0.00195412 0.00000000
3.51413692 1.67528509 -0.00025671 0.00000000
0.76318750 0.20777242 -0.00187819 0.00000000
1.23911226 1.71048407 0.00273942 0.00000000
2.92347467 1.90447914 0.00002720 0.00000000
4.01956701 0.69436778 -0.00046677 0.00000000
2.65583028 0.12557349 0.00188844 0.00000000
3.20122158 0.48025201 -0.00012339 0.00000000
3.95015403 1.60865745 -0.00235968 0.00000000
2.24479673 1.29373859 -0.00421747 0.00000000
1.54967723 0.64268166 0.00259358 0.00000000
0.33486529 0.21228926 -0.00350787 0.00000000
3.69944426 1.01335967 -0.00704414 0.00000000
1.39422462 1.72219887 -0.00309441 0.00000000
0.07668024 0.91681271 0.00312794 0.00000000
2.50404843 0.44265928 -0.00004317 0.00000000
1.00428554 2.14969732 0.00173449 0.00000000
3.54357252 1.30829062 0.00090900 0.00000000
2.29587771 1.81709828 0.00037856 0.00000000
0.87763784 0.03369669 0.00197076 0.00000000
1.31369684 0.25775672 0.00128569 0.00000000
0.67378965 0.03953969 0.00257022 0.00000000
4.56187203 0.88334793 0.00122082 0.00000000
1.89940982 1.53738543 -0.00304278 0.00000000
2.64414359 0.69170083 -0.00204392 0.00000000
1.51231293 0.09008081 -0.00212966 0.00000000
1.67863705 0.00049266 0.00275825 0.00000000
2.27273201 1.95530122 -0.00233997 0.00000000
2.80627431 1.18173490 0.00083705 0.00000000
4.37312869 1.20474461 0.00133769 0.00000000
3.92394447 0.03081557 -0.00042633 0.00000000
2.64590859 0.26113785 -0.00210658 0.00000000
3.69331494 0.47509132 0.00126440 0.00000000
0.84610808 1.76716949 -0.00086162 0.00000000
4.36547892 0.80501867 0.00437501 0.00000000
0.86061573 1.97709607 -0.00274853 0.00000000
4.51132811 1.58831211 -0.00274522 0.00000000
3.79247334 1.85818680 0.00066114 0.00000000
3.39398462 0.08249033 -0.00003808 0.00000000
3.83774524 1.96631173 0.00041856 0.00000000
4.39994202 0.51582546 -0.00308433 0.00000000
3.19876956 2.07792925 0.00199618 0.00000000
0.52343622 1.77956513 -0.00361298 0.00000000
2.06738582 1.43426036 0.00049467 0.00000000
2.29900945 1.55215853 -0.00134958 0.00000000
2.63386681 1.76950346 0.00359421 0.00000000
3.03708513 0.80518703 0.00002267 0.00000000
0.57271738 2.02880546 0.00291481 0.00000000
2.92788540 1.10876066 0.00122399 0.00000000
4.46039005 1.17696563 0.00003240 0.00000000
2.62200106 0.44338781 0.00230576 0.00000000
4.09583013 0.73767838 0.00223383 0.00000000
1.72511759 0.17668406 0.00225315 0.00000000
2.79668635 1.77567275 -0.00110650 0.00000000
0.59280633 1.07281166 -0.00217452 0.00000000
4.40334280 1.34125188 -0.00074112 0.00000000
3.36954517 0.22907760 -0.00526701 0.00000000
2.40609287 2.10963445 -0.00292929 0.00000000
1.52330734 0.87601737 -0.00396381 0.00000000
1.45135630 0.82638239 0.00396652 0.00000000
0.05501150 0.58007173 0.00635946 0.00000000
0.14625110 1.76627878 -0.00083110 0.00000000
0.42684831 1.10284758 -0.00052076 0.00000000
1.99256940 1.42814530 0.00255063 0.00000000
1.35409134 0.33910425 -0.00193715 0.00000000
0.78146082 1.40249126 0.00034107 0.00000000
3.01532936 2.01236729 0.00445168 0.00000000
0.63321028 0.66132724 -0.00266500 0.00000000
3.10429261 1.17276850 -0.00271428 0.00000000
4.29438706 2.02832914 -0.00114311 0.00000000
1.01587794 0.52196009 0.00083780 0.00000000
2.18291229 1.21069572 -0.00316143 0.00000000
2.08060932 1.66085482 -0.00056485 0.00000000
2.24787324 0.11755476 0.00209879 0.00000000
2.47521805 1.76958646 0.00112696 0.00000000
0.81213404 0.27921564 0.00102152 0.00000000
3.26124506 1.26123589 -0.00069288 0.00000000
1.40308038 0.36952473 -0.00073826 0.00000000
4.45108763 1.47349579 -0.00043874 0.00000000
4.17640822 0.45049956 -0.00138595 0.00000000
4.50583841 0.99591567 0.00088621 0.00000000
2.05949573 0.50888125 0.00151896 0.00000000
4.26775306 0.30432860 -0.00042097 0.00000000
2.70611944 0.01492617 0.00305517 0.00000000
3.08151496 2.05688684 0.00191534 0.00000000
3.99032727 0.31898660 0.00059147 0.00000000
4.10303920 1.53956674 -0.00152947 0.00000000
1.39638534 0.26196609 0.00168425 0.00000000
2.20154356 0.86218419 -0.00075880 0.00000000
3.31360850 1.05752481 0.00078890 0.00000000
4.08248610 1.39355336 0.00062742 0.00000000
2.51556027 0.84524695 0.00093741 0.00000000
4.18709177 1.59014110 -0.00148966 0.00000000
1.98506367 0.08290405 0.00489044 0.00000000
2.66373136 1.45723161 -0.00022982 0.00000000
0.72373053 0.95405406 -0.00132577 0.00000000
1.35136227 1.84583302 0.00014193 0.00000000
0.35115121 1.59710634 -0.00098666 0.00000000
4.51902061 0.12446596 -0.00074233 0.00000000
0.21331462 1.54458236 -0.00292340 0.00000000
4.56166474 0.32204635 0.00200572 0.00000000
3.52185919 0.39988138 0.00406583 0.00000000
1.65071551 0.66357478 -0.00045389 0.00000000
3.68301574 0.24337776 0.00393178 0.00000000
4.00720613 1.97208194 0.00630876 0.00000000
1.71401173 0.85626625 0.00174895 0.00000000
0.05971903 0.54866589 -0.00134691 0.00000000
1.78434976 2.13022597 -0.00229334 0.00000000
2.30672844 0.49252348 0.00063929 0.00000000
1.90740616 1.16115458 -0.00282816 0.00000000
0.39365479 0.72618435 0.00037686 0.00000000
4.26975244 1.41464660 -0.00122581 0.00000000
0.34451199 1.25779450 0.00392125 0.00000000
0.33340857 2.03322788 -0.00379659 0.00000000
3.68631276 0.99960623 0.00106418 0.00000000
4.28101659 1.77698763 -0.00015817 0.00000000
0.99936750 0.58550033 -0.00027481 0.00000000
3.88401600 1.65100441 -0.00423422 0.00000000
1.32553265 0.35872591 -0.00300762 0.00000000
2.49534519 1.56791929 -0.00199786 0.00000000
3.43522706 0.36817462 0.00172659 0.00000000
2.31442294 1.90315862 -0.00326358 0.00000000
3.12188781 1.27331916 0.00091416 0.00000000
2.30541460 1.94135734 0.00065447 0.00000000
0.72961706 1.56715309 -0.00137822 0.00000000
1.59255222 0.21653218 -0.00136492 0.00000000
3.49032551 1.56993195 -0.00287540 0.00000000
3.62839209 0.18683517 0.00206155 0.00000000
3.18206301 2.05608216 -0.00094713 0.00000000
0.79921025 0.08344325 -0.00055036 0.00000000
0.29182890 1.03403558 -0.00486694 0.00000000
1.43016800 1.99397100 0.00095044 0.00000000
0.63135115 0.51483472 0.00086174 0.00000000
2.35131049 0.23151440 0.00374342 0.00000000
4.20940477 1.42641025 0.00213680 0.00000000
4.19918744 1.24500767 -0.00058773 0.00000000
1.77770463 1.19556099 -0.00215380 0.00000000
3.74445831 1.71960786 0.00037104 0.00000000
1.15063679 0.05399817 -0.00204530 0.00000000
0.09489341 1.21020987 -0.00027226 0.00000000
2.23816113 1.90525325 0.00168197 0.00000000
0.92886149 1.88333866 0.00129792 0.00000000
0.64988353 0.89147947 -0.00001022 0.00000000
3.37660206 0.76911502 0.00292018 0.00000000
1.78294480 1.40600415 0.00319554 0.00000000
3.02769313 0.57781262 0.00123382 0.00000000
2.31539903 1.54007625 0.00057673 0.00000000
4.39218275 0.92296578 -0.00199101 0.00000000
1.23779340 2.13283165 -0.00306566 0.00000000
1.52739416 1.71737504 -0.00061733 0.00000000
3.95826688 0.30403188 -0.00325735 0.00000000
3.95606039 1.77398180 -0.00186792 0.00000000
4.32475064 0.36776544 -0.00030306 0.00000000
0.36629182 1.19263990 -0.00026229 0.00000000
2.71601918 1.50576375 0.00214730 0.00000000
2.84769269 0.54969357 -0.00249231 0.00000000
0.30186182 1.45590931 0.00288632 0.00000000
1.22590773 1.64187037 -0.00188635 0.00000000
2.45543029 1.34769985 -0.00277029 0.00000000
3.85270337 0.23490926 0.00221802 0.00000000
2.47626846 1.78581539 0.00278581 0.00000000
2.66809015 0.39132394 0.00114653 0.00000000
1.61306690 0.74385406 -0.00361374 0.00000000
3.78177655 0.84833368 0.00273646 0.00000000
3.47570082 0.89739960 0.00196317 0.00000000
0.75600153 0.83610367 0.00021895 0.00000000
2.40113239 0.46508750 -0.00037785 0.00000000
3.15761702 1.08188967 0.00088314 0.00000000
3.79237179 1.26093576 -0.00163955 0.00000000
1.02929755 1.14962250 0.00259472 0.00000000
2.44248712 0.06231874 -0.00406075 0.00000000
2.89900530 1.18402472 0.00071850 0.00000000
1.39871692 1.54883140 -0.00318952 0.00000000
2.42104061 0.69637593 -0.00097104 0.00000000
3.42902542 1.27575217 -0.00080314 0.00000000
0.34092744 1.23386067 0.00118755 0.00000000
4.02965912 0.92646279 0.00001007 0.00000000
0.13888698 0.90046515 0.00064535 0.00000000
0.93221034 1.40592321 0.00118821 0.00000000
4.11786461 0.05273770 0.00204747 0.00000000
3.49644402 0.71074735 0.00282794 0.00000000
2.60088171 0.78904122 -0.00326732 0.00000000
2.94580573 1.47672200 0.00117790 0.00000000
1.61961900 0.40872979 0.00030657 0.00000000
2.64520335 1.69652719 -0.00248940 0.00000000
3.57659443 1.26200814 -0.00202620 0.00000000
2.38126659 1.21685588 -0.00175918 0.00000000
1.60690254 0.64538848 0.00193479 0.00000000
3.70329595 1.05550420 0.00458192 0.00000000
3.17535965 0.83491372 -0.00292129 0.00000000
1.30649263 0.41051750 0.00041274 0.00000000
1.31842827 1.96054554 0.00122140 0.00000000
4.42321466 0.11585808 0.00207013 0.00000000
2.96146735 0.50134388 0.00270848 0.00000000
2.87259461 1.29022209 -0.00672100 0.00000000
3.70523525 1.22638039 0.00239658 0.00000000
3.36182028 1.86849633 0.00307527 0.00000000
4.04959590 0.21436936 0.00188494 0.00000000
3.15969780 0.96580129 -0.00402769 0.00000000
0.00564965 1.00089677 0.00010938 0.00000000
1.47150450 0.70789043 0.00243629 0.00000000
3.84762837 0.51332450 -0.00164348 0.00000000
2.21090705 2.03016989 0.00293227 0.00000000
4.42468664 0.18072087 0.00512244 0.00000000
2.36380371 2.06876933 -0.00566768 0.00000000
2.15979838 2.02302237 -0.00200942 0.00000000
1.27815154 1.10807814 0.00273892 0.00000000
3.64842662 0.53909239 -0.00365431 0.00000000
1.48713250 0.14391098 -0.00028411 0.00000000
1.32930638 0.73625584 -0.00260066 0.00000000
1.78102649 0.76866837 -0.00114511 0.00000000
4.05247987 0.25261218 -0.00474043 0.00000000
0.80416414 1.28369017 -0.00039939 0.00000000
0.30071706 1.74781720 -0.00112943 0.00000000
4.36412618 0.23466057 0.00368868 0.00000000
0.98041515 1.55590669 -0.00530499 0.00000000
1.53251331 1.76526165 0.00043965 0.00000000
2.25398978 0.31402906 -0.00138149 0.00000000
4.25479474 1.45029037 0.00147114 0.00000000
1.71157161 1.04051947 0.00121373 0.00000000
2.12319657 1.66694484 -0.00207136 0.00000000
1.89654796 0.84571198 0.00002174 0.00000000
3.02909000 1.98054050 -0.00248260 0.00000000
1.91612089 0.54046908 0.00326378 0.00000000
3.68177564 0.55391942 0.00262456 0.00000000
0.46443687 0.76520987 0.00126858 0.00000000
1.35033370 0.18360276 -0.00095853 0.00000000
4.49280762 0.42437989 -0.00377792 0.00000000
2.33646051 0.39252945 0.00254576 0.00000000
4.55165702 0.24946128 -0.00441242 0.00000000
2.84052100 1.72027605 -0.00283300 0.00000000
0.24143474 1.57373305 -0.00296013 0.00000000
3.90860886 1.34889258 -0.00046263 0.00000000
2.98855259 1.23428155 0.00238727 0.00000000
3.60847461 1.53844025 0.00136240 0.00000000
2.45787394 1.43541453 -0.00069775 0.00000000
1.66893187 2.10364721 -0.00183554 0.00000000
0.48189319 1.51581236 -0.00032442 0.00000000
3.37299919 0.02168656 0.00410610 0.00000000
3.51346043 0.32071391 -0.00105612 0.00000000
2.17269903 1.99259190 0.00312273 0.00000000
3.81850536 1.88309899 -0.00631891 0.00000000
2.09837338 1.52941845 0.00554425 0.00000000
2.18443755 0.68159991 -0.00071166 0.00000000
0.32562613 0.81664537 0.00354931 0.00000000
2.98726542 0.13581309 -0.00225357 0.00000000
1.35023770 1.44311425 -0.00531841 0.00000000
3.68107483 1.76556137 -0.00161123 0.00000000
4.10835197 0.52517237 -0.00058104 0.00000000
0.03095023 0.08042739 -0.00094142 0.00000000
3.46117862 0.99681859 0.00064718 0.00000000
1.67825425 0.71118504 0.00023495 0.00000000
1.54553734 0.07456945 -0.00031977 0.00000000
0.70506330 1.92739100 0.00276948 0.00000000
2.90095234 0.07904289 0.00129632 0.00000000
0.07705189 0.29134820 -0.00197138 0.00000000
4.21424350 1.35882510 0.00173917 0.00000000
4.54910032 1.91197107 -0.00041214 0.00000000
2.17197814 1.75588606 0.00125338 0.00000000
2.36459349 0.37312049 0.00241628 0.00000000
1.58941005 0.46928336 -0.00029948 0.00000000
2.84654606 1.25561364 0.00182253 0.00000000
3.25520507 1.40652166 -0.00104918 0.00000000
3.74954310 1.11883302 0.00291840 0.00000000
3.83879800 0.32201065 -0.00343058 0.00000000
1.78007212 0.25869961 0.00018080 0.00000000
2.97588247 0.59855352 0.00291334 0.00000000
0.46357382 0.15274792 -0.00184781 0.00000000
0.65756280 1.68274296 -0.00186051 0.00000000
1.50675804 1.67517880 -0.00151524 0.00000000
0.67094797 0.33722130 0.00057692 0.00000000
0.64635315 0.54244064 0.00254484 0.00000000
2.17695235 1.94955609 0.00268617 0.00000000
1.72279770 2.11700076 0.00174398 0.00000000
2.81583557 2.13641185 -0.00171189 0.00000000
2.48692405 1.02994294 0.00509976 0.00000000
4.17018939 0.05141551 0.00037790 0.00000000
4.02187668 1.56788762 -0.00680648 0.00000000
2.85265283 1.08942593 -0.00178441 0.00000000
0.07063404 1.68866619 -0.00268648 0.00000000
0.14265154 0.09623791 0.00320913 0.00000000
0.81453758 0.47302916 -0.00288389 0.00000000
3.95527124 1.33851236 0.00162594 0.00000000
3.07111859 0.31700237 0.00054280 0.00000000
1.17564454 1.32225354 -0.00084202 0.00000000
2.97172132 2.13710558 0.00346146 0.00000000
4.37503412 1.82429983 0.00060715 0.00000000
4.39445878 1.80450509 -0.00191935 0.00000000
1.83829557 1.14227806 0.00047837 0.00000000
2.75865377 1.01692716 -0.00230051 0.00000000
2.20125616 1.74021825 0.00065661 0.00000000
0.47947070 0.82564157 0.00276951 0.00000000
2.52794744 1.69995792 0.00151097 0.00000000
3.07125615 1.16331954 -0.00130234 0.00000000
0.06931075 1.41270170 0.00076529 0.00000000
2.12135502 1.04188840 -0.00086760 0.00000000
2.48053285 0.99598110 -0.00068956 0.00000000
0.23253783 1.84358846 0.00389695 0.00000000
0.81778133 1.89408852 -0.00002140 0.00000000
0.95060514 0.54266898 0.00182200 0.00000000
1.97330671 2.03309880 -0.00223856 0.00000000
2.18779271 0.57026897 -0.00065855 0.00000000
1.26214303 0.53688452 -0.00145456 0.00000000
0.66849174 1.67485290 -0.00425820 0.00000000
1.83836609 1.45285338 -0.00133464 0.00000000
2.18294988 0.71731483 0.00163276 0.00000000
2.54514499 1.05831017 -0.00327288 0.00000000
4.44163395 1.48114121 0.00242194 0.00000000
3.30825990 0.61575863 -0.00157082 0.00000000
1.65156236 0.93657167 -0.00410258 0.00000000
3.64856887 1.70504742 0.00230924 0.00000000
1.25543482 0.61309998 -0.00057988 0.00000000
2.97874016 1.64416027 0.00283893 0.00000000
1.24379742 0.60362020 0.00023232 0.00000000
0.15839268 0.35717193 -0.00629511 0.00000000
0.23948356 0.25768249 0.00514543 0.00000000
2.73192566 1.44826361 -0.00222139 0.00000000
3.83510298 0.19214425 -0.00168727 0.00000000
0.58761099 1.48771718 0.00075565 0.00000000
0.64326324 1.48306366 -0.00208354 0.00000000
3.80859942 0.05457091 0.00200824 0.00000000
1.87677712 1.39918769 0.00131474 0.00000000
2.50626005 1.82832435 0.00200820 0.00000000
2.88570105 2.05988163 0.00083818 0.00000000
2.49710809 0.95856552 -0.00115703 0.00000000
3.28832059 0.53600805 -0.00129774 0.00000000
3.37032753 0.49722486 0.00739028 0.00000000
2.03743082 1.51833420 -0.00278125 0.00000000
0.78554275 0.98638486 -0.00070111 0.00000000
4.17053505 0.37889406 0.00376406 0.00000000
1.07588672 2.14104215 -0.00215629 0.00000000
0.39986359 0.15139016 -0.00028379 0.00000000
0.95112844 1.80305420 -0.00037102 0.00000000
3.51983774 2.06095825 0.00060134 0.00000000
0.30756916 0.78915089 -0.00047100 0.00000000
3.40189985 0.05408389 -0.00175885 0.00000000
0.31656653 2.04168101 -0.00003802 0.00000000
0.25489137 0.92806225 -0.00276715 0.00000000
4.03325385 2.08761514 0.00216753 0.00000000
0.37816003 2.02990038 0.00598084 0.00000000
0.93366047 1.59522281 -0.00263140 0.00000000
3.11589656 0.84870235 0.00106301 0.00000000
1.24442444 0.14450105 -0.00137149 0.00000000
0.84913628 0.46081382 0.00083131 0.00000000
0.17345645 1.56827283 -0.00066450 0.00000000
2.99251322 1.20316072 -0.00215081 0.00000000
1.13219246 1.60296740 0.00066399 0.00000000
1.89906246 2.10633604 -0.00139258 0.00000000
3.13193735 0.05854933 0.00140717 0.00000000
2.86822295 1.43011757 -0.00193405 0.00000000
4.53519608 1.08145454 0.00215990 0.00000000
0.49442301 0.85096280 -0.00127031 0.00000000
2.61711342 2.13650877 -0.00556877 0.00000000
0.48040934 1.64116431 -0.00037341 0.00000000
4.39906087 1.65917241 0.00459863 0.00000000
1.80512673 1.52923213 -0.00024214 0.00000000
0.28232000 2.04979762 -0.00124630 0.00000000
2.71730443 0.53144693 -0.00315348 0.00000000
3.80319435 0.16893034 0.00112576 0.00000000
4.14454921 1.88297003 0.00093647 0.00000000
3.92268477 1.69189348 -0.00126248 0.00000000
2.05920753 1.88480907 0.00160466 0.00000000
0.91609572 2.09007747 -0.00168896 0.00000000
2.99277016 0.25859862 -0.00327215 0.00000000
0.74217189 0.68297466 -0.00344441 0.00000000
0.50248415 0.87635670 -0.00061859 0.00000000
0.35124623 0.72928608 0.00040698 0.00000000
3.32352329 1.68966233 -0.00204600 0.00000000
1.77034745 0.52119987 0.00235956 0.00000000
0.74027009 0.18356798 -0.00205848 0.00000000
0.27356515 1.63534214 -0.00086111 0.00000000
1.64411341 0.72751361 -0.00008529 0.00000000
3.71905330 1.41044137 0.00152003 0.00000000
1.45905559 1.14384494 0.00218909 0.00000000
1.82871490 1.41938992 0.00244941 0.00000000
2.49843916 0.06112657 0.00204602 0.00000000
3.25777192 0.77840895 -0.00333668 0.00000000
0.42337802 1.57463932 0.00023043 0.00000000
4.03550838 0.02854730 -0.00332234 0.00000000
0.31838686 0.00160859 -0.00283282 0.00000000
2.30613145 1.78621347 0.00181984 0.00000000
2.28929476 0.87973066 0.00111896 0.00000000
2.44117442 0.84862039 0.00181260 0.00000000
1.00937504 1.86526681 0.00075278 0.00000000
2.83881796 0.86795229 0.00104694 0.00000000
2.73439945 0.60018485 0.00065269 0.00000000
3.22196525 0.00963923 0.00168150 0.00000000
3.11426644 1.33830485 -0.00080541 0.00000000
4.52754903 0.37587374 0.00323433 0.00000000
1.87747613 0.26182965 -0.00148816 0.00000000
1.24149891 1.26154938 -0.00405055 0.00000000
2.41356232 1.67090015 0.00211565 0.00000000
2.90867355 0.64460943 0.00143394 0.00000000
3.30640164 2.01347051 0.00016933 0.00000000
2.66401542 1.89338947 0.00536896 0.00000000
4.07389204 1.91601912 0.00290038 0.00000000
2.28362746 2.14230864 -0.00221140 0.00000000
