2.667588 2.243343 0.003912 0.0
0.614506 0.615732 0.000245 0.0
1.447019 0.183496 -0.002248 0.0
2.416595 1.182875 0.004514 0.0
0.002992 2.216079 -0.003194 0.0
1.944084 1.082961 0.000517 0.0
1.070696 0.227692 0.001826 0.0
0.549345 0.566300 -0.001737 0.0
1.779744 0.700148 -0.003157 0.0
0.640447 0.641184 -0.000141 0.0
0.548361 0.449050 -0.002837 0.0
3.257791 1.807189 0.001294 0.0
1.837058 0.300098 -0.003030 0.0
3.477049 0.205841 -0.000238 0.0
3.948986 2.436026 0.000930 0.0
2.323875 1.051485 -0.001364 0.0
1.796375 0.098188 -0.001284 0.0
0.339865 0.799027 -0.002634 0.0
3.248209 1.989840 0.000167 0.0
1.040833 0.045992 0.002477 0.0
2.696388 1.397877 -0.001751 0.0
0.471539 2.274528 -0.004496 0.0
3.305329 2.375344 -0.000316 0.0
3.525857 1.255393 0.000609 0.0
3.920702 0.227070 0.002282 0.0
1.717175 0.616694 -0.001058 0.0
2.632645 0.739460 -0.003320 0.0
2.221136 0.805918 0.003914 0.0
0.157610 1.050219 -0.002100 0.0
3.186482 2.177138 -0.000691 0.0
3.165201 1.562515 -0.000125 0.0
3.141387 0.341094 0.001204 0.0
3.493215 1.881443 0.001897 0.0
0.718340 2.014541 0.003918 0.0
1.670070 0.318765 -0.003809 0.0
3.405065 0.138113 -0.000744 0.0
2.823975 2.222007 0.001526 0.0
2.991402 1.885076 0.003467 0.0
3.326532 2.381184 0.003464 0.0
0.068831 2.263985 -0.003779 0.0
2.325661 0.252601 0.000300 0.0
2.058917 0.667368 0.001676 0.0
1.987534 1.507234 -0.001074 0.0
0.582114 1.839198 -0.003967 0.0
3.212620 0.652323 -0.000340 0.0
0.334778 0.841787 0.001719 0.0
0.718959 1.141033 0.002449 0.0
3.921566 0.747123 0.003139 0.0
1.605988 0.269335 0.001021 0.0
2.709202 1.466295 0.002321 0.0
2.948826 2.374432 -0.002651 0.0
2.526060 1.595536 -0.000898 0.0
2.051892 2.237271 -0.002427 0.0
1.922724 1.064645 -0.000167 0.0
1.490710 0.053513 -0.001811 0.0
3.809408 1.069021 0.000453 0.0
2.273360 2.003162 -0.001849 0.0
0.254355 0.318602 0.001859 0.0
3.305932 0.874043 0.000713 0.0
3.087435 1.886918 -0.001217 0.0
2.488985 1.141995 -0.001489 0.0
2.126990 0.137000 0.000739 0.0
2.947294 1.096724 -0.000916 0.0
0.553815 1.721084 -0.000469 0.0
1.271963 1.273930 0.001211 0.0
0.304635 1.560715 0.000060 0.0
0.156988 0.348765 -0.004101 0.0
3.184070 2.107854 0.002450 0.0
-0.000805 1.913172 0.003308 0.0
3.436798 1.703179 -0.003672 0.0
2.253270 0.460128 0.004953 0.0
3.836866 2.210985 -0.001205 0.0
2.188106 0.271356 0.000272 0.0
0.157602 0.566735 0.003692 0.0
3.985209 2.191178 -0.003491 0.0
3.251609 1.396582 0.002827 0.0
1.204340 1.431634 0.000698 0.0
0.313178 2.142048 -0.000905 0.0
2.402137 0.528203 0.003120 0.0
1.540595 1.230234 0.000819 0.0
1.188125 0.594190 0.002535 0.0
1.318809 0.143167 0.002606 0.0
3.235732 0.766416 0.003055 0.0
1.026719 0.224427 0.003963 0.0
0.985153 1.511529 0.000614 0.0
1.850488 1.356520 0.000397 0.0
2.193046 1.649014 0.001642 0.0
2.768503 0.194906 0.000545 0.0
0.229104 0.032113 0.002566 0.0
2.735846 0.139490 -0.001190 0.0
1.133641 1.357336 0.002019 0.0
0.409752 0.924678 0.006244 0.0
2.490704 1.145365 0.000365 0.0
0.888065 0.437299 0.003608 0.0
3.558596 0.021578 -0.002859 0.0
2.632836 2.444453 0.003038 0.0
1.038873 0.778001 0.000220 0.0
2.323751 1.783569 -0.000056 0.0
0.711695 0.562051 0.003021 0.0
2.710670 2.275122 -0.001371 0.0
3.493966 0.492982 -0.001004 0.0
1.470601 0.327897 0.001469 0.0
0.223757 0.128571 0.000565 0.0
1.217272 1.245201 -0.001622 0.0
2.145320 0.427035 -0.002067 0.0
0.541698 0.138461 -0.000729 0.0
0.037165 2.353367 -0.005997 0.0
0.894167 2.488700 -0.000697 0.0
3.130334 0.775635 -0.000932 0.0
1.950590 1.770662 0.002743 0.0
3.993792 1.692395 -0.005522 0.0
0.845766 0.768093 0.000888 0.0
3.208993 2.482827 -0.000664 0.0
2.202414 1.813124 0.001576 0.0
0.737760 0.845020 -0.000775 0.0
1.402100 0.068249 0.001633 0.0
0.689069 1.516904 -0.001312 0.0
3.811358 0.415258 0.001253 0.0
2.316672 1.086833 0.000027 0.0
1.195265 1.085456 -0.001579 0.0
0.443539 2.071779 0.000241 0.0
1.371689 1.577707 0.000889 0.0
3.227644 2.196421 0.001675 0.0
3.130637 0.425242 -0.000999 0.0
1.926610 1.277997 0.000525 0.0
0.836978 0.840100 0.001033 0.0
3.053538 1.696120 0.001266 0.0
3.809249 1.443791 0.002369 0.0
0.943420 0.716689 -0.006281 0.0
3.662889 1.762204 -0.001478 0.0
3.669193 2.170758 -0.001145 0.0
1.706512 0.978857 -0.003643 0.0
3.017793 1.083056 -0.001643 0.0
0.416731 0.184403 -0.000282 0.0
0.117515 0.179085 0.003440 0.0
0.323381 0.422644 -0.001218 0.0
2.976405 0.574619 -0.002271 0.0
2.413778 1.232959 0.003005 0.0
0.760711 1.666356 0.006169 0.0
0.137168 1.760581 0.000727 0.0
4.029838 0.888973 0.003572 0.0
0.798263 2.130243 -0.000758 0.0
1.376981 1.275084 0.004236 0.0
1.925399 2.024749 0.000285 0.0
1.062633 1.326916 -0.001617 0.0
3.011440 0.678049 0.000406 0.0
1.337564 1.840446 -0.000557 0.0
2.487905 2.094677 -0.000266 0.0
3.050116 0.765343 -0.000488 0.0
3.524776 0.750300 0.001797 0.0
3.749498 1.599476 -0.001284 0.0
1.556604 2.103864 -0.003422 0.0
2.893113 2.428486 -0.005478 0.0
1.313018 1.858025 -0.000542 0.0
2.920047 1.413354 0.001315 0.0
0.994569 1.959365 -0.004894 0.0
0.598519 0.415312 -0.003292 0.0
2.011081 0.152161 0.000337 0.0
1.072212 1.270508 0.002375 0.0
1.163970 1.382783 0.000349 0.0
3.960951 1.880021 0.001658 0.0
0.912538 1.714405 -0.000973 0.0
1.757587 1.876270 -0.003393 0.0
2.771639 1.136070 0.002278 0.0
1.279409 2.121555 0.001438 0.0
1.817608 0.328777 -0.003075 0.0
0.703755 0.941049 -0.001234 0.0
3.156375 0.697815 0.000063 0.0
0.246868 1.308490 -0.001072 0.0
3.291822 1.081306 0.000781 0.0
2.711335 0.301880 -0.000196 0.0
3.399696 1.937713 0.003718 0.0
3.083196 1.249718 -0.004909 0.0
2.245358 1.059635 -0.000788 0.0
3.901527 0.774494 0.003210 0.0
3.093910 1.979722 0.003228 0.0
0.938064 1.365233 0.003012 0.0
2.385479 2.354928 -0.005840 0.0
3.377998 2.438267 -0.003858 0.0
3.856773 1.141769 0.001051 0.0
0.781268 1.520470 -0.000952 0.0
0.558998 1.746205 -0.001076 0.0
1.214496 2.179988 -0.001600 0.0
3.782475 0.874428 -0.005134 0.0
1.678109 0.018039 0.003113 0.0
1.530919 1.989686 -0.000336 0.0
2.756893 1.208391 0.001406 0.0
3.049976 2.000189 0.000674 0.0
1.876587 0.749529 0.003374 0.0
1.291268 2.424671 -0.000066 0.0
3.792133 0.658890 -0.002419 0.0
1.530664 2.449886 0.000004 0.0
2.696667 1.526569 0.001133 0.0
3.646161 0.862183 -0.000176 0.0
0.762162 1.760276 -0.001037 0.0
1.794704 1.231757 0.003180 0.0
1.999144 0.057316 -0.000273 0.0
1.976943 2.137457 0.004085 0.0
1.640626 0.918871 -0.003640 0.0
1.018698 0.351604 0.000634 0.0
3.360677 0.405691 0.001389 0.0
2.638015 0.642619 0.000580 0.0
3.291137 1.576438 0.000148 0.0
1.002852 0.968354 -0.004475 0.0
1.065767 1.158609 0.000625 0.0
1.490085 1.878462 -0.001016 0.0
3.272346 1.195848 -0.000260 0.0
0.308321 2.246210 -0.001137 0.0
3.296945 0.492408 -0.000480 0.0
3.085466 1.206538 -0.002652 0.0
1.597193 0.887854 0.003704 0.0
0.398944 2.008039 0.001318 0.0
3.148429 1.923440 -0.003363 0.0
2.649242 1.213302 -0.001891 0.0
2.147779 1.187782 -0.001920 0.0
2.687447 0.746824 -0.002557 0.0
0.336620 0.780196 0.000294 0.0
2.548340 1.279352 -0.000645 0.0
2.117753 0.656680 0.001015 0.0
0.564839 0.780339 0.003210 0.0
3.984234 1.678280 -0.005953 0.0
2.307235 0.024839 0.000982 0.0
1.692539 0.632148 -0.004807 0.0
0.231732 0.649462 -0.003494 0.0
1.955420 1.407696 -0.000268 0.0
1.755220 1.976677 -0.003296 0.0
1.662140 0.347464 0.001678 0.0
2.124482 1.490048 0.000489 0.0
1.070633 2.253514 0.001680 0.0
2.479579 1.164050 0.003798 0.0
3.486484 0.577131 -0.000753 0.0
0.498065 1.133221 0.000559 0.0
0.736423 2.336334 -0.000081 0.0
1.135338 2.096198 0.004273 0.0
0.676182 2.139965 -0.002539 0.0
0.200159 1.438661 -0.000504 0.0
1.916619 1.990084 -0.001585 0.0
1.629453 2.169632 0.000483 0.0
4.045915 2.408111 -0.005454 0.0
4.048681 1.252712 -0.001801 0.0
1.619249 0.035735 -0.000562 0.0
2.090273 1.307111 -0.002172 0.0
0.337443 1.152932 -0.001994 0.0
2.985575 2.033783 -0.002732 0.0
3.621347 0.207705 -0.000356 0.0
1.770655 0.511962 0.001924 0.0
3.167724 0.611686 -0.001645 0.0
2.798374 0.992003 0.001039 0.0
3.961625 2.469433 0.002421 0.0
2.439620 1.053981 -0.003027 0.0
1.034530 0.482060 -0.002736 0.0
1.958102 1.592717 0.000797 0.0
3.465520 2.126589 -0.002797 0.0
2.970461 2.156029 -0.001708 0.0
2.476360 2.272569 0.002041 0.0
2.816212 1.081591 0.001566 0.0
0.619186 1.871118 -0.000970 0.0
0.006783 0.199628 -0.000777 0.0
3.712922 0.547102 -0.001025 0.0
3.262491 0.468661 0.000036 0.0
3.169670 1.716868 -0.003206 0.0
2.625164 0.252906 -0.004179 0.0
0.019232 0.747780 -0.005908 0.0
1.689858 1.055622 0.003997 0.0
2.509802 0.197410 0.001550 0.0
3.278031 1.786842 0.001765 0.0
0.502795 1.816876 -0.000537 0.0
3.521190 2.142421 -0.002781 0.0
1.580353 1.522724 0.002872 0.0
3.027116 0.368647 0.001663 0.0
0.727964 1.453319 0.000531 0.0
3.379345 0.704982 -0.000651 0.0
0.674250 2.379895 0.004015 0.0
3.735526 1.344661 -0.000056 0.0
0.266341 0.486387 -0.003949 0.0
1.038487 0.988125 0.003091 0.0
0.369674 0.166566 -0.000353 0.0
1.131795 1.126718 0.001440 0.0
0.857299 1.024966 -0.003061 0.0
0.192178 0.037346 -0.002917 0.0
2.366656 0.213844 0.002408 0.0
1.386143 1.250408 -0.004558 0.0
3.810217 1.094736 -0.001272 0.0
3.594928 1.416247 0.002564 0.0
2.098589 2.431062 -0.000417 0.0
1.613649 1.718644 0.001178 0.0
3.509683 1.421029 -0.002078 0.0
1.995906 0.959764 0.000264 0.0
2.723972 0.137757 -0.001474 0.0
2.412615 0.156644 0.000477 0.0
1.198858 2.328494 0.000655 0.0
3.196862 2.448761 0.001601 0.0
2.571995 2.170363 0.001192 0.0
2.325602 0.579484 0.000107 0.0
0.552547 1.905933 0.000254 0.0
0.577344 0.990727 0.000312 0.0
0.263861 0.168198 0.001892 0.0
0.916393 1.177876 0.001063 0.0
2.551986 1.498745 0.005393 0.0
3.034878 1.114501 0.004294 0.0
3.602469 0.158191 0.000727 0.0
1.256488 2.348900 -0.002364 0.0
0.505166 1.737252 0.002545 0.0
1.391281 0.485109 0.003886 0.0
2.198211 1.889786 -0.000110 0.0
1.370741 1.364183 0.004228 0.0
1.426378 1.675286 -0.002746 0.0
0.347525 1.259173 -0.002095 0.0
2.683784 1.061293 -0.004056 0.0
1.242544 0.711127 -0.001565 0.0
2.455748 2.228948 0.001691 0.0
2.119254 2.285796 0.000578 0.0
0.469043 1.099416 -0.003454 0.0
4.108513 0.759522 -0.002039 0.0
0.228959 1.924910 0.003162 0.0
0.684033 1.923767 -0.002386 0.0
0.876721 2.311667 -0.002167 0.0
3.824791 0.368146 -0.003483 0.0
1.168077 0.434377 -0.003648 0.0
3.616561 1.159048 -0.002052 0.0
0.768158 2.293637 0.002172 0.0
3.265482 1.990632 -0.002219 0.0
0.036881 2.055555 -0.004040 0.0
1.059629 1.869943 -0.000471 0.0
2.195294 2.210288 -0.000016 0.0
3.202124 1.450646 -0.001710 0.0
2.435828 1.232557 -0.000684 0.0
2.333537 1.600622 -0.000909 0.0
0.583583 0.562081 0.003153 0.0
3.575860 0.991322 -0.001220 0.0
3.053306 0.830096 -0.003409 0.0
0.044181 0.331306 0.000783 0.0
2.204819 1.582467 0.002247 0.0
2.298783 1.263036 0.005856 0.0
2.586243 0.283866 0.003412 0.0
3.986010 0.695635 0.001267 0.0
3.581001 0.076856 -0.005940 0.0
4.029828 1.254827 0.000205 0.0
0.991350 2.271568 -0.001143 0.0
3.999772 1.103901 -0.003875 0.0
2.162182 2.459147 -0.002204 0.0
1.822638 0.145737 -0.001255 0.0
3.314888 0.535923 0.001338 0.0
2.507462 1.873816 -0.003163 0.0
0.357042 1.848375 -0.000328 0.0
1.934856 0.039310 -0.000351 0.0
1.133320 1.817334 0.000988 0.0
3.863217 1.467428 0.000145 0.0
1.141116 2.207712 0.000136 0.0
1.475741 1.830675 -0.000661 0.0
0.701183 2.247555 -0.003579 0.0
1.901160 0.223289 0.000261 0.0
3.250000 0.544246 0.001925 0.0
3.106324 0.157312 0.005213 0.0
2.351467 2.312044 0.000034 0.0
1.014688 1.780229 0.004638 0.0
2.862295 0.818593 0.005114 0.0
3.593880 2.251054 0.003120 0.0
1.914861 1.452551 -0.001293 0.0
3.978553 0.894360 -0.000243 0.0
1.502737 0.194895 0.000776 0.0
2.396936 0.763952 -0.001933 0.0
0.726818 0.102242 -0.001969 0.0
3.005393 2.368038 0.003040 0.0
3.861367 0.106404 -0.002415 0.0
1.659038 1.096974 0.002322 0.0
3.690826 0.529365 0.000276 0.0
3.554860 2.275469 -0.000555 0.0
3.882964 0.188794 0.005592 0.0
1.736241 2.442344 -0.003756 0.0
1.945894 2.460635 -0.003002 0.0
0.311005 2.376034 -0.005966 0.0
3.500991 0.136335 0.002654 0.0
2.734319 0.391666 0.003777 0.0
2.499463 1.879433 -0.001390 0.0
2.159244 1.324720 0.001488 0.0
1.599998 1.590269 -0.001450 0.0
2.037817 0.974078 -0.003586 0.0
0.288508 2.221165 0.001858 0.0
0.183366 0.156769 -0.001383 0.0
4.086543 0.960114 0.002273 0.0
0.730958 1.388999 -0.000355 0.0
3.609612 0.311181 -0.002435 0.0
1.105441 2.418730 0.000097 0.0
2.317110 2.408874 0.003584 0.0
3.946518 1.939918 0.000779 0.0
1.614516 0.842898 0.002011 0.0
2.631050 2.410219 -0.000443 0.0
0.659645 1.490297 0.000489 0.0
0.979493 0.186184 -0.001105 0.0
3.254603 0.469556 0.001044 0.0
1.327185 1.048579 0.003161 0.0
0.687559 0.870356 0.003129 0.0
0.244339 0.872183 -0.000637 0.0
2.845514 1.188490 -0.000944 0.0
1.469402 2.119003 0.001601 0.0
1.281010 2.110264 -0.001944 0.0
1.966294 1.677751 0.001304 0.0
3.400744 1.523996 -0.000721 0.0
2.868197 1.778491 -0.001637 0.0
0.632325 2.436509 -0.000924 0.0
2.206644 0.947774 0.001962 0.0
3.609188 1.682765 -0.000124 0.0
1.306507 0.103056 0.002999 0.0
1.156398 1.368066 -0.000561 0.0
0.174834 1.797577 -0.004042 0.0
0.289835 0.241793 0.000482 0.0
2.597044 0.200569 -0.001564 0.0
2.580211 1.579454 -0.002274 0.0
2.994689 2.329408 0.001591 0.0
1.759707 1.512680 0.000402 0.0
2.742227 1.837060 0.004155 0.0
3.246580 1.748910 0.001418 0.0
1.109941 0.230746 0.002247 0.0
3.349835 1.690128 -0.000318 0.0
1.447216 1.373649 0.003065 0.0
1.055509 1.869080 -0.001957 0.0
2.111213 1.088757 -0.002023 0.0
2.047798 2.195166 0.001849 0.0
3.918422 0.757746 0.001511 0.0
2.294221 1.468062 0.000286 0.0
3.295274 1.191450 0.003167 0.0
1.547540 0.931248 -0.001939 0.0
1.312965 1.115693 -0.001009 0.0
4.007656 2.079805 -0.001246 0.0
2.955358 1.166148 -0.005421 0.0
2.646172 0.671928 -0.000249 0.0
3.223607 1.446062 0.002458 0.0
0.847776 1.842476 0.002078 0.0
0.808455 0.425008 0.000061 0.0
0.651419 2.211011 0.007122 0.0
3.584868 0.991131 -0.001188 0.0
0.035522 1.582287 -0.002939 0.0
0.860914 0.698487 0.000847 0.0
1.179405 2.087023 -0.001259 0.0
1.665960 1.242648 -0.002035 0.0
0.391548 2.098470 -0.004998 0.0
1.352779 1.501129 0.000213 0.0
0.647386 1.959566 -0.002390 0.0
2.897862 2.487131 0.000124 0.0
1.910562 0.266798 -0.001127 0.0
1.460294 2.264302 -0.003096 0.0
2.563715 0.712258 0.002422 0.0
3.265520 1.658977 0.000514 0.0
1.430889 0.685022 0.001849 0.0
1.374584 0.470370 -0.001548 0.0
2.057649 0.940945 0.003194 0.0
1.677849 2.319477 -0.001835 0.0
3.231687 0.496981 -0.001318 0.0
0.978842 1.153188 0.001638 0.0
0.009215 2.453832 0.000642 0.0
3.289293 1.693929 -0.003660 0.0
3.341675 2.159394 0.000006 0.0
2.479425 1.918905 0.000894 0.0
1.315975 0.213231 0.001420 0.0
3.782034 1.086067 0.001671 0.0
0.049010 2.233750 -0.004771 0.0
0.370059 0.731743 -0.000730 0.0
1.649734 2.121152 0.000406 0.0
1.524540 0.961164 -0.000531 0.0
3.177968 1.495164 -0.004213 0.0
3.531147 0.890825 0.001287 0.0
0.082487 0.559014 0.000190 0.0
0.791624 1.016997 0.003081 0.0
0.023916 0.464379 0.001160 0.0
1.322393 1.339661 -0.000956 0.0
0.438187 0.935829 0.000953 0.0
0.363343 1.227256 -0.000635 0.0
1.113034 0.982815 0.002428 0.0
2.351262 2.451983 0.002671 0.0
3.241130 1.085203 -0.003809 0.0
2.611714 1.462040 0.001390 0.0
0.865926 0.063008 0.001938 0.0
0.928041 1.681803 0.000201 0.0
2.386533 2.418938 0.000276 0.0
2.848821 2.287927 -0.002610 0.0
3.842813 2.326038 -0.002726 0.0
1.850314 1.242562 -0.000895 0.0
0.054957 0.186182 -0.003037 0.0
3.152285 2.224989 -0.002177 0.0
2.795405 1.480626 0.001645 0.0
0.336518 0.016176 0.003294 0.0
1.822663 0.862923 -0.001162 0.0
2.586018 0.036773 -0.000686 0.0
1.032058 2.031080 0.003351 0.0
1.329971 1.030344 -0.002134 0.0
1.207734 0.536788 0.001138 0.0
2.208305 0.722850 -0.002003 0.0
3.709425 0.539958 0.000558 0.0
3.251256 0.013598 0.000997 0.0
0.531367 0.741206 0.001981 0.0
0.186825 1.210880 0.004096 0.0
0.743401 1.824080 0.002803 0.0
4.030490 0.141043 0.001074 0.0
0.834366 2.324619 0.000876 0.0
3.351104 0.326949 -0.000897 0.0
1.719987 1.169420 -0.003258 0.0
3.587649 0.852125 0.001238 0.0
1.834488 1.793171 0.000859 0.0
3.276949 0.638732 -0.001253 0.0
0.727537 1.092475 0.000094 0.0
2.087773 2.129160 0.001128 0.0
3.853586 2.393288 0.002775 0.0
3.808613 0.410717 -0.001678 0.0
2.968081 1.469501 0.003691 0.0
1.584347 0.481816 -0.003990 0.0
0.420715 1.943440 0.001396 0.0
1.943035 0.367466 0.000260 0.0
2.551688 0.834393 0.000626 0.0
3.040029 0.904612 -0.005101 0.0
0.054087 0.874363 -0.001668 0.0
2.309966 0.422020 -0.002102 0.0
1.976213 2.440094 -0.000157 0.0
1.258820 0.225707 0.000761 0.0
2.552678 1.175274 -0.005075 0.0
1.620672 1.970417 -0.000507 0.0
2.028071 2.460348 -0.004914 0.0
2.099994 1.755656 0.000895 0.0
2.372014 2.438861 0.001656 0.0
3.298073 2.232591 0.001335 0.0
2.881722 0.057093 -0.002028 0.0
3.722649 2.374802 -0.000294 0.0
3.316256 0.332495 -0.001600 0.0
1.415557 1.682655 -0.000563 0.0
3.453128 2.298854 -0.003118 0.0
2.588598 1.253920 0.000438 0.0
2.642357 1.647649 -0.003077 0.0
2.356018 0.402535 -0.002161 0.0
2.964746 1.930561 0.002174 0.0
1.991224 1.461811 -0.003381 0.0
0.340692 1.402702 0.000165 0.0
3.219800 0.438436 -0.000507 0.0
0.115531 0.039301 -0.004296 0.0
1.857061 0.355000 -0.002225 0.0
3.185642 1.527981 -0.004081 0.0
2.689754 0.954012 -0.001331 0.0
1.945677 0.524083 -0.003535 0.0
2.193543 1.942800 -0.000896 0.0
0.367030 1.050175 -0.002215 0.0
3.507099 0.126415 -0.006519 0.0
1.290392 1.676404 0.001668 0.0
2.584534 0.846735 -0.005107 0.0
2.060139 0.364152 0.001900 0.0
0.913602 1.634456 0.002200 0.0
1.661606 1.653931 -0.007600 0.0
3.850613 0.145505 0.000741 0.0
1.721187 1.883540 -0.001375 0.0
0.958404 0.787058 0.001054 0.0
3.641233 0.973991 -0.002194 0.0
3.176943 0.524135 -0.000035 0.0
3.344618 0.923646 0.000936 0.0
1.603530 1.786441 -0.001827 0.0
3.195920 2.401856 0.001079 0.0
0.315010 1.352251 0.005618 0.0
2.749883 1.777650 -0.000504 0.0
1.057494 1.918641 0.002687 0.0
1.219523 0.059316 0.001434 0.0
2.305519 1.929469 0.000246 0.0
1.864715 1.097069 0.000998 0.0
1.211648 2.259030 -0.004937 0.0
0.364483 0.166008 -0.002000 0.0
1.449423 1.224245 0.000357 0.0
1.348525 0.810270 -0.001402 0.0
2.719898 2.106343 -0.001638 0.0
2.496321 1.437673 0.003893 0.0
1.897050 2.275505 0.000442 0.0
3.149189 1.898484 -0.002569 0.0
1.609554 0.388814 0.001993 0.0
0.903832 2.231726 0.000958 0.0
2.896491 1.834014 -0.002161 0.0
2.005182 0.348926 -0.000912 0.0
2.596909 1.416486 -0.000153 0.0
1.834496 2.210364 -0.004393 0.0
1.774826 1.217926 0.000672 0.0
2.110926 0.856379 0.000099 0.0
0.464738 0.134429 -0.000417 0.0
0.293905 1.013156 0.001198 0.0
3.988880 1.690196 -0.000363 0.0
3.994971 1.329905 0.003151 0.0
3.974232 0.316425 0.000043 0.0
0.603067 1.516726 0.000780 0.0
2.443321 0.912525 -0.001020 0.0
3.091552 0.758221 0.000070 0.0
0.350581 2.051601 0.004440 0.0
2.346268 0.650865 -0.004347 0.0
3.424703 1.614236 0.005112 0.0
1.780602 0.116703 -0.002471 0.0
1.145001 2.059805 -0.002903 0.0
1.845444 1.602310 -0.002392 0.0
0.876337 1.660517 0.000270 0.0
0.847844 1.238808 -0.002837 0.0
1.465397 2.401572 0.000045 0.0
4.105398 0.962233 -0.003646 0.0
3.911047 0.131406 -0.002409 0.0
3.179562 2.289460 -0.002378 0.0
1.873464 1.909283 -0.000406 0.0
0.335102 1.027811 0.003250 0.0
2.568298 1.383130 -0.001792 0.0
0.320603 1.763666 0.004189 0.0
2.245030 1.907249 -0.000435 0.0
3.671381 0.904234 0.002377 0.0
3.251672 0.800421 0.003926 0.0
3.874991 2.028571 0.000043 0.0
1.154611 2.047506 -0.004953 0.0
1.191659 0.522012 -0.000735 0.0
2.959489 2.397023 -0.002985 0.0
0.238779 2.051560 0.001373 0.0
2.699952 1.129358 0.001040 0.0
2.724021 2.434795 0.000834 0.0
2.176156 1.245440 0.002588 0.0
1.776442 1.584474 -0.001085 0.0
0.014822 1.458011 0.001509 0.0
3.841526 2.133076 -0.001360 0.0
1.222876 2.092792 0.002780 0.0
2.637944 2.131241 -0.003080 0.0
1.161097 2.060841 0.003102 0.0
0.085786 1.194479 0.004328 0.0
2.152148 0.324393 0.000968 0.0
0.031550 1.986572 0.000647 0.0
0.500498 0.054245 -0.000084 0.0
1.673125 0.350178 0.000969 0.0
2.662121 1.249318 0.004931 0.0
2.736818 1.555807 0.002070 0.0
0.755850 2.047386 0.000403 0.0
1.613354 0.547914 -0.001751 0.0
2.799073 1.454300 0.001670 0.0
1.464143 0.686881 -0.000834 0.0
0.417177 1.410403 0.003466 0.0
3.497318 1.385252 -0.002739 0.0
0.432007 2.463253 0.000283 0.0
1.212196 0.200340 0.001728 0.0
3.179708 1.532461 0.000983 0.0
1.650195 0.670733 0.001622 0.0
2.624351 2.444277 -0.000951 0.0
1.698005 1.604328 0.001578 0.0
1.943512 1.694904 -0.000044 0.0
3.337438 1.666885 0.002672 0.0
3.530507 0.584636 -0.002888 0.0
2.068309 1.931578 0.000350 0.0
1.917055 1.405009 0.002406 0.0
3.435857 2.131810 -0.000864 0.0
2.339729 1.479333 0.000758 0.0
0.558374 0.375852 -0.002088 0.0
0.495079 1.385501 0.000320 0.0
1.330955 1.486322 -0.000528 0.0
3.256195 1.614162 -0.002125 0.0
0.290759 0.399096 0.001654 0.0
0.599907 2.244472 0.005512 0.0
0.532130 1.736101 0.005219 0.0
0.004788 1.415888 0.000541 0.0
0.641667 2.079741 0.002143 0.0
3.749989 1.446257 0.000284 0.0
2.599519 1.851069 -0.002082 0.0
0.523692 0.041647 -0.000867 0.0
0.101255 1.934014 0.000770 0.0
0.948101 1.733103 -0.002104 0.0
0.829885 0.472778 0.000142 0.0
1.054322 1.135962 -0.002847 0.0
1.654173 0.922849 -0.001624 0.0
3.542621 1.644927 -0.002867 0.0
3.430825 1.869402 -0.003606 0.0
0.769329 0.796097 0.004940 0.0
1.921840 1.113129 -0.003890 0.0
0.800897 1.146232 0.002000 0.0
1.535691 1.381637 0.003223 0.0
3.352628 1.402096 -0.001332 0.0
2.726482 1.409961 -0.000390 0.0
1.625240 2.117834 -0.000836 0.0
3.469862 2.006598 -0.001020 0.0
2.251510 0.143943 -0.000116 0.0
3.611282 1.333667 -0.001256 0.0
1.547845 1.349686 -0.004166 0.0
2.907322 2.265009 0.002837 0.0
0.038656 0.314743 0.002135 0.0
1.553998 0.902879 -0.006819 0.0
0.651634 0.379796 -0.003429 0.0
3.083032 0.204716 0.004118 0.0
1.803428 0.116127 0.001606 0.0
0.353886 1.418674 0.000749 0.0
2.833210 2.184191 0.000403 0.0
0.573524 2.349561 0.003014 0.0
2.818311 0.420312 -0.000089 0.0
2.008771 2.297679 -0.000608 0.0
0.051514 2.426429 -0.000172 0.0
0.099079 0.629561 0.002174 0.0
2.925378 1.450079 0.002840 0.0
0.009003 1.997210 -0.002146 0.0
0.930256 0.827725 -0.001695 0.0
0.092232 2.419082 0.002107 0.0
2.894471 2.107681 -0.001291 0.0
3.607272 2.436927 -0.002452 0.0
0.048497 1.042777 0.000060 0.0
0.999164 1.817654 0.002168 0.0
1.083133 0.210420 -0.001248 0.0
2.386579 0.171578 0.000896 0.0
3.138079 1.679573 0.003087 0.0
4.074961 1.657521 0.001581 0.0
0.636312 0.056670 0.000113 0.0
3.118270 2.416846 -0.001836 0.0
3.355133 0.867755 0.001845 0.0
2.579555 2.020061 0.004947 0.0
2.688320 0.211554 -0.002103 0.0
1.507768 1.113103 -0.001342 0.0
3.201207 0.262050 0.001072 0.0
0.182161 1.887258 -0.000677 0.0
0.903340 0.891866 -0.000922 0.0
0.802694 1.344845 0.001519 0.0
3.924492 0.206995 -0.002868 0.0
3.715130 0.939566 -0.000343 0.0
1.890548 0.645969 0.001191 0.0
0.050788 2.042973 -0.001354 0.0
1.316884 0.355541 0.001739 0.0
2.217768 0.752025 -0.001537 0.0
1.927581 0.849717 0.000376 0.0
4.047288 1.785448 0.004039 0.0
0.660937 1.033200 0.002311 0.0
2.352726 0.440213 0.004336 0.0
1.619580 0.627500 -0.002256 0.0
0.811184 0.218162 -0.000479 0.0
3.455189 2.382189 0.002900 0.0
0.911898 2.308493 -0.000948 0.0
3.067787 1.965029 -0.000243 0.0
2.079467 2.189917 -0.001138 0.0
1.559160 0.904060 0.002633 0.0
1.634452 1.280289 -0.003074 0.0
0.717996 1.019312 0.002977 0.0
1.310427 2.061127 0.003700 0.0
0.622031 0.827407 -0.007074 0.0
0.517285 1.825224 0.004324 0.0
1.534147 1.539353 -0.002741 0.0
2.187659 1.121650 -0.002851 0.0
3.931406 2.286875 0.003575 0.0
2.687344 0.032740 0.001258 0.0
2.895865 0.858116 -0.000358 0.0
3.017471 0.091257 -0.000302 0.0
2.293662 1.197753 0.001099 0.0
3.045755 1.949072 0.000560 0.0
0.616841 0.277571 -0.000414 0.0
1.574927 0.452557 -0.000789 0.0
2.734666 1.248557 -0.002325 0.0
2.291242 2.302197 -0.001364 0.0
2.746663 0.348415 0.000440 0.0
3.135042 2.323885 0.004930 0.0
2.389590 1.151273 -0.000495 0.0
3.474220 1.730040 0.000131 0.0
3.295496 0.504849 0.002829 0.0
1.919685 1.645056 -0.001071 0.0
1.476205 0.475414 0.004380 0.0
1.725367 1.210551 -0.002370 0.0
2.298645 0.432168 0.001363 0.0
3.330296 1.125150 0.004180 0.0
1.145244 2.472608 -0.002581 0.0
3.426944 0.802998 0.002418 0.0
0.411441 2.418591 0.000746 0.0
2.580382 0.860591 -0.002111 0.0
3.059602 1.701188 -0.001328 0.0
2.637204 0.991675 -0.001527 0.0
1.610438 2.282507 0.001805 0.0
1.014433 0.529478 -0.000199 0.0
2.498217 0.176348 0.000593 0.0
0.884303 2.185421 0.000563 0.0
3.887556 1.983948 0.002382 0.0
0.621453 1.436492 -0.003518 0.0
0.974987 0.009379 -0.002156 0.0
2.339667 1.663685 0.001900 0.0
4.073289 1.979905 -0.001457 0.0
3.799684 0.227013 -0.001474 0.0
2.763381 1.313358 0.001027 0.0
2.682271 0.753241 0.008335 0.0
1.073786 1.587137 -0.000147 0.0
3.426398 2.291073 -0.001184 0.0
0.087411 1.382406 0.002656 0.0
1.440653 1.412255 -0.000756 0.0
1.964147 0.826569 0.002337 0.0
1.039643 1.636930 -0.000360 0.0
1.239881 1.863058 0.000191 0.0
2.753658 2.022363 0.002323 0.0
3.861258 0.689685 0.003391 0.0
2.378414 2.222366 0.000199 0.0
3.924998 0.527683 -0.001312 0.0
3.203580 1.544657 -0.001699 0.0
0.492901 0.343968 0.005412 0.0
0.803339 2.158910 -0.001675 0.0
0.562229 2.148490 -0.004609 0.0
1.270290 0.523283 -0.003947 0.0
0.928323 0.475682 -0.000077 0.0
3.225508 1.125425 0.002683 0.0
0.960827 0.782409 0.003911 0.0
3.194651 0.913040 -0.004411 0.0
1.286951 1.321428 -0.004546 0.0
0.808439 1.393926 0.000103 0.0
1.825430 2.280707 0.000586 0.0
3.782410 2.048963 -0.005129 0.0
3.672611 1.595739 -0.003191 0.0
1.433664 0.008260 0.000850 0.0
2.302367 1.102382 -0.002427 0.0
1.704953 1.030334 -0.000266 0.0
3.893938 2.139867 -0.000461 0.0
3.487832 1.270402 0.002559 0.0
3.009449 1.236854 0.002123 0.0
3.917946 0.313302 -0.000137 0.0
1.304404 0.353800 -0.002049 0.0
2.181285 0.413994 -0.001192 0.0
1.465135 0.058257 0.002802 0.0
0.020027 1.463567 -0.000888 0.0
3.048167 1.732804 -0.000363 0.0
0.976591 2.178974 -0.000873 0.0
0.646645 2.448079 -0.003951 0.0
0.398681 1.312848 -0.001746 0.0
2.571031 1.807667 -0.001097 0.0
3.977994 0.767608 -0.002510 0.0
1.765942 0.283736 0.000443 0.0
2.608053 1.362646 -0.001363 0.0
3.277620 0.795812 0.003164 0.0
3.433456 0.878518 0.000530 0.0
1.878528 0.450328 0.003704 0.0
0.921237 0.118662 -0.002369 0.0
0.604525 0.589992 0.002411 0.0
3.934012 0.460252 -0.000182 0.0
0.159460 1.435815 -0.003294 0.0
1.118632 0.605526 -0.004236 0.0
3.365394 1.742198 -0.003683 0.0
1.182304 0.373727 -0.000905 0.0
3.906079 2.449506 -0.001332 0.0
1.298983 0.367628 0.000515 0.0
2.901591 0.722763 -0.002905 0.0
2.168320 2.117747 0.002587 0.0
1.220470 1.397201 0.002571 0.0
2.106918 1.872218 0.002595 0.0
0.472144 0.650189 -0.001778 0.0
3.283075 0.525774 -0.000014 0.0
3.436621 1.084289 0.004463 0.0
3.688827 0.737874 0.001645 0.0
0.934413 1.659405 -0.000359 0.0
0.592009 0.589802 0.001014 0.0
3.373733 1.979859 -0.003259 0.0
1.861923 1.417724 -0.004795 0.0
1.576387 2.040394 0.003195 0.0
3.855855 2.240804 0.001608 0.0
0.449725 1.056117 -0.000009 0.0
3.268626 0.034653 0.002428 0.0
0.264005 0.001741 -0.000751 0.0
1.629430 1.867296 0.001805 0.0
1.923044 2.002564 0.005381 0.0
0.279765 1.635876 0.000708 0.0
2.430182 1.649627 -0.001169 0.0
3.897901 1.178308 -0.000878 0.0
1.582175 1.938287 -0.004409 0.0
3.243074 2.360420 -0.000714 0.0
3.475607 2.491620 0.001629 0.0
3.024425 2.465132 0.004841 0.0
0.701364 0.479415 -0.002264 0.0
0.496150 2.092171 -0.002789 0.0
1.397331 0.173893 -0.002125 0.0
1.277382 2.248322 -0.001583 0.0
1.058949 1.992154 0.002811 0.0
4.087303 1.084190 -0.002725 0.0
2.790290 1.949942 -0.000384 0.0
3.872597 1.417484 0.001311 0.0
0.338484 1.447713 -0.000116 0.0
2.498555 1.204910 -0.000593 0.0
0.095372 2.289949 -0.003239 0.0
3.821205 2.448141 0.001976 0.0
1.233647 0.522766 -0.001593 0.0
4.020218 0.094409 -0.002254 0.0
1.306956 0.136734 0.005122 0.0
3.164755 0.804619 -0.000263 0.0
1.122072 0.241092 0.001707 0.0
2.743104 0.200073 -0.000310 0.0
0.637300 0.455793 -0.000617 0.0
3.435769 1.244614 -0.002705 0.0
1.489156 0.913804 -0.000676 0.0
3.860162 2.241737 -0.000279 0.0
1.576497 2.203146 0.004938 0.0
0.221847 2.038114 0.002168 0.0
0.539755 1.558103 -0.000758 0.0
2.554864 0.861552 -0.001697 0.0
2.434589 2.363661 -0.001898 0.0
1.426812 1.139707 -0.002483 0.0
3.793020 1.436991 0.000174 0.0
0.558780 1.087475 -0.001608 0.0
3.324185 2.207891 -0.001563 0.0
1.343629 1.901671 0.000969 0.0
1.583557 1.836539 -0.001227 0.0
0.222828 2.486786 0.000790 0.0
2.170429 0.950258 0.001202 0.0
4.059308 0.416647 -0.001403 0.0
0.964595 2.273041 0.001518 0.0
0.977656 2.444351 -0.000633 0.0
1.738421 0.743690 0.000225 0.0
3.344891 1.909146 0.000749 0.0
2.642966 1.577505 0.004919 0.0
0.090395 1.305720 0.000906 0.0
3.241956 1.264948 0.005643 0.0
2.752673 1.382083 0.004655 0.0
1.965732 2.331106 -0.002458 0.0
1.451783 0.098201 -0.000416 0.0
2.184618 1.008399 0.009478 0.0
2.234041 0.766354 0.003012 0.0
3.241066 0.366856 0.001302 0.0
0.548538 1.906681 0.004901 0.0
2.442701 1.949250 0.003051 0.0
1.463927 0.979863 0.002076 0.0
3.808821 1.577211 -0.001989 0.0
0.616076 0.912568 -0.000762 0.0
1.583617 0.526008 0.002381 0.0
4.015577 0.668858 -0.004961 0.0
2.613666 2.240712 -0.001007 0.0
1.872506 1.078959 0.004330 0.0
3.929418 2.103468 -0.001019 0.0
3.358702 0.454602 -0.001189 0.0
3.236494 1.815434 0.000475 0.0
3.798828 1.885443 0.001137 0.0
1.084638 0.200660 -0.000479 0.0
1.488419 0.196234 0.002361 0.0
3.651612 1.107064 -0.003002 0.0
0.811654 1.264115 -0.000610 0.0
3.314995 1.228197 -0.000995 0.0
2.010869 1.325436 0.000843 0.0
0.545122 1.883994 0.003346 0.0
2.254028 1.629537 0.003569 0.0
2.946249 1.190842 0.000745 0.0
3.456618 0.029607 0.000346 0.0
1.583692 1.774648 -0.000795 0.0
1.169653 1.703615 0.003144 0.0
3.030919 2.476784 0.002089 0.0
1.013886 0.183030 -0.003121 0.0
1.851777 1.558540 0.003598 0.0
0.646341 1.650914 0.001950 0.0
0.706112 0.510979 -0.004519 0.0
0.752487 1.262808 -0.002467 0.0
1.668248 0.476509 -0.003763 0.0
2.325745 1.370034 0.003885 0.0
3.713848 2.157849 0.001947 0.0
0.881226 1.419026 0.005362 0.0
0.873460 2.133685 -0.002824 0.0
3.877264 2.201621 0.001636 0.0
1.485078 0.687542 0.004260 0.0
2.116291 1.440553 -0.003843 0.0
2.006555 0.790991 -0.001218 0.0
0.472179 0.163404 0.001628 0.0
0.100118 0.481035 0.005078 0.0
1.384978 0.308378 0.000008 0.0
1.423860 1.703274 -0.001374 0.0
3.517699 0.105696 0.003814 0.0
1.792209 2.095340 -0.002490 0.0
3.677758 0.014914 -0.003367 0.0
3.616155 1.383521 0.001008 0.0
2.444819 0.319694 -0.000298 0.0
2.526295 1.984042 0.002786 0.0
2.772694 1.098997 0.001847 0.0
0.136123 0.396956 0.003128 0.0
2.197756 2.198082 -0.001049 0.0
3.476678 1.998019 0.002358 0.0
1.907511 2.242099 0.000909 0.0
0.969428 2.489034 0.003225 0.0
3.110069 0.038534 -0.003517 0.0
2.870563 0.426910 0.000218 0.0
3.415167 0.014735 -0.004812 0.0
0.380695 1.160114 0.003667 0.0
0.405099 1.333594 -0.000260 0.0
3.004690 2.263833 0.001637 0.0
3.508075 1.450923 -0.002110 0.0
3.207137 0.822077 -0.000090 0.0
0.745624 1.105492 -0.002250 0.0
1.240612 0.129079 -0.002714 0.0
2.727118 1.770287 -0.002786 0.0
3.974194 0.983973 -0.001019 0.0
0.804093 1.867712 0.001519 0.0
3.332655 2.321701 -0.000528 0.0
2.336994 1.976441 -0.001575 0.0
1.080263 0.833565 0.000044 0.0
3.913574 1.746731 -0.001399 0.0
2.075405 0.735826 -0.000285 0.0
1.770135 0.087166 -0.001441 0.0
3.046156 0.991147 -0.001256 0.0
2.044029 0.571641 0.002376 0.0
2.692523 0.970847 0.003087 0.0
1.257061 1.344494 0.000480 0.0
3.863167 0.557163 0.000151 0.0
3.294251 1.327683 0.002248 0.0
2.210241 0.924591 -0.001451 0.0
2.286461 0.637656 0.003817 0.0
1.781735 2.146757 0.003340 0.0
1.714986 2.382060 0.003430 0.0
2.780077 1.114673 -0.002626 0.0
1.919297 0.650109 -0.002911 0.0
4.009965 0.628409 0.001310 0.0
1.313890 0.441917 0.001403 0.0
3.738977 0.010286 -0.001886 0.0
1.648318 1.967753 -0.001120 0.0
0.383127 2.267064 0.004709 0.0
0.380165 1.577019 -0.000888 0.0
1.917225 1.791307 -0.002066 0.0
0.467278 1.953338 0.004748 0.0
3.078790 1.686242 0.000584 0.0
3.475670 0.973187 -0.002408 0.0
2.652259 1.415811 -0.001996 0.0
0.732949 0.188633 0.003237 0.0
0.281626 2.092025 0.001057 0.0
3.779727 0.595566 0.004596 0.0
3.043171 2.267086 -0.000625 0.0
2.202485 1.598133 0.000452 0.0
3.880461 0.441825 0.006984 0.0
4.074134 0.527325 -0.000593 0.0
0.778999 0.725163 -0.000619 0.0
2.112372 0.388197 -0.001766 0.0
0.073307 0.579380 0.002480 0.0
2.618915 0.920869 -0.005127 0.0
3.970895 1.934755 -0.005108 0.0
2.452014 1.520460 0.000988 0.0
0.297344 0.638000 -0.002395 0.0
3.126274 1.143623 -0.000687 0.0
2.254519 1.452487 -0.002376 0.0
0.030976 0.181104 0.000896 0.0
2.374533 0.555911 -0.001992 0.0
1.855086 0.076272 -0.003295 0.0
1.937668 0.629954 0.001828 0.0
1.238729 1.686972 0.000558 0.0
3.019879 1.243464 -0.000917 0.0
0.117119 0.619177 0.003229 0.0
0.161591 0.712066 -0.000022 0.0
3.040378 1.729044 -0.004443 0.0
3.640579 2.284370 -0.001477 0.0
2.406085 2.336175 -0.000796 0.0
3.372257 1.199688 0.002052 0.0
0.768716 1.124420 0.001350 0.0
2.546382 0.055385 0.001781 0.0
2.868030 1.332516 -0.000592 0.0
0.779554 0.571543 -0.001849 0.0
2.297555 1.123470 -0.005768 0.0
3.775958 0.658147 0.000481 0.0
3.014629 1.957345 -0.004783 0.0
2.472842 1.642751 0.001460 0.0
3.690012 1.212350 0.001533 0.0
1.564271 1.541544 0.002196 0.0
0.836339 1.030062 -0.005642 0.0
1.863753 1.216941 -0.000590 0.0
0.410955 2.244200 -0.000637 0.0
0.356630 0.771287 -0.000245 0.0
2.840438 0.550060 0.000026 0.0
1.301647 0.046656 -0.003315 0.0
1.890139 1.226575 0.001679 0.0
3.193446 2.001577 -0.003837 0.0
1.402576 2.267504 -0.000729 0.0
3.991201 1.153663 -0.004157 0.0
0.251927 1.360032 -0.001024 0.0
4.060570 2.319675 -0.004719 0.0
2.053145 0.384568 -0.003026 0.0
1.077926 1.057269 0.003623 0.0
0.116420 1.314866 0.001748 0.0
2.156638 1.329863 -0.000863 0.0
1.299464 0.169469 0.005654 0.0
1.417703 0.533584 -0.000632 0.0
1.394619 1.209096 -0.003800 0.0
3.981138 2.443104 0.000381 0.0
0.477484 0.929024 -0.001986 0.0
3.168743 2.353997 -0.003021 0.0
0.968139 1.822684 -0.002827 0.0
2.126746 0.405074 -0.000138 0.0
0.010004 2.119966 -0.002308 0.0
1.721822 1.879072 -0.001397 0.0
2.075843 0.702835 0.002362 0.0
0.137154 1.937848 0.002482 0.0
0.419121 1.992466 -0.001265 0.0
1.996290 1.832277 -0.000932 0.0
2.974006 1.750739 -0.002680 0.0
1.428663 1.607584 0.001105 0.0
3.480257 1.310657 -0.005424 0.0
1.734094 1.141938 0.000510 0.0
3.054963 0.639724 -0.003634 0.0
1.608066 1.034008 -0.001725 0.0
2.835359 1.827935 0.005246 0.0
1.392517 0.511456 0.002415 0.0
2.546478 0.050656 0.001748 0.0
4.099062 0.762331 0.000015 0.0
1.651934 1.300632 0.002061 0.0
1.608873 2.122472 -0.002568 0.0
0.481556 0.065776 0.003511 0.0
1.201960 2.141209 0.003382 0.0
2.340806 0.544197 -0.001865 0.0
1.960271 0.245751 -0.004076 0.0
2.553473 0.437973 0.000312 0.0
2.442304 0.159927 0.002663 0.0
0.022811 1.529856 0.003110 0.0
1.056585 0.375332 -0.002883 0.0
0.076394 1.521781 -0.007788 0.0
1.263603 1.766048 -0.000649 0.0
1.817787 1.602863 -0.001170 0.0
2.144355 1.946755 -0.000618 0.0
1.493096 1.193849 0.010387 0.0
2.479360 0.024197 0.001879 0.0
3.708763 2.157310 0.000753 0.0
3.711711 1.194203 0.000876 0.0
0.927012 2.483475 0.002597 0.0
0.299755 0.459121 -0.000126 0.0
0.752252 0.760617 0.000508 0.0
1.990576 0.833758 0.003681 0.0
2.763592 0.486206 -0.002886 0.0
1.822124 2.099569 -0.005089 0.0
1.511506 1.282078 0.001106 0.0
2.817377 1.144926 -0.001760 0.0
2.283358 1.437740 -0.001083 0.0
1.286284 1.262014 -0.002502 0.0
0.913631 0.776014 -0.000121 0.0
3.592309 2.167019 -0.000135 0.0
0.205289 1.814097 -0.001330 0.0
2.478479 0.146125 -0.000410 0.0
3.711452 1.997275 -0.004515 0.0
0.829396 0.051150 0.000893 0.0
3.390550 2.180553 0.000766 0.0
2.060024 0.760691 0.002739 0.0
2.603995 1.474668 -0.002290 0.0
2.129900 2.325598 -0.001533 0.0
3.933230 2.407642 0.005270 0.0
2.062192 0.310146 -0.004131 0.0
3.555942 2.331842 -0.002932 0.0
3.968108 1.234898 0.000177 0.0
3.779348 0.100482 -0.000430 0.0
2.584075 0.461702 -0.002328 0.0
2.681994 2.487348 0.003813 0.0
2.159036 1.670455 -0.002284 0.0
3.776655 1.340198 0.000116 0.0
1.933291 1.572478 0.001489 0.0
0.288261 1.480306 0.004191 0.0
1.473020 1.934628 -0.003155 0.0
1.844056 1.159904 -0.001336 0.0
2.270889 2.202035 0.001540 0.0
2.612225 0.685893 0.004564 0.0
0.061766 1.620632 0.000172 0.0
2.296825 1.802948 -0.000332 0.0
2.794207 1.692877 -0.002370 0.0
0.225337 0.270961 -0.003302 0.0
3.341250 0.481509 -0.001979 0.0
3.981707 1.882786 -0.004248 0.0
1.553835 1.669849 0.005493 0.0
1.685614 1.270596 0.001046 0.0
2.731622 1.815488 -0.000664 0.0
3.025776 0.735930 0.001404 0.0
2.063284 2.247054 0.000187 0.0
1.645216 1.898096 -0.002242 0.0
3.834371 2.257965 -0.002526 0.0
3.140176 1.616379 0.002864 0.0
1.942270 0.612965 -0.001520 0.0
3.270339 1.494696 0.003388 0.0
3.277673 2.246041 0.003227 0.0
3.673790 0.200531 0.001619 0.0
2.628043 0.675403 -0.000228 0.0
3.835183 2.394405 -0.002202 0.0
2.610024 0.469848 -0.000008 0.0
2.107758 0.013526 -0.000812 0.0
0.239686 1.710113 0.000389 0.0
0.416903 0.902301 -0.001518 0.0
2.470056 0.709250 0.001889 0.0
0.333866 2.186011 -0.003507 0.0
0.552868 1.863953 0.001089 0.0
3.816718 1.964159 0.001734 0.0
3.344666 1.683895 0.004026 0.0
1.685154 2.130114 0.000110 0.0
3.898185 2.163945 0.000346 0.0
3.921518 0.729706 0.007416 0.0
2.313419 1.671499 0.002179 0.0
1.386713 1.917607 -0.003799 0.0
1.554232 0.948311 -0.004591 0.0
0.245993 0.886351 0.001078 0.0
2.910430 0.542344 0.000044 0.0
2.817878 1.439461 0.001639 0.0
3.056525 1.988226 -0.001246 0.0
0.967039 2.065026 -0.002597 0.0
1.646587 0.667874 -0.002703 0.0
0.307016 1.924023 0.002770 0.0
2.114142 1.116200 -0.004233 0.0
0.592541 0.483246 -0.003956 0.0
0.459378 1.426240 0.001708 0.0
0.277275 1.220820 -0.003122 0.0
2.234642 0.065524 0.004571 0.0
3.153279 1.698302 -0.004806 0.0
0.283649 0.651488 0.001274 0.0
0.945916 0.160753 -0.002263 0.0
1.528486 2.110825 0.000893 0.0
0.937349 2.337319 -0.003438 0.0
3.228523 1.713980 0.002765 0.0
1.146162 0.942177 -0.000232 0.0
3.492123 2.288519 0.004557 0.0
3.806945 1.075311 -0.000851 0.0
1.052863 0.910602 0.002881 0.0
2.293750 0.915155 -0.000112 0.0
0.906736 0.632862 0.002664 0.0
2.743945 2.264212 -0.000537 0.0
1.875222 1.386380 -0.002653 0.0
2.797008 0.269524 0.001304 0.0
0.900368 0.452261 -0.004037 0.0
3.449551 1.645608 0.003965 0.0
0.589990 0.364429 -0.002877 0.0
0.593160 1.190668 0.000954 0.0
0.344146 0.687856 -0.000620 0.0
1.949534 1.223073 -0.001398 0.0
1.599325 1.320915 0.003716 0.0
1.666786 2.224952 -0.001525 0.0
0.826816 0.587991 -0.000943 0.0
0.556051 1.303423 -0.000427 0.0
0.414736 2.119758 -0.000151 0.0
3.270303 0.169513 0.004483 0.0
3.358546 1.371735 0.002012 0.0
1.539770 0.222307 0.000812 0.0
2.817891 1.479272 0.004583 0.0
2.518092 0.398073 -0.001664 0.0
1.623317 0.692680 -0.002356 0.0
3.302362 1.100860 0.000071 0.0
3.581848 2.217293 -0.001949 0.0
0.448134 0.059585 -0.001855 0.0
1.536649 2.358264 0.002404 0.0
0.269750 0.743813 0.002410 0.0
3.670093 1.950184 0.000506 0.0
3.111879 1.504044 0.000884 0.0
3.219146 1.195500 -0.000315 0.0
2.434704 1.573464 0.001439 0.0
0.689546 1.057136 -0.000538 0.0
1.862417 1.013814 0.001965 0.0
0.061402 0.887466 -0.003234 0.0
3.821985 0.526957 0.002993 0.0
0.125939 0.377891 -0.003126 0.0
2.689390 1.714323 0.001025 0.0
2.214151 1.154619 -0.002837 0.0
2.260312 1.144574 0.001417 0.0
0.537986 0.602054 0.003223 0.0
0.388768 2.067021 0.000465 0.0
0.283988 0.618033 0.003161 0.0
3.014682 0.585577 0.001238 0.0
0.295124 1.052245 0.004288 0.0
2.182339 0.492268 -0.003669 0.0
0.219182 0.913736 -0.002159 0.0
2.102292 1.735452 -0.001781 0.0
3.326319 0.459614 0.000241 0.0
1.498656 0.875268 0.000550 0.0
1.202693 0.648957 0.003366 0.0
0.070927 1.147839 0.003611 0.0
3.885356 1.863644 0.001148 0.0
0.218242 2.367690 0.000314 0.0
2.582464 0.843384 -0.000911 0.0
0.260055 0.820510 -0.003043 0.0
1.769413 2.212290 0.004767 0.0
0.810703 0.068937 0.002715 0.0
0.969273 0.522434 0.000278 0.0
0.931137 0.657375 0.002324 0.0
3.161751 1.710889 0.000544 0.0
2.051403 1.103722 0.000052 0.0
2.549699 1.801913 0.000160 0.0
2.741167 0.186486 -0.002792 0.0
3.345499 2.282268 0.001712 0.0
1.529371 0.657273 -0.000903 0.0
3.465989 0.747766 -0.003316 0.0
2.307634 2.173959 0.000710 0.0
3.265717 2.364785 0.000422 0.0
0.707265 0.331089 0.000469 0.0
0.474923 1.194885 -0.001848 0.0
3.347991 1.719706 -0.000079 0.0
3.739039 0.332780 0.000260 0.0
1.384268 0.797711 -0.002099 0.0
3.580377 1.688460 0.003111 0.0
0.189731 2.014547 -0.002916 0.0
1.876929 1.510479 0.003425 0.0
2.052470 0.565317 0.002945 0.0
1.662222 1.205983 -0.003805 0.0
0.883827 2.400444 0.001992 0.0
2.525406 0.828485 0.001809 0.0
3.671425 1.496535 0.003302 0.0
3.487220 0.319255 0.000761 0.0
3.408144 2.007972 -0.004084 0.0
3.335129 0.469719 0.002816 0.0
3.168694 0.535781 -0.000463 0.0
2.630313 2.126511 0.000362 0.0
4.055089 1.629511 -0.000281 0.0
1.833769 1.600147 -0.005316 0.0
0.520623 2.468237 -0.002087 0.0
3.825908 1.218951 0.007114 0.0
0.872168 0.261792 -0.001143 0.0
0.135905 1.123274 0.000852 0.0
1.902920 1.911987 0.001471 0.0
2.370847 1.847769 0.002522 0.0
3.445040 1.727850 0.000833 0.0
1.320217 0.341250 0.002191 0.0
3.354696 1.555341 -0.007356 0.0
0.001732 0.531508 0.000267 0.0
2.809895 2.340482 0.007173 0.0
0.024682 1.433603 -0.000537 0.0
1.953868 1.413323 -0.000171 0.0
1.055440 0.802565 -0.002873 0.0
4.087324 1.368792 -0.001803 0.0
2.186463 2.477810 -0.000555 0.0
3.412734 2.379954 0.004097 0.0
2.509032 0.298682 -0.004042 0.0
1.777812 1.916588 0.000888 0.0
4.038563 2.415943 -0.000174 0.0
0.074560 2.243312 -0.000644 0.0
2.839673 0.872024 -0.001338 0.0
3.698534 0.749886 -0.002057 0.0
1.972436 0.959368 0.002300 0.0
1.740630 0.983741 -0.002406 0.0
2.680252 0.206061 0.003438 0.0
2.103190 1.277494 0.002665 0.0
2.144456 0.072952 -0.002952 0.0
2.601555 0.608776 -0.007821 0.0
0.950596 0.082949 -0.000605 0.0
2.121327 1.692387 -0.000774 0.0
3.616383 1.805281 0.002699 0.0
3.184023 1.977226 0.002219 0.0
3.742563 1.669267 0.000763 0.0
1.592488 0.531420 -0.001602 0.0
0.938811 1.991356 -0.000067 0.0
0.463178 1.388874 0.000311 0.0
4.093454 1.745581 -0.002665 0.0
2.675242 0.677780 0.002569 0.0
0.416417 0.718115 0.000632 0.0
1.900611 0.172387 -0.000452 0.0
1.107881 1.366500 -0.001791 0.0
3.542096 1.405718 -0.001281 0.0
2.756231 0.297355 -0.000530 0.0
0.861180 0.230688 -0.002382 0.0
0.123821 0.582844 0.000224 0.0
2.337657 1.719774 -0.000873 0.0
3.312656 0.686082 -0.000053 0.0
0.045691 1.958311 -0.001605 0.0
0.280389 0.391893 -0.000065 0.0
0.956597 1.597865 0.000690 0.0
3.368091 0.840405 -0.000627 0.0
0.026863 1.471794 -0.001325 0.0
0.320270 0.885996 -0.005227 0.0
3.473038 0.260268 0.007130 0.0
2.595327 1.821622 0.001208 0.0
1.379336 2.428899 0.003731 0.0
3.792182 0.243000 0.000458 0.0
1.398670 1.649758 -0.002425 0.0
3.481057 0.271459 -0.001140 0.0
0.787177 1.779924 0.002228 0.0
2.218224 1.874587 -0.003323 0.0
1.985702 1.531453 -0.001657 0.0
2.240210 1.438799 0.001223 0.0
1.014977 0.515853 0.000930 0.0
2.016686 0.948301 0.002522 0.0
0.804318 0.662728 0.001549 0.0
0.279600 0.606674 0.003141 0.0
3.130345 0.851976 0.000575 0.0
2.001720 1.647692 0.000735 0.0
2.706640 0.360409 -0.006544 0.0
1.687956 2.350044 -0.000119 0.0
3.426738 0.993712 -0.002239 0.0
3.299133 1.499955 0.003362 0.0
1.160064 0.803040 -0.000195 0.0
1.764081 2.240908 -0.000435 0.0
2.152011 2.475536 0.000223 0.0
0.587293 0.097204 0.002252 0.0
3.074974 0.098223 0.000304 0.0
1.043420 1.803655 -0.001042 0.0
2.333960 0.248591 -0.001297 0.0
1.180003 0.985549 -0.000137 0.0
3.573923 0.393994 0.003208 0.0
1.118140 0.538171 -0.000802 0.0
3.412096 1.118806 -0.003751 0.0
0.813364 0.339066 -0.005085 0.0
0.464999 0.445749 0.001804 0.0
1.464275 1.470251 -0.002967 0.0
3.091052 0.107092 0.001219 0.0
1.751833 0.886188 -0.001182 0.0
3.777903 1.499033 -0.002717 0.0
1.533860 1.392107 0.001905 0.0
0.558835 2.280212 -0.002109 0.0
0.031561 0.960645 -0.002299 0.0
2.099283 0.452894 -0.001204 0.0
1.462434 1.082221 -0.000793 0.0
0.378738 0.628870 0.002888 0.0
1.158759 1.691684 -0.002220 0.0
1.642625 1.529412 -0.005070 0.0
2.118619 0.152728 -0.000019 0.0
0.060516 0.186877 -0.000536 0.0
0.494231 2.286832 -0.000464 0.0
0.979963 0.580148 -0.003158 0.0
2.309694 0.819019 0.003967 0.0
3.734133 1.145600 0.000847 0.0
1.666597 0.506982 0.003215 0.0
3.470414 1.451598 0.002617 0.0
3.496844 0.710215 -0.000039 0.0
1.443651 1.428571 0.003428 0.0
3.428175 0.832283 0.004212 0.0
0.769671 1.601231 0.002757 0.0
0.342887 2.440641 0.001028 0.0
2.665959 2.330993 -0.001003 0.0
1.775524 0.254956 0.000362 0.0
3.969342 0.184082 -0.001414 0.0
2.007697 0.193827 -0.000866 0.0
1.093525 2.249217 0.003009 0.0
1.828206 0.440283 0.003254 0.0
3.127592 1.277659 -0.003527 0.0
3.874695 0.737921 -0.000941 0.0
1.389666 1.824112 0.007554 0.0
0.076731 1.553221 -0.001045 0.0
2.635882 1.886453 0.001437 0.0
0.860314 0.571146 0.003112 0.0
2.912304 1.224964 -0.001746 0.0
2.176821 0.070540 -0.003086 0.0
2.428399 1.519415 0.003260 0.0
3.928696 0.586992 0.002341 0.0
1.470541 0.428524 0.002384 0.0
1.842709 1.628635 0.001835 0.0
3.165077 0.491432 -0.000817 0.0
1.086600 1.978477 0.003028 0.0
0.534469 1.535224 -0.000590 0.0
2.784479 2.163434 -0.001003 0.0
2.183014 1.653857 -0.000402 0.0
0.283498 1.940295 0.001769 0.0
1.731666 0.015168 0.000729 0.0
3.589187 0.108477 -0.004864 0.0
1.935488 1.102133 0.002900 0.0
2.921767 0.827690 -0.002038 0.0
2.003640 0.997308 0.002028 0.0
0.989067 1.464428 0.000015 0.0
3.451913 1.181432 0.000859 0.0
1.106700 0.107356 0.000748 0.0
2.427258 2.075366 0.001715 0.0
1.271178 0.828517 0.000033 0.0
3.474138 0.415807 -0.000331 0.0
0.992740 0.709900 -0.000771 0.0
2.211126 0.093229 -0.000262 0.0
3.786730 1.642178 0.000404 0.0
1.356149 2.450702 -0.001083 0.0
0.835548 0.389132 0.000299 0.0
2.638319 0.371292 -0.001000 0.0
3.054469 1.779527 0.002295 0.0
0.584915 1.604055 -0.001490 0.0
0.873055 1.087786 0.001736 0.0
0.170720 0.125470 0.001090 0.0
3.659899 1.559885 -0.005486 0.0
2.028200 0.098993 -0.000153 0.0
2.481229 0.230807 -0.001479 0.0
3.991196 0.900560 0.007425 0.0
3.558204 0.655896 -0.004379 0.0
1.568160 1.086508 -0.002289 0.0
2.889637 1.245605 0.003012 0.0
2.931510 0.197795 -0.001831 0.0
0.873671 0.894162 -0.000052 0.0
2.731086 1.584563 -0.002836 0.0
2.499764 1.247652 -0.004347 0.0
3.537543 0.889851 -0.001015 0.0
1.251891 2.204151 0.000506 0.0
2.765518 2.340784 -0.001993 0.0
1.080772 0.106219 -0.004166 0.0
1.496972 0.788179 0.003056 0.0
1.047282 2.430996 -0.001602 0.0
2.660380 1.795851 0.005043 0.0
0.206907 1.038065 0.000728 0.0
3.644587 0.719610 0.001233 0.0
3.872060 0.182949 -0.001118 0.0
1.926999 1.666676 0.000502 0.0
3.236471 0.551097 0.002204 0.0
2.284472 0.092710 0.003621 0.0
2.287997 1.203506 0.002430 0.0
3.146124 1.975988 -0.002459 0.0
3.343170 1.599519 -0.002056 0.0
0.527020 0.888830 -0.001009 0.0
3.625437 0.348000 -0.001488 0.0
0.782965 2.226669 0.000602 0.0
1.301060 1.934008 -0.000470 0.0
0.335471 0.031771 -0.004306 0.0
2.417478 0.872636 -0.000523 0.0
0.935851 2.174534 -0.001163 0.0
3.120668 1.633391 0.000940 0.0
3.464046 0.256965 0.000871 0.0
3.287945 2.368538 -0.001075 0.0
2.951756 1.552628 0.002123 0.0
4.089875 0.629283 -0.001016 0.0
2.448732 1.015077 0.001916 0.0
0.248448 1.567879 0.000878 0.0
1.125629 1.709223 0.001257 0.0
2.748582 2.483816 0.000545 0.0
1.127734 0.936623 -0.002646 0.0
3.067437 1.623775 0.001581 0.0
2.223708 2.440414 -0.003354 0.0
3.556114 0.522633 -0.000010 0.0
0.603130 1.690619 0.003831 0.0
2.620568 1.467376 0.003036 0.0
0.302302 1.484695 0.002805 0.0
2.112432 0.068426 -0.000705 0.0
3.737087 2.323171 -0.003570 0.0
0.647527 0.650761 0.001380 0.0
3.731420 1.905674 -0.002486 0.0
2.679990 0.608305 0.001813 0.0
2.556101 1.804661 -0.001507 0.0
1.342963 1.923101 0.000989 0.0
4.094043 0.331162 -0.000281 0.0
3.222656 0.711207 0.001069 0.0
2.121008 1.425498 0.000824 0.0
3.290211 0.005824 -0.000572 0.0
4.039793 0.683868 -0.003503 0.0
4.004625 1.617740 -0.001078 0.0
0.747528 1.443998 -0.002043 0.0
1.714696 0.201675 0.002049 0.0
1.633707 0.081112 -0.002865 0.0
2.811466 0.157372 -0.000731 0.0
1.471754 0.942469 -0.000282 0.0
2.575524 0.855651 0.000170 0.0
2.588879 1.190703 -0.000959 0.0
1.231728 0.828214 -0.002421 0.0
3.119273 0.607354 0.001204 0.0
2.817792 2.012374 -0.002225 0.0
1.746363 0.552043 0.003311 0.0
0.288363 1.001736 0.000822 0.0
3.881258 0.977124 -0.000789 0.0
1.615809 1.805260 0.001479 0.0
0.445433 0.350920 -0.001188 0.0
2.073360 1.150029 0.001186 0.0
0.181532 2.202748 0.004453 0.0
2.626320 0.290542 0.005795 0.0
4.070563 1.439851 -0.000382 0.0
3.691379 0.176468 -0.003530 0.0
3.638735 2.428740 -0.001118 0.0
3.320728 1.689319 -0.001043 0.0
0.583417 0.679026 -0.000786 0.0
4.056742 2.053994 0.004764 0.0
0.660343 1.851694 0.002522 0.0
2.623171 2.025551 -0.003384 0.0
0.137521 1.591517 0.001105 0.0
3.828639 0.014315 0.002703 0.0
2.887245 1.482933 0.002516 0.0
