1.40934290 -0.00500599 -0.00313276 1.00000000
0.24737907 0.00093010 -0.00179407 1.00000000
3.52161914 -0.00101362 0.00077315 1.00000000
3.98382804 -0.00148145 0.00195689 1.00000000
1.10118163 -0.00378820 -0.00276989 1.00000000
3.51933306 -0.00129957 0.00023159 1.00000000
3.04085577 0.00335416 -0.00104602 1.00000000
2.95624321 0.00042235 -0.00227579 1.00000000
2.07244009 -0.00148318 -0.00130758 1.00000000
0.21054337 -0.00107484 0.00195813 1.00000000
1.31042546 0.00239639 0.00403528 1.00000000
3.60488810 0.00555054 -0.00181636 1.00000000
3.52485745 -0.00003177 -0.00334740 1.00000000
0.50511417 0.00267568 -0.00215533 1.00000000
3.22772908 0.00258691 -0.00135008 1.00000000
2.91228087 -0.00184415 0.00056593 1.00000000
1.42553475 0.00277271 -0.00072469 1.00000000
0.25646108 0.00182489 0.00040854 1.00000000
2.39814187 0.00291272 0.00285309 1.00000000
3.34472424 0.00068127 -0.00050725 1.00000000
2.52342661 -0.00220733 0.00251243 1.00000000
0.86452801 0.00015215 -0.00126941 1.00000000
1.06379960 0.00055974 -0.00312075 1.00000000
0.63403975 0.00194746 -0.00172343 1.00000000
0.80742229 -0.00275981 0.00372435 1.00000000
2.04714848 0.00009336 0.00300287 1.00000000
3.44558333 -0.00067635 -0.00444724 1.00000000
1.46942241 -0.00121510 -0.00282830 1.00000000
0.84235590 0.00320543 0.00090084 1.00000000
2.23394904 0.00095073 -0.00033510 1.00000000
2.18540926 0.00392408 0.00299400 1.00000000
1.96411967 0.00262413 -0.00126893 1.00000000
1.44395407 0.00087650 0.00352935 1.00000000
3.89446144 -0.00320105 -0.00056278 1.00000000
3.64261983 0.00167996 0.00012033 1.00000000
2.14727166 -0.00069294 0.00109547 1.00000000
2.13352145 -0.00055738 -0.00051856 1.00000000
0.54335814 -0.00142677 0.00047610 1.00000000
2.70740782 -0.00012909 0.00354277 1.00000000
0.42040123 -0.00324762 -0.00402676 1.00000000
0.50321629 0.00020204 -0.00147265 1.00000000
1.07149654 -0.00543287 0.00235783 1.00000000
2.68619618 -0.00047073 -0.00210852 1.00000000
3.08935830 0.00119955 0.00054046 1.00000000
2.51571498 0.00015452 0.00109891 1.00000000
1.03351453 0.00169098 -0.00120602 1.00000000
3.92710710 0.00348761 -0.00352058 1.00000000
3.70637408 0.00434008 0.00122140 1.00000000
0.57402887 0.00212337 -0.00042563 1.00000000
2.52006900 0.00011974 0.00301127 1.00000000
0.28607098 -0.00281688 0.00204843 1.00000000
0.62205770 0.00067705 -0.00064319 1.00000000
0.69231686 -0.00420874 0.00295200 1.00000000
0.95907954 -0.00146479 -0.00027399 1.00000000
1.44110780 -0.00276957 0.00339882 1.00000000
2.69768177 0.00036258 -0.00109167 1.00000000
1.03852006 -0.00073734 0.00276889 1.00000000
2.80269661 0.00081270 -0.00596146 1.00000000
2.97114993 0.00400578 0.00183584 1.00000000
1.91552729 -0.00179694 -0.00157506 1.00000000
3.15220912 -0.00414363 -0.00186404 1.00000000
3.24560361 -0.00014015 0.00130278 1.00000000
0.78469677 0.00043180 -0.00094487 1.00000000
3.25654501 0.00021918 0.00159813 1.00000000
2.95077149 -0.00218732 -0.00085680 1.00000000
1.47788716 -0.00063736 0.00237460 1.00000000
2.97911476 -0.00168177 0.00084690 1.00000000
2.84294091 -0.00250638 -0.00157106 1.00000000
3.68384537 -0.00334120 0.00202598 1.00000000
3.51170951 0.00150793 0.00032428 1.00000000
3.79667913 -0.00327453 -0.00303434 1.00000000
0.07577444 0.00085993 -0.00237969 1.00000000
2.82539891 0.00034778 -0.00305058 1.00000000
3.19044594 -0.00127397 0.00371291 1.00000000
3.93432177 0.00070317 -0.00354444 1.00000000
3.68193967 -0.00321772 0.00109782 1.00000000
2.53500706 0.00333729 -0.00185167 1.00000000
2.03067035 -0.00025624 -0.00156834 1.00000000
2.77777857 -0.00421102 -0.00486668 1.00000000
3.35749057 0.00085530 0.00138898 1.00000000
2.78124469 0.00129470 -0.00011267 1.00000000
1.53953243 0.00038890 0.00421650 1.00000000
0.35471366 -0.00114520 0.00503993 1.00000000
1.39261889 -0.00050073 0.00026805 1.00000000
2.61443449 0.00063855 -0.00406778 1.00000000
2.46625343 0.00138855 -0.00070199 1.00000000
1.63709111 0.00178991 -0.00097638 1.00000000
2.99318789 0.00402996 0.00129252 1.00000000
2.90285799 -0.00141575 0.00418540 1.00000000
0.00772698 -0.00312691 -0.00003559 1.00000000
2.74573878 0.00201347 0.00272249 1.00000000
0.09006887 -0.00091137 0.00368945 1.00000000
2.93953699 -0.00259032 0.00152714 1.00000000
3.13574214 0.00336081 -0.00154716 1.00000000
2.35991622 -0.00367960 0.00316923 1.00000000
1.40083588 0.00071069 0.00003991 1.00000000
2.63614705 0.00001129 0.00036434 1.00000000
0.30655754 0.00034284 0.00415731 1.00000000
1.95786470 0.00197774 0.00241119 1.00000000
0.82641640 -0.00081381 -0.00689510 1.00000000
2.31441554 -0.00054284 0.00199760 1.00000000
2.48298259 0.00344450 -0.00032101 1.00000000
1.06825717 0.00730918 0.00028498 1.00000000
1.89141050 0.00130394 0.00339191 1.00000000
0.31012642 -0.00151972 -0.00023023 1.00000000
3.84102453 -0.00059479 -0.00248504 1.00000000
0.67818006 0.00241029 0.00013465 1.00000000
0.07515367 -0.00364792 -0.00011730 1.00000000
1.04070228 0.00008482 -0.00214297 1.00000000
0.57905809 0.00328808 0.00138459 1.00000000
0.59641068 -0.00061347 -0.00060971 1.00000000
0.78538180 0.00161493 0.00396975 1.00000000
2.30212766 -0.00134073 -0.00388540 1.00000000
2.68239885 -0.00033710 -0.00325067 1.00000000
0.58301596 -0.00005109 0.00080795 1.00000000
3.80195039 -0.00045632 0.00031611 1.00000000
0.87688136 -0.00026269 -0.00139150 1.00000000
1.76075206 0.00362506 0.00081246 1.00000000
3.27671048 -0.00089377 0.00234789 1.00000000
1.00874658 0.00027634 -0.00302757 1.00000000
1.04415741 -0.00591192 -0.00057968 1.00000000
1.03860941 0.00044216 -0.00116474 1.00000000
0.32161947 -0.00177589 -0.00838865 1.00000000
3.44696369 -0.00082151 -0.00134724 1.00000000
0.66353101 0.00064427 -0.00253556 1.00000000
3.96816031 0.00173197 -0.00139635 1.00000000
2.51276637 -0.00187479 0.00211735 1.00000000
3.58984040 0.00122710 -0.00043031 1.00000000
3.44010299 -0.00106660 0.00029074 1.00000000
3.81780625 0.00140753 0.00212009 1.00000000
2.68399786 0.00278745 0.00598491 1.00000000
1.59452027 -0.00351048 0.00014182 1.00000000
3.29277812 0.00175802 -0.00564930 1.00000000
3.86854228 0.00262778 -0.00019799 1.00000000
1.40011857 -0.00005883 -0.00120750 1.00000000
3.73560145 -0.00099955 -0.00402931 1.00000000
2.81721288 -0.00043507 0.00015179 1.00000000
1.47682690 -0.00105705 0.00268189 1.00000000
1.28121369 0.00284128 -0.00023709 1.00000000
2.06406775 0.00317509 -0.00186082 1.00000000
0.57278332 -0.00253950 0.00082923 1.00000000
0.29244733 -0.00089814 -0.00009799 1.00000000
0.66217378 0.00085172 -0.00375408 1.00000000
1.16590371 0.00119022 -0.00451817 1.00000000
3.65422253 0.00114990 -0.00623256 1.00000000
2.08369569 0.00105297 0.00073313 1.00000000
2.83292660 -0.00008325 -0.00052186 1.00000000
1.56064275 -0.00031390 -0.00138132 1.00000000
0.20338675 -0.00030586 0.00128645 1.00000000
3.47939517 0.00156952 0.00059888 1.00000000
0.93498696 -0.00105331 -0.00031870 1.00000000
1.35344554 0.00109011 -0.00181073 1.00000000
1.93581819 -0.00384851 0.00094003 1.00000000
1.17417152 -0.00111301 0.00266889 1.00000000
1.13572782 0.00346158 -0.00043993 1.00000000
3.56842037 -0.00332380 -0.00031652 1.00000000
0.30677118 -0.00036382 0.00074289 1.00000000
3.80953349 -0.00011473 0.00018133 1.00000000
3.38038238 -0.00232341 0.00418412 1.00000000
1.30757193 0.00066729 0.00066920 1.00000000
0.92002583 0.00098188 -0.00047858 1.00000000
0.15292053 0.00257239 -0.00305657 1.00000000
0.16939847 -0.00324471 -0.00167430 1.00000000
2.57765269 0.00273461 -0.00112652 1.00000000
0.95299484 0.00016324 -0.00201230 1.00000000
3.92453606 -0.00053657 -0.00573070 1.00000000
1.76120288 -0.00186424 -0.00005023 1.00000000
3.45715341 0.00068394 -0.00135807 1.00000000
2.71639083 -0.00212088 -0.00291817 1.00000000
0.03696353 -0.00048075 0.00037333 1.00000000
3.03910934 0.00204933 -0.00313448 1.00000000
3.05848740 0.00016948 0.00318818 1.00000000
2.18319821 -0.00231303 -0.00005526 1.00000000
0.53885664 -0.00062083 0.00459204 1.00000000
4.06719103 0.00210608 0.00337672 1.00000000
3.77781623 -0.00081272 -0.00032198 1.00000000
3.81617477 -0.00433942 0.00431491 1.00000000
2.95676917 -0.00120502 0.00202145 1.00000000
1.75147685 0.00054796 -0.00245602 1.00000000
2.54162652 0.00377333 -0.00453429 1.00000000
0.51022804 0.00279722 0.00425771 1.00000000
3.52211934 0.00371987 0.00262172 1.00000000
3.55492441 0.00264072 0.00298499 1.00000000
1.86850734 0.00224868 0.00075795 1.00000000
3.02382173 0.00096627 0.00085060 1.00000000
0.98279897 -0.00181644 0.00205511 1.00000000
1.28171933 0.00400936 -0.00003160 1.00000000
3.44108410 -0.00002718 -0.00300630 1.00000000
2.15083271 0.00137340 0.00061237 1.00000000
1.50343742 -0.00144405 -0.00015004 1.00000000
2.67155061 0.00063286 -0.00093884 1.00000000
0.81852079 0.00110463 -0.00215612 1.00000000
3.27686987 0.00152851 0.00556705 1.00000000
4.08073576 0.00445857 0.00094340 1.00000000
0.16611401 -0.00092625 0.00028635 1.00000000
2.31745347 -0.00075959 -0.00035079 1.00000000
0.21567181 -0.00140988 0.00023841 1.00000000
2.14331028 -0.00057775 0.00133692 1.00000000
0.95210132 0.00223480 -0.00226743 1.00000000
0.61401772 -0.00056070 -0.00075629 1.00000000
2.33938667 0.00165096 -0.00126025 1.00000000
3.13712855 -0.00103006 -0.00289269 1.00000000
2.43778540 0.00332693 -0.00387850 1.00000000
3.65248261 0.00036948 -0.00723672 1.00000000
1.03150207 -0.00058108 0.00259674 1.00000000
0.23000824 0.00040754 0.00322196 1.00000000
1.75104307 0.00058428 -0.00057593 1.00000000
2.39808199 0.00119753 0.00161450 1.00000000
3.37218187 -0.00190580 -0.00100127 1.00000000
3.45137727 -0.00157844 0.00472851 1.00000000
3.12523644 0.00113187 0.00047476 1.00000000
0.62363667 0.00128867 0.00448948 1.00000000
0.70691676 0.00275633 0.00064837 1.00000000
0.25846016 -0.00003711 0.00169120 1.00000000
3.46589533 0.00473766 0.00152438 1.00000000
0.64241145 0.00065007 -0.00227652 1.00000000
3.97365894 -0.00051751 -0.00368036 1.00000000
2.93016686 -0.00387788 0.00050160 1.00000000
0.86206778 0.00145164 0.00117333 1.00000000
2.62702586 -0.00250407 0.00228509 1.00000000
0.13738210 0.00483532 0.00276769 1.00000000
2.53043407 0.00313234 0.00352216 1.00000000
1.32279265 -0.00342264 -0.00432713 1.00000000
0.41222043 -0.00002885 0.00110767 1.00000000
0.31375445 0.00507193 -0.00503683 1.00000000
0.96609769 -0.00100785 -0.00025242 1.00000000
3.33628073 -0.00107474 0.00306213 1.00000000
0.24344729 -0.00173395 0.00318458 1.00000000
2.04821054 0.00236036 0.00204181 1.00000000
1.50347006 0.00321294 -0.00045402 1.00000000
2.54142578 0.00377222 -0.00027107 1.00000000
2.79306810 -0.00201742 0.00103714 1.00000000
1.13689553 0.00444536 -0.00130674 1.00000000
1.45845058 -0.00012538 -0.00067098 1.00000000
2.32631873 -0.00026070 0.00035974 1.00000000
0.52055184 0.00058411 -0.00092649 1.00000000
0.20581923 0.00167178 -0.00004112 1.00000000
2.94085301 -0.00299431 -0.00234780 1.00000000
0.07697546 -0.00099846 -0.00058787 1.00000000
1.41600459 -0.00101984 -0.00098377 1.00000000
0.46120836 -0.00198784 -0.00108145 1.00000000
1.74158280 0.00266769 0.00184121 1.00000000
0.27648304 0.00565464 -0.00340777 1.00000000
1.04382759 -0.00254914 0.00127433 1.00000000
2.24542956 0.00014811 0.00128389 1.00000000
1.13156761 -0.00265517 -0.00173690 1.00000000
3.98866070 0.00109811 0.00602887 1.00000000
1.90353069 -0.00024914 -0.00040555 1.00000000
1.88256414 -0.00087599 0.00269427 1.00000000
3.74969104 0.00227692 0.00080354 1.00000000
3.97209617 -0.00063977 -0.00331797 1.00000000
2.46820134 -0.00379361 -0.00021159 1.00000000
2.34669876 -0.00090545 -0.00205796 1.00000000
0.85920442 -0.00074071 -0.00033300 1.00000000
3.17578842 0.00263479 -0.00293809 1.00000000
3.58745977 -0.00075969 -0.00088976 1.00000000
1.87191419 0.00281924 0.00373922 1.00000000
3.19469106 0.00037279 0.00239880 1.00000000
0.67453868 0.00277476 -0.00286642 1.00000000
0.80543131 0.00473916 -0.00117956 1.00000000
0.39043159 -0.00230265 -0.00014683 1.00000000
2.47422003 0.00180138 0.00203930 1.00000000
2.30962553 -0.00013575 0.00327914 1.00000000
2.25370591 -0.00385767 -0.00271287 1.00000000
0.35497730 0.00294399 -0.00287484 1.00000000
3.51218321 -0.00118725 -0.00092508 1.00000000
1.27119552 -0.00248014 0.00192921 1.00000000
2.73206688 -0.00213482 -0.00262938 1.00000000
1.15799586 -0.00219914 -0.00081998 1.00000000
3.62832907 -0.00008174 -0.00635511 1.00000000
2.75399573 -0.00089136 -0.00302767 1.00000000
3.17688583 -0.00006083 -0.00153485 1.00000000
0.05221176 -0.00317327 -0.00071867 1.00000000
1.68274424 0.00236288 0.00268969 1.00000000
3.11279543 0.00014357 -0.00082809 1.00000000
1.60432387 0.00064921 -0.00143513 1.00000000
0.57105856 0.00187780 -0.00330416 1.00000000
1.54505296 0.00070934 -0.00050317 1.00000000
3.78677173 0.00063785 0.00213183 1.00000000
2.30885132 0.00560787 -0.00191081 1.00000000
0.38347797 0.00016333 -0.00188302 1.00000000
0.50637912 0.49805387 0.00121041 0.00000000
3.10351995 1.62462765 0.00067380 0.00000000
3.12581050 1.66841938 0.00147656 0.00000000
0.97074966 1.64444808 0.00099146 0.00000000
3.87474205 0.43757848 -0.00096149 0.00000000
2.18953477 0.62922469 -0.00057066 0.00000000
1.80197628 1.19869911 0.00156116 0.00000000
0.43876978 0.76676380 -0.00056411 0.00000000
0.30486560 1.41341847 0.00125879 0.00000000
3.58095787 1.11186438 0.00155552 0.00000000
1.02510041 0.54046786 0.00388868 0.00000000
0.51406198 0.73112020 0.00266270 0.00000000
2.45450708 1.01232959 -0.00200701 0.00000000
1.70935688 1.00991800 0.00380126 0.00000000
2.92914459 1.74337256 0.00187061 0.00000000
0.14637488 1.91807935 -0.00142220 0.00000000
2.68699327 0.11138263 -0.00294837 0.00000000
2.49627202 0.31800302 0.00303873 0.00000000
0.62473791 1.08145664 -0.00077311 0.00000000
0.08844531 0.31282424 -0.00301667 0.00000000
0.11412846 0.50831692 0.00096371 0.00000000
2.95658270 0.05350444 -0.00369273 0.00000000
3.30958137 0.01788688 -0.00068968 0.00000000
0.15147760 2.22717079 -0.00102344 0.00000000
2.14101094 1.54053287 0.00290204 0.00000000
3.80318044 0.85398879 0.00132719 0.00000000
3.59737411 1.79088124 -0.00083217 0.00000000
1.35737358 2.13566388 -0.00264751 0.00000000
2.33928247 0.93040255 0.00111848 0.00000000
2.00700416 2.11357432 0.00166635 0.00000000
3.33951812 1.87722148 0.00161449 0.00000000
2.65214080 1.69842982 -0.00161982 0.00000000
2.46048718 0.02205912 0.00059816 0.00000000
4.02037985 1.91472179 0.00109617 0.00000000
1.51583978 1.00536054 -0.00133851 0.00000000
3.89232327 1.51664187 0.00100380 0.00000000
1.98412733 1.18006872 0.00093229 0.00000000
1.91386911 1.61891772 0.00173039 0.00000000
3.56029609 0.44590756 0.00346252 0.00000000
3.69600339 1.34616295 -0.00203462 0.00000000
3.55074745 0.07993052 0.00411083 0.00000000
3.27373673 1.10254057 0.00165212 0.00000000
0.84447627 1.59599409 -0.00001965 0.00000000
1.70830018 1.98137616 -0.00197006 0.00000000
0.14599747 0.07004149 0.00270770 0.00000000
3.00386367 1.37745779 -0.00368911 0.00000000
2.41829145 0.37477685 0.00369316 0.00000000
1.24091374 0.26131954 -0.00079132 0.00000000
3.41839664 0.62442679 0.00178844 0.00000000
2.44067475 0.24742062 -0.00737013 0.00000000
0.82399059 0.77406779 0.00229438 0.00000000
3.83417478 0.66533511 0.00107378 0.00000000
0.30747855 1.77039086 0.00040835 0.00000000
1.36814374 0.58334795 0.00002882 0.00000000
2.13162597 0.10747315 -0.00568832 0.00000000
3.71855149 1.70354492 0.00176571 0.00000000
2.30750529 1.79515992 0.00164823 0.00000000
0.38429997 2.20539826 0.00101119 0.00000000
3.55659071 1.49092201 -0.00175127 0.00000000
0.28340812 1.48960977 0.00000364 0.00000000
0.36193942 1.79481513 0.00642619 0.00000000
3.97568155 1.18659097 0.00191018 0.00000000
3.87044533 0.83947547 0.00125496 0.00000000
0.33450032 1.77433910 -0.00171704 0.00000000
1.23558480 0.30481274 0.00178660 0.00000000
1.31344471 1.57724543 -0.00324503 0.00000000
2.06493940 1.19912959 -0.00392543 0.00000000
0.01638637 0.48734464 -0.00061934 0.00000000
3.95704757 0.57236700 -0.00139241 0.00000000
0.13139988 0.76812283 0.00109403 0.00000000
1.51250207 1.21125140 0.00078708 0.00000000
1.93031229 0.96102981 -0.00441822 0.00000000
1.22356925 0.35037747 0.00121493 0.00000000
0.98824450 1.96487492 0.00161563 0.00000000
4.08110604 1.55036851 0.00145192 0.00000000
2.93594887 0.83527203 -0.00114668 0.00000000
2.57542780 0.16071658 0.00411482 0.00000000
1.21714224 2.19912750 0.00152812 0.00000000
3.17793267 1.98198025 0.00321051 0.00000000
3.75129130 1.60248980 -0.00046880 0.00000000
3.71535821 2.04446214 -0.00567720 0.00000000
1.96824806 1.85663837 -0.00271540 0.00000000
1.06323212 1.07648799 -0.00145179 0.00000000
3.68713326 0.62346082 0.00429855 0.00000000
1.20914553 2.24170750 0.00265827 0.00000000
0.02289253 0.80036403 0.00112701 0.00000000
1.39636867 2.08253974 -0.00064097 0.00000000
0.57041727 1.92812307 0.00366569 0.00000000
1.24231471 0.57495969 -0.00180356 0.00000000
2.08285565 0.01303320 0.00094137 0.00000000
1.60599337 0.67039242 0.00101738 0.00000000
2.63440966 1.35097319 0.00181255 0.00000000
2.53250357 0.34019340 -0.00149196 0.00000000
2.51453756 0.34328288 0.00236881 0.00000000
2.53268380 1.47013596 0.00216174 0.00000000
0.43173014 1.59493543 0.00180439 0.00000000
3.11222249 1.73550151 0.00214378 0.00000000
2.35232012 1.75078121 0.00200030 0.00000000
0.57272309 1.33416879 0.00562467 0.00000000
2.20932785 1.63010766 0.00132279 0.00000000
2.69818701 1.94450559 0.00220292 0.00000000
0.57707184 1.57436009 -0.00215617 0.00000000
0.78513874 2.15464581 -0.00369729 0.00000000
3.90674858 0.95514360 -0.00396376 0.00000000
0.72418433 1.88035710 0.00056869 0.00000000
3.91535463 1.33715573 -0.00589044 0.00000000
2.79583491 1.89135554 -0.00127058 0.00000000
3.16076188 0.06165556 -0.00472398 0.00000000
1.30858531 2.04999600 -0.00454477 0.00000000
2.51607220 0.63834165 0.00302180 0.00000000
4.02142580 1.92718823 -0.00355321 0.00000000
1.89401295 0.40576367 -0.00872038 0.00000000
1.78005146 0.62152229 0.00041961 0.00000000
3.03911348 0.29784085 -0.00130366 0.00000000
3.23114228 0.99952740 -0.00143532 0.00000000
1.74309099 1.97125455 0.00531014 0.00000000
0.60129909 2.05290097 0.00099688 0.00000000
2.00530003 0.66274630 -0.00186513 0.00000000
3.30892625 0.10443087 -0.00097320 0.00000000
0.48778348 2.17519542 -0.00178414 0.00000000
0.09704811 1.53262344 0.00245448 0.00000000
1.45254234 0.01510215 -0.00269015 0.00000000
4.06592602 0.41380822 -0.00228375 0.00000000
0.34520346 1.09727189 -0.00257166 0.00000000
4.01097064 0.34528217 -0.00353206 0.00000000
0.55516361 0.74251863 -0.00014820 0.00000000
1.83604551 0.72731118 0.00468978 0.00000000
2.14451990 1.96402932 -0.00525503 0.00000000
2.00643113 0.77419442 -0.00371421 0.00000000
0.60896455 0.61158935 0.00124931 0.00000000
0.43937489 1.31844784 0.00309587 0.00000000
2.12039391 0.50562149 0.00136342 0.00000000
1.49860735 1.05106507 -0.00113681 0.00000000
1.83144132 0.39378644 0.00262487 0.00000000
2.73349251 1.65742516 -0.00062678 0.00000000
0.96084299 1.93271551 0.00111126 0.00000000
1.26795882 0.49780370 -0.00007897 0.00000000
0.91367905 1.60297303 0.00091970 0.00000000
1.49262086 0.57999390 0.00322419 0.00000000
1.70132933 0.49203964 0.00161871 0.00000000
2.94660469 0.95681620 0.00091496 0.00000000
0.91904103 1.49098653 0.00216046 0.00000000
3.64892234 0.07454895 0.00003228 0.00000000
1.60006899 0.26491806 -0.00193858 0.00000000
3.03314259 0.34295593 0.00441860 0.00000000
0.85210825 0.75874379 -0.00067491 0.00000000
1.11339000 2.13513040 -0.00162819 0.00000000
1.47313851 0.10229061 0.00184258 0.00000000
2.08821189 0.62164486 0.00234480 0.00000000
2.53150262 1.41996949 -0.00195978 0.00000000
3.53347304 1.37082086 0.00260158 0.00000000
3.69478203 1.00033277 -0.00183563 0.00000000
2.31812847 2.10770950 0.00308135 0.00000000
1.31212393 0.18507855 -0.00074544 0.00000000
2.04852256 1.10226311 0.00025180 0.00000000
2.93942868 1.72977637 0.00280161 0.00000000
1.21758227 2.20686742 -0.00061919 0.00000000
3.39031329 1.56602975 -0.00038147 0.00000000
1.97603661 1.62590729 0.00219474 0.00000000
2.56620342 1.02658172 0.00342524 0.00000000
1.55643936 1.89677133 0.00121126 0.00000000
2.33285999 0.70814458 -0.00153433 0.00000000
2.50475589 1.76676368 -0.00016144 0.00000000
0.58584716 2.22105227 0.00049292 0.00000000
2.67264114 0.58510748 0.00206751 0.00000000
2.85147522 1.01380956 -0.00026732 0.00000000
1.06861784 1.72471865 -0.00192632 0.00000000
3.00301178 2.00429391 0.00081228 0.00000000
2.78952376 1.11768772 -0.00318960 0.00000000
0.09829403 1.27427604 -0.00461733 0.00000000
0.40623523 0.89094444 0.00026915 0.00000000
2.08522088 1.01866583 -0.00503597 0.00000000
0.66488846 1.88404405 0.00435353 0.00000000
1.90909552 0.32531349 -0.00195496 0.00000000
4.08968770 0.59204976 0.00294767 0.00000000
0.12577274 1.73574680 0.00224756 0.00000000
2.34511789 1.18451131 0.00368070 0.00000000
0.76740362 1.62501943 -0.00302784 0.00000000
1.64383050 1.32404799 0.00408459 0.00000000
2.40072755 1.10816163 -0.00379662 0.00000000
2.37707365 1.55816076 -0.00493911 0.00000000
2.19701057 0.60680617 -0.00152721 0.00000000
3.95315232 0.89753268 0.00016488 0.00000000
1.57346711 2.09222587 -0.00179834 0.00000000
4.03580601 0.71013709 -0.00207149 0.00000000
0.73131970 0.60056494 -0.00201549 0.00000000
3.59034666 1.46260973 -0.00037073 0.00000000
0.82661321 0.03931592 -0.00270579 0.00000000
0.66767431 2.15406820 0.00587312 0.00000000
2.60226985 0.52642885 0.00250870 0.00000000
3.10898472 2.20174622 -0.00070313 0.00000000
1.76903292 0.32762450 0.00514262 0.00000000
1.08506652 2.18805704 -0.00005145 0.00000000
1.99402835 1.54902314 0.00408446 0.00000000
0.99352658 0.13050320 -0.00303545 0.00000000
3.90993485 1.34603818 0.00007798 0.00000000
3.71981838 1.29610467 -0.00384926 0.00000000
2.25523821 0.95088504 0.00099488 0.00000000
2.34393366 1.00729196 -0.00255845 0.00000000
2.21424322 1.03735678 0.00229102 0.00000000
0.18772873 1.11981403 0.00185957 0.00000000
2.45529577 0.00336480 0.00083591 0.00000000
3.53434149 1.63319440 -0.00447154 0.00000000
2.49104980 0.33026255 -0.00167022 0.00000000
3.99687231 0.35021585 -0.00130052 0.00000000
1.09080981 0.65544761 -0.00070007 0.00000000
2.77881494 1.36932954 -0.00574468 0.00000000
1.07843184 0.18826818 -0.00430737 0.00000000
0.49476322 0.17831261 -0.00058090 0.00000000
3.04452469 1.95960835 -0.00099397 0.00000000
3.52566672 1.14455023 0.00065178 0.00000000
1.17844659 1.26367988 -0.00435845 0.00000000
3.18870504 1.54455816 -0.00126235 0.00000000
2.59213382 0.19529601 0.00109853 0.00000000
2.30617866 1.51515694 -0.00305572 0.00000000
1.34107551 0.01664012 -0.00143619 0.00000000
1.94685514 1.34846828 -0.00068114 0.00000000
2.46816536 1.31568554 -0.00103882 0.00000000
0.26143213 0.90158641 -0.00375648 0.00000000
3.81268643 1.23557881 -0.00095965 0.00000000
0.90024165 0.84918552 -0.00351558 0.00000000
1.76522403 1.00059991 -0.00070703 0.00000000
3.26577478 1.79015354 -0.00027621 0.00000000
2.48127374 1.97490076 0.00037136 0.00000000
2.21677741 1.04893399 -0.00553955 0.00000000
1.41508529 1.12585196 -0.00169776 0.00000000
3.54192343 0.45948333 -0.00088892 0.00000000
0.65465301 0.15802578 -0.00104644 0.00000000
0.97087829 0.65834543 -0.00260228 0.00000000
4.00749208 2.07303385 0.00096488 0.00000000
2.33911170 2.00684080 0.00325832 0.00000000
1.61587756 0.51635540 -0.00098488 0.00000000
0.29944130 0.57800193 -0.00041742 0.00000000
2.22295701 0.89948606 0.00076869 0.00000000
3.98103181 2.05251064 -0.00240983 0.00000000
3.86995453 0.58329365 -0.00027755 0.00000000
0.59575854 0.79138049 0.00039249 0.00000000
0.19169605 1.50265771 0.00311078 0.00000000
0.53294199 1.26758822 -0.00075457 0.00000000
1.22255731 1.65623111 0.00406169 0.00000000
2.11488720 0.58946040 0.00114887 0.00000000
1.22330800 0.02930339 0.00002152 0.00000000
1.14034027 0.17508886 0.00112535 0.00000000
3.06244501 1.54321262 -0.00078255 0.00000000
1.92122853 1.71846469 0.00045073 0.00000000
4.05118300 1.47288809 0.00062323 0.00000000
1.79614973 2.19524386 0.00892181 0.00000000
0.01118736 1.11108536 0.00372449 0.00000000
2.09756154 1.87137108 -0.00065315 0.00000000
0.71252733 0.15779157 -0.00002196 0.00000000
0.63341915 0.83528575 0.00363533 0.00000000
0.94796769 2.03148239 0.00425934 0.00000000
2.94848867 0.89755200 -0.00422312 0.00000000
3.53036638 1.36127866 -0.00033017 0.00000000
1.62719135 0.35888269 -0.00329164 0.00000000
2.57157642 1.13631126 0.00011529 0.00000000
4.03083129 1.06836842 -0.00139373 0.00000000
2.64969774 1.05649510 -0.00303777 0.00000000
3.63865636 0.89164425 -0.00558911 0.00000000
1.32041710 0.43994697 0.00362008 0.00000000
2.43152205 0.86276152 -0.00508515 0.00000000
3.88442195 1.18396114 -0.00091093 0.00000000
2.47882988 2.08472975 -0.00126981 0.00000000
1.59211455 0.64408480 0.00295080 0.00000000
0.83817253 0.25265117 0.00167486 0.00000000
1.84083100 1.18517023 0.00349946 0.00000000
1.24033263 1.14984644 -0.00147225 0.00000000
1.98179276 1.89953306 -0.00007885 0.00000000
1.37923870 1.87302061 0.00170315 0.00000000
3.28006503 0.39137441 0.00062714 0.00000000
0.53592046 0.18083555 -0.00081922 0.00000000
0.35975956 1.75543979 0.00325450 0.00000000
2.24818091 1.50984596 0.00484652 0.00000000
0.55115190 1.15946808 0.00317104 0.00000000
3.01547981 1.20156107 -0.00444391 0.00000000
0.10590999 1.12609262 0.00327883 0.00000000
2.31455914 2.18225436 -0.00277233 0.00000000
2.55957152 0.57606122 -0.00523597 0.00000000
1.75045654 0.45544086 0.00160818 0.00000000
1.64168510 2.18969550 0.00154731 0.00000000
2.37157174 2.14313722 0.00388099 0.00000000
2.19821552 1.75971036 0.00290577 0.00000000
3.12888682 0.88642100 0.00139229 0.00000000
1.35130083 1.40371119 -0.00112966 0.00000000
3.73074427 1.30609305 0.00153159 0.00000000
2.81513548 0.23726095 -0.00151606 0.00000000
0.14828980 0.54536995 -0.00094609 0.00000000
0.99533469 1.33736422 -0.00070268 0.00000000
2.74771100 1.26308175 0.00091359 0.00000000
1.59640073 1.31017101 -0.00276248 0.00000000
3.09044761 0.80850238 -0.00481074 0.00000000
1.90985851 2.20680544 0.00245159 0.00000000
1.75684842 0.01781377 0.00150239 0.00000000
2.84064303 0.56389913 0.00062369 0.00000000
3.19940281 0.53454715 0.00451945 0.00000000
0.13812824 1.42374753 0.00224182 0.00000000
2.09738929 1.83564207 0.00251555 0.00000000
1.96929556 1.06142413 -0.00109552 0.00000000
3.95173637 2.03760785 -0.00261036 0.00000000
2.23579275 2.12184231 -0.00135262 0.00000000
3.77336205 0.51300220 -0.00508375 0.00000000
0.16770820 1.78103248 -0.00298999 0.00000000
3.49419121 0.70235874 -0.00239379 0.00000000
1.73255149 2.12797804 -0.00055703 0.00000000
2.10686285 1.89338315 -0.00009600 0.00000000
2.71674669 0.08218338 -0.00209488 0.00000000
2.23955723 1.16949489 0.00219310 0.00000000
2.15001776 1.80650875 0.00263291 0.00000000
3.91025009 2.17063859 0.00095892 0.00000000
0.42003370 1.60565158 -0.00310955 0.00000000
3.74590409 0.60046565 -0.00167391 0.00000000
0.80067854 0.15552233 0.00087257 0.00000000
0.49119677 1.31152654 -0.00312119 0.00000000
3.25855036 0.39458716 -0.00336102 0.00000000
2.39167126 0.78655044 -0.00391473 0.00000000
1.33158432 1.83955682 -0.00076356 0.00000000
2.85367916 1.05590008 0.00394468 0.00000000
2.95358748 0.82096274 -0.00241045 0.00000000
2.45350360 1.07668030 -0.00125318 0.00000000
2.07990135 0.74008621 0.00299333 0.00000000
1.55545423 0.68992096 0.00402537 0.00000000
2.50495375 1.28364381 0.00026177 0.00000000
3.28086051 1.75382036 -0.00058781 0.00000000
3.94300509 1.92192013 0.00125071 0.00000000
0.98045752 0.44493581 0.00642860 0.00000000
2.89493695 0.09922556 0.00568357 0.00000000
0.51391432 0.06981254 -0.00122385 0.00000000
2.07556254 0.86162399 -0.00166354 0.00000000
0.28644003 1.38195321 0.00146140 0.00000000
2.95610396 0.03920363 -0.00020367 0.00000000
1.69271181 1.27853125 -0.00302740 0.00000000
1.45609373 0.64167156 -0.00592734 0.00000000
1.31745161 1.28046846 -0.00247052 0.00000000
3.15090986 0.84440110 0.00304904 0.00000000
0.59860961 1.29142915 -0.00208298 0.00000000
0.56607306 2.03068085 -0.00112971 0.00000000
3.05730989 0.21549744 -0.00610901 0.00000000
3.39494556 2.06837325 -0.00273014 0.00000000
1.15176891 2.18063745 -0.00215331 0.00000000
2.45751300 1.52622754 0.00250493 0.00000000
0.59473499 1.13838331 -0.00154232 0.00000000
1.54828657 1.24832894 -0.00623248 0.00000000
2.85991688 1.66631245 0.00067156 0.00000000
3.06451813 1.83528873 -0.00018989 0.00000000
2.00192975 1.41821027 -0.00038147 0.00000000
1.62831883 1.73823922 -0.00227280 0.00000000
1.82632908 1.55552205 -0.00016161 0.00000000
2.34434686 1.29145417 0.00298999 0.00000000
1.46432232 0.99893272 -0.00026033 0.00000000
0.65665332 0.54441447 0.00203202 0.00000000
2.63499733 0.07189151 -0.00009890 0.00000000
1.25060443 0.06856162 -0.00174997 0.00000000
1.02242494 1.95663346 -0.00226472 0.00000000
0.34867414 1.57955177 0.00061381 0.00000000
0.57842866 1.35494260 0.00230507 0.00000000
0.56968845 1.13820770 0.00088678 0.00000000
3.48535324 0.34805770 0.00204687 0.00000000
3.00460815 0.61738891 -0.00007714 0.00000000
2.08608064 0.25631367 -0.00274571 0.00000000
1.50817536 1.94250665 0.00124926 0.00000000
0.24048128 0.06061607 -0.00001793 0.00000000
1.34179904 1.49679640 -0.00176160 0.00000000
2.64214479 0.63075123 0.00288361 0.00000000
3.66132656 0.04041335 -0.00927809 0.00000000
3.55788411 0.48319772 0.00059242 0.00000000
2.22263809 0.63973531 -0.00144432 0.00000000
1.43620093 1.83351408 -0.00433841 0.00000000
1.91672748 1.74584032 -0.00032042 0.00000000
1.62976325 0.64519682 0.00115540 0.00000000
3.63449426 0.18431301 0.00108482 0.00000000
0.66453254 2.20218849 -0.00276821 0.00000000
0.04090914 2.23758333 -0.00078410 0.00000000
0.20298752 0.18190801 0.00360707 0.00000000
0.00079410 0.60797145 0.00137646 0.00000000
1.77168906 1.93624403 -0.00284654 0.00000000
3.57775863 0.04787654 -0.00034955 0.00000000
2.92891743 1.90706558 -0.00018276 0.00000000
1.86383390 1.27582773 0.00135308 0.00000000
3.40549386 0.60881315 0.00304418 0.00000000
2.92193837 0.64184534 -0.00303054 0.00000000
2.20465266 0.55589532 -0.00065075 0.00000000
3.98282420 0.85851388 -0.00205658 0.00000000
1.91652950 1.74565764 -0.00052234 0.00000000
2.04317618 0.00436739 -0.00378794 0.00000000
4.04664248 2.13787883 0.00023129 0.00000000
3.58739322 1.99083917 -0.00146155 0.00000000
0.16010118 1.73057622 -0.00029552 0.00000000
2.93522227 0.77884203 -0.00042292 0.00000000
3.83238512 0.19731381 -0.00014046 0.00000000
0.88468993 1.74284520 -0.00054705 0.00000000
0.40448462 1.21146302 0.00023422 0.00000000
1.54826126 1.09284241 0.00085784 0.00000000
2.59481154 0.35210222 -0.00268024 0.00000000
3.47791313 1.60414497 -0.00101069 0.00000000
3.23599108 1.05343708 -0.00072997 0.00000000
2.65531364 1.42795755 0.00289339 0.00000000
1.58295888 1.00585519 0.00194463 0.00000000
1.21180845 0.78950812 0.00268797 0.00000000
2.64829740 1.97683805 0.00534974 0.00000000
0.78008676 0.06090947 0.00257571 0.00000000
1.17903219 0.67598836 0.00123381 0.00000000
0.92307497 0.36982499 0.00481673 0.00000000
3.36310696 0.45208525 0.00081612 0.00000000
1.51911638 0.25743100 -0.00117005 0.00000000
1.11283294 0.56562392 -0.00240149 0.00000000
0.16169198 0.09089157 0.00037744 0.00000000
1.22888059 2.01584525 0.00041895 0.00000000
1.82673137 1.38333133 -0.00161261 0.00000000
1.78340411 0.98721365 -0.00353899 0.00000000
1.80245995 0.47766705 -0.00230340 0.00000000
2.18045750 0.28070688 0.00346240 0.00000000
3.49928885 0.92922986 -0.00256079 0.00000000
2.19768277 1.08396425 -0.00298044 0.00000000
2.79478162 0.28990558 -0.00562209 0.00000000
3.10005016 0.46151651 -0.00171232 0.00000000
0.02794691 2.03424203 0.00193799 0.00000000
3.85068388 0.36279350 0.00039576 0.00000000
0.26203803 1.07067431 -0.00016258 0.00000000
2.20535265 1.37852519 -0.00312608 0.00000000
3.99140607 1.80546765 0.00084087 0.00000000
1.53622957 1.36596181 -0.00244616 0.00000000
3.41799060 1.26884705 0.00259003 0.00000000
3.40460178 1.37722847 -0.00344331 0.00000000
1.33965366 0.97903086 -0.00001070 0.00000000
1.02017449 1.79576466 -0.00020231 0.00000000
1.25389942 2.22663603 -0.00071832 0.00000000
2.49560194 0.14841484 -0.00061401 0.00000000
3.11063503 0.88418623 0.00107167 0.00000000
0.92556807 2.14705631 0.00173648 0.00000000
2.78883410 1.87993873 0.00054561 0.00000000
2.72305395 1.20301422 0.00144382 0.00000000
0.32577657 0.63562604 -0.00151149 0.00000000
0.67250291 0.29866941 -0.00076194 0.00000000
3.01378363 1.50414264 -0.00015781 0.00000000
1.52490952 1.33174977 -0.00248196 0.00000000
1.18121047 0.24092986 0.00097181 0.00000000
0.32394599 1.55955580 -0.00293800 0.00000000
1.84793274 1.75026310 -0.00280951 0.00000000
3.31378832 0.80565165 -0.00206346 0.00000000
1.05585682 2.01784159 0.00215612 0.00000000
1.29610964 2.14937421 -0.00073223 0.00000000
3.01197342 1.31317660 0.00271465 0.00000000
3.74117280 1.13476281 0.00033023 0.00000000
1.44830908 1.38664745 -0.00014852 0.00000000
1.25616030 0.17383918 -0.00028593 0.00000000
0.86374717 1.92631250 0.00667130 0.00000000
2.41736951 1.94346075 0.00302262 0.00000000
1.62876070 1.91855528 0.00495552 0.00000000
3.93218844 1.27157907 0.00072243 0.00000000
0.27849026 1.24543709 -0.00090367 0.00000000
1.55838375 0.43523172 -0.00017050 0.00000000
2.39410511 1.37002965 -0.00261199 0.00000000
0.83426574 0.02298145 -0.00153658 0.00000000
4.07950590 1.95818708 -0.00131087 0.00000000
3.87107464 1.96505916 -0.00109286 0.00000000
1.95620844 0.30623588 0.00297760 0.00000000
0.21968832 1.68217336 -0.00123688 0.00000000
1.23138450 0.70255243 0.00258905 0.00000000
1.75161719 2.03145737 0.00236810 0.00000000
0.79070625 1.56947586 0.00294533 0.00000000
2.71414501 1.00771795 -0.00196629 0.00000000
1.17773000 1.32629287 -0.00188023 0.00000000
2.58723226 2.08964925 -0.00033172 0.00000000
3.63741440 2.21126536 -0.00110335 0.00000000
0.59309467 1.92215384 -0.00186067 0.00000000
3.12524617 1.09479807 -0.00163038 0.00000000
3.06847863 1.55190988 -0.00106494 0.00000000
2.36671839 1.21429074 0.00059075 0.00000000
2.36623008 1.57772522 0.00257605 0.00000000
3.38596056 1.14997548 -0.00120543 0.00000000
1.39639470 1.97681209 -0.00013013 0.00000000
1.23356833 1.06770973 -0.00110721 0.00000000
0.75324329 1.01821028 -0.00024276 0.00000000
2.05730285 1.94950609 -0.00120994 0.00000000
2.45746720 0.46553650 -0.00180659 0.00000000
1.35908969 1.81108857 0.00438867 0.00000000
3.47339871 1.91190269 -0.00181165 0.00000000
0.21933909 0.11004927 0.00089729 0.00000000
1.16119920 0.61855561 0.00417867 0.00000000
1.85807778 0.32145916 -0.00117545 0.00000000
1.24586389 2.00235958 -0.00355642 0.00000000
0.39096030 1.30436775 -0.00206070 0.00000000
3.63944765 0.56317133 0.00013519 0.00000000
2.08952019 1.54415531 -0.00761789 0.00000000
0.74151322 1.23723568 0.00035922 0.00000000
3.54575732 0.62709724 -0.00497001 0.00000000
1.05406356 1.31017990 -0.00051047 0.00000000
0.14347949 0.92061118 -0.00304868 0.00000000
1.21880465 2.06117412 0.00239162 0.00000000
0.79434962 0.85221254 0.00009007 0.00000000
1.59067674 1.03223131 -0.00006818 0.00000000
0.31690608 0.87779033 0.00482500 0.00000000
4.05752384 0.94023543 -0.00407712 0.00000000
1.75566681 1.62968031 0.00119830 0.00000000
4.04369760 2.13198553 0.00172415 0.00000000
3.95284022 1.64363185 0.00181893 0.00000000
0.09144782 0.90739307 0.00305842 0.00000000
3.38220369 1.30488801 -0.00354504 0.00000000
1.82865914 1.29101404 -0.00070542 0.00000000
2.31197488 0.61637171 -0.00194382 0.00000000
3.04896884 1.71097778 0.00218735 0.00000000
1.98835442 1.33843629 -0.00112687 0.00000000
0.57146728 0.73943907 -0.00029786 0.00000000
1.62408188 1.53749236 -0.00197436 0.00000000
3.03544073 0.59919143 0.00140797 0.00000000
2.72656442 1.94050204 -0.00045872 0.00000000
2.61931635 0.90319330 0.00049431 0.00000000
2.10579507 0.55434126 -0.00563793 0.00000000
3.62456996 0.87465196 -0.00074914 0.00000000
2.26972389 0.08139399 -0.00250032 0.00000000
3.45740876 1.15484199 0.00032544 0.00000000
1.57350624 1.33907060 0.00696186 0.00000000
0.97649628 0.17940710 -0.00219623 0.00000000
2.77142244 1.46864356 -0.00082646 0.00000000
3.71160672 1.20428398 -0.00164718 0.00000000
3.49196362 2.07295175 -0.00348561 0.00000000
4.01343815 0.75593723 0.00252296 0.00000000
1.05564204 0.70335832 -0.00108879 0.00000000
1.32266839 1.21453411 -0.00064878 0.00000000
2.77153688 0.93200280 0.00342900 0.00000000
1.59779165 0.16189000 -0.00045995 0.00000000
2.60962485 1.78889121 0.00045210 0.00000000
2.33609570 1.95107112 -0.00393709 0.00000000
0.58427195 0.86585871 0.00033478 0.00000000
1.51006487 1.62021307 0.00234428 0.00000000
1.64968014 0.36618753 -0.00440061 0.00000000
0.80724181 1.82616501 0.00604652 0.00000000
2.12365660 0.97505955 0.00247397 0.00000000
2.97608636 1.33030391 0.00132666 0.00000000
0.98734842 0.73837333 0.00044496 0.00000000
4.00488557 0.82435904 -0.00247718 0.00000000
1.35847590 1.56076792 0.00023217 0.00000000
1.63522689 0.31999078 0.00277778 0.00000000
0.82575777 0.99606852 0.00283480 0.00000000
3.25477304 2.22283941 -0.00293592 0.00000000
0.32425992 1.66758806 0.00189502 0.00000000
0.73207218 1.55438898 0.00302709 0.00000000
3.67459906 0.37263531 -0.00079603 0.00000000
2.70426503 1.64534791 0.00187866 0.00000000
1.53811238 0.06680660 0.00157489 0.00000000
1.55014899 0.94070577 0.00085105 0.00000000
3.46424867 0.26867478 -0.00455858 0.00000000
3.62690191 0.31937195 0.00066428 0.00000000
4.00578083 1.49117135 -0.00074239 0.00000000
2.37236347 1.03962050 -0.00173537 0.00000000
3.36794236 1.39440600 0.00108976 0.00000000
3.83805901 1.19856254 -0.00662008 0.00000000
3.81703179 0.78091413 -0.00223537 0.00000000
0.78293930 2.16368265 -0.00104238 0.00000000
2.38374629 2.00395225 0.00261203 0.00000000
1.62308835 0.88691020 0.00092416 0.00000000
3.08802828 1.91926631 -0.00082220 0.00000000
2.09025814 1.00021722 -0.00146013 0.00000000
2.33761456 0.53147240 0.00583601 0.00000000
3.88457249 1.63665776 -0.00388387 0.00000000
0.57690486 2.07982558 -0.00086079 0.00000000
3.28533757 1.68461911 0.00329561 0.00000000
3.27765221 1.18038845 -0.00233993 0.00000000
2.80746815 1.36363556 0.00666934 0.00000000
2.12290884 0.73279015 0.00125125 0.00000000
2.46776033 2.18612962 0.00097664 0.00000000
1.42790041 1.32733709 0.00024266 0.00000000
1.95314349 0.49750122 0.00083537 0.00000000
0.89340509 2.10850861 0.00160334 0.00000000
3.96040659 0.41771990 -0.00317253 0.00000000
3.98581567 2.14679697 -0.00373901 0.00000000
0.39471199 1.60116718 -0.00088147 0.00000000
3.09474751 0.33492919 0.00076762 0.00000000
1.84062046 1.82421193 -0.00230152 0.00000000
1.13332783 0.41399364 0.00385783 0.00000000
0.07566767 1.61075277 0.00107689 0.00000000
3.29335540 0.51819064 0.00331085 0.00000000
0.03993257 1.13830154 0.00420142 0.00000000
3.31996029 2.04357136 -0.00286456 0.00000000
3.62408765 1.77452467 -0.00179498 0.00000000
0.86242308 1.02751380 -0.00049532 0.00000000
2.13103818 1.56224547 0.00021906 0.00000000
2.28846264 0.91291026 -0.00384199 0.00000000
2.62229598 1.26118104 0.00026894 0.00000000
1.38373999 0.97031444 -0.00387719 0.00000000
1.87203263 0.37375338 -0.00045592 0.00000000
0.46529932 0.72237416 -0.00379281 0.00000000
0.79183663 0.16023384 0.00193473 0.00000000
0.03900736 0.16001900 -0.00651883 0.00000000
3.49480734 1.83129067 0.00026657 0.00000000
3.03735477 1.25301732 -0.00147515 0.00000000
3.61113145 1.12217704 0.00362859 0.00000000
1.04954970 1.74189878 -0.00045969 0.00000000
1.32033919 1.91165050 0.00139700 0.00000000
1.78422126 0.50894954 -0.00251173 0.00000000
3.42333428 0.90968572 0.00187201 0.00000000
3.66028384 0.25022813 0.00316156 0.00000000
2.80672734 0.70473352 -0.00238081 0.00000000
4.08603148 1.85917053 -0.00184917 0.00000000
3.62316993 0.60366607 -0.00094355 0.00000000
2.14368797 1.79036186 -0.00292831 0.00000000
0.57210013 1.18587870 -0.00203832 0.00000000
2.28541655 1.94034494 -0.00130364 0.00000000
2.16266630 1.94413207 -0.00020972 0.00000000
3.93275382 1.14181515 0.00141212 0.00000000
1.17458237 0.39366667 -0.00191691 0.00000000
0.90973952 1.13865317 -0.00034649 0.00000000
0.43990089 1.25767442 -0.00085750 0.00000000
1.74285861 1.77711899 -0.00213942 0.00000000
1.73025613 1.70913901 0.00103126 0.00000000
0.26511238 0.27630782 -0.00084652 0.00000000
1.05012062 0.32332196 -0.00371465 0.00000000
2.17893992 0.42478534 -0.00333336 0.00000000
2.67355033 1.15609373 0.00190827 0.00000000
3.29540643 0.43604167 0.00028716 0.00000000
2.25419230 2.00601436 0.00046695 0.00000000
1.17054340 1.28503703 0.00239067 0.00000000
2.42165942 1.91896847 -0.00242114 0.00000000
0.89751299 1.63098336 0.00211049 0.00000000
3.45005694 1.45799689 0.00263470 0.00000000
1.66931303 0.56576460 -0.00200240 0.00000000
3.82033996 2.09576711 -0.00435545 0.00000000
3.35773823 1.66479438 0.00377494 0.00000000
3.42549032 0.67236433 0.00110373 0.00000000
2.02778024 1.29709076 -0.00133024 0.00000000
2.72893212 1.45535980 0.00156975 0.00000000
1.40243495 2.10070935 -0.00312786 0.00000000
0.54807599 0.15767952 -0.00040141 0.00000000
2.45442746 1.92162321 0.00249218 0.00000000
3.66957591 0.83183867 0.00428913 0.00000000
1.39078872 0.31176918 -0.00077307 0.00000000
1.61648814 0.77209513 -0.00147707 0.00000000
2.62455274 0.01634746 -0.00289051 0.00000000
1.92404819 0.41725752 0.00316258 0.00000000
0.79876102 0.80679801 0.00264312 0.00000000
2.40251150 1.44538524 0.00287578 0.00000000
0.95183524 0.90150354 -0.00204800 0.00000000
2.14004792 0.48268427 -0.00256148 0.00000000
0.00301404 0.76953531 -0.00014555 0.00000000
3.28474108 0.14069601 0.00089578 0.00000000
2.31247108 1.59655010 -0.00028581 0.00000000
2.65042206 0.54544239 0.00258835 0.00000000
3.15692703 2.11066275 -0.00082479 0.00000000
1.39740030 0.11752193 0.00216294 0.00000000
0.65069070 1.01666817 -0.00633703 0.00000000
3.22011866 1.52914105 0.00337134 0.00000000
2.23553578 0.01944579 -0.00249963 0.00000000
0.73893298 1.31373306 0.00023755 0.00000000
1.04088204 1.19027985 0.00072864 0.00000000
1.87686598 1.74836728 0.00221106 0.00000000
1.89871379 0.33931396 0.00184633 0.00000000
3.30849894 2.15612353 -0.00006667 0.00000000
3.55414956 1.37887255 -0.00167612 0.00000000
0.18126357 0.19065141 0.00024964 0.00000000
3.26470172 1.40950408 0.00230716 0.00000000
3.97306148 1.39956047 0.00065115 0.00000000
2.28647457 0.06462891 0.00094384 0.00000000
3.65210414 0.85382487 0.00081028 0.00000000
2.84002184 0.13572971 0.00118221 0.00000000
3.25101924 0.98453627 -0.00276692 0.00000000
1.40816400 1.72454594 0.00130326 0.00000000
0.34643952 1.76451148 0.00410409 0.00000000
3.53439482 1.46568959 -0.00006002 0.00000000
0.48969970 0.99977957 -0.00207508 0.00000000
2.32245608 2.04154254 0.00097999 0.00000000
2.25448787 0.91291040 -0.00627124 0.00000000
2.20425001 0.26626069 -0.00127388 0.00000000
1.74262844 0.74406761 -0.00064566 0.00000000
0.71649337 0.81704319 -0.00251131 0.00000000
0.16534981 1.74828211 -0.00160785 0.00000000
4.05002479 1.43146126 -0.00220576 0.00000000
3.47438143 1.73470774 0.00023858 0.00000000
0.01272891 0.24021358 -0.00326092 0.00000000
0.36990474 0.39302526 -0.00089179 0.00000000
1.37354313 0.19873517 -0.00212115 0.00000000
1.90622611 0.62022934 -0.00335764 0.00000000
1.27916257 1.04605136 0.00227394 0.00000000
3.96301585 0.67217579 0.00128439 0.00000000
3.86785122 1.97558567 -0.00069677 0.00000000
0.48115587 1.80118699 0.00247814 0.00000000
2.74281819 0.51513595 -0.00272051 0.00000000
2.15498508 0.47241781 0.00195583 0.00000000
2.82663674 0.96052096 0.00217605 0.00000000
3.67355632 1.20418347 -0.00122005 0.00000000
0.80806637 0.78393370 0.00353365 0.00000000
3.84871090 0.30042990 -0.00260311 0.00000000
1.01036638 2.08633031 -0.00178120 0.00000000
0.08824938 1.03818198 -0.00424541 0.00000000
0.55041619 1.39509274 -0.00100134 0.00000000
0.58502047 0.93754691 0.00424194 0.00000000
2.20198554 0.62030164 0.00051393 0.00000000
2.51243066 1.89531623 -0.00426506 0.00000000
1.93120624 0.72666259 0.00267460 0.00000000
2.46818325 1.50331421 0.00126395 0.00000000
4.00087771 1.06418389 -0.00121755 0.00000000
2.15293515 1.92402243 -0.00109380 0.00000000
2.09759250 0.34072014 -0.00042677 0.00000000
2.91507188 0.68644387 -0.00094437 0.00000000
2.08584701 2.14677994 0.00245508 0.00000000
2.81308187 1.98980527 0.00160342 0.00000000
1.66196561 0.34868855 -0.00018641 0.00000000
3.82125779 0.89859582 0.00784963 0.00000000
2.34037721 1.03089000 0.00090854 0.00000000
0.50619581 1.19259592 0.00075697 0.00000000
2.72345719 0.28212609 -0.00005425 0.00000000
1.32885658 0.95277109 -0.00073923 0.00000000
2.54773382 2.18351281 0.00264459 0.00000000
0.31450699 1.68020910 -0.00144647 0.00000000
1.41387641 1.45039435 0.00118452 0.00000000
2.78667010 0.30775392 0.00225053 0.00000000
2.34455966 2.18872565 0.00132014 0.00000000
1.16031040 0.83125152 -0.00120278 0.00000000
1.27585517 0.65094461 -0.00246414 0.00000000
3.35133740 0.09303438 0.00282954 0.00000000
2.64632070 1.52577216 0.00247170 0.00000000
2.51491169 1.22259639 -0.00108577 0.00000000
0.71534678 0.75225987 0.00069294 0.00000000
2.80214858 0.89430469 -0.00194210 0.00000000
0.09409127 1.20546092 0.00491524 0.00000000
3.85969109 0.19597277 -0.00229299 0.00000000
1.45238188 2.17484546 -0.00081346 0.00000000
3.81724318 2.07516242 -0.00024786 0.00000000
3.68625171 1.41514191 -0.00098908 0.00000000
4.01844397 1.28278317 0.00506681 0.00000000
2.85449416 0.46003603 0.00183693 0.00000000
1.60885472 0.00388645 -0.00400625 0.00000000
2.17960624 0.35028727 0.00028088 0.00000000
0.24743531 1.03774786 -0.00463513 0.00000000
1.46689649 1.00957739 -0.00527739 0.00000000
2.48772924 1.93047932 -0.00139850 0.00000000
0.26973338 1.84260575 -0.00049279 0.00000000
0.37014790 0.55957426 0.00280464 0.00000000
2.86905188 0.92079482 0.00203245 0.00000000
1.15476879 0.97943199 -0.00074240 0.00000000
3.81446585 2.21932756 0.00153495 0.00000000
3.90486996 2.18631317 -0.00440068 0.00000000
1.76846621 1.53165155 0.00238672 0.00000000
1.68401373 1.25819087 0.00259050 0.00000000
2.51171083 0.96725621 -0.00291999 0.00000000
1.00876377 1.49820056 -0.00599302 0.00000000
1.88210922 2.01285745 -0.00004255 0.00000000
1.08805930 2.16739976 0.00080145 0.00000000
3.07881060 2.13808190 -0.00416535 0.00000000
3.68663740 0.71030505 -0.00088145 0.00000000
1.61131999 1.30860714 0.00044377 0.00000000
0.45343605 0.10726321 0.00071388 0.00000000
3.28087865 2.19584013 0.00170463 0.00000000
0.99403786 0.53500621 -0.00393993 0.00000000
2.53559104 1.58359256 0.00276673 0.00000000
2.13067385 2.15379914 0.00286367 0.00000000
1.08752392 0.06165439 0.00168237 0.00000000
2.19786674 1.66046076 -0.00478573 0.00000000
1.77393474 1.44201849 0.00097733 0.00000000
1.96509045 0.84109740 0.00212277 0.00000000
4.04004024 0.57577128 0.00300363 0.00000000
3.20391643 0.17931533 -0.00072283 0.00000000
0.87321001 1.81202216 -0.00336486 0.00000000
0.45407842 1.03287433 -0.00089970 0.00000000
0.32599513 1.17872750 0.00190918 0.00000000
3.16806261 0.81310219 0.00069958 0.00000000
2.68127429 0.78356240 -0.00139945 0.00000000
0.06272857 0.31927323 0.00387622 0.00000000
4.00561667 0.82242767 -0.00172917 0.00000000
1.77173259 1.53573923 -0.00111767 0.00000000
1.12984707 0.63482416 -0.00104951 0.00000000
2.09655842 2.05564785 -0.00038570 0.00000000
0.30635403 0.27713112 -0.00112735 0.00000000
1.19915097 1.91891696 0.00128927 0.00000000
0.02786101 1.95109158 -0.00137324 0.00000000
1.61582979 0.44706713 -0.00678192 0.00000000
3.92865383 0.65035568 -0.00167865 0.00000000
3.72293908 0.92503458 -0.00041159 0.00000000
3.47761068 1.97404554 -0.00241661 0.00000000
0.12144906 0.72167223 -0.00017077 0.00000000
0.36616305 0.65556543 0.00419407 0.00000000
4.01593181 1.39805386 -0.00065132 0.00000000
2.69232692 1.72971063 -0.00099712 0.00000000
3.45396248 1.24289646 0.00294416 0.00000000
3.61026514 0.04167373 0.00081358 0.00000000
2.95731864 1.90694515 0.00103864 0.00000000
0.55173287 0.27484599 -0.00113374 0.00000000
1.97116486 0.18486837 -0.00034471 0.00000000
1.52848244 1.02765196 -0.00091196 0.00000000
3.67204000 1.09642297 0.00367053 0.00000000
3.52483230 1.33437850 0.00038269 0.00000000
0.71940891 0.08933616 -0.00007159 0.00000000
0.11138537 1.04593615 0.00169589 0.00000000
1.75443138 0.63754958 -0.00240243 0.00000000
0.68649534 1.03990753 0.00097205 0.00000000
0.68747664 2.20338895 -0.00354649 0.00000000
3.97570634 0.96042067 -0.00321735 0.00000000
3.89782078 1.14988886 0.00060497 0.00000000
0.54465984 1.29507567 0.00098562 0.00000000
0.63904769 1.95527704 -0.00034885 0.00000000
0.19178576 0.91183132 -0.00325240 0.00000000
3.20021025 0.04158753 0.00033459 0.00000000
2.70260057 1.19622396 -0.00319567 0.00000000
3.43725614 1.68744942 0.00408890 0.00000000
