3.11501372 1.51784434 0.00172768 0.00000000
3.87606537 1.61945433 0.00032154 0.00000000
4.62336047 1.44209746 -0.00168876 0.00000000
2.95109586 0.31105118 0.00091526 0.00000000
0.61360504 0.68073921 -0.00390140 0.00000000
4.19725279 1.51613272 -0.00035843 0.00000000
1.81766752 2.00578279 0.00023140 0.00000000
3.43130493 1.45927010 -0.00215175 0.00000000
2.20722158 1.09960270 0.00175896 0.00000000
0.71197816 2.29497022 0.00049408 0.00000000
2.62640223 0.59457378 -0.00058188 0.00000000
4.38460353 0.66780822 0.00309421 0.00000000
0.29697326 1.10116409 -0.00107942 0.00000000
0.17111294 0.60957582 0.00145920 0.00000000
2.83121817 0.80273417 -0.00219889 0.00000000
0.55652758 0.03926323 0.00079725 0.00000000
0.75766580 1.66653231 0.00005605 0.00000000
3.20682487 0.69865375 0.00089930 0.00000000
4.20422805 0.33167095 -0.00093399 0.00000000
2.59291528 1.02036424 -0.00060517 0.00000000
0.29676946 2.21348114 0.00404247 0.00000000
3.18522460 2.08428546 0.00104283 0.00000000
1.29147601 2.09994349 0.00364344 0.00000000
1.52526416 1.49713085 0.00077517 0.00000000
3.98833946 1.06306731 -0.00157561 0.00000000
4.25580176 0.19022922 -0.00000502 0.00000000
1.20975758 1.45106623 -0.00213166 0.00000000
1.96971006 2.18282911 -0.00155065 0.00000000
4.42038538 0.22094617 0.00557435 0.00000000
1.27850868 1.83598749 0.00358717 0.00000000
2.25702381 1.75216903 0.00206360 0.00000000
3.63179356 0.33446136 0.00249085 0.00000000
0.20017433 0.98819164 -0.00033607 0.00000000
1.78818847 0.12360130 0.00047461 0.00000000
2.72110643 2.29459143 -0.00026961 0.00000000
3.62662661 1.62968079 0.00118265 0.00000000
3.59706282 1.44738094 -0.00044100 0.00000000
3.18657631 0.50229280 0.00001107 0.00000000
4.65901470 0.70758310 0.00155775 0.00000000
1.63724407 2.03465267 0.00205423 0.00000000
3.36840701 0.34342115 0.00015784 0.00000000
2.40790660 1.89170240 0.00169242 0.00000000
3.78738078 1.66855938 0.00060660 0.00000000
4.27950840 1.48172294 0.00098642 0.00000000
2.30969482 2.10591730 -0.00080369 0.00000000
2.25877854 1.55407193 -0.00083838 0.00000000
3.44719504 0.37438115 0.00218506 0.00000000
1.20567391 1.62144704 0.00386301 0.00000000
1.80628605 1.97728222 -0.00097323 0.00000000
0.79723962 2.03367528 0.00022912 0.00000000
3.79857683 1.06455933 -0.00124644 0.00000000
1.49152906 0.53849650 -0.00026562 0.00000000
4.51747129 0.27840979 0.00067186 0.00000000
0.04379337 0.42031445 -0.00261555 0.00000000
0.39391643 2.01010281 0.00173883 0.00000000
1.17523694 2.24730881 0.00158388 0.00000000
3.41113597 0.59406667 -0.00192381 0.00000000
1.50430079 0.16197047 0.00011572 0.00000000
1.07960564 1.31321968 0.00258230 0.00000000
2.40157219 0.31030158 0.00005325 0.00000000
4.36721964 0.63785504 -0.00175585 0.00000000
3.40218732 1.64080530 0.00111968 0.00000000
1.97604556 0.28173723 0.00244707 0.00000000
1.82345993 0.88620830 0.00317993 0.00000000
0.29774516 1.54366541 -0.00044207 0.00000000
3.56362305 0.34474446 0.00401486 0.00000000
1.60575493 2.26598399 -0.00392161 0.00000000
3.63092833 1.72861246 -0.00386912 0.00000000
0.52051756 0.57313603 0.00167424 0.00000000
1.78719697 1.03900751 -0.00093781 0.00000000
3.75840752 0.95748472 0.00238994 0.00000000
2.82578898 1.12359698 0.00177880 0.00000000
1.74746837 1.78232055 0.00285929 0.00000000
3.29138774 0.31795255 0.00246361 0.00000000
1.70511324 0.92352590 -0.00016405 0.00000000
3.79880755 0.48382377 -0.00191678 0.00000000
3.85093746 1.28867529 0.00392692 0.00000000
1.29097866 0.25592957 -0.00275704 0.00000000
4.52856576 1.01837879 0.00286143 0.00000000
2.74976252 1.89296666 -0.00111059 0.00000000
3.45218099 2.08509512 0.00050376 0.00000000
3.01981093 1.24899907 -0.00331350 0.00000000
3.74366282 1.91149449 -0.00181623 0.00000000
2.30012453 2.29450283 -0.00053452 0.00000000
3.69771495 0.90828317 0.00002249 0.00000000
2.34405953 1.80044021 -0.00251289 0.00000000
3.46417111 0.34396519 0.00066984 0.00000000
1.96416949 0.08788199 0.00042609 0.00000000
0.75497613 2.15084073 0.00436021 0.00000000
1.27526283 2.25341858 -0.00477936 0.00000000
3.98933516 2.24860269 0.00083088 0.00000000
1.43161668 0.19662771 -0.00066995 0.00000000
1.49419408 0.44908177 0.00005850 0.00000000
2.16720187 0.77865255 -0.00191230 0.00000000
1.87493996 2.22714695 -0.00552947 0.00000000
1.37391986 1.71990033 -0.00243590 0.00000000
2.12680719 0.76378551 -0.00127196 0.00000000
0.87209422 2.17365131 -0.00177547 0.00000000
2.53535199 0.48317047 0.00342787 0.00000000
0.38111424 1.40487147 0.00054516 0.00000000
2.77461155 1.98170969 0.00543801 0.00000000
4.27564635 0.97305932 -0.00235598 0.00000000
4.56145402 0.49375997 0.00120186 0.00000000
4.36509434 1.81616385 0.00266255 0.00000000
2.54785270 1.07283788 -0.00012403 0.00000000
2.40297785 1.11596335 0.00090869 0.00000000
0.26588638 0.64338779 -0.00301115 0.00000000
1.38731402 0.55862061 -0.00332355 0.00000000
4.09893604 1.27850666 -0.00100312 0.00000000
2.71560752 1.84628063 -0.00090996 0.00000000
3.92257419 2.19558638 -0.00232906 0.00000000
3.07735414 1.44129357 0.00353326 0.00000000
1.70672182 0.66061531 0.00366186 0.00000000
4.02076384 0.33302728 0.00234717 0.00000000
1.92287896 1.92647500 0.00374869 0.00000000
2.30796958 1.41103736 -0.00408728 0.00000000
3.09714773 0.71569125 0.00351358 0.00000000
3.64954888 0.81460500 0.00189773 0.00000000
1.04886148 0.18840689 -0.00596314 0.00000000
1.39665922 0.19708202 -0.00096833 0.00000000
4.23310628 0.73303508 0.00328983 0.00000000
4.64926641 0.30922140 0.00110520 0.00000000
2.18087302 2.26725755 0.00206003 0.00000000
2.49346543 1.83826875 0.00044145 0.00000000
1.63046985 1.70295859 -0.00257072 0.00000000
3.65890640 2.12486033 -0.00015742 0.00000000
2.46879036 1.36326261 0.00239969 0.00000000
3.70527627 0.66838867 0.00278279 0.00000000
3.35532119 1.40362460 0.00049611 0.00000000
1.33865489 1.14762693 0.00038118 0.00000000
0.50012206 0.02270286 0.00174308 0.00000000
0.31990482 0.24656107 -0.00076220 0.00000000
4.06904961 0.72828394 0.00252847 0.00000000
3.16802586 0.22437833 -0.00129655 0.00000000
3.53686848 2.08058380 0.00596788 0.00000000
3.23166050 0.84685607 -0.00191838 0.00000000
4.17992782 1.90310704 -0.00566872 0.00000000
3.83804107 0.38128415 -0.00234881 0.00000000
3.97489579 1.52234295 -0.00152911 0.00000000
0.04280278 0.81428653 0.00467249 0.00000000
0.66945601 0.08295720 0.00163786 0.00000000
1.74946110 1.31389498 -0.00083749 0.00000000
4.41726820 0.41925905 0.00078851 0.00000000
4.55536757 2.21198997 0.00154787 0.00000000
0.99519092 2.20813330 -0.00140249 0.00000000
0.38940111 1.84613703 -0.00368144 0.00000000
1.80735522 0.54656738 0.00215269 0.00000000
2.20075154 1.99078255 0.00253542 0.00000000
3.74311233 0.71336553 0.00164683 0.00000000
2.84902188 2.21719851 0.00493637 0.00000000
0.51328967 1.70378785 0.00489378 0.00000000
3.91668191 1.16794274 0.00199685 0.00000000
2.52574587 1.36626803 -0.00312127 0.00000000
3.01903034 0.56414961 0.00182059 0.00000000
0.43700270 1.34159531 -0.00222806 0.00000000
4.61553729 0.37408572 0.00107709 0.00000000
0.19630241 1.29671069 0.00268149 0.00000000
2.09772107 1.60961743 0.00125734 0.00000000
4.08911285 2.05634209 0.00062695 0.00000000
2.72024286 1.49747495 0.00078793 0.00000000
3.54860005 2.01316955 0.00057267 0.00000000
3.89486439 2.00983432 -0.00221063 0.00000000
4.26324898 0.21355436 -0.00098413 0.00000000
1.28328317 2.17118382 -0.00164666 0.00000000
1.42876836 1.51764724 0.00055873 0.00000000
3.01087522 1.39265966 0.00499599 0.00000000
1.52006380 0.40519154 -0.00143482 0.00000000
0.92025990 0.28822201 -0.00233696 0.00000000
2.51814863 2.01418412 -0.00302886 0.00000000
4.55897262 0.95095464 0.00131067 0.00000000
0.14883938 1.77035803 -0.00032056 0.00000000
4.42137228 2.17788544 -0.00036947 0.00000000
1.99923325 1.29169723 0.00205862 0.00000000
0.16418130 1.64631814 0.00271895 0.00000000
3.21072843 0.05781082 -0.00224157 0.00000000
2.95276940 0.40427167 -0.00174991 0.00000000
3.55507866 0.89507692 -0.00119126 0.00000000
0.55018898 2.01864664 0.00206889 0.00000000
1.57537972 0.64118222 0.00112870 0.00000000
3.76041273 0.93067388 -0.00012110 0.00000000
4.22650861 1.51292074 0.00293677 0.00000000
4.22618653 1.37816555 -0.00252194 0.00000000
3.70153458 0.88585851 0.00023272 0.00000000
2.07111247 0.27185709 0.00020137 0.00000000
1.76336901 1.50427982 -0.00225093 0.00000000
2.65692774 1.68443883 0.00212844 0.00000000
4.23688335 1.21779362 -0.00442790 0.00000000
0.78737355 1.86682437 0.00050488 0.00000000
1.41540339 1.13229298 0.00066552 0.00000000
3.19081188 2.21127472 -0.00078077 0.00000000
4.70123797 2.03787437 -0.00010051 0.00000000
3.77125079 1.96441252 -0.00078159 0.00000000
0.39153460 0.78580280 0.00079067 0.00000000
0.04516099 0.93846666 0.00058760 0.00000000
1.02460248 1.88979093 0.00032250 0.00000000
3.83438207 0.15036155 0.00033702 0.00000000
2.37857390 0.87949399 0.00538346 0.00000000
3.46550611 1.99901809 0.00062537 0.00000000
2.84976740 0.95563205 0.00511924 0.00000000
3.75953635 1.40979697 0.00300980 0.00000000
0.69737128 2.13328870 -0.00065136 0.00000000
3.31091165 0.62224710 -0.00313821 0.00000000
2.82828709 1.48911395 0.00016513 0.00000000
1.97255995 0.52701951 -0.00010612 0.00000000
3.71901466 1.31573291 0.00067532 0.00000000
3.89692971 2.25345545 0.00005017 0.00000000
2.42908063 0.45852270 -0.00324891 0.00000000
0.90897081 0.91213565 0.00112521 0.00000000
4.10418286 0.34212100 -0.00326745 0.00000000
4.29261518 1.37594711 -0.00076884 0.00000000
3.02108388 1.04479842 0.00068791 0.00000000
2.62777324 1.41430432 0.00053518 0.00000000
2.80471626 1.73755575 -0.00056252 0.00000000
3.89052182 0.97134508 0.00439455 0.00000000
3.27408754 1.82475787 -0.00030200 0.00000000
0.38858475 2.15566191 -0.00302338 0.00000000
4.01705875 1.53492869 0.00099394 0.00000000
4.42273636 1.21870475 0.00219754 0.00000000
0.15215423 0.37380005 -0.00242992 0.00000000
3.59853723 1.44144853 0.00248580 0.00000000
2.97763823 1.56145137 -0.00080416 0.00000000
2.63144437 0.63635893 0.00182209 0.00000000
0.29810112 0.22392628 0.00260453 0.00000000
1.76330142 0.53174316 -0.00123865 0.00000000
1.09536472 1.35744148 -0.00023614 0.00000000
4.45771539 0.68297385 0.00000514 0.00000000
2.42701160 1.79200870 0.00204425 0.00000000
3.02069318 1.16009032 0.00423474 0.00000000
4.45684868 1.66493009 0.00109381 0.00000000
4.60134891 2.00301984 -0.00141623 0.00000000
3.18761795 2.10464067 0.00281850 0.00000000
3.86254267 0.98751501 0.00194384 0.00000000
1.38174313 0.91681034 -0.00008274 0.00000000
0.32555460 0.10492292 0.00382407 0.00000000
2.66980262 1.08812862 -0.00498531 0.00000000
3.74667273 0.29403040 0.00483824 0.00000000
3.22772960 0.96365584 -0.00035097 0.00000000
0.64875007 0.66042425 -0.00289146 0.00000000
2.53462545 0.78978456 0.00141466 0.00000000
0.23667803 1.64191205 -0.00428214 0.00000000
2.74378853 1.02978002 0.00157174 0.00000000
3.99583400 0.29172392 0.00205468 0.00000000
1.71455070 1.82858547 -0.00592288 0.00000000
0.94167363 1.61369558 -0.00192665 0.00000000
3.44953656 0.90099762 0.00078739 0.00000000
0.94299810 0.85795526 0.00019646 0.00000000
0.41386731 0.72544453 -0.00021443 0.00000000
0.88643827 1.32570273 0.00555395 0.00000000
2.11695254 0.99000917 -0.00172340 0.00000000
0.94153599 2.09933456 0.00409033 0.00000000
3.49687246 0.92037270 -0.00051881 0.00000000
1.43884733 2.23534750 0.00050273 0.00000000
2.74831903 0.18003104 0.00264866 0.00000000
3.32961354 0.29676712 -0.00430417 0.00000000
3.75640047 2.08313889 -0.00158750 0.00000000
1.62629118 0.25357171 0.00026325 0.00000000
3.04577896 1.55570310 0.00270580 0.00000000
3.82244536 2.22859483 -0.00086495 0.00000000
1.83030610 0.25395168 0.00124811 0.00000000
0.64017039 0.97721983 -0.00270514 0.00000000
0.63423122 0.34109636 0.00321981 0.00000000
4.42541906 0.84028144 -0.00219015 0.00000000
0.65331647 1.61549806 0.00062566 0.00000000
3.15869467 1.23945524 0.00216904 0.00000000
3.92635236 0.69812281 -0.00240947 0.00000000
2.58037734 1.25462767 0.00093719 0.00000000
4.08707950 0.95591978 0.00270107 0.00000000
0.11736437 0.82298776 0.00197045 0.00000000
4.57782852 2.13311465 -0.00006790 0.00000000
2.90694172 2.05742554 -0.00173401 0.00000000
0.20056835 1.43579110 -0.00389791 0.00000000
2.04714167 0.68399591 -0.00151228 0.00000000
1.67123289 0.34154476 0.00317774 0.00000000
2.15749575 1.34566180 0.00224571 0.00000000
2.08870438 0.96020887 -0.00136200 0.00000000
3.44431235 1.46179797 0.00345319 0.00000000
2.68116368 1.99708868 0.00332909 0.00000000
0.99935791 1.63540915 0.00145585 0.00000000
0.22912791 0.18837902 0.00032501 0.00000000
4.10390428 0.71122895 0.00464117 0.00000000
2.38853914 1.48396400 -0.00333284 0.00000000
1.36503967 2.03576246 0.00005742 0.00000000
0.09635210 1.86611723 0.00239523 0.00000000
1.75752186 0.72697215 0.00233089 0.00000000
0.75847004 0.59811938 -0.00564796 0.00000000
4.43614061 0.64101773 0.00049631 0.00000000
4.38997924 2.15716259 0.00121482 0.00000000
1.63387173 1.34048616 -0.00002500 0.00000000
1.83214008 0.57450584 0.00409336 0.00000000
2.99108717 1.72845971 -0.00205280 0.00000000
4.31294769 1.15070031 0.00285635 0.00000000
1.09140468 0.19887349 0.00218467 0.00000000
0.64105033 1.12882603 -0.00072807 0.00000000
2.57747963 1.32408122 -0.00169577 0.00000000
2.07843753 1.99443629 0.00103128 0.00000000
0.99648342 0.10886525 -0.00565571 0.00000000
0.04350195 0.55236702 0.00298616 0.00000000
2.60967240 0.62725957 0.00188008 0.00000000
3.74836038 1.32359554 0.00054729 0.00000000
2.10649806 2.03578727 0.00303835 0.00000000
0.77067177 1.56352627 0.00033858 0.00000000
3.19079165 2.29586753 0.00075013 0.00000000
3.68259131 2.00888586 0.00301457 0.00000000
3.21453551 1.25375342 -0.00218944 0.00000000
0.32217427 0.06221864 0.00129916 0.00000000
2.51300993 0.10579473 -0.00369406 0.00000000
1.08461068 1.44703316 0.00082933 0.00000000
2.34324627 0.42803395 0.00154683 0.00000000
0.14175777 1.55741180 -0.00530190 0.00000000
1.18941644 0.88776601 0.00057506 0.00000000
4.18567155 2.12168995 -0.00240347 0.00000000
1.57239372 1.05388868 0.00496051 0.00000000
0.85401567 0.15079346 -0.00088538 0.00000000
4.70640527 1.38877961 0.00135868 0.00000000
1.51228510 1.63922160 0.00072034 0.00000000
4.35071390 0.20711241 -0.00025555 0.00000000
3.26243062 1.67965271 -0.00165133 0.00000000
3.57700445 0.80564381 -0.00063266 0.00000000
2.35083820 1.15355603 -0.00117084 0.00000000
1.06141251 2.15128692 -0.00141277 0.00000000
4.26014107 0.71930795 0.00009362 0.00000000
3.72254951 0.97552539 -0.00243102 0.00000000
3.58583916 0.87819902 0.00454609 0.00000000
2.53941816 1.31237028 -0.00467942 0.00000000
1.06704093 0.23545044 -0.00220616 0.00000000
1.57608663 0.31155675 -0.00160155 0.00000000
4.16892266 1.10724579 -0.00251572 0.00000000
4.44610250 1.15156270 0.00031413 0.00000000
1.05970203 1.00512394 -0.00134503 0.00000000
1.63158531 0.78623490 0.00415837 0.00000000
1.11893166 0.08250987 0.00418835 0.00000000
3.60674137 0.75480937 -0.00006830 0.00000000
4.31641302 1.40193931 -0.00008595 0.00000000
1.20670627 0.04583978 0.00015075 0.00000000
2.30728111 1.14743914 -0.00101534 0.00000000
2.62087475 0.75654464 -0.00049313 0.00000000
1.77244030 1.02842207 0.00250984 0.00000000
2.09324098 0.52349493 0.00140751 0.00000000
3.62268513 1.01932186 0.00087296 0.00000000
2.93074011 1.36723914 -0.00107017 0.00000000
1.52404975 1.23331977 -0.00124900 0.00000000
3.40523329 1.25927874 0.00167010 0.00000000
1.94019525 2.08241165 -0.00115920 0.00000000
4.04487485 2.11722210 -0.00293657 0.00000000
2.27626920 1.59443658 -0.00067060 0.00000000
1.44887126 2.06049249 0.00180113 0.00000000
1.14176035 0.18830656 -0.00014928 0.00000000
1.83524796 0.65871217 -0.00380854 0.00000000
4.42465061 1.53272196 0.00027641 0.00000000
2.20566513 1.12584189 -0.00008830 0.00000000
3.92582003 0.99295163 0.00112349 0.00000000
0.98961590 1.03564049 -0.00022114 0.00000000
4.54911311 1.74592007 -0.00146689 0.00000000
2.15319079 1.06267110 -0.00046611 0.00000000
0.13468628 1.16154822 0.00190672 0.00000000
2.47002141 0.00479584 -0.00227902 0.00000000
0.60578692 1.44911706 0.00060159 0.00000000
3.14962868 1.14626695 -0.00128824 0.00000000
3.06798640 2.03270507 -0.00181483 0.00000000
0.93544079 0.78959884 0.00194532 0.00000000
2.09475745 1.76205955 -0.00127786 0.00000000
1.42223931 1.46312479 0.00506678 0.00000000
0.24670605 0.23520387 -0.00092971 0.00000000
3.11586458 0.49366096 -0.00258294 0.00000000
2.36956821 0.83216495 0.00133397 0.00000000
1.99053412 0.37348666 0.00292648 0.00000000
2.18205466 1.22704706 0.00404880 0.00000000
1.52955219 1.23669833 0.00351509 0.00000000
4.32374040 1.49664099 0.00000845 0.00000000
0.24331855 2.13705819 0.00025824 0.00000000
3.15268938 0.06043081 -0.00093128 0.00000000
0.02962681 0.83280114 0.00166180 0.00000000
2.71517473 2.24665468 -0.00496285 0.00000000
1.40059914 1.44162240 0.00033412 0.00000000
1.61967004 2.25597786 0.00202004 0.00000000
4.68212175 2.20515359 0.00157840 0.00000000
4.40618467 0.95001274 0.00380216 0.00000000
0.33249215 0.26374626 0.00142716 0.00000000
4.53369306 1.46707043 0.00220239 0.00000000
4.21294816 1.46100281 -0.00395264 0.00000000
2.87549372 2.07132546 0.00136857 0.00000000
0.70950840 2.29407686 -0.00140059 0.00000000
1.03717988 0.33340757 -0.00285520 0.00000000
3.60265690 2.17891632 0.00170835 0.00000000
3.51358454 0.64108827 -0.00392663 0.00000000
2.28755175 1.31236083 0.00131719 0.00000000
0.69106378 0.62388593 -0.00257533 0.00000000
0.61182939 0.83266955 0.00013484 0.00000000
1.35903231 0.19503680 0.00010909 0.00000000
0.14343245 0.07341118 0.00497908 0.00000000
4.59986579 2.20042832 -0.00141438 0.00000000
3.62150349 0.18822382 -0.00065860 0.00000000
0.28589473 1.11229824 -0.00232331 0.00000000
1.29362497 1.01482518 0.00095952 0.00000000
1.27519281 1.77001407 -0.00056091 0.00000000
0.70868531 0.17036665 0.00394666 0.00000000
0.19807509 0.87572929 -0.00264403 0.00000000
1.84689805 0.55004143 -0.00118330 0.00000000
3.21037018 0.52235119 0.00110966 0.00000000
3.30698490 0.35491306 0.00178009 0.00000000
2.69791769 0.36590111 -0.00370847 0.00000000
0.16553800 1.60068882 0.00098785 0.00000000
1.33619482 0.52285917 -0.00094567 0.00000000
4.16976681 0.52870269 0.00273145 0.00000000
3.35211646 0.97186218 0.00101987 0.00000000
4.27316906 0.78109357 0.00028664 0.00000000
1.61588240 0.45137206 -0.00204284 0.00000000
4.19435413 1.84452953 -0.00246396 0.00000000
4.55069176 0.66406442 0.00210845 0.00000000
3.38100685 0.46776967 0.00169753 0.00000000
2.54615571 1.06121213 -0.00070827 0.00000000
0.34565748 0.68478346 0.00087270 0.00000000
4.50461681 1.12128645 -0.00140224 0.00000000
3.43429193 1.19000681 -0.00017782 0.00000000
0.31670006 1.05970948 -0.00072376 0.00000000
0.86065822 2.12425822 0.00432442 0.00000000
0.76949859 0.33093076 -0.00211994 0.00000000
1.67470816 2.20561192 -0.00063686 0.00000000
4.18980997 2.17566312 0.00193860 0.00000000
3.23180279 0.51827746 -0.00327740 0.00000000
0.59842139 1.48652277 0.00328932 0.00000000
0.23273674 1.76104371 -0.00028640 0.00000000
2.73685260 1.64766228 -0.00141327 0.00000000
1.85106483 1.64783066 0.00109484 0.00000000
2.16123712 0.31965862 0.00001079 0.00000000
0.36324935 0.68284579 0.00220147 0.00000000
0.95407031 0.82800466 -0.00260990 0.00000000
1.02230372 0.00918549 0.00133978 0.00000000
4.35722018 1.07637195 0.00450985 0.00000000
3.52191818 1.33629111 -0.00793292 0.00000000
1.86616240 0.01104210 -0.00141892 0.00000000
1.89408333 2.29151590 -0.00005438 0.00000000
0.90856621 2.18700708 0.00183983 0.00000000
0.57216703 1.95329560 0.00102794 0.00000000
0.36629358 1.41365498 -0.00278916 0.00000000
3.72846223 0.62614748 -0.00019685 0.00000000
1.24852186 0.08141844 -0.00194101 0.00000000
3.42518038 1.31940278 0.00384882 0.00000000
0.18796782 1.25359515 0.00117081 0.00000000
4.28155397 1.38883181 0.00220935 0.00000000
3.06398114 1.17183745 -0.00396024 0.00000000
0.11065291 0.25583051 0.00086199 0.00000000
1.00183411 2.21378229 0.00032963 0.00000000
0.88470412 2.21304846 0.00290332 0.00000000
2.45776723 1.48730564 -0.00071568 0.00000000
2.70508284 1.97429893 0.00024427 0.00000000
2.09626049 1.85434034 -0.00103737 0.00000000
1.11947180 1.94428093 0.00129734 0.00000000
4.33774731 1.93224425 -0.00258460 0.00000000
1.80225706 1.90666259 0.00309408 0.00000000
2.69237632 1.73634900 -0.00024079 0.00000000
3.40501821 0.15678907 -0.00127143 0.00000000
1.68639726 1.92702443 0.00263561 0.00000000
4.21204848 0.52605480 0.00179645 0.00000000
0.79034091 0.52775670 0.00293297 0.00000000
2.20505953 1.54599573 0.00001874 0.00000000
0.80958961 1.53871066 -0.00377445 0.00000000
0.49576966 1.05600234 -0.00449175 0.00000000
3.67310343 2.14172806 0.00555896 0.00000000
4.29813492 1.98059782 -0.00130847 0.00000000
1.85236066 1.60603772 -0.00732428 0.00000000
4.39941918 2.16246648 -0.00254481 0.00000000
3.83486135 0.73774276 0.00174548 0.00000000
3.24479717 0.17653223 0.00105881 0.00000000
4.05330999 1.43877802 0.00172772 0.00000000
0.45292675 1.96239626 -0.00237439 0.00000000
0.42746259 1.36207749 -0.00151567 0.00000000
1.21166872 0.35148759 -0.00342701 0.00000000
1.05367917 0.01209776 -0.00436832 0.00000000
3.78080445 0.71126009 -0.00285478 0.00000000
4.28501589 1.03128361 -0.00428708 0.00000000
3.90793370 1.20555718 -0.00213287 0.00000000
2.96919099 2.03461688 0.00282285 0.00000000
1.12176140 1.03701092 -0.00010417 0.00000000
4.58783139 0.81499479 -0.00087329 0.00000000
2.77176568 1.26084849 -0.00206451 0.00000000
0.57271582 0.29154888 -0.00328899 0.00000000
3.79854374 0.14338357 -0.00094881 0.00000000
1.26734657 0.56462161 -0.00252184 0.00000000
1.81093291 2.21002383 0.00130381 0.00000000
2.64142856 0.17113928 0.00451053 0.00000000
4.36937322 1.75575760 0.00006627 0.00000000
2.87861004 0.14850617 0.00018008 0.00000000
4.37441839 0.58200531 -0.00058547 0.00000000
1.82921170 0.58256838 -0.00402097 0.00000000
3.70533782 1.84586480 0.00164547 0.00000000
1.53434096 0.82033872 -0.00198861 0.00000000
3.90712188 1.57049454 0.00754693 0.00000000
2.20697188 1.22403900 0.00084910 0.00000000
2.15037091 0.29902753 -0.00355398 0.00000000
2.42614669 1.55040200 0.00048893 0.00000000
2.22425654 1.42592292 -0.00080997 0.00000000
0.76481810 1.31903154 0.00028223 0.00000000
2.47390523 0.28346898 0.00170899 0.00000000
1.95511780 2.20192538 0.00155371 0.00000000
2.47213874 2.10585298 0.00044615 0.00000000
0.17791221 1.71438707 0.00159320 0.00000000
3.23923039 0.62323897 0.00265783 0.00000000
0.73136727 1.88520990 -0.00327398 0.00000000
4.66582512 0.62852330 0.00130806 0.00000000
0.62846084 1.20655675 0.00029397 0.00000000
3.07882682 1.46197111 0.00151094 0.00000000
1.58971679 0.74835777 0.00045559 0.00000000
2.62512443 0.87555857 0.00214257 0.00000000
3.34429960 0.35728765 0.00259213 0.00000000
3.08129717 0.42782925 -0.00341172 0.00000000
0.76538305 0.45482717 -0.00269443 0.00000000
4.20007560 1.20841060 0.00130122 0.00000000
3.51934279 1.47931973 -0.00454478 0.00000000
1.60592129 0.28314522 0.00102070 0.00000000
4.08843891 1.05151753 -0.00126193 0.00000000
3.44622100 1.61464035 -0.00084338 0.00000000
0.38586903 0.20098172 0.00556698 0.00000000
1.55265135 2.11352559 0.00331101 0.00000000
1.39404735 2.09155747 0.00085746 0.00000000
4.66693484 1.29424200 0.00286561 0.00000000
1.48469076 1.37825986 -0.00379169 0.00000000
4.13165304 0.49555194 -0.00158202 0.00000000
3.51390024 1.31417749 -0.00186272 0.00000000
0.26740757 1.02263899 -0.00112900 0.00000000
4.08956832 2.15038539 -0.00101473 0.00000000
1.55566922 1.62604849 0.00764194 0.00000000
0.55191874 0.59016567 -0.00048112 0.00000000
2.49572239 1.42275779 -0.00050243 0.00000000
2.79543904 1.63093313 -0.00062619 0.00000000
4.33733299 0.16641737 0.00023367 0.00000000
1.58286217 1.55833947 0.00193461 0.00000000
4.48090592 0.32177764 0.00048624 0.00000000
3.80782665 1.23910588 -0.00276981 0.00000000
0.93785011 0.77358021 0.00124304 0.00000000
1.36986938 0.44037012 -0.00364149 0.00000000
2.70262625 1.52492771 -0.00195403 0.00000000
2.46153467 2.29243023 -0.00090230 0.00000000
0.12962764 1.55044296 0.00020584 0.00000000
2.47322072 1.72877544 0.00454211 0.00000000
1.37988719 0.06946015 -0.00192889 0.00000000
1.31864002 0.41936138 -0.00538155 0.00000000
4.16854028 0.92931461 -0.00446829 0.00000000
1.00177873 2.19298324 -0.00223899 0.00000000
2.95862756 1.33946087 0.00321484 0.00000000
0.72508587 1.04765106 0.00460170 0.00000000
0.95551627 1.83093670 -0.00267337 0.00000000
0.06970830 1.11203596 0.00273886 0.00000000
3.27888193 2.08880195 0.00039321 0.00000000
4.43940416 1.26503594 -0.00014254 0.00000000
2.85722954 2.00376581 0.00493963 0.00000000
4.45458272 0.04569936 -0.00585129 0.00000000
3.59066149 2.05665047 0.00101771 0.00000000
2.81152247 2.29483758 0.00271416 0.00000000
0.59199428 1.52952798 -0.00306406 0.00000000
1.83726409 0.85741221 0.00129797 0.00000000
1.81228079 0.38813717 -0.00184020 0.00000000
3.68322154 0.59616274 -0.00017731 0.00000000
1.83534250 0.75898687 -0.00134505 0.00000000
1.75931197 0.43888248 0.00272508 0.00000000
0.92900086 1.44459953 -0.00307799 0.00000000
3.12424935 0.35244350 -0.00142531 0.00000000
2.81903505 0.73307583 0.00373490 0.00000000
0.92115878 0.50409031 -0.00486606 0.00000000
3.52519929 0.81700166 -0.00082434 0.00000000
1.02946130 0.84965109 -0.00216631 0.00000000
0.65738692 1.98249101 0.00357202 0.00000000
2.66263126 2.24972788 0.00249184 0.00000000
4.65551409 1.75841519 0.00279846 0.00000000
1.71843509 0.94945512 0.00185921 0.00000000
0.76948344 0.67676488 -0.00243020 0.00000000
3.38122431 2.04418190 0.00209996 0.00000000
2.67829891 1.26019125 0.00314684 0.00000000
0.28988720 0.74249512 -0.00206812 0.00000000
0.37620700 0.02272248 -0.00170503 0.00000000
2.26589498 2.03867527 -0.00100946 0.00000000
1.61863395 0.87870869 -0.00226884 0.00000000
0.78398177 0.39446173 0.00006751 0.00000000
0.33940909 1.28226640 0.00047374 0.00000000
4.39122504 1.48580118 -0.00088957 0.00000000
4.63335574 2.26178909 -0.00085924 0.00000000
2.86215059 1.79627292 -0.00137952 0.00000000
2.78993543 1.27900141 -0.00231618 0.00000000
2.79172658 1.34265399 -0.00034338 0.00000000
2.52307973 0.66450703 0.00441100 0.00000000
2.50445698 0.57212123 -0.00196785 0.00000000
3.39688979 2.24367014 0.00099969 0.00000000
1.64943411 1.60834122 -0.00230774 0.00000000
3.43111417 1.46617193 0.00250878 0.00000000
2.17790621 0.44362650 -0.00653688 0.00000000
1.60557291 1.89003942 0.00213014 0.00000000
2.87993717 1.75445689 0.00001442 0.00000000
1.71900900 1.98095364 -0.00112321 0.00000000
1.79349487 0.51265732 -0.00136277 0.00000000
3.24627690 0.88323682 0.00137169 0.00000000
3.72942620 0.83037890 0.00126858 0.00000000
2.53453245 2.18728496 0.00290662 0.00000000
4.02467641 0.41780200 -0.00135940 0.00000000
4.25353212 0.97200656 -0.00549789 0.00000000
1.28403579 0.58664984 -0.00001265 0.00000000
4.37907811 1.23986898 -0.00145054 0.00000000
4.55319680 0.62454159 0.00002323 0.00000000
3.58182967 0.14045592 0.00146160 0.00000000
0.09505997 0.75687446 0.00210495 0.00000000
2.09099872 0.81349788 0.00471411 0.00000000
0.63806811 0.58071806 -0.00004005 0.00000000
3.50246708 0.07890867 -0.00262581 0.00000000
2.16702316 0.78620953 -0.00229229 0.00000000
0.63012979 0.69729337 0.00360537 0.00000000
0.12692771 1.23370461 -0.00003890 0.00000000
2.76438994 1.13526621 -0.00177073 0.00000000
2.82357725 0.63905579 0.00043580 0.00000000
2.45589180 0.30764044 0.00075065 0.00000000
1.98787138 1.77093684 0.00299716 0.00000000
2.15331930 0.52632054 -0.00051463 0.00000000
4.04514077 0.53116512 0.00153082 0.00000000
2.70691050 0.38586912 -0.00189033 0.00000000
0.03878184 0.64360629 -0.00172599 0.00000000
1.72726653 0.73530614 0.00013484 0.00000000
3.81791943 0.76884787 -0.00350482 0.00000000
1.94877300 1.99676811 -0.00140255 0.00000000
1.31470073 0.80182451 0.00358777 0.00000000
4.20863912 1.30943193 0.00220814 0.00000000
4.18009935 0.71821645 0.00041128 0.00000000
2.35923456 1.43774433 0.00339349 0.00000000
1.96742053 1.31405364 0.00339300 0.00000000
2.85016331 0.80219407 0.00635141 0.00000000
2.30601069 0.72792774 0.00190734 0.00000000
3.25893171 0.40744503 -0.00104201 0.00000000
2.24970148 1.40368201 -0.00066573 0.00000000
0.89160570 2.27001267 0.00082252 0.00000000
2.58413295 1.31489718 -0.00101730 0.00000000
4.09774135 0.82742888 0.00294454 0.00000000
1.19448150 1.52583423 -0.00015676 0.00000000
3.27468755 1.57303646 -0.00142933 0.00000000
0.68273812 1.57073746 0.00272170 0.00000000
4.70615719 1.41231628 0.00359976 0.00000000
1.58948937 1.28380966 0.00218462 0.00000000
4.29308717 1.52258621 -0.00044433 0.00000000
2.54057032 1.99147646 0.00316695 0.00000000
2.54606725 0.62821484 0.00513872 0.00000000
3.85751492 0.04900165 -0.00460776 0.00000000
0.57496605 0.56704041 0.00232365 0.00000000
1.15086734 0.70935170 0.00187568 0.00000000
4.22047612 1.28309681 0.00094890 0.00000000
2.51345586 1.67243801 -0.00449190 0.00000000
1.28100450 0.04345016 0.00130523 0.00000000
2.92652212 0.95370495 0.00164295 0.00000000
4.42756422 2.28744261 -0.00162810 0.00000000
3.23518168 1.73046903 -0.00229040 0.00000000
4.29183334 0.08376161 -0.00141959 0.00000000
0.59569258 2.16221053 -0.00278865 0.00000000
2.64363793 1.37073765 -0.00339371 0.00000000
0.52024610 1.24386410 -0.00330158 0.00000000
2.03175354 0.61772374 0.00103203 0.00000000
1.13697676 1.64392213 0.00174299 0.00000000
0.53159782 1.87374098 -0.00027118 0.00000000
4.22518606 1.03034522 -0.00061483 0.00000000
3.62441653 0.33887441 0.00303677 0.00000000
1.72286968 1.04760842 -0.00165633 0.00000000
1.60863198 1.76612658 -0.00383776 0.00000000
2.72061444 2.29026533 0.00643994 0.00000000
4.19337858 1.23861516 0.00144385 0.00000000
3.44998921 1.58822046 0.00024405 0.00000000
2.04751447 0.96397721 -0.00044082 0.00000000
3.55393024 0.80168033 0.00378991 0.00000000
3.55740638 0.46937577 -0.00055883 0.00000000
1.45864957 2.15508959 -0.00605451 0.00000000
3.51967055 2.27791412 -0.00017191 0.00000000
0.13753643 0.65788080 0.00072363 0.00000000
0.57284450 1.66140891 -0.00244500 0.00000000
3.38128871 1.29929058 0.00365863 0.00000000
2.19687365 0.51097992 -0.00121123 0.00000000
0.89286635 1.80888468 -0.00060866 0.00000000
0.99612073 0.81461952 -0.00192648 0.00000000
2.71985838 0.06124091 -0.00014876 0.00000000
3.72689868 0.08773206 -0.00142665 0.00000000
0.90528945 1.40623651 0.00110827 0.00000000
3.00068302 1.84852596 0.00128063 0.00000000
0.13027275 2.24197487 -0.00012776 0.00000000
2.45661182 0.11061308 0.00173310 0.00000000
0.01100924 1.56783583 -0.00284136 0.00000000
4.29880859 0.47603542 0.00456267 0.00000000
1.97808125 0.48948390 0.00097308 0.00000000
0.22005455 0.72501210 0.00057018 0.00000000
2.88920633 1.26100805 0.00020507 0.00000000
1.35106459 1.62562911 -0.00020615 0.00000000
2.33517672 1.26509172 -0.00264461 0.00000000
3.67948384 2.10763230 -0.00089388 0.00000000
0.05136292 1.50084191 -0.00032777 0.00000000
1.91639487 1.35934143 0.00437153 0.00000000
3.44602496 0.55500523 0.00037404 0.00000000
4.02027593 0.90656342 0.00356988 0.00000000
3.50002083 1.93281750 -0.00087537 0.00000000
2.65547804 0.89717681 -0.00127941 0.00000000
2.43928920 2.17715613 0.00091306 0.00000000
0.04093563 2.14887895 0.00153649 0.00000000
2.48143750 1.19262078 0.00143061 0.00000000
3.35277557 0.86874066 0.00253988 0.00000000
0.03970692 0.87732199 -0.00416004 0.00000000
2.94456446 0.18464370 0.00209796 0.00000000
0.28396143 1.72537402 -0.00056075 0.00000000
1.51152291 1.26388932 0.00330355 0.00000000
0.30652340 2.02403941 -0.00637357 0.00000000
1.06278129 1.02496127 -0.00524137 0.00000000
1.65343631 0.87439448 -0.00245373 0.00000000
3.39336519 1.68381946 0.00033724 0.00000000
3.07396422 1.59144540 -0.00045829 0.00000000
3.88438890 0.49053288 0.00052451 0.00000000
3.16276614 0.14927902 -0.00135682 0.00000000
4.63216437 1.44707219 0.00169820 0.00000000
2.79715630 0.28019183 0.00002697 0.00000000
4.62187369 1.36131970 -0.00303076 0.00000000
4.04076684 2.26439749 -0.00080086 0.00000000
1.79726201 0.77976452 0.00303222 0.00000000
1.41269628 1.70108309 0.00171333 0.00000000
1.44714436 2.04994916 -0.00372201 0.00000000
2.83312941 1.61738739 -0.00103961 0.00000000
3.19128954 0.43109674 0.00136751 0.00000000
4.68924384 2.14730281 -0.00352231 0.00000000
1.28751104 0.96057634 -0.00350466 0.00000000
2.46715832 0.21140959 0.00070821 0.00000000
2.41663333 1.17987147 -0.00075322 0.00000000
4.43764926 0.06841195 0.00417840 0.00000000
4.17600392 0.97442148 0.00423819 0.00000000
4.08740111 1.95955133 0.00420776 0.00000000
1.65111145 2.09869229 -0.00328575 0.00000000
2.88361240 1.63048087 0.00190433 0.00000000
3.51024785 0.92931969 0.00101931 0.00000000
1.79801233 0.80726578 0.00288293 0.00000000
2.93805927 1.96385998 0.00272157 0.00000000
1.77772855 1.61286962 -0.00191485 0.00000000
3.88923588 0.35230315 0.00421217 0.00000000
0.19740861 1.03127329 0.00145240 0.00000000
3.63021255 0.13069000 0.00140646 0.00000000
0.11971487 1.32280550 0.00107712 0.00000000
0.74068675 0.64543306 0.00104424 0.00000000
3.77356461 1.00714952 -0.00150717 0.00000000
3.89052537 0.10012991 -0.00123006 0.00000000
1.33547024 0.98802083 0.00065688 0.00000000
0.84812880 1.60795805 0.00099791 0.00000000
3.08627015 0.42159338 -0.00293452 0.00000000
1.30350115 1.66585824 -0.00452372 0.00000000
2.10626122 1.25502010 -0.00167175 0.00000000
3.67327076 1.49939947 0.00173053 0.00000000
0.13380588 1.95645304 -0.00192433 0.00000000
2.43872050 2.12870961 -0.00078140 0.00000000
2.95495459 1.00265794 -0.00167022 0.00000000
0.16072774 0.77505358 -0.00096510 0.00000000
1.80041716 1.68635037 0.00231794 0.00000000
0.34252604 1.32806560 -0.00252068 0.00000000
1.17746137 1.49049112 -0.00363125 0.00000000
2.66251226 1.31520642 0.00784551 0.00000000
3.43854364 1.85969140 -0.00367085 0.00000000
0.94514304 0.50633849 0.00085681 0.00000000
2.75772483 2.10810237 0.00003305 0.00000000
0.48774866 1.54191654 0.00400030 0.00000000
1.86633469 0.12943111 -0.00198698 0.00000000
0.09766015 1.78329803 0.00442550 0.00000000
0.59799377 1.95852832 -0.00150084 0.00000000
0.06034522 2.10066890 -0.00160230 0.00000000
0.84132436 2.17017533 -0.00679284 0.00000000
3.60095985 0.01403218 -0.00189327 0.00000000
4.15890926 0.85064358 -0.00045850 0.00000000
1.55235800 1.58977028 -0.00040644 0.00000000
3.14229143 0.98447616 -0.00130765 0.00000000
4.61359720 0.10174205 0.00396209 0.00000000
3.88681647 0.80824033 0.00152300 0.00000000
3.86495083 1.62378951 0.00465632 0.00000000
1.76122265 1.26423464 0.00179808 0.00000000
3.16420526 1.38278266 0.00020208 0.00000000
0.37118402 1.33335737 0.00143458 0.00000000
3.71155354 2.06839174 0.00016644 0.00000000
0.66308418 1.32649713 0.00080778 0.00000000
1.88959342 1.96991506 0.00193867 0.00000000
3.52904010 1.47906772 -0.00206891 0.00000000
3.50271178 0.37641384 -0.00011682 0.00000000
3.73179704 1.16083358 0.00087859 0.00000000
3.61780208 0.14367417 0.00353965 0.00000000
4.38668570 1.46833669 0.00069750 0.00000000
1.25581797 1.97184603 -0.00119493 0.00000000
1.76216172 2.10368219 -0.00590211 0.00000000
0.35816130 2.12114385 -0.00180243 0.00000000
1.64982112 1.15561340 0.00204360 0.00000000
3.25378332 0.41699545 -0.00257190 0.00000000
0.20749161 1.57775157 0.00071806 0.00000000
0.28117399 1.76125367 0.00327101 0.00000000
3.10321392 1.91710179 -0.00038860 0.00000000
1.25125661 0.57990509 0.00265388 0.00000000
4.54770853 0.56614751 0.00182480 0.00000000
3.58886619 0.58741540 -0.00030962 0.00000000
2.06894949 2.28628674 0.00255894 0.00000000
2.43919952 0.69745923 -0.00252520 0.00000000
0.50261461 1.36636456 -0.00002382 0.00000000
0.89163380 1.82047765 -0.00066226 0.00000000
3.18053884 1.94820661 -0.00067721 0.00000000
2.22713941 1.58471352 0.00146609 0.00000000
3.91529134 1.25109977 0.00187178 0.00000000
3.21686849 0.75126410 0.00276101 0.00000000
1.59803015 0.03479072 0.00133414 0.00000000
3.09813223 0.12163035 0.00008716 0.00000000
0.24627181 2.28713059 -0.00179560 0.00000000
0.25309595 1.26028031 -0.00303624 0.00000000
3.34596846 0.39498375 0.00302265 0.00000000
4.42975360 2.29704146 0.00105043 0.00000000
2.28641580 1.22668599 -0.00323489 0.00000000
2.60893346 0.25772501 -0.00051100 0.00000000
1.19272659 1.61118442 0.00251860 0.00000000
1.62015341 2.20544925 -0.00413351 0.00000000
4.41329137 1.87285366 0.00710205 0.00000000
3.79149203 0.15622292 0.00165959 0.00000000
3.92829025 0.84984338 -0.00167700 0.00000000
4.32938112 0.37632252 0.00126176 0.00000000
2.92004238 0.79446525 -0.00384728 0.00000000
2.22672951 2.17366732 0.00261064 0.00000000
3.93173465 0.83179384 0.00004453 0.00000000
4.03550126 1.68024631 0.00191274 0.00000000
3.25781672 0.84519649 0.00209247 0.00000000
0.19213851 0.44920755 0.00163715 0.00000000
2.47382043 1.82932871 0.00434647 0.00000000
3.35485476 2.14733376 -0.00254840 0.00000000
0.29852456 1.78824810 -0.00403403 0.00000000
4.67538590 1.68589044 -0.00055108 0.00000000
3.24198799 0.09147264 0.00079905 0.00000000
3.93112334 1.69604734 -0.00203025 0.00000000
3.41799618 1.84613968 0.00118460 0.00000000
2.81176100 0.69537615 -0.00183073 0.00000000
2.29724834 1.85807352 0.00433521 0.00000000
2.39188363 0.58947917 -0.00286597 0.00000000
0.89522517 0.69936484 -0.00455837 0.00000000
1.73349655 1.51579827 0.00369401 0.00000000
0.68284219 2.17298482 0.00225209 0.00000000
4.13159989 1.46165931 0.00454609 0.00000000
4.37608645 1.23744389 -0.00124261 0.00000000
3.90365851 0.76535548 0.00132062 0.00000000
2.29470497 1.56060631 -0.00052792 0.00000000
0.76876805 0.46603424 -0.00385146 0.00000000
4.30880970 0.86786191 0.00256666 0.00000000
1.91185923 0.63521805 -0.00176170 0.00000000
3.18259250 2.19365470 0.00017196 0.00000000
0.88636310 0.08491075 -0.00036525 0.00000000
3.86191120 0.96032723 -0.00373345 0.00000000
4.15570821 1.45728760 -0.00120228 0.00000000
4.31644276 1.22198639 0.00264156 0.00000000
0.60685918 0.58290174 -0.00008078 0.00000000
3.25453401 0.63094581 -0.00107342 0.00000000
2.26748923 1.80022012 -0.00371583 0.00000000
0.84971942 2.11340194 0.00286416 0.00000000
4.69522809 1.39633880 0.00236978 0.00000000
1.76691563 0.76825555 0.00029736 0.00000000
1.57378348 0.52260662 -0.00457699 0.00000000
1.40322051 0.58527645 -0.00352648 0.00000000
0.68925378 1.28552820 -0.00174434 0.00000000
0.80202406 1.68057581 0.00173144 0.00000000
3.94439708 1.13803981 -0.00338328 0.00000000
4.10158828 1.54091650 -0.00323685 0.00000000
3.60367636 0.50287091 -0.00049032 0.00000000
3.52098607 0.90394404 0.00138619 0.00000000
3.51811764 1.42368920 -0.00075487 0.00000000
1.74927456 2.21632380 0.00079706 0.00000000
2.12518408 1.61987907 0.00132158 0.00000000
1.81566211 1.54828699 0.00003107 0.00000000
0.48077474 2.29379682 -0.00120085 0.00000000
3.14314970 0.07666940 -0.00245482 0.00000000
1.73173546 0.34163993 0.00387209 0.00000000
1.24864802 2.29421994 -0.00121915 0.00000000
0.27269134 0.42598747 -0.00213729 0.00000000
0.73331790 2.19523672 -0.00078499 0.00000000
4.70157766 0.19088773 0.00268501 0.00000000
1.57514842 1.08719581 -0.00139963 0.00000000
1.94264510 2.05973554 0.00670801 0.00000000
3.65296634 2.19797431 0.00146763 0.00000000
4.31588031 1.28564096 -0.00075611 0.00000000
0.26949642 1.66642891 -0.00032242 0.00000000
1.77818402 2.19259152 -0.00380760 0.00000000
3.11508914 1.73506128 0.00187796 0.00000000
3.76981198 0.70172930 0.00075683 0.00000000
1.69021795 1.94948141 -0.00114664 0.00000000
1.23047103 0.72963341 0.00508665 0.00000000
0.64637016 2.18458945 0.00077754 0.00000000
0.84726463 0.69551089 -0.00149940 0.00000000
2.69462595 0.93428626 0.00309383 0.00000000
1.09838007 0.77187780 -0.00294502 0.00000000
1.19757999 1.64697502 -0.00141138 0.00000000
3.47878479 0.39953268 -0.00631542 0.00000000
3.98209046 1.80927074 0.00200976 0.00000000
2.08930081 1.34845196 -0.00269845 0.00000000
2.14637769 0.57402779 -0.00325303 0.00000000
1.00347831 1.50299573 -0.00061690 0.00000000
1.14097858 0.85039443 0.00299104 0.00000000
3.46946275 0.03680272 0.00358917 0.00000000
0.47120608 1.68313032 -0.00164917 0.00000000
1.12955398 0.37054845 0.00066276 0.00000000
2.51477287 1.23154230 -0.00364231 0.00000000
2.47666339 1.73854581 -0.00305764 0.00000000
1.44690054 1.35605942 0.00468705 0.00000000
1.84981517 0.15199010 0.00138528 0.00000000
4.28484880 0.93935701 -0.00447767 0.00000000
0.53190350 1.46045867 0.00123259 0.00000000
2.03206494 0.61106570 -0.00381737 0.00000000
4.36684792 2.19049189 0.00118319 0.00000000
1.42007892 1.87548699 -0.00098320 0.00000000
3.11828940 0.84246979 -0.00154488 0.00000000
2.65772306 1.66589938 -0.00157089 0.00000000
0.92899421 2.02820445 0.00165987 0.00000000
3.40825738 0.35488133 -0.00237645 0.00000000
3.17804022 1.27957840 -0.00111849 0.00000000
4.01668632 2.10252167 -0.00327190 0.00000000
1.10131565 1.33133119 -0.00260495 0.00000000
4.35122829 1.59406982 -0.00260615 0.00000000
2.73310518 1.42362831 -0.00493879 0.00000000
2.82263764 0.67394267 0.00305572 0.00000000
1.77988898 1.04264199 0.00136563 0.00000000
3.37524165 0.02675475 -0.00038719 0.00000000
0.17492534 0.87108489 -0.00016658 0.00000000
3.93728742 1.42056123 -0.00037163 0.00000000
1.13343746 1.70924963 -0.00262917 0.00000000
2.57805424 0.98943363 -0.00050302 0.00000000
3.34226757 1.22008288 0.00148816 0.00000000
3.58216890 0.43272216 0.00178981 0.00000000
2.76944042 0.41612814 -0.00170449 0.00000000
3.13302701 2.20340302 -0.00236524 0.00000000
4.01921853 1.49026044 -0.00213842 0.00000000
1.95903189 0.11557517 -0.00430675 0.00000000
2.48901873 0.35259348 -0.00071232 0.00000000
0.13782992 1.44190781 0.00058451 0.00000000
4.20806585 1.80900404 -0.00082942 0.00000000
2.96821401 2.01434083 0.00053647 0.00000000
4.32905103 0.16625897 0.00118110 0.00000000
1.07768679 1.75764099 0.00674845 0.00000000
1.61963386 1.66318431 -0.00010071 0.00000000
1.15167477 0.24449044 0.00236121 0.00000000
4.35718007 0.15070367 0.00106396 0.00000000
1.73075691 0.54599889 -0.00261290 0.00000000
2.69756304 1.25700083 -0.00133675 0.00000000
2.58061164 0.27418476 0.00294117 0.00000000
3.48888132 1.06687766 -0.00308786 0.00000000
0.10935585 0.93982831 0.00244002 0.00000000
3.34158511 0.86604955 -0.00236101 0.00000000
4.68024243 0.83860128 0.00133825 0.00000000
1.72305751 2.14025720 -0.00185933 0.00000000
1.46089170 1.98051798 -0.00112958 0.00000000
2.72406972 1.29235890 0.00049263 0.00000000
2.93307954 0.13029794 -0.00217838 0.00000000
2.26069645 0.28919092 -0.00185922 0.00000000
2.93103829 0.27579856 -0.00107905 0.00000000
2.02344671 0.50895072 -0.00568089 0.00000000
0.65795432 2.24698029 0.00137766 0.00000000
1.12485002 2.22516009 -0.00103979 0.00000000
3.04499589 1.35888209 0.00313116 0.00000000
3.26168366 1.03050966 -0.00408178 0.00000000
0.95591061 1.50763312 0.00314250 0.00000000
2.88221335 0.91768598 -0.00232382 0.00000000
3.13884502 0.01577497 -0.00160406 0.00000000
3.63854228 0.79369029 0.00114230 0.00000000
1.90940679 1.26309943 -0.00147543 0.00000000
3.61158280 1.14752780 0.00247179 0.00000000
1.43649188 2.02051776 0.00405883 0.00000000
3.77742841 0.51598653 -0.00048233 0.00000000
1.48880427 0.17038648 -0.00225523 0.00000000
1.16556564 1.40428915 -0.00014146 0.00000000
0.78945242 0.76948626 -0.00342932 0.00000000
3.52920965 0.68103537 -0.00149056 0.00000000
3.14728496 0.59842700 -0.00045068 0.00000000
2.84402486 1.57371154 -0.00245833 0.00000000
1.76933228 2.16155912 0.00334111 0.00000000
1.37232435 0.88523129 0.00259048 0.00000000
0.02266834 1.80074009 0.00187218 0.00000000
1.28528102 2.07135384 0.00072596 0.00000000
4.34577961 0.56271948 0.00149542 0.00000000
3.34888896 1.32110577 -0.00052400 0.00000000
1.29717137 1.24438178 0.00278632 0.00000000
0.62529198 1.92520180 0.00086615 0.00000000
0.45585337 0.50331218 0.00329600 0.00000000
4.64486913 0.36776778 -0.00100498 0.00000000
4.55652006 2.17662359 0.00003153 0.00000000
0.01432616 1.93630910 0.00241753 0.00000000
1.49682935 0.99035723 -0.00613843 0.00000000
4.28139088 1.16303746 0.00013955 0.00000000
2.97427967 1.05792981 0.00247581 0.00000000
3.90800469 0.79374791 0.00204682 0.00000000
1.63737622 0.23098996 -0.00249625 0.00000000
2.01566828 0.99359699 -0.00056573 0.00000000
2.39318908 2.28272473 0.00202407 0.00000000
1.23546111 1.18416032 0.00208036 0.00000000
4.09033333 0.86503714 -0.00030024 0.00000000
0.12733885 0.19452497 0.00033482 0.00000000
1.70471442 0.28280537 0.00074550 0.00000000
1.02563769 1.18075758 0.00007127 0.00000000
0.71769728 0.76349837 -0.00046367 0.00000000
2.75744480 0.80382767 0.00024387 0.00000000
0.45233384 0.04967659 -0.00043581 0.00000000
4.33085821 0.53234067 0.00111659 0.00000000
1.00985200 0.47528465 -0.00175937 0.00000000
1.28137464 0.19175550 -0.00009197 0.00000000
4.15740400 2.05681435 -0.00006197 0.00000000
0.45388488 0.07984157 0.00281811 0.00000000
2.97655100 0.59636356 0.00027406 0.00000000
4.18061627 1.92143851 -0.00027062 0.00000000
2.20464940 0.54845329 0.00064451 0.00000000
2.66123377 1.33605336 0.00382132 0.00000000
3.85410790 1.56113014 -0.00171554 0.00000000
1.71999663 1.38063708 0.00104188 0.00000000
4.16190898 1.54568370 -0.00491574 0.00000000
0.87155443 0.82877498 0.00326881 0.00000000
4.35357649 0.87529418 0.00121948 0.00000000
4.47626789 1.46249240 0.00039452 0.00000000
0.60531940 0.30906339 0.00039703 0.00000000
0.55119559 1.97053570 -0.00212842 0.00000000
0.43114173 0.33040300 0.00206815 0.00000000
1.23740237 2.15897092 -0.00173863 0.00000000
1.50234722 1.26246645 -0.00406696 0.00000000
4.50031405 1.39826210 -0.00246801 0.00000000
3.39605759 1.33591500 0.00311226 0.00000000
4.69410431 2.29018459 0.00379869 0.00000000
4.59664524 1.52062083 -0.00152013 0.00000000
0.69735621 1.61948865 -0.00312103 0.00000000
0.65829160 1.58612020 -0.00032472 0.00000000
2.50597163 0.42539729 -0.00057231 0.00000000
0.19287297 1.44240135 0.00039309 0.00000000
0.97131743 1.60299879 0.00129590 0.00000000
2.93813100 0.85030889 0.00213633 0.00000000
0.74383090 1.07871436 0.00026696 0.00000000
1.46811738 1.46783715 -0.00221258 0.00000000
2.59667916 0.09314385 -0.00206871 0.00000000
1.41032727 0.96822528 -0.00354176 0.00000000
3.97031635 0.50153196 0.00067122 0.00000000
2.40916039 1.44005987 -0.00362355 0.00000000
3.64577447 0.52019194 -0.00163690 0.00000000
0.08145905 1.20523147 -0.00071401 0.00000000
0.24798718 1.69505755 0.00324884 0.00000000
0.85104769 0.29074724 -0.00394121 0.00000000
1.03865010 0.20002367 0.00463868 0.00000000
0.03153384 1.09720133 -0.00087743 0.00000000
2.54504229 0.26762713 -0.00118158 0.00000000
1.16004376 0.89713281 -0.00395333 0.00000000
2.26653044 2.09484822 0.00642790 0.00000000
4.01685704 0.99569915 -0.00149491 0.00000000
2.64877132 1.90079606 -0.00081073 0.00000000
0.54364247 0.54549259 -0.00745037 0.00000000
3.77376855 1.33347263 -0.00182199 0.00000000
0.16379237 1.28542662 0.00132708 0.00000000
1.50473036 0.00371702 -0.00229119 0.00000000
4.02480170 0.26649491 0.00507706 0.00000000
0.19785124 2.13068592 0.00164492 0.00000000
1.37717259 0.40182575 -0.00349410 0.00000000
0.44169422 0.14344822 -0.00093000 0.00000000
1.78003179 1.54003335 0.00176937 0.00000000
1.77841954 1.01481619 0.00251589 0.00000000
2.68243379 0.34772509 -0.00041439 0.00000000
4.11476797 0.50846164 0.00070882 0.00000000
0.44745222 1.39525389 0.00202854 0.00000000
1.48555869 0.78481530 0.00078810 0.00000000
1.89656617 1.10837836 0.00126456 0.00000000
0.69742429 1.70741186 0.00260314 0.00000000
2.57184913 0.52949803 -0.00182840 0.00000000
0.50167568 1.16830060 -0.00035709 0.00000000
2.79927202 1.61510080 -0.00036951 0.00000000
3.17077952 1.38961603 0.00414859 0.00000000
1.05748821 1.09832477 0.00432190 0.00000000
3.74106744 0.33997149 0.00036492 0.00000000
3.23689770 1.15261488 0.00103763 0.00000000
4.20582531 1.32299380 0.00359380 0.00000000
4.65531690 0.43913300 0.00437286 0.00000000
4.15790212 1.13092159 -0.00220940 0.00000000
0.63958320 1.83192346 0.00112625 0.00000000
1.57701935 1.88445923 -0.00046424 0.00000000
2.18408480 1.46011306 0.00174498 0.00000000
4.38226618 1.40988942 0.00159866 0.00000000
2.36027135 1.20802291 0.00284916 0.00000000
3.53984839 1.48260185 -0.00262453 0.00000000
1.37154747 1.50333575 0.00049482 0.00000000
1.76771319 2.29690988 0.00278557 0.00000000
0.09697993 1.32797517 -0.00154858 0.00000000
3.72772557 1.33274330 0.00092861 0.00000000
2.73263645 1.30471493 0.00546259 0.00000000
0.82100358 1.32821627 -0.00052780 0.00000000
3.59130365 1.99949810 -0.00147035 0.00000000
4.15799674 1.19694911 0.00126128 0.00000000
2.04328731 1.68403821 0.00604253 0.00000000
3.97388475 2.12393991 0.00264151 0.00000000
0.71956631 0.78907500 0.00140714 0.00000000
1.68727532 1.93162117 0.00054141 0.00000000
0.74078775 1.98371096 -0.00154989 0.00000000
