0.81838931 1.27917232 -0.00222307 0.00000000
3.85687873 0.52538865 0.00138885 0.00000000
2.79835675 2.02022616 -0.00003388 0.00000000
2.54703491 1.29412477 0.00223954 0.00000000
4.24141628 0.21066707 -0.00004451 0.00000000
1.09532138 0.64799269 -0.00065618 0.00000000
2.01555093 0.06103389 0.00216321 0.00000000
4.00868951 1.27565600 0.00148362 0.00000000
3.10270186 1.60049898 -0.00039954 0.00000000
3.92966407 0.47140750 0.00088557 0.00000000
2.86099730 1.09218107 -0.00073853 0.00000000
1.78809771 2.22905238 0.00343802 0.00000000
1.63582987 2.20213683 0.00076585 0.00000000
3.13863838 0.68885255 -0.00273196 0.00000000
3.14417396 0.11870775 -0.00165465 0.00000000
0.00836742 0.22417687 0.00218302 0.00000000
1.54906474 2.08426810 -0.00181370 0.00000000
0.32434135 2.22343345 0.00119052 0.00000000
1.47916960 2.16733698 -0.00374537 0.00000000
2.62625592 0.64059021 -0.00091454 0.00000000
1.68654656 1.83546313 0.00221934 0.00000000
1.68150365 0.33204082 0.00135822 0.00000000
0.18474734 2.29755267 -0.00162194 0.00000000
2.64450338 1.71645135 -0.00187192 0.00000000
2.38271094 1.06217059 0.00060464 0.00000000
1.67260860 1.88804126 -0.00013846 0.00000000
2.54264025 0.08133795 -0.00210448 0.00000000
1.39970349 0.49217261 -0.00654190 0.00000000
2.78470545 1.50344095 -0.00355229 0.00000000
3.24085584 0.07461760 -0.00288872 0.00000000
3.81096099 1.70814955 -0.00455043 0.00000000
0.48029859 0.45446363 0.00218086 0.00000000
4.00220160 0.85961582 0.00577802 0.00000000
2.41256169 0.85516454 0.00121846 0.00000000
0.39495692 1.95809329 -0.00330821 0.00000000
1.67607299 1.72617421 -0.00384837 0.00000000
3.36546663 1.87463634 0.00194904 0.00000000
1.68709021 2.17746726 -0.00145672 0.00000000
1.05317891 0.64998390 0.00376965 0.00000000
2.53596269 1.29873917 0.00201794 0.00000000
2.51192218 1.39899115 -0.00097399 0.00000000
0.40605548 2.06872988 0.00299856 0.00000000
3.28713326 2.24628520 -0.00350126 0.00000000
0.98142023 0.13130576 0.00121291 0.00000000
2.82867001 0.60055020 0.00008886 0.00000000
1.35879319 0.16149350 -0.00275664 0.00000000
4.12414098 0.50607613 -0.00025424 0.00000000
1.58688498 2.28491055 0.00643625 0.00000000
2.98403597 1.45588454 0.00003829 0.00000000
0.22658271 2.00527054 -0.00207621 0.00000000
4.32522804 1.43693112 0.00347442 0.00000000
2.27707579 0.73757253 -0.00163587 0.00000000
2.94447426 0.93600890 0.00019264 0.00000000
0.69562092 0.25611058 0.00067189 0.00000000
1.98587626 0.69809721 -0.00111566 0.00000000
1.80905787 2.16734166 -0.00222459 0.00000000
2.66814879 1.36017393 0.00550032 0.00000000
0.64916404 1.23475387 0.00104705 0.00000000
2.27169648 2.36631496 -0.00051793 0.00000000
2.63411434 1.67289119 0.00200175 0.00000000
1.99871549 0.16016678 -0.00231670 0.00000000
0.02164915 1.62488800 0.00428378 0.00000000
4.32032850 1.53707094 -0.00269463 0.00000000
1.88500000 0.44068930 0.00040848 0.00000000
1.79168038 2.23589909 0.00448947 0.00000000
4.23542166 2.17722433 0.00301411 0.00000000
2.98250221 0.11459412 0.00229137 0.00000000
4.31604734 0.26338704 0.00149286 0.00000000
1.23235782 1.21783662 0.00282992 0.00000000
3.01720468 2.25686482 0.00109621 0.00000000
1.32493967 1.48843301 -0.00144932 0.00000000
3.49273677 0.91290664 -0.00213252 0.00000000
1.79905783 2.25784020 -0.00074368 0.00000000
3.29424888 1.55218640 -0.00349924 0.00000000
4.19757190 1.91972641 -0.00209571 0.00000000
1.10813956 0.61174778 0.00053358 0.00000000
3.79345042 1.84291751 0.00061886 0.00000000
0.12996881 1.98314582 0.00226768 0.00000000
1.92434037 1.02614763 -0.00122605 0.00000000
0.18271560 1.46218142 0.00316227 0.00000000
1.67760439 1.31881364 -0.00241993 0.00000000
3.97673384 1.15608433 -0.00146188 0.00000000
0.67960758 0.55076027 -0.00314817 0.00000000
0.16703890 1.41447164 0.00316542 0.00000000
2.96801823 1.40787377 0.00177670 0.00000000
2.35682491 0.18983882 -0.00377827 0.00000000
4.00771170 0.68141830 -0.00012219 0.00000000
2.56189415 0.65610196 -0.00052304 0.00000000
2.29660827 1.81933793 -0.00332376 0.00000000
0.39902976 1.31449265 -0.00016818 0.00000000
1.71328292 0.33937049 -0.00038520 0.00000000
3.64729120 2.17341001 0.00170407 0.00000000
2.75269153 1.46941592 -0.00225107 0.00000000
3.07176522 0.92262751 0.00219677 0.00000000
4.32425870 2.28354906 0.00061910 0.00000000
0.37989974 1.03315763 -0.00030049 0.00000000
0.91112373 1.44421755 0.00172948 0.00000000
1.56405475 1.06744937 -0.00419329 0.00000000
3.10686167 1.44343929 0.00397852 0.00000000
1.13887626 1.35504894 -0.00086927 0.00000000
1.34857932 2.00310302 -0.00163973 0.00000000
3.31268128 0.25753592 0.00111502 0.00000000
3.76410856 0.41854586 0.00590085 0.00000000
0.83422332 1.67050803 -0.00000604 0.00000000
0.46059314 1.99966827 0.00087184 0.00000000
2.11374176 1.10306338 0.00479349 0.00000000
0.27811490 1.74148137 0.00052093 0.00000000
3.98846708 0.30044516 0.00412678 0.00000000
1.70804356 0.36224146 0.00023161 0.00000000
4.21083514 1.77231983 -0.00000012 0.00000000
0.08461284 1.86556423 0.00107164 0.00000000
0.06394964 1.72043687 -0.00111999 0.00000000
2.57378201 0.93736111 0.00114740 0.00000000
0.86056999 1.23465696 -0.00381825 0.00000000
2.62857884 0.73804651 -0.00244374 0.00000000
0.90274942 1.84627178 -0.00014871 0.00000000
0.73742209 0.52819260 0.00306449 0.00000000
0.96958465 1.52004961 -0.00057378 0.00000000
3.38566469 0.62745687 -0.00162349 0.00000000
1.47615010 1.37166530 0.00109535 0.00000000
0.99776888 0.62346859 0.00200049 0.00000000
4.00452732 2.34922379 0.00136001 0.00000000
4.08095956 1.10271354 0.00123996 0.00000000
0.67203394 0.37785756 0.00181337 0.00000000
0.82304323 1.46718106 0.00231354 0.00000000
3.30146890 0.31515229 0.00472112 0.00000000
3.02609427 0.51802024 -0.00067564 0.00000000
4.06263502 1.36897400 0.00053260 0.00000000
3.90056796 0.41408423 -0.00237814 0.00000000
4.22197558 0.20652184 0.00043086 0.00000000
2.03278399 0.67989349 -0.00265753 0.00000000
1.59221114 1.19605639 0.00487246 0.00000000
2.45525301 0.87316558 -0.00050232 0.00000000
0.61172816 1.68812304 -0.00269978 0.00000000
1.65562766 0.21396194 -0.00068787 0.00000000
0.84029664 2.39262065 -0.00065459 0.00000000
4.34066076 1.96950612 -0.00141495 0.00000000
0.06993443 1.55437850 -0.00040082 0.00000000
1.76098139 2.15786205 0.00047718 0.00000000
2.07035864 1.02011824 0.00041725 0.00000000
1.40219383 1.52859176 -0.00065599 0.00000000
0.46973258 0.72702162 -0.00033081 0.00000000
1.11716552 0.70326902 0.00307127 0.00000000
1.44613952 0.37198762 -0.00017562 0.00000000
2.49170021 1.18799948 0.00213147 0.00000000
0.01929048 0.93984124 -0.00265456 0.00000000
3.86540422 1.37230309 -0.00383181 0.00000000
3.51574629 0.66530160 -0.00266264 0.00000000
0.21273739 1.48424060 0.00085088 0.00000000
1.52755655 0.27161230 0.00078737 0.00000000
1.88109204 0.31520072 -0.00410578 0.00000000
2.60769297 1.53808225 -0.00050778 0.00000000
3.77601224 1.48297739 0.00323652 0.00000000
0.47780965 1.06588541 0.00084743 0.00000000
0.04394409 2.13459644 -0.00190601 0.00000000
1.20210378 1.17665595 0.00327914 0.00000000
1.84232251 0.20074633 0.00015497 0.00000000
4.07869696 0.55241179 -0.00099950 0.00000000
0.09030420 1.44659974 -0.00001451 0.00000000
3.44128466 0.76241081 -0.00024114 0.00000000
0.96244315 0.07369153 0.00651252 0.00000000
1.44574987 2.28659726 0.00096881 0.00000000
2.93649754 0.14795351 0.00264476 0.00000000
0.44879747 1.41351033 0.00164884 0.00000000
3.30137262 0.41295242 -0.00177397 0.00000000
2.75076657 1.85521444 0.00510039 0.00000000
3.68847856 2.35556100 0.00207417 0.00000000
2.63605487 0.68136944 0.00053143 0.00000000
1.45465585 1.86679102 0.00249222 0.00000000
2.95291452 0.97615137 -0.00013016 0.00000000
1.37148750 2.11697770 -0.00231829 0.00000000
2.85025916 1.26611867 -0.00088612 0.00000000
1.30125615 1.78837408 0.00063881 0.00000000
1.88380663 2.37623316 -0.00165947 0.00000000
0.13327009 1.59120029 -0.00122097 0.00000000
4.31770628 1.40685726 0.00511572 0.00000000
1.03897956 0.14084658 -0.00064987 0.00000000
0.89909762 2.34906121 0.00197821 0.00000000
4.02265178 0.13890294 0.00037560 0.00000000
3.64283037 1.14817195 0.00062779 0.00000000
4.03578826 2.07069853 0.00472697 0.00000000
2.91789844 1.12099643 0.00035916 0.00000000
2.96215966 1.20125167 0.00370427 0.00000000
0.63643949 0.44823863 0.00153705 0.00000000
3.26401616 1.30655637 0.00144196 0.00000000
2.57607706 0.26251159 -0.00164331 0.00000000
0.28663105 1.99310924 -0.00502866 0.00000000
4.12462511 0.26936340 -0.00033797 0.00000000
4.03052680 0.71352968 -0.00193741 0.00000000
2.54017870 0.04108459 0.00056464 0.00000000
1.21364203 2.10906809 -0.00157451 0.00000000
1.13382602 0.68556870 -0.00128102 0.00000000
3.10547679 1.36270416 -0.00086282 0.00000000
1.09351413 0.76972484 -0.00159677 0.00000000
3.25729117 0.23026600 -0.00267687 0.00000000
4.23712069 0.39603964 -0.00020665 0.00000000
2.15214828 1.55995416 -0.00205654 0.00000000
0.53236171 0.45214300 0.00021511 0.00000000
0.97738586 0.93281438 0.00185375 0.00000000
0.83328109 2.31571389 0.00191973 0.00000000
0.68637403 1.31728087 -0.00297137 0.00000000
0.84857803 1.54446964 0.00667412 0.00000000
0.48520867 1.66191083 -0.00185139 0.00000000
2.57022894 0.22468169 0.00000025 0.00000000
0.82220598 0.74999533 0.00096593 0.00000000
4.06889998 1.75404319 0.00158229 0.00000000
3.36756251 1.31262079 0.00282290 0.00000000
1.89418127 0.65842436 -0.00379921 0.00000000
3.77096373 1.13266741 0.00405206 0.00000000
2.90027477 1.73313591 0.00280606 0.00000000
0.33444188 1.90131791 -0.00087356 0.00000000
1.96195031 0.22303667 -0.00054966 0.00000000
2.77823502 1.09733509 -0.00248903 0.00000000
0.76839377 0.19220073 0.00495220 0.00000000
3.01338939 0.12304401 -0.00049256 0.00000000
2.74050096 0.82018334 -0.00042628 0.00000000
2.01459904 1.04554590 0.00581849 0.00000000
0.84817621 1.49002991 -0.00005549 0.00000000
3.13202287 2.09632445 -0.00294187 0.00000000
2.02322464 1.55150697 -0.00247455 0.00000000
0.13550238 0.48512271 -0.00141058 0.00000000
2.63200098 1.43770494 0.00292989 0.00000000
4.20955258 0.79827914 0.00081082 0.00000000
1.55715120 1.21400049 0.00219076 0.00000000
0.77539980 2.16719642 -0.00123186 0.00000000
1.14639139 2.01108371 -0.00183052 0.00000000
0.20816645 1.04993482 -0.00233291 0.00000000
3.90879334 0.77837412 0.00600095 0.00000000
4.08580018 1.07432822 0.00427112 0.00000000
2.21756341 1.99715672 0.00270389 0.00000000
0.28374157 0.74978888 -0.00138093 0.00000000
3.70690178 1.68693428 0.00234359 0.00000000
0.26722530 2.05252139 0.00034936 0.00000000
0.75874846 1.69362591 -0.00117785 0.00000000
4.35360042 1.24500027 0.00492560 0.00000000
2.10836346 0.17622416 0.00088751 0.00000000
0.98112512 1.94151950 -0.00313545 0.00000000
0.17368086 1.57438081 0.00095803 0.00000000
3.64179704 0.65998860 0.00347637 0.00000000
1.88032962 0.52163989 -0.00050401 0.00000000
3.32022405 0.17325916 0.00087991 0.00000000
3.68046996 1.96989077 -0.00241377 0.00000000
3.02977474 2.33963676 -0.00579118 0.00000000
3.73901203 0.48744342 0.00036911 0.00000000
3.35205067 1.36421462 -0.00359996 0.00000000
2.69087485 1.91004875 0.00085375 0.00000000
4.31463305 0.65163313 -0.00069768 0.00000000
3.08811325 1.90082718 -0.00129895 0.00000000
1.29829019 1.22645993 -0.00255383 0.00000000
0.32295736 1.06905805 -0.00132994 0.00000000
2.71930321 1.16426071 -0.00061628 0.00000000
2.75350754 0.48659451 0.00109166 0.00000000
0.88792665 0.04874571 0.00350296 0.00000000
3.20831307 2.34092671 0.00209758 0.00000000
4.25482068 1.02560954 0.00354279 0.00000000
2.35226042 0.09807513 0.00082800 0.00000000
2.92644604 1.44471058 -0.00356871 0.00000000
3.25679506 2.03976812 0.00054753 0.00000000
1.74729123 0.84825996 -0.00018503 0.00000000
3.69024229 0.62813441 0.00234530 0.00000000
2.59939649 0.48537971 0.00118989 0.00000000
2.09917126 0.98083727 0.00405337 0.00000000
1.66133663 0.50058141 -0.00561002 0.00000000
1.82489212 0.62861149 0.00057848 0.00000000
2.08917375 2.07066353 -0.00344133 0.00000000
2.34960898 2.12898281 0.00028332 0.00000000
0.39206311 0.22838086 0.00323525 0.00000000
4.19081666 1.83798632 0.00035928 0.00000000
1.50732848 1.89735301 0.00047128 0.00000000
2.84155441 0.03769107 0.00504404 0.00000000
1.70941734 0.27701426 -0.00001151 0.00000000
2.89144820 0.01627287 -0.00424991 0.00000000
3.15814361 1.22218339 -0.00137353 0.00000000
3.72392284 0.64956956 -0.00071478 0.00000000
0.04174492 0.92752262 0.00136106 0.00000000
4.07362111 1.56176756 0.00093057 0.00000000
3.20204012 1.89572888 -0.00076234 0.00000000
3.35795823 1.34779932 0.00338059 0.00000000
3.09931981 1.71352652 -0.00362130 0.00000000
1.89491477 0.79001310 0.00058233 0.00000000
3.82288176 0.99194336 -0.00081708 0.00000000
2.74883729 0.50298446 0.00106879 0.00000000
0.75927040 0.77060334 0.00015196 0.00000000
2.38689570 2.18184855 -0.00211765 0.00000000
0.90474216 1.76119464 0.00372737 0.00000000
1.86378505 1.61611700 0.00056006 0.00000000
0.18605384 1.92412815 0.00020820 0.00000000
0.14805648 0.30510359 -0.00735317 0.00000000
1.35015445 0.22551010 -0.00157225 0.00000000
1.08760510 0.60412119 0.00076067 0.00000000
3.83116991 0.70214941 0.00155970 0.00000000
2.23418411 2.37275604 0.00332982 0.00000000
1.98942620 0.19215857 0.00222241 0.00000000
1.75026087 0.63729043 -0.00241659 0.00000000
2.17259117 1.77713565 -0.00037192 0.00000000
2.01497269 0.81156781 -0.00110226 0.00000000
3.35905900 0.87253306 0.00250124 0.00000000
4.34986698 0.17202303 -0.00043474 0.00000000
3.53151734 0.04899080 0.00156974 0.00000000
4.21761033 2.28320279 0.00328253 0.00000000
0.68646054 2.07654204 0.00149883 0.00000000
0.53360243 1.68038729 -0.00285323 0.00000000
0.71070062 0.51540256 -0.00066475 0.00000000
0.11405987 1.36057436 0.00444803 0.00000000
0.54586956 1.74920519 0.00054358 0.00000000
3.22969032 0.45053803 0.00180429 0.00000000
2.95594457 2.33823455 -0.00177772 0.00000000
3.96620475 1.18633674 -0.00344420 0.00000000
3.25506663 1.11606507 0.00223943 0.00000000
3.27807581 0.39109154 -0.00421257 0.00000000
0.04588637 0.88487315 0.00189186 0.00000000
1.11782827 1.65289188 0.00195044 0.00000000
2.62078266 0.37190746 -0.00155647 0.00000000
4.15467648 0.03458865 -0.00156347 0.00000000
1.48725771 0.91685920 -0.00248034 0.00000000
0.78834926 1.21521417 0.00088808 0.00000000
0.89511753 2.31307672 -0.00076683 0.00000000
0.43876151 0.88386134 -0.00084882 0.00000000
0.95837244 0.71220850 -0.00029120 0.00000000
1.12454806 0.07541165 0.00236383 0.00000000
3.06674573 1.66552516 -0.00375154 0.00000000
4.31460717 1.68563831 0.00014254 0.00000000
1.07312652 1.51972409 0.00177415 0.00000000
0.47527590 2.17395509 0.00171016 0.00000000
0.26864934 0.05726733 -0.00236825 0.00000000
1.25222087 2.33467758 -0.00091482 0.00000000
3.49133884 1.82699773 -0.00262729 0.00000000
2.72876992 0.41339626 0.00379189 0.00000000
2.38363513 2.18000690 -0.00085634 0.00000000
1.12044031 2.33752600 0.00273805 0.00000000
3.73927378 1.71682095 0.00227215 0.00000000
1.00494222 0.27490196 -0.00081720 0.00000000
3.16518003 0.19954738 0.00266452 0.00000000
3.68644423 1.08815221 -0.00482845 0.00000000
0.04222363 1.82052266 -0.00048701 0.00000000
0.80889977 1.98456239 -0.00016010 0.00000000
3.43555510 2.06508881 -0.00226386 0.00000000
2.95785925 0.95655085 -0.00494738 0.00000000
4.31161164 0.56548420 0.00217311 0.00000000
1.38044553 0.26747462 0.00039182 0.00000000
2.79486639 2.34805263 -0.00036107 0.00000000
3.63075866 0.48491365 -0.00165702 0.00000000
4.30031269 0.61587382 0.00333623 0.00000000
0.78310894 2.24160312 0.00269618 0.00000000
3.13514166 2.09073626 0.00047051 0.00000000
1.37045861 0.05653771 -0.00362881 0.00000000
4.04066674 0.40636899 0.00111770 0.00000000
3.88957032 2.33618961 -0.00313163 0.00000000
3.28095865 0.19410438 0.00317039 0.00000000
0.00863876 1.47694084 0.00183602 0.00000000
0.73534969 1.30885411 -0.00130778 0.00000000
2.61476209 2.24274796 0.00130428 0.00000000
2.91913658 1.33412383 0.00314773 0.00000000
1.28656792 1.94048367 -0.00062743 0.00000000
3.27514784 0.27444377 -0.00267549 0.00000000
1.99981454 1.94112336 0.00239524 0.00000000
2.77253397 0.17017898 -0.00040868 0.00000000
1.02896653 1.65593033 0.00430503 0.00000000
3.09574686 1.25220927 0.00147447 0.00000000
0.58286137 1.51753766 0.00130861 0.00000000
3.45055188 1.38966466 0.00241824 0.00000000
0.91736828 0.93139645 -0.00346056 0.00000000
2.00296256 1.03162812 0.00159324 0.00000000
3.30963650 0.08563666 -0.00187744 0.00000000
0.27921800 0.12050069 0.00053689 0.00000000
2.98656748 0.59315780 -0.00536978 0.00000000
0.44923158 2.02006377 -0.00153241 0.00000000
1.63080163 0.11365358 0.00147229 0.00000000
3.74712195 0.18105195 0.00017885 0.00000000
3.76195752 0.09916960 0.00260813 0.00000000
0.50003201 1.61129918 -0.00078170 0.00000000
0.75391638 1.97296644 -0.00166563 0.00000000
2.04511452 0.64540770 0.00525734 0.00000000
0.10049574 0.98457615 -0.00061223 0.00000000
0.36184591 1.89384880 -0.00335753 0.00000000
4.17960040 0.87947547 0.00060822 0.00000000
3.27960998 1.32206832 -0.00658644 0.00000000
0.90572630 1.08260415 0.00307117 0.00000000
1.44918443 0.33630618 -0.00407124 0.00000000
2.88034210 1.51107552 -0.00029987 0.00000000
3.29442305 2.39184259 -0.00065164 0.00000000
2.50858353 1.13117432 -0.00172750 0.00000000
3.33060455 0.38041724 -0.00210339 0.00000000
4.16623363 0.30471510 0.00014062 0.00000000
1.46511482 0.94200735 0.00201642 0.00000000
0.66755038 1.38505218 0.00222358 0.00000000
2.63947249 1.34566389 -0.00055334 0.00000000
2.72544331 1.08747633 0.00224569 0.00000000
3.32975986 0.37516254 -0.00257795 0.00000000
0.35093238 0.12116173 -0.00288615 0.00000000
2.34232960 1.26301025 0.00339201 0.00000000
0.14263003 2.37682199 -0.00160781 0.00000000
0.76628597 1.77271609 -0.00055822 0.00000000
4.18543220 0.05498504 0.00294422 0.00000000
4.00440952 0.71255685 -0.00034836 0.00000000
0.85405372 2.33439429 -0.00356455 0.00000000
2.44423485 2.33986523 -0.00033311 0.00000000
3.76159735 1.19621993 0.00234939 0.00000000
3.47391837 2.17243015 0.00250808 0.00000000
0.11686389 1.87710037 -0.00122476 0.00000000
2.68848008 1.29311290 0.00090632 0.00000000
3.88389380 2.13854758 -0.00105810 0.00000000
0.42899103 0.31818692 -0.00349941 0.00000000
4.24034817 1.90581441 0.00017316 0.00000000
0.78231995 0.63669668 -0.00098355 0.00000000
4.23184404 0.26593636 0.00236046 0.00000000
3.75745409 1.82662447 -0.00117733 0.00000000
2.03536023 1.16635120 0.00049864 0.00000000
3.65868886 0.23208012 -0.00314817 0.00000000
2.98041433 0.14218002 0.00247519 0.00000000
1.46308370 1.81168790 0.00287011 0.00000000
3.85419528 1.61739387 0.00195774 0.00000000
2.21293279 0.65803054 -0.00103659 0.00000000
3.18034593 0.09593810 -0.00147859 0.00000000
0.66693339 1.21994751 0.00398385 0.00000000
4.11448875 0.22945774 0.00146910 0.00000000
3.91093868 0.38963697 0.00085339 0.00000000
3.33459702 1.32514305 0.00007945 0.00000000
0.03563132 2.21676926 -0.00255741 0.00000000
1.86429468 2.29160503 0.00018178 0.00000000
2.61047763 2.24680014 0.00166957 0.00000000
4.04066986 2.18363073 -0.00182796 0.00000000
2.84424344 0.84280744 -0.00177806 0.00000000
1.43771731 1.27659906 -0.00462648 0.00000000
1.67361373 1.86468468 0.00001899 0.00000000
0.98851800 1.31068332 -0.00069946 0.00000000
0.29871233 0.04159579 -0.00251294 0.00000000
1.65340522 0.29073646 -0.00247701 0.00000000
3.36088694 1.93231503 0.00189516 0.00000000
0.81416948 1.01511072 -0.00234478 0.00000000
3.53651510 1.40470240 -0.00094954 0.00000000
2.41250162 0.90263911 -0.00008788 0.00000000
1.59482656 0.72425272 -0.00264027 0.00000000
3.39145506 1.15951964 -0.00027651 0.00000000
1.20143700 0.34163401 0.00008517 0.00000000
1.32182301 0.90869371 0.00146142 0.00000000
2.31956727 1.80207081 0.00452230 0.00000000
3.85433829 0.33395410 0.00188297 0.00000000
3.69389021 0.93059744 -0.00060325 0.00000000
1.25892238 1.08890322 0.00117306 0.00000000
1.44553858 0.81620854 -0.00164736 0.00000000
3.63953841 1.00024412 0.00333953 0.00000000
1.94695304 1.83802518 0.00144022 0.00000000
1.78807496 2.38092779 -0.00011252 0.00000000
2.81819073 0.37723207 0.00339888 0.00000000
3.03644826 2.24152184 -0.00220870 0.00000000
2.99425744 0.07114502 0.00092771 0.00000000
2.10742702 1.26832810 0.00000462 0.00000000
2.92662453 0.37233604 -0.00290612 0.00000000
3.55035162 1.28092266 -0.00103855 0.00000000
1.56617282 2.06805711 -0.00063466 0.00000000
2.77418528 0.45120949 0.00158621 0.00000000
2.99241936 0.03151730 0.00096348 0.00000000
3.70405466 1.28829066 -0.00496561 0.00000000
2.63668327 1.20746131 -0.00073289 0.00000000
0.36163789 0.49516186 0.00261196 0.00000000
0.81556774 2.12152445 0.00123857 0.00000000
1.49734379 2.16410427 0.00092681 0.00000000
1.11082091 0.77455131 0.00477151 0.00000000
2.10877483 1.14962714 -0.00399876 0.00000000
1.26687179 1.65958521 -0.00032089 0.00000000
1.63430128 1.09642620 0.00384686 0.00000000
2.37941096 0.01244088 0.00065246 0.00000000
2.22597489 1.72178554 -0.00257400 0.00000000
3.60204564 1.67406297 0.00289409 0.00000000
0.18856349 2.03321822 0.00108401 0.00000000
0.20744142 1.23359324 -0.00039430 0.00000000
1.71887092 1.26963151 0.00073317 0.00000000
1.95043232 0.73400567 0.00094525 0.00000000
2.02271822 0.66956063 -0.00085960 0.00000000
3.65284656 0.59540799 -0.00187938 0.00000000
1.35058240 1.09156324 0.00039418 0.00000000
0.13598421 0.27882314 -0.00200133 0.00000000
1.22999422 0.14442146 0.00000872 0.00000000
2.57374878 1.79340123 0.00126771 0.00000000
0.91675923 0.07470501 0.00114393 0.00000000
1.61538512 1.04905844 -0.00097889 0.00000000
3.24475513 0.02949332 -0.00057350 0.00000000
3.24107525 1.85113807 0.00038512 0.00000000
3.19625738 0.80119370 0.00582020 0.00000000
3.73338164 0.20126945 -0.00179681 0.00000000
2.53869586 1.96010268 0.00110712 0.00000000
0.81700169 2.21651803 -0.00384058 0.00000000
2.73051026 0.20345950 0.00401789 0.00000000
0.04364801 2.15601205 0.00016802 0.00000000
0.43795072 1.05597077 -0.00217879 0.00000000
0.25934320 0.13848450 -0.00482866 0.00000000
0.43327968 1.99491788 0.00415685 0.00000000
2.86173537 1.31676524 0.00043981 0.00000000
1.94478638 2.18264106 0.00421294 0.00000000
1.21397042 0.99929318 -0.00571975 0.00000000
2.33891293 2.28374164 -0.00044437 0.00000000
3.64807326 0.30270478 -0.00490476 0.00000000
3.90594050 1.56977823 0.00073981 0.00000000
1.02960635 1.30202591 -0.00056472 0.00000000
2.52743133 0.42276408 0.00020370 0.00000000
0.56333448 1.20479708 0.00085513 0.00000000
1.02181312 2.07875672 0.00511625 0.00000000
1.93003589 1.41647565 -0.00437157 0.00000000
0.42118556 1.15798957 -0.00162323 0.00000000
2.48386419 0.74143993 -0.00344284 0.00000000
2.71183019 0.99032972 -0.00098568 0.00000000
3.69920608 0.22920783 -0.00055625 0.00000000
0.50014828 0.85035249 -0.00202717 0.00000000
0.75323653 1.10702597 -0.00045118 0.00000000
1.69740652 1.19619422 -0.00146955 0.00000000
2.00494779 1.79731849 -0.00145176 0.00000000
1.48652648 1.02093236 0.00422315 0.00000000
3.06155588 0.93620675 0.00195755 0.00000000
0.80406866 1.31686862 -0.00173240 0.00000000
1.44251399 1.24257789 -0.00045361 0.00000000
2.97761589 0.26323808 -0.00218667 0.00000000
4.29571228 0.95939338 -0.00052562 0.00000000
0.95817428 1.28346229 -0.00243124 0.00000000
0.22778640 0.36282190 0.00138570 0.00000000
1.65228388 1.97617749 0.00061913 0.00000000
3.55163153 2.13312567 0.00089127 0.00000000
2.97207501 0.17439525 0.00259366 0.00000000
1.17130912 0.43728860 -0.00257550 0.00000000
2.78493861 0.89355114 -0.00221060 0.00000000
3.95734805 0.07985335 0.00102097 0.00000000
1.39343483 1.20849983 0.00214241 0.00000000
3.60688728 1.01050965 0.00356468 0.00000000
1.28557112 0.90812863 0.00299741 0.00000000
3.64078533 0.84067361 0.00210887 0.00000000
1.85698378 1.51533031 0.00625615 0.00000000
0.48998072 1.60647516 0.00482504 0.00000000
1.75206386 1.17517946 0.00093669 0.00000000
2.36037691 0.76376370 -0.00252634 0.00000000
1.94245790 0.50636522 0.00046632 0.00000000
0.57357348 1.27434134 -0.00099073 0.00000000
2.16257475 0.43627398 0.00240193 0.00000000
2.62203587 1.50673755 -0.00249818 0.00000000
0.72972767 0.02029052 0.00080305 0.00000000
3.07709812 1.31176012 0.00210457 0.00000000
2.44862121 0.01141045 0.00237978 0.00000000
1.11332418 0.79797250 0.00024119 0.00000000
2.00144061 0.85967054 -0.00403861 0.00000000
1.02419793 0.03071485 0.00160777 0.00000000
3.63751456 0.68716633 0.00548894 0.00000000
3.46432227 0.97569435 0.00069332 0.00000000
3.11978135 0.39785170 0.00120722 0.00000000
0.66988582 1.88612257 -0.00224050 0.00000000
0.36247735 0.74810372 0.00450993 0.00000000
2.08912197 0.19615428 0.00373062 0.00000000
3.38341911 2.17516240 0.00011249 0.00000000
0.88495286 0.40465339 0.00188589 0.00000000
1.46539541 2.00037322 0.00480123 0.00000000
3.51488227 0.42276073 0.00218054 0.00000000
1.92996893 1.82210604 -0.00284188 0.00000000
2.58915591 1.66671835 0.00118982 0.00000000
1.68639230 1.85646899 -0.00460985 0.00000000
4.27730690 0.31509126 -0.00507190 0.00000000
0.24194262 1.44897756 -0.00028982 0.00000000
2.98561571 1.62776524 0.00134160 0.00000000
0.02568568 0.50063407 -0.00060548 0.00000000
2.75084860 1.07253810 -0.00015588 0.00000000
2.34110263 2.10953868 0.00504981 0.00000000
4.09347100 0.22460085 0.00305792 0.00000000
1.76637277 1.68190143 0.00262539 0.00000000
0.68807743 1.65006973 0.00387098 0.00000000
1.70154707 0.39287743 -0.00203251 0.00000000
4.14718638 1.80776546 0.00037371 0.00000000
2.06659670 1.79411899 -0.00147594 0.00000000
2.60743394 1.91553914 0.00253720 0.00000000
4.24127366 0.78351373 0.00465189 0.00000000
0.63285950 0.36093797 0.00111588 0.00000000
1.35038507 0.77690007 -0.00161324 0.00000000
0.67338844 0.15776329 0.00170740 0.00000000
1.84771053 0.95568082 -0.00084343 0.00000000
0.38463748 1.78011249 0.00141459 0.00000000
2.57341766 1.36744407 0.00048533 0.00000000
3.31365362 0.95586730 0.00282464 0.00000000
1.53245632 1.36168297 -0.00360859 0.00000000
1.63749208 1.49201397 -0.00319847 0.00000000
0.98594934 0.98284357 0.00236259 0.00000000
0.44085211 0.69150665 -0.00223630 0.00000000
0.14310527 1.24787290 -0.00076939 0.00000000
3.84737216 0.63995469 -0.00114136 0.00000000
1.75368132 2.01603939 0.00260970 0.00000000
0.65879685 -0.00192153 -0.00331557 1.00000000
4.08312313 0.00357489 0.00067326 1.00000000
3.44270871 -0.00460407 -0.00110417 1.00000000
0.90857524 -0.00045239 -0.00027641 1.00000000
2.33851317 0.00121293 0.00257969 1.00000000
4.31148578 -0.00202206 -0.00147770 1.00000000
2.36307259 -0.00053176 -0.00096983 1.00000000
2.59810828 0.00180199 -0.00005939 1.00000000
3.27471993 0.00179687 0.00181237 1.00000000
0.41885946 -0.00301946 -0.00035777 1.00000000
3.81549947 -0.00012635 0.00022791 1.00000000
1.80492779 0.00137916 0.00408226 1.00000000
2.85995450 0.00011664 0.00032047 1.00000000
2.07667511 0.00332528 0.00190595 1.00000000
0.52387873 0.00033403 -0.00254488 1.00000000
0.79990417 -0.00285718 0.00181593 1.00000000
0.46839708 -0.00250994 0.00280200 1.00000000
0.46013807 0.00494934 0.00145700 1.00000000
1.12566522 0.00025304 -0.00314144 1.00000000
0.54540806 -0.00574813 -0.00142876 1.00000000
4.07322239 0.00322301 0.00017283 1.00000000
3.00641293 0.00342205 -0.00031860 1.00000000
3.70399011 0.00220185 0.00150470 1.00000000
0.92068783 -0.00271405 0.00369913 1.00000000
1.10211657 0.00074459 -0.00029337 1.00000000
1.91994690 0.00090907 0.00038722 1.00000000
0.41417026 0.00181359 -0.00378382 1.00000000
1.14140589 0.00308791 -0.00387019 1.00000000
0.31017278 -0.00052309 0.00122043 1.00000000
0.12260177 -0.00266272 -0.00213827 1.00000000
3.87543874 -0.00064877 0.00001138 1.00000000
4.08292081 -0.00127055 0.00001162 1.00000000
0.86430252 -0.00176639 -0.00128209 1.00000000
0.91543478 -0.00205577 -0.00101023 1.00000000
2.16852102 -0.00054818 -0.00229547 1.00000000
2.27264000 0.00133628 0.00111903 1.00000000
2.67777845 0.00066280 0.00120590 1.00000000
3.74473808 -0.00048466 0.00160951 1.00000000
3.73726865 0.00460890 -0.00216356 1.00000000
2.05907778 -0.00001435 -0.00321660 1.00000000
2.75202964 0.00072589 -0.00318828 1.00000000
3.16189819 0.00299904 -0.00049005 1.00000000
4.26057093 0.00348167 -0.00166431 1.00000000
4.03932866 -0.00041543 -0.00355016 1.00000000
3.60080320 -0.00316388 -0.00664063 1.00000000
3.74430143 -0.00061632 0.00266360 1.00000000
2.78942754 -0.00319831 0.00136289 1.00000000
1.11790304 -0.00057733 -0.00333840 1.00000000
4.13414182 0.00152822 -0.00080151 1.00000000
3.91721107 -0.00258495 0.00167534 1.00000000
1.51057634 0.00436609 0.00159830 1.00000000
1.09162781 0.00018290 0.00132759 1.00000000
0.45419923 0.00291140 0.00129266 1.00000000
2.33813910 0.00037201 -0.00003793 1.00000000
1.98127638 -0.00310440 -0.00318228 1.00000000
0.13406110 0.00383875 0.00268576 1.00000000
3.10030684 -0.00188068 -0.00144379 1.00000000
0.56961336 0.00086363 -0.00303248 1.00000000
2.37262810 0.00335061 0.00287608 1.00000000
1.87425482 -0.00272065 0.00117454 1.00000000
2.77243404 -0.00028994 -0.00020900 1.00000000
4.28279783 0.00187400 0.00111558 1.00000000
1.98085139 0.00257467 0.00005441 1.00000000
1.21291018 -0.00372113 -0.00198484 1.00000000
2.54414838 0.00104665 0.00109884 1.00000000
0.63094709 -0.00176391 0.00010828 1.00000000
3.12332666 -0.00044006 -0.00266716 1.00000000
0.93871327 0.00081025 -0.00253456 1.00000000
1.08619870 0.00093774 -0.00003297 1.00000000
0.90173131 0.00282637 -0.00452834 1.00000000
2.14598035 0.00941735 -0.00141409 1.00000000
0.59310090 0.00103737 -0.00202192 1.00000000
2.83368876 -0.00679647 0.00084122 1.00000000
4.19375553 -0.00099590 -0.00169617 1.00000000
2.40564645 -0.00176415 -0.00039251 1.00000000
2.16938999 0.00357862 -0.00250707 1.00000000
3.93923400 -0.00036189 -0.00175855 1.00000000
3.04239992 0.00374510 0.00429239 1.00000000
0.75740962 -0.00383064 0.00636154 1.00000000
1.44647976 -0.00194666 0.00104564 1.00000000
3.95655725 0.00080446 0.00080752 1.00000000
3.55585124 -0.00283437 0.00268584 1.00000000
3.34858855 0.00007220 0.00276195 1.00000000
0.94201931 0.00078945 -0.00346861 1.00000000
0.01034028 -0.00477231 -0.00296644 1.00000000
1.41731846 0.00057444 -0.00208933 1.00000000
4.07567392 0.00482029 -0.00204759 1.00000000
1.28683688 -0.00064986 0.00573555 1.00000000
0.35977767 -0.00278904 -0.00094578 1.00000000
3.90693134 -0.00022164 0.00551861 1.00000000
3.81903945 0.00193271 -0.00198887 1.00000000
3.40728560 0.00262477 -0.00099159 1.00000000
3.95558178 0.00334396 -0.00001287 1.00000000
0.54823326 -0.00692996 -0.00054554 1.00000000
0.38287339 0.00084987 -0.00167420 1.00000000
2.28611284 0.00194981 0.00204426 1.00000000
0.85484109 0.00082944 -0.00137121 1.00000000
2.38586346 -0.00328005 -0.00093406 1.00000000
1.98381269 0.00212814 -0.00144521 1.00000000
3.20482493 0.00187199 0.00137693 1.00000000
2.97940530 -0.00040965 -0.00422664 1.00000000
0.21097704 -0.00169025 0.00121097 1.00000000
1.37721449 -0.00062826 0.00147374 1.00000000
3.26410466 -0.00115025 0.00551582 1.00000000
1.86357589 -0.00144228 0.00208117 1.00000000
2.06236678 0.00287810 0.00051580 1.00000000
1.93772696 -0.00095853 0.00054609 1.00000000
2.91179414 0.00053977 0.00213585 1.00000000
2.17039679 0.00584876 0.00239228 1.00000000
0.98870459 -0.00067054 -0.00022809 1.00000000
1.15409072 0.00230345 -0.00073495 1.00000000
3.13685812 0.00171478 0.00123853 1.00000000
0.24173864 0.00345470 -0.00360131 1.00000000
3.46922461 0.00077545 -0.00375666 1.00000000
2.32755664 -0.00132473 0.00104089 1.00000000
3.72715559 -0.00308471 0.00239279 1.00000000
2.25231858 0.00147462 0.00267061 1.00000000
4.09026357 -0.00097316 0.00118524 1.00000000
3.75109952 0.00110511 0.00036968 1.00000000
1.65010239 -0.00782767 0.00127473 1.00000000
4.21968495 0.00502706 0.00077111 1.00000000
1.87789880 0.00005644 0.00183012 1.00000000
2.71001116 -0.00368737 -0.00007499 1.00000000
3.95049365 0.00451482 0.00298185 1.00000000
3.61635067 0.00244069 0.00105685 1.00000000
0.30228991 0.00022601 0.00017226 1.00000000
3.07652531 0.00003602 -0.00272976 1.00000000
3.41938293 0.00283729 0.00368511 1.00000000
1.53673140 -0.00366267 -0.00124073 1.00000000
0.36215874 -0.00098906 0.00473163 1.00000000
0.87564025 0.00039937 -0.00389892 1.00000000
2.26326354 0.00091315 -0.00248154 1.00000000
4.34419358 -0.00189867 -0.00105434 1.00000000
2.10740397 0.00096079 -0.00068032 1.00000000
0.86236819 -0.00618525 0.00206043 1.00000000
2.11265380 -0.00017340 0.00229149 1.00000000
0.98165958 -0.00093745 0.00241897 1.00000000
3.05649448 -0.00256000 -0.00269899 1.00000000
1.66249406 0.00205024 -0.00091550 1.00000000
0.86456758 -0.00094602 0.00290255 1.00000000
0.46427215 0.00060334 0.00348346 1.00000000
1.97745233 0.00092075 0.00056501 1.00000000
2.77310773 -0.00154708 -0.00181794 1.00000000
2.04246053 0.00140437 0.00035221 1.00000000
1.24710766 0.00024996 -0.00031487 1.00000000
3.89526572 0.00024233 0.00227703 1.00000000
1.41987844 -0.00179380 0.00511262 1.00000000
0.44638846 0.00059414 -0.00031706 1.00000000
1.79721103 -0.00266710 0.00108098 1.00000000
0.94480545 -0.00060132 -0.00177700 1.00000000
1.89757096 0.00172412 -0.00370663 1.00000000
3.62889426 0.00341753 0.00057667 1.00000000
1.09555401 0.00045406 0.00036829 1.00000000
4.13413736 -0.00077979 0.00209307 1.00000000
2.12969223 -0.00120604 0.00002954 1.00000000
3.56490850 0.00017223 -0.00157052 1.00000000
0.34685048 0.00208750 0.00212816 1.00000000
3.47672670 -0.00059206 -0.00589592 1.00000000
4.03529466 0.00244104 -0.00450030 1.00000000
0.41609051 0.00416213 -0.00302599 1.00000000
2.88558158 -0.00230255 -0.00254475 1.00000000
4.16458066 0.00319799 -0.00220158 1.00000000
3.89628291 0.00435374 -0.00350131 1.00000000
1.70490781 0.00142666 -0.00097385 1.00000000
1.14084936 0.00283444 -0.00030989 1.00000000
3.73254298 0.00320086 -0.00209626 1.00000000
0.18496671 -0.00061746 0.00452349 1.00000000
0.14267291 0.00332014 0.00531089 1.00000000
3.80386515 0.00397886 -0.00140675 1.00000000
0.47682079 -0.00398101 -0.00060440 1.00000000
2.20218939 -0.00097450 -0.00203013 1.00000000
3.68747781 0.00031105 -0.00279157 1.00000000
0.39791435 -0.00083861 0.00084602 1.00000000
3.41390781 -0.00472155 0.00197483 1.00000000
1.35034208 0.00185606 -0.00457757 1.00000000
3.50137469 -0.00250465 0.00009760 1.00000000
1.95617868 -0.00234184 -0.00032226 1.00000000
3.64913074 -0.00086175 0.00290524 1.00000000
4.10973436 0.00039505 0.00110680 1.00000000
2.28251126 -0.00254872 -0.00078399 1.00000000
2.27878479 0.00200105 -0.00114181 1.00000000
4.20857200 0.00296272 0.00263388 1.00000000
3.46009758 0.00155342 0.00193547 1.00000000
2.23091622 0.00131160 -0.00244850 1.00000000
3.47373899 0.00271875 0.00125785 1.00000000
4.00184312 -0.00117063 0.00034723 1.00000000
2.61343260 0.00475316 0.00990810 1.00000000
3.85399100 0.00320564 -0.00214958 1.00000000
2.45593609 0.00161288 -0.00182419 1.00000000
1.51062854 -0.00342773 -0.00217922 1.00000000
2.82526220 0.00014583 -0.00474871 1.00000000
0.32361206 0.00360381 -0.00005367 1.00000000
3.11716733 -0.00189179 -0.00018661 1.00000000
1.77542337 -0.00149769 0.00194787 1.00000000
1.37006373 -0.00167505 0.00050156 1.00000000
0.07882667 -0.00257950 -0.00193779 1.00000000
1.46588523 -0.00139743 -0.00078118 1.00000000
4.10510355 -0.00174805 0.00446469 1.00000000
2.87534283 -0.00034648 -0.00018916 1.00000000
3.42081303 0.00057174 0.00029439 1.00000000
1.31846197 0.00028589 0.00227817 1.00000000
1.46950881 -0.00133043 -0.00060093 1.00000000
2.55112124 0.00050903 -0.00243548 1.00000000
1.54667793 0.00526647 -0.00005542 1.00000000
3.29050691 0.00148028 -0.00317662 1.00000000
0.45588050 -0.00106037 -0.00026516 1.00000000
3.02791028 0.00077056 0.00384089 1.00000000
2.42065175 -0.00300802 -0.00345360 1.00000000
3.79793887 -0.00312803 0.00013314 1.00000000
3.42598986 0.00151427 -0.00391571 1.00000000
4.09448742 0.00153173 -0.00080395 1.00000000
2.04534448 0.00084849 0.00182722 1.00000000
3.00039859 0.00139467 -0.00223752 1.00000000
2.05923079 -0.00218927 -0.00134617 1.00000000
1.54899859 0.00082522 0.00019803 1.00000000
1.67521202 0.00026374 0.00205320 1.00000000
0.92018775 -0.00001451 0.00226336 1.00000000
4.06220383 -0.00097496 -0.00392761 1.00000000
3.87023277 -0.00611370 -0.00078800 1.00000000
0.43887749 0.00180241 0.00260097 1.00000000
2.66189419 -0.00005281 -0.00076951 1.00000000
2.24268751 0.00392997 0.00220930 1.00000000
3.45910415 -0.00253379 -0.00413199 1.00000000
0.51775662 -0.00059939 -0.00094160 1.00000000
3.36392813 0.00272138 0.00198616 1.00000000
1.48072429 0.00084892 0.00152535 1.00000000
3.00189742 0.00051905 -0.00273083 1.00000000
3.48272867 0.00195782 -0.00072274 1.00000000
1.20599285 -0.00287408 0.00470913 1.00000000
0.50835413 0.00253345 0.00271606 1.00000000
1.88129486 -0.00008687 -0.00293255 1.00000000
4.19037151 -0.00274316 -0.00175571 1.00000000
3.92026538 0.00298063 0.00024362 1.00000000
0.62407249 -0.00213122 -0.00046251 1.00000000
3.97353956 -0.00139088 -0.00224217 1.00000000
0.61434265 -0.00126424 0.00575503 1.00000000
1.77068933 -0.00263445 -0.00284055 1.00000000
3.67146118 0.00009819 -0.00009476 1.00000000
1.42734158 -0.00373112 0.00092095 1.00000000
0.51639469 -0.00016711 -0.00248195 1.00000000
4.33040981 0.00111519 -0.00321778 1.00000000
4.10008645 0.00046864 -0.00280041 1.00000000
3.52682976 -0.00065411 0.00234525 1.00000000
2.08880793 0.00152065 -0.00078458 1.00000000
2.75819234 0.00214995 -0.00289002 1.00000000
1.74663675 0.00357227 0.00024794 1.00000000
2.36426175 0.00133179 -0.00331364 1.00000000
1.16158847 -0.00295007 0.00426065 1.00000000
0.04514213 0.00362948 -0.00131983 1.00000000
1.33849849 -0.00107906 0.00186340 1.00000000
0.86925910 0.00148928 0.00210377 1.00000000
3.11598420 -0.00263444 -0.00093882 1.00000000
0.55375493 0.00085149 -0.00032554 1.00000000
3.03093299 0.00349388 -0.00062355 1.00000000
2.59711337 0.00147074 -0.00230398 1.00000000
1.11212198 -0.00372927 0.00058262 1.00000000
0.53673067 0.00067132 0.00135970 1.00000000
0.58555166 -0.00012297 0.00026871 1.00000000
3.39795405 -0.00072847 0.00026580 1.00000000
2.88339588 -0.00283322 0.00133667 1.00000000
0.17902874 -0.00255899 -0.00165517 1.00000000
2.37245783 -0.00124710 -0.00268247 1.00000000
1.96178705 -0.00579655 -0.00018345 1.00000000
0.46008889 -0.00373268 0.00000077 1.00000000
2.27131398 -0.00017091 0.00003784 1.00000000
3.14927641 -0.00079518 -0.00005095 1.00000000
1.27825930 -0.00329188 -0.00139878 1.00000000
4.33135563 0.00122085 -0.00079215 1.00000000
3.62417061 0.00006899 -0.00062978 1.00000000
2.69248570 0.00176964 0.00248398 1.00000000
3.84173454 0.00516507 -0.00032044 1.00000000
1.38786430 -0.00197871 0.00300732 1.00000000
2.41837053 -0.00254908 -0.00099413 1.00000000
2.58831332 -0.00138153 0.00058915 1.00000000
3.31217895 0.00056506 0.00241444 1.00000000
4.19728286 -0.00261827 0.00249338 1.00000000
0.64916509 0.00199647 -0.00093843 1.00000000
2.19161534 0.00348209 0.00370563 1.00000000
1.28448604 0.00591252 -0.00187259 1.00000000
4.21430612 0.00099983 -0.00365965 1.00000000
0.38691814 0.00303575 0.00062561 1.00000000
3.36369448 -0.00147068 -0.00453430 1.00000000
3.38703515 0.00266553 -0.00010667 1.00000000
0.51897121 0.00265802 -0.00208596 1.00000000
1.59016167 -0.00393233 -0.00326381 1.00000000
1.50611063 -0.00286562 -0.00128852 1.00000000
3.60912469 -0.00058536 -0.00429789 1.00000000
0.61514884 -0.00005498 0.00045760 1.00000000
2.77695132 -0.00054018 -0.00075288 1.00000000
4.00270542 -0.00201393 0.00070408 1.00000000
0.83388807 -0.00033793 0.00454924 1.00000000
1.71793138 0.00285671 -0.00178921 1.00000000
2.86520929 -0.00182932 -0.00321341 1.00000000
2.85086863 0.00108807 0.00382441 1.00000000
2.16026364 -0.00004923 0.00286320 1.00000000
1.16343299 0.00181527 0.00069648 1.00000000
4.00193191 0.00051411 -0.00174824 1.00000000
4.05056187 -0.00261147 0.00203360 1.00000000
4.19545580 0.00114127 0.00130886 1.00000000
3.50487143 -0.00200137 -0.00062406 1.00000000
1.98162279 0.00164411 -0.00307811 1.00000000
3.06400612 -0.00080221 0.00310738 1.00000000
3.96245735 0.00777700 -0.00218797 1.00000000
1.73811862 -0.00166567 0.00122141 1.00000000
1.24048495 -0.00004298 -0.00208865 1.00000000
1.37094894 0.00561780 0.00038582 1.00000000
3.73420203 -0.00236480 -0.00011861 1.00000000
3.32452908 -0.00091066 0.00019154 1.00000000
0.81403980 0.00377505 -0.00495763 1.00000000
1.01673434 0.00158508 0.00255654 1.00000000
0.11346773 0.00132079 -0.00133759 1.00000000
1.70269785 0.00029752 0.00166162 1.00000000
3.55137922 0.00281264 0.00222623 1.00000000
1.22441256 0.00011956 -0.00444368 1.00000000
1.40299232 0.00578294 -0.00124643 1.00000000
1.33912460 0.00014150 -0.00180829 1.00000000
3.88377276 0.00226885 0.00404079 1.00000000
2.60740834 -0.00021713 0.00124885 1.00000000
0.46709720 0.00234608 -0.00139941 1.00000000
3.93091829 0.00475212 0.00371642 1.00000000
3.82069198 0.00383940 0.00213775 1.00000000
2.14296182 0.00539371 -0.00055397 1.00000000
4.20773579 -0.00267611 0.00267377 1.00000000
0.55670622 -0.00227965 0.00110563 1.00000000
1.59034110 -0.00073363 0.00154925 1.00000000
4.31450050 -0.00040839 0.00091618 1.00000000
1.62539541 0.00360608 -0.00363233 1.00000000
2.36465227 0.00354778 0.00333949 1.00000000
3.62724127 -0.00129449 -0.00153341 1.00000000
2.99283955 -0.00309885 0.00105256 1.00000000
2.73725081 0.00526274 -0.00051160 1.00000000
1.76180906 0.00155194 -0.00043644 1.00000000
0.25308374 -0.00332540 0.00177784 1.00000000
3.14180028 -0.00201423 0.00146567 1.00000000
0.67641027 -0.00301484 0.00191417 1.00000000
4.13222648 0.00182082 -0.03831091 0.00000000
1.13138909 -0.00354098 -0.09350055 0.00000000
3.07954912 -0.00302013 -0.12037660 0.00000000
4.14869618 0.00135508 -0.11891028 0.00000000
2.50015377 -0.00234966 -0.08920424 0.00000000
3.56385475 -0.00104941 -0.08958239 0.00000000
3.97188609 0.00133916 -0.05833689 0.00000000
3.24694619 -0.00237575 -0.07988922 0.00000000
3.41522177 0.00582004 -0.07252628 0.00000000
1.21372850 0.00409784 -0.14681593 0.00000000
1.15502772 0.00008410 -0.00837816 0.00000000
1.91908174 -0.00207256 -0.12079387 0.00000000
3.32276811 0.00416103 -0.01125234 0.00000000
2.37684859 -0.00257214 -0.00123041 0.00000000
1.17170432 0.00129195 -0.15258351 0.00000000
3.15129897 0.00132261 -0.08269882 0.00000000
4.17963803 0.00121230 -0.04623513 0.00000000
2.21211628 -0.00303790 -0.07251828 0.00000000
1.27559722 -0.00047255 -0.02161461 0.00000000
2.67480704 -0.00200923 -0.12032176 0.00000000
2.29393320 0.00038760 -0.06372142 0.00000000
2.11999772 0.00125029 -0.10333956 0.00000000
3.79311728 0.00000256 -0.08268156 0.00000000
3.69633803 -0.00764228 -0.06106088 0.00000000
0.17192794 -0.00162851 -0.00717337 0.00000000
4.26993198 -0.00032096 -0.05856798 0.00000000
1.06887994 0.00240777 -0.05147157 0.00000000
0.84198672 0.00168608 -0.05138513 0.00000000
2.22497930 0.00109349 -0.08680052 0.00000000
2.33239108 -0.00323110 -0.01790097 0.00000000
3.84104949 -0.00209395 -0.14342610 0.00000000
0.71376025 0.00079546 -0.10477239 0.00000000
4.15332246 -0.00247860 -0.15305133 0.00000000
1.95001095 0.00039384 -0.10295022 0.00000000
1.46567748 -0.00112211 -0.07685168 0.00000000
4.17422352 -0.00252068 -0.09489671 0.00000000
0.22719001 0.00081516 -0.09694927 0.00000000
4.09470393 -0.00184527 -0.13024438 0.00000000
3.84477787 -0.00099496 -0.06025251 0.00000000
1.01320908 -0.00289988 -0.15259211 0.00000000
0.17712924 -0.00303603 -0.07718351 0.00000000
3.43225632 0.00346058 -0.01834968 0.00000000
2.63341150 0.00185757 -0.04103133 0.00000000
1.07900078 -0.00237295 -0.10312533 0.00000000
3.66933806 -0.00327024 -0.04291985 0.00000000
1.20308373 0.00458870 -0.09583144 0.00000000
0.26611362 0.00428478 -0.09931389 0.00000000
3.16631123 -0.00231257 -0.11743561 0.00000000
1.63249663 -0.00121061 -0.07010613 0.00000000
3.65634441 -0.00239385 -0.11681131 0.00000000
4.02275026 -0.00034469 -0.11545418 0.00000000
0.55025335 0.00213274 -0.05885827 0.00000000
2.47721197 -0.00271735 -0.02043848 0.00000000
4.31080879 0.00101734 -0.03717151 0.00000000
0.34971873 -0.00223843 -0.00384209 0.00000000
3.90623083 -0.00189538 -0.05521528 0.00000000
1.19017811 0.00026965 -0.03791925 0.00000000
0.36776631 0.00247902 -0.15022244 0.00000000
2.93215674 -0.00571263 -0.02042461 0.00000000
2.20861241 0.00216368 -0.01081743 0.00000000
3.67657027 -0.00005713 -0.07074944 0.00000000
3.35872457 0.00305357 -0.01387987 0.00000000
3.33962973 0.00508366 -0.04531063 0.00000000
3.88279190 -0.00330402 -0.09308188 0.00000000
0.40072016 0.00387319 -0.13383014 0.00000000
0.33701121 -0.00137968 -0.00349210 0.00000000
2.84390659 -0.00293029 -0.04235196 0.00000000
4.18512643 0.00371319 -0.09302902 0.00000000
2.39699072 -0.00143355 -0.10340534 0.00000000
2.65366644 -0.00153043 -0.00251203 0.00000000
3.04671444 -0.00149093 -0.03344846 0.00000000
4.06176307 -0.00056328 -0.12242486 0.00000000
3.93182184 0.00134926 -0.12204697 0.00000000
1.41937390 0.00284336 -0.08565376 0.00000000
1.36110916 0.00245852 -0.08602559 0.00000000
1.75567955 -0.00736595 -0.10077044 0.00000000
2.26362950 -0.00201983 -0.14920790 0.00000000
2.72577702 -0.00157230 -0.12989669 0.00000000
0.72990083 0.00083344 -0.09939869 0.00000000
0.22524296 0.00253427 -0.01087006 0.00000000
0.31633951 -0.00251676 -0.11475102 0.00000000
1.12823815 0.00292624 -0.05785190 0.00000000
0.69766784 -0.00200100 -0.02700816 0.00000000
3.67073135 0.00553145 -0.07911718 0.00000000
1.85789980 0.00289439 -0.08474245 0.00000000
1.20141112 -0.00327086 -0.04425741 0.00000000
3.45135204 -0.00017587 -0.00649641 0.00000000
2.59720740 -0.00413348 -0.04549036 0.00000000
1.90460454 -0.00098374 -0.03658203 0.00000000
1.19748045 0.00395188 -0.01511397 0.00000000
1.54217983 0.00169207 -0.10575629 0.00000000
2.99051645 0.00145472 -0.06960994 0.00000000
2.80431477 0.00231666 -0.04110272 0.00000000
1.28079995 -0.00012518 -0.02181715 0.00000000
1.94753808 0.00277611 -0.11873252 0.00000000
3.42305823 -0.00339344 -0.04877375 0.00000000
2.16021266 0.00512769 -0.02207560 0.00000000
4.26293878 -0.00241867 -0.00273296 0.00000000
0.19715558 0.00313869 -0.00883281 0.00000000
2.80073614 -0.00079953 -0.01411795 0.00000000
0.21416089 0.00148147 -0.08479179 0.00000000
2.85014920 0.00072879 -0.05924245 0.00000000
3.10908516 0.00145166 -0.10264736 0.00000000
1.48268026 -0.00355688 -0.09713075 0.00000000
3.54553910 -0.00122992 -0.05568378 0.00000000
1.78837202 0.00401563 -0.13766831 0.00000000
0.86607135 0.00299614 -0.06171220 0.00000000
0.99989769 -0.00135588 -0.09588457 0.00000000
4.21292092 -0.00630214 -0.06586560 0.00000000
2.05679352 0.00016996 -0.04792337 0.00000000
3.77945443 -0.00253202 -0.14518056 0.00000000
3.86418067 0.00210949 -0.05534062 0.00000000
1.09481348 -0.00060946 -0.08986346 0.00000000
2.96760170 -0.00037502 -0.11082610 0.00000000
3.61047964 0.00004824 -0.09888233 0.00000000
0.52407597 -0.00366355 -0.06632155 0.00000000
1.82417881 0.00043628 -0.00277291 0.00000000
2.74914099 -0.00272664 -0.15025730 0.00000000
3.13942029 0.00130455 -0.01691255 0.00000000
2.73729912 0.00248399 -0.11258968 0.00000000
3.28123430 -0.00026911 -0.13072699 0.00000000
2.80350604 -0.00017951 -0.13940831 0.00000000
0.04360519 -0.00079452 -0.03041349 0.00000000
0.66050338 -0.00042712 -0.00444958 0.00000000
3.90685361 -0.00135927 -0.04600465 0.00000000
2.43350226 0.00238177 -0.03366297 0.00000000
1.21728265 0.00369195 -0.09829697 0.00000000
3.24774909 0.00221005 -0.07839593 0.00000000
1.65353089 0.00042689 -0.14475480 0.00000000
3.97876772 0.00111816 -0.02751173 0.00000000
2.41837468 0.00328431 -0.07461418 0.00000000
4.32491762 -0.00176800 -0.10593482 0.00000000
2.93521588 0.00040118 -0.00809178 0.00000000
0.14010748 -0.00033964 -0.00886241 0.00000000
0.47429542 -0.00059251 -0.00781655 0.00000000
3.56776781 -0.00342370 -0.09826269 0.00000000
3.92113922 0.00296765 -0.07127650 0.00000000
1.78566320 0.00211657 -0.02789188 0.00000000
2.86811122 -0.00230849 -0.11214177 0.00000000
3.63280685 -0.00068369 -0.12175320 0.00000000
3.26497519 0.00046118 -0.06411861 0.00000000
1.50148962 -0.00056300 -0.10275780 0.00000000
2.47074470 -0.00088038 -0.11090567 0.00000000
1.43998805 0.00187871 -0.06304155 0.00000000
3.87866325 -0.00071349 -0.03405701 0.00000000
2.92275571 -0.00078803 -0.03678538 0.00000000
3.81164467 -0.00360101 -0.01228798 0.00000000
1.41249578 -0.00041684 -0.06278127 0.00000000
2.98059268 -0.00266137 -0.12054279 0.00000000
1.25427017 0.00111547 -0.01351018 0.00000000
1.84389629 -0.00182262 -0.12492941 0.00000000
1.77476626 0.00108107 -0.00834605 0.00000000
1.71732253 0.00043698 -0.10082967 0.00000000
2.85301691 0.00086122 -0.04106486 0.00000000
2.51979598 0.00321920 -0.05933211 0.00000000
0.43368487 -0.00186669 -0.14002860 0.00000000
