3.245119 0.567498 -0.001340 0.0
0.009037 1.710208 -0.001587 0.0
3.528227 2.198919 0.002651 0.0
0.353056 1.828632 0.001256 0.0
3.220241 0.449288 -0.000196 0.0
4.630538 2.389211 -0.000927 0.0
4.218737 0.855968 0.000425 0.0
0.262704 2.361651 0.003854 0.0
1.848640 0.049349 -0.002695 0.0
4.106959 1.487975 -0.001915 0.0
3.012579 1.592462 0.000411 0.0
2.462327 0.342477 0.000187 0.0
0.299794 2.224931 -0.001771 0.0
0.842210 1.794025 -0.003778 0.0
3.795192 2.234408 -0.001521 0.0
2.159244 2.291904 -0.000173 0.0
2.354503 1.724126 -0.000823 0.0
2.565992 1.584270 0.001589 0.0
0.044235 1.946416 0.001415 0.0
1.202186 0.800127 0.000160 0.0
4.552231 0.789948 0.003208 0.0
0.381055 1.139392 0.003806 0.0
2.374291 1.895598 0.001813 0.0
0.554495 2.175920 -0.002137 0.0
1.404682 0.152808 -0.001679 0.0
2.945274 1.986968 -0.000691 0.0
1.426505 1.580900 -0.002006 0.0
3.234062 1.970570 -0.002163 0.0
4.321607 0.352994 0.001275 0.0
2.862252 1.393895 -0.000569 0.0
1.787579 0.916946 -0.000794 0.0
2.553060 2.118043 -0.000889 0.0
2.225579 1.758048 0.001484 0.0
1.320884 1.890493 0.002814 0.0
1.210166 0.552512 -0.002777 0.0
1.892758 1.202422 -0.003166 0.0
3.622711 0.895670 -0.003113 0.0
3.535709 1.211742 0.000915 0.0
2.195349 0.271040 0.000181 0.0
2.512410 0.293646 -0.001611 0.0
4.066639 0.645390 0.001851 0.0
2.725203 1.539446 -0.000674 0.0
1.454236 0.257014 -0.003185 0.0
1.154776 2.444013 -0.000372 0.0
3.764062 0.893386 0.001383 0.0
2.804433 1.138200 0.001151 0.0
4.414164 1.131477 -0.000455 0.0
1.955737 0.305609 -0.000862 0.0
2.718590 1.730877 -0.001262 0.0
1.505508 1.678727 -0.000431 0.0
2.110979 0.308409 -0.000595 0.0
3.063712 1.077344 -0.003900 0.0
0.178567 0.183708 0.001919 0.0
4.474863 1.709250 0.000072 0.0
3.725079 0.185653 0.001984 0.0
1.493588 2.378313 0.001209 0.0
1.699161 2.133779 -0.001210 0.0
4.142971 1.262484 0.002217 0.0
1.030962 1.480492 0.003820 0.0
0.850543 1.342217 -0.000474 0.0
2.888957 2.065302 0.001131 0.0
2.787881 2.199520 0.000941 0.0
1.726381 1.612995 0.002965 0.0
0.735061 1.891131 -0.000915 0.0
2.256893 0.932988 -0.001121 0.0
0.025876 1.548990 0.003443 0.0
0.650034 0.298128 -0.004244 0.0
1.448782 1.096329 0.004719 0.0
4.490484 1.043888 -0.001192 0.0
3.406005 2.363096 -0.001273 0.0
0.903744 1.731779 0.004108 0.0
0.861608 1.618636 -0.001414 0.0
2.294305 0.983395 0.000601 0.0
2.424542 1.574537 0.000620 0.0
0.385339 0.330290 -0.006612 0.0
2.126116 0.764737 -0.000089 0.0
0.726278 1.686287 -0.001115 0.0
1.785086 1.837224 -0.002079 0.0
2.776809 0.982521 0.003332 0.0
3.520485 1.955241 0.001628 0.0
0.915694 1.324578 0.001601 0.0
2.492777 1.909451 -0.002217 0.0
2.097180 1.175741 0.001852 0.0
2.831367 1.421762 -0.003203 0.0
2.838636 0.614994 0.001731 0.0
0.709738 0.912033 0.000102 0.0
2.051730 1.767251 0.004511 0.0
0.261987 1.316262 -0.001589 0.0
4.562596 0.412466 -0.001592 0.0
1.571433 0.408001 -0.003504 0.0
0.311608 1.233866 -0.001276 0.0
2.685059 1.378284 -0.000299 0.0
4.094588 1.510051 -0.002553 0.0
0.312438 0.669770 0.001674 0.0
1.414195 1.856915 0.000957 0.0
3.804024 1.319359 -0.000108 0.0
0.775307 2.012748 -0.000008 0.0
0.223466 0.900394 0.000567 0.0
2.512019 0.930891 -0.002140 0.0
4.403214 2.150532 -0.003057 0.0
1.133255 0.655046 0.000756 0.0
3.407781 0.697601 -0.000480 0.0
2.989047 0.704211 0.001802 0.0
3.187565 0.971554 0.000159 0.0
0.167281 0.667653 -0.000402 0.0
1.004950 1.772222 -0.003920 0.0
1.480090 1.195125 0.002807 0.0
2.529709 0.842712 0.002575 0.0
0.400615 2.324675 0.001467 0.0
4.228105 0.216730 -0.000252 0.0
0.563348 0.017831 -0.003595 0.0
4.368744 0.235245 -0.001873 0.0
3.511088 0.962508 -0.002897 0.0
1.958227 1.236314 -0.000516 0.0
2.514590 1.220028 0.001247 0.0
0.735259 0.508215 -0.000881 0.0
1.310896 1.785144 -0.000865 0.0
4.444691 1.355650 -0.003504 0.0
4.669629 0.168155 -0.001220 0.0
3.471290 0.469285 -0.001752 0.0
0.885365 0.705811 -0.001824 0.0
4.630384 1.447673 -0.000228 0.0
2.157996 0.912727 0.000535 0.0
4.261517 1.404469 0.001870 0.0
2.259956 1.544104 0.003419 0.0
1.373059 2.015132 -0.001904 0.0
1.698074 2.105516 -0.000991 0.0
2.279689 2.220928 -0.005543 0.0
1.029589 2.240866 -0.003697 0.0
0.783733 2.443630 -0.001295 0.0
1.356059 2.347562 0.000834 0.0
0.210548 0.499023 0.001840 0.0
1.649257 1.570919 -0.004160 0.0
4.296767 1.416092 -0.003630 0.0
4.281924 1.968922 0.004941 0.0
4.609129 0.718035 0.000791 0.0
1.492282 1.651210 -0.002971 0.0
2.721651 1.624821 -0.002312 0.0
3.841573 1.813947 0.000611 0.0
1.232079 1.319503 0.000699 0.0
3.514064 1.169217 0.001113 0.0
1.781993 0.748133 -0.001612 0.0
2.511093 1.572222 0.001143 0.0
4.649416 0.029653 0.001982 0.0
2.201744 2.144963 0.000979 0.0
0.161843 2.281089 0.000661 0.0
3.078376 0.551382 -0.003438 0.0
2.380282 1.972903 0.002264 0.0
0.164068 0.316548 -0.000518 0.0
2.073924 0.370582 0.001729 0.0
1.575572 0.675593 0.002299 0.0
0.736056 0.141656 -0.001823 0.0
3.062815 0.404246 0.000362 0.0
1.444779 1.900634 -0.001885 0.0
0.964929 0.824197 -0.002766 0.0
3.730394 2.085588 0.002215 0.0
0.398808 2.275247 -0.000284 0.0
1.824290 1.170219 -0.001050 0.0
4.741484 0.050757 0.000669 0.0
2.819196 0.442882 0.000306 0.0
0.449032 1.180281 -0.007085 0.0
2.298155 0.468318 -0.002417 0.0
0.863446 2.184738 0.000448 0.0
2.742853 1.258721 0.000010 0.0
3.427100 1.182376 0.003637 0.0
0.555022 1.491321 -0.000772 0.0
3.742279 2.182248 0.003906 0.0
0.036053 1.536159 -0.001893 0.0
1.051216 1.087074 -0.001544 0.0
2.381835 1.982684 0.001956 0.0
0.669657 0.764179 -0.002446 0.0
1.277248 0.782463 0.002078 0.0
0.939636 2.090009 0.001095 0.0
1.686133 0.618415 0.000778 0.0
2.811913 0.837948 -0.001417 0.0
3.538032 1.773347 0.000794 0.0
0.840623 0.492785 -0.001751 0.0
2.621794 2.004631 0.000367 0.0
3.407848 1.805668 0.001133 0.0
0.171684 2.022905 -0.002369 0.0
3.358052 0.740896 0.002850 0.0
4.473475 0.805364 -0.000016 0.0
4.576688 0.189480 0.004696 0.0
1.919249 0.633912 0.002016 0.0
2.597684 0.367234 0.004252 0.0
3.203812 1.612020 -0.003857 0.0
0.371035 0.052608 -0.001488 0.0
4.233383 0.121858 -0.001741 0.0
0.616318 1.882828 -0.002208 0.0
1.958543 1.951259 0.003210 0.0
0.368094 2.397639 -0.001372 0.0
0.700857 0.264510 -0.003289 0.0
2.928011 0.406784 -0.002093 0.0
2.290494 1.115994 0.000811 0.0
1.162770 0.808715 0.000342 0.0
2.211055 0.390380 0.000303 0.0
2.112362 1.992036 -0.001225 0.0
0.112015 0.186957 0.001631 0.0
0.320598 0.393887 -0.003675 0.0
2.369654 2.003094 0.000983 0.0
0.925986 0.496916 0.002550 0.0
0.218233 2.399385 0.001410 0.0
2.899469 1.262016 0.000876 0.0
3.034662 1.795056 -0.001395 0.0
1.874404 0.947551 -0.003593 0.0
3.199855 1.091094 -0.001046 0.0
0.543254 0.519922 -0.000223 0.0
0.741443 1.833063 -0.000375 0.0
1.632633 1.590376 -0.000140 0.0
0.172620 0.322339 0.001067 0.0
0.111466 1.751890 -0.003882 0.0
2.641229 1.573157 0.006267 0.0
1.401941 1.732721 -0.003036 0.0
0.794927 0.858200 -0.003418 0.0
0.515081 0.178710 -0.000140 0.0
3.641305 0.409480 -0.001194 0.0
2.007151 0.471736 -0.002894 0.0
1.488435 1.035244 0.002937 0.0
3.606415 0.793836 0.006301 0.0
1.093225 0.776072 0.001972 0.0
4.101017 0.992212 0.001806 0.0
3.576723 0.432078 0.006214 0.0
3.274871 1.749794 -0.002627 0.0
0.498655 2.302779 0.001313 0.0
1.773626 1.185598 0.000187 0.0
3.122814 1.272712 0.001990 0.0
4.420289 1.533148 0.000148 0.0
3.867678 0.518163 0.000678 0.0
0.852971 1.432427 0.001458 0.0
2.595495 1.410322 -0.001495 0.0
0.207156 2.433587 -0.001122 0.0
4.562792 0.348675 -0.003172 0.0
4.680941 1.926759 0.001657 0.0
2.339800 0.661380 0.000196 0.0
1.010508 2.103280 -0.001534 0.0
2.509315 2.440436 -0.003351 0.0
3.100626 1.513293 0.000424 0.0
4.537892 0.778182 0.001055 0.0
0.451980 2.053223 -0.001590 0.0
4.017095 2.169156 0.001136 0.0
0.922679 0.264348 -0.001822 0.0
0.539611 1.494841 0.000621 0.0
4.355283 0.019294 0.005416 0.0
2.096971 0.234164 -0.003632 0.0
4.099586 2.442148 0.002576 0.0
3.394855 2.240132 -0.000238 0.0
4.709243 1.261379 -0.002348 0.0
4.567622 0.816385 -0.000260 0.0
0.479470 0.180888 -0.002019 0.0
4.399079 2.285360 -0.003113 0.0
3.780467 1.539332 0.000666 0.0
3.914147 1.216295 0.002851 0.0
1.667059 1.641803 -0.008447 0.0
0.370855 0.474613 -0.007473 0.0
2.582779 0.993299 0.000188 0.0
3.498651 1.738427 0.004409 0.0
1.554082 1.556779 -0.001426 0.0
4.588384 1.108732 -0.001792 0.0
3.093662 0.635788 -0.003396 0.0
0.906666 2.059907 -0.000481 0.0
3.603217 1.006979 0.004663 0.0
4.310640 0.675856 -0.000116 0.0
2.986965 1.161986 0.003422 0.0
2.983783 2.030587 0.004659 0.0
4.682237 2.004955 0.004267 0.0
4.284015 2.435815 -0.000583 0.0
1.275142 1.805086 0.001789 0.0
2.719285 1.902979 -0.000493 0.0
0.180200 0.275310 0.001489 0.0
4.200481 1.037141 0.002422 0.0
1.626676 0.527663 -0.003608 0.0
1.692549 0.755921 0.000421 0.0
1.913665 0.805978 0.000469 0.0
1.706315 0.251141 -0.001880 0.0
2.055704 0.586831 0.001797 0.0
0.504705 0.574749 -0.000385 0.0
1.617438 2.329871 -0.000307 0.0
3.498711 1.170990 -0.004763 0.0
2.925074 0.250726 0.001280 0.0
3.820295 0.113991 0.003541 0.0
0.337500 0.794319 0.002492 0.0
3.562676 1.352980 -0.001190 0.0
3.268082 1.622457 -0.002474 0.0
3.893746 0.273387 0.003877 0.0
1.473683 1.113137 0.004943 0.0
3.332762 1.092153 0.002438 0.0
2.945176 0.889913 0.000032 0.0
3.415948 0.476103 0.003805 0.0
0.852811 2.213438 -0.001679 0.0
4.151038 2.015163 -0.002141 0.0
0.722665 0.443043 0.004893 0.0
1.710659 2.296478 -0.000401 0.0
4.366153 1.261207 0.000171 0.0
3.876649 1.258119 0.002167 0.0
3.579676 2.021043 -0.000277 0.0
4.063163 2.346919 -0.000529 0.0
1.964894 1.255493 0.000890 0.0
0.976338 1.380695 0.000019 0.0
1.232818 0.726422 -0.001168 0.0
1.267641 0.504279 -0.000924 0.0
4.228156 1.671277 0.000119 0.0
3.583661 0.918254 -0.005842 0.0
2.795940 1.651476 0.005285 0.0
2.163387 0.092584 0.002634 0.0
0.803893 1.956472 -0.002285 0.0
3.071032 0.212400 -0.003535 0.0
1.815551 1.777606 -0.001552 0.0
4.676369 2.030357 0.002662 0.0
2.625931 1.242230 0.002836 0.0
0.763676 1.492301 -0.001333 0.0
0.499527 0.496452 -0.003985 0.0
0.283371 0.509500 -0.001751 0.0
0.809664 1.668695 0.002161 0.0
1.451475 1.631593 -0.002764 0.0
2.211038 1.635181 0.002551 0.0
0.968515 1.554279 -0.000698 0.0
4.504650 1.762134 -0.002017 0.0
4.182870 1.982110 -0.000303 0.0
1.433116 1.738534 -0.000032 0.0
4.198225 0.243843 0.001274 0.0
4.202521 0.403436 -0.001053 0.0
0.009071 1.244405 -0.000827 0.0
1.890034 1.256531 0.003250 0.0
4.549762 1.335296 -0.003663 0.0
4.479566 0.593122 0.001302 0.0
2.324934 0.933239 -0.000300 0.0
4.593264 1.185388 -0.002118 0.0
4.317257 1.288482 0.002344 0.0
0.944220 0.057083 0.003334 0.0
3.925678 0.649278 0.002688 0.0
2.215210 1.767761 -0.006447 0.0
1.721716 1.380153 0.002790 0.0
4.631582 0.252024 -0.003241 0.0
2.622489 2.148624 -0.005224 0.0
2.013015 0.260043 -0.001035 0.0
2.113042 1.171229 0.002799 0.0
2.609243 2.121405 0.006936 0.0
0.633243 1.358928 0.001082 0.0
2.647075 1.179218 0.001091 0.0
3.907060 2.221859 -0.001568 0.0
4.033330 0.066834 -0.001266 0.0
4.537076 2.304273 -0.000094 0.0
3.892770 1.960407 0.001585 0.0
1.712040 1.979622 -0.001548 0.0
2.666795 2.209360 -0.003180 0.0
1.953271 0.637952 0.000143 0.0
1.364896 1.696479 -0.000645 0.0
3.770743 1.521032 -0.002235 0.0
3.078830 0.295000 -0.000473 0.0
3.115898 2.374358 -0.000931 0.0
2.414250 1.272529 0.000895 0.0
2.310437 1.384267 0.002517 0.0
1.515625 2.102382 0.001829 0.0
2.943468 1.471928 -0.003813 0.0
0.305896 1.084395 -0.001307 0.0
2.298076 0.617647 -0.001626 0.0
1.244665 0.621147 -0.002449 0.0
4.516230 2.053590 -0.002199 0.0
1.560060 2.311216 -0.003098 0.0
1.191162 1.554930 0.000561 0.0
2.343760 0.970761 -0.005342 0.0
2.135856 0.213520 0.003622 0.0
1.196338 0.195399 -0.001900 0.0
3.759173 1.057543 -0.000646 0.0
3.081158 1.268967 -0.002906 0.0
2.994839 2.082335 -0.000498 0.0
1.551049 0.926217 -0.000131 0.0
1.111181 0.469194 -0.000945 0.0
2.527590 2.071066 -0.000443 0.0
3.252041 1.153045 0.001334 0.0
2.554156 1.314835 -0.000866 0.0
0.735243 1.660091 0.003129 0.0
2.748250 0.564287 0.001775 0.0
0.985574 0.902693 0.003974 0.0
0.071182 1.130281 -0.003290 0.0
4.691038 1.665963 -0.000959 0.0
2.014529 1.153218 0.000309 0.0
2.471545 1.851292 -0.002227 0.0
2.333099 0.979108 0.003520 0.0
2.967866 1.224137 0.000618 0.0
4.101698 1.968879 0.000826 0.0
1.085896 1.989609 0.003888 0.0
2.059565 1.338819 0.000452 0.0
3.323043 0.167964 0.001381 0.0
4.533709 0.453273 0.005133 0.0
0.396550 1.304648 -0.004048 0.0
2.052806 2.287085 -0.001605 0.0
0.093638 1.615611 -0.000649 0.0
2.844104 0.444641 -0.004733 0.0
1.427711 1.052296 0.002124 0.0
4.689360 1.983480 -0.000511 0.0
2.662489 2.074492 -0.000248 0.0
2.133821 1.903769 0.007615 0.0
1.111127 1.027333 -0.002632 0.0
0.008501 1.587021 0.001241 0.0
4.188346 1.005954 0.000497 0.0
1.018756 0.278395 0.001042 0.0
0.305932 0.745530 0.004518 0.0
2.877542 0.338566 -0.001486 0.0
1.638079 1.846610 0.005593 0.0
0.824636 1.178654 0.000132 0.0
1.562977 0.939586 -0.000533 0.0
4.524080 0.061837 -0.001706 0.0
2.268514 1.671854 -0.006478 0.0
3.948081 0.161093 0.003974 0.0
1.939956 0.052530 0.001139 0.0
1.341868 1.370161 0.000192 0.0
4.565979 0.516635 0.001634 0.0
2.322858 0.727527 0.000947 0.0
3.883652 1.362500 0.000322 0.0
2.390513 0.035141 0.001047 0.0
1.926707 1.602614 -0.000169 0.0
0.802323 1.314584 0.001541 0.0
0.508026 1.832161 -0.005089 0.0
2.175285 0.912952 0.001789 0.0
1.861929 2.001834 0.002172 0.0
4.074267 1.023133 0.002064 0.0
1.735454 1.818283 -0.000911 0.0
2.796997 0.242427 -0.001824 0.0
1.859330 0.499243 -0.001040 0.0
4.621463 0.474978 0.003730 0.0
0.779413 1.321433 -0.003360 0.0
1.596144 1.167413 0.000430 0.0
3.700017 1.007926 -0.002252 0.0
0.664755 1.428683 -0.001035 0.0
3.877276 0.871652 0.001277 0.0
4.385674 2.389889 -0.000334 0.0
0.025606 0.999856 -0.003009 0.0
3.445247 1.074217 -0.000113 0.0
2.584235 1.805166 -0.001247 0.0
2.675232 0.596342 -0.002717 0.0
4.712420 1.820642 0.000533 0.0
0.815109 1.570377 0.003294 0.0
2.028797 2.077421 0.004059 0.0
2.600786 1.394532 -0.001316 0.0
0.320603 1.220380 -0.002437 0.0
0.515636 0.661733 0.003337 0.0
4.182156 2.185813 -0.000672 0.0
1.991674 2.226740 -0.000325 0.0
2.278914 2.225997 -0.000366 0.0
3.961200 0.688176 -0.000947 0.0
0.876324 1.389544 -0.002953 0.0
3.820813 1.428669 0.001427 0.0
3.316883 2.063707 0.002343 0.0
3.560172 0.983952 0.001974 0.0
2.723517 1.023777 -0.000004 0.0
1.595968 0.962780 0.001006 0.0
4.322976 0.132666 -0.005679 0.0
0.276757 1.630755 -0.002772 0.0
1.248211 1.370087 -0.004202 0.0
1.254186 0.239687 -0.000080 0.0
1.363783 0.658318 0.002939 0.0
3.667054 1.991083 -0.001473 0.0
0.048525 1.818776 0.001620 0.0
3.740018 0.834341 0.001312 0.0
2.576562 1.837101 0.001618 0.0
1.582455 1.323942 0.003058 0.0
4.276299 0.150719 -0.000319 0.0
4.368130 1.221300 0.000142 0.0
4.536587 1.824615 -0.000349 0.0
2.973297 1.216297 -0.002366 0.0
3.472104 0.619920 -0.000346 0.0
1.160120 0.461955 -0.004176 0.0
1.646912 0.898136 0.000910 0.0
1.904294 0.037664 -0.004671 0.0
1.330025 2.400234 -0.003278 0.0
2.410428 1.672074 0.001526 0.0
2.964857 1.182970 0.004155 0.0
0.459169 2.214686 -0.001355 0.0
3.036780 1.267069 -0.003956 0.0
3.793501 1.784463 0.000627 0.0
0.306278 2.406451 -0.002055 0.0
2.121690 1.878131 -0.000689 0.0
1.827550 1.480684 0.001498 0.0
4.228836 2.141562 -0.000123 0.0
3.017336 1.882446 -0.005698 0.0
1.061643 0.953673 0.000647 0.0
4.644822 2.228212 0.002176 0.0
0.407575 1.190930 0.000062 0.0
2.478688 2.364717 0.000933 0.0
2.297309 0.987340 0.002346 0.0
4.021249 2.014413 0.003440 0.0
2.338161 0.579016 -0.000945 0.0
4.158621 2.435311 -0.005341 0.0
2.068209 1.984871 0.000910 0.0
2.066923 1.428740 0.001336 0.0
2.604621 1.601146 0.002527 0.0
2.031023 0.868833 -0.002871 0.0
3.072237 0.850555 -0.001166 0.0
3.075215 1.464981 -0.000617 0.0
4.561130 1.032536 -0.000162 0.0
0.613262 0.793648 -0.000542 0.0
0.494426 1.497186 -0.003193 0.0
4.261695 0.786530 0.002199 0.0
4.713097 1.621345 0.000560 0.0
3.932774 0.617693 0.000751 0.0
3.444385 1.902875 -0.000870 0.0
3.330973 0.707859 -0.001555 0.0
2.410496 0.978972 -0.002460 0.0
4.475983 1.686124 0.003059 0.0
4.589688 0.507634 -0.002283 0.0
2.980999 2.383375 -0.000212 0.0
1.517304 0.158243 0.000441 0.0
2.189411 0.352392 -0.000766 0.0
1.326617 1.315001 -0.000837 0.0
3.754840 2.176255 0.003842 0.0
3.215558 1.765837 -0.000059 0.0
3.983935 2.034345 0.000532 0.0
3.809040 1.444951 -0.004110 0.0
0.301407 1.823189 0.001458 0.0
3.285027 1.581451 0.001179 0.0
4.003644 0.318357 0.003400 0.0
1.295485 1.084355 0.005490 0.0
2.789589 1.662713 0.001477 0.0
2.530697 2.042610 -0.002302 0.0
0.282218 2.238907 -0.000144 0.0
1.230668 0.078206 -0.001706 0.0
2.378588 1.983031 0.000140 0.0
1.459145 1.798420 0.000250 0.0
3.432679 1.935855 -0.004518 0.0
3.163494 0.327186 -0.002709 0.0
2.653733 2.409949 0.003457 0.0
1.830534 0.006835 0.001926 0.0
4.570573 1.638947 0.004104 0.0
0.144460 1.275239 -0.000267 0.0
0.143825 0.395061 0.005745 0.0
3.046120 1.333873 -0.001665 0.0
4.027957 2.433582 0.003205 0.0
2.760953 1.912358 0.001667 0.0
1.575468 1.723240 -0.000688 0.0
3.823719 1.710345 -0.003660 0.0
0.534600 1.672165 0.001188 0.0
0.305244 1.361026 -0.004551 0.0
3.714351 1.721739 -0.000685 0.0
2.849416 0.350363 0.002525 0.0
3.425848 1.104404 -0.000499 0.0
2.777670 0.766733 0.000932 0.0
0.891588 1.472891 0.003898 0.0
2.634676 1.668183 -0.000548 0.0
0.863551 0.577840 0.000216 0.0
1.161052 1.005314 -0.000672 0.0
4.035958 0.240057 -0.000140 0.0
3.891668 2.424860 -0.000828 0.0
0.547520 1.699217 -0.000277 0.0
4.311385 1.640203 -0.000515 0.0
2.995326 1.297739 0.003261 0.0
1.601379 0.090572 -0.002599 0.0
3.568204 1.326267 -0.005216 0.0
0.493509 1.416566 -0.003070 0.0
0.110343 1.616092 -0.001774 0.0
0.005306 1.615805 -0.002178 0.0
1.851806 0.510176 -0.002718 0.0
4.019383 1.130015 0.001104 0.0
0.191940 1.758583 -0.000491 0.0
0.993101 0.838236 -0.004496 0.0
0.654952 1.415539 0.001712 0.0
1.398790 0.014937 0.000382 0.0
0.427578 2.298688 -0.000747 0.0
2.172789 1.774766 -0.002714 0.0
2.068174 1.379467 -0.000416 0.0
0.469744 0.277909 0.005108 0.0
2.207662 1.722299 0.000471 0.0
2.590796 1.859152 -0.006257 0.0
1.651888 0.024060 0.001273 0.0
1.651495 1.940170 -0.000666 0.0
3.247620 1.449682 0.000846 0.0
2.094072 1.071111 0.000430 0.0
1.032873 0.834413 -0.000997 0.0
0.661416 2.235853 -0.002511 0.0
0.803182 1.906082 -0.002143 0.0
3.380072 1.316258 -0.001609 0.0
0.932446 0.596049 0.001411 0.0
4.243268 2.151058 -0.002813 0.0
3.406869 1.275902 -0.000764 0.0
0.758990 0.794170 -0.001553 0.0
1.203291 0.531914 -0.000598 0.0
3.130494 0.373339 0.001330 0.0
0.000740 0.028054 -0.000700 0.0
1.021323 1.706145 0.000545 0.0
4.291486 1.569725 0.002545 0.0
1.372629 2.413530 -0.001824 0.0
2.327134 0.273018 -0.002873 0.0
2.106403 1.831194 -0.002696 0.0
1.859695 0.870395 -0.003035 0.0
1.302538 0.300595 0.002284 0.0
4.555689 1.221385 -0.001118 0.0
3.132246 1.154929 -0.002304 0.0
0.057429 1.536856 -0.001401 0.0
1.642837 2.427886 0.000313 0.0
3.657685 0.504918 -0.001247 0.0
0.422560 0.718844 0.005822 0.0
0.095691 1.553413 0.000983 0.0
3.673783 0.806137 -0.003042 0.0
1.608881 1.013227 -0.001104 0.0
2.938625 0.645142 -0.000482 0.0
0.157905 1.417464 0.001914 0.0
2.206520 0.343240 0.001259 0.0
3.582836 0.906239 0.000651 0.0
3.707869 0.212846 0.002448 0.0
2.700966 0.219596 -0.002576 0.0
0.708737 0.707820 0.001593 0.0
2.146793 0.052935 -0.000125 0.0
2.474311 1.168373 0.002130 0.0
3.706870 1.528732 -0.000151 0.0
1.457718 0.965326 -0.001399 0.0
0.333856 0.518492 0.001399 0.0
1.085040 1.298564 -0.003346 0.0
3.162609 2.147725 0.004445 0.0
0.490199 2.091521 0.000648 0.0
3.394507 1.543062 0.004207 0.0
1.937019 1.650631 0.001696 0.0
3.015044 2.402620 0.000439 0.0
4.618705 2.020008 0.001205 0.0
3.055741 0.875344 -0.000257 0.0
0.015418 1.506768 0.003012 0.0
1.139483 0.854765 -0.002215 0.0
2.827221 0.178393 -0.000731 0.0
0.836692 0.407756 0.001189 0.0
1.828817 0.671959 0.002504 0.0
1.265528 1.727714 0.000416 0.0
2.763753 0.978477 0.002268 0.0
0.070133 1.596940 -0.000022 0.0
3.017816 0.596233 -0.001438 0.0
2.116134 1.016156 -0.003141 0.0
4.539695 0.004548 -0.001277 0.0
4.556861 1.564038 -0.004836 0.0
2.978354 1.877905 0.000618 0.0
3.454008 1.775114 -0.002968 0.0
0.217012 0.334709 0.000643 0.0
4.524379 1.187472 0.000771 0.0
4.573609 1.904111 -0.000573 0.0
0.133774 1.055438 -0.003995 0.0
2.646478 1.832411 -0.003646 0.0
0.495633 1.194340 -0.002858 0.0
0.025422 2.126484 -0.002010 0.0
0.786580 0.500445 -0.001076 0.0
1.404413 0.898921 -0.002857 0.0
3.653563 1.238010 -0.007153 0.0
2.510538 0.641908 0.000231 0.0
3.734427 1.327469 -0.002110 0.0
0.405506 1.789405 -0.001888 0.0
4.634525 1.375154 0.002587 0.0
4.302885 1.935919 0.005600 0.0
0.845250 0.933485 -0.003369 0.0
0.690728 1.794597 -0.002868 0.0
2.848656 2.072906 -0.000059 0.0
3.301356 1.179453 0.003723 0.0
4.313323 0.512110 0.000671 0.0
1.072883 0.646299 -0.004833 0.0
2.779011 2.224441 0.000634 0.0
4.583109 0.447393 0.001188 0.0
0.929046 0.612041 -0.003530 0.0
4.443210 1.477958 0.001497 0.0
3.401607 1.507045 -0.004090 0.0
0.826436 2.437466 0.000969 0.0
4.702552 1.383650 -0.003261 0.0
4.016297 1.495492 0.000441 0.0
4.711008 0.602928 -0.000248 0.0
4.008636 1.672143 0.001901 0.0
3.243250 0.242801 -0.001087 0.0
3.836283 2.339331 -0.001661 0.0
1.536273 1.808365 0.004062 0.0
4.513937 0.250938 0.000587 0.0
1.574235 1.850479 -0.002015 0.0
4.214638 0.386872 0.004795 0.0
4.213357 0.998149 -0.001976 0.0
0.030634 2.397304 -0.000467 0.0
1.376104 1.507276 0.002383 0.0
4.514680 0.735439 0.000050 0.0
2.755162 0.264199 0.000407 0.0
0.297162 0.509103 0.002460 0.0
1.468356 0.738052 0.002763 0.0
3.379629 1.811125 -0.001940 0.0
3.608009 0.833907 -0.006458 0.0
4.371495 1.191118 0.000687 0.0
3.144914 0.150105 0.000708 0.0
4.514228 1.838371 -0.000971 0.0
3.400427 1.417623 -0.000386 0.0
4.530059 0.812368 0.002943 0.0
3.641691 1.653930 -0.000944 0.0
0.023917 2.007260 -0.002287 0.0
1.344343 0.640361 0.000562 0.0
0.197753 1.338258 0.000257 0.0
1.112168 1.852680 0.005418 0.0
2.145433 1.442589 -0.005435 0.0
2.814958 0.496914 0.000451 0.0
0.879044 0.495044 0.002494 0.0
4.462489 2.213632 0.000464 0.0
2.602879 0.348590 0.004085 0.0
3.350896 1.108670 0.003142 0.0
0.534850 1.252744 0.000417 0.0
1.968058 0.091879 0.003968 0.0
1.110720 1.660179 -0.001209 0.0
2.753143 2.148990 -0.002768 0.0
1.390962 1.695604 -0.003802 0.0
0.033477 1.337250 -0.005551 0.0
2.184216 1.551466 0.000605 0.0
1.741340 1.116157 0.000090 0.0
1.989421 2.033186 0.002305 0.0
2.842386 0.079325 -0.001330 0.0
1.705513 0.780543 0.000093 0.0
0.111593 1.086963 -0.002731 0.0
3.174161 1.446188 -0.002344 0.0
3.517354 1.653152 -0.004289 0.0
2.598941 1.926796 -0.004043 0.0
1.599306 0.314626 -0.001490 0.0
4.604876 1.826262 0.003240 0.0
2.697737 1.599542 0.001577 0.0
0.251675 0.171434 0.003334 0.0
3.822287 0.472808 0.003399 0.0
2.839149 0.557629 -0.001264 0.0
0.435280 2.242950 -0.001993 0.0
4.273591 0.346069 0.006868 0.0
0.294723 1.298502 -0.002715 0.0
2.861962 0.624855 0.003527 0.0
4.522830 1.909822 -0.003169 0.0
4.663296 2.013659 -0.004015 0.0
4.500699 1.104428 -0.000036 0.0
1.383728 2.140550 -0.004578 0.0
2.499607 1.613073 -0.000368 0.0
1.943018 0.471234 0.000870 0.0
2.387689 2.212967 -0.005214 0.0
3.985538 0.514055 0.002446 0.0
0.396191 0.868598 0.000870 0.0
2.018949 2.236931 0.000550 0.0
2.390215 1.403114 -0.000319 0.0
2.070822 0.064247 -0.002775 0.0
3.506895 0.742186 -0.000170 0.0
2.984868 0.981804 -0.000502 0.0
4.332077 1.061294 -0.002918 0.0
0.405039 1.070624 0.002033 0.0
0.230242 0.129345 0.002552 0.0
1.027130 0.321523 0.000745 0.0
2.281015 1.500692 -0.001459 0.0
1.627973 1.240970 -0.001459 0.0
2.118478 1.622694 0.004932 0.0
3.000137 0.993124 -0.004657 0.0
3.730552 0.484733 0.000648 0.0
1.342308 0.707700 -0.003070 0.0
2.146067 0.410513 -0.000114 0.0
2.858236 2.306963 -0.003503 0.0
0.532572 1.339715 -0.001661 0.0
3.497869 2.188367 0.005963 0.0
2.054558 1.631633 -0.000800 0.0
0.744502 1.331061 -0.003338 0.0
3.910341 2.296491 -0.003947 0.0
1.146622 0.312388 0.001832 0.0
1.816264 1.718028 0.000030 0.0
1.789865 0.857700 -0.000632 0.0
0.160641 2.218741 0.000492 0.0
0.316979 1.613207 -0.001972 0.0
4.530480 2.087063 -0.001451 0.0
1.315285 1.845143 -0.000471 0.0
3.300752 0.384841 -0.001741 0.0
2.498585 2.318037 0.003004 0.0
4.105296 0.341588 0.001632 0.0
2.058400 0.578657 -0.000329 0.0
0.021907 1.856385 0.002720 0.0
4.650961 0.214458 0.002365 0.0
3.109211 1.660821 -0.002191 0.0
3.504473 2.005544 -0.004625 0.0
2.803602 0.538125 -0.003391 0.0
4.706889 1.310925 -0.000594 0.0
3.284813 1.824561 -0.001936 0.0
4.094336 2.348828 0.003453 0.0
2.554745 1.255513 0.002931 0.0
2.220895 0.626091 0.001902 0.0
1.349497 1.330046 -0.001561 0.0
0.034552 1.066916 -0.003406 0.0
4.581615 0.785178 -0.003315 0.0
1.897134 0.263663 -0.001903 0.0
3.204186 2.448135 0.001314 0.0
0.745354 1.066953 0.000107 0.0
0.401056 0.162769 0.002425 0.0
2.720544 0.103869 -0.003387 0.0
3.249192 0.312417 0.000501 0.0
3.076991 0.512224 -0.001610 0.0
1.732498 1.124749 0.001130 0.0
0.559572 0.593845 0.002340 0.0
2.864075 0.298566 0.000394 0.0
1.012854 0.757617 -0.001272 0.0
3.399813 0.293129 0.000934 0.0
2.222556 0.571356 -0.002431 0.0
0.678209 0.566672 0.001138 0.0
0.876304 1.379673 -0.000030 0.0
2.274424 1.448405 0.002858 0.0
1.727314 2.124959 -0.001889 0.0
0.104466 1.873783 -0.000240 0.0
1.778923 1.187421 -0.000434 0.0
0.439338 2.324935 0.000704 0.0
0.461553 0.688577 -0.000244 0.0
2.385106 1.475927 0.005911 0.0
4.342579 1.964662 -0.000122 0.0
3.688984 1.718807 -0.000989 0.0
1.495640 1.546872 0.002620 0.0
2.018318 1.086174 -0.003444 0.0
3.906174 1.610276 0.004471 0.0
0.350924 1.023199 0.003638 0.0
0.941460 0.804180 -0.001042 0.0
0.441519 0.111524 0.001564 0.0
1.994215 2.153430 0.001856 0.0
2.965623 0.160668 -0.000835 0.0
1.909753 0.188135 -0.001045 0.0
1.249522 1.101710 -0.005044 0.0
2.157992 0.840100 -0.000105 0.0
4.037779 0.588455 -0.005368 0.0
3.366307 2.056951 0.001122 0.0
4.040841 1.402178 0.004988 0.0
0.384068 1.212262 0.003724 0.0
1.808306 2.362611 0.002464 0.0
0.558891 2.050053 0.001662 0.0
2.103202 2.041008 0.000218 0.0
3.981183 1.588592 0.005160 0.0
4.422689 0.918405 0.002891 0.0
1.580623 0.360690 -0.002721 0.0
2.444559 0.938109 -0.001004 0.0
4.289330 2.024972 -0.002386 0.0
0.053153 0.707537 0.002898 0.0
3.639835 1.422511 0.003111 0.0
3.297878 1.400258 0.002788 0.0
3.353920 0.276868 0.001282 0.0
3.600363 1.581661 0.000316 0.0
1.052614 0.677429 0.000757 0.0
4.479217 1.767228 0.004376 0.0
0.127947 0.354875 0.002776 0.0
3.060067 1.053689 -0.000946 0.0
2.959314 2.218093 -0.004690 0.0
1.089097 0.279919 0.000325 0.0
0.988273 2.312390 -0.002219 0.0
4.713958 1.191111 0.007437 0.0
2.272240 1.057647 -0.001239 0.0
0.201147 2.319068 0.004272 0.0
0.641338 1.109937 -0.004314 0.0
1.991349 1.040195 0.000887 0.0
1.679801 2.243541 0.001563 0.0
1.765117 1.437054 -0.000450 0.0
3.156513 1.782688 -0.002976 0.0
4.317950 0.173501 0.000005 0.0
2.927545 2.105381 0.000588 0.0
3.998583 0.545087 0.002275 0.0
1.062443 0.418967 0.001440 0.0
0.860389 1.514657 0.003625 0.0
4.171812 0.219057 -0.000551 0.0
2.621828 2.083555 -0.003584 0.0
0.773761 1.924171 0.000868 0.0
4.449771 1.339626 0.000851 0.0
0.713554 1.531112 -0.002426 0.0
3.782656 0.504272 0.003121 0.0
1.030413 0.307410 -0.003706 0.0
3.763329 1.845856 0.003089 0.0
2.953840 1.449642 -0.004167 0.0
3.891008 0.442364 -0.002707 0.0
1.936123 0.863204 0.001126 0.0
3.259649 0.889736 -0.003173 0.0
4.506351 0.695065 -0.002060 0.0
1.463445 1.130533 -0.001024 0.0
0.797653 0.544123 -0.001893 0.0
1.475270 0.933717 -0.001542 0.0
0.666400 2.362162 0.000437 0.0
0.345955 2.285214 0.003028 0.0
0.883908 1.556402 -0.001493 0.0
1.135906 0.999588 0.001858 0.0
2.026117 0.478277 -0.004811 0.0
2.623874 0.926581 -0.001118 0.0
1.205486 1.828914 0.002312 0.0
3.713109 1.888611 0.004927 0.0
4.683298 0.753337 -0.002111 0.0
4.302473 2.075201 -0.002402 0.0
4.068065 1.109003 -0.001874 0.0
1.869942 0.698742 -0.001385 0.0
0.201649 0.886010 -0.000610 0.0
1.663771 1.304661 -0.000563 0.0
0.243679 0.768042 0.000643 0.0
0.242146 1.313746 0.006775 0.0
4.015701 0.601430 0.002140 0.0
3.531608 1.417213 -0.000421 0.0
0.369699 1.247403 -0.003454 0.0
4.073516 0.122278 -0.001257 0.0
2.894872 0.986535 0.002487 0.0
1.571030 1.093889 0.003730 0.0
3.488861 1.153165 -0.001584 0.0
1.692007 1.184900 -0.001428 0.0
2.967196 1.466750 -0.002260 0.0
0.448468 1.882300 -0.001027 0.0
3.759984 0.572904 -0.003210 0.0
2.278920 2.094867 0.000441 0.0
0.777532 1.009428 0.000806 0.0
3.903844 2.097069 0.002492 0.0
1.878878 1.646730 -0.000108 0.0
0.110599 1.730417 -0.000827 0.0
0.079116 1.298986 0.001174 0.0
2.512438 2.302159 -0.004420 0.0
2.911314 0.466733 -0.003533 0.0
2.615021 2.069570 -0.001258 0.0
2.705803 1.532780 -0.004582 0.0
1.097031 0.249754 0.002300 0.0
4.540806 1.406621 -0.003996 0.0
3.836135 0.593479 -0.000168 0.0
1.585094 0.888238 0.000896 0.0
1.060061 1.537167 -0.000577 0.0
2.029870 1.041536 0.004094 0.0
0.438126 2.183431 0.000557 0.0
3.313126 0.543102 -0.001661 0.0
1.502880 0.672625 -0.000667 0.0
4.188084 0.980959 0.000076 0.0
2.715043 0.438166 -0.002051 0.0
4.687765 0.712417 -0.003721 0.0
2.898470 1.073521 -0.001524 0.0
2.437378 0.241927 0.000732 0.0
2.500519 1.255132 0.001502 0.0
0.117908 1.615782 -0.001090 0.0
4.202326 0.209334 -0.000453 0.0
2.155235 0.296065 0.004602 0.0
1.548912 0.641425 -0.004709 0.0
4.137836 -0.001281 0.000722 0.0
2.744409 0.605103 0.001818 0.0
2.240332 1.453254 0.001669 0.0
0.583598 1.870794 -0.003519 0.0
4.155445 1.833245 -0.006110 0.0
3.623603 0.317851 -0.000083 0.0
4.711471 2.337143 0.002042 0.0
4.333416 0.149202 0.001310 0.0
4.723202 1.341770 -0.003230 0.0
4.532185 2.349053 -0.005205 0.0
0.325540 1.920871 0.003327 0.0
0.240880 0.306100 0.000721 0.0
3.287000 0.363028 -0.003182 0.0
4.528197 1.835474 -0.002209 0.0
1.716062 1.228598 -0.001135 0.0
0.534086 0.648957 -0.003769 0.0
0.089931 2.230161 -0.001679 0.0
1.573874 0.154576 0.003073 0.0
4.005364 0.743887 0.002304 0.0
1.920657 2.193831 0.003113 0.0
0.807297 0.990641 0.002738 0.0
4.409217 1.484778 -0.001390 0.0
0.719284 0.923013 -0.000105 0.0
2.364151 1.869132 -0.002790 0.0
3.786619 0.033503 -0.000482 0.0
4.043076 1.557408 -0.001820 0.0
4.007301 1.473527 0.007778 0.0
2.198268 2.233493 -0.001113 0.0
2.613584 0.708619 0.001077 0.0
3.195267 2.373786 -0.000431 0.0
4.041239 2.408498 0.000446 0.0
1.095921 1.868133 -0.005020 0.0
4.267567 1.567697 0.001877 0.0
0.966052 0.985441 0.000374 0.0
0.287949 0.765644 0.001633 0.0
0.427792 1.872286 0.000879 0.0
0.453924 0.300290 0.000155 0.0
3.395863 0.122831 0.000603 0.0
2.461148 0.139015 0.000618 0.0
1.969167 1.639930 0.004085 0.0
3.822463 1.607309 -0.000341 0.0
2.838830 1.354842 0.004794 0.0
1.722966 0.827946 0.000433 0.0
1.287361 0.029646 -0.001422 0.0
3.963704 0.236818 0.000453 0.0
2.977469 0.578941 0.000245 0.0
1.633278 1.013124 0.001307 0.0
3.678049 0.236448 0.002131 0.0
0.963886 1.915297 0.001152 0.0
1.325052 1.881781 -0.002430 0.0
3.643993 1.880376 0.001182 0.0
1.159072 0.856634 0.000817 0.0
3.709132 1.100022 0.000471 0.0
2.475224 1.082611 -0.000925 0.0
4.721043 1.541383 0.002009 0.0
1.670539 1.339256 0.003090 0.0
1.033805 0.480787 -0.001246 0.0
4.075157 2.240328 -0.001285 0.0
0.639536 0.692355 -0.003327 0.0
0.709434 0.446701 -0.002214 0.0
4.284355 0.944519 0.000226 0.0
4.677204 2.343870 -0.001528 0.0
2.459422 1.835475 -0.002072 0.0
3.497038 0.222041 -0.001098 0.0
3.554061 1.150387 -0.002366 0.0
4.706894 0.872632 -0.000823 0.0
2.597958 1.948711 -0.002871 0.0
3.726467 0.003963 -0.002657 0.0
0.272605 0.815713 -0.000739 0.0
4.621103 0.554368 0.002788 0.0
0.672231 1.811496 0.001307 0.0
3.132570 1.999858 -0.001797 0.0
0.342511 2.348053 -0.000612 0.0
3.146305 2.352010 0.000679 0.0
1.919491 2.442993 0.004442 0.0
4.372468 1.098073 -0.004374 0.0
2.428569 0.682802 -0.001290 0.0
1.170274 1.301912 -0.004082 0.0
2.497786 1.320220 0.003407 0.0
0.560023 2.212758 0.005638 0.0
0.600505 0.781264 -0.001198 0.0
0.291640 1.327433 0.002571 0.0
0.176819 2.417910 -0.003568 0.0
0.898054 1.158320 0.004493 0.0
2.536073 0.368631 0.000979 0.0
2.743344 1.758682 -0.002604 0.0
2.463652 1.121614 -0.001480 0.0
3.015289 1.517775 -0.000671 0.0
2.912046 1.512280 -0.004151 0.0
0.872958 1.571030 0.002444 0.0
2.590621 2.216769 0.001347 0.0
0.346547 1.256765 0.001294 0.0
3.122354 0.980394 0.003700 0.0
2.927257 1.252775 -0.002151 0.0
3.400166 0.610889 0.000643 0.0
1.432548 2.198974 0.000807 0.0
2.681911 1.983743 0.003855 0.0
4.490285 0.461449 0.005874 0.0
1.589165 2.399465 -0.000220 0.0
2.032615 1.585117 -0.001551 0.0
4.310436 1.854992 -0.006050 0.0
0.952026 1.843629 0.001692 0.0
2.879381 0.106077 0.002960 0.0
1.256511 1.526784 0.000542 0.0
3.391564 2.164063 -0.002816 0.0
2.819116 1.575561 -0.004930 0.0
0.961236 1.792852 -0.001641 0.0
1.934732 1.410386 -0.001642 0.0
3.113575 0.427730 -0.002988 0.0
1.742919 1.534922 0.000319 0.0
4.311521 0.701134 -0.001606 0.0
4.268238 0.910696 0.002096 0.0
2.478475 0.329495 0.001626 0.0
4.413851 1.531792 -0.002331 0.0
4.160345 1.639702 -0.000056 0.0
0.709499 1.327281 -0.004126 0.0
1.791959 0.303096 0.001027 0.0
3.958592 0.385572 0.002974 0.0
3.065167 1.726425 -0.000744 0.0
0.981450 1.083572 -0.004092 0.0
1.210496 0.731252 -0.000078 0.0
3.414689 1.193053 0.001205 0.0
3.654657 1.445156 -0.001901 0.0
1.627274 1.264256 -0.003866 0.0
2.123402 1.884384 -0.001069 0.0
4.165276 1.423930 -0.001294 0.0
0.189347 1.848348 -0.001768 0.0
1.899705 0.814592 0.002692 0.0
0.857618 1.413352 -0.004293 0.0
3.816445 0.752758 -0.000553 0.0
4.674908 0.461092 0.002960 0.0
0.433704 2.387267 -0.000879 0.0
3.874607 1.329767 0.003501 0.0
3.885715 0.126183 -0.002883 0.0
0.997428 0.583688 -0.000867 0.0
2.588360 1.003731 -0.001366 0.0
2.608969 0.691716 -0.000131 0.0
0.537459 1.202753 0.000607 0.0
3.206497 0.861465 -0.001434 0.0
3.875223 2.185220 0.003014 0.0
2.048100 1.677234 0.006061 0.0
0.920439 0.087002 0.004539 0.0
1.036654 1.768006 -0.002402 0.0
3.435052 0.750127 0.003293 0.0
1.366804 1.873570 0.001591 0.0
4.593138 0.932798 0.003677 0.0
2.559280 1.652250 -0.001567 0.0
0.485619 1.260447 -0.001292 0.0
1.502771 0.807739 -0.001269 0.0
2.683582 2.093461 -0.000082 0.0
3.070773 0.767630 -0.000491 0.0
3.084842 0.293383 0.001109 0.0
4.675281 1.526177 -0.001145 0.0
4.632844 2.217211 -0.001782 0.0
2.094583 2.235967 0.001916 0.0
1.546336 0.312270 -0.000073 0.0
1.750222 1.124358 -0.003499 0.0
1.238438 1.889072 -0.003024 0.0
1.374597 1.165730 0.001150 0.0
2.126743 0.535318 -0.000562 0.0
1.965909 1.753262 -0.001163 0.0
2.461468 0.825709 -0.005284 0.0
2.059841 0.947650 -0.001319 0.0
0.019413 2.421619 0.004416 0.0
0.266875 2.273672 0.001262 0.0
3.082794 0.473675 0.000516 0.0
2.346538 1.088304 -0.002044 0.0
0.432701 2.288065 -0.000233 0.0
3.000800 0.997441 -0.003537 0.0
3.847566 2.375271 0.004774 0.0
1.087180 0.440204 0.001027 0.0
0.346318 0.701404 0.000330 0.0
2.302125 1.621031 0.000009 0.0
2.024335 0.535598 0.001064 0.0
0.927347 1.142702 0.003363 0.0
4.610655 0.965108 -0.001916 0.0
4.476557 0.135984 -0.003151 0.0
2.382996 1.496323 -0.001527 0.0
3.528492 1.464349 0.001024 0.0
0.936851 0.767753 -0.002337 0.0
4.660987 1.574959 0.003687 0.0
1.041660 0.120760 0.002090 0.0
3.743150 0.317675 -0.001542 0.0
0.651297 1.860012 -0.002915 0.0
1.168176 2.434060 0.004408 0.0
0.931894 1.656981 0.000181 0.0
2.687200 0.074462 0.003613 0.0
1.092814 0.627934 0.000418 0.0
4.601392 1.126454 0.001163 0.0
1.195711 1.195082 -0.000913 0.0
2.887811 1.771977 -0.004252 0.0
2.003768 0.910064 0.003070 0.0
4.571172 0.647101 -0.003421 0.0
1.326852 0.504509 -0.004314 0.0
0.614960 1.892201 -0.000495 0.0
1.630176 2.157333 -0.006056 0.0
0.135835 1.647941 -0.001635 0.0
3.519699 1.988548 0.001841 0.0
3.492449 0.269040 0.000229 0.0
4.231658 1.402496 -0.000074 0.0
1.667538 1.340125 0.000235 0.0
2.960057 1.863802 0.001341 0.0
2.227385 0.206545 0.002259 0.0
2.957600 1.542755 0.002635 0.0
0.701508 0.652133 -0.000415 0.0
1.079020 2.401946 0.000574 0.0
1.029838 2.261175 -0.005810 0.0
4.469421 1.513567 -0.000276 0.0
1.023940 1.817294 -0.000940 0.0
0.291412 1.395896 0.000144 0.0
0.850924 2.125922 0.000774 0.0
4.587619 0.195579 -0.002617 0.0
2.691612 1.468077 0.001471 0.0
0.342051 1.839941 -0.001474 0.0
2.522174 0.801581 0.002552 0.0
2.568615 1.853720 -0.003373 0.0
2.048793 0.469087 -0.000407 0.0
3.834581 2.185815 0.002394 0.0
0.578426 0.580391 0.001167 0.0
3.402402 1.068095 0.000931 0.0
1.382688 0.685687 0.000046 0.0
2.604423 1.533577 0.002411 0.0
4.052467 0.001942 0.001112 0.0
4.144845 1.452709 0.003954 0.0
3.440667 1.532409 -0.001196 0.0
1.859841 0.274488 -0.001524 0.0
0.035696 1.438046 -0.003674 0.0
3.324680 1.717102 0.002488 0.0
4.232152 0.285422 0.000548 0.0
2.326782 2.079072 -0.000007 0.0
2.295915 1.089805 0.003060 0.0
2.798625 0.843731 0.001282 0.0
0.150914 0.578477 0.004139 0.0
0.966725 0.956861 -0.002599 0.0
0.572925 0.159591 0.000542 0.0
4.240274 1.314607 -0.000239 0.0
0.528913 0.814308 -0.002493 0.0
1.532418 1.234145 0.000636 0.0
3.497028 2.164504 0.002646 0.0
1.737021 1.956163 -0.002149 0.0
3.352170 2.059461 -0.003948 0.0
0.529605 2.265354 -0.001519 0.0
1.221532 0.259548 -0.002146 0.0
1.831925 2.005458 0.001504 0.0
1.011040 1.249324 0.000084 0.0
3.293100 1.526956 -0.003615 0.0
3.291981 1.875258 0.000328 0.0
1.221221 0.454213 0.003724 0.0
2.376792 0.389199 -0.002820 0.0
0.086030 1.844584 -0.001366 0.0
0.331814 0.620596 -0.000415 0.0
3.677699 2.039426 0.002366 0.0
3.557898 0.001178 -0.001411 0.0
1.107122 2.235107 -0.000922 0.0
2.334829 2.361399 -0.003147 0.0
3.233461 0.166906 -0.001734 0.0
0.409891 0.900284 -0.000780 0.0
4.196420 2.361616 0.001907 0.0
4.515681 1.790751 -0.001583 0.0
4.725992 1.134084 -0.004600 0.0
1.273237 0.049560 -0.000048 0.0
0.480548 1.729619 0.001594 0.0
0.436446 1.260123 0.002810 0.0
3.292285 0.275344 -0.002210 0.0
2.001169 2.311416 0.000273 0.0
1.297377 2.394270 -0.003783 0.0
3.176480 0.991987 0.001076 0.0
2.313322 1.933831 0.000616 0.0
0.952350 0.872209 -0.002320 0.0
0.846439 1.158693 0.000283 0.0
1.345473 1.306544 -0.000889 0.0
1.552262 0.269266 -0.004409 0.0
2.174218 2.440668 -0.003176 0.0
2.826517 0.162913 0.001479 0.0
3.128122 2.098295 -0.000115 0.0
3.908443 2.384426 -0.001782 0.0
2.720307 1.261669 0.002825 0.0
2.438878 1.686064 -0.003611 0.0
0.036519 0.623581 0.002489 0.0
1.323856 1.961947 -0.000710 0.0
1.089736 1.040453 0.002759 0.0
0.074988 1.083311 -0.001694 0.0
0.500339 0.279965 0.002053 0.0
0.310089 1.606706 -0.000382 0.0
0.169786 2.238124 -0.000166 0.0
3.537132 0.705020 0.000812 0.0
1.361854 0.555530 0.004772 0.0
3.723214 0.805937 -0.002188 0.0
0.860094 0.242516 0.002700 0.0
4.679630 1.979172 0.000879 0.0
1.085744 1.841821 0.000486 0.0
1.345075 1.620860 -0.001953 0.0
3.249057 2.053937 -0.002319 0.0
3.096002 2.105096 -0.000707 0.0
3.015208 2.313748 -0.000618 0.0
1.523957 2.165899 -0.002858 0.0
3.203711 0.502694 0.007243 0.0
4.683301 2.198698 -0.003906 0.0
3.664112 0.193074 -0.003005 0.0
1.142798 1.800695 0.002508 0.0
3.868185 0.957298 0.004696 0.0
3.861112 1.378393 0.000829 0.0
1.982679 1.687846 0.001627 0.0
2.255039 0.769495 0.002640 0.0
4.438220 2.277607 0.000924 0.0
3.978837 2.288879 0.000831 0.0
4.613539 0.697273 -0.001175 0.0
1.692425 0.788205 -0.001627 0.0
1.585255 2.145998 -0.002978 0.0
3.558415 0.222688 0.001342 0.0
0.254700 1.701374 -0.000346 0.0
3.491016 2.127501 -0.003150 0.0
3.620953 1.764675 0.000435 0.0
1.520903 0.527154 0.003376 0.0
0.970202 0.575701 0.001168 0.0
3.653041 0.463048 0.000309 0.0
4.699797 1.600718 -0.000638 0.0
3.492408 0.125369 0.001982 0.0
3.408863 0.029843 -0.001294 0.0
0.978336 0.271626 0.000525 0.0
4.194166 1.745878 0.000119 0.0
1.101178 1.717183 0.002102 0.0
2.768455 0.159023 0.001282 0.0
0.615801 1.983701 0.002098 0.0
4.456029 1.134511 -0.001776 0.0
4.706526 0.877712 -0.003107 0.0
0.489375 1.088491 -0.000182 0.0
1.649317 0.393398 0.005602 0.0
4.407962 0.164833 0.001000 0.0
0.902572 1.083815 -0.006753 0.0
1.884366 0.902672 -0.004258 0.0
2.275143 0.209018 0.001771 0.0
1.685939 1.271170 -0.003542 0.0
1.642873 1.379131 0.002958 0.0
3.845912 1.802987 0.001944 0.0
3.894763 0.640067 0.000235 0.0
4.718362 1.691450 0.000248 0.0
0.335897 1.309634 -0.003504 0.0
2.637134 2.005677 0.000629 0.0
2.528131 1.886390 -0.001390 0.0
3.252361 1.436323 -0.000680 0.0
0.585338 0.114424 -0.000748 0.0
3.559993 1.731575 -0.002717 0.0
1.189287 0.185832 -0.000858 0.0
4.546022 2.401916 0.001227 0.0
2.859595 0.099063 0.002577 0.0
3.194510 1.428309 0.002255 0.0
0.608442 2.053490 -0.002522 0.0
0.836766 2.242555 0.000421 0.0
3.180452 1.694584 -0.001170 0.0
0.766771 1.677749 0.002416 0.0
0.569892 0.138129 -0.000834 0.0
4.132990 0.494030 0.002624 0.0
2.414192 0.194968 0.003486 0.0
1.773614 1.534005 0.000671 0.0
4.605297 1.407961 -0.002571 0.0
4.112553 0.701312 0.003560 0.0
0.762464 0.008280 -0.001736 0.0
1.862124 2.134517 -0.000430 0.0
4.602990 0.622904 -0.001258 0.0
3.461949 1.184435 -0.001234 0.0
0.187187 0.236791 -0.003911 0.0
0.278791 2.371305 0.005683 0.0
0.931166 0.090407 0.002206 0.0
2.702395 0.493986 0.003967 0.0
1.605666 0.028702 0.003496 0.0
0.672132 1.681674 0.003169 0.0
4.520633 1.476784 0.005520 0.0
4.708202 1.966456 -0.000099 0.0
0.440357 0.005682 0.001849 0.0
0.533995 0.223885 0.000511 0.0
0.202307 0.792718 -0.000868 0.0
2.734861 1.223514 -0.002924 0.0
2.572915 0.067682 0.001863 0.0
3.109726 2.274660 0.001114 0.0
0.166273 0.722288 0.001939 0.0
0.257181 0.592982 0.004534 0.0
3.553644 2.048231 0.001356 0.0
3.488565 0.921093 0.004694 0.0
1.294174 0.085421 -0.003759 0.0
0.536310 0.882219 -0.000618 0.0
4.388354 2.381284 0.001417 0.0
3.451331 1.359536 0.001905 0.0
4.436250 0.764231 -0.001830 0.0
3.745924 0.816339 0.000216 0.0
3.071948 1.131559 0.000582 0.0
4.646986 1.629295 0.000266 0.0
2.688441 1.460079 0.000206 0.0
4.320029 0.888769 -0.001421 0.0
1.378040 0.517862 0.003923 0.0
0.756807 0.432261 0.000857 0.0
1.784315 0.080928 0.002160 0.0
2.569462 1.810745 0.003048 0.0
1.287231 1.079760 0.001681 0.0
2.629586 0.870177 0.001693 0.0
2.713257 1.786225 -0.002037 0.0
2.165337 2.196814 0.004394 0.0
1.711211 0.311476 0.000194 0.0
0.135489 1.159697 0.000401 0.0
4.479737 0.176694 -0.002501 0.0
0.413462 1.086602 -0.002255 0.0
3.628184 2.015080 -0.000098 0.0
2.733071 2.229380 -0.002667 0.0
2.228489 1.951811 -0.002461 0.0
3.528685 1.000108 -0.001240 0.0
1.381235 1.963567 0.003323 0.0
2.412819 2.331284 -0.003277 0.0
1.933773 2.251523 0.000611 0.0
0.481280 1.678763 0.003134 0.0
3.118474 1.971443 0.000710 0.0
3.125191 1.163806 -0.005621 0.0
0.474353 1.592392 0.000518 0.0
2.891865 2.206286 -0.000642 0.0
3.365822 1.404400 -0.001464 0.0
1.241062 1.495035 -0.005923 0.0
1.118486 1.952489 -0.002087 0.0
2.251489 0.039335 -0.004872 0.0
2.881125 0.655381 -0.000091 0.0
0.200872 0.070187 0.004580 0.0
0.629964 1.607635 0.001559 0.0
2.007604 2.105481 0.002173 0.0
0.449724 1.151712 -0.003220 0.0
0.103017 2.392060 -0.002681 0.0
0.885947 1.210294 0.000119 0.0
2.673487 1.209804 -0.003787 0.0
2.180584 0.250666 0.001862 0.0
0.535252 0.665984 -0.000238 0.0
0.343913 1.736487 0.000768 0.0
2.050950 1.076485 -0.000108 0.0
0.833907 0.601501 0.001101 0.0
1.396231 1.313976 -0.003707 0.0
0.320651 0.441542 -0.000211 0.0
4.645737 0.960459 -0.001625 0.0
2.216637 1.878176 0.001727 0.0
3.485463 2.361719 0.002583 0.0
1.897749 2.318216 -0.001087 0.0
0.513365 1.743178 0.000407 0.0
0.835300 1.292985 0.002416 0.0
1.789758 1.683284 -0.001889 0.0
3.018335 1.242834 -0.004083 0.0
2.833883 0.695397 0.001087 0.0
3.485829 2.440396 0.002309 0.0
4.126461 1.807424 0.000357 0.0
1.189761 0.265836 0.001231 0.0
1.257276 0.883731 -0.003308 0.0
3.832996 0.363579 0.002573 0.0
3.643016 0.722711 0.005716 0.0
2.673142 1.496169 0.000918 0.0
1.506044 0.227561 0.001251 0.0
2.025767 2.433630 -0.001611 0.0
0.543586 1.704996 -0.000219 0.0
1.190684 0.296405 0.000396 0.0
0.528758 0.082379 0.004730 0.0
2.085501 1.909133 0.001066 0.0
3.805880 0.336602 -0.000091 0.0
1.760494 0.658293 0.000765 0.0
0.677507 1.964258 -0.001479 0.0
2.994221 1.267222 -0.001812 0.0
1.720782 1.531059 -0.002261 0.0
0.059316 2.034777 0.001322 0.0
1.165308 1.931002 -0.001220 0.0
3.377022 1.706018 -0.001442 0.0
2.043338 0.198061 0.001791 0.0
1.835716 1.309062 -0.000318 0.0
4.115500 0.324991 0.000243 0.0
4.067921 2.396543 -0.001630 0.0
4.613141 0.182389 -0.000848 0.0
2.948509 0.411067 0.000066 0.0
4.584304 2.094256 0.000167 0.0
2.113987 0.308164 0.000875 0.0
3.033617 0.203249 -0.001522 0.0
1.655314 0.842133 0.001939 0.0
0.641787 0.122219 0.002594 0.0
4.475997 0.462265 -0.003609 0.0
4.094507 0.963395 -0.002454 0.0
3.811336 2.005207 0.002974 0.0
1.382488 0.992857 -0.002066 0.0
3.291890 0.842482 0.000902 0.0
2.590115 1.613641 0.004199 0.0
1.544089 1.182893 -0.000921 0.0
2.310269 1.484306 -0.000535 0.0
2.085430 2.257381 -0.002667 0.0
3.502645 0.619831 0.001132 0.0
0.519523 0.048458 -0.002129 0.0
3.538043 1.444712 0.001389 0.0
2.398138 1.909564 -0.001477 0.0
3.713306 0.687480 0.003814 0.0
1.379209 0.621385 -0.000236 0.0
0.095850 0.131664 -0.002267 0.0
2.391028 2.327141 0.004126 0.0
0.605564 1.385798 0.000838 0.0
3.412978 1.973663 -0.001148 0.0
2.258021 0.907092 -0.002944 0.0
1.019158 1.303391 0.003167 0.0
0.895492 1.573543 0.000251 0.0
2.139488 2.212945 -0.001683 0.0
3.786294 1.332191 0.002994 0.0
3.984521 2.214184 0.002154 0.0
2.268065 0.190221 -0.001199 0.0
2.955039 1.987735 -0.004272 0.0
0.880076 1.574801 -0.001565 0.0
1.847127 1.575197 0.001306 0.0
1.839826 0.085245 -0.000552 0.0
2.604221 2.144234 -0.003394 0.0
3.048019 1.711557 0.001752 0.0
2.780017 1.740973 0.002923 0.0
1.801250 0.717951 0.006738 0.0
4.549997 0.399488 -0.001997 0.0
1.848860 1.877216 0.002806 0.0
3.222173 0.342718 -0.000454 0.0
3.689579 0.704186 -0.000745 0.0
3.008142 1.213165 0.000623 0.0
3.922014 1.879351 0.001231 0.0
3.047424 1.936410 0.000157 0.0
2.157434 1.279766 0.001864 0.0
0.050509 0.352230 0.000399 0.0
2.087983 0.455258 0.002920 0.0
0.193837 0.228937 0.003463 0.0
4.385674 1.885816 -0.004977 0.0
0.246572 1.347791 -0.001051 0.0
2.805154 0.505776 0.002317 0.0
1.705992 0.631945 0.000979 0.0
2.581367 0.636834 0.001452 0.0
2.490306 2.402561 -0.000319 0.0
3.225130 0.574664 -0.000333 0.0
0.572178 0.522795 0.000511 0.0
0.520955 2.082563 -0.001344 0.0
3.183600 1.499973 -0.001156 0.0
4.430377 0.311962 -0.001561 0.0
3.699246 1.151998 0.003820 0.0
2.073170 0.418370 -0.000342 0.0
4.716817 2.043959 0.002268 0.0
2.511862 1.826604 -0.000473 0.0
0.393167 0.852654 -0.002076 0.0
0.071128 1.579369 -0.000829 0.0
1.999774 0.463459 -0.001901 0.0
2.595581 2.306426 -0.003999 0.0
0.560500 0.856304 -0.001564 0.0
0.295926 1.395815 -0.001363 0.0
2.514989 1.656961 0.000853 0.0
3.670308 1.649362 -0.004136 0.0
2.590003 1.948363 -0.000430 0.0
1.895369 0.402537 -0.003398 0.0
0.124878 1.889855 0.003495 0.0
2.596374 1.799909 0.001113 0.0
3.815576 0.201087 -0.006059 0.0
1.593554 0.872907 0.002692 0.0
0.869005 0.774577 0.000112 0.0
2.298095 2.393924 0.001526 0.0
4.105580 0.193090 -0.000038 0.0
2.574197 0.219847 0.002183 0.0
1.808358 2.332564 0.000181 0.0
2.847416 1.304744 -0.000734 0.0
1.290406 1.810259 -0.001483 0.0
1.590312 0.717452 -0.000205 0.0
0.203775 1.195477 0.000909 0.0
0.811315 0.073741 0.002358 0.0
4.124497 1.159875 0.001209 0.0
0.930884 0.934320 -0.001287 0.0
2.408616 1.797386 0.002384 0.0
0.783782 1.989357 -0.000236 0.0
2.557969 1.346074 0.000993 0.0
4.592637 1.949866 -0.004437 0.0
3.210728 2.137947 -0.003348 0.0
1.210971 0.883977 -0.000284 0.0
4.336128 2.380306 -0.003647 0.0
2.320098 2.336231 -0.003726 0.0
1.703091 0.968230 -0.001593 0.0
3.124960 2.234384 -0.002490 0.0
2.297366 2.040665 -0.001871 0.0
2.477919 1.293560 -0.005834 0.0
1.847500 1.447249 -0.000414 0.0
3.076549 2.154757 -0.000532 0.0
2.142583 1.100455 0.003227 0.0
3.340071 0.449896 -0.003362 0.0
2.814511 0.543581 -0.000434 0.0
4.365837 2.153684 0.002903 0.0
4.136735 2.224937 -0.001357 0.0
2.540858 0.414195 -0.003861 0.0
4.555730 1.075251 0.002593 0.0
3.352184 0.993596 0.000281 0.0
1.117487 0.703902 0.001031 0.0
2.901467 1.828770 -0.000231 0.0
0.546475 0.755218 0.004940 0.0
3.020700 1.365616 -0.001817 0.0
0.662602 1.740139 -0.004289 0.0
3.689695 2.405007 -0.000562 0.0
4.639684 1.889786 0.003870 0.0
2.450261 1.481000 -0.001675 0.0
1.218305 1.061595 -0.002233 0.0
0.311296 1.694941 0.000917 0.0
1.810925 2.142393 -0.000910 0.0
3.069161 2.361766 -0.002454 0.0
4.162939 0.995604 -0.000328 0.0
1.676089 1.920230 -0.003639 0.0
1.817245 1.633465 0.001354 0.0
0.504463 1.831455 0.001674 0.0
1.140967 1.961321 -0.002717 0.0
4.307527 2.038416 -0.001830 0.0
0.646565 1.247484 0.000232 0.0
4.032596 2.164113 0.001366 0.0
2.938366 1.428993 -0.004159 0.0
0.188803 1.760580 -0.000651 0.0
3.446278 0.246579 -0.001278 0.0
1.306578 1.712052 0.001327 0.0
1.746363 2.188953 -0.002069 0.0
0.587491 1.470627 -0.002639 0.0
1.690826 2.170855 -0.001478 0.0
