2.89296877 0.28668177 0.00053261 0.00000000
2.64912201 0.14110340 0.00077083 0.00000000
4.07834801 0.42071245 -0.00397036 0.00000000
3.25157299 1.95669199 -0.00049364 0.00000000
0.40927085 1.19275314 0.00125333 0.00000000
2.35937188 0.08794185 0.00147413 0.00000000
2.30784877 0.81041556 -0.00058868 0.00000000
4.06212456 1.06505833 0.00176788 0.00000000
3.81170060 0.82039011 0.00237676 0.00000000
4.34363374 2.21528401 0.00085007 0.00000000
2.74411485 0.69361510 -0.00401422 0.00000000
2.40790271 1.10748921 -0.00182211 0.00000000
1.90017237 0.20570016 -0.00151582 0.00000000
0.86936551 1.75390563 0.00288636 0.00000000
3.56462555 1.13927949 -0.00236862 0.00000000
1.40403375 1.19740470 -0.00019163 0.00000000
2.59082348 0.83998755 -0.00033956 0.00000000
1.08471805 0.14767161 0.00302691 0.00000000
4.31646479 2.20623812 -0.00252699 0.00000000
0.82489977 0.31979101 -0.00017060 0.00000000
3.64947098 1.39862158 -0.00272959 0.00000000
4.05174812 0.65871827 -0.00011972 0.00000000
0.36616475 1.90564062 -0.00142926 0.00000000
2.29716003 0.63345154 0.00036888 0.00000000
1.35638561 1.83233559 -0.00238459 0.00000000
4.12008966 0.16653482 0.00140430 0.00000000
2.36033497 0.76371122 0.00164582 0.00000000
0.10645977 0.90996258 -0.00314696 0.00000000
0.68945938 1.70240992 -0.00203823 0.00000000
4.03374350 1.02426844 0.00320774 0.00000000
4.55521904 0.54567816 0.00633250 0.00000000
2.45087543 2.20858702 0.00173628 0.00000000
2.78566001 1.99430927 -0.00356109 0.00000000
0.29758105 0.64039727 0.00336925 0.00000000
3.19914942 2.22066523 -0.00679796 0.00000000
2.55878128 0.33042793 -0.00252878 0.00000000
2.64067657 2.23073003 0.00059486 0.00000000
3.24897571 1.30719894 0.00208509 0.00000000
2.58387589 1.62006483 -0.00071655 0.00000000
2.15906699 2.20478723 0.00059870 0.00000000
4.46254498 2.40031720 -0.00075215 0.00000000
2.79112302 2.12859632 -0.00093262 0.00000000
2.42445139 1.97061436 0.00149060 0.00000000
2.52904543 0.33635790 0.00214677 0.00000000
0.37733301 1.81422039 0.00585859 0.00000000
0.75146710 0.76108929 0.00028155 0.00000000
0.85595728 1.52324240 -0.00430695 0.00000000
3.91855930 2.39614765 -0.00158416 0.00000000
4.40501222 2.43700072 -0.00035537 0.00000000
3.40820377 0.68661238 0.00053205 0.00000000
2.05777954 0.19899577 0.00317271 0.00000000
0.66184869 0.97673916 0.00086577 0.00000000
2.16178405 0.40642395 -0.00042855 0.00000000
1.98582775 0.87473276 -0.00144739 0.00000000
1.53673202 0.46925717 0.00067780 0.00000000
2.77916141 2.42801762 -0.00040573 0.00000000
2.29920674 0.92694699 0.00011288 0.00000000
0.10269126 0.75321819 0.00245949 0.00000000
2.75457225 0.94275779 0.00271246 0.00000000
1.96550424 1.13211852 -0.00275810 0.00000000
3.96520729 1.01479632 0.00083700 0.00000000
3.91588392 2.11350443 0.00169202 0.00000000
4.05506045 1.45588733 0.00102212 0.00000000
3.70444029 1.98182956 0.00311018 0.00000000
3.99222698 0.68809910 0.00053718 0.00000000
2.44171818 1.73666178 -0.00009949 0.00000000
4.18802290 0.60684285 -0.00072545 0.00000000
1.62340418 1.01260408 0.00265311 0.00000000
3.00820079 1.84869353 -0.00162039 0.00000000
1.24525544 1.37177260 -0.00066286 0.00000000
3.52720799 1.24221021 0.00170284 0.00000000
0.15146392 1.92722269 0.00172958 0.00000000
1.13321525 1.63322053 -0.00320300 0.00000000
0.04623039 2.04677199 0.00352878 0.00000000
0.11249832 2.15267959 0.00332775 0.00000000
2.41303725 0.57682120 0.00390411 0.00000000
2.01948011 2.38649824 -0.00107721 0.00000000
3.79531309 0.12250187 -0.00149234 0.00000000
2.88033108 2.05423152 0.00306087 0.00000000
3.70154541 1.65970686 0.00048375 0.00000000
3.05225942 0.87021656 -0.00107534 0.00000000
3.06845941 1.40996517 0.00208545 0.00000000
4.43325875 1.07471254 -0.00124599 0.00000000
0.54570116 0.02577609 -0.00142981 0.00000000
0.05712345 1.74828172 -0.00572299 0.00000000
1.32079228 2.01757810 -0.00113515 0.00000000
1.27772727 0.62670210 0.00411785 0.00000000
2.40056218 0.34600598 0.00208006 0.00000000
1.37554185 1.78689777 0.00255052 0.00000000
1.08945693 0.42472564 0.00021614 0.00000000
0.58678601 2.34404763 0.00521760 0.00000000
0.22235586 0.43518585 -0.00306799 0.00000000
4.25765759 2.16002391 0.00024355 0.00000000
1.51150369 1.85659550 0.00498868 0.00000000
2.61094869 0.86558772 -0.00158229 0.00000000
2.16104207 0.41895704 -0.00266215 0.00000000
0.53457432 2.35857952 0.00150978 0.00000000
2.34018344 1.04550370 -0.00073772 0.00000000
3.30687916 1.59655499 -0.00023132 0.00000000
0.46419123 1.76774974 -0.00149017 0.00000000
0.30447412 0.97772242 0.00122877 0.00000000
4.30013812 1.52149154 0.00216407 0.00000000
0.22591949 1.70597676 0.00136279 0.00000000
2.76685973 2.26123304 -0.00061622 0.00000000
3.18077126 0.15544712 0.00416871 0.00000000
0.94000286 1.67102172 0.00301776 0.00000000
4.52378677 0.28122292 0.00379006 0.00000000
0.89199152 1.85448722 -0.00219137 0.00000000
2.27322704 0.41805166 -0.00103973 0.00000000
2.04276391 1.20824388 0.00145431 0.00000000
0.07133480 0.23891683 -0.00189936 0.00000000
1.70832709 0.59295651 -0.00064109 0.00000000
4.22946748 1.24840432 -0.00021293 0.00000000
3.27471185 0.16617900 -0.00149113 0.00000000
4.41756035 2.09268057 0.00092169 0.00000000
4.09806331 0.89626230 -0.00006820 0.00000000
1.33684180 1.05710835 0.00048322 0.00000000
0.49014614 1.40825050 -0.00137084 0.00000000
0.68348758 0.51909363 -0.00308694 0.00000000
1.32790353 1.45608902 0.00278440 0.00000000
0.85432320 0.48565263 -0.00345471 0.00000000
3.37250690 2.03870684 -0.00234254 0.00000000
3.96957639 1.36547520 -0.00240821 0.00000000
1.47243934 0.90411850 0.00075482 0.00000000
4.51036830 2.32748829 0.00000941 0.00000000
2.12794016 1.94790615 0.00404958 0.00000000
0.86999168 2.39808253 0.00209477 0.00000000
4.32574338 1.50717376 0.00277597 0.00000000
4.29377822 0.69057162 -0.00464900 0.00000000
3.06230551 0.05842471 0.00231678 0.00000000
3.32105542 2.20084281 0.00394917 0.00000000
1.14568331 1.26036254 -0.00216157 0.00000000
3.00749302 2.07738384 0.00019291 0.00000000
0.88165486 2.40432615 -0.00078546 0.00000000
0.27128534 1.90273135 0.00204208 0.00000000
1.10137313 0.46143644 0.00214522 0.00000000
3.77271106 1.88741354 -0.00002968 0.00000000
1.02756522 1.83673422 0.00030056 0.00000000
2.53569336 1.19113744 0.00277982 0.00000000
2.76165007 1.08091437 0.00198418 0.00000000
3.64180731 0.48018823 -0.00086624 0.00000000
3.46568129 0.72206902 -0.00040850 0.00000000
1.13688831 1.33593217 -0.00122880 0.00000000
0.24218208 0.48119073 0.00004798 0.00000000
0.47900996 0.20597135 0.00394339 0.00000000
0.62550233 1.71413028 -0.00208946 0.00000000
3.58681698 0.09049162 -0.00094470 0.00000000
0.28575754 1.77897395 -0.00019721 0.00000000
0.06065457 1.70486742 -0.00023053 0.00000000
0.81409910 1.50092212 -0.00235984 0.00000000
1.21778294 0.90484957 -0.00050687 0.00000000
2.92764468 2.23312511 -0.00041502 0.00000000
1.37703742 2.27117484 -0.00144036 0.00000000
1.43690203 2.18215433 0.00038982 0.00000000
3.98563140 1.89575987 0.00009846 0.00000000
1.80607954 0.20682986 -0.00110427 0.00000000
1.62908233 0.71147567 -0.00080290 0.00000000
0.25135060 0.66318755 0.00214294 0.00000000
2.36281812 0.96850934 0.00096528 0.00000000
3.82951435 1.57684860 0.00350358 0.00000000
0.39054914 2.07194217 0.00236057 0.00000000
2.72272833 2.32767064 -0.00151517 0.00000000
2.27205937 0.88374792 -0.00044385 0.00000000
3.17604652 0.00634477 -0.00191680 0.00000000
2.38179892 0.74416895 0.00261625 0.00000000
4.20372675 0.99222303 -0.00190818 0.00000000
4.40054387 0.89248615 0.00515552 0.00000000
3.44616675 1.16744594 0.00142268 0.00000000
3.13893733 0.37582420 -0.00396578 0.00000000
0.63050676 0.93546129 -0.00343280 0.00000000
2.78068039 0.24222122 0.00284511 0.00000000
4.10848321 0.42621330 -0.00046062 0.00000000
0.31313059 0.37831520 0.00115480 0.00000000
1.64889980 0.82994851 0.00145156 0.00000000
2.10916781 1.41452356 0.00072551 0.00000000
4.03069972 0.05962644 0.00291391 0.00000000
3.19020295 1.52772354 0.00567157 0.00000000
3.98963572 0.38230239 -0.00255151 0.00000000
1.12447637 0.07059063 0.00218825 0.00000000
2.34008227 2.14778368 -0.00015803 0.00000000
0.74421992 0.54323377 -0.00039867 0.00000000
1.51342072 0.19717653 -0.00132090 0.00000000
0.21791422 0.08426424 -0.00170523 0.00000000
4.14273555 0.10393265 -0.00253862 0.00000000
2.41604972 1.98600495 0.00219286 0.00000000
0.97337057 2.02306600 0.00258284 0.00000000
2.24530480 1.88348686 -0.00053712 0.00000000
1.99405458 0.43269579 -0.00231869 0.00000000
0.63484877 1.06778693 -0.00395408 0.00000000
3.87178976 2.41986470 0.00051910 0.00000000
2.52747619 1.64940965 -0.00195754 0.00000000
4.28543907 0.49881789 0.00359745 0.00000000
0.62509421 1.98451363 0.00490199 0.00000000
1.18556951 0.36456129 0.00279154 0.00000000
0.69941768 0.95953506 0.00080986 0.00000000
3.89724919 1.58315330 -0.00691271 0.00000000
3.67553323 1.73237663 0.00071758 0.00000000
4.43151834 1.64474804 0.00051475 0.00000000
2.01687962 0.94648826 -0.00214316 0.00000000
1.81278584 2.33822982 0.00526824 0.00000000
3.77321399 0.38106138 0.00417329 0.00000000
3.62537131 1.02454414 -0.00315798 0.00000000
3.62814121 0.40685899 -0.00278072 0.00000000
0.81047080 2.30824354 0.00037255 0.00000000
3.51510732 2.34667459 0.00195107 0.00000000
3.93314428 2.03127040 -0.00489945 0.00000000
0.43055864 2.06729776 -0.00014757 0.00000000
1.22554797 1.90026567 0.00235321 0.00000000
1.41841808 0.42356137 -0.00149898 0.00000000
0.47652839 0.32974457 0.00237556 0.00000000
4.47384856 1.40130269 0.00272049 0.00000000
2.67841700 1.65437780 0.00225744 0.00000000
0.21822694 2.01645878 -0.00301172 0.00000000
2.54634708 0.71971202 -0.00041247 0.00000000
0.64887499 1.44591473 -0.00081810 0.00000000
3.19571398 1.02708272 -0.00286290 0.00000000
3.97837606 1.41080311 0.00174326 0.00000000
3.13370110 2.11241252 0.00302450 0.00000000
4.24686985 0.79189618 0.00488163 0.00000000
3.84737783 1.67408182 -0.00156386 0.00000000
2.98447546 1.54195329 -0.00244422 0.00000000
0.26630221 0.46598769 -0.00354262 0.00000000
2.00141323 2.42323230 -0.00031338 0.00000000
2.06277321 1.52643428 -0.00077816 0.00000000
2.58747013 0.37540222 0.00214040 0.00000000
3.05150146 1.62866580 -0.00511961 0.00000000
1.95437730 0.49884995 -0.00272743 0.00000000
3.77678775 0.57671286 0.00025764 0.00000000
1.39538437 0.71783994 0.00130157 0.00000000
3.61086396 0.63910656 -0.00086326 0.00000000
3.58733201 1.30696762 -0.00287213 0.00000000
2.64251250 2.32788781 -0.00268420 0.00000000
3.85726810 0.70244334 -0.00038003 0.00000000
4.02034163 0.94700961 0.00138902 0.00000000
4.00861982 2.23096191 0.00514417 0.00000000
3.63964909 2.15230666 0.00128504 0.00000000
0.30648008 2.16457182 0.00154954 0.00000000
3.59906947 1.12782316 -0.00035312 0.00000000
4.34797157 2.18794803 0.00208604 0.00000000
0.27026961 0.55057735 0.00212399 0.00000000
2.64869283 0.90295653 0.00160141 0.00000000
0.60073258 0.14105197 -0.00194016 0.00000000
3.28916034 2.35595657 -0.00168138 0.00000000
3.42611710 2.16551717 0.00059658 0.00000000
2.85783823 1.62997170 -0.00096859 0.00000000
1.71436427 0.04978865 -0.00007722 0.00000000
3.74840228 0.67520418 -0.00023280 0.00000000
0.29407182 2.36258879 -0.00105031 0.00000000
3.67481077 0.07901116 0.00142144 0.00000000
0.57871938 1.63085994 0.00347877 0.00000000
0.87170804 0.10741021 0.00062383 0.00000000
1.81372212 1.51902702 0.00235050 0.00000000
3.64900529 0.78990752 -0.00124392 0.00000000
1.49452513 1.08866814 -0.00086412 0.00000000
4.49680440 1.24230029 -0.00029512 0.00000000
2.74075703 2.06089892 -0.00163299 0.00000000
1.42924749 1.29285978 0.00014683 0.00000000
4.06939276 0.05111560 0.00022185 0.00000000
2.61735848 1.22073125 0.00263024 0.00000000
2.49988101 0.06781310 0.00205414 0.00000000
1.26536876 1.85261964 0.00052936 0.00000000
1.43700966 0.63073839 0.00172638 0.00000000
2.90621408 2.20046422 -0.00102122 0.00000000
3.33498722 0.38357561 -0.00586282 0.00000000
3.59615486 1.99669495 -0.00057725 0.00000000
1.90934154 2.12295087 -0.00233955 0.00000000
0.31269299 0.44095643 -0.00259357 0.00000000
0.55644457 0.32389930 -0.00165797 0.00000000
1.24234349 1.20218631 -0.00718825 0.00000000
4.54228342 0.89834228 0.00189244 0.00000000
0.93217544 1.53515910 0.00079446 0.00000000
3.73162963 0.48050703 -0.00047255 0.00000000
2.21547507 0.26960855 0.00075995 0.00000000
4.39546607 1.92899216 0.00419001 0.00000000
2.53530929 2.04423105 0.00302498 0.00000000
0.30472555 0.25950873 0.00157770 0.00000000
3.16001253 1.19271059 0.00344885 0.00000000
4.17177474 0.65399952 0.00015435 0.00000000
1.52466526 0.90808736 -0.00177998 0.00000000
4.07765432 1.60190011 -0.00382382 0.00000000
3.22003408 1.91918282 0.00148053 0.00000000
4.53264474 1.82501599 0.00156109 0.00000000
1.95031081 2.18771983 -0.00149518 0.00000000
1.33717794 1.13820023 0.00044408 0.00000000
1.04804856 2.43672466 0.00064598 0.00000000
3.08910709 2.18668993 -0.00414297 0.00000000
4.52030417 1.81203326 -0.00113926 0.00000000
2.13251643 0.77118334 0.00298941 0.00000000
2.26748693 0.27119232 -0.00281967 0.00000000
3.01598914 0.61529647 0.00130262 0.00000000
4.12519399 2.03663087 -0.00048257 0.00000000
2.81430357 0.29255378 -0.00199202 0.00000000
3.13570062 1.60157289 -0.00506079 0.00000000
3.37847779 2.43512671 -0.00251728 0.00000000
1.63443233 0.52356827 0.00010432 0.00000000
1.39643410 0.85290524 0.00302773 0.00000000
4.09596017 0.21182750 -0.00162531 0.00000000
4.00220125 1.86053741 0.00251983 0.00000000
3.41758011 1.15942897 -0.00010394 0.00000000
3.15448569 2.12956908 0.00140475 0.00000000
2.93346348 2.21043605 -0.00333603 0.00000000
3.38396481 0.20403276 0.00266644 0.00000000
4.50344850 2.08579474 0.00043664 0.00000000
2.99386785 1.73840185 -0.00067485 0.00000000
2.32826529 1.40144683 0.00050923 0.00000000
3.77774056 0.27784710 -0.00038202 0.00000000
1.52220169 2.39945908 -0.00245164 0.00000000
0.53951580 0.99464204 -0.00481438 0.00000000
3.81877063 1.79576035 -0.00172751 0.00000000
0.27039669 2.40194647 0.00438192 0.00000000
1.96794929 0.85485883 -0.00100910 0.00000000
4.34740675 0.63469147 0.00137778 0.00000000
4.11180461 1.87875870 -0.00173493 0.00000000
0.64285939 1.98127672 0.00219412 0.00000000
2.93910663 2.35709231 0.00107061 0.00000000
2.93628456 1.54282259 -0.00064917 0.00000000
0.65873754 0.98140325 0.00185603 0.00000000
2.68752953 2.38096660 -0.00208017 0.00000000
2.82000650 1.09605190 -0.00220961 0.00000000
0.14665759 1.03878003 0.00117187 0.00000000
2.77519404 0.76848636 0.00145270 0.00000000
3.29081614 1.35536682 0.00194281 0.00000000
2.04437807 0.48303666 0.00146898 0.00000000
1.44828536 0.05777085 0.00027741 0.00000000
3.35255150 2.19128566 -0.00341527 0.00000000
4.32514509 1.16377226 -0.00209871 0.00000000
2.21904153 1.92877432 0.00173395 0.00000000
4.19487049 0.56042743 -0.00004853 0.00000000
4.03754584 0.24722695 0.00168609 0.00000000
1.66729613 1.70356249 0.00035683 0.00000000
1.65698359 1.40729900 0.00232089 0.00000000
0.70395197 1.98524403 0.00173875 0.00000000
2.19609335 2.31449928 0.00060920 0.00000000
1.82437710 0.50981214 -0.00209395 0.00000000
2.88127658 0.21437639 0.00233470 0.00000000
3.22935907 0.79809814 -0.00165031 0.00000000
2.90053608 1.57944001 0.00146150 0.00000000
2.37683539 0.58845662 -0.00295408 0.00000000
3.06811738 2.26826688 -0.00372244 0.00000000
0.66661354 1.39957400 0.00048602 0.00000000
1.67164379 0.67715425 0.00264363 0.00000000
2.50411594 1.27094046 -0.00188890 0.00000000
0.18176009 0.02480480 -0.00367041 0.00000000
3.32084689 1.59932699 -0.00438763 0.00000000
2.30633511 0.57371402 -0.00097644 0.00000000
3.35007200 0.96295060 -0.00000393 0.00000000
2.13874013 2.17347914 0.00200507 0.00000000
0.46227420 1.58049566 -0.00068422 0.00000000
1.66801443 1.87579254 -0.00621405 0.00000000
2.66228798 1.10450537 -0.00017901 0.00000000
3.97596067 1.01141327 0.00226742 0.00000000
0.55464722 0.34313228 -0.00103696 0.00000000
4.04909404 0.07882193 0.00049659 0.00000000
2.59193523 0.09611017 -0.00059178 0.00000000
4.01338650 0.46136589 -0.00052538 0.00000000
1.60809951 2.09323627 -0.00110160 0.00000000
0.87376872 0.53932545 -0.00170531 0.00000000
3.68738523 1.94454566 -0.00028392 0.00000000
1.12334624 1.83973281 -0.00324437 0.00000000
1.93214282 1.12512151 0.00408167 0.00000000
3.99484245 2.18781873 -0.00033735 0.00000000
2.02003656 0.04609034 -0.00194922 0.00000000
0.72231813 1.32829053 -0.00407081 0.00000000
2.62475189 0.63558417 -0.00335375 0.00000000
0.35828682 0.80757219 0.00230637 0.00000000
0.26574347 2.43807902 -0.00503736 0.00000000
2.18929818 0.15938397 0.00096159 0.00000000
2.57489467 0.56346524 -0.00254726 0.00000000
1.34559342 1.68468867 0.00516889 0.00000000
4.34025057 0.08707282 0.00243847 0.00000000
1.27148611 1.07619849 0.00204062 0.00000000
1.77334669 2.01472815 0.00234976 0.00000000
4.02696646 2.36811616 -0.00233545 0.00000000
3.76206316 1.86635225 -0.00076585 0.00000000
2.72757916 1.37231583 -0.00257274 0.00000000
2.61798000 1.62213112 0.00116200 0.00000000
2.16902385 1.82109639 0.00307020 0.00000000
4.40675972 0.49268368 0.00008219 0.00000000
2.26411176 0.54645953 0.00399098 0.00000000
3.66896623 1.24658834 -0.00288979 0.00000000
0.13912671 2.17855944 0.00327284 0.00000000
2.92075659 1.32566310 -0.00210829 0.00000000
0.24081877 1.35098587 -0.00307476 0.00000000
2.51241761 0.12185757 -0.00031483 0.00000000
2.63512991 2.06436403 0.00047528 0.00000000
3.66442736 1.13862206 0.00103655 0.00000000
4.23041618 1.91904815 -0.00126946 0.00000000
1.26971745 0.71515951 -0.00354655 0.00000000
4.24644416 0.03286658 0.00068267 0.00000000
1.10389750 1.09094313 -0.00322543 0.00000000
3.24231509 2.09275441 0.00010474 0.00000000
1.34473279 1.38083422 -0.00229155 0.00000000
2.92982188 2.09606448 -0.00059293 0.00000000
3.95981372 0.26492845 0.00116070 0.00000000
0.95095601 0.97521677 0.00461435 0.00000000
2.00580524 0.95001210 0.00218813 0.00000000
1.25397903 2.24462245 -0.00017043 0.00000000
3.75446003 1.60357314 -0.00180318 0.00000000
1.18108388 0.53107027 -0.00215065 0.00000000
1.19663573 0.55554635 0.00262498 0.00000000
0.18083209 1.99608513 -0.00198696 0.00000000
2.29387090 0.01008629 -0.00097266 0.00000000
2.99437544 1.42164982 -0.00007775 0.00000000
3.18126118 2.27740362 -0.00349538 0.00000000
4.35420899 1.39576234 -0.00085501 0.00000000
4.24623027 1.54699274 -0.00315458 0.00000000
4.53742001 2.28460447 -0.00421359 0.00000000
4.10767185 0.91862125 0.00541113 0.00000000
4.14412020 1.04654613 -0.00478505 0.00000000
0.12068113 1.85134705 0.00051130 0.00000000
4.39777813 0.93858247 0.00378499 0.00000000
4.48548097 0.38768620 0.00308273 0.00000000
0.51736751 0.19342302 0.00172700 0.00000000
1.40771353 1.37624265 0.00146909 0.00000000
3.28714432 0.77061051 -0.00091582 0.00000000
2.01753810 0.25869675 0.00096981 0.00000000
2.99349474 1.22047209 -0.00561621 0.00000000
1.03520470 2.23484166 -0.00034113 0.00000000
0.77505853 2.10967377 -0.00103087 0.00000000
1.06505665 1.08778822 -0.00209056 0.00000000
2.91014900 0.02460815 0.00205766 0.00000000
0.25025767 0.87706085 -0.00049086 0.00000000
2.00354581 0.71743587 0.00352524 0.00000000
4.14225951 1.11265177 0.00007153 0.00000000
1.44665894 2.34466083 0.00130833 0.00000000
0.10969441 1.05163963 -0.00516229 0.00000000
4.39711555 0.62071729 -0.00348616 0.00000000
0.79212665 2.20993325 -0.00157389 0.00000000
3.23191319 1.85765822 -0.00119892 0.00000000
2.32115243 1.59835021 0.00131847 0.00000000
1.27262458 1.40938237 -0.00421047 0.00000000
0.37528938 1.07408172 0.00454548 0.00000000
3.30553290 0.14044314 0.00301465 0.00000000
3.01024859 2.37487622 -0.00093659 0.00000000
2.70159532 0.29741711 -0.00165304 0.00000000
4.53656424 1.52082645 0.00302256 0.00000000
2.35199645 1.69348338 0.00061877 0.00000000
1.19966531 0.34313627 0.00153009 0.00000000
0.13641148 0.57650840 -0.00139663 0.00000000
4.33631672 1.65053906 -0.00264775 0.00000000
0.44079395 0.15180334 -0.00455986 0.00000000
1.56679476 1.51069932 -0.00276382 0.00000000
1.82205564 0.28342472 0.00310051 0.00000000
0.22299259 0.28552822 -0.00065327 0.00000000
4.54897066 1.48329503 0.00194633 0.00000000
0.67804772 1.39201813 -0.00082053 0.00000000
4.33254347 1.46961864 0.00015308 0.00000000
1.10555391 0.28365977 0.00336596 0.00000000
3.26647942 1.43097741 -0.00690867 0.00000000
0.83191892 1.75153406 -0.00244465 0.00000000
1.54960180 2.31020622 -0.00468615 0.00000000
1.74331126 2.37418863 -0.00092061 0.00000000
3.11478615 1.43210613 0.00408743 0.00000000
3.33105259 1.04802494 -0.00230486 0.00000000
1.89796476 0.69282679 0.00565295 0.00000000
3.58162164 1.53463436 -0.00021004 0.00000000
0.40626566 1.46049568 0.00391182 0.00000000
3.21793235 0.01860935 -0.00415754 0.00000000
4.14539826 1.31493105 -0.00149563 0.00000000
1.38971901 2.03532459 0.00279733 0.00000000
3.04611859 0.19981072 -0.00109870 0.00000000
2.78331413 0.37578497 0.00079224 0.00000000
0.94921728 2.13846165 -0.00067314 0.00000000
2.90164952 0.17764871 -0.00128442 0.00000000
3.50319714 1.85290306 -0.00163436 0.00000000
0.44406074 2.16903119 0.00124194 0.00000000
0.42366598 0.10264780 0.00076976 0.00000000
1.98137245 0.16646759 -0.00069223 0.00000000
4.06139688 1.97049305 0.00600019 0.00000000
4.55577590 2.08820050 -0.00316043 0.00000000
1.13588788 0.63652057 -0.00298044 0.00000000
1.61689660 1.80944312 -0.00014579 0.00000000
4.32227481 1.84960587 0.00032460 0.00000000
0.86847228 1.90614878 0.00335495 0.00000000
2.98393883 0.07506800 -0.00643849 0.00000000
1.50838387 1.07351246 -0.00183424 0.00000000
0.57505516 1.46027366 -0.00272091 0.00000000
0.70399037 0.00120624 0.00067260 0.00000000
4.49064843 2.05975814 -0.00189648 0.00000000
1.12210553 1.79488004 -0.00137255 0.00000000
1.20563992 2.23711321 0.00107437 0.00000000
3.77881625 1.69941852 0.00164712 0.00000000
2.95698002 1.58892373 0.00249030 0.00000000
2.33733065 1.31607643 -0.00003650 0.00000000
0.36563471 0.08614022 -0.00074602 0.00000000
2.74238941 0.82343624 -0.00306986 0.00000000
0.15770332 1.36311282 0.00070177 0.00000000
0.91102670 1.97564505 -0.00248767 0.00000000
3.26039280 1.53205907 -0.00175682 0.00000000
2.22665100 2.01942848 0.00143371 0.00000000
0.20752978 1.30461226 -0.00063766 0.00000000
0.24359538 2.07562821 0.00138014 0.00000000
0.04451199 1.32706298 -0.00211346 0.00000000
1.96195967 1.64498202 -0.00106037 0.00000000
3.41410077 2.26180059 -0.00394357 0.00000000
1.10916297 1.26309276 -0.00184560 0.00000000
1.77617467 0.20868173 -0.00073764 0.00000000
2.17029350 0.24407410 0.00298875 0.00000000
0.86659049 0.38427146 0.00078350 0.00000000
1.87597330 1.69282039 0.00078929 0.00000000
4.22977573 1.73067595 -0.00016702 0.00000000
1.04284127 1.79748414 0.00036195 0.00000000
0.94864888 2.38855960 -0.00169213 0.00000000
2.09796330 1.59855403 -0.00141947 0.00000000
3.50801577 2.42992445 -0.00022886 0.00000000
1.75942813 1.99169010 -0.00363021 0.00000000
0.77291146 1.01922543 -0.00050307 0.00000000
2.03919237 2.19838458 0.00386305 0.00000000
4.27841832 0.66837524 0.00128960 0.00000000
2.45448662 1.91610328 -0.00143503 0.00000000
4.35208715 0.96671031 -0.00281612 0.00000000
0.05647808 1.18666428 0.00084030 0.00000000
3.95756091 1.37511821 0.00029824 0.00000000
2.45900294 1.99594931 0.00250726 0.00000000
1.35680250 1.69388565 -0.00194659 0.00000000
0.87267487 1.90196018 0.00208633 0.00000000
3.83645790 0.24960027 0.00170820 0.00000000
2.44139350 2.01651357 0.00110792 0.00000000
1.07041289 2.33344780 0.00307543 0.00000000
1.51289955 0.38010061 -0.00400566 0.00000000
3.86845612 1.71667239 -0.00181406 0.00000000
4.19049985 1.37901530 0.00177344 0.00000000
3.81109961 0.21391931 0.00491501 0.00000000
0.84223682 0.20903945 0.00461480 0.00000000
2.75155519 2.22761662 -0.00083530 0.00000000
3.58213762 1.93424783 -0.00311063 0.00000000
2.28875693 0.43920333 0.00447541 0.00000000
2.01710644 2.20759357 0.00045956 0.00000000
2.13650487 0.04595470 0.00070393 0.00000000
3.89926074 0.62322534 -0.00154935 0.00000000
0.41095509 1.39510036 -0.00065137 0.00000000
0.08733883 2.14639148 -0.00032679 0.00000000
1.80998806 1.90209296 0.00209180 0.00000000
0.73346145 1.26689266 0.00003536 0.00000000
2.82626663 0.26129386 -0.00241438 0.00000000
0.55479652 1.81074641 0.00408019 0.00000000
1.47986192 1.46077983 0.00138164 0.00000000
1.84944491 0.06625529 -0.00330560 0.00000000
0.00947811 2.01305894 -0.00225641 0.00000000
2.94717229 1.92853885 0.00365373 0.00000000
3.57982671 2.27018315 0.00194654 0.00000000
1.96267571 1.79772106 0.00229649 0.00000000
4.09564556 1.58230415 0.00055949 0.00000000
3.41313005 1.57776673 0.00031799 0.00000000
0.13305847 1.73873100 0.00308723 0.00000000
4.18537586 0.41337636 0.00187039 0.00000000
1.63469476 1.44539930 0.00074051 0.00000000
2.90088339 2.00527125 -0.00316774 0.00000000
3.16820588 1.01845115 -0.00060422 0.00000000
0.08821270 0.33070256 -0.00133582 0.00000000
3.47806811 2.20099469 -0.00301719 0.00000000
3.74425467 0.18959017 -0.00092006 0.00000000
2.84823032 1.83518115 0.00074711 0.00000000
1.69579213 0.61865827 -0.00292064 0.00000000
0.73734495 0.61783792 0.00005224 0.00000000
2.55951825 0.62291413 0.00027185 0.00000000
3.56519569 1.93031329 -0.00381070 0.00000000
3.03069085 2.00520190 -0.00233166 0.00000000
2.08950748 1.45496953 -0.00299490 0.00000000
3.36140596 1.62309139 0.00503149 0.00000000
1.85252030 2.21074028 -0.00002382 0.00000000
1.81050925 1.17749837 -0.00282965 0.00000000
3.17101816 0.17777108 -0.00493712 0.00000000
0.84993331 1.66084367 -0.00161993 0.00000000
2.05137859 0.35353748 -0.00430496 0.00000000
3.71942320 0.76945168 0.00134922 0.00000000
2.42109254 0.83684162 -0.00266698 0.00000000
0.59633121 0.39720294 -0.00203511 0.00000000
1.49055730 0.77133554 0.00221471 0.00000000
3.60189044 0.21039035 -0.00191793 0.00000000
4.17368141 2.39083479 0.00245672 0.00000000
3.44951952 2.12569530 0.00131424 0.00000000
1.52414739 0.91106835 -0.00203122 0.00000000
1.47484422 2.22967164 -0.00001296 0.00000000
3.25929265 0.12110054 0.00626540 0.00000000
3.11166038 1.22429014 0.00319753 0.00000000
4.18637676 1.75596130 -0.00205340 0.00000000
0.03586423 0.19429934 -0.00328629 0.00000000
1.99222020 0.15970180 -0.00242694 0.00000000
1.73192711 0.69035829 -0.00142163 0.00000000
2.39398157 1.53699732 -0.00150029 0.00000000
1.96503161 1.93962369 0.00270987 0.00000000
1.00909025 1.50272284 0.00247878 0.00000000
4.40265562 1.68737559 -0.00191757 0.00000000
1.87034340 1.89439690 0.00329996 0.00000000
1.27660597 1.22368364 -0.00253213 0.00000000
0.89755948 0.82372948 0.00009477 0.00000000
2.06588052 0.24506701 -0.00178940 0.00000000
2.01827721 0.50866655 0.00069150 0.00000000
3.12846651 1.05535746 0.00397360 0.00000000
3.05892531 1.96915957 -0.00126908 0.00000000
3.62162585 2.45691845 -0.00344042 0.00000000
1.74966397 1.40140784 0.00228063 0.00000000
2.11510825 0.02951787 -0.00143176 0.00000000
0.60491885 0.89551572 0.00033249 0.00000000
1.97951447 1.97039378 0.00141727 0.00000000
2.77996360 0.30882495 0.00069139 0.00000000
4.53447469 1.21174738 0.00224856 0.00000000
1.70075268 1.10839949 0.00425680 0.00000000
2.05139599 1.80146534 0.00045619 0.00000000
3.77223546 2.11319279 -0.00194193 0.00000000
0.77344620 1.25141998 -0.00191167 0.00000000
3.02131469 0.85447367 0.00015046 0.00000000
1.55680205 1.91108843 -0.00002448 0.00000000
0.17889197 1.33840513 -0.00071570 0.00000000
3.37288430 2.11817761 0.00204858 0.00000000
1.66716608 1.08989668 -0.00064197 0.00000000
0.52627856 2.30253396 -0.00087888 0.00000000
0.90031375 1.74241157 0.00123404 0.00000000
2.07089438 0.13396896 0.00013358 0.00000000
0.19353357 1.09401484 0.00060712 0.00000000
0.20699104 0.04991054 0.00099281 0.00000000
4.44228522 1.56392379 0.00234542 0.00000000
1.04454060 2.32851090 0.00132574 0.00000000
4.48933066 0.93584167 -0.00238449 0.00000000
0.39553898 0.72016373 0.00386840 0.00000000
4.19601268 0.65593335 -0.00051919 0.00000000
2.89802101 1.40553812 0.00134406 0.00000000
2.12907378 1.65798020 -0.00004783 0.00000000
1.42792178 1.39715730 0.00165873 0.00000000
1.21492102 1.49135276 -0.00066108 0.00000000
0.66181244 2.37377395 -0.00205561 0.00000000
3.24948159 1.37987931 0.00035588 0.00000000
3.91801673 0.65260459 -0.00134164 0.00000000
2.35365708 1.01210196 -0.00075884 0.00000000
2.77555183 0.09996216 0.00286642 0.00000000
1.42410489 1.85149719 -0.00182125 0.00000000
1.20207453 0.69469101 -0.00263062 0.00000000
2.13302099 1.65952759 -0.00017088 0.00000000
0.13631250 2.12654447 -0.00248526 0.00000000
2.38119186 0.48512495 -0.00386493 0.00000000
2.03871227 2.32789664 0.00086754 0.00000000
2.78192293 1.06855300 0.00060506 0.00000000
2.53774790 1.98013196 0.00152239 0.00000000
1.41805314 1.23815869 0.00166174 0.00000000
2.51002882 0.62454782 0.00014526 0.00000000
3.85605975 1.61277077 -0.00271232 0.00000000
3.48497770 1.61837482 -0.00147645 0.00000000
0.66995682 0.85702158 -0.00575985 0.00000000
4.37096259 1.32127930 -0.00024723 0.00000000
0.38076689 0.16470302 0.00223357 0.00000000
0.57076725 0.97946072 -0.00172245 0.00000000
1.49420634 0.22641252 0.00154679 0.00000000
0.56244681 2.01308214 0.00082601 0.00000000
1.78939938 1.54408835 0.00169417 0.00000000
1.65829084 1.28710144 0.00136250 0.00000000
0.35623385 0.81273579 -0.00294677 0.00000000
0.83775511 0.57943213 -0.00122305 0.00000000
1.98493154 1.76783058 -0.00170172 0.00000000
0.45898049 0.86286618 0.00277679 0.00000000
1.99350788 1.96235906 0.00205034 0.00000000
2.45005737 1.66803613 -0.00063767 0.00000000
1.91056269 2.39657913 -0.00082952 0.00000000
3.99268936 1.85104103 0.00070748 0.00000000
0.84165745 0.46000156 -0.00021156 0.00000000
1.56320121 1.34416908 0.00037865 0.00000000
0.20648628 0.58018929 0.00129082 0.00000000
2.94014927 1.73164838 0.00352727 0.00000000
4.45272031 2.20793184 0.00001247 0.00000000
1.71381559 0.60903825 0.00082058 0.00000000
0.26769422 1.12096164 -0.00060353 0.00000000
0.85029276 2.14687864 -0.00416727 0.00000000
0.93053945 2.22824643 -0.00050599 0.00000000
1.64896424 1.27979033 -0.00319709 0.00000000
0.58893382 1.91937541 -0.00077904 0.00000000
2.11814580 1.96723552 -0.00174563 0.00000000
1.51671930 1.98167150 0.00513729 0.00000000
2.71113108 0.01452332 0.00424012 0.00000000
1.25595649 2.22392950 -0.00292473 0.00000000
0.99378040 1.87917372 0.00018877 0.00000000
0.42050084 2.00924025 -0.00183118 0.00000000
3.07152615 2.34578428 0.00504177 0.00000000
3.72159406 0.40490849 -0.00061877 0.00000000
3.63728396 0.96527069 0.00068422 0.00000000
0.45092873 1.24260867 0.00249717 0.00000000
1.32120883 0.68190039 0.00051759 0.00000000
0.48865591 1.51063447 -0.00065819 0.00000000
2.03176599 1.73049204 -0.00164373 0.00000000
1.64766389 0.56641357 0.00267845 0.00000000
3.27021120 0.34316218 0.00057705 0.00000000
4.30030133 0.89222142 -0.00129974 0.00000000
1.84800695 0.16927833 0.00328132 0.00000000
3.15908631 1.39639872 0.00200553 0.00000000
1.56046823 0.51931201 0.00177939 0.00000000
3.87028850 1.87515997 0.00059580 0.00000000
3.71500481 1.88522718 -0.00317561 0.00000000
0.18686669 0.29650863 0.00227957 0.00000000
1.53699766 0.41411782 -0.00338808 0.00000000
2.34059043 1.34018449 -0.00369500 0.00000000
2.31712840 0.64034161 -0.00058699 0.00000000
4.45783206 0.65584866 -0.00087742 0.00000000
4.26395175 0.30087112 -0.00281691 0.00000000
2.52818591 1.15135782 0.00045565 0.00000000
3.64182246 2.13378522 0.00357124 0.00000000
2.50313410 1.16907013 -0.00404106 0.00000000
0.92038008 1.06860230 0.00041181 0.00000000
1.21973966 1.47182415 0.00256122 0.00000000
0.49114327 1.50827020 -0.00450332 0.00000000
0.62550701 0.53743597 0.00085667 0.00000000
2.41592628 0.64759974 0.00149940 0.00000000
1.14905702 0.77540355 0.00064142 0.00000000
1.07065842 1.22396722 0.00441915 0.00000000
3.96602309 1.33091038 0.00008532 0.00000000
4.21829948 0.15605105 0.00330426 0.00000000
3.92563280 0.37162120 -0.00035327 0.00000000
1.32759058 1.87272206 0.00137797 0.00000000
3.59981977 0.54310271 -0.00173837 0.00000000
0.50632232 1.84222160 -0.00065324 0.00000000
3.57450615 2.34304509 -0.00337616 0.00000000
3.41894239 2.43033714 0.00387616 0.00000000
3.32931256 2.26331219 -0.00059624 0.00000000
0.99039292 2.39673178 -0.00124738 0.00000000
0.75358114 0.66552448 -0.00025998 0.00000000
3.43246933 0.77298008 -0.00265302 0.00000000
2.88709199 0.51286215 -0.00000784 0.00000000
0.76367718 0.41027306 -0.00325081 0.00000000
4.02892153 1.79773568 0.00043421 0.00000000
4.42638358 0.84482340 -0.00243886 0.00000000
2.22592010 2.35949886 0.00501462 0.00000000
0.85547287 1.32887365 -0.00029118 0.00000000
0.84624488 0.48344126 -0.00190603 0.00000000
1.49092914 1.09254045 0.00255144 0.00000000
1.27604933 1.83523295 -0.00113532 0.00000000
4.25587944 0.31139421 -0.00125566 0.00000000
3.64629878 0.67711843 0.00324624 0.00000000
1.45327659 1.10655820 -0.00169615 0.00000000
2.18629274 0.23335645 0.00025672 0.00000000
2.75384979 0.16204212 0.00534918 0.00000000
2.91878061 0.17778614 -0.00047163 0.00000000
2.16044401 0.39011197 0.00102510 0.00000000
3.83620352 2.04883232 0.00221422 0.00000000
0.98141918 2.16755294 0.00442015 0.00000000
1.74936320 0.84906386 0.00005140 0.00000000
0.33834236 0.24004285 -0.00470190 0.00000000
0.67646930 0.11804943 0.00093236 0.00000000
3.19408117 0.66936034 0.00182823 0.00000000
2.30516738 0.83408310 -0.00106915 0.00000000
3.32817001 1.51867294 0.00323636 0.00000000
1.76690251 0.94587907 0.00117767 0.00000000
3.26052056 1.02023531 -0.00018483 0.00000000
3.17812243 0.60274317 0.00253051 0.00000000
0.61435437 0.49356882 -0.00184779 0.00000000
3.80157007 2.15243426 -0.00006951 0.00000000
3.98344050 1.93402556 0.00170207 0.00000000
3.01831609 0.70788749 0.00458743 0.00000000
1.26323403 2.23813063 0.00020629 0.00000000
3.87859241 2.26176414 -0.00105110 0.00000000
2.36660541 1.18928279 0.00480748 0.00000000
0.05384312 0.76309708 -0.00134355 0.00000000
0.80547453 1.51640826 0.00050309 0.00000000
4.52014316 2.31877847 -0.00211956 0.00000000
3.53466267 0.86302431 0.00006793 0.00000000
3.22485832 1.59221164 0.00040886 0.00000000
2.77499035 2.05237029 -0.00530635 0.00000000
3.05555018 1.67262597 -0.00081597 0.00000000
0.15747098 1.31855065 0.00041672 0.00000000
0.83489957 0.58494658 -0.00133033 0.00000000
2.89870538 0.03656524 -0.00335919 0.00000000
1.23806826 0.92963278 -0.00253185 0.00000000
3.02022462 1.69428294 0.00167639 0.00000000
1.63840639 0.80864510 -0.00007078 0.00000000
2.87127368 2.06429092 0.00032555 0.00000000
3.75028498 2.15882407 -0.00053783 0.00000000
3.12062174 1.15006659 -0.00250202 0.00000000
1.61182505 0.13406455 0.00043269 0.00000000
4.02377908 1.18565380 -0.00165290 0.00000000
2.24133470 1.41689934 -0.00080242 0.00000000
4.09459358 2.02402783 0.00125532 0.00000000
3.43940598 2.10865201 0.00499329 0.00000000
3.71676509 2.00608448 0.00342359 0.00000000
0.36447753 0.48179488 -0.00428766 0.00000000
2.83218022 0.73482291 0.00001143 0.00000000
1.32508859 2.21701104 -0.00007343 0.00000000
3.53438389 1.07759074 -0.00349262 0.00000000
0.68220291 0.71734993 -0.00384254 0.00000000
2.77644014 1.93642798 0.00243947 0.00000000
2.38832375 1.92031163 -0.00530121 0.00000000
2.18624637 0.00041573 0.00040764 0.00000000
2.12543602 0.87695907 -0.00046607 0.00000000
2.96787424 2.28546098 -0.00110208 0.00000000
4.34544822 1.48539906 -0.00275546 0.00000000
4.41994798 1.26938885 0.00031998 0.00000000
2.24915168 0.02195408 0.00000590 0.00000000
0.26499696 2.27316135 -0.00349757 0.00000000
0.22632576 0.56874550 -0.00712854 0.00000000
2.57998433 1.73837386 0.00247228 0.00000000
1.14394796 0.39166004 0.00219171 0.00000000
0.14887658 0.60519232 -0.00252849 0.00000000
3.33061428 0.27927678 0.00042342 0.00000000
0.43532946 0.67686666 -0.00157609 0.00000000
2.58400777 1.28605210 -0.00110650 0.00000000
4.10065482 1.60898855 0.00481052 0.00000000
0.40989546 0.98188907 -0.00243153 0.00000000
2.44686751 1.47296937 0.00471167 0.00000000
3.16939060 0.16278880 0.00525571 0.00000000
4.14729870 2.20384641 -0.00328773 0.00000000
1.86185798 1.01126208 -0.00543717 0.00000000
0.32934555 0.55989297 0.00257199 0.00000000
2.22268520 1.34393055 -0.00082346 0.00000000
3.75821306 1.08773642 0.00407706 0.00000000
4.54346788 1.55727516 -0.00148466 0.00000000
0.12803330 0.90031909 0.00147751 0.00000000
1.63015492 0.70423137 -0.00010859 0.00000000
0.96191631 0.77629822 -0.00177375 0.00000000
2.99680136 0.13591789 -0.00350352 0.00000000
0.90851224 1.35903351 -0.00025207 0.00000000
1.26849000 1.62165732 -0.00007199 0.00000000
4.47666914 2.03523902 0.00292955 0.00000000
4.47554301 1.24475704 0.00014745 0.00000000
3.02929247 1.74635620 -0.00388547 0.00000000
4.15731614 0.45063485 0.00187950 0.00000000
1.01642036 1.09613311 -0.00168428 0.00000000
3.53915927 1.13948115 -0.00040007 0.00000000
3.64487282 1.39499362 -0.00107847 0.00000000
0.59548105 0.25095554 0.00243663 0.00000000
2.37249124 2.38784226 -0.00078395 0.00000000
0.68383937 1.63755537 0.00363024 0.00000000
2.98994084 2.39938859 -0.00219416 0.00000000
2.93057352 0.55483311 0.00274588 0.00000000
2.39681066 1.31403736 0.00498846 0.00000000
4.50021609 0.96360782 0.00379983 0.00000000
0.83271456 1.50275572 0.00043611 0.00000000
3.22395507 0.72538588 -0.00029625 0.00000000
2.93564600 0.29574636 -0.00366021 0.00000000
1.25428681 1.97492836 0.00106461 0.00000000
0.56900322 2.18740846 0.00113387 0.00000000
0.50323527 1.26234705 0.00215498 0.00000000
1.77075120 0.64400770 -0.00049518 0.00000000
1.15216062 0.89615377 -0.00137165 0.00000000
2.68323083 1.32617329 -0.00623314 0.00000000
1.20440447 1.57598166 0.00125298 0.00000000
2.67265490 1.97205241 0.00083040 0.00000000
2.93420096 0.23536876 -0.00092490 0.00000000
3.72679714 0.51587481 -0.00081507 0.00000000
2.80400358 0.16929059 0.00023338 0.00000000
3.87149380 2.02975052 -0.00117223 0.00000000
2.12226589 1.76260844 -0.00113984 0.00000000
3.65209539 1.59350134 -0.00178501 0.00000000
2.78306034 1.47110175 -0.00079593 0.00000000
1.77542692 1.22421675 0.00286148 0.00000000
0.83593487 2.43001909 0.00004160 0.00000000
2.21674492 1.42460824 -0.00232205 0.00000000
1.59628425 1.50308735 -0.00284187 0.00000000
0.84592636 0.24296628 0.00116622 0.00000000
3.88989697 0.28865945 0.00005593 0.00000000
1.89060245 1.76930518 -0.00049917 0.00000000
0.85298461 0.83298651 -0.00227854 0.00000000
3.63487432 0.55864247 -0.00414320 0.00000000
3.74431374 1.66849422 0.00265947 0.00000000
4.06528430 0.90329628 0.00317905 0.00000000
3.02541790 0.82956018 -0.00055000 0.00000000
0.14737585 1.53352452 -0.00260353 0.00000000
0.58585062 1.13011720 -0.00215985 0.00000000
3.52642158 2.45969379 0.00349162 0.00000000
3.71450586 1.63322485 -0.00456217 0.00000000
3.86837548 1.72144970 0.00176198 0.00000000
3.50647603 0.71421153 0.00422390 0.00000000
4.12859303 1.58814312 0.00189506 0.00000000
0.48494929 1.60136894 0.00402685 0.00000000
1.29774599 1.31704480 0.00102550 0.00000000
0.71534938 2.33099520 0.00166617 0.00000000
0.18359932 1.90078009 -0.00114859 0.00000000
0.74542998 1.80888430 -0.00116122 0.00000000
0.33893186 0.44565970 0.00131671 0.00000000
3.23832629 2.42309703 0.00084139 0.00000000
3.17881374 0.04809654 0.00075412 0.00000000
4.15260237 1.59103182 0.00192670 0.00000000
1.07937657 1.53183421 0.00636277 0.00000000
2.66125134 1.15989095 -0.00011686 0.00000000
1.04683853 0.82198593 -0.00142001 0.00000000
4.16597974 0.93026180 0.00093877 0.00000000
1.53977457 0.37638096 -0.00031807 0.00000000
4.39286837 0.73852484 0.00481396 0.00000000
1.29517413 0.29559548 0.00169256 0.00000000
0.60408210 1.70632796 -0.00057256 0.00000000
0.81781699 1.50289441 -0.00236670 0.00000000
3.22438877 2.44756081 0.00187383 0.00000000
3.53725142 2.34851483 0.00038584 0.00000000
3.23200924 1.48092261 0.00117398 0.00000000
4.05131117 0.56745802 0.00481743 0.00000000
1.33219539 0.01941433 0.00330468 0.00000000
0.43147257 1.19283556 -0.00106076 0.00000000
0.09064624 0.63398547 0.00315130 0.00000000
0.34624458 2.17477211 0.00249280 0.00000000
4.16103662 0.07697000 0.00091542 0.00000000
1.10536901 1.56739023 -0.00169536 0.00000000
0.91674346 2.09304987 0.00002213 0.00000000
0.27820805 1.69650967 0.00155592 0.00000000
1.61865957 0.68203838 -0.00231109 0.00000000
2.28775287 1.91914961 0.00086042 0.00000000
3.39663124 0.87114938 0.00196276 0.00000000
3.50374804 0.13779754 0.00275624 0.00000000
0.24626004 2.41274746 0.00132568 0.00000000
4.31529186 0.42581659 -0.00180652 0.00000000
1.01679768 0.40749493 -0.00429345 0.00000000
4.18903565 1.85391940 0.00072561 0.00000000
0.48496075 0.64190336 -0.00227675 0.00000000
1.93995406 2.12387933 -0.00060509 0.00000000
2.87155240 0.14593349 0.00296434 0.00000000
4.36567863 1.69869341 0.00234315 0.00000000
2.91026911 2.18962350 0.00295627 0.00000000
4.25102116 1.30622327 -0.00112789 0.00000000
1.15817651 2.16236586 -0.00145546 0.00000000
1.24274512 1.00017228 0.00242373 0.00000000
0.61147761 1.03140958 0.00021520 0.00000000
0.25708503 1.74474240 -0.00184004 0.00000000
0.17220187 0.26616494 0.00337092 0.00000000
3.99469153 2.30426273 0.00303282 0.00000000
0.87179442 1.25079526 0.00199295 0.00000000
2.54630703 0.04102292 0.00289024 0.00000000
0.71873510 1.63586848 -0.00103086 0.00000000
3.53978342 0.79446976 -0.00361573 0.00000000
2.91729517 2.43916782 0.00195653 0.00000000
3.33106010 0.66336187 -0.00555198 0.00000000
0.47093087 2.18771913 -0.00030009 0.00000000
2.21575012 2.09125196 0.00177110 0.00000000
1.27933329 0.88408133 0.00719915 0.00000000
3.69023788 2.29000987 0.00219290 0.00000000
0.77869750 1.13123238 -0.00028349 0.00000000
3.80158379 1.56508251 -0.00402629 0.00000000
2.09276144 2.07712117 -0.00328192 0.00000000
2.58861039 1.62870618 0.00034479 0.00000000
4.35992477 1.71340580 -0.00317759 0.00000000
2.11274260 1.17095179 0.00143299 0.00000000
2.12042189 0.18310641 0.00057222 0.00000000
4.06681613 0.08384834 -0.00108917 0.00000000
0.47892202 0.86499370 -0.00122824 0.00000000
4.08496938 1.47762568 -0.00069880 0.00000000
3.16576168 0.92994507 0.00014298 0.00000000
1.16919123 0.78244839 -0.00325080 0.00000000
2.37916185 1.54720404 -0.00646395 0.00000000
4.13446082 0.82711691 0.00044925 0.00000000
3.00092125 0.44982000 -0.00231744 0.00000000
3.76969457 0.39912224 -0.00188867 0.00000000
4.05493644 1.38096501 0.00009883 0.00000000
1.82102830 2.24739933 0.00578096 0.00000000
3.67004243 1.81033264 -0.00028581 0.00000000
3.24389062 0.85277368 -0.00235274 0.00000000
3.98207516 1.63816468 -0.00192900 0.00000000
0.01479567 1.63032483 0.00162149 0.00000000
4.38122535 0.73000913 0.00072522 0.00000000
4.54169500 0.56163512 -0.00116783 0.00000000
1.77926076 0.92721121 0.00028677 0.00000000
3.34060096 0.99006803 -0.00252172 0.00000000
3.21962725 2.38912755 -0.00636182 0.00000000
3.24989727 0.73567913 0.00205443 0.00000000
1.85630447 0.17259330 0.00044710 0.00000000
4.07928487 0.35985056 -0.00073717 0.00000000
2.37108161 0.85487826 -0.00177218 0.00000000
3.63194846 0.04942916 0.00224364 0.00000000
1.70552613 2.14176914 -0.00615141 0.00000000
4.49692079 0.58310209 -0.00268977 0.00000000
2.40523685 2.38585833 0.00092632 0.00000000
2.47370705 0.34791758 0.00084277 0.00000000
0.03210659 1.20487681 -0.00199207 0.00000000
1.82904583 0.87247993 0.00366720 0.00000000
4.49524790 2.10589997 -0.00093227 0.00000000
0.09644368 1.89850600 0.00128376 0.00000000
2.60159788 2.24532654 0.00062720 0.00000000
0.75636208 0.26687783 0.00335089 0.00000000
1.26183722 1.44851542 0.00128429 0.00000000
0.13602851 2.29024104 -0.00404995 0.00000000
0.44573296 0.54638398 -0.00222090 0.00000000
0.32581010 2.10632463 0.00083937 0.00000000
1.11449442 0.49792316 0.00036921 0.00000000
1.58445649 2.14874052 -0.00040039 0.00000000
3.28334347 0.07888231 0.00388638 0.00000000
0.72817332 0.62575145 0.00139598 0.00000000
3.53143041 1.16152771 0.00124910 0.00000000
2.90141741 1.56487660 0.00323918 0.00000000
2.76394696 0.83621368 -0.00113455 0.00000000
4.12598156 0.69016922 -0.00130569 0.00000000
1.52616183 1.43061965 0.00265856 0.00000000
3.04954118 0.06556710 -0.00013113 0.00000000
1.54764856 1.92887108 -0.00215512 0.00000000
1.92372909 0.97054047 -0.00121292 0.00000000
4.13079090 1.76534098 0.00099886 0.00000000
2.23080255 1.50435563 0.00079922 0.00000000
4.33497375 2.11446185 0.00038361 0.00000000
2.93255550 0.70841157 0.00106712 0.00000000
3.90401400 1.69054623 0.00098157 0.00000000
1.86797097 0.30015603 0.00343084 0.00000000
3.51117487 0.75242267 -0.00040686 0.00000000
2.74668933 1.06474253 0.00361062 0.00000000
2.96191277 1.78921240 0.00159094 0.00000000
3.16851399 0.24666982 -0.00014043 0.00000000
4.47011867 1.66642146 0.00107031 0.00000000
4.50906401 1.45877193 0.00027966 0.00000000
2.39697422 0.53906078 0.00143279 0.00000000
0.20112236 1.68982228 -0.00071275 0.00000000
1.63913651 0.79018752 -0.00063092 0.00000000
4.51562319 1.32040428 -0.00386295 0.00000000
1.20352180 0.99552617 -0.00144755 0.00000000
3.62255316 1.93732738 -0.00019393 0.00000000
2.82908169 0.73950532 0.00095206 0.00000000
3.97007657 1.40540924 -0.00307639 0.00000000
4.15285474 0.25773336 0.00099677 0.00000000
0.38901918 1.55730864 0.00243644 0.00000000
0.35430747 1.60577725 -0.00202531 0.00000000
2.25208134 0.94443864 0.00005685 0.00000000
2.25348427 1.53153199 -0.00002968 0.00000000
0.00919406 1.57284345 -0.00309640 0.00000000
4.17319584 2.12999809 0.00399030 0.00000000
2.35257010 1.16936660 0.00007961 0.00000000
1.23725167 0.35342306 0.00293607 0.00000000
2.79821525 1.84412631 0.00171076 0.00000000
0.25800028 1.90171331 0.00098692 0.00000000
2.25388084 1.61635113 0.00229391 0.00000000
0.84245759 1.78582201 0.00536721 0.00000000
4.01679135 0.29139428 0.00332937 0.00000000
0.62107961 0.05161339 0.00217927 0.00000000
2.39865450 2.00929626 -0.00102212 0.00000000
2.05624692 0.18198954 0.00206246 0.00000000
2.69303125 1.05752938 0.00133017 0.00000000
2.92100945 0.49623085 -0.00468252 0.00000000
4.44656292 2.22872033 -0.00356905 0.00000000
3.34070299 0.84053917 -0.00183566 0.00000000
2.71238019 1.02800197 0.00198788 0.00000000
1.06243890 0.45351115 -0.00187339 0.00000000
3.57418280 2.06099624 -0.00054317 0.00000000
2.66486408 1.26999033 0.00066477 0.00000000
0.47562532 2.40322126 0.00265361 0.00000000
0.50121460 0.21644696 -0.00078439 0.00000000
3.47658508 2.06051122 0.00480258 0.00000000
1.69422061 2.08546579 -0.00222708 0.00000000
3.32822088 1.50579264 -0.00185128 0.00000000
4.20666123 1.96241457 -0.00333329 0.00000000
0.70635478 0.45247519 -0.00023070 0.00000000
1.97711437 0.38471036 0.00350345 0.00000000
0.95225524 0.60886245 0.00233809 0.00000000
3.40462285 1.99388255 0.00434517 0.00000000
1.93944980 0.94914407 0.00036197 0.00000000
4.43936031 0.65696263 0.00192537 0.00000000
2.73494884 1.00622248 -0.00020493 0.00000000
0.36951058 1.35492577 -0.00067337 0.00000000
3.31334446 0.30585556 -0.00054650 0.00000000
1.85190827 2.14811441 0.00255646 0.00000000
3.97285177 1.59237570 -0.00109537 0.00000000
3.95135051 2.06197597 0.00379861 0.00000000
3.89369854 0.51931204 0.00091141 0.00000000
2.60503170 0.87816126 -0.00006843 0.00000000
3.33722752 1.16023226 0.00181951 0.00000000
1.32564978 1.06117089 -0.00036369 0.00000000
3.31243210 0.05497398 0.00146070 0.00000000
2.65272779 0.03494543 -0.00152866 0.00000000
2.04888402 2.07444702 0.00179714 0.00000000
2.74861709 1.99412920 -0.00133371 0.00000000
0.85499916 0.15296159 0.00006618 0.00000000
1.93897865 0.09450077 -0.00033244 0.00000000
2.55488701 2.05281933 -0.00200274 0.00000000
0.82491969 1.59912879 -0.00343039 0.00000000
0.48201079 2.17388460 -0.00093197 0.00000000
1.18644946 1.95801114 0.00161523 0.00000000
1.95590118 0.63494773 -0.00265469 0.00000000
3.67286102 1.86984770 -0.00038425 0.00000000
0.66651497 0.57229480 -0.00150015 0.00000000
3.21284265 0.61901216 -0.00027651 0.00000000
2.27804428 0.49398264 0.00072314 0.00000000
3.17246732 1.11961827 0.00094247 0.00000000
3.55895360 2.29673720 0.00093522 0.00000000
0.93965568 0.63263754 0.00114743 0.00000000
2.76361182 1.14029537 0.00130045 0.00000000
2.27448683 2.18017582 0.00234668 0.00000000
3.42624146 2.33275145 -0.00097363 0.00000000
3.58343202 1.83544479 0.00298215 0.00000000
1.91333842 0.41414596 0.00052308 0.00000000
1.61320072 1.32638017 0.00262776 0.00000000
3.00350119 1.95467795 0.00274395 0.00000000
4.51611769 1.29986420 0.00004138 0.00000000
1.24213588 0.65574429 0.00453094 0.00000000
1.51534388 1.59383771 -0.00112835 0.00000000
4.20141191 2.21230241 0.00285110 0.00000000
3.71269994 1.30064880 0.00292989 0.00000000
2.50638839 0.09057991 0.00055346 0.00000000
0.95814087 1.05807978 -0.00026580 0.00000000
0.11793962 1.04655664 -0.00314254 0.00000000
3.73871274 0.29877948 -0.00053273 0.00000000
0.37525058 0.79997302 0.00136781 0.00000000
