1.41293437 0.20579910 -0.00221967 0.00000000
4.04153076 0.17184630 0.00061447 0.00000000
4.20868627 1.68951615 0.00070851 0.00000000
3.94766037 2.35977600 -0.00428686 0.00000000
2.98312069 1.12112316 0.00104801 0.00000000
1.49578182 0.68332400 -0.00637848 0.00000000
2.49846323 0.21957035 -0.00099356 0.00000000
3.80618425 1.90477125 -0.00108618 0.00000000
3.89402414 1.22636134 0.00390310 0.00000000
4.03508038 2.34850231 0.00254615 0.00000000
0.77549584 0.15681683 -0.00016897 0.00000000
2.49013056 1.00533694 0.00018087 0.00000000
0.04952056 0.18348202 -0.00133633 0.00000000
2.56722703 0.79265721 -0.00242850 0.00000000
3.01761323 1.10629345 -0.00538852 0.00000000
1.92508239 0.24460784 0.00194797 0.00000000
4.01000247 1.00543595 -0.00098086 0.00000000
1.27301867 1.12238169 0.00375896 0.00000000
4.29719724 1.63359459 -0.00183373 0.00000000
4.82429534 1.82725108 -0.00128230 0.00000000
3.29676632 1.53921575 0.00200772 0.00000000
2.55264455 2.19687138 -0.00260332 0.00000000
2.95032080 1.59824149 -0.00232930 0.00000000
1.29131189 1.34542161 -0.00447687 0.00000000
1.33395025 1.92669311 0.00144324 0.00000000
4.02082662 1.55712154 -0.00385393 0.00000000
4.13415968 0.47104512 -0.00080546 0.00000000
2.25054957 0.23727624 0.00393050 0.00000000
0.13264695 1.09128229 0.00344345 0.00000000
0.27526742 0.85014477 -0.00185234 0.00000000
1.64298086 1.53411074 -0.00058593 0.00000000
1.75212457 1.23045843 0.00061999 0.00000000
2.54924017 1.29376084 -0.00495374 0.00000000
0.79885612 1.95444301 -0.00413202 0.00000000
1.03635102 0.93831471 -0.00645516 0.00000000
0.26646943 1.53756790 -0.00175125 0.00000000
3.25167754 1.82102684 -0.00221572 0.00000000
1.95571177 2.32807431 0.00149137 0.00000000
2.62890390 1.62915672 0.00203785 0.00000000
4.12123845 1.99197524 -0.00107864 0.00000000
3.53732960 0.34553681 -0.00227192 0.00000000
3.31474454 1.52967670 -0.00151064 0.00000000
3.59839280 1.67759554 -0.00232401 0.00000000
3.89081671 0.07489271 -0.00024094 0.00000000
0.42074982 1.55593943 -0.00250025 0.00000000
4.83380415 1.70603655 -0.00286595 0.00000000
0.94042455 1.60725074 -0.00020013 0.00000000
3.96785842 0.73208514 -0.00170469 0.00000000
3.05848858 2.29352618 -0.00008917 0.00000000
4.42819866 1.01613480 0.00099960 0.00000000
4.39946192 0.91834255 -0.00033756 0.00000000
4.79922624 0.49741156 0.00262960 0.00000000
2.60285907 1.24498880 0.00024118 0.00000000
3.13455519 1.91827004 0.00086020 0.00000000
0.00391522 0.72296651 -0.00201082 0.00000000
1.57500642 1.82426492 0.00295755 0.00000000
0.54478524 0.11263898 0.00365338 0.00000000
3.72957452 1.47716635 -0.00234912 0.00000000
0.83638199 1.06610271 0.00002487 0.00000000
2.04589344 0.97363634 -0.00065090 0.00000000
1.55908312 1.33191672 -0.00330275 0.00000000
4.72117552 1.05254277 -0.00083627 0.00000000
0.18970830 2.16800874 -0.00148149 0.00000000
2.84149819 1.39249057 -0.00127124 0.00000000
2.42002683 1.91402633 0.00299885 0.00000000
1.70235327 0.10239772 -0.00231609 0.00000000
4.42169689 1.48489086 -0.00305195 0.00000000
2.55979196 0.05912746 0.00370226 0.00000000
2.37328222 2.11187489 0.00036048 0.00000000
1.59443747 0.72262242 -0.00075684 0.00000000
4.11538886 1.40859102 0.00108415 0.00000000
3.23878094 0.60493404 0.00141701 0.00000000
4.26065078 1.94545426 0.00041358 0.00000000
2.54269165 0.63107344 0.00229041 0.00000000
0.19223102 0.97433675 -0.00430462 0.00000000
2.95348307 0.46862009 -0.00048019 0.00000000
3.35994302 2.36527041 -0.00156219 0.00000000
2.47635433 0.57393775 0.00155452 0.00000000
4.53423006 1.47368961 0.00119529 0.00000000
3.14592177 0.71276703 0.00130590 0.00000000
2.64382075 1.51689090 -0.00221316 0.00000000
3.25611141 1.02484269 -0.00104304 0.00000000
1.86392043 1.56851359 0.00218930 0.00000000
3.43237762 0.52478686 -0.00114811 0.00000000
2.69384787 0.92210588 0.00163768 0.00000000
0.09517387 1.00322842 -0.00056603 0.00000000
4.19680925 2.16708552 0.00048079 0.00000000
0.28130872 0.58218108 -0.00094294 0.00000000
1.97953744 2.10246551 -0.00156776 0.00000000
1.28868580 1.51340151 -0.00238308 0.00000000
0.53760860 1.75513227 -0.00081073 0.00000000
1.11211286 1.86175632 -0.00514064 0.00000000
1.98449375 1.80154590 -0.00229620 0.00000000
0.64467978 0.40964430 0.00023416 0.00000000
3.35187159 0.63214477 0.00081597 0.00000000
2.17679424 1.91406442 0.00093982 0.00000000
4.06815530 0.97609589 -0.00312350 0.00000000
3.19843841 2.37920552 -0.00343219 0.00000000
4.82202935 1.00952200 0.00183487 0.00000000
0.27518629 0.58209102 0.00318553 0.00000000
1.12865134 2.05415101 0.00272242 0.00000000
3.95246628 1.38410764 -0.00279989 0.00000000
2.37061518 0.04782758 0.00406744 0.00000000
2.74916527 0.61574955 0.00073459 0.00000000
0.94209349 1.81665321 0.00025174 0.00000000
3.84881991 1.92300740 0.00372351 0.00000000
3.93134084 1.00738614 0.00113452 0.00000000
1.83272742 1.61829856 0.00190034 0.00000000
3.06691207 0.22883314 0.00541893 0.00000000
2.02156835 0.00185824 0.00250012 0.00000000
1.69436913 2.30932726 0.00007212 0.00000000
1.29669820 1.17202450 0.00204120 0.00000000
4.09115689 1.62154412 -0.00009960 0.00000000
2.62325921 1.84390829 0.00400028 0.00000000
0.67889247 0.97397771 0.00164452 0.00000000
1.91041057 1.38741945 -0.00094061 0.00000000
2.44679998 0.81877141 0.00038557 0.00000000
0.10066408 1.06460139 -0.00099101 0.00000000
4.38849215 2.33550149 -0.00126221 0.00000000
1.35356838 0.04972650 0.00085227 0.00000000
2.36396907 0.60352947 0.00086770 0.00000000
1.21869002 2.30135653 -0.00179007 0.00000000
1.27458645 0.22828386 -0.00039936 0.00000000
0.11794775 1.93092882 0.00180383 0.00000000
2.20520316 2.18406466 -0.00127774 0.00000000
3.63432967 0.63622218 -0.00264679 0.00000000
0.09451309 1.70579724 0.00084275 0.00000000
1.34569988 2.09544854 0.00031711 0.00000000
1.02468713 1.75483298 0.00127479 0.00000000
1.93776588 2.22514988 -0.00080021 0.00000000
1.09984019 1.79395827 -0.00094751 0.00000000
1.75099936 1.69014192 -0.00003529 0.00000000
1.15873802 0.70639343 -0.00229352 0.00000000
4.20713784 1.60678071 0.00065569 0.00000000
1.52027394 0.68185855 -0.00221239 0.00000000
1.77530518 2.27162649 0.00058119 0.00000000
3.72980428 0.99150425 -0.00025773 0.00000000
2.04139649 0.48600075 -0.00129558 0.00000000
2.10433134 1.13725934 -0.00489630 0.00000000
4.85241744 1.54521110 -0.00181626 0.00000000
1.96887149 0.47634841 -0.00082469 0.00000000
0.58906919 1.66337756 0.00371432 0.00000000
2.24013188 0.27615210 -0.00138733 0.00000000
3.50642640 1.61308119 0.00075234 0.00000000
1.89170084 0.88997817 -0.00153876 0.00000000
2.94898102 1.62402609 -0.00286836 0.00000000
2.09149402 1.37710733 0.00165395 0.00000000
2.80566698 2.20830007 -0.00174042 0.00000000
1.34646837 1.50038300 0.00480865 0.00000000
0.04117656 1.67191072 -0.00577067 0.00000000
4.44801306 1.24824438 -0.00234095 0.00000000
1.19736176 0.99656464 0.00308520 0.00000000
3.43595997 2.22210438 0.00229201 0.00000000
1.01679581 1.98567353 0.00343517 0.00000000
2.36109073 0.08228442 -0.00078184 0.00000000
0.45075198 0.03149126 -0.00171219 0.00000000
0.41636259 1.44277775 -0.00134376 0.00000000
0.66552218 0.51916638 0.00392791 0.00000000
1.61897711 1.58894376 0.00152470 0.00000000
3.35522341 0.25683270 -0.00186489 0.00000000
2.23209804 1.30993038 -0.00117779 0.00000000
1.18419195 2.33774027 0.00022846 0.00000000
0.67660690 1.71735827 -0.00147655 0.00000000
1.64926148 0.63489579 -0.00447052 0.00000000
1.35856723 2.35314829 -0.00463543 0.00000000
4.58135459 1.48693737 0.00244332 0.00000000
0.40353999 0.54112529 -0.00167282 0.00000000
4.56639111 0.71869596 0.00719082 0.00000000
0.29275053 2.27183419 -0.00072207 0.00000000
1.29656724 2.00509693 -0.00190181 0.00000000
3.23084815 0.70940305 -0.00051331 0.00000000
1.08543977 0.88365271 0.00263076 0.00000000
0.63288675 0.10512540 -0.00325079 0.00000000
2.33482076 1.48181537 0.00163490 0.00000000
2.62358701 2.12119138 0.00010777 0.00000000
2.37591631 1.89776979 -0.00147701 0.00000000
0.11677281 0.95870816 -0.00318165 0.00000000
1.05515030 1.99766608 -0.00226939 0.00000000
4.59489729 0.23852117 -0.00083855 0.00000000
4.39499848 0.87825121 -0.00128831 0.00000000
4.00397472 1.69464033 0.00110486 0.00000000
4.83394076 1.71068534 -0.00345685 0.00000000
4.04554696 1.05136008 0.00136396 0.00000000
3.61852985 2.21902665 -0.00253620 0.00000000
1.26572915 0.31055392 -0.00044038 0.00000000
1.23934638 2.02556139 0.00249740 0.00000000
3.61859943 1.62647670 -0.00230381 0.00000000
2.92270234 1.85527567 0.00475959 0.00000000
0.86047396 0.94944499 -0.00097279 0.00000000
2.18911302 1.31708818 0.00212984 0.00000000
4.28356135 1.75189278 -0.00283938 0.00000000
1.82842555 0.34592357 0.00478425 0.00000000
2.11734069 1.33900254 -0.00074157 0.00000000
4.41395132 2.13180943 0.00579956 0.00000000
2.15725895 0.92981818 -0.00175105 0.00000000
3.23395838 0.63761434 0.00189125 0.00000000
1.45810864 0.66967916 0.00196103 0.00000000
1.86132367 0.35128270 0.00056071 0.00000000
0.45132153 1.45494292 -0.00494964 0.00000000
1.18434025 1.05469668 -0.00087180 0.00000000
4.36900219 1.23408889 0.00191160 0.00000000
1.32087345 1.41009417 -0.00419826 0.00000000
3.79691060 0.17530280 -0.00495300 0.00000000
2.16896184 2.12253677 -0.00094541 0.00000000
4.72675758 1.26487864 -0.00604705 0.00000000
3.95679156 1.11032186 0.00148791 0.00000000
1.93904113 1.96849057 0.00032476 0.00000000
3.51648901 0.56989344 0.00225134 0.00000000
0.99352851 0.99995883 0.00098260 0.00000000
3.24314391 1.28382769 0.00038482 0.00000000
1.23104129 0.41382199 -0.00381912 0.00000000
1.79000296 2.25360462 -0.00260103 0.00000000
0.79207033 0.81513497 0.00502797 0.00000000
3.69086067 0.26788207 0.00060968 0.00000000
2.84792644 1.49238185 -0.00056134 0.00000000
0.43131569 0.19266793 -0.00443744 0.00000000
4.73169903 0.46625130 0.00124184 0.00000000
1.33919145 0.46678107 0.00182666 0.00000000
1.10623655 0.57625623 -0.00281993 0.00000000
3.07526551 0.57294380 0.00078201 0.00000000
3.90758690 0.67813340 -0.00208183 0.00000000
2.13760717 0.45874322 0.00041416 0.00000000
4.08598705 0.28484618 -0.00110384 0.00000000
4.63451242 0.79238559 0.00313895 0.00000000
3.77262743 1.38529205 0.00100998 0.00000000
3.78285566 1.25187916 -0.00135721 0.00000000
3.35916307 0.68755451 -0.00442006 0.00000000
3.02893464 1.04085806 -0.00014888 0.00000000
2.59346769 2.06374157 -0.00291072 0.00000000
1.15192079 0.06616025 -0.00043016 0.00000000
3.47753024 0.48527849 -0.00294726 0.00000000
3.25489000 0.50461527 -0.00347646 0.00000000
1.92747001 1.00857823 0.00038848 0.00000000
3.63062884 1.11360403 -0.00509002 0.00000000
2.79067554 0.44605786 0.00107745 0.00000000
4.47674726 0.50301242 0.00005424 0.00000000
0.98167914 2.02004044 0.00139567 0.00000000
4.43041398 1.74147574 0.00093549 0.00000000
0.70485883 0.55742700 0.00245398 0.00000000
2.03924823 0.84971783 -0.00166339 0.00000000
3.20788780 0.38535816 -0.00002442 0.00000000
0.27373652 0.95202911 -0.00109960 0.00000000
0.74788663 1.79396067 -0.00046389 0.00000000
0.11802973 0.13129695 0.00451339 0.00000000
4.85951774 2.32596456 0.00041888 0.00000000
3.47153119 0.94229471 0.00225412 0.00000000
1.98119434 0.94748786 0.00110973 0.00000000
4.80472550 0.21913675 -0.00091558 0.00000000
0.53390119 0.50947618 -0.00255185 0.00000000
2.11344612 1.89316108 0.00058258 0.00000000
1.25540658 1.31523248 0.00262827 0.00000000
3.18968010 1.19823808 0.00068176 0.00000000
2.59788029 0.55364951 -0.00310930 0.00000000
2.51913910 2.34695655 -0.00334844 0.00000000
1.05760126 1.13753354 -0.00177150 0.00000000
3.78479333 0.35807476 0.00047496 0.00000000
4.45569133 0.92396832 0.00095703 0.00000000
1.21382095 2.13544828 -0.00187206 0.00000000
0.89352881 0.50885709 0.00296162 0.00000000
1.96887814 0.74386431 0.00081418 0.00000000
1.32561965 1.95658398 -0.00042519 0.00000000
2.65006706 2.09802102 0.00003385 0.00000000
4.37339499 1.57520031 0.00109587 0.00000000
3.60621340 0.40596342 0.00249843 0.00000000
4.02948025 0.61090984 0.00373616 0.00000000
3.92626811 2.33390628 0.00091227 0.00000000
3.12298673 0.88111856 0.00344780 0.00000000
1.43233968 0.64014301 -0.00291049 0.00000000
1.85281983 0.41327910 -0.00006594 0.00000000
1.03926568 1.52066139 -0.00196207 0.00000000
0.80403481 1.65163479 0.00162385 0.00000000
4.36064215 2.19102364 -0.00175979 0.00000000
0.69748838 0.36759770 0.00068035 0.00000000
3.97903900 1.66034421 0.00382734 0.00000000
0.25829187 1.86906593 0.00120685 0.00000000
2.77434029 1.19832074 0.00307154 0.00000000
2.65764295 1.41826274 -0.00174982 0.00000000
3.84084283 1.59850665 -0.00311720 0.00000000
4.81780322 2.30930493 0.00280582 0.00000000
4.48386168 0.64831528 0.00012138 0.00000000
4.54434731 2.01059209 -0.00052526 0.00000000
0.51016114 2.00824111 0.00005527 0.00000000
0.92237206 1.19118019 -0.00649604 0.00000000
2.77837000 0.50875365 -0.00056574 0.00000000
2.57885795 1.59362884 -0.00099213 0.00000000
4.18209322 1.54369709 0.00145183 0.00000000
4.19979052 0.47541472 -0.00185204 0.00000000
2.54207544 0.23015301 -0.00346315 0.00000000
2.81927531 1.17814956 0.00235238 0.00000000
1.61307909 0.35601049 -0.00184365 0.00000000
0.83826432 1.96934602 -0.00001037 0.00000000
3.31598505 1.88123917 -0.00097275 0.00000000
3.10349793 2.00885225 0.00103947 0.00000000
3.09569994 0.72173063 -0.00302070 0.00000000
0.51741046 2.10175461 0.00050877 0.00000000
3.12676368 1.32573102 0.00090260 0.00000000
3.26150235 1.11634784 0.00033213 0.00000000
0.59323298 0.96151538 0.00016623 0.00000000
3.64822586 0.01930160 -0.00141896 0.00000000
0.27351563 0.01522245 -0.00002177 0.00000000
2.22925751 1.74405306 -0.00647594 0.00000000
3.49290393 1.77529387 -0.00286394 0.00000000
4.23931508 0.59080216 -0.00099709 0.00000000
2.56911386 1.26648589 -0.00130566 0.00000000
0.87462990 1.88574203 -0.00017929 0.00000000
1.96464241 1.27502941 -0.00008194 0.00000000
2.83141087 2.02230509 0.00066895 0.00000000
2.31921143 1.95643920 0.00139117 0.00000000
0.87768932 0.21504991 -0.00301308 0.00000000
1.50379309 1.34299692 0.00102056 0.00000000
3.29003208 0.04126126 -0.00400958 0.00000000
1.13671185 1.59023082 -0.00172493 0.00000000
1.02119928 0.96198435 -0.00155921 0.00000000
2.56540747 2.09318796 0.00052452 0.00000000
0.07334656 0.27668136 0.00155361 0.00000000
1.90536810 0.77457839 -0.00262624 0.00000000
2.97887413 1.34914621 -0.00037662 0.00000000
2.11624839 0.82085420 0.00276693 0.00000000
1.02602267 0.74103937 -0.00153887 0.00000000
4.21836810 2.26579443 -0.00414173 0.00000000
0.17245522 0.45136898 -0.00049123 0.00000000
2.12916638 1.69390933 0.00260438 0.00000000
2.06606356 0.69575823 -0.00162187 0.00000000
4.59836127 1.53844567 0.00230286 0.00000000
4.30631449 1.37810863 0.00319263 0.00000000
2.13551705 1.48049074 0.00104456 0.00000000
1.69027182 0.55074619 0.00037161 0.00000000
1.23073244 0.21821583 0.00112716 0.00000000
2.37171133 0.72331712 -0.00030861 0.00000000
4.41016550 2.33548721 0.00299502 0.00000000
0.21601038 0.85443723 -0.00449831 0.00000000
1.61864596 2.08905332 0.00012222 0.00000000
4.72420334 1.62688551 0.00128695 0.00000000
2.81626241 0.13623285 0.00128275 0.00000000
1.94719992 0.92195770 0.00153264 0.00000000
4.21773794 0.20034856 0.00237085 0.00000000
3.60450135 0.19457920 -0.00000054 0.00000000
2.93018655 0.38252481 -0.00165483 0.00000000
4.07619305 1.32229257 -0.00076628 0.00000000
1.44623496 0.79861878 0.00257160 0.00000000
2.94876880 1.92269273 -0.00119850 0.00000000
2.64819342 2.06220678 -0.00386631 0.00000000
1.08056343 1.30763648 -0.00059111 0.00000000
1.61568820 2.17962459 0.00192903 0.00000000
3.46024611 2.07741173 -0.00121923 0.00000000
1.06893581 0.93304189 -0.00083923 0.00000000
3.89178295 1.31965991 0.00243415 0.00000000
3.32858962 1.29660904 -0.00498540 0.00000000
1.80384597 0.12838906 0.00212195 0.00000000
3.04045012 2.09520269 -0.00372005 0.00000000
3.78720750 1.29408522 0.00304742 0.00000000
0.40990426 0.75238934 0.00033141 0.00000000
2.92042531 2.38608537 -0.00309110 0.00000000
3.66439961 1.24511227 -0.00238577 0.00000000
0.91026076 1.87069775 -0.00200811 0.00000000
4.51631725 0.66897141 0.00257616 0.00000000
1.34424979 1.73747812 0.00106531 0.00000000
1.69619893 1.66300484 -0.00437860 0.00000000
1.45626869 1.09379797 -0.00308724 0.00000000
0.26105453 1.94931153 -0.00341430 0.00000000
3.18648392 0.75519438 0.00107325 0.00000000
2.40216746 1.51325536 -0.00250055 0.00000000
0.90967430 1.83571738 0.00310132 0.00000000
1.59218468 1.65663270 -0.00136145 0.00000000
3.04280682 0.81320965 0.00239682 0.00000000
3.29938783 0.06452234 0.00455033 0.00000000
1.34048583 1.02097943 -0.00386525 0.00000000
3.53931789 1.04157630 0.00115367 0.00000000
0.72324839 2.22075202 0.00293277 0.00000000
3.16456546 2.08908955 0.00033571 0.00000000
1.87409496 0.76198520 0.00148019 0.00000000
1.44618539 0.95398051 0.00132629 0.00000000
1.18531100 1.38928182 -0.00010480 0.00000000
0.24770098 1.25304792 -0.00091226 0.00000000
2.82948669 2.01677323 0.00094421 0.00000000
1.15744823 2.14720810 -0.00460291 0.00000000
4.21478248 1.53854334 0.00249543 0.00000000
2.16876996 1.70098564 -0.00336546 0.00000000
3.07854937 0.98455140 -0.00061544 0.00000000
4.78660643 0.20163163 0.00249730 0.00000000
1.21175992 1.30539873 0.00069986 0.00000000
2.03334430 0.66206154 -0.00002283 0.00000000
3.85765614 1.30529027 -0.00215737 0.00000000
0.95185514 2.35658084 -0.00237420 0.00000000
1.00672140 0.73963189 0.00678427 0.00000000
3.70852361 1.23511722 0.00238294 0.00000000
2.29510472 0.29941147 0.00217040 0.00000000
2.64239306 1.41950241 0.00514139 0.00000000
1.70343486 0.24445071 -0.00189391 0.00000000
2.87846147 0.70573372 0.00051009 0.00000000
3.98128795 1.51185467 0.00242129 0.00000000
4.80236918 0.09578220 -0.00053887 0.00000000
3.27185082 0.32413507 0.00035844 0.00000000
4.24248226 1.01716949 -0.00081627 0.00000000
1.17032940 0.01483769 0.00375715 0.00000000
3.50288269 0.07407348 -0.00081347 0.00000000
3.23470237 1.95586719 0.00090407 0.00000000
4.03713026 0.40380107 0.00038955 0.00000000
1.48882428 2.12884931 -0.00357804 0.00000000
4.77856506 0.70862569 -0.00115440 0.00000000
1.67414836 1.92189958 0.00296933 0.00000000
3.02514698 1.83241874 0.00134317 0.00000000
2.04920009 2.20787709 0.00370376 0.00000000
2.33082397 2.10055966 -0.00323635 0.00000000
0.98557783 1.98103846 -0.00190656 0.00000000
3.81733728 1.92160995 -0.00156826 0.00000000
3.01369550 1.61096470 -0.00126427 0.00000000
2.79615685 0.16147407 0.00089987 0.00000000
1.34971526 0.36728129 0.00390129 0.00000000
4.20491749 0.66685218 -0.00537129 0.00000000
4.20327499 1.04209964 0.00147934 0.00000000
1.09396607 0.98525624 -0.00538541 0.00000000
0.57965595 0.32729960 0.00010436 0.00000000
3.97463281 2.11894891 -0.00098532 0.00000000
1.92109560 0.79507938 -0.00298760 0.00000000
0.68194762 0.92749412 0.00241521 0.00000000
2.98263628 1.01026588 -0.00070661 0.00000000
0.01261106 1.84497894 -0.00282079 0.00000000
1.90268004 1.68519236 -0.00489816 0.00000000
2.13655465 1.75676526 -0.00264269 0.00000000
0.37233504 1.00636238 -0.00030334 0.00000000
3.54425762 0.98913365 -0.00330655 0.00000000
0.28654711 1.28211254 0.00143116 0.00000000
1.55595925 0.02051806 0.00352244 0.00000000
0.88810251 0.18041087 0.00092538 0.00000000
1.74020578 0.24361897 -0.00103452 0.00000000
4.13359619 1.69212923 -0.00189988 0.00000000
1.33150182 2.00922797 0.00292271 0.00000000
0.66143929 0.43007704 -0.00065387 0.00000000
4.84146937 1.74933300 0.00065228 0.00000000
0.04514446 0.86140923 -0.00158864 0.00000000
3.63389858 2.21986059 -0.00138798 0.00000000
4.50839898 1.65749279 -0.00632067 0.00000000
1.64899607 0.66031222 -0.00335878 0.00000000
2.98962355 2.18244594 0.00074241 0.00000000
3.52302798 1.06838060 0.00274782 0.00000000
1.23132488 1.62522539 0.00793394 0.00000000
0.89570768 0.93470941 -0.00021581 0.00000000
4.82576535 1.99129788 -0.00195179 0.00000000
4.41753971 0.41609246 0.00056414 0.00000000
3.81624227 0.96986233 0.00276048 0.00000000
0.65621915 2.34107693 0.00380429 0.00000000
3.06965707 1.99756982 0.00342746 0.00000000
3.16208507 0.08504648 -0.00083623 0.00000000
0.73019135 0.90188972 0.00099587 0.00000000
3.77605559 2.36456153 0.00239897 0.00000000
0.26706554 1.18736184 0.00011078 0.00000000
2.35286732 1.65271369 -0.00181487 0.00000000
4.14116507 1.52650998 -0.00170301 0.00000000
2.23198121 2.26188098 0.00333928 0.00000000
0.48132358 1.45970543 -0.00282171 0.00000000
4.77969200 1.81318591 -0.00012391 0.00000000
1.63923862 2.17879771 -0.00046960 0.00000000
2.97272977 1.12184197 -0.00026069 0.00000000
2.23856277 1.77225366 0.00129321 0.00000000
0.79299118 1.64787109 -0.00201003 0.00000000
2.15002182 1.18012590 0.00002542 0.00000000
1.16298850 1.85516078 -0.00304734 0.00000000
1.64835157 0.70006062 0.00005123 0.00000000
1.80179496 0.58684569 -0.00054719 0.00000000
3.51040537 0.13271827 0.00089447 0.00000000
0.82460705 1.77207186 -0.00121208 0.00000000
0.67563045 0.72399259 0.00205913 0.00000000
0.51471260 0.93804481 -0.00217751 0.00000000
3.57633764 1.57898230 0.00183076 0.00000000
0.91916508 0.87200455 -0.00054020 0.00000000
3.82441352 0.53721091 0.00173542 0.00000000
4.45963399 2.07365611 -0.00333801 0.00000000
1.65221463 1.53540011 -0.00134339 0.00000000
4.15061147 0.59021315 0.00068458 0.00000000
2.89200622 0.92734825 -0.00110513 0.00000000
0.14890116 1.23739127 0.00448839 0.00000000
4.06814294 0.10126710 0.00238450 0.00000000
1.83459356 1.55103311 -0.00050012 0.00000000
4.03597113 0.01231103 0.00057394 0.00000000
0.03168767 0.33437798 0.00307800 0.00000000
0.97611017 0.80137303 0.00077193 0.00000000
0.59482058 1.80128114 -0.00079872 0.00000000
4.78808510 1.83182268 -0.00121698 0.00000000
2.26662070 1.88861099 -0.00129140 0.00000000
1.21120043 2.11477350 0.00041558 0.00000000
0.23619979 0.23316700 0.00053681 0.00000000
2.72624125 1.60573394 0.00022128 0.00000000
3.15199511 1.74857105 0.00068668 0.00000000
0.13574839 1.51042243 -0.00355444 0.00000000
3.18188858 2.19480907 -0.00091812 0.00000000
0.51291326 1.17679192 -0.00072868 0.00000000
4.69159849 2.27117645 0.00341968 0.00000000
0.67603626 2.37198491 -0.00316309 0.00000000
4.78398383 2.34236146 -0.00040727 0.00000000
0.72389935 1.83392945 0.00133664 0.00000000
3.78750809 1.51481860 0.00227255 0.00000000
2.72251456 1.53251257 -0.00354550 0.00000000
2.93977933 1.04769358 -0.00402635 0.00000000
2.43291813 2.38843432 0.00215800 0.00000000
0.45255609 1.11993367 0.00028052 0.00000000
3.09126219 1.08921575 0.00321449 0.00000000
3.01539842 2.36894035 0.00146659 0.00000000
1.76098918 1.62021927 0.00007218 0.00000000
0.82471681 1.78851376 -0.00352240 0.00000000
0.31418390 1.87004271 0.00423011 0.00000000
3.28492953 2.24039366 -0.00052232 0.00000000
4.29188954 0.06429734 0.00496486 0.00000000
0.73887431 0.54642075 0.00399605 0.00000000
0.43003758 1.19733262 0.00006473 0.00000000
3.79093567 0.30625430 0.00346917 0.00000000
2.81611580 0.91011447 0.00417780 0.00000000
4.12659527 0.42611865 -0.00180249 0.00000000
4.21931553 1.87159102 0.00192539 0.00000000
2.03568678 1.69982848 0.00086628 0.00000000
4.41926603 1.11650091 -0.00134899 0.00000000
1.41969772 2.08837142 -0.00408248 0.00000000
3.89496682 0.44850031 -0.00414475 0.00000000
0.04876494 0.98421194 0.00005567 0.00000000
2.61978631 0.77327092 0.00439564 0.00000000
4.80886545 0.75840291 -0.00357939 0.00000000
3.26143582 1.42853048 0.00081290 0.00000000
2.45028609 0.01007116 0.00183254 0.00000000
4.68329271 1.06261505 -0.00207966 0.00000000
1.23355355 0.52719171 -0.00149035 0.00000000
3.09416104 2.18012404 -0.00127600 0.00000000
0.89973110 1.15375905 -0.00349392 0.00000000
3.13426209 0.16229488 -0.00305859 0.00000000
0.84356530 0.62868866 -0.00247364 0.00000000
2.73950607 0.11938979 -0.00140826 0.00000000
1.65033638 0.37560629 -0.00288487 0.00000000
1.96133788 1.89722889 0.00400258 0.00000000
1.48234417 1.63847475 0.00050772 0.00000000
1.55066381 2.04667175 0.00017051 0.00000000
4.43788589 1.28092432 -0.00090726 0.00000000
3.54186047 0.07942091 0.00054527 0.00000000
4.59467292 2.32547095 -0.00131290 0.00000000
2.84420930 0.95834438 0.00115866 0.00000000
3.61366291 0.36987667 -0.00314492 0.00000000
1.28879977 2.35097888 -0.00104652 0.00000000
3.99678607 2.28353170 -0.00340421 0.00000000
2.92903511 0.21955276 0.00021490 0.00000000
1.64239860 0.94912936 -0.00249313 0.00000000
4.41191986 0.69323990 0.00170949 0.00000000
3.09712710 0.17243388 -0.00108959 0.00000000
1.24485591 1.36354152 0.00384897 0.00000000
1.74264654 2.01498844 -0.00073315 0.00000000
3.78709072 1.31257205 -0.00074362 0.00000000
1.11484425 0.83487610 -0.00073035 0.00000000
2.02286760 0.64488870 -0.00073008 0.00000000
2.12420046 1.34446652 0.00050632 0.00000000
1.39107814 0.88578193 0.00172199 0.00000000
1.23882932 1.14728822 0.00249857 0.00000000
4.70488241 1.45780916 -0.00040289 0.00000000
4.63009553 2.30557081 0.00207171 0.00000000
3.66127612 1.18482942 -0.00016269 0.00000000
3.79181842 2.09050833 0.00045008 0.00000000
3.20319037 1.01474907 -0.00135040 0.00000000
2.03535834 0.81780414 -0.00101927 0.00000000
1.04722036 2.13257592 0.00395044 0.00000000
4.69742077 1.13538889 -0.00044684 0.00000000
0.79075686 0.72621575 -0.00534214 0.00000000
0.75634896 1.18825538 0.00433945 0.00000000
0.68285477 2.31636749 0.00243405 0.00000000
1.97731830 1.35912771 0.00364747 0.00000000
2.77515360 1.56547935 -0.00083775 0.00000000
2.06969905 1.72006192 0.00103183 0.00000000
1.25188214 2.34664459 -0.00444392 0.00000000
4.61665449 1.12489012 -0.00255963 0.00000000
1.65043455 0.27262078 0.00244615 0.00000000
3.63506385 2.00750321 0.00074198 0.00000000
0.29759553 0.02250979 0.00091397 0.00000000
4.86375333 0.91096356 -0.00266242 0.00000000
0.97395661 0.85529977 0.00166994 0.00000000
2.05218059 1.67771429 0.00260038 0.00000000
0.74539919 1.67409634 0.00287757 0.00000000
0.08605474 0.35076415 0.00213619 0.00000000
3.59980466 0.38512922 -0.00019210 0.00000000
4.18970479 0.98257647 0.00452932 0.00000000
2.18341223 2.31500191 0.00155719 0.00000000
2.95293736 0.23642717 0.00024190 0.00000000
1.43145389 1.26629781 -0.00261441 0.00000000
4.48542434 1.16031639 -0.00263747 0.00000000
2.91108650 1.92522763 0.00114554 0.00000000
0.10479915 0.94659006 0.00587360 0.00000000
3.01292845 0.52625230 0.00518692 0.00000000
2.01555746 1.72813407 0.00030931 0.00000000
2.96029614 0.58174540 -0.00424759 0.00000000
4.68015504 0.02668837 -0.00294381 0.00000000
4.08659508 1.66430712 0.00159567 0.00000000
3.52063910 1.74209785 -0.00276246 0.00000000
3.98057785 0.66119532 -0.00010443 0.00000000
4.01637222 0.49965579 0.00096831 0.00000000
2.81301125 2.05915893 -0.00653630 0.00000000
3.99843062 0.94930626 0.00197322 0.00000000
0.97451380 2.06255033 0.00109694 0.00000000
1.99231008 0.17241091 -0.00357428 0.00000000
4.83906126 1.44090588 -0.00153509 0.00000000
0.53632989 1.48510479 -0.00196433 0.00000000
4.13982943 1.46313667 0.00155722 0.00000000
1.27219258 1.20239184 -0.00333088 0.00000000
3.12424390 0.72762049 0.00372982 0.00000000
3.81571690 1.59058880 0.00364112 0.00000000
2.74237679 0.82043462 0.00185181 0.00000000
0.12148037 0.43385153 0.00720829 0.00000000
1.64919258 1.48009119 0.00329304 0.00000000
1.88945184 0.58668497 -0.00421706 0.00000000
1.93607460 0.94563100 -0.00163008 0.00000000
2.40646992 0.49842113 -0.00227477 0.00000000
3.44187067 0.80874658 0.00021905 0.00000000
2.44065234 1.82035153 0.00087987 0.00000000
1.91593598 0.98530249 -0.00093007 0.00000000
3.14588543 0.92343660 0.00253788 0.00000000
3.81027920 0.67488543 -0.00051421 0.00000000
1.66024848 2.18862226 -0.00069815 0.00000000
1.28652820 0.25228878 0.00202734 0.00000000
4.78446208 1.35339159 -0.00192626 0.00000000
4.09697189 2.25648259 -0.00143977 0.00000000
2.34409061 1.54434827 -0.00291596 0.00000000
4.59248487 1.47742035 -0.00117053 0.00000000
3.68947084 1.85386393 -0.00254858 0.00000000
2.07720974 0.42990075 0.00187643 0.00000000
4.86718439 1.53400727 0.00034051 0.00000000
2.34751687 2.20013033 0.00589555 0.00000000
0.59405698 0.55510200 -0.00276368 0.00000000
0.81519990 1.44111053 -0.00319088 0.00000000
0.89527424 1.56126233 0.00424078 0.00000000
3.42214364 1.53868117 -0.00162297 0.00000000
0.52215915 1.83317649 0.00076106 0.00000000
2.57167724 0.88280228 0.00226362 0.00000000
2.77698616 1.84302023 -0.00034055 0.00000000
3.92922884 1.19745734 -0.00035263 0.00000000
2.07820413 2.29130954 0.00542291 0.00000000
1.26050042 1.80245682 0.00495079 0.00000000
1.08030822 0.53043850 -0.00077116 0.00000000
1.31414512 0.78197465 0.00447431 0.00000000
3.80291194 2.05177311 -0.00413737 0.00000000
2.06405678 1.97519159 -0.00384406 0.00000000
4.07072057 0.77445733 0.00133566 0.00000000
3.13633930 0.81210747 -0.00233836 0.00000000
2.75121418 0.59207582 0.00306888 0.00000000
0.80906116 1.07361030 -0.00073571 0.00000000
2.87704409 1.11209497 -0.00080281 0.00000000
2.15692654 2.33666765 0.00101005 0.00000000
2.50148092 2.17020436 0.00482264 0.00000000
4.02465179 1.92853136 0.00010600 0.00000000
2.69894519 1.96002695 0.00169846 0.00000000
1.14603926 2.17279682 -0.00278222 0.00000000
0.04693543 1.28673733 -0.00305424 0.00000000
0.94778507 1.05201146 -0.00094961 0.00000000
0.81212017 1.14529825 -0.00379058 0.00000000
1.68267714 0.17673932 0.00064545 0.00000000
1.30639830 2.27388063 0.00057129 0.00000000
0.86051424 2.33526407 -0.00103934 0.00000000
1.27965970 0.24481897 0.00009499 0.00000000
4.24212376 1.98669722 -0.00141342 0.00000000
4.63409120 1.07297000 -0.00161507 0.00000000
0.30931724 0.82451378 -0.00094642 0.00000000
4.61596754 1.17098465 -0.00080342 0.00000000
0.69942525 1.20361023 -0.00075127 0.00000000
2.77909061 1.04137608 -0.00135485 0.00000000
0.05446578 0.52924109 -0.00410574 0.00000000
4.12510769 0.38602164 0.00119306 0.00000000
0.63210473 2.22660913 0.00010152 0.00000000
4.12163222 0.26340813 -0.00271209 0.00000000
0.23802781 0.98042633 -0.00174936 0.00000000
0.67748031 0.31680257 0.00379345 0.00000000
3.80857769 1.24717719 -0.00141287 0.00000000
3.75156484 1.74612779 0.00028584 0.00000000
3.55463883 1.17944248 -0.00043587 0.00000000
1.27863742 0.62972520 0.00010985 0.00000000
3.49172087 0.99701309 0.00091817 0.00000000
4.41450847 1.39954560 0.00571673 0.00000000
1.44344853 1.95206742 0.00053019 0.00000000
0.54593909 0.62340352 -0.00478321 0.00000000
0.72309055 2.38920203 0.00161738 0.00000000
0.87268538 1.13352012 0.00088092 0.00000000
0.32205151 1.36367469 0.00242250 0.00000000
3.78871051 1.10429722 -0.00046996 0.00000000
1.48983884 0.61733967 -0.00138568 0.00000000
3.90473123 0.19350651 0.00278741 0.00000000
4.50453618 1.55226260 -0.00400885 0.00000000
4.08467497 1.55171135 -0.00038960 0.00000000
0.58418375 1.32903592 -0.00123069 0.00000000
2.78066085 2.39115698 -0.00558308 0.00000000
1.62503695 0.54837084 -0.00054431 0.00000000
1.95671711 0.91665128 -0.00048426 0.00000000
2.51108525 2.19371329 0.00007273 0.00000000
0.91534677 0.69383475 0.00136419 0.00000000
0.30860067 1.28821056 0.00114163 0.00000000
3.55573954 1.49316580 -0.00236634 0.00000000
3.51538446 1.27345530 -0.00149906 0.00000000
4.10309796 1.93535187 0.00212854 0.00000000
1.77734225 1.90526202 -0.00016368 0.00000000
1.87107878 2.12925733 0.00199895 0.00000000
3.60329054 0.44642383 0.00249451 0.00000000
4.08586908 1.16195257 0.00083954 0.00000000
3.65716768 2.18586939 0.00086034 0.00000000
0.55796686 1.97793839 0.00482980 0.00000000
2.67426260 1.47021419 0.00079137 0.00000000
1.75816044 1.19179707 0.00094070 0.00000000
1.76090958 0.84260001 0.00198634 0.00000000
4.62368918 0.18891835 -0.00555176 0.00000000
0.15714474 1.88666080 0.00531737 0.00000000
4.11573848 2.17471311 -0.00382529 0.00000000
1.81302140 1.39111824 0.00274575 0.00000000
3.36356186 0.59081394 -0.00341392 0.00000000
0.30610777 0.95623040 -0.00240040 0.00000000
1.54269302 1.94991217 -0.00477059 0.00000000
0.24771589 0.73722601 -0.00316863 0.00000000
2.57229055 1.36393170 0.00141737 0.00000000
1.28019237 1.79777063 -0.00284262 0.00000000
2.00121435 1.21649793 -0.00261952 0.00000000
1.07373892 1.79699807 -0.00165745 0.00000000
2.96904905 1.32458672 -0.00388271 0.00000000
4.23110316 2.28038808 -0.00336909 0.00000000
2.83757858 1.26217460 0.00140812 0.00000000
3.73098455 0.21713660 0.00156178 0.00000000
0.04358013 2.07055263 -0.00461849 0.00000000
0.54215648 1.67155784 0.00075014 0.00000000
1.20417559 0.14549048 0.00204743 0.00000000
3.71086065 0.84304788 -0.00069785 0.00000000
4.75449660 2.35318889 -0.00249116 0.00000000
1.43647264 1.29425565 0.00065658 0.00000000
1.57733655 1.54295686 -0.00356803 0.00000000
4.56985802 1.02546674 -0.00549324 0.00000000
4.68338064 0.08994454 -0.00354007 0.00000000
2.45359181 1.42612514 0.00103810 0.00000000
0.67468590 0.04067086 0.00086204 0.00000000
3.55734992 1.55402755 0.00114117 0.00000000
0.80366236 1.87160664 0.00128496 0.00000000
3.74309926 1.79982151 0.00107861 0.00000000
2.54050908 1.88671472 -0.00255356 0.00000000
3.84270955 1.46302443 -0.00024816 0.00000000
4.74054699 0.78280968 0.00291844 0.00000000
3.57771611 1.43041213 -0.00116060 0.00000000
2.26331808 2.37979406 0.00581260 0.00000000
4.58914464 2.35448030 0.00403882 0.00000000
4.06609809 1.34623354 0.00217838 0.00000000
0.96554378 1.53592064 0.00311066 0.00000000
2.60560080 1.86684388 -0.00695301 0.00000000
3.50889066 1.72844087 0.00100625 0.00000000
3.14621349 0.90587712 -0.00203560 0.00000000
2.14098094 0.65857878 -0.00197045 0.00000000
0.81782333 0.01766595 -0.00223922 0.00000000
3.91135323 0.77227335 -0.00317194 0.00000000
2.47524150 0.35901963 -0.00237468 0.00000000
2.11769641 0.32940712 -0.00168521 0.00000000
4.03711103 2.05528937 0.00016310 0.00000000
3.48736221 1.58807528 0.00004419 0.00000000
0.10550977 0.20008793 -0.00121109 0.00000000
2.09840758 1.64183975 0.00215980 0.00000000
3.43300574 1.65220145 -0.00122078 0.00000000
1.40527981 1.32911123 0.00682332 0.00000000
4.45839151 1.18876496 -0.00151677 0.00000000
0.85563167 2.00140018 -0.00032808 0.00000000
1.19876873 0.45851576 0.00231487 0.00000000
2.15123003 0.74841333 -0.00038174 0.00000000
3.77355230 0.15370019 0.00081845 0.00000000
0.20905483 1.67741296 0.00246912 0.00000000
3.41767195 2.03923145 0.00122530 0.00000000
3.14534130 1.54415042 0.00503617 0.00000000
0.61715760 2.38664388 -0.00601282 0.00000000
3.75765784 1.24431631 0.00037374 0.00000000
0.32836223 2.07905158 -0.00263625 0.00000000
3.79687834 0.37118284 0.00383072 0.00000000
2.27577136 1.80277521 -0.00348573 0.00000000
0.92880724 1.26125245 0.00039241 0.00000000
3.31382592 0.51441304 -0.00211932 0.00000000
2.15691185 1.71739840 0.00176167 0.00000000
1.35043339 0.98559992 0.00351061 0.00000000
2.78420444 1.26633342 -0.00128096 0.00000000
4.05130682 1.10982169 0.00280268 0.00000000
1.96906855 1.70483292 -0.00135074 0.00000000
0.09370555 2.11276354 -0.00218655 0.00000000
0.82543873 1.69643933 -0.00338385 0.00000000
2.21708612 0.53652513 0.00284534 0.00000000
0.42451922 1.28924971 0.00234282 0.00000000
1.12662608 1.35271798 0.00022798 0.00000000
3.35102008 2.36580073 -0.00280658 0.00000000
4.18570006 0.75872128 0.00192800 0.00000000
4.17741772 2.30540324 -0.00014168 0.00000000
3.51848512 2.37629611 -0.00257955 0.00000000
1.94335729 0.00426757 -0.00064514 0.00000000
3.33369355 2.04462091 -0.00097291 0.00000000
2.94731137 1.69655099 0.00051842 0.00000000
3.81178989 0.66161960 0.00306768 0.00000000
3.50602183 0.72142569 0.00293731 0.00000000
2.85116843 0.50931301 0.00090616 0.00000000
3.05067868 1.06564510 -0.00338779 0.00000000
4.05768634 2.23491247 0.00091635 0.00000000
3.31862502 1.77120228 0.00129627 0.00000000
2.49421150 1.30475466 -0.00133667 0.00000000
4.06119021 2.10419692 0.00094205 0.00000000
1.74588880 1.38643769 -0.00113264 0.00000000
1.66959150 2.37899762 -0.00302618 0.00000000
3.31028941 1.31239121 0.00160458 0.00000000
3.07497137 1.33353639 -0.00386422 0.00000000
1.16310566 1.03778793 -0.00049517 0.00000000
0.98097471 2.12758415 -0.00369264 0.00000000
2.30566842 2.38900337 -0.00006999 0.00000000
1.57311222 1.30781935 -0.00426748 0.00000000
1.57123039 0.10530870 0.00266415 0.00000000
2.55507332 1.21941923 -0.00079550 0.00000000
4.77762611 1.58335018 -0.00042582 0.00000000
3.02234053 0.49927585 -0.00056070 0.00000000
4.43404564 0.53514452 -0.00164256 0.00000000
3.78131671 1.75345645 0.00335898 0.00000000
0.12227370 1.74909490 -0.00131378 0.00000000
2.95920214 2.12833845 -0.00048264 0.00000000
2.46908502 2.34525475 0.00047718 0.00000000
1.76412152 0.36706163 -0.00588672 0.00000000
3.02277407 0.12696463 -0.00514723 0.00000000
4.33712408 1.61606408 -0.00293508 0.00000000
3.25627742 1.97295363 0.00150219 0.00000000
4.43386066 1.61111688 0.00519137 0.00000000
2.96558590 0.48663324 0.00363498 0.00000000
4.10376121 0.02664416 0.00087406 0.00000000
3.55684754 0.64993724 0.00163505 0.00000000
1.88497162 1.80588318 -0.00139241 0.00000000
2.63431811 1.14555244 -0.00399761 0.00000000
2.31516263 1.39195345 -0.00181471 0.00000000
3.69133667 0.86355143 0.00399454 0.00000000
0.16800878 0.32989783 0.00265478 0.00000000
4.74859826 0.28134072 -0.00032826 0.00000000
3.37198930 2.12995405 0.00102509 0.00000000
3.15324459 1.07951820 0.00329109 0.00000000
2.97631862 1.87324578 0.00128490 0.00000000
2.22697166 2.35917250 -0.00188685 0.00000000
1.96065118 0.68001237 -0.00548503 0.00000000
2.47382920 1.90561649 0.00635795 0.00000000
1.88666751 0.50434549 -0.00006659 0.00000000
2.18121571 0.59399051 0.00312464 0.00000000
2.46746178 0.91843522 -0.00195244 0.00000000
1.52317003 1.04833636 -0.00136946 0.00000000
1.58330848 0.91521918 -0.00208527 0.00000000
1.32849138 0.47264335 0.00312294 0.00000000
2.16532120 1.90139669 0.00068409 0.00000000
0.83223323 0.96181724 0.00035325 0.00000000
0.83000802 0.24495829 0.00270100 0.00000000
3.73906708 1.77023842 -0.00078124 0.00000000
2.32332699 0.04639837 -0.00068738 0.00000000
0.89525041 0.14446479 0.00070465 0.00000000
4.83686028 1.65400055 0.00039583 0.00000000
0.97866539 0.15730260 -0.00044764 0.00000000
4.51673899 0.74011793 0.00369499 0.00000000
4.72382799 0.29745570 -0.00404223 0.00000000
1.34933745 0.88208866 0.00191203 0.00000000
3.51583436 0.67878274 -0.00018296 0.00000000
0.39181333 0.93725557 0.00219891 0.00000000
3.75305647 0.71692366 -0.00088128 0.00000000
1.28622303 1.92638356 -0.00204786 0.00000000
0.82315848 1.56566329 0.00147175 0.00000000
1.31539601 2.05649212 -0.00074757 0.00000000
1.36508184 0.08851446 -0.00181182 0.00000000
4.28911485 0.50141199 0.00003185 0.00000000
0.38699405 1.41658691 0.00141298 0.00000000
4.42673740 0.21496657 0.00570726 0.00000000
1.98165870 1.77965164 0.00141636 0.00000000
1.09136611 1.57856679 -0.00020057 0.00000000
4.11340010 0.71872542 -0.00036474 0.00000000
0.54424898 1.87433585 0.00188308 0.00000000
1.12264161 0.48426688 -0.00427848 0.00000000
1.29846749 0.60579349 0.00313369 0.00000000
0.48737561 0.85272808 -0.00092294 0.00000000
1.55224578 2.10185372 0.00072989 0.00000000
1.33950024 1.47014139 0.00309859 0.00000000
2.16914882 0.48749421 -0.00180313 0.00000000
1.19814945 1.78033325 0.00008376 0.00000000
2.71948171 0.63238526 0.00125005 0.00000000
1.08703320 1.79666638 -0.00186545 0.00000000
1.14152305 2.14989430 0.00188114 0.00000000
2.67290333 0.46020400 -0.00062748 0.00000000
0.95968065 0.39033894 0.00390013 0.00000000
0.58584530 0.58465071 0.00097621 0.00000000
2.04087303 0.17687981 0.00278672 0.00000000
3.19670758 1.62214584 0.00283458 0.00000000
0.37623092 1.15451526 0.00005418 0.00000000
0.12352489 2.35262444 0.00064422 0.00000000
0.66049680 1.30334080 0.00488136 0.00000000
2.04328435 1.89173997 -0.00000796 0.00000000
4.76853236 0.72455184 0.00294029 0.00000000
3.10655076 1.33458357 0.00079138 0.00000000
0.60467666 0.39110912 0.00070943 0.00000000
0.03158917 1.58228411 0.00366125 0.00000000
0.45078955 1.61793790 -0.00132823 0.00000000
1.73929083 2.03000604 -0.00143218 0.00000000
3.08435832 1.81712367 -0.00107907 0.00000000
2.97972116 1.01221172 0.00166323 0.00000000
4.58598166 2.07794343 -0.00040390 0.00000000
3.69394157 0.08703564 -0.00120987 0.00000000
1.02193095 0.04146239 0.00021258 0.00000000
2.02049696 1.06514660 -0.00122593 0.00000000
3.89750582 2.09707067 0.00004889 0.00000000
2.80664796 0.83973649 0.00001684 0.00000000
4.36981623 1.30404356 0.00475161 0.00000000
0.41846823 0.66945576 -0.00001875 0.00000000
0.22657122 1.97331221 -0.00466240 0.00000000
4.48814544 1.07058908 0.00396312 0.00000000
2.96331524 1.50172949 -0.00021595 0.00000000
0.02610837 2.39149116 -0.00224612 0.00000000
3.48013210 0.12896584 0.00119462 0.00000000
4.27303426 1.82744771 -0.00089625 0.00000000
2.79447279 2.13572787 0.00120850 0.00000000
4.21374565 1.66989056 0.00009189 0.00000000
1.71536003 2.33545134 -0.00374397 0.00000000
4.31158368 1.40134655 -0.00239115 0.00000000
4.43238467 0.03215268 0.00182379 0.00000000
4.39591301 1.46605961 0.00077462 0.00000000
0.57365835 1.74978790 -0.00423167 0.00000000
1.37859583 0.35864586 0.00273141 0.00000000
1.74967747 2.28027051 -0.00632594 0.00000000
2.28722279 1.94994433 0.00572619 0.00000000
4.47685737 0.51186378 0.00317165 0.00000000
0.41441852 1.63102105 0.00129481 0.00000000
2.59186815 2.04868485 -0.00453924 0.00000000
0.85200498 0.40741894 0.00081724 0.00000000
2.89817806 2.31337742 0.00069050 0.00000000
0.36934172 1.15776846 0.00101442 0.00000000
3.38547905 0.65732311 -0.00417291 0.00000000
1.10008689 1.88663485 0.00549789 0.00000000
4.28279657 0.93149561 -0.00273371 0.00000000
0.20237693 0.75232659 -0.00009545 0.00000000
2.55064310 0.42224526 -0.00079657 0.00000000
3.67839563 0.93386010 -0.00141216 0.00000000
0.97234632 1.07644687 -0.00177496 0.00000000
1.02273022 1.97671597 0.00254289 0.00000000
4.16801598 1.38900956 0.00255802 0.00000000
1.75491361 2.03755712 -0.00281036 0.00000000
3.69451884 1.07313783 0.00141723 0.00000000
0.23417138 1.64259086 0.00527399 0.00000000
0.31220697 0.40854093 -0.00018983 0.00000000
1.08804006 0.25088255 -0.00107600 0.00000000
0.00516062 0.11961958 0.00177744 0.00000000
2.77128377 1.71187297 -0.00062963 0.00000000
4.79085548 2.26796374 -0.00267663 0.00000000
4.09824210 1.30526532 -0.00117764 0.00000000
2.17083302 1.91721465 0.00092270 0.00000000
1.75379366 1.38962472 0.00307295 0.00000000
3.33058074 2.20678404 -0.00138822 0.00000000
1.27142077 2.09939849 -0.00209176 0.00000000
1.14682189 0.11722460 0.00093538 0.00000000
0.96106838 0.12202668 0.00319173 0.00000000
1.47684996 0.34930634 0.00333067 0.00000000
1.19813067 1.11618569 0.00226432 0.00000000
1.32517832 0.63111456 0.00094730 0.00000000
3.32924078 1.13323564 0.00051266 0.00000000
3.22944929 1.33485957 0.00194377 0.00000000
0.16679723 0.62477665 -0.00152820 0.00000000
4.37103421 0.74208999 -0.00256154 0.00000000
0.50536755 1.76080362 -0.00171901 0.00000000
2.90659129 0.46996700 -0.00055707 0.00000000
2.40284438 0.33863359 0.00509294 0.00000000
3.30743369 2.10793401 -0.00005826 0.00000000
3.24234194 0.51695002 -0.00021069 0.00000000
2.22443832 1.76422458 0.00106061 0.00000000
0.19892518 0.83875430 0.00014841 0.00000000
1.14012133 0.37710700 -0.00227990 0.00000000
0.16871590 1.52148617 0.00209813 0.00000000
3.25598843 1.67373957 -0.00199438 0.00000000
0.36295126 2.20970575 0.00098850 0.00000000
3.75369457 1.64776706 -0.00030188 0.00000000
1.86947350 1.59606013 -0.00315255 0.00000000
1.94439379 0.09209348 0.00383447 0.00000000
2.05007676 0.67082754 -0.00442558 0.00000000
2.60175308 1.97961393 0.00205907 0.00000000
4.76231950 1.07990931 -0.00194875 0.00000000
3.36150078 2.31577455 0.00335500 0.00000000
1.14850214 0.06780494 0.00113233 0.00000000
3.35096966 1.08097816 -0.00366215 0.00000000
4.78164805 1.37120022 -0.00277882 0.00000000
0.14846536 0.41421199 -0.00449541 0.00000000
2.81841767 1.95664835 0.00133197 0.00000000
1.37778791 0.24224378 -0.00198675 0.00000000
1.11688743 2.14234202 0.00192155 0.00000000
0.52318957 1.73360547 -0.00385659 0.00000000
3.26559972 2.13953890 0.00006101 0.00000000
4.20629479 0.46828087 -0.00173674 0.00000000
3.86310615 2.39242651 0.00093822 0.00000000
1.14073793 1.61162146 -0.00029371 0.00000000
0.83160507 1.37975267 0.00535241 0.00000000
2.67341333 0.15600094 0.00211388 0.00000000
4.04723780 2.27408159 0.00271980 0.00000000
1.25606302 0.16534061 0.00095541 0.00000000
4.82440043 1.72442837 0.00206757 0.00000000
3.34816572 0.76759285 0.00351845 0.00000000
0.81504250 2.34219866 0.00490779 0.00000000
3.42684586 1.50968768 0.00424609 0.00000000
4.11829395 1.72588949 0.00302018 0.00000000
3.90242423 0.02922266 -0.00038018 0.00000000
3.00375506 0.56793733 -0.00176190 0.00000000
4.16751313 1.92105643 0.00263452 0.00000000
1.66014986 1.01378745 -0.00143071 0.00000000
0.78284783 0.84593544 0.00371929 0.00000000
4.00503215 2.03221967 -0.00165887 0.00000000
1.50637856 2.23634571 0.00276365 0.00000000
2.76677328 1.99160800 0.00324807 0.00000000
2.12670454 0.31754961 -0.00115965 0.00000000
0.41301207 0.46092775 0.00085283 0.00000000
4.84290018 0.63659764 0.00001904 0.00000000
2.12612277 2.16275221 -0.00120726 0.00000000
2.14256125 1.50705788 -0.00171871 0.00000000
0.51831610 1.53752808 0.00066565 0.00000000
3.48129799 1.79661661 -0.00237432 0.00000000
0.19653813 0.23848767 0.00191716 0.00000000
2.46770600 1.36740993 -0.00077758 0.00000000
3.96805841 1.22019147 0.00501641 0.00000000
1.95826058 0.53496167 0.00285160 0.00000000
4.22349631 0.30174489 0.00155468 0.00000000
2.77574555 0.65510079 0.00074592 0.00000000
2.98895062 0.20890554 0.00268939 0.00000000
4.34972858 0.11287441 -0.00319078 0.00000000
1.26088836 1.61897024 0.00096935 0.00000000
0.54482790 1.13992229 -0.00620137 0.00000000
3.74319906 0.87764154 0.00007308 0.00000000
4.74153857 2.05436052 -0.00246533 0.00000000
0.79440278 0.95329373 -0.00123788 0.00000000
0.06486258 0.93432197 0.00544526 0.00000000
1.11980664 0.05744170 0.00021185 0.00000000
0.74921663 1.23063617 -0.00087389 0.00000000
4.76792682 0.84441471 -0.00271817 0.00000000
3.53010356 0.50377974 -0.00089728 0.00000000
2.93563853 1.75736697 0.00048466 0.00000000
1.36160144 0.16266826 -0.00279444 0.00000000
3.21023900 2.16048424 -0.00009992 0.00000000
2.21314792 0.87934036 0.00072127 0.00000000
3.85913067 0.45887131 -0.00011300 0.00000000
3.48380313 2.20341963 0.00210331 0.00000000
3.34216526 1.55142694 -0.00442131 0.00000000
4.24145258 1.53661900 -0.00325273 0.00000000
4.38869566 1.83279016 -0.00549064 0.00000000
0.09718809 0.65547996 -0.00462401 0.00000000
3.68188451 0.38905637 0.00145514 0.00000000
2.86517293 1.88290056 0.00483863 0.00000000
1.94191526 0.69270890 0.00074871 0.00000000
0.69518287 0.28788406 -0.00248180 0.00000000
0.06495619 1.39597220 0.00451538 0.00000000
1.69905797 1.72576580 0.00377644 0.00000000
4.68673592 0.33651759 -0.00403335 0.00000000
4.68345184 2.12038002 -0.00361349 0.00000000
2.26009554 1.16644788 0.00247449 0.00000000
2.56577605 2.15252573 0.00177311 0.00000000
4.76972567 0.15275169 -0.00124418 0.00000000
0.62380283 0.62279146 -0.00012517 0.00000000
0.21497637 0.12497551 -0.00300568 0.00000000
2.19904464 2.29841655 0.00401992 0.00000000
0.96283165 1.05842535 0.00068803 0.00000000
4.64544652 0.39298149 0.00132188 0.00000000
4.33709944 0.74932608 0.00013277 0.00000000
3.90323704 2.09699123 -0.00114129 0.00000000
3.96201278 1.83408979 -0.00214572 0.00000000
1.06821650 1.34069404 0.00029496 0.00000000
1.22268483 0.09060936 -0.00358100 0.00000000
2.40070489 0.54070932 0.00038034 0.00000000
4.24720681 0.07125891 0.00560300 0.00000000
0.95356591 0.74603759 -0.00100710 0.00000000
3.65253619 2.32531960 -0.00132093 0.00000000
2.62206594 2.26085553 0.00273863 0.00000000
3.08576052 1.46808225 -0.00162775 0.00000000
1.79605727 0.41961085 0.00163344 0.00000000
3.60986664 0.79632998 0.00576936 0.00000000
4.68528472 0.50700272 -0.00033056 0.00000000
3.02406911 0.50996425 0.00022184 0.00000000
0.11615089 2.12464318 0.00001462 0.00000000
0.33393560 1.96108241 0.00040015 0.00000000
0.96319408 0.79513411 -0.00152262 0.00000000
4.35819843 1.51300960 -0.00100782 0.00000000
4.18813200 1.28214568 -0.00219474 0.00000000
0.00948361 1.55751942 -0.00224645 0.00000000
1.85682591 1.05313476 0.00262189 0.00000000
1.09318723 0.95346553 0.00114164 0.00000000
3.77575862 2.00565465 -0.00485208 0.00000000
3.47212641 0.97575179 -0.00456583 0.00000000
1.81311463 2.20067071 -0.00290401 0.00000000
0.90305529 2.09566951 0.00444623 0.00000000
3.15463712 0.44823148 -0.00035845 0.00000000
0.90719041 0.40754834 0.00387410 0.00000000
4.14020345 0.76117713 0.00137539 0.00000000
3.80162318 2.15019602 0.00314271 0.00000000
1.37301292 2.39228214 0.00420898 0.00000000
4.60854461 0.67100919 0.00062673 0.00000000
0.73479456 1.36061624 -0.00099028 0.00000000
2.32609648 1.20871418 0.00171965 0.00000000
