0.54746719 1.88826717 -0.00572235 0.00000000
1.61635913 1.73929693 -0.00299042 0.00000000
0.95793862 0.36404946 -0.00144861 0.00000000
2.34920659 0.65440148 -0.00418646 0.00000000
4.30485106 0.46160353 0.00092171 0.00000000
1.29896885 1.59120151 0.00028045 0.00000000
2.85091068 1.18300809 -0.00164348 0.00000000
2.76271717 0.45814071 0.00316890 0.00000000
3.70307795 0.84436290 0.00064971 0.00000000
2.24897706 0.66553280 -0.00070471 0.00000000
0.70067129 0.80619554 0.00291939 0.00000000
3.92159053 0.08336587 0.00277288 0.00000000
1.09013090 1.86378533 0.00176085 0.00000000
3.88885545 0.72978514 -0.00242854 0.00000000
0.59077599 1.03735458 -0.00169594 0.00000000
3.79505662 0.88492919 -0.00229814 0.00000000
1.89407461 0.57793442 0.00067299 0.00000000
3.09958169 1.89746859 0.00285811 0.00000000
2.73738114 0.74163284 -0.00561248 0.00000000
2.96219712 0.21129271 0.00043730 0.00000000
0.87385369 1.45486769 0.00189856 0.00000000
1.78636688 0.85713035 0.00186897 0.00000000
2.46323764 0.65228962 0.00246522 0.00000000
1.10035588 0.43023475 -0.00098909 0.00000000
0.43935588 0.15857329 0.00030289 0.00000000
3.36563982 1.35887307 -0.00233621 0.00000000
2.43337970 1.22148957 -0.00602647 0.00000000
4.40442196 0.38802964 0.00123496 0.00000000
0.46100567 1.70619879 -0.00007032 0.00000000
0.36314234 0.28640040 0.00098680 0.00000000
3.31439022 0.67031045 -0.00176979 0.00000000
2.54754727 1.72400779 -0.00111340 0.00000000
3.69884800 0.13695183 -0.00064777 0.00000000
2.76416038 0.68535931 -0.00584168 0.00000000
4.49908448 1.86657341 0.00043694 0.00000000
3.76264853 0.61302338 0.00117561 0.00000000
0.12976967 0.49823349 0.00471376 0.00000000
3.41858968 1.48849944 0.00204530 0.00000000
1.34321868 1.29882022 0.00449529 0.00000000
2.90880319 0.43572481 0.00019910 0.00000000
2.69343947 1.59759492 -0.00070076 0.00000000
1.07817252 0.24409983 -0.00018023 0.00000000
1.96294473 0.53130078 0.00130233 0.00000000
0.62950412 1.11798696 -0.00088387 0.00000000
1.57685108 0.98623578 0.00506338 0.00000000
1.52315829 1.54148712 -0.00048025 0.00000000
1.23627286 0.80358993 0.00023540 0.00000000
4.32125811 1.37420240 0.00137504 0.00000000
2.15689094 0.13218301 -0.00063775 0.00000000
0.45793594 0.51921694 0.00329522 0.00000000
1.21820711 0.32238790 0.00078169 0.00000000
0.05521233 1.05701090 -0.00006219 0.00000000
1.62730929 0.49112819 -0.00073792 0.00000000
3.24523979 0.42989330 -0.00334270 0.00000000
2.47031721 1.89606871 0.00299350 0.00000000
1.24910386 0.24571013 0.00416242 0.00000000
3.89579481 1.21364518 -0.00074381 0.00000000
2.94048219 1.79996670 -0.00173203 0.00000000
3.97362463 0.51376881 0.00077580 0.00000000
3.11257486 0.04220723 0.00138606 0.00000000
4.15433351 0.08773126 0.00018663 0.00000000
1.69345159 0.24942724 -0.00079023 0.00000000
2.10825750 1.71669803 0.00224021 0.00000000
0.43753170 1.84600752 0.00419016 0.00000000
2.91396511 0.27313839 -0.00183700 0.00000000
0.91518408 0.61530955 -0.00204630 0.00000000
1.04336470 1.75225143 0.00096647 0.00000000
2.82133066 0.06449180 0.00338693 0.00000000
2.68113108 0.96770193 -0.00080529 0.00000000
3.41690897 0.13197357 -0.00055440 0.00000000
3.69980987 0.46763386 0.00013763 0.00000000
1.11652803 0.05083972 0.00006671 0.00000000
3.94361890 0.06298126 -0.00408350 0.00000000
3.66302805 1.40072005 0.00330423 0.00000000
4.31556281 1.67084759 0.00109066 0.00000000
0.33039422 1.23760779 0.00177605 0.00000000
0.07760685 1.27140476 0.00438581 0.00000000
2.17410695 0.54987680 0.00346721 0.00000000
4.49447597 0.36432910 -0.00357509 0.00000000
3.25494455 1.61463165 -0.00155875 0.00000000
2.84566558 0.71350971 -0.00166278 0.00000000
2.79712640 1.08309458 -0.00277105 0.00000000
2.27491785 0.36700203 -0.00129176 0.00000000
2.61891952 0.68844268 0.00621036 0.00000000
0.91785319 0.69032702 -0.00326392 0.00000000
0.15544139 1.40300284 0.00195707 0.00000000
0.77083062 1.68381136 0.00214801 0.00000000
2.30816038 1.29366448 0.00329398 0.00000000
0.59741286 0.77349389 0.00113554 0.00000000
2.54534745 0.69822226 0.00021746 0.00000000
2.39182964 1.89687648 -0.00235799 0.00000000
3.23140812 0.96839338 0.00329490 0.00000000
0.90649505 1.15312515 0.00124231 0.00000000
0.40764288 0.38366429 0.00018905 0.00000000
3.09241699 0.91454725 0.00110867 0.00000000
0.79574560 0.61272438 0.00105398 0.00000000
3.62915884 1.21564896 0.00345508 0.00000000
1.65180624 1.66273639 0.00442432 0.00000000
2.13144821 1.48418759 0.00171492 0.00000000
1.54901449 1.60893439 0.00085378 0.00000000
4.06583770 1.35341463 -0.00210585 0.00000000
2.09769076 0.55958452 -0.00120682 0.00000000
4.15714369 0.64597127 0.00185704 0.00000000
1.42363630 1.49502481 -0.00035376 0.00000000
1.48789080 0.94726650 0.00093276 0.00000000
3.65934788 1.45106926 0.00156446 0.00000000
0.42041518 0.63719723 0.00172006 0.00000000
2.74524059 1.29889293 -0.00136247 0.00000000
2.52966545 0.48025558 0.00172355 0.00000000
0.54757122 1.61590007 0.00285709 0.00000000
0.09387105 1.87267564 -0.00180421 0.00000000
4.18241161 1.41424788 -0.00200636 0.00000000
2.55771555 1.33968373 0.00185586 0.00000000
3.00384257 0.29606631 0.00336153 0.00000000
1.33720495 0.99924893 0.00175568 0.00000000
4.48063265 0.62755102 0.00468568 0.00000000
4.42478526 1.11595429 0.00009491 0.00000000
2.89005022 1.56908226 -0.00102839 0.00000000
0.62978694 1.11542116 0.00132903 0.00000000
0.55570631 0.90816478 -0.00000049 0.00000000
2.51763641 1.05951941 -0.00025513 0.00000000
2.01174817 1.91832296 0.00405058 0.00000000
3.20467698 0.82908574 -0.00011555 0.00000000
2.53916605 1.88741256 0.00296843 0.00000000
3.32762264 0.95545841 0.00084604 0.00000000
2.69344965 1.17177865 0.00010533 0.00000000
1.08973378 1.18786679 0.00164261 0.00000000
0.27156047 0.46856082 0.00006641 0.00000000
2.50436705 1.86444095 0.00365458 0.00000000
0.44734961 0.28220603 -0.00005928 0.00000000
2.05840442 1.70258285 0.00005090 0.00000000
2.57627919 1.74146414 -0.00175148 0.00000000
1.62305333 1.11872545 0.00161672 0.00000000
0.80368339 1.67531353 0.00373238 0.00000000
4.49513923 0.21589021 0.00013097 0.00000000
2.56036842 0.18870176 -0.00291064 0.00000000
2.02123764 1.69346348 0.00059112 0.00000000
1.18410713 1.18918275 -0.00405204 0.00000000
2.18147949 0.55005833 0.00301151 0.00000000
4.32027065 0.95644817 0.00173220 0.00000000
3.32898327 1.72868241 0.00136567 0.00000000
3.18348572 0.18127433 -0.00097259 0.00000000
2.56048559 0.58579334 0.00427919 0.00000000
2.53665372 1.11788874 0.00168294 0.00000000
2.07116128 1.83167360 0.00178560 0.00000000
1.18873439 0.85097502 -0.00288406 0.00000000
4.31422315 0.78801901 -0.00043147 0.00000000
3.50884576 1.27470807 0.00316493 0.00000000
0.45875782 1.50513279 -0.00325754 0.00000000
1.82804445 0.28843535 -0.00190022 0.00000000
2.43711893 0.63764948 -0.00150048 0.00000000
2.47115562 1.17604110 -0.00542105 0.00000000
2.40037043 0.45815216 0.00170371 0.00000000
2.60354269 1.38651269 0.00022427 0.00000000
3.82110665 1.16359269 -0.00069325 0.00000000
3.36149661 0.26314922 0.00141550 0.00000000
2.14124789 1.21277686 0.00105799 0.00000000
2.15711375 1.55999098 -0.00197656 0.00000000
1.94913813 0.99735239 -0.00090162 0.00000000
3.15725483 1.53096896 -0.00033118 0.00000000
3.51334706 1.90938784 0.00467610 0.00000000
2.86758043 1.90376883 -0.00265966 0.00000000
0.46772598 1.36301562 -0.00106570 0.00000000
3.12714018 0.64095315 -0.00290084 0.00000000
3.32530305 1.62711790 0.00176834 0.00000000
1.25385142 1.07012050 0.00128858 0.00000000
2.93308310 0.86798093 -0.00049585 0.00000000
0.18429863 1.68262416 -0.00077223 0.00000000
2.97709148 0.91196486 0.00187936 0.00000000
0.46678041 1.12369203 0.00544858 0.00000000
1.78105068 1.24918716 -0.00422029 0.00000000
3.88911996 0.12795614 0.00481737 0.00000000
3.66887112 1.63776447 0.00002534 0.00000000
1.87104742 0.73576484 0.00089690 0.00000000
1.54935907 1.42403891 -0.00190303 0.00000000
3.16992834 0.21773511 0.00063813 0.00000000
0.34049102 1.32185701 0.00025260 0.00000000
2.44883940 1.32660490 -0.00068647 0.00000000
1.38809052 1.45772859 0.00042901 0.00000000
3.27148139 1.61733978 0.00308713 0.00000000
2.41291296 1.09961447 -0.00666719 0.00000000
3.48976649 1.70384163 0.00024044 0.00000000
2.24518618 0.64115707 0.00063815 0.00000000
0.73870004 1.55656505 -0.00067391 0.00000000
1.84634812 0.47615622 -0.00148279 0.00000000
3.49469938 1.72335884 -0.00047788 0.00000000
2.72218048 0.99118161 -0.00077685 0.00000000
1.34584765 0.49573404 -0.00215284 0.00000000
0.21694455 1.86952278 0.00394473 0.00000000
3.83871236 1.46339929 -0.00433501 0.00000000
0.82757855 0.76913662 -0.00406882 0.00000000
4.32768336 1.54503702 0.00075864 0.00000000
1.45903345 1.37449522 -0.00385070 0.00000000
3.00797894 1.07864213 -0.00191423 0.00000000
0.77916802 1.52276967 -0.00010387 0.00000000
3.47406716 0.51401319 -0.00205361 0.00000000
1.53709480 1.66678327 -0.00125453 0.00000000
4.57683845 1.75738831 -0.00244166 0.00000000
2.02482560 1.78293386 0.00121283 0.00000000
1.83973339 0.76814081 0.00233718 0.00000000
3.45567317 1.19511142 0.00272397 0.00000000
2.35420458 1.57534706 -0.00001156 0.00000000
0.54655554 0.31235330 -0.00043215 0.00000000
1.96843255 1.41055164 -0.00024609 0.00000000
1.69631976 1.27501270 -0.00340736 0.00000000
2.57304574 1.67305333 -0.00002239 0.00000000
1.95491406 0.00760971 0.00278850 0.00000000
2.95344907 0.86092667 0.00153815 0.00000000
0.20322839 1.20930229 -0.00195328 0.00000000
0.99972480 0.56089321 0.00208250 0.00000000
3.22139624 0.31479749 0.00267484 0.00000000
4.26654909 1.70176253 -0.00133618 0.00000000
4.52134458 0.39606658 0.00091613 0.00000000
1.14548971 0.77472105 0.00468795 0.00000000
3.27519697 0.33143063 -0.00104766 0.00000000
1.12136922 0.42742939 0.00135112 0.00000000
3.98824209 1.14018219 -0.00104317 0.00000000
1.56319692 0.74654594 -0.00333397 0.00000000
1.58800418 1.03914256 -0.00272416 0.00000000
3.45423160 0.19526663 -0.00142022 0.00000000
1.08893843 0.43203131 -0.00632279 0.00000000
0.38637715 1.04563335 0.00043369 0.00000000
0.79922537 0.32251421 0.00323142 0.00000000
2.36905697 1.92481313 -0.00158413 0.00000000
3.18485029 0.21513244 0.00126764 0.00000000
0.14642482 0.94633323 0.00361251 0.00000000
4.09950421 0.06241256 -0.00452816 0.00000000
3.84017819 1.16548108 -0.00034038 0.00000000
0.70932634 0.58320598 0.00220688 0.00000000
4.59325461 0.76413528 -0.00091036 0.00000000
2.68984784 0.39735762 -0.00107088 0.00000000
2.01788637 0.96561963 -0.00036955 0.00000000
2.66865925 1.44107758 0.00333152 0.00000000
2.93252951 0.24639861 0.00054042 0.00000000
0.24763525 1.09743333 0.00360302 0.00000000
0.93301849 1.36376435 -0.00006115 0.00000000
1.40206549 1.64157158 0.00207028 0.00000000
0.21388404 1.93557926 0.00581260 0.00000000
2.21761225 0.29435794 0.00227078 0.00000000
1.28930587 1.32429220 0.00115251 0.00000000
1.86416298 1.21158296 -0.00219606 0.00000000
3.10580307 0.67810324 -0.00005945 0.00000000
1.30475482 1.92135047 0.00006383 0.00000000
2.76540146 1.89887310 -0.00053130 0.00000000
2.08081867 1.80559341 0.00131145 0.00000000
2.62049704 1.90531402 -0.00079181 0.00000000
3.42612632 0.99190513 0.00328549 0.00000000
4.44151514 1.27387819 0.00122949 0.00000000
3.43045783 0.68482718 0.00046525 0.00000000
1.56420676 0.76785357 0.00348219 0.00000000
1.42563906 0.30365201 0.00052561 0.00000000
1.79545806 0.77896221 0.00078342 0.00000000
4.28352281 1.82237491 -0.00093382 0.00000000
1.99293496 0.51811661 -0.00012520 0.00000000
3.05825033 0.53362477 -0.00421781 0.00000000
0.67171253 0.63785610 0.00293769 0.00000000
2.35662905 1.53296249 -0.00111583 0.00000000
2.49767464 0.51074829 -0.00342594 0.00000000
3.74034517 0.48411240 0.00206983 0.00000000
2.58412776 0.56111198 0.00066338 0.00000000
4.23849265 1.55939383 -0.00090774 0.00000000
2.93422230 1.75336754 -0.00246741 0.00000000
3.72659759 0.01158686 -0.00115806 0.00000000
0.55821672 0.58944935 0.00158499 0.00000000
3.41803784 0.89013784 -0.00101524 0.00000000
2.63943425 0.03022081 -0.00644727 0.00000000
3.25256063 1.56405574 0.00243458 0.00000000
1.30790282 0.46572688 0.00073314 0.00000000
3.40652557 0.61215006 -0.00446968 0.00000000
3.13666267 1.03095979 0.00503670 0.00000000
3.82127760 0.84844944 0.00062431 0.00000000
1.24600147 1.12524162 -0.00528731 0.00000000
1.29727685 0.73658851 -0.00290535 0.00000000
2.05194335 0.88184806 0.00257401 0.00000000
1.24438566 1.19468174 0.00073174 0.00000000
3.71450168 1.81500727 -0.00009566 0.00000000
3.43098645 0.50433722 -0.00224169 0.00000000
2.75051835 0.94488938 -0.00219462 0.00000000
0.74744756 1.93717705 0.00111736 0.00000000
2.00859168 0.62605573 0.00202350 0.00000000
3.93449123 0.03565941 0.00059625 0.00000000
1.56452181 1.06689784 -0.00193109 0.00000000
1.45755323 1.28087230 -0.00198516 0.00000000
0.53661295 1.47284816 0.00126311 0.00000000
1.57330850 1.02296228 0.00141802 0.00000000
1.07257713 0.41861729 -0.00376805 0.00000000
0.79007360 0.62134699 0.00223169 0.00000000
2.69757127 0.77713687 0.00452105 0.00000000
0.25487234 0.31796795 0.00301217 0.00000000
0.88418178 1.27802334 0.00017438 0.00000000
2.55110564 0.00542368 -0.00093932 0.00000000
3.17053452 0.60444348 0.00032787 0.00000000
2.88404767 0.20738117 -0.00273869 0.00000000
2.89762117 1.71427442 0.00159640 0.00000000
2.62042692 1.29336183 -0.00032348 0.00000000
3.49704857 1.63922058 -0.00247522 0.00000000
3.60388324 0.25850708 -0.00359207 0.00000000
2.44911256 1.39104388 0.00210321 0.00000000
1.67416170 1.93480726 0.00043222 0.00000000
0.84603544 0.30255176 0.00065078 0.00000000
4.00127353 1.02794666 -0.00048394 0.00000000
1.72321096 1.71649812 0.00019429 0.00000000
2.69913886 0.74020555 0.00209211 0.00000000
0.67149700 0.38655914 0.00298514 0.00000000
3.75551850 1.72252858 0.00445229 0.00000000
2.85818409 1.00024458 0.00345519 0.00000000
1.55651622 0.57146171 0.00096892 0.00000000
4.52234613 1.42863306 0.00049235 0.00000000
1.12577807 0.00868263 -0.00599678 0.00000000
3.41016787 1.71555272 0.00112622 0.00000000
4.18169619 1.92067237 -0.00174349 0.00000000
0.65907220 0.50981035 0.00090934 0.00000000
0.04758015 0.20739792 -0.00235336 0.00000000
2.35964369 1.29273755 -0.00359141 0.00000000
4.10581887 0.84886645 -0.00189639 0.00000000
1.47116460 0.44736825 0.00188691 0.00000000
0.76143488 1.50467000 -0.00200340 0.00000000
3.83882105 1.09328794 -0.00102411 0.00000000
4.40767435 1.21346642 -0.00227958 0.00000000
3.26277245 0.38070928 -0.00115901 0.00000000
1.72575482 0.30939981 -0.00161844 0.00000000
3.72395539 0.73197064 -0.00189283 0.00000000
4.17857294 0.71106596 -0.00242973 0.00000000
1.29048384 1.09358760 0.00317275 0.00000000
0.63856456 0.15548464 0.00091745 0.00000000
0.76011789 0.96547685 0.00192012 0.00000000
3.33865044 0.42983884 -0.00217475 0.00000000
1.28999368 0.63647404 0.00227486 0.00000000
2.79836372 1.16828570 0.00407146 0.00000000
2.63824277 0.74148135 0.00147280 0.00000000
2.59211067 1.37288022 -0.00219128 0.00000000
0.51925773 1.30799871 0.00042605 0.00000000
0.55510355 1.93368839 0.00129319 0.00000000
3.57149513 1.25320009 -0.00091048 0.00000000
0.90225227 1.25468092 0.00149914 0.00000000
3.98915973 1.09364427 -0.00138804 0.00000000
0.48318803 1.35016838 0.00029066 0.00000000
2.45784803 0.62245813 -0.00322849 0.00000000
3.86813531 0.51474058 -0.00371699 0.00000000
1.63952923 1.36399773 0.00012927 0.00000000
1.03609343 0.31119937 0.00182158 0.00000000
3.94748769 0.32756086 -0.00241269 0.00000000
2.62499323 0.83647980 -0.00169709 0.00000000
3.34960544 1.86142560 0.00359579 0.00000000
4.35257646 0.93677388 -0.00174657 0.00000000
2.46446029 0.84345967 -0.00335311 0.00000000
0.29906067 0.05976501 -0.00313589 0.00000000
1.57865383 1.90462638 -0.00426859 0.00000000
3.49431830 0.13496346 0.00098706 0.00000000
2.02841570 0.05570436 0.00149229 0.00000000
1.24775945 0.86223400 0.00100693 0.00000000
0.85034701 0.03765731 0.00176328 0.00000000
0.80299944 0.49119647 0.00367765 0.00000000
4.32962711 1.04277595 0.00042417 0.00000000
2.42982486 0.51288776 0.00086137 0.00000000
2.55117538 1.85945658 0.00060236 0.00000000
4.02001126 1.75143846 -0.00039003 0.00000000
4.56114165 0.82514601 0.00155438 0.00000000
3.30867708 1.39351139 0.00034516 0.00000000
4.45784628 1.23586330 0.00095361 0.00000000
3.63432836 1.07307423 -0.00332947 0.00000000
2.19924134 0.86954733 -0.00246776 0.00000000
4.13227291 0.45915953 0.00205520 0.00000000
2.30818108 0.72320127 -0.00057126 0.00000000
2.43750875 0.84480509 -0.00078705 0.00000000
3.61813597 0.34953220 0.00080590 0.00000000
4.10959716 1.30224125 -0.00079150 0.00000000
1.74153269 0.71906650 -0.00071366 0.00000000
3.90878275 0.56778489 -0.00101240 0.00000000
0.96214879 1.22982425 -0.00320522 0.00000000
1.47707065 0.87730375 -0.00285431 0.00000000
2.14608218 1.92351307 -0.00005825 0.00000000
3.97299383 1.39805425 0.00298913 0.00000000
3.83023376 1.85330320 -0.00079442 0.00000000
4.35375298 0.13626076 0.00611820 0.00000000
1.75355997 1.85879993 0.00155358 0.00000000
1.71092662 0.82142098 -0.00240196 0.00000000
4.29212646 1.44408515 0.00215873 0.00000000
4.20464178 1.07348229 -0.00085232 0.00000000
4.54400240 1.27814694 0.00326469 0.00000000
2.64838604 0.11984564 0.00082282 0.00000000
1.88012753 0.99819298 -0.00341258 0.00000000
2.32250642 1.71053334 0.00183827 0.00000000
4.01428896 1.22477543 0.00541971 0.00000000
3.49046198 0.34806582 0.00008269 0.00000000
4.10019785 0.57914057 0.00005877 0.00000000
2.82636648 1.46445761 0.00307859 0.00000000
2.73070824 0.06015296 0.00171452 0.00000000
4.38395649 0.85112594 0.00333547 0.00000000
1.10967938 1.89652402 0.00095409 0.00000000
1.94255787 1.00418356 -0.00299524 0.00000000
2.09029366 1.77455407 0.00510963 0.00000000
4.40936646 0.20290554 0.00362177 0.00000000
2.89660721 0.14960338 -0.00084943 0.00000000
4.03630982 1.45743441 0.00072351 0.00000000
2.44062998 0.23478615 0.00136425 0.00000000
3.76880371 0.17052115 0.00664489 0.00000000
3.49530131 1.52501648 -0.00063812 0.00000000
0.76015420 0.86279662 0.00298752 0.00000000
3.81109998 0.90909194 0.00182813 0.00000000
0.91512723 0.39315921 -0.00226138 0.00000000
0.77090335 0.17586059 0.00244860 0.00000000
2.19304470 0.12478772 -0.00075899 0.00000000
0.98950740 0.94403545 0.00145307 0.00000000
3.51712843 0.59559442 0.00391680 0.00000000
4.12529056 0.23456903 0.00231589 0.00000000
0.39639108 1.26544289 0.00498631 0.00000000
2.82876310 1.37823415 -0.00419941 0.00000000
2.56621139 0.62298925 0.00593509 0.00000000
4.21615153 0.70693502 -0.00095762 0.00000000
0.93526255 0.16784595 0.00309910 0.00000000
3.96923446 0.32214017 0.00353528 0.00000000
1.89186494 1.32046443 -0.00128489 0.00000000
0.81907770 0.95731903 -0.00188572 0.00000000
3.91147541 1.34540173 -0.00017459 0.00000000
4.50603935 1.63080375 0.00107710 0.00000000
0.35745503 0.93981459 -0.00008348 0.00000000
0.79043541 1.45552748 0.00296998 0.00000000
4.32516846 1.03590144 0.00042879 0.00000000
1.67342253 1.41288558 0.00322873 0.00000000
0.34042639 1.30354265 0.00058778 0.00000000
1.48650051 1.75925848 -0.00565645 0.00000000
1.06918298 1.41259482 0.00105088 0.00000000
2.07428153 0.26371427 0.00077530 0.00000000
3.71205051 0.11180261 -0.00370955 0.00000000
1.55045528 0.68811624 -0.00161708 0.00000000
1.71372024 0.63302652 0.00377349 0.00000000
1.67023716 0.76461579 0.00097516 0.00000000
0.08782319 0.27516357 0.00066412 0.00000000
1.70543036 1.22918863 -0.00036148 0.00000000
3.28574555 0.74705187 -0.00374125 0.00000000
1.99446671 0.17252596 -0.00230647 0.00000000
1.37741960 0.09785448 -0.00128827 0.00000000
2.49254280 0.19652483 0.00462771 0.00000000
0.35848963 1.21110780 0.00377086 0.00000000
0.51034790 0.01450505 -0.00122157 0.00000000
3.28558827 0.54650495 -0.00226769 0.00000000
4.27518805 1.40258162 -0.00298244 0.00000000
0.77440885 1.50694447 -0.00032692 0.00000000
2.46980681 0.52179365 0.00033616 0.00000000
3.38820326 1.49029937 0.00274914 0.00000000
1.71795770 1.18905836 0.00189428 0.00000000
4.24083781 0.60870147 -0.00466470 0.00000000
2.70944494 1.23715328 0.00144277 0.00000000
0.05981359 0.79508508 0.00146954 0.00000000
0.84104831 0.72159856 0.00089006 0.00000000
3.46951961 1.37058726 -0.00098495 0.00000000
3.54825403 1.61186177 -0.00318466 0.00000000
2.75711539 0.26169219 -0.00091300 0.00000000
3.32756380 1.20371459 -0.00489303 0.00000000
1.82703707 1.09035881 0.00461882 0.00000000
3.99845316 0.66633627 -0.00121336 0.00000000
3.41762332 0.69909857 -0.00440292 0.00000000
2.80254913 0.10580256 0.00074829 0.00000000
4.18176541 0.77692382 -0.00298316 0.00000000
3.36906643 0.65815412 0.00159396 0.00000000
1.92618535 0.16691847 0.00173221 0.00000000
1.00499582 0.40982654 -0.00177159 0.00000000
4.28885140 1.25781102 0.00100751 0.00000000
1.94821493 0.34721239 -0.00157746 0.00000000
3.25839934 0.44960245 -0.00240656 0.00000000
3.29083201 0.37617953 -0.00023566 0.00000000
3.40561203 0.63723522 0.00054849 0.00000000
4.08189657 1.18129060 -0.00462662 0.00000000
4.33697789 1.03617216 0.00139526 0.00000000
0.69168415 1.55798083 0.00255799 0.00000000
1.81995563 0.32973157 0.00506300 0.00000000
3.21174210 0.89610567 -0.00161030 0.00000000
0.45540457 0.55080546 0.00682984 0.00000000
3.51304065 0.60012197 -0.00211441 0.00000000
2.59836449 1.08241357 0.00196996 0.00000000
4.26045095 1.90419889 0.00111810 0.00000000
3.49378378 0.70968033 0.00010710 0.00000000
1.46212752 0.34355987 -0.00232422 0.00000000
1.28121353 1.76880462 -0.00012206 0.00000000
0.55271788 0.21000692 -0.00204343 0.00000000
3.12445024 0.77723788 -0.00053647 0.00000000
2.69465291 1.83058640 0.00020169 0.00000000
3.77319130 0.93529801 -0.00187399 0.00000000
4.21569852 0.65876413 0.00101824 0.00000000
2.35723235 0.73024531 0.00506745 0.00000000
2.15001114 0.12969700 -0.00342361 0.00000000
0.96424200 1.01949595 -0.00563123 0.00000000
3.78835290 1.02451540 0.00237297 0.00000000
3.79630005 1.15945570 0.00184111 0.00000000
3.81409234 1.41703233 0.00203802 0.00000000
2.00664019 0.49272269 -0.00344514 0.00000000
4.56418092 1.76325391 0.00166626 0.00000000
1.15508872 0.21355082 -0.00063579 0.00000000
2.92924067 0.19336704 0.00133530 0.00000000
0.56345631 0.65869235 0.00178494 0.00000000
2.67897789 1.81580854 -0.00228082 0.00000000
2.73751671 1.04417015 -0.00000455 0.00000000
4.30736901 0.75516774 -0.00517362 0.00000000
2.38698833 0.95874331 -0.00081844 0.00000000
4.34180002 1.90555466 -0.00273179 0.00000000
2.22149718 0.04278874 -0.00430114 0.00000000
0.98356091 0.87968389 -0.00157228 0.00000000
1.32854901 0.79513012 0.00171102 0.00000000
2.07934166 0.65313622 0.00052270 0.00000000
2.45135550 0.63217587 -0.00175472 0.00000000
2.50218087 0.49045176 -0.00382656 0.00000000
3.44071784 0.65369565 -0.00121668 0.00000000
3.15321196 1.92253672 -0.00188835 0.00000000
4.16432092 1.75942581 0.00255165 0.00000000
3.56999765 1.38276233 0.00197054 0.00000000
1.86704467 1.82991209 -0.00141771 0.00000000
3.33315486 0.82823108 -0.00227702 0.00000000
1.69828016 0.97152522 0.00518542 0.00000000
1.34694815 0.68336592 0.00059288 0.00000000
3.76952275 0.69060446 -0.00285409 0.00000000
4.43359233 0.51007341 0.00048397 0.00000000
3.44858370 1.17390583 -0.00155851 0.00000000
3.96208525 0.72137036 -0.00345570 0.00000000
4.37665239 0.30258486 0.00250031 0.00000000
3.55547622 1.29432950 0.00428261 0.00000000
0.29659348 1.60378772 0.00017735 0.00000000
4.31549432 0.93995048 -0.00495044 0.00000000
2.57137348 0.35474136 -0.00221438 0.00000000
3.96197625 0.14411082 -0.00469684 0.00000000
0.06901348 0.11723702 -0.00253463 0.00000000
2.02871705 1.85401077 0.00065251 0.00000000
0.01289813 0.33209380 0.00243031 0.00000000
1.78304023 0.99884598 -0.00382275 0.00000000
4.08359474 1.13919461 -0.00151435 0.00000000
3.27273059 1.07111210 -0.00253734 0.00000000
2.45926989 0.93123940 0.00087300 0.00000000
3.25505681 0.57323224 -0.00428216 0.00000000
1.18065398 1.35086508 -0.00139202 0.00000000
1.64220004 1.12153061 -0.00074620 0.00000000
4.21904552 1.19124949 0.00002768 0.00000000
1.06594226 0.14246246 -0.00188181 0.00000000
2.54206308 1.33014844 -0.00136166 0.00000000
1.21848181 0.93900412 -0.00339459 0.00000000
3.83879584 1.87772716 0.00193737 0.00000000
0.89020816 0.23660717 0.00157041 0.00000000
4.13055737 1.68476625 0.00085331 0.00000000
4.49324463 0.96759730 -0.00245317 0.00000000
0.33312740 0.75524958 0.00405202 0.00000000
2.87832013 0.54316057 -0.00102036 0.00000000
2.69743864 0.96869341 0.00138303 0.00000000
1.38075354 1.13462764 -0.00159386 0.00000000
4.06879943 0.74824070 0.00266266 0.00000000
0.10266901 0.93270642 -0.00100555 0.00000000
4.58441693 1.24120790 -0.00300584 0.00000000
4.19396032 1.24034932 -0.00448320 0.00000000
3.38118196 0.57259452 0.00261801 0.00000000
1.73473458 0.36398916 0.00020587 0.00000000
1.87934044 1.39911431 0.00368208 0.00000000
4.01294116 0.74148192 -0.00149211 0.00000000
3.02552052 0.74853132 0.00342668 0.00000000
2.44751550 1.63059154 -0.00048092 0.00000000
2.44768840 1.23907548 0.00158355 0.00000000
2.03693627 0.53853135 -0.00524512 0.00000000
2.33323231 0.63587546 0.00096222 0.00000000
1.84124126 1.19919973 0.00092838 0.00000000
3.61813032 1.77423810 -0.00153259 0.00000000
3.26940379 1.81665004 0.00108244 0.00000000
0.25301140 0.55392898 -0.00312300 0.00000000
0.33442652 1.33690961 -0.00109533 0.00000000
1.24100152 1.26649692 -0.00275898 0.00000000
1.79585968 1.38252084 0.00479932 0.00000000
3.83222798 0.06281651 -0.00098954 0.00000000
0.50648523 0.95335434 -0.00304115 0.00000000
0.82777546 1.83852226 0.00124319 0.00000000
1.30002729 0.23974803 0.00040360 0.00000000
3.14392631 0.91554988 0.00162027 0.00000000
2.04844383 0.74225435 0.00379754 0.00000000
3.71351602 1.77351295 0.00179316 0.00000000
4.16098747 1.11774079 0.00304697 0.00000000
0.85348630 1.31606415 0.00069937 0.00000000
1.36276109 1.41696229 0.00519918 0.00000000
0.87503566 1.11399296 -0.00137350 0.00000000
4.06298547 1.14087077 -0.00020952 0.00000000
0.98941034 1.72905093 -0.00054631 0.00000000
1.09105293 1.53188102 -0.00013360 0.00000000
3.85498453 0.94359634 -0.00636944 0.00000000
0.71086134 0.43805045 -0.00072911 0.00000000
0.28529630 0.22631348 -0.00352739 0.00000000
1.43160590 0.28961701 -0.00136547 0.00000000
4.51621088 0.90757905 0.00306907 0.00000000
1.45172004 1.89123124 0.00083450 0.00000000
3.91348485 1.86113308 0.00335646 0.00000000
3.45374611 1.87795594 -0.00334343 0.00000000
0.05259578 0.86926007 -0.00524231 0.00000000
3.47376130 0.85134629 0.00239975 0.00000000
4.59033143 0.28737920 0.00210371 0.00000000
3.14377212 1.87335066 -0.00123746 0.00000000
0.51421204 0.09327057 0.00117409 0.00000000
4.17511083 1.47200155 -0.00244161 0.00000000
2.71664153 0.06689078 -0.00201076 0.00000000
3.05930330 1.18360440 0.00576704 0.00000000
2.29391634 1.92179385 -0.00046963 0.00000000
4.01508989 1.91862143 0.00348345 0.00000000
4.51101763 0.02635561 0.00067668 0.00000000
1.93548205 0.26229593 0.00463918 0.00000000
2.10263805 0.49937284 0.00114680 0.00000000
3.51988380 0.08588610 -0.00110864 0.00000000
0.60806149 0.73546881 -0.00398036 0.00000000
2.93810274 0.74009961 0.00052337 0.00000000
3.16066802 0.78450030 -0.00219601 0.00000000
0.43090308 1.73840877 -0.00118109 0.00000000
1.27759544 1.77114392 0.00155637 0.00000000
4.21509757 0.52975814 -0.00341875 0.00000000
3.13768131 0.03567282 0.00326479 0.00000000
2.88012413 1.82393892 -0.00258826 0.00000000
2.30322956 1.79051213 0.00085165 0.00000000
2.31766071 0.69308742 -0.00196017 0.00000000
0.71465091 0.99992396 -0.00097894 0.00000000
2.32972035 0.52096084 -0.00232417 0.00000000
1.84928195 1.13236476 -0.00299314 0.00000000
4.06563870 1.75205092 -0.00010504 0.00000000
2.05521893 1.60698314 -0.00095060 0.00000000
0.38327007 1.72625304 0.00125397 0.00000000
3.95718350 1.87612313 -0.00551895 0.00000000
4.36530531 0.89598678 0.00163788 0.00000000
2.31306635 1.18777196 0.00417718 0.00000000
1.41169864 0.39588456 0.00482687 0.00000000
4.00377129 1.37329302 -0.00003487 0.00000000
2.90235099 0.92378923 -0.00176642 0.00000000
0.48556910 0.47509310 0.00053739 0.00000000
3.55921611 0.99397192 -0.00103265 0.00000000
3.03570147 1.06495993 -0.00298693 0.00000000
1.28880383 0.33030341 0.00006968 0.00000000
1.13509985 0.28279337 0.00099083 0.00000000
3.12764301 1.61603984 -0.00108814 0.00000000
3.91967893 1.57995344 0.00461381 0.00000000
1.54243321 0.97549045 0.00069844 0.00000000
3.68380431 1.14820622 -0.00029519 0.00000000
1.43246597 1.19336564 0.00237172 0.00000000
3.74535022 1.50169209 0.00275642 0.00000000
4.02581959 0.27826517 -0.00227034 0.00000000
0.16108137 1.92288212 0.00131334 0.00000000
2.79163937 0.61419199 -0.00061377 0.00000000
2.92242728 0.22474956 0.00488986 0.00000000
0.88260524 0.61206955 0.00053456 0.00000000
3.09416592 1.63065380 0.00023080 0.00000000
3.86563307 0.46066127 -0.00050133 0.00000000
1.28372230 1.80158968 -0.00355318 0.00000000
3.13213708 1.19602609 -0.00259952 0.00000000
2.13377666 0.00013293 -0.00131427 0.00000000
1.99721078 1.02317021 -0.00157971 0.00000000
4.22343255 0.21138947 -0.00086592 0.00000000
1.54403265 1.50404804 0.00151674 0.00000000
0.50706555 1.28615883 0.00254160 0.00000000
3.76100715 0.73612051 -0.00337200 0.00000000
2.92685511 0.45221953 -0.00518994 0.00000000
0.89937759 0.04188133 0.00191188 0.00000000
2.67540818 1.09677766 -0.00136762 0.00000000
1.47447376 1.09362157 0.00036376 0.00000000
0.26557380 0.97669088 -0.00086576 0.00000000
0.78094361 0.32576012 0.00156069 0.00000000
0.33611207 1.31197504 -0.00021432 0.00000000
2.51106874 0.81310293 0.00034418 0.00000000
0.66818737 0.89913538 -0.00118251 0.00000000
1.40858445 0.69467229 0.00010686 0.00000000
4.13079074 0.68454058 0.00144727 0.00000000
2.29072130 1.93911369 0.00314853 0.00000000
4.20372524 0.04908291 0.00071314 0.00000000
1.51526753 1.36848753 -0.00344265 0.00000000
3.23554667 1.80146755 0.00235575 0.00000000
3.19554605 1.10681964 -0.00510418 0.00000000
0.88448905 1.89667590 0.00320028 0.00000000
3.41490402 1.66830535 0.00198656 0.00000000
2.93755391 0.58621391 -0.00064610 0.00000000
1.74653171 0.17242237 0.00057364 0.00000000
2.77363785 0.17294964 -0.00317098 0.00000000
0.82253831 0.34181538 -0.00102475 0.00000000
1.44103464 0.97307642 -0.00161632 0.00000000
1.51854116 0.77815394 0.00237334 0.00000000
1.42560884 1.15558302 0.00058114 0.00000000
0.20563786 1.64986579 0.00133699 0.00000000
4.44970050 1.06821923 -0.00093950 0.00000000
4.56422902 1.25543137 -0.00055141 0.00000000
1.29239158 0.15810496 0.00230792 0.00000000
0.82015758 1.26566810 -0.00149392 0.00000000
3.07482211 0.87491859 0.00038129 0.00000000
0.89504085 0.18325147 0.00123323 0.00000000
3.29014004 0.78283900 0.00181195 0.00000000
2.28859085 1.05540292 0.00027785 0.00000000
1.57926414 1.83303249 -0.00067362 0.00000000
2.11825936 0.07475809 0.00236980 0.00000000
0.60982384 1.32478302 -0.00402856 0.00000000
3.40720831 0.38613283 0.00527754 0.00000000
3.56353152 0.73623514 -0.00049867 0.00000000
3.09865861 0.63895353 0.00156706 0.00000000
3.24602654 1.29193141 -0.00301042 0.00000000
1.08560807 1.49510880 -0.00142900 0.00000000
1.73715122 0.08225529 -0.00238789 0.00000000
1.43734945 0.00416140 0.00078762 0.00000000
1.50332653 0.83161465 -0.00416710 0.00000000
2.48407988 0.31520745 0.00323020 0.00000000
1.52314132 0.14982631 -0.00178291 0.00000000
4.34694014 1.27170106 -0.00134342 0.00000000
3.12116252 1.00442235 0.00243249 0.00000000
0.35523481 0.40383812 -0.00014745 0.00000000
2.69455997 0.94059379 -0.00383711 0.00000000
2.87635564 0.16827279 0.00210085 0.00000000
3.89720547 0.84582927 0.00298863 0.00000000
3.30487203 0.67121986 0.00579733 0.00000000
4.29177982 0.31969308 -0.00341761 0.00000000
3.39053944 0.98786671 -0.00091005 0.00000000
2.77204966 1.92320654 0.00000223 0.00000000
3.77598002 1.83332344 0.00176730 0.00000000
3.41997432 0.88087788 0.00234392 0.00000000
3.50666668 0.26857576 0.00286123 0.00000000
1.92638496 1.22208891 -0.00239770 0.00000000
1.67990757 1.29293645 0.00129061 0.00000000
4.33428303 0.08530999 0.00056952 0.00000000
3.81023017 1.62629353 -0.00076307 0.00000000
3.41925501 0.70233802 0.00026509 0.00000000
2.67762670 1.87942764 0.00167043 0.00000000
1.60908503 0.45903941 -0.00181146 0.00000000
1.42879458 1.73362871 0.00259833 0.00000000
0.86925649 1.46246046 -0.00126993 0.00000000
2.95228486 0.03264086 0.00362373 0.00000000
3.14968297 0.31823219 0.00160891 0.00000000
2.92341435 1.15764308 0.00068760 0.00000000
1.26219100 1.14563800 0.00072193 0.00000000
2.43562907 0.92277766 -0.00301000 0.00000000
4.54220655 0.41138987 0.00124169 0.00000000
0.25833420 0.08154067 -0.00173698 0.00000000
1.08567570 1.33194605 0.00199117 0.00000000
0.84256149 1.10045752 0.00105602 0.00000000
1.14758191 0.25112879 0.00086134 0.00000000
3.93098004 1.08836521 0.00041780 0.00000000
3.04740626 0.35162870 0.00046132 0.00000000
4.15004250 1.72406652 -0.00083754 0.00000000
2.21209059 1.02558477 -0.00161821 0.00000000
0.50648833 1.74475177 -0.00739866 0.00000000
2.64450646 0.39815939 -0.00214847 0.00000000
1.59560348 1.67618097 -0.00221921 0.00000000
3.78462000 0.95360258 -0.00061756 0.00000000
4.24571460 0.65064856 0.00001171 0.00000000
1.37911852 1.28947174 0.00228896 0.00000000
2.34645535 1.18570367 0.00225786 0.00000000
2.56041761 0.25906496 0.00520832 0.00000000
0.69617095 1.87062008 0.00075520 0.00000000
0.47823322 1.20410522 0.00122171 0.00000000
4.33121083 1.14514455 -0.00080290 0.00000000
2.59066821 1.56308492 -0.00051849 0.00000000
3.34864798 1.25890158 -0.00023071 0.00000000
0.49451542 1.71034009 0.00127000 0.00000000
3.54291403 0.88466133 -0.00613539 0.00000000
1.84329652 1.77622448 0.00203553 0.00000000
2.11377377 1.71040873 -0.00264754 0.00000000
1.21351832 0.01371027 -0.00320865 0.00000000
0.96326902 0.18185371 0.00197597 0.00000000
1.28133992 0.47093517 -0.00419512 0.00000000
4.45518151 1.13342352 0.00045930 0.00000000
2.55626456 1.39967866 0.00067991 0.00000000
3.93630673 0.92864129 0.00249223 0.00000000
2.32393164 0.43637280 -0.00420181 0.00000000
4.01882750 1.56247440 0.00117840 0.00000000
1.99512611 0.05773125 -0.00113716 0.00000000
3.78119903 1.69221621 0.00330398 0.00000000
0.75494422 1.91570114 -0.00143908 0.00000000
0.96869987 0.95966438 -0.00000402 0.00000000
1.58644477 0.23730454 0.00013235 0.00000000
0.38352576 0.35763402 0.00144285 0.00000000
4.33425335 1.19850596 0.00253938 0.00000000
2.08265304 1.35903747 0.00236325 0.00000000
0.36019071 1.83302513 0.00031086 0.00000000
2.94248019 0.52576371 -0.00131468 0.00000000
3.38372479 1.24346446 -0.00068125 0.00000000
1.76763281 0.64032660 0.00128315 0.00000000
2.26406965 1.15363491 -0.00233188 0.00000000
0.92118557 0.98534102 0.00105592 0.00000000
4.47626377 1.79004361 -0.00255799 0.00000000
3.66745542 0.65461790 -0.00005121 0.00000000
2.59636749 1.01272554 -0.00526056 0.00000000
0.69028872 0.52598467 -0.00399229 0.00000000
0.84359857 1.24214112 -0.00220173 0.00000000
3.75669790 1.80979944 -0.00464127 0.00000000
3.25639236 0.26170205 -0.00639133 0.00000000
3.04921702 0.97117863 -0.00028421 0.00000000
2.10578211 1.85873771 -0.00444791 0.00000000
0.41120823 0.50342828 -0.00157109 0.00000000
3.05701990 0.04969589 -0.00095654 0.00000000
3.49974548 1.87931234 0.00552514 0.00000000
3.88784656 0.57527104 -0.00492377 0.00000000
3.69249546 1.31354702 0.00112917 0.00000000
1.87078281 0.91335719 -0.00276787 0.00000000
3.06124765 1.55842871 -0.00390053 0.00000000
4.53250948 1.82177342 0.00090602 0.00000000
0.83420493 0.41794910 -0.00043945 0.00000000
2.88948743 1.90283591 -0.00176006 0.00000000
1.81910108 1.24481490 0.00075838 0.00000000
1.36180464 1.57951013 -0.00645830 0.00000000
0.64862101 0.69968509 -0.00207101 0.00000000
0.57547272 0.33686164 0.00340969 0.00000000
0.88416927 1.88502373 -0.00128761 0.00000000
2.22503375 1.19995074 0.00195700 0.00000000
1.24969137 0.38025917 -0.00155194 0.00000000
1.30279642 0.24682497 -0.00068682 0.00000000
0.48809397 0.98369511 0.00345283 0.00000000
3.03202312 0.42385549 0.00105592 0.00000000
4.28342988 1.88445742 -0.00105749 0.00000000
0.78479807 1.76696556 0.00280367 0.00000000
2.22915668 0.15690061 -0.00164238 0.00000000
3.50270796 1.31070404 -0.00113111 0.00000000
1.04653988 1.04916965 -0.00028206 0.00000000
2.68320580 0.59587592 0.00208594 0.00000000
0.43723687 1.61173185 -0.00326072 0.00000000
0.27009531 1.10017924 0.00060311 0.00000000
1.89849801 0.52791483 -0.00096558 0.00000000
3.46773694 1.50969356 -0.00089903 0.00000000
4.03390700 1.60437037 -0.00093336 0.00000000
0.16011091 1.45828879 0.00004461 0.00000000
4.57478060 0.06305516 -0.00163691 0.00000000
2.34974432 1.56386463 -0.00010571 0.00000000
1.49348063 1.10714652 0.00050116 0.00000000
3.45437589 0.45583479 0.00177721 0.00000000
0.40464828 1.49974697 -0.00092252 0.00000000
2.86234308 1.24594295 0.00191370 0.00000000
4.06947832 0.08534630 -0.00228823 0.00000000
0.75189449 1.70916421 0.00107459 0.00000000
0.06173054 1.79425590 0.00294513 0.00000000
1.13066906 0.90749480 0.00022200 0.00000000
3.55386869 1.33703724 -0.00219938 0.00000000
4.20877124 0.14351098 0.00040486 0.00000000
3.40341638 0.39073987 -0.00121275 0.00000000
1.20365112 0.47718217 0.00363816 0.00000000
2.20661654 1.61065758 0.00232295 0.00000000
1.80131464 0.40165545 0.00171684 0.00000000
3.41913059 0.33247046 0.00011645 0.00000000
2.83439154 0.38837799 -0.00036646 0.00000000
1.36383714 0.36207509 -0.00008971 0.00000000
1.99801530 1.66446889 -0.00153009 0.00000000
1.02392087 1.08334717 -0.00451790 0.00000000
2.66551906 0.56871213 -0.00103318 0.00000000
1.11238416 0.69172082 0.00117533 0.00000000
1.29521430 1.59131466 0.00302018 0.00000000
3.97111061 0.98327061 0.00062242 0.00000000
4.13295230 1.38295047 -0.00216557 0.00000000
2.59894821 0.03463270 0.00277323 0.00000000
1.93472723 0.56883625 -0.00349582 0.00000000
2.86802038 0.27782312 0.00017537 0.00000000
2.48359323 1.90373188 -0.00265706 0.00000000
4.35860021 1.26358049 0.00043855 0.00000000
3.80414208 0.48430284 -0.00298544 0.00000000
0.25266393 1.46637647 -0.00343745 0.00000000
2.75496023 1.94192458 -0.00286789 0.00000000
3.58002144 1.41244608 -0.00101440 0.00000000
3.63592203 1.82591803 -0.00412568 0.00000000
4.07382414 1.46336292 -0.00222128 0.00000000
0.21684554 0.60035707 0.00117983 0.00000000
2.02077694 0.91846293 -0.00350281 0.00000000
2.90669429 0.46308186 0.00022725 0.00000000
0.78981116 1.32050278 -0.00158408 0.00000000
1.32855435 0.02580228 -0.00039427 0.00000000
0.10758725 0.04814395 -0.00107208 0.00000000
2.64075866 1.29158882 0.00099445 0.00000000
0.53722408 0.27038262 -0.00537793 0.00000000
2.44510648 1.57758322 -0.00130772 0.00000000
1.48137942 0.44953943 -0.00045329 0.00000000
2.40235248 1.66424931 -0.00128611 0.00000000
3.31599664 1.00878185 -0.00350182 0.00000000
0.30152732 1.22565474 -0.00304374 0.00000000
3.30534465 0.84521005 0.00007417 0.00000000
0.46615611 0.96288588 0.00091443 0.00000000
4.26701637 0.25441896 0.00395092 0.00000000
2.56774587 1.71002221 0.00032754 0.00000000
1.53786237 1.52897118 0.00119909 0.00000000
2.72620428 1.76836033 0.00124661 0.00000000
4.46010175 0.09032568 0.00033518 0.00000000
2.97852036 1.59585472 -0.00162377 0.00000000
0.28796601 0.33060373 -0.00182172 0.00000000
1.05211719 1.68971255 0.00132327 0.00000000
0.78357088 1.27090551 0.00294222 0.00000000
2.96111675 0.03059872 0.00100935 0.00000000
3.72410088 1.12890417 -0.00537396 0.00000000
1.85609856 1.09152007 -0.00157613 0.00000000
3.31543454 0.29834272 0.00027699 0.00000000
0.26248030 1.25035504 -0.00086146 0.00000000
0.50851627 0.42107953 -0.00020512 0.00000000
3.39541410 0.72162059 0.00410328 0.00000000
1.03404575 1.04901739 0.00189754 0.00000000
1.32743670 0.76635046 0.00154774 0.00000000
4.20451588 1.27410876 -0.00143805 0.00000000
2.95893983 0.58734883 -0.00329107 0.00000000
1.25383771 1.15412755 0.00315834 0.00000000
0.15621403 0.85469745 0.00059925 0.00000000
2.40808417 1.81393223 -0.00048449 0.00000000
1.71521241 0.33459720 0.00093862 0.00000000
1.40667207 1.27781330 0.00015334 0.00000000
0.23766864 0.59018535 -0.00016931 0.00000000
0.41069065 1.17884189 -0.00328037 0.00000000
4.12273686 0.17508568 0.00011307 0.00000000
2.20449575 0.73571149 0.00009814 0.00000000
1.50296610 1.48152681 0.00073994 0.00000000
4.50904468 1.74436187 -0.00390768 0.00000000
1.38053008 1.91674379 0.00194076 0.00000000
0.18556832 1.25330932 0.00076650 0.00000000
2.28833639 1.67103985 0.00393222 0.00000000
3.11881839 1.40998670 0.00385642 0.00000000
0.00690234 0.84084376 -0.00021816 0.00000000
4.17100451 0.01837424 0.00156014 0.00000000
0.47295520 0.54854584 -0.00197031 0.00000000
4.09768080 0.10633315 0.00162845 0.00000000
4.29952121 0.62810122 0.00283437 0.00000000
3.43838531 1.21803480 0.00147435 0.00000000
2.83933499 0.60729771 0.00209390 0.00000000
1.78984843 0.18587406 0.00075399 0.00000000
4.55235640 0.76847561 -0.00097802 0.00000000
0.48783507 1.13556302 0.00083683 0.00000000
3.45992244 0.92726640 0.00069894 0.00000000
2.07110008 0.74577220 0.00257089 0.00000000
2.34674057 1.76974371 0.00421644 0.00000000
4.36457150 1.89811075 -0.00007071 0.00000000
4.32132078 1.30275737 -0.00168514 0.00000000
0.93527786 1.24593875 0.00062823 0.00000000
3.13746724 0.84047666 0.00219173 0.00000000
1.51974183 1.05142855 0.00394161 0.00000000
1.99788431 1.05502935 0.00108375 0.00000000
2.95706172 0.67489794 -0.00031146 0.00000000
0.43336351 1.35678758 -0.00071657 0.00000000
2.34023380 0.08087284 0.00073548 0.00000000
1.93909487 0.10330814 -0.00014910 0.00000000
2.77308163 1.71931762 -0.00265633 0.00000000
0.56898792 1.38166921 0.00170772 0.00000000
4.37066747 0.09943072 -0.00369475 0.00000000
4.56160433 1.69542076 0.00036747 0.00000000
3.30539779 0.29613434 0.00126944 0.00000000
3.80245184 1.92612272 0.00042702 0.00000000
2.74317849 0.08206882 -0.00389458 0.00000000
0.39536316 0.78040248 0.00357039 0.00000000
2.00229062 1.00070176 -0.00383198 0.00000000
3.65199797 0.65480334 -0.00354969 0.00000000
1.57128446 1.15088032 -0.00377203 0.00000000
2.76638132 1.02368340 0.00031000 0.00000000
3.87196850 1.08369117 0.00026801 0.00000000
1.73194891 0.05350240 -0.00324903 0.00000000
3.50274137 1.06544009 0.00205132 0.00000000
0.89407225 1.82433606 0.00053144 0.00000000
3.43459152 0.28592053 -0.00033063 0.00000000
2.28035683 1.68224425 0.00370019 0.00000000
3.94515816 0.99864100 -0.00271345 0.00000000
3.93574559 0.09649433 0.00048542 0.00000000
2.50563611 0.54824037 -0.00156021 0.00000000
2.34358147 0.98309623 -0.00261449 0.00000000
2.57713593 0.44761392 0.00207533 0.00000000
3.40985383 0.72387466 0.00428007 0.00000000
3.59762100 1.12543582 -0.00156297 0.00000000
4.01728052 0.33633547 -0.00123625 0.00000000
1.73956251 1.49701488 0.00141960 0.00000000
4.00372770 0.41050671 -0.00306130 0.00000000
4.09546563 1.89718214 0.00329698 0.00000000
0.72701336 0.63025387 -0.00179121 0.00000000
2.32672913 0.59809505 0.00103329 0.00000000
0.14328813 1.85840807 0.00005455 0.00000000
1.65075865 1.04648749 0.00074945 0.00000000
3.23172862 1.24832751 -0.00447496 0.00000000
2.04328574 1.75720213 -0.00388702 0.00000000
1.22481680 1.56615371 0.00001050 0.00000000
2.30635058 0.92964863 -0.00013290 0.00000000
0.73535547 1.69248077 0.00279156 0.00000000
1.50078264 0.07138951 -0.00014691 0.00000000
1.90778138 0.65660298 -0.00012175 0.00000000
1.67352109 0.07766345 -0.00169752 0.00000000
2.14265190 1.35153635 -0.00037876 0.00000000
2.39647044 1.20669382 -0.00055394 0.00000000
2.34427000 1.14923751 -0.00080759 0.00000000
4.51949016 1.35561391 0.00095473 0.00000000
0.89812186 1.80819091 -0.00160407 0.00000000
4.54371076 1.73089942 -0.00028393 0.00000000
0.70333069 1.86270203 0.00125480 0.00000000
1.93794687 1.74701773 -0.00188238 0.00000000
0.50848909 0.93829186 -0.00185829 0.00000000
0.89092014 1.60970494 -0.00204953 0.00000000
3.80286111 1.57419203 -0.00111119 0.00000000
3.44500264 1.93457603 -0.00192118 0.00000000
3.50444069 0.44653378 -0.00077508 0.00000000
0.98893179 1.21400467 0.00446357 0.00000000
4.36021490 0.06029914 -0.00517712 0.00000000
3.39563292 1.92980190 0.00075023 0.00000000
0.01950822 0.68370753 0.00341129 0.00000000
3.69887122 0.01355001 -0.00177155 0.00000000
4.56043679 1.33191094 0.00315109 0.00000000
4.09685555 0.05523136 -0.00030263 0.00000000
3.56036783 1.78623083 0.00329462 0.00000000
3.39897662 1.63743373 0.00130267 0.00000000
4.09476123 0.30263757 -0.00155914 0.00000000
0.07830143 1.61890089 -0.00155481 0.00000000
2.11945289 0.12923052 0.00405799 0.00000000
4.26770650 1.71411871 0.00623204 0.00000000
4.51651620 0.02401478 -0.00060026 0.00000000
2.67032731 1.33190431 -0.00228212 0.00000000
0.14290899 1.32594649 0.00269705 0.00000000
3.30941138 1.37851393 -0.00276026 0.00000000
3.80479461 0.67551192 0.00544899 0.00000000
2.12510164 0.28022891 -0.00136514 0.00000000
1.56882906 0.46276954 -0.00030216 0.00000000
2.42922140 1.31989384 -0.00156684 0.00000000
3.52775550 1.07209105 -0.00191359 0.00000000
3.04929965 1.88093826 0.00097244 0.00000000
2.28846348 0.92716724 0.00075879 0.00000000
4.02342128 1.13917172 0.00353789 0.00000000
2.59741162 1.57826514 0.00358485 0.00000000
3.14635596 1.07847166 0.00312961 0.00000000
0.41830045 0.66527475 0.00158490 0.00000000
3.27356220 0.03865798 -0.00191547 0.00000000
0.07448416 0.84562835 0.00388212 0.00000000
1.37757860 1.20323118 -0.00455528 0.00000000
4.51172709 1.69021362 -0.00191361 0.00000000
4.53134180 0.72666957 0.00249026 0.00000000
2.99504934 0.23696281 0.00121270 0.00000000
1.23585489 0.03001641 0.00070857 0.00000000
4.39385629 1.15276770 -0.00031153 0.00000000
0.32949130 1.26343856 -0.00340442 0.00000000
4.48920858 1.68162881 0.00040871 0.00000000
0.54295910 0.22279680 -0.00006310 0.00000000
4.24753863 0.50109956 -0.00252900 0.00000000
2.50952529 1.87221031 0.00208027 0.00000000
1.56575059 1.24796540 -0.00270683 0.00000000
0.93304116 0.01971242 -0.00289227 0.00000000
0.11766794 0.05529032 -0.00016137 0.00000000
0.04872755 0.31172028 0.00420734 0.00000000
4.19542953 1.55941245 0.00060122 0.00000000
0.75905244 1.45782247 0.00189667 0.00000000
3.29406081 0.08720543 0.00005252 0.00000000
3.62655809 0.60750892 -0.00179588 0.00000000
0.04706559 0.09394929 0.00435944 0.00000000
2.82673124 1.40274169 -0.00265850 0.00000000
0.96990946 1.65650221 0.00083318 0.00000000
0.33887924 1.56886738 0.00313377 0.00000000
4.30908303 0.25407105 0.00251091 0.00000000
3.88220504 1.49172198 -0.00456771 0.00000000
3.28261709 0.26612914 0.00075858 0.00000000
2.84092384 0.19840515 -0.00425435 0.00000000
1.76502927 1.88285790 -0.00206783 0.00000000
4.03717689 0.43930431 -0.00199602 0.00000000
1.77675279 1.74138845 -0.00300377 0.00000000
3.07422929 1.24684381 -0.00121455 0.00000000
3.96820161 0.29903035 0.00169619 0.00000000
3.61284288 1.83729169 0.00038190 0.00000000
3.05857609 0.62717251 -0.00136711 0.00000000
4.43534366 0.38838747 -0.00258038 0.00000000
0.03089814 0.34793211 -0.00010675 0.00000000
3.46720022 0.89821770 0.00078924 0.00000000
0.09563638 1.61346111 -0.00287557 0.00000000
2.17664559 1.42180894 0.00033572 0.00000000
1.14549733 1.88309082 -0.00100192 0.00000000
0.49048278 1.30932108 0.00156629 0.00000000
1.44087196 1.43567558 -0.00405092 0.00000000
4.17969820 0.41227823 0.00483899 0.00000000
1.06256246 1.24494957 -0.00153920 0.00000000
2.14976695 1.79838009 -0.00219050 0.00000000
3.36563551 1.91421057 -0.00012467 0.00000000
1.42981377 1.45730694 0.00623487 0.00000000
0.79695079 1.88856534 -0.00241673 0.00000000
0.85491430 1.55466547 0.00060049 0.00000000
1.46496011 0.60879088 0.00091637 0.00000000
2.44910683 0.42009801 -0.00211500 0.00000000
2.73462131 1.54256193 0.00140855 0.00000000
3.72441575 0.02416463 0.00259637 0.00000000
0.69276795 0.14363228 -0.00020292 0.00000000
3.66823147 0.70656658 0.00377739 0.00000000
3.30271897 0.13251215 -0.00215219 0.00000000
0.51759664 0.76986602 -0.00087821 0.00000000
0.94743267 0.47791328 -0.00465214 0.00000000
3.06463686 1.60792339 -0.00271767 0.00000000
0.99105030 1.62346284 -0.00073348 0.00000000
1.18009001 0.20779942 -0.00034208 0.00000000
1.52929362 0.44757171 0.00701209 0.00000000
4.51141670 1.72507005 0.00064507 0.00000000
2.64578527 1.61147757 -0.00165463 0.00000000
3.89460563 0.20814098 -0.00017791 0.00000000
1.41021194 0.22484200 -0.00050441 0.00000000
0.83542398 1.33983016 0.00285540 0.00000000
3.95742341 1.03125118 -0.00068435 0.00000000
0.32645427 0.44143598 0.00273795 0.00000000
2.50173325 1.83439116 -0.00081224 0.00000000
0.51234523 0.83109806 -0.00007883 0.00000000
0.42655763 0.75288390 0.00422639 0.00000000
3.70584470 0.72543987 -0.00083180 0.00000000
3.24185202 0.83989057 -0.00320069 0.00000000
3.92449448 0.20643309 0.00404971 0.00000000
