4.14051606 0.18101725 0.00105938 0.00000000
0.52213184 0.87325125 0.00237997 0.00000000
0.53824432 0.15930315 0.00039242 0.00000000
2.65767803 0.06572758 0.00064308 0.00000000
3.38257642 0.03907699 0.00188782 0.00000000
0.32148643 0.39799750 -0.00157852 0.00000000
2.82203354 0.81017912 0.00087252 0.00000000
0.49671105 0.00265230 0.00182130 0.00000000
2.89940707 1.37367401 -0.00162009 0.00000000
0.08449837 0.68972621 -0.00380635 0.00000000
0.54795375 0.40736648 0.00405636 0.00000000
2.12879357 1.58959453 0.00235166 0.00000000
2.60101170 1.43548768 -0.00099597 0.00000000
2.48130583 1.29644547 0.00155441 0.00000000
2.29320424 0.17917330 -0.00079297 0.00000000
3.24518832 1.08277427 -0.00152585 0.00000000
1.95389788 1.05054311 -0.00141280 0.00000000
4.14190067 0.50949386 0.00092031 0.00000000
3.81912105 0.95590833 -0.00197914 0.00000000
0.80321235 1.37962920 0.00515342 0.00000000
3.07636036 0.44898606 -0.00008066 0.00000000
4.40279548 0.79715633 0.00118245 0.00000000
0.24424511 0.30851298 0.00250752 0.00000000
0.50001184 0.76466738 0.00266436 0.00000000
3.01118914 1.08646639 0.00014741 0.00000000
4.24521480 0.41783689 0.00122539 0.00000000
4.30954833 0.99317062 -0.00131853 0.00000000
1.29419109 1.21029516 0.00160591 0.00000000
1.91171852 0.73365050 -0.00468105 0.00000000
0.36013459 1.05586904 0.00087810 0.00000000
1.80082577 1.15836620 0.00251048 0.00000000
1.52269754 0.62443514 -0.00012236 0.00000000
3.78096179 1.61163382 0.00310577 0.00000000
2.18551228 0.16531900 0.00108385 0.00000000
3.69418921 1.51313091 0.00326160 0.00000000
0.14347123 0.79723556 -0.00244694 0.00000000
4.28998608 1.25279671 -0.00073901 0.00000000
1.83885596 0.45971200 -0.00045925 0.00000000
3.65463360 0.00167974 0.00057659 0.00000000
3.49186347 0.99081474 -0.00098491 0.00000000
1.57970840 0.97762103 0.00149867 0.00000000
3.64015677 0.67760912 0.00175459 0.00000000
1.65380170 0.45530807 0.00237360 0.00000000
2.93605960 1.07035212 0.00233259 0.00000000
2.83271378 0.23057183 -0.00146898 0.00000000
0.35700535 1.28987501 0.00261126 0.00000000
4.19941363 1.32087495 -0.00272430 0.00000000
0.18818703 1.42115946 0.00040656 0.00000000
2.60212132 0.19983016 -0.00024525 0.00000000
3.25500431 1.19610558 0.00062116 0.00000000
0.11674894 0.27437457 0.00174902 0.00000000
1.71931765 1.25954490 -0.00242422 0.00000000
2.11882843 1.36455653 -0.00195470 0.00000000
4.16196218 1.01610420 0.00130743 0.00000000
2.22399622 0.76661022 0.00503135 0.00000000
1.61652323 0.41737414 0.00116193 0.00000000
1.98772323 1.43364710 0.00242390 0.00000000
3.83854022 0.47478549 0.00112247 0.00000000
3.82743450 1.28577649 -0.00534966 0.00000000
1.53231040 1.03193845 -0.00335944 0.00000000
4.17541316 1.21521042 -0.00320827 0.00000000
4.20812980 0.94487168 0.00004211 0.00000000
0.69687250 0.96052289 0.00070034 0.00000000
2.02961908 0.61010757 -0.00423365 0.00000000
1.97477244 0.95685675 -0.00161781 0.00000000
3.51570558 0.02223524 0.00567563 0.00000000
1.13450085 0.78143516 -0.00355840 0.00000000
2.04855168 0.89513746 0.00086813 0.00000000
0.78778493 0.29356846 -0.00065864 0.00000000
3.68318612 0.91611655 -0.00103321 0.00000000
2.28372810 0.81635776 0.00249977 0.00000000
3.95668500 0.54316715 0.00395022 0.00000000
2.94724968 1.35944070 0.00008244 0.00000000
3.64262378 0.58366427 0.00340374 0.00000000
0.35439111 1.33155613 0.00126091 0.00000000
2.38754462 1.40770133 -0.00182204 0.00000000
3.96924253 0.97983996 -0.00401955 0.00000000
1.22500915 1.02318338 -0.00013461 0.00000000
0.69996768 1.35982541 -0.00281301 0.00000000
2.19417747 0.77103383 0.00513383 0.00000000
3.03697094 0.86961693 -0.00249608 0.00000000
0.60614362 0.88135348 0.00123931 0.00000000
4.40369812 1.37533679 -0.00188103 0.00000000
3.70054854 0.64002555 0.00373148 0.00000000
3.45073673 0.56860680 -0.00014302 0.00000000
2.18265943 0.95405286 -0.00034614 0.00000000
1.74611242 0.29281703 -0.00273840 0.00000000
2.21789588 1.24082604 0.00242269 0.00000000
4.02297084 0.63424662 -0.00173819 0.00000000
4.39173414 0.88759665 -0.00099472 0.00000000
4.32752228 0.64888649 0.00098759 0.00000000
0.35344430 1.08936163 0.00217230 0.00000000
3.95060569 0.68973809 0.00025151 0.00000000
2.66899010 0.22830418 -0.00012001 0.00000000
4.40723573 1.16086534 -0.00137173 0.00000000
2.75237949 0.10250344 -0.00059298 0.00000000
2.13875081 0.22246524 0.00042864 0.00000000
3.41375773 0.26520157 -0.00454535 0.00000000
1.40059955 0.42335243 -0.00199240 0.00000000
2.43920939 0.27407027 0.00285509 0.00000000
0.75556477 0.50592243 -0.00004176 0.00000000
3.14600509 0.82016796 -0.00028885 0.00000000
0.95508979 1.32624916 -0.00254367 0.00000000
4.39752059 0.42855304 -0.00365341 0.00000000
4.12043882 1.42176570 -0.00304087 0.00000000
1.18819950 1.51655821 0.00044843 0.00000000
2.35453332 1.57404702 0.00059569 0.00000000
0.27459290 0.88737972 0.00209128 0.00000000
2.13391780 1.59654555 -0.00113044 0.00000000
4.17628541 0.40931895 -0.00062255 0.00000000
2.50568078 0.36757354 0.00125717 0.00000000
3.02765786 1.35366496 0.00083409 0.00000000
0.42773970 1.01410892 -0.00535371 0.00000000
2.67643535 1.32584752 0.00159371 0.00000000
3.92398872 0.43954798 -0.00140830 0.00000000
2.38849325 1.27647607 0.00127933 0.00000000
1.78765910 1.10151431 -0.00122142 0.00000000
3.83275429 1.00475333 -0.00068072 0.00000000
1.43244455 1.39869946 -0.00460226 0.00000000
1.40348378 0.54475337 -0.00028800 0.00000000
1.42467890 0.56001604 0.00231077 0.00000000
3.15434329 0.11804064 0.00100163 0.00000000
2.00067694 1.21487493 0.00781082 0.00000000
2.15514647 1.37814033 -0.00093050 0.00000000
0.90760642 0.30512758 -0.00456337 0.00000000
2.41433610 1.47636657 -0.00061147 0.00000000
0.37930230 0.31459428 0.00497004 0.00000000
2.87976879 0.75118150 -0.00189839 0.00000000
4.17534493 0.62965573 -0.00043358 0.00000000
3.32008402 0.34022870 0.00169465 0.00000000
0.99513014 0.85969963 0.00163324 0.00000000
1.55723054 0.81620384 0.00184444 0.00000000
0.11158861 1.33263050 -0.00490143 0.00000000
0.04678872 0.59341536 0.00564181 0.00000000
0.11694617 1.07209068 0.00051869 0.00000000
0.24824284 1.41411596 0.00046416 0.00000000
3.75926251 1.36274312 0.00212285 0.00000000
2.54151230 1.53479998 -0.00095746 0.00000000
0.66686003 0.34152840 -0.00017233 0.00000000
2.38922814 0.05122692 -0.00031415 0.00000000
3.20887246 0.46732783 -0.00029374 0.00000000
1.99141924 0.22413391 0.00111195 0.00000000
4.34892215 0.51725257 0.00007643 0.00000000
0.78972578 0.50119526 -0.00211127 0.00000000
0.46566649 1.09574258 0.00004982 0.00000000
1.14967122 1.29828874 -0.00072614 0.00000000
3.88443612 1.56818897 0.00344951 0.00000000
2.87878255 0.32989476 0.00183326 0.00000000
2.70245249 0.07804664 -0.00096134 0.00000000
1.49981629 1.19341899 0.00018724 0.00000000
1.24965866 0.35519746 -0.00293745 0.00000000
0.56403375 1.33812226 -0.00147310 0.00000000
1.68919969 0.55788059 0.00262048 0.00000000
0.06357865 0.17762325 0.00188737 0.00000000
3.28366264 1.56874338 0.00157097 0.00000000
3.33030738 1.12381293 0.00175159 0.00000000
4.24338686 0.24436538 -0.00042830 0.00000000
0.92719941 0.64926462 -0.00137316 0.00000000
2.69304303 0.84297823 -0.00259298 0.00000000
0.34615656 1.28688998 -0.00271604 0.00000000
3.06592530 0.42744312 -0.00326931 0.00000000
0.23275646 1.39796221 0.00181965 0.00000000
1.33203368 0.81415300 0.00163395 0.00000000
3.55882147 1.44499587 -0.00192269 0.00000000
3.43669212 0.25885877 0.00398391 0.00000000
1.07609928 0.35502038 0.00426085 0.00000000
4.07523904 1.35310498 -0.00388183 0.00000000
3.49977219 1.21706324 -0.00050510 0.00000000
2.72648341 0.38268804 -0.00363353 0.00000000
3.09836164 0.99575482 -0.00340634 0.00000000
2.97128327 0.99868378 0.00268210 0.00000000
0.06799782 1.11734672 0.00205903 0.00000000
1.38717172 1.16347134 -0.00393477 0.00000000
1.75061683 0.09622170 0.00125041 0.00000000
4.05117669 0.11724285 0.00342393 0.00000000
2.33882856 0.72865965 0.00024678 0.00000000
0.36908446 0.40941001 -0.00397842 0.00000000
3.91121935 0.28010725 -0.00034079 0.00000000
1.85448133 0.48094246 0.00115920 0.00000000
1.93600483 1.47361756 0.00155401 0.00000000
0.67392493 1.51462586 -0.00209808 0.00000000
4.30583325 0.37685278 -0.00198326 0.00000000
0.88432230 1.10532078 -0.00499938 0.00000000
0.12581366 0.70548017 0.00478012 0.00000000
2.28599316 0.83560207 -0.00127970 0.00000000
0.09078573 1.23660450 -0.00039689 0.00000000
2.30417567 0.92035882 0.00207876 0.00000000
0.13119970 1.46475655 0.00642982 0.00000000
4.10616721 1.31608636 -0.00321128 0.00000000
0.76183873 0.54755837 -0.00568256 0.00000000
1.49159922 0.44041580 0.00458069 0.00000000
0.53349396 0.76995129 0.00034540 0.00000000
3.59853296 0.54536922 0.00104884 0.00000000
1.43278152 1.18521331 -0.00278541 0.00000000
1.02131873 0.95738436 -0.00168143 0.00000000
1.25854373 0.59055983 0.00117518 0.00000000
0.71462943 0.60040754 -0.00183352 0.00000000
2.13806574 1.59391871 0.00120848 0.00000000
1.60748048 0.98601561 -0.00112592 0.00000000
0.43621784 1.05300546 0.00160101 0.00000000
0.37388738 0.40795379 -0.00003087 0.00000000
4.21910187 0.61162367 0.00087108 0.00000000
3.82637610 0.00154114 0.00310034 0.00000000
3.73394047 1.33411031 0.00184588 0.00000000
2.06546515 1.04476878 -0.00205815 0.00000000
3.17887350 0.74725662 0.00062519 0.00000000
0.90804622 0.55963277 -0.00170279 0.00000000
2.97720094 1.14971589 0.00191790 0.00000000
2.59395070 0.36122858 0.00235986 0.00000000
1.13137793 0.02401962 -0.00282740 0.00000000
2.42130431 0.63531234 -0.00166436 0.00000000
3.83291027 0.20985282 -0.00097421 0.00000000
1.39421949 0.72814109 -0.00103527 0.00000000
1.10007184 0.59307027 -0.00256396 0.00000000
3.67379200 1.35094955 -0.00014433 0.00000000
3.01683855 0.32107836 0.00248403 0.00000000
1.57047590 0.78346375 0.00415554 0.00000000
0.64730441 1.37467680 0.00430557 0.00000000
2.74476879 0.76345476 0.00026730 0.00000000
4.15252486 0.66884170 0.00320153 0.00000000
0.81898212 0.90618701 -0.00601464 0.00000000
2.37763995 0.81709587 0.00318181 0.00000000
2.35650990 0.58826465 -0.00486777 0.00000000
4.01042523 1.09808236 -0.00114301 0.00000000
1.46641459 1.05360124 -0.00456629 0.00000000
3.04263443 0.41896790 0.00106543 0.00000000
3.09731401 0.80247793 0.00041410 0.00000000
4.14380880 0.95106628 0.00003136 0.00000000
4.37405821 0.58516953 -0.00383194 0.00000000
2.52352569 0.93680826 -0.00161297 0.00000000
2.30024428 0.34816412 0.00239248 0.00000000
1.80590104 1.01440239 -0.00212854 0.00000000
2.88345057 1.09713413 -0.00430556 0.00000000
4.33518681 0.32695537 -0.00432194 0.00000000
3.37688928 0.22881147 0.00175224 0.00000000
2.66032266 1.58586693 0.00155000 0.00000000
2.50032491 0.58368147 -0.00475833 0.00000000
0.47373793 0.56169288 -0.00376845 0.00000000
0.38300689 0.17592295 -0.00303858 0.00000000
0.35823985 1.15926214 0.00111219 0.00000000
3.10344468 0.45386964 -0.00295305 0.00000000
3.25075220 0.85921608 0.00050043 0.00000000
4.29543170 0.78124522 0.00067258 0.00000000
3.91035850 1.16314300 -0.00383436 0.00000000
1.10163566 0.19480802 0.00178367 0.00000000
1.55947646 1.13858925 -0.00080160 0.00000000
1.69972511 0.11150425 -0.00442687 0.00000000
4.16182034 0.56745181 0.00331903 0.00000000
3.32916186 0.10109163 -0.00286221 0.00000000
1.22855832 0.91326923 -0.00129303 0.00000000
2.29264168 1.49870479 -0.00018974 0.00000000
3.21098632 0.24908907 0.00403168 0.00000000
2.71269490 0.88034631 -0.00221210 0.00000000
4.00893989 0.54116759 -0.00323248 0.00000000
4.11785147 0.97652925 0.00022428 0.00000000
1.41694452 1.14635182 0.00061279 0.00000000
2.47546455 0.44681510 -0.00406924 0.00000000
0.60507554 0.73338768 0.00175055 0.00000000
2.58517240 0.71742678 0.00207472 0.00000000
0.51907218 1.13419834 0.00420832 0.00000000
0.01736431 0.76365119 -0.00152709 0.00000000
1.13440098 1.15341710 0.00038992 0.00000000
2.30479505 0.16255042 -0.00373469 0.00000000
3.95142202 0.22341463 0.00133066 0.00000000
1.52549230 0.17265594 -0.00036097 0.00000000
2.52249681 0.10858047 0.00326039 0.00000000
3.62177457 0.68021516 0.00059564 0.00000000
4.14638161 0.51416608 -0.00212068 0.00000000
0.05482376 1.02760286 -0.00059724 0.00000000
0.23996881 1.20643271 0.00165503 0.00000000
1.57373100 0.96068908 0.00029954 0.00000000
0.33167278 1.51719788 -0.00185681 0.00000000
2.98165389 0.16309941 -0.00132321 0.00000000
3.00579512 1.05346350 -0.00296062 0.00000000
0.77948568 0.61278575 0.00229354 0.00000000
1.49169365 0.15721527 -0.00077031 0.00000000
0.55369662 0.73663638 -0.00138918 0.00000000
3.64102998 0.51915516 0.00344650 0.00000000
1.13599529 0.49207288 -0.00251146 0.00000000
2.62029420 1.30170333 0.00326179 0.00000000
3.17370498 0.18272507 0.00232907 0.00000000
4.32909169 1.10602703 0.00230640 0.00000000
1.42411070 0.18687724 -0.00362494 0.00000000
4.22426568 0.36310710 -0.00277120 0.00000000
3.45453603 0.73221955 0.00292690 0.00000000
0.88855409 0.17442981 0.00367313 0.00000000
2.37945709 0.60659560 0.00548149 0.00000000
2.28721413 1.29653595 -0.00306607 0.00000000
0.23526380 0.84858867 -0.00290801 0.00000000
4.35216918 1.06353845 0.00259262 0.00000000
2.95791875 0.32135214 0.00067671 0.00000000
1.68044609 1.24588376 0.00273356 0.00000000
0.59152387 1.49866851 0.00059722 0.00000000
0.75674998 1.23317963 -0.00024598 0.00000000
3.41774866 0.45200395 -0.00214093 0.00000000
3.99095124 1.00641789 -0.00114834 0.00000000
0.34334461 0.67384176 -0.00246226 0.00000000
1.32493287 0.39075954 -0.00159283 0.00000000
3.67120127 0.28722686 0.00159549 0.00000000
0.99834282 0.36187111 0.00220737 0.00000000
0.30515742 0.23327616 -0.00197281 0.00000000
3.33989041 1.19761144 -0.00159789 0.00000000
1.99653243 1.25296936 -0.00091568 0.00000000
4.23061710 1.55207446 -0.00180814 0.00000000
4.13315835 1.45664024 -0.00142449 0.00000000
2.79681728 0.84738818 0.00090996 0.00000000
1.20278404 0.31721279 0.00226322 0.00000000
3.79338592 0.12027696 0.00330914 0.00000000
0.24666679 0.00213814 -0.00329602 0.00000000
3.21473074 0.11087580 -0.00378945 0.00000000
2.26209215 1.40780982 -0.00561137 0.00000000
1.73462143 0.08176819 0.00371609 0.00000000
2.06001353 0.03322826 0.00130814 0.00000000
1.48704609 0.51545732 0.00380325 0.00000000
2.61481866 0.45254506 -0.00112828 0.00000000
2.35500182 0.95914587 0.00245652 0.00000000
3.91497812 1.30298892 0.00281427 0.00000000
0.93470917 1.35303853 -0.00368955 0.00000000
0.30121619 1.34595392 -0.00378891 0.00000000
1.41292973 1.24618739 0.00322152 0.00000000
1.09694691 1.42027998 -0.00019770 0.00000000
3.14148996 0.79400269 0.00181000 0.00000000
0.04920551 0.45257568 -0.00282169 0.00000000
1.89299290 0.90023510 -0.00214541 0.00000000
3.39327006 1.25593430 0.00068572 0.00000000
2.70632398 1.14112064 0.00275218 0.00000000
3.90409114 0.98273606 -0.00073594 0.00000000
0.03651998 0.12747723 0.00401798 0.00000000
2.38852053 1.54263100 0.00055649 0.00000000
1.50603188 0.56568963 -0.00201536 0.00000000
4.12884030 1.33984286 0.00081992 0.00000000
3.93710722 1.44970241 -0.00485641 0.00000000
2.73207153 0.28407865 0.00091222 0.00000000
2.45191203 1.42383147 0.00223453 0.00000000
3.63264656 0.99202997 -0.00076937 0.00000000
3.41133316 1.12939383 0.00221391 0.00000000
4.15545923 1.33820283 0.00334648 0.00000000
0.09754264 0.81573250 0.00180189 0.00000000
0.08596211 1.14121154 -0.00360542 0.00000000
3.52467785 0.55562041 0.00105369 0.00000000
3.68065663 0.93051486 0.00285896 0.00000000
4.12346153 0.63056963 -0.00111646 0.00000000
2.07216839 0.45009744 0.00239048 0.00000000
2.66133145 1.01355542 -0.00223381 0.00000000
2.82683167 1.47598069 -0.00477134 0.00000000
2.18574788 1.37312449 -0.00274063 0.00000000
2.96708626 0.01712396 0.00063011 0.00000000
3.16865834 0.31354569 -0.00100170 0.00000000
2.14333793 1.17441256 0.00472492 0.00000000
3.95902012 0.72533817 -0.00106801 0.00000000
2.47717758 1.12668805 0.00459807 0.00000000
0.14970959 1.43239881 -0.00119879 0.00000000
3.35209772 0.97999248 0.00188634 0.00000000
3.49564647 0.82529907 0.00230590 0.00000000
3.13629955 0.22502721 0.00062397 0.00000000
1.52318432 0.45768927 0.00313470 0.00000000
3.67535753 1.44861561 0.00098946 0.00000000
4.29626839 0.03780785 -0.00319984 0.00000000
0.53905542 0.32770930 -0.00069069 0.00000000
0.29984919 1.12696020 -0.00390707 0.00000000
1.16531022 1.13797035 0.00286731 0.00000000
3.80067719 0.93234803 -0.00134377 0.00000000
2.99700555 0.40144199 -0.00007749 0.00000000
3.41264322 0.59050717 0.00365104 0.00000000
0.99422171 0.06825128 -0.00409844 0.00000000
0.59042800 0.14627051 -0.00212299 0.00000000
2.18326339 1.45876767 0.00230615 0.00000000
0.50330496 0.67660671 -0.00179493 0.00000000
0.45858801 0.16790148 0.00089320 0.00000000
1.05112449 0.38896723 0.00248051 0.00000000
0.75807163 0.73557759 -0.00004198 0.00000000
3.79247986 1.07666521 0.00049353 0.00000000
1.49911081 1.53490398 0.00099120 0.00000000
3.71366537 0.31844672 -0.00276919 0.00000000
2.89009005 1.00209959 0.00199528 0.00000000
0.09196534 0.34288523 -0.00108830 0.00000000
3.77676167 0.45435122 -0.00247767 0.00000000
4.24218539 1.03205572 0.00165099 0.00000000
2.65930107 0.52337178 0.00532614 0.00000000
3.58359238 0.19169616 -0.00574925 0.00000000
3.81613709 0.96693224 -0.00277751 0.00000000
3.12604247 1.44435599 -0.00323389 0.00000000
3.44097081 0.23128470 0.00335133 0.00000000
3.57316551 1.40833680 -0.00011242 0.00000000
2.62025458 1.10357977 0.00160276 0.00000000
3.14308865 1.14489661 -0.00373848 0.00000000
1.58797795 0.52093051 0.00305840 0.00000000
2.42896070 1.48774659 0.00173282 0.00000000
3.31228686 0.33859534 -0.00162633 0.00000000
4.41107914 0.62583381 -0.00332340 0.00000000
2.83142577 0.70645516 0.00068293 0.00000000
2.97333016 0.03795472 0.00159341 0.00000000
0.42706106 0.42886678 -0.00736349 0.00000000
3.94950484 0.65329807 -0.00367928 0.00000000
3.59860878 0.69621952 0.00060078 0.00000000
1.20659878 0.10656114 0.00125683 0.00000000
2.34073276 0.77853199 0.00164908 0.00000000
1.38708094 1.34152680 -0.00446844 0.00000000
0.79946207 0.83960567 0.00095059 0.00000000
0.28831028 0.75778505 0.00055636 0.00000000
1.98846699 0.06212969 0.00040131 0.00000000
0.16627767 0.85168901 0.00264823 0.00000000
2.31954464 0.94340748 0.00246286 0.00000000
2.63233815 0.16628022 -0.00312783 0.00000000
0.14249080 1.17843109 0.00079601 0.00000000
1.78310843 0.49440899 0.00014185 0.00000000
3.97232721 1.50711681 0.00225390 0.00000000
1.43145381 1.22279240 0.00140849 0.00000000
1.52156776 1.20671628 0.00440396 0.00000000
0.19177565 1.46586903 0.00414307 0.00000000
2.35036335 1.52220405 -0.00039101 0.00000000
2.30765355 1.25278426 -0.00120525 0.00000000
4.02881932 0.25036699 -0.00116322 0.00000000
2.78285462 1.49379692 -0.00039450 0.00000000
3.19343599 0.86333609 -0.00045226 0.00000000
2.86244511 1.53955338 -0.00093742 0.00000000
4.23830229 0.59593022 -0.00114424 0.00000000
0.91057763 0.76755095 0.00002808 0.00000000
3.41692787 0.45096273 0.00038609 0.00000000
3.65601779 0.88191174 -0.00365508 0.00000000
3.32939804 0.30136157 -0.00281135 0.00000000
2.98317354 0.58274536 -0.00333285 0.00000000
3.27934446 1.29429637 -0.00221153 0.00000000
0.14512935 0.99907990 0.00067953 0.00000000
1.56820549 0.29249238 0.00073516 0.00000000
2.49671442 1.50405193 -0.00085982 0.00000000
4.37803550 0.35242691 0.00234326 0.00000000
3.08659747 1.55572458 0.00292606 0.00000000
3.01700548 0.02505996 -0.00118270 0.00000000
1.02934033 0.85333685 -0.00088164 0.00000000
2.37988525 0.45079822 0.00012119 0.00000000
2.28989461 1.41723013 -0.00033198 0.00000000
4.33712333 0.06219274 0.00191287 0.00000000
0.85998972 0.94349807 0.00003395 0.00000000
3.92826456 1.52258553 0.00142069 0.00000000
3.80557936 1.13342124 -0.00045342 0.00000000
3.76601134 1.29000432 0.00371667 0.00000000
4.18884614 0.40129818 0.00068491 0.00000000
1.93768744 0.08669801 -0.00102794 0.00000000
2.68302386 0.68301423 0.00318641 0.00000000
0.59687863 1.44627475 -0.00065430 0.00000000
1.80750988 0.88876009 0.00158370 0.00000000
0.33225351 0.59917371 0.00121603 0.00000000
4.16942595 0.68216830 0.00023881 0.00000000
0.94121278 0.38340878 -0.00361065 0.00000000
2.63641786 1.40718756 0.00227580 0.00000000
1.20564155 1.37248400 0.00139287 0.00000000
4.03371568 0.70772257 0.00196327 0.00000000
0.68032492 0.21945413 -0.00044987 0.00000000
2.91138060 1.57706671 -0.00332256 0.00000000
2.19088511 1.09435890 0.00157928 0.00000000
2.63548696 0.54058653 -0.00041278 0.00000000
3.95377407 0.85818012 -0.00112728 0.00000000
2.91422164 0.82482199 0.00012375 0.00000000
3.08957897 1.54437345 -0.00432423 0.00000000
2.82788383 1.49348919 -0.00607930 0.00000000
2.40590150 0.22349015 0.00199790 0.00000000
1.30942239 0.09439944 -0.00389383 0.00000000
1.20021177 1.11663617 0.00223766 0.00000000
0.00790160 1.60059198 0.00313839 0.00000000
0.97773387 0.07271198 -0.00112286 0.00000000
1.22974453 0.66083777 -0.00043528 0.00000000
2.54258246 1.30520317 -0.00085073 0.00000000
2.00931778 0.50764277 0.00050698 0.00000000
3.54489396 0.79143780 0.00047646 0.00000000
4.07264635 0.07428175 0.00505998 0.00000000
3.34412282 1.57679603 0.00304888 0.00000000
4.23684895 1.47686153 -0.00009505 0.00000000
0.61581283 0.03892505 -0.00154975 0.00000000
2.88963761 1.40090057 -0.00005587 0.00000000
3.79165333 0.95926808 0.00160276 0.00000000
0.45819108 0.62641000 -0.00036234 0.00000000
0.42555909 1.33972982 -0.00324745 0.00000000
3.49431619 1.04890214 -0.00141509 0.00000000
2.96866649 0.74523597 0.00099169 0.00000000
1.60482605 1.07910477 -0.00578690 0.00000000
0.70191008 0.05097621 -0.00350615 0.00000000
1.21474893 1.23239892 -0.00193995 0.00000000
1.31977141 0.86651525 0.00466183 0.00000000
1.26023429 1.34040694 -0.00037452 0.00000000
0.91277835 0.81069974 0.00219139 0.00000000
0.67351702 0.14233591 0.00190041 0.00000000
2.32447454 0.43538564 -0.00183548 0.00000000
2.30511226 0.77487394 0.00040958 0.00000000
2.05797370 0.69774584 -0.00051014 0.00000000
2.89670293 0.48800521 0.00002609 0.00000000
2.93415871 0.96110056 -0.00090681 0.00000000
3.89296559 1.02218200 0.00053694 0.00000000
2.94394019 0.69708722 0.00073131 0.00000000
3.64534299 0.93435803 -0.00159837 0.00000000
2.06645560 0.93913299 0.00057948 0.00000000
0.36538714 1.41848510 -0.00190891 0.00000000
2.81888763 1.49214361 0.00080911 0.00000000
1.19651617 1.15698105 0.00144890 0.00000000
3.52056363 0.85798258 0.00175634 0.00000000
0.56317737 0.25881532 -0.00019691 0.00000000
1.28062751 0.36378798 0.00458838 0.00000000
0.05189354 1.29593653 -0.00285128 0.00000000
2.51612281 1.14117738 -0.00196075 0.00000000
1.81336358 0.08484212 0.00225558 0.00000000
2.24741878 0.35851847 0.00110906 0.00000000
1.22393016 0.13404526 -0.00746875 0.00000000
1.74552389 0.79729085 -0.00162888 0.00000000
0.62494187 1.26478191 -0.00013765 0.00000000
4.03621602 0.66943033 -0.00020035 0.00000000
2.72101999 0.97443566 -0.00049370 0.00000000
3.33405551 0.79633434 0.00396283 0.00000000
4.40132091 0.39527517 -0.00167354 0.00000000
1.57969513 1.18806082 -0.00082890 0.00000000
3.84228402 1.43912533 -0.00247261 0.00000000
1.42855775 1.53258976 -0.00076429 0.00000000
1.37060310 1.00169751 0.00244203 0.00000000
2.35289201 0.37093214 0.00344147 0.00000000
1.95392811 1.05984224 -0.00360593 0.00000000
2.13568963 1.61034574 -0.00354162 0.00000000
3.72428049 0.58022307 -0.00136759 0.00000000
1.96292570 0.74620609 -0.00033217 0.00000000
0.51707300 1.35341384 0.00222331 0.00000000
0.59326102 1.12096918 -0.00071868 0.00000000
4.30754649 0.16236161 0.00191461 0.00000000
3.03222129 0.59042588 0.00041492 0.00000000
0.63963005 0.68360885 0.00116007 0.00000000
2.53732313 1.12145939 -0.00138353 0.00000000
1.26470889 0.44637033 -0.00487047 0.00000000
3.19426236 0.92749193 0.00002780 0.00000000
2.54970576 0.12617022 0.00149908 0.00000000
1.56133888 0.28003697 -0.00162273 0.00000000
4.17941051 1.45079268 -0.00292397 0.00000000
1.27288688 1.26466247 -0.00294434 0.00000000
3.26058142 0.84621444 0.00071528 0.00000000
1.88616307 0.25556102 0.00208181 0.00000000
2.11387497 0.43848800 0.00192339 0.00000000
2.19684462 1.29116675 -0.00284889 0.00000000
1.30388571 0.18340947 0.00031898 0.00000000
3.28529472 0.17025323 -0.00082802 0.00000000
2.45930069 0.07942116 0.00207001 0.00000000
2.27588660 0.88647001 0.00027006 0.00000000
0.48443333 0.62188488 0.00184545 0.00000000
2.42667581 0.18319012 -0.00136317 0.00000000
1.16067737 1.12925383 0.00022737 0.00000000
2.34501573 0.07501684 -0.00418569 0.00000000
2.49701949 0.16179089 -0.00365751 0.00000000
1.76327344 0.47858047 -0.00119190 0.00000000
0.49334111 1.25323141 -0.00199934 0.00000000
2.43554256 0.21571026 -0.00211532 0.00000000
2.06903314 0.22277798 0.00026554 0.00000000
0.74077251 1.31321617 -0.00015370 0.00000000
2.02405226 1.26476844 0.00114903 0.00000000
2.31109169 1.14303507 -0.00017446 0.00000000
0.64945821 1.22500349 -0.00017265 0.00000000
3.65827430 1.45782277 0.00007668 0.00000000
0.60200179 1.33782942 0.00306633 0.00000000
0.45123549 1.58833667 -0.00128402 0.00000000
2.54263795 1.23269610 -0.00246932 0.00000000
1.45031588 0.29884907 0.00461625 0.00000000
1.20428961 0.06937366 -0.00031940 0.00000000
3.68444982 0.35988887 -0.00225729 0.00000000
1.28226586 0.62197822 0.00391476 0.00000000
2.41471273 0.82436444 0.00128984 0.00000000
1.11509046 0.22002791 -0.00039889 0.00000000
2.45083890 0.96215180 -0.00214980 0.00000000
3.54029751 1.05961131 0.00241077 0.00000000
4.40840940 0.61454881 0.00001607 0.00000000
4.00340496 1.59099546 0.00015518 0.00000000
3.07488502 1.18578188 -0.00225810 0.00000000
1.08725710 0.69567659 -0.00294551 0.00000000
3.84294632 0.36774577 -0.00047799 0.00000000
4.23520263 0.81549183 0.00068061 0.00000000
2.80843152 0.94509367 0.00281041 0.00000000
1.62312436 1.35639680 -0.00070636 0.00000000
0.33648679 1.24284741 0.00003873 0.00000000
2.02201906 0.84833981 0.00011138 0.00000000
0.51742767 1.19322394 0.00194454 0.00000000
1.32199097 0.16757685 -0.00020597 0.00000000
4.03952525 1.27082136 -0.00481456 0.00000000
1.32532375 0.01661959 -0.00132354 0.00000000
3.78258849 1.51132193 -0.00057225 0.00000000
2.41793770 0.98226979 -0.00167666 0.00000000
2.28267627 1.01941990 0.00136025 0.00000000
2.58059698 1.05274968 -0.00322708 0.00000000
2.64770197 0.03304735 -0.00100454 0.00000000
1.16840945 1.41179177 -0.00129890 0.00000000
4.25071041 0.42901943 -0.00312549 0.00000000
0.79377801 0.16389913 0.00088576 0.00000000
0.07496685 0.83079502 -0.00096001 0.00000000
3.53212477 0.94969713 -0.00158225 0.00000000
0.79510801 0.46008100 0.00036821 0.00000000
3.71904996 0.96859992 0.00157015 0.00000000
2.49260625 0.04365676 0.00035125 0.00000000
2.26768796 0.11660927 -0.00216520 0.00000000
1.94262466 0.40913932 -0.00624671 0.00000000
0.54718857 0.41563929 -0.00021753 0.00000000
3.53168962 0.71233338 -0.00251238 0.00000000
0.83194875 0.04855290 -0.00273304 0.00000000
2.91483727 0.32503207 -0.00342969 0.00000000
3.47823251 0.44675881 -0.00385194 0.00000000
0.30208287 1.48773356 -0.00183689 0.00000000
3.71882180 0.75972992 0.00053969 0.00000000
2.49070046 1.23793248 0.00194370 0.00000000
0.55266454 1.50288794 0.00166702 0.00000000
4.05731839 1.52037117 0.00349731 0.00000000
0.15959299 1.54314313 0.00156269 0.00000000
0.83417744 0.32935468 0.00127144 0.00000000
2.74203332 1.30942888 -0.00231921 0.00000000
0.70044173 1.51520173 0.00192783 0.00000000
2.27627289 0.97387053 -0.00173552 0.00000000
0.94904439 1.09063930 -0.00065734 0.00000000
3.44320186 0.83149808 0.00482143 0.00000000
2.98517735 1.03750834 0.00083038 0.00000000
1.57865742 0.55684069 0.00160524 0.00000000
3.51383251 0.92298856 -0.00144992 0.00000000
1.03831892 0.79714297 0.00685525 0.00000000
0.84587010 0.86686843 -0.00251601 0.00000000
4.25081214 0.23438938 -0.00107510 0.00000000
2.36429781 1.33275598 0.00104433 0.00000000
0.34173157 0.38785393 0.00332827 0.00000000
0.66987696 1.52962506 -0.00018635 0.00000000
2.80207074 1.24799683 0.00123334 0.00000000
4.39040389 0.98771704 0.00382259 0.00000000
2.59271138 0.12792494 0.00330518 0.00000000
0.30993480 1.29635290 -0.00049226 0.00000000
1.04620268 0.93145259 0.00389842 0.00000000
2.88169127 1.57887398 0.00052233 0.00000000
4.05184282 1.50834476 0.00237836 0.00000000
3.76714832 0.04037604 0.00020848 0.00000000
1.98056097 0.79498953 -0.00167493 0.00000000
0.05416685 0.19356308 -0.00059206 0.00000000
1.41878778 0.40245655 -0.00124383 0.00000000
0.54157218 0.05976085 0.00021420 0.00000000
0.29446560 0.39374681 0.00079826 0.00000000
0.12420320 1.56649963 0.00260120 0.00000000
2.11540438 0.18938934 0.00020269 0.00000000
1.98786135 0.71339825 -0.00134610 0.00000000
4.29316539 0.05942215 -0.00150389 0.00000000
1.97017534 0.93099125 -0.00247347 0.00000000
0.65423336 0.03726958 -0.00047882 0.00000000
2.44081384 0.71314965 0.00195492 0.00000000
1.66480274 0.75248861 0.00236983 0.00000000
1.89102061 1.60761548 -0.00248517 0.00000000
1.47411311 1.59085642 -0.00578192 0.00000000
0.18250606 1.48807270 0.00033822 0.00000000
4.02281037 0.71998334 0.00012936 0.00000000
4.40469240 0.98296715 -0.00236993 0.00000000
1.98713962 0.68175329 0.00487797 0.00000000
0.97846065 1.42771785 0.00346018 0.00000000
4.04612379 1.49380060 0.00108279 0.00000000
1.69791161 1.33906348 0.00198116 0.00000000
1.52985054 0.58684334 0.00050411 0.00000000
2.14506671 0.04080537 -0.00293471 0.00000000
1.27420537 1.00258081 0.00031291 0.00000000
2.43109908 0.06337620 -0.00247728 0.00000000
2.02516607 0.41771404 -0.00035625 0.00000000
1.15990259 0.01027513 0.00013038 0.00000000
3.62016811 1.01401424 0.00117531 0.00000000
3.11438233 0.40880736 0.00371779 0.00000000
1.48631154 0.65513284 -0.00541856 0.00000000
1.24376258 1.49849678 0.00156790 0.00000000
4.23924819 0.09486098 -0.00264000 0.00000000
3.42603941 1.50947695 0.00121052 0.00000000
4.32466217 1.53294385 -0.00541173 0.00000000
3.23865522 0.31632100 0.00095507 0.00000000
4.31472372 0.88072858 0.00430170 0.00000000
3.57676638 1.32083219 -0.00128085 0.00000000
3.94558594 0.18954309 0.00437266 0.00000000
2.48772256 0.33661271 -0.00559145 0.00000000
3.43337612 0.44032437 0.00072527 0.00000000
2.38382877 0.23145962 -0.00389502 0.00000000
2.79439093 1.18079480 -0.00422390 0.00000000
3.95186919 1.11389172 0.00104217 0.00000000
1.39343406 0.87973947 -0.00284658 0.00000000
3.27462614 0.34352801 0.00266420 0.00000000
2.83367197 0.86515500 0.00100267 0.00000000
3.82923344 1.51271373 0.00601281 0.00000000
1.45240421 0.60055330 0.00269089 0.00000000
1.17952538 1.61062539 -0.00018911 0.00000000
1.38279050 1.37736441 0.00067930 0.00000000
0.44941506 0.05907743 -0.00156667 0.00000000
1.79971933 0.91175791 -0.00037640 0.00000000
4.08776328 0.38330573 0.00155998 0.00000000
0.29985200 0.95823455 -0.00270717 0.00000000
3.97144942 1.29585628 0.00137078 0.00000000
2.05234570 0.61627740 -0.00429380 0.00000000
1.32148562 0.76121459 0.00165526 0.00000000
0.59168801 1.02909111 -0.00079946 0.00000000
1.88545605 0.09762464 0.00148741 0.00000000
2.79840246 1.40395921 0.00110582 0.00000000
1.88048772 0.05389748 0.00272217 0.00000000
2.06469068 1.05914241 -0.00227630 0.00000000
1.55312933 0.26129405 -0.00222818 0.00000000
4.20410098 0.48831025 0.00178646 0.00000000
2.92806448 0.13270287 -0.00035639 0.00000000
1.93507813 0.34841623 -0.00472222 0.00000000
2.79504684 0.82248325 -0.00552061 0.00000000
2.65407411 0.23906969 -0.00236301 0.00000000
4.16007280 0.54069838 -0.00244014 0.00000000
0.69615226 0.27084202 0.00049302 0.00000000
2.29560162 0.14538939 0.00022275 0.00000000
2.35519335 0.50147926 0.00304095 0.00000000
0.55479096 1.14243774 0.00623243 0.00000000
0.31182657 0.53419814 0.00284234 0.00000000
4.38201967 0.50406581 0.00236977 0.00000000
1.95963034 0.82798778 -0.00003207 0.00000000
3.89008212 0.51809703 -0.00313987 0.00000000
2.08462369 0.30180988 0.00013461 0.00000000
1.71041667 0.48021570 0.00013966 0.00000000
1.23237353 0.52884742 0.00022953 0.00000000
0.89770976 1.17246976 0.00229382 0.00000000
1.91033162 1.55305040 0.00253334 0.00000000
2.16800817 0.02260215 0.00547005 0.00000000
0.79564639 1.26673092 0.00158531 0.00000000
2.23431200 0.65748780 -0.00132958 0.00000000
0.38886268 1.54943208 0.00237960 0.00000000
2.63516173 1.48870333 -0.00152051 0.00000000
4.41304291 0.62232816 -0.00198551 0.00000000
3.87188532 0.98067400 0.00183545 0.00000000
3.57118303 1.14866903 -0.00065420 0.00000000
3.76763748 0.47986126 -0.00303498 0.00000000
1.81166712 0.02765668 -0.00316685 0.00000000
2.59100550 1.02435686 0.00108434 0.00000000
2.22775670 0.15005470 0.00181440 0.00000000
0.41543161 1.24644198 -0.00054090 0.00000000
2.40133027 1.50600594 -0.00050778 0.00000000
3.20645176 1.58390798 0.00135921 0.00000000
1.47493299 0.47334227 0.00028339 0.00000000
3.39052240 0.69116744 -0.00148625 0.00000000
3.14595756 0.06053474 0.00248731 0.00000000
2.07255816 0.57113448 0.00213301 0.00000000
3.74461050 1.49113043 -0.00005304 0.00000000
2.62760498 1.41897762 0.00299488 0.00000000
1.21012337 1.33394081 0.00109950 0.00000000
0.75759447 0.16514344 -0.00360495 0.00000000
0.52014423 1.45667551 0.00094523 0.00000000
1.58793763 0.83822593 -0.00312823 0.00000000
2.90167950 0.83244938 0.00237973 0.00000000
2.79948777 0.84749327 -0.00156693 0.00000000
0.84015953 1.32517675 -0.00367186 0.00000000
0.47519798 0.88483326 0.00221189 0.00000000
1.35098615 0.14939793 -0.00108065 0.00000000
0.46923697 1.40068136 0.00129310 0.00000000
2.98894780 0.62475833 0.00093322 0.00000000
1.96506602 1.18830967 -0.00168634 0.00000000
1.31474169 0.81801322 -0.00305592 0.00000000
0.47009503 1.59994667 0.00341859 0.00000000
0.19266993 0.04386671 -0.00161716 0.00000000
4.14736544 1.45489607 0.00056494 0.00000000
2.17487791 1.12169958 -0.00092289 0.00000000
0.63144934 0.11795454 -0.00011976 0.00000000
3.90929396 0.91607271 0.00004524 0.00000000
3.68551016 1.33921227 0.00183350 0.00000000
3.76393366 0.16658011 0.00056161 0.00000000
1.95507799 0.47053305 0.00136412 0.00000000
2.23486186 1.44486163 0.00138231 0.00000000
3.77975457 0.28622251 0.00000981 0.00000000
2.62631367 1.31014366 -0.00343408 0.00000000
2.59150853 1.43163616 -0.00286999 0.00000000
1.71207204 1.55439164 0.00193544 0.00000000
3.94832438 1.58654824 0.00131070 0.00000000
2.65926160 1.18037851 0.00167109 0.00000000
3.73093288 0.41134568 -0.00114347 0.00000000
2.02425330 0.95251510 -0.00040770 0.00000000
2.80707939 0.46287120 0.00439292 0.00000000
2.70036389 0.67380670 0.00099425 0.00000000
1.85664375 0.74880746 -0.00238514 0.00000000
2.85001544 0.55706052 0.00159674 0.00000000
0.39178758 0.56202977 -0.00112890 0.00000000
3.46000309 1.26106563 -0.00283823 0.00000000
3.76369889 0.46185684 0.00712664 0.00000000
1.94306455 1.20182344 -0.00514919 0.00000000
2.71180835 0.23066583 0.00262621 0.00000000
2.69906927 0.01670202 0.00083413 0.00000000
3.47030386 0.31903249 -0.00326445 0.00000000
1.92320869 1.01662780 -0.00061825 0.00000000
3.23189263 0.29470296 0.00097429 0.00000000
1.54807605 0.03351467 0.00242888 0.00000000
0.19850638 1.19216059 -0.00033441 0.00000000
3.25530336 0.36148137 0.00272142 0.00000000
0.89179367 0.16676074 0.00174337 0.00000000
2.10295075 1.16776425 0.00045989 0.00000000
1.61878242 0.09769804 0.00083938 0.00000000
2.44344846 0.57818451 -0.00039739 0.00000000
4.22861593 0.94767484 -0.00206664 0.00000000
0.43991636 1.11480625 -0.00059226 0.00000000
2.14798446 0.31092093 0.00249899 0.00000000
2.35803331 1.46056991 -0.00191788 0.00000000
1.29088436 1.55808604 0.00365552 0.00000000
0.76606845 1.16047765 0.00319054 0.00000000
0.49198441 1.14010676 -0.00062241 0.00000000
1.09060319 1.52478187 0.00002037 0.00000000
0.52278951 1.13216366 0.00273328 0.00000000
2.06645023 0.29730664 -0.00196408 0.00000000
2.77621254 1.11376029 0.00056460 0.00000000
0.95983500 1.36593011 -0.00014164 0.00000000
0.49378858 0.39622065 -0.00083860 0.00000000
3.55918096 0.27631392 -0.00026372 0.00000000
0.31019289 0.98874536 0.00350002 0.00000000
2.53200686 0.07420844 -0.00170064 0.00000000
1.72192289 0.44644255 -0.00108857 0.00000000
3.82260564 0.15361396 -0.00065082 0.00000000
0.31977490 0.91022818 -0.00156309 0.00000000
3.12623908 0.93989515 -0.00023628 0.00000000
0.36914166 1.25119041 -0.00174833 0.00000000
2.07042079 0.96757667 -0.00267312 0.00000000
2.49062189 0.58091045 -0.00158304 0.00000000
2.05722650 0.07498039 0.00023857 0.00000000
1.72872479 1.44157310 0.00038934 0.00000000
1.79394473 0.90952951 -0.00511961 0.00000000
4.41417432 0.44634871 0.00035795 0.00000000
1.76979345 0.08219958 0.00542681 0.00000000
0.75639165 1.20749074 0.00280744 0.00000000
3.29701699 1.39770004 0.00570583 0.00000000
4.30384441 0.58347438 -0.00211550 0.00000000
3.89967737 0.36474464 0.00093839 0.00000000
2.60766877 0.45542377 0.00161621 0.00000000
4.32945621 0.33020853 0.00177697 0.00000000
1.20693581 1.20938217 0.00040633 0.00000000
0.76341802 1.19534620 0.00489910 0.00000000
1.27981905 0.93173963 -0.00213733 0.00000000
0.44093649 1.39312879 0.00387558 0.00000000
3.38673400 0.74114783 0.00009238 0.00000000
1.48754995 0.79546279 -0.00221136 0.00000000
0.49746971 1.50338898 -0.00540119 0.00000000
3.73977771 1.17257994 -0.00189507 0.00000000
2.69042293 0.70803865 0.00018492 0.00000000
1.71033791 1.36705205 -0.00162296 0.00000000
2.83704469 0.16544611 0.00233507 0.00000000
0.95563973 1.28406362 -0.00208056 0.00000000
4.01048420 1.10348228 -0.00047672 0.00000000
2.41204173 0.13689267 0.00097638 0.00000000
0.51028268 1.51695353 -0.00159949 0.00000000
0.39731363 0.14262467 0.00055447 0.00000000
3.91703891 0.10694326 0.00370253 0.00000000
2.73744341 1.30633176 -0.00063560 0.00000000
1.14640850 0.97138753 -0.00052673 0.00000000
2.78904095 0.66540492 -0.00142285 0.00000000
2.40221498 1.27221405 0.00034473 0.00000000
3.82339951 0.43341568 0.00315729 0.00000000
3.62417747 0.46880803 -0.00334697 0.00000000
3.15193682 0.37267652 -0.00002082 0.00000000
4.16013684 0.08489796 -0.00546040 0.00000000
4.37728879 1.42479610 -0.00049799 0.00000000
1.52865148 0.82206974 0.00168835 0.00000000
3.89743456 1.45685831 0.00269486 0.00000000
2.12181546 0.96681555 -0.00185701 0.00000000
1.35960773 0.78906499 -0.00201551 0.00000000
1.25480624 1.51523642 0.00101106 0.00000000
3.86297645 1.43981290 -0.00175147 0.00000000
3.81799648 0.22591071 0.00192627 0.00000000
0.12801165 1.22368991 0.00002426 0.00000000
1.79595687 1.56927266 -0.00174754 0.00000000
2.25490621 0.48839207 -0.00289270 0.00000000
0.14753521 0.46882823 -0.00121236 0.00000000
3.18871491 0.00013083 0.00138933 0.00000000
1.21734491 0.07321791 0.00077711 0.00000000
0.18145130 0.75567606 -0.00298500 0.00000000
3.09404826 1.36824017 0.00269382 0.00000000
2.18686205 0.08676697 0.00271683 0.00000000
3.93940408 0.46363763 0.00036072 0.00000000
3.28512647 1.11400842 0.00167970 0.00000000
0.44812199 1.09124231 -0.00183296 0.00000000
3.77521092 1.10373261 -0.00102248 0.00000000
1.71079793 1.18782355 0.00162869 0.00000000
2.75625606 0.35176569 -0.00198170 0.00000000
0.27071859 1.23860064 -0.00002320 0.00000000
2.37417840 1.50219791 -0.00212897 0.00000000
3.32285389 0.37141839 -0.00008656 0.00000000
3.45028617 0.31364931 -0.00072064 0.00000000
1.90371750 1.06169963 0.00106800 0.00000000
2.66552825 1.21181377 -0.00253341 0.00000000
3.05131151 1.44948762 -0.00023354 0.00000000
3.54857169 0.88287059 -0.00498417 0.00000000
3.79731897 0.01411686 -0.00045352 0.00000000
2.61036876 0.06568218 0.00368161 0.00000000
2.96429333 0.32353859 -0.00016125 0.00000000
3.85975530 1.44518539 0.00062875 0.00000000
1.10083135 0.78530573 0.00716695 0.00000000
0.24515451 0.29659692 0.00085416 0.00000000
2.58045415 0.27904601 0.00270487 0.00000000
0.10849095 1.34804112 -0.00326970 0.00000000
0.38810994 1.01477868 -0.00068618 0.00000000
3.21476421 0.35760897 -0.00279618 0.00000000
3.78408347 1.47287486 -0.00005350 0.00000000
2.53551241 1.56199919 0.00295721 0.00000000
0.01786215 0.81153041 -0.00364796 0.00000000
0.15989120 0.15209633 0.00466351 0.00000000
2.86880844 1.01199849 0.00549053 0.00000000
3.47304766 0.93200079 0.00243224 0.00000000
3.39373818 0.28149342 -0.00052764 0.00000000
0.56300412 0.88725781 -0.00205629 0.00000000
3.29701048 1.47898685 -0.00337421 0.00000000
2.49095276 1.07663381 -0.00281315 0.00000000
0.76826193 0.90621342 -0.00113823 0.00000000
2.04182634 1.42955204 0.00059448 0.00000000
1.22545986 0.18876037 -0.00502624 0.00000000
1.88310897 1.60414351 -0.00201620 0.00000000
0.50600333 0.39374682 -0.00533943 0.00000000
2.07914147 0.73875548 -0.00062386 0.00000000
2.49445991 0.45609387 0.00149900 0.00000000
4.29440235 1.29916675 -0.00338362 0.00000000
3.84522231 1.16084945 0.00173719 0.00000000
2.55241615 0.51401982 0.00258059 0.00000000
2.13391508 1.24097392 0.00004229 0.00000000
2.19663914 0.32490993 -0.00235771 0.00000000
1.07958010 0.72276850 -0.00025286 0.00000000
2.38603959 1.25946374 -0.00253102 0.00000000
1.65017964 1.05071784 0.00295022 0.00000000
2.42604643 1.47094736 0.00057072 0.00000000
1.46343378 0.24125431 0.00069973 0.00000000
2.18473014 0.27884698 0.00303952 0.00000000
0.22749683 1.33315861 -0.00170926 0.00000000
2.12480192 1.05567558 0.00512673 0.00000000
1.17629679 0.81847521 -0.00127817 0.00000000
2.09081101 0.33917754 0.00396594 0.00000000
1.85870370 0.56705987 -0.00088073 0.00000000
1.29902205 1.17391021 0.00204788 0.00000000
0.51389065 0.92011176 -0.00484931 0.00000000
0.06646452 1.05590219 -0.00473412 0.00000000
4.40254339 1.12655997 -0.00142963 0.00000000
2.05838324 0.80967658 -0.00141241 0.00000000
0.80672812 0.64556682 0.00253616 0.00000000
0.94295538 0.93572620 -0.00166671 0.00000000
3.29388530 0.23690451 -0.00216897 0.00000000
1.22808011 0.81467059 -0.00448508 0.00000000
2.80900774 0.02802226 0.00060845 0.00000000
1.66736514 0.50663838 0.00337457 0.00000000
2.69217419 0.81977267 0.00010512 0.00000000
2.11688687 1.16908538 -0.00127438 0.00000000
1.78341625 0.17144249 0.00440786 0.00000000
0.32360468 0.72425013 -0.00548254 0.00000000
3.46065964 0.68587962 -0.00107736 0.00000000
3.34815819 1.55144028 -0.00162674 0.00000000
1.12438203 1.46801698 -0.00070453 0.00000000
0.51672670 0.73269704 -0.00123161 0.00000000
2.76538322 0.22872125 -0.00241891 0.00000000
0.94143816 1.04456194 -0.00370930 0.00000000
0.42299691 1.44525517 0.00207406 0.00000000
1.15110828 0.91792059 0.00041600 0.00000000
4.10907873 1.22448391 -0.00190111 0.00000000
2.34004419 0.43658301 -0.00052015 0.00000000
2.17428440 1.30736295 -0.00178038 0.00000000
4.03829730 0.66153352 -0.00244130 0.00000000
3.02928701 0.08126742 -0.00019289 0.00000000
2.00547944 1.44911608 0.00038715 0.00000000
0.44153892 1.12452604 -0.00172618 0.00000000
3.04094046 1.02491838 0.00097767 0.00000000
4.13988117 1.46681457 0.00319152 0.00000000
1.18038349 1.46177854 -0.00242628 0.00000000
3.92242084 0.65714134 0.00339530 0.00000000
0.32516024 1.33019195 -0.00420778 0.00000000
3.92313498 0.72946907 -0.00266208 0.00000000
2.69985908 1.38207979 -0.00001960 0.00000000
1.73862077 0.26081300 -0.00230363 0.00000000
1.15757870 0.37353947 0.00054372 0.00000000
4.17170432 0.83963660 0.00047106 0.00000000
4.00387319 0.84734362 0.00060279 0.00000000
3.68571465 0.65119688 0.00353412 0.00000000
2.60206922 0.73959398 -0.00128223 0.00000000
0.20688707 0.83538478 0.00113857 0.00000000
3.46666165 0.06902705 -0.00157378 0.00000000
1.49126392 0.96886699 0.00034493 0.00000000
3.32918023 0.54682864 -0.00081682 0.00000000
2.30540082 1.07802069 -0.00230434 0.00000000
0.69386824 0.69207272 0.00247259 0.00000000
2.74155281 1.30193866 0.00098454 0.00000000
1.94418704 0.77350894 -0.00331583 0.00000000
0.19124511 1.47337458 -0.00315440 0.00000000
2.93312061 1.11483594 0.00286881 0.00000000
0.00881976 0.95975363 0.00037630 0.00000000
1.55485957 1.19252360 0.00118577 0.00000000
3.75106130 0.69301991 0.00037433 0.00000000
3.67219912 0.62789946 -0.00117015 0.00000000
2.52537400 0.36214142 -0.00065663 0.00000000
2.45214288 1.59925703 -0.00272282 0.00000000
2.88553379 0.69377799 0.00122568 0.00000000
4.26479678 0.16762700 -0.00182029 0.00000000
3.24699959 0.10147031 0.00427232 0.00000000
2.96987723 1.58523620 0.00144718 0.00000000
1.77947439 1.60787660 -0.00736589 0.00000000
2.82721750 0.84486946 -0.00511473 0.00000000
1.90366007 1.47499263 -0.00291446 0.00000000
1.38314191 0.58709444 0.00136863 0.00000000
2.11611436 1.34525796 -0.00272078 0.00000000
3.11458937 1.33054249 0.00408968 0.00000000
3.96150393 0.71286216 0.00394210 0.00000000
0.25567329 0.96580859 0.00285890 0.00000000
2.15444727 0.21125329 -0.00495083 0.00000000
3.93503972 0.54964271 -0.00231293 0.00000000
2.57378526 1.11902290 0.00001734 0.00000000
0.76501038 1.34019945 -0.00133649 0.00000000
0.79898831 0.74735483 -0.00007324 0.00000000
2.30926998 1.14503618 -0.00078643 0.00000000
3.16125459 1.30592464 0.00288458 0.00000000
2.51274832 0.85107802 0.00267231 0.00000000
3.33267377 1.36720821 0.00207644 0.00000000
0.50115020 0.04281328 -0.00531257 0.00000000
2.33694219 1.01717392 0.00118416 0.00000000
0.89383098 1.04280197 0.00024968 0.00000000
1.54088307 1.08128532 0.00018727 0.00000000
2.02338167 0.45363125 0.00583228 0.00000000
2.35912837 1.23038348 -0.00071688 0.00000000
2.75740656 0.17788555 -0.00016903 0.00000000
2.75739530 1.49251556 -0.00114583 0.00000000
4.15692700 0.41638471 0.00247761 0.00000000
1.38250363 0.36922832 0.00015213 0.00000000
0.81006447 1.55130234 -0.00107832 0.00000000
2.73502300 0.45718726 0.00028517 0.00000000
3.90683941 0.25476265 0.00364607 0.00000000
1.16604733 0.30914608 0.00603597 0.00000000
4.41107355 1.19379525 -0.00389752 0.00000000
4.40277255 1.34546983 0.00464653 0.00000000
0.77615749 0.52458870 -0.00034152 0.00000000
4.23689733 0.16400953 0.00244274 0.00000000
0.93047460 1.38560319 -0.00097269 0.00000000
3.66972262 1.18952178 0.00296559 0.00000000
1.56036769 0.69159724 0.00275089 0.00000000
0.56923068 0.11004576 0.00158149 0.00000000
1.57533742 1.20615801 0.00281180 0.00000000
0.35277312 1.26789705 -0.00182608 0.00000000
0.62719409 1.34681503 -0.00316502 0.00000000
0.09741885 0.49361815 -0.00118225 0.00000000
2.59464812 0.49837060 -0.00028414 0.00000000
0.54126075 1.14777615 -0.00106117 0.00000000
2.86940721 0.23437369 0.00091804 0.00000000
0.69482569 1.05381740 0.00246363 0.00000000
1.78154806 0.74166292 0.00430857 0.00000000
2.40628274 0.29708560 0.00631472 0.00000000
3.52430855 0.69679792 -0.00118480 0.00000000
4.09070308 0.68746923 -0.00187787 0.00000000
2.85062045 1.10388752 0.00145887 0.00000000
2.38783100 0.53766227 -0.00058561 0.00000000
1.25239159 1.04266364 -0.00169277 0.00000000
2.96539351 1.52251244 0.00061677 0.00000000
1.60471839 1.06104673 -0.00260514 0.00000000
1.66776876 0.91644283 -0.00554918 0.00000000
3.67208706 0.29088892 0.00222481 0.00000000
2.66497843 0.06876289 0.00144088 0.00000000
2.51737453 0.18593857 0.00108160 0.00000000
1.51925588 0.27115779 -0.00041063 0.00000000
4.35842795 1.23866292 0.00440226 0.00000000
4.22424670 0.30493071 0.00537939 0.00000000
1.76813073 1.51489833 0.00074531 0.00000000
0.29628298 0.66942546 0.00033342 0.00000000
2.95558929 0.36610788 0.00259432 0.00000000
3.66569813 1.53214423 -0.00056977 0.00000000
4.25456169 0.43405975 -0.00163517 0.00000000
0.20083083 0.83543556 0.00097541 0.00000000
2.72302192 0.76175780 0.00049752 0.00000000
3.22951643 1.04334393 -0.00215592 0.00000000
3.39049589 1.30746077 0.00269949 0.00000000
3.94631726 1.54271299 -0.00100937 0.00000000
1.24040302 1.47302780 0.00170027 0.00000000
2.54916889 1.33868018 -0.00465342 0.00000000
0.33458666 1.32744775 0.00099709 0.00000000
2.25238199 1.14708488 -0.00155939 0.00000000
2.26907879 0.61761500 -0.00074738 0.00000000
3.49675260 0.66670536 -0.00135060 0.00000000
3.61212216 0.36273596 0.00162834 0.00000000
3.33799643 1.38390008 0.00406528 0.00000000
3.45858213 0.04444556 -0.00261724 0.00000000
2.57016015 0.18836763 0.00324050 0.00000000
0.63937130 0.95696885 0.00153510 0.00000000
4.41788466 1.03425353 -0.00186620 0.00000000
1.17359930 1.34282431 0.00193607 0.00000000
0.73647975 0.07391546 -0.00295748 0.00000000
3.93252229 0.85747104 -0.00117591 0.00000000
1.14397123 0.98493278 -0.00216885 0.00000000
2.13034868 0.82910158 0.00011818 0.00000000
2.89936620 0.41334692 -0.00162289 0.00000000
4.28058722 1.21189677 -0.00086507 0.00000000
2.96541127 1.43109923 -0.00107258 0.00000000
0.99846562 0.38376557 -0.00355903 0.00000000
2.69304609 0.24988350 0.00122198 0.00000000
1.08284332 1.11044690 0.00238052 0.00000000
0.60790174 0.26775898 0.00176668 0.00000000
1.07564863 0.95297241 -0.00129125 0.00000000
2.11845885 1.15419668 0.00268126 0.00000000
0.85274514 1.53189305 -0.00126065 0.00000000
1.39651541 0.10894644 -0.00085145 0.00000000
0.67405674 1.27626654 0.00242302 0.00000000
