0.042404 1.729102 -0.002595 0.0
2.212819 1.847670 0.002499 0.0
0.872673 0.303215 -0.001394 0.0
2.638196 1.961342 0.002223 0.0
3.679881 0.360737 0.001184 0.0
3.507511 2.240914 -0.000839 0.0
3.714064 0.092650 -0.000529 0.0
2.586718 0.934011 -0.000153 0.0
2.302674 1.420022 -0.001089 0.0
2.752131 0.858406 0.001495 0.0
1.774000 1.507279 -0.000270 0.0
4.033349 0.401621 0.004380 0.0
4.129090 0.315139 0.001634 0.0
2.961246 2.101158 -0.000480 0.0
0.906731 0.130610 -0.003839 0.0
4.292341 2.236591 0.002499 0.0
2.746938 1.099461 -0.000871 0.0
3.818152 2.312080 0.000630 0.0
0.377021 0.719290 -0.004708 0.0
0.063122 2.091459 0.002495 0.0
1.402587 0.066389 -0.003967 0.0
0.877967 1.566803 -0.003997 0.0
2.936972 0.098601 -0.000261 0.0
3.337828 2.238240 0.001610 0.0
0.164831 1.758644 0.001689 0.0
3.893361 1.613698 0.000187 0.0
4.093241 0.230864 0.000907 0.0
4.289000 0.559272 0.000123 0.0
2.356133 1.997654 0.001559 0.0
1.611580 0.001897 0.002480 0.0
2.984952 0.551698 -0.001046 0.0
0.545175 1.816363 -0.006479 0.0
3.842836 1.383145 -0.000071 0.0
1.716717 1.420134 0.000507 0.0
0.502992 1.294124 -0.003265 0.0
0.468442 1.389154 0.001003 0.0
1.308194 1.904148 0.001478 0.0
2.097498 1.014364 0.000132 0.0
1.237430 1.109413 0.001597 0.0
0.292636 1.264679 0.001519 0.0
1.073974 1.734404 0.002250 0.0
1.599110 2.015570 -0.000216 0.0
1.787630 0.316493 -0.000646 0.0
0.731882 2.255999 0.002024 0.0
1.320549 0.660456 0.001938 0.0
1.835916 2.305225 0.001858 0.0
3.510902 0.878680 0.000720 0.0
2.575601 0.254599 -0.003270 0.0
0.616113 2.153865 0.001648 0.0
1.414721 0.267523 0.005189 0.0
0.177809 2.025108 0.002175 0.0
2.739012 0.930698 0.000028 0.0
3.026561 0.791351 0.002035 0.0
0.472439 0.089858 -0.002139 0.0
1.032706 2.395686 -0.000757 0.0
3.236029 1.981490 0.003163 0.0
2.822323 1.775041 -0.001679 0.0
0.184205 0.385272 0.003286 0.0
2.373114 2.111966 0.001538 0.0
0.439593 1.976852 0.002187 0.0
2.227764 0.049307 -0.001942 0.0
3.749929 1.267017 -0.006476 0.0
3.572209 0.239831 -0.001318 0.0
2.971772 2.268259 -0.001457 0.0
4.307010 0.268587 0.000813 0.0
0.252670 1.433714 -0.004594 0.0
1.842355 0.217208 -0.003126 0.0
1.616207 2.414019 0.000836 0.0
3.038896 0.875136 0.000224 0.0
1.148504 1.098194 -0.004353 0.0
3.387159 2.136433 0.000377 0.0
0.959455 1.821507 -0.000518 0.0
2.508674 0.465538 0.000182 0.0
0.271456 0.853615 -0.000936 0.0
1.885068 0.831758 -0.007570 0.0
4.089767 1.758042 0.001457 0.0
3.791431 0.548499 -0.008102 0.0
0.992488 1.914542 0.001673 0.0
1.840466 1.397433 0.001418 0.0
3.488037 1.543252 -0.000152 0.0
1.433474 2.092444 -0.002431 0.0
3.963061 2.167711 0.003713 0.0
1.612162 1.614911 -0.000144 0.0
2.490717 1.186633 0.003755 0.0
1.155768 0.809575 -0.000287 0.0
2.734877 0.979796 0.001105 0.0
0.848143 1.013917 -0.004305 0.0
1.148015 0.011814 -0.002336 0.0
1.714802 2.106845 -0.001842 0.0
2.660284 0.389318 0.000626 0.0
2.200988 0.806844 -0.001488 0.0
3.850521 0.623136 0.000559 0.0
2.506892 1.476118 0.000761 0.0
0.434203 0.121869 -0.002149 0.0
2.258534 1.072966 0.003308 0.0
2.356332 0.717568 0.001976 0.0
0.214761 0.251709 -0.003915 0.0
2.317209 2.051131 0.001893 0.0
2.872560 0.721269 0.002325 0.0
1.908841 1.731191 0.001535 0.0
0.368211 0.944904 -0.001013 0.0
2.084327 2.171376 -0.000415 0.0
3.687406 0.277301 0.001455 0.0
3.629009 0.222885 0.003732 0.0
1.114275 0.581089 -0.001536 0.0
1.695223 1.104426 0.000541 0.0
1.868301 0.925425 -0.000834 0.0
2.733995 0.911618 -0.000113 0.0
0.713725 0.112375 -0.001796 0.0
3.790389 1.299014 0.002067 0.0
2.649345 0.707241 0.000151 0.0
2.397431 0.889817 -0.004554 0.0
4.029356 0.216469 -0.004224 0.0
1.226459 1.690382 0.003410 0.0
2.076421 2.269369 0.000505 0.0
2.010289 0.943387 0.003024 0.0
2.512397 1.995614 0.002398 0.0
0.350100 2.208367 -0.000114 0.0
2.160067 0.917678 0.002489 0.0
3.367238 0.902566 0.001289 0.0
2.294572 0.566277 -0.002275 0.0
2.394297 2.388963 0.000755 0.0
3.149188 0.727038 0.005411 0.0
1.634194 0.833974 -0.002457 0.0
3.612016 2.223105 -0.000186 0.0
3.390907 0.449136 -0.002946 0.0
3.401386 1.916540 -0.000655 0.0
0.723741 0.687986 0.001677 0.0
2.681392 1.236401 0.002070 0.0
1.059200 1.278791 0.000642 0.0
1.515354 2.199518 0.004220 0.0
3.298561 1.161649 -0.001574 0.0
3.856339 1.693000 -0.000929 0.0
2.126828 1.958372 -0.000949 0.0
1.046239 0.281066 0.003025 0.0
1.858098 1.035376 0.006758 0.0
2.981303 0.685705 0.000849 0.0
1.237902 0.272076 0.001646 0.0
4.215292 0.029189 0.001185 0.0
1.317707 2.326996 0.000423 0.0
2.295368 2.226704 0.003452 0.0
0.437447 2.417151 -0.000066 0.0
0.918315 0.733863 0.000614 0.0
2.747303 0.130094 -0.000542 0.0
1.966727 2.271956 0.000199 0.0
3.764030 0.179194 -0.001883 0.0
2.093671 0.236933 0.006290 0.0
2.757515 0.630471 -0.004839 0.0
2.149571 0.116373 0.002502 0.0
2.160965 2.267886 0.000469 0.0
4.235240 0.383154 -0.002919 0.0
2.690046 2.401217 -0.001626 0.0
1.500306 1.438703 0.000639 0.0
1.671123 0.782510 0.003426 0.0
1.118126 0.346354 0.005041 0.0
3.592509 2.281126 0.004117 0.0
1.163700 0.622127 0.002063 0.0
1.411746 0.505072 -0.000097 0.0
3.637352 1.311111 0.001216 0.0
3.697971 0.602233 -0.005104 0.0
0.143619 2.339201 0.000344 0.0
0.997225 1.105246 -0.000698 0.0
3.870607 1.650200 -0.000936 0.0
0.379599 2.306752 0.001268 0.0
4.301063 2.242173 -0.004501 0.0
2.514637 2.300239 0.004340 0.0
3.741310 1.084316 0.004195 0.0
0.230203 2.285411 0.002623 0.0
1.777243 2.054870 -0.002001 0.0
0.176302 0.203426 -0.003275 0.0
2.128546 1.821107 0.000231 0.0
3.361480 2.214863 -0.000361 0.0
3.594896 0.834474 -0.000630 0.0
2.627313 0.737369 -0.002348 0.0
3.687850 1.566927 -0.001374 0.0
2.727266 0.120988 0.002249 0.0
2.736588 0.795970 -0.001848 0.0
2.246666 0.768768 0.000309 0.0
2.375303 2.196093 -0.002618 0.0
3.873205 1.021105 -0.000940 0.0
2.338252 1.162477 0.001511 0.0
3.886881 0.309625 -0.000138 0.0
1.786245 0.013447 -0.001888 0.0
2.444922 1.845273 -0.000382 0.0
2.862061 2.302465 0.001395 0.0
2.462894 0.437227 -0.003221 0.0
3.490342 0.201088 -0.000486 0.0
0.828177 1.487459 0.003669 0.0
1.405388 2.217679 -0.001811 0.0
0.791495 1.442154 0.002997 0.0
1.814144 0.756793 0.004437 0.0
4.081203 1.840286 0.004936 0.0
4.229771 0.086795 0.003813 0.0
2.944708 1.586623 -0.000437 0.0
2.631458 1.698016 0.003987 0.0
3.810102 0.294951 0.003271 0.0
0.841472 0.938643 0.001596 0.0
3.716965 0.359420 -0.001167 0.0
2.559736 2.070233 0.000437 0.0
1.674942 0.308448 -0.001804 0.0
0.701501 2.394136 -0.002214 0.0
2.770487 0.292026 0.007437 0.0
2.652895 1.123711 0.001517 0.0
0.076167 1.406041 0.000962 0.0
2.973539 0.654376 0.001747 0.0
1.248152 0.127917 -0.003182 0.0
1.763068 0.475748 0.001579 0.0
1.156044 1.446501 -0.000393 0.0
0.397035 1.233943 -0.005822 0.0
3.655496 1.564075 -0.001802 0.0
3.007952 0.255818 0.000057 0.0
0.613353 1.946232 0.001538 0.0
0.787700 0.127350 0.002632 0.0
0.568064 0.120232 0.002229 0.0
0.136393 1.130770 -0.000674 0.0
1.279361 0.049115 -0.001330 0.0
4.221015 0.227422 0.002281 0.0
1.086586 0.937855 -0.002639 0.0
2.612945 0.395173 0.000103 0.0
0.140573 1.449796 -0.004101 0.0
1.706860 1.887116 0.000268 0.0
2.786955 2.140992 0.003524 0.0
1.070485 0.199083 -0.001616 0.0
2.783451 0.262682 0.002438 0.0
0.428781 2.089131 -0.000281 0.0
2.829102 1.218506 -0.001172 0.0
0.507512 0.626156 -0.001143 0.0
0.416961 1.926876 -0.000904 0.0
3.523608 2.352473 0.001669 0.0
2.692251 0.529054 0.000968 0.0
1.780898 0.254154 -0.002406 0.0
0.520617 0.064209 -0.001944 0.0
0.025718 0.070952 0.000954 0.0
1.766559 2.216127 -0.001970 0.0
2.882009 0.452374 0.001557 0.0
0.725912 0.789737 0.000437 0.0
0.125051 1.666004 -0.000551 0.0
1.880009 1.517653 -0.003302 0.0
2.626358 1.536377 -0.002451 0.0
0.670401 1.103487 -0.002229 0.0
0.997424 1.452126 -0.002113 0.0
3.005136 1.133758 0.003256 0.0
2.747631 0.180823 0.000462 0.0
0.371331 0.812979 0.000389 0.0
2.348964 2.071825 0.000376 0.0
1.942090 0.668169 -0.002094 0.0
1.184869 0.174069 -0.003140 0.0
2.988082 2.163599 0.002566 0.0
3.707456 1.745291 -0.003642 0.0
2.449465 1.298920 0.004197 0.0
3.141011 0.448840 0.002118 0.0
1.061228 2.398490 0.000672 0.0
2.174628 0.130175 -0.002474 0.0
2.739228 0.057491 0.005763 0.0
2.860716 2.398167 0.000435 0.0
4.234577 1.251818 -0.000045 0.0
3.868057 0.228674 0.000910 0.0
3.599211 2.354127 -0.005089 0.0
2.157305 1.902762 0.001724 0.0
4.273236 2.408781 0.000641 0.0
2.507783 1.568856 0.000994 0.0
2.407167 0.700283 0.000258 0.0
4.242082 0.966719 0.001744 0.0
1.780386 0.015299 -0.002555 0.0
2.132444 1.490242 -0.000301 0.0
0.960389 2.173235 0.001627 0.0
2.219080 1.474129 -0.000029 0.0
0.668042 0.737872 0.000153 0.0
3.430497 0.359787 -0.002541 0.0
1.901456 1.473428 -0.001043 0.0
1.823321 0.293966 0.001620 0.0
3.328487 1.241358 0.002723 0.0
2.211597 0.733913 -0.001928 0.0
2.409930 0.069102 -0.000454 0.0
0.665354 2.379783 0.000996 0.0
4.162718 1.452185 -0.000276 0.0
2.045429 0.745012 -0.001541 0.0
3.445922 2.126187 -0.000002 0.0
0.337616 1.354723 0.000458 0.0
3.633271 0.114991 0.003332 0.0
2.495931 2.267408 0.000666 0.0
4.038784 0.819391 -0.000652 0.0
0.620164 0.680903 -0.002371 0.0
1.186256 0.328645 0.002950 0.0
0.452679 0.148784 0.002219 0.0
1.772902 0.241978 -0.002329 0.0
0.021822 0.284704 -0.002446 0.0
0.531972 0.965662 0.001299 0.0
2.110342 1.454542 0.001426 0.0
1.673806 1.207518 -0.001727 0.0
2.546471 2.118720 -0.004199 0.0
3.551467 0.473314 0.000415 0.0
1.398112 2.175744 -0.000345 0.0
0.115892 1.072771 -0.003042 0.0
3.200094 1.712637 -0.004444 0.0
3.267857 2.356685 0.004213 0.0
1.309340 1.886403 -0.001162 0.0
3.979526 1.671183 -0.000268 0.0
2.588422 0.336319 0.001611 0.0
3.635992 1.814981 -0.001305 0.0
0.315034 1.771542 0.003612 0.0
1.205673 0.839719 0.002546 0.0
0.258583 1.996591 -0.000555 0.0
4.313016 2.275851 0.004501 0.0
2.800106 1.559296 -0.001253 0.0
1.820419 1.672353 -0.002420 0.0
0.592683 1.858114 -0.001139 0.0
3.943609 2.281285 -0.001014 0.0
1.828142 0.158041 0.000355 0.0
2.892416 0.202118 0.001990 0.0
4.243862 0.763367 -0.004084 0.0
1.404712 1.623877 0.001585 0.0
3.726272 2.139929 -0.001358 0.0
4.014106 0.094284 0.001106 0.0
1.903343 0.263584 0.003223 0.0
4.188029 1.959088 -0.003525 0.0
1.738929 2.352475 0.000763 0.0
0.849873 0.619085 -0.000066 0.0
4.239595 0.059041 0.000867 0.0
4.211302 2.190429 0.000499 0.0
3.114351 0.413838 -0.003630 0.0
2.175456 0.235625 0.003362 0.0
0.233652 2.351915 0.001468 0.0
1.537203 1.447003 -0.002447 0.0
1.503687 0.502422 -0.002988 0.0
2.452021 1.544165 -0.003744 0.0
0.089339 2.236204 -0.001020 0.0
1.056319 1.999924 -0.002073 0.0
2.049119 1.615555 0.002052 0.0
0.183031 1.885293 0.004141 0.0
1.460522 0.964930 0.001568 0.0
2.570874 1.039470 0.001950 0.0
2.800537 1.042049 -0.001655 0.0
3.876556 0.554063 -0.003033 0.0
2.710855 1.744438 0.002262 0.0
1.314136 1.371936 -0.000153 0.0
0.766408 0.801119 -0.002999 0.0
2.149722 0.678332 -0.001311 0.0
3.532335 1.564910 -0.001745 0.0
2.835906 0.527315 -0.002647 0.0
4.010411 2.244128 -0.000110 0.0
1.628599 0.597362 0.004365 0.0
0.272705 1.714649 -0.000162 0.0
0.178500 1.558285 -0.002544 0.0
1.427261 1.572865 0.000309 0.0
1.098041 0.934925 -0.004557 0.0
0.191060 1.867292 -0.005431 0.0
2.021950 0.795833 0.003999 0.0
3.705817 1.673504 -0.001624 0.0
0.383058 1.126666 0.003497 0.0
2.294598 0.466865 -0.000671 0.0
0.228326 1.804332 0.001232 0.0
0.696357 0.632546 -0.001263 0.0
1.473572 2.309266 -0.001490 0.0
3.559241 0.947776 -0.001288 0.0
3.435477 0.706618 0.001680 0.0
2.521163 1.096246 -0.001098 0.0
3.190719 0.540122 0.000866 0.0
2.917250 2.006229 0.003185 0.0
0.737630 2.396108 -0.002970 0.0
0.114305 1.406461 -0.002096 0.0
0.609524 0.573447 -0.003988 0.0
2.880887 0.380916 0.001272 0.0
3.382221 1.646897 0.000660 0.0
1.401312 0.151846 0.006330 0.0
4.175344 0.275373 -0.002485 0.0
0.420847 0.706441 0.000342 0.0
3.927324 0.685700 0.000279 0.0
0.790759 1.242731 0.000743 0.0
1.798010 1.772639 0.000808 0.0
1.770075 2.339977 -0.002293 0.0
2.472924 1.264847 0.002647 0.0
4.113721 1.543298 0.001974 0.0
4.066273 1.113384 0.001537 0.0
2.382387 0.877501 -0.002774 0.0
1.989337 1.997235 0.001540 0.0
0.209203 1.060006 0.001975 0.0
2.742607 1.016782 -0.002641 0.0
2.632849 2.141392 -0.002083 0.0
4.101649 0.240097 0.000660 0.0
3.393086 0.399459 -0.001721 0.0
2.691483 0.874238 0.002280 0.0
1.412510 1.202676 0.000355 0.0
2.178577 2.016460 -0.001760 0.0
1.862163 1.515090 0.000816 0.0
1.735730 1.942927 -0.003903 0.0
1.811842 1.240714 -0.000948 0.0
3.184896 2.325662 -0.002374 0.0
3.302226 0.717116 -0.000517 0.0
4.180886 1.542619 -0.003436 0.0
1.993432 0.034680 0.000228 0.0
3.630689 1.246955 -0.001788 0.0
2.221695 0.950539 0.001831 0.0
2.673703 2.207186 0.000385 0.0
2.467820 0.974261 -0.003216 0.0
2.751574 1.475072 0.001104 0.0
1.931175 2.303809 0.004026 0.0
3.974749 0.149157 -0.003908 0.0
1.568639 0.574433 0.000199 0.0
3.948080 1.524823 0.001008 0.0
0.916742 0.516103 -0.005350 0.0
4.081052 0.095402 0.001416 0.0
0.959937 1.651588 0.000834 0.0
2.849783 0.301979 0.001660 0.0
1.880096 0.564122 -0.000038 0.0
2.501998 0.162217 0.000669 0.0
1.643641 2.251811 0.000830 0.0
1.223469 0.028694 -0.001344 0.0
1.369871 0.300321 0.000859 0.0
2.230458 0.548087 -0.003167 0.0
2.381955 2.127917 0.000967 0.0
3.913692 0.949312 -0.000551 0.0
3.174746 2.389715 -0.003205 0.0
1.709447 2.223439 -0.000587 0.0
3.140122 2.201035 0.001347 0.0
2.011237 0.889195 0.003651 0.0
1.129327 2.148672 0.001506 0.0
3.133010 1.475298 -0.001293 0.0
1.141715 1.606753 0.001173 0.0
3.241628 2.012283 0.001868 0.0
2.083895 0.990627 -0.002698 0.0
1.828668 2.296400 -0.003252 0.0
0.870268 2.112934 -0.001759 0.0
2.970264 1.860865 0.001440 0.0
3.080654 0.672251 0.002782 0.0
0.507692 2.010775 -0.001084 0.0
1.136119 1.956114 0.001876 0.0
4.091017 0.031803 0.003960 0.0
1.719141 0.123965 -0.002718 0.0
0.385585 1.008563 0.001046 0.0
2.560616 2.176191 0.002983 0.0
3.514760 0.702382 -0.002089 0.0
1.671788 2.218500 -0.002937 0.0
0.602137 0.053612 0.000118 0.0
0.981652 1.357622 -0.003703 0.0
3.209060 0.491848 -0.000026 0.0
0.695885 0.933190 0.003668 0.0
2.926715 1.066060 0.001009 0.0
3.417388 0.355881 -0.003397 0.0
3.874964 1.881998 0.001419 0.0
0.122885 1.005683 0.002425 0.0
2.797469 2.337749 0.002339 0.0
1.829549 1.425363 0.004145 0.0
2.516292 2.400243 -0.002794 0.0
2.751807 0.207082 0.005948 0.0
1.655771 0.156332 -0.001510 0.0
1.230159 2.142992 -0.001738 0.0
2.814586 0.526207 -0.002818 0.0
0.057065 1.704366 -0.000407 0.0
1.662737 0.692525 -0.001796 0.0
3.422660 1.144124 0.000803 0.0
3.522051 1.247544 0.001429 0.0
4.087778 2.300388 -0.002825 0.0
3.469821 0.161526 -0.000227 0.0
1.786544 0.276042 0.005119 0.0
0.987880 1.468040 -0.003295 0.0
0.351867 1.305387 0.002856 0.0
0.458080 0.221649 -0.003075 0.0
1.618550 1.791020 -0.000487 0.0
1.106829 0.806243 -0.001060 0.0
2.774580 0.117415 0.004053 0.0
0.910337 1.675605 -0.000936 0.0
2.382876 0.395292 0.001028 0.0
0.516623 0.231855 -0.002488 0.0
3.524510 0.158315 -0.001449 0.0
2.985996 0.317915 -0.003837 0.0
2.288654 0.331055 0.007041 0.0
2.536143 0.308703 0.001389 0.0
1.237869 0.906090 -0.002055 0.0
3.297659 0.658205 -0.002714 0.0
1.422588 0.892646 0.002552 0.0
3.644127 0.985726 -0.001120 0.0
3.787141 0.146983 0.003531 0.0
2.380902 1.872592 -0.002521 0.0
4.212009 0.785794 -0.001314 0.0
2.535030 2.043345 0.001591 0.0
3.357766 0.030939 -0.001776 0.0
4.171009 0.499509 0.000351 0.0
2.435329 1.592028 0.002088 0.0
3.186290 1.193663 0.003372 0.0
3.350899 1.665480 0.002666 0.0
3.324512 1.019475 -0.005572 0.0
1.824276 2.245184 0.000203 0.0
3.994559 0.422578 0.000867 0.0
3.943596 1.637109 -0.000157 0.0
2.962813 1.070010 -0.002324 0.0
1.898867 2.241686 0.002162 0.0
2.801893 1.942709 -0.000293 0.0
3.070164 1.653375 0.001186 0.0
0.556201 0.817830 0.000373 0.0
0.544593 0.364860 0.004690 0.0
0.152908 0.173649 0.001573 0.0
1.695414 0.841837 0.000585 0.0
2.718354 1.589425 -0.000064 0.0
1.794133 0.265592 -0.000958 0.0
3.420957 0.541188 -0.001777 0.0
2.367084 1.199415 0.000371 0.0
1.956813 0.304436 -0.000358 0.0
1.712123 1.256954 -0.000502 0.0
2.481220 2.328008 0.001403 0.0
0.038652 0.373786 -0.000437 0.0
0.880549 0.394148 0.004149 0.0
4.091209 0.171338 0.002339 0.0
3.521644 2.202735 0.000110 0.0
2.349023 1.207625 0.000742 0.0
3.451413 1.733104 -0.002162 0.0
3.737116 1.134226 -0.000833 0.0
3.758241 1.538823 0.001054 0.0
3.271421 1.486262 -0.003866 0.0
2.220155 1.139812 -0.000627 0.0
0.335655 2.203555 -0.005623 0.0
0.304954 1.916720 0.000386 0.0
1.435689 1.025461 -0.000658 0.0
3.686994 2.232263 0.000350 0.0
1.530889 2.132715 0.004735 0.0
0.744169 2.277933 0.003879 0.0
0.611809 1.877860 -0.000673 0.0
0.348223 1.406596 0.003310 0.0
0.688226 2.368050 0.000317 0.0
1.456541 1.434639 0.003143 0.0
3.845154 1.005655 0.002256 0.0
1.716699 0.050396 -0.005086 0.0
1.715694 0.124347 -0.001300 0.0
2.970464 1.333341 0.003870 0.0
2.118061 1.671354 0.002663 0.0
3.512482 1.869641 0.002103 0.0
1.260327 0.532300 -0.001176 0.0
2.162347 0.556837 0.001425 0.0
3.010592 0.498517 -0.000441 0.0
1.342743 1.946023 0.000028 0.0
4.308131 0.639132 0.002477 0.0
2.970346 1.884547 -0.000304 0.0
0.483810 0.855961 -0.002018 0.0
4.251450 0.013292 -0.001083 0.0
2.683617 0.709934 0.001725 0.0
4.305118 1.719890 -0.003262 0.0
0.879923 2.069408 -0.005042 0.0
1.102526 2.332667 0.001628 0.0
0.525959 0.845406 -0.000950 0.0
1.064500 1.429369 -0.002510 0.0
3.941840 2.128886 -0.000458 0.0
3.510991 2.242381 0.001143 0.0
3.781431 2.159873 -0.001979 0.0
1.816158 1.842464 -0.000081 0.0
0.063777 0.457569 0.001714 0.0
0.065956 0.878391 -0.000988 0.0
2.753401 1.140144 -0.006524 0.0
2.310652 1.294051 0.002466 0.0
2.273796 0.878114 -0.000516 0.0
2.071544 0.284609 0.002687 0.0
1.592579 0.604284 -0.005798 0.0
1.062910 0.771745 0.000373 0.0
3.189037 1.252566 -0.006988 0.0
2.978377 1.172141 -0.003317 0.0
3.951983 2.242180 0.000023 0.0
3.997460 2.223535 -0.000153 0.0
0.475414 0.565622 -0.003588 0.0
4.084907 0.817823 -0.001862 0.0
2.410718 1.033773 0.000918 0.0
2.675881 1.704993 -0.003938 0.0
3.525108 1.649819 0.000445 0.0
1.757324 1.725821 0.001659 0.0
1.008373 0.153742 0.000765 0.0
1.168352 1.480386 0.003773 0.0
3.330280 1.283564 -0.000051 0.0
2.025569 1.033858 -0.002359 0.0
2.631262 1.993609 0.000140 0.0
1.405919 1.770151 -0.002199 0.0
0.508706 2.367551 -0.003170 0.0
3.192563 0.468666 0.001930 0.0
4.165327 1.831392 0.001629 0.0
3.998696 0.427491 -0.001721 0.0
1.067693 2.299570 -0.000743 0.0
2.608068 0.867920 -0.004600 0.0
2.072872 2.053014 -0.005954 0.0
3.153626 1.841070 -0.003146 0.0
1.911062 1.933675 0.001238 0.0
0.803436 2.327337 0.001671 0.0
0.723252 0.205512 0.001466 0.0
0.792125 0.795907 0.001849 0.0
1.571030 0.071180 -0.000879 0.0
3.100074 1.758860 0.000882 0.0
3.401955 1.017685 0.001844 0.0
3.096888 1.480830 -0.003389 0.0
1.774077 1.230796 0.003539 0.0
2.363234 2.233720 -0.005232 0.0
3.111540 2.394615 -0.000999 0.0
2.456632 1.500321 0.001681 0.0
2.752908 2.362044 -0.002925 0.0
1.039162 2.012919 -0.002847 0.0
2.554581 0.297949 0.002249 0.0
1.264567 0.868597 0.004035 0.0
3.620062 1.268051 -0.000369 0.0
0.338839 0.112551 -0.000743 0.0
2.952521 2.340765 -0.004096 0.0
1.386574 0.812417 0.000582 0.0
2.353640 0.081505 -0.000439 0.0
1.518459 1.917641 0.003256 0.0
1.529259 1.100462 -0.001586 0.0
0.954809 1.598409 0.002478 0.0
0.576403 1.034458 -0.003680 0.0
0.234054 1.711298 0.003379 0.0
0.441631 0.940650 -0.001211 0.0
0.759531 1.604834 -0.001559 0.0
1.397698 0.502894 0.002162 0.0
2.979153 0.240057 -0.000912 0.0
0.317492 2.029016 0.001763 0.0
2.931140 0.707624 -0.001845 0.0
0.882905 0.268901 -0.001957 0.0
1.049463 1.319172 0.001942 0.0
0.220348 2.148688 -0.002776 0.0
3.591253 1.274787 -0.002442 0.0
3.138318 0.634360 -0.000249 0.0
4.129342 1.030529 -0.000593 0.0
3.534479 1.552031 -0.002170 0.0
3.022226 1.604009 0.001985 0.0
1.792811 0.261017 -0.002844 0.0
0.286215 1.730178 -0.001930 0.0
1.889513 1.581581 0.002222 0.0
2.240581 0.166648 -0.001258 0.0
0.991400 0.310341 -0.004319 0.0
2.208016 2.001381 0.001325 0.0
2.228047 2.031628 -0.000600 0.0
2.204612 0.800654 -0.002321 0.0
3.930656 1.578220 0.002076 0.0
3.194970 0.465094 0.001661 0.0
4.246697 1.118128 -0.000846 0.0
3.634647 1.015441 0.001286 0.0
1.692961 2.065553 0.001470 0.0
3.166798 1.598525 -0.003898 0.0
3.875230 2.258590 -0.000770 0.0
2.391953 2.158453 -0.002350 0.0
0.593229 1.337937 0.002694 0.0
4.234822 0.192790 -0.002638 0.0
1.969268 1.402639 0.003077 0.0
2.487155 1.915457 0.002209 0.0
1.413194 1.807782 -0.000313 0.0
0.038070 0.723753 -0.002687 0.0
3.280706 0.395988 -0.004292 0.0
0.011356 0.282448 0.001661 0.0
2.027554 1.748485 0.003393 0.0
2.217079 0.413443 -0.000272 0.0
3.393739 1.201401 -0.002143 0.0
1.294318 0.069246 0.003224 0.0
2.593446 2.164185 -0.003339 0.0
2.385574 0.023683 0.001245 0.0
2.792912 1.668918 0.001307 0.0
1.731236 2.117102 0.000013 0.0
0.150207 1.032072 -0.003410 0.0
3.157828 0.142827 0.002671 0.0
1.129298 1.410846 0.003799 0.0
3.118169 1.569913 -0.003877 0.0
1.818937 1.112596 0.002385 0.0
4.298182 0.845142 0.004345 0.0
0.838265 1.091523 0.000581 0.0
1.338982 0.641282 -0.001576 0.0
1.360300 2.128229 0.001289 0.0
2.334890 1.374479 0.002935 0.0
1.868004 0.786398 -0.003829 0.0
0.998952 1.621529 0.005082 0.0
3.611216 2.003160 -0.003608 0.0
3.665312 1.484343 0.004566 0.0
2.312881 0.608202 0.001802 0.0
3.235485 0.765817 -0.000072 0.0
2.165727 1.947508 0.002859 0.0
4.134488 1.998421 0.002477 0.0
2.197056 0.431076 -0.002222 0.0
1.713567 2.042284 -0.001692 0.0
1.579807 1.590264 0.002275 0.0
2.328911 2.388648 -0.001775 0.0
3.380041 0.728123 -0.001473 0.0
1.401093 0.629715 -0.002480 0.0
0.666163 1.779266 -0.000855 0.0
1.569976 2.260210 0.002014 0.0
4.046349 0.604708 0.001923 0.0
3.757708 0.943801 0.002287 0.0
0.917329 2.324020 -0.005560 0.0
1.381324 0.858574 0.002458 0.0
3.032097 0.538614 -0.001206 0.0
1.061521 1.201286 0.001792 0.0
0.703681 1.905197 -0.002181 0.0
4.225387 1.785946 0.001005 0.0
1.843851 0.782061 0.002343 0.0
0.667069 0.649881 0.000057 0.0
3.386564 1.760381 0.000008 0.0
4.164549 0.721639 -0.000505 0.0
1.808362 1.557902 0.002571 0.0
1.261546 1.078735 -0.003676 0.0
4.209178 0.471995 -0.006860 0.0
2.017005 1.122910 -0.001668 0.0
2.360508 0.364061 0.001758 0.0
1.851910 0.785726 0.000628 0.0
3.568009 1.150942 0.002031 0.0
1.859811 2.306373 -0.002325 0.0
1.143730 1.623473 -0.002282 0.0
4.215007 1.249813 0.001940 0.0
0.719090 1.965786 -0.000948 0.0
0.804724 0.718715 -0.003022 0.0
3.046053 1.626031 0.000349 0.0
3.636112 2.363007 0.002453 0.0
0.890309 0.569172 0.002053 0.0
3.855709 0.766913 -0.002053 0.0
3.451344 0.268523 -0.000332 0.0
2.627842 2.366355 0.000539 0.0
2.197137 1.663933 -0.000012 0.0
1.240303 0.723393 -0.000331 0.0
0.626229 0.397772 0.001508 0.0
3.239358 1.828485 -0.000762 0.0
3.887852 2.375043 -0.001246 0.0
1.752868 0.649198 0.001314 0.0
3.501050 2.227727 0.001378 0.0
2.281808 0.042859 -0.001553 0.0
1.557568 1.365407 0.000709 0.0
0.147686 1.838481 0.003254 0.0
1.017652 -0.003193 0.002266 0.0
2.997094 1.726495 0.000382 0.0
1.132084 1.624327 -0.000865 0.0
1.681025 0.121810 0.005464 0.0
1.596060 0.731922 0.000643 0.0
1.469847 2.233922 -0.002850 0.0
3.842500 0.760337 -0.001858 0.0
2.345197 1.242286 0.000342 0.0
1.786593 1.091135 -0.002070 0.0
2.035283 2.108121 0.001755 0.0
1.560120 0.141017 -0.001848 0.0
0.182087 0.965582 0.000338 0.0
3.039001 0.973677 0.003496 0.0
0.817665 1.530825 0.000806 0.0
1.166807 1.561969 -0.003290 0.0
1.158082 0.160621 0.000930 0.0
3.500485 0.719683 0.001719 0.0
2.368776 0.398308 -0.000236 0.0
2.733229 1.551675 0.003632 0.0
4.173373 1.675509 0.002962 0.0
3.005027 1.259419 -0.003485 0.0
3.992119 2.044377 0.000908 0.0
3.413944 0.195603 0.002572 0.0
3.360602 0.788164 -0.003515 0.0
0.513821 0.397582 -0.005766 0.0
1.475400 1.986058 -0.003284 0.0
0.920790 1.919265 -0.002487 0.0
0.309203 1.717093 -0.000787 0.0
3.666122 1.752216 -0.002865 0.0
3.663919 2.356333 -0.001935 0.0
3.896329 0.666812 -0.003011 0.0
3.654329 0.479284 0.000242 0.0
3.061315 1.873606 -0.002077 0.0
1.916813 0.428063 0.003592 0.0
1.073562 1.087244 0.001588 0.0
2.417822 0.168098 0.000644 0.0
3.892196 1.655454 0.001592 0.0
0.645488 1.474343 0.001667 0.0
2.428992 0.991103 0.002787 0.0
3.463378 2.353484 -0.001306 0.0
3.891783 0.237455 0.001323 0.0
2.936972 2.383181 0.003512 0.0
2.030895 2.209379 0.002198 0.0
2.002736 1.701402 0.001419 0.0
0.983530 1.835375 -0.001055 0.0
0.707557 0.490766 -0.007476 0.0
2.987447 2.414982 -0.000863 0.0
4.137070 2.184930 -0.002275 0.0
4.272428 1.554514 -0.000171 0.0
2.262607 0.076450 -0.001073 0.0
3.639150 2.269756 0.001702 0.0
2.894169 1.077374 -0.004740 0.0
1.773930 1.034696 -0.003004 0.0
3.492299 0.972114 0.000274 0.0
0.481109 0.482098 0.003478 0.0
0.192000 1.736617 -0.002359 0.0
0.537753 0.429533 -0.000296 0.0
0.965092 1.222243 -0.000232 0.0
3.136277 0.765072 -0.003042 0.0
0.758663 0.386248 0.002080 0.0
0.882736 0.082074 0.000317 0.0
2.617234 1.635349 0.000254 0.0
1.910137 1.848744 -0.000556 0.0
2.950271 0.878407 -0.001038 0.0
3.660937 0.354283 0.003243 0.0
2.264106 0.742423 0.001877 0.0
3.318611 0.503426 -0.003744 0.0
2.240700 1.197806 0.002713 0.0
3.843300 2.295793 0.001250 0.0
4.289161 1.013782 0.002939 0.0
3.984981 0.251610 -0.000234 0.0
2.220078 0.546698 0.003523 0.0
1.839843 0.151187 -0.001882 0.0
0.029175 1.243545 -0.000405 0.0
0.933425 1.821026 0.002380 0.0
1.596496 0.906456 0.002290 0.0
0.767793 1.257953 0.005946 0.0
3.754318 0.848969 -0.000330 0.0
1.247838 0.612351 0.000827 0.0
3.980424 1.503783 -0.002001 0.0
1.453842 2.001225 0.001418 0.0
0.669401 1.691399 -0.002005 0.0
0.211017 1.907139 0.004358 0.0
1.221440 0.440598 0.003042 0.0
4.035909 0.525367 -0.000574 0.0
2.493017 0.586542 0.001591 0.0
0.663436 1.202247 -0.003740 0.0
3.122096 0.774627 0.004226 0.0
1.918624 1.360279 -0.000577 0.0
0.339511 1.671966 -0.002206 0.0
3.968476 2.083358 0.000122 0.0
2.206025 1.124955 0.000020 0.0
0.536280 0.731760 0.000085 0.0
0.822007 0.133873 0.002375 0.0
1.162249 0.228476 0.000654 0.0
2.078767 1.876039 0.001088 0.0
2.130344 0.992804 0.002107 0.0
3.840658 2.221878 -0.002156 0.0
2.229836 1.002237 -0.000591 0.0
3.722129 0.724141 -0.001613 0.0
1.383123 1.956375 0.000217 0.0
1.700718 1.847297 -0.001949 0.0
3.206731 1.915103 -0.000420 0.0
0.370849 1.728933 -0.003938 0.0
4.095403 0.503857 0.000747 0.0
0.028184 1.071047 -0.001390 0.0
2.176021 0.831186 -0.000426 0.0
3.494378 1.721787 -0.002197 0.0
2.818367 1.615489 0.001655 0.0
0.328219 0.156685 -0.000355 0.0
1.810373 0.833891 0.000350 0.0
1.625120 0.991386 -0.004198 0.0
4.177798 0.588512 0.001545 0.0
0.818989 1.987961 0.003238 0.0
3.844629 0.354037 0.000149 0.0
0.316508 0.706964 -0.000246 0.0
2.598194 1.102802 0.001894 0.0
3.150872 1.057971 0.003922 0.0
1.226290 1.287860 -0.002314 0.0
2.436174 0.942350 -0.004419 0.0
3.296025 0.383497 -0.002358 0.0
0.111857 0.182156 0.002184 0.0
3.221132 1.413972 -0.003829 0.0
3.777613 0.549477 -0.000450 0.0
0.062220 1.764818 0.001576 0.0
3.347143 0.407802 -0.003832 0.0
3.274840 0.794822 -0.000950 0.0
2.531117 0.510447 -0.001373 0.0
4.145683 0.934491 0.003512 0.0
1.073159 1.096177 0.000814 0.0
1.604166 0.106115 0.005063 0.0
2.375082 1.722160 0.002406 0.0
0.774492 2.239530 0.000565 0.0
2.432556 2.271884 -0.001637 0.0
3.507689 1.427489 0.000381 0.0
0.518584 1.475422 -0.001287 0.0
3.964603 2.099388 0.000516 0.0
0.599471 1.904882 -0.000313 0.0
2.583669 1.898153 0.005014 0.0
1.530046 0.385888 -0.000070 0.0
3.725624 0.949203 0.003601 0.0
1.980015 1.439979 0.003213 0.0
0.469650 2.093933 0.000699 0.0
3.777269 0.364537 -0.002619 0.0
1.834927 1.329429 -0.002128 0.0
1.061105 0.968772 0.003952 0.0
2.493997 0.691553 -0.001382 0.0
0.701010 2.098228 0.000936 0.0
3.064706 0.095461 0.001415 0.0
1.805212 2.259988 0.003927 0.0
2.021042 0.938517 0.003252 0.0
3.750255 0.215298 -0.003481 0.0
3.493794 0.444514 -0.000239 0.0
2.339746 0.064291 0.000561 0.0
2.935975 0.878741 0.002537 0.0
2.274893 0.218297 -0.002103 0.0
2.393375 0.470776 -0.000659 0.0
0.213157 0.940505 -0.000971 0.0
4.095552 1.782855 -0.001147 0.0
0.760785 2.161617 0.000549 0.0
2.460261 1.310365 -0.001638 0.0
0.442580 0.949895 -0.000775 0.0
3.613297 1.018034 -0.005659 0.0
3.665185 0.424420 0.000474 0.0
1.040521 2.322197 0.000208 0.0
0.064753 2.103985 0.000547 0.0
3.704317 0.958229 -0.000031 0.0
0.055717 0.312403 -0.000509 0.0
1.189666 1.746712 -0.002132 0.0
3.287248 0.655658 -0.003967 0.0
4.105284 0.888560 0.001052 0.0
1.090435 1.750472 0.003312 0.0
1.624952 1.553054 0.000829 0.0
1.700239 1.641309 0.002722 0.0
3.287269 2.390424 -0.002637 0.0
0.351506 2.272648 -0.001172 0.0
0.168770 0.658639 -0.006269 0.0
0.920097 0.518772 -0.004422 0.0
2.755043 0.322309 0.000767 0.0
3.643069 0.561535 0.002126 0.0
3.072525 0.183527 0.004271 0.0
2.241762 0.216982 -0.002433 0.0
2.340397 1.735462 0.001083 0.0
3.125961 0.675089 -0.000993 0.0
1.809277 0.146207 -0.000392 0.0
3.588231 2.123696 0.002997 0.0
2.931849 1.041160 0.000495 0.0
0.056456 0.849049 -0.002316 0.0
3.944614 1.676714 -0.000419 0.0
2.116737 1.855536 0.001183 0.0
4.223038 0.666747 -0.004056 0.0
0.397718 0.182952 -0.003961 0.0
3.484194 1.861081 -0.000756 0.0
0.715590 2.401718 -0.002520 0.0
1.196588 2.041648 0.001640 0.0
1.378505 0.121952 -0.001152 0.0
4.216027 0.115646 -0.000614 0.0
1.269785 2.221718 -0.003318 0.0
0.047456 1.650642 0.000995 0.0
4.271031 2.385404 -0.001792 0.0
0.400203 0.929857 -0.000256 0.0
1.695444 0.288962 0.000370 0.0
2.787680 0.589660 -0.000508 0.0
3.931368 1.767283 -0.001244 0.0
0.313011 1.845860 0.000594 0.0
1.727353 0.444820 -0.001548 0.0
3.680457 0.432875 0.000764 0.0
0.861695 1.815660 -0.001011 0.0
2.766900 1.311173 -0.000773 0.0
1.339944 1.755749 0.000818 0.0
3.513695 2.400701 0.001191 0.0
2.099070 1.137892 -0.002975 0.0
4.027387 2.381296 0.001416 0.0
0.749952 1.952846 0.006498 0.0
4.297509 0.103888 -0.002177 0.0
3.632967 2.142425 -0.002356 0.0
3.273512 0.662376 -0.002352 0.0
0.632015 1.841856 -0.000196 0.0
3.816669 1.646810 0.001705 0.0
2.807034 2.310733 -0.003812 0.0
2.885827 0.947768 0.001019 0.0
2.525154 1.322638 0.000883 0.0
3.413835 1.407828 0.003472 0.0
2.766927 1.285811 -0.004463 0.0
3.531113 1.677493 -0.000334 0.0
0.526223 0.570477 -0.002487 0.0
4.030975 1.084626 0.002459 0.0
3.850118 1.780966 0.004766 0.0
1.346478 2.333134 -0.001167 0.0
1.547869 0.548708 -0.002121 0.0
2.454495 0.925098 -0.001382 0.0
3.187070 -0.000248 0.181540 0.0
3.575925 0.004954 0.025015 0.0
2.342406 -0.000227 0.057852 0.0
1.120528 -0.005028 0.186551 0.0
3.847187 -0.000074 0.140667 0.0
4.027525 -0.005419 0.085419 0.0
0.835828 -0.002504 0.085844 0.0
2.233404 0.002192 0.063050 0.0
1.637621 -0.000373 0.071826 0.0
3.150741 -0.000035 0.149399 0.0
2.832460 -0.006042 0.275032 0.0
0.666411 -0.000493 0.062030 0.0
2.809075 -0.001400 0.035289 0.0
3.582658 -0.000986 0.164648 0.0
0.499644 -0.000057 0.105517 0.0
1.312573 0.002755 0.093892 0.0
3.516499 -0.005477 0.253946 0.0
0.402142 -0.002349 0.190413 0.0
2.284810 -0.001085 0.203478 0.0
3.166517 -0.002601 0.217570 0.0
3.134247 0.003398 0.205234 0.0
0.887870 -0.000006 0.227699 0.0
1.944284 -0.001824 0.154290 0.0
0.807261 -0.001192 0.036060 0.0
1.865537 -0.004879 0.155538 0.0
3.628508 -0.005615 0.024843 0.0
2.593803 -0.003647 0.231225 0.0
3.916977 0.001938 0.062407 0.0
1.472550 -0.001377 0.162943 0.0
0.711863 0.002606 0.159681 0.0
1.886608 0.001086 0.097202 0.0
2.831779 0.002769 0.201143 0.0
2.975249 -0.005699 0.173640 0.0
2.728882 0.001386 0.056043 0.0
2.210048 -0.002566 0.201667 0.0
1.778956 0.000515 0.158276 0.0
3.193599 0.003226 0.265415 0.0
2.217817 -0.000982 0.087708 0.0
0.081719 0.002217 0.136588 0.0
1.695559 -0.000388 0.162970 0.0
3.963208 -0.002980 0.086918 0.0
3.218682 -0.000111 0.026424 0.0
2.414935 -0.000768 0.147650 0.0
1.199643 0.000553 0.271369 0.0
0.552981 -0.001152 0.039164 0.0
0.109158 -0.003102 0.258280 0.0
2.167490 0.000789 0.246005 0.0
4.104071 0.002244 0.002722 0.0
2.586363 0.002301 0.018174 0.0
1.964708 0.001015 0.004685 0.0
2.915338 0.000516 0.062025 0.0
1.281303 -0.000975 0.059187 0.0
4.070942 -0.000772 0.271641 0.0
0.416822 -0.005909 0.112410 0.0
1.370845 0.001200 0.031959 0.0
4.064207 -0.000013 0.037217 0.0
1.791283 -0.001580 0.188356 0.0
3.320109 -0.001409 0.087202 0.0
2.605732 -0.001661 0.243848 0.0
0.977635 0.003273 0.095010 0.0
3.048757 -0.006149 0.259106 0.0
1.108166 -0.001351 0.109276 0.0
3.121851 -0.000257 0.235950 0.0
0.968863 0.001674 0.066500 0.0
2.783432 -0.003299 0.218299 0.0
1.122362 -0.004093 0.028117 0.0
0.819551 -0.000653 0.078779 0.0
3.021160 -0.003821 0.180403 0.0
1.532173 -0.004150 0.011147 0.0
0.841769 -0.003568 0.165147 0.0
0.890392 -0.000458 0.161325 0.0
1.825594 0.004517 0.071622 0.0
1.303383 -0.004820 0.137303 0.0
3.829736 0.001595 0.121565 0.0
0.322487 0.002904 0.080127 0.0
4.142990 0.002564 0.023726 0.0
0.044974 -0.004234 0.284474 0.0
0.715173 0.002853 0.002061 0.0
3.630140 -0.004020 0.120333 0.0
3.304017 0.000822 0.014185 0.0
1.092889 -0.001901 0.095180 0.0
1.401447 -0.000484 0.220784 0.0
0.934913 0.002769 0.084999 0.0
4.306619 -0.001395 0.253647 0.0
0.084862 -0.004261 0.259690 0.0
1.953940 -0.007707 0.199470 0.0
0.945179 0.001264 0.042822 0.0
2.031225 -0.003509 0.282449 0.0
2.361221 -0.000390 0.055401 0.0
2.002057 -0.007003 0.271078 0.0
2.461842 0.000604 0.068486 0.0
2.964030 0.002101 0.189117 0.0
3.627142 -0.003175 0.248593 0.0
0.096714 0.002004 0.105281 0.0
0.950876 0.000717 0.187594 0.0
2.781038 0.001523 0.247956 0.0
2.629807 -0.000268 0.251731 0.0
1.633847 0.002135 0.017817 0.0
1.706517 -0.008319 0.120283 0.0
3.300768 -0.002410 0.250694 0.0
1.719954 0.001446 0.084858 0.0
3.747259 0.000794 0.133272 0.0
0.226624 0.002589 0.136439 0.0
3.474703 0.002837 0.056137 0.0
3.256340 0.000939 0.003240 0.0
0.450439 -0.001653 0.257271 0.0
0.788003 -0.001274 0.077800 0.0
0.806817 0.000768 0.138287 0.0
2.290287 -0.002376 0.097564 0.0
1.184386 0.002227 0.138359 0.0
0.301610 0.002354 0.097494 0.0
0.907962 0.000349 0.150807 0.0
1.364030 -0.000269 0.059064 0.0
4.117326 -0.004102 0.270753 0.0
1.368634 -0.001299 0.268411 0.0
3.885465 0.003778 0.155838 0.0
1.949881 -0.001760 0.167718 0.0
2.725329 0.001203 0.045144 0.0
3.431949 -0.001764 0.082957 0.0
0.723676 0.000524 0.241336 0.0
1.437520 0.000726 0.025930 0.0
2.978817 0.001714 0.091286 0.0
3.001143 0.000218 0.209390 0.0
4.218168 -0.003713 0.122172 0.0
1.868086 0.001647 0.077459 0.0
0.353939 -0.002643 0.114326 0.0
3.194948 -0.005305 0.044955 0.0
1.203669 -0.001143 0.005097 0.0
1.952459 0.000133 0.119275 0.0
3.277315 0.003868 0.028653 0.0
2.006876 0.005177 0.048596 0.0
0.321013 -0.000602 0.278392 0.0
2.736713 0.001100 0.192096 0.0
3.291285 0.001156 0.188370 0.0
1.261142 0.003706 0.051223 0.0
2.974906 -0.005729 0.104912 0.0
1.587784 -0.001839 0.267392 0.0
1.922008 -0.000945 0.202780 0.0
1.826097 0.002474 0.243170 0.0
0.704095 0.002467 0.258868 0.0
1.317023 -0.002987 0.269366 0.0
4.035829 -0.001921 0.043197 0.0
0.711795 -0.000489 0.021044 0.0
2.753085 -0.004781 0.219790 0.0
1.840162 0.001769 0.131392 0.0
1.334665 -0.005765 0.167546 0.0
2.823488 -0.005537 0.240809 0.0
1.013041 0.002817 0.233030 0.0
3.489020 -0.002719 0.260940 0.0
0.094332 -0.004244 0.158963 0.0
2.266815 0.003191 0.150436 0.0
1.423391 -0.000304 0.168483 0.0
1.739280 -0.003090 0.206999 0.0
2.933962 0.000065 0.160911 0.0
2.288122 -0.000795 0.244332 0.0
0.271429 0.001676 0.010973 0.0
2.266298 0.000982 0.125775 0.0
0.958529 0.002226 0.075332 0.0
3.770014 0.001844 0.021155 0.0
1.129342 0.004173 0.149938 0.0
2.239328 -0.001155 0.131571 0.0
1.494319 -0.001421 0.186101 0.0
2.446960 -0.004700 0.134423 0.0
1.440296 0.003864 0.040987 0.0
1.258303 0.000688 0.218995 0.0
0.448449 0.001776 0.227514 0.0
2.984142 -0.007163 0.211224 0.0
2.199116 -0.000454 0.197508 0.0
2.319123 0.000088 0.179158 0.0
2.292239 -0.006571 0.134587 0.0
1.496389 0.000674 0.006786 0.0
3.235013 0.002088 0.281177 0.0
3.591288 -0.003606 0.069774 0.0
2.603276 0.000620 0.212777 0.0
2.254636 -0.000166 0.159068 0.0
0.260254 -0.000874 0.157513 0.0
1.219432 -0.002350 0.114090 0.0
1.020662 -0.000355 0.233751 0.0
2.793442 -0.001879 0.211384 0.0
4.196214 -0.001526 0.023745 0.0
2.357859 -0.003177 0.251397 0.0
3.825390 -0.001828 0.289874 0.0
2.094901 -0.000927 0.201883 0.0
3.475919 -0.000390 0.222961 0.0
1.223780 -0.003734 0.255669 0.0
0.966051 -0.002494 0.227167 0.0
2.035683 -0.001044 0.152403 0.0
0.369111 -0.000922 0.029210 0.0
2.920435 -0.002243 0.214339 0.0
0.715579 0.002118 0.042284 0.0
1.492246 -0.000432 0.227019 0.0
1.027354 -0.002485 0.155276 0.0
4.287691 -0.001869 0.069587 0.0
1.011861 -0.000528 0.096850 0.0
0.838921 0.000680 0.266146 0.0
2.716893 -0.000094 0.225136 0.0
3.963653 0.001256 0.044712 0.0
1.149151 -0.005743 0.244354 0.0
1.741659 -0.002175 0.010845 0.0
3.841074 -0.000202 0.279970 0.0
1.520516 -0.004603 0.160119 0.0
0.189902 0.000882 0.213939 0.0
2.516724 -0.000971 0.074444 0.0
0.602406 -0.003250 0.189764 0.0
1.390070 -0.000651 0.137173 0.0
1.639447 0.001880 0.245038 0.0
3.102745 -0.008943 0.254630 0.0
4.291472 -0.000352 0.269435 0.0
2.256178 -0.002464 0.038208 0.0
0.714973 -0.003877 0.202297 0.0
1.068656 -0.000139 0.122582 0.0
0.461657 -0.001072 0.216592 0.0
1.706410 -0.003622 0.154939 0.0
0.330545 0.001405 0.138698 0.0
2.479621 -0.002577 0.251871 0.0
2.900343 -0.001314 0.023953 0.0
1.684490 -0.003269 0.191224 0.0
1.461755 -0.001988 0.110215 0.0
0.541398 -0.004288 0.051203 0.0
3.671514 0.001015 0.132061 0.0
1.978225 -0.003058 0.180579 0.0
1.658169 -0.004084 0.215255 0.0
3.183015 -0.001244 0.017597 0.0
2.326428 -0.006322 0.088304 0.0
0.375648 -0.002926 0.212640 0.0
3.879713 -0.003258 0.097086 0.0
0.221955 -0.000182 0.177538 0.0
1.777186 -0.000725 0.183623 0.0
3.682816 -0.000205 0.000493 0.0
4.066614 -0.004222 0.114893 0.0
3.459705 0.002578 0.089399 0.0
1.873655 -0.000503 0.186041 0.0
2.636667 0.000486 0.013042 0.0
0.768087 -0.004924 0.126279 0.0
4.290253 -0.000732 0.094939 0.0
0.033864 -0.001270 0.028557 0.0
3.047245 -0.003469 0.044078 0.0
0.490750 -0.003662 0.282119 0.0
1.074194 -0.002119 0.097032 0.0
2.489898 -0.002127 0.075276 0.0
1.785102 0.005541 0.126285 0.0
3.007176 -0.003506 0.163334 0.0
3.860913 0.000690 0.096380 0.0
0.911903 -0.000797 0.284693 0.0
3.485208 -0.004323 0.259304 0.0
3.180076 -0.000048 0.199536 0.0
1.731314 -0.000364 0.143334 0.0
3.980083 -0.002214 0.138528 0.0
1.748966 0.000780 0.011829 0.0
3.144262 0.000470 0.253466 0.0
2.788020 0.000550 0.257848 0.0
3.719664 -0.000105 0.072360 0.0
3.404714 0.002857 0.199108 0.0
1.750365 -0.004335 0.150989 0.0
0.158322 0.002811 0.083562 0.0
2.632043 -0.002255 0.258236 0.0
0.306405 -0.001602 0.065737 0.0
2.645310 -0.002852 0.229539 0.0
1.740190 0.002246 0.220655 0.0
2.764387 -0.000188 0.147028 0.0
1.680496 0.001131 0.130010 0.0
3.537085 -0.007118 0.244000 0.0
1.785891 0.002536 0.043381 0.0
1.887458 -0.001674 0.222309 0.0
1.827727 -0.000287 0.085264 0.0
2.673444 -0.006198 0.249617 0.0
1.660611 -0.003304 0.181521 0.0
2.236189 -0.002031 0.244221 0.0
3.889892 0.000279 0.063593 0.0
4.194893 -0.002485 0.213609 0.0
3.520658 -0.004493 0.146560 0.0
2.468385 0.000641 0.289190 0.0
2.460495 -0.000551 0.290085 0.0
1.750361 -0.003571 0.246035 0.0
2.695773 0.003479 0.072033 0.0
4.255300 -0.002827 0.293396 0.0
2.487429 -0.003625 0.018028 0.0
1.510945 -0.000916 0.294985 0.0
3.518655 -0.001868 0.240333 0.0
1.345703 -0.001940 0.174548 0.0
2.944930 0.003591 0.237023 0.0
1.679405 -0.002431 0.113762 0.0
3.950394 0.000956 0.003494 0.0
2.013474 -0.004332 0.190029 0.0
0.181936 -0.002364 0.032472 0.0
2.447721 0.000033 0.172325 0.0
2.196547 0.000909 0.143382 0.0
1.622060 -0.001488 0.045965 0.0
0.234921 0.000750 0.285553 0.0
3.176310 -0.004473 0.161818 0.0
1.512828 -0.002097 0.244182 0.0
1.900576 0.002953 0.095768 0.0
2.602634 -0.002940 0.060903 0.0
3.209310 0.003676 0.062941 0.0
0.723443 -0.003418 0.053637 0.0
2.500257 -0.005304 0.029175 0.0
2.443858 -0.005022 0.197883 0.0
2.021462 -0.001376 0.214170 0.0
1.526586 -0.000512 0.162280 0.0
0.283862 -0.004250 0.119993 0.0
1.788967 -0.002168 0.029083 0.0
4.212238 -0.001653 0.052195 0.0
3.264942 0.005754 0.123451 0.0
0.109371 0.001089 0.123228 0.0
2.280390 0.000021 0.066667 0.0
3.732561 0.000746 0.151689 0.0
1.614260 -0.003332 0.226531 0.0
1.809652 -0.000321 0.087481 0.0
2.005045 -0.003088 0.177688 0.0
0.822283 -0.000502 0.158275 0.0
1.991985 -0.001866 0.156403 0.0
0.418993 0.000219 0.250515 0.0
3.341708 0.002245 0.200700 0.0
1.403763 -0.003430 0.239576 0.0
0.883063 -0.003790 0.132101 0.0
3.854333 -0.002959 0.054962 0.0
3.001319 0.000903 0.104636 0.0
3.240136 -0.002042 0.019296 0.0
2.499102 -0.001770 0.284994 0.0
1.129500 0.000598 0.161337 0.0
2.361190 0.002980 0.096839 0.0
2.414432 0.002415 0.097069 0.0
3.041815 0.001239 0.156961 0.0
3.919281 0.000666 0.035437 0.0
2.889182 0.000291 0.174726 0.0
4.231028 0.002195 0.263375 0.0
1.476831 -0.001914 0.034806 0.0
0.611028 0.000640 0.114352 0.0
0.421355 -0.002235 0.153188 0.0
1.383069 0.000854 0.194890 0.0
2.281025 -0.001310 0.031272 0.0
3.613944 -0.003143 0.242423 0.0
4.224082 -0.001490 0.123983 0.0
2.822769 -0.002324 0.189670 0.0
2.795593 -0.004325 0.069317 0.0
1.671261 0.000452 0.122470 0.0
0.681154 -0.000546 0.112873 0.0
2.879714 -0.000034 0.216256 0.0
2.625037 -0.004099 0.281957 0.0
1.367805 -0.001959 0.248220 0.0
1.097976 -0.006359 0.256056 0.0
3.002461 0.000218 0.196050 0.0
0.134154 0.000422 0.213574 0.0
0.564241 0.000251 0.158730 0.0
2.679068 0.000043 0.231818 0.0
2.103340 -0.001141 0.106917 0.0
1.289273 -0.004194 0.284637 0.0
0.431073 -0.002742 0.046354 0.0
4.099011 -0.001258 0.152757 0.0
2.967511 0.002078 0.087152 0.0
1.720006 -0.000052 0.217866 0.0
1.642469 -0.003485 0.173295 0.0
0.500805 -0.000084 0.011737 0.0
2.279242 -0.000881 0.244576 0.0
3.876308 -0.001604 0.150607 0.0
0.083003 -0.001404 0.206070 0.0
2.658091 -0.000168 0.218547 0.0
1.874295 0.001311 0.069474 0.0
0.665665 -0.003711 0.143808 0.0
4.198591 -0.002742 0.139250 0.0
2.448544 0.004048 0.211270 0.0
1.459336 0.001322 0.273704 0.0
4.066163 0.001100 0.075772 0.0
1.053889 -0.002373 0.104839 0.0
1.271573 -0.004929 0.145723 0.0
2.351958 0.001379 0.040820 0.0
1.348269 -0.001636 0.221577 0.0
3.509704 0.002465 0.178933 0.0
3.531903 -0.007144 0.073800 0.0
2.007795 -0.000815 0.144782 0.0
0.382346 -0.001326 0.112265 0.0
1.378637 -0.001807 0.160389 0.0
2.415550 -0.001914 0.171910 0.0
3.642607 0.002557 0.080661 0.0
2.387021 -0.006550 0.238331 0.0
1.622945 -0.003378 0.226603 0.0
3.711784 0.000711 0.137347 0.0
3.644367 0.001885 0.005332 0.0
1.041564 -0.002895 0.266481 0.0
0.904940 0.001393 0.225283 0.0
0.572034 -0.005849 0.192694 0.0
0.429242 -0.005917 0.210678 0.0
3.197641 -0.002442 0.199883 0.0
2.786731 0.002157 0.147784 0.0
0.385217 0.003655 0.172185 0.0
4.225438 -0.004196 0.202858 0.0
2.825986 -0.002065 0.189542 0.0
0.644048 0.000633 0.241346 0.0
0.959562 -0.001392 0.077721 0.0
0.989647 -0.002886 0.094179 0.0
3.838091 0.001617 0.011918 0.0
0.834351 0.005661 0.080248 0.0
2.384529 -0.003132 0.113088 0.0
3.807947 0.001926 0.012607 0.0
3.018419 -0.001533 0.162689 0.0
3.139927 0.000495 0.109317 0.0
3.341178 0.002465 0.117198 0.0
3.819881 0.002324 0.219304 0.0
2.870887 0.002741 0.266786 0.0
3.627511 -0.001707 0.062963 0.0
2.530260 -0.003992 0.034290 0.0
1.011728 -0.002454 0.040230 0.0
2.577695 -0.005445 0.068366 0.0
2.594178 -0.002968 0.100190 0.0
1.336859 0.001439 0.221030 0.0
0.521527 0.000915 0.283443 0.0
1.453414 -0.001566 0.147689 0.0
3.002662 0.001201 0.119829 0.0
3.735824 -0.003033 0.288848 0.0
3.556737 -0.002759 0.158183 0.0
3.272272 -0.002229 0.247655 0.0
1.637168 -0.002049 0.222593 0.0
2.571568 -0.002400 0.147525 0.0
2.812951 -0.000769 0.189145 0.0
2.403637 -0.004047 0.270691 0.0
0.531169 0.000876 0.141269 0.0
3.189700 0.002459 0.097586 0.0
1.801178 0.003294 0.149307 0.0
3.436090 -0.004883 0.080091 0.0
1.208540 0.000136 0.199380 0.0
1.190098 -0.003326 0.179304 0.0
1.930282 -0.003467 0.141469 0.0
0.405555 -0.000137 0.186961 0.0
3.973669 -0.000449 0.088154 0.0
0.197332 0.001373 0.159587 0.0
1.822067 -0.000720 0.172704 0.0
0.528127 -0.002317 0.000315 0.0
2.282906 -0.001799 0.193427 0.0
3.143131 -0.002848 0.006703 0.0
1.195330 -0.002906 0.245326 0.0
0.630441 0.000255 0.211416 0.0
2.709216 -0.002814 0.082879 0.0
4.179771 0.004524 0.292796 0.0
0.507301 0.002249 0.001844 0.0
2.328896 0.000944 0.095934 0.0
0.280630 0.008190 0.129187 0.0
1.010037 -0.006650 0.194813 0.0
0.052229 0.002106 0.109253 0.0
1.790956 -0.001413 0.177248 0.0
2.997193 0.002490 0.290928 0.0
1.104692 -0.005284 0.202132 0.0
1.776287 -0.001527 0.221449 0.0
4.111899 -0.001493 0.145482 0.0
2.619675 -0.003540 0.201547 0.0
2.421405 -0.003316 0.265139 0.0
3.735461 -0.003368 0.086478 0.0
3.459980 -0.003982 0.126666 0.0
2.517065 -0.001342 0.246580 0.0
2.476343 -0.002301 0.127403 0.0
1.636440 -0.001352 0.107695 0.0
1.633038 -0.001193 0.042916 0.0
2.324272 -0.001219 0.025231 0.0
1.066685 -0.002785 0.141243 0.0
0.046049 -0.001705 0.193485 0.0
1.116743 0.004329 0.014764 0.0
0.144814 -0.002856 0.279806 0.0
0.364112 -0.002681 0.195998 0.0
1.570362 -0.001751 0.033810 0.0
2.770555 0.000275 0.076509 0.0
0.190411 0.000449 0.037974 0.0
2.609610 0.001135 0.206338 0.0
0.985924 0.000569 0.092820 0.0
1.547783 -0.000081 0.064728 0.0
2.191255 -0.001591 0.041181 0.0
1.859857 -0.003869 0.117742 0.0
0.437699 -0.007242 0.215255 0.0
0.430478 0.001117 0.164298 0.0
2.471553 -0.003626 0.005389 0.0
1.707689 -0.006810 0.148768 0.0
4.199731 -0.003501 0.189205 0.0
2.776655 -0.001119 0.071408 0.0
2.524442 -0.005528 0.158850 0.0
0.250368 -0.003144 0.192173 0.0
2.887641 0.001818 0.163903 0.0
0.019609 -0.004382 0.084289 0.0
3.445020 -0.000874 0.146997 0.0
2.649561 -0.001922 0.259146 0.0
0.041298 -0.008040 0.049999 0.0
3.094712 -0.002007 0.205577 0.0
2.743394 -0.001529 0.112761 0.0
3.813988 -0.001216 0.045831 0.0
1.827982 -0.004252 0.259796 0.0
3.841280 0.001069 0.140657 0.0
3.352982 -0.000666 0.144396 0.0
3.438995 0.003042 0.015938 0.0
0.951894 -0.003272 0.235758 0.0
3.375511 0.002853 0.088588 0.0
1.622363 -0.002611 0.054883 0.0
4.179352 -0.002126 0.144796 0.0
4.308256 -0.001863 0.085061 0.0
1.400187 -0.005265 0.194205 0.0
3.188555 0.003329 0.003149 0.0
4.219375 -0.003086 0.028101 0.0
2.928016 0.004199 0.003977 0.0
0.103188 -0.000358 0.118372 0.0
1.637302 0.001343 0.152875 0.0
1.650645 -0.007067 0.120722 0.0
4.082742 -0.004490 0.263831 0.0
4.231237 -0.002772 0.280494 0.0
2.311897 -0.001244 0.114786 0.0
1.066885 -0.000726 0.173324 0.0
2.458671 -0.000363 0.123081 0.0
3.352656 -0.001846 0.173934 0.0
3.955524 0.001152 0.053852 0.0
2.863471 -0.002142 0.233474 0.0
4.010242 -0.003873 0.155903 0.0
3.968682 -0.004500 0.222847 0.0
1.215877 -0.001346 0.060098 0.0
1.359780 0.001008 0.028565 0.0
0.649566 0.000800 0.015948 0.0
4.182184 -0.005450 0.059374 0.0
3.845046 -0.000774 0.256794 0.0
4.203937 0.001981 0.102721 0.0
3.248398 -0.003164 0.213130 0.0
2.140947 -0.003137 0.063383 0.0
0.641112 -0.001584 0.276216 0.0
1.963991 -0.000608 0.253456 0.0
3.500172 -0.000250 0.264501 0.0
2.117371 -0.000409 0.177700 0.0
3.511155 -0.003855 0.247270 0.0
0.409217 -0.000306 0.216121 0.0
4.127054 -0.001723 0.116559 0.0
1.124535 -0.002557 0.164285 0.0
0.763433 -0.001976 0.100114 0.0
4.202784 -0.003911 0.016484 0.0
3.726358 -0.004017 0.004415 0.0
3.764659 -0.002633 0.124518 0.0
2.420765 -0.001634 0.073119 0.0
3.096832 -0.001256 0.194553 0.0
1.066482 -0.004560 0.226360 0.0
1.989913 -0.001558 0.063034 0.0
2.181295 -0.003757 0.230108 0.0
3.328116 -0.005541 0.095602 0.0
1.745772 -0.001244 0.071589 0.0
2.567038 -0.003206 0.133250 0.0
0.792166 0.003775 0.084959 0.0
1.316266 -0.002215 0.043295 0.0
0.082939 -0.002600 0.158429 0.0
1.099778 -0.000106 0.198828 0.0
1.074970 -0.003341 0.080628 0.0
0.406679 -0.001818 0.168976 0.0
1.313258 -0.000703 0.138549 0.0
3.167408 -0.003629 0.088023 0.0
3.413515 0.001962 0.152252 0.0
2.806849 -0.003303 0.212591 0.0
3.714154 0.002530 0.022493 0.0
0.379730 -0.003994 0.145046 0.0
2.871110 0.000697 0.241742 0.0
1.078124 0.000605 0.143572 0.0
1.786214 -0.000886 0.289874 0.0
0.888101 -0.000926 0.174093 0.0
3.238584 -0.001124 0.223237 0.0
1.349305 0.002693 0.032406 0.0
4.296680 -0.000108 0.267054 0.0
4.236184 -0.002700 0.123960 0.0
3.671692 -0.003927 0.248572 0.0
0.964649 -0.001858 0.119125 0.0
2.600996 -0.000020 0.010518 0.0
1.066364 -0.001351 0.115720 0.0
1.231552 0.000604 0.035343 0.0
3.384090 0.003777 0.027133 0.0
3.962690 -0.002163 0.054685 0.0
2.364544 -0.001940 0.132443 0.0
1.535032 -0.000191 0.169148 0.0
1.547861 -0.000373 0.065528 0.0
3.220237 0.002389 0.023535 0.0
2.858132 -0.000578 0.214034 0.0
4.104875 0.001190 0.226162 0.0
0.978247 -0.004005 0.165829 0.0
2.734202 0.000554 0.275016 0.0
2.324517 -0.001868 0.133709 0.0
2.433104 -0.004861 0.272519 0.0
0.907194 -0.002838 0.175593 0.0
0.012991 -0.005751 0.201906 0.0
2.639046 0.001508 0.088472 0.0
