1.54290678 1.71533897 -0.00153570 0.00000000
0.68808701 0.11780552 0.00040817 0.00000000
4.08154554 0.06175897 0.00084647 0.00000000
2.70638320 0.03804951 0.00335146 0.00000000
0.95680321 1.35731977 0.00117414 0.00000000
3.02286865 1.75491971 -0.00011268 0.00000000
3.59548984 1.72718231 0.00425101 0.00000000
1.07804976 0.23464853 0.00542447 0.00000000
0.18943666 1.47968861 0.00395591 0.00000000
0.10739633 0.30247870 -0.00009465 0.00000000
3.40298307 1.63748458 0.00112461 0.00000000
2.12035203 1.09809602 -0.00007012 0.00000000
1.93213251 1.07668242 0.00374802 0.00000000
2.26089929 0.48465667 -0.00151046 0.00000000
2.13566936 1.64951781 -0.00079817 0.00000000
2.54630565 1.87260440 -0.00653303 0.00000000
3.95198525 0.94701027 -0.00134440 0.00000000
0.22993860 1.35061460 0.00354841 0.00000000
0.55111224 1.41912590 -0.00047021 0.00000000
1.58064744 0.42367472 0.00187227 0.00000000
0.30333034 1.10270127 0.00029853 0.00000000
1.76485807 0.91480809 0.00031216 0.00000000
0.16714892 1.74163946 0.00191711 0.00000000
3.50237719 0.06855524 0.00093600 0.00000000
0.84578914 0.91031083 0.00192906 0.00000000
2.31762249 1.30679492 -0.00437288 0.00000000
0.55758150 0.36741089 0.00206302 0.00000000
2.21107026 1.60550240 -0.00170289 0.00000000
2.11607064 1.84768749 -0.00272132 0.00000000
0.48132855 0.37211379 0.00075718 0.00000000
1.27932382 1.14215738 0.00268436 0.00000000
0.11322371 0.40696074 0.00193173 0.00000000
1.69535619 1.98001874 -0.00236218 0.00000000
0.05285338 0.56870995 -0.00208338 0.00000000
1.66693277 0.20503829 0.00135345 0.00000000
0.51614208 1.81213812 -0.00287192 0.00000000
0.26402916 0.66208130 0.00120289 0.00000000
0.91029273 1.33992858 0.00052205 0.00000000
3.37787910 0.63512255 -0.00089010 0.00000000
1.17259671 0.08652133 -0.00006940 0.00000000
4.12790718 1.87817172 -0.00423586 0.00000000
3.54028742 1.79117173 0.00053907 0.00000000
2.02681593 0.70224568 -0.00104352 0.00000000
0.11167075 0.63399925 0.00344926 0.00000000
1.81938567 1.20862540 0.00124080 0.00000000
1.07318457 1.52829806 -0.00024163 0.00000000
2.52825502 1.37817413 0.00083501 0.00000000
2.47586307 0.43253717 -0.00155469 0.00000000
2.31610886 0.62154712 -0.00004936 0.00000000
0.16177326 1.59323541 -0.00295196 0.00000000
0.42143871 1.75893286 0.00251512 0.00000000
2.66299767 0.47450534 0.00063513 0.00000000
1.89036115 1.11525428 -0.00256690 0.00000000
1.31769354 1.07967539 0.00334138 0.00000000
0.31173783 0.07599588 -0.00268013 0.00000000
1.98927838 0.33913853 0.00243434 0.00000000
1.97723659 1.62670343 0.00301610 0.00000000
2.14821366 1.05919368 -0.00325481 0.00000000
3.11376140 1.18822367 -0.00246238 0.00000000
1.89115624 0.26476567 -0.00075467 0.00000000
2.19981639 0.18943695 0.00067274 0.00000000
3.59644256 0.24438219 0.00225402 0.00000000
3.72254736 0.93324876 -0.00152010 0.00000000
1.62011202 0.43565784 -0.00147522 0.00000000
1.22266945 0.76954137 0.00101096 0.00000000
3.38761823 1.87526185 0.00467316 0.00000000
0.89868245 0.16209052 -0.00004704 0.00000000
1.13062599 0.82862702 -0.00044373 0.00000000
0.33132509 1.08273189 -0.00056683 0.00000000
1.82181545 0.90612851 -0.00131449 0.00000000
2.06033431 1.83142087 -0.00235031 0.00000000
2.73418058 0.07102742 0.00021374 0.00000000
0.24616123 1.76828304 -0.00182913 0.00000000
1.72940516 1.50854544 -0.00121895 0.00000000
3.65191433 1.42494820 0.00080939 0.00000000
0.69828975 1.08395419 -0.00066600 0.00000000
2.50432514 0.00486043 0.00091074 0.00000000
2.07102987 1.66140350 -0.00046189 0.00000000
2.88889400 1.87818563 0.00119574 0.00000000
4.02709977 1.52111523 -0.00047307 0.00000000
2.89690249 1.76824157 -0.00123168 0.00000000
3.35994198 1.13881703 0.00177031 0.00000000
0.84131825 1.71619367 0.00192070 0.00000000
2.02005329 0.09681636 -0.00205222 0.00000000
2.06968800 0.74455813 -0.00384480 0.00000000
1.03486874 0.30725735 -0.00394957 0.00000000
3.89885244 0.96402984 0.00658823 0.00000000
2.82479897 0.45709973 0.00115510 0.00000000
2.46449905 1.53233692 0.00098857 0.00000000
4.02579633 0.99191785 -0.00179708 0.00000000
0.25591187 0.95482172 0.00028999 0.00000000
2.29395587 0.70051765 0.00122445 0.00000000
0.17805007 0.07850360 0.00001476 0.00000000
3.08713058 1.34249615 0.00074980 0.00000000
1.38957636 1.40678225 -0.00089220 0.00000000
3.46277079 0.48677039 -0.00175134 0.00000000
3.75206522 0.57368522 0.00014810 0.00000000
1.59222484 0.79782937 0.00700712 0.00000000
1.90588172 0.38973121 0.00033128 0.00000000
0.29359998 1.93124084 0.00040899 0.00000000
0.31855578 0.16962237 -0.00006818 0.00000000
1.59121962 0.01042902 -0.00112407 0.00000000
2.64614215 1.31894419 0.00632599 0.00000000
3.63811966 0.79675989 0.00238952 0.00000000
0.21344440 1.55596894 0.00152359 0.00000000
0.93761697 0.34254109 0.00219212 0.00000000
1.80866449 1.23711726 -0.00284028 0.00000000
2.94120333 1.13820675 0.00042418 0.00000000
0.43663110 0.04940209 -0.00129158 0.00000000
0.97789109 0.47505946 -0.00229432 0.00000000
3.02442843 0.23507840 -0.00083527 0.00000000
2.88889975 1.63450864 -0.00131826 0.00000000
3.39448764 1.18345875 0.00319873 0.00000000
2.23165230 0.70038218 0.00502546 0.00000000
3.31372338 0.96571569 0.00227151 0.00000000
2.89616033 0.49426716 -0.00105734 0.00000000
0.39281687 1.79928135 -0.00217752 0.00000000
0.48405026 1.45259869 0.00137756 0.00000000
3.33549853 0.07280106 0.00216749 0.00000000
2.85285708 1.32264703 -0.00253769 0.00000000
0.73055350 0.69327948 0.00115402 0.00000000
3.65537645 0.84482872 0.00373071 0.00000000
4.14470436 1.28048357 0.00451824 0.00000000
4.10531149 1.71950435 0.00075954 0.00000000
2.42453117 1.32308983 0.00200606 0.00000000
0.39062674 0.24034032 -0.00357612 0.00000000
1.67238047 1.54155011 0.00168987 0.00000000
0.28025978 1.51533866 0.00256307 0.00000000
2.08539843 0.18307305 0.00239724 0.00000000
2.39574004 1.51445516 0.00284914 0.00000000
2.21789382 1.57732435 -0.00146190 0.00000000
0.42506030 1.60800832 0.00019233 0.00000000
1.68677287 0.33444705 -0.00296747 0.00000000
0.03773293 1.73414647 -0.00237030 0.00000000
3.06480816 1.86086806 0.00249200 0.00000000
3.31921962 1.16253870 -0.00248377 0.00000000
2.48374420 0.75247675 -0.00449048 0.00000000
2.20370570 1.02631331 -0.00052303 0.00000000
1.03497948 0.21743563 -0.00328907 0.00000000
3.01054564 0.67718210 0.00299857 0.00000000
1.63958791 1.11840844 0.00476259 0.00000000
3.73003092 0.13373956 -0.00007513 0.00000000
4.05950411 1.44248539 -0.00295991 0.00000000
1.44925091 0.30054748 0.00108610 0.00000000
3.63961781 1.14039406 0.00019237 0.00000000
3.92994041 0.47005158 0.00134262 0.00000000
0.26114769 0.36970028 0.00033806 0.00000000
1.75766552 0.83966722 -0.00187121 0.00000000
1.55110405 1.45004826 0.00257413 0.00000000
0.57328475 1.51782545 0.00038118 0.00000000
2.04977054 1.50127136 0.00495768 0.00000000
2.64449860 1.37297572 0.00210647 0.00000000
3.41301207 0.47537114 -0.00454965 0.00000000
3.12389142 0.84646444 0.00228292 0.00000000
2.52422091 0.63754010 -0.00325125 0.00000000
3.53182612 1.40186143 -0.00621467 0.00000000
3.56141558 0.00627447 0.00259607 0.00000000
2.92553866 0.09630533 0.00079885 0.00000000
1.59180413 0.20729319 -0.00692139 0.00000000
3.84227560 1.23448511 0.00007519 0.00000000
0.13949696 1.90258721 0.00340827 0.00000000
2.55765340 0.08461011 -0.00217528 0.00000000
1.46542060 0.31455397 0.00121317 0.00000000
0.73126149 0.03415080 -0.00404221 0.00000000
1.76604109 0.90429773 0.00473193 0.00000000
3.42079611 0.36822713 -0.00153881 0.00000000
4.09956882 0.57224094 -0.00096282 0.00000000
1.77437373 0.43700625 0.00441061 0.00000000
2.62408952 0.59637371 0.00061942 0.00000000
3.28305491 0.64616260 0.00341968 0.00000000
3.32453097 1.25846013 0.00013502 0.00000000
3.58360084 1.60817396 -0.00415098 0.00000000
3.10159322 0.79457851 -0.00083663 0.00000000
1.65073707 1.02030942 -0.00265140 0.00000000
0.52937818 1.68044678 0.00218575 0.00000000
2.53860104 0.02099613 0.00195771 0.00000000
1.58582926 0.55411367 0.00322204 0.00000000
2.89231729 0.19384914 0.00202896 0.00000000
0.97192385 0.10479649 0.00291503 0.00000000
2.39194470 0.30358400 0.00186962 0.00000000
3.66296834 0.89826807 0.00210840 0.00000000
0.76078320 0.67821747 -0.00099465 0.00000000
2.81363830 0.60744493 0.00014794 0.00000000
3.05628267 0.06572440 0.00426959 0.00000000
2.45623636 0.76838471 -0.00048982 0.00000000
2.75533971 0.35144858 -0.00310011 0.00000000
2.90271614 1.26033320 0.00198862 0.00000000
0.49723869 0.90616538 -0.00394845 0.00000000
0.47501766 1.12282193 -0.00445117 0.00000000
2.17028338 0.95476733 -0.00149302 0.00000000
3.64343231 1.11369557 0.00458021 0.00000000
1.55165700 1.64806831 0.00384754 0.00000000
2.74531242 0.22408946 -0.00084360 0.00000000
3.61771732 1.36118267 0.00124701 0.00000000
2.88300761 0.51832029 -0.00161217 0.00000000
1.05168992 0.17461099 -0.00009566 0.00000000
3.77744747 0.71816174 0.00219944 0.00000000
3.57869351 0.59353219 0.00429570 0.00000000
1.11052856 1.57358185 0.00081543 0.00000000
0.41114966 0.64325810 -0.00033777 0.00000000
0.46107039 0.79404711 0.00022678 0.00000000
2.56857869 1.25958773 -0.00199820 0.00000000
2.59816851 0.36725988 0.00080693 0.00000000
2.30633277 0.95452269 0.00227078 0.00000000
0.52390802 1.03456111 -0.00111917 0.00000000
1.04895028 0.15893968 0.00158040 0.00000000
2.30155303 0.36914369 -0.00080663 0.00000000
3.14334953 0.83502718 -0.00001064 0.00000000
0.35303267 1.05248459 -0.00135385 0.00000000
1.72317193 1.89879835 0.00389601 0.00000000
0.53533722 1.60668629 0.00030631 0.00000000
1.36742288 1.67451312 -0.00136502 0.00000000
2.52998117 0.84777992 0.00135915 0.00000000
1.89221729 0.67033563 0.00310101 0.00000000
3.87815221 1.31053556 0.00085190 0.00000000
1.13862254 1.87742692 -0.00132840 0.00000000
0.87812620 0.76902621 0.00043463 0.00000000
2.89346364 0.15190019 0.00042270 0.00000000
1.66513159 0.50578643 0.00262816 0.00000000
0.90793004 0.78002546 0.00386302 0.00000000
2.89854415 0.38405861 0.00246637 0.00000000
0.48487355 0.51126709 0.00118988 0.00000000
1.64872732 0.41228231 0.00208977 0.00000000
3.33310382 1.08092336 0.00097118 0.00000000
2.37590749 1.87899121 -0.00115343 0.00000000
0.06700313 1.75344207 0.00302139 0.00000000
2.70810239 1.23077531 -0.00330691 0.00000000
1.99018979 1.77101415 0.00417947 0.00000000
0.03634556 1.60577577 -0.00559822 0.00000000
3.80349539 1.60057947 -0.00259199 0.00000000
2.07548910 0.59609093 -0.00033055 0.00000000
1.98280224 0.07159850 0.00073839 0.00000000
3.40852356 0.29658907 0.00107262 0.00000000
3.46122435 0.72548764 0.00026998 0.00000000
2.78898957 1.21770768 0.00017836 0.00000000
3.24210099 0.98647327 -0.00480534 0.00000000
2.03336478 1.19788958 -0.00157244 0.00000000
1.37326819 1.05088646 0.00631303 0.00000000
3.10136428 0.56672116 -0.00204169 0.00000000
0.90756364 0.44194213 -0.00025747 0.00000000
2.55641949 1.27335413 -0.00548195 0.00000000
0.70832433 0.37242928 0.00318551 0.00000000
3.81396740 0.97187193 0.00339377 0.00000000
1.40059409 0.50100057 0.00289715 0.00000000
3.98155589 0.16373160 -0.00467472 0.00000000
1.36557493 0.46000846 0.00092206 0.00000000
2.61803811 1.10618923 -0.00162644 0.00000000
2.93803043 1.18914918 -0.00297194 0.00000000
0.04887119 0.43485643 0.00040996 0.00000000
1.78690290 1.96922651 -0.00139409 0.00000000
2.93081076 1.13876972 0.00057786 0.00000000
2.69445402 1.98184205 0.00038657 0.00000000
0.64913991 0.70178908 -0.00037637 0.00000000
0.97917858 1.72071001 0.00015295 0.00000000
1.70783195 1.17157440 0.00441672 0.00000000
2.46034645 0.45122367 -0.00041653 0.00000000
1.38733422 1.35723754 0.00362771 0.00000000
3.58934263 1.43273281 0.00370308 0.00000000
3.54244533 0.48863963 -0.00173350 0.00000000
0.52673653 0.03859782 0.00203396 0.00000000
0.28859982 1.94040744 -0.00153873 0.00000000
1.55051238 0.50619224 0.00018022 0.00000000
3.68332580 0.65140132 -0.00282130 0.00000000
2.25774963 0.37935905 -0.00278222 0.00000000
2.47236711 0.25167703 -0.00163936 0.00000000
3.95120503 1.22216755 0.00088185 0.00000000
3.68912465 0.82962356 -0.00356091 0.00000000
0.26438413 0.47383354 0.00144729 0.00000000
3.41250413 0.82055191 0.00175536 0.00000000
2.18316737 1.63635386 0.00122884 0.00000000
3.11281915 1.06542756 -0.00237318 0.00000000
0.26539204 1.44021037 0.00115643 0.00000000
2.89192707 0.05803930 0.00181253 0.00000000
1.68911547 1.37884780 -0.00298949 0.00000000
2.48196968 1.01378865 -0.00425051 0.00000000
1.25639265 0.34724795 0.00056406 0.00000000
0.88603020 1.28168261 0.00159759 0.00000000
0.76821819 0.49888660 -0.00301350 0.00000000
2.11976077 0.37256829 -0.00026391 0.00000000
3.62497558 0.34667952 -0.00210405 0.00000000
2.84270473 0.32706495 0.00483638 0.00000000
3.54049548 0.77006005 0.00104536 0.00000000
3.28309118 1.63126069 -0.00446842 0.00000000
3.40337160 0.04018949 -0.00422328 0.00000000
3.34391148 1.04629002 0.00171401 0.00000000
4.02710666 1.32353298 0.00031448 0.00000000
3.01143314 1.31571339 0.00143204 0.00000000
3.65868902 1.01202343 0.00009530 0.00000000
1.44624511 0.89456449 -0.00897334 0.00000000
3.38581542 0.58323572 0.00212501 0.00000000
1.40628524 0.26551817 0.00242975 0.00000000
2.52624707 0.17217204 -0.00180484 0.00000000
2.28909170 1.49564793 -0.00466343 0.00000000
1.46740450 1.73973183 0.00381905 0.00000000
3.70884960 1.14336307 0.00081873 0.00000000
0.85896924 1.09111332 0.00297042 0.00000000
3.56359439 1.14883905 0.00232141 0.00000000
3.91928232 1.74300044 0.00252748 0.00000000
0.51155211 0.63346240 0.00066662 0.00000000
1.62281234 0.78090157 -0.00060607 0.00000000
3.06165821 1.52761556 -0.00155978 0.00000000
3.53832695 1.46830931 0.00340538 0.00000000
3.97543059 0.03579884 -0.00137168 0.00000000
0.28250758 1.80163385 -0.00359519 0.00000000
3.18317513 1.75512039 0.00187781 0.00000000
1.24383149 1.15598829 0.00097682 0.00000000
4.06600884 0.77482442 -0.00231503 0.00000000
4.13962747 1.69755893 -0.00456986 0.00000000
2.40566082 0.93945223 -0.00068878 0.00000000
2.01355853 0.77828975 -0.00080819 0.00000000
3.43764602 0.16485926 -0.00146541 0.00000000
2.51659098 0.20929392 -0.00539584 0.00000000
1.22191294 1.72726149 -0.00039810 0.00000000
2.27614389 0.95924288 -0.00066522 0.00000000
3.81297383 1.85533737 0.00036987 0.00000000
1.46196539 1.86204041 -0.00103035 0.00000000
2.44632655 1.00521777 -0.00315978 0.00000000
2.96494071 1.90270719 0.00328014 0.00000000
2.19508813 0.65379108 0.00147850 0.00000000
2.32029545 1.97168270 -0.00076184 0.00000000
1.32646845 1.16377012 -0.00011775 0.00000000
3.74890906 0.03814179 -0.00138627 0.00000000
2.79588685 0.27822863 0.00123688 0.00000000
2.99592104 0.49265749 0.00038394 0.00000000
0.32178929 1.89411098 -0.00079802 0.00000000
3.81136609 1.36678450 0.00185583 0.00000000
0.43414538 1.26667184 0.00056446 0.00000000
0.78989740 1.84396537 0.00320511 0.00000000
1.49099790 1.21358423 0.00189325 0.00000000
2.69447551 0.17627986 0.00646745 0.00000000
3.30258367 0.70371048 0.00047841 0.00000000
1.92024027 1.05162407 -0.00431506 0.00000000
3.20847239 1.48624283 -0.00170720 0.00000000
3.09670105 0.05321779 -0.00028477 0.00000000
0.68176384 1.24797247 -0.00016103 0.00000000
0.16930328 1.64737356 -0.00107206 0.00000000
1.84222686 1.95978642 -0.00003861 0.00000000
3.56645787 0.79110970 -0.00424873 0.00000000
1.85836720 0.76825536 -0.00060496 0.00000000
3.53224796 0.29900236 -0.00055269 0.00000000
3.51815618 0.16300099 0.00187393 0.00000000
2.90097987 0.22993004 -0.00454307 0.00000000
1.41672686 0.37545105 0.00136353 0.00000000
1.70716034 0.69711906 0.00160599 0.00000000
0.58416505 0.12801292 -0.00032007 0.00000000
1.25891859 0.23380858 -0.00192553 0.00000000
2.95001920 0.15499115 0.00242252 0.00000000
2.49367235 1.09859680 -0.00070441 0.00000000
3.90836740 1.54996033 -0.00304380 0.00000000
0.90655988 0.06602629 0.00253679 0.00000000
1.31089398 0.16865520 -0.00054901 0.00000000
2.80846128 1.31379653 0.00111832 0.00000000
2.83830312 0.32557653 -0.00046962 0.00000000
3.53421273 0.86552248 -0.00233911 0.00000000
3.55408154 1.16378465 -0.00331010 0.00000000
1.56617206 1.04409354 0.00047153 0.00000000
1.80733595 1.22763869 -0.00072238 0.00000000
2.65045645 0.35004429 -0.00028158 0.00000000
1.04718841 0.05765556 0.00165391 0.00000000
2.55406541 1.33776207 0.00110888 0.00000000
1.26920400 1.39002766 0.00476245 0.00000000
3.58177405 1.18739685 0.00127747 0.00000000
1.28736153 1.17009381 -0.00024155 0.00000000
1.57430529 0.53862830 0.00178822 0.00000000
3.47806600 1.80973537 0.00010552 0.00000000
1.68401643 0.00939909 0.00091642 0.00000000
2.27647171 1.82217414 -0.00229279 0.00000000
0.41295614 1.86823338 0.00032663 0.00000000
2.85199813 1.12191460 0.00012597 0.00000000
3.71317336 0.23786312 0.00219842 0.00000000
2.10882177 0.22076823 0.00430977 0.00000000
3.95568169 0.06905954 0.00134060 0.00000000
1.37251176 0.81369665 -0.00272962 0.00000000
3.56670738 1.61059234 -0.00389900 0.00000000
3.43184443 1.16566841 -0.00004538 0.00000000
3.40036191 0.90921034 -0.00492663 0.00000000
2.28839427 0.96009737 -0.00390840 0.00000000
1.52056234 1.89447134 0.00152835 0.00000000
3.59092785 0.33905154 0.00201272 0.00000000
3.49748299 0.20169280 -0.00276950 0.00000000
1.02251839 0.54739109 -0.00688270 0.00000000
3.11141290 0.55980873 0.00214410 0.00000000
3.14149918 0.20815989 0.00173352 0.00000000
4.04390045 0.03689409 -0.00296510 0.00000000
3.02423396 0.21428600 0.00130118 0.00000000
1.28342759 1.74044918 0.00120610 0.00000000
2.43942228 0.90612049 0.00216329 0.00000000
1.84959242 1.82404012 -0.00203418 0.00000000
3.84341096 0.53715502 0.00014989 0.00000000
2.63465108 0.51402842 -0.00579013 0.00000000
3.58823177 1.20879286 0.00095080 0.00000000
2.79515468 0.10619044 0.00194654 0.00000000
2.47557997 1.01317923 -0.00683408 0.00000000
0.39139688 0.81703022 -0.00239770 0.00000000
2.93085459 0.65317807 -0.00203054 0.00000000
0.53493130 1.63227613 -0.00215984 0.00000000
1.55866012 0.32401415 -0.00472926 0.00000000
1.07306694 0.20082610 -0.00426438 0.00000000
1.70853234 1.10879593 0.00302221 0.00000000
1.47472894 1.86351679 -0.00137758 0.00000000
2.82803363 0.11670366 -0.00327996 0.00000000
2.51501554 1.64281336 0.00051541 0.00000000
1.93685649 1.38809188 -0.00216797 0.00000000
3.93892576 1.78608940 0.00198172 0.00000000
1.46325410 1.29116083 -0.00069060 0.00000000
0.80225008 0.67993402 -0.00123874 0.00000000
0.24016409 0.03262230 -0.00254875 0.00000000
1.71965861 1.28762048 -0.00219841 0.00000000
2.53751892 1.85321896 -0.00054134 0.00000000
2.99314120 1.41441828 0.00191025 0.00000000
0.86814565 1.80416313 0.00132968 0.00000000
3.40509247 1.16686529 -0.00259610 0.00000000
0.00997842 0.35240930 0.00439101 0.00000000
0.74090729 1.77537147 0.00249385 0.00000000
0.40549016 0.09288991 -0.00060267 0.00000000
2.24192536 1.46187075 0.00020038 0.00000000
2.97351676 0.40327448 0.00032935 0.00000000
3.15568587 1.89576503 0.00036861 0.00000000
3.14547369 0.56302397 0.00109294 0.00000000
0.23660173 0.36356333 0.00236859 0.00000000
1.31754554 1.30933484 -0.00055153 0.00000000
1.70121266 0.73167564 -0.00136868 0.00000000
0.41769486 0.34763952 -0.00322613 0.00000000
3.24780640 1.63865764 0.00055030 0.00000000
1.34094000 0.12130215 0.00788891 0.00000000
3.48648544 1.09960521 0.00013685 0.00000000
3.08185985 0.39908927 0.00122355 0.00000000
0.30901470 1.65045059 -0.00250702 0.00000000
0.46780879 1.89591622 0.00397726 0.00000000
2.01291126 1.89335706 0.00252077 0.00000000
2.19735757 0.17459175 0.00158738 0.00000000
1.88267790 1.34746463 0.00034862 0.00000000
1.92142297 1.55250089 0.00111538 0.00000000
3.15902351 1.04484155 0.00110887 0.00000000
2.96277303 1.14157596 -0.00385408 0.00000000
3.34125116 0.31535464 0.00287062 0.00000000
3.78351547 0.63527896 -0.00234504 0.00000000
2.95589403 1.39915332 -0.00226810 0.00000000
3.79013525 1.98737867 0.00381341 0.00000000
3.62614255 0.78825936 0.00069899 0.00000000
3.16539302 1.49797005 0.00329475 0.00000000
3.50272760 1.14234137 0.00198473 0.00000000
2.92187593 1.08798277 0.00087079 0.00000000
2.43223118 0.35379107 0.00306057 0.00000000
1.31431601 1.21197295 -0.00017504 0.00000000
1.60389457 0.55905626 -0.00306832 0.00000000
0.66742040 0.73693551 -0.00390747 0.00000000
0.56860078 0.42234881 -0.00108151 0.00000000
1.37009484 1.59016548 0.00321336 0.00000000
0.78924764 1.26841593 0.00337421 0.00000000
2.36500094 0.07656568 -0.00033589 0.00000000
1.22505404 0.00818346 0.00351084 0.00000000
4.08019795 1.78482702 0.00426879 0.00000000
3.15310491 0.60436754 -0.00112320 0.00000000
0.91155009 0.28487435 -0.00164231 0.00000000
0.22621830 0.68393771 0.00252089 0.00000000
0.33565300 0.43727055 0.00114267 0.00000000
1.86132796 0.82001759 0.00521583 0.00000000
3.42188868 0.69510815 0.00272530 0.00000000
3.05415834 1.65079038 -0.00031844 0.00000000
2.49058999 0.32774836 0.00383154 0.00000000
0.72225756 0.28824552 -0.00149555 0.00000000
2.43570539 1.18870933 0.00270234 0.00000000
3.71788807 0.30129642 0.00071627 0.00000000
1.62641919 0.51260910 0.00185119 0.00000000
1.02405394 0.46187963 0.00123334 0.00000000
0.62629838 1.01225471 0.00188161 0.00000000
0.96562405 0.75006449 0.00195851 0.00000000
0.20686891 0.66502372 -0.00117810 0.00000000
1.84971516 0.40713126 -0.00750725 0.00000000
3.00273246 1.85710573 0.00049129 0.00000000
0.01742460 0.62513491 -0.00096301 0.00000000
3.12667981 0.19708832 0.00190049 0.00000000
0.81900237 1.43263370 -0.00194855 0.00000000
2.84491548 0.03099628 -0.00320364 0.00000000
1.66205268 1.65063682 0.00441274 0.00000000
3.15235447 0.12812345 -0.00113886 0.00000000
2.78120274 0.12907395 -0.00232594 0.00000000
3.47992995 1.53056270 0.00258152 0.00000000
0.80945791 0.50560673 0.00038052 0.00000000
0.82700241 0.20079222 -0.00321005 0.00000000
0.73638460 0.54014537 0.00253714 0.00000000
1.13367710 1.77519349 -0.00128014 0.00000000
2.97469358 0.78063786 -0.00206085 0.00000000
1.75522998 1.96442689 0.00050229 0.00000000
0.80351378 0.90875613 -0.00111992 0.00000000
2.32398144 1.31646853 -0.00281067 0.00000000
2.80451420 0.07631484 -0.00077900 0.00000000
1.48281453 0.41651238 0.00255804 0.00000000
2.35117559 0.32798505 0.00286288 0.00000000
1.15255475 1.40785069 -0.00236920 0.00000000
2.34263277 0.89101770 -0.00385913 0.00000000
0.37813133 0.97923347 0.00091853 0.00000000
1.61845383 1.58382327 0.00447671 0.00000000
1.73534014 0.82640859 -0.00050364 0.00000000
2.55165591 1.00056176 -0.00275613 0.00000000
3.57723333 0.38136021 -0.00001953 0.00000000
4.04274036 0.38442825 0.00329183 0.00000000
0.98987988 0.79406402 -0.00461786 0.00000000
1.39982259 1.47811107 -0.00086274 0.00000000
3.96107592 1.20386053 -0.00496893 0.00000000
0.49099267 0.88227641 0.00242383 0.00000000
1.24625271 1.19474829 -0.00393656 0.00000000
0.11700276 0.20743168 0.00149200 0.00000000
3.91599596 1.40042957 0.00069683 0.00000000
0.80904619 1.49700067 -0.00203157 0.00000000
2.57546055 0.39060380 0.00535524 0.00000000
2.23922222 0.81044041 0.00294972 0.00000000
2.83223827 0.75655762 -0.00369962 0.00000000
3.18958419 1.71189935 -0.00081478 0.00000000
4.06002394 0.94558944 -0.00202551 0.00000000
3.05809860 0.87927012 0.00204499 0.00000000
3.01545631 0.97924081 0.00034515 0.00000000
3.84213032 1.50211769 0.00069473 0.00000000
2.94937043 0.09114369 0.00005780 0.00000000
1.09648316 1.76923355 0.00394569 0.00000000
1.34477218 0.99259662 -0.00221074 0.00000000
0.14532172 1.97923251 0.00185545 0.00000000
3.41458305 1.99726130 -0.00258334 0.00000000
0.57617897 0.66008902 -0.00151447 0.00000000
1.49364030 0.32603789 0.00151272 0.00000000
3.25250311 0.40069996 0.00183187 0.00000000
0.79158110 1.42804361 -0.00107284 0.00000000
2.54249998 0.95928034 -0.00008317 0.00000000
2.91375147 1.34050791 0.00162259 0.00000000
1.50103312 1.78838040 0.00096848 0.00000000
2.38495315 1.08595527 -0.00027813 0.00000000
3.09313551 1.21766000 -0.00256861 0.00000000
3.52617220 0.46526943 -0.00141694 0.00000000
1.74356699 1.90746517 -0.00104382 0.00000000
3.95910932 1.24366306 -0.00167982 0.00000000
0.52183502 1.14514528 0.00506391 0.00000000
2.46413860 0.82906298 0.00018340 0.00000000
2.35958983 1.24318809 0.00090289 0.00000000
1.93557417 0.46104629 -0.00127493 0.00000000
2.22414903 0.36408439 -0.00369227 0.00000000
0.86949471 0.13774970 0.00042938 0.00000000
2.40280074 0.49532140 -0.00102751 0.00000000
2.36588647 0.01416081 0.00013712 0.00000000
0.02146614 1.61788324 0.00160599 0.00000000
1.39048961 0.05545023 0.00118467 0.00000000
3.27759804 1.98019621 0.00113041 0.00000000
1.58400029 0.19538496 -0.00214998 0.00000000
0.08110939 0.04660929 0.00121674 0.00000000
3.74402130 0.15706499 0.00028304 0.00000000
3.63581206 1.47142972 -0.00099855 0.00000000
4.05221604 0.53110680 0.00107177 0.00000000
0.26585027 1.93113468 -0.00162003 0.00000000
1.52480681 0.19787961 0.00007975 0.00000000
2.95987707 0.73283152 0.00000087 0.00000000
3.46466823 1.60019350 0.00048195 0.00000000
1.69281798 0.50843792 0.00073767 0.00000000
3.43821607 1.34472487 -0.00247771 0.00000000
1.62554730 1.72130604 -0.00290241 0.00000000
0.58447483 1.41780402 -0.00252284 0.00000000
3.04777405 0.36936611 -0.00355471 0.00000000
3.87157837 0.95962784 0.00400831 0.00000000
3.40454547 1.57398489 0.00088484 0.00000000
1.43544139 1.62426596 -0.00283962 0.00000000
1.63837572 1.38592256 0.00462817 0.00000000
0.26209446 1.95836057 -0.00173160 0.00000000
2.56783165 1.46127028 -0.00182334 0.00000000
1.11659498 0.57496625 -0.00112886 0.00000000
3.60438010 0.70421656 0.00275743 0.00000000
2.27943257 1.67325873 0.00352118 0.00000000
0.62605397 0.23034136 -0.00496909 0.00000000
2.81974609 0.23561647 0.00552822 0.00000000
3.72911933 0.59091867 0.00007219 0.00000000
4.06944872 0.94026732 -0.00223645 0.00000000
1.95321705 1.22022241 -0.00341465 0.00000000
2.57751909 0.21329727 -0.00036170 0.00000000
0.92476630 0.15547782 0.00034864 0.00000000
4.04409464 0.19217375 0.00380703 0.00000000
0.03561916 0.68361246 -0.00357686 0.00000000
1.46060962 1.55070471 -0.00060926 0.00000000
0.05001770 0.12957102 0.00122775 0.00000000
2.28619437 1.12847391 0.00248288 0.00000000
3.17426468 1.05410397 0.00058113 0.00000000
3.70043154 0.37891898 -0.00132619 0.00000000
0.90923177 1.09136798 0.00135306 0.00000000
3.38194852 0.08275105 -0.00218067 0.00000000
3.18976713 1.24998743 -0.00047473 0.00000000
0.10554256 1.65149276 -0.00264447 0.00000000
2.97496208 0.15214965 -0.00021290 0.00000000
0.22499560 0.43572420 0.00390146 0.00000000
3.45195441 1.71522940 -0.00084908 0.00000000
3.37508485 1.72154932 0.00568442 0.00000000
2.03269167 0.26919584 -0.00311772 0.00000000
0.16401453 0.66581672 0.00129034 0.00000000
2.24095460 1.33847331 0.00146609 0.00000000
2.36484021 1.90707471 -0.00393301 0.00000000
3.56693993 1.48169671 0.00285600 0.00000000
4.04461255 0.88340669 -0.00325188 0.00000000
3.49345197 1.13863177 0.00417511 0.00000000
2.72805245 1.26962311 -0.00045730 0.00000000
1.49883359 1.08874873 -0.00041101 0.00000000
0.34797673 0.77052318 -0.00054917 0.00000000
3.08945150 1.86832505 -0.00078073 0.00000000
1.39665792 1.45284704 0.00171812 0.00000000
2.25636685 0.77997341 -0.00085301 0.00000000
0.50588906 1.74737085 -0.00472774 0.00000000
2.94576502 1.33848035 0.00113580 0.00000000
1.27717273 1.22407863 0.00228715 0.00000000
0.23384193 0.37320548 0.00020765 0.00000000
2.32269762 0.27060500 0.00280435 0.00000000
0.88991406 1.97585551 0.00281174 0.00000000
2.97696168 0.52783187 -0.00348850 0.00000000
3.39676126 0.47446655 -0.00134334 0.00000000
2.71993105 1.29810590 -0.00380071 0.00000000
0.17284265 1.22228636 -0.00123142 0.00000000
3.05329813 0.47279259 0.00269413 0.00000000
0.75570898 1.53692489 0.00526168 0.00000000
1.82765166 1.58349994 0.00041052 0.00000000
0.72567638 1.69761239 -0.00000980 0.00000000
1.83107254 0.34393744 0.00149332 0.00000000
3.34444821 1.14843843 0.00499624 0.00000000
1.52274566 1.08711085 -0.00181434 0.00000000
1.80730079 0.97442814 -0.00346957 0.00000000
0.29647567 0.99476719 0.00074636 0.00000000
0.90159265 1.45214263 -0.00324036 0.00000000
1.69081889 1.25108430 -0.00130736 0.00000000
3.11357432 0.76705808 -0.00662512 0.00000000
2.87836613 0.55271763 -0.00002738 0.00000000
0.98489072 1.89999231 -0.00231316 0.00000000
2.00989106 1.33770527 -0.00204951 0.00000000
0.78975582 0.80619906 -0.00218353 0.00000000
0.92651369 0.93798671 -0.00009876 0.00000000
1.92092794 0.15756016 -0.00136872 0.00000000
3.59518064 0.03335574 0.00026210 0.00000000
1.02903241 0.81474886 0.00617001 0.00000000
1.30676337 0.00419956 0.00262011 0.00000000
0.76160701 0.11783699 -0.00048174 0.00000000
3.77691018 1.81141153 0.00063765 0.00000000
3.49802968 0.00215899 0.00015274 0.00000000
0.85646262 0.42757248 0.00013786 0.00000000
1.08000915 0.80164028 0.00233686 0.00000000
3.05992316 1.76652806 0.00113965 0.00000000
0.68608754 1.33578773 0.00055291 0.00000000
3.13130117 0.92676282 -0.00208326 0.00000000
0.71460052 1.77389411 -0.00180593 0.00000000
2.93067530 0.79649052 0.00167921 0.00000000
0.82555457 0.93916546 0.00027466 0.00000000
0.44758254 1.45124651 -0.00175588 0.00000000
0.01141115 1.73159473 0.00220734 0.00000000
4.04201343 0.49976313 0.00041703 0.00000000
3.27413259 0.61685608 0.00472559 0.00000000
1.20365241 1.95205135 0.00102329 0.00000000
3.17639853 0.26941454 0.00290409 0.00000000
2.65775190 1.50843931 0.00230938 0.00000000
0.26635788 1.32187367 -0.00197967 0.00000000
0.86984652 1.40581772 -0.00168504 0.00000000
2.05915220 0.94101726 0.00014446 0.00000000
0.32728638 0.81860989 0.00035202 0.00000000
1.67028359 1.26725913 -0.00190563 0.00000000
3.39919194 0.05235623 -0.00053196 0.00000000
0.77624170 1.28922136 0.00080072 0.00000000
3.38044131 0.33053321 -0.00095422 0.00000000
3.61153711 0.42990719 -0.00204812 0.00000000
2.23774452 1.83643575 0.00049010 0.00000000
1.74571558 1.07712966 0.00189851 0.00000000
2.06536552 1.87987213 0.00142264 0.00000000
3.62725054 1.86935742 -0.00448742 0.00000000
2.61684960 0.73571041 -0.00040452 0.00000000
3.53462504 0.74771368 -0.00043858 0.00000000
3.24477615 0.86826383 0.00321009 0.00000000
4.15308386 0.52167645 -0.00157204 0.00000000
0.68647478 1.42944013 -0.00117068 0.00000000
3.20948209 1.37711684 -0.00327721 0.00000000
3.89584350 1.48596077 -0.00132415 0.00000000
1.73309476 1.75758623 -0.00281895 0.00000000
4.14315818 1.57100833 -0.00018045 0.00000000
2.14571650 1.83261022 0.00207014 0.00000000
0.91832549 0.30750196 -0.00067211 0.00000000
0.93977014 0.20765929 -0.00338867 0.00000000
0.24169607 0.36306068 -0.00278721 0.00000000
2.05608222 0.17027089 -0.00035946 0.00000000
0.16438310 1.61588601 0.00086149 0.00000000
3.82270691 0.20647465 -0.00060330 0.00000000
1.89801308 1.31163391 -0.00051875 0.00000000
1.44238374 1.37170077 0.00108859 0.00000000
4.05711767 1.88818337 -0.00231085 0.00000000
1.48370807 1.23610278 -0.00032922 0.00000000
2.68354582 1.40205407 -0.00062773 0.00000000
1.82955247 0.95577974 -0.00119364 0.00000000
3.92621305 1.01476933 0.00024837 0.00000000
3.94277443 0.29743234 -0.00052057 0.00000000
2.42295970 0.43403362 -0.00077430 0.00000000
1.73205081 1.43350103 -0.00379757 0.00000000
3.83371582 1.33603350 -0.00151974 0.00000000
0.87513813 0.57879050 -0.00263975 0.00000000
1.83020581 0.18354365 0.00232508 0.00000000
1.83386194 1.14184770 -0.00108723 0.00000000
3.05154531 1.71925422 0.00076821 0.00000000
3.98600590 1.84149832 0.00271770 0.00000000
2.19943348 0.52751402 -0.00609879 0.00000000
2.19008083 0.11285759 0.00182166 0.00000000
3.25989356 1.10026689 0.00032377 0.00000000
0.96257132 0.03695248 0.00029576 0.00000000
1.34791099 1.84002410 0.00174372 0.00000000
1.88882110 1.35244366 0.00184381 0.00000000
2.23927664 0.49199236 -0.00251291 0.00000000
3.58866540 0.71410876 -0.00339955 0.00000000
3.41542912 0.00445916 -0.00171095 0.00000000
0.11457881 1.23392775 -0.00319206 0.00000000
1.33511754 0.47308560 -0.00044290 0.00000000
1.59850552 1.12140200 0.00039010 0.00000000
3.12615350 0.12268719 -0.00403174 0.00000000
0.74947432 0.01719002 0.00325494 0.00000000
3.82315289 1.86276099 -0.00291115 0.00000000
1.68121818 1.41088082 0.00093496 0.00000000
1.90055407 0.64932237 0.00344820 0.00000000
1.68216403 0.79912028 0.00129965 0.00000000
0.91088113 1.99994894 -0.00224216 0.00000000
1.53770143 0.46634185 -0.00274918 0.00000000
2.42964413 0.60244042 -0.00084576 0.00000000
0.98053717 1.15983378 0.00018678 0.00000000
2.31493460 1.50787487 -0.00076241 0.00000000
1.83583517 0.08030112 0.00348525 0.00000000
1.91555987 0.80547242 -0.00110993 0.00000000
4.10453605 1.80766733 0.00133336 0.00000000
1.57481671 1.15378995 -0.00093064 0.00000000
0.67299316 0.36339547 -0.00196028 0.00000000
0.31878067 0.36208702 -0.00014575 0.00000000
1.08836312 1.80749760 -0.00332607 0.00000000
1.77319758 0.52983396 -0.00207719 0.00000000
1.56624003 0.72072314 0.00099154 0.00000000
1.11095221 1.52215419 0.00437166 0.00000000
1.16007817 1.34183097 0.00268653 0.00000000
0.12132622 1.91635695 0.00141850 0.00000000
2.01554960 1.96682263 -0.00287760 0.00000000
3.44171689 1.60748566 0.00446472 0.00000000
2.29829510 0.85542495 0.00010743 0.00000000
3.96378290 1.17514559 0.00106165 0.00000000
2.58723145 0.47942552 0.00265936 0.00000000
0.34942722 0.74545424 0.00215690 0.00000000
2.46887682 0.24152060 -0.00154081 0.00000000
1.39902066 1.27367623 0.00005936 0.00000000
0.88791799 1.00413928 -0.00118893 0.00000000
0.93500467 0.50902492 0.00142536 0.00000000
3.07567093 1.14758952 -0.00092414 0.00000000
0.56506810 0.49414870 -0.00566210 0.00000000
0.80082706 1.36694912 0.00180854 0.00000000
0.83282500 1.02177643 -0.00073876 0.00000000
1.15476792 0.62397594 -0.00317250 0.00000000
0.82535259 1.86031156 0.00183012 0.00000000
1.85656755 0.45921238 0.00023526 0.00000000
4.15369028 0.81904467 0.00083559 0.00000000
2.97430337 1.89426899 -0.00402291 0.00000000
2.41025116 1.52585024 -0.00284060 0.00000000
2.86811943 0.25404694 0.00190450 0.00000000
1.61899810 1.51764944 0.00159573 0.00000000
3.60115570 1.60329528 0.00240842 0.00000000
0.65493996 1.61941836 -0.00433811 0.00000000
2.59883113 0.96552351 0.00038584 0.00000000
3.21421804 0.77272106 -0.00005917 0.00000000
3.77008013 0.54437941 -0.00141556 0.00000000
3.13293758 0.93081203 0.00030297 0.00000000
1.02034918 1.59236482 0.00199707 0.00000000
2.53699916 0.77538112 -0.00071072 0.00000000
4.14636988 0.14274998 0.00216841 0.00000000
0.52959235 0.08566044 -0.00251978 0.00000000
3.88270006 0.27686854 -0.00030934 0.00000000
3.31051279 1.98844332 -0.00222421 0.00000000
1.47527945 1.96707447 -0.00126420 0.00000000
4.00965293 1.44724975 -0.00028785 0.00000000
1.03596872 0.95708284 0.00248075 0.00000000
0.74026282 1.69502210 0.00199987 0.00000000
0.05958267 0.24963732 0.00070466 0.00000000
1.08821126 1.13747895 -0.00324373 0.00000000
3.08335563 1.12895869 -0.00090428 0.00000000
2.26207586 0.96558422 0.00169664 0.00000000
1.77068721 0.86670867 -0.00096943 0.00000000
0.64225082 1.62810620 -0.00247833 0.00000000
0.64455083 1.30402583 -0.00131035 0.00000000
1.44487346 0.10927468 -0.00075492 0.00000000
2.81821603 0.00985079 0.00154933 0.00000000
1.56756008 0.04783792 -0.00015202 0.00000000
1.22076409 0.51929963 -0.00528521 0.00000000
3.44194090 0.14649653 -0.00110556 0.00000000
3.09963146 1.30522626 -0.00029551 0.00000000
0.42187634 1.52047377 -0.00064006 0.00000000
2.20638628 1.99292946 0.00256637 0.00000000
1.32819467 0.94381588 0.00236331 0.00000000
3.60378677 0.07246808 -0.00011525 0.00000000
2.20677456 1.36203830 -0.00469740 0.00000000
1.96055135 0.25893943 0.00299156 0.00000000
4.14127882 0.01827897 -0.00035689 0.00000000
1.02599012 0.64619489 0.00243418 0.00000000
4.08583254 1.74797107 0.00252476 0.00000000
0.10769815 0.36893476 -0.00179256 0.00000000
1.58814393 0.79224365 0.00375615 0.00000000
1.59035918 0.47509910 -0.00047471 0.00000000
2.90994358 0.39305784 -0.00027817 0.00000000
3.11826813 0.31096259 0.00510513 0.00000000
3.68642754 1.19210148 0.00199683 0.00000000
0.82641301 0.53437970 -0.00174456 0.00000000
1.94849353 0.37619651 0.00259736 0.00000000
1.38442835 0.92930933 0.00164483 0.00000000
2.95654807 0.38225787 0.00160463 0.00000000
0.97201697 0.47674912 0.00082938 0.00000000
2.11202411 1.75144452 0.00255037 0.00000000
1.96566856 0.32138827 -0.00249724 0.00000000
0.31857561 0.75858477 -0.00345172 0.00000000
0.19607782 1.35499823 -0.00396613 0.00000000
0.01232406 1.45508057 0.00228657 0.00000000
3.62916723 1.99825345 -0.00278732 0.00000000
1.53508887 0.04193424 0.00223738 0.00000000
3.12190286 1.48913114 0.00190828 0.00000000
0.51288892 1.50418848 -0.00077384 0.00000000
1.71100111 1.12966344 0.00283523 0.00000000
2.55318434 1.85300050 0.00144179 0.00000000
2.74558853 1.70987733 -0.00047184 0.00000000
2.12465815 1.52571027 0.00065624 0.00000000
0.52339627 1.47944013 0.00056616 0.00000000
2.01633290 1.24341836 0.00024534 0.00000000
0.52588333 1.63279407 -0.00125912 0.00000000
3.58574625 1.25141482 0.00068783 0.00000000
3.66849539 1.19276933 0.00205356 0.00000000
1.87894313 0.02774301 0.00175294 0.00000000
3.64083286 0.05242216 -0.00093695 0.00000000
2.24246792 0.54523185 -0.00259686 0.00000000
4.16270221 1.31156287 0.00043562 0.00000000
3.42087741 1.41781184 0.00337865 0.00000000
2.79226067 0.19579417 0.00281309 0.00000000
0.17823930 1.15968747 0.00113899 0.00000000
2.42333923 1.74282482 -0.00397572 0.00000000
1.53952204 0.73207085 -0.00600956 0.00000000
3.11508530 0.62582879 0.00154991 0.00000000
2.24198134 1.65002222 0.00111237 0.00000000
1.06629455 0.39238930 0.00196986 0.00000000
3.04803407 1.07335237 -0.00406398 0.00000000
2.99108647 1.21066452 -0.00065900 0.00000000
3.45861806 0.18016407 0.00027613 0.00000000
1.56405258 0.76216542 0.00562443 0.00000000
3.33500868 0.68191558 0.00663797 0.00000000
2.59945642 0.36626022 0.00030634 0.00000000
3.88187312 1.62395778 0.00568258 0.00000000
0.67046458 1.17003009 0.00180950 0.00000000
3.80277652 0.61391226 0.00350294 0.00000000
1.85572029 0.05864395 -0.00188175 0.00000000
3.42246299 0.72791398 0.00057728 0.00000000
1.32754738 1.00827047 0.00045430 0.00000000
1.39870162 0.20506411 0.00585058 0.00000000
1.60590928 0.68463405 -0.00306857 0.00000000
0.46764458 1.31933750 0.00000951 0.00000000
1.33591188 1.35909357 -0.00209524 0.00000000
1.12800399 0.85225954 -0.00187355 0.00000000
3.48405419 0.63720879 -0.00364397 0.00000000
3.70992897 0.78802813 -0.00129165 0.00000000
1.51875994 1.80193342 -0.00011780 0.00000000
0.44204107 1.51045800 0.00220201 0.00000000
4.07080310 1.16215400 -0.00122719 0.00000000
0.98300850 0.26674342 0.00148516 0.00000000
3.85268170 0.61001418 0.00316499 0.00000000
2.43627982 0.45896208 -0.00234180 0.00000000
3.08907193 0.64864524 -0.00134628 0.00000000
0.35709840 0.42202993 -0.00484406 0.00000000
3.43185547 1.17219636 -0.00169454 0.00000000
2.31645869 0.20651739 -0.00122571 0.00000000
3.79287098 1.61572071 0.00113223 0.00000000
2.46141266 0.15383149 -0.00431247 0.00000000
0.47025917 0.04045393 0.00259871 0.00000000
4.04767496 1.24837924 0.00194727 0.00000000
2.11134282 0.90007012 -0.00043199 0.00000000
3.65414685 1.53326801 0.00246304 0.00000000
4.00231648 0.88660721 0.00201437 0.00000000
1.29675759 1.81310385 0.00263468 0.00000000
3.42512686 1.05930275 0.00067121 0.00000000
3.16357907 1.47540822 -0.00112879 0.00000000
0.52025279 1.20416536 -0.00109151 0.00000000
0.79523722 0.68719031 0.00034050 0.00000000
0.65044704 0.01008842 0.00287486 0.00000000
0.21419169 1.43209810 0.00106483 0.00000000
2.53805323 0.47758573 -0.00009733 0.00000000
1.04329866 1.23123298 -0.00094599 0.00000000
1.98078630 1.25517504 0.00176893 0.00000000
3.52979323 0.30666367 -0.00062732 0.00000000
3.86733786 1.17120408 0.00193160 0.00000000
0.74439414 1.79331634 0.00254441 0.00000000
3.06059831 1.86884490 -0.00046768 0.00000000
1.37973293 1.37474696 -0.00001661 0.00000000
3.85332743 1.50670726 -0.00075642 0.00000000
3.13015975 0.19192850 0.00538839 0.00000000
1.98611330 1.47187909 0.00117916 0.00000000
2.42557683 1.07926563 -0.00007891 0.00000000
1.40855573 1.53707669 0.00188001 0.00000000
3.94595846 1.04757883 0.00345167 0.00000000
2.22385203 1.21849188 -0.00181068 0.00000000
2.13240091 1.49408038 0.00177479 0.00000000
1.62755724 1.75105367 -0.00097737 0.00000000
3.53821305 1.49761261 -0.00074819 0.00000000
3.21858885 0.03249194 0.00146018 0.00000000
1.54122738 0.58399398 -0.00462769 0.00000000
0.82041774 1.63967719 -0.00035299 0.00000000
0.29779785 0.02290392 0.00104594 0.00000000
1.27052403 0.18138230 0.00382891 0.00000000
3.76458445 0.96155071 0.00067710 0.00000000
2.97344420 1.11081688 0.00029345 0.00000000
1.30814462 1.67114109 -0.00133998 0.00000000
2.29768585 0.95858027 -0.00040132 0.00000000
3.49298524 1.45804242 0.00044619 0.00000000
1.37843182 1.44655451 0.00110506 0.00000000
3.76801500 1.54348841 -0.00312489 0.00000000
0.81871313 0.98028629 -0.00011486 0.00000000
0.34991284 0.40190938 0.00016680 0.00000000
2.92290531 0.66760471 0.00157100 0.00000000
0.85853690 1.50331160 -0.00454303 0.00000000
0.33822435 0.25203605 0.00018235 0.00000000
0.79402494 0.66521891 0.00002220 0.00000000
2.69505658 0.97663742 0.00476209 0.00000000
3.43280540 0.58035290 -0.00070651 0.00000000
4.06756536 1.92546951 0.00041491 0.00000000
2.94526631 1.08888520 -0.00129665 0.00000000
2.43104159 0.52275597 -0.00122273 0.00000000
0.66509545 0.30602813 -0.00277105 0.00000000
0.32444209 0.87139544 0.00212676 0.00000000
3.80010043 0.86724212 -0.00341007 0.00000000
1.33296477 0.09091320 0.00066775 0.00000000
2.56420406 0.22771302 -0.00372367 0.00000000
2.89412897 1.68666874 -0.00117296 0.00000000
3.03231447 0.00505243 -0.00305514 0.00000000
1.60877849 0.90305477 -0.00504548 0.00000000
4.03999690 0.33994456 -0.00240856 0.00000000
3.63289146 0.63940354 -0.00089266 0.00000000
2.73988686 1.95603519 -0.00011233 0.00000000
3.74545829 1.19457015 0.00138293 0.00000000
3.58899065 1.86529511 -0.00035292 0.00000000
1.87466977 0.80777084 0.00316267 0.00000000
1.32294535 0.85629879 0.00400445 0.00000000
2.06340646 0.19842352 0.00154003 0.00000000
3.63914566 0.01536599 -0.00059161 0.00000000
2.80950802 0.54524799 -0.00213454 0.00000000
3.69314531 1.83173265 -0.00047453 0.00000000
2.49653449 1.43444681 0.00212685 0.00000000
0.86055806 1.52661963 -0.00097795 0.00000000
1.42153225 0.71552983 -0.00112730 0.00000000
1.76562111 0.58662863 -0.00046402 0.00000000
1.34178488 0.17952441 0.00068408 0.00000000
2.31535601 1.61624801 0.00263830 0.00000000
1.38336206 0.10631202 -0.00162241 0.00000000
3.11960523 0.62995309 0.00094085 0.00000000
3.70633305 1.05832030 0.00121090 0.00000000
2.89661251 1.40155037 0.00306763 0.00000000
2.00180193 1.20178225 0.00139507 0.00000000
1.73073224 1.00442590 0.00193100 0.00000000
2.55769615 0.41060330 0.00000978 0.00000000
2.83262834 1.32472219 -0.00127858 0.00000000
0.52240244 1.11091481 -0.00614814 0.00000000
1.74381727 0.16117531 -0.00050705 0.00000000
2.56185234 0.25425650 -0.00221296 0.00000000
0.38800679 1.53936728 0.00142930 0.00000000
3.04182677 0.43151496 0.00269395 0.00000000
0.16579281 0.11775390 -0.00076396 0.00000000
3.18853467 0.83269146 0.00424178 0.00000000
1.25609402 1.84618147 -0.00215792 0.00000000
0.03390318 1.97474507 0.00266828 0.00000000
0.21768956 1.57971530 -0.00120260 0.00000000
4.01377676 1.93236153 -0.00090137 0.00000000
1.54645140 0.47907369 0.00148345 0.00000000
4.04836364 0.03682631 -0.00538824 0.00000000
2.57041846 0.74454448 0.00412544 0.00000000
2.64687542 0.75635333 0.00263464 0.00000000
1.46830151 1.50176547 -0.00154198 0.00000000
3.43743367 1.60234995 -0.00681503 0.00000000
0.33949071 1.34364241 -0.00278919 0.00000000
3.07497575 0.05982941 0.00071660 0.00000000
2.31727010 1.60162787 -0.00293179 0.00000000
1.94558320 1.58336975 0.00055582 0.00000000
2.79307812 1.74012754 0.00253089 0.00000000
3.49705751 0.86789466 -0.00098902 0.00000000
0.19690528 0.90579584 0.00208278 0.00000000
2.21254621 1.63320190 0.00082363 0.00000000
3.37307421 1.19232533 0.00078923 0.00000000
4.04966106 1.92500343 0.00074616 0.00000000
2.80111157 0.51948800 -0.00434477 0.00000000
1.98768230 0.12926491 0.00025167 0.00000000
0.65138960 1.47484340 -0.00354387 0.00000000
0.54334094 0.73062409 0.00356142 0.00000000
1.71993786 1.01646410 0.00190098 0.00000000
1.90084909 1.96548984 -0.00019894 0.00000000
3.72330833 1.98736550 -0.00344318 0.00000000
0.66176926 1.55951195 0.00522635 0.00000000
0.13284605 0.46787717 0.00047841 0.00000000
2.21341935 0.06147809 0.00052438 0.00000000
2.30484189 1.94713746 0.00312390 0.00000000
1.73825758 0.09772528 0.00458030 0.00000000
3.74165164 0.60765452 -0.00264830 0.00000000
3.01889375 1.08825721 -0.00006980 0.00000000
3.81317314 0.79981618 -0.00176597 0.00000000
2.95391145 0.26405044 0.00042990 0.00000000
0.05767415 0.13729890 -0.00204794 0.00000000
2.51350450 1.12307824 0.00353069 0.00000000
0.10295814 1.57291582 0.00076453 0.00000000
2.42442059 1.69370178 -0.00054145 0.00000000
4.01604731 0.23559456 -0.00482682 0.00000000
2.71822556 0.87085572 0.00253348 0.00000000
1.14086116 1.71600155 -0.00205322 0.00000000
0.00650456 1.19437029 0.00145498 0.00000000
2.73661870 0.34940899 -0.00211611 0.00000000
0.56858505 1.85041215 -0.00071546 0.00000000
1.02436865 1.62550885 -0.00038013 0.00000000
0.61046201 1.96110266 -0.00623303 0.00000000
2.70310942 1.01768887 0.00280746 0.00000000
3.45144333 0.34455388 -0.00363926 0.00000000
1.79327478 0.17118370 0.00080126 0.00000000
3.64211422 1.03600440 0.00046788 0.00000000
0.08275825 1.69013814 0.00017112 0.00000000
0.59732302 1.53516221 -0.00087587 0.00000000
1.93974926 1.14477648 -0.00320160 0.00000000
1.79675867 0.57492401 -0.00133346 0.00000000
3.41896393 1.82893637 0.00308549 0.00000000
2.01987957 0.54415794 -0.00027022 0.00000000
3.27857587 1.73041726 -0.00591632 0.00000000
0.67927660 0.47929260 0.00401337 0.00000000
1.28517295 0.32321484 -0.00064197 0.00000000
4.09460499 0.07734187 0.00738192 0.00000000
1.71385027 0.51544685 0.00379504 0.00000000
3.96778217 1.34209452 -0.00208881 0.00000000
2.08717371 1.39871894 -0.00292184 0.00000000
0.57028208 1.46480418 0.00666221 0.00000000
0.11366396 1.38844277 -0.00230455 0.00000000
2.10650508 0.27452246 -0.00421875 0.00000000
0.57674337 1.83578363 -0.00505461 0.00000000
3.58480744 0.31169516 -0.00107672 0.00000000
0.05108011 1.97591132 -0.00007988 0.00000000
2.79743489 1.94154911 0.00218988 0.00000000
0.83558900 1.19189420 -0.00237251 0.00000000
2.61421465 0.56102660 0.00079132 0.00000000
0.72676085 1.14886770 0.00647325 0.00000000
1.63812089 1.49323622 -0.00102701 0.00000000
3.69437177 1.45336619 -0.00192944 0.00000000
1.13449157 1.89411313 0.00247444 0.00000000
3.88156944 0.59881647 0.00259063 0.00000000
1.94159233 0.68900076 0.00102602 0.00000000
3.23099453 1.89110868 -0.00097702 0.00000000
3.87665941 0.54845987 0.00029353 0.00000000
0.71806370 0.36927899 0.00067057 0.00000000
3.49415299 1.05518531 0.00227382 0.00000000
0.62245766 0.35093006 -0.00113167 0.00000000
3.28331477 1.93766845 0.00144277 0.00000000
0.65593753 1.17723971 -0.00036775 0.00000000
2.54273726 1.42918780 0.00156083 0.00000000
1.33073222 0.42109842 -0.00052920 0.00000000
1.37149019 1.02314483 -0.00197171 0.00000000
0.38430224 0.10490377 -0.00118949 0.00000000
1.04129284 1.82152233 -0.00068131 0.00000000
0.32876475 0.43485001 0.00260590 0.00000000
0.53597720 1.27441597 -0.00152918 0.00000000
1.47894629 1.93636585 0.00512393 0.00000000
2.43798219 0.69923070 -0.00428617 0.00000000
1.68171539 1.89932093 0.00186295 0.00000000
3.03230497 0.61514095 -0.00129799 0.00000000
1.00679968 1.85172493 -0.00043868 0.00000000
0.53612048 0.76784314 0.00296830 0.00000000
0.99349055 1.99127658 -0.00313528 0.00000000
2.44264334 0.63918669 0.00097591 0.00000000
0.51240849 1.63175985 -0.00084166 0.00000000
4.10139563 0.16314054 0.00190302 0.00000000
3.42765621 0.55664150 -0.00158111 0.00000000
0.91005822 0.73774313 -0.00391664 0.00000000
2.51724685 1.91933504 -0.00007229 0.00000000
2.22660426 0.42922779 0.00292298 0.00000000
0.08025521 1.78072261 0.00044207 0.00000000
0.01092108 1.18405648 0.00407785 0.00000000
1.27247244 1.05648360 -0.00102125 0.00000000
2.08891687 0.06861879 -0.00155259 0.00000000
1.83904388 1.22264428 0.00407980 0.00000000
0.30621705 1.18927929 -0.00190978 0.00000000
3.05965162 1.76675367 0.00288260 0.00000000
3.26961322 1.17322347 0.00058378 0.00000000
4.15935632 0.53034898 0.00059980 0.00000000
1.66229136 0.62438686 0.00104787 0.00000000
0.46391334 0.03350719 0.00061724 0.00000000
1.65193047 0.12817630 0.00207897 0.00000000
4.08637613 0.36288889 -0.00358029 0.00000000
1.02453316 0.59966474 -0.00243818 0.00000000
4.10070052 1.87829735 0.00113288 0.00000000
3.37131602 0.10013163 -0.00012411 0.00000000
4.15628573 1.45982563 0.00001776 0.00000000
