2.928238 1.470183 0.003140 0.0
1.587943 0.249690 0.001674 0.0
1.737058 1.768521 0.001190 0.0
2.233935 0.386812 -0.003371 0.0
2.468575 0.243691 -0.003007 0.0
1.351878 1.762465 -0.002533 0.0
2.830595 0.592318 0.002006 0.0
1.597936 1.957684 0.004487 0.0
3.121322 1.239074 -0.002025 0.0
1.155567 1.928554 -0.000905 0.0
2.350736 0.750968 -0.001547 0.0
3.085470 0.544879 0.004468 0.0
1.879303 1.723082 -0.001309 0.0
1.928079 0.474120 0.000029 0.0
0.478072 0.436269 0.000890 0.0
0.121763 1.396322 -0.004554 0.0
1.020001 1.374618 0.005987 0.0
3.679242 1.181062 -0.002029 0.0
2.798063 0.197238 -0.001922 0.0
1.162137 0.130774 -0.005767 0.0
0.974827 1.876183 0.003270 0.0
0.011100 0.061902 0.000047 0.0
1.412110 0.793107 -0.001930 0.0
4.040468 1.240734 0.000034 0.0
2.903157 0.197371 -0.000433 0.0
0.845362 1.937091 -0.000361 0.0
2.072770 0.031328 -0.002447 0.0
3.316239 1.815297 0.004808 0.0
2.032623 0.523627 -0.000835 0.0
2.243543 0.973986 -0.004344 0.0
2.079432 0.546268 -0.004264 0.0
2.876598 0.859872 0.002699 0.0
1.711066 1.772302 -0.000633 0.0
0.147277 0.316643 0.001596 0.0
0.569873 0.246564 -0.005060 0.0
0.543246 0.949612 0.000828 0.0
1.896295 1.362032 -0.006604 0.0
3.423467 0.920094 0.001858 0.0
0.171061 1.261905 0.004637 0.0
0.188104 0.871644 -0.005564 0.0
3.113308 1.016900 0.000297 0.0
2.228826 1.649424 -0.000226 0.0
3.162106 0.193807 0.004301 0.0
0.145594 0.390615 -0.006342 0.0
3.912845 1.831629 0.005556 0.0
3.793045 0.031206 0.004233 0.0
2.771346 0.556394 0.001329 0.0
2.715568 1.544653 -0.001535 0.0
2.579889 0.823938 0.001970 0.0
2.236686 1.713833 0.001860 0.0
2.989456 1.570150 -0.000407 0.0
1.181284 0.782005 0.000792 0.0
3.009420 1.597363 0.002915 0.0
1.596426 0.376233 -0.000173 0.0
0.399108 1.414950 -0.003263 0.0
1.109958 0.293026 -0.001323 0.0
3.340779 1.189741 -0.000945 0.0
0.987577 1.094454 0.001596 0.0
3.335418 1.592111 0.000740 0.0
1.009100 0.692248 -0.000812 0.0
2.342007 1.702926 -0.000625 0.0
1.957952 0.499362 -0.001046 0.0
0.279321 0.096716 -0.000847 0.0
1.145786 1.799945 -0.001170 0.0
2.992414 1.776804 0.003002 0.0
2.480115 2.037319 0.003330 0.0
0.815879 0.196211 -0.001923 0.0
3.454858 0.552782 0.002391 0.0
2.955534 1.250605 -0.000625 0.0
1.701525 1.518829 0.000712 0.0
0.999338 1.279239 0.005440 0.0
3.084090 1.879646 -0.001994 0.0
3.401233 0.861581 0.001625 0.0
1.669099 1.155940 0.001856 0.0
1.769892 1.471737 0.000188 0.0
1.947883 1.829235 -0.000189 0.0
1.762187 1.907398 -0.000388 0.0
3.823671 1.741349 -0.001275 0.0
2.188021 1.516221 -0.005354 0.0
2.177546 1.540191 0.004019 0.0
0.455002 1.995786 0.000043 0.0
0.160466 2.019748 -0.000926 0.0
1.145719 1.313807 -0.002345 0.0
2.422599 1.975649 -0.005362 0.0
1.257451 1.873880 0.000215 0.0
3.712120 1.846289 -0.001352 0.0
0.574171 0.199043 0.000983 0.0
2.899479 0.523342 -0.000144 0.0
1.344537 0.820328 -0.002787 0.0
4.067174 0.539417 0.003716 0.0
0.696881 1.597352 -0.000051 0.0
0.289182 1.312424 0.003046 0.0
3.175616 0.374516 0.000730 0.0
1.323393 1.636333 0.003625 0.0
0.432019 0.040542 0.001058 0.0
2.669059 0.884822 0.003450 0.0
1.468590 0.890921 -0.004513 0.0
1.072815 0.345563 0.001535 0.0
3.784658 1.985015 0.002458 0.0
1.933715 0.445989 0.000805 0.0
1.383327 0.376469 0.003724 0.0
3.870476 1.208937 0.000979 0.0
2.175234 1.365001 0.000201 0.0
2.221797 1.625400 -0.001974 0.0
3.569532 1.077973 0.004634 0.0
0.583221 0.316653 0.001300 0.0
1.574781 1.289518 -0.005093 0.0
0.006690 1.354788 -0.000425 0.0
2.924145 1.079570 -0.004340 0.0
0.973251 1.346354 -0.001790 0.0
1.213181 1.323872 -0.001963 0.0
0.062932 0.114757 -0.000043 0.0
3.261931 0.015100 -0.001898 0.0
3.576054 0.431219 0.003718 0.0
1.029187 1.085090 -0.001380 0.0
2.888735 0.296187 -0.000242 0.0
3.023698 0.025638 -0.001661 0.0
2.334983 1.108958 0.001478 0.0
1.994007 1.433395 -0.002518 0.0
1.178970 0.217178 -0.001241 0.0
0.990018 1.019306 -0.001982 0.0
3.510235 1.380650 -0.000555 0.0
1.908706 0.690210 0.001381 0.0
1.333158 0.736392 -0.002220 0.0
0.240499 1.918871 0.002609 0.0
1.886440 1.840103 0.004270 0.0
0.310553 1.274694 -0.001825 0.0
2.743546 0.882413 -0.000598 0.0
3.136310 1.890745 0.000409 0.0
2.233395 0.384805 -0.002953 0.0
0.914478 0.224644 -0.001934 0.0
2.585126 1.303969 0.001100 0.0
2.270822 0.931091 -0.003224 0.0
2.548049 1.947973 -0.002194 0.0
2.053346 1.893609 0.002725 0.0
3.888028 1.571983 -0.003011 0.0
3.142658 1.602506 -0.001043 0.0
1.360875 0.923437 -0.002794 0.0
1.138262 1.728530 0.000740 0.0
1.407175 0.036941 0.002143 0.0
0.566245 0.614770 -0.001741 0.0
2.912584 0.857930 0.001864 0.0
0.551292 1.948905 -0.003079 0.0
2.272934 0.472731 0.002338 0.0
1.077920 0.511532 -0.003853 0.0
1.869000 1.917137 -0.001704 0.0
2.989478 0.528099 -0.003309 0.0
2.198529 1.522955 -0.001798 0.0
1.416543 1.839337 0.002771 0.0
2.140304 1.064512 0.001550 0.0
2.608669 1.567411 0.001483 0.0
3.122906 0.222663 0.001843 0.0
1.581401 1.466495 -0.002050 0.0
3.583521 2.006632 0.002535 0.0
1.287581 0.124479 0.000063 0.0
4.002370 0.068059 0.001084 0.0
0.937899 0.577863 -0.000402 0.0
3.060111 1.979938 0.001462 0.0
2.883076 1.937056 -0.001199 0.0
2.368018 1.072397 -0.001414 0.0
0.634849 1.014721 0.001121 0.0
3.905298 1.324041 -0.000856 0.0
3.255754 0.766138 -0.003326 0.0
0.342390 1.179129 0.001439 0.0
0.094707 1.514372 -0.002214 0.0
2.438725 0.639277 -0.001697 0.0
2.481320 0.279904 -0.001780 0.0
0.989999 1.828414 0.001317 0.0
2.470316 1.875154 0.003177 0.0
3.729679 2.032447 0.003520 0.0
1.284849 1.776892 -0.004267 0.0
1.769916 1.189889 0.005235 0.0
0.764451 0.639328 0.000624 0.0
1.183710 1.554204 -0.000383 0.0
2.114169 0.451257 0.003533 0.0
0.461791 1.263841 -0.002748 0.0
3.137865 1.598775 -0.003629 0.0
0.192640 1.440366 0.005586 0.0
1.982161 1.615476 0.000276 0.0
1.798251 0.812966 0.001812 0.0
0.885178 1.132994 0.001222 0.0
0.234476 1.926738 -0.000656 0.0
2.441347 0.660992 -0.001261 0.0
3.678985 0.511514 0.001065 0.0
0.293147 2.002628 -0.003954 0.0
2.434704 1.418624 -0.000477 0.0
3.596917 1.537604 -0.002701 0.0
1.511234 1.171589 -0.003855 0.0
2.149106 0.434166 0.001884 0.0
3.958842 1.839897 -0.000460 0.0
2.623508 0.440051 -0.002057 0.0
3.965857 1.602997 0.001650 0.0
0.158550 1.672315 -0.001724 0.0
2.018609 1.690211 0.002148 0.0
0.052398 0.069192 0.001160 0.0
3.494818 0.399870 0.002285 0.0
2.027717 1.110924 -0.001483 0.0
3.841764 0.452506 0.001871 0.0
0.032547 1.808701 -0.003744 0.0
2.217056 1.417327 -0.003624 0.0
0.341863 0.022292 -0.000711 0.0
3.241912 1.030544 -0.004838 0.0
3.988946 1.046141 0.000161 0.0
1.036951 1.284190 -0.000532 0.0
1.403306 1.878730 -0.002962 0.0
2.335359 0.648828 0.000349 0.0
3.151750 1.516967 -0.005046 0.0
1.732694 0.150096 -0.000130 0.0
3.470328 0.879975 0.003987 0.0
2.076423 0.932310 0.003594 0.0
0.843293 0.443359 0.001054 0.0
2.224113 1.676635 -0.002425 0.0
1.977455 0.604472 0.000837 0.0
2.374632 0.651353 -0.002718 0.0
0.229081 0.461928 0.004665 0.0
2.419668 0.293232 -0.001047 0.0
0.842103 1.703534 0.002025 0.0
3.055220 0.103672 0.001592 0.0
0.404893 2.009472 0.001280 0.0
2.993333 1.304826 -0.000906 0.0
1.973295 1.923912 0.003998 0.0
2.094652 0.285669 -0.001983 0.0
1.024066 0.170770 0.000826 0.0
1.938537 2.004183 -0.000472 0.0
2.640931 1.834038 0.005440 0.0
3.220337 0.964134 -0.003185 0.0
0.525490 2.012918 -0.002437 0.0
4.078693 0.786255 -0.002249 0.0
0.044361 1.126512 0.003441 0.0
1.750925 0.823585 -0.000783 0.0
2.171785 1.690213 0.001112 0.0
3.207759 0.603534 0.003743 0.0
1.291724 1.670621 0.004511 0.0
3.131444 1.836035 -0.003799 0.0
1.083423 1.759363 0.001324 0.0
1.628957 1.788921 -0.000632 0.0
2.370859 0.651477 -0.001504 0.0
3.199198 0.040772 0.000637 0.0
0.301166 0.511621 0.001090 0.0
1.190703 0.608909 -0.000372 0.0
2.280394 1.910206 0.000839 0.0
2.575409 0.177622 -0.000958 0.0
1.388880 0.568259 0.002539 0.0
0.901726 1.765145 -0.002039 0.0
3.277740 0.839536 0.004857 0.0
4.063068 1.249725 0.000351 0.0
3.065335 0.747521 -0.003116 0.0
2.840965 0.154241 0.000328 0.0
1.359429 0.323463 -0.000354 0.0
1.249712 0.581053 0.004370 0.0
3.707447 1.652410 -0.000819 0.0
0.479151 1.222600 0.001838 0.0
0.227361 1.578932 -0.000353 0.0
0.686035 0.194500 -0.000307 0.0
0.017104 0.186905 -0.000714 0.0
0.925201 0.773271 0.002017 0.0
1.156916 0.355428 0.002869 0.0
0.123507 0.326949 -0.001096 0.0
3.960016 1.028070 -0.000253 0.0
2.177952 0.852444 -0.005125 0.0
1.495981 2.011343 -0.000270 0.0
3.557090 1.595881 0.001848 0.0
1.871208 1.268771 0.000439 0.0
2.515893 1.208866 -0.003151 0.0
1.928355 0.747241 0.001648 0.0
3.266981 0.392808 0.000741 0.0
1.884625 1.800334 -0.000188 0.0
3.707109 0.679490 -0.001453 0.0
0.192843 0.406665 0.000120 0.0
2.495939 1.443805 0.000950 0.0
1.703749 0.678535 0.001510 0.0
3.058966 2.007175 -0.001070 0.0
1.428755 0.445083 -0.001792 0.0
1.083665 1.664359 0.000166 0.0
2.699610 0.079761 0.001254 0.0
2.656467 0.399549 -0.002726 0.0
2.716867 0.397422 0.003275 0.0
0.614154 1.343865 0.001134 0.0
4.061227 1.320385 -0.002026 0.0
3.120208 1.418883 0.000704 0.0
0.494744 1.531806 -0.003609 0.0
2.909465 0.559655 -0.000941 0.0
0.171850 0.118324 -0.001665 0.0
0.616414 0.844406 0.002106 0.0
0.553387 1.118774 -0.001812 0.0
4.063250 0.266370 0.001791 0.0
3.328875 1.245964 0.000304 0.0
1.741519 0.861548 -0.004679 0.0
2.495034 1.564010 0.002693 0.0
3.746705 0.217687 -0.001958 0.0
0.080432 0.516880 0.001800 0.0
2.035822 1.822882 -0.003337 0.0
1.670215 0.284014 -0.000010 0.0
2.287978 0.658930 -0.000636 0.0
2.582851 0.140023 -0.001053 0.0
1.519147 0.702924 0.005630 0.0
1.204090 1.447397 -0.001949 0.0
2.813082 1.587351 -0.005446 0.0
3.613314 1.693014 -0.001559 0.0
1.005583 1.187119 0.003305 0.0
2.057544 1.462796 -0.003647 0.0
1.884564 0.454037 -0.001459 0.0
2.437372 1.098924 -0.001265 0.0
3.916507 0.813419 -0.002259 0.0
0.360716 1.113629 -0.003747 0.0
2.438055 0.729915 -0.001259 0.0
1.012700 0.523960 0.002883 0.0
1.374867 1.776629 -0.001923 0.0
0.682616 0.507316 -0.001794 0.0
1.848791 0.874877 0.000628 0.0
0.299140 1.788381 0.001626 0.0
1.512401 0.043521 -0.000244 0.0
1.932812 1.035027 -0.002031 0.0
1.180472 0.395375 0.000389 0.0
2.270956 0.298489 -0.004378 0.0
2.022092 1.228709 0.001345 0.0
1.484690 1.514950 0.002939 0.0
1.059747 1.135472 0.001518 0.0
3.317430 0.656069 0.000001 0.0
3.204112 2.035012 -0.001643 0.0
3.574759 1.569244 -0.002524 0.0
3.157201 1.873732 -0.001557 0.0
0.803594 1.378357 -0.001181 0.0
2.163037 0.289945 -0.000687 0.0
3.229387 1.156180 0.002798 0.0
2.788701 0.717519 -0.001885 0.0
1.583201 0.754810 0.004878 0.0
3.664623 0.477319 -0.000555 0.0
1.262166 1.621056 -0.001494 0.0
1.160370 0.325537 0.000262 0.0
3.835598 0.968521 -0.002781 0.0
1.799268 0.856417 0.003925 0.0
2.717728 0.582320 0.002154 0.0
3.724941 0.934916 -0.001084 0.0
3.943115 0.988250 -0.006127 0.0
2.430629 1.983351 -0.001500 0.0
2.631827 1.450769 0.000016 0.0
2.153623 1.741176 0.000437 0.0
2.782435 0.634618 -0.000008 0.0
1.914529 2.016780 -0.002348 0.0
1.034805 1.522848 -0.003235 0.0
2.329269 0.222430 -0.001098 0.0
1.274182 0.128266 -0.000440 0.0
3.778951 1.982722 -0.000162 0.0
0.996865 0.649441 -0.000868 0.0
3.148165 0.422035 -0.003077 0.0
3.056822 1.491252 0.002281 0.0
0.304544 0.775545 -0.000940 0.0
0.451028 1.039201 0.000890 0.0
1.525647 1.902920 0.000468 0.0
0.794599 1.352007 -0.002060 0.0
1.610023 1.761916 0.004269 0.0
0.605559 1.377142 0.002058 0.0
3.271921 0.259435 0.000024 0.0
3.072302 1.693673 0.004510 0.0
1.649033 1.368754 -0.000008 0.0
3.026302 1.503105 -0.001952 0.0
2.227231 1.438561 0.003005 0.0
2.872770 1.418583 -0.001549 0.0
0.939339 0.648029 -0.000387 0.0
0.838351 1.367988 -0.000550 0.0
3.339943 0.195383 0.000851 0.0
0.845101 1.536509 0.004816 0.0
2.676348 0.672699 0.001648 0.0
2.760536 0.739297 -0.000782 0.0
0.581290 1.238286 -0.003046 0.0
0.693386 1.102124 -0.001250 0.0
3.080267 1.430573 0.000297 0.0
2.149490 1.660971 0.006190 0.0
1.917018 0.052121 0.000403 0.0
2.094394 1.350954 0.001278 0.0
1.501230 1.936822 -0.005151 0.0
1.792387 0.721834 0.002546 0.0
0.423522 1.578674 0.000176 0.0
1.052153 1.685450 -0.001606 0.0
3.041043 1.085888 0.001351 0.0
2.933464 1.322589 -0.000707 0.0
0.261988 0.909183 -0.001182 0.0
0.888907 0.576215 -0.003814 0.0
2.941881 0.933862 0.001891 0.0
1.871231 0.196910 0.000472 0.0
1.776935 1.660332 -0.006048 0.0
2.311856 0.544193 0.000774 0.0
2.983511 1.112297 0.001514 0.0
1.992642 0.835943 0.001971 0.0
0.776148 1.689497 -0.000312 0.0
0.192308 1.508683 -0.002096 0.0
3.362067 1.739155 0.002099 0.0
2.819007 0.904430 -0.002310 0.0
1.546043 1.695674 -0.000207 0.0
2.382712 1.768771 0.000067 0.0
2.264864 0.577482 0.002371 0.0
3.838834 1.938134 0.001975 0.0
3.359215 1.751466 0.004525 0.0
3.096352 1.975866 -0.000001 0.0
2.065348 1.011323 -0.000140 0.0
3.955473 0.713403 -0.002989 0.0
1.718192 1.027766 0.001737 0.0
2.664915 0.874045 0.004333 0.0
1.281522 0.345677 -0.002994 0.0
2.129356 1.494085 -0.002860 0.0
3.213779 1.652189 -0.000462 0.0
1.655893 0.273170 -0.001170 0.0
3.616631 1.578156 0.003613 0.0
1.502540 0.447290 0.001535 0.0
3.824321 0.895401 -0.000529 0.0
1.290427 0.509490 0.000786 0.0
1.763308 1.259696 -0.003309 0.0
1.728782 0.828129 0.000558 0.0
2.284948 1.835158 -0.002782 0.0
1.930176 1.233392 -0.001933 0.0
3.867081 1.144626 -0.000691 0.0
1.050838 1.421273 0.000892 0.0
2.708209 1.415846 -0.005166 0.0
1.151280 1.076690 -0.000524 0.0
2.997124 0.785364 -0.002223 0.0
2.445046 1.198331 -0.001592 0.0
3.054052 0.563617 -0.000250 0.0
2.090433 1.745850 -0.002368 0.0
2.908190 0.745850 -0.001349 0.0
3.017789 0.175439 -0.000539 0.0
2.181520 1.090464 0.001814 0.0
2.646737 1.746074 -0.001055 0.0
0.304514 1.327331 -0.002574 0.0
0.826139 0.990820 -0.001170 0.0
3.522278 1.736918 0.000122 0.0
0.679675 1.113047 -0.001222 0.0
2.893093 0.129364 0.001537 0.0
0.869968 0.683024 0.002040 0.0
3.791300 1.365133 -0.005474 0.0
2.966911 1.769864 0.002679 0.0
0.175586 0.358699 -0.001620 0.0
2.933049 0.171085 0.002344 0.0
3.532373 0.805526 -0.004240 0.0
1.122261 1.928864 0.003226 0.0
1.009278 0.229196 -0.003551 0.0
3.472087 1.509251 0.003457 0.0
1.436491 1.011173 -0.000235 0.0
0.631295 0.481974 -0.000568 0.0
0.694669 1.206201 0.000908 0.0
1.961855 0.266176 0.001404 0.0
0.354814 0.391564 0.000400 0.0
1.835107 1.196603 -0.001846 0.0
3.412784 1.784100 -0.002781 0.0
0.930818 0.493887 -0.001104 0.0
3.956876 1.421906 -0.003640 0.0
3.040522 1.364420 -0.000102 0.0
3.912950 1.412510 0.003734 0.0
3.205517 1.969880 -0.004499 0.0
0.659896 1.908009 0.002880 0.0
2.900170 0.733251 0.000665 0.0
3.775160 1.575485 -0.001577 0.0
0.323363 0.140723 0.001944 0.0
2.552542 1.769977 -0.000429 0.0
0.283758 0.808274 -0.000830 0.0
1.824125 1.579127 0.001844 0.0
1.533002 0.693898 0.005186 0.0
0.837226 1.439907 -0.000653 0.0
2.438421 1.798487 0.000650 0.0
1.240945 0.780996 -0.001363 0.0
1.634176 1.679797 -0.001468 0.0
2.300823 0.499549 0.000287 0.0
1.223168 2.017194 0.001524 0.0
2.684058 0.930516 0.000195 0.0
0.646447 0.645803 -0.000790 0.0
1.464902 1.170461 0.001417 0.0
2.548473 0.110046 -0.000522 0.0
3.597130 1.513077 -0.003636 0.0
3.452741 1.168702 -0.001502 0.0
2.423941 1.427552 0.000612 0.0
0.822539 0.323792 0.000128 0.0
3.602629 1.012706 0.001216 0.0
3.795826 0.668002 -0.003693 0.0
3.045569 1.378693 -0.001843 0.0
3.499914 1.702520 0.000956 0.0
0.984185 1.805258 0.001655 0.0
3.573294 1.066260 0.000309 0.0
4.077884 0.959455 -0.000147 0.0
0.514198 1.481288 0.001559 0.0
2.302717 0.823465 -0.000892 0.0
1.937035 0.126024 0.003973 0.0
1.524261 0.516044 -0.004253 0.0
1.961502 1.022382 0.000109 0.0
0.893695 2.036735 0.001840 0.0
3.223006 1.421730 -0.000035 0.0
0.141526 0.103920 0.003764 0.0
1.338871 0.600392 -0.005954 0.0
0.800860 1.788084 -0.000806 0.0
3.102068 1.332503 -0.002163 0.0
3.111880 1.927052 0.002826 0.0
2.261616 1.199117 -0.000009 0.0
0.205019 0.781252 -0.001674 0.0
0.890166 2.019682 -0.004088 0.0
0.836458 1.654286 0.002857 0.0
3.572137 1.911099 -0.000050 0.0
3.496372 0.094489 -0.000389 0.0
0.452809 0.548305 0.003133 0.0
0.195047 1.627282 -0.001168 0.0
0.360772 1.497807 -0.001678 0.0
2.084951 0.302159 -0.002459 0.0
1.030273 1.838385 0.000380 0.0
0.833254 0.539429 -0.000441 0.0
0.546059 0.049112 -0.002851 0.0
1.054953 1.209966 0.000439 0.0
1.668136 0.716930 0.003479 0.0
1.200147 1.075301 -0.003710 0.0
2.137864 1.151382 -0.006328 0.0
0.181923 1.457549 -0.000813 0.0
1.014030 0.455765 0.002371 0.0
1.530728 0.999421 0.000924 0.0
3.722692 0.842361 0.003094 0.0
1.520497 0.110868 -0.001994 0.0
0.430442 0.587269 0.000587 0.0
0.800761 2.024732 0.000331 0.0
1.499046 0.069745 0.000596 0.0
0.780563 0.421609 0.003098 0.0
0.797284 0.830048 0.000314 0.0
2.381862 0.872714 -0.001986 0.0
2.159362 0.689136 0.002607 0.0
2.774067 1.316281 0.005577 0.0
2.601428 1.794363 -0.002954 0.0
3.231955 0.586543 -0.000302 0.0
1.082643 0.072264 -0.003760 0.0
0.101150 1.005008 -0.002213 0.0
2.006359 1.159105 0.003750 0.0
2.288359 1.371993 -0.002460 0.0
0.745823 0.584213 0.000526 0.0
0.420237 1.556521 0.000327 0.0
2.987641 1.972566 -0.001497 0.0
1.259362 0.087062 -0.000080 0.0
0.181934 0.589463 0.004951 0.0
2.054401 1.644395 -0.000216 0.0
3.878340 0.318780 0.002026 0.0
1.189531 1.258474 -0.003119 0.0
3.473577 1.732053 0.003116 0.0
1.516036 0.880517 -0.000491 0.0
3.103093 0.865413 -0.000234 0.0
1.901256 1.668989 -0.001493 0.0
3.959290 1.965101 0.000436 0.0
2.157135 0.714190 -0.002951 0.0
2.358473 0.227032 0.002484 0.0
0.782842 0.059910 -0.000557 0.0
2.116275 1.626106 0.001566 0.0
3.499089 0.640941 0.002616 0.0
1.586097 0.636876 -0.001247 0.0
1.112586 1.918860 -0.002415 0.0
0.314317 0.787722 -0.001104 0.0
2.920083 0.885245 -0.001774 0.0
1.091996 0.716590 0.000807 0.0
2.141554 1.012256 0.001617 0.0
3.788898 1.669700 0.000154 0.0
1.199220 1.868325 0.001445 0.0
3.128459 1.271745 0.001988 0.0
1.166317 1.974040 -0.001674 0.0
0.243371 1.848270 0.003115 0.0
3.447912 1.794772 -0.000018 0.0
0.635646 1.894283 -0.000355 0.0
1.879550 1.574780 -0.002246 0.0
3.921778 0.304736 -0.001129 0.0
1.879407 0.492521 -0.000417 0.0
0.718220 1.130404 -0.000772 0.0
0.538952 1.861397 -0.003691 0.0
1.620768 1.143754 0.002514 0.0
4.010414 0.940969 0.002956 0.0
0.154934 0.017039 -0.001341 0.0
1.214790 1.066741 -0.002760 0.0
1.262434 0.134348 -0.000176 0.0
3.577577 1.449268 0.001724 0.0
3.864403 0.187556 -0.002230 0.0
2.017473 0.612653 0.003117 0.0
1.470185 0.449211 -0.002472 0.0
2.838591 1.415313 -0.000690 0.0
2.497876 0.532850 -0.000643 0.0
2.560152 1.302129 0.004127 0.0
3.258323 0.346149 0.000175 0.0
2.252771 0.021664 -0.001960 0.0
1.429161 0.019946 -0.004192 0.0
1.537930 0.943432 -0.001155 0.0
2.101492 0.550036 -0.002992 0.0
0.132442 0.923228 -0.002630 0.0
3.609428 0.625082 0.003471 0.0
3.908870 0.704372 0.002125 0.0
3.574768 0.005660 0.004224 0.0
1.861319 1.089529 -0.002980 0.0
3.432977 1.737483 0.001130 0.0
0.328468 1.903788 -0.003812 0.0
2.547105 1.461178 -0.002233 0.0
2.267571 1.306338 0.002601 0.0
3.482649 0.570736 0.001836 0.0
0.497401 1.201906 0.000700 0.0
0.502610 0.883035 0.005469 0.0
2.404128 1.819789 0.000340 0.0
1.239645 0.213403 -0.003889 0.0
1.197758 0.145571 0.003408 0.0
1.981725 0.026638 -0.001814 0.0
0.115191 0.519294 -0.000842 0.0
3.864782 0.479953 0.002016 0.0
2.444889 0.487404 -0.001439 0.0
3.812912 1.310929 0.002919 0.0
2.227675 0.404630 -0.000213 0.0
1.925618 1.501693 0.006308 0.0
0.081764 0.898185 0.006337 0.0
2.417335 1.488118 -0.002271 0.0
1.802518 0.851934 -0.004525 0.0
4.069753 1.850284 0.002026 0.0
3.472765 1.193676 -0.000384 0.0
2.441409 0.081521 -0.003883 0.0
3.349340 0.746505 0.002953 0.0
0.982344 1.676653 -0.001746 0.0
0.866601 0.799569 -0.000859 0.0
1.076974 1.331742 -0.000174 0.0
2.226316 1.500464 0.006059 0.0
0.479931 0.505101 0.000110 0.0
2.630062 0.635778 0.000073 0.0
1.323776 0.072549 0.001175 0.0
0.828696 1.325007 0.001449 0.0
1.989044 0.668850 -0.001927 0.0
2.999154 1.926657 0.002906 0.0
0.606512 0.683935 0.002213 0.0
0.930879 1.091481 0.000469 0.0
2.905326 1.291467 0.001588 0.0
4.042157 1.845483 0.000420 0.0
1.685299 2.017563 -0.002239 0.0
0.940566 0.451909 0.002725 0.0
0.669598 1.225403 -0.003517 0.0
1.799383 0.972642 -0.001521 0.0
2.258254 1.360995 -0.001155 0.0
2.473667 1.604399 -0.000558 0.0
3.168665 1.086316 -0.001324 0.0
0.382991 0.836294 -0.000171 0.0
2.812624 0.793368 -0.001802 0.0
3.228643 0.609268 -0.002545 0.0
3.997321 1.955031 0.000611 0.0
3.358151 1.748516 -0.001017 0.0
2.366952 1.678439 0.000648 0.0
3.800654 0.338379 -0.001721 0.0
2.260884 1.694410 -0.002695 0.0
1.185980 1.201641 -0.002851 0.0
3.781715 0.291691 0.002673 0.0
2.799975 0.818181 -0.000726 0.0
0.056262 1.279610 -0.001324 0.0
1.961465 0.175827 -0.000624 0.0
2.215046 1.939389 -0.001281 0.0
0.688096 0.535863 0.000984 0.0
1.681864 1.172285 0.000274 0.0
1.921566 1.237761 -0.003098 0.0
0.471420 0.039142 -0.005030 0.0
3.404055 0.963355 0.001713 0.0
2.173737 1.663506 -0.001246 0.0
0.026616 0.023523 -0.000592 0.0
3.760022 1.492306 0.001419 0.0
2.900190 1.783853 0.000228 0.0
3.318355 0.691202 0.003079 0.0
1.548109 0.338497 0.000998 0.0
0.250234 1.245764 0.004366 0.0
2.144784 0.941153 -0.002165 0.0
0.342324 1.672374 0.003059 0.0
0.475729 1.289783 0.002462 0.0
3.407758 0.885665 0.000384 0.0
2.432438 1.141341 0.000728 0.0
0.070597 1.537788 0.000918 0.0
2.042242 1.661726 0.001035 0.0
2.490478 1.105693 -0.003930 0.0
3.386394 1.981724 -0.000242 0.0
3.727959 1.774894 0.004234 0.0
0.482852 0.693044 -0.002142 0.0
1.850934 1.368169 0.002399 0.0
0.566317 1.467435 -0.003209 0.0
2.638087 0.781860 0.004869 0.0
3.646324 0.437841 -0.001076 0.0
3.510069 1.291836 0.002018 0.0
3.441972 0.644991 -0.001687 0.0
0.891103 1.599782 0.000201 0.0
0.440233 1.000778 -0.001786 0.0
2.132716 0.194804 -0.002622 0.0
2.552480 0.723037 -0.001957 0.0
0.713001 1.804123 -0.002296 0.0
3.001387 1.771027 0.002069 0.0
3.128597 0.822762 0.001022 0.0
3.343324 0.449162 0.000895 0.0
3.867508 0.627855 0.001999 0.0
3.010695 0.091211 0.000332 0.0
2.400486 1.223809 0.002016 0.0
0.956308 0.663268 -0.004191 0.0
2.918634 1.900861 0.000437 0.0
3.678595 1.102469 -0.001004 0.0
3.803826 2.013024 0.004105 0.0
1.905291 0.210066 0.000101 0.0
2.211710 0.859532 0.000264 0.0
1.332418 1.561217 -0.000417 0.0
0.719399 1.544171 -0.001827 0.0
2.434234 0.075929 -0.002320 0.0
3.358182 0.435627 -0.000872 0.0
0.460242 1.774010 -0.000459 0.0
1.169908 0.169096 0.002345 0.0
3.313082 2.028788 0.000530 0.0
0.316733 0.832491 0.002490 0.0
1.949516 0.807934 0.000809 0.0
0.357140 0.079031 0.003686 0.0
1.969460 0.085457 -0.004192 0.0
1.095824 0.725367 0.004730 0.0
2.866553 1.329417 0.002739 0.0
2.091312 0.701257 -0.001245 0.0
1.515556 1.623270 -0.003253 0.0
0.979987 1.757617 -0.000022 0.0
3.362308 1.157834 0.000115 0.0
3.242227 1.288048 -0.000140 0.0
0.143731 1.232210 -0.000188 0.0
1.772871 0.002046 -0.000661 0.0
0.149630 0.126730 0.000714 0.0
2.550956 0.288559 -0.002117 0.0
3.283623 1.041609 -0.003256 0.0
0.644412 1.448088 -0.005535 0.0
1.113933 0.547533 -0.002327 0.0
3.878380 0.567237 0.000403 0.0
0.841762 1.238052 0.000403 0.0
1.398264 0.799118 -0.000006 0.0
3.283690 0.577418 0.000142 0.0
2.143834 0.705576 -0.001149 0.0
3.085773 1.697741 0.000565 0.0
1.113680 0.600730 0.001059 0.0
0.802622 1.420171 -0.000544 0.0
1.045398 1.865188 -0.002901 0.0
1.388305 1.356240 -0.003531 0.0
0.443249 1.900853 -0.000528 0.0
2.199527 0.737155 -0.006889 0.0
2.464818 0.009677 -0.000298 0.0
0.673071 1.044110 0.003329 0.0
0.715423 1.283311 -0.000508 0.0
0.226614 0.798463 -0.000009 0.0
2.750964 0.427225 0.001423 0.0
2.304469 1.011136 0.000063 0.0
3.096527 1.371632 -0.001888 0.0
3.705743 0.181802 0.003717 0.0
2.347432 0.450606 -0.001438 0.0
4.054760 1.412869 -0.000685 0.0
0.325509 0.826147 0.000211 0.0
0.522566 0.229745 0.001692 0.0
2.485290 0.422867 0.004657 0.0
3.804557 1.792756 0.000580 0.0
3.096728 0.786445 -0.002086 0.0
1.517949 0.095436 -0.000674 0.0
0.533883 0.414681 -0.000219 0.0
1.077547 1.051672 0.000458 0.0
0.524257 0.146353 0.000711 0.0
0.013049 1.492297 -0.000251 0.0
3.114576 0.953732 -0.000723 0.0
2.016038 0.354624 -0.003736 0.0
3.002841 1.698082 0.002589 0.0
1.455325 1.081226 -0.004062 0.0
2.565137 1.175503 -0.001186 0.0
1.746000 0.589815 0.002294 0.0
2.667358 1.509205 0.001825 0.0
3.758118 1.725249 -0.000822 0.0
3.939991 0.261096 -0.001710 0.0
0.639177 1.062706 0.001556 0.0
2.260573 0.106036 -0.003149 0.0
2.486324 0.192007 0.004980 0.0
2.526453 1.593277 -0.002783 0.0
3.144220 1.002625 0.002057 0.0
2.334905 1.886457 0.001641 0.0
1.737432 0.340743 -0.002406 0.0
1.410463 1.404063 0.004064 0.0
2.346357 0.042229 0.001534 0.0
3.924577 1.820861 0.001510 0.0
0.828345 0.989559 0.002827 0.0
3.175780 1.505326 0.000492 0.0
3.551400 1.979953 -0.002372 0.0
0.176562 1.217087 -0.000380 0.0
0.944089 0.785446 -0.000527 0.0
1.837479 0.455545 -0.000255 0.0
3.710067 0.703405 -0.001620 0.0
0.958099 1.880725 0.004003 0.0
0.304873 1.836792 -0.002760 0.0
1.876191 1.779106 0.002682 0.0
3.145516 0.926874 0.000140 0.0
1.960401 1.255228 0.005399 0.0
3.933378 1.025325 0.001393 0.0
2.172044 0.228141 -0.003869 0.0
1.062067 0.422790 -0.001244 0.0
2.306525 0.701738 0.001076 0.0
0.852472 1.552416 0.001186 0.0
1.577265 0.529482 -0.000133 0.0
1.797716 0.055890 -0.000467 0.0
3.541517 1.480636 -0.002324 0.0
1.240121 1.505956 0.003658 0.0
0.653297 0.680874 -0.002810 0.0
2.584370 1.782013 -0.001713 0.0
1.049469 1.454592 0.002650 0.0
0.891408 1.756794 0.000232 0.0
1.705694 1.422470 -0.003407 0.0
0.188769 1.671061 -0.001018 0.0
3.565766 1.983403 0.001365 0.0
0.164565 1.907292 -0.003092 0.0
3.630185 0.859063 -0.000586 0.0
2.727471 0.059866 0.002295 0.0
0.046140 1.920007 0.002345 0.0
1.427224 0.716128 0.004436 0.0
0.538857 0.415900 0.001340 0.0
3.167679 1.254226 0.003107 0.0
2.562883 0.768318 0.003091 0.0
1.586181 1.932005 -0.002518 0.0
1.743200 0.165754 0.003372 0.0
3.039574 0.357224 -0.000592 0.0
2.266061 1.965309 0.001422 0.0
2.417339 1.134611 0.000384 0.0
3.487198 1.595509 0.001867 0.0
1.988311 1.317152 -0.003098 0.0
0.864781 0.955520 0.000802 0.0
3.881666 1.794568 0.000730 0.0
3.018259 1.671957 -0.001843 0.0
1.581702 0.137390 -0.003463 0.0
2.470894 0.849998 -0.006142 0.0
0.958911 0.109267 -0.005055 0.0
3.010237 1.266849 0.001663 0.0
3.738481 1.008457 0.001556 0.0
1.141452 1.726387 0.002079 0.0
0.916963 1.671288 -0.000334 0.0
3.071895 1.399023 0.001541 0.0
0.183437 0.135737 0.001401 0.0
0.833052 0.959852 -0.001612 0.0
0.583151 0.235914 -0.004095 0.0
1.832594 0.575890 -0.001734 0.0
0.363492 0.362964 -0.000370 0.0
1.287676 0.409455 0.001999 0.0
3.737529 0.192336 0.001412 0.0
2.906413 1.947999 0.001598 0.0
3.433819 1.993524 0.000405 0.0
2.619445 1.805142 -0.001527 0.0
2.042852 1.553087 -0.000041 0.0
3.936593 0.372030 0.001674 0.0
2.613182 0.730305 0.000902 0.0
0.570145 0.828682 -0.004504 0.0
2.241489 1.474610 -0.000938 0.0
1.681487 0.208287 -0.003290 0.0
2.935554 1.263243 0.000601 0.0
1.923151 0.679835 -0.002125 0.0
0.009146 0.960597 -0.003654 0.0
0.878527 1.715211 -0.002458 0.0
3.460982 0.955518 -0.004179 0.0
2.000604 1.391038 0.001936 0.0
2.455401 1.636057 -0.000275 0.0
3.425268 0.534440 -0.001583 0.0
0.071567 1.277706 0.001471 0.0
2.794720 1.963308 -0.002164 0.0
0.633365 0.290665 -0.002663 0.0
3.582438 1.045708 0.001038 0.0
2.630016 0.489162 -0.002196 0.0
3.780986 0.298865 0.001079 0.0
1.220452 0.315053 0.002225 0.0
1.751836 0.849496 0.000938 0.0
3.760935 0.592775 -0.001895 0.0
0.308419 1.349980 0.001311 0.0
1.893236 1.934791 0.001113 0.0
3.801364 0.350477 -0.001091 0.0
2.316323 1.538697 0.000533 0.0
1.966884 1.061168 0.000058 0.0
3.785350 1.214872 -0.005480 0.0
1.534539 1.101718 0.003511 0.0
2.093708 0.273507 0.005267 0.0
0.846244 0.494285 -0.002131 0.0
2.766716 1.343744 0.004358 0.0
3.831638 1.526672 -0.002921 0.0
3.780829 1.655209 0.001812 0.0
2.622564 1.257704 0.000827 0.0
0.328721 1.812242 0.002587 0.0
2.385208 1.294090 -0.003003 0.0
3.322793 0.325435 0.004960 0.0
0.936228 1.088071 -0.001219 0.0
0.106900 1.811985 0.000279 0.0
2.715157 1.024041 0.001415 0.0
1.043854 1.230975 0.000551 0.0
2.438671 1.579888 0.001603 0.0
1.567094 0.753805 -0.000814 0.0
0.027654 0.093876 0.002698 0.0
3.492229 0.384577 0.000293 0.0
3.717065 1.354145 -0.002196 0.0
2.141465 1.056254 0.000357 0.0
2.761409 2.021848 -0.004241 0.0
1.491558 0.694397 -0.000789 0.0
3.274093 1.165967 0.000951 0.0
4.033165 1.175188 -0.000906 0.0
0.466772 0.141623 0.001907 0.0
1.046705 0.174777 -0.004176 0.0
0.925861 1.038808 0.000840 0.0
3.397290 1.460905 -0.005075 0.0
2.723098 0.574082 -0.002503 0.0
0.144559 1.600865 -0.000803 0.0
3.482169 1.686821 -0.001136 0.0
0.048187 0.652934 -0.001422 0.0
0.220182 1.014552 -0.002380 0.0
2.149128 0.483764 0.002589 0.0
0.896997 1.446885 0.000348 0.0
3.440162 0.262803 0.003466 0.0
1.562518 1.695426 -0.002521 0.0
3.428668 1.831605 0.005066 0.0
3.121329 0.306868 0.005059 0.0
3.341664 1.125601 0.004858 0.0
2.094255 1.979192 0.001471 0.0
3.064180 0.808163 0.005523 0.0
2.909994 1.560343 0.000675 0.0
0.010430 1.388644 -0.000670 0.0
2.327139 1.582418 -0.000066 0.0
1.620441 1.445227 -0.000778 0.0
0.984070 1.101516 0.000440 0.0
1.151627 0.964117 -0.004584 0.0
3.455133 1.158228 0.002439 0.0
4.005530 0.957649 -0.004918 0.0
2.839225 0.076636 0.000395 0.0
0.903685 1.823877 0.000618 0.0
2.434615 0.945077 -0.005818 0.0
2.127339 0.292921 0.000792 0.0
0.950755 0.591536 0.001199 0.0
3.634207 0.480437 0.001293 0.0
0.205299 1.921993 0.000796 0.0
1.452994 1.604643 -0.000552 0.0
0.583063 1.972780 0.002677 0.0
1.027984 1.626135 -0.000105 0.0
2.239459 0.934530 -0.000834 0.0
2.346714 1.016116 0.001824 0.0
0.369162 1.856516 -0.003801 0.0
0.081463 0.863795 -0.001761 0.0
4.052629 1.995186 0.001030 0.0
3.462702 0.603728 -0.002261 0.0
3.765852 1.605139 0.001152 0.0
0.286347 1.909587 0.004871 0.0
3.338602 0.108959 0.003108 0.0
1.284737 0.315182 -0.003957 0.0
2.284630 0.270958 -0.005834 0.0
3.585413 2.016752 -0.000934 0.0
1.376945 1.933403 0.005923 0.0
3.663507 2.024093 0.001784 0.0
1.759228 0.737709 0.004344 0.0
2.222618 1.045406 0.002087 0.0
2.913044 0.365428 -0.000306 0.0
3.601417 0.498567 -0.002029 0.0
1.241313 0.589526 -0.004878 0.0
3.228202 0.135007 0.001115 0.0
1.591467 0.902409 0.005727 0.0
2.691852 1.300345 0.001555 0.0
4.061042 1.453508 0.002389 0.0
0.104520 1.426048 0.000421 0.0
3.300854 0.838717 0.000046 0.0
0.670806 1.642221 -0.002249 0.0
0.202023 0.848373 -0.003430 0.0
0.117940 1.893857 -0.001464 0.0
3.839647 1.981530 0.001448 0.0
2.032479 1.602882 -0.002223 0.0
2.774090 0.047528 0.002470 0.0
1.235113 2.021664 0.000654 0.0
0.052471 1.830814 0.000729 0.0
1.077954 0.881959 0.002321 0.0
0.520840 0.771651 -0.003864 0.0
1.711550 1.530852 0.000396 0.0
1.904238 1.515041 -0.000129 0.0
0.771507 1.061970 -0.002404 0.0
0.994946 1.184638 -0.000199 0.0
0.832409 1.355121 0.001430 0.0
0.402991 0.411741 0.006572 0.0
1.607494 0.866678 0.000755 0.0
1.681817 1.675916 0.002870 0.0
3.771029 1.819888 -0.001512 0.0
0.563413 1.061454 0.007022 0.0
4.006239 0.070322 -0.001665 0.0
0.357148 0.392136 0.002112 0.0
2.528877 1.156705 -0.004078 0.0
0.824319 0.253426 -0.001373 0.0
2.984892 1.113306 -0.001377 0.0
2.307313 1.179426 -0.000930 0.0
2.913633 1.136653 0.000141 0.0
1.209552 0.142234 0.002436 0.0
3.371111 1.220618 0.000082 0.0
0.440859 0.131661 0.002813 0.0
3.393884 1.954192 -0.001743 0.0
0.279406 0.756010 -0.003857 0.0
3.212058 0.297644 0.001520 0.0
2.236576 1.524316 0.001046 0.0
2.533256 0.490872 -0.000727 0.0
0.436647 0.454502 -0.001886 0.0
1.483722 1.584642 -0.003517 0.0
0.112076 1.512429 0.010287 0.0
0.900319 1.956257 0.001233 0.0
3.921116 0.865774 -0.002603 0.0
0.048420 0.178588 -0.001879 0.0
2.883964 0.295767 0.001640 0.0
2.233658 0.712504 0.000226 0.0
3.984771 1.648325 0.001094 0.0
1.092116 0.342295 -0.003251 0.0
0.085806 0.422067 0.002254 0.0
2.712017 1.664557 0.000190 0.0
3.937237 0.953448 -0.001050 0.0
3.703555 1.587942 -0.002435 0.0
3.239412 1.715096 0.000348 0.0
2.737688 1.631000 -0.002731 0.0
1.184630 0.459137 -0.001006 0.0
0.427727 0.239576 0.002101 0.0
0.588834 0.847821 -0.002930 0.0
3.465087 0.671108 0.002814 0.0
3.402837 0.523398 0.000393 0.0
0.596627 0.786697 0.001098 0.0
2.759383 1.614371 0.001513 0.0
4.010400 0.236432 -0.000282 0.0
3.750204 0.711389 -0.002551 0.0
3.280357 1.427258 0.003768 0.0
1.308534 1.738734 -0.000674 0.0
0.253344 0.131208 -0.000050 0.0
0.458625 1.600833 -0.000289 0.0
3.803797 1.648398 0.002689 0.0
0.841879 2.033864 -0.000773 0.0
0.904450 0.799960 -0.002323 0.0
3.899519 0.219511 0.000524 0.0
3.360654 0.600771 0.002351 0.0
3.560607 1.979587 0.000805 0.0
3.703079 1.924839 -0.000928 0.0
0.700639 1.593670 0.001533 0.0
3.002207 0.031633 0.005621 0.0
3.275283 0.604086 0.003434 0.0
1.042353 1.897286 0.001897 0.0
3.012897 1.085573 -0.001822 0.0
0.245984 0.077550 -0.002508 0.0
2.114432 1.546876 -0.002423 0.0
2.354970 1.885475 -0.000373 0.0
3.519474 0.233892 0.000394 0.0
0.247164 0.669437 -0.002080 0.0
1.871353 0.556773 0.000877 0.0
2.832851 0.926949 -0.000282 0.0
2.457497 2.023357 0.003072 0.0
1.437301 1.182895 -0.003494 0.0
2.024247 2.042020 -0.000309 0.0
2.774910 0.060799 0.004127 0.0
2.977765 1.664751 0.000422 0.0
0.256108 1.759880 0.000147 0.0
0.949957 1.277246 0.001843 0.0
3.970759 1.427473 -0.002782 0.0
3.811470 1.106585 0.000705 0.0
0.480474 1.738275 0.001826 0.0
0.347172 1.116933 -0.001629 0.0
0.992756 1.140484 0.005654 0.0
0.179403 0.406453 0.004662 0.0
1.870742 0.683142 0.003972 0.0
3.520653 1.724550 0.000525 0.0
0.632081 0.268726 -0.002976 0.0
2.660047 1.136525 -0.000550 0.0
0.195056 1.495623 0.000524 0.0
0.403864 1.043292 -0.000034 0.0
0.462113 0.600805 0.002836 0.0
1.203446 1.738107 0.000115 0.0
1.318156 1.957484 0.000058 0.0
0.568346 0.249832 -0.002669 0.0
0.694427 -0.002576 -0.003800 0.0
1.411781 1.310485 0.001564 0.0
2.949060 1.493522 0.002659 0.0
1.948702 0.924618 -0.000666 0.0
0.825071 0.132617 0.003165 0.0
2.289802 0.460894 0.000725 0.0
1.483995 0.505298 -0.001858 0.0
0.432586 1.233924 -0.003849 0.0
0.251739 0.835062 0.000707 0.0
2.731542 1.755036 0.003573 0.0
1.131495 0.323610 0.000308 0.0
3.652766 0.254739 0.000826 0.0
1.398291 1.181520 0.001814 0.0
3.504964 1.110851 -0.003117 0.0
1.717347 2.035923 0.001259 0.0
0.160284 1.007269 0.003939 0.0
3.051051 1.060653 0.000131 0.0
1.845080 0.672067 -0.002017 0.0
3.614790 1.877716 0.001435 0.0
2.044320 0.967368 0.001609 0.0
1.710734 1.171679 -0.002598 0.0
2.516341 1.586991 0.000571 0.0
1.237337 0.461264 0.000815 0.0
2.637364 1.253197 0.000842 0.0
3.165031 1.994693 -0.001479 0.0
0.408518 1.366182 0.000423 0.0
2.851485 1.978519 -0.002251 0.0
0.872338 0.123560 -0.001680 0.0
2.923419 1.695922 0.001221 0.0
0.338050 1.259392 -0.000491 0.0
4.022257 1.475391 0.005739 0.0
2.212507 0.233681 0.000907 0.0
1.349339 0.403900 0.001992 0.0
3.025230 0.430989 -0.000772 0.0
1.156732 1.312475 -0.001445 0.0
0.030252 1.198682 0.002265 0.0
3.589146 0.093545 -0.004712 0.0
2.348882 0.744633 0.003846 0.0
0.117616 1.125360 -0.001263 0.0
4.013834 1.597651 -0.000359 0.0
1.769002 0.521382 0.001709 0.0
0.339942 1.885075 -0.004477 0.0
2.409469 0.583350 -0.000650 0.0
3.401444 1.351127 -0.001740 0.0
1.187238 1.641812 0.001507 0.0
3.911398 1.040082 -0.002823 0.0
1.846234 1.998189 0.002536 0.0
2.049327 0.726698 0.000398 0.0
2.418726 0.422579 -0.001421 0.0
2.009987 0.990663 -0.004958 0.0
2.851962 1.002079 0.003649 0.0
2.028826 0.612584 -0.000565 0.0
0.861784 1.817182 0.003437 0.0
0.812831 1.506463 0.000051 0.0
3.902756 0.598083 0.000543 0.0
2.907999 0.904937 -0.002213 0.0
3.489212 0.456702 0.001872 0.0
0.513148 1.428428 -0.000682 0.0
1.837944 1.331759 0.003255 0.0
2.872455 0.738963 0.000224 0.0
2.360212 1.053654 0.003559 0.0
3.942613 1.982593 0.002184 0.0
0.209702 1.461308 0.002855 0.0
0.496532 0.786024 0.002943 0.0
1.116529 0.542705 -0.003677 0.0
0.561337 1.004853 0.000026 0.0
3.839835 0.836217 -0.000781 0.0
3.484640 1.100431 -0.002355 0.0
1.275681 1.455195 -0.001867 0.0
1.974296 1.244207 0.004174 0.0
0.479283 1.404367 0.000437 0.0
0.314815 1.534698 -0.000580 0.0
0.660933 1.964061 -0.000298 0.0
2.738599 0.692349 0.001153 0.0
2.445822 0.320878 -0.001785 0.0
0.749897 1.610317 -0.003285 0.0
1.572209 1.956695 -0.003221 0.0
3.524897 1.896041 0.000511 0.0
0.052077 0.326908 -0.003509 0.0
0.246043 0.175819 0.000019 0.0
2.974030 0.876288 0.001301 0.0
1.655078 1.200137 -0.003571 0.0
2.081921 1.258888 0.001217 0.0
0.724211 1.060370 -0.005054 0.0
2.560813 0.467358 -0.003005 0.0
2.416823 0.559266 0.000573 0.0
1.925953 1.329974 0.000555 0.0
3.646261 1.049055 -0.000149 0.0
4.031270 1.180925 0.001764 0.0
2.783547 0.424066 -0.000481 0.0
2.658755 0.698344 -0.004431 0.0
1.300919 2.016308 0.004427 0.0
3.652210 0.544238 0.001388 0.0
2.708352 1.748744 -0.000567 0.0
2.765783 1.891224 0.003146 0.0
3.470811 1.827350 0.001583 0.0
3.728568 1.613477 -0.004531 0.0
3.591408 1.996726 0.004675 0.0
3.726853 0.217942 0.001500 0.0
3.883772 0.653806 0.006635 0.0
3.472299 0.457203 0.002371 0.0
0.024463 0.402700 -0.006286 0.0
1.058240 0.269381 -0.001309 0.0
3.562927 1.089482 -0.001482 0.0
2.485264 0.632673 -0.002655 0.0
2.757796 0.951889 -0.000839 0.0
0.160645 0.003148 -0.004326 0.0
0.297767 0.822798 0.003401 0.0
4.025591 1.359914 -0.001455 0.0
2.878787 1.140863 -0.000759 0.0
1.967140 1.501671 0.004434 0.0
0.405546 0.243354 -0.000742 0.0
3.847825 1.503330 0.001193 0.0
1.870178 0.680177 -0.001594 0.0
2.663773 1.887996 0.000538 0.0
1.256035 1.700453 -0.002392 0.0
3.969279 1.235834 0.000888 0.0
3.575899 1.257924 -0.002978 0.0
0.794580 1.662387 -0.002044 0.0
0.088534 1.377830 -0.001143 0.0
1.744521 0.882457 -0.000143 0.0
3.978440 0.093505 -0.000057 0.0
1.580014 0.105094 -0.000282 0.0
0.902095 1.198307 0.002467 0.0
1.128638 1.281617 0.000221 0.0
0.367494 0.945490 0.003840 0.0
1.667725 1.095683 0.001541 0.0
3.373528 0.082607 -0.000636 0.0
3.343191 1.848375 -0.000010 0.0
3.146376 0.604770 0.003002 0.0
1.383850 0.044135 0.000089 0.0
1.784040 0.163007 -0.003046 0.0
0.647583 0.340973 -0.000705 0.0
1.955104 0.410842 -0.002496 0.0
2.818164 1.552256 -0.001934 0.0
3.903382 1.801791 0.000620 0.0
0.770321 0.375272 -0.002061 0.0
3.144037 0.379004 0.002415 0.0
2.831017 0.522934 -0.005812 0.0
0.762683 1.372211 -0.001846 0.0
1.809937 2.015245 0.001725 0.0
1.263856 1.271568 0.003985 0.0
1.786976 1.764908 0.001004 0.0
3.043384 2.027706 0.003997 0.0
2.216365 1.762711 -0.006388 0.0
1.733795 0.760621 -0.004041 0.0
1.484276 1.710069 0.000136 0.0
2.934040 1.407009 -0.001152 0.0
2.827831 1.242552 -0.001570 0.0
3.147469 0.963617 -0.002539 0.0
3.120258 0.740080 -0.000320 0.0
0.957664 1.758124 0.002694 0.0
3.496438 0.350442 0.001525 0.0
0.457033 1.432960 0.000013 0.0
1.246316 1.914889 0.000870 0.0
3.144859 0.184116 -0.000837 0.0
3.101246 0.755458 -0.002234 0.0
0.305540 0.740303 0.000801 0.0
1.116083 1.218102 -0.000551 0.0
3.356591 1.602164 -0.001836 0.0
2.760574 0.841959 -0.000039 0.0
0.478940 0.479299 -0.002209 0.0
0.372915 0.644046 0.000483 0.0
1.817186 0.179414 0.001728 0.0
3.281980 1.504318 0.006368 0.0
1.873544 1.946346 -0.000493 0.0
3.166262 0.137614 0.003330 0.0
3.893507 1.181855 0.002068 0.0
2.401461 0.461230 -0.001297 0.0
1.549247 1.298337 -0.001780 0.0
1.876733 1.335475 -0.003404 0.0
1.684222 0.638604 0.002208 0.0
3.775312 0.926931 -0.003231 0.0
3.397536 0.136537 -0.002265 0.0
3.921275 0.785997 0.001055 0.0
0.962783 0.450086 -0.000396 0.0
1.869708 0.103372 0.002677 0.0
0.864630 0.607589 0.005127 0.0
1.550408 0.921475 -0.003261 0.0
2.882254 0.466228 0.002723 0.0
3.102717 1.478604 -0.001561 0.0
2.486065 0.101468 0.002325 0.0
0.251083 1.898713 0.000673 0.0
1.151864 1.914747 0.000976 0.0
1.994134 2.039470 0.002250 0.0
1.177533 0.225498 0.000031 0.0
2.283206 0.723332 0.001214 0.0
1.385164 1.671064 0.000509 0.0
0.231250 1.645054 0.003490 0.0
1.815899 1.249760 -0.001579 0.0
1.118256 1.444160 0.000903 0.0
2.462712 1.712072 -0.000215 0.0
2.436067 1.714180 -0.000931 0.0
2.214645 1.515750 -0.003198 0.0
3.313123 1.248457 -0.004196 0.0
0.678712 1.452532 -0.000304 0.0
1.779397 0.276743 -0.000423 0.0
2.189498 1.500630 -0.000882 0.0
3.089949 1.353308 0.002622 0.0
1.059638 1.936141 -0.004253 0.0
2.659008 0.128500 0.001174 0.0
1.171747 1.104490 -0.000535 0.0
2.184479 1.121520 -0.001055 0.0
0.612612 1.645757 -0.002047 0.0
1.930860 1.910435 -0.002082 0.0
0.634177 0.849145 -0.000658 0.0
1.031335 0.758577 -0.000248 0.0
3.453933 1.212416 -0.001811 0.0
0.213083 0.875134 0.000338 0.0
3.180810 0.173942 0.001162 0.0
1.328112 1.581702 0.003000 0.0
0.310749 1.540338 -0.000232 0.0
1.282969 1.147986 -0.003037 0.0
1.368309 0.736228 -0.000052 0.0
0.335662 0.147162 0.001014 0.0
2.023185 1.039810 -0.001464 0.0
0.977371 1.095454 -0.000351 0.0
3.039166 1.013698 0.004384 0.0
3.325751 1.839297 0.002708 0.0
3.923997 1.733454 -0.001935 0.0
2.114435 1.770992 0.000277 0.0
2.808227 0.461355 -0.003819 0.0
3.640951 0.882763 -0.000115 0.0
2.529705 0.283589 0.000163 0.0
3.862169 0.311155 0.002164 0.0
1.138631 1.837340 0.000709 0.0
1.186076 1.058119 -0.002614 0.0
2.766101 0.591839 -0.003172 0.0
1.954141 1.890460 -0.001361 0.0
3.507497 1.487977 -0.003828 0.0
0.049716 1.298034 0.002339 0.0
3.533860 1.674838 -0.003740 0.0
2.837895 0.215332 0.002225 0.0
3.202448 1.396642 -0.003283 0.0
2.503158 1.865095 0.002353 0.0
0.498118 1.486445 0.000757 0.0
3.189332 0.610977 -0.000620 0.0
2.961807 0.938012 0.003482 0.0
1.508689 1.857998 0.000331 0.0
2.946859 0.887750 0.003650 0.0
0.800274 0.237867 0.003661 0.0
3.408047 0.536926 -0.009263 0.0
0.524227 0.176401 0.002786 0.0
1.927978 0.003580 -0.000010 0.0
3.938781 0.727418 -0.000879 0.0
0.067044 1.739626 0.000889 0.0
0.631827 1.324842 0.002040 0.0
2.884130 0.418346 -0.003928 0.0
0.283110 1.674117 0.003036 0.0
2.851376 0.962893 -0.000383 0.0
3.065665 1.808476 -0.001825 0.0
1.450623 2.036855 0.000427 0.0
1.551096 1.281130 0.005643 0.0
0.368591 1.278331 0.000539 0.0
0.865299 1.982736 -0.004012 0.0
1.475607 1.913850 0.003223 0.0
0.528144 1.706312 0.004970 0.0
2.903845 2.029566 -0.001372 0.0
1.097996 0.739623 0.002303 0.0
1.149044 1.889022 0.003468 0.0
2.333779 0.648229 0.005500 0.0
1.434654 0.136766 0.001245 0.0
2.967858 1.487467 -0.000414 0.0
0.015725 0.068885 0.002352 0.0
3.952776 1.741945 0.000486 0.0
1.392952 1.235193 -0.001086 0.0
0.559638 0.600642 0.001189 0.0
1.248300 1.399500 0.000741 0.0
3.995306 0.821356 0.001378 0.0
3.079916 0.475382 -0.002455 0.0
0.695420 1.341947 0.002001 0.0
2.925344 0.852047 0.000839 0.0
4.069039 0.588839 0.004592 0.0
2.167184 0.609469 -0.004332 0.0
1.687218 1.721489 -0.003348 0.0
1.856428 0.201038 -0.000401 0.0
0.019410 1.227693 -0.003428 0.0
2.155639 1.005330 -0.000550 0.0
2.536837 0.038119 0.002218 0.0
0.157350 0.231378 0.005881 0.0
2.999708 1.225931 -0.000261 0.0
0.810171 0.281993 0.000143 0.0
3.943663 0.604829 -0.009127 0.0
2.480018 1.717474 0.000901 0.0
0.004687 1.980595 0.001032 0.0
2.964208 0.110071 -0.002266 0.0
1.544805 1.915684 0.000981 0.0
1.035788 0.545781 0.000254 0.0
2.194534 0.648259 0.007008 0.0
3.615529 1.306327 -0.000979 0.0
1.783678 0.520979 -0.001764 0.0
0.492771 0.562699 0.001893 0.0
0.187194 0.598959 0.001751 0.0
1.448610 0.873408 0.000902 0.0
2.388059 2.017601 -0.002443 0.0
1.770977 1.840296 -0.001360 0.0
0.374088 1.307891 -0.002380 0.0
2.605358 1.206911 0.000255 0.0
3.066117 1.522056 0.000637 0.0
2.401876 1.095466 -0.001190 0.0
2.076381 1.989551 -0.002595 0.0
3.634961 1.274654 0.001936 0.0
2.662090 1.602412 0.002634 0.0
2.864373 0.564420 0.000393 0.0
1.817467 1.253088 0.002098 0.0
0.558410 0.357518 0.000537 0.0
2.213220 0.462779 -0.000177 0.0
3.797390 0.890333 -0.000895 0.0
0.337419 1.859366 0.001033 0.0
1.089021 2.031398 -0.000792 0.0
2.926665 1.344667 -0.000184 0.0
2.551478 1.325331 0.001523 0.0
0.517682 0.408544 0.000437 0.0
3.196264 1.762793 -0.001882 0.0
2.371727 0.626174 -0.000455 0.0
3.759972 0.488127 0.000617 0.0
2.565994 1.966808 0.001173 0.0
0.773537 1.070396 0.001526 0.0
0.704411 0.621182 0.001839 0.0
0.153212 1.885472 -0.002433 0.0
0.070908 1.667573 0.001678 0.0
4.028981 0.979026 0.003247 0.0
0.544314 0.447646 -0.000720 0.0
2.109969 0.302188 0.003765 0.0
1.960895 0.700021 0.000311 0.0
0.819597 1.852643 0.001435 0.0
2.066650 0.799342 0.004536 0.0
3.114369 0.067309 0.002886 0.0
0.381715 0.950559 -0.000956 0.0
1.807095 0.220590 -0.005230 0.0
0.731527 1.745986 0.002630 0.0
1.733068 0.693776 -0.000998 0.0
0.230178 1.157477 -0.000236 0.0
0.953285 1.209329 0.002522 0.0
1.144486 0.718484 0.003709 0.0
3.747530 1.020983 0.000591 0.0
2.303454 0.353663 -0.000412 0.0
3.318202 1.094830 0.000742 0.0
2.832788 1.871475 0.003863 0.0
2.362426 1.364467 -0.001213 0.0
1.979692 0.901148 -0.000926 0.0
3.437460 0.567881 -0.000692 0.0
0.628759 0.017577 -0.000224 0.0
3.235504 1.467086 0.003653 0.0
3.634876 1.487731 -0.002168 0.0
0.837230 1.434618 -0.001118 0.0
0.190384 0.775558 -0.003892 0.0
0.612594 1.763212 0.001583 0.0
1.687560 1.325711 0.001209 0.0
4.009550 1.996907 0.000159 0.0
3.089580 1.938969 -0.000193 0.0
1.726890 0.591917 -0.002384 0.0
1.513381 0.180679 0.001293 0.0
1.858430 1.094453 -0.003029 0.0
3.098395 0.882417 -0.001322 0.0
0.009992 1.317230 0.004057 0.0
0.291544 1.318088 -0.000413 0.0
0.901232 0.873032 0.001541 0.0
0.620554 2.036101 0.001925 0.0
0.194341 1.554849 0.001973 0.0
3.825050 1.933524 0.000584 0.0
2.565312 0.980094 0.002036 0.0
3.952493 1.298804 0.000709 0.0
0.546877 0.375972 -0.001037 0.0
1.584251 1.558006 -0.007027 0.0
3.528738 1.078965 -0.001865 0.0
3.616240 0.250220 -0.003167 0.0
1.881472 0.371890 -0.003194 0.0
0.828412 1.767234 -0.003188 0.0
2.370967 1.486801 0.003452 0.0
1.245212 2.032423 0.002015 0.0
3.299040 0.105256 -0.001514 0.0
0.176664 1.184854 0.002250 0.0
2.516285 0.346309 -0.001895 0.0
3.428613 0.863611 -0.004703 0.0
1.606808 0.952125 -0.000483 0.0
2.593972 1.019240 0.003670 0.0
2.522602 1.771505 -0.004525 0.0
4.068826 0.163687 -0.004511 0.0
1.637340 2.020989 -0.004710 0.0
1.868947 1.176690 -0.001731 0.0
0.042112 0.654004 0.000703 0.0
1.516006 1.910102 -0.001633 0.0
3.334477 0.864184 0.002465 0.0
0.956029 1.845234 0.003176 0.0
3.305081 0.878387 0.001714 0.0
3.921719 0.051129 0.000215 0.0
2.305428 1.407729 0.002204 0.0
1.703202 1.181916 0.001239 0.0
0.610166 1.522615 -0.002718 0.0
3.388151 1.487705 0.003562 0.0
3.823404 1.095311 -0.001658 0.0
1.684924 1.052656 0.003240 0.0
1.074365 0.804975 0.000355 0.0
1.709000 1.321312 0.000071 0.0
0.632596 0.975383 -0.000576 0.0
0.541972 0.046370 -0.000210 0.0
0.557358 1.608897 -0.006556 0.0
1.575564 1.216118 -0.001070 0.0
0.487204 1.046627 0.001788 0.0
2.076124 0.873194 0.000291 0.0
3.832012 1.595562 0.002883 0.0
2.126761 1.152123 0.003935 0.0
2.710813 0.453864 0.003300 0.0
0.599483 0.546017 -0.003468 0.0
0.870378 0.240843 -0.001871 0.0
1.626419 1.194304 -0.002429 0.0
3.637776 0.131359 0.000055 0.0
0.132556 -0.001780 0.182972 0.0
0.212175 -0.005215 0.187117 0.0
1.993529 -0.007427 0.288131 0.0
0.657250 -0.002069 0.073547 0.0
2.836044 -0.004403 0.179533 0.0
0.296605 -0.001736 0.193753 0.0
1.157599 -0.001508 0.029623 0.0
0.817660 -0.006088 0.221588 0.0
2.040525 0.002294 0.190214 0.0
2.811447 -0.004187 0.212094 0.0
3.485442 -0.004131 0.241113 0.0
3.306612 -0.003994 0.134544 0.0
3.184198 -0.001728 0.257225 0.0
0.021215 -0.005082 0.269036 0.0
1.556849 -0.003725 0.286842 0.0
1.309373 0.004293 0.053408 0.0
2.810929 0.001070 0.171328 0.0
0.871954 0.000341 0.162388 0.0
1.972455 -0.004044 0.288906 0.0
1.010869 0.000091 0.064935 0.0
0.991178 -0.002415 0.185164 0.0
3.045419 -0.003727 0.180968 0.0
0.947206 -0.001175 0.161564 0.0
3.366423 -0.002607 0.104180 0.0
2.656533 -0.004949 0.021666 0.0
0.552682 -0.004106 0.264325 0.0
3.530346 -0.002972 0.205397 0.0
0.404913 0.000204 0.041883 0.0
3.594713 -0.004715 0.243367 0.0
0.765023 -0.000710 0.201737 0.0
3.891346 -0.000444 0.199530 0.0
2.410724 0.003789 0.025192 0.0
0.807152 -0.001480 0.002359 0.0
3.984782 0.000962 0.039702 0.0
0.294019 -0.006100 0.300763 0.0
1.147076 -0.001547 0.221327 0.0
2.559418 -0.002170 0.042777 0.0
0.405508 -0.003388 0.122397 0.0
3.147066 -0.002711 0.185974 0.0
1.362572 -0.003312 0.134703 0.0
2.973576 -0.003045 0.257106 0.0
2.461407 0.000124 0.098660 0.0
2.681891 -0.000207 0.199638 0.0
2.046359 0.003908 0.032576 0.0
0.975997 -0.002846 0.085020 0.0
3.212271 -0.003889 0.069886 0.0
1.975156 -0.004084 0.268649 0.0
1.781733 -0.000612 0.078024 0.0
1.271015 -0.000818 0.111463 0.0
0.024817 0.001441 0.051691 0.0
2.409563 -0.001341 0.032522 0.0
2.597386 -0.000829 0.096389 0.0
3.747016 -0.004555 0.118063 0.0
3.102831 0.000506 0.153758 0.0
2.487933 0.002342 0.019211 0.0
3.059630 -0.003508 0.159377 0.0
2.371683 0.001529 0.070687 0.0
1.174897 -0.002101 0.260824 0.0
2.630944 -0.005853 0.011016 0.0
1.297076 -0.000844 0.066563 0.0
0.787497 0.000412 0.078023 0.0
1.254893 0.000650 0.046889 0.0
3.749193 -0.006462 0.150865 0.0
3.890053 0.002741 0.221637 0.0
2.958284 0.003992 0.055617 0.0
0.034236 -0.003913 0.142429 0.0
