1.06942660 0.49762428 -0.00072752 0.00000000
0.06326244 0.40587174 -0.00200450 0.00000000
2.17325281 0.17427050 -0.00217079 0.00000000
0.94066141 1.59167234 -0.00307193 0.00000000
0.61951721 0.88553593 -0.00270498 0.00000000
0.59716265 1.29270079 -0.00163367 0.00000000
4.03141940 0.34599260 0.00167877 0.00000000
2.63651285 1.43058662 -0.00064716 0.00000000
1.46086828 0.30473088 0.00071803 0.00000000
3.62558327 0.69061637 -0.00134273 0.00000000
2.80229339 0.10569789 -0.00265873 0.00000000
1.55490270 1.60954557 -0.00170346 0.00000000
0.72139328 0.27551159 0.00287327 0.00000000
0.04697070 0.17522064 -0.00206155 0.00000000
0.10384017 0.37185494 -0.00312377 0.00000000
2.19773682 0.16212742 -0.00212201 0.00000000
1.85302794 0.19713444 -0.00600026 0.00000000
3.34104908 1.78786145 0.00344042 0.00000000
1.19471897 0.37195934 0.00398845 0.00000000
1.41103711 0.25988294 0.00045868 0.00000000
2.34611468 1.26861579 0.00353009 0.00000000
4.09448029 0.42630989 0.00214977 0.00000000
1.62817743 1.46891958 0.00412881 0.00000000
4.07516649 1.35825536 -0.00112374 0.00000000
0.06559849 0.53986512 0.00414098 0.00000000
2.28349889 0.47161663 -0.00129943 0.00000000
3.72675282 0.45702252 -0.00097625 0.00000000
2.97519203 0.36778715 0.00320828 0.00000000
3.19838366 1.05127143 0.00089475 0.00000000
2.03905597 0.29791442 -0.00105866 0.00000000
2.95390849 1.46243622 0.00574270 0.00000000
3.26633791 0.30990496 0.00038292 0.00000000
4.56802818 1.83223723 -0.00132883 0.00000000
4.00668881 0.93899236 0.00372132 0.00000000
0.28964333 0.86005373 0.00013530 0.00000000
4.34095090 1.68012517 -0.00321101 0.00000000
2.18825359 0.32803861 0.00219295 0.00000000
3.87241882 0.81652772 0.00031173 0.00000000
1.38613538 0.10255368 0.00229181 0.00000000
1.06661752 0.11759852 0.00038353 0.00000000
1.97564708 1.39448348 0.00109663 0.00000000
3.16590042 0.30615903 0.00059656 0.00000000
0.38690256 0.93754141 0.00264414 0.00000000
0.86140380 1.17247034 0.00084796 0.00000000
4.00229672 1.11268607 0.00183985 0.00000000
2.93960303 1.41146634 0.00085174 0.00000000
0.99835273 0.20267979 -0.00028139 0.00000000
2.29349843 0.57016857 -0.00571599 0.00000000
1.52105711 1.11592197 0.00011147 0.00000000
0.00938781 0.93223060 0.00138815 0.00000000
4.38485005 0.20815889 -0.00490343 0.00000000
0.43449192 1.58280779 0.00004348 0.00000000
4.22902175 0.69548970 0.00329835 0.00000000
4.38032629 0.55171396 -0.00199434 0.00000000
0.15647652 1.42499233 -0.00494807 0.00000000
4.13828246 0.11349489 -0.00063908 0.00000000
2.42496396 1.49544186 -0.00402745 0.00000000
2.66799822 1.05339691 -0.00066798 0.00000000
3.89684644 1.64948571 0.00471329 0.00000000
0.45812602 1.46854293 -0.00231473 0.00000000
3.38232811 1.32090411 -0.00122127 0.00000000
0.56624185 0.98537652 0.00000355 0.00000000
2.49958279 0.76498632 -0.00213664 0.00000000
4.56406121 0.39785822 0.00052496 0.00000000
0.34478219 0.05408268 -0.00168196 0.00000000
0.89349022 1.15598634 -0.00089656 0.00000000
4.01222140 0.29149707 0.00192516 0.00000000
0.29349474 0.13892783 -0.00345716 0.00000000
2.00417575 0.26653990 0.00617519 0.00000000
0.80937052 0.67895919 0.00025828 0.00000000
2.66631006 0.46211560 -0.00359048 0.00000000
4.37187511 0.44903004 0.00187883 0.00000000
0.19536594 0.94624961 0.00407465 0.00000000
4.03104523 0.35499450 -0.00346499 0.00000000
3.28647674 0.75713939 0.00461377 0.00000000
2.58725656 0.47074096 0.00446761 0.00000000
2.89809375 0.68985390 -0.00309194 0.00000000
0.12231696 0.48630835 -0.00807653 0.00000000
3.46671325 0.59805727 0.00024100 0.00000000
2.19025480 0.04403415 0.00036868 0.00000000
2.40224856 1.06259764 -0.00148790 0.00000000
1.48289271 0.01610263 0.00225768 0.00000000
1.21654498 0.63528061 0.00036125 0.00000000
1.29729589 1.66482724 0.00092897 0.00000000
2.34956145 0.91704975 -0.00513626 0.00000000
1.47148579 1.10056853 0.00344862 0.00000000
0.22151282 0.55443816 -0.00107107 0.00000000
1.30676439 1.71435454 -0.00040075 0.00000000
0.22945183 0.39731754 0.00114151 0.00000000
2.98219523 1.18466228 -0.00191424 0.00000000
1.32324311 1.79792915 -0.00374875 0.00000000
3.31428016 0.66538609 0.00090139 0.00000000
2.26561531 1.29765928 -0.00007878 0.00000000
3.27813788 0.04495286 -0.00206862 0.00000000
3.52135355 0.26969625 0.00464530 0.00000000
3.34261843 0.78038390 0.00152792 0.00000000
1.88000536 0.48156449 -0.00164467 0.00000000
4.21868779 0.26419319 -0.00275704 0.00000000
1.44760110 0.42352173 -0.00066898 0.00000000
4.32345981 0.96306452 0.00274767 0.00000000
3.21939665 0.14715161 -0.00305440 0.00000000
4.27351558 1.33390749 -0.00496078 0.00000000
1.01511045 0.90037399 -0.00079780 0.00000000
0.44407518 1.49809951 0.00120234 0.00000000
0.09841237 1.06562443 -0.00218837 0.00000000
1.61873778 1.68766528 -0.00004431 0.00000000
4.28743689 1.71315917 -0.00116355 0.00000000
2.91641923 0.52418919 -0.00465930 0.00000000
0.86027496 0.41453774 -0.00120424 0.00000000
2.83639155 0.23621648 0.00008233 0.00000000
2.30364909 1.36829052 0.00180010 0.00000000
0.56927494 0.91628487 -0.00072557 0.00000000
3.17659131 1.35874630 -0.00031144 0.00000000
3.17041905 0.23457825 -0.00037538 0.00000000
0.94677842 1.58163694 -0.00002076 0.00000000
3.87943974 1.54094756 -0.00043275 0.00000000
2.40922639 0.25214151 -0.00034845 0.00000000
0.60188437 1.53325957 0.00135760 0.00000000
4.17861181 0.58902231 -0.00021584 0.00000000
0.63963077 1.40518409 0.00052701 0.00000000
1.48900970 1.69830062 -0.00087564 0.00000000
0.44145438 0.70435585 -0.00215194 0.00000000
0.93393299 0.03519601 -0.00336042 0.00000000
4.68292983 1.00926907 -0.00600794 0.00000000
3.40584965 1.31585053 -0.00071963 0.00000000
3.84564144 0.54863840 -0.00075967 0.00000000
4.10058823 1.61483375 0.00424843 0.00000000
0.07319623 0.13346668 -0.00291334 0.00000000
0.15436055 0.12169108 -0.00146091 0.00000000
0.58331477 0.28358994 -0.00002080 0.00000000
4.31154564 1.78139186 0.00610723 0.00000000
4.25927980 1.36624418 -0.00226178 0.00000000
0.79923119 1.61978511 0.00328582 0.00000000
4.43690074 0.98691342 0.00162001 0.00000000
1.79935146 0.12488869 -0.00264434 0.00000000
0.68197285 0.75560607 -0.00001700 0.00000000
1.39698635 0.52557100 0.00291239 0.00000000
0.59722888 1.26172636 -0.00024403 0.00000000
2.61861603 1.55942498 -0.00470192 0.00000000
1.71402982 0.98509836 0.00039685 0.00000000
3.75156530 0.51696771 -0.00055912 0.00000000
0.04143728 0.60340950 -0.00130532 0.00000000
2.39354662 0.25529703 -0.00348144 0.00000000
0.26302964 0.00407760 -0.00073440 0.00000000
1.88136261 0.94521590 -0.00468574 0.00000000
0.78321979 0.22201511 0.00378330 0.00000000
4.05829581 0.12359117 0.00388644 0.00000000
0.44461255 1.25212743 0.00163158 0.00000000
3.79182072 0.82557712 -0.00107332 0.00000000
0.62785002 1.80696601 -0.00208142 0.00000000
1.39962244 0.72796619 0.00602005 0.00000000
2.04447361 0.16103668 -0.00012821 0.00000000
4.52213985 1.16114601 0.00120845 0.00000000
3.11594310 1.33025146 -0.00079284 0.00000000
4.03328611 1.50488936 0.00308469 0.00000000
1.87791016 0.71145106 0.00459593 0.00000000
1.80092502 0.65998481 -0.00169758 0.00000000
3.46156347 0.74663971 0.00149937 0.00000000
4.46478543 0.93653819 -0.00362200 0.00000000
0.65288662 1.61557061 -0.00083630 0.00000000
4.55588348 0.64413915 -0.00586178 0.00000000
2.14893916 1.36256033 0.00010133 0.00000000
4.33924802 1.29693533 0.00323231 0.00000000
4.44179599 0.42696073 -0.00334808 0.00000000
1.50083741 1.18678348 -0.00193463 0.00000000
0.93577302 1.80648870 -0.00146507 0.00000000
1.93421677 1.04572734 -0.00168719 0.00000000
0.31563867 1.33908409 -0.00316443 0.00000000
3.32805605 0.42548868 0.00309639 0.00000000
2.04245862 0.66670634 -0.00183035 0.00000000
0.97213657 1.75515837 -0.00161193 0.00000000
2.24526177 1.12439666 -0.00228621 0.00000000
2.70033198 0.49781160 -0.00199608 0.00000000
1.73150627 0.49913579 0.00274003 0.00000000
0.13471940 0.30690345 0.00010651 0.00000000
2.44098268 0.28884555 0.00110792 0.00000000
0.03558833 0.27862655 -0.00233492 0.00000000
3.42724886 0.61766356 0.00323478 0.00000000
1.44322561 1.44311558 -0.00359965 0.00000000
1.88207568 0.24355258 0.00093258 0.00000000
2.00359679 0.30594671 0.00333081 0.00000000
2.57429832 0.02247755 -0.00295603 0.00000000
0.11698166 0.94515021 -0.00283427 0.00000000
1.46341948 0.72934866 -0.00170270 0.00000000
0.64102898 1.78698836 0.00182794 0.00000000
0.63804507 0.41469025 -0.00165300 0.00000000
3.70068117 1.58407362 0.00078977 0.00000000
0.58915852 1.23556463 -0.00289732 0.00000000
0.96672208 1.39402661 0.00236323 0.00000000
2.20590627 1.67477826 -0.00023988 0.00000000
4.11006154 0.52663476 0.00064104 0.00000000
2.05872557 0.72419996 -0.00462472 0.00000000
3.82193753 0.59365051 -0.00243048 0.00000000
4.02726927 1.43019578 0.00161259 0.00000000
0.87744738 1.66053370 -0.00233697 0.00000000
1.11472891 1.23584452 -0.00204160 0.00000000
1.02798760 0.18636708 0.00258817 0.00000000
1.09072087 1.26100467 -0.00320843 0.00000000
4.21831472 0.41084535 0.00271753 0.00000000
3.60329434 1.00240059 0.00079559 0.00000000
0.68910489 0.68862257 0.00303321 0.00000000
4.39442728 0.32501194 0.00409487 0.00000000
1.58287235 0.29858150 0.00353749 0.00000000
2.04600976 0.39235576 0.00057911 0.00000000
0.54284930 0.18269186 -0.00282128 0.00000000
0.00397476 0.11531407 0.00163196 0.00000000
1.69872198 1.63604330 0.00237850 0.00000000
3.67314949 0.39478112 -0.00411871 0.00000000
0.28500448 0.41329970 -0.00360717 0.00000000
0.21344508 0.22709434 0.00046063 0.00000000
0.54526501 0.15216852 -0.00459316 0.00000000
4.52080770 1.37060685 0.00157331 0.00000000
4.41010693 1.67190026 -0.00034792 0.00000000
1.72420468 1.27165287 0.00039888 0.00000000
2.41014485 1.22112785 -0.00494452 0.00000000
2.29960820 1.17361221 0.00008264 0.00000000
1.17916315 0.44945394 -0.00266664 0.00000000
1.99734408 0.52027424 0.00164846 0.00000000
4.29005009 0.31641705 0.00145797 0.00000000
1.42023921 0.89610282 0.00027437 0.00000000
1.75274228 0.24442786 -0.00153121 0.00000000
1.35515470 0.37970032 0.00060033 0.00000000
3.08666857 1.05004578 -0.00033670 0.00000000
3.13752451 1.08883746 -0.00021115 0.00000000
4.67439967 1.60010929 -0.00173514 0.00000000
4.39387607 1.21136216 -0.00058540 0.00000000
1.64354003 1.26388955 0.00293560 0.00000000
0.82495315 1.33139081 0.00068631 0.00000000
1.40791566 1.58674992 0.00132723 0.00000000
2.05351883 1.42180088 -0.00413594 0.00000000
1.75633167 0.58156696 0.00448219 0.00000000
4.16777614 0.19389179 -0.00134602 0.00000000
3.48440590 1.71156699 -0.00432978 0.00000000
3.59688337 0.37532149 -0.00198758 0.00000000
3.94397282 1.52067066 0.00791279 0.00000000
3.68242878 1.63267363 -0.00070526 0.00000000
2.27826533 1.19825539 -0.00425828 0.00000000
2.58814399 1.32201040 -0.00295861 0.00000000
1.74287162 1.23136881 0.00180344 0.00000000
3.02822190 0.36901602 -0.00775524 0.00000000
4.42954460 0.85548241 0.00602206 0.00000000
0.20012212 1.50605491 0.00052537 0.00000000
0.99256211 1.68079029 0.00150716 0.00000000
1.30395457 0.63660027 0.00011063 0.00000000
4.46982289 0.17821453 -0.00093992 0.00000000
2.68960987 1.14510550 -0.00120036 0.00000000
1.03365220 0.58367533 -0.00240181 0.00000000
1.93150796 1.45752394 0.00138177 0.00000000
4.14920538 0.58300332 0.00586605 0.00000000
1.05181959 1.30698758 0.00031841 0.00000000
1.01222347 0.29967955 -0.00218343 0.00000000
2.87654260 1.41961055 0.00055820 0.00000000
0.60298868 1.36767619 -0.00173878 0.00000000
2.29490940 0.94525974 -0.00210953 0.00000000
0.71651553 1.36657159 0.00871637 0.00000000
3.29539703 1.50767504 0.00265397 0.00000000
0.75514897 0.32642621 -0.00146463 0.00000000
1.23304217 1.24749663 0.00223172 0.00000000
2.12436533 0.57481598 -0.00347483 0.00000000
4.49789672 0.22570443 -0.00191289 0.00000000
4.08675951 1.08612852 0.00142450 0.00000000
2.91042785 0.46692687 0.00533648 0.00000000
2.40868213 1.23382690 0.00268638 0.00000000
0.33122940 0.07922102 0.00115844 0.00000000
2.53309701 0.51829203 -0.00149601 0.00000000
0.44872669 0.39301529 -0.00009078 0.00000000
3.60800985 0.62248177 0.00287840 0.00000000
3.81196800 0.05572412 0.00178858 0.00000000
1.45250123 1.10378906 0.00058672 0.00000000
1.28938017 1.54665722 0.00344366 0.00000000
2.65511927 0.14258594 0.00354520 0.00000000
3.28889843 0.90048118 -0.00468611 0.00000000
1.07780813 0.00243943 0.00138729 0.00000000
2.46039802 0.78949147 -0.00186052 0.00000000
4.35084631 0.15834901 0.00167000 0.00000000
4.66071036 0.40143934 -0.00268559 0.00000000
1.00492092 1.42397451 0.00246981 0.00000000
3.24641992 0.13107308 0.00058306 0.00000000
4.13974024 0.82491966 0.00045023 0.00000000
4.63598090 1.55011370 0.00285034 0.00000000
1.09038746 0.98812614 0.00293272 0.00000000
3.23175264 0.53983108 -0.00435161 0.00000000
4.47427454 1.08831261 0.00071788 0.00000000
0.90281090 0.65314479 -0.00081361 0.00000000
4.33300528 1.70955971 -0.00090097 0.00000000
4.15105403 0.52264695 -0.00098482 0.00000000
4.62479924 0.01718469 -0.00112159 0.00000000
4.00598483 1.81514594 0.00000198 0.00000000
0.90910383 0.60328984 -0.00341997 0.00000000
1.21386406 1.58242075 0.00095335 0.00000000
4.21404894 1.66805081 0.00152297 0.00000000
1.25639148 0.44431835 -0.00127126 0.00000000
1.58212165 1.18579426 0.00310599 0.00000000
1.80449040 0.29008038 0.00147998 0.00000000
1.50666734 0.24621709 0.00243136 0.00000000
2.79149435 0.61821547 0.00252382 0.00000000
3.89473535 0.11949991 0.00216631 0.00000000
0.02768920 0.29195797 -0.00218584 0.00000000
1.81588719 0.13655238 -0.00407821 0.00000000
4.20451679 0.82575341 -0.00307726 0.00000000
2.17034833 1.67354563 -0.00457962 0.00000000
1.11619237 0.16862210 -0.00197473 0.00000000
0.80060081 1.12361444 -0.00378243 0.00000000
3.94956153 0.59836904 0.00580373 0.00000000
4.11516714 0.15114716 0.00159739 0.00000000
1.00857134 0.91925295 -0.00259935 0.00000000
3.81213274 0.41134064 -0.00245893 0.00000000
3.71797361 1.00531121 0.00055867 0.00000000
1.96131400 1.71254470 -0.00113264 0.00000000
3.16477515 1.31379205 -0.00098779 0.00000000
4.67266240 1.10278080 0.00021901 0.00000000
2.80902345 0.17604993 0.00021114 0.00000000
3.69716991 1.22969576 0.00304474 0.00000000
3.28118977 0.99383324 0.00079979 0.00000000
1.58120294 0.46539054 0.00234768 0.00000000
4.47361684 1.22459890 -0.00059128 0.00000000
0.45363001 0.01443454 -0.00205582 0.00000000
1.40799509 0.23605365 -0.00408526 0.00000000
2.79560299 0.15739659 -0.00261747 0.00000000
3.14152700 0.66824347 0.00349431 0.00000000
2.46784946 0.36067636 -0.00221684 0.00000000
0.10444720 0.17034617 0.00203676 0.00000000
0.52620265 0.05816635 -0.00299399 0.00000000
2.49802408 0.84333216 -0.00117691 0.00000000
3.28132185 0.70696074 0.00135179 0.00000000
3.98105826 1.34855999 0.00119979 0.00000000
2.42911861 1.53142068 0.00010875 0.00000000
1.40970290 1.33773646 -0.00079161 0.00000000
3.52499956 1.41904474 0.00105787 0.00000000
1.18376127 0.05593148 -0.00499701 0.00000000
0.07523988 0.14803615 -0.00028545 0.00000000
1.74544037 1.28441812 0.00150106 0.00000000
3.04336030 1.60966212 0.00156823 0.00000000
0.14322158 1.63237009 -0.00356188 0.00000000
3.49249903 1.55471755 0.00042509 0.00000000
1.58509613 0.66134096 0.00056179 0.00000000
4.03357505 0.82675904 0.00060237 0.00000000
0.40865859 1.51271625 0.00315711 0.00000000
1.85881480 1.51655936 0.00070964 0.00000000
2.39355273 0.90871641 0.00326734 0.00000000
2.65313478 1.79786229 0.00222839 0.00000000
3.82491247 0.91196470 0.00615844 0.00000000
2.34255473 1.38335967 0.00047854 0.00000000
3.23967373 1.41936246 -0.00090626 0.00000000
0.35563550 0.22800435 0.00530776 0.00000000
0.08068970 1.18359459 0.00083283 0.00000000
1.08791965 0.13208490 0.00004792 0.00000000
3.48766035 1.80634680 -0.00131105 0.00000000
4.05826376 0.73465226 -0.00603342 0.00000000
4.19809114 1.54547743 -0.00322270 0.00000000
1.98261767 0.06778557 0.00105924 0.00000000
2.89716029 1.80112986 -0.00440499 0.00000000
2.73160891 1.74897901 0.00146582 0.00000000
3.97487629 0.76861468 -0.00290128 0.00000000
4.11553490 1.35051294 0.00425326 0.00000000
2.48726029 0.06912586 0.00340279 0.00000000
2.54475511 0.26326437 0.00136501 0.00000000
3.19912337 1.07881501 0.00285340 0.00000000
4.61155083 0.53744547 -0.00332632 0.00000000
1.96642152 1.42757973 0.00144657 0.00000000
2.76890370 1.79027279 -0.00434113 0.00000000
3.94790217 1.83601453 -0.00155917 0.00000000
3.14799123 0.18020590 -0.00370932 0.00000000
0.10968268 0.18483679 -0.00181485 0.00000000
0.74696517 1.58514785 0.00044320 0.00000000
3.17420094 1.67014458 -0.00134568 0.00000000
3.26809085 1.64058246 0.00188395 0.00000000
1.65120614 1.50905236 -0.00287018 0.00000000
0.73247209 0.74340011 0.00263552 0.00000000
2.12966859 0.78430995 -0.00366853 0.00000000
2.19647417 0.53469354 -0.00066162 0.00000000
1.40008060 0.62894955 -0.00155611 0.00000000
2.89276554 0.35407904 -0.00217331 0.00000000
3.61120593 1.39315001 0.00024293 0.00000000
3.56335986 1.54842073 -0.00075285 0.00000000
1.82630414 0.11901288 0.00156586 0.00000000
3.80077333 0.28275210 0.00136873 0.00000000
3.61087493 0.53721155 0.00061501 0.00000000
1.70943580 0.29440714 0.00182193 0.00000000
3.20629483 0.38829031 -0.00006242 0.00000000
3.76640583 0.02531746 -0.00508402 0.00000000
4.31559373 1.72089049 -0.00037287 0.00000000
1.50882992 0.59043163 0.00205329 0.00000000
4.45676139 0.96985580 0.00317303 0.00000000
3.24349306 1.56845949 0.00044037 0.00000000
2.75490091 0.75235194 -0.00003778 0.00000000
0.01469145 0.71493582 0.00298876 0.00000000
0.11968353 1.59989285 0.00005382 0.00000000
2.31780669 0.54983066 -0.00052804 0.00000000
0.29431502 1.51989568 -0.00007615 0.00000000
1.29552724 1.60002287 -0.00136349 0.00000000
2.09163262 0.81262745 -0.00603443 0.00000000
4.15058319 0.22031456 -0.00136517 0.00000000
3.22460296 0.17586764 -0.00168534 0.00000000
1.05220363 0.07459376 0.00316281 0.00000000
0.49753250 0.25842678 -0.00103899 0.00000000
0.36171566 0.60802587 0.00247950 0.00000000
3.79073405 0.62176660 -0.00004113 0.00000000
3.79943789 1.72573293 0.00393494 0.00000000
2.73248065 0.12403525 -0.00319845 0.00000000
1.80397717 0.35194714 0.00231799 0.00000000
1.78249728 1.69080197 0.00383103 0.00000000
4.32199166 0.97685266 -0.00020728 0.00000000
2.19859623 0.88876831 0.00016265 0.00000000
0.51645738 0.37008693 0.00314549 0.00000000
4.55340579 1.56813730 -0.00427788 0.00000000
3.85597958 1.26502311 -0.00106482 0.00000000
3.41805892 1.48878949 -0.00000224 0.00000000
1.47303151 0.07485928 0.00017309 0.00000000
2.01569536 1.47865330 0.00174590 0.00000000
3.62214494 0.69009664 0.00052578 0.00000000
4.48738682 1.16672522 0.00079824 0.00000000
2.55469760 1.73098809 -0.00071526 0.00000000
0.26584112 0.95408395 -0.00263123 0.00000000
1.08868461 1.40398849 0.00044995 0.00000000
0.26860998 1.36083179 -0.00035547 0.00000000
0.01678901 0.47523222 -0.00136012 0.00000000
3.02744698 0.43782237 -0.00119812 0.00000000
2.29328898 0.72129784 -0.00450140 0.00000000
2.18891545 1.10720089 -0.00157465 0.00000000
4.22492647 1.43152828 0.00208830 0.00000000
4.14297296 0.64629486 0.00026483 0.00000000
1.87889748 0.59275394 -0.00420649 0.00000000
1.09890240 1.80286756 -0.00035402 0.00000000
3.67799037 0.16993957 0.00141212 0.00000000
2.00490728 0.00474202 -0.00166506 0.00000000
1.89599221 0.64336635 -0.00050099 0.00000000
0.80020469 0.02226641 0.00174620 0.00000000
1.22872497 1.74581698 -0.00069242 0.00000000
0.67134913 1.50528924 -0.00045406 0.00000000
1.35544274 0.73432370 -0.00362108 0.00000000
3.28724037 1.39207190 -0.00295181 0.00000000
0.29834818 1.75221043 0.00042406 0.00000000
0.41034041 0.17974336 -0.00069728 0.00000000
1.02985744 1.10720511 0.00291116 0.00000000
1.69741240 0.83583426 0.00065632 0.00000000
3.30368842 0.35031508 0.00280864 0.00000000
4.64875511 1.21048618 -0.00064795 0.00000000
1.94003860 0.31903701 -0.00299820 0.00000000
1.23900038 1.13771001 0.00584595 0.00000000
1.20484658 0.93083986 0.00060787 0.00000000
1.74822724 0.24284207 -0.00339818 0.00000000
1.87388367 1.09913921 0.00129088 0.00000000
1.89853218 1.56044700 -0.00092246 0.00000000
0.67649632 1.62583994 -0.00005349 0.00000000
2.46574526 1.58824556 0.00195531 0.00000000
3.57850926 0.46321243 -0.00141318 0.00000000
3.70120469 1.67705173 0.00232225 0.00000000
1.44523089 1.17311343 0.00103472 0.00000000
2.77741249 0.61242369 -0.00270100 0.00000000
0.45256802 1.51214381 -0.00027405 0.00000000
2.37425792 0.07834995 -0.00241550 0.00000000
2.63264664 0.59071379 0.00184961 0.00000000
4.10839614 1.51905770 0.00029662 0.00000000
3.74430488 1.33708862 -0.00243767 0.00000000
0.73001692 0.59507856 -0.00147456 0.00000000
3.16530058 0.40889006 -0.00056982 0.00000000
0.51320117 0.37729209 0.00127391 0.00000000
1.75947627 0.59656339 0.00038002 0.00000000
2.04388730 1.41147614 0.00662980 0.00000000
4.34503780 1.37001897 -0.00120696 0.00000000
1.67370580 0.36355075 0.00033812 0.00000000
4.34344130 0.08590658 -0.00040465 0.00000000
2.69608006 1.18357242 -0.00055064 0.00000000
4.56581319 1.17598159 0.00187129 0.00000000
0.77195017 0.14202887 -0.00477872 0.00000000
2.88600844 0.88234037 -0.00392976 0.00000000
3.21522044 1.73272266 -0.00288782 0.00000000
1.44986825 1.39278821 0.00231094 0.00000000
1.73316006 0.41059286 0.00054906 0.00000000
0.45096889 1.09740780 -0.00075052 0.00000000
4.17001249 0.22872398 0.00060225 0.00000000
1.19476323 0.47481968 -0.00095265 0.00000000
3.39979560 0.56753288 0.00035749 0.00000000
4.61356170 1.80977643 -0.00040186 0.00000000
0.82682019 0.44747251 -0.00308960 0.00000000
2.31781906 0.02139134 0.00377513 0.00000000
3.68397079 1.11276615 -0.00213859 0.00000000
1.10001153 1.02348260 0.00568258 0.00000000
2.15725101 0.82060080 -0.00026415 0.00000000
0.30962954 0.66605854 0.00037433 0.00000000
0.40848459 0.98120471 -0.00171637 0.00000000
3.22909784 0.58428740 -0.00063827 0.00000000
3.24716231 0.86156368 -0.00133713 0.00000000
1.54060029 1.41267989 -0.00225417 0.00000000
2.12555881 0.04680117 -0.00228048 0.00000000
0.05683548 1.37601022 0.00024902 0.00000000
0.24820531 0.72311026 0.00160047 0.00000000
0.78786347 1.74303724 -0.00184416 0.00000000
0.30612806 1.39421867 0.00594801 0.00000000
2.80089759 1.00122005 -0.00010164 0.00000000
1.89917648 0.81677834 0.00029632 0.00000000
0.56351961 0.08090495 0.00094181 0.00000000
3.61873176 1.26608188 0.00198184 0.00000000
1.91651872 0.26726815 0.00123627 0.00000000
3.46640582 0.12282857 -0.00467385 0.00000000
4.19020163 1.13302949 0.00122539 0.00000000
1.09308631 0.81114710 0.00272256 0.00000000
3.64894097 1.48846362 -0.00222147 0.00000000
2.38946080 0.55341695 -0.00155254 0.00000000
2.51308846 1.30787209 -0.00144716 0.00000000
0.94481842 1.29221356 0.00063777 0.00000000
0.53524106 1.25328050 -0.00176091 0.00000000
4.24900143 1.54328635 -0.00100635 0.00000000
1.44235871 1.53157728 -0.00017543 0.00000000
0.13219505 1.31394192 -0.00037629 0.00000000
3.69293635 0.11633005 0.00408167 0.00000000
4.07740807 1.13276266 0.00390291 0.00000000
1.39170307 1.10701843 -0.00055365 0.00000000
3.13755160 1.07127627 0.00362173 0.00000000
3.61214334 1.23597390 -0.00117877 0.00000000
3.69975977 0.48236947 0.00091322 0.00000000
2.66607127 0.31523530 0.00046658 0.00000000
4.15691672 0.89780867 0.00124314 0.00000000
1.78755215 1.60245279 -0.00319698 0.00000000
3.28906614 0.69180044 0.00077804 0.00000000
0.08144063 1.37453806 0.00389366 0.00000000
4.57524635 0.33518805 -0.00156033 0.00000000
4.65843523 0.47580882 -0.00075248 0.00000000
3.68542329 0.83703053 0.00014732 0.00000000
1.56601070 1.50068997 -0.00391663 0.00000000
0.04996369 0.68437948 -0.00154536 0.00000000
4.30986117 0.16073041 -0.00663489 0.00000000
2.08258151 1.17492108 0.00054119 0.00000000
0.34028070 0.98305244 0.00174299 0.00000000
2.39795421 0.97241057 0.00229557 0.00000000
0.47440229 1.22915271 -0.00038604 0.00000000
0.78213991 1.43033282 -0.00037655 0.00000000
0.53332039 1.43467677 -0.00326139 0.00000000
1.83181376 1.43556508 0.00065229 0.00000000
0.72550939 0.37377479 -0.00024738 0.00000000
4.27613594 1.26208353 -0.00235086 0.00000000
1.28541180 1.63718165 -0.00214957 0.00000000
1.26892929 1.82851551 0.00531330 0.00000000
2.65410561 0.68041216 0.00408099 0.00000000
0.35693074 1.18293093 0.00081358 0.00000000
1.13074139 1.25890832 -0.00249889 0.00000000
3.38500274 1.28592869 -0.00224773 0.00000000
0.27254993 1.30066936 0.00077580 0.00000000
2.54793777 1.60824116 -0.00034091 0.00000000
0.18610640 1.07283925 0.00026646 0.00000000
1.32633946 0.64793785 -0.00318100 0.00000000
4.56986959 1.24436467 0.00397783 0.00000000
2.41039505 1.50144121 0.00316235 0.00000000
0.50952582 0.43499979 -0.00197823 0.00000000
2.25197854 0.24316309 -0.00165333 0.00000000
0.31794133 0.04001813 0.00233893 0.00000000
0.90723634 1.83481095 -0.00380352 0.00000000
0.00273700 0.94819946 -0.00068028 0.00000000
1.64099765 0.57385567 -0.00035492 0.00000000
1.79371584 1.12400149 0.00037672 0.00000000
3.35740499 0.54442419 -0.00086686 0.00000000
0.67934659 1.74891968 0.00276898 0.00000000
1.09530976 1.70501620 0.00266116 0.00000000
1.42109553 1.79812223 0.00411254 0.00000000
3.06486090 1.67174299 -0.00029925 0.00000000
4.17850320 0.70106711 0.00095533 0.00000000
0.41067733 0.82711942 0.00428897 0.00000000
3.30552706 0.99114923 0.00456960 0.00000000
3.72523927 1.17585753 0.00303830 0.00000000
4.27150644 1.06246301 -0.00018342 0.00000000
0.55914861 1.53271897 -0.00212524 0.00000000
1.84603489 0.69682232 -0.00449599 0.00000000
1.35138507 0.71073453 -0.00170833 0.00000000
2.08204029 0.93184959 0.00173233 0.00000000
4.46299696 0.91792205 -0.00132057 0.00000000
4.13336271 0.03635319 0.00152704 0.00000000
3.96272037 0.97418711 -0.00499201 0.00000000
0.20545779 0.05876202 0.00017008 0.00000000
2.78775363 0.11632860 -0.00090625 0.00000000
2.42687095 1.48803176 -0.00059216 0.00000000
2.96341930 0.56113688 -0.00060812 0.00000000
1.79062463 0.92903440 0.00509239 0.00000000
1.54081133 0.69274116 0.00309723 0.00000000
3.80511772 1.39034166 0.00328380 0.00000000
1.19205212 0.37896781 0.00010598 0.00000000
4.22357850 1.82199784 0.00233896 0.00000000
3.22866584 1.66848738 -0.00063534 0.00000000
3.70339376 0.74035849 0.00127245 0.00000000
3.26746523 0.35051092 -0.00105561 0.00000000
1.33167633 1.05945933 0.00037615 0.00000000
3.57643752 0.26127316 -0.00013260 0.00000000
0.46746869 1.20527517 0.00093892 0.00000000
2.88479422 0.95615308 -0.00197048 0.00000000
4.07184706 1.33117929 0.00044220 0.00000000
0.91063632 1.09104430 -0.00258662 0.00000000
4.50173455 0.58559416 0.00010634 0.00000000
2.45867965 1.65447394 0.00466425 0.00000000
1.14337650 0.01044349 -0.00066223 0.00000000
4.09878278 1.67203934 -0.00061726 0.00000000
2.55746085 0.24645525 -0.00105452 0.00000000
4.55233713 0.94180850 -0.00052160 0.00000000
0.56649930 1.77804880 -0.00052739 0.00000000
1.58768045 1.27583214 0.00257958 0.00000000
0.21277038 0.34812358 -0.00117733 0.00000000
0.11359372 1.12865073 -0.00024459 0.00000000
0.62046211 1.36443970 -0.00196239 0.00000000
1.63486930 1.73644442 -0.00351214 0.00000000
1.10350108 1.35638255 -0.00344496 0.00000000
2.64290648 0.72600901 -0.00059656 0.00000000
3.06364528 0.12973049 0.00402208 0.00000000
2.54698575 0.36253399 0.00421278 0.00000000
4.17635117 1.15091969 0.00103972 0.00000000
0.60060713 1.64593309 0.00224351 0.00000000
2.56624881 1.33963217 -0.00308975 0.00000000
0.40148298 1.36468845 -0.00145398 0.00000000
0.63965529 1.51292890 0.00077653 0.00000000
4.36543615 0.41647313 0.00167401 0.00000000
1.74769749 0.72082916 0.00314022 0.00000000
0.02556487 1.11254996 0.00096550 0.00000000
2.23517896 1.10020793 -0.00297349 0.00000000
2.12845612 1.49829904 0.00171532 0.00000000
2.95902769 1.66970888 -0.00028830 0.00000000
0.77407302 0.39333013 0.00040158 0.00000000
1.40059272 0.22992613 -0.00008362 0.00000000
3.28227091 1.40092787 -0.00172786 0.00000000
2.69495425 0.86938851 0.00198980 0.00000000
4.44005373 1.32320075 0.00122864 0.00000000
3.22308891 0.08446725 0.00396765 0.00000000
3.83130340 1.34798131 0.00372122 0.00000000
3.35058878 0.79710789 -0.00454008 0.00000000
3.29323790 1.62909817 -0.00167640 0.00000000
3.16608313 1.16522952 0.00181824 0.00000000
4.63939930 0.00964833 -0.00055134 0.00000000
1.51760901 0.16397671 -0.00232364 0.00000000
0.22664764 0.22520507 0.00058128 0.00000000
2.29061587 1.67518932 0.00435043 0.00000000
0.98937080 0.78036723 -0.00161099 0.00000000
0.19941479 0.89958223 0.00199528 0.00000000
1.17131034 1.45215126 -0.00076846 0.00000000
2.11557646 0.79557053 -0.00029982 0.00000000
4.37073292 1.10051351 -0.00768680 0.00000000
0.43278007 1.58573335 0.00242395 0.00000000
4.36326624 1.64897993 -0.00080345 0.00000000
3.43205452 1.55115689 0.00427533 0.00000000
2.43415500 1.29174211 0.00222633 0.00000000
2.91824678 0.69658331 0.00089960 0.00000000
2.42025458 0.40544630 -0.00048367 0.00000000
4.28679324 0.57047761 0.00320129 0.00000000
1.11786254 1.42222875 -0.00158398 0.00000000
3.83220739 0.58320604 -0.00234907 0.00000000
0.24094492 0.86570687 0.00231111 0.00000000
3.29656556 0.05577435 0.00008502 0.00000000
2.32152630 0.58973231 -0.00150348 0.00000000
2.26845285 1.37551724 -0.00051051 0.00000000
1.52031382 1.74478611 0.00084300 0.00000000
2.85911114 0.84422846 -0.00093702 0.00000000
1.26573813 1.38667055 0.00494497 0.00000000
1.39327549 0.49363600 0.00030138 0.00000000
4.27675928 1.49227668 0.00200682 0.00000000
1.68393205 0.02394270 -0.00120066 0.00000000
0.96184168 1.78286550 0.00051504 0.00000000
2.22545811 1.29243591 -0.00304645 0.00000000
3.73026147 1.16037749 0.00134591 0.00000000
2.00115133 0.25670470 0.00308785 0.00000000
3.77844840 0.64234551 -0.00518214 0.00000000
0.60765458 1.15367049 0.00051408 0.00000000
1.84899746 1.48621895 0.00398251 0.00000000
2.94165133 0.93378232 0.00527475 0.00000000
2.78450590 1.22731542 0.00211076 0.00000000
2.69638429 0.13032719 -0.00120412 0.00000000
3.63725808 1.68127896 -0.00161168 0.00000000
1.26508521 1.71437845 -0.00125214 0.00000000
2.46471739 0.34794937 -0.00201504 0.00000000
0.73048430 0.05958942 -0.00213856 0.00000000
4.00322337 0.37679348 0.00070133 0.00000000
2.75909610 0.11783874 0.00255671 0.00000000
3.90238819 0.23123607 0.00135142 0.00000000
0.50969813 1.09051761 -0.00199160 0.00000000
3.50648400 0.15421481 0.00123216 0.00000000
0.05001068 0.79552197 -0.00354237 0.00000000
0.27445851 0.49033024 -0.00079276 0.00000000
3.73760819 0.01722618 0.00276988 0.00000000
3.44573176 1.33263217 -0.00051216 0.00000000
2.30916262 0.50876752 0.00065014 0.00000000
1.36837051 1.71195131 0.00427205 0.00000000
4.53223185 0.91245137 -0.00086946 0.00000000
0.16927191 0.57845602 0.00256057 0.00000000
4.24191688 0.46361035 -0.00096547 0.00000000
4.34820978 0.38545721 0.00074436 0.00000000
1.77250987 1.04385453 -0.00632669 0.00000000
3.14704969 1.79851138 0.00270307 0.00000000
2.99506357 1.70396030 0.00006441 0.00000000
2.88030182 1.12963185 0.00132776 0.00000000
0.01575892 0.47807028 -0.00162722 0.00000000
0.99677141 1.01190636 -0.00150014 0.00000000
3.68097325 1.70936502 -0.00085235 0.00000000
3.85145410 0.59821949 -0.00045674 0.00000000
0.55697990 1.46943138 0.00070908 0.00000000
1.24004997 1.66488327 0.00120192 0.00000000
1.17181538 1.82398009 0.00594064 0.00000000
3.34734859 1.31131695 0.00181826 0.00000000
3.04873766 0.04074716 0.00029303 0.00000000
4.56039303 0.58842084 -0.00442428 0.00000000
0.97427412 0.16427038 0.00112953 0.00000000
0.37940472 1.35900698 -0.00080498 0.00000000
1.69916600 0.33041050 -0.00115816 0.00000000
1.77843691 0.95022008 0.00055441 0.00000000
4.39060828 0.75604274 0.00501718 0.00000000
1.41127165 0.11892072 0.00144821 0.00000000
2.13266993 0.11760203 -0.00344125 0.00000000
4.23810235 1.12270858 0.00042437 0.00000000
0.49834770 0.64311949 0.00077351 0.00000000
1.46165370 1.55035944 -0.00181059 0.00000000
1.54855593 1.02051229 0.00172984 0.00000000
3.97140720 1.24248854 -0.00317129 0.00000000
2.59396762 0.44375036 -0.00216315 0.00000000
3.36438388 0.08180955 0.00047996 0.00000000
2.76210549 0.81732191 -0.00348194 0.00000000
1.40807624 0.37507279 -0.00118353 0.00000000
0.59965461 0.06930507 0.00070799 0.00000000
0.15839791 1.07400645 0.00077389 0.00000000
1.43201259 0.60336593 -0.00070998 0.00000000
3.05378655 1.09673763 0.00372293 0.00000000
2.72059604 1.38802143 0.00296741 0.00000000
4.38510881 1.34827439 0.00245049 0.00000000
4.32485046 1.11558144 0.00304580 0.00000000
4.36105628 1.52340253 -0.00667964 0.00000000
1.82861777 0.35351824 0.00022677 0.00000000
1.85292528 0.89103222 -0.00298029 0.00000000
0.45367280 1.58296643 0.00153337 0.00000000
0.54394323 1.40858544 -0.00433821 0.00000000
2.27257684 1.25584407 -0.00202817 0.00000000
2.56397135 0.44409815 -0.00358858 0.00000000
2.96411162 1.83165857 -0.00008529 0.00000000
0.59227297 1.52762233 -0.00094286 0.00000000
3.60990966 0.26846813 0.00064925 0.00000000
4.38838448 1.06132886 0.00171911 0.00000000
1.87724654 0.37075912 0.00164107 0.00000000
2.67837285 1.39589529 0.00347779 0.00000000
4.16395955 1.70448363 -0.00377138 0.00000000
0.19572136 0.30340266 0.00689417 0.00000000
2.38543597 1.64782530 -0.00274866 0.00000000
3.12621682 1.08555167 0.00257491 0.00000000
1.57899816 1.44355466 0.00331833 0.00000000
4.48335145 1.02868984 -0.00268197 0.00000000
0.07600029 0.25704959 -0.00365217 0.00000000
2.96982173 1.68788474 -0.00047333 0.00000000
1.79627529 1.10172487 0.00237647 0.00000000
1.83973857 0.75326496 0.00208145 0.00000000
1.02120129 1.62745313 0.00027891 0.00000000
2.60777281 0.91849757 -0.00530305 0.00000000
3.11941408 0.60946914 0.00176647 0.00000000
0.15616427 0.14575476 -0.00194587 0.00000000
1.17559386 0.94680025 0.00127121 0.00000000
4.43834359 0.57767206 -0.00073554 0.00000000
0.71728641 0.72486700 -0.00487753 0.00000000
0.59784597 1.35742115 0.00259254 0.00000000
3.26917418 1.53587723 0.00073490 0.00000000
3.15164120 0.81695232 0.00400609 0.00000000
2.54777605 0.45517194 0.00403788 0.00000000
0.52281153 1.00071183 0.00071024 0.00000000
3.07976668 0.76889476 -0.00668824 0.00000000
3.50541164 0.05211684 0.00458330 0.00000000
4.02377675 1.06053732 0.00002130 0.00000000
0.09138218 1.71182610 -0.00045295 0.00000000
1.64642506 1.70200392 0.00171836 0.00000000
2.97251039 0.52925908 -0.00046791 0.00000000
3.82082210 0.89503283 -0.00110648 0.00000000
4.59809787 0.13484552 -0.00025669 0.00000000
4.59383667 0.56552996 0.00013963 0.00000000
3.32879422 0.78375224 0.00141038 0.00000000
1.10235849 1.75331642 0.00357293 0.00000000
2.54558789 1.52487804 0.00215179 0.00000000
0.87264626 1.19021313 0.00239388 0.00000000
2.69074433 1.66000600 0.00243994 0.00000000
3.05074701 0.68563973 0.00107159 0.00000000
3.54994792 0.43215258 0.00155593 0.00000000
3.59327420 0.04024991 -0.00104578 0.00000000
3.47541998 0.49138001 0.00035162 0.00000000
1.05222332 0.53082229 0.00118442 0.00000000
4.23155338 0.38378446 0.00038983 0.00000000
0.07884155 0.16733669 0.00080426 0.00000000
3.29023993 0.30991391 -0.00079366 0.00000000
0.95220216 0.91756239 -0.00103079 0.00000000
2.53375196 1.16583879 -0.00245418 0.00000000
3.93180871 0.41929563 -0.00117934 0.00000000
4.05006915 0.47949353 -0.00047459 0.00000000
3.66894173 1.79312177 0.00356589 0.00000000
0.62161582 0.07744134 0.00153529 0.00000000
1.83937764 0.22824341 0.00355268 0.00000000
2.05813042 0.84090829 -0.00079313 0.00000000
1.78375549 1.00321802 -0.00289923 0.00000000
1.75896950 1.27597357 -0.00090620 0.00000000
2.24054065 0.82308924 -0.00061597 0.00000000
1.03510750 0.76879782 -0.00051970 0.00000000
1.01139752 1.31417261 -0.00394781 0.00000000
1.41753886 1.16297321 -0.00240004 0.00000000
3.23828537 0.97728319 0.00039097 0.00000000
0.43183422 1.55365712 0.00302823 0.00000000
2.75471868 0.05075507 0.00162273 0.00000000
1.81267016 0.50535412 -0.00155279 0.00000000
0.88641194 1.74000213 0.00018410 0.00000000
1.87121141 1.76385536 -0.00288758 0.00000000
4.37585573 0.43852464 0.00332919 0.00000000
2.88958510 1.80005782 -0.00174000 0.00000000
2.72207689 0.48668375 0.00277964 0.00000000
0.64053719 1.81207197 0.00023875 0.00000000
0.81515901 0.65073201 0.00168509 0.00000000
3.44919802 1.06774286 0.00046868 0.00000000
4.54116691 1.29105226 -0.00294604 0.00000000
1.82059320 0.01355877 -0.00083799 0.00000000
2.43764724 1.45703861 0.00229371 0.00000000
4.60594580 1.35067208 -0.00343149 0.00000000
3.58541363 1.00415409 -0.00045838 0.00000000
3.14248168 1.80371315 0.00370038 0.00000000
0.67020725 1.11543355 -0.00184437 0.00000000
0.05870599 0.84211124 0.00093645 0.00000000
0.59319850 0.36684157 0.00251914 0.00000000
1.57261992 1.04729746 0.00154889 0.00000000
1.86772728 0.56662645 -0.00308105 0.00000000
2.97058083 0.36319282 0.00081340 0.00000000
0.00771293 0.24341888 -0.00547694 0.00000000
0.59848583 0.30359724 -0.00264077 0.00000000
4.58159007 1.18068321 -0.00572785 0.00000000
2.89937923 1.41157176 -0.00064215 0.00000000
2.10692397 0.51798259 -0.00401853 0.00000000
2.83828939 0.69457139 -0.00355756 0.00000000
2.99931920 1.02232536 0.00438643 0.00000000
2.93082573 0.97069451 0.00122232 0.00000000
2.62542226 1.31136008 -0.00021076 0.00000000
4.18831428 1.32702595 -0.00134160 0.00000000
3.47021859 0.81165089 0.00088801 0.00000000
3.68686715 0.78578034 -0.00064919 0.00000000
0.16299372 1.26414704 -0.00042403 0.00000000
1.36232681 1.33271008 -0.00265332 0.00000000
4.48156041 0.96649683 0.00528946 0.00000000
0.23885130 0.07736420 0.00508074 0.00000000
2.54670988 0.77940403 0.00345095 0.00000000
0.40294777 0.50934603 -0.00057099 0.00000000
4.45524156 1.18421488 -0.00151863 0.00000000
4.15705450 0.46365493 0.00313754 0.00000000
1.73039559 1.39437115 0.00013330 0.00000000
1.05018368 1.02387257 0.00110045 0.00000000
3.51055973 0.83724618 -0.00524506 0.00000000
1.04599118 0.52168337 0.00348145 0.00000000
2.40957553 1.07554443 0.00018638 0.00000000
0.65675780 0.78424670 -0.00034700 0.00000000
0.87092837 1.72550080 0.00108074 0.00000000
0.62296390 1.76281436 0.00397038 0.00000000
2.84395570 1.17103792 0.00206817 0.00000000
2.17459231 0.08255435 -0.00174253 0.00000000
4.54757029 0.02804863 0.00044959 0.00000000
1.69696761 1.16528702 -0.00177616 0.00000000
2.94916232 0.36004384 -0.00345451 0.00000000
4.02531424 1.58329542 0.00012050 0.00000000
0.65430831 1.60369900 -0.00064300 0.00000000
3.82369762 1.55350351 0.00067964 0.00000000
1.55667172 1.78951615 -0.00108279 0.00000000
3.47983302 1.45489694 -0.00302746 0.00000000
2.08989081 1.59715313 -0.00059292 0.00000000
2.43373848 1.02528227 0.00058860 0.00000000
4.21816510 0.70408767 0.00227058 0.00000000
0.13864322 1.29655813 0.00164881 0.00000000
2.27241618 0.57644584 -0.00039022 0.00000000
3.63232632 1.61785755 -0.00016186 0.00000000
4.54455235 1.77509234 -0.00189024 0.00000000
3.28574627 0.00725341 -0.00604788 0.00000000
1.92802868 1.38280490 0.00181626 0.00000000
1.66150649 1.50477532 0.00423034 0.00000000
4.09760725 1.80954567 -0.00040389 0.00000000
2.82991670 0.84627815 -0.00304780 0.00000000
3.06742584 1.21116320 0.00513462 0.00000000
3.46380233 1.75268838 0.00111868 0.00000000
1.68820265 1.79503800 -0.00304450 0.00000000
1.02510101 1.42830278 -0.00031341 0.00000000
3.21605889 0.92185841 -0.00155368 0.00000000
0.98615774 0.61805232 0.00432683 0.00000000
1.59739717 0.22884344 -0.00491951 0.00000000
3.32169603 0.71501201 0.00318422 0.00000000
1.72088675 0.98098133 -0.00238179 0.00000000
4.01949387 0.25230345 -0.00017188 0.00000000
2.95701227 1.59845592 0.00224459 0.00000000
0.12021427 0.21010285 -0.00064471 0.00000000
2.02024378 1.42486765 0.00056820 0.00000000
1.53059988 1.24955699 0.00378108 0.00000000
3.80388720 1.45577619 0.00305058 0.00000000
3.21947281 0.92324425 -0.00259576 0.00000000
3.08342695 0.92032706 0.00340468 0.00000000
0.45573916 0.66718641 0.00402594 0.00000000
1.77092200 0.79975577 -0.00285250 0.00000000
1.15695345 1.52783435 0.00050935 0.00000000
2.47240574 0.81781676 -0.00026122 0.00000000
0.82589243 0.83463172 0.00010499 0.00000000
1.66909991 0.36702736 0.00122590 0.00000000
1.44793570 0.09353905 -0.00046644 0.00000000
4.61963121 0.77143206 0.00427091 0.00000000
1.64622883 1.51246031 0.00135812 0.00000000
3.44118750 1.17519830 -0.00196142 0.00000000
0.71229978 0.15566896 0.00195948 0.00000000
0.55356060 1.68035471 0.00072646 0.00000000
2.42015871 1.71987056 0.00128760 0.00000000
2.73790435 0.01901008 -0.00151810 0.00000000
1.39038417 0.51164024 -0.00116062 0.00000000
2.95861948 1.53498139 0.00019470 0.00000000
1.13455305 1.52119114 0.00136915 0.00000000
1.37435437 0.17655910 0.00342708 0.00000000
3.43012954 1.03618842 0.00170642 0.00000000
4.40050134 1.51794643 0.00405139 0.00000000
0.31713579 1.78645090 0.00477518 0.00000000
0.77206748 0.57529875 -0.00064730 0.00000000
2.20019433 1.51927498 0.00076440 0.00000000
0.29978548 1.34093463 0.00039349 0.00000000
2.63144189 1.35390972 0.00314475 0.00000000
2.55630705 0.97205062 -0.00400759 0.00000000
2.47981201 1.37842794 -0.00135062 0.00000000
2.74486117 0.35508163 0.00156691 0.00000000
1.14773116 1.63916182 0.00076946 0.00000000
3.57990283 0.61438196 0.00122676 0.00000000
2.64097827 1.82865856 0.00383189 0.00000000
2.71011435 1.08934295 -0.00025552 0.00000000
2.17120339 0.62332136 -0.00186106 0.00000000
0.18692220 1.68552116 0.00596206 0.00000000
1.85567424 0.01498315 0.00313289 0.00000000
3.89201364 0.53690940 -0.00083622 0.00000000
0.06355062 0.86023483 0.00355942 0.00000000
1.05682718 1.76386444 -0.00438755 0.00000000
2.57534507 0.08239184 0.00159079 0.00000000
1.10004229 0.32417969 0.00229303 0.00000000
0.87616090 0.36161678 0.00159423 0.00000000
0.77018402 1.70699189 0.00014118 0.00000000
1.97241231 0.95270099 0.00077224 0.00000000
2.08949942 0.28356173 -0.00253232 0.00000000
1.74288024 0.83367068 0.00393184 0.00000000
4.40617609 0.26663737 -0.00156412 0.00000000
0.57697334 0.01895882 -0.00511477 0.00000000
2.67680607 0.46799668 -0.00065658 0.00000000
1.41378260 1.78363626 0.00158477 0.00000000
3.63507865 0.74569300 -0.00348369 0.00000000
4.47077133 0.67998968 0.00375562 0.00000000
1.87993013 1.03468365 0.00058366 0.00000000
4.51508104 0.49497483 -0.00118124 0.00000000
4.46797074 1.65871825 -0.00215614 0.00000000
0.89743974 0.35094786 -0.00324021 0.00000000
3.32398565 0.99320156 0.00062255 0.00000000
4.00682171 1.46487037 0.00015674 0.00000000
0.45399255 0.44657529 -0.00074747 0.00000000
0.97549089 0.62483711 0.00083573 0.00000000
3.09082083 1.56469982 0.00161985 0.00000000
4.15340503 0.58180725 0.00349233 0.00000000
3.89669114 1.37848504 -0.00189409 0.00000000
0.49380301 1.51181115 -0.00104556 0.00000000
1.72735085 1.64734040 -0.00065423 0.00000000
1.06398042 0.03478858 -0.00600594 0.00000000
2.63368321 0.04582612 -0.00087167 0.00000000
0.67512833 1.44367989 -0.00566613 0.00000000
4.67988214 1.39053763 -0.00152667 0.00000000
3.77830564 1.34922620 0.00189248 0.00000000
4.05063184 1.33654346 -0.00102187 0.00000000
2.86525753 1.82653003 0.00203321 0.00000000
1.78678602 0.91357172 0.00260333 0.00000000
3.70882639 1.22121137 -0.00129494 0.00000000
4.23163991 1.17264633 -0.00118049 0.00000000
3.69127958 0.93597495 -0.00440927 0.00000000
4.46017728 0.02110192 0.00141303 0.00000000
1.16008314 0.56975132 -0.00288974 0.00000000
4.57354361 0.03462774 0.00065854 0.00000000
2.52421016 0.02034410 0.00451896 0.00000000
0.30353585 1.74534123 0.00070810 0.00000000
1.90448314 1.13311822 0.00182152 0.00000000
1.75053999 0.30041230 0.00133006 0.00000000
0.44787386 0.63436286 -0.00047138 0.00000000
1.59571274 0.51119844 0.00147521 0.00000000
4.65758153 0.08924988 -0.00130791 0.00000000
3.07069309 1.72286736 0.00076858 0.00000000
2.22001337 1.35188934 -0.00429738 0.00000000
0.40741597 0.23341648 -0.00339681 0.00000000
4.20679678 0.37234165 -0.00259276 0.00000000
3.55066123 1.63926276 -0.00041362 0.00000000
0.36264438 1.51139961 -0.00027967 0.00000000
3.99288401 0.84132340 -0.00209567 0.00000000
4.05700244 1.60455034 -0.00186880 0.00000000
1.14350662 1.67173285 -0.00026329 0.00000000
3.19487070 0.38431324 0.00276845 0.00000000
1.19389645 0.33992179 0.00358385 0.00000000
3.98248581 0.12897588 0.00001478 0.00000000
1.42258009 0.36790081 0.00104095 0.00000000
3.63799257 0.41695950 -0.00297332 0.00000000
1.98182508 0.30553951 0.00214782 0.00000000
2.31412922 0.25834751 0.00099044 0.00000000
3.33197172 0.85518227 -0.00584749 0.00000000
1.18659399 1.28195372 -0.00391379 0.00000000
3.56158050 1.23700699 -0.00024847 0.00000000
1.82768337 0.73557240 -0.00262541 0.00000000
2.33993342 0.18522925 -0.00155144 0.00000000
1.86093880 0.75124828 -0.00228705 0.00000000
1.85053767 1.49055141 0.00026269 0.00000000
3.85296987 1.09642921 0.00178093 0.00000000
0.27382275 1.74801712 0.00248243 0.00000000
1.04391652 0.91823012 0.00393034 0.00000000
2.21900104 0.32165579 0.00118395 0.00000000
2.94603422 0.42056635 -0.00133627 0.00000000
1.73300471 1.07656356 -0.00362309 0.00000000
3.57685752 1.46569368 0.00034952 0.00000000
1.13325485 0.72926198 0.00322140 0.00000000
2.63509058 1.26329366 -0.00080957 0.00000000
0.70358479 0.36839725 -0.00474407 0.00000000
3.89532684 1.75273220 0.00008779 0.00000000
1.25314190 0.53493405 -0.00157746 0.00000000
4.12930363 0.25662666 0.00305507 0.00000000
3.47714759 0.10311263 -0.00322156 0.00000000
1.96510486 0.58906869 -0.00057500 0.00000000
2.52758296 1.64622500 -0.00001748 0.00000000
4.08591673 1.45054258 0.00153079 0.00000000
0.65640543 1.78402117 0.00304188 0.00000000
4.33297531 0.63339752 0.00026494 0.00000000
3.97176224 1.03268135 0.00002899 0.00000000
2.74293754 0.12065045 -0.00140036 0.00000000
3.73785636 1.02444233 0.00154062 0.00000000
1.56094233 0.90305581 0.00008918 0.00000000
3.83643433 1.35730193 0.00028507 0.00000000
1.05915053 0.53557709 0.00153678 0.00000000
1.02919547 1.73351578 0.00025055 0.00000000
2.94467806 0.94495991 -0.00088574 0.00000000
4.35269236 1.51520045 -0.00321925 0.00000000
4.19264163 0.61657828 0.00315346 0.00000000
4.42966457 1.14138519 -0.00057843 0.00000000
4.29326237 1.46847172 -0.00190749 0.00000000
4.09498556 0.73166132 0.00132390 0.00000000
3.56902265 0.97698539 -0.00056659 0.00000000
4.61134083 0.30925377 0.00105857 0.00000000
3.10718260 0.84377220 0.00294742 0.00000000
2.74197197 0.45831745 0.00126142 0.00000000
0.00018191 1.04628173 0.00232404 0.00000000
3.03700574 0.04943403 0.00147602 0.00000000
2.45411485 0.47680594 -0.00328970 0.00000000
3.50537146 1.09907510 0.00177542 0.00000000
0.85402473 0.36219346 -0.00085988 0.00000000
3.42876661 1.68178970 -0.00223174 0.00000000
1.08771930 1.77631238 0.00126791 0.00000000
3.19216673 0.59473090 -0.00469857 0.00000000
4.27114716 0.22102252 -0.00123129 0.00000000
0.11967582 0.44543494 0.00202318 0.00000000
3.66334988 0.25025198 0.00054376 0.00000000
0.14287602 0.87807050 -0.00376682 0.00000000
1.39628115 0.98388388 0.00224548 0.00000000
1.76525958 0.65686578 -0.00309753 0.00000000
1.01925797 0.77318145 0.00017921 0.00000000
1.50528728 0.80946456 -0.00224240 0.00000000
1.34113374 0.97644414 -0.00479688 0.00000000
2.29740624 1.30960287 0.00061751 0.00000000
3.76768283 1.71992102 -0.00117917 0.00000000
4.49377398 1.09430823 -0.00243327 0.00000000
1.17929452 1.19890494 -0.00299201 0.00000000
0.99627319 0.15248541 -0.00248792 0.00000000
3.93690378 1.74820671 -0.00329836 0.00000000
2.52209449 1.43545166 0.00117842 0.00000000
2.34361477 1.49843432 -0.00539592 0.00000000
3.83440278 1.57788371 -0.00073857 0.00000000
0.81751090 1.21751105 0.00300236 0.00000000
3.41514610 1.15133675 0.00442199 0.00000000
0.68187062 0.10238683 0.00281462 0.00000000
2.56589123 1.19876028 -0.00023554 0.00000000
0.78331490 0.52357940 0.00065736 0.00000000
1.62256511 0.26171650 0.00056223 0.00000000
2.34952018 0.05728459 0.00014467 0.00000000
0.71185521 1.59055905 0.00382891 0.00000000
3.47719053 1.25930395 -0.00215726 0.00000000
1.95993673 1.76992979 -0.00200827 0.00000000
2.74981474 1.79354907 0.00063309 0.00000000
1.66825027 1.08666915 0.00065270 0.00000000
3.87690052 1.32074043 -0.00076225 0.00000000
1.74217581 0.89144616 -0.00228408 0.00000000
0.97645214 1.31798697 0.00110040 0.00000000
4.44950314 0.43747840 -0.00399157 0.00000000
1.96146147 1.75957070 0.00157152 0.00000000
0.12027041 0.82536092 -0.00221128 0.00000000
2.89049407 0.87803018 0.00398991 0.00000000
0.03161992 1.27260483 -0.00127193 0.00000000
1.67992037 1.71464173 0.00201308 0.00000000
1.71988554 0.93884175 0.00074671 0.00000000
0.36801074 0.49153523 -0.00529929 0.00000000
1.40350805 0.99844547 0.00539447 0.00000000
0.97086291 0.62379884 -0.00213733 0.00000000
3.33580390 1.74858515 0.00225179 0.00000000
0.29485827 0.04027443 0.00543061 0.00000000
0.73262895 0.38645205 -0.00369745 0.00000000
1.17877908 0.07817438 0.00046101 0.00000000
