0.61264510 0.23751447 0.00174502 0.00000000
0.22649458 0.86025763 0.00115093 0.00000000
0.81742680 1.38499941 0.00031387 0.00000000
2.24311476 0.35364901 -0.00129653 0.00000000
1.94350873 0.90024731 -0.00076177 0.00000000
1.55031511 1.63640904 -0.00526390 0.00000000
1.47654336 0.69520492 0.00534667 0.00000000
2.27351505 0.21320841 -0.00409924 0.00000000
0.53030371 1.07887465 0.00111297 0.00000000
0.00171232 1.99861149 -0.00380818 0.00000000
1.98254896 1.69940399 -0.00459551 0.00000000
3.63982995 1.44222308 -0.00280632 0.00000000
3.67170430 1.07501330 -0.00073703 0.00000000
3.40296340 0.36893046 0.00110778 0.00000000
2.48700091 0.37373929 0.00200458 0.00000000
3.61316489 0.00727723 0.00146507 0.00000000
0.86861026 1.91389112 -0.00121633 0.00000000
3.30585236 0.88799497 0.00205758 0.00000000
4.02708111 1.16124889 -0.00002567 0.00000000
0.89334411 0.41294407 -0.00322565 0.00000000
3.93745513 1.56953767 0.00121010 0.00000000
3.61026618 0.68445906 -0.00212618 0.00000000
0.26442234 1.45245024 -0.00520243 0.00000000
3.70682913 1.65797463 -0.00007291 0.00000000
0.75205990 1.48444337 0.00288286 0.00000000
3.50197702 1.04721079 0.00000263 0.00000000
0.33818333 1.88528536 0.00084887 0.00000000
3.69750989 0.74317872 -0.00533305 0.00000000
2.14303611 1.32773118 0.00227920 0.00000000
3.10168672 0.89502848 0.00279201 0.00000000
0.36674187 1.14076895 0.00152206 0.00000000
2.84619220 1.75045789 -0.00192130 0.00000000
1.31264642 0.20085478 -0.00002065 0.00000000
1.61271335 1.84123868 0.00130061 0.00000000
2.98659093 1.17409211 0.00257197 0.00000000
3.83737668 0.33079472 0.00266295 0.00000000
1.92551436 1.35484840 -0.00072742 0.00000000
3.90384455 1.86476505 -0.00074181 0.00000000
4.01362604 0.25121326 -0.00223904 0.00000000
3.20060874 1.00310048 -0.00115661 0.00000000
3.74555174 1.52910065 -0.00174574 0.00000000
0.74074566 1.56366402 0.00243822 0.00000000
1.58610613 0.78637538 -0.00097132 0.00000000
2.86882728 1.16204828 0.00552119 0.00000000
3.91688238 0.33598716 0.00466114 0.00000000
1.70359628 2.06067876 0.00206723 0.00000000
1.95297317 1.37251004 0.00020173 0.00000000
0.59291408 0.40477229 0.00389079 0.00000000
0.63891384 1.84002659 -0.00064236 0.00000000
3.35677321 0.69960832 0.00159039 0.00000000
2.49708103 1.23706451 0.00034098 0.00000000
1.34442409 1.39711002 0.00146662 0.00000000
3.36456267 0.27200196 0.00010781 0.00000000
1.75434742 0.39331395 0.00432493 0.00000000
3.90018500 0.15581422 -0.00018193 0.00000000
1.21352953 0.05304711 -0.00160620 0.00000000
3.89671919 1.19657051 0.00502728 0.00000000
3.33016878 0.20896589 0.00113125 0.00000000
0.19748256 1.17517928 -0.00057749 0.00000000
2.19694063 1.22980265 -0.00080229 0.00000000
1.97827565 0.96100267 -0.00026911 0.00000000
1.04600365 0.80436468 -0.00014140 0.00000000
2.99028903 1.52899540 -0.00048844 0.00000000
0.53126608 1.37084030 0.00327380 0.00000000
3.77412343 0.38661924 -0.00006406 0.00000000
0.84134452 1.04650409 0.00021187 0.00000000
3.48019950 1.77585331 -0.00149989 0.00000000
3.04675500 1.94322013 0.00206861 0.00000000
1.74171148 0.30242434 0.00009864 0.00000000
2.52176221 0.15762777 -0.00121661 0.00000000
2.77124146 0.23581955 -0.00332921 0.00000000
3.76832912 1.47762714 0.00086256 0.00000000
2.58851501 1.77521180 0.00023583 0.00000000
0.29381365 1.94463215 0.00303712 0.00000000
2.72698784 0.21754031 0.00178636 0.00000000
0.58139902 1.04098297 0.00042956 0.00000000
1.06895303 0.90713953 -0.00039849 0.00000000
1.96933733 1.23260463 0.00212826 0.00000000
3.65466189 0.46993918 -0.00311321 0.00000000
1.34282307 0.84923254 -0.00055779 0.00000000
0.42601835 0.20833768 -0.00058671 0.00000000
0.31457865 0.73038786 0.00188138 0.00000000
0.42446353 1.68870741 0.00151230 0.00000000
1.88515258 1.42322277 -0.00164908 0.00000000
1.32960313 1.37569266 0.00353311 0.00000000
1.04910662 0.27166884 0.00022221 0.00000000
2.56954665 0.17698680 0.00254200 0.00000000
1.46200818 0.01055639 -0.00112334 0.00000000
0.56407148 1.54252843 -0.00015658 0.00000000
3.03259698 1.38720952 -0.00099819 0.00000000
2.38911770 1.07538932 -0.00236035 0.00000000
1.81985993 0.28532271 0.00235304 0.00000000
0.54452309 1.91522515 -0.00171404 0.00000000
3.70525100 1.12711351 0.00253656 0.00000000
0.92709702 0.96367534 0.00071248 0.00000000
0.23858262 2.03181407 -0.00119886 0.00000000
1.29972329 0.48388043 0.00233332 0.00000000
0.34894244 0.99927398 0.00142577 0.00000000
3.00826031 1.02819794 -0.00111285 0.00000000
2.61491986 0.15193751 -0.00283669 0.00000000
2.40322497 1.68313470 0.00149988 0.00000000
1.28642965 0.18530425 -0.00457658 0.00000000
2.86307898 1.47595736 0.00033684 0.00000000
3.83483801 1.23694269 -0.00298164 0.00000000
3.78050287 0.09186041 0.00036932 0.00000000
3.04377153 1.73533619 0.00224844 0.00000000
2.68559124 1.76109284 -0.00408713 0.00000000
1.69373284 1.81808310 0.00001011 0.00000000
1.91948198 0.06547403 0.00058173 0.00000000
0.99651572 1.70228616 -0.00218993 0.00000000
2.25724163 0.13083641 0.00045269 0.00000000
0.58409198 1.56753601 0.00014102 0.00000000
3.88814332 0.76003294 0.00150452 0.00000000
1.41058914 1.69673148 -0.00035548 0.00000000
0.06227229 0.95476986 -0.00157274 0.00000000
2.06029458 0.96931910 -0.00339587 0.00000000
2.05687168 1.63674893 -0.00693193 0.00000000
1.05219101 0.80004544 -0.00074463 0.00000000
0.77050335 0.74386174 0.00098773 0.00000000
2.24878199 0.17498669 -0.00314024 0.00000000
1.49906229 1.68579479 0.00248279 0.00000000
3.40460514 0.19605012 -0.00187144 0.00000000
1.61173156 1.95063135 -0.00291343 0.00000000
0.64124112 1.51331157 0.00281244 0.00000000
2.66064498 0.79673924 0.00091086 0.00000000
0.84073128 2.06174175 -0.00352670 0.00000000
3.90920175 1.31294266 -0.00280068 0.00000000
3.20778070 0.72914307 -0.00019151 0.00000000
2.17951759 1.81185207 0.00239353 0.00000000
1.91383995 1.65337300 -0.00133429 0.00000000
2.68284793 0.47243338 -0.00348933 0.00000000
1.19801167 0.53777830 0.00180623 0.00000000
2.44217762 1.75233681 0.00106671 0.00000000
0.64804383 0.18696053 0.00322580 0.00000000
2.38149805 1.48470966 0.00394529 0.00000000
3.18299987 1.17191114 -0.00158325 0.00000000
1.18466818 1.62082237 0.00084041 0.00000000
1.42294048 1.36870029 -0.00385423 0.00000000
0.21594444 0.23784904 -0.00096211 0.00000000
0.91587695 1.46135278 -0.00121373 0.00000000
2.84831173 0.72854654 0.00129633 0.00000000
0.96632297 1.62683080 0.00120854 0.00000000
2.08240307 0.02660944 0.00047070 0.00000000
3.64445880 0.57019994 0.00029333 0.00000000
1.43435920 0.59903476 0.00011195 0.00000000
2.32055491 1.50323970 -0.00284579 0.00000000
2.00713499 1.58372512 0.00208058 0.00000000
2.03643119 1.12454229 0.00125635 0.00000000
2.98185713 1.15712475 0.00301315 0.00000000
1.71363216 1.53990574 -0.00000038 0.00000000
3.46215525 0.02088567 0.00368505 0.00000000
1.01083946 1.03300404 0.00035503 0.00000000
0.75708514 0.50886718 -0.00497043 0.00000000
0.10388066 1.74091223 -0.00339701 0.00000000
1.80721393 1.16856003 0.00271928 0.00000000
2.95173604 0.98329201 -0.00403608 0.00000000
2.87314748 0.08211387 0.00572045 0.00000000
2.19414690 1.99094165 0.00356315 0.00000000
4.00579415 0.48558658 0.00482991 0.00000000
3.44318310 1.44372238 0.00126162 0.00000000
3.41000536 0.12722309 -0.00028395 0.00000000
1.21688452 1.33280037 -0.00121641 0.00000000
0.24235541 1.77176990 0.00128032 0.00000000
3.26858157 1.42876026 0.00152059 0.00000000
3.27611544 0.11209902 0.00382776 0.00000000
0.72554696 1.66789236 -0.00145189 0.00000000
0.90415913 1.35194959 -0.00329269 0.00000000
2.50462321 0.28632438 0.00028496 0.00000000
2.69463467 0.96108382 -0.00006412 0.00000000
2.26196347 1.28238343 0.00232419 0.00000000
0.80337549 2.02497678 -0.00013279 0.00000000
3.69635869 1.33738910 -0.00280834 0.00000000
0.49692435 1.72870023 -0.00139974 0.00000000
0.57382404 1.07599770 -0.00189666 0.00000000
0.70949755 0.85702343 -0.00265194 0.00000000
1.57287133 1.26300034 0.00347003 0.00000000
0.80837670 1.31330800 0.00079416 0.00000000
1.92702734 0.71375458 -0.00061203 0.00000000
4.00563590 0.69455361 0.00077145 0.00000000
3.75246102 0.00104967 -0.00315769 0.00000000
3.21185113 1.66829733 0.00436435 0.00000000
3.76744649 0.86594899 -0.00059057 0.00000000
3.54436134 1.01337658 -0.00157086 0.00000000
0.00222191 0.52009775 -0.00178859 0.00000000
1.90881677 0.70501164 -0.00552191 0.00000000
3.33678347 0.61711042 0.00267353 0.00000000
0.81980135 1.50055978 0.00457065 0.00000000
3.03850805 0.85216478 -0.00239534 0.00000000
3.69403156 0.36885933 -0.00266848 0.00000000
0.26230196 1.51533239 -0.00236717 0.00000000
0.71441562 1.55139555 0.00071610 0.00000000
2.98492084 1.31577478 0.00055802 0.00000000
3.34285271 0.83845435 -0.00105200 0.00000000
0.69577797 0.49432906 -0.00243790 0.00000000
2.14839705 0.67231342 -0.00118416 0.00000000
1.96641658 1.80230755 0.00333803 0.00000000
0.87438813 1.46920268 0.00161250 0.00000000
1.71416046 0.18212247 -0.00172090 0.00000000
0.39125719 1.60830404 0.00072424 0.00000000
3.52544425 1.67528386 -0.00068226 0.00000000
0.82499513 0.37504230 0.00196805 0.00000000
2.72849963 1.20386404 -0.00394828 0.00000000
2.54214467 1.00324971 0.00179697 0.00000000
3.86505592 0.92134806 0.00340072 0.00000000
1.99494462 1.21679588 -0.00071320 0.00000000
2.08584685 0.69106931 0.00478529 0.00000000
4.02073325 0.95225867 0.00220998 0.00000000
3.91745427 1.47930345 -0.00103374 0.00000000
3.83123321 2.03061572 0.00331768 0.00000000
2.02670914 0.31093219 0.00126356 0.00000000
2.75481532 0.84971160 0.00171935 0.00000000
2.98518527 1.13539906 0.00324444 0.00000000
3.67355665 0.68776635 -0.00252435 0.00000000
0.98375787 1.06759311 -0.00523691 0.00000000
2.02167389 1.09928899 0.00003527 0.00000000
0.74296302 1.91663374 0.00009242 0.00000000
3.29846014 1.81054407 0.00025592 0.00000000
0.74095181 0.34081423 0.00339730 0.00000000
3.61744578 0.15445105 0.00125838 0.00000000
0.96535691 1.44131282 0.00166460 0.00000000
1.75877184 0.26540240 0.00135981 0.00000000
2.69174946 0.63309885 0.00218063 0.00000000
2.86427888 0.43547984 -0.00355987 0.00000000
2.60581199 1.73320611 0.00302527 0.00000000
0.82418784 1.80737339 0.00156590 0.00000000
3.29961203 1.52401920 0.00781266 0.00000000
3.15944285 0.10442350 0.00321511 0.00000000
0.94139305 0.92276225 -0.00134520 0.00000000
0.07288829 0.30902349 -0.00307091 0.00000000
3.82144749 0.75299804 -0.00188858 0.00000000
1.65670782 0.07420117 -0.00053246 0.00000000
0.60981792 1.89707292 -0.00160333 0.00000000
1.95583548 1.52044969 -0.00411988 0.00000000
3.66894258 1.76207412 -0.00194224 0.00000000
2.82688967 1.24444221 -0.00077404 0.00000000
2.68742667 0.60236573 0.00405775 0.00000000
3.55389355 1.96256374 -0.00047301 0.00000000
2.15984266 0.84974211 -0.00318391 0.00000000
0.02585061 0.44513100 -0.00122805 0.00000000
3.39882893 0.56339208 -0.00021154 0.00000000
3.53170299 1.34124848 -0.00110350 0.00000000
0.64599295 0.95870737 0.00181508 0.00000000
1.02946413 1.33504557 0.00025556 0.00000000
1.62372484 1.02860940 -0.00210551 0.00000000
3.15990659 0.00361206 -0.00151605 0.00000000
3.29034096 0.29225072 0.00003927 0.00000000
3.51541650 1.75572164 -0.00007901 0.00000000
3.55433445 1.34323958 0.00052547 0.00000000
1.45437546 0.20074768 -0.00126095 0.00000000
1.51752884 0.45426498 0.00057614 0.00000000
2.17150052 0.36842795 0.00025070 0.00000000
2.94877536 1.88432312 0.00151020 0.00000000
3.83994323 0.09742764 -0.00005102 0.00000000
3.60904802 1.50800639 0.00026084 0.00000000
0.51497473 1.43877523 0.00103470 0.00000000
2.86623522 1.38398424 0.00288512 0.00000000
3.43545095 1.38685163 -0.00401447 0.00000000
3.26866453 1.24392424 0.00213906 0.00000000
2.18126572 1.04466398 -0.00362831 0.00000000
0.96802637 1.47994954 0.00171711 0.00000000
3.91898786 0.32888040 0.00295020 0.00000000
1.60128198 1.46457689 0.00390180 0.00000000
1.07348507 2.04897339 -0.00392905 0.00000000
3.38957614 1.51761564 0.00411986 0.00000000
0.22709250 0.48046124 0.00124632 0.00000000
3.44127064 0.62411177 -0.00038371 0.00000000
2.46097950 0.91565821 -0.00019378 0.00000000
1.15874051 0.73610772 -0.00281177 0.00000000
2.65165156 0.98820519 0.00311645 0.00000000
0.62347154 0.48646257 -0.00303655 0.00000000
0.74319098 1.50498479 0.00173947 0.00000000
3.60143512 1.48542007 0.00087258 0.00000000
3.07597128 1.19092933 -0.00046766 0.00000000
3.35721715 1.34441310 -0.00235314 0.00000000
0.80560888 1.30112718 0.00276834 0.00000000
0.19949605 1.40216412 0.00095569 0.00000000
0.25787189 1.07905090 -0.00099671 0.00000000
1.90046257 1.03932772 0.00158191 0.00000000
1.39779709 1.32107616 0.00321431 0.00000000
3.98860251 0.09329663 -0.00362266 0.00000000
3.73604136 1.17344666 -0.00169604 0.00000000
3.47860236 0.40831207 0.00018112 0.00000000
1.46111392 1.53057724 -0.00002492 0.00000000
3.19589235 0.06148216 0.00088579 0.00000000
0.45662809 0.65925222 0.00320741 0.00000000
3.98402115 0.69413875 -0.00441891 0.00000000
0.95154601 2.02420058 -0.00028803 0.00000000
0.31394181 0.64031540 0.00427445 0.00000000
3.54797936 2.01009439 -0.00214208 0.00000000
3.45361984 1.60969115 -0.00685375 0.00000000
2.92827641 0.69623287 0.00311974 0.00000000
3.25857868 0.69118794 -0.00303512 0.00000000
3.37480708 0.68456519 0.00081174 0.00000000
3.32019205 0.78898268 -0.00095406 0.00000000
1.59261096 1.44282719 0.00020283 0.00000000
0.56562919 1.15660348 -0.00162836 0.00000000
2.51053278 0.13140872 0.00174894 0.00000000
3.73985525 1.45289750 -0.00395169 0.00000000
0.08233860 1.82799948 -0.00045434 0.00000000
2.11059458 1.06005413 -0.00379441 0.00000000
0.63751969 0.88575902 -0.00234878 0.00000000
2.33042515 1.91562103 0.00310493 0.00000000
1.82222046 1.34262067 0.00198040 0.00000000
2.57730713 0.25446871 0.00026883 0.00000000
2.69076527 0.47579559 0.00318131 0.00000000
2.54260826 1.19623138 0.00366087 0.00000000
0.80719290 0.75508972 0.00152812 0.00000000
1.24061030 1.38827253 0.00239138 0.00000000
1.05787383 1.54757118 -0.00062654 0.00000000
1.05023889 1.08424213 0.00078502 0.00000000
2.28904706 1.91288087 0.00080377 0.00000000
3.95479313 0.78770588 0.00032212 0.00000000
0.32006959 0.23319433 -0.00023551 0.00000000
3.27197183 1.51586288 0.00330895 0.00000000
3.92950553 0.22910188 -0.00460403 0.00000000
1.37345242 1.06383914 -0.00387225 0.00000000
0.77306278 0.83738972 -0.00264383 0.00000000
2.93574644 1.22941339 -0.00352845 0.00000000
3.46934368 1.93917994 -0.00093525 0.00000000
2.15058805 0.79400390 -0.00175853 0.00000000
1.31640656 1.48279849 0.00141040 0.00000000
3.67898729 0.24920104 0.00032788 0.00000000
2.71488578 0.37106375 -0.00274839 0.00000000
0.44803341 0.71532504 -0.00205274 0.00000000
2.89978163 1.87153400 -0.00112311 0.00000000
2.75505074 1.39065490 -0.00106457 0.00000000
3.52134940 1.35373205 -0.00107712 0.00000000
4.00214826 0.71430298 -0.00496079 0.00000000
0.66480820 0.55809784 -0.00133992 0.00000000
2.95742843 1.26426510 -0.00310105 0.00000000
3.90642586 0.31350788 -0.00518207 0.00000000
2.80946533 0.50855760 -0.00100928 0.00000000
3.94801442 0.90490352 0.00153227 0.00000000
2.73098240 0.60743662 0.00017473 0.00000000
3.44228561 1.93286784 -0.00566693 0.00000000
1.00983981 1.37826914 0.00291227 0.00000000
0.19797631 1.48228240 -0.00125451 0.00000000
1.14647620 1.13608333 0.00111742 0.00000000
1.27764477 0.87345358 -0.00376757 0.00000000
0.66005266 0.31759717 0.00131269 0.00000000
1.03398096 0.88254056 -0.00062033 0.00000000
1.48149742 0.69303065 0.00281512 0.00000000
1.64403305 1.73245527 0.00130798 0.00000000
2.05263865 1.47412017 0.00092921 0.00000000
2.12789948 0.24002253 0.00175317 0.00000000
2.86261887 2.01773260 -0.00133350 0.00000000
0.29545647 1.47463203 -0.00399556 0.00000000
3.69721795 0.50887441 -0.00145203 0.00000000
2.69860543 0.16156428 0.00174639 0.00000000
3.79058912 0.15724513 -0.00034584 0.00000000
0.14823735 1.24517276 0.00645806 0.00000000
0.63769229 0.34374973 -0.00601757 0.00000000
3.97336833 1.64890195 0.00031735 0.00000000
2.20428201 1.01892083 0.00062453 0.00000000
3.06245565 0.56799354 0.00041126 0.00000000
3.37824696 1.19274151 -0.00381214 0.00000000
0.73752397 1.06195433 -0.00063302 0.00000000
1.27775563 1.67143302 -0.00087480 0.00000000
0.35766792 1.15010175 -0.00723658 0.00000000
0.56474947 1.72214991 0.00195493 0.00000000
0.20799258 1.35838221 -0.00168416 0.00000000
1.25369351 1.70316696 -0.00010572 0.00000000
1.82878959 1.99127030 0.00089256 0.00000000
2.39951876 1.87839982 -0.00132525 0.00000000
2.37106034 1.67527217 -0.00328794 0.00000000
1.97938081 1.26996849 0.00077714 0.00000000
0.38558096 0.53316202 0.00205819 0.00000000
0.18351127 0.72493428 0.00108777 0.00000000
3.01882986 1.02258303 -0.00210365 0.00000000
2.97424579 0.63073651 0.00192707 0.00000000
0.65736240 1.40764440 0.00142528 0.00000000
2.60988851 0.92948350 0.00151602 0.00000000
2.25090991 0.14453968 -0.00222851 0.00000000
3.84353695 1.00238359 -0.00162559 0.00000000
3.75553047 0.41752520 -0.00086314 0.00000000
2.33860430 0.48519173 0.00174783 0.00000000
0.44541411 0.82393444 -0.00088630 0.00000000
1.13305385 1.43563062 -0.00490782 0.00000000
3.89543911 0.00468549 -0.00151907 0.00000000
0.92033979 1.29383317 -0.00028720 0.00000000
3.17129765 1.23985139 0.00206204 0.00000000
3.64742184 0.18390433 0.00307026 0.00000000
0.25527296 1.78850212 0.00234722 0.00000000
1.34218014 1.74044503 -0.00113171 0.00000000
0.10888012 0.51876688 -0.00243864 0.00000000
3.92070339 0.34781605 -0.00125887 0.00000000
3.59296454 1.21478414 0.00189288 0.00000000
1.88084065 1.75533442 -0.00123988 0.00000000
0.11829924 0.82559525 -0.00114385 0.00000000
2.90664120 1.98226422 0.00026943 0.00000000
1.90920705 1.85236238 -0.00158551 0.00000000
0.54440066 1.34158978 -0.00429965 0.00000000
3.00753370 1.15641540 0.00184180 0.00000000
3.77215442 0.69153741 0.00460646 0.00000000
2.98740966 0.47386482 0.00045839 0.00000000
3.65460310 0.31363479 0.00021719 0.00000000
1.17297724 1.21965095 -0.00275984 0.00000000
0.96911119 0.63718559 0.00299242 0.00000000
1.13697509 0.23439415 0.00129187 0.00000000
3.35507261 1.69454699 0.00008329 0.00000000
3.00935177 0.94797870 0.00124522 0.00000000
2.28219192 0.32611505 -0.00023461 0.00000000
0.05206472 0.52978511 -0.00100089 0.00000000
3.66568834 0.93701342 -0.00457894 0.00000000
2.93702210 1.29679700 0.00299501 0.00000000
0.96753175 1.06208571 0.00310380 0.00000000
3.77201406 1.03773183 0.00074971 0.00000000
3.86177049 0.09424548 0.00125025 0.00000000
1.24507166 1.55493751 -0.00178919 0.00000000
0.37294678 1.08345193 -0.00051545 0.00000000
1.76347642 1.79785421 -0.00368453 0.00000000
1.26152725 0.95392509 0.00512786 0.00000000
2.07036404 1.54691678 -0.00416924 0.00000000
0.37532106 0.73503959 -0.00239395 0.00000000
1.29826580 1.57635317 -0.00021564 0.00000000
2.02723050 0.80150567 0.00507349 0.00000000
3.33723170 1.06134688 0.00193928 0.00000000
1.19904484 0.12197880 -0.00262141 0.00000000
1.33606453 0.28868838 0.00000156 0.00000000
0.26570702 0.80706970 0.00269525 0.00000000
2.38938116 0.84502982 0.00249399 0.00000000
1.25130700 0.80942681 -0.00350153 0.00000000
1.32561520 0.68966812 -0.00009993 0.00000000
2.08751302 2.00751249 -0.00187984 0.00000000
2.08837187 0.99291466 0.00409014 0.00000000
0.74509486 1.15932136 -0.00117870 0.00000000
3.15228866 0.96230362 0.00549639 0.00000000
0.29508210 1.94210801 0.00027955 0.00000000
0.92558878 0.42570584 0.00428373 0.00000000
0.72048077 1.31960395 -0.00215808 0.00000000
2.80341136 1.19360974 -0.00216261 0.00000000
1.92858445 1.03518193 0.00407875 0.00000000
2.40525055 0.85233755 -0.00243230 0.00000000
0.08581301 1.53409762 -0.00052939 0.00000000
3.96284505 1.15362754 0.00217978 0.00000000
2.12236661 0.33696629 -0.00155740 0.00000000
2.56258058 0.70611759 -0.00123529 0.00000000
3.16014289 1.01973090 -0.00075081 0.00000000
0.30182778 1.94861366 -0.00190999 0.00000000
0.09520080 1.19151041 0.00289123 0.00000000
1.55326318 0.57853444 -0.00151903 0.00000000
3.02713961 1.97804069 -0.00061120 0.00000000
3.38137896 0.49416886 -0.00135588 0.00000000
1.16629190 0.32239408 0.00087143 0.00000000
0.38390103 0.56474369 0.00309000 0.00000000
1.40016189 0.66228632 -0.00229037 0.00000000
0.21322212 0.53929619 -0.00446372 0.00000000
1.75719899 1.22965928 0.00308508 0.00000000
1.39038227 2.04388462 0.00180586 0.00000000
2.16791873 1.56731465 0.00115825 0.00000000
1.90242507 0.57655227 0.00224355 0.00000000
1.20753456 0.22209379 -0.00422716 0.00000000
0.43873781 0.87493080 0.00296305 0.00000000
2.17146214 1.23356205 -0.00495855 0.00000000
2.89412883 0.04273697 0.00087548 0.00000000
1.31754731 0.98083216 0.00002186 0.00000000
2.05779692 0.62955602 0.00206658 0.00000000
0.61906248 0.19464468 0.00345547 0.00000000
0.01609877 1.39955582 -0.00062329 0.00000000
2.81809390 1.60190815 0.00065312 0.00000000
0.11839562 0.44880350 -0.00373090 0.00000000
3.38902675 0.74611790 -0.00355308 0.00000000
2.44331584 0.72458204 -0.00280587 0.00000000
0.03926103 0.23248143 -0.00182601 0.00000000
2.35326436 0.16968882 -0.00110412 0.00000000
0.38166787 0.06898513 0.00042899 0.00000000
2.50138361 1.66549215 -0.00037877 0.00000000
3.33274113 1.12696325 0.00248674 0.00000000
1.86846418 0.25780997 0.00192356 0.00000000
3.87607066 1.06567656 0.00172544 0.00000000
3.77649083 1.08779377 0.00485098 0.00000000
0.54767370 0.62513777 0.00418794 0.00000000
1.10164535 0.61764934 -0.00319370 0.00000000
2.31920302 0.65525449 -0.00108391 0.00000000
2.01092283 1.36565032 -0.00233000 0.00000000
1.45000096 1.37492961 0.00297228 0.00000000
0.24803738 0.61256642 0.00041746 0.00000000
1.00823380 0.82042890 -0.00402251 0.00000000
2.29756777 1.10796974 -0.00412094 0.00000000
0.49669273 0.31697203 0.00307849 0.00000000
2.91494196 0.68763559 0.00081736 0.00000000
0.70759091 1.20747344 -0.00125916 0.00000000
0.07894144 0.15261363 0.00080195 0.00000000
3.16655824 0.71854702 -0.00086090 0.00000000
0.74446374 1.65065242 0.00018366 0.00000000
0.27588536 0.00639992 0.00079830 0.00000000
2.87526386 0.80024152 0.00096173 0.00000000
3.75447905 1.12235712 0.00152527 0.00000000
1.23350440 1.18261868 0.00007555 0.00000000
0.78017663 1.10655716 -0.00290459 0.00000000
3.24728096 1.73509139 -0.00091270 0.00000000
2.07776464 0.76625350 -0.00077278 0.00000000
0.08909819 1.15232063 -0.00297108 0.00000000
1.70550733 0.39706085 0.00128516 0.00000000
0.49098315 0.97812753 -0.00333394 0.00000000
2.76087377 1.51276820 0.00040869 0.00000000
3.53245748 1.47559839 0.00552853 0.00000000
0.01480168 0.27214162 0.00200787 0.00000000
0.37976066 0.20166574 0.00045519 0.00000000
2.22622891 0.37790857 -0.00410052 0.00000000
1.78470035 0.75352165 0.00376435 0.00000000
1.42908360 0.87088565 0.00301718 0.00000000
0.28979492 1.26662163 -0.00136108 0.00000000
0.30520045 0.43767868 0.00043115 0.00000000
2.76196131 0.77330192 0.00211847 0.00000000
1.31917760 0.96617725 -0.00052756 0.00000000
2.34890399 0.52034890 0.00289070 0.00000000
1.94657126 1.83349670 0.00262400 0.00000000
0.54435463 1.17582672 0.00266847 0.00000000
2.44276677 1.39485712 0.00284570 0.00000000
0.55036916 0.31076535 0.00071890 0.00000000
3.46718625 1.87772940 -0.00160162 0.00000000
1.20505116 0.77652631 0.00040925 0.00000000
0.30813862 2.02462064 0.00067085 0.00000000
3.04397564 1.63771457 0.00096459 0.00000000
1.07005819 1.31847385 0.00273702 0.00000000
0.25638910 0.46314568 0.00188979 0.00000000
1.04050623 0.38397771 0.00246317 0.00000000
2.53186124 1.33407047 0.00339350 0.00000000
0.08094442 0.93272175 -0.00213826 0.00000000
3.47368573 0.09202331 -0.00386577 0.00000000
3.97943506 1.27713781 -0.00077058 0.00000000
0.91669500 1.71346798 -0.00020035 0.00000000
2.09580565 0.17502054 0.00285594 0.00000000
3.20674122 1.59643528 -0.00221727 0.00000000
3.27434475 1.94203944 0.00253858 0.00000000
3.67866551 0.39527554 -0.00168208 0.00000000
3.84604852 1.01680162 0.00072520 0.00000000
0.43200405 1.50468173 -0.00163904 0.00000000
3.00502042 0.01979203 -0.00805314 0.00000000
2.31534966 0.61806694 0.00059222 0.00000000
3.94332106 1.89023550 -0.00015524 0.00000000
0.66449428 1.74183015 -0.00423027 0.00000000
0.10433406 0.84137686 -0.00187327 0.00000000
3.51328191 1.93816938 -0.00005523 0.00000000
0.85190891 0.61953484 0.00448429 0.00000000
1.88625129 0.09552161 0.00120246 0.00000000
2.12033302 1.66289756 -0.00236921 0.00000000
3.88895243 1.73815141 0.00207433 0.00000000
0.01228696 0.17543834 0.00086300 0.00000000
0.81647896 0.54968239 0.00199121 0.00000000
2.46213256 1.11022253 0.00143504 0.00000000
2.08240574 0.51092453 -0.00229886 0.00000000
0.62630109 0.37378169 -0.00061958 0.00000000
1.94363219 1.18722133 0.00195138 0.00000000
2.85746171 1.26594961 0.00006330 0.00000000
0.55274630 1.93991944 -0.00041699 0.00000000
1.60258990 1.79704639 0.00027177 0.00000000
1.88265709 1.35933648 -0.00228355 0.00000000
1.32960946 1.51306433 -0.00384328 0.00000000
0.41559642 0.37184239 -0.00322414 0.00000000
3.50444688 1.15668148 -0.00046252 0.00000000
1.21792884 0.62429102 0.00353463 0.00000000
3.84022163 0.54077407 0.00344182 0.00000000
3.05819235 0.50775605 0.00089846 0.00000000
1.67936770 1.10382576 0.00220802 0.00000000
2.51469695 0.22246886 0.00219614 0.00000000
2.53530230 0.70602218 -0.00310829 0.00000000
1.70199223 1.86247412 -0.00190783 0.00000000
1.71327861 1.17537841 -0.00104732 0.00000000
2.60084834 1.98698306 -0.00134088 0.00000000
2.80406465 0.67340086 0.00093233 0.00000000
0.30561300 0.68256083 0.00108137 0.00000000
1.59480234 1.99975675 -0.00059338 0.00000000
2.42085838 0.48502389 0.00050089 0.00000000
1.18530020 1.71569345 0.00065256 0.00000000
2.86843661 0.48334128 -0.00398580 0.00000000
1.79642284 1.00458559 -0.00712565 0.00000000
2.01739314 1.74416263 -0.00130867 0.00000000
1.47347298 1.02441127 -0.00119736 0.00000000
1.20723219 0.52991817 -0.00459622 0.00000000
2.74460729 1.49800215 0.00475921 0.00000000
0.28672986 1.85331026 -0.00111065 0.00000000
0.33050219 1.58280409 0.00005552 0.00000000
1.13979243 1.81024682 0.00357836 0.00000000
0.06209239 1.47079636 0.00264457 0.00000000
1.14010822 0.04374823 -0.00048132 0.00000000
1.92152701 1.20427742 0.00005730 0.00000000
0.16294355 1.05561724 -0.00157581 0.00000000
1.34638387 0.44018199 0.00139322 0.00000000
1.37786350 1.91134572 0.00096070 0.00000000
3.56235204 1.36771616 0.00307561 0.00000000
3.38719166 1.18305911 0.00027164 0.00000000
2.40476004 0.77242156 -0.00328321 0.00000000
2.72165381 1.17133116 0.00324187 0.00000000
1.87263202 0.33471101 0.00559045 0.00000000
3.70233232 1.75016145 -0.00114664 0.00000000
3.65488474 2.04917532 -0.00445887 0.00000000
2.91085551 1.61767451 -0.00403905 0.00000000
3.41529331 1.56275074 0.00220398 0.00000000
0.23519349 1.49125884 0.00004661 0.00000000
1.44892740 0.59437721 0.00370808 0.00000000
1.85991418 1.35766346 0.00276552 0.00000000
1.69003518 1.02622670 -0.00026724 0.00000000
2.15071209 0.39931185 -0.00445637 0.00000000
2.09490122 1.48318153 -0.00056810 0.00000000
2.95277267 1.23034076 -0.00498284 0.00000000
3.59301818 1.88111245 0.00061225 0.00000000
3.84324498 1.19834611 0.00056059 0.00000000
2.04543035 0.30529519 0.00212521 0.00000000
0.64521171 0.50495825 0.00003717 0.00000000
2.12411793 0.12485331 -0.00068611 0.00000000
0.20605770 0.56402286 0.00035502 0.00000000
0.17197350 1.36918467 -0.00137712 0.00000000
1.62943602 0.05237884 -0.00141633 0.00000000
0.79532789 0.59139862 -0.00020793 0.00000000
2.55225084 1.30335025 0.00269858 0.00000000
2.31178971 2.02782652 0.00005786 0.00000000
0.34899238 1.45625740 -0.00220109 0.00000000
2.96452183 1.65037181 0.00337521 0.00000000
2.53279750 0.31124883 0.00252489 0.00000000
2.34635739 1.52808355 0.00272316 0.00000000
1.92727696 0.69503911 -0.00248095 0.00000000
2.43888286 2.01807023 0.00084449 0.00000000
0.55301044 1.49547872 0.00159126 0.00000000
3.32519937 1.81726499 -0.00280965 0.00000000
1.51389988 1.87375817 0.00148413 0.00000000
3.69738514 1.98927562 -0.00144847 0.00000000
3.36080587 0.48505440 -0.00060221 0.00000000
0.92626589 0.55076436 -0.00024991 0.00000000
0.02539232 0.20845064 -0.00069850 0.00000000
2.71833667 1.50829307 -0.00196691 0.00000000
2.21808046 0.34800033 -0.00109010 0.00000000
3.40925245 0.76301788 -0.00187824 0.00000000
0.94308109 1.12092982 -0.00264975 0.00000000
1.14223223 0.97079086 0.00197878 0.00000000
3.25035887 1.15082686 -0.00235228 0.00000000
0.53809739 0.94584752 -0.00269080 0.00000000
1.52761906 1.74538286 0.00117252 0.00000000
0.90240924 0.17850507 0.00101489 0.00000000
3.52615596 1.75421198 -0.00178488 0.00000000
3.91984230 0.21688979 -0.00360274 0.00000000
2.07271344 1.37311900 -0.00412109 0.00000000
1.89374384 0.73504928 0.00221285 0.00000000
0.92877948 0.37185525 0.00157604 0.00000000
3.72153965 0.48918064 0.00224302 0.00000000
3.05744113 1.59663566 -0.00109451 0.00000000
3.29019287 1.73857593 0.00018476 0.00000000
2.35101187 0.91031414 -0.00075709 0.00000000
0.41919691 0.86898226 -0.00074393 0.00000000
1.07945262 1.75273649 0.00076950 0.00000000
1.51044268 0.73212884 0.00040226 0.00000000
1.24374034 0.11076787 0.00330185 0.00000000
1.39813895 1.20544569 -0.00242682 0.00000000
3.77167560 0.34061517 -0.00405742 0.00000000
0.15940318 1.68861622 -0.00093436 0.00000000
2.48930502 0.33671099 -0.00293686 0.00000000
0.89569129 0.20023193 -0.00276108 0.00000000
3.81209393 1.82224706 0.00351589 0.00000000
1.64350791 1.76485353 0.00380647 0.00000000
2.06254817 1.79818483 0.00352316 0.00000000
3.26582663 1.64206592 0.00219130 0.00000000
3.81247259 0.67488104 0.00176132 0.00000000
3.73225474 1.86330510 -0.00019299 0.00000000
0.39346370 0.04291295 -0.00397839 0.00000000
3.50675756 1.90521958 -0.00191158 0.00000000
3.13365532 0.42100141 0.00197405 0.00000000
3.98853722 1.07402149 -0.00180205 0.00000000
1.43750723 1.76941407 -0.00183034 0.00000000
3.26780765 1.13619166 0.00003311 0.00000000
3.66516879 0.00479557 0.00036283 0.00000000
2.74517286 0.80576196 0.00025421 0.00000000
3.13217072 1.50358452 -0.00077185 0.00000000
3.13814281 0.40934317 0.00490320 0.00000000
3.54106167 1.82846500 -0.00810688 0.00000000
3.57144592 0.18926905 -0.00312322 0.00000000
3.04543235 0.36325571 0.00324918 0.00000000
0.38653769 0.80568322 0.00409498 0.00000000
0.85189112 1.19612159 0.00023300 0.00000000
2.87097356 0.13572624 -0.00168538 0.00000000
0.45666062 1.29221905 -0.00263627 0.00000000
0.39080941 0.83165707 0.00020520 0.00000000
1.33848662 0.64520187 0.00355376 0.00000000
3.18285219 1.57539048 0.00147961 0.00000000
3.63923376 2.01037932 0.00332349 0.00000000
1.80068309 1.72575958 0.00534168 0.00000000
1.92286725 0.83007565 0.00159603 0.00000000
1.16135022 1.26168547 -0.00085300 0.00000000
3.24613976 0.11765246 -0.00095359 0.00000000
2.36088900 1.28423826 0.00043298 0.00000000
2.60193068 1.95305098 0.00007531 0.00000000
1.86531413 0.44121497 -0.00160556 0.00000000
2.04167722 0.40647384 -0.00074126 0.00000000
3.34589632 1.18040940 -0.00199900 0.00000000
3.74499784 1.62957560 0.00158790 0.00000000
0.75189156 1.53403601 -0.00097336 0.00000000
1.82962118 2.05405860 -0.00289913 0.00000000
2.15172028 0.30543591 0.00103291 0.00000000
3.01132755 2.04721013 -0.00090788 0.00000000
3.45327507 0.95271849 -0.00119652 0.00000000
0.92142331 2.04814520 0.00736214 0.00000000
1.33118905 1.08272429 0.00103189 0.00000000
2.47771505 0.66690144 0.00148598 0.00000000
0.30946257 1.49058215 0.00164983 0.00000000
1.53960860 1.64204502 0.00098375 0.00000000
1.56889428 1.41882111 -0.00284528 0.00000000
2.68996281 0.10309142 0.00420619 0.00000000
3.04830915 0.78582637 0.00039514 0.00000000
1.12899369 0.03426509 -0.00028018 0.00000000
1.57358316 0.27510420 0.00469130 0.00000000
1.19765389 0.81735171 -0.00261691 0.00000000
0.26951796 1.13944597 0.00363130 0.00000000
1.59214347 0.99823373 -0.00370758 0.00000000
2.46393364 1.87111847 0.00089725 0.00000000
3.43163791 0.34560458 0.00355131 0.00000000
3.38454331 1.82012235 0.00269283 0.00000000
0.83850137 0.34527398 0.00270343 0.00000000
0.40559277 0.83477698 -0.00236347 0.00000000
0.30795595 1.86260928 -0.00462803 0.00000000
1.83348176 1.25194681 0.00105282 0.00000000
1.69493017 1.14273412 -0.00562680 0.00000000
2.35159455 0.72386549 -0.00178900 0.00000000
0.10903610 0.53436849 0.00104264 0.00000000
0.05341510 1.09985208 0.00385886 0.00000000
2.13240826 1.08286315 -0.00167944 0.00000000
3.61850353 2.01417621 0.00238269 0.00000000
0.56985140 0.86589190 0.00084458 0.00000000
1.70784489 0.33973699 0.00214691 0.00000000
3.53346100 0.09414833 -0.00130531 0.00000000
1.03169631 0.49130035 0.00212733 0.00000000
3.05821819 2.05204676 0.00286932 0.00000000
1.42509702 1.38512374 -0.00028590 0.00000000
3.10359514 1.36774957 -0.00028368 0.00000000
1.83690277 0.65002636 0.00280679 0.00000000
4.02458522 1.24512898 -0.00148508 0.00000000
2.26389993 0.30049575 0.00022485 0.00000000
3.90588211 0.76540423 -0.00081278 0.00000000
0.20766955 2.05614659 0.00229874 0.00000000
1.58986441 1.68187665 0.00064273 0.00000000
0.09032830 0.47139914 0.00189480 0.00000000
2.36035956 1.56300161 0.00137029 0.00000000
2.83717127 1.94368711 0.00282243 0.00000000
0.24214910 1.91736840 -0.00001575 0.00000000
2.66660443 0.91288799 -0.00264301 0.00000000
2.68577782 1.88357684 0.00117299 0.00000000
3.32587167 1.21007796 0.00115228 0.00000000
3.89211897 1.89693865 -0.00061227 0.00000000
1.81213256 1.24429581 0.00251296 0.00000000
1.19034112 1.01510038 -0.00284681 0.00000000
3.74744661 0.03541955 0.00141688 0.00000000
2.58720483 0.19202181 -0.00210644 0.00000000
2.49281897 1.16429351 0.00304190 0.00000000
2.11103748 1.43025185 0.00019612 0.00000000
1.83245929 1.70818258 0.00019639 0.00000000
2.43620997 0.23703484 -0.00066177 0.00000000
1.02579683 0.39556889 0.00430718 0.00000000
1.49026017 0.33462023 0.00003237 0.00000000
1.39045784 0.82390304 0.00214956 0.00000000
3.17516964 0.46815921 0.00598160 0.00000000
0.82599979 0.62419582 -0.00146458 0.00000000
1.67783392 0.65426775 -0.00483518 0.00000000
1.24090045 0.52490849 -0.00319183 0.00000000
3.96353841 1.50649830 -0.00366459 0.00000000
1.60047978 0.25741845 -0.00297806 0.00000000
0.85960733 0.07426005 -0.00197735 0.00000000
2.30669700 1.64129932 0.00116227 0.00000000
0.81717370 1.50044288 0.00089223 0.00000000
2.65924635 1.10283657 0.00042446 0.00000000
3.03070776 0.05101120 0.00042724 0.00000000
1.65630207 1.85557161 -0.00334026 0.00000000
0.57744946 0.74117525 0.00028540 0.00000000
0.84137821 0.62575439 -0.00250918 0.00000000
2.82044610 0.34692462 0.00032594 0.00000000
2.86599990 2.03245797 -0.00448814 0.00000000
1.10212639 1.49878433 -0.00008317 0.00000000
1.84075921 1.49374598 -0.00172935 0.00000000
1.54398611 1.10135806 -0.00062309 0.00000000
3.68389008 1.72654982 0.00070685 0.00000000
1.18499138 0.71802435 -0.00079774 0.00000000
3.57131768 1.71538549 -0.00036960 0.00000000
0.53004001 1.40788363 -0.00086757 0.00000000
1.15006809 1.84699507 -0.00007920 0.00000000
0.77456873 0.45894841 -0.00011582 0.00000000
1.24650418 2.01210824 -0.00383036 0.00000000
1.64014042 0.90966371 0.00200771 0.00000000
1.42390830 0.33098424 0.00043631 0.00000000
2.07596070 1.77177753 0.00304110 0.00000000
2.54898538 0.81448815 0.00131871 0.00000000
3.71138437 0.15977384 0.00078970 0.00000000
0.46870371 1.21879801 -0.00120638 0.00000000
3.51261885 0.44971477 0.00265774 0.00000000
0.59001012 1.82644871 0.00243148 0.00000000
2.52172263 0.09040829 0.00098191 0.00000000
2.74409992 0.66679125 -0.00233731 0.00000000
1.95969186 1.39655965 -0.00251946 0.00000000
2.67737019 1.11567612 0.00033778 0.00000000
1.20416118 1.09875102 0.00336969 0.00000000
3.20440056 0.93150419 0.00048459 0.00000000
0.47948113 1.84146008 -0.00050831 0.00000000
2.20878004 0.84764661 -0.00144495 0.00000000
3.71871352 1.70173960 -0.00311829 0.00000000
0.52047085 1.17970141 -0.00331902 0.00000000
2.68821590 0.67466268 -0.00026224 0.00000000
0.70978546 1.72518472 -0.00063771 0.00000000
1.90404507 1.26803720 -0.00084364 0.00000000
0.63159427 0.07167427 0.00098557 0.00000000
3.05979275 0.72210157 -0.00162045 0.00000000
1.04225632 0.42560254 -0.00075359 0.00000000
3.27064844 0.42726815 -0.00147459 0.00000000
3.69064019 2.00960509 -0.00122358 0.00000000
3.42128770 1.21336512 -0.00111037 0.00000000
1.27211762 1.55329497 -0.00169576 0.00000000
0.20598904 1.61503310 -0.00014837 0.00000000
2.35933027 2.04344757 0.00219944 0.00000000
2.53125269 1.36063392 0.00089813 0.00000000
3.34519143 0.34452366 -0.00551999 0.00000000
0.35502358 0.00511110 0.00073101 0.00000000
1.81181602 1.52977174 -0.00178171 0.00000000
0.21943807 0.07373227 -0.00183154 0.00000000
2.81344682 1.78964977 0.00058102 0.00000000
1.53839711 0.08346995 -0.00083814 0.00000000
2.77054294 0.68244349 0.00209900 0.00000000
0.30089451 1.69279011 0.00591978 0.00000000
1.66587273 1.91940083 -0.00355976 0.00000000
0.44441334 1.86581996 0.00524226 0.00000000
2.90878651 1.29856161 -0.00168510 0.00000000
1.86113331 1.83106932 0.00330521 0.00000000
1.76261025 0.31185433 0.00193477 0.00000000
3.28824561 0.46628211 0.00274701 0.00000000
1.54028881 1.39732628 -0.00565883 0.00000000
1.00221226 1.36275082 -0.00345746 0.00000000
0.82274146 1.86536381 0.00209480 0.00000000
2.57107484 1.09664250 -0.00091258 0.00000000
0.97682723 1.34785079 0.00465733 0.00000000
2.37151594 0.08562181 -0.00323821 0.00000000
1.83907465 0.77164070 0.00561935 0.00000000
1.14164923 0.06446006 -0.00236453 0.00000000
3.68987580 2.00158408 -0.00219495 0.00000000
0.69610414 0.55437841 0.00041495 0.00000000
2.93826133 0.62167272 -0.00143625 0.00000000
3.77724856 2.00479067 -0.00006870 0.00000000
2.74513097 0.01895127 0.00332281 0.00000000
0.98380278 1.96560187 0.00079647 0.00000000
2.84691714 1.83287419 -0.00218768 0.00000000
0.58451007 1.61948099 0.00002679 0.00000000
1.06430073 1.97477056 -0.00319225 0.00000000
0.37717753 1.22940298 -0.00072010 0.00000000
1.58269902 0.00639815 0.00083176 0.00000000
0.26154041 0.88850770 -0.00429936 0.00000000
3.68797112 1.07818863 0.00197879 0.00000000
1.27773411 1.90782339 0.00020936 0.00000000
2.56958897 1.51267100 -0.00016477 0.00000000
0.59681080 1.27858327 -0.00530343 0.00000000
0.07198489 1.99486875 0.00025668 0.00000000
3.10671523 1.94991061 -0.00142823 0.00000000
1.92622974 1.60589756 -0.00179138 0.00000000
3.99726549 1.63510023 0.00171091 0.00000000
2.78854448 1.60005494 0.00091268 0.00000000
3.87962965 0.99536979 -0.00212085 0.00000000
2.92245975 1.56908056 -0.00030290 0.00000000
2.97174232 1.09537505 -0.00083135 0.00000000
0.96858826 1.96444239 0.00028975 0.00000000
2.45303171 0.13945284 0.00168699 0.00000000
3.04763451 1.56311915 -0.00022929 0.00000000
1.99598083 0.75751264 0.00377746 0.00000000
3.71549343 1.44542626 0.00148018 0.00000000
1.37263060 0.90074145 0.00022175 0.00000000
1.89971568 0.20982706 -0.00330872 0.00000000
0.41293310 1.50442787 0.00231443 0.00000000
2.82906852 1.36325811 -0.00271252 0.00000000
0.09029997 1.25910545 -0.00094450 0.00000000
0.25788754 1.82262451 0.00202795 0.00000000
1.73957973 0.31148867 0.00079667 0.00000000
0.23998752 0.68409603 -0.00075831 0.00000000
2.66657750 1.17421143 -0.00217468 0.00000000
3.16072039 0.73644132 -0.00294159 0.00000000
0.53982728 0.14137164 0.00149075 0.00000000
2.47976952 1.98892486 0.00252212 0.00000000
0.45993610 0.59189038 0.00089380 0.00000000
0.86972894 0.74109269 0.00335840 0.00000000
0.32453798 0.42546911 -0.00467355 0.00000000
2.83188860 2.05830682 0.00304344 0.00000000
1.33308281 1.12075495 0.00349422 0.00000000
1.97242114 0.92736412 -0.00086809 0.00000000
0.75565945 1.34484912 -0.00043286 0.00000000
1.51866256 0.97984671 0.00010182 0.00000000
2.53862225 1.32453891 -0.00003404 0.00000000
2.98915881 1.20482806 -0.00161459 0.00000000
2.46408628 1.83605708 -0.00249809 0.00000000
2.76215938 1.26293675 -0.00166373 0.00000000
0.94380811 0.70042073 0.00088610 0.00000000
3.84340342 0.23997093 0.00007474 0.00000000
3.80381995 0.78543007 -0.00088471 0.00000000
0.12173057 0.32441303 0.00073943 0.00000000
1.63254662 1.33819090 -0.00091048 0.00000000
1.30278975 0.06621768 0.00092428 0.00000000
0.17496886 0.67160768 -0.00334677 0.00000000
3.28498173 1.05566308 0.00043314 0.00000000
2.48594793 1.97480919 -0.00340964 0.00000000
1.46094183 0.19907763 0.00189558 0.00000000
0.11338660 0.91480939 -0.00029241 0.00000000
0.03172636 1.84139926 0.00198522 0.00000000
3.18538682 1.50614867 0.00426402 0.00000000
1.58843647 0.26041490 0.00291536 0.00000000
0.49572977 1.09769031 0.00117369 0.00000000
0.90983418 1.37691563 -0.00038422 0.00000000
2.22447646 1.60908844 0.00142200 0.00000000
0.02805869 0.95944981 0.00092833 0.00000000
1.09629883 1.74329728 0.00331351 0.00000000
1.32653443 1.57925870 0.00234191 0.00000000
2.86574861 0.74910164 0.00200333 0.00000000
2.67608300 1.60260960 -0.00089612 0.00000000
1.84091143 0.53980427 -0.00158845 0.00000000
1.27396426 1.61950199 0.00289057 0.00000000
3.54323932 1.16500606 -0.00016443 0.00000000
0.20455770 0.93407467 -0.00133796 0.00000000
0.59348990 1.96246573 0.00192266 0.00000000
3.53506633 0.73546243 0.00047422 0.00000000
3.51216680 0.72080009 -0.00073313 0.00000000
2.59049806 0.26912022 0.00129778 0.00000000
1.15470867 1.30087931 -0.00032056 0.00000000
0.36495915 0.26856994 0.00071131 0.00000000
2.50762079 0.97152530 -0.00280136 0.00000000
1.00780559 1.64758818 -0.00266614 0.00000000
3.27327188 1.90042691 0.00045580 0.00000000
0.29636334 0.95321510 0.00094553 0.00000000
1.98737355 0.73136090 -0.00599377 0.00000000
0.86045104 0.80293988 -0.00107693 0.00000000
0.80219322 0.15432174 -0.00063717 0.00000000
1.91512518 1.52411114 0.00380673 0.00000000
0.96884366 1.84998264 -0.00355025 0.00000000
3.42338333 0.45451304 -0.00079074 0.00000000
3.25382014 1.54682640 0.00008824 0.00000000
1.33709530 1.69249403 -0.00099000 0.00000000
0.22596311 0.12428998 0.00215133 0.00000000
0.59472638 1.83100014 0.00032932 0.00000000
1.84238721 1.79603319 0.00437286 0.00000000
1.18903068 0.79858309 -0.00265361 0.00000000
2.52360273 0.62598251 -0.00081245 0.00000000
1.20518896 0.91696753 -0.00073728 0.00000000
2.33356165 0.16049254 -0.00068721 0.00000000
0.03222649 1.56951449 -0.00179684 0.00000000
3.37657800 0.08100601 -0.00106309 0.00000000
2.73513945 0.50867036 0.00378525 0.00000000
3.52333288 1.41948220 -0.00103063 0.00000000
3.11153701 1.23063284 0.00379483 0.00000000
0.00309507 0.17038312 -0.00234516 0.00000000
3.49066783 0.60680147 0.00103612 0.00000000
3.40981229 0.74295414 -0.00228441 0.00000000
2.26382861 0.57426137 0.00049952 0.00000000
2.71401144 0.09887213 0.00280907 0.00000000
3.57912891 1.43996772 0.00226044 0.00000000
2.45269806 0.13258350 -0.00309620 0.00000000
2.10914933 1.83586615 -0.00295628 0.00000000
1.72049140 0.38919298 -0.00319937 0.00000000
0.81918428 0.56755954 0.00237246 0.00000000
1.41011649 0.33889865 -0.00301983 0.00000000
1.38041663 1.98079894 -0.00253863 0.00000000
2.38909029 1.86215091 -0.00055652 0.00000000
0.61398708 0.37041073 -0.00065610 0.00000000
2.56698874 1.96707788 0.00069108 0.00000000
2.08665136 2.03581252 -0.00012184 0.00000000
4.02996815 0.26219932 0.00360595 0.00000000
1.69901791 0.57107056 -0.00151126 0.00000000
2.07532255 0.91937652 -0.00218428 0.00000000
0.75507915 0.10583862 -0.00161049 0.00000000
0.95407136 1.65158432 -0.00063187 0.00000000
3.51933886 0.70431922 0.00128014 0.00000000
0.14029715 1.62037357 -0.00010435 0.00000000
2.42827613 0.50130631 0.00265745 0.00000000
3.24723966 1.46472824 -0.00105651 0.00000000
0.70603720 1.52654013 0.00020249 0.00000000
3.12445806 0.81496234 0.00308546 0.00000000
1.90377659 1.80670664 0.00097306 0.00000000
3.57739844 0.30343945 0.00057323 0.00000000
2.85317610 1.52978073 -0.00071807 0.00000000
1.90578203 1.27793118 0.00391729 0.00000000
1.68452158 0.50149084 -0.00032030 0.00000000
1.44108514 1.64258881 0.00369467 0.00000000
0.65198105 1.76451030 -0.00189132 0.00000000
2.82935061 2.01924565 0.00045218 0.00000000
3.81239627 0.82729513 -0.00075926 0.00000000
2.10121918 1.26862942 0.00095890 0.00000000
0.52066180 0.14778688 0.00133122 0.00000000
0.67352464 1.92844008 0.00223770 0.00000000
2.71026232 0.39685137 -0.00254720 0.00000000
0.46692510 0.68948460 0.00196208 0.00000000
3.43758850 1.06112796 -0.00052071 0.00000000
3.05238084 1.75352319 -0.00148080 0.00000000
2.01909402 0.96872330 -0.00173069 0.00000000
2.99490896 1.31091476 0.00116285 0.00000000
2.05957275 0.52268077 -0.00296662 0.00000000
1.48250522 1.57857021 -0.00047674 0.00000000
0.99302834 2.05580941 -0.00377691 0.00000000
0.12650732 1.34107356 -0.00562342 0.00000000
1.29843664 1.51017365 -0.00219537 0.00000000
2.28882388 1.06955342 -0.00072399 0.00000000
0.19777759 1.95816500 -0.00018032 0.00000000
3.06810332 0.37245491 -0.00378308 0.00000000
1.36579003 1.57794135 -0.00222838 0.00000000
3.16385381 1.72199063 -0.00349715 0.00000000
0.06440545 1.85330914 -0.00141800 0.00000000
2.83546027 1.42511285 -0.00325902 0.00000000
3.11721403 0.61943882 0.00475183 0.00000000
0.90428254 1.20127343 -0.00099314 0.00000000
2.28373554 1.15610794 0.00283905 0.00000000
3.77829790 1.65819239 -0.00335860 0.00000000
1.84179757 1.95632080 0.00245576 0.00000000
3.01101945 1.47183317 0.00052303 0.00000000
0.88771617 0.45128369 -0.00166929 0.00000000
0.42124295 1.10544369 0.00052813 0.00000000
1.31423934 1.32617942 0.00287474 0.00000000
1.71235333 1.91126727 -0.00201559 0.00000000
0.54266339 1.64086750 -0.00017408 0.00000000
1.39534861 0.16778067 0.00053872 0.00000000
3.25478351 1.98237085 0.00201890 0.00000000
1.54216124 2.03823635 0.00190422 0.00000000
3.91877049 0.84913556 0.00082826 0.00000000
3.51808978 0.19126778 0.00393220 0.00000000
3.49619487 1.15255980 0.00115913 0.00000000
2.89951011 0.20397012 -0.00324752 0.00000000
0.23562054 0.80888922 0.00380428 0.00000000
0.92543768 1.64398338 -0.00222696 0.00000000
2.94266743 0.44629985 -0.00437217 0.00000000
0.00651152 0.21159401 -0.00153733 0.00000000
2.45793366 0.71937246 -0.00204705 0.00000000
1.34291898 1.17737193 0.00118689 0.00000000
1.17521970 1.76604617 -0.00345154 0.00000000
1.93878726 1.80730761 -0.00196022 0.00000000
0.92907092 0.63903409 0.00015599 0.00000000
0.88100288 1.93190255 -0.00116195 0.00000000
2.66413261 0.24285095 -0.00271775 0.00000000
3.95500854 1.63123897 0.00377192 0.00000000
3.43136307 1.88159336 0.00233652 0.00000000
1.52269765 1.27932189 0.00154880 0.00000000
0.45860980 1.13957932 0.00071768 0.00000000
2.84517927 1.03887439 -0.00182939 0.00000000
3.78789653 2.02073192 -0.00160366 0.00000000
1.35565522 1.70119973 -0.00319942 0.00000000
1.75348114 0.59606259 0.00252116 0.00000000
1.53295132 1.20723567 0.00179885 0.00000000
2.22931980 0.89948351 0.00137591 0.00000000
1.36909837 1.89529029 -0.00271226 0.00000000
2.37880555 1.13150112 -0.00216656 0.00000000
0.95637076 1.07163727 -0.00407805 0.00000000
3.99427159 1.47262480 0.00217466 0.00000000
1.86513558 0.54829805 0.00079373 0.00000000
1.28475420 0.82493901 -0.00250085 0.00000000
3.75617419 1.08750247 -0.00302162 0.00000000
3.22928561 1.66612585 0.00204507 0.00000000
2.88173729 1.05677433 0.00233739 0.00000000
1.73905689 1.35000398 -0.00048574 0.00000000
2.36495343 1.00956742 0.00089156 0.00000000
1.05434316 0.54169565 -0.00369905 0.00000000
2.93732525 0.38411456 -0.00018027 0.00000000
1.40813960 0.22094703 -0.00453942 0.00000000
1.08205901 1.77240476 -0.00039112 0.00000000
3.80296755 1.43490866 0.00095793 0.00000000
2.40730375 0.38280027 -0.00149445 0.00000000
2.19490519 1.09905343 -0.00130904 0.00000000
2.55524241 2.03338395 0.00210825 0.00000000
1.17520283 2.01527328 0.00007861 0.00000000
2.69111109 1.25617855 0.00028235 0.00000000
2.24057968 1.87303782 -0.00325661 0.00000000
0.65436986 0.30008627 0.00385941 0.00000000
0.98778120 1.41809553 -0.00387578 0.00000000
2.73601032 0.19510686 0.00240135 0.00000000
1.50759095 1.03799021 -0.00275875 0.00000000
3.53209676 1.59398990 -0.00102549 0.00000000
0.36516262 0.54207966 0.00068771 0.00000000
2.20085854 1.48656689 0.00006806 0.00000000
1.06286166 0.09460859 0.00537864 0.00000000
3.66673249 1.56890455 -0.00589573 0.00000000
1.63853769 0.90990841 -0.00125088 0.00000000
0.64645406 1.53761153 -0.00094379 0.00000000
0.43517971 0.05756156 -0.00201171 0.00000000
1.73256458 0.62192776 0.00254758 0.00000000
3.26992677 0.15930000 -0.00003384 0.00000000
1.60080503 1.20280879 0.00190852 0.00000000
1.27118387 0.09227924 0.00192056 0.00000000
3.40166664 0.82000351 0.00089852 0.00000000
0.99212105 1.83952467 0.00071900 0.00000000
0.87096865 0.00319273 0.00511933 1.00000000
4.01757105 -0.00174511 -0.00076978 1.00000000
1.81000906 0.00052402 -0.00240107 1.00000000
3.54138623 -0.00052608 0.00354414 1.00000000
1.94616409 -0.00622082 0.00299198 1.00000000
0.05819937 -0.00020586 0.00081601 1.00000000
