2.07267943 0.29578242 0.00035666 0.00000000
2.83273516 1.40696953 0.00116303 0.00000000
0.17495360 0.11217646 -0.00124746 0.00000000
3.96751089 0.40339084 0.00165091 0.00000000
2.99639874 0.20415574 0.00765600 0.00000000
1.28629556 2.05943779 0.00402391 0.00000000
2.41895867 1.24360973 0.00146383 0.00000000
0.35415550 1.17451520 -0.00252247 0.00000000
2.41307286 1.10232124 0.00223808 0.00000000
4.63636889 0.64219735 -0.00017596 0.00000000
2.91649798 0.62610614 0.00149760 0.00000000
0.63147747 1.98712946 0.00149091 0.00000000
0.08334794 0.90425682 0.00066130 0.00000000
3.62714712 0.78519780 -0.00333615 0.00000000
0.81219865 1.66197081 0.00237087 0.00000000
3.88238132 1.60786351 0.00423139 0.00000000
1.02100261 1.12634465 -0.00272247 0.00000000
3.27895965 0.39107330 0.00242667 0.00000000
3.03911047 0.14720046 -0.00501671 0.00000000
4.78670391 0.99419029 0.00259669 0.00000000
2.47989037 0.36589508 -0.00338958 0.00000000
3.79411523 1.10335262 -0.00028988 0.00000000
0.13868118 0.31259665 0.00045868 0.00000000
2.25213268 0.80209164 0.00141937 0.00000000
1.04775251 1.70998108 -0.00088047 0.00000000
1.30253490 1.48407944 0.00217051 0.00000000
3.00873327 1.44385652 0.00005020 0.00000000
1.62891078 1.01303745 0.00215661 0.00000000
1.45793411 0.99063971 -0.00045488 0.00000000
0.19726042 1.17261998 0.00253618 0.00000000
1.66678942 1.75211890 -0.00098738 0.00000000
1.77137424 0.03865302 -0.00244327 0.00000000
1.19646806 0.87120419 0.00002430 0.00000000
0.72225254 0.10864615 -0.00197440 0.00000000
1.22430564 1.79199352 0.00441876 0.00000000
2.75028209 1.49685721 -0.00217626 0.00000000
0.21057727 0.07565979 0.00221218 0.00000000
2.73103949 1.49180942 -0.00078168 0.00000000
3.38666617 0.80459262 -0.00048253 0.00000000
3.88900622 0.27096341 -0.00062530 0.00000000
4.11460333 0.66387826 0.00281028 0.00000000
4.32779302 0.03766285 -0.00238622 0.00000000
2.92451477 0.02590705 0.00400487 0.00000000
0.57255342 1.08590627 0.00015499 0.00000000
4.17957968 0.95013753 -0.00113241 0.00000000
4.62751179 0.07162030 0.00213102 0.00000000
2.40112730 1.23441380 -0.00186672 0.00000000
3.98373570 0.66926496 -0.00140514 0.00000000
2.38221887 0.27890207 0.00175721 0.00000000
4.31863818 2.00474075 0.00418272 0.00000000
4.10831288 1.93715820 -0.00292151 0.00000000
1.79399895 0.30311676 0.00225668 0.00000000
2.60193073 2.02920237 -0.00111033 0.00000000
1.90322167 0.38870055 -0.00019076 0.00000000
0.05166858 1.12995097 0.00481288 0.00000000
1.56461400 0.50464407 -0.00032548 0.00000000
1.46637601 0.59424779 -0.00037255 0.00000000
2.11734901 0.38191598 -0.00085424 0.00000000
4.29020338 1.16705276 0.00310368 0.00000000
4.68232960 1.46103758 -0.00387870 0.00000000
1.44278704 1.66718175 -0.00066790 0.00000000
3.51494996 1.38816417 0.00290246 0.00000000
3.91770960 1.52108309 0.00248838 0.00000000
1.70172345 1.08183588 0.00303443 0.00000000
1.42048117 0.78606542 0.00110187 0.00000000
3.82545013 0.27504547 0.00051470 0.00000000
4.08967723 1.15911722 0.00010981 0.00000000
3.91292903 1.37269132 0.00327504 0.00000000
2.16855935 0.68835998 -0.00019438 0.00000000
1.95967532 0.75398997 -0.00293932 0.00000000
0.22428201 1.21944971 0.00107557 0.00000000
2.39074369 2.01246480 0.00123496 0.00000000
2.37161400 0.09967954 0.00352809 0.00000000
3.83686103 1.78791538 0.00042700 0.00000000
2.48787136 0.69772584 -0.00391833 0.00000000
2.22084877 1.45607997 0.00040038 0.00000000
2.58000686 1.33043582 -0.00396717 0.00000000
4.80956203 0.05477389 0.00248015 0.00000000
1.92474552 0.67171549 0.00324605 0.00000000
0.57675031 1.62383205 0.00103016 0.00000000
3.42110200 0.62639319 -0.00069184 0.00000000
2.26181756 1.24298737 0.00318054 0.00000000
3.79058972 0.92371077 0.00029495 0.00000000
3.38071925 0.87645362 0.00303468 0.00000000
2.79529391 0.73791050 0.00009082 0.00000000
2.12518182 1.56725517 -0.00234291 0.00000000
2.00021970 0.25355973 0.00098810 0.00000000
1.50539260 0.62337208 -0.00029327 0.00000000
3.20682056 1.94997763 -0.00101980 0.00000000
0.66269791 0.36154774 -0.00307671 0.00000000
1.24491808 0.19528502 0.00009095 0.00000000
4.66756412 0.54445490 0.00354330 0.00000000
2.28034299 1.38818598 0.00124806 0.00000000
1.82123042 1.68655398 0.00633853 0.00000000
2.52719520 1.93412297 -0.00471938 0.00000000
1.06056907 1.75488061 -0.00189105 0.00000000
2.30493336 1.84240103 0.00493385 0.00000000
1.23362679 2.00505822 -0.00131131 0.00000000
4.24837863 1.48778721 0.00209541 0.00000000
3.14676592 0.11626280 -0.00260471 0.00000000
0.33872704 0.19715914 0.00118486 0.00000000
3.59271972 1.51847524 -0.00076421 0.00000000
1.00533501 0.11600105 0.00101840 0.00000000
0.66565784 0.24401063 -0.00112184 0.00000000
1.51949518 1.35793875 -0.00039446 0.00000000
0.68858551 1.93519684 0.00437821 0.00000000
2.41872021 1.29377497 -0.00206772 0.00000000
1.39602035 1.30511249 0.00250132 0.00000000
3.26108104 0.15321404 0.00008490 0.00000000
1.08458641 1.19266481 0.00039704 0.00000000
3.04291167 1.87707831 -0.00002308 0.00000000
3.01328926 1.48133840 0.00111636 0.00000000
2.33811129 1.15089465 -0.00209508 0.00000000
0.61949800 1.24340146 -0.00344707 0.00000000
3.63530644 1.85743118 -0.00394281 0.00000000
0.50125078 1.64253565 0.00051540 0.00000000
1.02646989 2.02449603 -0.00262041 0.00000000
0.68084149 1.28781886 -0.00106988 0.00000000
2.90057806 0.89992210 -0.00095966 0.00000000
3.99037779 0.18822424 -0.00442671 0.00000000
3.29991134 1.71444966 -0.00099267 0.00000000
4.55321405 2.05759129 -0.00531010 0.00000000
4.85021135 1.46154049 0.00037247 0.00000000
1.68969140 1.08126800 -0.00087735 0.00000000
4.34433161 0.57593036 -0.00024560 0.00000000
4.47238143 2.02330891 -0.00544791 0.00000000
0.13789847 1.68350643 -0.00396677 0.00000000
1.76200277 0.58141443 -0.00317026 0.00000000
2.41674613 0.34770768 -0.00282865 0.00000000
0.36227977 0.22569719 0.00432078 0.00000000
0.39410554 0.21211305 0.00122729 0.00000000
1.95051089 1.95803580 -0.00075018 0.00000000
2.93529751 0.73226059 0.00147927 0.00000000
4.37430764 1.30059004 0.00437372 0.00000000
3.22391097 0.97565958 -0.00472988 0.00000000
2.26718766 0.04706209 -0.00272955 0.00000000
2.15370921 0.80108914 0.00069781 0.00000000
0.64056030 0.10562067 0.00107201 0.00000000
2.09633931 1.50458515 -0.00166667 0.00000000
0.47811456 1.24886698 0.00428316 0.00000000
1.93649206 1.09078415 -0.00124783 0.00000000
4.14764384 1.65619270 -0.00402690 0.00000000
1.75914342 1.48497701 0.00011189 0.00000000
0.69862825 1.14961448 -0.00069569 0.00000000
3.16155826 0.07797375 0.00350703 0.00000000
1.45158141 1.03859363 -0.00202052 0.00000000
4.44267784 1.57036146 0.00112073 0.00000000
3.17247314 1.64444648 0.00268268 0.00000000
3.49037157 0.84608684 0.00257494 0.00000000
3.73458925 0.52855439 -0.00264639 0.00000000
1.16545592 1.79589945 0.00210022 0.00000000
4.56514480 0.60252927 -0.00268847 0.00000000
4.81469918 0.83405317 -0.00020731 0.00000000
2.30114619 1.82271542 -0.00224936 0.00000000
3.16308149 0.50303906 0.00014303 0.00000000
3.35072949 1.19063317 -0.00202751 0.00000000
3.38777996 1.65038964 0.00217342 0.00000000
4.16342715 0.22277549 -0.00000638 0.00000000
2.34624815 1.03108963 -0.00019853 0.00000000
0.04401539 1.10893163 0.00421355 0.00000000
0.78560443 0.39455339 0.00037260 0.00000000
3.40075698 1.32532706 0.00378563 0.00000000
1.97876577 1.73411340 -0.00270588 0.00000000
4.91853657 1.77308973 -0.00061668 0.00000000
0.34415906 0.96098423 0.00429757 0.00000000
0.08257214 1.42649424 -0.00379593 0.00000000
2.53862168 1.00200742 0.00122278 0.00000000
0.59303226 0.89380143 -0.00343064 0.00000000
2.69164069 0.21426758 -0.00323156 0.00000000
0.82277998 0.09672055 -0.00124742 0.00000000
2.09504730 1.36658740 0.00191319 0.00000000
4.26969074 0.00577484 -0.00253331 0.00000000
2.56152217 1.95843691 -0.00527886 0.00000000
0.84795171 0.41688382 0.00169698 0.00000000
2.92345585 1.33717832 -0.00236240 0.00000000
0.37363094 0.36745504 -0.00111825 0.00000000
0.40643272 0.22854489 -0.00225236 0.00000000
1.23469209 0.16276570 -0.00155030 0.00000000
2.51713288 1.48336417 0.00052186 0.00000000
0.99727426 0.08980925 -0.00182683 0.00000000
0.71069390 0.26120451 0.00049564 0.00000000
1.49008599 0.25696018 0.00054530 0.00000000
0.81442732 0.24978346 0.00018317 0.00000000
0.33128222 2.06647140 -0.00175365 0.00000000
0.42407033 0.12632696 -0.00239197 0.00000000
4.73048394 1.49575824 0.00306343 0.00000000
3.85598481 2.03076923 -0.00188978 0.00000000
4.43593915 0.91299292 0.00347364 0.00000000
0.91526420 0.27375330 0.00003250 0.00000000
3.94434329 0.17687082 -0.00150136 0.00000000
4.23036907 1.44613630 0.00172373 0.00000000
1.01329888 1.31256979 -0.00055971 0.00000000
2.74697549 0.99194615 -0.00047033 0.00000000
4.45507093 1.48308151 -0.00345221 0.00000000
4.10367976 1.13301020 -0.00136027 0.00000000
1.17791575 1.53544644 0.00056437 0.00000000
0.75584083 0.39492756 -0.00146366 0.00000000
2.36276035 1.52963265 -0.00187256 0.00000000
4.60648792 1.45188158 -0.00078496 0.00000000
3.52899977 0.39273967 0.00468659 0.00000000
1.67705316 0.89206703 0.00118728 0.00000000
3.31742829 1.27750201 0.00225057 0.00000000
2.91321503 0.34954820 0.00370889 0.00000000
3.43058945 1.67938144 -0.00167978 0.00000000
1.14441848 0.51160342 -0.00311688 0.00000000
2.34431983 1.96375444 -0.00043763 0.00000000
4.03751186 1.37648369 -0.00293252 0.00000000
4.21315025 1.53065227 -0.00080580 0.00000000
0.67319323 1.41858143 -0.00259035 0.00000000
1.08166629 0.57430381 0.00264757 0.00000000
3.21388583 1.67421942 0.00053773 0.00000000
4.71857132 0.62099876 -0.00536090 0.00000000
2.88910725 0.98364422 0.00051062 0.00000000
4.75970555 0.60153660 -0.00081042 0.00000000
2.86547607 1.69075266 -0.00229338 0.00000000
2.81184606 1.34467921 -0.00034727 0.00000000
1.47823638 1.49093247 -0.00506462 0.00000000
3.46321595 0.32753930 0.00557400 0.00000000
1.45853868 1.51995894 0.00307067 0.00000000
3.66389980 1.75793044 -0.00289079 0.00000000
1.62722904 0.47337642 -0.00547114 0.00000000
3.91307363 1.87836969 -0.00333283 0.00000000
1.96778350 2.03620818 0.00105272 0.00000000
4.89054682 1.78736153 -0.00044969 0.00000000
1.82251244 1.46845185 -0.00172816 0.00000000
0.11657916 0.77907727 -0.00023030 0.00000000
0.76108523 2.03554645 0.00207286 0.00000000
2.46767375 1.23475915 0.00019331 0.00000000
0.59094896 1.04029713 -0.00067074 0.00000000
2.26314706 0.17512895 -0.00208594 0.00000000
2.78575577 1.88707003 0.00022663 0.00000000
1.13179272 1.29454163 0.00209241 0.00000000
4.14475785 2.02231676 0.00249203 0.00000000
2.96299807 1.35406839 -0.00267502 0.00000000
4.78067824 0.40457051 0.00457837 0.00000000
3.96229257 0.20602657 0.00043516 0.00000000
3.73545532 0.99097832 0.00189864 0.00000000
0.24676778 0.35275763 0.00106655 0.00000000
1.90106026 1.02481227 -0.00147386 0.00000000
3.88799607 1.11575174 0.00291982 0.00000000
0.56496612 1.00137305 0.00017816 0.00000000
4.18641340 1.85825467 0.00062339 0.00000000
4.21932761 1.61736946 0.00017677 0.00000000
3.69331589 0.38618118 -0.00025790 0.00000000
3.88238133 1.64499722 -0.00011466 0.00000000
4.78440347 0.70367958 -0.00377363 0.00000000
3.77814681 1.59341351 0.00124414 0.00000000
1.56333137 0.21735691 0.00073554 0.00000000
3.83165748 0.16131896 -0.00364707 0.00000000
4.68106889 1.59522936 -0.00187346 0.00000000
4.64509761 2.06545355 0.00010375 0.00000000
2.66559288 1.03619958 0.00178326 0.00000000
1.31577230 0.37986355 0.00226179 0.00000000
1.24628766 0.23859786 -0.00337499 0.00000000
2.74955792 1.74779017 0.00252851 0.00000000
4.13066210 0.64021590 0.00078954 0.00000000
2.31219778 2.01416696 0.00428797 0.00000000
2.71988435 1.17712910 -0.00101285 0.00000000
3.34608697 0.80333701 0.00080032 0.00000000
0.29315768 1.05705161 -0.00121359 0.00000000
0.00656601 0.51499588 0.00358397 0.00000000
1.06971433 0.23742569 -0.00078511 0.00000000
2.49749508 0.15115418 0.00023746 0.00000000
3.64671321 0.23744086 0.00234662 0.00000000
1.69095326 0.73367004 -0.00235896 0.00000000
0.31036369 1.95608953 -0.00226949 0.00000000
3.27547054 0.20963546 0.00344431 0.00000000
2.52141776 0.31671923 -0.00032393 0.00000000
1.39781010 0.82334527 0.00248322 0.00000000
2.41320144 1.86489896 -0.00291276 0.00000000
0.26949732 2.04388127 0.00030857 0.00000000
4.56295912 1.13509757 0.00143072 0.00000000
0.29803571 0.89699674 -0.00161081 0.00000000
3.46130285 1.12893631 0.00107699 0.00000000
4.74013054 2.06530669 -0.00397916 0.00000000
4.89988666 0.06153346 -0.00131685 0.00000000
3.35686329 1.00573976 0.00016814 0.00000000
4.32182254 0.48520445 -0.00138039 0.00000000
3.44037796 0.53170519 0.00214166 0.00000000
3.46201110 0.23753702 0.00162136 0.00000000
2.66746592 0.65251598 -0.00029281 0.00000000
0.69581586 1.57657097 -0.00417370 0.00000000
0.05171536 1.47664953 0.00027540 0.00000000
1.45518479 1.27241765 -0.00076964 0.00000000
3.68767821 0.96406575 0.00067166 0.00000000
1.62804903 1.19091411 0.00175112 0.00000000
1.37086772 1.51645614 0.00327206 0.00000000
1.34742744 0.43942385 -0.00206253 0.00000000
3.32213541 2.02131662 -0.00366203 0.00000000
0.29781384 0.89445604 0.00102058 0.00000000
3.10013371 1.16282591 0.00183150 0.00000000
2.87095775 0.32451123 -0.00491068 0.00000000
1.27113019 1.92644001 -0.00320405 0.00000000
0.12212627 1.50462036 0.00691175 0.00000000
3.17072200 1.00913381 -0.00070726 0.00000000
2.97336152 0.24334145 0.00199851 0.00000000
3.37586129 0.54209109 0.00220072 0.00000000
4.70932025 0.23741574 0.00282870 0.00000000
1.32173092 0.50159652 -0.00196895 0.00000000
4.30411599 0.89843758 0.00148404 0.00000000
2.78701135 0.37398878 0.00397511 0.00000000
1.48696182 0.93807546 0.00094737 0.00000000
2.63067257 1.59396100 0.00071684 0.00000000
1.15928208 0.63247278 -0.00040384 0.00000000
2.78656107 1.06327816 0.00317813 0.00000000
3.08423719 1.33220204 0.00001366 0.00000000
3.39203721 0.18081310 0.00018956 0.00000000
4.07980532 1.27062698 0.00103688 0.00000000
3.64947240 1.27738437 -0.00418756 0.00000000
0.69428795 0.30702074 0.00054034 0.00000000
1.88245234 1.17017694 -0.00139157 0.00000000
1.57212703 1.13487814 0.00197791 0.00000000
2.32801149 0.43229956 0.00154771 0.00000000
3.69105500 1.45970493 0.00390122 0.00000000
4.24604091 0.69135818 -0.00631169 0.00000000
1.90325722 1.44213192 0.00079152 0.00000000
1.02004180 1.14753390 0.00057638 0.00000000
3.71782816 0.55641015 -0.00182011 0.00000000
0.98476397 0.30026969 0.00017383 0.00000000
3.37545966 0.20735624 -0.00135520 0.00000000
2.99887181 0.54839252 -0.00216498 0.00000000
4.48008067 1.74424933 -0.00457677 0.00000000
2.36296423 1.12404433 -0.00201967 0.00000000
1.36971345 1.04372419 0.00245025 0.00000000
1.02762918 1.01876573 -0.00350688 0.00000000
0.26513857 0.14815391 0.00307232 0.00000000
0.13746300 1.09180524 0.00012994 0.00000000
3.50495193 1.26908002 0.00054807 0.00000000
4.36795714 0.37464141 -0.00250023 0.00000000
0.98810443 1.17485029 -0.00269485 0.00000000
4.46508219 0.89180510 -0.00183559 0.00000000
1.65629104 0.96559758 0.00080188 0.00000000
1.37088013 0.72603335 0.00305434 0.00000000
0.13656206 1.61721634 0.00045117 0.00000000
4.77850370 0.92953108 0.00097018 0.00000000
1.69687486 1.15827012 -0.00344683 0.00000000
2.81155049 1.46571746 -0.00350750 0.00000000
3.82639075 1.67508681 -0.00075953 0.00000000
4.31217423 2.01773031 0.00176917 0.00000000
3.09276886 0.34913673 0.00115609 0.00000000
0.31548757 1.87673770 -0.00039143 0.00000000
0.52028968 1.18877413 0.00269989 0.00000000
4.41460161 1.96352660 0.00050248 0.00000000
3.21782921 0.90245443 0.00485915 0.00000000
0.31527772 1.58982618 0.00032626 0.00000000
0.07883297 0.45570653 0.00114134 0.00000000
0.57127880 0.66786006 0.00412497 0.00000000
3.58176030 0.98322915 -0.00123323 0.00000000
2.20511328 0.62542112 0.00191739 0.00000000
4.20736845 1.10243965 0.00047196 0.00000000
0.51450973 1.66863029 -0.00275938 0.00000000
1.81309842 1.56568783 0.00322695 0.00000000
2.20329762 0.86303993 -0.00105027 0.00000000
3.52944137 1.59938754 0.00001214 0.00000000
2.32702550 1.18777864 -0.00193671 0.00000000
0.62998273 0.24591074 0.00140094 0.00000000
1.43163112 0.28793636 -0.00103651 0.00000000
4.75876122 1.60164397 0.00237884 0.00000000
0.55158020 1.11561915 0.00389770 0.00000000
4.71133806 1.08849620 0.00117173 0.00000000
2.87253612 0.04161120 0.00262517 0.00000000
1.16866026 1.15410680 0.00206917 0.00000000
2.42062177 1.68157741 0.00228251 0.00000000
1.71178334 1.89444576 -0.00355891 0.00000000
4.22512585 0.51655259 -0.00212080 0.00000000
4.90183536 1.40892041 -0.00008867 0.00000000
4.81447686 0.51545175 -0.00085138 0.00000000
3.86435329 0.59099445 0.00006187 0.00000000
0.57365749 1.32346607 -0.00062203 0.00000000
0.20236702 1.37395552 0.00072622 0.00000000
2.56909475 0.71069677 0.00234621 0.00000000
2.91436774 1.13895003 -0.00205909 0.00000000
2.22564855 1.84304797 0.00139885 0.00000000
2.17698195 1.88087549 0.00090375 0.00000000
1.63453573 1.84938506 -0.00175947 0.00000000
3.66097676 0.26346920 0.00144043 0.00000000
2.82362835 2.04754132 0.00287173 0.00000000
2.10230733 0.27666019 0.00308138 0.00000000
3.33088419 1.90727168 -0.00179407 0.00000000
4.44614149 1.12038973 0.00235627 0.00000000
4.73994552 0.55638319 -0.00265736 0.00000000
1.07491305 0.91030734 -0.00098598 0.00000000
0.34037904 1.81036742 0.00065807 0.00000000
1.93051424 0.09638499 0.00012807 0.00000000
4.53775260 1.61256064 0.00206102 0.00000000
2.14565001 0.88144743 -0.00260950 0.00000000
2.70381574 0.15690137 0.00065435 0.00000000
1.70186396 1.55465162 -0.00229334 0.00000000
1.67553401 2.03816841 0.00007838 0.00000000
3.63961302 0.47457369 0.00147519 0.00000000
3.78461651 1.39482969 -0.00290502 0.00000000
3.32109963 1.85702115 -0.00034768 0.00000000
4.13194568 0.38413181 0.00340222 0.00000000
1.97396022 1.04135945 -0.00316413 0.00000000
3.43026201 1.03019460 0.00291860 0.00000000
0.95225333 0.17199137 -0.00163480 0.00000000
0.45896802 1.97856305 -0.00025716 0.00000000
4.03225604 0.72232772 0.00305155 0.00000000
2.77310590 0.24305591 -0.00111851 0.00000000
1.88720206 0.89957985 0.00041009 0.00000000
1.34056877 0.55366012 -0.00083855 0.00000000
1.39128653 0.92493618 -0.00162080 0.00000000
3.25681459 0.20052063 0.00201218 0.00000000
0.24105674 0.86267282 0.00175489 0.00000000
1.11660265 0.00736778 -0.00035743 0.00000000
1.04856814 0.92775032 0.00090480 0.00000000
1.77123359 0.13792188 -0.00078406 0.00000000
4.30931912 1.76625739 -0.00066318 0.00000000
3.77708360 1.99417386 -0.00092714 0.00000000
0.95226797 1.94426244 -0.00289416 0.00000000
1.48293200 0.40584601 -0.00332587 0.00000000
2.32512655 0.33034220 -0.00285418 0.00000000
3.79821618 0.34898152 0.00390056 0.00000000
2.65886731 1.90910194 -0.00281193 0.00000000
1.87793264 2.02598551 -0.00540512 0.00000000
2.79814818 0.87552387 -0.00031593 0.00000000
0.00135344 2.06745182 -0.00145275 0.00000000
4.86438728 0.23235454 0.00172289 0.00000000
1.51933623 0.14168814 -0.00003434 0.00000000
4.16315219 0.10426890 0.00001537 0.00000000
1.24985019 1.42414431 0.00057081 0.00000000
1.22658026 0.55980490 -0.00085808 0.00000000
3.15008694 0.31657005 0.00311851 0.00000000
0.77250143 0.00445453 -0.00114595 0.00000000
3.21240911 1.87528416 0.00320637 0.00000000
3.54724476 1.19370237 0.00278681 0.00000000
4.61237478 2.02272226 -0.00065484 0.00000000
0.29488908 2.02082287 -0.00201432 0.00000000
1.34923042 0.37937160 -0.00123304 0.00000000
3.27156024 0.40410305 0.00197730 0.00000000
4.15625789 1.87322022 -0.00070877 0.00000000
1.11974642 1.06175232 -0.00236013 0.00000000
0.03150405 0.54877768 0.00710283 0.00000000
0.29946787 1.00730792 -0.00031014 0.00000000
0.36478280 0.80270865 0.00497598 0.00000000
2.45440854 1.48798450 -0.00200260 0.00000000
4.24148241 1.78266857 0.00049343 0.00000000
0.00502122 0.43800772 -0.00282305 0.00000000
2.91785110 0.05149432 0.00065569 0.00000000
3.52883173 0.75287987 0.00047477 0.00000000
1.79926560 0.46322273 -0.00094584 0.00000000
4.04591117 0.31065500 0.00277290 0.00000000
1.70531032 2.00350935 -0.00517091 0.00000000
4.12470510 0.41345117 0.00314896 0.00000000
3.37531213 1.24589995 0.00081249 0.00000000
4.82940250 1.62772275 0.00128147 0.00000000
0.95321834 0.72381569 -0.00115001 0.00000000
2.77565442 1.91497107 -0.00131731 0.00000000
0.89293539 1.57928947 0.00325744 0.00000000
2.87584166 1.15407423 -0.00077601 0.00000000
1.12091948 1.13847710 0.00332853 0.00000000
0.48979746 0.30555607 -0.00538476 0.00000000
2.29509811 1.86607188 -0.00016248 0.00000000
1.89734079 0.96990817 0.00029345 0.00000000
0.94867929 1.13030913 0.00165856 0.00000000
1.19109767 0.21647820 -0.00021686 0.00000000
4.06201965 1.89174234 0.00111618 0.00000000
2.89684342 1.21930863 0.00015170 0.00000000
2.60102774 0.80991833 0.00021690 0.00000000
4.54309742 1.18433623 -0.00394263 0.00000000
2.94888882 0.60786354 0.00083874 0.00000000
4.87169294 0.39274841 -0.00068920 0.00000000
2.61102583 1.92315160 -0.00627281 0.00000000
3.41633804 0.50676327 -0.00026260 0.00000000
1.33520108 0.79772700 -0.00243930 0.00000000
0.91504111 0.74348502 -0.00445553 0.00000000
1.22775440 0.70270278 0.00210857 0.00000000
0.99814724 1.63745086 0.00135537 0.00000000
1.81977817 1.61954955 -0.00323524 0.00000000
4.82914609 1.55989118 -0.00229444 0.00000000
0.49708365 0.48724863 0.00459065 0.00000000
4.32560372 0.79849679 -0.00194301 0.00000000
4.12178222 0.00730416 0.00148570 0.00000000
1.02434159 0.96691649 -0.00250431 0.00000000
1.74658854 0.19873378 0.00031423 0.00000000
2.23622835 1.25530779 -0.00273620 0.00000000
4.44806824 0.54779190 0.00038440 0.00000000
2.40861141 1.73072696 0.00235193 0.00000000
4.17306903 0.62587399 -0.00240988 0.00000000
1.96697916 0.93307727 -0.00000861 0.00000000
1.38364987 1.67538851 0.00832612 0.00000000
3.05987775 1.13713603 0.00344520 0.00000000
1.38837888 0.58037865 -0.00007523 0.00000000
4.54821308 1.70571664 0.00168761 0.00000000
4.88811486 0.01120054 -0.00218953 0.00000000
3.02911772 0.88550206 -0.00168507 0.00000000
3.00390711 1.77861371 -0.00221449 0.00000000
3.77531425 1.06631170 0.00092978 0.00000000
1.47361883 0.04452671 -0.00194461 0.00000000
4.71572311 0.28109100 -0.00109954 0.00000000
2.30297093 1.91519263 -0.00279072 0.00000000
0.66742402 0.85365680 -0.00219087 0.00000000
4.91121050 1.18102173 -0.00318045 0.00000000
0.54198813 1.42942375 0.00161958 0.00000000
3.96661716 1.71542283 -0.00109018 0.00000000
0.84596716 0.68984536 0.00388560 0.00000000
0.16981794 1.14552622 -0.00483564 0.00000000
0.27327732 1.71233605 -0.00410443 0.00000000
1.75373018 0.77909943 0.00395554 0.00000000
0.63902711 1.39308019 -0.00291728 0.00000000
2.27312330 1.13780996 0.00161117 0.00000000
1.24731365 1.00867375 -0.00350356 0.00000000
3.47301716 1.86249143 -0.00037096 0.00000000
3.15286853 0.34054961 -0.00027331 0.00000000
2.50807812 0.89108981 0.00250880 0.00000000
3.63041390 0.40436386 0.00063831 0.00000000
1.72816642 1.17062030 -0.00522756 0.00000000
1.83096297 0.15616072 -0.00214871 0.00000000
4.70071155 0.86540419 0.00037824 0.00000000
0.42547021 0.61921706 0.00230601 0.00000000
0.27493397 0.05500212 0.00179210 0.00000000
3.55617675 1.80859470 -0.00305669 0.00000000
2.60699132 0.78806282 0.00272030 0.00000000
1.18944663 1.62144189 -0.00185383 0.00000000
1.57411703 0.42551679 0.00288058 0.00000000
4.05863623 1.94646543 0.00076117 0.00000000
0.56574945 0.94463066 -0.00175311 0.00000000
0.81458372 1.86239949 0.00236370 0.00000000
1.83543929 0.77726029 -0.00036704 0.00000000
3.26303587 1.56848277 -0.00235976 0.00000000
4.05572799 0.96861094 0.00206646 0.00000000
4.87631762 1.19543528 0.00091299 0.00000000
1.71617132 1.44145435 -0.00198129 0.00000000
1.46928320 1.98623924 0.00295963 0.00000000
0.54368461 0.63783045 -0.00056734 0.00000000
2.92920722 1.30315725 -0.00135749 0.00000000
1.96518648 0.54267946 0.00010806 0.00000000
4.49040315 0.59340245 -0.00262429 0.00000000
2.48926758 1.27261045 0.00002940 0.00000000
4.73265147 2.06362582 0.00235910 0.00000000
4.88537657 1.12455396 0.00160385 0.00000000
4.09641114 0.35752993 0.00466486 0.00000000
2.58940106 1.62916963 0.00347811 0.00000000
0.56403471 1.50144859 -0.00286794 0.00000000
2.26176447 1.02851656 0.00244898 0.00000000
1.65101338 1.37524976 0.00521812 0.00000000
4.16572668 1.24628539 -0.00075635 0.00000000
1.34362292 1.75844786 -0.00076657 0.00000000
2.89960789 1.19000710 0.00048324 0.00000000
4.83927676 1.02739028 0.00462928 0.00000000
3.84812991 1.20432507 0.00079556 0.00000000
3.66672134 0.35993633 0.00001044 0.00000000
1.78437553 1.35101454 -0.00003592 0.00000000
0.69573756 2.07652746 -0.00574132 0.00000000
3.07528477 1.86551416 0.00599616 0.00000000
0.20148030 1.12341074 -0.00424324 0.00000000
2.28762803 1.12835253 -0.00000868 0.00000000
4.10844730 0.08662528 -0.00142486 0.00000000
2.24706035 1.03680488 -0.00051101 0.00000000
3.34960499 1.47060688 -0.00099881 0.00000000
0.66039366 1.29206201 0.00160959 0.00000000
1.07589680 1.97195819 -0.00386412 0.00000000
0.72549329 1.30301330 0.00584295 0.00000000
4.13720652 0.59221643 -0.00175028 0.00000000
2.99020139 1.99060661 0.00276540 0.00000000
3.82443837 0.09075654 -0.00120019 0.00000000
2.31620871 0.30958021 -0.00082109 0.00000000
4.49190707 0.40636151 0.00542558 0.00000000
0.91827937 0.75362773 -0.00216986 0.00000000
1.96884559 1.29435858 0.00151182 0.00000000
1.01202406 0.77250837 -0.00311776 0.00000000
2.98289219 0.22209646 -0.00081263 0.00000000
4.39241497 1.28060474 0.00054978 0.00000000
4.75018030 1.38693247 0.00293338 0.00000000
2.69133106 0.05417486 0.00134866 0.00000000
1.95880669 1.19845470 0.00064088 0.00000000
1.44124671 0.92305490 0.00520622 0.00000000
4.38122270 0.02443566 -0.00269666 0.00000000
1.33122686 0.19461225 0.00131140 0.00000000
3.49932827 0.65458582 -0.00006751 0.00000000
4.21913016 1.63807139 -0.00046105 0.00000000
0.77320221 0.79752274 0.00152327 0.00000000
2.48751183 0.48939884 0.00379866 0.00000000
4.08373864 1.30854805 -0.00549426 0.00000000
4.23469708 1.38334880 0.00048500 0.00000000
0.16074034 1.04772629 0.00136948 0.00000000
0.86922016 0.69168534 0.00346544 0.00000000
1.02206506 0.85673167 -0.00014174 0.00000000
0.55757716 1.07850489 -0.00197546 0.00000000
3.42390531 1.06377763 0.00101456 0.00000000
0.85027975 0.66617900 -0.00126362 0.00000000
4.59530302 1.74758999 -0.00234645 0.00000000
4.03656026 1.06667659 0.00130455 0.00000000
3.77087590 1.05551499 0.00211863 0.00000000
4.22672619 1.93556436 0.00112648 0.00000000
1.26185484 1.86935146 -0.00021553 0.00000000
1.98955552 1.56542358 -0.00356568 0.00000000
4.17222252 0.17184468 0.00224434 0.00000000
0.89624462 0.43442755 0.00055386 0.00000000
3.16002767 1.48081523 0.00041618 0.00000000
4.09665826 1.73728912 -0.00075689 0.00000000
2.29477358 0.86456314 -0.00114132 0.00000000
4.33540928 1.04352450 0.00162608 0.00000000
2.84476832 1.94955326 -0.00428074 0.00000000
1.14908637 1.43785559 -0.00316679 0.00000000
0.42162458 0.10132088 -0.00111957 0.00000000
1.23213383 0.83949831 -0.00036476 0.00000000
4.82006773 2.04524736 0.00090891 0.00000000
3.11253202 1.23032269 -0.00171084 0.00000000
3.37240459 1.71776716 0.00135491 0.00000000
1.19447234 1.57513269 -0.00058472 0.00000000
1.45483872 0.12142285 0.00064615 0.00000000
4.46380984 1.44172560 -0.00187985 0.00000000
4.54700961 0.74273657 -0.00485605 0.00000000
3.84264414 0.51202708 -0.00017946 0.00000000
0.60967335 0.55128641 -0.00359851 0.00000000
1.95085277 0.27426809 0.00339823 0.00000000
4.00096306 0.19059073 -0.00028518 0.00000000
2.70110969 1.18164501 -0.00121113 0.00000000
4.50062091 2.07621746 -0.00248830 0.00000000
1.82487998 1.41850281 -0.00158409 0.00000000
3.69363970 1.70742714 0.00033817 0.00000000
2.90358243 0.47442505 -0.00075786 0.00000000
4.42008592 0.59922203 -0.00230406 0.00000000
3.88115498 0.27065165 -0.00439716 0.00000000
4.05992449 0.35092761 -0.00298090 0.00000000
1.87951691 0.51860881 0.00168544 0.00000000
4.65282932 1.56988393 -0.00032655 0.00000000
4.66986745 0.44277525 0.00070109 0.00000000
3.76400413 1.92172446 -0.00210157 0.00000000
1.15037036 0.69477190 0.00475157 0.00000000
0.04171644 1.42974410 0.00029275 0.00000000
4.76412011 1.00653632 0.00063117 0.00000000
4.38742917 2.05776352 -0.00423786 0.00000000
1.52626677 1.13598406 0.00197835 0.00000000
1.29087382 1.63084069 -0.00090927 0.00000000
4.58469344 0.90156473 0.00117110 0.00000000
2.48509368 1.72804315 -0.00227840 0.00000000
2.96633197 0.92521744 -0.00184757 0.00000000
0.42365603 1.43867199 0.00099888 0.00000000
1.18433014 1.33348249 -0.00027406 0.00000000
3.38309052 1.17252803 -0.00257339 0.00000000
0.11827034 1.83134001 -0.00108566 0.00000000
2.68489102 0.71182828 -0.00070940 0.00000000
3.00740070 0.60776107 -0.00375166 0.00000000
4.16815483 0.40016442 -0.00163424 0.00000000
2.04619081 1.37382491 0.00101992 0.00000000
2.77238540 1.02298359 0.00182716 0.00000000
0.70058189 0.73158839 -0.00329255 0.00000000
0.81417217 1.46372485 0.00057710 0.00000000
3.93421295 0.37935911 0.00141058 0.00000000
0.00669595 2.06229098 0.00028692 0.00000000
2.52072520 1.07764895 -0.00195771 0.00000000
1.48166156 1.81970387 -0.00136768 0.00000000
1.52550093 0.20585686 -0.00369307 0.00000000
4.84865738 1.53450987 0.00671038 0.00000000
2.94652293 0.43499972 0.00070052 0.00000000
0.14245235 1.77151025 0.00426219 0.00000000
2.18975744 1.48148083 -0.00093171 0.00000000
1.35303379 1.49583371 -0.00082859 0.00000000
3.32705833 1.18615375 -0.00267229 0.00000000
0.06429798 0.67682167 -0.00026571 0.00000000
3.48606024 0.69833983 -0.00151892 0.00000000
3.90552272 0.31490238 -0.00073548 0.00000000
4.64944058 1.41308923 0.00231731 0.00000000
3.79358964 1.46498627 -0.00313638 0.00000000
2.87501866 0.21021805 -0.00470936 0.00000000
0.64964259 1.65302664 0.00389132 0.00000000
2.45018123 0.06261283 0.00259232 0.00000000
0.37550688 1.92791270 -0.00012656 0.00000000
4.22749987 0.10531307 0.00522036 0.00000000
3.91710962 2.03810003 -0.00286119 0.00000000
0.00423547 1.68038702 -0.00368862 0.00000000
0.94751991 1.77458405 -0.00104581 0.00000000
3.51598236 0.69017618 0.00175595 0.00000000
3.95869657 1.05070528 0.00014084 0.00000000
2.16279785 1.54129356 -0.00235314 0.00000000
1.57210513 0.02365985 0.00112565 0.00000000
2.11261690 1.27172960 0.00439150 0.00000000
0.18627403 1.61284411 0.00011805 0.00000000
3.86874805 0.89213108 0.00060904 0.00000000
3.84225518 1.80701733 0.00479465 0.00000000
2.69488214 0.47514753 -0.00335068 0.00000000
4.50198279 1.69336480 0.00281769 0.00000000
2.63709490 1.19925087 0.00247325 0.00000000
0.62739748 0.78519841 0.00170809 0.00000000
4.77633140 0.13240283 -0.00261049 0.00000000
0.78004252 0.85039920 -0.00290010 0.00000000
0.83376530 1.10297406 0.00074875 0.00000000
4.79349729 1.71033004 0.00028915 0.00000000
3.43545134 1.08437277 0.00486025 0.00000000
1.84745713 0.41322684 -0.00008046 0.00000000
0.37570823 2.01771355 0.00061438 0.00000000
3.18172287 0.17358075 -0.00565037 0.00000000
2.79248155 1.74384730 -0.00100996 0.00000000
2.47998026 1.18165392 -0.00081588 0.00000000
1.10817939 0.44125717 0.00350564 0.00000000
2.97059427 1.69736173 -0.00219373 0.00000000
0.77001300 1.86958403 -0.00132022 0.00000000
2.81066013 0.70340561 0.00442538 0.00000000
3.05866452 0.01939804 0.00170045 0.00000000
1.00446637 2.07798688 0.00166265 0.00000000
1.51022629 0.07112486 0.00024403 0.00000000
2.31936445 0.15261614 -0.00096695 0.00000000
3.87951372 0.24187091 -0.00265817 0.00000000
4.56789602 0.42631969 0.00200536 0.00000000
3.90821842 0.52614959 0.00260869 0.00000000
1.11837191 0.15790727 0.00102752 0.00000000
0.99761548 0.35480049 0.00068271 0.00000000
2.37428902 0.35757605 0.00100544 0.00000000
2.41480683 0.81304538 0.00270202 0.00000000
0.45067150 0.69803365 -0.00008275 0.00000000
0.28916004 1.65835374 -0.00114540 0.00000000
3.95732872 2.01516164 0.00182401 0.00000000
0.38070959 0.48267891 0.00416641 0.00000000
0.85553067 1.61726687 -0.00225164 0.00000000
4.32021763 0.74981145 -0.00122594 0.00000000
2.23251273 0.93298202 -0.00033848 0.00000000
1.29497246 1.54804502 -0.00423245 0.00000000
3.89399501 0.57537498 -0.00203566 0.00000000
1.24652824 0.87680194 0.00539961 0.00000000
3.09369020 1.03716326 -0.00333074 0.00000000
1.88357139 0.97281716 -0.00226225 0.00000000
3.26782427 1.08010916 -0.00052389 0.00000000
2.91828236 1.24794732 0.00035043 0.00000000
4.51758727 1.07505496 0.00383511 0.00000000
2.15880157 0.91318973 -0.00326860 0.00000000
3.08950093 0.39487262 0.00094846 0.00000000
2.63205983 0.62572972 0.00228716 0.00000000
2.12645728 0.17405800 0.00077345 0.00000000
1.05080133 0.88965540 -0.00466111 0.00000000
2.77547456 1.69436031 -0.00027196 0.00000000
4.66315175 1.80262592 -0.00327421 0.00000000
0.30738647 0.46893517 -0.00488628 0.00000000
4.67580515 0.14772158 0.00914454 0.00000000
3.71150020 0.81043595 -0.00314677 0.00000000
3.89855009 1.50524973 0.00294206 0.00000000
4.54275593 0.89834749 0.00677514 0.00000000
2.85824128 2.01210052 -0.00326771 0.00000000
3.15844341 1.36373208 0.00284426 0.00000000
1.66157676 0.59980988 -0.00244136 0.00000000
2.21546281 1.50962932 -0.00205606 0.00000000
0.46788776 1.45950474 -0.00082175 0.00000000
1.69629854 1.39397594 0.00415631 0.00000000
0.87131661 2.08039984 -0.00371562 0.00000000
4.87790924 1.54695697 -0.00179623 0.00000000
4.37088688 1.42310615 -0.00227345 0.00000000
3.88893854 0.71754313 -0.00380834 0.00000000
0.90681874 1.28255495 -0.00405863 0.00000000
0.20590015 0.73167283 0.00043129 0.00000000
1.92074081 0.02065770 0.00358849 0.00000000
0.71734036 0.52865157 0.00010759 0.00000000
4.19705912 0.57290496 0.00109207 0.00000000
4.10850723 0.33631437 -0.00223573 0.00000000
3.08833156 1.97905202 0.00320940 0.00000000
0.82257894 1.04968045 -0.00157263 0.00000000
3.13697590 0.60123699 0.00210171 0.00000000
2.97059243 1.71659050 -0.00262591 0.00000000
0.08475862 1.48467293 0.00099629 0.00000000
0.59633847 0.80371955 0.00159823 0.00000000
4.25866116 1.03231356 -0.00511147 0.00000000
0.94879353 0.24755640 -0.00266691 0.00000000
1.31569606 1.10719686 0.00103410 0.00000000
4.23765320 1.85450183 0.00166038 0.00000000
4.61988960 1.06282092 -0.00440700 0.00000000
1.66682388 1.64032477 -0.00364805 0.00000000
0.49243182 1.71809057 -0.00125249 0.00000000
2.93643241 1.69965513 0.00107694 0.00000000
1.88213069 1.04897430 0.00077562 0.00000000
2.61077353 1.17575703 0.00069485 0.00000000
1.97756437 1.45053915 -0.00415697 0.00000000
0.68306008 1.69396735 -0.00007637 0.00000000
1.27105951 1.36121925 -0.00102350 0.00000000
4.02087800 2.01723487 0.00293824 0.00000000
4.10814604 1.13581358 -0.00431292 0.00000000
4.02628444 0.98220314 0.00019274 0.00000000
2.82323636 0.76478440 0.00126593 0.00000000
3.81781234 0.34721243 0.00031877 0.00000000
4.86461790 0.99158469 0.00219065 0.00000000
2.55196375 1.01789627 -0.00355909 0.00000000
4.31498451 0.57303151 0.00320477 0.00000000
4.31479206 0.48248331 -0.00166941 0.00000000
3.23444728 1.83018730 -0.00346337 0.00000000
1.98632547 1.00934621 0.00568260 0.00000000
4.46425396 1.31541117 -0.00342412 0.00000000
3.78241779 1.63034226 0.00316189 0.00000000
3.44580016 1.51983739 -0.00133916 0.00000000
4.77574550 1.56144337 -0.00250709 0.00000000
2.06628057 1.27538334 0.00288026 0.00000000
3.36211244 0.20804091 -0.00206771 0.00000000
3.97052098 1.41514985 -0.00073207 0.00000000
4.81945825 0.06660459 -0.00264909 0.00000000
0.93860017 0.81783015 -0.00363261 0.00000000
2.68451397 0.56227759 -0.00368566 0.00000000
0.07181787 0.86933221 -0.00000139 0.00000000
0.44954747 1.88798331 0.00216819 0.00000000
3.90027603 0.96207015 -0.00069630 0.00000000
0.76680926 0.20450814 -0.00012876 0.00000000
4.73837303 1.70160304 0.00062973 0.00000000
4.11577131 1.23579933 -0.00355651 0.00000000
3.37508941 0.23935297 0.00023290 0.00000000
1.43515838 0.71919646 0.00252460 0.00000000
4.63235651 1.20362420 0.00238948 0.00000000
2.19714575 1.23707271 0.00231282 0.00000000
2.30814302 1.34538559 0.00522415 0.00000000
1.82513251 0.99323087 0.00068899 0.00000000
3.44966515 0.54524067 0.00171033 0.00000000
4.30127191 0.54130684 -0.00217374 0.00000000
2.05443533 1.82022323 -0.00073713 0.00000000
3.07941033 1.65922642 -0.00126826 0.00000000
4.46337123 1.89179988 -0.00563979 0.00000000
0.95281914 2.02570400 0.00145096 0.00000000
3.54633570 0.92578654 -0.00090069 0.00000000
4.20141712 0.24286279 0.00095420 0.00000000
2.00719481 0.80800347 -0.00005716 0.00000000
4.39324926 0.15550577 -0.00077940 0.00000000
4.81023862 0.83706982 0.00130738 0.00000000
2.93617548 1.49242779 -0.00255963 0.00000000
3.97659217 2.07597067 -0.00212512 0.00000000
1.23882158 1.37105274 -0.00296752 0.00000000
4.69354057 0.29265377 0.00138031 0.00000000
2.16956598 0.20920919 0.00135694 0.00000000
2.99009580 0.02483559 -0.00160220 0.00000000
3.10774693 1.11148291 0.00083696 0.00000000
0.36306867 1.88053474 -0.00159939 0.00000000
4.63279076 1.55966175 -0.00188054 0.00000000
4.29252114 1.56665306 0.00161956 0.00000000
0.63566963 0.22758998 -0.00243653 0.00000000
3.29853598 1.97977174 0.00181849 0.00000000
2.82510654 1.89284624 -0.00284432 0.00000000
2.12302828 0.33295618 -0.00407708 0.00000000
1.41515276 1.35703393 0.00591426 0.00000000
2.53498161 1.65383662 0.00071617 0.00000000
0.86336189 0.56884134 -0.00035112 0.00000000
2.84062298 2.06870282 -0.00012385 0.00000000
2.28797327 1.33560085 -0.00114881 0.00000000
4.46881985 1.70798494 0.00009831 0.00000000
3.21046506 0.37515623 0.00212297 0.00000000
3.05301738 1.71381567 -0.00227157 0.00000000
0.59749310 0.25190762 -0.00302317 0.00000000
3.10177199 1.52153096 -0.00289946 0.00000000
1.59021056 1.08994385 0.00248907 0.00000000
3.28233057 1.10363631 0.00006690 0.00000000
4.28883288 0.91966808 -0.00004950 0.00000000
0.82881213 0.25320893 0.00032061 0.00000000
1.43547993 0.21006540 0.00111229 0.00000000
1.68951022 0.36567127 0.00221153 0.00000000
2.22493561 1.61300432 0.00163988 0.00000000
3.57164686 0.54081767 0.00162374 0.00000000
1.61722942 1.44833345 0.00134107 0.00000000
4.40000817 0.08147946 -0.00446103 0.00000000
3.63338729 0.49012948 -0.00206908 0.00000000
3.73319233 1.67689793 0.00345868 0.00000000
3.11075342 1.47718899 0.00114822 0.00000000
4.44100195 1.47970609 -0.00161532 0.00000000
1.30171729 1.11535840 0.00135494 0.00000000
1.72614774 0.91590466 -0.00227367 0.00000000
2.74294548 1.31487783 0.00016894 0.00000000
1.82502402 1.03596221 0.00437326 0.00000000
3.66690722 1.09085813 -0.00118331 0.00000000
1.97576049 0.69564905 -0.00184393 0.00000000
0.78350543 0.30235525 -0.00187231 0.00000000
0.81055437 1.05852662 -0.00478874 0.00000000
3.08350697 1.98823777 0.00599461 0.00000000
1.95757846 0.65162928 -0.00059870 0.00000000
1.07031574 0.48540977 0.00098279 0.00000000
2.13081267 0.40853299 0.00172862 0.00000000
2.36810676 0.42398260 0.00098334 0.00000000
3.39145629 0.92096258 -0.00150365 0.00000000
4.14912937 1.70451935 0.00085218 0.00000000
3.04761868 0.41033168 0.00213752 0.00000000
1.90789529 0.50043301 0.00006993 0.00000000
4.70759592 2.02182956 -0.00369511 0.00000000
1.57364770 1.94642580 0.00096304 0.00000000
1.93549003 0.95787605 -0.00178206 0.00000000
2.29788701 0.31065123 -0.00398779 0.00000000
0.77861566 1.85070570 -0.00176412 0.00000000
0.29294781 1.09023529 0.00323217 0.00000000
3.09088606 0.33145254 0.00395036 0.00000000
0.74942343 0.59512077 -0.00125299 0.00000000
1.46990934 0.18923745 0.00323994 0.00000000
0.29849973 1.44494573 0.00328756 0.00000000
3.54052547 1.44867164 -0.00184354 0.00000000
4.61881522 1.77108192 -0.00217498 0.00000000
2.68156052 0.25774957 -0.00198103 0.00000000
2.77681046 0.38362660 -0.00159317 0.00000000
2.64910171 1.85489429 -0.00381019 0.00000000
3.08315474 1.76688856 0.00083319 0.00000000
0.48190922 0.33761042 0.00030207 0.00000000
2.44898095 1.90188110 -0.00322296 0.00000000
2.48266487 0.51682134 0.00461409 0.00000000
3.70293765 1.73161784 0.00082783 0.00000000
1.46383289 0.48747840 0.00273805 0.00000000
4.04580527 1.51526587 -0.00094963 0.00000000
2.84764657 1.20866324 0.00002520 0.00000000
3.76979208 1.64460030 0.00208041 0.00000000
4.04726261 0.75178067 0.00440600 0.00000000
2.69529190 1.38835286 0.00229876 0.00000000
1.55703175 0.53280572 -0.00025590 0.00000000
2.20919407 1.63526834 0.00436658 0.00000000
4.17616364 1.56803269 0.00176205 0.00000000
1.51885137 1.60674084 -0.00216116 0.00000000
2.63395314 0.75984659 -0.00368156 0.00000000
2.38105793 0.03662582 -0.00060333 0.00000000
2.69272703 1.54652383 -0.00354624 0.00000000
4.70855282 0.88230008 -0.00278413 0.00000000
4.35182858 0.39269678 -0.00428961 0.00000000
1.53420997 0.16037257 0.00461065 0.00000000
3.11866968 1.99186893 -0.00017173 0.00000000
0.32717763 1.01046051 -0.00249573 0.00000000
3.43603989 1.07613241 0.00009724 0.00000000
3.55920137 1.88837535 -0.00343860 0.00000000
1.50523755 1.20670847 -0.00134316 0.00000000
0.74442358 1.41131440 0.00050068 0.00000000
3.91956031 1.68158584 0.00039961 0.00000000
1.80549438 0.37918992 0.00502705 0.00000000
0.44528655 1.79527517 -0.00024932 0.00000000
0.25546525 0.31762575 0.00137415 0.00000000
0.06505110 1.66553942 -0.00111216 0.00000000
1.12029252 0.66778570 -0.00156614 0.00000000
4.38673010 1.35976738 0.00318791 0.00000000
4.33247420 0.61719897 -0.00240552 0.00000000
0.08055867 1.63162876 0.00057393 0.00000000
2.15364646 0.47561236 -0.00545180 0.00000000
3.99626676 0.41502218 -0.00290574 0.00000000
2.87839225 0.91850284 0.00168844 0.00000000
1.42163426 1.75824893 -0.00199906 0.00000000
2.96203067 1.82046088 0.00247773 0.00000000
0.77308162 1.29244845 0.00491862 0.00000000
3.12367567 2.04632669 -0.00514443 0.00000000
4.76813133 0.27467586 -0.00347876 0.00000000
1.07544289 0.14945032 -0.00454273 0.00000000
1.48734627 0.89702203 0.00292349 0.00000000
4.80954242 0.86747906 0.00072343 0.00000000
0.15553976 0.79975632 -0.00550968 0.00000000
4.11712877 0.60710790 -0.00298387 0.00000000
0.32740736 1.91525132 -0.00452652 0.00000000
4.48989422 1.25445662 0.00075032 0.00000000
0.09093268 1.07186342 0.00216536 0.00000000
2.45026344 0.58985272 0.00153477 0.00000000
3.93038298 0.82166883 -0.00085326 0.00000000
1.21316588 1.24284782 0.00523641 0.00000000
1.38524276 0.66319273 0.00468846 0.00000000
1.23021382 0.33859485 0.00537832 0.00000000
0.93876974 0.00688723 0.00419335 0.00000000
0.86931089 1.39564331 0.00302825 0.00000000
0.94524924 1.60045636 0.00100822 0.00000000
3.32613590 1.92294463 0.00422929 0.00000000
1.42188612 1.56176355 0.00008130 0.00000000
0.07403797 1.25433607 -0.00146517 0.00000000
4.42113066 0.89095786 0.00524434 0.00000000
2.82368719 0.75065094 -0.00143284 0.00000000
4.18986782 0.90620502 0.00232875 0.00000000
1.67817979 0.11153032 -0.00068764 0.00000000
4.36680156 1.99473766 0.00179013 0.00000000
4.14014428 0.89203275 -0.00238927 0.00000000
2.69397048 1.30793367 0.00149291 0.00000000
3.79386313 0.91222468 -0.00124205 0.00000000
2.46489568 1.96525208 -0.00052535 0.00000000
2.99078072 0.99041166 0.00116478 0.00000000
3.75344252 1.59165923 0.00098011 0.00000000
0.21603812 0.30592182 -0.00286071 0.00000000
0.80888409 0.77328934 -0.00018297 0.00000000
2.75494813 1.67784324 0.00375792 0.00000000
0.14211389 0.16045194 0.00117663 0.00000000
3.76996837 0.08414747 0.00043846 0.00000000
3.92969287 1.44034758 -0.00091758 0.00000000
1.01608915 0.47172904 -0.00012956 0.00000000
0.97675894 2.06826604 -0.00172737 0.00000000
3.06557061 0.73879678 0.00034687 0.00000000
2.45173076 1.94617656 0.00067568 0.00000000
4.30943063 0.70726071 0.00267393 0.00000000
4.46800522 0.94227765 -0.00143816 0.00000000
4.82891926 1.44558750 -0.00220937 0.00000000
4.00814052 0.42687499 -0.00041840 0.00000000
4.74103914 1.79771135 0.00490265 0.00000000
4.65341070 1.15798080 -0.00096507 0.00000000
1.16017920 1.00910544 -0.00058296 0.00000000
2.27299728 1.62307006 0.00089882 0.00000000
1.08417479 0.34355475 0.00039323 0.00000000
4.71842766 0.54527239 -0.00099487 0.00000000
2.77166360 0.16275317 -0.00205509 0.00000000
0.77093965 1.49367419 0.00405679 0.00000000
2.82645675 1.44338624 0.00798124 0.00000000
2.07198311 1.77160485 0.00174788 0.00000000
0.14140692 0.77562254 0.00227155 0.00000000
0.19015931 1.49821836 0.00376480 0.00000000
0.00692933 1.63029629 -0.00136315 0.00000000
0.66083315 1.90303215 0.00275717 0.00000000
4.59598569 1.41294456 -0.00385915 0.00000000
4.69008632 2.05749327 -0.00045099 0.00000000
1.71806469 0.04314255 0.00126122 0.00000000
2.58333096 0.77625344 -0.00053788 0.00000000
0.94770761 1.98649849 -0.00334885 0.00000000
4.09337223 1.25650830 -0.00257501 0.00000000
2.71449476 0.96024712 0.00631456 0.00000000
3.85235088 0.74807810 -0.00013527 0.00000000
4.13294142 0.12649159 0.00005247 0.00000000
1.51028304 0.84277101 -0.00170487 0.00000000
4.28978131 1.41398458 0.00080873 0.00000000
4.22222168 0.20514709 0.00238308 0.00000000
2.48673712 0.71459528 -0.00077724 0.00000000
2.28626605 0.61946162 -0.00356250 0.00000000
3.78051265 0.86277488 0.00140538 0.00000000
1.19199928 0.80895820 -0.00266825 0.00000000
2.80511592 1.53841504 -0.00061768 0.00000000
4.80492747 0.38645309 0.00612040 0.00000000
4.10054982 0.20571581 -0.00243402 0.00000000
4.13481074 0.74685473 0.00298457 0.00000000
4.83652447 1.82678506 -0.00187847 0.00000000
4.73844347 0.98835243 0.00218558 0.00000000
0.69862017 0.59307293 -0.00187153 0.00000000
2.65270340 0.53815587 -0.00257801 0.00000000
2.64299715 1.35182954 0.00164324 0.00000000
3.73756975 1.18041135 0.00303864 0.00000000
1.23338230 1.56368641 -0.00184906 0.00000000
1.75203493 0.59050083 -0.00197061 0.00000000
2.86611304 0.54650417 0.00810931 0.00000000
4.82750654 0.18933340 -0.00102611 0.00000000
2.92634481 1.00166905 0.00180379 0.00000000
2.78975529 0.79792759 -0.00081102 0.00000000
0.12937212 1.97014382 0.00165771 0.00000000
0.36123404 1.17324562 -0.00085141 0.00000000
1.26315955 1.84376342 -0.00042613 0.00000000
3.38630838 0.37674996 0.00060184 0.00000000
3.62476445 0.11093742 0.00095697 0.00000000
2.74224499 0.42006057 -0.00001378 0.00000000
3.22118410 1.98346477 -0.00331449 0.00000000
3.61579400 1.77236516 0.00057098 0.00000000
4.56132619 0.88812509 0.00305039 0.00000000
2.95728788 1.90416651 0.00092177 0.00000000
3.67097426 2.07569146 0.00435727 0.00000000
1.42501652 1.63796312 0.00140967 0.00000000
1.74833711 0.79223432 0.00404930 0.00000000
2.52542411 1.22971149 0.00312795 0.00000000
2.64277475 1.65039386 -0.00137965 0.00000000
4.05627443 1.89210684 -0.00287970 0.00000000
0.45311691 0.77155015 0.00317862 0.00000000
1.61044083 0.56163753 0.00285264 0.00000000
4.74219677 1.43846186 0.00121227 0.00000000
0.47098466 1.90949683 0.00111431 0.00000000
4.22863598 0.18380792 0.00555724 0.00000000
4.41474421 0.73550478 -0.00093450 0.00000000
3.10582190 0.00457637 0.00029098 0.00000000
2.79162941 0.07802345 -0.00481954 0.00000000
2.18341601 0.09836211 -0.00462957 0.00000000
3.31095150 1.47491414 -0.00275540 0.00000000
4.79653762 1.35683589 -0.00226268 0.00000000
3.95115391 0.94087785 -0.00290917 0.00000000
4.31403065 0.33305583 -0.00468665 0.00000000
1.07489308 1.91637520 0.00642547 0.00000000
2.73775927 1.89767871 -0.00160609 0.00000000
0.22067422 1.21934194 -0.00052419 0.00000000
0.99578326 1.42107692 0.00038280 0.00000000
3.91141101 1.58852499 0.00491282 0.00000000
1.51014961 1.68591526 -0.00045969 0.00000000
0.72960094 0.93410706 0.00100207 0.00000000
1.47042507 2.08387042 -0.00125881 0.00000000
2.80214604 0.34808277 -0.00148304 0.00000000
2.86037015 0.37715146 -0.00218904 0.00000000
4.33759048 0.62928452 -0.00416318 0.00000000
0.06143141 0.52565097 -0.00167202 0.00000000
4.88566155 1.34961354 0.00171424 0.00000000
3.79324603 0.72900732 0.00092508 0.00000000
2.40966721 0.36277598 -0.00083642 0.00000000
2.15375803 0.90129319 0.00401204 0.00000000
2.48877279 2.05577421 0.00407412 0.00000000
4.38150851 0.13064357 0.00004256 0.00000000
0.67574592 0.63717003 -0.00196392 0.00000000
3.22866181 2.02213289 0.00113765 0.00000000
0.59692613 0.71252247 0.00336977 0.00000000
1.53441985 1.66348837 0.00268826 0.00000000
3.96927159 1.03297992 0.00212099 0.00000000
0.93886729 0.70258526 0.00190304 0.00000000
2.48466065 1.19555052 0.00300639 0.00000000
4.32954670 1.81565000 -0.00469438 0.00000000
4.53626746 1.37418173 0.00135359 0.00000000
0.50601640 0.11508432 -0.00054085 0.00000000
2.06674540 0.17934012 -0.00217319 0.00000000
0.91977824 1.09088137 -0.00048614 0.00000000
2.74866219 0.20550299 -0.00405086 0.00000000
2.25564018 1.66370490 0.00122773 0.00000000
3.39166286 1.26995839 -0.00347636 0.00000000
2.63898694 0.59378407 -0.00055415 0.00000000
3.35865945 0.68345277 -0.00102580 0.00000000
0.55585104 1.77623463 -0.00070830 0.00000000
3.04527554 1.99093187 0.00165800 0.00000000
3.92606588 0.57160019 -0.00241687 0.00000000
