2.01965935 0.16982131 0.00453172 0.00000000
4.75890985 1.23580851 -0.00046032 0.00000000
1.85510023 0.44674194 -0.00062981 0.00000000
4.71744599 1.68557411 -0.00288827 0.00000000
3.48771711 2.20533699 0.00031818 0.00000000
0.50199724 1.97799062 0.00167471 0.00000000
0.29959711 1.92995502 0.00128162 0.00000000
2.55927365 0.47333963 0.00017672 0.00000000
4.32580635 1.35240333 0.00107459 0.00000000
2.78073098 2.03810686 0.00384010 0.00000000
3.41673311 1.25951833 -0.00099697 0.00000000
0.16925815 2.03675905 -0.00288029 0.00000000
1.54650051 0.03398914 0.00492141 0.00000000
1.10945034 1.03396413 0.00213745 0.00000000
0.88051325 0.02336953 -0.00032570 0.00000000
1.44219994 0.73373677 -0.00076572 0.00000000
1.88996463 1.53144399 0.00040391 0.00000000
4.48114627 1.98159646 -0.00315196 0.00000000
0.65937667 1.98620062 0.00243814 0.00000000
4.65630816 2.02109382 -0.00046707 0.00000000
1.81516378 1.26838977 0.00257409 0.00000000
0.48311350 2.06007953 0.00186713 0.00000000
0.12864005 1.20994066 -0.00151937 0.00000000
2.68168385 1.83162812 0.00061578 0.00000000
2.12041521 1.90444359 -0.00514139 0.00000000
3.97726787 2.20471947 0.00215116 0.00000000
1.69762773 1.45089735 0.00424668 0.00000000
2.16424432 1.57983550 0.00393765 0.00000000
1.28230955 1.35563403 0.00020694 0.00000000
2.08576430 0.83820118 -0.00006775 0.00000000
4.41885066 1.13636286 -0.00058281 0.00000000
2.44869037 0.36068850 0.00285473 0.00000000
1.65034725 1.30961484 -0.00126060 0.00000000
1.84278095 0.68307455 -0.00039066 0.00000000
3.22204517 2.10041181 -0.00226539 0.00000000
2.88577037 1.19430449 0.00043256 0.00000000
4.69322803 0.14275358 -0.00484808 0.00000000
4.71269493 1.41367040 0.00051424 0.00000000
3.48077000 0.58631151 -0.00102569 0.00000000
3.28228265 0.82658725 0.00037978 0.00000000
4.31248778 1.01878945 0.00210130 0.00000000
0.25076756 0.84159117 -0.00003842 0.00000000
2.69896556 0.74723330 0.00017209 0.00000000
1.45926799 2.00357935 0.00051428 0.00000000
1.95483464 1.99634207 0.00293215 0.00000000
2.66086130 1.80142098 -0.00123741 0.00000000
3.48186698 1.73081380 -0.00402323 0.00000000
0.03787505 0.95728357 -0.00062332 0.00000000
3.84538109 1.91023121 0.00114020 0.00000000
1.95136860 0.85913564 0.00218392 0.00000000
3.06269186 0.05136473 0.00278330 0.00000000
3.51452500 1.71466167 0.00310157 0.00000000
1.05246021 0.17511770 -0.00066301 0.00000000
3.63336564 0.23685581 -0.00346899 0.00000000
0.61266492 1.11841895 0.00300736 0.00000000
0.87552064 1.25821478 -0.00228113 0.00000000
4.27921021 0.49279205 0.00262353 0.00000000
3.66910900 0.89460220 -0.00221191 0.00000000
4.06857900 0.22972949 0.00380461 0.00000000
3.34983150 1.11835039 0.00345819 0.00000000
1.69481181 1.93045850 -0.00071827 0.00000000
1.83687356 0.10107560 -0.00456285 0.00000000
1.03057064 0.14442803 -0.00053319 0.00000000
1.02058031 1.66992210 -0.00295929 0.00000000
1.45842736 0.08265423 0.00175700 0.00000000
0.55050923 0.14018908 0.00008531 0.00000000
4.42451171 1.02768261 -0.00111571 0.00000000
0.12630025 1.35437548 0.00073434 0.00000000
1.69502799 0.57512810 0.00075540 0.00000000
3.88936934 1.22733950 0.00107622 0.00000000
4.22535147 0.93706213 -0.00229982 0.00000000
2.23508399 1.34438870 0.00150103 0.00000000
0.28162987 0.36405316 -0.00236646 0.00000000
2.16451377 1.39236497 0.00392245 0.00000000
3.07746334 1.20832724 -0.00140315 0.00000000
4.49972240 1.90099279 0.00063963 0.00000000
2.75911664 1.10296892 0.00056931 0.00000000
3.94400314 0.65877715 -0.00307101 0.00000000
0.91151099 2.07447745 -0.00144360 0.00000000
1.28726943 2.05946846 -0.00273299 0.00000000
2.89729989 0.78521582 0.00492986 0.00000000
3.61377685 0.16960009 -0.00183995 0.00000000
3.18336577 1.42135648 0.00194687 0.00000000
4.72711788 1.52040423 0.00041118 0.00000000
2.58068477 0.67883584 0.00443532 0.00000000
1.78739924 1.27798588 0.00197890 0.00000000
1.71421796 1.23217846 0.00043667 0.00000000
2.84142710 1.40732709 0.00238813 0.00000000
4.50641601 0.02891349 -0.00318393 0.00000000
0.64722420 2.20184511 0.00015292 0.00000000
0.06755801 1.54945670 0.00057509 0.00000000
4.54216458 0.62103279 -0.00209948 0.00000000
3.04526824 1.79418134 -0.00129887 0.00000000
0.50497889 1.55535078 0.00109683 0.00000000
4.77338203 1.23624588 -0.00477034 0.00000000
2.09724021 0.57132378 0.00170885 0.00000000
0.22439261 1.95462286 -0.00396775 0.00000000
0.22867811 1.53322067 -0.00241047 0.00000000
4.34457387 0.82849446 0.00230378 0.00000000
0.03646603 1.99608643 -0.00211137 0.00000000
2.16934388 0.76551920 0.00264998 0.00000000
3.07397751 1.97018578 0.00248657 0.00000000
0.50236899 0.08107205 0.00184949 0.00000000
1.56693853 0.03403793 0.00353869 0.00000000
1.92763826 1.53401546 -0.00044250 0.00000000
2.60033198 0.63512686 0.00040117 0.00000000
2.98143730 1.68988135 -0.00156574 0.00000000
0.72493183 0.17380797 0.00003934 0.00000000
1.23127485 0.37919961 0.00271351 0.00000000
4.24540845 2.15638277 0.00047110 0.00000000
1.50693207 1.98744383 0.00621431 0.00000000
0.58060388 0.64385714 -0.00020985 0.00000000
2.12904436 1.06680886 -0.00100485 0.00000000
0.24391627 1.38709327 0.00142219 0.00000000
3.17666193 0.45962707 0.00266825 0.00000000
0.59703480 1.89244205 -0.00512818 0.00000000
1.25224723 1.13281836 0.00077133 0.00000000
1.50263159 0.11031273 0.00236755 0.00000000
4.51336844 2.20787891 0.00023136 0.00000000
1.01239970 1.93935999 0.00100609 0.00000000
0.27563617 0.60547299 0.00539971 0.00000000
2.91317725 1.94618259 -0.00283036 0.00000000
2.78640476 1.60107330 -0.00386145 0.00000000
0.48567745 1.19456176 0.00109125 0.00000000
3.65275946 0.51981721 0.00181426 0.00000000
3.59479037 1.70020492 0.00074160 0.00000000
2.61132362 1.52273300 -0.00058243 0.00000000
0.90586547 0.39672397 -0.00101661 0.00000000
1.94093836 2.06921370 -0.00529798 0.00000000
4.59034198 2.02907830 -0.00292673 0.00000000
4.26314357 1.84597846 0.00255309 0.00000000
1.34331677 1.34264153 0.00385899 0.00000000
1.31106942 0.72988589 0.00233161 0.00000000
3.22848102 0.47209197 0.00355655 0.00000000
0.06049485 0.45837230 -0.00066354 0.00000000
1.24079056 1.54663913 -0.00327169 0.00000000
3.89728339 1.75602304 0.00227087 0.00000000
0.13986827 1.30801367 0.00610822 0.00000000
3.21436572 1.39146112 -0.00262606 0.00000000
3.49642172 1.05089867 0.00199024 0.00000000
4.43928547 0.29616960 0.00222563 0.00000000
4.74647336 0.81570637 -0.00287488 0.00000000
3.47589424 0.32408960 -0.00512855 0.00000000
3.33644044 1.66261769 0.00158207 0.00000000
2.34576719 1.06470786 0.00042741 0.00000000
1.09273666 1.01066533 0.00204263 0.00000000
3.04027889 0.47049142 -0.00154313 0.00000000
2.09682370 1.22163734 -0.00038557 0.00000000
0.78449859 0.95534457 0.00374381 0.00000000
2.95243558 0.42883403 0.00203697 0.00000000
2.08603322 0.67449254 -0.00456649 0.00000000
2.13193300 2.09139337 0.00042862 0.00000000
2.54461473 0.24949337 0.00129382 0.00000000
3.68515402 1.05425355 -0.00101670 0.00000000
0.19661378 1.16490557 -0.00150474 0.00000000
0.20568749 0.38932398 0.00418216 0.00000000
1.53872467 1.92326163 -0.00434904 0.00000000
0.34932348 0.82232470 0.00280441 0.00000000
0.53894893 0.16539720 0.00273746 0.00000000
4.31346539 0.80207937 -0.00232130 0.00000000
1.97733304 1.05297363 -0.00027311 0.00000000
0.38813314 0.00074801 -0.00108895 0.00000000
3.82212604 0.12812106 0.00045332 0.00000000
2.22480577 0.77922351 -0.00209764 0.00000000
0.03065875 0.55019574 -0.00081121 0.00000000
0.57979856 0.06509953 -0.00383727 0.00000000
0.61484927 1.96720107 0.00092380 0.00000000
3.16812167 0.38999617 -0.00584945 0.00000000
2.57978231 1.83450359 -0.00145198 0.00000000
1.39821701 0.64964221 0.00300188 0.00000000
4.05679774 1.26884950 0.00150789 0.00000000
4.57925755 0.84259228 0.00244784 0.00000000
1.47978906 2.06882982 -0.00606040 0.00000000
1.63747672 0.87507138 -0.00281222 0.00000000
2.80723292 0.13462145 -0.00581069 0.00000000
3.72485556 0.35044498 -0.00195473 0.00000000
2.28381329 1.32400999 0.00263197 0.00000000
0.49691037 1.59264465 -0.00323863 0.00000000
4.07868061 0.84562488 -0.00067565 0.00000000
1.58611466 0.58627904 0.00023492 0.00000000
3.09001998 1.58686926 -0.00381581 0.00000000
4.63010809 0.52665995 0.00407577 0.00000000
4.31645137 0.32692818 -0.00264266 0.00000000
4.22889761 1.78903960 0.00116696 0.00000000
3.01627525 1.88264402 -0.00124182 0.00000000
2.18713149 1.86623841 0.00426446 0.00000000
2.66802632 1.29054971 0.00306747 0.00000000
2.46063586 0.42031202 0.00273737 0.00000000
3.48166925 1.37459047 -0.00196478 0.00000000
1.72832232 0.23939835 -0.00526635 0.00000000
2.12294312 1.04367100 -0.00251923 0.00000000
2.47612779 1.73209434 -0.00043534 0.00000000
0.38740044 1.33891554 -0.00086950 0.00000000
4.12890502 0.05864021 -0.00005511 0.00000000
2.48155953 1.06595186 -0.00061872 0.00000000
4.08368319 1.77625574 0.00010440 0.00000000
1.45189861 1.29874506 0.00046634 0.00000000
1.16580293 1.07101129 0.00153742 0.00000000
2.06941948 0.35657292 0.00078662 0.00000000
4.09083123 1.45758032 -0.00115735 0.00000000
1.83785275 1.95116667 -0.00805443 0.00000000
2.04998652 0.35460980 -0.00045204 0.00000000
1.48805230 1.19745476 0.00231702 0.00000000
1.29146465 2.11071433 -0.00287629 0.00000000
3.60333328 1.79241633 -0.00437773 0.00000000
4.21131521 0.38808010 0.00076571 0.00000000
0.09606610 1.27796834 -0.00129192 0.00000000
2.92653874 0.77289402 -0.00163639 0.00000000
1.94175186 1.73245145 0.00412576 0.00000000
0.97501125 0.98207482 -0.00039372 0.00000000
2.97688023 1.46284340 -0.00171587 0.00000000
1.19378162 1.31582616 0.00119124 0.00000000
0.10415459 2.15236965 0.00097276 0.00000000
0.32539346 1.83192576 -0.00059909 0.00000000
3.52461306 1.16540832 -0.00376803 0.00000000
0.53364427 2.06228652 -0.00064636 0.00000000
3.84409817 1.11949518 -0.00004038 0.00000000
3.15208122 0.04621531 0.00088776 0.00000000
2.35078617 1.10249984 -0.00017353 0.00000000
2.44541086 0.57563433 -0.00096646 0.00000000
1.64283391 2.11324913 0.00028269 0.00000000
1.06654174 0.45990284 0.00137308 0.00000000
0.01944197 1.48601605 -0.00021747 0.00000000
2.43651202 0.06006337 -0.00446944 0.00000000
0.49120438 1.91618024 -0.00057661 0.00000000
1.34203972 0.06925709 -0.00162125 0.00000000
1.19731767 1.60160890 -0.00558935 0.00000000
0.25906387 1.37968462 0.00188956 0.00000000
3.79494036 1.80854694 -0.00349369 0.00000000
0.77274530 0.62638434 -0.00007324 0.00000000
1.45307426 1.83740112 -0.00304359 0.00000000
3.76950307 0.57743514 0.00508779 0.00000000
3.16672432 0.62969034 0.00007149 0.00000000
4.58597774 0.19103593 -0.00093862 0.00000000
2.87168278 0.30113543 -0.00059253 0.00000000
1.11412160 0.95422447 -0.00397657 0.00000000
1.63145684 1.13312076 0.00075868 0.00000000
0.30477049 2.16496483 -0.00317183 0.00000000
4.57246435 0.97388802 0.00028539 0.00000000
1.69238690 0.93095443 0.00009264 0.00000000
1.31178382 0.86251200 -0.00114167 0.00000000
4.52876604 2.05658414 -0.00159380 0.00000000
3.07380783 1.70615613 -0.00097419 0.00000000
4.14756979 1.97269017 -0.00614264 0.00000000
3.45718136 1.69113934 -0.00363813 0.00000000
3.97894962 0.28555561 0.00050386 0.00000000
2.48480613 1.52732232 0.00095737 0.00000000
2.21641185 1.20477435 0.00172893 0.00000000
0.07953430 0.78971600 -0.00252428 0.00000000
2.58153366 1.47526551 -0.00291901 0.00000000
4.00719981 1.15407322 -0.00281516 0.00000000
2.85802021 1.82163496 -0.00001379 0.00000000
1.89222068 1.32126469 -0.00075030 0.00000000
2.20907487 1.43128086 0.00107342 0.00000000
4.77981299 1.36667433 0.00191762 0.00000000
4.16687220 0.26026332 0.00121842 0.00000000
3.04356564 1.52845607 0.00200793 0.00000000
1.96834532 1.16837330 0.00065969 0.00000000
4.01656925 1.28235127 0.00406931 0.00000000
4.64479353 0.43812800 -0.00514228 0.00000000
4.27663469 1.73284713 0.00311957 0.00000000
4.09749942 0.44231761 0.00067573 0.00000000
2.17859582 0.47856266 0.00460088 0.00000000
3.56135977 0.15428775 -0.00121250 0.00000000
2.14753916 1.33691178 -0.00230628 0.00000000
3.12551981 1.26655047 -0.00172759 0.00000000
2.22560547 0.10496077 -0.00163292 0.00000000
1.89181018 0.18634770 0.00216492 0.00000000
0.42480376 1.58743175 0.00039934 0.00000000
3.44192031 0.03265383 -0.00044341 0.00000000
0.80954360 1.36981429 0.00142555 0.00000000
4.54365540 1.51550268 -0.00457583 0.00000000
4.31142993 1.19252825 0.00207280 0.00000000
0.52155392 1.85542668 -0.00236394 0.00000000
3.22849002 2.11034197 0.00084952 0.00000000
2.04349738 1.44110455 -0.00136226 0.00000000
2.52248730 1.82780187 -0.00049878 0.00000000
0.82126346 1.74776443 -0.00137260 0.00000000
4.69323417 1.14384516 0.00293331 0.00000000
1.63672423 1.44524778 0.00316197 0.00000000
3.46730288 0.71119294 0.00505313 0.00000000
2.86133913 1.28177338 -0.00295192 0.00000000
2.03668694 0.29598721 -0.00214400 0.00000000
3.89729976 0.63584176 -0.00025196 0.00000000
1.76564118 0.24568902 -0.00158190 0.00000000
2.64039837 1.68062104 -0.00108361 0.00000000
2.28581112 2.15854723 0.00353691 0.00000000
2.85305830 1.53274124 -0.00287640 0.00000000
3.82419673 1.32528824 -0.00093434 0.00000000
3.99715129 0.56072208 0.00077010 0.00000000
1.16243452 0.34324718 0.00208815 0.00000000
4.43999186 1.47930759 0.00266637 0.00000000
0.51440121 1.96328953 -0.00012827 0.00000000
4.20645989 0.09547550 -0.00242436 0.00000000
0.35743645 0.04569334 -0.00015855 0.00000000
4.59019149 1.21875570 -0.00019551 0.00000000
2.13143402 0.10234956 -0.00072866 0.00000000
3.59463831 1.37420383 0.00218785 0.00000000
2.93467624 0.89461910 -0.00008650 0.00000000
1.15707534 1.69929125 -0.00025334 0.00000000
0.68534684 1.14484755 -0.00137603 0.00000000
2.71436532 2.01167033 -0.00004221 0.00000000
2.64350420 0.96976167 -0.00242913 0.00000000
2.69705202 1.37051234 0.00279224 0.00000000
0.30830312 0.47287989 -0.00314304 0.00000000
2.87958705 0.55616131 -0.00201017 0.00000000
2.89148240 1.25156626 -0.00049430 0.00000000
1.59288602 0.74392042 0.00039725 0.00000000
2.70278236 1.69921298 -0.00048364 0.00000000
1.13028745 1.50873279 -0.00009336 0.00000000
0.52400016 1.21221413 0.00054201 0.00000000
2.88508962 1.62090612 -0.00079548 0.00000000
1.69456779 0.06332797 -0.00367688 0.00000000
2.57668972 1.95060250 -0.00146744 0.00000000
0.59935956 1.05397253 -0.00456932 0.00000000
0.69013826 1.18889483 -0.00062727 0.00000000
0.94341852 1.70761976 -0.00153103 0.00000000
2.83825385 0.58436206 -0.00255290 0.00000000
4.14649781 0.32429294 -0.00254602 0.00000000
0.25727930 0.25496679 0.00433819 0.00000000
1.81518250 0.59166484 0.00244478 0.00000000
4.34943831 0.94558568 0.00081803 0.00000000
2.35961481 0.57322692 -0.00125768 0.00000000
3.86297743 1.32609070 0.00039055 0.00000000
1.16526563 0.79751294 -0.00112822 0.00000000
1.65655053 0.76190595 -0.00392082 0.00000000
0.32898039 0.73582755 -0.00065511 0.00000000
3.36251240 1.68392045 -0.00358921 0.00000000
4.70443986 0.01361025 0.00107644 0.00000000
2.54349192 1.85659050 0.00053800 0.00000000
4.05320602 0.17710305 -0.00363577 0.00000000
2.76526201 1.98478705 0.00070446 0.00000000
0.03198130 1.40697296 0.00077128 0.00000000
4.58986832 0.20337221 0.00088267 0.00000000
4.62220810 2.16737474 -0.00077928 0.00000000
2.92371584 0.82250254 -0.00105243 0.00000000
0.81042511 0.48078299 -0.00366988 0.00000000
2.94303981 1.28775491 -0.00112469 0.00000000
3.73196911 2.06515431 0.00008365 0.00000000
2.24569959 1.02945869 0.00164552 0.00000000
3.96208203 1.77637614 0.00119580 0.00000000
0.59449302 1.59602598 0.00199027 0.00000000
1.56696922 0.44494066 0.00031465 0.00000000
2.67502380 1.08665915 -0.00235807 0.00000000
0.14884106 1.38692546 -0.00279604 0.00000000
1.47350910 1.33931050 -0.00431345 0.00000000
2.70620578 2.12444883 0.00594445 0.00000000
3.46474755 1.30387934 0.00470293 0.00000000
3.97052594 0.77270108 0.00238867 0.00000000
3.97433645 1.61764843 -0.00004629 0.00000000
1.20169410 0.72716556 -0.00255055 0.00000000
2.20387823 0.72269567 -0.00102068 0.00000000
0.04404313 1.07564701 0.00084745 0.00000000
0.84078248 1.09533177 0.00201149 0.00000000
2.85760880 1.26858157 0.00357737 0.00000000
2.53866083 0.16559577 0.00354549 0.00000000
2.93122265 1.79383283 -0.00245159 0.00000000
0.28216661 0.94212882 -0.00107854 0.00000000
3.77729164 0.17294742 0.00536199 0.00000000
1.82671471 0.94993471 0.00330243 0.00000000
4.65067363 1.04049139 0.00270520 0.00000000
3.15240261 1.22095295 -0.00612282 0.00000000
3.64846577 1.99139139 0.00599952 0.00000000
0.09554485 1.69991332 -0.00157752 0.00000000
1.02377726 1.40074026 -0.00059724 0.00000000
1.67397993 1.47494542 -0.00673094 0.00000000
2.38317956 0.66951379 -0.00000880 0.00000000
2.90486007 2.12352928 0.00417340 0.00000000
0.07067554 1.42578819 0.00224325 0.00000000
1.20110022 1.40010728 0.00058949 0.00000000
0.41296322 1.36432429 0.00336597 0.00000000
3.48818084 1.41532035 -0.00015000 0.00000000
0.25004268 1.14065786 0.00333851 0.00000000
3.79414227 2.07270271 -0.00116484 0.00000000
3.13976975 1.87289686 -0.00305568 0.00000000
0.62207528 1.83046270 0.00049211 0.00000000
3.83626255 1.70522386 0.00020454 0.00000000
0.11648447 0.08839708 0.00179331 0.00000000
4.42357666 1.09138386 0.00245699 0.00000000
0.33861611 1.21682204 0.00286763 0.00000000
0.30175267 0.82921329 -0.00340680 0.00000000
3.06053717 0.57402872 0.00129071 0.00000000
2.26705166 0.90477179 0.00058226 0.00000000
4.07708787 2.05873729 -0.00187098 0.00000000
0.92489572 0.56532438 -0.00333161 0.00000000
1.35386632 0.87718770 -0.00085587 0.00000000
2.72410621 1.68896661 0.00260973 0.00000000
1.29997533 1.40905502 -0.00119166 0.00000000
1.50887467 0.34818358 0.00143700 0.00000000
3.81027925 1.74476189 -0.00172200 0.00000000
1.15594821 1.69412981 -0.00115263 0.00000000
2.25802460 0.23946943 0.00031094 0.00000000
1.75109611 0.83671815 -0.00127601 0.00000000
1.62684690 1.39834158 0.00651502 0.00000000
3.82480241 1.12565465 0.00083292 0.00000000
3.20672719 0.88919565 -0.00210889 0.00000000
0.39362903 1.72616490 -0.00167063 0.00000000
3.08029714 0.79362446 0.00101256 0.00000000
3.56744772 1.00351685 0.00386811 0.00000000
0.88820645 2.18176939 -0.00193075 0.00000000
1.65738381 2.00771927 -0.00204395 0.00000000
3.84148861 1.29005998 0.00243806 0.00000000
1.32912270 0.26371022 0.00163209 0.00000000
1.45602443 1.28054852 -0.00373501 0.00000000
0.64301323 0.41419400 0.00108509 0.00000000
3.44045477 0.56970645 -0.00067018 0.00000000
4.61079634 1.00727995 -0.00630953 0.00000000
2.05372054 1.32843481 -0.00201718 0.00000000
0.24952968 1.08911801 0.00282193 0.00000000
2.17372604 0.94613328 0.00169684 0.00000000
3.50368472 1.62751982 -0.00227163 0.00000000
2.19238361 2.09808693 0.00265162 0.00000000
3.68428501 1.60568968 -0.00221035 0.00000000
1.20070458 0.93790843 -0.00411855 0.00000000
4.07189645 1.77768362 0.00210208 0.00000000
3.47729109 1.52320778 0.00239309 0.00000000
4.01872955 1.97751551 0.00248455 0.00000000
0.79018401 0.08445380 0.00019337 0.00000000
1.52477803 0.64929061 -0.00181213 0.00000000
3.16548526 0.80874161 0.00380751 0.00000000
2.95196621 0.04612512 0.00210797 0.00000000
0.17228243 0.94887399 -0.00142398 0.00000000
1.62237814 0.78743287 0.00158186 0.00000000
4.03515754 0.96991615 0.00133763 0.00000000
3.39644361 1.28286743 -0.00315792 0.00000000
1.38545738 1.18551033 0.00234665 0.00000000
4.68462468 1.13184258 -0.00039008 0.00000000
4.58170640 1.83430336 0.00065812 0.00000000
1.93694953 0.02078524 0.00491081 0.00000000
1.13787366 2.03870334 0.00081136 0.00000000
2.61334484 1.96959672 0.00007682 0.00000000
2.09488056 0.05233213 0.00428274 0.00000000
3.15564496 1.53169025 -0.00030436 0.00000000
4.29563146 1.52764932 -0.00196287 0.00000000
0.86417314 0.11119794 0.00103065 0.00000000
2.42524421 1.22295955 -0.00227646 0.00000000
3.86597385 0.95984825 0.00433848 0.00000000
2.18910069 0.87208721 0.00554891 0.00000000
1.76987145 0.25250846 -0.00298174 0.00000000
3.15623664 0.62353082 0.00425686 0.00000000
3.38428328 0.70722048 -0.00320036 0.00000000
1.91470863 0.66148624 0.00115222 0.00000000
2.44873598 0.70986197 -0.00120689 0.00000000
2.94469136 0.12642387 -0.00298746 0.00000000
2.12439448 2.01655887 0.00047201 0.00000000
2.78894031 1.91357495 0.00251683 0.00000000
0.51618765 0.40671593 -0.00536605 0.00000000
3.30639119 1.44703718 -0.00512749 0.00000000
3.88939448 0.70539450 -0.00304960 0.00000000
3.08914116 2.19093507 0.00099635 0.00000000
4.65112574 1.94533072 0.00115935 0.00000000
4.72209813 1.10244466 -0.00201457 0.00000000
1.78896839 1.22037543 -0.00478537 0.00000000
2.22156634 1.56254783 0.00066526 0.00000000
0.08872849 0.07070112 0.00073889 0.00000000
4.60319086 2.09861827 0.00087423 0.00000000
4.42690218 0.94467933 0.00249937 0.00000000
4.31356395 1.06121936 -0.00010269 0.00000000
2.54517899 0.85809433 -0.00120624 0.00000000
3.42986077 1.84348111 -0.00291712 0.00000000
3.71273090 2.07699889 0.00159571 0.00000000
2.75809168 1.61731520 -0.00113223 0.00000000
2.59168112 1.25490556 0.00195886 0.00000000
2.76968367 0.26638759 -0.00589574 0.00000000
4.61574895 0.08052272 -0.00103809 0.00000000
1.64663993 1.09407227 0.00044462 0.00000000
2.31385958 0.86325601 0.00332512 0.00000000
0.18042075 1.84577886 0.00232627 0.00000000
0.23977568 1.04235717 0.00008659 0.00000000
2.29416658 0.53646757 -0.00216759 0.00000000
1.78919380 0.94257386 -0.00359025 0.00000000
2.38976518 0.02443271 -0.00425064 0.00000000
1.76107069 1.15504953 -0.00217674 0.00000000
1.42683061 2.16964672 -0.00187927 0.00000000
3.44146796 2.19770268 -0.00264542 0.00000000
1.26236745 0.53959527 0.00101705 0.00000000
2.63551759 0.13059947 0.00141683 0.00000000
4.21926872 1.51398598 0.00153860 0.00000000
1.53114182 1.58355208 -0.00048400 0.00000000
2.96409490 0.02181396 -0.00154838 0.00000000
1.33898362 1.63592439 0.00088068 0.00000000
3.73533984 0.38789153 -0.00485398 0.00000000
4.76455084 1.50265619 -0.00218694 0.00000000
4.64777933 0.02113145 -0.00483479 0.00000000
4.35361879 0.54469510 0.00276917 0.00000000
0.34742230 1.01513702 -0.00470391 0.00000000
2.82333072 0.76136840 -0.00588032 0.00000000
1.57273195 1.66367398 -0.00409593 0.00000000
4.55752636 1.44996040 0.00427100 0.00000000
2.90644128 1.82538435 -0.00145369 0.00000000
0.30862557 0.05143223 0.00193101 0.00000000
1.89992109 0.00982903 -0.00108636 0.00000000
3.57860192 0.47922844 -0.00104358 0.00000000
2.67919643 0.62017903 0.00018721 0.00000000
3.79524078 0.72618367 0.00214544 0.00000000
3.63629689 0.13743113 -0.00585247 0.00000000
4.01360147 0.96060545 0.00462326 0.00000000
1.25936766 0.98721627 -0.00015628 0.00000000
1.02750706 0.12863746 0.00704500 0.00000000
4.33273749 0.52848525 -0.00219816 0.00000000
1.54012451 0.67398871 -0.00272530 0.00000000
2.74511965 1.29620114 0.00581335 0.00000000
3.00695775 0.29785512 0.00308410 0.00000000
2.85196922 1.23467001 -0.00031639 0.00000000
0.64679039 0.40240722 0.00299813 0.00000000
1.29728076 1.25253152 -0.00209312 0.00000000
2.89066116 0.77504909 -0.00350636 0.00000000
1.50177275 1.52051684 -0.00324610 0.00000000
0.38925106 1.69818444 0.00292560 0.00000000
4.44412881 1.62802513 -0.00176321 0.00000000
0.03076708 0.71283085 -0.00237710 0.00000000
4.19870118 0.34687965 0.00331694 0.00000000
3.20765416 1.17404606 -0.00270755 0.00000000
4.42895857 0.72884061 -0.00231125 0.00000000
2.07567477 0.20344978 -0.00148078 0.00000000
4.38779519 0.40372358 0.00324901 0.00000000
1.45267597 1.58188233 -0.00086532 0.00000000
3.78044268 1.21670464 0.00075152 0.00000000
4.37493024 1.85604602 -0.00194708 0.00000000
4.12370148 1.30661307 -0.00247416 0.00000000
0.04481309 0.36832330 -0.00288821 0.00000000
3.69912781 2.08358238 0.00024832 0.00000000
0.69627209 0.71103040 0.00127876 0.00000000
2.09545824 0.12445639 0.00164306 0.00000000
2.72191254 0.57824956 0.00233065 0.00000000
1.64061733 0.55912284 0.00627679 0.00000000
4.03796866 1.32089690 0.00035399 0.00000000
0.58461364 1.14003474 -0.00026076 0.00000000
1.06698951 0.98953840 0.00021554 0.00000000
0.84453219 0.19869226 -0.00465090 0.00000000
4.28098910 0.08541690 0.00129553 0.00000000
3.51503746 1.33143172 -0.00262258 0.00000000
1.91989971 1.13957758 0.00094574 0.00000000
1.86702418 0.66159854 0.00265411 0.00000000
4.72164515 2.04441986 0.00094308 0.00000000
4.42679325 1.31929147 0.00057624 0.00000000
1.49338147 1.17792385 0.00574244 0.00000000
0.28630080 0.92312498 -0.00018277 0.00000000
4.54190146 0.42557295 -0.00681598 0.00000000
2.90959722 0.59930253 0.00082631 0.00000000
2.80356949 0.84217038 0.00033740 0.00000000
3.89439055 0.80333711 -0.00020433 0.00000000
1.21933517 2.19431052 0.00064897 0.00000000
2.45685751 0.18391714 0.00057929 0.00000000
2.39544520 0.22817782 0.00225623 0.00000000
3.82378636 1.33572918 -0.00266951 0.00000000
0.40514341 0.45829413 0.00308329 0.00000000
2.26927407 1.50321448 0.00098058 0.00000000
3.69809615 0.90908235 0.00022780 0.00000000
3.50545969 0.85810308 -0.00015284 0.00000000
2.32867708 0.75095121 -0.00191874 0.00000000
1.31089562 1.79467401 0.00322544 0.00000000
2.16860752 2.02830723 -0.00333316 0.00000000
4.55972586 1.13336032 0.00106697 0.00000000
4.70700122 0.77851324 -0.00077038 0.00000000
4.52201183 0.53813773 -0.00056128 0.00000000
1.75510429 1.84949634 0.00044106 0.00000000
4.03221538 0.45689480 0.00146508 0.00000000
3.61927168 0.04178499 0.00059374 0.00000000
1.70120446 1.50394414 -0.00021960 0.00000000
2.26527762 0.87392479 -0.00253636 0.00000000
1.74805296 1.64718609 0.00404263 0.00000000
3.52196683 0.93996085 -0.00320394 0.00000000
0.15977643 0.92434238 -0.00166033 0.00000000
2.27617297 0.44208770 0.00014087 0.00000000
0.57398810 1.09151319 -0.00072921 0.00000000
3.67483984 2.10676657 -0.00304535 0.00000000
3.16071534 1.54316254 0.00004411 0.00000000
4.29696688 0.27694300 -0.00163140 0.00000000
1.60993400 2.07873630 0.00071309 0.00000000
0.12690161 0.43728043 -0.00313072 0.00000000
1.36733316 1.05937644 -0.00163279 0.00000000
3.00809437 0.69666759 0.00164658 0.00000000
1.73202444 2.19094466 -0.00162690 0.00000000
1.01851105 1.99160691 0.00162581 0.00000000
2.30079868 0.53656883 0.00400030 0.00000000
0.41107583 2.02419128 -0.00024406 0.00000000
3.57168701 0.16512967 -0.00201969 0.00000000
2.70061230 1.26109873 0.00420370 0.00000000
2.31813255 0.96363876 -0.00334291 0.00000000
2.45406121 1.16440666 0.00374817 0.00000000
4.74708876 1.39191803 -0.00216370 0.00000000
4.33604091 0.07337188 -0.00038791 0.00000000
3.32674693 1.65601665 -0.00001230 0.00000000
1.82227422 0.85445177 -0.00129763 0.00000000
1.46909844 0.96838584 0.00331857 0.00000000
2.73594470 2.16027300 0.00047552 0.00000000
1.57328588 2.02123436 -0.00125810 0.00000000
4.27686642 1.80986904 -0.00013574 0.00000000
1.09908010 0.34194367 0.00000546 0.00000000
3.77846254 1.16104478 -0.00252927 0.00000000
1.69793053 2.13380763 0.00164565 0.00000000
3.47363481 0.47152129 0.00401063 0.00000000
4.00291610 1.29316540 -0.00421283 0.00000000
4.59438637 1.35141082 -0.00103915 0.00000000
2.07278004 0.45230252 -0.00171577 0.00000000
1.79719206 1.78824790 0.00125782 0.00000000
4.36284839 1.43279638 0.00153587 0.00000000
1.61927823 0.12024245 -0.00315486 0.00000000
2.20296144 0.57878003 -0.00235684 0.00000000
1.41051357 0.22736229 -0.00104865 0.00000000
3.31556104 0.94352384 0.00276284 0.00000000
2.79024641 0.31801511 -0.00006510 0.00000000
1.50665592 1.15825017 -0.00179674 0.00000000
3.64241075 2.07055044 0.00469125 0.00000000
3.60890492 0.53363865 0.00105328 0.00000000
2.31591703 1.87344196 -0.00151792 0.00000000
2.55466650 0.95391261 -0.00011980 0.00000000
0.36735644 1.41669778 -0.00071943 0.00000000
0.59396531 0.79811568 -0.00117814 0.00000000
2.76657359 0.82545019 0.00124105 0.00000000
3.28881668 1.89207033 0.00015021 0.00000000
3.97300575 1.37667040 0.00233989 0.00000000
3.65908455 1.65355972 -0.00114169 0.00000000
3.48325897 1.01665902 0.00138566 0.00000000
2.67029268 0.03472991 -0.00470803 0.00000000
1.59460918 1.76190035 -0.00292089 0.00000000
2.02568887 0.00719903 0.00039544 0.00000000
4.40141683 2.14423371 -0.00123103 0.00000000
1.87619448 2.19907396 -0.00288857 0.00000000
2.52822390 0.55023480 0.00345061 0.00000000
1.14993411 1.47685055 -0.00162546 0.00000000
0.00050992 0.82018330 -0.00102350 0.00000000
0.12743410 1.22766208 -0.00432011 0.00000000
4.55910741 1.77941966 -0.00282250 0.00000000
4.54904574 0.67994384 0.00104000 0.00000000
0.70419435 0.56021421 0.00248225 0.00000000
0.93316299 1.05548281 -0.00035383 0.00000000
4.33863656 1.10967348 0.00102427 0.00000000
2.66289445 1.76472439 0.00096210 0.00000000
4.50442936 0.80289102 0.00174624 0.00000000
1.76684471 1.60919768 0.00163151 0.00000000
0.69159871 1.79975040 0.00115608 0.00000000
1.91983157 0.09736979 -0.00377882 0.00000000
3.16580389 0.51477233 -0.00384795 0.00000000
1.17479998 0.30217702 0.00318052 0.00000000
4.60512758 0.50982509 -0.00254230 0.00000000
0.36798110 1.91536609 0.00360221 0.00000000
2.59609428 1.70682897 -0.00578438 0.00000000
2.04673348 0.92689192 -0.00267515 0.00000000
3.51143842 0.92800735 -0.00184770 0.00000000
3.27586956 0.48711881 0.00027873 0.00000000
0.70938598 0.26442816 0.00403658 0.00000000
3.04063389 1.45266086 0.00180031 0.00000000
2.59207732 0.35146746 0.00187476 0.00000000
0.94289907 1.28689040 0.00131220 0.00000000
0.88929830 1.27723673 0.00302800 0.00000000
4.42821991 1.29386929 -0.00348236 0.00000000
2.74933368 1.98544407 -0.00298229 0.00000000
0.27965651 1.05485624 0.00074465 0.00000000
2.19259963 0.66235179 -0.00263453 0.00000000
4.60715084 1.10572745 -0.00039621 0.00000000
4.57024911 1.55538875 -0.00575694 0.00000000
0.27629402 1.98944280 -0.00063680 0.00000000
2.84650172 1.18931273 0.00026558 0.00000000
1.31244143 0.25434918 -0.00312380 0.00000000
2.47913686 1.35385900 -0.00179736 0.00000000
4.58279454 0.26886311 0.00017246 0.00000000
0.47122737 1.51358784 0.00156424 0.00000000
3.77131685 1.36739676 -0.00362121 0.00000000
4.68146442 0.08423405 -0.00294423 0.00000000
1.24048600 2.11265506 -0.00007395 0.00000000
4.20705567 1.83061194 0.00450419 0.00000000
1.86726410 0.95363242 0.00157599 0.00000000
1.30796122 1.47842327 -0.00383852 0.00000000
4.46652264 0.64640591 0.00532360 0.00000000
2.81161274 1.22838028 0.00284564 0.00000000
3.40433499 0.64028197 0.00179462 0.00000000
1.89562918 0.42348228 0.00113962 0.00000000
1.60168690 1.56235729 0.00011836 0.00000000
1.88313100 1.54173506 -0.00331888 0.00000000
1.91238500 0.29264355 0.00047184 0.00000000
1.20025807 1.34381736 -0.00080268 0.00000000
2.32820934 0.62455863 0.00206211 0.00000000
2.39534381 0.63792914 0.00268343 0.00000000
4.76131591 0.73991142 0.00025768 0.00000000
4.64913217 1.92572675 0.00307341 0.00000000
2.50766895 1.33984776 -0.00302052 0.00000000
4.69568891 0.83581670 -0.00067000 0.00000000
3.43705120 2.01047964 -0.00065052 0.00000000
1.04991930 1.94043748 0.00109911 0.00000000
2.68621122 1.83597247 0.00040377 0.00000000
1.25059838 1.58780661 0.00150521 0.00000000
3.59618137 0.86090803 0.00132011 0.00000000
2.96046109 1.10889749 0.00247297 0.00000000
0.29160985 2.18125918 0.00323721 0.00000000
0.03521279 0.93061567 -0.00173904 0.00000000
0.91277652 0.02539610 0.00148168 0.00000000
2.64442515 0.62483587 -0.00166896 0.00000000
1.06230178 1.38468438 -0.00203392 0.00000000
0.65549907 0.28312257 0.00332153 0.00000000
1.49584587 0.65792198 0.00239061 0.00000000
0.04924917 0.84956705 0.00099794 0.00000000
2.19935996 0.78544276 -0.00260890 0.00000000
2.29646684 2.06621719 -0.00063525 0.00000000
3.51003870 0.01225055 -0.00412901 0.00000000
4.27884179 1.91534434 -0.00198259 0.00000000
0.84214840 0.37965647 -0.00196749 0.00000000
4.06412328 0.83686115 -0.00222182 0.00000000
2.52685836 1.25263509 0.00111310 0.00000000
3.11577254 0.48711198 0.00334809 0.00000000
0.77450157 0.63785233 0.00144198 0.00000000
4.02944127 0.10853521 -0.00284036 0.00000000
1.36195461 0.62366287 -0.00049365 0.00000000
2.89235967 0.29568610 -0.00028217 0.00000000
0.93612902 1.27159104 0.00825402 0.00000000
2.89953169 1.35195398 -0.00309884 0.00000000
0.63539242 0.88374425 0.00690040 0.00000000
2.91643271 1.50356416 0.00182876 0.00000000
2.28434464 0.58948546 0.00120918 0.00000000
0.97313320 2.12727326 -0.00068850 0.00000000
0.78160903 0.94683645 -0.00486501 0.00000000
2.14610443 1.18780989 0.00212627 0.00000000
0.63846063 1.93582748 -0.00253181 0.00000000
1.82750635 1.50866396 -0.00261833 0.00000000
2.33093706 0.31380761 0.00323700 0.00000000
3.56601057 0.38302241 0.00175302 0.00000000
1.87096356 0.87317965 0.00099290 0.00000000
1.50025737 0.64034855 -0.00184753 0.00000000
0.94099186 0.41835989 0.00064995 0.00000000
2.28636805 0.38889945 0.00075061 0.00000000
3.99864714 1.21927095 -0.00225495 0.00000000
2.07734457 1.29791480 0.00572450 0.00000000
1.16690140 0.91531117 0.00158822 0.00000000
1.61495143 0.67340028 0.00401447 0.00000000
4.63596308 1.79870892 0.00252139 0.00000000
3.22670731 0.29388894 0.00098939 0.00000000
3.25105218 0.20732251 -0.00153466 0.00000000
1.14137194 1.84322846 -0.00157583 0.00000000
2.86546775 0.80240504 0.00229432 0.00000000
3.59204970 1.45708883 0.00165635 0.00000000
4.42233856 0.47915620 -0.00145676 0.00000000
1.83610119 0.38206723 0.00019320 0.00000000
4.07787416 1.20388129 0.00202233 0.00000000
1.53958705 1.22034941 -0.00157451 0.00000000
2.19679027 0.99411921 0.00246846 0.00000000
3.79735565 2.01223706 0.00054173 0.00000000
3.24451993 0.97210988 -0.00197621 0.00000000
3.53630804 0.25836992 -0.00399989 0.00000000
4.22352448 1.82566311 0.00053599 0.00000000
2.16377804 0.70627803 -0.00391544 0.00000000
1.00281927 0.42224660 -0.00524846 0.00000000
1.71580329 0.55207408 -0.00329528 0.00000000
1.08647464 0.18936856 0.00064828 0.00000000
2.22948164 0.17299461 -0.00179680 0.00000000
0.17298814 0.55584085 0.00022744 0.00000000
2.36926207 1.47631984 -0.00405519 0.00000000
1.78678459 0.75414120 -0.00036609 0.00000000
0.23438979 0.25905409 -0.00562109 0.00000000
0.12352827 1.89300011 -0.00211567 0.00000000
3.11848879 1.98502082 0.00083950 0.00000000
1.81460616 0.74047635 0.00144857 0.00000000
1.59120840 1.82686318 0.00453523 0.00000000
3.07540589 0.69375074 -0.00257930 0.00000000
0.02264076 1.08725073 0.00402415 0.00000000
4.01337978 0.70226360 0.00045983 0.00000000
3.61155620 0.43575467 -0.00021901 0.00000000
1.77625684 2.06624501 0.00140043 0.00000000
1.44012020 0.65447972 0.00293042 0.00000000
1.99877978 1.08328240 0.00079858 0.00000000
2.96585935 1.03574352 -0.00407960 0.00000000
3.16776226 1.25227853 0.00109063 0.00000000
2.77704264 0.87944398 0.00260568 0.00000000
0.84556685 1.86991007 -0.00175896 0.00000000
3.95601061 0.05547341 -0.00089548 0.00000000
4.07062421 1.58946833 0.00179875 0.00000000
2.60245253 1.17943224 -0.00106065 0.00000000
4.45540460 0.18894433 0.00148645 0.00000000
3.57784652 2.10192625 -0.00641260 0.00000000
2.00656219 0.20330404 0.00042631 0.00000000
3.33369110 0.02865610 -0.00149308 0.00000000
3.19512109 0.89408258 0.00382579 0.00000000
4.27149802 0.82380222 -0.00439099 0.00000000
4.06438116 0.67790461 -0.00212308 0.00000000
4.25847284 0.97346371 0.00397999 0.00000000
1.09536880 0.15642441 -0.00495359 0.00000000
1.68115067 0.50797574 -0.00038827 0.00000000
1.63762399 1.87549366 0.00012505 0.00000000
2.09741821 0.77474271 -0.00292338 0.00000000
0.86490229 1.35505764 0.00160978 0.00000000
2.23463080 1.56705812 -0.00060307 0.00000000
1.03716363 0.99888901 0.00208130 0.00000000
1.93624932 0.15761878 0.00050064 0.00000000
2.76493225 1.43165953 -0.00292928 0.00000000
2.20211551 0.31030634 -0.00231157 0.00000000
2.85895281 0.14750619 -0.00018676 0.00000000
0.71711419 0.43011535 -0.00050804 0.00000000
0.08129706 0.15918373 0.00288188 0.00000000
2.20033248 1.14115883 -0.00400519 0.00000000
3.81822171 0.30667079 -0.00067516 0.00000000
4.18448467 1.54516806 0.00189588 0.00000000
4.67671849 0.32312321 0.00086060 0.00000000
4.14523893 0.36523527 0.00146638 0.00000000
1.88310480 0.71873460 0.00103202 0.00000000
0.25783679 2.19249655 0.00229791 0.00000000
0.68686142 0.23272251 0.00047386 0.00000000
4.02788608 0.37578646 0.00044096 0.00000000
4.29790307 0.04545865 0.00275445 0.00000000
1.70940145 1.23143388 -0.00165581 0.00000000
0.06513770 0.69431795 0.00126670 0.00000000
1.29880326 1.71863733 0.00392836 0.00000000
0.98613829 0.47325822 0.00136161 0.00000000
3.28979502 1.18355166 -0.00101277 0.00000000
1.08348045 1.85577341 -0.00575900 0.00000000
0.80803611 1.81482691 0.00019254 0.00000000
2.68905328 0.31896637 -0.00361731 0.00000000
2.22837930 2.07299018 -0.00060892 0.00000000
1.11563762 1.11811599 0.00675465 0.00000000
4.44704661 1.20255427 0.00068579 0.00000000
2.34056060 0.87759200 -0.00304515 0.00000000
2.10309064 0.83090791 0.00208793 0.00000000
3.54415740 1.10695068 0.00382946 0.00000000
4.34665837 1.40852442 -0.00026479 0.00000000
2.44680872 1.35185633 -0.00161941 0.00000000
0.46442082 0.15687325 -0.00125689 0.00000000
0.90703347 2.19310047 0.00071941 0.00000000
2.92121491 0.56886027 0.00668957 0.00000000
4.03370841 0.92763939 -0.00044706 0.00000000
0.05241864 0.33038566 -0.00401299 0.00000000
3.90154431 1.97543688 -0.00041203 0.00000000
3.62290962 0.44489850 0.00175289 0.00000000
0.64490379 0.59927225 0.00036386 0.00000000
2.70714724 0.92768471 0.00220257 0.00000000
1.20533063 0.12001836 -0.00399949 0.00000000
3.21357825 1.61618583 0.00050316 0.00000000
4.38679535 0.62999182 0.00258470 0.00000000
0.97143046 1.20784933 0.00323090 0.00000000
4.41590699 0.85335070 -0.00169358 0.00000000
0.61802054 0.40457983 -0.00233123 0.00000000
1.13429502 1.07797313 0.00036580 0.00000000
3.11209483 0.35703330 -0.00243677 0.00000000
4.58312355 1.48906394 -0.00251640 0.00000000
4.25237738 1.85409506 0.00083116 0.00000000
1.02772870 0.58885394 0.00325541 0.00000000
1.25773087 1.66400134 -0.00266801 0.00000000
3.41749927 0.57995335 0.00049319 0.00000000
2.42055540 0.80663621 0.00174789 0.00000000
4.23981398 0.40473064 -0.00216657 0.00000000
2.76604748 2.00130780 -0.00098760 0.00000000
4.27494494 1.20835301 -0.00052003 0.00000000
2.40556585 0.03746219 0.00010479 0.00000000
2.54532569 0.44579855 -0.00208259 0.00000000
1.27238330 1.94192550 -0.00213011 0.00000000
3.91907344 1.90441201 -0.00235341 0.00000000
1.93014759 0.27393570 -0.00040853 0.00000000
1.70844621 0.69845681 -0.00075550 0.00000000
2.75002935 1.28067539 0.00070038 0.00000000
0.14401464 0.76402940 -0.00292555 0.00000000
3.53412629 1.27561981 -0.00091998 0.00000000
3.91071767 1.28151198 -0.00072990 0.00000000
2.54003379 2.11725807 -0.00166703 0.00000000
3.61731391 1.57696077 -0.00112865 0.00000000
0.53963729 0.38660417 -0.00251795 0.00000000
0.67826655 0.12895108 0.00037992 0.00000000
2.59620978 1.32757877 0.00178024 0.00000000
2.70837758 0.53645914 0.00089620 0.00000000
0.39304725 0.61670705 -0.00368873 0.00000000
3.93187709 1.02297064 0.00125696 0.00000000
3.06681342 1.86049155 0.00016691 0.00000000
1.70211783 1.42047913 0.00213153 0.00000000
1.59507609 1.02924219 0.00460010 0.00000000
4.09970288 0.80132867 0.00125710 0.00000000
3.38685783 0.94704373 -0.00099018 0.00000000
2.34449740 1.11202018 -0.00213533 0.00000000
4.39342148 0.03664740 0.00115658 0.00000000
4.44523253 0.05763724 0.00316638 0.00000000
3.98541779 1.26115802 -0.00533785 0.00000000
2.08985667 0.22651967 -0.00171739 0.00000000
1.35667169 0.97913983 0.00037755 0.00000000
2.22830545 0.77725709 0.00378677 0.00000000
1.84986261 1.51316061 -0.00036352 0.00000000
3.29268277 1.73440286 0.00107526 0.00000000
2.44748271 2.07514167 0.00133381 0.00000000
3.76373795 0.35903304 -0.00518278 0.00000000
0.54836001 1.85371615 0.00192283 0.00000000
1.66023310 0.94174799 0.00067186 0.00000000
0.63949130 1.84931488 -0.00256609 0.00000000
2.41382469 1.72457906 -0.00063122 0.00000000
1.98321921 1.35458578 -0.00104937 0.00000000
3.71136378 2.07699293 -0.00156568 0.00000000
4.46572640 1.65682861 -0.00199776 0.00000000
2.31887186 0.86430739 -0.00050362 0.00000000
0.97310668 0.62699179 -0.00122459 0.00000000
1.18439918 1.57450819 -0.00169611 0.00000000
4.11736198 1.99114691 -0.00116617 0.00000000
4.44722816 1.77823057 0.00724094 0.00000000
3.32028448 0.26265548 -0.00034791 0.00000000
4.68733384 0.08242500 -0.00052859 0.00000000
2.29694359 0.23887563 0.00130964 0.00000000
1.60509690 1.73625478 -0.00106736 0.00000000
3.74939760 2.04966052 0.00056527 0.00000000
1.27965577 0.03970934 -0.00039415 0.00000000
2.61022981 0.74931748 -0.00145036 0.00000000
3.77927603 1.58564264 -0.00110265 0.00000000
3.14257220 0.93440093 -0.00032203 0.00000000
0.75074751 0.02041628 0.00122280 0.00000000
2.72340647 0.08834316 0.00242891 0.00000000
1.70337650 0.07047182 -0.00415069 0.00000000
2.88650306 1.24549154 0.00194600 0.00000000
2.14004532 1.26027423 -0.00156326 0.00000000
0.49511456 0.13632357 0.00056597 0.00000000
0.82813450 1.77265119 -0.00191331 0.00000000
4.12574071 0.94786130 0.00442201 0.00000000
3.06614042 0.47739869 0.00158031 0.00000000
1.18443397 2.15850653 0.00062102 0.00000000
4.61118071 1.03148702 0.00052574 0.00000000
2.54576021 1.33520487 -0.00096908 0.00000000
4.70761646 2.07210359 -0.00400815 0.00000000
2.28640500 0.84273091 0.00155289 0.00000000
3.55730659 1.50661251 0.00136563 0.00000000
0.02476914 2.19320482 0.00089819 0.00000000
1.84193852 1.17031155 -0.00007934 0.00000000
0.24913934 0.01696669 0.00247910 0.00000000
4.07433127 1.22551676 0.00441684 0.00000000
0.88009492 1.05254372 -0.00014722 0.00000000
1.19621377 0.46941549 0.00470786 0.00000000
0.87642952 0.02217605 0.00039446 0.00000000
3.62956449 1.77387311 -0.00007917 0.00000000
3.49162873 1.06311458 -0.00095467 0.00000000
4.43604746 0.65631835 0.00275563 0.00000000
3.75916471 2.08046518 0.00530745 0.00000000
2.07663937 0.22152178 0.00141879 0.00000000
0.57974606 0.61411848 0.00164907 0.00000000
3.52386550 0.71085146 -0.00022658 0.00000000
3.15999007 2.17932981 0.00228960 0.00000000
2.71925455 1.03035188 -0.00053815 0.00000000
0.83184015 0.74554491 0.00433622 0.00000000
2.88743498 1.16372833 0.00109161 0.00000000
0.24096615 0.75160723 -0.00332925 0.00000000
3.19861692 0.31286135 0.00176054 0.00000000
4.70837075 2.06676714 -0.00432220 0.00000000
4.01590795 2.00597079 -0.00037635 0.00000000
2.76274746 1.31438325 -0.00185731 0.00000000
2.40042063 2.12242855 0.00031122 0.00000000
0.26500254 1.26059220 0.00517287 0.00000000
2.13447074 0.10014320 -0.00511345 0.00000000
4.30739724 1.79957780 0.00099413 0.00000000
0.57564345 0.55627969 0.00416218 0.00000000
0.42355452 0.39239985 0.00397804 0.00000000
2.07781949 1.07334563 -0.00042673 0.00000000
1.69814308 1.24179563 -0.00001014 0.00000000
0.22122866 1.34400683 0.00168542 0.00000000
3.79114518 1.19233413 0.00335835 0.00000000
3.74625203 1.51349956 0.00138767 0.00000000
3.10362091 0.01541482 0.00131832 0.00000000
0.33663221 1.05808311 -0.00484363 0.00000000
1.42199253 0.66897890 -0.00263688 0.00000000
2.60709743 2.12182605 -0.00212016 0.00000000
2.20623570 1.52163626 0.00090125 0.00000000
2.25277136 0.25345146 0.00099009 0.00000000
2.65628007 1.19908983 -0.00136569 0.00000000
3.03730044 1.39627465 -0.00216695 0.00000000
1.90673995 0.66672705 0.00374659 0.00000000
0.63873766 1.16712325 0.00108627 0.00000000
4.73024764 0.17816515 0.00189665 0.00000000
4.63710171 0.92843312 0.00376356 0.00000000
0.25889436 0.98403068 -0.00068130 0.00000000
2.56674645 0.38619894 -0.00241675 0.00000000
0.25528844 1.18090226 -0.00285552 0.00000000
0.00994899 2.04886304 0.00055187 0.00000000
3.37085903 1.47887428 -0.00318172 0.00000000
0.06976792 2.11773766 0.00259904 0.00000000
2.37750455 1.30559630 -0.00062328 0.00000000
0.55060909 0.77328515 0.00338590 0.00000000
1.83409890 1.29842008 0.00473004 0.00000000
3.25152792 0.98119100 0.00153744 0.00000000
1.02647236 0.75547616 -0.00444571 0.00000000
3.44255018 1.70887723 -0.00017144 0.00000000
2.80074497 1.25666559 -0.00110155 0.00000000
0.78566517 1.67778633 -0.00249288 0.00000000
0.09001542 1.74118559 -0.00027834 0.00000000
1.12823064 1.77755227 -0.00027744 0.00000000
2.65336909 0.61886084 -0.00033765 0.00000000
3.69247533 0.97512537 0.00004043 0.00000000
0.23910467 1.16724417 0.00042652 0.00000000
0.91559917 1.61781345 0.00168755 0.00000000
1.83517970 1.81985428 0.00031743 0.00000000
2.43283943 1.23796138 -0.00203615 0.00000000
2.92088189 1.37753185 0.00613631 0.00000000
3.30185096 1.66086075 -0.00209581 0.00000000
2.42220348 1.97036753 -0.00227814 0.00000000
4.47155221 1.58289224 0.00238336 0.00000000
0.20676434 0.12240733 -0.00074893 0.00000000
2.14882921 0.91012615 -0.00226253 0.00000000
4.77822809 1.53211036 -0.00115631 0.00000000
3.49217387 0.44280408 0.00255745 0.00000000
2.93793123 0.81154460 0.00170556 0.00000000
1.65424366 0.57171807 -0.00130378 0.00000000
2.37332920 1.55167922 -0.00295179 0.00000000
1.71168350 1.75246394 -0.00096777 0.00000000
1.58061671 0.14982087 -0.00279075 0.00000000
4.56352224 0.18305810 -0.00081851 0.00000000
4.13396593 1.54979967 0.00185475 0.00000000
3.31671541 0.54064595 0.00022353 0.00000000
3.34634756 1.92641794 -0.00055742 0.00000000
0.73566747 1.68344480 -0.00043953 0.00000000
4.73181662 1.14838348 0.00398818 0.00000000
2.42185167 1.16342536 0.00098999 0.00000000
1.06479895 1.34630131 0.00365914 0.00000000
4.72295118 0.10217739 0.00245554 0.00000000
2.89839359 0.71941051 0.00716163 0.00000000
4.48044509 2.07116945 -0.00017179 0.00000000
3.27625658 1.85675271 -0.00068266 0.00000000
0.74721007 1.99202718 0.00281929 0.00000000
1.06034214 1.79613300 -0.00027828 0.00000000
1.58510607 2.19807089 0.00159800 0.00000000
1.33616306 0.72274907 0.00281962 0.00000000
2.67875607 1.53470447 -0.00291529 0.00000000
0.05024375 0.22460614 0.00225134 0.00000000
1.52315005 1.41016749 -0.00391923 0.00000000
3.75922721 0.15846249 0.00479105 0.00000000
1.45581937 0.08514268 -0.00046140 0.00000000
0.36633511 1.91804760 -0.00211987 0.00000000
0.51347156 1.91796033 0.00004483 0.00000000
4.22134286 1.42015599 0.00239641 0.00000000
2.34400692 0.15331478 0.00073118 0.00000000
4.68232559 0.63465467 0.00348029 0.00000000
2.35991327 1.97488181 0.00157019 0.00000000
4.23506604 0.95409547 -0.00277087 0.00000000
2.12071737 1.97529659 0.00367687 0.00000000
3.43376457 1.51819920 0.00091078 0.00000000
0.11056074 2.02042743 0.00086973 0.00000000
4.17725909 0.56942408 0.00003533 0.00000000
1.37969785 1.69054490 0.00247415 0.00000000
3.65755888 1.93959190 0.00046490 0.00000000
3.40488306 1.86478478 -0.00016042 0.00000000
3.11708891 0.90627828 0.00091057 0.00000000
1.23925298 1.39019098 -0.00221646 0.00000000
2.07473633 1.45302488 -0.00235172 0.00000000
4.75673066 2.17312422 -0.00171087 0.00000000
4.23622528 1.31132351 -0.00230425 0.00000000
0.19784155 1.50415918 0.00000389 0.00000000
3.78198396 1.95017739 -0.00092779 0.00000000
0.85922977 1.65325309 -0.00304657 0.00000000
0.23828243 0.93065159 0.00484380 0.00000000
3.41059107 0.42039654 0.00138807 0.00000000
2.69527524 0.98276849 0.00029652 0.00000000
1.02963261 0.69507764 0.00185028 0.00000000
4.00779081 0.94703945 -0.00043404 0.00000000
1.33046303 1.02611780 -0.00072580 0.00000000
0.44864551 1.87172275 -0.00097778 0.00000000
3.43543636 1.22925987 0.00399571 0.00000000
1.14780045 1.63746833 -0.00153643 0.00000000
2.70130091 0.18351716 0.00113700 0.00000000
3.76666727 1.51215318 -0.00246245 0.00000000
3.47662409 1.89808693 0.00079550 0.00000000
4.16973922 0.10253680 -0.00131666 0.00000000
3.45959367 0.66091431 0.00373259 0.00000000
4.23388523 0.68220081 -0.00244645 0.00000000
1.38352311 0.99108682 0.00566783 0.00000000
1.48556655 0.22163956 0.00228330 0.00000000
2.16190423 1.12274074 0.00163998 0.00000000
2.53392688 1.67944862 0.00431769 0.00000000
3.12141539 0.79108264 -0.00002706 0.00000000
3.14567349 0.53384028 0.00070577 0.00000000
1.28659761 1.19044093 -0.00207323 0.00000000
0.36942986 0.03897955 0.00129120 0.00000000
3.17946937 2.15121002 0.00455041 0.00000000
1.13750940 1.61465482 0.00273750 0.00000000
2.13287146 0.94679536 0.00143603 0.00000000
1.47611663 1.15675118 0.00137992 0.00000000
0.37740917 0.79432701 -0.00109410 0.00000000
1.41891656 0.76306254 -0.00461232 0.00000000
2.43581052 1.45693791 -0.00015257 0.00000000
1.76261507 1.22036458 -0.00047191 0.00000000
0.20110525 0.12188287 -0.00379232 0.00000000
3.49115882 0.48462638 -0.00637141 0.00000000
3.36493240 0.04463006 -0.00185398 0.00000000
1.50152401 0.76223493 -0.00296632 0.00000000
2.45866976 1.00164915 -0.00155266 0.00000000
2.85877027 0.59300047 0.00099240 0.00000000
2.03113723 0.45102966 0.00275212 0.00000000
3.30525555 0.24683594 -0.00187877 0.00000000
0.69286478 1.21036518 0.00010607 0.00000000
0.59824210 0.54995013 0.00070369 0.00000000
4.65530694 1.80507805 -0.00321576 0.00000000
0.78779700 1.22989012 -0.00027095 0.00000000
1.02249833 0.43855381 -0.00057212 0.00000000
