3.78954239 1.63747682 -0.00250289 0.00000000
4.19989470 1.77893890 0.00447977 0.00000000
2.52881981 1.84311221 0.00200714 0.00000000
0.07881437 1.04651282 0.00171731 0.00000000
0.12190344 0.51558885 -0.00098324 0.00000000
1.21783474 1.69310268 0.00087405 0.00000000
0.56875554 1.63737235 -0.00130568 0.00000000
4.80875623 0.02240526 -0.00341756 0.00000000
3.68957472 1.21549353 0.00284655 0.00000000
3.38455312 0.92597290 -0.00000633 0.00000000
1.87845993 1.37015916 0.00221475 0.00000000
2.02470300 1.08652883 0.00158593 0.00000000
2.41662939 1.71320790 -0.00322882 0.00000000
4.14617973 0.48981717 -0.00356609 0.00000000
0.32983721 1.79660172 -0.00048347 0.00000000
4.62978864 1.15351427 0.00107090 0.00000000
0.80833787 1.35566470 -0.00110010 0.00000000
4.01386263 1.71287761 -0.00281721 0.00000000
2.89987921 0.74496644 0.00067215 0.00000000
2.62209321 0.38402567 0.00235973 0.00000000
0.23500476 1.30043119 -0.00304567 0.00000000
1.06419060 0.92008357 -0.00331396 0.00000000
3.05231685 0.11362526 0.00107590 0.00000000
2.38278268 0.99748352 0.00030960 0.00000000
1.50080443 1.20012607 -0.00056016 0.00000000
1.08891826 1.79994338 0.00294006 0.00000000
0.26840170 1.56448936 0.00153481 0.00000000
4.14399704 1.77679235 -0.00216196 0.00000000
1.17864374 1.55936452 0.00187063 0.00000000
4.18024819 0.40981851 0.00110880 0.00000000
4.50545501 0.47965192 -0.00030113 0.00000000
3.52629166 0.40644799 -0.00301111 0.00000000
3.67412172 1.35414274 -0.00367561 0.00000000
4.63778642 1.56577673 0.00104775 0.00000000
2.35846617 1.08021440 -0.00287461 0.00000000
2.83095112 1.64083533 -0.00009316 0.00000000
3.54171270 1.20302515 -0.00193103 0.00000000
4.14701634 0.51734450 0.00219897 0.00000000
1.21043778 1.42457284 -0.00259218 0.00000000
2.19355905 1.13806303 -0.00335065 0.00000000
1.21239114 1.45485628 0.00380113 0.00000000
4.51573022 1.72651996 0.00401477 0.00000000
1.41639393 1.61699162 -0.00305309 0.00000000
0.59759545 0.62296782 -0.00015546 0.00000000
2.52609880 1.22886589 0.00085071 0.00000000
2.39068291 0.54366013 -0.00329930 0.00000000
2.07664177 0.77344597 -0.00339914 0.00000000
2.44455278 1.79740892 -0.00177134 0.00000000
4.83012487 0.89268428 0.00519912 0.00000000
2.65111978 1.51474007 -0.00169710 0.00000000
3.06312298 0.79512943 0.00090731 0.00000000
1.00477302 0.93844461 0.00301516 0.00000000
0.66250855 1.20792433 -0.00163982 0.00000000
4.71979928 1.67847180 0.00214000 0.00000000
3.46473070 0.97098414 -0.00026475 0.00000000
0.25073533 1.73897587 0.00223124 0.00000000
0.76970322 1.39221752 -0.00128569 0.00000000
4.75154588 0.72170467 -0.00315091 0.00000000
2.55676787 1.23549896 0.00424563 0.00000000
0.70738362 1.21397796 -0.00233087 0.00000000
4.60808678 0.17032430 -0.00077767 0.00000000
1.50434677 0.71333165 -0.00571807 0.00000000
3.93636778 1.63728396 0.00056770 0.00000000
2.83900551 1.60094915 0.00207451 0.00000000
0.16985543 0.91815659 -0.00001980 0.00000000
0.60429005 0.97858725 -0.00054997 0.00000000
1.94061623 0.20497459 0.00071892 0.00000000
3.12488217 0.15506448 0.00118483 0.00000000
3.18797425 0.85984017 0.00178056 0.00000000
0.83181223 1.07020918 0.00218654 0.00000000
4.13300071 0.54554148 0.00140747 0.00000000
4.24273769 0.87354557 -0.00247882 0.00000000
0.70967123 1.39385328 0.00239450 0.00000000
1.86434088 1.09534841 0.00175369 0.00000000
2.88850740 0.94047412 -0.00039811 0.00000000
4.67875015 1.85966745 -0.00128029 0.00000000
2.65123590 1.80371830 -0.00056389 0.00000000
2.83123348 1.69331464 -0.00472718 0.00000000
0.69914985 1.45622039 0.00333310 0.00000000
3.28265450 0.14260372 0.00162883 0.00000000
2.19415016 1.72671603 -0.00081886 0.00000000
1.99174769 0.84850935 0.00291902 0.00000000
0.95655431 0.54501902 -0.00270409 0.00000000
2.32305212 1.24801811 -0.00090616 0.00000000
2.38685823 1.60785876 0.00075871 0.00000000
1.09931846 1.25116017 0.00542671 0.00000000
2.24315893 0.38285359 0.00203327 0.00000000
0.36852561 1.83344914 0.00059488 0.00000000
4.69815960 1.61960655 0.00052090 0.00000000
3.40260854 0.28496147 0.00371892 0.00000000
3.80599858 1.72414848 0.00236563 0.00000000
4.65292280 1.09840557 0.00063044 0.00000000
3.05460284 1.13308102 -0.00243304 0.00000000
4.78972641 0.24271376 0.00073136 0.00000000
3.02639653 1.74582061 -0.00178023 0.00000000
3.85028929 0.66062388 -0.00106678 0.00000000
0.64159518 0.10424674 0.00086801 0.00000000
4.84259770 0.92632178 -0.00217479 0.00000000
2.92723479 0.39720312 -0.00283004 0.00000000
3.34420831 0.53600867 0.00124471 0.00000000
1.66933822 0.31695663 -0.00242146 0.00000000
4.83071120 0.51298169 -0.00184240 0.00000000
0.09984676 0.48938962 0.00246210 0.00000000
3.10620334 0.59838676 0.00047181 0.00000000
4.71281375 0.92885985 -0.00056994 0.00000000
3.45334647 0.77778252 0.00090519 0.00000000
2.12255672 0.35717655 0.00480854 0.00000000
3.17607989 0.02204449 0.00171844 0.00000000
4.17079416 1.69484283 0.00268691 0.00000000
4.66131653 1.07145202 -0.00117460 0.00000000
1.69076443 1.47120403 -0.00163946 0.00000000
2.72861624 0.09421452 0.00168886 0.00000000
1.20357836 0.93628481 0.00093747 0.00000000
4.44472477 1.05352238 -0.00319500 0.00000000
2.09404269 0.07366525 0.00084869 0.00000000
0.72689636 1.42678349 0.00184744 0.00000000
1.42645973 1.03295827 -0.00321352 0.00000000
1.99011735 1.00553877 0.00212327 0.00000000
4.10836170 0.24525590 -0.00325610 0.00000000
3.52669123 1.26340858 -0.00325645 0.00000000
1.11344080 1.80676079 -0.00213281 0.00000000
0.46216089 0.03235293 0.00188377 0.00000000
3.59295694 1.54174658 0.00116338 0.00000000
1.32700554 0.92970021 -0.00191177 0.00000000
1.06289265 1.07003085 0.00209601 0.00000000
4.55565236 0.18173639 -0.00019584 0.00000000
4.14551481 1.73102126 0.00092639 0.00000000
3.89887000 1.26089600 -0.00123183 0.00000000
4.32244575 0.70700221 -0.00176346 0.00000000
0.32758544 1.35937479 -0.00043842 0.00000000
1.04441433 1.71454014 -0.00127007 0.00000000
2.70766401 1.45784678 -0.00006668 0.00000000
2.51833773 0.59221171 0.00241237 0.00000000
1.38780663 1.05696303 0.00448824 0.00000000
1.35315898 0.96960616 0.00496528 0.00000000
2.45055431 0.82714275 0.00032493 0.00000000
3.18475044 1.57511255 -0.00169172 0.00000000
1.30870058 1.57448223 0.00068086 0.00000000
3.34766149 0.28118123 0.00200969 0.00000000
4.21748219 0.18529695 0.00160428 0.00000000
3.94964232 0.95396214 -0.00042880 0.00000000
3.37253053 0.13032369 -0.00000778 0.00000000
0.57766825 1.56829157 -0.00148464 0.00000000
2.19522787 1.54869664 0.00088279 0.00000000
0.93904187 1.48346046 -0.00420517 0.00000000
4.76571130 0.84844565 0.00442795 0.00000000
2.45983960 1.82095864 -0.00125200 0.00000000
2.57790430 1.68528243 0.00213145 0.00000000
1.73842434 1.71571088 -0.00267970 0.00000000
4.49127284 0.68879810 0.00023747 0.00000000
3.55339803 0.32183979 0.00113882 0.00000000
4.48335125 0.33038286 0.00049832 0.00000000
1.47515134 1.63158331 0.00280718 0.00000000
0.40490295 1.67296527 -0.00227022 0.00000000
2.85790753 0.72324915 -0.00015506 0.00000000
2.50970133 1.78750913 0.00099971 0.00000000
0.27983038 0.23958251 0.00189799 0.00000000
3.36509948 1.32995210 -0.00033366 0.00000000
1.25753255 0.42178814 0.00234220 0.00000000
3.67711224 0.55870628 -0.00009911 0.00000000
0.76374004 0.12121128 0.00392223 0.00000000
0.14674110 1.04526277 -0.00088293 0.00000000
3.61185602 0.21486538 0.00620457 0.00000000
3.32144154 1.19950589 0.00490601 0.00000000
0.65233282 1.33466089 -0.00187793 0.00000000
0.21526552 1.73186995 0.00011688 0.00000000
2.72028887 0.79702954 -0.00275919 0.00000000
0.40603385 0.03405882 -0.00301291 0.00000000
3.73785689 0.81160290 -0.00019121 0.00000000
2.51839769 0.51443903 -0.00118043 0.00000000
4.65609096 0.54200529 -0.00296676 0.00000000
1.25250688 1.74575270 0.00057564 0.00000000
0.31476065 0.57274611 0.00207005 0.00000000
3.45403201 1.07200351 -0.00154851 0.00000000
4.76890731 0.09007279 -0.00138609 0.00000000
4.13628662 0.95302031 -0.00140558 0.00000000
4.67897891 1.48449997 -0.00178404 0.00000000
3.26634318 0.10101306 -0.00019301 0.00000000
0.14129608 1.47429868 -0.00103053 0.00000000
1.79099019 0.32312466 -0.00162797 0.00000000
1.69814745 0.14692548 -0.00009399 0.00000000
2.03166222 0.73240690 -0.00374836 0.00000000
4.13985583 1.39524443 -0.00475527 0.00000000
4.75337644 1.11538939 0.00094065 0.00000000
1.05209815 0.63466649 -0.00070737 0.00000000
3.30560700 1.20182132 0.00064439 0.00000000
4.45795014 0.34019648 -0.00139473 0.00000000
0.75565026 0.39925463 0.00057351 0.00000000
2.09250121 1.44314608 0.00062726 0.00000000
0.62376328 1.47748724 0.00180015 0.00000000
2.94603508 0.59787855 0.00346226 0.00000000
4.19499728 1.26759569 0.00143073 0.00000000
4.74094796 0.47244755 0.00105625 0.00000000
1.47732461 0.04737678 -0.00225588 0.00000000
4.71626681 0.96979779 -0.00427003 0.00000000
2.82778639 0.31496950 -0.00287841 0.00000000
0.13338655 0.67971502 -0.00130980 0.00000000
0.84525754 0.25022865 -0.00263280 0.00000000
1.14824703 0.99166666 -0.00408207 0.00000000
4.54360841 1.12720099 0.00239855 0.00000000
3.65085806 0.32784042 -0.00496366 0.00000000
4.10206504 0.33896543 0.00208162 0.00000000
4.84786019 0.32134271 -0.00155426 0.00000000
2.30421221 0.28736632 0.00246295 0.00000000
4.33145507 0.53274486 0.00051203 0.00000000
3.12021779 0.91574458 0.00071760 0.00000000
3.44252581 0.65204242 -0.00628585 0.00000000
2.20693608 0.65125343 -0.00182481 0.00000000
1.72054532 0.32244401 -0.00304385 0.00000000
1.66688628 1.72768986 0.00219953 0.00000000
0.03480897 1.41268736 -0.00077810 0.00000000
0.66461555 1.02696358 0.00103641 0.00000000
2.93650343 1.06988772 -0.00269582 0.00000000
2.33453810 0.59709301 0.00160890 0.00000000
3.43840215 1.07843568 -0.00168682 0.00000000
0.71976070 0.37804869 -0.00087167 0.00000000
2.56425853 0.46179076 -0.00284391 0.00000000
4.82444915 0.90996093 0.00083585 0.00000000
1.86172018 0.96778351 -0.00180474 0.00000000
2.88230316 0.66924506 -0.00342201 0.00000000
0.39099651 1.44144995 -0.00061120 0.00000000
3.53281222 0.08791437 0.00191576 0.00000000
2.94146376 0.40826352 -0.00619495 0.00000000
1.66291074 1.73933222 -0.00023164 0.00000000
4.21572734 1.00852533 -0.00189295 0.00000000
3.88394795 1.33384012 -0.00239099 0.00000000
0.50528939 0.53589665 0.00047302 0.00000000
1.84768105 0.56581476 -0.00443637 0.00000000
1.84400231 1.37517653 -0.00110829 0.00000000
2.51614991 0.67782642 0.00368859 0.00000000
4.14164319 0.65219415 -0.00056648 0.00000000
4.62753915 1.36567830 0.00195177 0.00000000
1.08397268 1.25916923 -0.00305716 0.00000000
1.06152357 1.09403764 -0.00182595 0.00000000
3.84667137 1.55149101 -0.00291915 0.00000000
3.32567197 0.96943035 0.00215214 0.00000000
0.20565803 1.47423722 -0.00145682 0.00000000
3.96022415 0.47450189 0.00487557 0.00000000
2.01428456 0.59011274 -0.00119406 0.00000000
0.77147506 1.55322757 0.00320756 0.00000000
0.15932831 0.05029918 -0.00302510 0.00000000
3.83906802 0.01926608 -0.00083718 0.00000000
4.47670013 1.82142956 0.00466645 0.00000000
1.11304746 0.99433685 -0.00002155 0.00000000
2.54634050 1.78428358 0.00139085 0.00000000
3.68139729 0.44921440 0.00088106 0.00000000
1.98347380 1.84225092 0.00149104 0.00000000
3.60481895 1.37354849 -0.00154352 0.00000000
3.11276934 1.57337652 -0.00400917 0.00000000
1.61552600 1.45599306 0.00039116 0.00000000
0.21932317 0.02360304 0.00139896 0.00000000
2.04443403 0.22011634 0.00167091 0.00000000
3.93031190 1.53282910 0.00083488 0.00000000
2.26763306 1.51145116 -0.00240310 0.00000000
2.35419978 0.22033922 0.00134174 0.00000000
4.62358417 1.40936081 -0.00055598 0.00000000
4.01796849 1.25039534 -0.00050406 0.00000000
2.31565113 0.39443121 -0.00157445 0.00000000
4.68106943 0.61012285 0.00265413 0.00000000
4.33003168 1.11003007 -0.00110475 0.00000000
0.58361249 0.53648929 0.00111825 0.00000000
2.16157575 0.01653873 -0.00247496 0.00000000
2.16695500 1.03011388 -0.00327150 0.00000000
4.47152112 1.75695217 -0.00523351 0.00000000
0.76289124 1.79199483 -0.00052351 0.00000000
1.32186889 1.65467783 -0.00464713 0.00000000
4.67560425 0.71927467 -0.00191455 0.00000000
0.03125146 0.86768251 -0.00052526 0.00000000
1.53617081 0.84539095 -0.00185520 0.00000000
4.38632430 1.53140950 -0.00025377 0.00000000
4.80224944 1.44500747 0.00154876 0.00000000
1.37948636 1.04208248 0.00013538 0.00000000
1.50907731 0.55420774 0.00432362 0.00000000
3.56875489 1.12266277 -0.00295605 0.00000000
4.59752883 0.48409628 -0.00098831 0.00000000
1.36887772 0.51489209 0.00483470 0.00000000
2.51706480 0.43583641 0.00044381 0.00000000
2.22011000 1.18985248 -0.00253849 0.00000000
0.58743144 0.28746655 -0.00338946 0.00000000
0.27718185 1.59438678 0.00545546 0.00000000
3.44666775 1.08239473 0.00152476 0.00000000
3.03261843 1.24430463 0.00033116 0.00000000
1.74839623 0.41369305 -0.00297193 0.00000000
0.47464506 1.36629896 0.00065475 0.00000000
4.59048484 0.68881125 0.00027670 0.00000000
0.12103618 1.59605448 -0.00055329 0.00000000
2.03851439 1.20317984 0.00028551 0.00000000
4.08663792 1.47235152 -0.00017376 0.00000000
1.99742465 1.81673297 0.00402388 0.00000000
0.81628426 0.03082263 -0.00039481 0.00000000
2.29300157 0.15235606 -0.00263100 0.00000000
3.27923811 1.11042794 -0.00172183 0.00000000
3.36379657 1.81741458 0.00109820 0.00000000
4.65425882 1.24680261 -0.00389544 0.00000000
2.79416634 0.59678606 -0.00439794 0.00000000
0.10980888 1.26979963 -0.00565492 0.00000000
0.12017695 1.28872926 0.00021375 0.00000000
1.35102063 0.50390636 -0.00164141 0.00000000
2.78149725 1.11592051 0.00194441 0.00000000
0.11829185 0.26971784 0.00385845 0.00000000
0.60649664 0.98685317 0.00149493 0.00000000
1.83951233 0.02608073 -0.00065712 0.00000000
3.62130952 1.33630274 -0.00271157 0.00000000
0.36706501 0.50356242 0.00293869 0.00000000
3.19543867 1.37277589 -0.00474963 0.00000000
0.01801231 1.07732514 0.00402741 0.00000000
2.89602775 1.51996015 -0.00013361 0.00000000
0.63644235 1.10717773 0.00122386 0.00000000
1.14859150 1.22626347 0.00080526 0.00000000
2.47902760 0.70044427 0.00088146 0.00000000
3.16928568 0.55817516 0.00362462 0.00000000
4.82291581 1.00998301 -0.00235564 0.00000000
0.90664155 0.91162822 -0.00118210 0.00000000
3.68394046 0.62758161 -0.00223315 0.00000000
0.17741725 0.64158641 0.00333803 0.00000000
1.39449001 1.71588578 0.00028265 0.00000000
4.09093220 0.91551348 -0.00318700 0.00000000
1.36124404 1.77296676 0.00024087 0.00000000
2.48996296 1.52988686 -0.00030899 0.00000000
1.28040603 0.04907211 0.00016903 0.00000000
2.15398693 1.33920499 -0.00098658 0.00000000
3.64173028 1.07898498 0.00285245 0.00000000
0.17430929 0.33137846 0.00128392 0.00000000
2.02545185 0.67786065 0.00074249 0.00000000
1.83356952 1.24002410 0.00154719 0.00000000
4.50764736 0.31204660 0.00229930 0.00000000
0.66417172 1.77799039 -0.00127143 0.00000000
1.28549448 0.53471153 -0.00399073 0.00000000
4.78850857 0.48020185 0.00369795 0.00000000
4.34043162 1.44523037 -0.00322023 0.00000000
4.36698943 0.07441066 -0.00313957 0.00000000
0.35587683 0.13285914 0.00295521 0.00000000
0.08503017 0.73714904 -0.00068498 0.00000000
0.16830231 1.08369983 0.00431129 0.00000000
4.34539434 0.33839622 0.00202323 0.00000000
0.24276335 0.63681267 -0.00556262 0.00000000
0.88823445 1.27475745 -0.00160080 0.00000000
3.62184649 0.86735028 0.00400285 0.00000000
3.66845919 0.09097643 0.00192376 0.00000000
0.82260070 1.17827538 -0.00036823 0.00000000
3.48815679 0.45364274 0.00023953 0.00000000
3.36783051 0.43922627 -0.00018744 0.00000000
2.61078810 0.10530744 0.00114153 0.00000000
3.94768814 0.66621602 -0.00149640 0.00000000
4.73018906 0.94849398 0.00118485 0.00000000
4.24999981 0.31946958 0.00031780 0.00000000
3.91457338 1.84829182 -0.00128668 0.00000000
1.43867563 0.08112647 -0.00101226 0.00000000
4.60239378 1.57176027 0.00196400 0.00000000
0.36550640 0.92698498 -0.00271800 0.00000000
4.06776076 0.20696410 -0.00024747 0.00000000
4.81809232 1.00622291 0.00172173 0.00000000
0.36518158 1.46606739 -0.00452126 0.00000000
2.02944934 1.32866578 0.00501836 0.00000000
0.01496776 0.06885233 0.00120603 0.00000000
3.00449414 0.44983667 0.00094076 0.00000000
0.09761231 0.57484720 0.00032824 0.00000000
2.98549863 0.48213646 0.00072193 0.00000000
2.01064234 0.91982663 0.00313948 0.00000000
1.67005688 0.09835007 0.00142587 0.00000000
2.30136305 1.41699091 0.00091323 0.00000000
0.84072885 0.85118108 -0.00300617 0.00000000
3.70936011 1.12352946 0.00072511 0.00000000
3.33188650 0.46505978 0.00098220 0.00000000
3.71055814 1.42424738 -0.00469533 0.00000000
2.13356386 1.38564764 0.00060494 0.00000000
1.70138473 1.35727271 0.00425155 0.00000000
4.29333946 0.37580858 -0.00413118 0.00000000
1.20372801 1.19220676 0.00160991 0.00000000
2.81775723 0.39345593 0.00121291 0.00000000
4.67296764 1.00271593 0.00085053 0.00000000
0.99027308 1.36160706 -0.00074163 0.00000000
0.25669957 1.32664784 -0.00813870 0.00000000
4.35356212 0.51439679 -0.00442427 0.00000000
1.19904718 0.50039234 0.00163060 0.00000000
2.72343541 0.14447783 -0.00155850 0.00000000
1.05085168 0.45175899 0.00184012 0.00000000
2.64700890 1.82546236 0.00329886 0.00000000
0.00947781 0.60753685 -0.00094958 0.00000000
3.86099027 0.15189015 0.00053325 0.00000000
3.38479973 0.09203268 -0.00204874 0.00000000
0.06149517 1.72581477 -0.00098821 0.00000000
4.82409726 0.54573049 0.00042225 0.00000000
4.07503680 0.95583349 0.00036868 0.00000000
2.62261981 1.61581247 0.00369861 0.00000000
2.27310777 0.38287715 -0.00256085 0.00000000
1.94676957 1.68574609 0.00356809 0.00000000
4.70591536 1.12344528 -0.00386227 0.00000000
0.54719301 0.68876007 0.00596188 0.00000000
0.36565841 0.17014639 -0.00153999 0.00000000
3.71873237 0.25015575 -0.00158926 0.00000000
4.01800617 1.34838988 0.00149760 0.00000000
4.20259851 0.99794291 0.00147178 0.00000000
2.31176012 0.94201178 0.00038795 0.00000000
2.50737317 1.07546781 -0.00082036 0.00000000
4.32318933 0.19605975 -0.00025699 0.00000000
3.47198316 1.85043538 0.00346516 0.00000000
0.27155644 0.05954181 -0.00536593 0.00000000
2.70031960 1.01579487 -0.00152860 0.00000000
0.90666453 1.59657057 0.00318031 0.00000000
2.10671154 1.65332376 0.00241536 0.00000000
4.46006597 0.68616618 -0.00341806 0.00000000
3.29247468 0.61721217 -0.00152214 0.00000000
2.09909565 1.57384660 0.00057941 0.00000000
4.56675961 0.85041926 -0.00209116 0.00000000
3.94763768 1.29737179 -0.00009542 0.00000000
1.09374134 1.53411750 -0.00058304 0.00000000
3.33469596 1.52248437 0.00206349 0.00000000
0.38724452 1.56056034 0.00145935 0.00000000
0.88819418 1.22428705 -0.00029405 0.00000000
2.25072624 1.67759343 0.00272043 0.00000000
3.72798319 1.63938636 0.00223702 0.00000000
4.44184682 0.36080370 0.00036805 0.00000000
1.62328336 0.40241323 0.00061522 0.00000000
3.80332095 1.55929729 -0.00137901 0.00000000
2.88869995 1.04826769 -0.00174205 0.00000000
3.48206756 1.51958630 -0.00174358 0.00000000
0.86637275 1.76106443 0.00130702 0.00000000
4.30032789 1.42468456 0.00018124 0.00000000
0.54559014 1.27363521 0.00365180 0.00000000
2.02187214 0.07705389 0.00373011 0.00000000
0.76762888 1.56995896 -0.00152665 0.00000000
2.21778982 0.40266994 0.00065731 0.00000000
4.79874672 1.59060480 0.00218891 0.00000000
4.47443862 0.26413746 0.00518142 0.00000000
2.41697897 0.92216370 -0.00037662 0.00000000
3.61875441 0.83151949 0.00267509 0.00000000
3.00512277 1.37502080 0.00262796 0.00000000
3.74238393 1.06901272 0.00058612 0.00000000
0.94068687 0.07450342 -0.00084868 0.00000000
2.85946901 1.39254586 -0.00096495 0.00000000
0.18915230 0.49817554 -0.00200616 0.00000000
4.66483058 0.60666959 0.00479638 0.00000000
2.44410485 1.50139177 0.00435665 0.00000000
4.03990133 1.01944326 0.00092060 0.00000000
2.12557051 1.04767837 0.00031654 0.00000000
4.32593630 0.08539633 -0.00513535 0.00000000
4.09404006 0.50716692 -0.00224032 0.00000000
3.21444781 0.42736258 -0.00042714 0.00000000
2.80764385 0.37198581 -0.00225800 0.00000000
1.29417788 1.50042913 -0.00011707 0.00000000
0.72638963 0.92664480 0.00154743 0.00000000
2.19671651 0.35093642 0.00155040 0.00000000
4.45092830 1.18264081 -0.00032795 0.00000000
1.31058621 0.17863040 -0.00133289 0.00000000
4.56994455 1.64963462 0.00273309 0.00000000
0.79338262 0.50017005 0.00144939 0.00000000
0.46153277 0.12597173 -0.00167472 0.00000000
3.30372002 0.77877421 -0.00109327 0.00000000
3.43053819 1.51772419 0.00171850 0.00000000
3.80520965 0.46031107 -0.00186283 0.00000000
2.02617601 0.31409042 0.00207534 0.00000000
1.75160436 0.73162772 0.00151911 0.00000000
4.08035899 1.30340102 -0.00124766 0.00000000
3.90251681 0.22581884 0.00018063 0.00000000
4.78111945 1.39497593 0.00311683 0.00000000
3.06911769 0.69268120 0.00253609 0.00000000
3.11511456 0.33677244 -0.00206204 0.00000000
2.01825579 1.62483049 0.00196990 0.00000000
0.14920596 0.37660295 0.00211123 0.00000000
0.94044069 0.48956419 0.00017723 0.00000000
0.74256679 1.02619745 0.00138719 0.00000000
2.40371449 1.29194122 0.00127700 0.00000000
4.81340242 1.85354728 -0.00344693 0.00000000
2.27809826 0.28265567 -0.00286806 0.00000000
1.27033528 0.80411292 0.00275994 0.00000000
2.18880279 1.67415642 0.00159735 0.00000000
3.94958327 1.82756288 -0.00411913 0.00000000
4.56841409 0.41958754 -0.00245267 0.00000000
2.00573624 0.46059793 0.00459501 0.00000000
1.64970139 1.16953499 0.00197032 0.00000000
2.22153231 0.23189819 0.00381018 0.00000000
0.96643017 1.64206883 0.00112049 0.00000000
1.49839372 0.17668385 0.00231487 0.00000000
1.75332815 1.63401076 -0.00015133 0.00000000
0.37728789 1.57738425 -0.00247485 0.00000000
2.09170008 0.19841732 0.00076541 0.00000000
4.39761968 0.08119049 -0.00090808 0.00000000
1.92669057 0.73018196 -0.00033602 0.00000000
3.24805010 0.62804751 0.00362437 0.00000000
3.62108184 1.64729564 -0.00241592 0.00000000
3.32212202 1.33457011 0.00014648 0.00000000
4.72776837 0.77730514 0.00404274 0.00000000
0.16270222 1.17048376 -0.00227948 0.00000000
1.82032049 1.41361061 -0.00085145 0.00000000
3.89580696 1.56442882 0.00216233 0.00000000
4.04558275 1.64974359 -0.00370942 0.00000000
1.17328473 0.79307748 -0.00006442 0.00000000
2.12621334 0.07392662 -0.00039913 0.00000000
4.44253128 0.25931324 0.00519569 0.00000000
3.45327565 0.72057801 0.00335457 0.00000000
2.25510555 1.11700169 0.00071964 0.00000000
2.40961701 1.83011409 0.00137791 0.00000000
1.11666277 0.26293649 0.00390891 0.00000000
4.21601806 1.56761866 0.00442056 0.00000000
3.35585317 1.84797251 -0.00414581 0.00000000
3.70917533 0.67265582 0.00044145 0.00000000
4.07228243 0.40060659 0.00416466 0.00000000
2.00675778 0.95420800 0.00057859 0.00000000
0.05907430 0.56062000 -0.00089312 0.00000000
2.03716065 0.26756227 -0.00196302 0.00000000
0.33335559 0.95883806 0.00460266 0.00000000
3.16809979 1.07111190 0.00348232 0.00000000
2.92943230 0.17031287 0.00066342 0.00000000
1.80122383 0.24022964 0.00180047 0.00000000
1.09053620 1.37634629 -0.00089762 0.00000000
0.61697893 0.36406228 0.00088642 0.00000000
1.93911544 0.12760876 -0.00057494 0.00000000
0.25480482 0.07264697 0.00247144 0.00000000
4.85881915 1.70626469 -0.00392406 0.00000000
2.42672072 1.08218394 -0.00214784 0.00000000
1.31261132 1.85659953 0.00198919 0.00000000
2.65979664 0.88728866 -0.00393362 0.00000000
1.66526904 1.79105647 -0.00085564 0.00000000
3.89892661 1.13782812 0.00187935 0.00000000
3.41924354 1.50416998 -0.00235892 0.00000000
3.81502029 0.88524410 -0.00097586 0.00000000
4.28413321 0.94076446 0.00284891 0.00000000
1.64297504 0.98288581 -0.00034349 0.00000000
2.75404925 0.08379650 -0.00375949 0.00000000
4.55071963 1.70769925 -0.00040344 0.00000000
4.68620912 1.77378438 0.00178385 0.00000000
1.64600694 0.84932544 -0.00452744 0.00000000
1.15975947 1.25241546 0.00506264 0.00000000
0.94193390 1.06182038 -0.00094430 0.00000000
4.63184121 1.20703803 0.00311242 0.00000000
0.27750078 0.00678888 -0.00133430 0.00000000
2.76230207 1.65702225 0.00264899 0.00000000
2.76729932 1.52073826 0.00213280 0.00000000
0.86142039 0.93321209 -0.00086365 0.00000000
4.32395456 1.65969059 0.00129666 0.00000000
0.21017792 0.13303166 0.00023862 0.00000000
2.91805071 1.20022070 0.00169212 0.00000000
3.40812823 1.56470354 0.00068165 0.00000000
1.30766499 0.71961094 0.00066161 0.00000000
1.40242518 0.81162083 0.00200111 0.00000000
1.26891239 0.91975517 -0.00338851 0.00000000
2.05623445 1.79358099 -0.00008952 0.00000000
3.80629204 1.49808190 0.00024580 0.00000000
3.32315898 1.16718960 -0.00009057 0.00000000
1.88506586 0.59222743 0.00141690 0.00000000
4.01487613 1.58648803 0.00095748 0.00000000
2.90391465 0.84956508 -0.00097460 0.00000000
1.45861034 1.07435092 0.00198603 0.00000000
1.08023005 0.98088552 -0.00032632 0.00000000
2.05776933 0.93934844 0.00100183 0.00000000
2.91480028 0.54386699 -0.00090522 0.00000000
1.97686936 1.66192233 0.00010000 0.00000000
1.87278819 0.80762628 0.00257892 0.00000000
3.78282450 1.84795642 0.00246323 0.00000000
0.51389191 0.80654274 -0.00036745 0.00000000
4.60012803 0.11747680 0.00162377 0.00000000
3.83180319 1.81369173 0.00140614 0.00000000
0.36512158 0.19060095 0.00650991 0.00000000
0.47265241 1.77521146 0.00329703 0.00000000
3.96841261 1.53955844 0.00210794 0.00000000
3.57318448 1.33509347 0.00426149 0.00000000
4.15174883 1.71479595 0.00036195 0.00000000
4.21361158 1.51909180 0.00534868 0.00000000
2.64935565 0.78714031 0.00179151 0.00000000
1.73342574 0.54421434 0.00372695 0.00000000
1.94469867 0.43277684 0.00044463 0.00000000
2.18471384 0.14632113 -0.00361552 0.00000000
2.79396626 1.85266055 -0.00029059 0.00000000
2.22665479 1.77865545 -0.00207963 0.00000000
1.86256313 1.73112134 -0.00062185 0.00000000
4.76727136 0.83959325 -0.00265695 0.00000000
2.72724513 1.55655583 0.00065484 0.00000000
1.03547465 1.70535251 0.00448049 0.00000000
2.00476435 0.46444161 -0.00137389 0.00000000
2.02256977 0.27056396 -0.00127802 0.00000000
4.11781879 1.49689253 -0.00473422 0.00000000
1.62375294 0.72038897 -0.00202389 0.00000000
0.02269078 0.06475041 -0.00166871 0.00000000
3.50731043 0.16522990 0.00146668 0.00000000
4.60121219 0.97534578 -0.00392740 0.00000000
1.94102343 0.81204083 0.00335502 0.00000000
3.21132025 0.60198090 -0.00319554 0.00000000
3.41080973 1.32539560 -0.00133831 0.00000000
4.22929301 0.41673646 -0.00014251 0.00000000
1.68534130 0.87575024 0.00243126 0.00000000
0.08564506 1.80935617 -0.00218081 0.00000000
1.22607212 0.64274323 0.00122470 0.00000000
3.75952490 1.82708843 -0.00304577 0.00000000
0.27043329 0.27997900 -0.00196415 0.00000000
1.04477905 0.39544529 -0.00007693 0.00000000
0.61222506 0.81891033 -0.00088506 0.00000000
3.16394481 1.41410030 0.00077796 0.00000000
4.85427843 0.67340101 -0.00239080 0.00000000
3.29159598 1.43607127 -0.00125780 0.00000000
1.51704954 0.26351817 -0.00182870 0.00000000
0.26281988 0.40579842 0.00378924 0.00000000
4.04056024 0.50126419 -0.00484493 0.00000000
2.80539758 0.72730113 -0.00025514 0.00000000
3.70840962 0.26612848 0.00456130 0.00000000
4.55949754 0.16315659 0.00028696 0.00000000
4.66436056 0.42222533 -0.00078290 0.00000000
2.46823788 1.13910171 0.00013920 0.00000000
1.25198970 0.02338519 -0.00211066 0.00000000
3.66387832 0.52972260 0.00110049 0.00000000
3.72305359 0.69410124 -0.00157091 0.00000000
4.80011843 1.35109465 0.00188777 0.00000000
1.06991181 1.13402102 0.00115200 0.00000000
3.77919570 0.53811941 -0.00005867 0.00000000
0.42751254 0.90840736 -0.00318959 0.00000000
2.28588071 0.84678023 0.00166467 0.00000000
4.33994327 0.16385572 0.00058022 0.00000000
4.10826810 0.92136755 -0.00298718 0.00000000
2.76240388 0.08618774 0.00296283 0.00000000
0.26963626 1.17327639 0.00300471 0.00000000
0.12149589 0.01485295 -0.00032279 0.00000000
1.91920118 1.45508722 0.00261754 0.00000000
3.85118411 0.11020048 0.00625126 0.00000000
1.64377733 0.62642958 0.00110591 0.00000000
3.75309989 0.74648430 -0.00051964 0.00000000
4.55838144 0.18151166 0.00347528 0.00000000
2.61865725 1.61432917 -0.00142425 0.00000000
4.43574431 1.09922705 -0.00433692 0.00000000
0.61104777 1.50857156 -0.00279229 0.00000000
2.59103995 1.07599877 0.00124525 0.00000000
1.78955297 0.33056572 -0.00426009 0.00000000
2.10324437 0.51649893 0.00099222 0.00000000
3.78405188 0.34435784 0.00122457 0.00000000
0.56447989 0.33692761 -0.00200616 0.00000000
2.66715840 1.77704793 0.00042669 0.00000000
0.88526407 0.94298083 0.00216046 0.00000000
2.86288175 0.53467101 -0.00027953 0.00000000
0.36646475 1.76389232 0.00464190 0.00000000
3.60631311 1.55664151 -0.00106891 0.00000000
1.27211639 1.43320308 -0.00056624 0.00000000
4.51685276 0.31834402 -0.00140889 0.00000000
3.77801369 0.78764241 -0.00022478 0.00000000
0.17392675 0.21304793 -0.00190551 0.00000000
0.99872129 0.66424114 -0.00023189 0.00000000
1.85297335 0.69342004 0.00486125 0.00000000
1.50459396 0.85342632 -0.00329288 0.00000000
2.27816048 1.76817219 0.00075874 0.00000000
2.59170882 1.60394627 0.00335687 0.00000000
3.82938383 1.28974385 -0.00213081 0.00000000
4.76719792 1.71391744 -0.00293137 0.00000000
3.59633412 0.37848757 0.00151593 0.00000000
0.46132162 1.62861881 -0.00279426 0.00000000
4.70885110 1.51573881 0.00020564 0.00000000
1.19068094 0.39490281 -0.00397150 0.00000000
0.91396908 1.22258735 0.00174591 0.00000000
4.01405131 1.79453891 0.00141217 0.00000000
2.02562499 0.37413776 0.00339221 0.00000000
3.58446718 0.36562302 0.00515550 0.00000000
2.14981449 0.16516011 0.00294695 0.00000000
1.50039672 0.20422221 -0.00299972 0.00000000
3.90436728 0.41029973 0.00048304 0.00000000
0.59359022 0.54415262 0.00005233 0.00000000
4.40870555 1.80140402 -0.00257253 0.00000000
0.34534583 1.78437464 -0.00140169 0.00000000
3.56513795 1.64935737 0.00117892 0.00000000
2.10383840 1.29683782 -0.00297157 0.00000000
0.73974958 1.73106166 0.00063287 0.00000000
2.01291364 1.38718035 -0.00344864 0.00000000
1.09078928 1.65658200 0.00313971 0.00000000
1.06812195 0.28090072 0.00276188 0.00000000
0.62074218 0.04872584 0.00149596 0.00000000
4.27441048 1.50806437 -0.00261205 0.00000000
0.18188576 1.65435511 -0.00103551 0.00000000
0.44101472 0.42958386 0.00515805 0.00000000
4.43859867 1.33779726 -0.00124817 0.00000000
2.41399576 0.12388985 0.00330315 0.00000000
3.78437139 1.81651805 0.00342820 0.00000000
2.49516535 1.03049003 0.00145814 0.00000000
3.69362676 1.85045822 -0.00374014 0.00000000
0.95636444 1.79169502 -0.00288232 0.00000000
3.63441538 0.51116171 0.00002247 0.00000000
1.38496448 0.86606849 0.00162239 0.00000000
1.28499253 0.79614556 -0.00095325 0.00000000
1.34285203 0.99769400 -0.00239915 0.00000000
2.24616959 1.12477552 -0.00023315 0.00000000
1.34905158 1.00527655 -0.00342815 0.00000000
1.83032798 1.13191034 0.00425336 0.00000000
1.94564423 0.81089902 0.00187510 0.00000000
0.34249339 0.90112802 -0.00062291 0.00000000
1.43327604 1.55948290 0.00102732 0.00000000
3.66826505 0.29036454 -0.00056989 0.00000000
4.68809067 1.48979256 0.00159897 0.00000000
2.43195826 0.47495874 -0.00384205 0.00000000
3.01406894 1.59167750 0.00141180 0.00000000
2.79164760 1.09671202 0.00486794 0.00000000
1.88612810 0.37254771 -0.00343211 0.00000000
4.09531179 0.36118777 -0.00323583 0.00000000
0.21546763 0.72795126 0.00041959 0.00000000
2.45025578 0.19137993 -0.00206574 0.00000000
1.51142351 0.76423055 0.00381062 0.00000000
0.43901645 1.18533581 -0.00090891 0.00000000
1.43388952 1.17061523 -0.00213387 0.00000000
3.27746366 1.03448022 -0.00112885 0.00000000
0.78877188 0.90594547 0.00053038 0.00000000
1.71718648 0.73774073 -0.00021643 0.00000000
1.41266978 0.52431740 -0.00029838 0.00000000
0.59819533 1.75546316 0.00113094 0.00000000
0.73239989 1.41460685 -0.00466217 0.00000000
3.47684005 0.98187250 0.00220072 0.00000000
0.93810545 1.71571569 0.00055252 0.00000000
0.76327174 1.36231184 0.00177423 0.00000000
4.39887418 0.69744630 -0.00067288 0.00000000
1.54162555 1.81446500 -0.00096577 0.00000000
0.44045931 1.62744601 0.00056126 0.00000000
1.05197769 1.22576908 0.00441236 0.00000000
2.98350365 0.89490704 -0.00169895 0.00000000
4.07135146 1.76011953 0.00351480 0.00000000
1.27267270 0.73741003 0.00187905 0.00000000
2.72164301 0.26045884 0.00254401 0.00000000
4.42392954 0.97520288 0.00061773 0.00000000
1.12295082 1.26563292 -0.00152131 0.00000000
3.73039362 0.53297921 0.00039515 0.00000000
0.67005891 0.30144130 -0.00088266 0.00000000
1.42254739 0.43546540 0.00087954 0.00000000
3.67794946 0.17934824 0.00255912 0.00000000
4.76715138 0.60193563 0.00050437 0.00000000
0.90637609 0.98993806 0.00269911 0.00000000
2.39293512 1.03841428 0.00012196 0.00000000
2.46038425 0.89597568 -0.00455618 0.00000000
3.55246079 0.20617155 0.00112788 0.00000000
2.96041872 0.13109854 -0.00080581 0.00000000
0.61178330 1.78330875 0.00017598 0.00000000
2.96969350 0.17196206 -0.00063798 0.00000000
3.81056878 1.16592494 0.00163524 0.00000000
2.51762308 1.48817582 0.00444168 0.00000000
4.42743976 0.98405788 -0.00262821 0.00000000
4.09405884 0.75572929 0.00750392 0.00000000
3.44525186 1.27884776 -0.00165823 0.00000000
4.03054075 1.03224838 -0.00494480 0.00000000
2.82463625 1.79908257 0.00119745 0.00000000
0.13778173 0.19636921 -0.00240162 0.00000000
2.74454575 0.30955228 0.00163056 0.00000000
1.33833031 0.30971754 0.00151907 0.00000000
1.80190115 0.83729973 0.00267263 0.00000000
3.53112420 0.30889635 0.00009720 0.00000000
4.15649787 1.18019666 -0.00196243 0.00000000
1.81291527 1.34188842 -0.00742176 0.00000000
4.41870126 0.00168325 0.00168749 0.00000000
3.68988250 1.08317639 -0.00411406 0.00000000
0.22401640 0.90817285 0.00030641 0.00000000
0.16724332 0.96013754 -0.00063462 0.00000000
2.57966757 1.00214399 -0.00460187 0.00000000
1.24392610 0.37358952 -0.00118684 0.00000000
4.76621531 0.77749440 -0.00056576 0.00000000
4.60964333 0.29445684 0.00088371 0.00000000
4.82964541 0.93747954 -0.00304359 0.00000000
0.21266513 0.84826388 -0.00419455 0.00000000
2.55015063 1.24897053 0.00001389 0.00000000
1.75071345 1.55133677 0.00469515 0.00000000
3.49436159 0.30272992 0.00100811 0.00000000
0.50832418 1.43338491 0.00323430 0.00000000
3.54958782 1.52021039 0.00184497 0.00000000
3.79144087 1.06167993 -0.00336222 0.00000000
4.27396933 0.81307192 -0.00060589 0.00000000
0.85782766 0.41607245 -0.00370884 0.00000000
0.45317490 0.90788250 -0.00053721 0.00000000
0.67546475 1.32306544 -0.00249271 0.00000000
3.71638281 0.67654336 0.00196718 0.00000000
1.74380172 0.13145902 -0.00276525 0.00000000
1.44462150 0.29044573 0.00092619 0.00000000
0.13752678 1.53643392 -0.00076745 0.00000000
2.39882387 0.34159154 0.00107813 0.00000000
0.72128414 1.46270802 0.00339833 0.00000000
2.08178286 0.30238547 0.00452122 0.00000000
2.90983447 0.10122336 -0.00054435 0.00000000
4.12269866 0.44387298 -0.00087094 0.00000000
4.83943623 0.29938865 -0.00087912 0.00000000
2.49603282 0.98305509 -0.00035888 0.00000000
3.62113281 1.66089589 -0.00017562 0.00000000
1.11246839 0.24148631 -0.00180016 0.00000000
2.83942563 1.10855254 0.00026110 0.00000000
1.51845970 1.85035541 0.00256922 0.00000000
3.39178001 0.50066414 0.00034491 0.00000000
3.17744024 1.01000342 -0.00144906 0.00000000
4.08266788 0.69288343 -0.00314931 0.00000000
4.79238112 0.25655510 0.00471482 0.00000000
1.38602977 1.25722413 -0.00028482 0.00000000
3.23026201 1.69808951 0.00046659 0.00000000
4.25389454 1.41998915 -0.00078824 0.00000000
3.41493563 0.88808362 0.00110597 0.00000000
2.10230925 1.13280889 -0.00260343 0.00000000
4.51180995 1.15932407 -0.00076796 0.00000000
4.37326642 0.14474213 0.00435984 0.00000000
2.88298845 1.62262671 -0.00060881 0.00000000
2.53791440 0.51118829 0.00362654 0.00000000
0.74171041 1.41937050 0.00396808 0.00000000
1.90199824 0.16596993 -0.00230621 0.00000000
3.08600521 0.82299264 -0.00079038 0.00000000
4.39194872 0.31619401 -0.00018474 0.00000000
4.79569732 0.55972075 0.00249049 0.00000000
3.23561946 0.80193076 0.00199046 0.00000000
1.32799188 0.30893706 -0.00026906 0.00000000
1.62550800 1.23538284 -0.00130402 0.00000000
2.53406198 0.23738200 -0.00047845 0.00000000
1.19548633 1.09648241 0.00206215 0.00000000
2.62060860 1.07442849 0.00181143 0.00000000
4.06463584 0.07297097 0.00118630 0.00000000
0.74556141 1.64090019 -0.00174797 0.00000000
1.05272030 1.22801469 -0.00199696 0.00000000
0.26052125 1.36654978 0.00017170 0.00000000
1.98258215 0.38306235 -0.00333749 0.00000000
3.07619740 1.34066785 -0.00271388 0.00000000
0.12581090 1.13523865 -0.00410975 0.00000000
1.62458811 0.51020324 0.00200559 0.00000000
4.33928022 1.32350646 0.00159321 0.00000000
3.06140321 1.39502800 -0.00455300 0.00000000
0.53165008 0.36717607 -0.00008625 0.00000000
3.68371728 0.81808846 0.00036650 0.00000000
2.20432823 1.20071847 0.00051366 0.00000000
4.63062968 0.81109725 0.00136637 0.00000000
3.73674674 1.59219412 -0.00179303 0.00000000
3.36678383 1.85501279 0.00544091 0.00000000
3.62098345 1.36463051 0.00117024 0.00000000
0.80624097 1.01752194 -0.00256764 0.00000000
1.36071356 1.05955471 0.00101185 0.00000000
4.49147614 0.65587010 0.00111702 0.00000000
4.17538285 1.11952514 0.00253260 0.00000000
3.04037815 1.39774224 0.00032298 0.00000000
3.28586629 0.56553835 -0.00350878 0.00000000
0.73449579 1.60793179 0.00332161 0.00000000
2.29726107 0.29767609 -0.00156034 0.00000000
4.11782709 1.11939949 0.00395153 0.00000000
1.93168836 1.24544724 0.00061640 0.00000000
1.34085415 0.62810308 0.00234189 0.00000000
3.98788244 0.34578281 0.00276911 0.00000000
4.86019623 0.03490068 0.00444509 0.00000000
0.70855657 0.20050693 0.00193695 0.00000000
3.32982881 1.57502035 -0.00414611 0.00000000
3.12555856 0.14952129 -0.00687726 0.00000000
0.48761354 1.83432995 -0.00088652 0.00000000
4.86562551 1.43720540 0.00128729 0.00000000
1.81349429 1.78765728 0.00307366 0.00000000
3.73600485 1.33410465 0.00064523 0.00000000
2.79694185 0.90343660 0.00369659 0.00000000
2.97564884 0.43783512 0.00260947 0.00000000
3.26269844 0.69937191 0.00499459 0.00000000
2.35411036 0.97784368 0.00118286 0.00000000
0.37331231 1.04255739 0.00542385 0.00000000
3.39469033 0.59338520 -0.00108454 0.00000000
0.97977166 0.34027512 0.00102314 0.00000000
3.36428666 0.50788647 0.00273031 0.00000000
2.65646714 1.52924610 -0.00141276 0.00000000
0.93576444 0.28813966 0.00054095 0.00000000
3.01672259 0.17548775 0.00162524 0.00000000
0.16499790 1.53588327 0.00181202 0.00000000
3.51772322 0.06985768 -0.00053275 0.00000000
4.03529589 0.52159260 0.00146983 0.00000000
1.87649889 1.84870468 0.00050530 0.00000000
3.55104403 1.51614532 -0.00224901 0.00000000
0.95290177 0.97144480 -0.00035550 0.00000000
1.98579045 1.53236797 -0.00051421 0.00000000
3.45626585 0.56217521 -0.00122183 0.00000000
0.43524486 1.17272989 0.00352234 0.00000000
1.27157404 0.66820722 0.00180627 0.00000000
2.43330995 0.49127053 -0.00036164 0.00000000
0.38618268 0.34133373 0.00106100 0.00000000
2.84986984 0.87108109 0.00141933 0.00000000
1.03590310 0.80465406 0.00359535 0.00000000
4.57296933 1.26440960 0.00057110 0.00000000
3.00877593 1.31426388 -0.00129723 0.00000000
4.02637722 1.21032772 -0.00015720 0.00000000
1.82432757 1.03349449 -0.00264448 0.00000000
1.20875039 1.69221056 0.00075507 0.00000000
3.57556147 0.96224850 -0.00198731 0.00000000
1.28973953 0.36289328 -0.00088527 0.00000000
4.20414968 0.92475150 -0.00381447 0.00000000
3.82103806 0.08289503 0.00092903 0.00000000
2.94466470 1.16929016 0.00122288 0.00000000
0.80797032 0.75589848 -0.00004286 0.00000000
0.00769373 0.62255773 0.00117973 0.00000000
0.75328972 0.18332861 0.00054965 0.00000000
0.24843654 0.88111896 0.00257129 0.00000000
1.19031281 1.05414097 -0.00309289 0.00000000
4.16896876 1.47588754 0.00696845 0.00000000
2.11643438 1.42675325 0.00305281 0.00000000
2.52103895 0.83335488 -0.00013354 0.00000000
2.89216809 1.29917145 0.00397198 0.00000000
0.67528483 1.16996927 -0.00094333 0.00000000
0.38898988 0.41348899 0.00042773 0.00000000
1.92782827 1.68954193 -0.00089646 0.00000000
2.07422497 0.10324264 0.00255808 0.00000000
4.11042626 1.75107024 -0.00036321 0.00000000
2.78394857 1.12897697 -0.00201090 0.00000000
3.23417927 0.59719279 -0.00087884 0.00000000
4.85666520 1.17571207 -0.00487257 0.00000000
4.23463332 0.81739897 -0.00034270 0.00000000
3.35131437 0.27779925 0.00107757 0.00000000
0.04362193 0.35341597 -0.00082292 0.00000000
0.90075724 1.57904375 0.00101180 0.00000000
0.75268741 1.78043191 0.00029882 0.00000000
0.51043360 0.14729786 -0.00105775 0.00000000
1.76095693 0.13662067 0.00297165 0.00000000
3.35006661 0.24796544 -0.00014599 0.00000000
1.79591696 0.27756062 0.00199996 0.00000000
1.71175075 0.32488339 0.00034670 0.00000000
0.79962790 1.18675470 0.00013811 0.00000000
4.43686921 0.59088947 0.00019904 0.00000000
1.31125180 0.75659951 0.00192503 0.00000000
1.31175480 1.15892063 0.00016917 0.00000000
2.94864766 0.61646381 -0.00066786 0.00000000
2.09281651 0.64217708 0.00106543 0.00000000
2.02562800 0.03036442 0.00259912 0.00000000
2.95845219 1.59714623 -0.00021672 0.00000000
0.06003214 1.57665573 -0.00258210 0.00000000
3.20047917 1.64202152 0.00721058 0.00000000
4.56720566 0.69937733 -0.00443855 0.00000000
1.71373319 1.14095879 -0.00002718 0.00000000
0.67452653 1.46796394 0.00352406 0.00000000
3.78904747 0.14056003 -0.00527936 0.00000000
0.58762845 1.21920947 0.00507131 0.00000000
4.63776020 0.43096934 -0.00342368 0.00000000
2.50930703 0.73755924 0.00047244 0.00000000
0.73457286 0.45119071 0.00150535 0.00000000
0.99935839 1.25280997 0.00357437 0.00000000
3.33329579 0.50195208 0.00073404 0.00000000
3.70534725 0.53438708 -0.00009101 0.00000000
3.46869554 1.37046757 0.00181847 0.00000000
2.31505754 1.73429442 0.00071247 0.00000000
3.89515834 1.33835421 -0.00486686 0.00000000
1.60452332 0.78697944 0.00570408 0.00000000
1.56614697 0.23436917 -0.00204341 0.00000000
1.25145887 1.79294312 0.00435001 0.00000000
1.50009136 0.94486916 0.00307006 0.00000000
4.75406163 1.22436895 -0.00020332 0.00000000
3.48522341 1.76330225 -0.00333440 0.00000000
0.01492030 0.27582185 0.00202679 0.00000000
4.14982634 0.89957444 -0.00634421 0.00000000
1.22201208 0.58612455 -0.00004514 0.00000000
2.46467586 1.68794704 0.00024595 0.00000000
4.80101428 0.72061171 0.00113019 0.00000000
2.46116643 1.09844754 0.00237055 0.00000000
1.73263066 1.39433570 0.00223177 0.00000000
2.18536307 1.23585912 -0.00267072 0.00000000
3.94259444 0.63397798 -0.00098694 0.00000000
1.58133084 0.66303741 -0.00192063 0.00000000
2.91992371 0.06700631 0.00171934 0.00000000
0.80176115 1.35444736 0.00169149 0.00000000
0.11641435 1.76564419 0.00251960 0.00000000
1.69954588 1.57890030 -0.00092073 0.00000000
2.90175929 1.54091762 -0.00456140 0.00000000
1.02972931 0.72486995 -0.00138474 0.00000000
1.57033609 1.49980367 0.00694291 0.00000000
2.07910942 0.00155693 -0.00136542 0.00000000
2.49576353 0.70003478 -0.00104012 0.00000000
0.91434317 0.39388572 0.00313183 0.00000000
2.81948991 1.54200586 -0.00035980 0.00000000
4.59413203 0.73895132 -0.00117237 0.00000000
0.56420809 0.81233974 0.00084646 0.00000000
2.27344890 1.25875357 -0.00199444 0.00000000
3.71918255 1.35635428 -0.00271873 0.00000000
0.34371067 0.32356200 0.00139200 0.00000000
2.31835329 1.07733568 0.00228601 0.00000000
2.23763960 1.14108923 0.00085246 0.00000000
0.20728040 0.75107927 0.00403987 0.00000000
0.14896461 1.21169078 -0.00305608 0.00000000
3.37227722 1.63802744 -0.00033850 0.00000000
1.12835153 1.47884211 -0.00027562 0.00000000
4.02914877 0.36630279 -0.00015561 0.00000000
3.43858229 1.43323356 -0.00536910 0.00000000
2.25250580 0.71847028 -0.00101541 0.00000000
1.01227734 0.64348318 -0.00154489 0.00000000
3.34803591 0.87823796 0.00229411 0.00000000
1.87841501 0.86600983 -0.00328737 0.00000000
2.05390606 1.61131904 -0.00357032 0.00000000
4.69003649 1.25603127 -0.00192292 0.00000000
4.22132325 1.60676035 0.00211905 0.00000000
2.95277168 0.65634017 0.00141715 0.00000000
0.47716397 1.04646410 -0.00260271 0.00000000
0.67727246 0.35249015 0.00514037 0.00000000
0.04558876 0.67584193 -0.00050034 0.00000000
3.93339265 1.50320187 -0.00504537 0.00000000
0.94809292 0.66700061 -0.00043621 0.00000000
3.03221679 1.29843681 -0.00438958 0.00000000
0.48817980 0.77701857 0.00187503 0.00000000
2.78503728 0.31825851 0.00517591 0.00000000
0.04262290 0.91636491 0.00251687 0.00000000
4.54318091 1.36406059 0.00009186 0.00000000
2.53411876 0.54301169 0.00383569 0.00000000
0.92741387 1.74954052 0.00262483 0.00000000
4.24741249 0.33348227 0.00351187 0.00000000
1.26941300 0.46239487 -0.00596751 0.00000000
3.20679280 0.28190480 -0.00056935 0.00000000
2.79646535 1.20089327 0.00203063 0.00000000
2.05931087 1.85199999 -0.00207831 0.00000000
4.15020767 1.02022064 0.00104307 0.00000000
3.20225259 1.22971374 -0.00122977 0.00000000
0.56013562 1.67631675 -0.00355642 0.00000000
2.79667703 0.00234888 -0.00110022 0.00000000
1.33426832 1.06557729 0.00016950 0.00000000
2.12761210 0.99086019 0.00305330 0.00000000
3.37836800 1.76695650 0.00178230 0.00000000
3.76293979 0.83848983 -0.00196567 0.00000000
1.68656876 1.75609275 0.00008037 0.00000000
0.96235612 1.21710532 0.00459991 0.00000000
1.26292206 0.90588042 0.00016828 0.00000000
0.40809879 0.73239878 0.00052100 0.00000000
2.33137537 0.33193780 0.00156080 0.00000000
1.24911434 0.52571742 -0.00018730 0.00000000
1.06872350 1.05060281 -0.00138750 0.00000000
2.23946107 1.03905428 0.00142001 0.00000000
0.41269826 0.95939165 -0.00070623 0.00000000
2.66956336 1.56581770 -0.00321533 0.00000000
1.64176467 1.59116829 0.00068993 0.00000000
2.06471732 0.25851426 -0.00264088 0.00000000
0.47433434 1.76639781 0.00232378 0.00000000
1.07746548 1.21579947 0.00037757 0.00000000
2.31247124 1.10591950 0.00089379 0.00000000
0.59104373 0.64612096 -0.00032049 0.00000000
4.61331822 0.49766530 -0.00105589 0.00000000
2.99358261 1.69202547 -0.00034453 0.00000000
3.38616171 1.30059333 -0.00516567 0.00000000
4.67637821 0.63297196 0.00386908 0.00000000
1.85695569 1.47802764 0.00195075 0.00000000
2.42657118 0.60508487 -0.00156658 0.00000000
2.59490368 0.90570074 0.00208056 0.00000000
2.81327794 0.62356844 0.00285057 0.00000000
3.33437850 1.84016195 0.00326074 0.00000000
2.16889209 0.78649217 0.00197320 0.00000000
3.09810859 1.45345863 -0.00123067 0.00000000
1.31431984 1.20978414 0.00535979 0.00000000
1.85819626 1.71799525 0.00228845 0.00000000
2.31584106 0.54941986 -0.00110376 0.00000000
1.30270552 0.66176565 0.00070921 0.00000000
1.33518770 0.39603148 -0.00068066 0.00000000
2.20170902 1.59888768 -0.00224249 0.00000000
3.53104300 1.10747891 -0.00383276 0.00000000
0.39934001 1.26950985 0.00085604 0.00000000
0.17432620 1.22425378 -0.00060007 0.00000000
3.13505248 1.14230662 0.00124087 0.00000000
4.08002006 0.23043212 0.00028689 0.00000000
3.33080970 1.23360862 -0.00397717 0.00000000
4.62431593 1.39683628 0.00188478 0.00000000
0.83344085 0.02354291 -0.00304677 0.00000000
2.15206425 1.17206512 0.00012432 0.00000000
3.68808797 0.44105810 -0.00063478 0.00000000
1.51428984 1.15252190 -0.00097971 0.00000000
4.43403552 0.78451390 -0.00288667 0.00000000
3.97065279 0.21274217 0.00155717 0.00000000
1.09925258 0.58494567 -0.00322859 0.00000000
3.97069730 0.02740214 -0.00355365 0.00000000
0.38280662 1.08725729 0.00071818 0.00000000
1.69108170 1.32402435 -0.00510401 0.00000000
0.05634577 0.90506019 0.00345984 0.00000000
1.96899303 0.50339411 -0.00101452 0.00000000
3.78191148 0.12462535 -0.00343373 0.00000000
0.20059297 0.70278753 -0.00230730 0.00000000
0.06667098 0.56952012 0.00009795 0.00000000
3.35749167 0.58379251 -0.00585347 0.00000000
1.98557235 0.84798216 0.00244116 0.00000000
4.45355947 1.33776280 -0.00016470 0.00000000
0.76879598 0.15530438 -0.00164106 0.00000000
4.69708041 0.93769457 0.00096016 0.00000000
0.63504535 0.96835115 0.00358957 0.00000000
2.42717332 1.28563670 -0.00012042 0.00000000
4.82219962 0.91122347 0.00364504 0.00000000
1.94271368 1.35523287 0.00066849 0.00000000
2.46370902 0.96013168 -0.00447608 0.00000000
1.58254269 1.07999576 -0.00109159 0.00000000
0.79371287 1.45938383 0.00086672 0.00000000
4.68597149 1.79443263 0.00128539 0.00000000
1.65031865 0.99898834 0.00438267 0.00000000
2.42978840 1.05171380 0.00210500 0.00000000
0.35695901 1.57758103 0.00271184 0.00000000
2.66353927 0.11029462 0.00251442 0.00000000
4.14792917 0.06575824 0.00200069 0.00000000
1.32150509 1.29501932 0.00018077 0.00000000
3.44027357 1.18153391 -0.00103085 0.00000000
2.09102014 1.34676058 -0.00005349 0.00000000
2.74449229 0.07132986 -0.00003010 0.00000000
0.11097008 1.57279513 -0.00076651 0.00000000
3.05585958 1.67176613 0.00115552 0.00000000
2.44795015 1.08616372 0.00453113 0.00000000
4.30350430 1.74661053 -0.00012923 0.00000000
0.94582369 1.25365733 -0.00238045 0.00000000
4.39357416 1.49697781 -0.00011268 0.00000000
2.12431246 1.01486614 -0.00133541 0.00000000
1.42069508 0.68012459 0.00304626 0.00000000
1.66112688 0.87801471 -0.00187469 0.00000000
2.50840205 0.37689667 -0.00276326 0.00000000
