3.27356732 1.44207452 0.00127070 0.00000000
3.09217006 1.93967126 -0.00163998 0.00000000
0.28521448 1.68486856 -0.00004805 0.00000000
0.99876899 0.14073077 -0.00314912 0.00000000
1.62039735 1.16328204 0.00401360 0.00000000
4.07324776 1.81519007 -0.00265246 0.00000000
3.54733722 0.31144193 -0.00097619 0.00000000
0.57270034 0.41482753 0.00170932 0.00000000
2.98049720 0.06483644 -0.00010338 0.00000000
0.01908472 1.70804472 0.00027069 0.00000000
3.66768017 0.70291540 0.00099193 0.00000000
1.01108882 0.47297892 -0.00194025 0.00000000
0.27181094 0.97066635 -0.00140417 0.00000000
3.97084319 0.21319206 0.00264205 0.00000000
4.24054964 0.33696470 0.00016196 0.00000000
0.27476893 0.31453822 0.00186694 0.00000000
0.13755367 0.57336983 -0.00408350 0.00000000
2.52265622 0.09840453 0.00174898 0.00000000
3.51976591 2.02082815 -0.00014441 0.00000000
1.04158473 0.30546095 -0.00054744 0.00000000
1.44872013 1.84142686 0.00422523 0.00000000
4.32612854 0.84694927 0.00207930 0.00000000
2.32889623 2.15679105 -0.00072716 0.00000000
1.39326468 1.81298876 -0.00284490 0.00000000
2.43371787 0.87334213 -0.00074514 0.00000000
3.82568401 1.52470036 -0.00165092 0.00000000
3.07878082 0.37673505 0.00460485 0.00000000
1.80165660 0.49548175 -0.00129565 0.00000000
1.61602920 1.13234169 -0.00016664 0.00000000
3.41220338 0.64561748 0.00301015 0.00000000
1.18453412 1.76213144 0.00138123 0.00000000
2.27113144 0.56438555 -0.00180104 0.00000000
2.18921682 1.19229929 -0.00115523 0.00000000
4.02591017 0.61450011 -0.00055561 0.00000000
3.07153603 1.48805684 0.00221856 0.00000000
0.62087324 2.02672146 -0.00136651 0.00000000
3.94983333 0.77319693 -0.00219187 0.00000000
0.24107804 0.64661564 -0.00578045 0.00000000
1.16938717 1.32396381 -0.00258081 0.00000000
1.85657510 0.94366226 0.00129141 0.00000000
0.85271471 1.05428417 0.00063416 0.00000000
2.61622978 1.64874349 0.00267931 0.00000000
3.65422574 0.41889618 0.00181517 0.00000000
1.24351650 0.86914359 -0.00080055 0.00000000
2.53423433 1.86062847 -0.00183408 0.00000000
3.86910743 0.97991852 0.00138285 0.00000000
1.42408663 1.88047739 0.00135735 0.00000000
3.59166817 1.37726265 0.00270597 0.00000000
3.94332892 1.00455263 -0.00205754 0.00000000
1.53391688 1.99750490 -0.00079407 0.00000000
3.59529028 0.32496456 0.00097795 0.00000000
2.41310548 1.94638499 -0.00146934 0.00000000
4.15409391 2.07291693 -0.00011739 0.00000000
0.93312474 2.14352198 -0.00093989 0.00000000
3.91908327 0.37464728 -0.00329254 0.00000000
1.92831616 1.02599577 0.00393303 0.00000000
3.06573534 1.42253152 -0.00074011 0.00000000
3.94689385 1.30139645 -0.00464047 0.00000000
2.10663445 0.30434424 0.00097221 0.00000000
1.00246028 2.05247369 0.00331055 0.00000000
2.92949336 1.83102701 -0.00382096 0.00000000
0.03925124 1.70211158 0.00095305 0.00000000
3.18507094 0.26942464 -0.00058284 0.00000000
0.24613832 1.22792223 -0.00426437 0.00000000
2.81546234 1.63736737 -0.00127624 0.00000000
1.17215438 1.85255203 0.00036195 0.00000000
3.24891107 0.56006890 -0.00216987 0.00000000
1.26474741 1.97350575 0.00175249 0.00000000
0.07279206 0.01385457 0.00124433 0.00000000
0.62074649 1.90902596 0.00052311 0.00000000
2.31819076 1.64624520 -0.00286653 0.00000000
3.36471293 1.41084409 -0.00056590 0.00000000
0.04560110 1.11227036 0.00232980 0.00000000
3.72676322 1.63953601 0.00135242 0.00000000
4.12126195 0.37786124 -0.00128628 0.00000000
2.39902943 1.63254894 -0.00178799 0.00000000
0.40758675 1.24141610 0.00099818 0.00000000
0.81558588 0.57496316 -0.00284555 0.00000000
2.00256786 1.96876747 0.00361152 0.00000000
2.70395846 0.90072862 0.00020854 0.00000000
1.17230174 1.50598523 -0.00046673 0.00000000
0.23931652 0.56068128 0.00557637 0.00000000
1.68049113 0.94778986 0.00126610 0.00000000
3.71317298 1.10774816 -0.00413472 0.00000000
1.88001664 0.07047198 -0.00116194 0.00000000
4.04441909 1.86401205 0.00026514 0.00000000
0.55516603 0.46243706 -0.00201000 0.00000000
0.59989164 1.35729997 -0.00241112 0.00000000
1.40539710 2.04770241 -0.00215561 0.00000000
2.16899283 1.03202170 -0.00070599 0.00000000
3.17913350 0.85062570 0.00102548 0.00000000
4.31428330 2.06141412 -0.00641820 0.00000000
1.45839067 0.46561338 -0.00016123 0.00000000
4.44110715 1.69452152 0.00179427 0.00000000
2.64311661 0.11804735 -0.00054807 0.00000000
0.81633337 1.46539378 0.00140694 0.00000000
4.09119266 0.30641336 0.00191481 0.00000000
1.36952642 1.09917856 0.00168564 0.00000000
3.01358777 0.90111322 -0.00673131 0.00000000
2.32466036 2.09794092 0.00093126 0.00000000
1.42292843 1.43713584 0.00305415 0.00000000
1.23627936 1.87585201 -0.00189269 0.00000000
2.58601462 0.14486619 0.00173158 0.00000000
2.11297491 1.83989779 -0.00152580 0.00000000
3.61476794 1.60107971 0.00129993 0.00000000
0.48898582 0.21471415 -0.00334991 0.00000000
1.70810007 0.14086354 0.00110006 0.00000000
4.10377180 1.18989175 -0.00146500 0.00000000
1.19990946 0.46669685 -0.00078999 0.00000000
1.32750938 0.95326303 0.00366187 0.00000000
2.94864606 0.31552098 -0.00271807 0.00000000
2.01083382 1.26095385 -0.00157660 0.00000000
2.65355421 1.44308629 0.00321781 0.00000000
4.41065468 1.07566564 -0.00081482 0.00000000
0.21657764 1.41632812 -0.00509391 0.00000000
2.79480772 1.67441075 0.00005957 0.00000000
3.43777195 1.68913763 0.00577786 0.00000000
0.82516532 1.40574511 0.00490689 0.00000000
1.46460716 1.88469875 0.00163321 0.00000000
0.03888956 0.34895817 -0.00524976 0.00000000
2.72322168 0.30166920 0.00007643 0.00000000
2.33808185 1.92838309 0.00278118 0.00000000
4.10879148 1.77608379 -0.00075841 0.00000000
2.70175858 1.54262866 -0.00312470 0.00000000
4.08223934 1.33304286 -0.00101117 0.00000000
0.46563269 0.34134928 -0.00390987 0.00000000
0.84937986 0.43955920 -0.00270328 0.00000000
0.53718164 1.69182798 -0.00131605 0.00000000
0.06475063 1.49068465 0.00456912 0.00000000
2.00284849 1.28940457 -0.00203724 0.00000000
2.28400678 1.97233946 -0.00105869 0.00000000
1.59527927 1.12638517 -0.00160340 0.00000000
4.35544629 0.34028860 0.00097577 0.00000000
3.18897770 0.69099601 0.00020612 0.00000000
0.27965517 1.40709383 0.00280771 0.00000000
1.18911722 0.31747887 -0.00200774 0.00000000
4.35659116 0.02019196 -0.00157558 0.00000000
3.84122171 0.61431869 -0.00121334 0.00000000
2.39825770 1.71190154 0.00174389 0.00000000
1.95119233 1.77847582 -0.00119425 0.00000000
2.71810332 1.13470434 0.00005668 0.00000000
1.01258812 0.97319892 0.00225262 0.00000000
3.54928235 1.39770515 -0.00188011 0.00000000
2.68029854 1.33593293 0.00313322 0.00000000
1.85171565 0.20039592 -0.00027696 0.00000000
1.22352582 0.72933096 -0.00067095 0.00000000
3.62312346 1.71424551 0.00687905 0.00000000
0.17073773 1.97968852 -0.00195574 0.00000000
2.90774911 1.58236255 0.00126952 0.00000000
4.25256107 1.40654870 -0.00446609 0.00000000
0.37187234 2.09444163 0.00287948 0.00000000
2.52435333 1.94483378 0.00175539 0.00000000
0.89965102 0.62096423 -0.00314637 0.00000000
0.24838901 0.85887458 0.00027808 0.00000000
0.41308724 0.32787918 -0.00889723 0.00000000
2.51031074 0.23154099 0.00400338 0.00000000
0.27603012 0.77434586 -0.00315149 0.00000000
1.43889362 2.06795331 -0.00304986 0.00000000
1.32129461 1.17766457 -0.00255622 0.00000000
4.14815076 0.62328569 -0.00252697 0.00000000
0.43775271 0.87050139 0.00370888 0.00000000
0.59162450 1.84186361 0.00384296 0.00000000
3.37875076 0.92907213 -0.00076940 0.00000000
0.73817442 1.70598475 0.00143245 0.00000000
1.97601684 2.14091286 -0.00071462 0.00000000
4.20499040 0.50154737 -0.00322422 0.00000000
1.11879241 0.39840479 -0.00142480 0.00000000
2.03231720 1.92629375 0.00248391 0.00000000
0.17057466 1.65586375 -0.00036230 0.00000000
1.95626894 1.07178614 -0.00155245 0.00000000
3.57615939 1.49861803 0.00368046 0.00000000
1.05744465 1.74524877 0.00379544 0.00000000
3.53004151 1.95585640 -0.00453538 0.00000000
0.23031808 2.15822758 -0.00037984 0.00000000
0.16156644 1.51791170 0.00247858 0.00000000
0.73822033 2.14411554 -0.00224119 0.00000000
4.00491809 0.22579666 -0.00186201 0.00000000
3.26120576 0.57208459 0.00007288 0.00000000
3.69808390 1.04809118 0.00109480 0.00000000
2.14225898 0.60466073 -0.00498529 0.00000000
3.36809766 0.03889913 0.00053290 0.00000000
3.50005349 0.65257617 -0.00559059 0.00000000
1.08932615 1.82601078 0.00123516 0.00000000
4.00903971 2.05210754 0.00027874 0.00000000
2.14748667 0.78802056 -0.00354629 0.00000000
1.29907062 2.14621238 -0.00069476 0.00000000
1.55662580 0.16722899 -0.00011239 0.00000000
3.81524846 0.93457048 -0.00376462 0.00000000
1.95330606 1.02576496 -0.00347793 0.00000000
1.28704820 2.08315964 0.00329419 0.00000000
3.53018599 1.12223824 -0.00164993 0.00000000
1.60941153 1.41271439 -0.00153830 0.00000000
0.74332763 1.54422975 0.00125594 0.00000000
3.52757337 0.50360089 -0.00358282 0.00000000
1.69377659 0.54676248 0.00084054 0.00000000
0.27309848 0.86763066 0.00092322 0.00000000
2.36346971 1.49500236 0.00364665 0.00000000
3.17822072 1.80115568 -0.00098834 0.00000000
0.02531376 1.39156936 -0.00178790 0.00000000
1.04429148 0.10198776 0.00264072 0.00000000
2.04852511 1.65565975 -0.00090433 0.00000000
3.70520317 0.53142659 -0.00119619 0.00000000
3.19483078 0.66313601 -0.00117575 0.00000000
3.42995755 1.30773528 -0.00381531 0.00000000
2.40435532 0.38381867 0.00182907 0.00000000
3.46457291 2.16115000 0.00624468 0.00000000
2.69472706 1.32081703 -0.00139625 0.00000000
3.06893197 0.23115878 0.00201447 0.00000000
2.23021373 1.55240934 -0.00082706 0.00000000
2.60752019 1.47780108 0.00247996 0.00000000
1.27776915 0.09910314 -0.00171854 0.00000000
1.22301242 1.96347283 -0.00364363 0.00000000
4.20065745 1.43135900 -0.00082952 0.00000000
2.06809231 2.05008256 0.00350047 0.00000000
1.60127891 1.57761766 0.00313410 0.00000000
3.98465877 0.19758406 0.00247230 0.00000000
4.02120119 0.20724458 -0.00024023 0.00000000
2.78213308 0.39179970 -0.00027092 0.00000000
1.73961554 0.88222552 0.00009396 0.00000000
3.16167179 0.23135012 0.00142040 0.00000000
2.23578809 2.06256337 -0.00127537 0.00000000
2.91016064 0.97906128 -0.00236991 0.00000000
1.21469268 1.79299579 0.00024878 0.00000000
1.18257818 0.65038622 -0.00259378 0.00000000
1.51778710 0.39014516 0.00006522 0.00000000
3.69071048 0.49831868 0.00487324 0.00000000
4.32687604 1.32156542 -0.00223518 0.00000000
1.70073795 1.47983116 -0.00351970 0.00000000
0.06456317 0.61116636 0.00153989 0.00000000
0.30231899 1.85560922 0.00242387 0.00000000
2.19640846 0.47004711 0.00060373 0.00000000
0.70374232 0.51392635 -0.00002167 0.00000000
0.69627046 1.33572495 -0.00096604 0.00000000
2.06608435 1.81279889 -0.00217853 0.00000000
2.64866510 0.14480507 -0.00133826 0.00000000
4.18392047 1.94779799 -0.00083492 0.00000000
4.14605744 1.71621475 -0.00184734 0.00000000
4.11634039 1.73000318 -0.00060579 0.00000000
3.16845711 1.47042097 0.00038759 0.00000000
2.45292851 1.03961932 -0.00088899 0.00000000
1.86274886 1.61941067 0.00372168 0.00000000
1.24025539 1.53180233 0.00388097 0.00000000
0.87734141 0.15680180 -0.00176951 0.00000000
3.22599267 1.47717487 0.00674610 0.00000000
2.60024319 1.56293882 -0.00101251 0.00000000
2.78101632 1.45722496 -0.00035494 0.00000000
3.79089400 0.89419055 0.00037749 0.00000000
1.03757421 0.56315740 -0.00184183 0.00000000
2.23536922 0.10537159 -0.00008457 0.00000000
2.11095887 0.21086511 0.00031939 0.00000000
1.35394418 1.69186207 -0.00123429 0.00000000
2.38518081 0.85153921 0.00037521 0.00000000
1.13822673 0.11947491 -0.00007705 0.00000000
2.15372713 0.65671771 0.00286058 0.00000000
1.37232485 1.11441296 -0.00205136 0.00000000
4.04246871 1.41702086 0.00135878 0.00000000
2.84969384 1.74067429 0.00156743 0.00000000
1.25207831 2.06940814 0.00137051 0.00000000
0.61409234 0.97840163 -0.00029592 0.00000000
0.80267416 1.26441290 0.00170871 0.00000000
0.74748850 0.98192145 0.00363169 0.00000000
0.84116391 1.91860387 0.00437073 0.00000000
0.50532361 0.01112733 -0.00024493 0.00000000
4.35188077 0.33264148 0.00110357 0.00000000
2.51042548 0.13419499 -0.00082726 0.00000000
3.87141813 0.04756863 -0.00238631 0.00000000
3.25666234 1.02552841 -0.00092771 0.00000000
0.00531295 1.70243552 -0.00470948 0.00000000
0.12448851 0.94442820 -0.00327970 0.00000000
1.53450216 0.24246033 0.00289102 0.00000000
0.07408259 0.69342814 -0.00225373 0.00000000
3.37906707 1.22615185 0.00204115 0.00000000
1.87078932 0.34890652 0.00407653 0.00000000
2.01558962 0.41133681 0.00056085 0.00000000
2.06926527 0.04384150 -0.00333622 0.00000000
2.52191180 1.52416066 0.00027896 0.00000000
3.10024767 1.37488093 -0.00272090 0.00000000
4.21142229 0.46427386 0.00555368 0.00000000
2.57949394 0.42876301 0.00489240 0.00000000
2.75322953 1.11178405 0.00289537 0.00000000
1.17239657 0.03287606 -0.00042973 0.00000000
2.19739537 1.98743921 -0.00413097 0.00000000
3.09601020 2.00686511 -0.00104280 0.00000000
0.85789736 0.31004229 -0.00326235 0.00000000
0.03212383 0.48759794 -0.00024985 0.00000000
0.01769429 1.02639846 -0.00062227 0.00000000
2.93772364 0.17107313 0.00003741 0.00000000
2.12894462 0.89212878 0.00164433 0.00000000
2.15468709 1.81145814 -0.00132196 0.00000000
3.69170376 0.08659020 0.00111754 0.00000000
0.60445056 0.59886887 -0.00214507 0.00000000
3.56515564 1.72588344 0.00152100 0.00000000
1.14727174 0.12588568 0.00456444 0.00000000
2.35681547 1.37011528 -0.00413161 0.00000000
0.09108860 0.80293505 -0.00025096 0.00000000
4.26241647 1.61380880 0.00452843 0.00000000
2.19467610 0.97956130 -0.00218408 0.00000000
0.38001633 0.97914473 -0.00200251 0.00000000
3.07862133 2.08246103 -0.00038186 0.00000000
1.41399898 1.79833121 0.00021298 0.00000000
3.31001635 1.57861927 0.00135876 0.00000000
2.88918990 1.82640083 0.00083402 0.00000000
0.45750701 0.49679616 -0.00426494 0.00000000
3.96199501 0.64947700 -0.00052943 0.00000000
3.02756896 0.54102558 -0.00272297 0.00000000
2.13293336 0.66469106 0.00154700 0.00000000
2.74154178 0.70647652 -0.00080763 0.00000000
4.01803262 0.71485148 -0.00106191 0.00000000
4.18718081 2.00048982 0.00307995 0.00000000
3.12360077 1.84032165 0.00439313 0.00000000
4.20842465 1.12919567 -0.00071757 0.00000000
2.29920235 1.10803813 0.00293807 0.00000000
2.34825774 0.05179265 -0.00078095 0.00000000
4.42339951 2.02029081 -0.00129861 0.00000000
4.06130179 1.52266412 -0.00134661 0.00000000
1.78399019 0.54239410 -0.00300457 0.00000000
0.76995489 0.60494446 0.00148430 0.00000000
1.43189570 1.95461820 -0.00297211 0.00000000
3.69005141 1.55430138 0.00418152 0.00000000
4.23683298 0.56292876 0.00188540 0.00000000
2.57702671 1.72689340 -0.00338349 0.00000000
0.33952239 1.64405799 -0.00249891 0.00000000
0.15790814 0.49952840 -0.00426968 0.00000000
0.99524417 2.09869219 0.00443859 0.00000000
0.39897393 0.11701925 -0.00003041 0.00000000
0.71134597 0.52963394 -0.00323765 0.00000000
0.99363728 0.36723170 -0.00290802 0.00000000
0.84898154 0.09801187 -0.00231722 0.00000000
3.09139051 0.59758672 -0.00251236 0.00000000
1.44119788 0.09083038 0.00392698 0.00000000
1.01413647 2.03057573 0.00038406 0.00000000
1.54766226 0.78306714 -0.00241279 0.00000000
3.86288979 0.55317145 0.00235859 0.00000000
0.66872872 1.42944910 0.00250212 0.00000000
0.67431816 0.40421278 0.00058727 0.00000000
2.89279264 1.80695533 -0.00095259 0.00000000
4.06558868 1.26875378 -0.00056934 0.00000000
2.71343329 0.03957971 0.00204494 0.00000000
4.15605536 0.34880344 -0.00115245 0.00000000
1.20603313 1.94222303 -0.00214427 0.00000000
3.70664266 1.32471670 0.00330421 0.00000000
2.28712920 1.54546936 0.00157115 0.00000000
0.95785620 0.49700502 -0.00089953 0.00000000
4.02265542 1.11772430 -0.00549909 0.00000000
1.68356058 1.58912681 0.00434507 0.00000000
2.65465273 0.56440507 0.00066907 0.00000000
1.71331628 1.17185542 0.00681324 0.00000000
1.33678809 0.70564453 -0.00194505 0.00000000
0.14305159 2.06659359 -0.00203714 0.00000000
0.06585305 0.06653828 0.00099803 0.00000000
3.08785021 1.29571918 -0.00075569 0.00000000
3.60551055 0.48793465 0.00044852 0.00000000
2.38773175 1.73242370 0.00204222 0.00000000
2.83009269 1.93902617 0.00108037 0.00000000
2.70795640 1.64075951 0.00184472 0.00000000
2.41167399 2.12879120 -0.00450577 0.00000000
3.28276973 1.10901549 0.00154424 0.00000000
4.09968295 1.22823478 0.00128952 0.00000000
4.25638245 1.15701851 0.00109227 0.00000000
1.62349287 1.91036790 -0.00351976 0.00000000
2.83338303 1.06588510 -0.00235866 0.00000000
3.48683990 1.42641854 -0.00080904 0.00000000
2.36570750 2.09455189 -0.00322456 0.00000000
4.13355979 0.11135320 -0.00178047 0.00000000
1.31614666 0.60356559 0.00378946 0.00000000
1.08002775 0.98793137 0.00127491 0.00000000
2.37267221 0.58849608 -0.00004003 0.00000000
2.06525571 0.71491875 -0.00278174 0.00000000
0.85795097 1.31395278 -0.00103218 0.00000000
3.17034839 0.63111690 0.00290735 0.00000000
2.02770377 1.13986216 0.00246021 0.00000000
3.22164414 0.20562037 -0.00017410 0.00000000
2.86570603 1.39360046 0.00149363 0.00000000
2.07474982 1.13709197 0.00148251 0.00000000
1.21652223 0.08157462 -0.00407430 0.00000000
4.38703816 0.06635547 -0.00053095 0.00000000
3.54981386 2.06873928 -0.00335633 0.00000000
2.27132050 0.36895788 0.00192952 0.00000000
0.82941026 0.56544869 0.00542396 0.00000000
3.70236277 0.75283656 0.00088569 0.00000000
4.29219191 1.70453773 -0.00257366 0.00000000
3.73061101 1.91981659 -0.00036275 0.00000000
3.67654589 1.32930437 -0.00101200 0.00000000
4.34568800 1.94779696 -0.00011106 0.00000000
1.97827577 0.00623800 0.00261900 0.00000000
2.23087795 0.69828815 -0.00106458 0.00000000
3.46094393 1.59619673 -0.00530955 0.00000000
0.72073050 0.15429438 0.00235458 0.00000000
2.78597068 1.05330877 -0.00086327 0.00000000
2.50251338 1.06251511 0.00363639 0.00000000
3.20265864 1.58491879 0.00144191 0.00000000
2.82975865 0.88058643 0.00102530 0.00000000
2.21906622 2.12769059 -0.00068921 0.00000000
4.00162884 1.20060890 -0.00070328 0.00000000
0.93836698 0.85667455 -0.00140297 0.00000000
0.99401020 0.92826746 0.00565379 0.00000000
4.19337644 1.94588352 -0.00003630 0.00000000
0.15186846 0.37045716 0.00271933 0.00000000
0.06414267 1.76110535 -0.00119130 0.00000000
4.09422267 2.04423712 0.00617596 0.00000000
3.03612951 0.16729281 -0.00268601 0.00000000
1.99327926 1.57564819 -0.00088406 0.00000000
0.94887529 0.75335705 0.00009015 0.00000000
0.31457902 1.63592716 0.00239094 0.00000000
1.65846975 0.94021315 0.00294147 0.00000000
1.81904321 0.94160458 -0.00639911 0.00000000
1.96335741 1.70377279 0.00423276 0.00000000
2.03174859 2.02139680 0.00418364 0.00000000
3.19937659 1.68482879 -0.00229158 0.00000000
1.69040932 1.06404510 0.00529570 0.00000000
0.76632756 0.88450734 -0.00064917 0.00000000
2.74127435 0.35163353 -0.00192099 0.00000000
3.03249061 0.90111965 -0.00179266 0.00000000
3.27147106 1.90666885 -0.00001774 0.00000000
0.68017945 0.36972942 -0.00128153 0.00000000
2.30520139 0.77278195 -0.00101190 0.00000000
0.60879565 1.72274514 -0.00046960 0.00000000
2.32686573 2.09720136 -0.00147428 0.00000000
0.21899117 0.39327852 -0.00254937 0.00000000
1.22290550 1.57857375 0.00441006 0.00000000
2.94186214 1.22308662 0.00373753 0.00000000
2.52972660 1.91334891 0.00278656 0.00000000
3.49852458 1.79704514 -0.00143937 0.00000000
0.50783347 2.09762528 0.00594651 0.00000000
3.18800254 0.20125059 -0.00085750 0.00000000
1.46930461 0.76379671 0.00050594 0.00000000
3.28629205 1.27024244 -0.00087382 0.00000000
0.43509097 1.22757185 0.00045047 0.00000000
1.06188905 1.91650488 0.00030467 0.00000000
3.36441657 0.97307885 -0.00234167 0.00000000
3.38691060 1.86777840 -0.00141285 0.00000000
4.24113566 0.86174342 0.00093514 0.00000000
1.61864917 0.47472315 -0.00190696 0.00000000
3.48826535 0.98123972 0.00014769 0.00000000
1.02629815 1.22660673 -0.00081402 0.00000000
1.59003617 1.34552843 -0.00495983 0.00000000
1.89381276 1.20968917 -0.00085169 0.00000000
1.88297929 1.13869240 -0.00181738 0.00000000
2.54158031 1.91691213 -0.00284620 0.00000000
0.40955847 0.35426682 -0.00245190 0.00000000
1.87268370 1.40131760 0.00138096 0.00000000
3.43737300 2.00990620 0.00330192 0.00000000
3.08303474 1.63746434 -0.00390832 0.00000000
2.64456090 1.24491808 -0.00265470 0.00000000
4.09416410 1.83560546 -0.00114589 0.00000000
4.25862525 0.24037605 -0.00026945 0.00000000
2.72009235 0.03309803 -0.00216672 0.00000000
2.00161795 1.64298797 0.00134001 0.00000000
3.69264657 0.92968494 0.00254944 0.00000000
0.63589774 1.45184505 -0.00330332 0.00000000
3.40827444 0.18687319 -0.00011041 0.00000000
2.11454441 0.90962837 -0.00124493 0.00000000
1.58966194 0.86148000 -0.00146809 0.00000000
3.29056898 2.10244446 -0.00198081 0.00000000
2.85630177 1.85463380 0.00094037 0.00000000
3.97590040 1.91555049 -0.00413753 0.00000000
0.96507420 0.98768320 -0.00288579 0.00000000
1.84983371 0.03596411 0.00155093 0.00000000
2.86705407 0.45952481 -0.00031523 0.00000000
4.21485664 0.19770372 0.00346024 0.00000000
0.95234494 0.56185690 0.00112984 0.00000000
1.46066717 2.04400014 -0.00377629 0.00000000
2.09058899 1.86848911 0.00026255 0.00000000
3.77991804 1.30108078 -0.00076552 0.00000000
1.67096347 0.13950372 0.00128046 0.00000000
3.56838944 0.76452933 0.00184939 0.00000000
1.84151346 1.94902284 0.00617237 0.00000000
0.36093886 1.01222451 0.00224724 0.00000000
1.21044965 0.49269205 -0.00280117 0.00000000
1.78720792 0.18738875 0.00229591 0.00000000
3.52569492 2.12178523 0.00122180 0.00000000
1.53153723 1.54180540 0.00000332 0.00000000
2.19882090 0.47936417 -0.00473619 0.00000000
2.71453122 0.84645982 0.00280038 0.00000000
3.50839326 1.21475253 -0.00350014 0.00000000
2.23601432 1.68791730 0.00131998 0.00000000
0.59728124 1.56808232 0.00286078 0.00000000
2.43767721 0.59392001 -0.00087290 0.00000000
2.48188440 0.70287258 0.00394674 0.00000000
4.24781367 1.12545875 -0.00042952 0.00000000
3.92846221 0.61829347 -0.00122875 0.00000000
0.70440511 1.63224451 -0.00153452 0.00000000
3.58866591 0.26804488 -0.00162051 0.00000000
3.97100649 0.76879318 0.00007270 0.00000000
0.90728108 0.65575922 0.00054422 0.00000000
1.64284461 0.10555091 0.00266598 0.00000000
1.29778078 0.53273794 -0.00300127 0.00000000
3.09550676 0.49168570 0.00082488 0.00000000
1.83673921 1.53825374 -0.00156947 0.00000000
1.72303861 0.73297239 0.00280782 0.00000000
4.34693315 0.27215673 -0.00009594 0.00000000
3.78989088 0.65182326 -0.00034798 0.00000000
4.23915872 0.04665573 0.00220417 0.00000000
2.71229666 0.38925506 0.00395558 0.00000000
1.81023209 1.54818544 -0.00286555 0.00000000
0.61983320 0.41884720 -0.00036318 0.00000000
1.50176621 0.43141407 0.00046036 0.00000000
0.59569385 2.12064095 -0.00226008 0.00000000
0.06642149 1.27132888 0.00246767 0.00000000
4.19152105 1.41749868 0.00194532 0.00000000
2.29161387 1.61174122 0.00114627 0.00000000
3.81162354 0.93913761 -0.00041173 0.00000000
3.14694525 0.63961224 -0.00126082 0.00000000
3.57573217 1.42571535 -0.00217772 0.00000000
0.50236577 0.66055109 0.00228211 0.00000000
0.18661439 1.07394052 -0.00059268 0.00000000
3.33847219 1.06710056 -0.00025962 0.00000000
2.07100675 0.59754952 -0.00082775 0.00000000
3.84150421 0.05874550 -0.00056404 0.00000000
0.00612137 1.85463768 -0.00124684 0.00000000
1.77560488 1.08397002 -0.00501116 0.00000000
4.12958157 2.13945563 -0.00305926 0.00000000
2.56266086 1.88866730 -0.00116423 0.00000000
2.12828955 0.18444993 -0.00416853 0.00000000
3.44667187 0.44226313 -0.00219190 0.00000000
2.53494721 0.86068022 -0.00193746 0.00000000
3.08672208 0.20695969 0.00220712 0.00000000
2.86803987 0.12612394 0.00183784 0.00000000
1.11819327 0.66690283 0.00230720 0.00000000
2.89986403 0.60165167 0.00431876 0.00000000
2.42708277 0.54944697 0.00324022 0.00000000
1.17657177 1.69874014 0.00122632 0.00000000
3.07066642 2.03014950 0.00187293 0.00000000
4.10322735 0.63442639 -0.00061073 0.00000000
1.85148067 2.04316850 -0.00108409 0.00000000
1.47780488 1.68057085 -0.00092349 0.00000000
3.70970007 2.15859771 -0.00220154 0.00000000
1.86399206 0.87202147 -0.00260451 0.00000000
2.19435742 0.74084627 0.00104119 0.00000000
3.04018709 1.11387378 -0.00148503 0.00000000
1.75294696 1.23780377 -0.00026092 0.00000000
2.71920133 2.10582069 0.00011496 0.00000000
3.13371335 0.54693444 0.00296390 0.00000000
3.44904877 0.00879748 0.00000679 0.00000000
4.30492467 1.98113996 0.00197781 0.00000000
3.24676147 2.12044695 0.00357761 0.00000000
4.06187747 0.55884315 -0.00124526 0.00000000
3.17006821 0.63967630 -0.00062084 0.00000000
0.57163042 1.83953260 0.00237515 0.00000000
0.63374976 1.86814041 -0.00083568 0.00000000
4.41437653 1.48415054 0.00243831 0.00000000
3.95346455 0.42958609 -0.00214028 0.00000000
1.25978089 0.88180064 -0.00211624 0.00000000
3.52138860 2.05690176 0.00427582 0.00000000
2.64991362 1.30596351 0.00476511 0.00000000
2.63280894 0.56723802 0.00085295 0.00000000
3.11217356 1.99962801 0.00354594 0.00000000
3.79118854 1.75164795 0.00010644 0.00000000
0.72621464 1.38967126 -0.00506555 0.00000000
3.10192831 2.15960299 -0.00180132 0.00000000
3.14612842 0.32965638 -0.00035063 0.00000000
0.44891541 2.10234276 0.00261846 0.00000000
4.30854603 2.05421169 -0.00011517 0.00000000
3.38981134 0.15654694 0.00199325 0.00000000
0.53010934 1.89843272 0.00020358 0.00000000
4.18942438 1.31768614 0.00464837 0.00000000
2.70717836 1.40201527 0.00339442 0.00000000
3.85610220 0.49170862 -0.00014220 0.00000000
3.51098492 0.46869043 0.00042314 0.00000000
0.12670601 1.91376607 -0.00352622 0.00000000
3.39185128 1.21939741 0.00262402 0.00000000
2.29274292 0.26655037 0.00127347 0.00000000
3.87934085 1.97744798 -0.00122834 0.00000000
0.37930693 0.09312525 0.00039291 0.00000000
0.71963713 1.63650251 -0.00067575 0.00000000
3.51623528 1.56069474 0.00377992 0.00000000
0.88908004 1.88980986 -0.00184175 0.00000000
2.49836965 1.17209953 0.00283823 0.00000000
3.03786981 1.76062559 -0.00125715 0.00000000
0.84360651 1.23336990 0.00084122 0.00000000
1.74636134 1.11026729 -0.00208857 0.00000000
2.79818990 2.08882654 0.00486164 0.00000000
1.53355063 1.45093416 -0.00533566 0.00000000
1.29745593 1.48058447 -0.00022340 0.00000000
1.01843820 0.14460420 0.00122382 0.00000000
3.55868455 0.44946984 -0.00375454 0.00000000
2.81584903 0.78392061 0.00503182 0.00000000
3.32243636 0.95171125 0.00110543 0.00000000
1.29138999 1.12067328 0.00267214 0.00000000
0.29058900 0.85778485 -0.00041006 0.00000000
3.24974482 0.96968975 0.00588949 0.00000000
2.55678604 0.12225145 0.00200237 0.00000000
3.93888729 1.47595003 -0.00189606 0.00000000
2.26467070 0.30347033 -0.00270801 0.00000000
3.32126003 1.69961936 0.00388329 0.00000000
3.84673999 2.12203790 -0.00085184 0.00000000
1.04841828 1.33144030 0.00416981 0.00000000
3.19681395 0.47638364 -0.00077759 0.00000000
0.49628944 0.22410657 -0.00239540 0.00000000
3.59365407 0.91522849 -0.00182257 0.00000000
1.75666427 0.67665741 -0.00181054 0.00000000
3.37287764 0.21436393 -0.00016335 0.00000000
0.48446333 0.93350157 -0.00186247 0.00000000
2.31657440 0.40897930 0.00140741 0.00000000
4.26267029 1.12545570 0.00201888 0.00000000
1.97106237 0.41980191 0.00129814 0.00000000
0.97612289 1.29007286 -0.00130367 0.00000000
2.86789339 1.74497447 -0.00131546 0.00000000
0.69738912 0.01263080 0.00521115 0.00000000
0.51400328 0.86186210 -0.00197982 0.00000000
0.23866590 1.94582653 -0.00196740 0.00000000
2.24819755 0.09952219 0.00363464 0.00000000
2.14069965 0.72103732 -0.00333418 0.00000000
3.54068364 1.13194655 -0.00223163 0.00000000
1.84484331 1.83766595 0.00265396 0.00000000
0.62757073 1.82857454 -0.00151650 0.00000000
2.99043317 0.97898281 0.00325357 0.00000000
2.27253516 0.94553900 -0.00340811 0.00000000
1.29788886 1.89773915 0.00198388 0.00000000
3.98905883 0.89687839 0.00233072 0.00000000
2.38668520 1.24396366 -0.00035971 0.00000000
3.40604143 0.99634258 -0.00375510 0.00000000
2.55877571 0.13174806 0.00069690 0.00000000
3.30302511 0.90969688 -0.00155116 0.00000000
1.23312803 1.62996042 0.00257159 0.00000000
3.57450655 0.53819240 0.00155795 0.00000000
4.24824079 1.03417638 -0.00307416 0.00000000
1.36965983 0.16261400 -0.00021643 0.00000000
2.16231637 0.65857012 0.00389410 0.00000000
1.93843645 1.72859366 -0.00156644 0.00000000
0.53480001 0.21582452 0.00209429 0.00000000
3.54514640 0.43937085 0.00001997 0.00000000
4.24240359 0.59900960 -0.00057801 0.00000000
2.46473420 2.15630866 0.00119047 0.00000000
1.81306846 1.74884761 -0.00341699 0.00000000
4.15829708 1.15733102 0.00302285 0.00000000
0.80350765 1.46137307 -0.00439472 0.00000000
1.66679342 1.59829872 -0.00294139 0.00000000
4.06255724 1.48587423 -0.00090887 0.00000000
1.81689045 0.61546017 -0.00013590 0.00000000
3.57460938 1.45725838 -0.00263228 0.00000000
3.44187381 1.62426464 0.00313655 0.00000000
3.85802553 1.42883237 0.00373657 0.00000000
4.22605630 0.39876620 -0.00258588 0.00000000
2.38331155 2.02640599 0.00165910 0.00000000
0.00844062 0.16100911 -0.00012063 0.00000000
2.18666632 1.98910248 0.00188464 0.00000000
0.45685528 1.42105914 -0.00235402 0.00000000
2.30869224 0.39944969 0.00294620 0.00000000
1.68886191 0.87094782 -0.00174030 0.00000000
1.28042673 0.60773049 -0.00083442 0.00000000
2.34894612 0.59274045 -0.00217392 0.00000000
1.19971275 2.02111963 0.00119367 0.00000000
2.33949699 0.89938261 -0.00007198 0.00000000
0.12392474 1.36492875 0.00534800 0.00000000
0.18597283 0.28143588 -0.00085211 0.00000000
3.14664737 1.63617346 -0.00208983 0.00000000
4.35399697 0.71769179 0.00355485 0.00000000
2.50532122 0.54874309 0.00041174 0.00000000
3.17774174 0.63793120 -0.00241598 0.00000000
4.08327864 1.88467084 0.00231060 0.00000000
1.05653172 0.85412845 -0.00283175 0.00000000
3.27844028 1.26615860 0.00255731 0.00000000
2.67255213 0.86768729 0.00133763 0.00000000
4.42140682 1.89415483 -0.00052456 0.00000000
2.07512289 1.52528323 -0.00209719 0.00000000
0.93612336 1.44595769 0.00230854 0.00000000
0.77988848 0.59577042 -0.00108512 0.00000000
4.18591474 1.05623240 0.00419676 0.00000000
2.85023596 2.13462467 -0.00005679 0.00000000
0.83150873 1.35156035 -0.00246778 0.00000000
2.84332757 1.81952293 -0.00479586 0.00000000
1.14970470 0.56249254 0.00160478 0.00000000
0.22734628 0.14641431 0.00488275 0.00000000
3.81983681 0.07629699 -0.00142018 0.00000000
2.43456125 1.43215380 0.00272955 0.00000000
3.82176633 1.78703704 0.00159957 0.00000000
4.26144539 1.26522516 -0.00219849 0.00000000
4.08630760 0.41527272 0.00220813 0.00000000
3.58042310 0.25814280 -0.00153038 0.00000000
1.50680405 1.10711535 0.00316517 0.00000000
4.41236506 0.61574540 -0.00294513 0.00000000
0.39922581 0.33403416 0.00332213 0.00000000
3.47928192 1.44985618 -0.00005303 0.00000000
0.31383995 1.19263285 -0.00153550 0.00000000
4.04410676 1.87783087 -0.00351471 0.00000000
2.19086235 1.41425600 0.00069119 0.00000000
4.05379185 0.67654676 -0.00047908 0.00000000
3.34191753 2.07605512 0.00090397 0.00000000
2.40632231 0.05700305 0.00047385 0.00000000
1.16564815 2.00091580 0.00151667 0.00000000
2.41598125 0.43047968 -0.00145584 0.00000000
3.21322807 0.75535685 -0.00000250 0.00000000
3.41415239 0.78845117 0.00044048 0.00000000
1.87999917 0.12211190 -0.00432633 0.00000000
0.65994518 0.58288975 -0.00164972 0.00000000
2.55768514 0.57493286 -0.00262851 0.00000000
3.89955684 1.92917897 -0.00044712 0.00000000
0.93531843 1.55704068 0.00086072 0.00000000
4.08734054 0.27341244 -0.00322385 0.00000000
4.16184702 1.37390446 -0.00313866 0.00000000
1.52819515 1.41638704 -0.00290067 0.00000000
3.98706249 0.62597091 -0.00100671 0.00000000
3.53822719 1.55485649 -0.00109117 0.00000000
0.45498382 1.52512180 0.00039047 0.00000000
1.53927736 1.98986160 -0.00163799 0.00000000
1.58768705 0.91063324 -0.00053059 0.00000000
0.01020893 0.09465887 0.00171887 0.00000000
0.25393553 0.23641960 0.00028621 0.00000000
3.27206968 0.38316713 0.00366984 0.00000000
0.42793576 1.21608411 0.00259957 0.00000000
3.24918848 0.78970309 -0.00241298 0.00000000
2.48994998 0.52638885 -0.00272490 0.00000000
1.11723760 1.73280145 -0.00046933 0.00000000
1.75952893 0.98293595 0.00075963 0.00000000
4.40902967 2.01832301 -0.00274072 0.00000000
1.40984237 1.32379320 -0.00026559 0.00000000
0.86695148 1.13124666 0.00044112 0.00000000
0.35909679 0.01028176 0.00190790 0.00000000
2.93819964 1.23374144 0.00101385 0.00000000
2.44656301 1.31985447 -0.00075043 0.00000000
3.66131900 0.34146280 0.00069127 0.00000000
3.03803701 1.76636377 0.00004823 0.00000000
4.27298472 1.36218687 0.00086446 0.00000000
2.54622498 0.51962927 -0.00457329 0.00000000
3.91784174 2.09834035 0.00235279 0.00000000
4.05434966 0.85686205 -0.00109606 0.00000000
0.54958630 1.15330219 -0.00165984 0.00000000
1.26594989 0.24985006 0.00667721 0.00000000
2.09974202 0.46692292 0.00154215 0.00000000
1.08199114 1.97431821 -0.00031738 0.00000000
2.88863698 1.03774623 -0.00391194 0.00000000
2.45622425 0.99620327 -0.00141071 0.00000000
2.83959123 1.67572681 0.00066748 0.00000000
0.62220336 0.81011113 0.00227563 0.00000000
3.11580999 2.11008974 0.00325844 0.00000000
2.75875063 1.40527815 -0.00071897 0.00000000
2.01914514 0.31414271 -0.00287507 0.00000000
2.27631164 1.85945394 -0.00030673 0.00000000
3.32221662 1.98910969 -0.00095877 0.00000000
0.15069527 1.80571876 -0.00037244 0.00000000
3.72882272 1.91361834 -0.00145859 0.00000000
1.93560707 1.99566625 0.00308185 0.00000000
4.31432329 0.09848342 -0.00520997 0.00000000
3.65510876 1.14741467 0.00346403 0.00000000
4.05261045 0.44002734 0.00501722 0.00000000
4.24105763 1.87553293 0.00167028 0.00000000
1.31228664 0.68795852 0.00038133 0.00000000
0.73399976 0.90420294 -0.00247367 0.00000000
1.92866723 0.89856399 -0.00223611 0.00000000
0.28723262 1.98741232 -0.00160032 0.00000000
2.77915720 1.80853028 0.00280433 0.00000000
2.41234242 0.51019662 -0.00227319 0.00000000
3.24676956 0.09098712 0.00167247 0.00000000
0.91634696 1.68231955 0.00065388 0.00000000
2.12459863 1.58833201 0.00639847 0.00000000
1.52665528 0.21451151 -0.00476166 0.00000000
4.11409314 0.80335706 0.00560598 0.00000000
3.41644712 0.68993702 -0.00150895 0.00000000
1.43616336 0.30814192 0.00349473 0.00000000
0.45684477 1.74775837 -0.00097616 0.00000000
1.50175693 1.08450528 0.00018981 0.00000000
1.26983945 0.82783386 -0.00449112 0.00000000
1.69223581 0.84609402 0.00171687 0.00000000
3.56019798 2.01142989 -0.00205024 0.00000000
2.87977008 1.90488482 -0.00083627 0.00000000
1.54894836 0.07883674 -0.00191481 0.00000000
2.39624365 1.13243598 0.00020737 0.00000000
2.56218405 2.07502384 0.00079090 0.00000000
2.76972686 0.69904326 -0.00119980 0.00000000
1.35456910 0.32548268 0.00057798 0.00000000
0.21885003 1.04161810 0.00347841 0.00000000
1.48291329 1.61336613 -0.00133095 0.00000000
2.12709006 1.65463051 0.00332255 0.00000000
2.32770944 1.58149024 0.00196360 0.00000000
1.60784508 2.05048615 0.00249863 0.00000000
3.25953711 0.54990047 0.00045066 0.00000000
3.25706654 1.18643708 -0.00455413 0.00000000
2.25759652 1.09648762 -0.00163560 0.00000000
3.00333796 0.24194074 -0.00132968 0.00000000
2.93001513 0.71048108 0.00217941 0.00000000
3.84337788 1.77512175 0.00216981 0.00000000
0.68980041 1.10778210 0.00324696 0.00000000
3.66921250 0.28741903 -0.00152468 0.00000000
1.25069064 0.20413033 0.00078304 0.00000000
3.64275875 0.85385268 0.00277401 0.00000000
2.08798067 1.03247234 -0.00124403 0.00000000
3.34593179 0.69018035 0.00364818 0.00000000
1.51903437 0.33203382 0.00110442 0.00000000
0.63973332 1.87529484 -0.00220806 0.00000000
2.40816361 0.90793406 0.00073178 0.00000000
4.18345151 0.17203814 0.00237536 0.00000000
0.48989747 1.20918619 -0.00268122 0.00000000
0.25635945 0.90860648 0.00159026 0.00000000
3.35953556 0.97163856 -0.00262946 0.00000000
0.05862913 1.00197737 -0.00148192 0.00000000
2.99803469 1.25652096 -0.00265252 0.00000000
1.64109331 0.59693954 -0.00345562 0.00000000
2.12371084 1.89032238 -0.00258520 0.00000000
0.55441112 0.58126090 -0.00072712 0.00000000
2.08608378 1.04167823 0.00138303 0.00000000
2.24798437 1.66479276 -0.00047886 0.00000000
1.70927461 1.13620695 0.00069185 0.00000000
3.40061020 2.16115891 0.00072329 0.00000000
2.17844231 0.22659173 0.00333055 0.00000000
2.35620901 1.01013282 -0.00228998 0.00000000
3.03705947 1.19649481 0.00027896 0.00000000
2.54448448 0.34621188 -0.00042751 0.00000000
0.74681787 1.56779161 0.00032557 0.00000000
2.58409206 0.30725805 0.00166597 0.00000000
3.38813001 1.18177656 -0.00079619 0.00000000
1.97456721 0.64312353 -0.00011240 0.00000000
3.25609930 0.26292066 0.00196261 0.00000000
1.36810573 0.22145155 -0.00478146 0.00000000
1.84474264 1.18576080 -0.00399888 0.00000000
3.79318090 1.34956578 -0.00004562 0.00000000
3.71129769 1.69365846 0.00135724 0.00000000
0.95947010 0.89842567 0.00047791 0.00000000
1.96230070 2.06972658 -0.00323167 0.00000000
0.20959954 0.66122936 0.00134434 0.00000000
0.55046729 1.99941513 0.00202560 0.00000000
3.14944841 2.15684700 0.00282214 0.00000000
4.07317997 0.98799633 0.00089946 0.00000000
3.44548642 1.41857638 -0.00219995 0.00000000
3.11894696 1.03241129 -0.00141782 0.00000000
4.28523375 0.85167301 -0.00103502 0.00000000
3.12982979 1.27989153 0.00136515 0.00000000
2.67395127 0.32566751 -0.00102767 0.00000000
0.32123152 0.01047816 -0.00258778 0.00000000
2.80223818 0.50057190 -0.00132793 0.00000000
3.46539143 1.18533213 -0.00371753 0.00000000
1.25756665 1.27701876 0.00088091 0.00000000
3.54744972 0.94206089 0.00261111 0.00000000
2.49811707 1.23950468 -0.00137336 0.00000000
0.21901580 1.49741576 -0.00234397 0.00000000
3.33941384 0.24227312 -0.00121469 0.00000000
3.16017917 0.66573970 -0.00378436 0.00000000
2.96712016 0.95959924 0.00414329 0.00000000
0.47155577 1.70076003 -0.00611581 0.00000000
3.79968010 2.07953067 -0.00149526 0.00000000
4.23909460 0.25205086 -0.00352215 0.00000000
2.00235938 0.53948867 -0.00053721 0.00000000
2.88934002 0.96223078 0.00078126 0.00000000
3.71138927 0.09541622 0.00064729 0.00000000
2.61960415 0.25161645 -0.00230356 0.00000000
3.19119716 2.11130770 0.00157567 0.00000000
2.45828975 0.05556150 0.00068973 0.00000000
4.13459176 1.22631288 -0.00099492 0.00000000
0.56962511 0.46973545 -0.00194935 0.00000000
0.72437512 2.04367546 0.00227369 0.00000000
0.32020645 1.54440593 -0.00029813 0.00000000
0.45297801 1.83209659 -0.00000172 0.00000000
1.98943484 0.59458145 -0.00392939 0.00000000
0.15216425 1.93631164 -0.00128039 0.00000000
2.24810225 1.91388106 0.00184429 0.00000000
2.16575838 2.05170309 -0.00041591 0.00000000
3.47389436 0.71053519 -0.00417809 0.00000000
1.61104356 0.10662096 0.00053172 0.00000000
0.93575417 0.85603294 -0.00548280 0.00000000
3.89646846 1.57678670 0.00139162 0.00000000
0.67257773 1.21420564 0.00103930 0.00000000
2.68860280 0.38393237 0.00239384 0.00000000
1.00955341 0.01684746 0.00080821 0.00000000
2.00226773 0.81703161 -0.00179139 0.00000000
4.08042650 0.14040311 -0.00070725 0.00000000
2.80724030 1.77269966 0.00251101 0.00000000
2.76633790 0.37667544 0.00065261 0.00000000
3.64729724 1.82828552 -0.00281997 0.00000000
2.74918774 1.29694546 0.00267602 0.00000000
2.72496251 1.02738093 -0.00498092 0.00000000
2.91010116 0.91330395 -0.00137963 0.00000000
2.45589376 1.99205233 -0.00184883 0.00000000
2.22671237 0.61825528 -0.00084981 0.00000000
0.94236515 2.04267645 -0.00375154 0.00000000
0.01818919 2.06001402 -0.00255483 0.00000000
2.66583770 1.33076951 -0.00210076 0.00000000
1.42739526 0.47310783 -0.00017540 0.00000000
0.26527254 2.11793271 -0.00175624 0.00000000
3.44893754 0.69011386 -0.00008239 0.00000000
0.15089742 1.83876736 -0.00444646 0.00000000
1.46942440 0.02312805 0.00177711 0.00000000
1.86012292 0.71590125 0.00082672 0.00000000
1.67870053 0.11183434 0.00537551 0.00000000
0.42953017 0.27736235 -0.00093745 0.00000000
1.10631977 0.38059660 -0.00265551 0.00000000
2.63386662 0.79106531 0.00024445 0.00000000
1.55564695 1.24369617 0.00117499 0.00000000
3.68995037 0.03515349 0.00063191 0.00000000
2.79579914 1.81316767 -0.00227865 0.00000000
1.97063223 0.78929119 -0.00060254 0.00000000
3.75335711 1.86548239 -0.00020334 0.00000000
1.13787421 0.74597416 0.00217148 0.00000000
3.88599647 1.53194642 0.00064995 0.00000000
2.30421024 0.81937483 -0.00385673 0.00000000
0.12307097 0.56141445 -0.00200236 0.00000000
2.13228649 2.07017908 -0.00296708 0.00000000
4.19235895 1.35723340 0.00017950 0.00000000
2.83213289 0.95681922 0.00540116 0.00000000
0.55322919 1.07568273 0.00239664 0.00000000
2.32937595 0.94601062 -0.00272127 0.00000000
4.29551173 0.72373185 0.00448334 0.00000000
4.42531956 1.64651585 0.00088909 0.00000000
0.21930858 0.06730482 0.00070333 0.00000000
0.85157440 1.96938063 -0.00269313 0.00000000
3.15307147 0.34824385 0.00167855 0.00000000
0.41291822 1.84405758 -0.00169269 0.00000000
2.61515600 1.85733380 -0.00489810 0.00000000
2.58538935 0.84933334 0.00057381 0.00000000
1.48537243 1.65000796 0.00136824 0.00000000
1.81147623 0.63661748 -0.00186675 0.00000000
1.75116767 0.03918807 -0.00286363 0.00000000
3.00049650 0.23691654 -0.00066359 0.00000000
3.06069450 0.94834008 0.00084272 0.00000000
1.94664797 0.00051359 -0.00017834 0.00000000
3.69473673 1.67454323 -0.00232692 0.00000000
1.36619164 0.25019007 0.00263253 0.00000000
3.17542947 1.31432228 0.00149639 0.00000000
3.09586164 0.94083987 -0.00014939 0.00000000
4.18177633 1.93353936 -0.00100319 0.00000000
1.67332110 0.53652922 0.00015377 0.00000000
3.31305330 1.98107375 0.00293385 0.00000000
3.92528008 1.54830856 -0.00142654 0.00000000
2.27739594 1.11780143 0.00046582 0.00000000
3.82626747 1.03422291 -0.00239315 0.00000000
1.48259960 1.01312077 -0.00144737 0.00000000
1.95907054 1.41195025 -0.00013616 0.00000000
3.21697598 1.22476616 0.00084498 0.00000000
0.04179584 1.82074115 0.00102108 0.00000000
3.76754255 1.94199465 0.00011252 0.00000000
3.23610036 0.40467664 -0.00106627 0.00000000
0.11460822 2.11281452 -0.00053658 0.00000000
2.73522862 0.47471434 -0.00302984 0.00000000
0.46367462 1.85344337 -0.00072882 0.00000000
3.88589803 1.70671046 0.00167837 0.00000000
1.13947953 0.49399643 -0.00197317 0.00000000
1.61858385 0.13463842 0.00020839 0.00000000
0.78141371 1.47246710 0.00170698 0.00000000
0.01779642 1.43759453 0.00611795 0.00000000
2.94061311 1.90066956 0.00146108 0.00000000
1.12927842 0.40991959 0.00032644 0.00000000
3.29067792 0.31946531 -0.00104543 0.00000000
2.53896265 1.20926234 0.00246377 0.00000000
1.09366520 0.35929873 0.00227324 0.00000000
1.38978707 1.11626814 0.00512740 0.00000000
2.18939132 1.67109730 -0.00441866 0.00000000
4.04368346 1.53694864 0.00095405 0.00000000
0.30070820 0.36551252 -0.00033375 0.00000000
0.10533041 0.42619646 -0.00412100 0.00000000
2.81458769 1.92199253 -0.00198935 0.00000000
0.32473717 1.98763286 -0.00183316 0.00000000
3.54299192 2.04217116 -0.00322996 0.00000000
3.83992523 0.89397942 -0.00000518 0.00000000
0.22400174 0.54530057 -0.00027703 0.00000000
3.64984581 1.71301982 -0.00083371 0.00000000
0.75570084 2.09096734 -0.00280790 0.00000000
2.55078999 2.13397610 -0.00129695 0.00000000
1.99548506 1.01154664 -0.00032414 0.00000000
0.37414275 1.35519604 0.00094287 0.00000000
4.15536579 1.18849326 0.00053346 0.00000000
3.14132844 0.67469642 0.00168439 0.00000000
3.78978589 0.02813036 -0.00021284 0.00000000
1.07539280 1.69478209 0.00201033 0.00000000
0.14775746 0.41745908 0.00178420 0.00000000
2.02065767 2.04169660 0.00492971 0.00000000
0.30089511 1.89208722 0.00048971 0.00000000
0.63501661 1.46433191 0.00029905 0.00000000
3.20650188 1.23216176 0.00430033 0.00000000
1.12195348 1.86461883 -0.00106207 0.00000000
0.33810362 1.12550778 0.00138136 0.00000000
0.16448616 0.77962894 0.00355210 0.00000000
1.59896675 0.27459406 -0.00046111 0.00000000
0.80759357 0.73046667 0.00458615 0.00000000
3.25008529 2.12724887 -0.00290751 0.00000000
2.17513394 0.63051261 0.00125459 0.00000000
0.67448959 0.97606649 -0.00161946 0.00000000
3.52192236 0.11345813 0.00163951 0.00000000
0.29549035 0.14129584 0.00223456 0.00000000
2.23575613 1.41773326 0.00199605 0.00000000
2.88131023 1.54037975 -0.00290174 0.00000000
4.37172890 1.11837210 -0.00049632 0.00000000
0.44847283 0.02173090 0.00239141 0.00000000
3.49382225 1.97281347 -0.00093062 0.00000000
3.76719638 1.26779581 0.00482880 0.00000000
0.31463571 0.72565593 0.00053724 0.00000000
3.07872300 0.86562097 0.00049832 0.00000000
2.17269418 0.30065262 -0.00010627 0.00000000
1.75897938 1.64866333 0.00033650 0.00000000
1.46046245 1.80239457 -0.00585594 0.00000000
1.15882552 0.36275306 0.00135567 0.00000000
3.06507105 0.16817712 0.00149376 0.00000000
2.66570329 1.35313977 0.00240069 0.00000000
1.48583197 1.43588551 0.00059913 0.00000000
0.76872645 1.07961691 0.00392769 0.00000000
1.90815298 2.00173365 -0.00138927 0.00000000
2.64525521 0.28971405 -0.00052468 0.00000000
3.30264441 1.60894502 0.00227956 0.00000000
0.00416470 1.49725917 0.00266721 0.00000000
1.56341530 1.86987100 0.00036371 0.00000000
1.01985176 0.08672098 -0.00208456 0.00000000
1.85085703 1.94457281 -0.00139511 0.00000000
0.18461218 1.55064904 0.00077842 0.00000000
0.69316552 0.39489314 0.00136400 0.00000000
3.29875330 1.48669580 0.00221116 0.00000000
0.26123327 0.54451716 0.00116428 0.00000000
4.01183970 2.07949519 0.00219547 0.00000000
3.97653125 1.61875432 -0.00393838 0.00000000
1.07639622 0.84770727 -0.00200046 0.00000000
2.01540355 0.53976704 -0.00336670 0.00000000
4.08562040 1.69192173 -0.00037118 0.00000000
0.36951433 0.53062293 -0.00014005 0.00000000
3.20167616 0.98855397 -0.00008330 0.00000000
0.35951509 1.84743393 -0.00117008 0.00000000
1.91395178 0.72619259 -0.00049200 0.00000000
0.66100803 1.33983365 -0.00022528 0.00000000
1.10182568 1.41565769 -0.00419715 0.00000000
2.56197766 1.68147057 -0.00402603 0.00000000
3.92624859 1.33795315 0.00747339 0.00000000
0.12375667 1.45822812 0.00219978 0.00000000
1.69555514 0.19439239 -0.00473860 0.00000000
2.80073982 0.43745402 0.00446203 0.00000000
0.96972386 1.96622768 -0.00251204 0.00000000
2.41755845 1.40874377 0.00359580 0.00000000
3.40751793 1.08116486 -0.00213431 0.00000000
2.89383047 2.10092162 0.00130216 0.00000000
2.13684560 0.05432911 0.00214914 0.00000000
3.26119449 1.41995441 -0.00532615 0.00000000
4.35092262 1.94453789 -0.00198358 0.00000000
2.02750308 0.93125004 0.00000076 0.00000000
2.77789996 1.03816620 -0.00380223 0.00000000
2.41004856 0.88152099 0.00017642 0.00000000
0.25649321 0.15684580 0.00077639 0.00000000
0.08018356 1.26371580 -0.00052951 0.00000000
1.02037476 1.73899092 0.00054167 0.00000000
1.80295478 1.63525838 -0.00010323 0.00000000
2.17355294 1.94621407 -0.00157127 0.00000000
2.23290631 1.14461787 0.00002384 0.00000000
2.87857803 0.11551118 -0.00083392 0.00000000
2.16420151 0.03079416 0.00054097 0.00000000
0.23713365 1.86850018 0.00066775 0.00000000
1.59551462 0.38763802 0.00549475 0.00000000
1.79356789 1.30328859 -0.00085849 0.00000000
3.77629473 0.21368546 -0.00166276 0.00000000
1.48467848 1.53345739 0.00031586 0.00000000
0.40683585 0.14032628 -0.00124487 0.00000000
2.16142768 0.68590422 -0.00065534 0.00000000
1.41871418 0.16318820 0.00034923 0.00000000
3.90780765 1.28434829 0.00050738 0.00000000
2.45826261 1.42534543 0.00082859 0.00000000
2.36366154 1.80784847 0.00137687 0.00000000
2.98509502 2.00437029 -0.00068010 0.00000000
3.15481971 0.42717708 -0.00374877 0.00000000
2.51836177 0.59816293 0.00140330 0.00000000
1.41192661 1.27711490 0.00092012 0.00000000
0.97859929 1.11264722 0.00545899 0.00000000
1.80056049 0.25198081 0.00109511 0.00000000
2.62301482 1.13025985 -0.00215011 0.00000000
3.30383968 1.31130373 -0.00260060 0.00000000
2.19039478 0.32594772 0.00076140 0.00000000
3.26809459 1.28958227 0.00018293 0.00000000
2.17991834 1.78394677 -0.00280281 0.00000000
2.30152892 1.39919864 0.00522184 0.00000000
4.05210540 1.88514083 -0.00122333 0.00000000
0.42357582 1.70847401 0.00299175 0.00000000
0.77342865 0.72239402 0.00014792 0.00000000
0.26790471 0.77601421 -0.00393162 0.00000000
2.39771889 0.70002919 0.00054184 0.00000000
0.79783095 1.69088345 -0.00233130 0.00000000
3.36297130 0.29409559 0.00339521 0.00000000
3.34086480 1.77202712 -0.00287891 0.00000000
1.12706642 1.99400222 -0.00270087 0.00000000
1.19214413 1.86315392 0.00027805 0.00000000
1.58376861 0.85215867 -0.00068056 0.00000000
3.73117621 1.45263672 -0.00164696 0.00000000
0.59315846 1.21166487 0.00284340 0.00000000
4.08216243 1.65193322 0.00218097 0.00000000
0.75431984 2.03819802 0.00254014 0.00000000
2.51032306 0.93931264 -0.00191481 0.00000000
0.94362131 1.90826490 -0.00195917 0.00000000
0.61531750 1.58033366 0.00125444 0.00000000
0.71538290 0.22938819 0.00174203 0.00000000
3.41470556 1.77696807 0.00251606 0.00000000
4.27755713 1.62107341 0.00304721 0.00000000
3.17687412 1.78607833 -0.00396149 0.00000000
2.70582496 1.20443471 0.00495594 0.00000000
0.49109197 1.52994868 0.00240945 0.00000000
0.31745219 0.61859052 -0.00031425 0.00000000
4.23311469 0.27931299 0.00481575 0.00000000
