4.13418922 0.23573835 0.00129076 0.00000000
3.68917232 0.63467220 -0.00208293 0.00000000
4.32885367 0.15340750 -0.00083192 0.00000000
0.43178931 1.68764826 -0.00202798 0.00000000
4.76808594 0.27803878 0.00027617 0.00000000
4.07033549 0.97735617 -0.00051192 0.00000000
0.13998635 1.16696716 0.00410864 0.00000000
0.02459531 1.41673650 0.00404320 0.00000000
4.85105560 0.44558260 -0.00092747 0.00000000
0.20540357 0.78256373 -0.00277315 0.00000000
1.99272959 1.29933394 -0.00240392 0.00000000
1.66078209 0.80951964 -0.00369436 0.00000000
2.04674747 1.31349318 0.00034472 0.00000000
0.11858809 1.70685084 -0.00095722 0.00000000
3.12391766 1.91082890 -0.00051424 0.00000000
1.80989091 0.63801358 -0.00259133 0.00000000
3.50234930 1.91745694 -0.00370902 0.00000000
0.68053865 0.15228975 0.00041836 0.00000000
1.39566694 1.08458603 0.00136635 0.00000000
4.40641236 0.99003094 0.00393734 0.00000000
2.93524133 0.74381217 -0.00265941 0.00000000
3.56702481 0.68473874 -0.00179117 0.00000000
3.64436050 1.26577245 -0.00103014 0.00000000
3.97596498 1.36459409 -0.00108477 0.00000000
4.31907348 0.09345566 -0.00118021 0.00000000
0.35350084 1.13129812 -0.00064753 0.00000000
2.90005749 0.84910369 -0.00257395 0.00000000
3.28650774 0.76640236 -0.00294677 0.00000000
2.06577429 0.95477014 -0.00239967 0.00000000
1.35102490 0.88201885 -0.00118531 0.00000000
0.24107953 0.11791377 -0.00306481 0.00000000
1.62296965 0.12530907 0.00228170 0.00000000
4.30911355 1.69248874 0.00265355 0.00000000
3.72270548 0.61235795 0.00084584 0.00000000
0.49626327 0.19505491 -0.00357621 0.00000000
2.71422808 1.42056329 -0.00088989 0.00000000
0.31168801 1.04966043 0.00494635 0.00000000
2.53512294 0.36562840 0.00240738 0.00000000
1.78519297 0.03027670 0.00122170 0.00000000
1.38664355 0.19467073 0.00289077 0.00000000
0.95184169 1.95119451 -0.00024640 0.00000000
1.02665237 0.30178071 0.00037606 0.00000000
2.02188748 1.50513357 -0.00098816 0.00000000
1.38874407 1.70033868 0.00432151 0.00000000
3.72108399 1.95193083 -0.00123444 0.00000000
1.11463498 1.32406029 -0.00325382 0.00000000
3.01626463 0.23421128 -0.00091426 0.00000000
1.35865557 1.88566565 0.00282501 0.00000000
3.68230497 0.69346807 -0.00118851 0.00000000
3.97726773 0.71310618 -0.00178018 0.00000000
4.22751776 0.99194886 0.00266433 0.00000000
0.24317658 1.28300220 0.00168123 0.00000000
1.14964492 1.89115779 -0.00068499 0.00000000
4.15932573 0.99332304 0.00057382 0.00000000
1.48692553 1.49315571 -0.00189777 0.00000000
2.99484830 1.08607309 0.00161628 0.00000000
4.78207387 1.40759765 0.00167303 0.00000000
1.57403499 1.76491017 0.00423052 0.00000000
4.93459392 0.09653036 -0.00179324 0.00000000
1.32540727 1.44809266 0.00312049 0.00000000
4.52208158 0.53952484 0.00064934 0.00000000
4.23391040 1.21094737 -0.00196772 0.00000000
0.63409486 1.27413868 -0.00152913 0.00000000
4.01869199 1.22763089 -0.00367952 0.00000000
4.06932401 0.37913431 -0.00102777 0.00000000
3.11617153 1.34562185 -0.00245515 0.00000000
3.41649741 1.48390990 0.00129432 0.00000000
0.80439433 1.66756055 0.00181758 0.00000000
3.42044173 0.83407276 -0.00457282 0.00000000
2.52004505 0.78139305 0.00363809 0.00000000
3.19174576 0.54384356 0.00021765 0.00000000
3.16761140 0.32074413 -0.00067582 0.00000000
0.65668162 1.12338127 -0.00508821 0.00000000
3.37973089 0.05208155 -0.00322096 0.00000000
2.21273614 0.95892424 -0.00191306 0.00000000
1.56067817 1.09575496 -0.00112468 0.00000000
3.14193338 1.47929002 0.00097833 0.00000000
0.33948517 1.17418009 -0.00306515 0.00000000
2.46790352 0.46133477 -0.00131401 0.00000000
4.83749089 1.22675470 0.00520165 0.00000000
1.58304105 0.90103850 0.00134944 0.00000000
3.11469797 0.60578398 -0.00317756 0.00000000
0.79928521 1.55824104 -0.00339700 0.00000000
4.40061075 1.50028182 -0.00179031 0.00000000
3.81990225 1.57686023 0.00068188 0.00000000
3.91273074 0.70034411 0.00082706 0.00000000
4.10874968 1.10724787 0.00063118 0.00000000
3.51528774 0.35633974 -0.00536801 0.00000000
2.32046550 0.75768771 -0.00090088 0.00000000
3.33372226 0.95467712 -0.00030101 0.00000000
4.85350093 1.40136108 -0.00028426 0.00000000
1.19498727 0.31905878 0.00240380 0.00000000
0.00160747 1.26258396 -0.00082250 0.00000000
2.72076588 0.01872005 0.00271384 0.00000000
1.41513335 0.64547073 0.00030245 0.00000000
4.72681762 1.65150437 -0.00084277 0.00000000
2.64184568 1.11075249 -0.00121566 0.00000000
0.72554195 0.36974970 -0.00086548 0.00000000
4.06825643 1.25861567 0.00307510 0.00000000
1.51326874 0.80150618 0.00061516 0.00000000
2.49936518 1.46942642 0.00075880 0.00000000
1.42381378 0.58877544 0.00046263 0.00000000
2.20949982 1.31714009 -0.00433928 0.00000000
4.70058884 1.84058238 -0.00066151 0.00000000
2.56168707 0.52836898 0.00079085 0.00000000
1.55055568 1.52241893 0.00308391 0.00000000
4.70739403 1.94625299 0.00269221 0.00000000
4.32256772 0.77476702 -0.00373352 0.00000000
4.86839287 1.67952084 -0.00148636 0.00000000
0.47055610 0.56771362 0.00207048 0.00000000
1.40518878 0.09075586 -0.00284688 0.00000000
0.08750967 0.00319090 0.00059033 0.00000000
4.89422744 1.80550415 0.00382421 0.00000000
3.10334329 1.88581784 0.00498594 0.00000000
0.57718025 0.05920289 -0.00391566 0.00000000
2.04552342 1.45920972 -0.00501618 0.00000000
1.48535969 1.24673945 -0.00182575 0.00000000
3.41318285 0.34329696 -0.00147356 0.00000000
2.77211860 0.39549607 -0.00195490 0.00000000
3.43530732 1.20945579 0.00114814 0.00000000
1.69367033 0.44714472 -0.00009993 0.00000000
3.05484749 1.72479135 -0.00205738 0.00000000
0.27409241 1.04095654 -0.00010374 0.00000000
3.54296053 1.33733153 0.00175153 0.00000000
2.10637019 1.51585619 -0.00223355 0.00000000
4.60812599 1.57354911 0.00000715 0.00000000
4.20761794 0.08707394 -0.00192991 0.00000000
1.98097394 1.02539003 -0.00184162 0.00000000
2.31978816 1.45168005 0.00127511 0.00000000
4.84132529 0.60721947 0.00021121 0.00000000
4.47405706 0.66987903 0.00046009 0.00000000
4.12257635 1.66942841 0.00359536 0.00000000
4.97612501 1.84040288 0.00162958 0.00000000
2.38560761 1.82156401 -0.00114969 0.00000000
1.10617841 1.42982503 0.00237059 0.00000000
0.76192781 0.83254114 0.00253134 0.00000000
2.22191739 1.47155883 0.00446743 0.00000000
0.67859175 0.24484520 0.00111464 0.00000000
4.59017155 0.59349447 0.00086206 0.00000000
3.64829710 0.19267798 0.00468778 0.00000000
3.02119996 0.60323182 -0.00223775 0.00000000
2.23107602 0.26653931 0.00325195 0.00000000
2.05848190 0.47975013 0.00079600 0.00000000
2.80755985 0.75744113 -0.00208161 0.00000000
3.41301350 1.18989277 -0.00032108 0.00000000
3.05180861 0.97367216 -0.00009920 0.00000000
2.59185731 0.03313383 0.00063524 0.00000000
1.85668730 0.97751697 -0.00368229 0.00000000
2.30078073 0.51960153 -0.00148002 0.00000000
1.50198458 1.56412584 -0.00059067 0.00000000
3.57724255 0.14597978 -0.00144039 0.00000000
3.02011330 0.61354494 -0.00111710 0.00000000
3.17094018 1.74041851 0.00029772 0.00000000
4.76854781 0.72590297 0.00616258 0.00000000
0.28122626 1.07768152 0.00393194 0.00000000
0.85993350 0.43585354 -0.00068503 0.00000000
1.39262240 0.97826646 -0.00019423 0.00000000
0.81982204 1.70839997 0.00294172 0.00000000
3.34923381 1.21117755 0.00249200 0.00000000
3.73878631 1.63965601 -0.00166230 0.00000000
4.88763358 1.76236541 0.00052098 0.00000000
4.91722330 1.45262320 0.00367541 0.00000000
0.42961819 1.15315733 0.00231780 0.00000000
4.44467397 0.28943614 -0.00310428 0.00000000
1.29212795 1.58708288 -0.00591837 0.00000000
3.05900866 0.09256809 -0.00234258 0.00000000
1.99676397 0.07273461 0.00014916 0.00000000
0.36065252 0.63223367 0.00539234 0.00000000
0.97899318 1.10330234 -0.00279223 0.00000000
2.72506653 1.62500963 -0.00225295 0.00000000
3.53827759 0.56006705 0.00414223 0.00000000
3.15321357 0.74371510 -0.00083165 0.00000000
4.41048610 1.17873998 -0.00003158 0.00000000
1.54649539 0.47607140 -0.00037188 0.00000000
4.83768012 1.70066247 -0.00540457 0.00000000
2.00739048 0.34367531 -0.00138606 0.00000000
0.81144289 1.41534859 0.00380421 0.00000000
4.58536256 0.76729662 -0.00183137 0.00000000
4.28648213 0.66870460 -0.00226931 0.00000000
1.78611846 0.73290291 0.00144592 0.00000000
1.82230595 1.78465507 0.00328745 0.00000000
2.76567528 0.51924516 -0.00016122 0.00000000
0.57364438 0.68116903 0.00045815 0.00000000
2.45354359 0.21490053 -0.00408451 0.00000000
3.23177002 0.05413524 -0.00030869 0.00000000
3.62004987 0.74023392 -0.00265481 0.00000000
3.94423469 0.21161116 -0.00141328 0.00000000
1.89336265 0.93744822 0.00183187 0.00000000
4.62774064 0.97398609 0.00186004 0.00000000
1.88669299 0.57974643 0.00065198 0.00000000
2.31051956 1.81299322 -0.00617382 0.00000000
0.12721333 1.22421811 -0.00025520 0.00000000
4.18203212 0.19363164 0.00099765 0.00000000
4.41508585 0.12053498 -0.00245770 0.00000000
4.82868148 0.14047429 -0.00151623 0.00000000
4.34717198 0.41725798 -0.00168894 0.00000000
1.43056028 0.98350488 0.00156944 0.00000000
3.31878453 0.09638750 0.00138316 0.00000000
0.88165786 1.17922122 -0.00392249 0.00000000
3.80604631 1.00979218 0.00219660 0.00000000
0.35551666 0.02381228 0.00125824 0.00000000
0.31900849 0.10967248 -0.00078137 0.00000000
4.83528673 1.89141335 -0.00125504 0.00000000
1.82676477 1.83125025 -0.00075758 0.00000000
1.23872019 1.25336065 -0.00084103 0.00000000
2.15004028 0.70409010 0.00118559 0.00000000
3.03141220 0.67560029 0.00001841 0.00000000
2.50881306 1.57064214 -0.00225566 0.00000000
0.63760905 0.97908902 -0.00148926 0.00000000
3.15705753 1.24982803 -0.00056797 0.00000000
2.10206067 0.46444985 -0.00166554 0.00000000
3.53351515 1.94744051 0.00018367 0.00000000
1.22954645 0.06517346 0.00477803 0.00000000
0.16588919 0.15683134 0.00052652 0.00000000
4.88534214 1.29732214 0.00077611 0.00000000
1.51488720 0.48235570 -0.00063608 0.00000000
0.03966112 1.28132836 -0.00136986 0.00000000
4.22849149 1.70815000 0.00051919 0.00000000
4.80708221 0.92243622 -0.00451744 0.00000000
2.10105348 0.14117155 0.00361322 0.00000000
0.79284834 0.39352251 0.00311080 0.00000000
4.44475531 0.26103180 -0.00290874 0.00000000
1.97654227 1.25047553 -0.00031028 0.00000000
0.27154862 0.19840985 -0.00490368 0.00000000
3.14022156 0.29303118 0.00046027 0.00000000
3.19577969 1.57305348 -0.00476976 0.00000000
2.35271867 0.63735933 0.00221968 0.00000000
4.62788302 1.47941771 0.00066280 0.00000000
1.79679812 0.31778181 0.00211231 0.00000000
1.59127046 1.58853353 0.00281119 0.00000000
2.98629803 0.57543472 -0.00367464 0.00000000
1.51189947 1.21022430 0.00064536 0.00000000
4.96028870 0.61133897 0.00269068 0.00000000
2.01961791 1.38257798 0.00006419 0.00000000
3.45488291 1.44605878 0.00144036 0.00000000
4.56952192 1.36022534 0.00007874 0.00000000
2.31237797 1.18443542 -0.00468527 0.00000000
2.87535637 1.64018527 -0.00199282 0.00000000
1.40537328 0.11224994 -0.00088246 0.00000000
2.59303322 1.04397554 -0.00315520 0.00000000
0.38299766 1.27279611 -0.00347807 0.00000000
2.77184697 1.37523000 -0.00512799 0.00000000
1.66908419 1.90470446 0.00125363 0.00000000
3.99708523 0.74113088 0.00304250 0.00000000
4.85098544 1.19589783 0.00693553 0.00000000
2.29036354 0.58878776 0.00016385 0.00000000
4.33753199 1.27704039 0.00526085 0.00000000
4.60359078 1.85388230 -0.00354178 0.00000000
2.04933002 1.58828345 0.00161395 0.00000000
2.83477910 0.56026483 0.00250597 0.00000000
2.02378154 1.10904411 -0.00066224 0.00000000
0.25282034 1.73044170 -0.00251954 0.00000000
2.93227802 0.74621638 0.00155333 0.00000000
3.19067814 1.70784929 0.00059706 0.00000000
2.64599158 0.35036617 0.00407927 0.00000000
3.71740700 1.02768713 -0.00201469 0.00000000
2.27831405 1.63386674 0.00083654 0.00000000
0.18798302 1.04249153 0.00195122 0.00000000
4.77656059 1.31023732 0.00459524 0.00000000
2.22154770 0.38246227 0.00175727 0.00000000
0.26440568 1.50046959 -0.00045444 0.00000000
1.55116955 0.78856663 0.00160204 0.00000000
2.06658913 0.42167318 -0.00384791 0.00000000
0.26403862 1.32804664 0.00270331 0.00000000
1.22923528 1.06392012 0.00182421 0.00000000
1.49237600 0.36707926 0.00491482 0.00000000
1.84275414 1.88101181 -0.00095605 0.00000000
3.36934399 0.73560005 -0.00049180 0.00000000
0.11064903 1.94956233 -0.00407192 0.00000000
4.68451337 0.14060551 -0.00117732 0.00000000
2.29295972 0.98600990 -0.00291933 0.00000000
0.67415447 1.02083534 0.00293911 0.00000000
4.00661580 0.68450299 0.00516021 0.00000000
4.48106780 0.44091916 -0.00096855 0.00000000
2.55119945 1.61630462 -0.00069720 0.00000000
4.48148610 0.92724834 0.00306513 0.00000000
4.99272800 0.68849240 0.00283543 0.00000000
0.97715698 0.32797983 -0.00098390 0.00000000
3.70044759 0.20386092 -0.00375320 0.00000000
1.22157270 0.15845803 -0.00105251 0.00000000
1.90076003 0.39048038 0.00329497 0.00000000
3.50398553 0.11184013 -0.00038269 0.00000000
2.85513653 1.07618023 -0.00037573 0.00000000
4.54279551 1.76016670 -0.00013887 0.00000000
0.78498958 0.63930405 0.00342471 0.00000000
1.26345106 1.35897937 -0.00241132 0.00000000
3.63980932 0.80009115 -0.00492164 0.00000000
2.23288218 0.48023051 0.00001556 0.00000000
0.31208959 1.04491109 0.00153941 0.00000000
1.20283844 0.44545480 0.00149984 0.00000000
0.04340333 0.75025442 -0.00248790 0.00000000
4.20189616 1.44411873 -0.00574123 0.00000000
1.59422997 1.92195770 0.00184298 0.00000000
1.50903421 0.38884716 -0.00185713 0.00000000
0.96454768 1.61697268 -0.00424940 0.00000000
1.39998685 0.71986070 0.00057429 0.00000000
3.23474782 1.59935883 0.00137524 0.00000000
1.41088739 0.69655161 -0.00094802 0.00000000
3.10106915 0.35475879 0.00054634 0.00000000
1.49703576 0.82482568 0.00205256 0.00000000
3.58327664 1.93637113 0.00319527 0.00000000
4.73707074 0.19550875 -0.00472245 0.00000000
3.87928562 0.73016393 0.00199088 0.00000000
0.49563264 1.78219605 0.00088812 0.00000000
2.91879179 0.32708619 0.00284837 0.00000000
3.64885879 1.42704642 0.00023679 0.00000000
1.95799718 0.05942872 -0.00392527 0.00000000
3.26463215 0.50257757 -0.00219754 0.00000000
0.57800266 1.92714743 0.00137917 0.00000000
0.74560688 1.19576681 -0.00335772 0.00000000
4.69950761 0.70898878 0.00310292 0.00000000
2.76433270 0.66577045 -0.00342879 0.00000000
2.50085632 1.64097685 -0.00057240 0.00000000
3.53072519 0.85719146 -0.00008776 0.00000000
2.48317216 0.07816020 0.00244530 0.00000000
3.49749554 1.29927857 0.00147755 0.00000000
1.30026120 1.55883019 0.00093439 0.00000000
4.81981574 0.64612950 -0.00356636 0.00000000
1.67730439 1.67649428 -0.00183226 0.00000000
2.73212357 1.71140399 0.00414566 0.00000000
3.79871714 0.89042955 -0.00027044 0.00000000
3.04303152 0.97680993 -0.00030917 0.00000000
3.64116153 0.00306266 0.00115655 0.00000000
0.78935743 0.87026537 -0.00094727 0.00000000
0.57894764 1.95444588 0.00030264 0.00000000
3.31277286 1.08340999 0.00121972 0.00000000
4.37261432 1.62259543 0.00058836 0.00000000
2.00121383 1.19354858 -0.00232019 0.00000000
1.66612634 0.73542447 0.00246863 0.00000000
1.42333438 1.04699028 0.00063645 0.00000000
4.10730298 1.80917853 -0.00065883 0.00000000
1.61735260 1.05558991 0.00199159 0.00000000
1.00770794 1.64917689 -0.00266888 0.00000000
4.96915779 1.69851693 -0.00666737 0.00000000
1.92190478 0.21305614 -0.00119670 0.00000000
2.16270966 0.59940864 0.00263850 0.00000000
3.93445603 0.97537270 -0.00118887 0.00000000
3.13404970 0.06718122 0.00231116 0.00000000
4.61225184 0.07107858 0.00318977 0.00000000
3.48265324 0.83959342 0.00101342 0.00000000
1.35071331 0.83535198 -0.00045742 0.00000000
4.72126216 1.28850305 -0.00333652 0.00000000
1.00159679 1.77441365 -0.00075551 0.00000000
4.14211007 0.71689794 0.00209610 0.00000000
4.24122983 1.58125974 -0.00021701 0.00000000
1.15235046 0.06117247 0.00001019 0.00000000
1.21610088 0.46912107 0.00075801 0.00000000
3.12371747 1.20139198 -0.00447368 0.00000000
3.95683984 1.71952992 -0.00009823 0.00000000
3.99319623 1.21966570 0.00390710 0.00000000
4.76754163 0.10252297 0.00030970 0.00000000
2.61623082 1.75268395 -0.00078852 0.00000000
3.85186794 0.47780036 0.00354526 0.00000000
1.92597293 1.21265662 0.00112881 0.00000000
4.75962877 0.79190005 -0.00091341 0.00000000
0.56449495 1.37485693 -0.00132152 0.00000000
3.94231203 0.70049636 -0.00370549 0.00000000
2.03641543 0.99859532 0.00363943 0.00000000
1.81795204 0.10447976 -0.00006429 0.00000000
0.56878637 1.04778648 -0.00200224 0.00000000
4.79068792 1.80713667 0.00381766 0.00000000
3.56443015 0.30901849 -0.00567795 0.00000000
1.92390883 0.35889357 0.00262127 0.00000000
0.69038359 0.11900180 -0.00127338 0.00000000
3.51962091 1.14929066 0.00063319 0.00000000
0.45066580 0.59110867 0.00252320 0.00000000
0.65699444 0.30461951 0.00021609 0.00000000
2.09736595 1.37299921 0.00118980 0.00000000
3.03339423 0.63413085 0.00270543 0.00000000
2.87025986 0.82535774 -0.00174470 0.00000000
3.94011367 1.19855204 0.00478103 0.00000000
0.29102891 1.60238759 -0.00024503 0.00000000
4.42532634 0.89993327 -0.00145514 0.00000000
2.60788105 0.65444880 -0.00505811 0.00000000
2.24536443 1.62937588 -0.00085330 0.00000000
4.29602723 0.71397748 -0.00120719 0.00000000
3.11890708 1.78972782 -0.00014432 0.00000000
1.94920237 0.28232782 -0.00138429 0.00000000
1.64480125 1.15573264 0.00169261 0.00000000
2.48027096 0.59082311 0.00654164 0.00000000
0.94362590 1.15053817 0.00196103 0.00000000
4.98677686 1.51496662 0.00158264 0.00000000
4.79275644 1.00149703 -0.00488816 0.00000000
0.04186388 1.03862638 0.00358084 0.00000000
1.36003116 1.79680299 0.00007595 0.00000000
2.02773707 1.59730112 0.00215841 0.00000000
4.07879348 1.00104530 0.00264434 0.00000000
4.46654508 1.74170497 -0.00124593 0.00000000
3.25100322 0.98639019 -0.00002494 0.00000000
3.90903852 0.43072682 -0.00237667 0.00000000
1.26561114 0.62472896 0.00303226 0.00000000
3.02966688 1.04940638 -0.00107984 0.00000000
4.34971173 0.90042092 0.00572592 0.00000000
1.95943711 0.70000811 -0.00250358 0.00000000
3.66959572 1.44121520 0.00215910 0.00000000
1.70445738 1.65097516 0.00138636 0.00000000
3.19286342 1.32431998 -0.00238211 0.00000000
2.82524280 1.75218456 -0.00262542 0.00000000
2.04190642 1.08192747 0.00044464 0.00000000
2.05906946 1.61538501 0.00079214 0.00000000
1.30627159 0.75215318 -0.00247329 0.00000000
3.44061636 0.59216036 0.00153821 0.00000000
3.42898607 0.35841788 0.00311459 0.00000000
1.29478221 1.26581562 0.00310697 0.00000000
3.97111288 1.46123506 -0.00156057 0.00000000
2.02509128 0.63923409 -0.00303629 0.00000000
4.01891187 1.69066681 -0.00321069 0.00000000
2.17562930 1.61956266 -0.00232575 0.00000000
1.19858774 0.22349850 -0.00197355 0.00000000
1.70411058 0.70533171 -0.00420935 0.00000000
3.12895937 0.75863172 -0.00163608 0.00000000
4.79083651 1.32106892 0.00092021 0.00000000
2.84994602 1.61435007 -0.00040286 0.00000000
0.72335723 0.00809793 0.00379398 0.00000000
0.99589996 0.05711216 -0.00100325 0.00000000
2.43236712 0.15873372 -0.00001655 0.00000000
0.28998295 1.87121401 -0.00481423 0.00000000
2.62178118 1.54871867 0.00421090 0.00000000
1.68941960 1.78559907 -0.00182841 0.00000000
0.34224781 0.98509376 0.00545625 0.00000000
1.09457058 0.47509467 0.00310472 0.00000000
3.62954559 0.16747993 0.00172405 0.00000000
2.62199815 0.98615836 -0.00257146 0.00000000
4.17451241 0.99097783 -0.00047313 0.00000000
3.18018569 0.32070331 0.00182745 0.00000000
1.93476286 0.27168705 -0.00073787 0.00000000
0.48740523 0.87645338 0.00083831 0.00000000
0.38739986 0.54147101 0.00067904 0.00000000
1.60099438 1.43278897 0.00209655 0.00000000
3.44204757 1.25671484 0.00403459 0.00000000
0.74719027 1.62979286 0.00512201 0.00000000
3.21911818 1.52937610 0.00004412 0.00000000
1.71556867 1.76495363 -0.00047321 0.00000000
4.19590823 1.69045182 -0.00061677 0.00000000
1.86497325 1.30039102 -0.00083990 0.00000000
1.53200663 1.38616651 0.00017112 0.00000000
3.08708700 0.99926663 -0.00448797 0.00000000
1.00063116 0.55308175 -0.00196600 0.00000000
2.38609957 1.46495327 0.00064964 0.00000000
4.28744578 0.63504223 -0.00034257 0.00000000
1.60296778 1.85035940 0.00242419 0.00000000
0.82719784 0.91643130 0.00172648 0.00000000
0.92366857 1.59035936 -0.00072077 0.00000000
2.66883252 1.56056048 0.00267244 0.00000000
1.27573928 1.23207341 -0.00130559 0.00000000
3.84257303 1.59694931 0.00192051 0.00000000
1.04385255 1.58885856 0.00138303 0.00000000
2.68244862 1.34260602 -0.00088393 0.00000000
1.20540387 0.48566698 0.00660650 0.00000000
0.43651454 0.27921029 0.00101929 0.00000000
1.57045366 1.72214225 0.00033229 0.00000000
0.41107070 1.62564169 0.00153408 0.00000000
0.78547146 0.47474550 0.00018169 0.00000000
3.35382250 0.74780142 -0.00363738 0.00000000
4.57369820 1.58703772 0.00442559 0.00000000
2.19749963 0.78721537 -0.00055177 0.00000000
1.54696162 0.85555146 0.00213515 0.00000000
4.95520858 0.09734013 -0.00224047 0.00000000
4.07969963 0.31326331 -0.00467310 0.00000000
0.31954938 1.44350689 -0.00414097 0.00000000
1.34057389 0.19154789 0.00182511 0.00000000
0.92751061 1.40554707 0.00310017 0.00000000
1.33734539 0.49663306 -0.00063829 0.00000000
1.27733860 0.81920337 -0.00376932 0.00000000
0.98356025 0.64183889 0.00181620 0.00000000
1.24195019 1.37633245 -0.00063733 0.00000000
2.46255921 1.81210962 -0.00594142 0.00000000
4.73488846 0.95352061 -0.00036425 0.00000000
2.64472913 1.91718054 0.00079740 0.00000000
1.53326573 0.66057928 -0.00066253 0.00000000
0.52936443 0.27797268 0.00108513 0.00000000
1.73076259 1.62219396 -0.00040545 0.00000000
1.91319477 0.18105584 0.00146087 0.00000000
2.84506060 0.85316828 0.00099793 0.00000000
3.50892790 0.82916494 0.00235100 0.00000000
4.63366714 1.40954444 -0.00119674 0.00000000
4.05723267 0.25519467 0.00134815 0.00000000
3.44401064 1.95408246 -0.00186176 0.00000000
0.59517267 0.54769110 0.00261421 0.00000000
3.49751459 0.11761454 0.00252372 0.00000000
2.67132902 0.03476345 0.00063481 0.00000000
3.39205892 0.00675514 -0.00055698 0.00000000
1.94253764 1.48080059 0.00329586 0.00000000
0.70911025 1.06009674 0.00000272 0.00000000
4.26919818 0.40381849 0.00144756 0.00000000
0.70284129 0.52794520 0.00076412 0.00000000
1.59278020 1.80726659 0.00163851 0.00000000
1.95568159 1.51753169 -0.00041923 0.00000000
1.46876455 1.47026957 -0.00000107 0.00000000
4.95630380 1.86083046 -0.00000367 0.00000000
3.57058949 1.10947707 0.00013716 0.00000000
3.05634447 0.69924909 0.00275223 0.00000000
2.51619345 1.34690651 0.00012523 0.00000000
1.78054912 0.83360823 -0.00093375 0.00000000
2.34767668 1.09389121 0.00185108 0.00000000
4.52729142 1.29544945 -0.00025336 0.00000000
0.27780190 1.78068694 0.00399948 0.00000000
2.25274735 0.49293140 0.00246807 0.00000000
2.26500413 1.14941563 0.00824972 0.00000000
1.64950950 1.23545565 0.00407405 0.00000000
1.90446380 1.44060663 0.00033383 0.00000000
0.04572978 0.34921791 0.00202693 0.00000000
2.95979578 0.20552269 -0.00425405 0.00000000
0.85706814 0.99970174 0.00053858 0.00000000
2.90487495 0.72079670 -0.00110447 0.00000000
4.87448962 1.64230651 -0.00011140 0.00000000
3.80963851 0.72981279 0.00225484 0.00000000
3.98063150 0.37507433 0.00041691 0.00000000
4.59685861 1.88276361 0.00113696 0.00000000
3.76653136 1.52733109 0.00021240 0.00000000
3.42374150 0.33148657 -0.00138814 0.00000000
1.55830253 0.17451808 0.00037366 0.00000000
3.83274656 0.12907075 0.00392045 0.00000000
2.45104402 0.56785879 0.00366262 0.00000000
4.96471241 0.90812807 0.00138165 0.00000000
3.72873173 1.68744008 -0.00006188 0.00000000
1.95929333 1.25282601 -0.00315663 0.00000000
0.73959692 1.50919376 0.00142317 0.00000000
2.73843806 1.33561536 0.00271272 0.00000000
3.65094812 1.81497742 -0.00097284 0.00000000
1.34020459 0.94422589 -0.00082561 0.00000000
4.84821073 0.09583127 -0.00755735 0.00000000
2.11790038 0.62310718 -0.00059554 0.00000000
3.32957294 0.84728361 0.00031728 0.00000000
4.29430198 0.35978185 -0.00113544 0.00000000
1.20595400 0.80812890 -0.00091916 0.00000000
3.17434937 0.29208622 0.00196528 0.00000000
3.49058990 0.31031302 0.00379625 0.00000000
3.69148716 0.87366786 0.00227195 0.00000000
2.00710163 0.13726736 -0.00037550 0.00000000
3.59205348 1.68501425 0.00063473 0.00000000
1.05386284 0.64148153 -0.00092191 0.00000000
2.74566738 1.82080224 -0.00276157 0.00000000
3.69397911 1.33288524 -0.00245895 0.00000000
1.94021540 1.60956952 -0.00184434 0.00000000
2.66729736 1.43280280 0.00202128 0.00000000
3.94240720 1.27442956 -0.00045515 0.00000000
2.79817892 1.31211657 -0.00277730 0.00000000
4.52716619 1.72407465 0.00372343 0.00000000
1.39153502 1.45270421 0.00131080 0.00000000
0.41684601 1.92576118 -0.00103088 0.00000000
3.97806543 0.57654300 0.00038251 0.00000000
2.43139826 0.35994093 0.00089809 0.00000000
4.31649384 1.69833964 0.00103043 0.00000000
0.46409403 0.07881750 0.00491462 0.00000000
3.98227531 0.87288194 -0.00024680 0.00000000
4.74872139 0.85372561 0.00025154 0.00000000
3.89729851 1.19763840 -0.00257300 0.00000000
3.88167776 0.92520542 0.00233602 0.00000000
4.54662411 0.76127699 -0.00170915 0.00000000
3.95777687 1.23200016 -0.00226149 0.00000000
3.48863775 0.45069888 0.00169959 0.00000000
0.25065882 1.10336191 -0.00033996 0.00000000
3.08775077 1.20508763 0.00207166 0.00000000
2.21257583 1.17206146 0.00124662 0.00000000
1.92400939 0.60844273 0.00388809 0.00000000
1.80794414 1.03814152 0.00043809 0.00000000
3.11552035 0.53935012 0.00006591 0.00000000
0.05913315 0.39698564 -0.00257696 0.00000000
2.74254409 0.69684713 -0.00431401 0.00000000
2.58195692 0.32260996 -0.00126266 0.00000000
2.57357064 1.52956108 0.00527809 0.00000000
1.99191293 0.20205912 -0.00291454 0.00000000
4.46453388 1.84817418 0.00167588 0.00000000
3.78895997 0.09115586 0.00431706 0.00000000
0.88639374 0.80098956 -0.00078004 0.00000000
1.87625380 1.60908493 0.00456826 0.00000000
4.73703977 1.89047806 -0.00089284 0.00000000
1.27847429 0.95896428 -0.00066897 0.00000000
2.86655542 0.18440622 -0.00056899 0.00000000
1.93118861 1.60407421 -0.00318794 0.00000000
4.93052959 0.54271706 -0.00252643 0.00000000
1.55094523 0.07406800 0.00071001 0.00000000
4.58046316 0.64300315 -0.00067394 0.00000000
0.69942042 0.35806947 -0.00195314 0.00000000
2.71077895 1.28917363 -0.00393514 0.00000000
2.24830320 0.09970214 0.00344199 0.00000000
4.01783891 1.82226125 0.00238326 0.00000000
3.39099638 1.26459515 0.00229764 0.00000000
2.06032209 0.90761946 0.00050297 0.00000000
1.78390983 1.00001976 -0.00223158 0.00000000
2.08081546 1.07058829 0.00114319 0.00000000
0.44244543 1.17238909 0.00301485 0.00000000
3.98236613 1.93853835 0.00023874 0.00000000
1.66539056 0.11191102 0.00195717 0.00000000
0.92458745 0.43703310 0.00124794 0.00000000
4.48467033 1.27644069 -0.00190669 0.00000000
4.15305680 0.44605579 0.00140680 0.00000000
4.59456909 1.08208456 0.00234192 0.00000000
0.51236538 0.86555041 -0.00074921 0.00000000
2.54906397 0.00203956 -0.00027398 0.00000000
1.29946606 0.70841102 0.00052961 0.00000000
0.33917818 1.93992342 0.00187776 0.00000000
4.42983435 0.21849478 -0.00163119 0.00000000
3.87215443 0.05030930 -0.00051626 0.00000000
0.33471423 0.34766802 0.00350462 0.00000000
0.00025180 0.77916528 -0.00080284 0.00000000
4.41101208 0.73016238 -0.00025158 0.00000000
3.08115674 0.05472493 0.00208554 0.00000000
3.18714576 0.28819741 -0.00301580 0.00000000
0.27407441 1.11453125 0.00214614 0.00000000
4.89738771 1.84978009 0.00437689 0.00000000
4.83749527 1.26274935 -0.00244947 0.00000000
1.89277224 1.41030704 0.00470940 0.00000000
0.02666671 0.66237082 0.00139593 0.00000000
0.48234430 0.44963929 -0.00081303 0.00000000
3.65250462 0.02684574 -0.00822436 0.00000000
1.92822049 0.34128635 -0.00204696 0.00000000
3.55230395 1.07370421 -0.00022149 0.00000000
1.61510407 1.72657325 0.00213698 0.00000000
0.81344398 1.69294562 -0.00094492 0.00000000
3.22826588 0.25535463 -0.00008913 0.00000000
2.62104821 1.71147367 0.00113401 0.00000000
1.32169986 1.11734790 -0.00465840 0.00000000
4.43126456 1.61995597 0.00546000 0.00000000
0.44492945 0.78715942 0.00451471 0.00000000
3.52941646 0.17137199 -0.00506381 0.00000000
2.73019732 0.97635569 0.00123807 0.00000000
2.19678598 1.80530411 0.00340203 0.00000000
1.67528934 1.92384026 -0.00626144 0.00000000
2.90651113 1.01298274 -0.00211562 0.00000000
0.38352798 0.81627312 0.00178232 0.00000000
4.52077417 1.69852867 -0.00120568 0.00000000
0.18571382 0.06092159 0.00076432 0.00000000
0.12028861 0.81113164 -0.00393726 0.00000000
4.98445811 1.28057230 -0.00133765 0.00000000
4.92338315 0.24748881 0.00347706 0.00000000
2.60555657 1.59074210 0.00186059 0.00000000
0.93420940 0.11746227 -0.00195853 0.00000000
4.43511095 0.22259644 -0.00052225 0.00000000
1.29204786 0.88290358 -0.00068891 0.00000000
3.99929408 1.04095687 0.00244580 0.00000000
0.89887378 0.32867105 -0.00148340 0.00000000
3.41003842 1.04970275 0.00047487 0.00000000
0.28679070 1.60308498 -0.00025181 0.00000000
1.93592370 0.40618450 -0.00358992 0.00000000
3.36219749 0.46073279 -0.00398267 0.00000000
3.05740682 1.20538776 0.00387516 0.00000000
1.54550687 1.63309008 -0.00349000 0.00000000
2.76310168 1.63411759 0.00502465 0.00000000
3.68937076 1.64953723 0.00113779 0.00000000
2.63610433 1.01333438 -0.00596829 0.00000000
4.30018798 1.82780755 0.00223433 0.00000000
2.52383075 0.46005995 0.00336037 0.00000000
3.89680849 0.68331520 0.00070133 0.00000000
4.43820737 1.22829535 -0.00166080 0.00000000
2.62381381 1.25114514 -0.00129612 0.00000000
2.99032542 1.71717015 0.00157060 0.00000000
1.62043198 0.38958094 0.00076305 0.00000000
1.86177068 0.82737984 -0.00010589 0.00000000
4.83179984 0.00602205 -0.00453000 0.00000000
4.05033537 1.85323784 0.00098642 0.00000000
2.01469981 0.63941222 0.00211960 0.00000000
0.92903966 0.17658755 -0.00413870 0.00000000
0.98545246 0.76225506 -0.00591558 0.00000000
3.29764629 0.11053120 0.00348638 0.00000000
0.64017237 0.91523532 -0.00026771 0.00000000
1.57954482 0.95070797 -0.00489748 0.00000000
4.20689084 1.60566124 -0.00128663 0.00000000
3.47490504 1.89203263 0.00240837 0.00000000
3.38758546 0.95667309 0.00114544 0.00000000
3.90057060 1.88595190 -0.00283805 0.00000000
4.24731430 1.48562692 0.00191115 0.00000000
2.07098666 0.64319957 -0.00418226 0.00000000
1.54304740 0.18553578 -0.00138990 0.00000000
4.80178250 1.09020154 -0.00006832 0.00000000
3.88144932 1.64259572 -0.00058579 0.00000000
0.23408484 1.21611946 -0.00064399 0.00000000
3.96686855 0.28524925 0.00380834 0.00000000
3.55830972 1.11057573 0.00014734 0.00000000
4.84250630 0.08270061 0.00153798 0.00000000
4.70698391 0.72776153 0.00005469 0.00000000
0.77805417 1.83785316 -0.00218851 0.00000000
4.81839187 1.10745820 0.00006675 0.00000000
2.57855517 0.04910477 0.00039740 0.00000000
0.18747654 1.53927491 -0.00244830 0.00000000
1.77737087 1.03555854 0.00169715 0.00000000
4.05830168 0.43773872 0.00035632 0.00000000
2.19953778 1.74886677 0.00139098 0.00000000
4.55081450 1.79740303 0.00061033 0.00000000
2.00388218 0.13751531 -0.00450738 0.00000000
0.89606958 1.37039805 0.00487634 0.00000000
3.28237714 0.37348790 0.00301466 0.00000000
2.53781678 1.77798926 0.00435349 0.00000000
3.15739430 1.93177567 0.00014390 0.00000000
3.82758879 1.90735564 0.00020990 0.00000000
4.59253007 1.78217749 -0.00040233 0.00000000
4.77754150 0.79610828 -0.00534268 0.00000000
2.17699027 1.87273563 0.00125609 0.00000000
4.11779504 0.63528566 -0.00282165 0.00000000
0.62502785 0.78876797 -0.00059910 0.00000000
1.17422144 1.41509628 -0.00285300 0.00000000
4.90057065 1.88275992 0.00209046 0.00000000
2.08013124 0.67406140 -0.00129784 0.00000000
4.57911797 0.84865779 -0.00015995 0.00000000
4.81246287 1.20083544 0.00025342 0.00000000
1.23443665 1.69162102 0.00008835 0.00000000
4.69887553 0.74114086 0.00195995 0.00000000
0.03638999 1.07467171 0.00041266 0.00000000
4.28495160 0.05277017 0.00073355 0.00000000
4.54205580 0.65278329 0.00449541 0.00000000
1.46675175 0.86746903 0.00376362 0.00000000
4.97899048 1.79706488 -0.00271207 0.00000000
2.55822550 0.81922473 0.00538571 0.00000000
4.68914395 0.73929997 -0.00402289 0.00000000
4.27763449 1.25992724 -0.00291936 0.00000000
4.97817672 0.95077000 0.00122135 0.00000000
3.04940413 0.02226536 -0.00105589 0.00000000
1.09565155 0.82214747 0.00038287 0.00000000
2.08983931 1.63534256 -0.00160063 0.00000000
1.72979042 1.87176601 -0.00167676 0.00000000
2.72593754 1.57216494 -0.00159623 0.00000000
2.51480702 1.46022019 0.00158650 0.00000000
2.66599029 1.18355647 -0.00068881 0.00000000
0.78302842 1.23410195 0.00133463 0.00000000
1.72227021 0.05099042 0.00399258 0.00000000
3.77196240 0.47306509 -0.00116583 0.00000000
2.61402681 0.86630026 -0.00099136 0.00000000
4.49576725 0.62772444 -0.00133708 0.00000000
4.20670168 1.07563121 -0.00225457 0.00000000
4.60678280 1.03990629 0.00166573 0.00000000
2.75294226 0.42554930 -0.00315566 0.00000000
1.74335328 1.57011978 -0.00066716 0.00000000
3.19215415 0.73299776 -0.00187585 0.00000000
2.13489034 0.82989217 -0.00260034 0.00000000
1.88733977 0.81578993 -0.00067468 0.00000000
1.10586923 0.20586555 0.00013302 0.00000000
4.42797490 1.68832813 -0.00046554 0.00000000
1.34382396 1.27700310 -0.00069969 0.00000000
4.90724249 1.11915507 0.00218395 0.00000000
3.39157861 0.26134212 0.00013337 0.00000000
2.05384425 0.79718928 0.00379626 0.00000000
3.25316785 1.55272491 -0.00737512 0.00000000
4.12120950 1.27114062 0.00180497 0.00000000
1.93617252 1.27170343 0.00222096 0.00000000
2.50929515 0.83580111 -0.00049201 0.00000000
3.49766881 0.98500671 0.00371926 0.00000000
3.14694494 0.70429203 -0.00263494 0.00000000
3.59079327 1.47845579 -0.00356147 0.00000000
0.83752489 0.13068191 0.00188177 0.00000000
3.26677617 1.85449524 0.00049446 0.00000000
2.64064097 0.95411977 -0.00369926 0.00000000
1.79087186 0.92782978 -0.00034095 0.00000000
1.28616807 0.91977749 -0.00073733 0.00000000
4.49942537 1.72487235 0.00260395 0.00000000
3.75917984 1.19744700 0.00447531 0.00000000
0.27005832 0.51375861 -0.00147088 0.00000000
3.67495953 1.53795457 -0.00373237 0.00000000
2.37054186 1.69232730 0.00046448 0.00000000
1.90972449 0.79339794 0.00240900 0.00000000
3.18095004 1.10511941 -0.00017501 0.00000000
2.80765095 1.24043098 -0.00034591 0.00000000
1.56720369 0.53779745 0.00422481 0.00000000
4.80249037 0.01596597 0.00212800 0.00000000
0.51982657 0.65912337 0.00161944 0.00000000
1.48384017 0.06030132 -0.00126745 0.00000000
0.51363558 0.60598556 -0.00076423 0.00000000
2.63850564 0.62814861 0.00103688 0.00000000
4.72197205 1.56274237 0.00106609 0.00000000
3.19942756 1.13859673 -0.00024832 0.00000000
4.98287400 1.95317550 0.00009199 0.00000000
2.57583215 1.35737675 0.00303731 0.00000000
2.75609683 1.94636987 0.00418637 0.00000000
4.07331055 0.51542117 0.00077490 0.00000000
1.62904797 0.53946233 -0.00037664 0.00000000
4.79832558 1.15837006 0.00127226 0.00000000
2.85830658 1.12051117 -0.00109136 0.00000000
1.06145899 1.92109579 -0.00268781 0.00000000
0.57596022 1.62859843 0.00243181 0.00000000
3.12455751 1.27397983 -0.00057875 0.00000000
4.69332008 1.36637155 0.00629705 0.00000000
4.53187690 0.73076629 -0.00272908 0.00000000
3.04563415 1.24989645 -0.00412491 0.00000000
4.28514658 0.90678438 -0.00111150 0.00000000
1.19195251 0.56310170 -0.00041521 0.00000000
3.67671830 0.84924176 -0.00284881 0.00000000
4.80525335 0.44810573 -0.00037770 0.00000000
3.55965490 0.37150925 0.00227104 0.00000000
0.80250037 0.14067026 -0.00180889 0.00000000
0.54881114 1.48748060 -0.00154972 0.00000000
4.48886977 0.09663637 -0.00424793 0.00000000
3.50148530 0.88474940 -0.00069928 0.00000000
3.49179723 0.03121788 -0.00023923 0.00000000
2.47491836 0.21984346 -0.00175898 0.00000000
1.57283153 1.76939819 -0.00145324 0.00000000
2.03962717 1.76319994 -0.00078430 0.00000000
1.11693073 1.49226112 0.00044383 0.00000000
0.81476822 1.46300025 -0.00017536 0.00000000
4.85386639 0.38983003 0.00142814 0.00000000
3.28705992 1.05877718 0.00009852 0.00000000
2.81256768 1.24869884 0.00104469 0.00000000
0.46411821 1.45429626 0.00195198 0.00000000
2.12388214 0.56390009 -0.00028517 0.00000000
2.21142981 0.67586618 -0.00049300 0.00000000
2.18457277 1.77056459 0.00400875 0.00000000
2.88243155 1.57311623 0.00114976 0.00000000
1.00524847 1.89724553 -0.00023741 0.00000000
4.10317894 1.05669236 -0.00288854 0.00000000
0.92340914 0.69387035 0.00294478 0.00000000
0.54695235 1.84564882 -0.00214100 0.00000000
2.32371281 1.10912125 -0.00134174 0.00000000
0.65825621 0.93382614 0.00134725 0.00000000
2.71840760 1.66488471 0.00024975 0.00000000
1.28600519 0.15512499 0.00019092 0.00000000
1.55897797 1.61622099 0.00299314 0.00000000
0.64432146 0.46089298 0.00135156 0.00000000
3.06185233 0.51170970 -0.00410810 0.00000000
4.58166060 1.39540417 -0.00020363 0.00000000
0.96528719 1.85934992 0.00075710 0.00000000
4.16268405 1.15164374 0.00085330 0.00000000
1.42464435 0.23467867 0.00518137 0.00000000
0.38112150 0.47403307 0.00048367 0.00000000
1.76257909 1.41519190 -0.00308651 0.00000000
2.63261923 1.37243169 -0.00028839 0.00000000
3.91045607 1.65199938 -0.00036522 0.00000000
0.16121097 0.29376000 0.00383632 0.00000000
1.05377911 1.31522620 0.00189749 0.00000000
0.79514043 0.69209788 -0.00025177 0.00000000
2.63212160 1.67059147 0.00346909 0.00000000
1.91645822 0.22980279 -0.00495392 0.00000000
2.73420931 0.64762118 -0.00100789 0.00000000
4.05467705 0.80044304 0.00344921 0.00000000
0.98132856 0.87500605 0.00038394 0.00000000
3.63530842 0.78567066 -0.00025138 0.00000000
3.90130411 0.02134199 -0.00234314 0.00000000
4.30966127 0.94792554 0.00301910 0.00000000
0.12261626 1.40046841 -0.00119349 0.00000000
3.45509103 0.37510774 0.00052294 0.00000000
0.69899002 1.85245914 0.00066150 0.00000000
0.82778542 0.76190316 -0.00064401 0.00000000
0.80593350 0.70676335 0.00420302 0.00000000
1.41640428 0.13171265 -0.00076538 0.00000000
1.70265745 0.15331056 -0.00147750 0.00000000
4.73073327 1.77572995 0.00092743 0.00000000
3.18841913 0.91752424 0.00224841 0.00000000
3.35919590 0.21534092 0.00292220 0.00000000
0.99978537 0.38317651 0.00608891 0.00000000
1.60867754 1.83013689 0.00179563 0.00000000
1.94497474 1.90203908 -0.00268115 0.00000000
0.68106793 1.53986142 0.00188791 0.00000000
1.36105785 1.08323845 -0.00074917 0.00000000
4.27087024 0.26638973 0.00257315 0.00000000
0.40698335 0.15793489 0.00230736 0.00000000
0.52883741 0.88696665 0.00256079 0.00000000
3.42669845 1.72584804 -0.00383081 0.00000000
4.38610714 1.20037914 -0.00113062 0.00000000
2.06988026 1.29395582 -0.00043260 0.00000000
4.55338825 1.76021521 0.00020618 0.00000000
4.96098646 0.35177980 0.00568300 0.00000000
0.13731744 0.52201403 -0.00342817 0.00000000
0.93999920 1.12673037 -0.00064232 0.00000000
3.88932332 1.45107858 0.00015722 0.00000000
3.84129745 0.26985043 -0.00156425 0.00000000
4.28100734 1.72443317 -0.00362516 0.00000000
3.69732806 0.39224224 -0.00416646 0.00000000
0.41851417 0.16544358 -0.00064978 0.00000000
0.41329938 1.77834875 -0.00289259 0.00000000
3.84311731 1.59620251 0.00249803 0.00000000
2.12021526 1.94315734 0.00319434 0.00000000
2.51628561 0.61054985 -0.00412784 0.00000000
1.23187110 1.19312419 -0.00372550 0.00000000
3.89683441 1.07085423 -0.00376036 0.00000000
0.38417313 0.64701413 0.00022243 0.00000000
0.25591469 0.59415932 0.00681182 0.00000000
4.36052958 0.79061396 0.00351363 0.00000000
2.00749337 0.46949117 -0.00287414 0.00000000
0.44534110 1.92194032 -0.00015062 0.00000000
0.88058216 0.13124792 0.00037825 0.00000000
3.57640016 1.42959683 -0.00174807 0.00000000
2.91015419 0.20094378 0.00145640 0.00000000
0.04283609 0.06857498 -0.00011201 0.00000000
2.91458196 0.67665933 -0.00325948 0.00000000
4.80816543 0.66503241 -0.00103807 0.00000000
1.98811825 0.02477490 -0.00120136 0.00000000
0.75966798 0.64914169 0.00451711 0.00000000
2.56219636 1.69930677 0.00607342 0.00000000
2.76192658 0.56131307 -0.00172349 0.00000000
1.49799961 1.61645359 -0.00358036 0.00000000
0.73955265 0.17978666 -0.00111590 0.00000000
0.89495944 1.77014660 -0.00297931 0.00000000
1.00136542 1.16649839 -0.00318382 0.00000000
0.03253155 0.35581646 -0.00113843 0.00000000
1.74042751 0.38132763 0.00317371 0.00000000
2.46892505 0.52215285 -0.00353845 0.00000000
4.34517931 0.10565483 0.00103145 0.00000000
0.84950614 1.66303034 -0.00131877 0.00000000
0.65459148 1.25709206 0.00110488 0.00000000
4.28204079 0.58030151 0.00140397 0.00000000
2.15548379 0.04152325 0.00004583 0.00000000
1.89191525 1.20642221 -0.00288999 0.00000000
4.38621872 0.37023161 0.00175245 0.00000000
1.33100045 0.19745360 0.00068678 0.00000000
4.56711835 1.01519856 0.00182747 0.00000000
0.32747572 1.56370408 -0.00303756 0.00000000
0.64084294 0.93711167 0.00478508 0.00000000
2.05337439 1.80745937 0.00125448 0.00000000
0.25191460 1.08021776 -0.00500029 0.00000000
3.81962191 0.08001739 -0.00326370 0.00000000
0.05253456 1.03943585 0.00547415 0.00000000
1.90159885 0.18170821 0.00000896 0.00000000
1.92322276 1.61526607 0.00309874 0.00000000
3.00551469 1.44031803 -0.00386706 0.00000000
0.53545904 1.79972849 -0.00390122 0.00000000
0.41485944 0.56721837 0.00286768 0.00000000
0.39584335 1.46527975 -0.00005074 0.00000000
4.71514165 0.03746093 -0.00236297 0.00000000
1.11683334 1.04489240 0.00083467 0.00000000
1.96819829 0.32336572 -0.00209222 0.00000000
3.23454208 1.43529848 -0.00317980 0.00000000
1.82728523 0.67467836 0.00147705 0.00000000
4.76493265 1.05564304 0.00330093 0.00000000
1.09538711 1.65015658 -0.00078908 0.00000000
2.97824021 1.46529807 0.00113021 0.00000000
1.62206214 0.70840280 -0.00292771 0.00000000
0.04511869 0.95260600 -0.00049516 0.00000000
2.93965345 1.27732093 0.00050652 0.00000000
4.30975253 0.93227576 0.00175245 0.00000000
4.97065373 1.05536508 -0.00052331 0.00000000
1.16725269 1.52649189 -0.00248112 0.00000000
2.25067722 0.56949394 -0.00122468 0.00000000
1.60816677 0.71643565 -0.00142267 0.00000000
3.75318534 0.63661393 -0.00401621 0.00000000
0.38843537 1.74137562 -0.00015090 0.00000000
0.21961947 0.85761794 0.00349834 0.00000000
1.20252582 0.78398863 -0.00119547 0.00000000
3.54957676 1.61647174 -0.00084849 0.00000000
4.20308082 0.19828089 0.00301304 0.00000000
2.92119308 1.51660795 0.00289525 0.00000000
1.94502262 0.44744895 0.00023883 0.00000000
0.24033007 1.88537884 0.00464768 0.00000000
0.54516192 0.53070142 0.00128092 0.00000000
0.96501380 0.65934968 0.00013133 0.00000000
4.97906938 1.58364927 0.00287156 0.00000000
2.00426098 0.63536097 -0.00003150 0.00000000
1.81032337 1.25097267 0.00080538 0.00000000
0.52015848 0.05765285 0.00030805 0.00000000
4.96882419 1.73272053 -0.00283782 0.00000000
0.56198521 1.89099049 0.00210716 0.00000000
0.31556056 0.48465058 -0.00208617 0.00000000
0.37963850 0.41098131 0.00295489 0.00000000
0.73638970 0.60418644 -0.00117077 0.00000000
2.69288794 1.45611052 -0.00029521 0.00000000
1.44349971 1.10366241 -0.00113337 0.00000000
0.22999746 1.95165374 -0.00270068 0.00000000
4.46870482 1.87721411 0.00061974 0.00000000
2.74644053 1.24937304 0.00137468 0.00000000
2.11375510 0.21510726 0.00108684 0.00000000
3.21243034 0.40254934 -0.00283972 0.00000000
3.69575296 1.20059052 0.00009647 0.00000000
0.76056753 1.46777993 -0.00068271 0.00000000
0.00127091 1.34094571 0.00358985 0.00000000
2.79497519 0.83171420 -0.00614476 0.00000000
1.93122175 1.94204353 -0.00029289 0.00000000
0.09646761 0.37200830 0.00118414 0.00000000
1.31420550 1.90506994 0.00090523 0.00000000
1.73720701 1.55111541 -0.00272590 0.00000000
2.04925399 1.19806943 -0.00125170 0.00000000
2.53284372 1.30669364 -0.00489390 0.00000000
0.98540144 1.12845016 -0.00300799 0.00000000
1.57002942 0.68548472 -0.00100215 0.00000000
2.51965211 0.79430755 -0.00190782 0.00000000
3.11279070 1.15918053 0.00080379 0.00000000
0.01678672 1.59134107 0.00138119 0.00000000
2.77050323 0.14780336 -0.00064954 0.00000000
0.82131753 0.44556130 -0.00125955 0.00000000
1.46350137 1.51818137 -0.00100411 0.00000000
3.81113719 1.70012621 -0.00110869 0.00000000
3.04130653 0.47614285 0.00295278 0.00000000
2.64670211 1.10550061 0.00327935 0.00000000
0.21037982 1.66052062 -0.00273520 0.00000000
1.71747226 1.43988814 -0.00165338 0.00000000
2.91603933 0.20461765 0.00034081 0.00000000
3.71464933 1.93887972 0.00049031 0.00000000
1.09798641 0.48144425 0.00221637 0.00000000
0.52555409 0.14220474 -0.00198765 0.00000000
1.22877392 0.08016127 -0.00137963 0.00000000
0.89455725 1.71494251 -0.00306372 0.00000000
1.18060022 1.92613314 -0.00284718 0.00000000
2.99795158 0.21612252 -0.00006156 0.00000000
2.09303262 0.86381381 0.00243215 0.00000000
2.38465823 1.95622962 0.00122051 0.00000000
3.87598713 0.10483446 -0.00145103 0.00000000
3.52471729 0.24250457 0.00337345 0.00000000
1.91461123 1.53175101 -0.00110848 0.00000000
4.47172929 1.31943988 0.00024456 0.00000000
0.79605676 0.33311834 -0.00048996 0.00000000
0.39250656 0.87352465 -0.00043659 0.00000000
4.62543988 1.25263160 0.00092027 0.00000000
1.72827701 0.29537614 -0.00328156 0.00000000
2.17918472 1.88422940 0.00266147 0.00000000
4.87751627 0.84839314 0.00235260 0.00000000
2.43330818 0.63323443 -0.00263797 0.00000000
2.16202110 0.89883591 0.00297657 0.00000000
4.22089128 1.27651887 0.00196554 0.00000000
4.66921595 0.44872243 0.00217748 0.00000000
0.55785259 0.86584778 -0.00131152 0.00000000
0.24271933 0.51596087 0.00185419 0.00000000
3.12422919 0.64655103 -0.00241093 0.00000000
3.10852861 1.14497560 -0.00148667 0.00000000
0.57587554 1.14056620 -0.00128946 0.00000000
3.13117106 1.37467907 0.00252694 0.00000000
0.87974268 0.10102970 -0.00180654 0.00000000
1.25088549 1.28792783 -0.00063768 0.00000000
2.51954694 0.88180435 0.00363658 0.00000000
4.58388725 1.37762411 -0.00239666 0.00000000
1.91669010 1.24875206 -0.00032308 0.00000000
1.04719040 1.92965946 0.00046147 0.00000000
0.97552060 0.61873642 -0.00336423 0.00000000
2.07162098 0.61606556 0.00147041 0.00000000
2.75204479 0.96963658 0.00032051 0.00000000
1.60572490 0.76373952 0.00391742 0.00000000
0.45918969 1.78439589 0.00289845 0.00000000
1.93533292 0.21902672 0.00058177 0.00000000
0.59423669 1.23606764 -0.00325724 0.00000000
4.35951493 0.65096603 -0.00135566 0.00000000
4.61434161 0.79810480 -0.00643496 0.00000000
1.29436926 1.74339632 0.00324851 0.00000000
2.23751987 1.57095249 -0.00169637 0.00000000
4.75167338 1.12584065 -0.00217466 0.00000000
3.31525839 0.47743656 0.00102340 0.00000000
3.92052487 0.23048672 -0.00259662 0.00000000
2.85087086 0.67200611 0.00228616 0.00000000
1.25108013 0.95552824 -0.00161125 0.00000000
0.11115759 1.74311781 -0.00437120 0.00000000
1.90806581 1.67426001 -0.00208842 0.00000000
2.17634187 0.84331553 0.00114571 0.00000000
1.66288510 1.41056016 -0.00091414 0.00000000
4.74654650 1.54161227 -0.00398754 0.00000000
4.20666094 1.16409926 -0.00171483 0.00000000
4.05541234 0.63859524 0.00320646 0.00000000
3.57671549 1.04586651 -0.00002277 0.00000000
2.91057096 0.43516194 0.00127189 0.00000000
0.53102544 0.95051120 -0.00095498 0.00000000
1.16910686 1.85255057 -0.00082152 0.00000000
0.10142391 0.47205968 -0.00124759 0.00000000
1.63874602 1.07490121 -0.00194516 0.00000000
3.38975453 0.10904810 0.00051608 0.00000000
1.59004915 0.75959524 0.00317326 0.00000000
1.92904273 0.81738794 -0.00515200 0.00000000
3.41713237 0.47478067 -0.00117764 0.00000000
4.56791685 0.61353404 0.00330760 0.00000000
4.19252603 0.56001312 0.00279371 0.00000000
0.61552518 1.68813008 -0.00223239 0.00000000
2.54530379 1.48243583 -0.00160153 0.00000000
4.79330419 1.92031026 0.00072193 0.00000000
3.70688832 1.95725427 0.00121484 0.00000000
0.92699960 0.89558505 0.00004316 0.00000000
0.48916870 0.52455118 -0.00087094 0.00000000
2.94869782 0.95684380 0.00177157 0.00000000
2.16862497 1.18590766 0.00247367 0.00000000
2.08597921 0.99968575 -0.00312723 0.00000000
1.61168985 0.03984784 -0.00052932 0.00000000
1.85832214 0.19014667 -0.00261218 0.00000000
0.14798630 0.02085112 0.00056802 0.00000000
4.69187371 1.62656041 0.00383711 0.00000000
2.03176526 1.87896330 -0.00045977 0.00000000
2.93470973 0.43409861 0.00036470 0.00000000
4.46661435 1.26613227 -0.00415126 0.00000000
3.88020100 1.16085818 0.00366047 0.00000000
0.42582391 1.84914683 -0.00206868 0.00000000
2.93617688 1.75705202 0.00043915 0.00000000
0.12445980 0.17914986 -0.00220431 0.00000000
3.77787754 1.28004061 0.00221133 0.00000000
2.33900887 0.87792980 -0.00230043 0.00000000
1.66381233 0.33621083 -0.00124177 0.00000000
4.67992199 1.69436228 -0.00143905 0.00000000
1.73862132 0.76221987 -0.00351038 0.00000000
3.30882244 0.85792956 -0.00203497 0.00000000
1.45739652 1.13349865 -0.00047727 0.00000000
4.06983542 1.43861269 -0.00229000 0.00000000
4.83704020 1.18158639 -0.00457756 0.00000000
2.44464608 1.26460812 0.00021620 0.00000000
3.29753547 1.68868521 -0.00375725 0.00000000
2.63266200 1.52034110 -0.00109465 0.00000000
1.17210425 0.54242322 -0.00378170 0.00000000
1.07947568 1.78030108 0.00135683 0.00000000
4.36063027 1.38411347 0.00148307 0.00000000
3.37032918 0.05066800 -0.00075694 0.00000000
