1.90600803 1.48702499 -0.00272869 0.00000000
0.32031333 0.73328762 -0.00355073 0.00000000
1.05068760 0.02442295 -0.00255177 0.00000000
1.39353791 1.64825363 -0.00546605 0.00000000
3.58442861 1.71260307 -0.00451483 0.00000000
2.46762107 1.87147253 -0.00129873 0.00000000
1.89533314 1.69900054 -0.00425352 0.00000000
3.12505217 1.07825382 -0.00105307 0.00000000
0.66498134 1.32921375 0.00145114 0.00000000
1.92605527 1.49660898 -0.00128417 0.00000000
2.69427213 1.48313142 -0.00288208 0.00000000
4.41937002 1.85869173 -0.00113401 0.00000000
3.32177324 0.91113849 0.00427062 0.00000000
4.43109028 0.02372669 -0.00142798 0.00000000
1.59583919 1.95370803 -0.00103492 0.00000000
3.44569116 0.92170833 0.00201504 0.00000000
2.63975174 0.91084006 0.00288621 0.00000000
1.77056797 0.09460638 0.00107157 0.00000000
2.80372305 1.53371130 -0.00088903 0.00000000
0.47002402 0.00068663 -0.00296207 0.00000000
4.24509281 0.97783207 -0.00258399 0.00000000
1.94753317 1.92767564 -0.00389416 0.00000000
4.41672395 0.08366228 0.00159429 0.00000000
4.22981628 1.29829890 0.00296074 0.00000000
3.82775121 1.09418414 0.00151711 0.00000000
0.52757660 0.74251601 0.00472981 0.00000000
2.38731829 0.20529660 -0.00145928 0.00000000
2.09244539 1.53601006 -0.00002669 0.00000000
2.89997672 1.37523478 0.00175099 0.00000000
1.31246510 1.51193625 0.00127882 0.00000000
2.57330973 0.70553237 -0.00010058 0.00000000
2.46802300 0.65491324 0.00136289 0.00000000
0.25741636 0.67188976 -0.00140050 0.00000000
2.57861543 0.40801479 -0.00099490 0.00000000
1.79605666 1.76051758 0.00008538 0.00000000
1.87196121 1.38682969 -0.00112564 0.00000000
4.04027450 0.66881715 -0.00326041 0.00000000
4.43879699 0.76873010 -0.00206302 0.00000000
1.94019396 0.53021084 0.00072168 0.00000000
1.22460183 0.59036928 -0.00324300 0.00000000
4.31108223 1.18725493 -0.00068287 0.00000000
3.79345387 0.35449756 -0.00214191 0.00000000
2.10604400 1.91833412 -0.00204765 0.00000000
0.40532653 0.19472061 0.00450189 0.00000000
0.32040386 1.20267818 -0.00072844 0.00000000
2.92884578 0.51528197 0.00282074 0.00000000
2.36486550 0.29508964 0.00129683 0.00000000
1.80487566 0.98805752 -0.00008484 0.00000000
0.11317351 1.56263285 0.00185722 0.00000000
3.78213693 0.67738729 0.00166237 0.00000000
4.04079052 0.74975375 0.00049377 0.00000000
0.68052267 0.04703220 -0.00193320 0.00000000
1.19430998 1.24592441 0.00361083 0.00000000
3.72821648 1.72594764 -0.00151149 0.00000000
3.62951047 1.69782502 0.00208812 0.00000000
3.86757481 1.93157001 -0.00200323 0.00000000
2.24322121 0.96092775 0.00176815 0.00000000
2.93114767 1.66490725 0.00259709 0.00000000
1.94983914 0.23032776 0.00143360 0.00000000
2.59787667 0.31020016 0.00386658 0.00000000
2.65598404 1.13490316 -0.00346159 0.00000000
1.95342333 1.19494410 -0.00372329 0.00000000
2.13036932 1.08196320 -0.00304303 0.00000000
0.20885234 1.25007609 0.00087539 0.00000000
0.71516915 1.49811172 -0.00114969 0.00000000
4.29250241 1.58537891 -0.00538327 0.00000000
3.00822495 0.56317974 0.00091057 0.00000000
1.78158428 1.61144402 0.00356030 0.00000000
1.22718217 1.79513516 -0.00050350 0.00000000
4.05003848 1.22638570 -0.00410278 0.00000000
1.57600065 0.26741525 0.00192142 0.00000000
3.95414973 1.63738421 0.00422795 0.00000000
2.52326105 1.65809034 -0.00018437 0.00000000
0.06752269 0.58351338 0.00189611 0.00000000
4.33686324 1.05956805 -0.00137598 0.00000000
1.95523426 0.53166130 -0.00256977 0.00000000
3.98567619 1.22590717 -0.00064752 0.00000000
0.90993601 1.35604605 0.00206846 0.00000000
1.24964921 0.79424473 0.00085988 0.00000000
2.38134159 1.79425487 -0.00230173 0.00000000
3.39490736 1.20490711 -0.00089990 0.00000000
0.04836407 0.61268593 0.00166887 0.00000000
0.49477377 0.51930490 -0.00052567 0.00000000
0.70630345 1.69622931 -0.00193350 0.00000000
4.15371120 1.11098986 -0.00176338 0.00000000
0.32739824 1.42373309 -0.00269585 0.00000000
0.24861159 0.83970449 0.00416737 0.00000000
3.95557746 1.33949279 -0.00161476 0.00000000
1.34956637 1.55599869 -0.00167896 0.00000000
2.92511617 0.18424645 -0.00400007 0.00000000
2.81153754 0.80565794 0.00128840 0.00000000
0.03682159 0.51263164 0.00314074 0.00000000
3.06066153 1.23656617 -0.00286419 0.00000000
0.93722800 0.58847551 -0.00122563 0.00000000
1.68514387 1.27910893 0.00461072 0.00000000
3.91369417 0.91902425 0.00326783 0.00000000
3.13842732 0.15394644 -0.00104870 0.00000000
0.87517591 1.48373173 0.00088890 0.00000000
4.19638375 1.08552306 -0.00010023 0.00000000
0.90023107 1.69969046 -0.00137636 0.00000000
0.59398281 1.64435903 0.00520827 0.00000000
4.53527202 1.17471999 -0.00065806 0.00000000
1.95215542 0.40860122 0.00117043 0.00000000
3.56882827 1.40231477 0.00147113 0.00000000
0.63641683 1.82066436 -0.00430381 0.00000000
2.05533685 1.42075529 0.00145848 0.00000000
3.20443198 1.75859495 -0.00158338 0.00000000
3.53852870 1.29504522 0.00720942 0.00000000
2.82109400 0.46009092 -0.00091891 0.00000000
0.35764331 0.31584472 0.00130635 0.00000000
4.45900058 0.61522119 -0.00360023 0.00000000
1.10899968 1.02923747 -0.00017017 0.00000000
2.04013685 1.70315297 -0.00523883 0.00000000
1.13729560 0.65380792 -0.00009660 0.00000000
2.68212892 1.22600584 -0.00344933 0.00000000
3.08009904 0.99361958 -0.00126451 0.00000000
1.22687692 0.31142362 0.00595876 0.00000000
1.00434318 1.72458175 0.00219665 0.00000000
2.61004519 0.87888991 -0.00112260 0.00000000
2.85500505 1.93894980 0.00156084 0.00000000
1.99688960 1.51577847 0.00104630 0.00000000
1.59097303 0.40882937 -0.00516189 0.00000000
0.52897099 1.26707055 0.00120169 0.00000000
0.02763713 1.06866033 0.00057802 0.00000000
2.59375089 0.96087645 -0.00250434 0.00000000
0.27858481 1.85319735 0.00239182 0.00000000
0.06524984 0.73980591 0.00393727 0.00000000
2.03237928 0.00252081 0.00235979 0.00000000
4.16133564 0.90909867 -0.00277951 0.00000000
1.61598180 0.51385628 -0.00249427 0.00000000
2.22006634 1.95485086 0.00014492 0.00000000
2.73580520 1.31980752 -0.00525664 0.00000000
3.09430625 0.76395919 -0.00725229 0.00000000
1.39572160 0.15558347 0.00166651 0.00000000
1.94567437 1.41061532 -0.00174245 0.00000000
2.88360293 0.12779065 -0.00057767 0.00000000
3.83915063 0.69323032 0.00071803 0.00000000
4.49848263 1.87492743 -0.00381712 0.00000000
0.62863077 1.60588932 -0.00362010 0.00000000
0.59103998 0.87947453 -0.00006962 0.00000000
3.68656450 0.38432127 -0.00296802 0.00000000
3.00167892 0.26532539 0.00502713 0.00000000
1.65451324 1.71996204 0.00194494 0.00000000
2.80752567 0.16147409 -0.00068475 0.00000000
1.56555237 0.64882796 -0.00408569 0.00000000
4.36023337 0.93507577 0.00172908 0.00000000
2.83510370 0.94228941 -0.00313708 0.00000000
2.68520093 1.58192409 0.00247676 0.00000000
3.39436508 1.48272672 0.00121933 0.00000000
1.27180809 1.24418311 0.00060011 0.00000000
2.68096416 1.89725219 -0.00272580 0.00000000
1.02159383 0.40918006 0.00269155 0.00000000
3.75039609 1.89769950 0.00081444 0.00000000
3.29742548 1.69291976 0.00070730 0.00000000
1.62802880 0.76752828 -0.00135587 0.00000000
3.33283826 1.35362007 0.00032183 0.00000000
4.19360297 0.53392659 0.00116065 0.00000000
0.61657814 1.77322110 0.00435526 0.00000000
3.87778463 1.49727040 0.00031451 0.00000000
3.34980781 0.64182501 0.00038347 0.00000000
1.12053837 1.95755757 0.00089437 0.00000000
2.38869750 1.07434650 -0.00213979 0.00000000
2.84074979 1.71800600 -0.00255541 0.00000000
2.41976965 0.55264689 0.00169059 0.00000000
0.79230270 0.81352235 0.00088626 0.00000000
2.80050406 1.55893073 0.00014630 0.00000000
3.82849097 1.00841329 -0.00196192 0.00000000
2.55203440 0.27594947 -0.00327556 0.00000000
2.31901676 1.90572678 -0.00372008 0.00000000
1.81192716 0.79735674 -0.00001757 0.00000000
2.49258074 1.49299595 -0.00086386 0.00000000
3.29995132 1.28133713 0.00254305 0.00000000
0.53793357 1.71150281 -0.00173270 0.00000000
2.00149446 0.53654005 0.00018813 0.00000000
3.32646602 1.21740447 0.00021801 0.00000000
2.23124801 0.46117326 0.00063063 0.00000000
2.98156298 1.14155842 -0.00235612 0.00000000
3.23379181 1.32782898 0.00175601 0.00000000
1.41291172 1.32911409 0.00188449 0.00000000
3.59851588 0.12677392 0.00200170 0.00000000
1.67687049 1.75080747 0.00248791 0.00000000
0.50411706 1.29227052 -0.00070346 0.00000000
2.48493727 0.22179248 -0.00194292 0.00000000
1.55415290 0.05445249 0.00134886 0.00000000
3.71737599 0.58328353 -0.00176117 0.00000000
3.89934437 0.15648704 -0.00404268 0.00000000
3.26170590 0.90822729 -0.00242358 0.00000000
2.78826304 0.27848441 0.00210995 0.00000000
4.42665071 0.65703680 0.00021274 0.00000000
2.17922852 0.14636507 0.00131438 0.00000000
0.30627875 1.75162197 -0.00090603 0.00000000
2.34810736 1.33929223 -0.00265320 0.00000000
1.60817204 0.28940135 0.00114722 0.00000000
1.98032041 1.06049737 0.00245560 0.00000000
4.14175351 1.29005195 -0.00128926 0.00000000
3.08735693 1.72927192 -0.00062412 0.00000000
0.16224858 0.00541784 -0.00200195 0.00000000
4.54398099 0.98206790 0.00266903 0.00000000
3.67557242 0.38614587 0.00017908 0.00000000
2.19964558 0.46234889 0.00134958 0.00000000
3.49855290 0.47117032 0.00488458 0.00000000
3.22652477 1.12458530 -0.00425123 0.00000000
1.32361392 0.09404057 0.00289409 0.00000000
2.89733933 0.77642390 0.00326931 0.00000000
2.28159512 0.55508757 -0.00126426 0.00000000
3.12693755 1.52377226 0.00165904 0.00000000
3.35065757 1.08443963 -0.00177960 0.00000000
4.50519366 0.87607778 -0.00318822 0.00000000
0.33100352 1.12947230 -0.00125060 0.00000000
1.34472870 1.31397653 -0.00012825 0.00000000
1.61788693 0.57569717 -0.00103919 0.00000000
3.75078365 1.54636012 -0.00391291 0.00000000
3.23022807 1.51618002 -0.00222139 0.00000000
0.33246881 1.57349435 0.00059613 0.00000000
1.06820486 1.95059990 -0.00214939 0.00000000
2.90185457 0.97884199 -0.00562411 0.00000000
1.52328537 0.45661781 -0.00153775 0.00000000
1.92074193 1.30718249 0.00091293 0.00000000
2.08191397 0.00960023 0.00010670 0.00000000
1.63250657 1.79838678 -0.00076790 0.00000000
3.93227772 0.18985216 -0.00304633 0.00000000
0.84488453 1.33795192 0.00275507 0.00000000
3.07172342 1.06848764 -0.00358377 0.00000000
3.69294277 1.04422978 0.00135266 0.00000000
2.45188526 0.48638305 0.00216314 0.00000000
3.05732100 0.38850814 -0.00082399 0.00000000
1.70632904 0.79637942 0.00301345 0.00000000
1.71882331 0.36087388 0.00146780 0.00000000
1.90914148 0.16374904 -0.00002612 0.00000000
1.79731835 0.65357689 -0.00129425 0.00000000
1.31406625 0.29847063 -0.00149214 0.00000000
0.52701445 0.83250851 -0.00240501 0.00000000
0.88221795 0.88990646 -0.00102858 0.00000000
1.79578720 0.17018930 -0.00201879 0.00000000
0.22469675 0.12705516 -0.00070173 0.00000000
0.82196660 1.40713866 -0.00284720 0.00000000
2.54910400 1.53256742 0.00234857 0.00000000
2.74290580 1.80051952 0.00134743 0.00000000
3.50988160 0.57721542 -0.00262150 0.00000000
1.32983209 0.52703941 -0.00019483 0.00000000
1.52318873 0.09526868 0.00287631 0.00000000
2.52882500 0.53408022 -0.00376782 0.00000000
3.99222106 0.82522565 -0.00021531 0.00000000
3.75275445 0.66499920 -0.00079695 0.00000000
1.16041347 0.44587227 -0.00119178 0.00000000
3.98087078 0.77210701 0.00312961 0.00000000
0.90215671 1.48932394 -0.00211513 0.00000000
4.06165857 0.64871832 0.00003645 0.00000000
1.40467638 0.68243403 0.00150758 0.00000000
4.30595432 0.21119907 -0.00016147 0.00000000
2.69747674 0.05826505 -0.00431217 0.00000000
1.83923065 1.81728305 -0.00027960 0.00000000
3.96318712 1.07107392 0.00435278 0.00000000
1.54965068 1.55771718 0.00011867 0.00000000
3.49775364 1.89159395 -0.00141365 0.00000000
3.93080785 1.86657749 0.00368454 0.00000000
4.17579544 1.83478959 0.00005982 0.00000000
1.12845727 0.52339595 -0.00146441 0.00000000
3.11054088 0.70239395 -0.00028732 0.00000000
3.17523854 1.25627056 -0.00203929 0.00000000
0.66849690 1.01295049 -0.00115708 0.00000000
3.96425314 1.23133122 -0.00339776 0.00000000
3.04267731 0.69113961 0.00324261 0.00000000
2.47796307 0.86727039 0.00043340 0.00000000
0.39535125 0.60847709 0.00059533 0.00000000
1.45590898 0.47543179 -0.00466204 0.00000000
2.22379145 0.21068315 -0.00165050 0.00000000
1.46728412 0.86077412 -0.00151172 0.00000000
0.44038768 1.40501303 0.00267942 0.00000000
1.35305632 1.90818588 0.00393320 0.00000000
1.58362640 0.13633252 -0.00138568 0.00000000
0.00694871 0.49140075 -0.00234303 0.00000000
2.73195794 1.87687883 0.00106635 0.00000000
1.66919360 1.78887103 -0.00318585 0.00000000
1.18814705 0.69222771 -0.00473292 0.00000000
0.64401030 1.87215018 -0.00113891 0.00000000
1.85582415 1.45413299 -0.00255016 0.00000000
4.52476085 1.08660445 0.00036295 0.00000000
1.75329048 1.84695796 -0.00186352 0.00000000
3.97596066 0.89791294 -0.00147754 0.00000000
3.04521116 1.33287122 -0.00034203 0.00000000
1.77589701 0.08643279 0.00306181 0.00000000
1.44180192 1.77193864 0.00031858 0.00000000
0.53608806 1.11742996 0.00098650 0.00000000
0.79443568 1.01542318 -0.00309249 0.00000000
2.91648896 0.11608414 -0.00496302 0.00000000
0.11601840 0.91926807 -0.00353165 0.00000000
2.90094772 0.77185285 0.00122087 0.00000000
2.22749296 1.00971669 -0.00308005 0.00000000
1.60786901 1.65800932 -0.00440180 0.00000000
0.09719837 1.20139611 -0.00345217 0.00000000
1.82125397 0.93595121 0.00144690 0.00000000
2.06380230 0.68830038 -0.00000111 0.00000000
4.40844647 1.01480164 0.00206632 0.00000000
1.88735428 1.22032354 0.00013889 0.00000000
1.37684027 1.36676005 -0.00112265 0.00000000
1.62323720 0.87881525 -0.00133635 0.00000000
0.52861547 0.25293235 0.00346721 0.00000000
3.79501326 0.50650697 -0.00196047 0.00000000
0.72890329 1.16419478 0.00157222 0.00000000
3.50464529 1.70666162 -0.00217163 0.00000000
0.01810065 0.66416511 -0.00201562 0.00000000
2.01855131 0.29996061 0.00352254 0.00000000
3.84854476 0.42564749 0.00186561 0.00000000
1.14162241 0.18714884 0.00282158 0.00000000
4.06441146 0.25093207 -0.00283938 0.00000000
0.99992375 1.11477030 -0.00186549 0.00000000
0.12127845 1.38389474 -0.00406636 0.00000000
3.71747118 1.53014291 0.00179862 0.00000000
3.96387354 0.62611654 0.00566986 0.00000000
0.13738496 1.73709554 0.00250059 0.00000000
2.91425108 0.12120302 -0.00031842 0.00000000
3.14932543 1.64343147 0.00059468 0.00000000
0.26185442 0.40237917 -0.00014222 0.00000000
2.90797211 1.21839607 0.00195479 0.00000000
0.42016659 1.69611337 0.00149977 0.00000000
2.60073314 0.25715874 0.00347880 0.00000000
0.24032861 1.57197989 -0.00248774 0.00000000
1.67721190 0.29846936 -0.00474084 0.00000000
2.49892802 1.71272343 0.00053788 0.00000000
0.96608127 1.60369863 0.00285585 0.00000000
2.52779810 1.42357800 -0.00158629 0.00000000
1.13608955 0.04293649 -0.00132584 0.00000000
3.73921938 1.86449878 -0.00267848 0.00000000
1.50621719 0.94808789 0.00032949 0.00000000
1.83625315 0.31986310 -0.00372560 0.00000000
2.47796385 1.30053546 -0.00182819 0.00000000
1.76755005 1.11267574 -0.00591886 0.00000000
3.83084645 0.17708955 0.00042048 0.00000000
3.29458526 0.87151235 0.00160546 0.00000000
1.73063497 1.29366174 -0.00084369 0.00000000
0.60246183 0.21352077 -0.00125309 0.00000000
1.59970394 0.96928805 -0.00195910 0.00000000
3.81891369 0.56516502 -0.00480791 0.00000000
3.87033673 1.89004274 0.00473337 0.00000000
0.22579821 0.66104859 0.00215812 0.00000000
3.09114057 0.87604009 0.00023342 0.00000000
1.40535803 0.81127411 0.00463062 0.00000000
0.18704477 1.14365922 0.00215200 0.00000000
0.30388680 1.10133219 -0.00136971 0.00000000
2.05597181 1.87751237 0.00285812 0.00000000
2.10075780 1.89208460 0.00209006 0.00000000
1.24003748 0.76201663 -0.00073893 0.00000000
3.34156321 1.65158506 0.00295487 0.00000000
3.61384444 1.57477338 -0.00294986 0.00000000
0.00559224 1.07468529 0.00163142 0.00000000
0.07997904 1.56457149 -0.00005123 0.00000000
1.72440019 0.46015774 -0.00284084 0.00000000
3.69348094 1.95388485 -0.00097742 0.00000000
1.59551120 1.14434094 -0.00166497 0.00000000
0.95140949 1.49504550 0.00151556 0.00000000
2.93378411 0.52214858 0.00330850 0.00000000
0.47433016 1.17060466 -0.00202370 0.00000000
2.73925829 0.51723072 -0.00212038 0.00000000
2.20304912 1.80266722 -0.00178215 0.00000000
0.92327218 0.01799691 -0.00161740 0.00000000
3.79687514 0.63666105 0.00246440 0.00000000
4.04651393 1.08389252 -0.00021803 0.00000000
3.66812039 1.30800359 0.00220567 0.00000000
0.26000393 1.13739435 -0.00666006 0.00000000
4.18873560 0.58059711 0.00507025 0.00000000
1.21424154 0.22043580 0.00206090 0.00000000
4.11945529 0.95616711 0.00215665 0.00000000
0.85705016 1.84972983 -0.00003039 0.00000000
4.35209099 0.46745749 0.00224146 0.00000000
0.50866990 0.03499277 0.00012582 0.00000000
1.30397968 0.54103035 0.00177864 0.00000000
1.19337628 1.24349229 -0.00208959 0.00000000
4.48583973 1.87147976 -0.00109003 0.00000000
0.12299170 1.35541443 -0.00242242 0.00000000
3.08582233 0.85451637 0.00132097 0.00000000
1.87941416 1.53985222 0.00172670 0.00000000
3.77402355 0.55991006 0.00087358 0.00000000
3.83557223 1.94365056 -0.00004888 0.00000000
4.13894537 0.23489478 0.00458819 0.00000000
1.21310489 1.73551999 -0.00064337 0.00000000
0.46831801 0.23315794 0.00291590 0.00000000
2.99907894 0.65529151 0.00149949 0.00000000
3.89270043 0.06015295 -0.00119915 0.00000000
3.76674500 1.60916802 0.00410492 0.00000000
2.04663914 0.01798675 -0.00047326 0.00000000
0.90326904 0.39960905 -0.00168900 0.00000000
0.92027549 0.96727017 0.00434644 0.00000000
2.32151232 0.77123187 0.00168631 0.00000000
1.60983103 1.63056369 0.00032013 0.00000000
2.12593142 1.74189119 -0.00421760 0.00000000
1.93474282 1.61768960 -0.00157768 0.00000000
1.62648985 0.98077656 -0.00327107 0.00000000
1.29313024 0.73760863 -0.00137602 0.00000000
1.49530850 1.61334679 -0.00187088 0.00000000
4.00067980 1.58601938 0.00566644 0.00000000
3.14107409 1.78896357 -0.00259166 0.00000000
2.80292264 1.72899359 -0.00335007 0.00000000
3.40941627 0.56100925 0.00632879 0.00000000
1.29165016 1.03510508 -0.00278343 0.00000000
1.67568063 0.44680650 0.00026325 0.00000000
1.58130660 0.66628791 -0.00219626 0.00000000
4.37553657 1.44980150 0.00462946 0.00000000
2.35795939 1.38967552 0.00060185 0.00000000
4.40062160 1.69233163 0.00190195 0.00000000
3.98545075 1.55686292 -0.00190358 0.00000000
1.76857886 0.49050497 0.00314260 0.00000000
2.11702409 1.48343290 0.00162152 0.00000000
2.78250809 1.05085796 0.00054233 0.00000000
1.53714736 0.90072013 -0.00121589 0.00000000
3.84622474 1.22283172 -0.00377898 0.00000000
4.36795485 1.01035367 -0.00225178 0.00000000
3.29341472 1.89758645 0.00125119 0.00000000
0.26407942 0.20891742 -0.00323230 0.00000000
2.38820261 1.61408902 -0.00153733 0.00000000
3.05924101 1.68487823 -0.00252272 0.00000000
0.13433504 1.83782744 0.00369977 0.00000000
4.49489949 1.48598146 -0.00004971 0.00000000
4.40936814 0.79508920 -0.00123129 0.00000000
1.27240863 1.15939874 0.00376161 0.00000000
0.78492723 0.60800368 -0.00235547 0.00000000
3.26768089 0.33360344 -0.00051310 0.00000000
4.20151722 0.30901479 -0.00179086 0.00000000
1.15417790 0.59561447 -0.00122282 0.00000000
1.13608661 0.90118308 -0.00114088 0.00000000
0.92272978 0.62961250 0.00079496 0.00000000
0.26096586 0.83995531 0.00079999 0.00000000
2.68533951 1.52005502 0.00133115 0.00000000
0.51992008 0.19766112 0.00177210 0.00000000
2.68225021 0.07155583 -0.00503573 0.00000000
1.06377610 1.90674646 0.00170322 0.00000000
3.23400716 0.15100990 -0.00207946 0.00000000
3.29857510 0.94941974 0.00188799 0.00000000
4.13725579 0.61894089 0.00307829 0.00000000
3.05240060 1.72567648 -0.00143942 0.00000000
1.73775303 0.80963212 0.00042560 0.00000000
1.75628014 1.85618064 -0.00330981 0.00000000
1.48045941 1.02846235 -0.00130224 0.00000000
0.12001024 1.70322396 -0.00011789 0.00000000
1.93895436 1.39725358 0.00043423 0.00000000
1.64486482 0.50649743 -0.00362896 0.00000000
2.46741200 1.58767953 -0.00395874 0.00000000
3.90465927 0.94442640 -0.00254065 0.00000000
4.08452639 1.38802671 0.00332021 0.00000000
4.27435114 0.64682789 0.00531907 0.00000000
2.44618699 0.59722664 -0.00196542 0.00000000
3.62599325 0.86510760 -0.00006060 0.00000000
3.01817968 0.84637911 -0.00017186 0.00000000
3.32094109 1.12601227 0.00075140 0.00000000
0.44587356 1.08825095 0.00107760 0.00000000
2.86619927 1.85871227 0.00162264 0.00000000
3.39215230 1.89059232 0.00351459 0.00000000
3.36793534 0.87437345 0.00154010 0.00000000
1.39714621 1.23219800 0.00146239 0.00000000
1.59563738 0.37782503 -0.00477091 0.00000000
0.46688905 0.83492868 0.00387882 0.00000000
1.02596121 0.49041372 -0.00062349 0.00000000
2.22618397 0.82372714 0.00189735 0.00000000
1.57626339 0.51502825 0.00123318 0.00000000
1.79877865 0.36674392 -0.00076104 0.00000000
1.08784410 1.37216141 -0.00314924 0.00000000
2.78664154 1.36933175 -0.00100754 0.00000000
4.40258460 1.26708648 -0.00186287 0.00000000
1.60160549 1.38728895 0.00052937 0.00000000
2.43778271 0.30082494 0.00345112 0.00000000
4.21558566 0.00225679 -0.00219066 0.00000000
1.92022554 0.51987320 -0.00496657 0.00000000
3.43600818 0.10782523 -0.00218418 0.00000000
0.24442809 1.45404301 0.00082889 0.00000000
0.93681060 1.69625336 -0.00023595 0.00000000
0.52368155 0.42726479 0.00191466 0.00000000
3.78418903 0.85988125 -0.00142523 0.00000000
1.01679924 0.79506898 -0.00214595 0.00000000
0.48867671 0.87824265 0.00395815 0.00000000
3.63766923 0.54787666 -0.00610319 0.00000000
2.07320698 0.52962095 0.00586490 0.00000000
1.24199986 1.87134524 0.00299021 0.00000000
0.29409986 1.83193856 -0.00157928 0.00000000
2.42771766 1.05161834 -0.00290442 0.00000000
0.46261680 0.37856119 0.00196347 0.00000000
2.17006240 1.33813742 -0.00114244 0.00000000
1.05287435 0.71606123 -0.00352385 0.00000000
4.26947888 0.93586279 -0.00128050 0.00000000
2.72213984 0.46425553 0.00100770 0.00000000
3.69984025 0.46811959 0.00008005 0.00000000
2.11043115 0.28039738 0.00794897 0.00000000
0.52099302 0.63850687 0.00117856 0.00000000
2.70717981 0.62484934 -0.00070802 0.00000000
2.71082533 1.42088904 -0.00096955 0.00000000
0.41815041 1.80425139 -0.00164284 0.00000000
0.59190869 1.76619501 -0.00077934 0.00000000
0.29924596 0.53566992 0.00391153 0.00000000
0.85000685 1.88639280 0.00113161 0.00000000
2.46187557 0.36588982 0.00153479 0.00000000
1.72688123 1.49494834 0.00069000 0.00000000
2.37608629 0.72766888 -0.00108471 0.00000000
2.44464676 1.76212292 0.00245213 0.00000000
0.37625792 0.42141876 0.00038626 0.00000000
1.19942575 0.20970247 0.00184629 0.00000000
3.97445713 1.27185525 0.00046443 0.00000000
0.46392841 0.07500895 0.00103984 0.00000000
0.07778298 1.07997707 0.00118412 0.00000000
0.78976095 0.50778734 -0.00169982 0.00000000
2.63927788 1.77475506 -0.00155446 0.00000000
2.28392977 0.85523436 -0.00402075 0.00000000
3.35997877 1.49077225 0.00001430 0.00000000
4.32116908 0.74377482 0.00185000 0.00000000
1.63798766 0.35853566 -0.00285057 0.00000000
2.90764636 1.55967414 0.00545333 0.00000000
2.90550715 1.80085516 0.00379676 0.00000000
0.10290487 1.56706271 0.00242519 0.00000000
0.19378460 0.49545774 -0.00499546 0.00000000
1.25385559 0.77086115 0.00042423 0.00000000
3.70131749 1.49131427 -0.00067355 0.00000000
2.99410171 1.92190466 0.00309185 0.00000000
1.58578387 0.40030471 0.00172027 0.00000000
2.53903779 0.03176211 -0.00228849 0.00000000
1.50141261 0.14191246 -0.00638378 0.00000000
1.65369011 1.34488096 -0.00078171 0.00000000
1.10697769 1.83918221 -0.00152446 0.00000000
3.24830086 0.10529868 -0.00184749 0.00000000
2.88443742 0.41389054 -0.00481491 0.00000000
1.73272071 1.87070075 -0.00347119 0.00000000
2.54484320 1.70098751 -0.00511719 0.00000000
2.25027366 1.51734886 -0.00190283 0.00000000
2.07492956 0.76118549 -0.00102473 0.00000000
4.08612295 1.05210779 -0.00382459 0.00000000
4.19487645 0.42937683 0.00031601 0.00000000
1.94517046 1.34729963 -0.00141617 0.00000000
0.23050697 1.69133732 0.00120791 0.00000000
4.45184261 0.68386396 -0.00089564 0.00000000
3.79861717 0.85591474 -0.00253566 0.00000000
0.97404287 1.12050449 -0.00083274 0.00000000
3.78426190 1.52224253 -0.00010159 0.00000000
4.28729564 0.26585101 0.00364680 0.00000000
2.51505367 0.51089638 -0.00190469 0.00000000
2.24358182 1.39897675 -0.00158490 0.00000000
3.57199543 1.81493399 0.00124616 0.00000000
3.47863376 1.92387080 0.00055051 0.00000000
0.52038785 0.27289821 -0.00023499 0.00000000
0.16490575 1.35031317 -0.00258144 0.00000000
3.31000903 0.55638162 0.00107428 0.00000000
2.94957127 1.03018218 0.00023008 0.00000000
2.37232280 1.24028579 -0.00071758 0.00000000
3.92005785 1.95435107 0.00434725 0.00000000
1.15821062 1.05340922 0.00041435 0.00000000
1.01709317 0.60510932 0.00468818 0.00000000
4.54410892 1.42384264 0.00292471 0.00000000
3.23000649 1.24776188 0.00286077 0.00000000
0.11046730 0.84540206 0.00045214 0.00000000
3.51856453 0.61747879 -0.00116501 0.00000000
1.28410358 1.54667161 -0.00653483 0.00000000
0.59936402 1.59549966 0.00253360 0.00000000
1.49193635 1.78379240 -0.00079898 0.00000000
0.59914364 1.52396782 -0.00416473 0.00000000
3.65420947 0.50994284 0.00124995 0.00000000
0.22565754 0.24338301 0.00139475 0.00000000
0.62847316 1.67001005 0.00389149 0.00000000
1.43570886 0.65739632 -0.00055425 0.00000000
1.96140382 1.33482936 0.00264285 0.00000000
4.17131399 0.37889059 0.00238300 0.00000000
3.42153259 1.30521947 -0.00355501 0.00000000
3.94769839 0.29008264 -0.00515537 0.00000000
0.35591649 0.78671301 0.00078894 0.00000000
3.81096372 1.74616017 -0.00237641 0.00000000
1.70019132 0.59979141 -0.00038547 0.00000000
3.27442394 0.96505282 0.00039145 0.00000000
3.08961379 1.94121836 0.00336277 0.00000000
1.92410493 0.46724870 0.00524103 0.00000000
0.17283325 1.53863075 0.00153403 0.00000000
4.34969098 0.75312913 -0.00061382 0.00000000
0.24204866 1.76635109 0.00641633 0.00000000
1.93861974 1.41731039 -0.00001122 0.00000000
2.44669625 1.35081231 -0.00425584 0.00000000
2.42161296 1.60496048 -0.00251388 0.00000000
0.93403308 1.16576262 0.00183938 0.00000000
4.48229996 0.85563295 -0.00190836 0.00000000
0.56020831 1.45151220 0.00240736 0.00000000
3.79315857 1.81060731 -0.00036059 0.00000000
3.13481894 0.17133264 0.00478548 0.00000000
1.84077338 1.91514608 -0.00008632 0.00000000
4.41580258 0.03238224 -0.00143856 0.00000000
2.39389901 1.39242506 -0.00177295 0.00000000
1.20589312 1.40876184 0.00109717 0.00000000
3.35623702 1.62899761 0.00099016 0.00000000
0.37507123 1.77122637 -0.00120066 0.00000000
4.35841854 0.89498898 -0.00202887 0.00000000
3.97700680 0.84813612 0.00145355 0.00000000
4.36531093 0.36464433 0.00089180 0.00000000
0.24797441 1.31225705 0.00353940 0.00000000
2.41677352 0.92544983 -0.00089107 0.00000000
3.34977850 1.47199193 -0.00052431 0.00000000
3.53674708 0.54475384 -0.00421044 0.00000000
4.22406756 0.31053784 0.00303868 0.00000000
1.35451630 1.01180224 0.00006676 0.00000000
3.95666133 0.16588983 -0.00359879 0.00000000
3.30736272 1.81331579 0.00007573 0.00000000
3.19711379 0.42007847 -0.00160423 0.00000000
2.45988316 0.76157585 -0.00144095 0.00000000
2.74458140 1.76349661 -0.00119454 0.00000000
0.77904970 0.40214168 -0.00089101 0.00000000
3.72103066 0.15482196 -0.00245778 0.00000000
0.84648524 0.90403724 -0.00273770 0.00000000
2.95505732 1.49029693 -0.00086244 0.00000000
0.69157264 1.12550596 0.00617612 0.00000000
3.87686140 1.00451440 0.00242644 0.00000000
0.23718593 0.96281422 0.00398428 0.00000000
4.16990140 0.62371065 -0.00068225 0.00000000
3.61758814 0.70919914 -0.00052795 0.00000000
3.61269570 0.76904806 0.00149279 0.00000000
3.83707069 1.95844192 0.00301407 0.00000000
4.04475560 1.74389390 -0.00278314 0.00000000
0.99466012 0.54977879 0.00213917 0.00000000
2.52066955 1.17063614 -0.00101124 0.00000000
1.35153086 1.64036761 0.00262149 0.00000000
0.80178986 1.47247182 0.00044524 0.00000000
3.68433489 1.29432559 0.00106511 0.00000000
0.00321051 0.23300578 -0.00005998 0.00000000
4.05384926 0.49644816 -0.00277369 0.00000000
3.91355298 1.19020124 -0.00093627 0.00000000
1.12646158 1.12732684 0.00174657 0.00000000
4.21947966 1.32486834 -0.00118710 0.00000000
1.60860241 1.73476337 -0.00283754 0.00000000
1.44899236 1.00096045 -0.00046818 0.00000000
2.82183914 1.74956003 -0.00327611 0.00000000
3.93006076 1.67323917 -0.00356648 0.00000000
1.98122705 0.94307623 0.00005241 0.00000000
4.35605344 0.35988106 -0.00211339 0.00000000
4.00970128 1.82838971 -0.00188568 0.00000000
2.15350074 0.89367577 -0.00332342 0.00000000
0.07696142 1.27009932 -0.00029456 0.00000000
1.45081902 1.54011745 -0.00170671 0.00000000
3.47375636 0.94270647 -0.00025658 0.00000000
0.71377811 1.74616714 -0.00058443 0.00000000
3.98935168 1.04161918 0.00249789 0.00000000
3.23536531 0.87855139 -0.00027742 0.00000000
2.62714708 1.40989843 -0.00336292 0.00000000
0.12312654 0.06253542 -0.00259667 0.00000000
0.64137745 0.26335434 0.00344132 0.00000000
3.62448415 0.23436231 -0.00016597 0.00000000
1.83075347 1.63082421 -0.00438404 0.00000000
1.90396314 1.50647468 0.00272724 0.00000000
1.43787725 0.56259910 -0.00453756 0.00000000
0.36849278 0.66435048 0.00071175 0.00000000
2.60401751 0.81083455 0.00211847 0.00000000
4.32360634 0.90610475 0.00132005 0.00000000
2.52145630 1.46566898 0.00028038 0.00000000
2.79298986 1.89026705 -0.00565271 0.00000000
3.36149661 0.58977031 -0.00540892 0.00000000
0.80654619 1.16178051 -0.00287475 0.00000000
2.67311050 1.24271859 -0.00346804 0.00000000
1.68826036 0.97106939 -0.00002886 0.00000000
1.22470301 0.25211395 -0.00100171 0.00000000
0.58943490 0.76702435 -0.00174114 0.00000000
1.70607393 0.45518570 -0.00009879 0.00000000
0.20634450 1.23843871 -0.00116705 0.00000000
3.50501608 1.59342472 0.00347802 0.00000000
2.94107528 0.05923836 0.00487212 0.00000000
1.79010691 1.05480220 -0.00242715 0.00000000
1.15562187 0.45636510 0.00279324 0.00000000
0.59905824 0.75218533 0.00340693 0.00000000
2.01968402 1.87280154 0.00595933 0.00000000
2.66733072 0.79042215 -0.00165966 0.00000000
2.33091615 1.00690872 -0.00162426 0.00000000
0.12489573 0.48324728 0.00140768 0.00000000
0.42664910 0.77953981 -0.00012793 0.00000000
3.43313055 1.11897407 0.00231452 0.00000000
1.71247594 0.85786254 0.00490292 0.00000000
1.22709505 1.68829400 -0.00014371 0.00000000
4.03104247 1.13220767 -0.00038266 0.00000000
3.10270094 1.86947354 0.00337227 0.00000000
4.40343882 1.06688044 -0.00029368 0.00000000
0.93938202 1.35063022 0.00224556 0.00000000
2.15792987 0.42270960 -0.00094284 0.00000000
2.89681011 1.33032117 -0.00417964 0.00000000
0.30144580 1.88362714 -0.00036439 0.00000000
0.59227128 1.05929899 0.00016831 0.00000000
2.60856818 1.47728122 0.00009112 0.00000000
1.56070521 0.86367466 0.00507221 0.00000000
3.59904979 1.63904261 0.00008154 0.00000000
4.35561785 1.28170025 0.00359619 0.00000000
4.50373772 0.30790443 -0.00247256 0.00000000
0.31901238 1.43020110 -0.00042187 0.00000000
4.36769245 0.38794786 0.00081765 0.00000000
0.45778843 1.10918423 -0.00210793 0.00000000
0.07471598 0.52960928 -0.00058848 0.00000000
3.45834744 0.66997068 -0.00230949 0.00000000
3.59216969 0.98956710 -0.00100904 0.00000000
3.30184853 0.83305546 -0.00037610 0.00000000
0.92657628 0.99535021 0.00539708 0.00000000
1.72427527 0.78686888 -0.00240645 0.00000000
4.47255954 0.46301351 -0.00350959 0.00000000
3.49949363 0.36399869 -0.00115271 0.00000000
3.95204373 0.58476755 0.00689340 0.00000000
3.58750327 1.93787742 -0.00392698 0.00000000
0.61922761 1.93892894 0.00332503 0.00000000
4.52339528 1.14545826 0.00101016 0.00000000
1.82941536 1.79612281 0.00083217 0.00000000
0.59489192 0.69642173 -0.00126256 0.00000000
1.24572160 0.11059767 0.00332644 0.00000000
1.58380283 0.32136882 -0.00082609 0.00000000
0.17515158 1.45085898 0.00513470 0.00000000
2.15344224 0.77174085 -0.00341488 0.00000000
3.45654844 1.04394603 -0.00182229 0.00000000
1.24251333 1.19373568 -0.00347643 0.00000000
0.78030104 0.59494717 0.00247127 0.00000000
2.25449434 0.96862200 -0.00106473 0.00000000
3.57332762 0.89743060 -0.00139215 0.00000000
2.50899106 0.93450016 -0.00175538 0.00000000
1.74031144 1.04420414 -0.00107037 0.00000000
0.87983053 0.33618872 0.00314061 0.00000000
2.51033026 0.22178084 -0.00177157 0.00000000
3.43476736 0.71866333 0.00079061 0.00000000
2.38277471 0.64569335 -0.00548102 0.00000000
1.22105239 1.47063878 0.00070196 0.00000000
1.11170118 0.24393861 -0.00260535 0.00000000
0.58057000 1.41623798 -0.00192969 0.00000000
2.80958731 1.69403488 0.00387899 0.00000000
3.59672401 0.22038276 -0.00138744 0.00000000
2.31660028 1.68667186 -0.00038836 0.00000000
3.45758431 0.70814003 0.00090728 0.00000000
2.38827358 0.64223597 -0.00025117 0.00000000
4.15781733 0.57108374 0.00178857 0.00000000
2.66468808 1.23254281 -0.00066668 0.00000000
1.24780151 0.20829282 -0.00335023 0.00000000
0.74525885 0.09765507 -0.00317777 0.00000000
2.70468317 0.08077614 -0.00089350 0.00000000
3.74367965 0.28805786 0.00083114 0.00000000
3.26566351 1.07125159 -0.00215344 0.00000000
3.30303059 0.90386907 -0.00063946 0.00000000
2.11572671 0.24627453 0.00156211 0.00000000
2.59819871 1.03342821 0.00413749 0.00000000
3.88995602 1.43517003 -0.00106412 0.00000000
1.09875994 1.31960384 -0.00313803 0.00000000
3.95340014 0.59369398 0.00320263 0.00000000
1.38023359 0.73451624 -0.00179386 0.00000000
4.10231614 0.34523263 0.00078622 0.00000000
1.93653694 0.81085609 -0.00220576 0.00000000
0.00560871 0.15630614 -0.00345936 0.00000000
4.25670310 0.38287701 -0.00088493 0.00000000
3.65981582 1.57828599 0.00110559 0.00000000
2.82452348 1.06453616 -0.00262724 0.00000000
4.21714074 1.75955240 -0.00205530 0.00000000
2.36225160 1.83051979 0.00054419 0.00000000
3.07596436 1.59788940 -0.00010083 0.00000000
2.68735519 1.45914234 0.00228498 0.00000000
3.07337626 0.05343525 0.00225059 0.00000000
1.92439674 0.01528575 0.00478609 0.00000000
0.00469639 0.78776041 0.00051927 0.00000000
0.15719599 1.54486183 -0.00086233 0.00000000
1.97359898 1.17189194 -0.00011013 0.00000000
0.27982289 0.01106261 -0.00092689 0.00000000
3.34956557 1.14046691 0.00163367 0.00000000
3.08540332 0.27980963 -0.00225154 0.00000000
0.82933512 0.13725272 -0.00385566 0.00000000
1.39782017 1.20336919 0.00107357 0.00000000
1.80333056 1.11809113 0.00188777 0.00000000
4.37529983 0.81696486 -0.00097285 0.00000000
2.99900080 1.70975944 0.00207233 0.00000000
4.06700029 0.07642230 0.00049761 0.00000000
3.94683642 0.58999337 -0.00146721 0.00000000
1.08157759 1.82435842 -0.00047015 0.00000000
0.91529867 0.84211457 0.00256948 0.00000000
3.73838439 0.62017721 0.00037944 0.00000000
3.25642373 1.95752095 -0.00146060 0.00000000
2.66504510 1.55374963 0.00593654 0.00000000
3.04712760 1.07024517 -0.00150737 0.00000000
3.59985256 0.39962014 0.00114552 0.00000000
0.03946068 0.67668465 -0.00130363 0.00000000
0.84756918 1.67392190 0.00560847 0.00000000
3.49288888 1.87911334 0.00384346 0.00000000
0.18032108 1.51709237 0.00314915 0.00000000
4.30998453 1.47747299 0.00189127 0.00000000
2.80517911 0.05319203 0.00145385 0.00000000
2.56931990 1.32678010 -0.00247996 0.00000000
3.57892716 1.10574529 -0.00259275 0.00000000
3.53314073 1.70089149 -0.00273194 0.00000000
1.63650504 1.82938516 0.00046851 0.00000000
2.56504796 0.46807192 0.00148245 0.00000000
3.68380803 0.19552898 -0.00347812 0.00000000
4.17593676 1.55591498 0.00204987 0.00000000
2.79567357 0.53232258 0.00400220 0.00000000
4.36976053 0.78707023 -0.00075432 0.00000000
3.31075369 0.32551919 0.00330090 0.00000000
2.14592328 1.93709786 -0.00162686 0.00000000
1.52793664 0.34606016 -0.00263932 0.00000000
4.43373163 0.73028207 0.00222614 0.00000000
2.25105659 1.84927613 0.00110118 0.00000000
0.09621370 1.58808402 0.00232584 0.00000000
1.41945040 1.41244743 0.00105448 0.00000000
0.69084057 0.86499666 0.00024361 0.00000000
3.38166358 0.89814395 0.00080227 0.00000000
4.02318277 1.17995930 -0.00102775 0.00000000
1.45369066 0.68890775 0.00357588 0.00000000
1.24134286 1.76833098 0.00196149 0.00000000
2.71411501 1.65567657 0.00073021 0.00000000
3.74853632 0.17832322 -0.00217741 0.00000000
3.98606309 1.89373764 0.00202173 0.00000000
0.84862566 1.48560135 0.00201088 0.00000000
2.54674043 0.84566105 -0.00088231 0.00000000
0.28405400 1.88765830 -0.00004483 0.00000000
0.94726221 1.61906529 -0.00214916 0.00000000
3.45081082 1.52169017 -0.00192817 0.00000000
2.67905947 1.93314908 -0.00273983 0.00000000
1.32683310 1.55404799 -0.00536092 0.00000000
1.45535637 1.52197013 0.00027631 0.00000000
2.06676075 1.76604859 -0.00341335 0.00000000
0.42155984 1.21602996 -0.00487101 0.00000000
3.38987755 0.09833085 0.00014917 0.00000000
1.93041293 1.75179895 -0.00016836 0.00000000
1.44253137 1.08658729 -0.00124985 0.00000000
1.10703816 0.01830865 -0.00045203 0.00000000
2.63594552 0.15311104 0.00070918 0.00000000
2.77355440 1.70987124 -0.00282497 0.00000000
2.59981981 1.88948522 -0.00374602 0.00000000
0.80269685 0.26405155 -0.00235663 0.00000000
2.40406545 0.99743381 -0.00082770 0.00000000
0.86053727 1.61870918 -0.00371869 0.00000000
1.35075676 0.24657372 0.00097425 0.00000000
1.60930340 1.47752174 -0.00278747 0.00000000
2.85536802 1.18676510 -0.00365560 0.00000000
4.30264059 1.21281921 -0.00140905 0.00000000
4.06010467 1.43893681 0.00149512 0.00000000
0.92650981 0.68038742 0.00233355 0.00000000
2.06766958 0.41048001 0.00158175 0.00000000
1.96314856 0.57309232 -0.00167211 0.00000000
2.73974488 0.06889563 0.00141582 0.00000000
2.62276055 1.04677668 0.00045408 0.00000000
2.53544484 1.75336758 -0.00283305 0.00000000
2.89007479 0.03337121 0.00402249 0.00000000
3.18268492 0.27166212 0.00221436 0.00000000
3.58102040 0.74534988 0.00097076 0.00000000
3.87069246 0.55960732 0.00303127 0.00000000
0.87783990 1.55977764 0.00357693 0.00000000
0.37190397 0.87380243 0.00180263 0.00000000
0.82719993 1.45378625 0.00174409 0.00000000
1.67965110 0.46197615 0.00103852 0.00000000
1.92661648 1.82166579 0.00152367 0.00000000
4.10957242 0.17542739 0.00094160 0.00000000
3.48253683 1.31544321 -0.00222041 0.00000000
2.89978217 0.02233850 0.00238333 0.00000000
2.54111408 0.90004525 0.00477354 0.00000000
3.92630463 0.44572257 0.00019108 0.00000000
1.36310865 1.23810086 -0.00108292 0.00000000
2.65417019 0.26766124 0.00062891 0.00000000
1.31840319 1.57820929 -0.00086360 0.00000000
4.39091024 0.68620850 -0.00024413 0.00000000
4.08194304 1.29710679 -0.00017790 0.00000000
3.29114656 1.11804661 -0.00084953 0.00000000
1.95775434 0.73776381 -0.00272981 0.00000000
1.08943642 0.30250134 0.00258655 0.00000000
1.27705344 0.96255206 -0.00377964 0.00000000
3.96808477 0.44764045 -0.00316684 0.00000000
2.94517718 1.54902610 -0.00067652 0.00000000
2.99683300 0.94882097 -0.00130471 0.00000000
1.55171686 0.83554483 0.00155067 0.00000000
0.37497973 0.59697458 0.00275753 0.00000000
4.41535165 0.70629898 0.00684817 0.00000000
0.16895789 0.85301966 0.00237615 0.00000000
1.99311689 1.87417507 0.00207453 0.00000000
0.06081633 0.88933536 0.00072709 0.00000000
0.51346407 0.42633652 0.00106745 0.00000000
3.21535470 1.69359010 -0.00028682 0.00000000
2.92527120 0.24923894 -0.00044389 0.00000000
4.22301700 0.40991916 -0.00237145 0.00000000
0.33095975 0.13155824 0.00062440 0.00000000
4.12319326 1.95483145 0.00207419 0.00000000
1.16114545 0.66986554 0.00051178 0.00000000
0.47098343 1.44975435 0.00111668 0.00000000
4.24820487 1.87917069 0.00241896 0.00000000
2.77073956 0.62801846 -0.00340093 0.00000000
2.54484332 0.63105643 0.00058476 0.00000000
3.56973389 0.21552941 -0.00157055 0.00000000
3.84351179 1.45467187 -0.00313368 0.00000000
3.52523494 0.27053387 -0.00197998 0.00000000
3.99905786 0.71161609 0.00136558 0.00000000
4.06021937 1.62172245 0.00121616 0.00000000
3.42048800 1.82866125 0.00104432 0.00000000
4.20782636 0.20113126 -0.00243730 0.00000000
2.24408472 0.60478001 -0.00062195 0.00000000
4.10668853 1.12645684 -0.00027973 0.00000000
2.43829888 1.63807215 -0.00426075 0.00000000
0.64170304 0.96753783 0.00486652 0.00000000
2.19359804 0.87414670 0.00052950 0.00000000
3.92079066 0.52434795 -0.00026442 0.00000000
3.76147619 0.55770070 -0.00139463 0.00000000
0.93811585 1.69869808 -0.00047752 0.00000000
0.14257254 1.55302646 0.00233618 0.00000000
0.06456313 1.79446459 0.00068367 0.00000000
4.45093620 1.37735240 -0.00472415 0.00000000
2.96197485 0.19915910 -0.00144274 0.00000000
0.11321922 0.38731050 0.00244305 0.00000000
2.04490911 0.51615050 -0.00463629 0.00000000
1.03350919 1.00962930 0.00209697 0.00000000
2.11407667 0.32706094 -0.00157918 0.00000000
0.40577911 0.52309030 0.00109914 0.00000000
1.65970544 0.94253968 -0.00128097 0.00000000
4.52613024 0.03060206 -0.00018904 0.00000000
4.22403994 1.52143960 0.00039243 0.00000000
0.88512397 0.29842741 -0.00353502 0.00000000
1.49199947 0.88496487 -0.00016315 0.00000000
4.36027463 0.07208079 -0.00449215 0.00000000
1.51595843 0.13343445 0.00182985 0.00000000
2.03670850 0.60199396 0.00165847 0.00000000
2.15791088 1.61225171 -0.00061440 0.00000000
4.19542628 0.21661517 -0.00297764 0.00000000
4.13227467 1.02450260 0.00135983 0.00000000
1.09186260 0.47865923 -0.00064463 0.00000000
0.91069155 0.11669962 -0.00030582 0.00000000
2.68052245 1.46478869 0.00084720 0.00000000
1.82352079 1.60576606 -0.00051196 0.00000000
3.51415226 1.93732062 0.00114828 0.00000000
2.10571768 0.53239605 -0.00039070 0.00000000
1.34051311 0.64880833 -0.00108325 0.00000000
0.84315377 1.94952521 -0.00046681 0.00000000
4.28226305 1.68831710 0.00543679 0.00000000
0.07702503 0.82875589 -0.00181269 0.00000000
3.73087026 1.77864194 0.00392911 0.00000000
3.92617674 1.25362011 0.00164320 0.00000000
1.18880028 1.43260108 0.00021783 0.00000000
3.99331550 1.55232998 0.00345609 0.00000000
1.79974631 0.52150389 0.00485148 0.00000000
1.18145652 0.94525846 -0.00108155 0.00000000
1.15121409 0.73620425 -0.00237673 0.00000000
2.10792439 0.00340114 -0.00175603 0.00000000
0.71935929 0.75196115 -0.00078021 0.00000000
3.85775429 0.39723440 -0.00196268 0.00000000
3.68282407 0.01432128 -0.00116501 0.00000000
3.22808189 0.94213118 -0.00235671 0.00000000
0.74359836 1.09347496 0.00187972 0.00000000
4.54644708 1.38317624 0.00104837 0.00000000
0.77764520 0.20286249 0.00297835 0.00000000
4.05672098 1.90952650 0.00295879 0.00000000
4.23671590 1.65086075 0.00048825 0.00000000
1.86924377 0.78063486 -0.00399210 0.00000000
0.61975205 0.58138326 -0.00032477 0.00000000
0.87681824 0.96648462 -0.00102281 0.00000000
1.09997167 1.23488730 -0.00386148 0.00000000
3.70142793 0.38673280 0.00034922 0.00000000
3.28744358 1.19184460 0.00109871 0.00000000
2.50515378 1.66043137 0.00182895 0.00000000
0.19353767 0.47606162 -0.00012500 0.00000000
4.15703053 1.14621120 0.00647059 0.00000000
1.36297712 0.36066015 0.00038408 0.00000000
2.77451471 0.75143839 -0.00385163 0.00000000
2.68279033 0.41632521 0.00237756 0.00000000
4.30455697 1.38045781 -0.00524186 0.00000000
0.99384551 0.35204371 0.00048129 0.00000000
0.99460309 1.25638110 0.00128736 0.00000000
0.81960899 0.70988093 -0.00092343 0.00000000
4.16442824 0.87463309 -0.00139680 0.00000000
1.31568228 1.07555472 -0.00038551 0.00000000
2.80007021 0.69171239 0.00056272 0.00000000
2.44409662 0.72422820 -0.00461033 0.00000000
3.39287503 1.33527095 -0.00007453 0.00000000
4.10286398 1.86507653 -0.00313275 0.00000000
3.04031354 0.50997774 -0.00179443 0.00000000
2.72034942 1.15623027 0.00069203 0.00000000
4.11169832 0.35924525 -0.00397467 0.00000000
0.87079441 1.24209976 0.00428739 0.00000000
0.22574787 1.56329345 -0.00056608 0.00000000
4.05068259 1.57292323 -0.00212009 0.00000000
0.66538318 0.08079535 0.00061296 0.00000000
1.75946483 0.92298251 -0.00185568 0.00000000
4.26901021 1.12125968 -0.00145274 0.00000000
0.48923386 0.66359681 -0.00187683 0.00000000
0.96732022 0.48413129 0.00339084 0.00000000
0.68272212 0.29094597 -0.00191792 0.00000000
4.53706254 1.88194341 -0.00209742 0.00000000
4.17142193 1.11452399 -0.00285075 0.00000000
1.63858455 0.42327060 0.00075566 0.00000000
3.52822035 0.21570437 -0.00039240 0.00000000
1.41458150 0.33462803 0.00319002 0.00000000
2.90273724 0.17050989 -0.00100895 0.00000000
4.49193663 1.06947602 -0.00329543 0.00000000
3.02821418 0.57987291 -0.00035991 0.00000000
1.44273473 1.81776324 0.00157970 0.00000000
2.54679106 0.30667867 0.00262120 0.00000000
3.17808706 0.61695107 0.00585156 0.00000000
2.39706483 1.65454212 0.00160888 0.00000000
2.85068420 1.88369956 -0.00223462 0.00000000
1.84616236 1.57762526 0.00102704 0.00000000
3.77893284 0.08788052 -0.00037660 0.00000000
4.49204295 0.18541307 -0.00236590 0.00000000
2.40085850 0.96231929 -0.00217910 0.00000000
2.15673310 0.63253140 0.00011274 0.00000000
1.95497115 1.76080756 0.00076748 0.00000000
4.21428503 1.27070782 0.00575809 0.00000000
0.08176287 1.69872709 -0.00047138 0.00000000
0.35980115 0.97161638 -0.00001619 0.00000000
0.84418207 1.32320708 -0.00264371 0.00000000
0.47827207 0.13262232 0.00143528 0.00000000
3.46714922 1.81398154 -0.00008277 0.00000000
1.08382261 1.68544773 0.00287732 0.00000000
1.99754617 1.87608086 0.00035433 0.00000000
3.33248076 1.83262576 0.00219533 0.00000000
3.76871683 0.87129410 -0.00263710 0.00000000
3.39401817 1.89167150 -0.00205067 0.00000000
2.05907547 0.25398026 -0.00111721 0.00000000
0.42570591 0.76666490 -0.00259183 0.00000000
3.96337833 1.66613836 -0.00578500 0.00000000
3.74429057 0.75389372 -0.00064384 0.00000000
0.81290345 0.54158529 -0.00442834 0.00000000
0.14665873 0.39881091 -0.00226145 0.00000000
3.33404949 0.74755098 -0.00219532 0.00000000
4.53953191 1.52658219 0.00224583 0.00000000
3.55577343 1.86384985 -0.00190807 0.00000000
0.62907371 0.77295673 0.00262237 0.00000000
0.39861302 0.59325675 0.00064554 0.00000000
3.93936653 0.25202789 0.00291501 0.00000000
2.02518714 1.46517830 -0.00365935 0.00000000
0.41588142 0.73272967 0.00181171 0.00000000
1.10722738 1.82518196 -0.00430819 0.00000000
2.28104441 0.84197359 -0.00109167 0.00000000
0.26147171 1.52814963 -0.00058911 0.00000000
1.91355040 1.40893931 -0.00038277 0.00000000
0.91416866 0.39763667 0.00152540 0.00000000
1.72847280 0.38483445 0.00059727 0.00000000
1.24333143 0.45906955 0.00413168 0.00000000
0.64988963 0.80886238 0.00123695 0.00000000
0.26050648 1.21167791 0.00019494 0.00000000
4.09448601 1.08354957 0.00021513 0.00000000
2.73624257 0.10455111 -0.00316043 0.00000000
3.55392639 1.03998174 -0.00090623 0.00000000
1.66476835 1.30108551 0.00170982 0.00000000
1.49614221 1.23135700 -0.00024914 0.00000000
3.34763050 1.64190087 0.00081161 0.00000000
3.49913816 1.28130890 0.00012302 0.00000000
2.50650997 0.26871018 0.00449175 0.00000000
2.65541053 1.07870718 -0.00233126 0.00000000
0.18425082 0.51159951 -0.00160174 0.00000000
2.84059156 0.27069409 0.00335825 0.00000000
0.22426847 1.64312788 0.00263633 0.00000000
1.36956431 1.49768203 -0.00352530 0.00000000
0.85153863 1.39383692 0.00300254 0.00000000
4.17272825 1.11952038 -0.00063754 0.00000000
0.14180538 1.57824299 0.00188638 0.00000000
1.34243345 0.35553848 -0.00212130 0.00000000
2.44685917 1.71696606 0.00499223 0.00000000
0.05355668 0.98790535 -0.00101532 0.00000000
0.15251708 1.03945623 -0.00429812 0.00000000
0.29875232 0.03986102 -0.00155627 0.00000000
1.23276571 0.28833041 0.00171888 0.00000000
2.76254647 1.77518950 -0.00106436 0.00000000
0.04086629 0.37886224 0.00199682 0.00000000
1.12878960 1.57342858 0.00127105 0.00000000
3.12915151 1.06795330 0.00338950 0.00000000
3.09514085 0.04573293 0.00040319 0.00000000
3.53007368 0.85331412 -0.00148424 0.00000000
1.91161509 1.84044178 -0.00549335 0.00000000
1.23722144 0.87455123 0.00287936 0.00000000
0.06811990 0.90859795 -0.00221830 0.00000000
2.69812847 1.92306316 -0.00442409 0.00000000
2.66192274 1.90391098 0.00010833 0.00000000
0.77266136 0.21537654 -0.00216761 0.00000000
4.01455509 1.74619588 0.00051385 0.00000000
4.21403272 1.85622460 -0.00064323 0.00000000
2.44437906 0.36808202 -0.00315802 0.00000000
1.51434486 0.02182780 0.00014195 0.00000000
0.02389117 1.91694950 0.00255870 0.00000000
3.45746034 1.09026339 0.00170284 0.00000000
4.29991843 1.69055228 -0.00091142 0.00000000
2.96061441 0.70354584 0.00088472 0.00000000
3.17847597 1.61696972 -0.00166116 0.00000000
3.02673298 1.53461836 -0.00004806 0.00000000
2.33812099 0.92950621 0.00052373 0.00000000
0.13882911 0.07938148 -0.00421454 0.00000000
3.31992430 0.72193495 -0.00004631 0.00000000
4.19918271 1.00989402 0.00216929 0.00000000
0.14930866 0.75703481 -0.00026297 0.00000000
3.42358049 0.84331622 -0.00174281 0.00000000
2.65968510 1.29517576 0.00119863 0.00000000
3.29312219 1.79542908 0.00038091 0.00000000
0.96495068 0.74268243 -0.00045602 0.00000000
0.09514997 0.22833883 0.00033329 0.00000000
4.06487625 1.92098993 -0.00378949 0.00000000
3.54288902 0.54463431 0.00128043 0.00000000
3.20566118 0.87686201 0.00116956 0.00000000
3.63871208 1.84662034 0.00338408 0.00000000
2.31917230 1.64317860 0.00049109 0.00000000
2.38645631 1.61024290 -0.00097216 0.00000000
1.77405102 0.12998845 0.00306126 0.00000000
