2.54601539 0.72848709 -0.00016032 0.00000000
3.37226967 0.03930382 -0.00105154 0.00000000
2.52427860 0.59818758 -0.00434579 0.00000000
0.21107184 1.11263565 -0.00405386 0.00000000
0.86269926 0.98827459 -0.00189499 0.00000000
0.75018118 1.61934644 -0.00033235 0.00000000
1.84328818 0.59003758 0.00157301 0.00000000
2.84055011 1.58523521 -0.00248527 0.00000000
3.24859803 1.30933998 0.00245141 0.00000000
0.40518294 0.41718422 -0.00496428 0.00000000
3.36388588 0.94039159 0.00060723 0.00000000
0.83875515 0.23212041 -0.00161278 0.00000000
3.70182019 1.40887158 -0.00359641 0.00000000
2.00107530 1.00315550 -0.00157187 0.00000000
1.35717297 0.16249742 0.00188858 0.00000000
0.79801735 0.54634956 0.00015088 0.00000000
1.47012972 1.15299051 0.00172553 0.00000000
4.22856883 0.77954153 -0.00018479 0.00000000
3.29500272 0.82687570 -0.00142486 0.00000000
2.91115929 0.52516026 -0.00347522 0.00000000
2.57084494 0.24296049 -0.00084971 0.00000000
2.90136832 1.10743028 -0.00283428 0.00000000
4.32796107 0.21260511 0.00024342 0.00000000
1.49845852 0.48859028 -0.00227192 0.00000000
2.45093097 1.19496684 0.00217679 0.00000000
0.94035181 1.23044940 -0.00006625 0.00000000
1.92100704 0.38578239 -0.00172508 0.00000000
1.66588364 1.64749680 0.00433526 0.00000000
3.46090643 1.59802897 -0.00038245 0.00000000
0.95490955 1.50038297 0.00572324 0.00000000
1.34181765 1.62724011 -0.00234038 0.00000000
3.87975352 0.36405119 0.00322605 0.00000000
3.07976021 1.37054645 0.00050101 0.00000000
2.04158488 1.56904609 -0.00338960 0.00000000
2.92162853 0.06298986 -0.00069866 0.00000000
0.83749473 0.70108336 0.00057004 0.00000000
3.58793158 1.01112547 0.00348823 0.00000000
0.83131163 1.02954316 -0.00026843 0.00000000
0.96827703 0.12981651 -0.00514937 0.00000000
2.11256966 1.09737626 -0.00052398 0.00000000
2.90578842 1.59403424 0.00051437 0.00000000
4.24703636 1.20109758 0.00283111 0.00000000
4.38564230 0.73521927 -0.00031542 0.00000000
2.33848794 1.69641824 0.00133639 0.00000000
0.82800480 0.88990880 -0.00403098 0.00000000
0.85347023 0.77037826 0.00035371 0.00000000
3.68124625 0.91609807 0.00220957 0.00000000
3.42509878 1.03011001 -0.00063501 0.00000000
0.93154833 0.12926230 0.00385806 0.00000000
0.47630799 0.00983561 -0.00206945 0.00000000
0.11703162 1.62895282 -0.00107365 0.00000000
2.61540150 0.24355173 -0.00037737 0.00000000
0.09096704 1.41431166 0.00103115 0.00000000
2.00113147 0.89460796 -0.00044598 0.00000000
4.03028642 0.14920138 -0.00150200 0.00000000
0.37423105 1.46470657 -0.00108305 0.00000000
3.36481774 1.14820715 -0.00553017 0.00000000
1.20203602 1.71157198 0.00011875 0.00000000
4.09524783 0.66863494 0.00394284 0.00000000
0.49202945 1.52464672 0.00208920 0.00000000
2.89585910 0.65001860 -0.00162462 0.00000000
0.59289697 0.77018113 0.00202060 0.00000000
0.69002422 1.29587596 -0.00048546 0.00000000
3.04435602 0.12221331 -0.00092087 0.00000000
1.63447856 0.67529849 -0.00111030 0.00000000
3.36907807 1.24434701 -0.00088116 0.00000000
1.37238298 1.13279445 0.00261150 0.00000000
4.23281488 1.35277604 0.00069394 0.00000000
3.48845371 1.60886821 -0.00034870 0.00000000
2.75919398 1.21823249 0.00436383 0.00000000
2.99492200 1.40544911 -0.00695585 0.00000000
0.32691704 0.53775292 -0.00197298 0.00000000
3.28269985 1.22537510 -0.00123352 0.00000000
1.16404002 1.70502623 -0.00180287 0.00000000
4.41681443 0.54847550 0.00012641 0.00000000
0.64796497 1.69728510 0.00540763 0.00000000
1.35359899 0.71472217 -0.00100690 0.00000000
0.80033311 0.21469213 -0.00104069 0.00000000
2.09571651 0.11217695 -0.00012375 0.00000000
2.93524526 0.10293475 -0.00348178 0.00000000
3.98119065 0.02296241 0.00011573 0.00000000
3.95469210 0.40296287 0.00211371 0.00000000
4.07330534 0.46879355 0.00043314 0.00000000
3.61515106 1.16136503 -0.00138588 0.00000000
1.92693219 0.35785655 0.00042089 0.00000000
2.30066201 0.96514233 0.00268643 0.00000000
0.61303278 0.15060151 0.00115475 0.00000000
3.80453570 0.15131397 -0.00201881 0.00000000
2.05722659 0.22189958 0.00074688 0.00000000
1.80449236 1.23268382 -0.00527578 0.00000000
2.23499317 0.47756639 -0.00008820 0.00000000
0.40081154 1.18385524 0.00153268 0.00000000
2.86655185 0.94074130 -0.00113759 0.00000000
2.79097964 0.79059771 0.00171059 0.00000000
1.16853707 0.03348831 0.00051331 0.00000000
0.78801564 0.21462437 0.00091379 0.00000000
4.64858596 0.26492971 -0.00162257 0.00000000
4.34174286 0.29995371 -0.00001895 0.00000000
0.43280587 0.52227709 -0.00094802 0.00000000
1.02003879 1.28095345 0.00040204 0.00000000
0.68812901 1.14417619 0.00364501 0.00000000
0.27675849 0.46110699 0.00098828 0.00000000
3.48396783 0.01028055 -0.00199990 0.00000000
3.80428752 0.26771832 -0.00153922 0.00000000
4.22416322 0.31865164 0.00262428 0.00000000
1.07622909 1.28176450 0.00172271 0.00000000
3.09218095 0.24032370 -0.00232310 0.00000000
1.02680672 1.11264885 -0.00057662 0.00000000
4.37302909 1.04053947 -0.00060137 0.00000000
4.41368071 0.30512274 -0.00509152 0.00000000
3.62214538 0.51912712 0.00351129 0.00000000
1.14368494 1.22262697 -0.00186291 0.00000000
1.01900587 0.63228573 0.00237904 0.00000000
3.22477278 1.56765100 0.00319038 0.00000000
4.29804399 0.65669189 0.00114221 0.00000000
1.12195285 1.49126253 -0.00167776 0.00000000
2.97046613 0.22626332 0.00175829 0.00000000
0.42059346 1.18877300 0.00033096 0.00000000
0.34743466 0.84584251 0.00111211 0.00000000
4.23189137 1.47762656 0.00199685 0.00000000
3.17940207 0.23115419 -0.00113387 0.00000000
2.14990170 0.91772187 -0.00080022 0.00000000
1.83191004 1.70347718 0.00293760 0.00000000
2.60025902 0.50443690 0.00100209 0.00000000
3.83456853 1.27123725 0.00327385 0.00000000
1.52362831 1.67639816 -0.00627214 0.00000000
1.44597394 0.53103369 -0.00200686 0.00000000
2.18573509 0.58654459 -0.00234932 0.00000000
1.33018783 0.66942427 0.00027277 0.00000000
1.81809857 0.00549199 0.00072410 0.00000000
0.94146526 0.85814121 0.00036518 0.00000000
1.04279822 1.62776839 0.00219655 0.00000000
2.85779306 0.61517403 0.00015520 0.00000000
4.26588858 1.66965399 0.00053234 0.00000000
2.86868856 1.07794930 -0.00493883 0.00000000
1.80124489 1.08603855 -0.00164174 0.00000000
0.86362400 0.08289242 -0.00487881 0.00000000
4.49908731 0.70131256 -0.00134999 0.00000000
1.04490993 1.63222702 -0.00293972 0.00000000
2.08043053 1.43243886 0.00366687 0.00000000
0.69620981 1.15615902 0.00519873 0.00000000
2.45947639 0.71951425 -0.00106702 0.00000000
2.54308344 1.22385442 -0.00114140 0.00000000
3.82926277 1.00971664 -0.00028406 0.00000000
1.34642697 0.73116034 0.00231632 0.00000000
1.78764508 1.67445486 -0.00295024 0.00000000
2.44817240 0.49131100 0.00507527 0.00000000
1.35365646 0.91508104 0.00109023 0.00000000
2.32010734 0.14042359 0.00287137 0.00000000
3.84689739 1.51699842 -0.00047456 0.00000000
1.00396719 1.65884963 -0.00515670 0.00000000
3.46578776 0.00064922 0.00217215 0.00000000
2.41053089 0.84673468 0.00139799 0.00000000
1.20983872 0.23190262 -0.00176856 0.00000000
3.25197289 1.47855220 -0.00293729 0.00000000
0.04097206 1.63989854 0.00310414 0.00000000
3.41086406 1.54713770 -0.00168450 0.00000000
1.22417946 0.43832893 0.00058038 0.00000000
2.45212191 1.09478449 -0.00540218 0.00000000
4.53187133 0.86194636 0.00271318 0.00000000
0.20690919 0.24141728 0.00232636 0.00000000
2.24323925 1.26226469 -0.00091631 0.00000000
3.39217375 0.76364235 -0.00429346 0.00000000
0.73322036 0.24058199 -0.00006964 0.00000000
0.89418262 0.40180372 -0.00342641 0.00000000
2.19230512 1.23201072 0.00336578 0.00000000
4.38402279 0.74933559 -0.00129137 0.00000000
4.10247657 1.66145058 0.00451744 0.00000000
3.08304317 0.09454064 -0.00303283 0.00000000
1.24771153 1.26524668 0.00212749 0.00000000
3.78910889 1.26608228 -0.00593755 0.00000000
0.78304404 0.67202254 -0.00027073 0.00000000
3.84657243 1.43984562 -0.00056329 0.00000000
0.73769484 1.41894641 -0.00190365 0.00000000
2.86493349 0.01890738 0.00148830 0.00000000
3.44939490 1.26023223 0.00245860 0.00000000
0.70314554 0.13608292 -0.00136878 0.00000000
4.03277199 1.04031825 -0.00567839 0.00000000
2.52957331 0.95730480 0.00643898 0.00000000
2.64914153 1.35499574 0.00016927 0.00000000
2.96724806 0.72413691 0.00218329 0.00000000
4.53056083 1.29614580 -0.00356486 0.00000000
3.95362122 0.16970483 0.00018691 0.00000000
4.49969400 1.06957350 0.00187692 0.00000000
1.08075467 0.78351689 -0.00004610 0.00000000
3.69560903 0.41890382 -0.00085585 0.00000000
4.22191929 1.35648989 0.00073329 0.00000000
3.39660792 1.58655765 -0.00201565 0.00000000
3.75495205 0.62986900 -0.00018665 0.00000000
3.49346664 1.44981612 0.00272138 0.00000000
2.79233358 1.18307288 0.00029560 0.00000000
2.11378368 0.08171965 -0.00255970 0.00000000
4.15259430 0.08754699 0.00001655 0.00000000
0.08577787 0.48864936 0.00229898 0.00000000
2.54493003 0.78291147 0.00073413 0.00000000
1.95414949 0.11339254 -0.00112391 0.00000000
3.26179524 1.26874520 -0.00062113 0.00000000
3.65623971 1.28694128 -0.00047958 0.00000000
1.95514957 0.96903269 0.00246194 0.00000000
4.08125680 0.81498791 -0.00200264 0.00000000
4.13166291 0.64773416 -0.00062173 0.00000000
2.29128874 0.86415423 0.00430854 0.00000000
3.94375285 0.73629276 0.00182655 0.00000000
4.10529901 0.69743973 0.00064565 0.00000000
4.27443707 1.08762678 0.00260401 0.00000000
3.43772443 1.37211793 -0.00432173 0.00000000
2.83016219 0.28384127 0.00205722 0.00000000
2.40730557 0.63944305 -0.00170671 0.00000000
4.34594738 0.49229219 -0.00086066 0.00000000
3.07003482 0.34168744 0.00144620 0.00000000
2.61160937 0.95338025 0.00072559 0.00000000
0.47213066 0.88013164 -0.00099261 0.00000000
2.49937577 0.56030499 -0.00290766 0.00000000
0.82573745 0.61455052 -0.00117397 0.00000000
4.18567085 0.25141775 -0.00336073 0.00000000
3.41436800 1.41809142 0.00342523 0.00000000
0.90005805 0.02100359 -0.00175469 0.00000000
1.76963291 0.64558246 0.00051885 0.00000000
2.07817564 1.66557188 0.00083117 0.00000000
2.75550703 0.78594207 0.00084575 0.00000000
0.77003098 1.26273391 -0.00010356 0.00000000
1.27684506 0.83152647 -0.00013217 0.00000000
2.90577557 0.90418710 0.00042733 0.00000000
2.92504974 0.14926206 -0.00022513 0.00000000
2.07084413 0.86571710 -0.00023055 0.00000000
2.08581766 0.96550651 0.00065423 0.00000000
2.81067017 0.22568072 -0.00042806 0.00000000
1.98160294 1.28854200 0.00221760 0.00000000
1.11635286 0.34875249 -0.00287872 0.00000000
0.85941842 0.29174331 0.00111131 0.00000000
2.43536859 0.29775908 -0.00485418 0.00000000
3.60558312 0.20627021 -0.00203634 0.00000000
1.01721279 0.24850874 0.00059441 0.00000000
2.35892263 1.68356994 -0.00007973 0.00000000
3.21907480 0.64179895 -0.00206106 0.00000000
4.23666447 0.40552699 0.00305532 0.00000000
3.35365073 0.59209182 -0.00847557 0.00000000
3.65160663 1.19641585 0.00354225 0.00000000
3.38857100 0.26128464 0.00055109 0.00000000
0.88140222 1.70102107 -0.00323785 0.00000000
2.97983520 0.09761288 0.00109331 0.00000000
4.19264456 0.66158233 0.00252329 0.00000000
2.78041676 1.13859099 0.00037107 0.00000000
1.94872792 0.22390134 -0.00505968 0.00000000
0.56163961 0.42972261 -0.00167884 0.00000000
4.38447744 0.21833121 -0.00047777 0.00000000
4.60956134 1.20923693 -0.00240451 0.00000000
4.45600307 1.03753598 -0.00323270 0.00000000
0.95715072 0.83316060 -0.00288118 0.00000000
1.69954228 1.63430714 -0.00049380 0.00000000
3.69302595 1.07667224 0.00182329 0.00000000
0.79401144 1.31860122 0.00392112 0.00000000
1.50510685 1.66492427 -0.00232443 0.00000000
0.57863516 0.77652505 0.00190758 0.00000000
1.16280724 1.10716642 0.00296015 0.00000000
3.34483260 0.72443030 -0.00340444 0.00000000
1.98859849 0.88127228 -0.00083949 0.00000000
0.40464997 0.43010296 -0.00491083 0.00000000
2.83410283 0.21579825 0.00391895 0.00000000
1.40845877 0.33294260 -0.00015847 0.00000000
3.04252247 1.08361182 -0.00005786 0.00000000
3.04389052 0.44916787 -0.00039045 0.00000000
3.60728393 1.01476200 -0.00308451 0.00000000
2.67096739 1.23169958 0.00662995 0.00000000
3.17001675 1.52287233 0.00060889 0.00000000
2.64145805 0.58173435 -0.00332193 0.00000000
4.07081189 0.60966400 0.00120103 0.00000000
2.79608286 0.09816821 -0.00073287 0.00000000
2.68061502 1.26265525 0.00290255 0.00000000
4.27974940 0.43867500 -0.00077684 0.00000000
3.02961094 1.11492806 -0.00357974 0.00000000
1.40046669 1.72311547 0.00162865 0.00000000
4.45848106 1.40168434 -0.00103088 0.00000000
0.96385092 0.97969906 0.00225497 0.00000000
2.23697563 0.24320866 -0.00320653 0.00000000
2.47380748 0.82387652 0.00221014 0.00000000
0.03827183 1.56945157 0.00046520 0.00000000
2.44009944 1.40593577 -0.00363513 0.00000000
4.65969773 0.48557673 -0.00237492 0.00000000
4.59112367 0.15432262 -0.00202545 0.00000000
4.47672382 0.54497447 -0.00058479 0.00000000
2.48271268 0.90967192 -0.00257092 0.00000000
2.47659965 0.20161534 0.00450267 0.00000000
0.00330635 1.29830358 0.00139911 0.00000000
3.93647628 1.32302937 -0.00162413 0.00000000
1.72896813 0.74556808 -0.00229222 0.00000000
0.34583473 0.02491190 -0.00288022 0.00000000
2.00154964 1.16464842 0.00340476 0.00000000
2.85034660 1.36169942 -0.00286669 0.00000000
1.85159091 1.29535419 -0.00353350 0.00000000
4.21283278 0.82377988 -0.00027483 0.00000000
1.95054414 0.42818257 0.00304729 0.00000000
4.00605596 0.77342832 -0.00470498 0.00000000
3.61877962 0.01342867 -0.00219261 0.00000000
1.57140717 1.35309594 0.00043564 0.00000000
3.58556969 0.33105536 -0.00054088 0.00000000
1.53832079 0.80917026 0.00430218 0.00000000
4.26266461 0.93664631 0.00207689 0.00000000
2.79765141 0.31346995 -0.00061460 0.00000000
1.96623127 0.67982995 0.00422021 0.00000000
3.27226467 1.29640605 0.00149132 0.00000000
1.75105642 0.98404047 0.00031404 0.00000000
1.32518637 1.62588050 0.00188258 0.00000000
2.94253379 1.49162644 0.00156682 0.00000000
4.19838152 1.28313187 0.00128590 0.00000000
0.36825145 1.25960622 0.00387318 0.00000000
0.80335416 0.15640615 -0.00127946 0.00000000
4.66370421 0.88056556 0.00163422 0.00000000
3.50342559 1.27852996 0.00227187 0.00000000
4.00865822 0.68487419 -0.00097135 0.00000000
3.76162952 1.16432204 0.00020264 0.00000000
4.00874789 0.93985195 -0.00423307 0.00000000
2.41357140 0.01803425 0.00490621 0.00000000
0.16816256 0.99591032 -0.00209360 0.00000000
1.79543829 0.44257820 0.00196708 0.00000000
3.22810935 1.19234966 -0.00205416 0.00000000
3.70276274 1.41975386 -0.00039098 0.00000000
4.63369405 0.51051836 0.00320530 0.00000000
2.03936040 0.34954320 0.00270809 0.00000000
3.98456713 1.52122411 0.00095539 0.00000000
1.48428856 1.03268481 0.00256569 0.00000000
2.34328173 0.14974546 0.00162941 0.00000000
3.14531247 1.27790906 -0.00016423 0.00000000
3.62319952 1.40728486 0.00427316 0.00000000
4.06874245 0.90685876 -0.00473078 0.00000000
3.43547218 0.22118271 -0.00234347 0.00000000
1.95431156 1.27835128 -0.00367161 0.00000000
3.30527970 1.67762965 0.00133842 0.00000000
0.69135664 0.76818228 -0.00266396 0.00000000
2.92905285 0.85867129 0.00008022 0.00000000
2.31963312 0.62938815 -0.00027112 0.00000000
3.65056089 1.35683647 0.00315361 0.00000000
1.49285196 0.66211635 0.00108593 0.00000000
1.82242952 0.65202555 0.00105582 0.00000000
0.66876039 1.48511763 -0.00220406 0.00000000
3.18089728 1.25808960 0.00114047 0.00000000
1.11841965 1.14092902 -0.00212753 0.00000000
0.20686906 0.23456544 0.00218465 0.00000000
2.21731665 0.29254842 -0.00164755 0.00000000
3.56420460 0.64589251 0.00118802 0.00000000
1.52555986 1.19077078 0.00356398 0.00000000
0.62003015 0.80431586 0.00059241 0.00000000
2.04880102 0.04381279 -0.00295157 0.00000000
2.89189113 0.33140797 0.00430046 0.00000000
0.13175016 0.27483550 -0.00078250 0.00000000
3.32915318 0.55472603 0.00140799 0.00000000
1.00784172 0.46744986 0.00028896 0.00000000
4.45363399 0.74196458 0.00411975 0.00000000
3.17389789 0.59592230 -0.00467658 0.00000000
1.76140384 0.66310305 -0.00062249 0.00000000
4.24269980 1.48415092 -0.00053992 0.00000000
2.62702146 1.66206705 0.00051698 0.00000000
0.32917566 1.28885331 0.00369104 0.00000000
2.70966798 1.37324674 -0.00397305 0.00000000
2.35577464 1.33892404 0.00336379 0.00000000
3.60774958 1.61632860 0.00179559 0.00000000
2.35482509 0.21320744 -0.00229799 0.00000000
3.32461602 1.68588564 0.00159177 0.00000000
4.40638435 0.26007495 -0.00143614 0.00000000
4.55847759 0.18008309 0.00262779 0.00000000
3.04013168 1.20925619 0.00146570 0.00000000
3.84884701 1.60262331 -0.00013173 0.00000000
2.66128755 0.67063345 0.00272585 0.00000000
1.68434230 1.45796072 -0.00059370 0.00000000
3.84322493 1.28537943 0.00042337 0.00000000
1.07284893 0.40535418 -0.00072232 0.00000000
3.49869136 1.39769429 0.00045856 0.00000000
0.11368757 0.74266256 0.00027062 0.00000000
2.82097413 0.24990383 0.00062519 0.00000000
3.91941080 1.24473989 -0.00031893 0.00000000
3.00353103 0.26225976 0.00312692 0.00000000
1.01281546 1.28002953 0.00194846 0.00000000
2.80328628 1.32474828 0.00056075 0.00000000
0.48116222 0.53102766 -0.00229424 0.00000000
1.68725730 1.00961215 0.00065044 0.00000000
2.83083300 0.65346290 -0.00123212 0.00000000
3.76817044 0.96566099 0.00094758 0.00000000
3.62390329 1.05716549 0.00415538 0.00000000
2.19563546 0.05458297 -0.00063708 0.00000000
3.53478521 0.89488574 -0.00138591 0.00000000
0.52978004 1.51449888 -0.00145730 0.00000000
1.37724080 1.62406801 0.00466659 0.00000000
2.15050484 1.67336197 -0.00014907 0.00000000
1.03085957 0.39041648 -0.00184735 0.00000000
4.26896976 0.85433685 0.00436367 0.00000000
0.36212288 1.10768193 -0.00294465 0.00000000
0.67866562 1.12623189 0.00333219 0.00000000
4.52959572 1.69211915 -0.00034156 0.00000000
3.17366378 0.43230667 0.00005076 0.00000000
4.17316153 0.94217152 0.00046102 0.00000000
4.39077488 1.31618954 0.00405780 0.00000000
0.99176600 0.76101213 0.00152219 0.00000000
4.29668006 0.84588267 0.00159241 0.00000000
2.00037540 0.84928393 0.00029106 0.00000000
2.16291855 1.60510816 0.00351194 0.00000000
2.69318208 0.62510739 0.00242490 0.00000000
3.26504634 1.63166539 0.00203882 0.00000000
4.57772616 0.18417886 0.00047551 0.00000000
2.93781194 0.11108526 0.00162423 0.00000000
1.49412013 1.46040814 0.00054574 0.00000000
2.59173041 0.74126759 -0.00002207 0.00000000
2.54481251 1.19641446 -0.00019997 0.00000000
0.40808470 0.22327755 0.00083046 0.00000000
0.16856908 0.65427332 0.00630588 0.00000000
1.78816585 0.06954675 -0.00288349 0.00000000
4.37343251 1.03880991 -0.00531836 0.00000000
4.45893209 0.14596093 0.00004122 0.00000000
2.57701534 0.95072456 0.00032650 0.00000000
4.12852579 0.05931529 -0.00042108 0.00000000
0.96283914 0.55942207 -0.00010401 0.00000000
0.27921053 1.52942091 0.00067746 0.00000000
2.55383932 1.29803475 0.00130241 0.00000000
0.84454356 1.28928736 -0.00258115 0.00000000
1.31610586 0.57633759 0.00147619 0.00000000
1.72378945 1.24486887 -0.00306580 0.00000000
3.74929482 0.23072227 -0.00447581 0.00000000
2.65351424 1.07749231 -0.00067083 0.00000000
3.44953097 0.49089344 0.00230462 0.00000000
2.81961301 0.03454781 0.00197385 0.00000000
0.30608240 0.18879964 -0.00025125 0.00000000
3.26574312 0.66857019 0.00441353 0.00000000
1.41970583 0.06044687 -0.00186703 0.00000000
2.20581321 0.41122876 -0.00153184 0.00000000
2.04799238 1.21641477 0.00447478 0.00000000
0.27612504 0.39034067 0.00272063 0.00000000
1.98261412 0.79691764 -0.00013448 0.00000000
1.29393798 0.61237459 0.00017755 0.00000000
0.89604593 1.44817923 0.00139932 0.00000000
1.81203063 0.40812781 -0.00136030 0.00000000
3.43873678 1.71113593 0.00023363 0.00000000
4.49601385 0.93469474 -0.00020442 0.00000000
1.96134342 1.33298434 -0.00443766 0.00000000
1.58354205 1.49955871 0.00258226 0.00000000
3.75055095 1.61214030 0.00103992 0.00000000
3.79303622 0.23693007 -0.00183395 0.00000000
2.81045318 0.50874198 -0.00156799 0.00000000
3.41560063 1.01109446 0.00157408 0.00000000
3.11219633 1.26424412 0.00124124 0.00000000
4.63223144 0.08556848 -0.00113008 0.00000000
4.20236026 0.52332102 -0.00001149 0.00000000
4.09510795 1.07698059 -0.00280562 0.00000000
2.05034042 1.04199631 0.00048631 0.00000000
2.93814421 0.87897030 0.00267759 0.00000000
2.66245413 0.85130390 -0.00004087 0.00000000
1.40360368 0.90284734 -0.00090051 0.00000000
0.59387400 0.84363871 -0.00058112 0.00000000
1.46628642 1.36531716 0.00189661 0.00000000
3.06763855 0.18270963 0.00146447 0.00000000
3.88703139 0.51617292 0.00024737 0.00000000
4.53384318 0.77044962 -0.00283065 0.00000000
1.27971887 0.72480803 0.00128385 0.00000000
0.88098171 1.30634521 -0.00478684 0.00000000
1.82661967 1.64958659 -0.00148750 0.00000000
1.45242125 0.05658805 -0.00234573 0.00000000
1.06503788 0.98142868 -0.00342784 0.00000000
3.62218319 0.28382016 -0.00322079 0.00000000
2.29796772 1.11482442 0.00257512 0.00000000
1.02500195 0.83287590 -0.00406760 0.00000000
4.48553144 1.23029545 -0.00098830 0.00000000
4.03436931 0.49442896 0.00228791 0.00000000
1.48924466 0.85802753 0.00480962 0.00000000
4.64723889 0.88936896 -0.00186896 0.00000000
3.02135102 1.46863993 -0.00249307 0.00000000
3.91551911 0.32399944 0.00201434 0.00000000
3.86504711 1.27386440 -0.00025335 0.00000000
1.08633763 1.62286761 -0.00419285 0.00000000
2.97506080 0.28714750 0.00426851 0.00000000
0.69833175 0.12317391 -0.00479206 0.00000000
2.30462344 0.52741457 0.00172841 0.00000000
3.47591279 1.43555677 0.00066461 0.00000000
4.27597645 0.26836252 0.00062027 0.00000000
3.51139604 0.84236318 0.00142244 0.00000000
2.06314561 0.49032917 0.00157977 0.00000000
4.58505996 1.11251822 0.00345101 0.00000000
0.51506491 1.05011433 -0.00338827 0.00000000
0.05199806 0.93005106 0.00293423 0.00000000
4.16153855 0.32866362 -0.00043479 0.00000000
2.86638460 0.68080439 0.00324853 0.00000000
3.24208286 0.77220151 -0.00338543 0.00000000
0.39223762 0.75158531 0.00448796 0.00000000
4.02429896 0.83251345 0.00113930 0.00000000
1.77918241 1.10408602 0.00288075 0.00000000
2.97179058 1.72305443 -0.00106169 0.00000000
0.40846459 1.69899038 0.00146568 0.00000000
1.98032705 0.34260973 -0.00377944 0.00000000
0.94576989 0.98217301 0.00115550 0.00000000
1.42781065 0.77754453 -0.00099892 0.00000000
2.34709924 0.96244822 -0.00047817 0.00000000
0.33860686 0.29328170 0.00077201 0.00000000
1.25921526 1.45737470 -0.00083304 0.00000000
1.78725564 0.65674523 0.00272956 0.00000000
4.27150272 1.02591237 0.00101247 0.00000000
3.24925643 1.55627033 -0.00028808 0.00000000
1.12683984 0.84399634 -0.00131147 0.00000000
3.90381342 1.35058088 0.00408380 0.00000000
1.24654274 0.52348064 0.00397161 0.00000000
3.85262949 0.12288492 -0.00004974 0.00000000
1.47444220 0.00434963 0.00104827 0.00000000
2.35370660 0.71449968 -0.00234529 0.00000000
2.52127697 0.20505505 0.00121273 0.00000000
3.21800051 1.15721133 0.00085445 0.00000000
4.26537415 0.12254742 -0.00593274 0.00000000
2.61486256 1.37380410 -0.00049316 0.00000000
3.02614177 1.28717639 -0.00234851 0.00000000
4.46606472 0.95992255 -0.00253355 0.00000000
1.02877327 1.60458170 0.00005056 0.00000000
0.47695715 1.68805527 -0.00383262 0.00000000
4.40717125 1.60694173 0.00304004 0.00000000
0.23239697 0.64195352 -0.00075438 0.00000000
4.25901403 1.51931708 -0.00108341 0.00000000
0.22664628 0.25874447 0.00047929 0.00000000
3.07961472 0.93172769 -0.00034960 0.00000000
0.26252893 0.83851999 -0.00230761 0.00000000
3.89620158 0.30246963 -0.00564967 0.00000000
0.49000023 0.02579770 -0.00407726 0.00000000
0.39935595 0.01105764 -0.00326691 0.00000000
2.04189067 0.33790299 0.00165846 0.00000000
2.20518169 1.25978657 0.00105672 0.00000000
3.98824346 1.45207393 0.00082690 0.00000000
0.42335601 1.57566065 0.00083171 0.00000000
2.41602344 1.23846662 -0.00100371 0.00000000
2.61757368 1.08686051 0.00161261 0.00000000
0.70531450 0.05025069 -0.00125651 0.00000000
0.34534310 0.72072016 -0.00432020 0.00000000
4.54927431 1.14432803 0.00165530 0.00000000
3.61178667 1.42499583 -0.00233019 0.00000000
4.04525548 0.97355246 -0.00196015 0.00000000
1.26807444 1.67497365 -0.00151333 0.00000000
3.32128774 0.94992062 -0.00426628 0.00000000
4.04047789 0.17870361 0.00225765 0.00000000
0.30134304 0.38990996 -0.00222743 0.00000000
4.20530740 0.75074422 0.00007772 0.00000000
3.27986584 1.45153733 -0.00112028 0.00000000
1.94260741 0.32556066 0.00294331 0.00000000
4.59038964 1.72532082 0.00265587 0.00000000
1.65651447 1.48748881 -0.00403383 0.00000000
1.02365740 1.56608650 -0.00301662 0.00000000
3.07532867 1.52421010 -0.00511019 0.00000000
3.25094456 0.50947022 -0.00426311 0.00000000
2.12856050 1.24608213 0.00141303 0.00000000
3.57099729 0.11663417 -0.00209435 0.00000000
3.89931826 1.46234160 0.00018967 0.00000000
1.92086501 0.05305397 -0.00284846 0.00000000
3.86884707 0.43821586 -0.00083946 0.00000000
2.74132762 1.66563938 0.00275529 0.00000000
0.13320660 0.96097855 -0.00025993 0.00000000
4.50930913 1.02019627 -0.00113516 0.00000000
2.91760217 1.68427672 -0.00511340 0.00000000
2.64599601 0.23918684 -0.00276079 0.00000000
4.66306999 0.70505343 -0.00101089 0.00000000
1.10435464 1.42465803 -0.00189485 0.00000000
0.20496635 0.87469582 -0.00107779 0.00000000
2.18965854 1.33141154 -0.00258655 0.00000000
4.04481311 0.54563831 0.00255231 0.00000000
2.15789281 1.25691506 0.00021447 0.00000000
1.04947998 0.67584052 0.00212933 0.00000000
3.28072530 1.42536237 0.00111839 0.00000000
3.92103883 1.31583651 0.00224740 0.00000000
4.35071558 0.91850070 -0.00157399 0.00000000
2.91841339 0.64065716 -0.00091222 0.00000000
3.58173418 0.27551939 -0.00440242 0.00000000
0.60269996 0.28008778 0.00394683 0.00000000
4.13772829 0.28876396 0.00037372 0.00000000
4.22621130 0.23649030 0.00072684 0.00000000
1.18884887 0.56151862 -0.00225818 0.00000000
2.88240169 0.60148136 -0.00137366 0.00000000
4.34974472 1.45099813 0.00019003 0.00000000
1.40546656 1.49914535 -0.00052784 0.00000000
1.95656901 1.23155166 0.00430788 0.00000000
3.72998157 0.21317837 0.00067551 0.00000000
2.52038641 1.32534022 0.00069419 0.00000000
1.96002189 0.04408989 -0.00084860 0.00000000
3.96692426 0.41982310 -0.00091101 0.00000000
0.76437081 1.25919847 -0.00046751 0.00000000
3.46677670 1.48697182 -0.00334639 0.00000000
1.20472117 1.48243897 -0.00156269 0.00000000
0.71496839 1.49026500 0.00035132 0.00000000
3.60480035 1.12673606 0.00067571 0.00000000
3.78712734 1.39196333 -0.00046693 0.00000000
3.53120961 0.59864691 -0.00373145 0.00000000
2.95382923 0.59906577 -0.00233092 0.00000000
2.25371514 0.00728243 0.00163310 0.00000000
2.30148542 0.53728166 0.00426020 0.00000000
0.06636323 1.65723673 0.00330097 0.00000000
2.20130052 1.68828934 -0.00129756 0.00000000
4.38661094 1.46506707 0.00407442 0.00000000
3.63218096 0.45201449 0.00111693 0.00000000
4.48244908 0.56140980 0.00350364 0.00000000
0.03583146 1.66604995 -0.00028543 0.00000000
2.65478563 0.81278961 -0.00308698 0.00000000
1.27350975 0.61832750 -0.00242055 0.00000000
4.48019651 1.03615402 0.00373374 0.00000000
3.58684153 0.99952696 0.00055990 0.00000000
1.07427289 1.02583678 0.00518584 0.00000000
1.05401247 1.44095609 0.00298415 0.00000000
1.65665522 0.61540884 0.00092712 0.00000000
3.19217500 1.31865664 0.00213315 0.00000000
0.61071758 1.19643728 -0.00034035 0.00000000
0.86494532 0.87409094 0.00094184 0.00000000
3.12370424 0.98634191 0.00289541 0.00000000
1.12133685 0.80897815 0.00296141 0.00000000
3.55102022 1.09361925 0.00298028 0.00000000
4.39038674 1.35075840 0.00110269 0.00000000
1.99367051 0.25161877 -0.00136422 0.00000000
1.55183749 1.43841851 0.00174241 0.00000000
1.51858716 1.04093900 0.00017229 0.00000000
0.11302964 0.07483168 -0.00234588 0.00000000
2.97403663 1.21713869 -0.00037112 0.00000000
4.35456279 0.63099430 -0.00596537 0.00000000
4.41840661 0.42966814 0.00032534 0.00000000
1.67432005 0.18163877 0.00439605 0.00000000
0.51577877 0.22654655 0.00003939 0.00000000
1.47483368 1.11786150 -0.00057441 0.00000000
1.65381241 1.70434434 -0.00052399 0.00000000
0.82494861 0.47939940 -0.00229099 0.00000000
2.18512902 0.86450173 0.00167136 0.00000000
0.40742182 0.87393662 0.00122595 0.00000000
3.78199282 0.87509426 0.00218815 0.00000000
0.31044554 0.74383556 -0.00291415 0.00000000
2.71531983 0.99996491 0.00150394 0.00000000
0.87141280 0.69975550 -0.00028389 0.00000000
1.30352019 0.31326000 0.00029147 0.00000000
3.67515627 0.30687712 -0.00081610 0.00000000
3.93100811 1.36233975 -0.00145452 0.00000000
3.05042031 0.11215327 -0.00104340 0.00000000
0.35806845 0.22736956 -0.00235389 0.00000000
1.97901016 1.40477090 -0.00123792 0.00000000
3.37590189 0.52046310 -0.00197200 0.00000000
2.81770585 0.46561336 0.00091112 0.00000000
1.52350557 1.29853245 0.00070764 0.00000000
2.74805832 1.36149005 0.00102092 0.00000000
0.76659815 1.53405277 0.00122151 0.00000000
0.06214362 1.27187536 -0.00005169 0.00000000
2.42154958 1.04479557 -0.00292248 0.00000000
1.99750661 0.64281613 -0.00237261 0.00000000
3.02480599 0.67832739 0.00320788 0.00000000
4.20697455 1.13468229 -0.00254820 0.00000000
3.89840292 0.42152558 -0.00026374 0.00000000
3.94962710 0.09236103 0.00227049 0.00000000
3.89886273 0.81086184 -0.00183016 0.00000000
0.91283134 0.11986327 0.00051699 0.00000000
1.23328317 1.21700069 -0.00455847 0.00000000
2.47755641 1.39067161 -0.00018990 0.00000000
3.46632777 1.08446399 0.00299722 0.00000000
1.93105435 0.83496764 -0.00127589 0.00000000
1.66489776 1.01270740 -0.00110064 0.00000000
3.79521738 0.70995806 0.00005093 0.00000000
4.37262405 0.95065767 -0.00240914 0.00000000
2.77778014 0.78781537 -0.00249638 0.00000000
0.65556598 0.77854052 0.00085914 0.00000000
2.75980013 0.80875758 -0.00205034 0.00000000
0.97169063 0.14667569 0.00048188 0.00000000
2.56194732 0.75839129 0.00377923 0.00000000
0.39082439 0.23507658 -0.00229671 0.00000000
0.42151439 1.30104610 0.00059094 0.00000000
2.51645589 0.89213238 0.00081476 0.00000000
3.32240792 0.67095042 -0.00155203 0.00000000
0.88101153 1.22033057 0.00031684 0.00000000
0.35434233 1.49310357 -0.00057324 0.00000000
2.40407765 1.21590706 0.00156314 0.00000000
1.12929078 0.25564455 -0.00101842 0.00000000
2.82290566 0.63515306 0.00212673 0.00000000
3.02562178 1.26176744 -0.00323805 0.00000000
2.42635410 0.67697327 -0.00526273 0.00000000
2.36602598 0.08660493 -0.00122562 0.00000000
3.26598756 1.21500068 0.00200533 0.00000000
2.28520707 0.96077298 -0.00132969 0.00000000
3.49950406 0.98538594 -0.00080016 0.00000000
2.47176130 0.16914946 0.00066716 0.00000000
1.18084595 1.61591614 -0.00297911 0.00000000
2.31882908 1.18583544 -0.00244881 0.00000000
0.37772315 0.39605769 0.00149266 0.00000000
3.37911400 0.64482949 0.00174464 0.00000000
1.76819075 0.75545031 0.00066290 0.00000000
2.35317537 1.53205490 -0.00174895 0.00000000
0.93158471 1.53355737 -0.00261064 0.00000000
1.44751595 1.62022504 -0.00393655 0.00000000
4.48544067 0.77358162 -0.00116239 0.00000000
3.39922387 1.02077562 -0.00231379 0.00000000
4.17929336 0.09531100 -0.00311074 0.00000000
2.50369587 1.45490385 -0.00113241 0.00000000
4.55991862 1.45309333 -0.00267272 0.00000000
0.36035934 0.09729872 0.00407584 0.00000000
1.48072763 1.57668899 0.00200618 0.00000000
0.43491258 1.08725468 0.00248897 0.00000000
2.04538311 1.45020869 0.00007590 0.00000000
3.53466068 0.00800546 0.00070225 0.00000000
4.55547441 0.51735877 -0.00250292 0.00000000
1.62074865 1.33326257 0.00482441 0.00000000
2.52305870 1.14813039 0.00405078 0.00000000
0.10432325 0.85025370 0.00195845 0.00000000
2.06867611 0.93659133 0.00165104 0.00000000
1.33016421 0.83736753 -0.00225592 0.00000000
1.01942091 0.10503904 -0.00255201 0.00000000
1.37481343 0.05965912 -0.00048057 0.00000000
2.67189903 1.04007137 0.00084126 0.00000000
3.15331421 1.08966722 0.00054567 0.00000000
0.36750429 0.11906184 -0.00016419 0.00000000
1.56891172 0.89468795 0.00077025 0.00000000
3.96793544 1.24515007 -0.00159739 0.00000000
4.12218482 1.29536519 0.00013297 0.00000000
1.98933334 1.42994030 -0.00127476 0.00000000
3.66203884 0.36186686 -0.00170911 0.00000000
1.75102151 0.50151957 0.00404612 0.00000000
0.36211796 0.37362829 0.00004941 0.00000000
3.20198140 1.30999398 -0.00023474 0.00000000
2.25510488 1.00527881 0.00269988 0.00000000
2.86202979 0.90559120 0.00108039 0.00000000
3.76089099 0.32620520 -0.00258035 0.00000000
0.21764666 1.62506437 -0.00209423 0.00000000
4.29341303 1.31487102 -0.00179424 0.00000000
3.88671951 0.66020830 0.00095382 0.00000000
2.86387629 1.09725926 -0.00547043 0.00000000
4.01745359 0.71163882 -0.00303807 0.00000000
3.48124215 1.43615651 -0.00105771 0.00000000
3.82734558 0.48053686 -0.00044617 0.00000000
4.41736101 0.87418364 -0.00129346 0.00000000
2.27355397 0.64454799 0.00077013 0.00000000
2.08723374 1.64575983 0.00175444 0.00000000
0.13781547 0.99485237 -0.00127905 0.00000000
0.95384814 0.08159478 -0.00084720 0.00000000
4.64546448 0.20310753 -0.00431888 0.00000000
1.08213517 0.44367469 -0.00275176 0.00000000
1.85188653 1.04481636 -0.00179099 0.00000000
1.44831264 0.58587104 -0.00547537 0.00000000
2.38934373 1.11252140 -0.00291294 0.00000000
2.25233726 1.35815754 -0.00146179 0.00000000
4.07043085 1.16614115 0.00165184 0.00000000
3.57256014 0.15673080 0.00186917 0.00000000
2.86258635 0.78405038 -0.00164099 0.00000000
3.26201578 0.94352147 -0.00137244 0.00000000
0.82089259 1.31866907 0.00152700 0.00000000
0.73867151 0.51516858 -0.00119515 0.00000000
4.20187795 1.15539580 -0.00352326 0.00000000
3.70292729 0.11089210 -0.00070110 0.00000000
3.73834134 0.82581424 0.00407874 0.00000000
1.06734547 1.54574502 -0.00030367 0.00000000
1.17017860 1.49952429 0.00447925 0.00000000
3.19473811 0.70536108 -0.00349008 0.00000000
2.50754933 0.80475374 -0.00022432 0.00000000
3.89880116 0.31223634 0.00016717 0.00000000
2.14430526 0.27539388 -0.00047655 0.00000000
1.82625924 0.27854590 0.00214789 0.00000000
1.69818819 1.07265069 0.00206114 0.00000000
3.44034941 1.61636069 -0.00207632 0.00000000
3.39700987 1.69614639 0.00129914 0.00000000
4.40736489 0.72032857 0.00060643 0.00000000
0.29388549 0.24047765 -0.00141507 0.00000000
3.62852753 1.24789308 0.00130352 0.00000000
0.83353449 1.41583917 0.00216112 0.00000000
4.25314787 0.41814664 0.00152789 0.00000000
1.98938896 1.08257612 -0.00040564 0.00000000
0.22726169 1.06732771 0.00101182 0.00000000
2.10320487 0.64220616 -0.00059930 0.00000000
0.96419491 0.64217233 0.00088129 0.00000000
4.34668593 0.14123646 0.00278048 0.00000000
0.08155269 1.63624041 -0.00262900 0.00000000
3.25724397 0.88777856 -0.00204805 0.00000000
2.99807382 0.41417719 0.00234045 0.00000000
4.62527351 0.73535534 0.00323903 0.00000000
0.09747215 0.26526381 0.00117032 0.00000000
1.72750530 0.32340161 -0.00016936 0.00000000
2.93331264 1.35493585 0.00280137 0.00000000
0.32826907 0.38993204 -0.00567683 0.00000000
1.88590073 1.12950522 -0.00211117 0.00000000
2.05842454 1.72287575 0.00307423 0.00000000
2.73696398 1.67850149 -0.00030400 0.00000000
3.03370292 1.03078311 -0.00096047 0.00000000
4.32224888 1.68532598 -0.00183515 0.00000000
4.47276836 0.71721252 -0.00133462 0.00000000
1.14355299 0.71054846 -0.00084341 0.00000000
3.02725108 1.65367723 -0.00226123 0.00000000
2.50303884 0.24544755 -0.00016731 0.00000000
3.60339568 0.23366066 0.00163919 0.00000000
1.09185680 1.52516154 0.00137246 0.00000000
4.12789420 1.30719005 -0.00029822 0.00000000
0.33333763 0.82345045 -0.00052350 0.00000000
4.46578723 0.25222316 -0.00310560 0.00000000
0.19767605 1.35496676 0.00039398 0.00000000
0.94939729 1.30893073 -0.00162777 0.00000000
0.50592303 0.53979301 0.00166426 0.00000000
2.57828140 1.50749146 -0.00084913 0.00000000
4.59902928 0.58171034 -0.00052020 0.00000000
0.03361156 1.19217915 -0.00403021 0.00000000
0.40843452 1.50457953 -0.00213474 0.00000000
2.33334351 0.29667486 0.00271139 0.00000000
1.07739836 0.40344804 -0.00201849 0.00000000
4.19899223 1.29701657 0.00169534 0.00000000
2.90319755 1.19458650 0.00260594 0.00000000
2.43177316 1.12385697 0.00062120 0.00000000
1.76859872 1.71720333 -0.00046375 0.00000000
1.28327217 0.67120942 -0.00101894 0.00000000
1.28072328 0.65366809 0.00089553 0.00000000
1.88381419 0.20776324 -0.00039566 0.00000000
1.11905107 1.36734460 0.00083136 0.00000000
0.07948184 1.09650748 -0.00050288 0.00000000
1.74089552 1.08897324 -0.00179055 0.00000000
3.94105568 1.40375775 0.00568456 0.00000000
3.27114623 1.53521354 0.00105686 0.00000000
4.10379751 1.32479497 -0.00168336 0.00000000
3.86726472 0.05914710 0.00142122 0.00000000
3.43504474 1.53442755 0.00280973 0.00000000
1.21325165 1.19912238 -0.00064791 0.00000000
1.19265982 0.31330244 -0.00093466 0.00000000
2.10712555 1.45289834 -0.00339255 0.00000000
2.92115339 1.07879637 -0.00248900 0.00000000
4.61431079 0.18634330 0.00211509 0.00000000
4.54023699 1.24660697 -0.00129447 0.00000000
2.27873877 1.16625544 -0.00073476 0.00000000
2.53322235 0.80094287 0.00198004 0.00000000
3.45695565 0.91699697 0.00273466 0.00000000
1.25620257 1.02473768 0.00357723 0.00000000
2.19506593 1.32786769 -0.00543520 0.00000000
1.92940074 0.18644736 -0.00021795 0.00000000
1.21832979 0.77648680 0.00077942 0.00000000
3.88397970 0.26794380 0.00055278 0.00000000
3.32706577 1.62129508 -0.00063022 0.00000000
2.89520406 0.74878681 0.00352637 0.00000000
1.33549844 1.56443289 0.00027451 0.00000000
1.17456782 0.12428980 -0.00324928 0.00000000
3.04849815 0.92698748 0.00195318 0.00000000
1.33621713 1.55881423 0.00434559 0.00000000
1.47626159 1.54072681 0.00004439 0.00000000
3.30617087 1.24462452 -0.00023200 0.00000000
1.89505419 0.10366332 0.00284372 0.00000000
4.55611884 1.66664860 0.00140214 0.00000000
1.64645104 1.50288074 -0.00046322 0.00000000
1.97304814 0.91049616 -0.00335970 0.00000000
4.61636256 1.06870445 -0.00033698 0.00000000
0.93988998 0.43291280 -0.00539060 0.00000000
2.76942074 1.28865310 -0.00084544 0.00000000
2.07754555 0.22734272 -0.00302207 0.00000000
3.96655398 0.87422484 0.00203919 0.00000000
0.53155961 0.68038770 -0.00362421 0.00000000
2.62398805 1.42352349 -0.00766532 0.00000000
0.54707462 0.54969591 0.00277088 0.00000000
1.44076131 1.45876412 -0.00535252 0.00000000
1.36994374 0.26284086 0.00060329 0.00000000
0.77979654 1.34224726 0.00137975 0.00000000
4.29104684 1.02263669 -0.00042157 0.00000000
0.19729151 0.74956037 0.00363723 0.00000000
0.32963776 0.90720593 -0.00006436 0.00000000
2.91097726 1.64183478 0.00075771 0.00000000
4.24292099 1.54930514 -0.00647997 0.00000000
3.83119234 1.56947010 0.00010671 0.00000000
2.32061692 0.65246890 -0.00652869 0.00000000
3.17312504 0.37041062 -0.00102215 0.00000000
2.69593712 0.63358711 -0.00127023 0.00000000
4.07883712 0.87591379 -0.00188975 0.00000000
4.03561422 1.26467928 -0.00192493 0.00000000
2.63867358 0.23959434 0.00293144 0.00000000
0.31987246 0.04296674 0.00078773 0.00000000
4.13336339 0.38496934 0.00106725 0.00000000
0.15453596 0.19763563 -0.00532104 0.00000000
0.33863205 0.84847270 -0.00017068 0.00000000
1.50174230 1.45118562 0.00081676 0.00000000
3.51947479 1.69019322 -0.00065865 0.00000000
4.06608078 1.48166369 -0.00382936 0.00000000
0.68408551 0.00720332 0.00002080 0.00000000
3.05917690 1.20514671 0.00299261 0.00000000
2.47315416 1.39930356 -0.00000763 0.00000000
0.50688526 0.03005928 0.00042024 0.00000000
0.29735963 0.93087092 0.00161857 0.00000000
3.11939356 0.08204126 -0.00097820 0.00000000
0.49597049 0.53645329 -0.00344496 0.00000000
0.21027668 1.27104218 -0.00055746 0.00000000
1.65999682 0.80758606 0.00101160 0.00000000
2.05985488 0.99945555 0.00242570 0.00000000
1.06217982 0.07280496 -0.00141395 0.00000000
0.61111481 0.32732691 0.00110740 0.00000000
0.71028349 1.12587242 0.00284058 0.00000000
3.71290227 1.72011727 0.00071007 0.00000000
0.75031544 0.82493529 0.00065053 0.00000000
0.31704792 1.49546570 -0.00033640 0.00000000
4.60012270 0.29516119 -0.00039018 0.00000000
0.07871536 1.26478564 0.00020720 0.00000000
2.95544059 1.29419735 -0.00045076 0.00000000
1.80783179 1.55008392 0.00095051 0.00000000
2.77051449 0.29282149 0.00601030 0.00000000
1.73787745 1.53126259 -0.00074359 0.00000000
4.66674322 0.91551051 0.00195178 0.00000000
2.92276884 1.35836601 -0.00317434 0.00000000
4.17594227 0.08982677 -0.00036602 0.00000000
1.75484756 0.55614007 0.00374303 0.00000000
0.46981303 1.12931382 0.00423876 0.00000000
1.13054417 1.15794210 -0.00378065 0.00000000
1.32657620 1.01498542 0.00396080 0.00000000
1.31474472 0.54242673 -0.00010849 0.00000000
3.14108440 0.29153862 -0.00151681 0.00000000
2.69053179 0.56025294 0.00419265 0.00000000
1.12843549 0.44420258 -0.00021643 0.00000000
0.25847464 0.56932307 0.00210967 0.00000000
1.82821040 0.76994230 0.00053568 0.00000000
0.45121225 0.02457821 -0.00147011 0.00000000
1.98284494 0.68179747 0.00196476 0.00000000
0.11036166 0.72875478 -0.00101558 0.00000000
3.62407986 0.62630005 -0.00078522 0.00000000
2.40261696 0.82475274 0.00287778 0.00000000
1.15656267 0.11197982 0.00062969 0.00000000
4.47921486 0.27454648 -0.00356837 0.00000000
1.31791727 0.98466707 0.00612144 0.00000000
1.87706631 0.61791098 -0.00176655 0.00000000
3.63774597 0.56098205 0.00295012 0.00000000
4.34922067 0.52925364 -0.00168459 0.00000000
2.55060838 0.94410336 0.00219281 0.00000000
0.47571246 0.72870410 -0.00089476 0.00000000
1.08188657 0.33706743 0.00103686 0.00000000
3.54425561 1.13648261 -0.00128559 0.00000000
3.00384912 0.25614961 0.00233735 0.00000000
0.26651311 1.01697006 0.00092976 0.00000000
3.95434866 1.29953237 0.00062233 0.00000000
1.87405122 1.04826849 -0.00209525 0.00000000
1.96677028 0.76155258 0.00074289 0.00000000
1.43442746 1.64245928 -0.00137287 0.00000000
4.02964406 1.37992020 -0.00539590 0.00000000
4.32255003 0.07163235 -0.00151203 0.00000000
2.52762623 1.02309774 -0.00174728 0.00000000
4.55443414 1.33278889 0.00544965 0.00000000
4.37571032 0.10909862 0.00019791 0.00000000
4.63374320 1.71447441 0.00576952 0.00000000
3.50648573 0.12814432 0.00175616 0.00000000
0.52203291 1.66950924 -0.00170150 0.00000000
2.29787949 1.69388012 0.00501054 0.00000000
2.47391250 0.37480922 -0.00408462 0.00000000
4.52047655 0.21450325 -0.00192428 0.00000000
1.77236900 1.33333209 0.00407180 0.00000000
2.10967187 0.76662678 -0.00072542 0.00000000
3.28366024 0.35807262 0.00030918 0.00000000
2.08380504 1.38359573 0.00528125 0.00000000
3.09910380 0.51987093 -0.00056012 0.00000000
1.62404875 0.85640409 -0.00010413 0.00000000
0.44237319 0.39375265 0.00106818 0.00000000
1.07671825 0.54356424 0.00420372 0.00000000
0.43207796 1.18937795 0.00293999 0.00000000
1.02220073 0.76096531 0.00105256 0.00000000
2.33299365 0.88913047 -0.00290201 0.00000000
3.83272051 1.57319080 0.00209385 0.00000000
1.18309178 0.04742925 -0.00076599 0.00000000
0.81731907 1.71030833 0.00163594 0.00000000
3.62828422 1.47587768 0.00253344 0.00000000
4.21843146 0.79303036 0.00066014 0.00000000
4.28296824 1.21658037 -0.00239300 0.00000000
1.56969107 0.41400862 0.00401355 0.00000000
1.92906519 0.63202548 -0.00186483 0.00000000
4.16036759 0.81043887 -0.00041817 0.00000000
3.69283432 0.50613045 -0.00277290 0.00000000
0.54631308 1.51051701 -0.00207551 0.00000000
3.10723053 1.25149411 -0.00281029 0.00000000
3.51630053 0.09203166 0.00485956 0.00000000
4.33127495 1.04099233 -0.00163601 0.00000000
1.09468086 1.30008413 0.00104345 0.00000000
0.28940232 1.03003311 -0.00173128 0.00000000
1.37459158 1.50128051 -0.00229988 0.00000000
3.51754096 0.36937309 -0.00291716 0.00000000
1.67153134 0.48600172 -0.00310930 0.00000000
2.23014124 0.09986906 0.00325869 0.00000000
1.77669335 0.81936221 -0.00220170 0.00000000
3.10506039 0.75341803 0.00149252 0.00000000
4.12629328 0.66765288 0.00047902 0.00000000
1.64734395 1.63771788 0.00083648 0.00000000
0.47519573 0.20148910 -0.00207313 0.00000000
0.45873717 0.92413120 -0.00066258 0.00000000
3.01839576 0.18770172 -0.00308953 0.00000000
1.55452469 0.44495906 -0.00210518 0.00000000
0.24660811 1.63284317 -0.00280712 0.00000000
4.18525638 1.67953349 0.00379009 0.00000000
3.44942212 1.31234081 0.00062857 0.00000000
0.37080723 0.48162810 -0.00036648 0.00000000
3.46228346 1.20283498 0.00098383 0.00000000
1.09650134 0.33072423 0.00295549 0.00000000
3.63661403 1.64833058 -0.00230173 0.00000000
4.35868841 0.52493462 0.00160073 0.00000000
0.22884578 0.11868436 -0.00097318 0.00000000
0.88498259 0.44686092 0.00085438 0.00000000
0.79374165 0.62635571 -0.00090380 0.00000000
4.14142612 1.56422654 0.00023962 0.00000000
4.62366514 0.58035702 0.00147580 0.00000000
4.58864262 0.54148489 -0.00006699 0.00000000
4.55709684 0.65665993 -0.00273991 0.00000000
2.79676820 1.39169860 0.00282484 0.00000000
0.12949753 0.11401934 0.00161094 0.00000000
2.86599570 0.94668527 -0.00455681 0.00000000
4.18440150 0.79941919 -0.00327603 0.00000000
1.70911478 0.61186422 0.00017855 0.00000000
3.60753106 1.44259134 0.00172882 0.00000000
1.20084882 1.37370235 -0.00046508 0.00000000
0.63736587 0.82143869 -0.00128799 0.00000000
2.44436886 0.02728212 0.00247465 0.00000000
3.52710646 0.38094933 -0.00243107 0.00000000
2.52992670 1.19095575 0.00213252 0.00000000
4.34416112 1.28536528 -0.00515135 0.00000000
3.96897916 1.10287544 -0.00192121 0.00000000
2.59968742 0.82239211 0.00730606 0.00000000
2.51988536 0.22553233 -0.00379123 0.00000000
2.43922665 0.65921959 0.00205311 0.00000000
1.03837045 0.26403462 -0.00363173 0.00000000
2.48823834 0.06499650 0.00331021 0.00000000
1.47007194 0.64573638 -0.00100352 0.00000000
0.75728740 0.51080517 0.00196109 0.00000000
2.44543158 0.01783855 0.00122097 0.00000000
2.06638405 0.12665373 -0.00196875 0.00000000
0.23775362 1.59295686 -0.00347338 0.00000000
3.30663803 1.32594343 0.00072267 0.00000000
1.48773227 0.91766559 -0.00129943 0.00000000
3.90889933 0.08799219 -0.00247016 0.00000000
4.31510403 1.47570626 0.00297747 0.00000000
0.97715667 0.97724572 0.00217294 0.00000000
3.72374901 0.48036300 0.00028915 0.00000000
4.17080949 0.80220186 0.00019241 0.00000000
2.28977642 1.00783789 -0.00053595 0.00000000
4.13969044 0.12320825 -0.00056726 0.00000000
3.99349211 0.51428231 -0.00058270 0.00000000
0.49189012 1.66665816 -0.00418063 0.00000000
1.53296706 1.46115291 -0.00049802 0.00000000
1.72261434 0.01288091 0.00151707 0.00000000
3.87508512 0.16981162 0.00011019 0.00000000
0.53244300 1.21865581 0.00131842 0.00000000
0.00498589 0.19307875 0.00097577 0.00000000
0.33290477 0.81315506 0.00131901 0.00000000
0.11937890 0.45609609 -0.00240353 0.00000000
1.07194837 1.40664967 0.00149177 0.00000000
0.90485462 0.88727619 -0.00676423 0.00000000
3.47315837 1.69544366 0.00035221 0.00000000
0.71070298 0.16711123 -0.00404845 0.00000000
2.37361872 0.19019933 -0.00015748 0.00000000
0.60397046 0.64183955 0.00323172 0.00000000
0.66023453 1.51017669 0.00026420 0.00000000
2.39039808 1.55825604 -0.00251480 0.00000000
1.93516045 0.67419103 -0.00200535 0.00000000
1.47727405 0.76679001 0.00621280 0.00000000
1.90538667 0.09499578 -0.00296697 0.00000000
3.13086904 0.56680902 0.00134404 0.00000000
3.60707945 0.37013986 -0.00183500 0.00000000
2.52151331 0.95303588 -0.00185695 0.00000000
0.26255235 0.31018512 0.00172087 0.00000000
0.24741413 0.82676692 -0.00364817 0.00000000
1.79238918 0.32480041 -0.00086429 0.00000000
1.19846489 1.35153012 -0.00139006 0.00000000
2.84901881 0.44867305 0.00332756 0.00000000
1.44924203 0.70547645 0.00173368 0.00000000
3.51046467 1.68651082 0.00022348 0.00000000
2.29979141 1.31319368 -0.00000284 0.00000000
1.74153017 0.48901891 0.00182915 0.00000000
0.02934970 1.62487984 0.00189329 0.00000000
1.79327290 1.51851174 0.00154494 0.00000000
3.27574959 1.39393733 0.00063847 0.00000000
1.53805530 0.59315459 0.00069874 0.00000000
1.23319125 0.10313947 0.00056080 0.00000000
0.49745822 0.97701291 -0.00046430 0.00000000
3.67486029 0.25397683 0.00270502 0.00000000
0.66923144 0.91998464 -0.00082284 0.00000000
3.19498682 0.98643402 -0.00089462 0.00000000
4.63316450 1.24373090 0.00319711 0.00000000
1.99711489 0.94229113 -0.00232427 0.00000000
0.56743213 0.37834866 0.00159515 0.00000000
3.02774861 1.04373648 -0.00145800 0.00000000
3.18528115 1.30241372 -0.00104424 0.00000000
3.39841839 1.26062963 0.00159700 0.00000000
3.63580206 1.09200378 0.00241933 0.00000000
1.48184398 0.25804970 -0.00002606 0.00000000
0.60031700 1.44498267 0.00166253 0.00000000
2.31788004 0.33995061 0.00220776 0.00000000
0.99363312 0.95201966 0.00572823 0.00000000
0.87142164 0.49686988 0.00161759 0.00000000
2.21449729 1.71875738 -0.00215481 0.00000000
4.33758607 0.60546312 0.00422765 0.00000000
2.76156879 1.71505248 -0.00332136 0.00000000
2.82745795 0.31691118 0.00009814 0.00000000
1.62117872 0.72255654 -0.00076059 0.00000000
3.28616237 0.59387538 0.00223380 0.00000000
0.55901107 1.36164504 -0.00231154 0.00000000
2.21547092 1.22705953 0.00173459 0.00000000
1.32818608 1.58110038 -0.00078824 0.00000000
3.29132991 0.46457278 0.00188010 0.00000000
4.51424586 0.92601476 -0.00388781 0.00000000
4.25955549 1.00963947 0.00119667 0.00000000
1.83589410 1.28916210 0.00237885 0.00000000
1.30385110 0.91756410 -0.00286876 0.00000000
