1.689893 1.679549 -0.001345 0.0
2.617090 0.583091 0.000597 0.0
1.269258 1.040711 -0.000577 0.0
0.004467 0.147252 0.000577 0.0
1.469643 0.020463 0.004310 0.0
2.192338 1.356755 0.000462 0.0
1.999930 1.194341 -0.002165 0.0
2.127375 2.116585 0.002378 0.0
1.061821 0.562331 -0.001739 0.0
2.053545 1.272592 0.005009 0.0
2.450577 1.457655 -0.001513 0.0
2.797766 0.125743 -0.001296 0.0
3.780467 0.347151 -0.004488 0.0
0.712842 0.696781 0.000661 0.0
2.504977 1.422741 0.002089 0.0
1.213535 0.222765 -0.000481 0.0
2.593273 1.111854 0.000644 0.0
1.648742 1.631230 -0.001965 0.0
1.609447 0.256746 0.001423 0.0
1.168965 0.028047 0.002817 0.0
0.385120 0.590873 0.004831 0.0
2.494253 0.903059 0.003481 0.0
0.256813 0.447119 -0.002708 0.0
1.706168 1.890053 -0.001585 0.0
1.439073 0.689644 -0.002798 0.0
1.210265 1.683603 -0.001890 0.0
1.544801 1.162428 0.004244 0.0
0.309554 1.597153 0.001631 0.0
2.316968 1.109843 0.001436 0.0
1.349693 1.227339 -0.000013 0.0
0.474027 0.299534 0.002993 0.0
0.165704 0.022185 -0.004057 0.0
3.229926 1.166934 0.000083 0.0
3.452090 1.341290 -0.000095 0.0
3.459578 1.847134 -0.000922 0.0
0.192087 0.900918 -0.002607 0.0
0.605622 1.038133 0.001993 0.0
2.531468 1.464013 -0.003993 0.0
0.432098 1.565453 0.000589 0.0
1.529008 0.472365 0.001708 0.0
2.747867 0.440270 -0.000165 0.0
2.371043 0.637760 0.000566 0.0
3.549752 1.187976 -0.002340 0.0
1.006484 0.603510 0.000271 0.0
4.179076 1.340754 -0.003001 0.0
4.156192 2.143829 0.002137 0.0
4.277812 0.029953 0.001961 0.0
2.385168 0.765709 -0.002037 0.0
0.414966 0.821538 -0.000789 0.0
0.654952 1.532695 -0.003031 0.0
3.462445 1.427377 -0.000156 0.0
0.485501 0.235970 0.002202 0.0
2.297324 0.087311 -0.001598 0.0
0.665757 1.795986 -0.004129 0.0
2.925924 1.796083 -0.000888 0.0
2.017669 1.711427 -0.001804 0.0
0.314069 0.779717 0.004434 0.0
3.516379 1.561699 -0.002409 0.0
3.814818 1.085053 0.002272 0.0
2.003132 0.622742 0.000409 0.0
0.220265 1.040428 0.001805 0.0
1.497074 0.269184 0.001008 0.0
2.591306 1.376163 -0.002401 0.0
3.827684 2.176358 -0.001537 0.0
4.134160 0.521172 0.000701 0.0
1.165576 0.975427 -0.004410 0.0
2.196703 1.727165 0.003217 0.0
0.518853 2.086824 -0.000460 0.0
3.098048 0.228541 0.001449 0.0
0.673796 0.232517 0.000128 0.0
2.976135 1.112965 -0.000431 0.0
2.127541 2.099325 0.001527 0.0
2.245958 0.841017 -0.003658 0.0
3.324218 2.199837 0.000080 0.0
2.175252 0.177074 -0.001416 0.0
3.386483 1.571112 0.001212 0.0
1.202667 2.184798 -0.000958 0.0
1.042398 1.550361 0.001912 0.0
1.032626 0.122895 -0.000255 0.0
1.491158 0.088315 -0.001936 0.0
0.221663 1.938099 0.000063 0.0
0.872454 0.902147 0.000297 0.0
0.972758 1.247446 -0.000027 0.0
0.839305 1.945088 -0.001279 0.0
1.278385 1.219029 0.002814 0.0
2.408592 1.572642 0.001415 0.0
1.838283 1.996921 0.001763 0.0
0.001898 1.558902 0.000100 0.0
0.804269 0.267756 0.001730 0.0
3.891024 1.829896 -0.000225 0.0
1.053355 2.059931 -0.003455 0.0
3.487035 1.540707 0.001503 0.0
2.380014 1.951072 -0.001036 0.0
1.543349 0.892714 -0.003631 0.0
2.346678 0.196430 -0.001900 0.0
1.325933 0.513429 0.003064 0.0
2.341143 1.810281 0.004860 0.0
3.018752 1.061579 -0.001303 0.0
1.611108 0.384286 -0.002272 0.0
0.864375 0.570684 -0.003883 0.0
3.406384 1.998986 -0.003365 0.0
2.052732 0.718352 0.003792 0.0
3.085653 0.862148 -0.002208 0.0
0.195674 2.141343 -0.001158 0.0
1.567778 2.118468 -0.000910 0.0
0.558855 2.133866 0.000646 0.0
2.369362 1.889898 0.001087 0.0
1.963417 0.073265 0.000007 0.0
2.743596 0.087376 -0.004488 0.0
1.780610 1.433107 -0.001161 0.0
3.668694 1.906081 0.003106 0.0
3.557253 0.631467 0.002752 0.0
3.717404 1.764411 -0.004368 0.0
2.763605 0.072775 0.001370 0.0
3.457002 1.920566 0.004831 0.0
0.599054 0.160963 0.003471 0.0
4.082686 1.550679 -0.004692 0.0
3.363285 1.601431 0.003304 0.0
2.889027 1.627443 -0.002647 0.0
2.282652 0.667210 0.000822 0.0
3.434741 1.909925 -0.000917 0.0
1.446076 1.880708 -0.000079 0.0
1.484562 1.908331 -0.002469 0.0
0.186962 1.065576 -0.004186 0.0
0.439837 0.086746 -0.003252 0.0
1.213688 0.209217 -0.006051 0.0
2.293589 1.156161 0.000797 0.0
1.879105 1.798373 -0.001981 0.0
3.261576 2.181584 -0.001797 0.0
3.016994 0.196326 -0.001581 0.0
4.173013 0.483397 0.001419 0.0
0.117688 1.640444 0.000513 0.0
1.809303 0.489395 -0.000738 0.0
3.177345 0.182775 -0.001430 0.0
4.202988 1.612706 0.000510 0.0
3.263105 1.846688 -0.000518 0.0
3.552805 1.775493 0.001884 0.0
2.345988 1.404091 -0.003495 0.0
3.082865 2.135510 0.002165 0.0
3.657897 2.194639 -0.001954 0.0
2.664326 1.089877 -0.000771 0.0
0.601946 1.531494 -0.001312 0.0
1.655738 0.107423 0.002299 0.0
0.569204 2.110105 0.002717 0.0
1.522837 0.921457 -0.002013 0.0
0.867646 0.002321 0.003765 0.0
2.910039 0.221491 0.003601 0.0
1.383917 1.067873 0.001909 0.0
0.207384 1.129221 -0.002613 0.0
0.245501 1.145100 0.000591 0.0
0.219594 1.355280 -0.002855 0.0
2.153120 1.443690 0.004203 0.0
0.202120 0.396991 -0.001190 0.0
3.481424 1.454375 -0.003898 0.0
3.414522 0.181186 -0.002135 0.0
0.068740 0.504088 0.000842 0.0
3.546217 0.091062 -0.001934 0.0
3.790424 0.306513 0.000381 0.0
2.796870 0.175301 0.001439 0.0
1.762857 0.857332 -0.001295 0.0
0.854130 0.673480 0.001010 0.0
3.389228 1.090279 -0.002097 0.0
0.141410 1.936738 0.000762 0.0
1.097977 1.665465 0.001790 0.0
1.602530 0.733259 0.001728 0.0
0.255043 0.983161 -0.006428 0.0
3.196657 0.470953 0.002928 0.0
4.044276 0.172319 -0.005568 0.0
2.139939 0.180689 -0.001238 0.0
1.016971 0.297800 -0.001864 0.0
2.937088 0.174744 0.000261 0.0
3.610327 2.115415 0.004864 0.0
3.790756 1.439241 0.002145 0.0
3.167649 0.021970 -0.001636 0.0
3.420429 0.119092 -0.000291 0.0
0.088451 1.602927 0.000166 0.0
2.223274 2.158493 0.001022 0.0
1.715581 0.832660 0.001696 0.0
1.011774 1.027214 0.000258 0.0
1.447153 1.143324 -0.001696 0.0
3.760322 1.223235 0.000372 0.0
1.709751 1.590485 0.001086 0.0
2.771064 0.477909 -0.002336 0.0
0.810241 -0.000078 -0.000805 0.0
2.224979 0.365630 -0.000280 0.0
3.256855 1.151258 0.001166 0.0
0.366031 1.743850 0.002203 0.0
1.867857 0.170170 -0.001241 0.0
1.389089 0.819154 0.003475 0.0
1.203859 1.110109 0.007623 0.0
2.300432 1.004689 -0.004472 0.0
2.856313 0.600877 0.000750 0.0
3.709426 0.466717 -0.000604 0.0
2.111362 0.658521 0.001503 0.0
3.679800 0.977392 0.001543 0.0
1.798678 1.216527 0.003230 0.0
3.718633 2.014926 0.002451 0.0
1.011778 1.296253 0.000181 0.0
0.117716 0.711081 -0.001489 0.0
2.019751 0.833089 0.003757 0.0
4.048802 1.379961 -0.002835 0.0
3.400232 1.769505 0.002505 0.0
3.195493 0.463670 -0.000096 0.0
0.426871 0.177190 -0.003034 0.0
2.050754 1.266253 0.000700 0.0
0.533275 1.740412 0.000541 0.0
4.272984 0.932748 -0.000575 0.0
3.525091 1.179513 0.000701 0.0
1.187769 0.523320 -0.003421 0.0
0.747317 1.950648 -0.002747 0.0
0.371084 0.937398 -0.000818 0.0
1.852112 1.510956 -0.001370 0.0
3.398735 2.204141 0.001135 0.0
1.424281 1.695353 -0.000925 0.0
2.583739 0.602082 0.000677 0.0
3.977600 0.265815 0.001125 0.0
4.277527 0.611008 0.000633 0.0
1.170859 1.179640 -0.006051 0.0
1.011489 0.753876 0.000355 0.0
3.450630 1.157958 0.002063 0.0
2.819754 0.236777 -0.001457 0.0
0.600425 0.233128 0.002134 0.0
1.971413 1.904519 0.001985 0.0
0.982054 1.662169 -0.002188 0.0
0.281147 0.419081 -0.002842 0.0
3.341584 0.233555 0.001505 0.0
3.862361 1.240839 0.005198 0.0
3.902528 1.822984 -0.002724 0.0
3.902833 0.301000 -0.002336 0.0
0.585945 0.031567 -0.001079 0.0
0.146675 1.691578 0.000283 0.0
3.795877 0.137577 -0.003285 0.0
1.470331 2.036353 -0.001320 0.0
1.192469 1.522826 -0.001694 0.0
1.099742 0.905154 -0.003020 0.0
1.025097 0.134515 -0.007600 0.0
4.223721 1.362241 -0.001609 0.0
3.671451 0.247933 0.002021 0.0
0.301084 1.193806 -0.000539 0.0
0.023516 1.871816 0.002026 0.0
1.139297 2.143406 -0.000197 0.0
1.716559 0.950676 0.000540 0.0
1.074347 0.842204 -0.001459 0.0
3.613120 1.901876 -0.004963 0.0
4.001715 0.838922 0.005458 0.0
2.162281 2.159405 -0.003002 0.0
2.610059 0.369521 0.000583 0.0
2.249975 1.261792 0.003236 0.0
1.659000 1.829070 0.001754 0.0
1.343398 1.640082 -0.001819 0.0
0.670921 0.359058 -0.002082 0.0
3.058469 0.899800 0.004854 0.0
1.981309 0.307786 -0.002007 0.0
1.470041 1.996174 -0.000275 0.0
2.156697 0.549103 0.000707 0.0
1.837468 0.318346 0.001633 0.0
3.140456 1.974480 0.003360 0.0
2.594201 1.332423 0.004807 0.0
1.668362 1.727543 0.003818 0.0
2.580445 1.239858 0.000463 0.0
0.461152 0.953516 0.001397 0.0
0.740116 1.404912 -0.001252 0.0
2.452677 0.743791 0.001179 0.0
0.700385 0.484466 -0.000809 0.0
3.720297 1.173964 0.000120 0.0
0.037764 0.378390 -0.002627 0.0
3.286342 1.999427 0.002610 0.0
2.625921 1.268959 -0.001036 0.0
1.989453 1.747132 -0.000112 0.0
4.254521 1.689819 -0.000842 0.0
1.552444 0.551177 0.003257 0.0
2.322470 2.046938 -0.000220 0.0
0.109698 0.610357 0.001891 0.0
4.246354 1.728385 -0.001407 0.0
0.153976 0.683937 -0.000743 0.0
1.926847 1.622004 -0.000953 0.0
0.873410 0.517330 -0.000066 0.0
0.063021 2.010108 -0.001487 0.0
2.539570 0.349127 0.003413 0.0
2.401854 0.223237 -0.002525 0.0
1.121518 0.688967 0.002990 0.0
0.102871 0.685133 0.000742 0.0
0.114160 1.608015 0.004205 0.0
4.237866 1.992806 -0.000126 0.0
0.534100 0.013087 0.002538 0.0
1.292610 1.899583 -0.002267 0.0
3.889995 0.473904 0.002506 0.0
4.148616 1.908329 0.000400 0.0
1.036383 1.627350 0.003354 0.0
3.346625 1.449822 -0.005111 0.0
1.102092 0.016049 0.002006 0.0
1.026817 0.680862 -0.001788 0.0
1.469292 0.900524 -0.002741 0.0
0.336963 1.168085 0.001093 0.0
0.864397 0.127563 0.002782 0.0
2.232908 0.027421 0.001389 0.0
1.117142 0.949496 -0.000857 0.0
1.053514 1.785951 -0.000425 0.0
1.670572 1.445356 -0.002545 0.0
3.465502 1.407593 -0.002180 0.0
1.269355 0.142979 0.002649 0.0
3.703967 2.007834 -0.001090 0.0
0.328189 1.198561 -0.001980 0.0
2.362106 1.452980 0.002273 0.0
3.477556 0.750997 -0.001279 0.0
1.461056 0.287664 0.000344 0.0
1.130897 1.543285 -0.002877 0.0
0.780754 1.440967 0.000934 0.0
1.837292 2.084901 -0.000620 0.0
3.384921 1.403090 0.000021 0.0
0.028216 2.045922 -0.003689 0.0
1.241199 0.876034 0.003126 0.0
1.076000 1.442434 -0.002398 0.0
2.852645 1.677740 -0.001653 0.0
3.986450 0.132156 0.003291 0.0
1.748596 1.764324 0.003235 0.0
3.155871 0.868578 0.001546 0.0
2.538581 1.325305 0.003071 0.0
3.280013 0.811768 -0.003852 0.0
1.012042 0.388247 0.001405 0.0
1.941150 0.044281 -0.004431 0.0
3.002492 0.691968 -0.000555 0.0
1.179220 1.837749 0.001188 0.0
1.089913 0.038577 -0.000706 0.0
1.392182 0.214085 -0.003217 0.0
1.607874 0.891381 -0.000482 0.0
3.919250 2.077265 0.002360 0.0
0.341313 0.147626 -0.000421 0.0
0.994682 1.490589 -0.001646 0.0
0.817746 0.597299 0.001922 0.0
0.317792 0.749682 0.003710 0.0
2.551941 0.365198 -0.000035 0.0
2.812310 0.209812 -0.003497 0.0
2.311215 1.826285 0.002763 0.0
1.441870 0.611137 -0.000222 0.0
0.972239 1.231796 0.001322 0.0
1.160507 2.043714 -0.005815 0.0
3.438960 0.819010 -0.006022 0.0
2.307257 1.424247 -0.000370 0.0
3.579278 1.710495 -0.005858 0.0
1.939798 1.411770 -0.001395 0.0
1.262968 0.083163 0.004294 0.0
1.660017 1.678582 0.001577 0.0
0.987320 0.699485 -0.001245 0.0
3.535495 0.909485 -0.001769 0.0
1.309700 0.008137 0.002582 0.0
1.956295 1.691661 -0.000162 0.0
0.984502 1.620897 0.000886 0.0
4.059241 1.218736 0.001938 0.0
3.429207 1.901975 0.000531 0.0
2.145713 1.745503 0.003129 0.0
4.139837 2.099379 -0.002156 0.0
3.446936 1.189056 0.000728 0.0
0.832419 1.007182 0.002274 0.0
0.164916 0.359990 -0.000946 0.0
1.458167 0.585991 0.001103 0.0
2.592634 1.285397 -0.003062 0.0
0.601341 1.179190 -0.002605 0.0
3.639601 1.556027 0.001485 0.0
1.245593 0.188866 0.000135 0.0
4.037768 0.102772 0.001212 0.0
1.350630 1.453772 0.003144 0.0
0.374085 2.153444 -0.003216 0.0
3.149778 1.997200 -0.001926 0.0
1.837178 0.090923 -0.003493 0.0
1.190744 0.631149 0.000579 0.0
3.585877 1.995227 0.001754 0.0
0.624828 0.175776 -0.001259 0.0
0.373114 0.413834 -0.000026 0.0
3.789063 0.146490 -0.004670 0.0
3.983729 1.419998 0.002745 0.0
1.510178 0.730465 0.000953 0.0
1.348212 0.362285 0.000105 0.0
1.875839 1.955879 -0.004245 0.0
3.895069 0.421867 0.001259 0.0
4.145302 1.288507 -0.004655 0.0
1.414035 0.749942 -0.001798 0.0
3.173538 0.407787 0.002545 0.0
3.538873 0.721712 0.000345 0.0
3.263821 1.657679 0.000150 0.0
2.643184 0.772684 -0.000013 0.0
2.841571 1.991316 0.000118 0.0
0.723936 0.468311 0.004185 0.0
0.976227 1.342393 0.002683 0.0
1.141131 0.616158 0.000067 0.0
1.444313 1.206945 0.005067 0.0
0.339549 2.094632 -0.001612 0.0
1.148623 0.859200 0.000107 0.0
3.682067 0.924042 -0.004690 0.0
3.455965 0.894968 0.000441 0.0
0.983645 1.022222 0.001144 0.0
3.255176 1.414110 -0.000726 0.0
2.521174 1.687233 -0.003571 0.0
0.131413 1.051850 -0.004176 0.0
2.364802 1.297205 0.004090 0.0
2.351800 0.351242 0.000654 0.0
1.756311 0.340274 -0.001818 0.0
4.060853 0.134281 0.003468 0.0
1.841205 1.329577 0.000900 0.0
2.189451 0.741299 -0.001229 0.0
0.125756 1.078953 0.002634 0.0
0.833087 1.516096 -0.000835 0.0
1.597816 2.094905 0.002722 0.0
2.164137 2.146702 0.002037 0.0
2.563838 0.580209 0.002166 0.0
4.209807 0.041592 -0.000965 0.0
2.806949 1.872447 -0.001722 0.0
4.288750 1.649813 -0.001426 0.0
2.983205 0.492352 -0.000491 0.0
1.270351 0.208330 0.000228 0.0
4.098552 0.863531 -0.002928 0.0
0.870540 0.544174 0.001880 0.0
0.558774 1.584458 0.001251 0.0
2.510447 1.361582 0.003874 0.0
1.279654 1.106593 0.000405 0.0
3.602071 0.504282 -0.002136 0.0
0.249437 0.142111 -0.000415 0.0
2.708418 1.074514 -0.003551 0.0
3.940745 1.648523 0.003389 0.0
2.185389 0.434301 0.003800 0.0
4.114241 1.676143 -0.001742 0.0
3.758658 1.442465 0.000288 0.0
3.427251 0.903249 -0.001498 0.0
4.005372 1.730683 -0.001060 0.0
0.696493 1.123761 -0.000702 0.0
3.880914 1.797458 0.002803 0.0
3.507012 0.989795 0.004027 0.0
2.968645 1.402423 0.001932 0.0
0.779869 0.063878 0.000538 0.0
0.202871 1.913896 -0.000843 0.0
4.118395 0.440440 -0.000801 0.0
4.099898 0.425812 0.004180 0.0
0.773248 0.666425 -0.000830 0.0
4.240991 0.481009 -0.001599 0.0
0.302743 1.399439 0.000336 0.0
1.071817 0.288110 -0.001233 0.0
0.020970 0.834928 0.000025 0.0
3.527198 1.473423 0.000526 0.0
1.300579 0.235087 -0.000679 0.0
2.889960 1.220749 -0.000625 0.0
2.876775 1.746605 0.000760 0.0
1.760103 0.786741 -0.001070 0.0
3.757952 1.414441 0.002719 0.0
4.071081 0.421285 -0.001803 0.0
1.466388 1.140050 -0.000885 0.0
2.561196 0.086380 -0.002476 0.0
0.811800 1.726783 -0.000117 0.0
1.256966 1.176278 -0.002339 0.0
1.695549 1.216360 0.001413 0.0
2.377708 1.686128 0.004920 0.0
1.532021 0.917099 -0.001637 0.0
3.944030 1.472905 0.002454 0.0
3.656926 1.469882 0.002007 0.0
3.939972 0.518816 0.003041 0.0
3.620282 0.632402 -0.000477 0.0
2.580438 2.009339 0.000470 0.0
2.507168 1.770395 -0.001385 0.0
2.217580 1.759856 0.003170 0.0
2.626777 1.560257 0.000378 0.0
1.371830 2.178733 0.003244 0.0
3.619002 0.938730 -0.000624 0.0
2.390305 1.128920 -0.001350 0.0
0.997491 0.504757 -0.000595 0.0
3.260524 0.643241 0.005159 0.0
3.316697 1.418701 -0.000624 0.0
4.133747 0.806239 -0.000488 0.0
1.672423 0.659530 0.001042 0.0
4.250925 0.801169 -0.001623 0.0
0.740000 1.101758 -0.000689 0.0
1.207286 1.270870 -0.000680 0.0
3.316416 1.777755 -0.001153 0.0
1.950579 1.281562 -0.000005 0.0
1.870314 0.685617 -0.002141 0.0
2.385659 0.884908 0.002638 0.0
3.575039 0.178238 -0.000395 0.0
1.659931 2.087684 -0.002759 0.0
1.870479 0.495174 -0.002229 0.0
4.079834 2.142570 -0.000123 0.0
4.097759 1.286226 -0.003608 0.0
0.613170 0.479655 -0.002418 0.0
0.583547 0.130146 0.001934 0.0
1.283654 0.784828 -0.000079 0.0
1.008321 2.155538 -0.001071 0.0
1.502652 1.622512 -0.002832 0.0
0.857599 0.256530 -0.001915 0.0
3.670564 1.480652 -0.002493 0.0
3.399415 1.561717 0.002799 0.0
1.254809 0.876202 -0.003719 0.0
2.624913 0.585127 -0.000658 0.0
4.232293 0.303913 -0.001941 0.0
3.637489 2.070039 0.001886 0.0
2.560223 1.211129 -0.000665 0.0
1.557096 2.103240 0.001566 0.0
2.950818 0.259269 0.001833 0.0
3.651353 1.165253 0.001124 0.0
1.342087 1.695329 0.004269 0.0
1.297463 0.180868 0.000248 0.0
1.616653 0.582527 0.001462 0.0
0.002405 0.024276 0.001446 0.0
0.957362 0.103861 -0.002152 0.0
3.937462 0.110294 -0.000909 0.0
0.407050 1.711934 0.003594 0.0
3.902151 1.355084 -0.000676 0.0
3.446000 1.981346 0.000142 0.0
3.410732 0.288477 0.000931 0.0
2.220537 0.556788 -0.001464 0.0
2.523052 0.771747 -0.001641 0.0
3.806642 0.247802 -0.000399 0.0
1.761898 1.821782 0.000420 0.0
1.465397 2.194054 -0.000456 0.0
1.233763 1.768630 -0.001477 0.0
0.820652 1.824751 0.000544 0.0
0.833647 0.032346 0.002471 0.0
1.949213 2.113008 0.003634 0.0
2.373291 1.124506 0.002835 0.0
1.401055 1.336860 -0.001065 0.0
3.334124 1.736445 0.001015 0.0
3.737296 1.957059 0.004200 0.0
3.945648 0.345956 0.002230 0.0
3.504482 1.326882 0.003631 0.0
3.999804 0.714600 -0.000196 0.0
0.682615 1.808448 -0.000156 0.0
1.318446 1.328103 0.004396 0.0
2.526915 1.008742 -0.002108 0.0
0.218016 1.978539 -0.002918 0.0
1.489724 1.819697 -0.001036 0.0
3.991747 0.432450 -0.004943 0.0
2.668895 0.816172 0.000688 0.0
2.202151 1.568921 -0.004013 0.0
2.773577 1.407554 0.001888 0.0
0.724944 1.597740 0.001187 0.0
2.001238 0.946343 0.000799 0.0
3.911519 0.875608 0.003520 0.0
3.710829 1.554584 -0.001276 0.0
3.471750 0.887975 0.002111 0.0
4.074887 0.647676 0.002390 0.0
0.261724 1.861909 0.000962 0.0
0.346601 2.067886 -0.000651 0.0
1.547572 1.321432 -0.004378 0.0
1.619961 1.282081 -0.001429 0.0
3.310462 0.850312 0.002445 0.0
0.915491 0.378911 0.003548 0.0
4.272912 0.903590 -0.000287 0.0
0.496131 0.028243 0.001291 0.0
3.723939 0.761953 -0.000583 0.0
2.190177 0.136571 -0.002057 0.0
3.139307 2.204473 0.002386 0.0
1.510153 0.817960 0.000687 0.0
2.672995 0.428430 0.001064 0.0
3.107585 1.114046 -0.001111 0.0
2.416918 0.440072 0.000654 0.0
3.293288 1.710695 0.002276 0.0
2.529468 1.624652 0.000294 0.0
1.645413 0.744465 -0.000629 0.0
3.771670 0.710745 0.001228 0.0
2.419902 1.855503 -0.001746 0.0
2.685404 0.904228 0.001973 0.0
1.944975 0.230940 -0.000374 0.0
0.472881 1.400911 -0.002023 0.0
0.158980 1.892377 -0.003210 0.0
2.438964 0.935205 0.002480 0.0
0.921652 0.515383 0.001545 0.0
0.664629 1.343499 -0.003417 0.0
3.816675 2.007508 -0.001722 0.0
3.293086 0.140674 0.001379 0.0
1.347731 0.649609 0.002977 0.0
0.639453 0.171289 -0.001685 0.0
3.715622 1.983833 -0.000666 0.0
4.093620 1.347128 -0.000363 0.0
1.084514 1.541183 0.003775 0.0
3.405456 1.667752 0.005758 0.0
1.511502 1.329911 0.001124 0.0
3.973939 1.515471 0.001675 0.0
2.932559 1.940122 0.002124 0.0
0.554486 0.597193 -0.004797 0.0
0.049881 1.405904 -0.000156 0.0
2.577054 1.574834 0.003576 0.0
2.759542 0.418468 0.001920 0.0
3.479649 2.032882 0.001924 0.0
1.957056 0.775174 -0.002478 0.0
2.833226 1.689495 0.001424 0.0
2.806180 1.620992 -0.000559 0.0
1.944067 0.399768 -0.002290 0.0
0.837420 0.224193 0.001782 0.0
1.860022 2.081184 -0.002064 0.0
0.130050 1.727180 -0.000860 0.0
0.195887 0.059190 -0.001214 0.0
2.563884 0.821326 0.002336 0.0
2.928521 2.186145 -0.000809 0.0
1.861459 1.548509 -0.000356 0.0
1.695873 1.885212 0.000621 0.0
0.813275 1.555442 -0.001375 0.0
0.292484 1.588420 -0.000447 0.0
4.123403 2.140867 0.001719 0.0
3.231661 0.714699 0.003905 0.0
3.063774 0.813619 -0.004375 0.0
2.065586 0.158543 0.004098 0.0
3.839756 0.151936 0.001494 0.0
2.519607 1.677596 0.001547 0.0
3.888636 1.545718 0.002446 0.0
0.951091 0.848865 0.004306 0.0
1.963593 0.140660 0.000726 0.0
2.108224 0.187841 0.003560 0.0
1.167657 2.181910 -0.004191 0.0
2.590195 1.242282 -0.001287 0.0
0.614126 1.720862 -0.000963 0.0
1.900481 1.337058 0.002860 0.0
1.026213 1.686601 0.002088 0.0
2.667938 0.067055 0.002117 0.0
3.868047 1.857549 -0.000133 0.0
3.412172 1.977552 -0.001213 0.0
0.809116 1.162243 0.000137 0.0
3.179671 0.669841 -0.001216 0.0
0.411259 1.464153 -0.002677 0.0
1.856068 1.077452 -0.001644 0.0
1.526044 0.905814 0.001038 0.0
1.478227 1.630314 0.000996 0.0
3.361552 0.359928 -0.000530 0.0
0.902549 0.517780 -0.002070 0.0
3.613898 0.336165 0.004162 0.0
0.100063 0.915569 0.003341 0.0
4.218322 2.208699 0.000194 0.0
2.138291 0.927973 0.001096 0.0
3.631825 1.118494 -0.000450 0.0
3.057522 1.574745 0.001158 0.0
4.069987 0.208746 0.005244 0.0
2.393693 1.289244 -0.000510 0.0
2.945069 0.297824 0.000804 0.0
2.119409 0.202731 0.001036 0.0
1.220042 0.642283 -0.001010 0.0
-0.001543 0.122348 0.002191 0.0
4.095860 1.162064 -0.000278 0.0
3.583933 2.073202 0.004151 0.0
3.504905 0.278009 0.000079 0.0
2.685551 0.572434 -0.002113 0.0
1.628835 0.295168 0.002286 0.0
1.616933 1.734985 0.002411 0.0
3.487867 0.102887 0.000864 0.0
2.368331 0.987981 0.002729 0.0
1.889038 1.473381 0.004269 0.0
2.019870 1.829596 0.000244 0.0
1.906370 1.795414 0.003570 0.0
1.825732 2.059504 0.003435 0.0
1.387790 0.666447 -0.000483 0.0
0.809069 1.232009 -0.000507 0.0
0.853819 2.196562 -0.002174 0.0
1.454160 0.907933 0.005329 0.0
4.085802 0.144116 -0.001305 0.0
4.303039 1.257272 -0.002846 0.0
1.282616 0.590308 -0.001754 0.0
0.160550 1.508178 0.003602 0.0
3.306671 1.327030 0.003016 0.0
0.643117 0.004666 0.002172 0.0
0.825708 0.907208 -0.001241 0.0
1.538504 0.218874 -0.002911 0.0
1.696542 0.920061 0.000050 0.0
4.032074 0.624254 0.006536 0.0
2.468002 0.037290 0.003439 0.0
1.781516 1.606749 -0.000872 0.0
3.285753 0.781892 0.003010 0.0
2.804949 0.340739 -0.002928 0.0
0.459354 2.069626 0.000655 0.0
3.671209 0.355090 -0.003315 0.0
0.270816 1.752593 -0.000856 0.0
2.544799 2.102145 -0.003696 0.0
2.729912 1.879269 0.000112 0.0
0.043413 1.685249 0.000473 0.0
2.531346 1.701521 -0.003354 0.0
4.285935 1.734823 -0.001242 0.0
0.736118 1.980528 0.001356 0.0
2.961720 0.808017 -0.001544 0.0
1.825098 1.342642 0.000166 0.0
1.906398 1.964045 -0.001859 0.0
2.448323 0.077594 0.005325 0.0
2.025904 1.461698 0.000648 0.0
0.894131 1.859057 0.000532 0.0
2.019328 1.105359 0.001767 0.0
3.442470 0.700018 0.002236 0.0
0.026760 0.262216 -0.000908 0.0
0.956997 0.920764 0.004323 0.0
3.505438 0.198698 -0.003218 0.0
3.685238 0.061992 -0.000786 0.0
2.118962 0.839939 0.003047 0.0
2.557808 0.267015 -0.000900 0.0
3.165050 0.682425 -0.000072 0.0
3.903070 1.293652 0.001283 0.0
3.548919 2.181829 -0.000525 0.0
3.552003 1.898979 0.001792 0.0
1.988100 1.400622 0.001811 0.0
0.746816 0.656902 0.003703 0.0
1.920100 0.146077 -0.001703 0.0
2.917517 0.305739 0.000249 0.0
0.199136 1.091064 -0.000214 0.0
1.398255 0.775531 0.002186 0.0
2.834327 0.291952 -0.001663 0.0
1.241712 1.414191 -0.000586 0.0
0.709221 0.240301 0.002626 0.0
2.411424 2.148473 0.002386 0.0
1.859863 0.433267 -0.002586 0.0
1.043289 0.717012 0.002964 0.0
1.863580 1.678492 0.002585 0.0
1.974601 0.961391 0.004825 0.0
4.293540 1.784398 -0.002413 0.0
2.742124 0.048772 0.001746 0.0
1.525172 0.714606 0.001362 0.0
0.989700 1.547847 0.002948 0.0
3.518738 1.894938 0.001289 0.0
1.500787 1.170852 0.004520 0.0
4.112782 0.965320 0.002800 0.0
0.593609 0.330986 -0.002179 0.0
3.958354 1.503486 -0.000524 0.0
2.032616 1.684385 -0.000327 0.0
2.900574 0.434857 -0.003526 0.0
1.339373 0.172778 -0.000928 0.0
0.748370 0.506779 0.000033 0.0
3.999397 1.105997 0.000943 0.0
1.836706 0.047906 0.002966 0.0
0.180434 1.502993 -0.000030 0.0
2.892236 0.162889 0.006489 0.0
2.082098 0.626821 0.000579 0.0
2.678033 0.570323 -0.005400 0.0
1.367036 0.246215 0.003811 0.0
1.424247 0.122771 0.002889 0.0
1.532742 1.845232 0.000484 0.0
3.460952 1.438571 -0.005370 0.0
-0.000455 0.995590 0.001991 0.0
0.188764 1.258979 0.000640 0.0
1.950928 2.111224 -0.001815 0.0
1.675608 0.023666 -0.000743 0.0
4.026516 0.711176 -0.000616 0.0
2.545009 0.300504 -0.000984 0.0
4.289479 2.064289 -0.001020 0.0
2.727455 0.272911 0.001329 0.0
3.766558 -0.004368 0.066884 0.0
3.413111 -0.001676 0.157436 0.0
2.994990 -0.004673 0.163827 0.0
0.544969 -0.004821 0.072610 0.0
0.947847 -0.004692 0.018851 0.0
3.609573 -0.002275 0.024796 0.0
2.097905 -0.003677 0.077959 0.0
4.066296 -0.002781 0.092473 0.0
2.897326 -0.006681 0.170195 0.0
1.457461 -0.006257 0.186708 0.0
0.420807 -0.006175 0.147448 0.0
3.115046 -0.000963 0.009801 0.0
2.980896 -0.004048 0.018411 0.0
0.471459 -0.002030 0.036437 0.0
1.745933 -0.001595 0.089654 0.0
0.983091 -0.002242 0.200067 0.0
3.707993 0.001187 0.020708 0.0
0.730956 -0.002259 0.125193 0.0
3.658207 -0.003346 0.035051 0.0
1.675613 -0.001331 0.203583 0.0
1.518319 0.000303 0.063877 0.0
2.217999 -0.005008 0.139131 0.0
0.084192 -0.002005 0.127292 0.0
0.846659 -0.002707 0.199626 0.0
2.282973 0.003440 0.051677 0.0
3.421180 0.002317 0.054141 0.0
3.190782 -0.004390 0.125735 0.0
0.781332 -0.000744 0.178986 0.0
0.379942 -0.004918 0.067800 0.0
0.538357 -0.001560 0.114082 0.0
0.247926 -0.002694 0.094818 0.0
0.228687 -0.005701 0.038699 0.0
2.120009 -0.005166 0.072425 0.0
2.406166 0.001264 0.173005 0.0
3.173169 -0.000248 0.045728 0.0
1.373136 -0.003630 0.130848 0.0
2.621213 -0.002132 0.104641 0.0
0.893133 -0.000863 0.071779 0.0
3.790161 -0.005997 0.189127 0.0
2.907007 0.002594 0.071951 0.0
4.184018 0.001392 0.014189 0.0
2.989581 0.000223 0.049622 0.0
0.156325 -0.002476 0.079677 0.0
4.086272 0.000517 0.092235 0.0
4.227901 -0.004812 0.197646 0.0
2.891070 -0.004047 0.210337 0.0
0.614238 -0.007397 0.179739 0.0
4.236116 -0.002675 0.152492 0.0
3.023702 -0.001489 0.136206 0.0
2.227471 0.001719 0.203384 0.0
1.713847 -0.007876 0.182246 0.0
1.018145 -0.004583 0.109088 0.0
3.339823 -0.000654 0.082826 0.0
4.059500 -0.001847 0.008998 0.0
3.901357 -0.000872 0.118231 0.0
1.037488 -0.001342 0.019061 0.0
2.083294 0.001148 0.021508 0.0
3.745794 -0.003950 0.105921 0.0
2.863757 -0.005129 0.173496 0.0
1.546732 0.001329 0.043482 0.0
3.271736 -0.000179 0.027393 0.0
3.311871 -0.004900 0.206503 0.0
1.481618 -0.003546 0.092122 0.0
2.261736 -0.003217 0.098711 0.0
4.093629 -0.001741 0.092850 0.0
2.007326 0.001461 0.185322 0.0
0.374520 -0.002406 0.031434 0.0
4.058165 -0.004778 0.186790 0.0
0.712108 -0.000060 0.003709 0.0
3.484422 -0.001493 0.138642 0.0
2.490825 0.001188 0.080101 0.0
2.130475 -0.003973 0.070545 0.0
2.006930 -0.001065 0.174729 0.0
0.491898 -0.006055 0.214424 0.0
1.007782 -0.005187 0.182486 0.0
3.137474 -0.001425 0.159470 0.0
4.257293 0.002163 0.074863 0.0
0.755590 -0.000425 0.124046 0.0
2.586107 -0.002327 0.097062 0.0
1.007064 -0.001736 0.148404 0.0
2.076836 -0.003890 0.132026 0.0
3.016366 -0.001930 0.020417 0.0
2.084879 0.001485 0.112422 0.0
0.316006 0.003357 0.015623 0.0
3.773867 -0.002463 0.171169 0.0
1.304358 -0.006376 0.208875 0.0
1.718345 0.000410 0.044450 0.0
0.112856 -0.004501 0.025153 0.0
2.653778 -0.001549 0.119119 0.0
3.528959 -0.005859 0.220097 0.0
0.135130 -0.004030 0.181806 0.0
1.814278 -0.000637 0.115916 0.0
1.859194 -0.002838 0.102255 0.0
1.045502 -0.001859 0.034975 0.0
2.177067 0.000735 0.135254 0.0
3.560152 -0.004796 0.122476 0.0
0.551003 -0.005164 0.208834 0.0
1.600623 -0.000896 0.193957 0.0
4.042275 0.000014 0.110551 0.0
2.266422 -0.003717 0.197350 0.0
0.286615 0.002357 0.055571 0.0
3.525525 -0.005298 0.084417 0.0
0.500066 0.001875 0.057815 0.0
0.310731 -0.007788 0.147876 0.0
1.469127 -0.003228 0.094962 0.0
1.605389 -0.004630 0.093165 0.0
1.804678 -0.001404 0.091744 0.0
0.701781 -0.001716 0.163014 0.0
4.183734 -0.003860 0.081366 0.0
3.540921 -0.000459 0.142960 0.0
1.242899 0.002301 0.063573 0.0
1.193306 -0.000623 0.203232 0.0
2.029009 -0.000201 0.012790 0.0
1.020235 -0.006715 0.185115 0.0
2.583159 -0.004252 0.057170 0.0
2.643154 0.000174 0.138829 0.0
2.135682 -0.002438 0.024066 0.0
4.052553 -0.004104 0.059975 0.0
1.824101 -0.004221 0.160244 0.0
0.694214 0.002236 0.023848 0.0
2.712231 0.004721 0.109450 0.0
2.988776 -0.003523 0.137693 0.0
1.286319 -0.004142 0.225114 0.0
1.314494 -0.001131 0.136078 0.0
1.650102 0.000265 0.011287 0.0
3.015740 -0.002404 0.176202 0.0
1.207774 -0.003046 0.153124 0.0
0.156842 -0.003654 0.021901 0.0
1.582048 -0.002591 0.181584 0.0
2.408121 -0.004905 0.214672 0.0
1.163421 -0.002591 0.082589 0.0
2.787459 -0.003098 0.152717 0.0
1.320008 -0.003210 0.194951 0.0
0.301673 -0.002694 0.002621 0.0
0.782262 -0.001295 0.109022 0.0
1.434049 -0.003349 0.219088 0.0
2.418386 -0.000136 0.037012 0.0
1.839731 -0.006101 0.171761 0.0
1.119786 0.000909 0.113268 0.0
1.194714 0.001166 0.057684 0.0
3.888235 -0.001713 0.122296 0.0
2.308631 -0.006394 0.165262 0.0
3.982646 -0.001795 0.115233 0.0
2.372423 0.004286 0.093173 0.0
3.207189 -0.005102 0.219541 0.0
1.224561 0.004524 0.074538 0.0
0.100435 -0.002118 0.069307 0.0
3.314024 -0.004059 0.117232 0.0
4.285385 0.001883 0.001054 0.0
1.839352 0.002242 0.049324 0.0
2.426623 -0.006388 0.190225 0.0
4.145955 -0.004216 0.047520 0.0
2.722391 -0.000384 0.125401 0.0
2.885698 -0.000661 0.061270 0.0
2.130705 -0.004475 0.082423 0.0
2.213417 -0.001259 0.118615 0.0
2.863262 -0.000725 0.044185 0.0
0.686893 0.002552 0.091788 0.0
1.197844 0.000977 0.144217 0.0
1.730719 -0.000364 0.044633 0.0
1.038366 -0.002419 0.143644 0.0
1.612954 -0.005946 0.099189 0.0
3.789839 -0.000055 0.011962 0.0
0.013894 0.001967 0.004879 0.0
0.234405 -0.000139 0.051952 0.0
2.993249 -0.004616 0.191397 0.0
3.120587 0.003435 0.074843 0.0
0.276653 -0.004490 0.191857 0.0
1.661247 -0.002406 0.151906 0.0
1.937446 -0.002198 0.173178 0.0
3.275344 -0.008623 0.175108 0.0
1.453286 -0.003514 0.055148 0.0
0.595745 -0.000578 0.103856 0.0
3.919064 -0.005046 0.195258 0.0
3.944465 -0.004474 0.108934 0.0
2.256874 -0.000465 0.104241 0.0
2.097943 -0.001629 0.087001 0.0
1.355298 0.004045 0.093201 0.0
2.327451 -0.004695 0.017093 0.0
1.029176 -0.002047 0.036968 0.0
2.505830 -0.003399 0.149668 0.0
3.115860 0.002552 0.120818 0.0
1.886767 -0.000946 0.080309 0.0
2.192630 -0.001620 0.031083 0.0
2.419117 -0.003496 0.128436 0.0
4.121066 -0.004854 0.138902 0.0
2.548006 -0.001848 0.095799 0.0
4.062899 0.000596 0.195776 0.0
1.409844 -0.002262 0.038864 0.0
3.241329 -0.004032 0.141790 0.0
0.984057 -0.005658 0.144472 0.0
3.269980 -0.004614 0.146811 0.0
3.511584 -0.009390 0.206736 0.0
3.238770 -0.004307 0.216205 0.0
0.475685 -0.003788 0.032059 0.0
3.149074 0.001079 0.068672 0.0
1.483313 -0.002739 0.177118 0.0
3.076707 0.000520 0.010063 0.0
2.049065 -0.001404 0.122476 0.0
4.180603 -0.004519 0.203275 0.0
3.900188 0.000899 0.106120 0.0
1.945041 -0.005308 0.215843 0.0
3.892588 -0.004129 0.129499 0.0
2.359858 0.002113 0.147253 0.0
0.908346 0.003350 0.025546 0.0
2.658802 -0.000221 0.069727 0.0
1.863898 -0.004037 0.201898 0.0
0.548021 -0.002334 0.134949 0.0
3.609889 0.000128 0.018241 0.0
0.732440 -0.002926 0.030156 0.0
0.214613 -0.001258 0.004503 0.0
0.451682 -0.004018 0.181864 0.0
2.894110 -0.003699 0.129225 0.0
2.843500 -0.006892 0.208203 0.0
3.369766 -0.001142 0.195721 0.0
0.066552 -0.002138 0.022713 0.0
4.259902 0.002805 0.095292 0.0
3.127532 -0.002429 0.112157 0.0
3.306941 -0.003809 0.044018 0.0
1.429378 -0.004483 0.171950 0.0
2.377223 0.002367 0.139234 0.0
0.298650 -0.001731 0.100176 0.0
3.493691 -0.002877 0.059048 0.0
2.020475 -0.002127 0.081741 0.0
1.691504 -0.002140 0.195427 0.0
1.386791 0.000543 0.156530 0.0
2.864101 -0.002684 0.058506 0.0
3.054970 0.002049 0.033032 0.0
1.773397 -0.003377 0.085911 0.0
0.039074 0.000572 0.006621 0.0
3.497635 -0.000585 0.032718 0.0
2.318132 -0.001358 0.150115 0.0
1.314627 0.000171 0.096073 0.0
3.360977 0.005200 0.004513 0.0
2.073569 -0.001874 0.057658 0.0
0.538538 -0.008051 0.149358 0.0
0.793000 -0.002611 0.193750 0.0
1.240512 -0.004782 0.136970 0.0
1.891857 -0.001283 0.150008 0.0
0.433985 -0.005941 0.173299 0.0
1.961349 -0.000781 0.073581 0.0
3.842697 0.002230 0.076346 0.0
3.200847 -0.009214 0.197459 0.0
0.936172 -0.002782 0.136683 0.0
0.004401 0.001216 0.025497 0.0
1.383853 -0.001162 0.051941 0.0
2.309054 0.001560 0.002183 0.0
2.547330 -0.000756 0.207921 0.0
2.930133 -0.003151 0.177838 0.0
3.112826 0.000650 0.011142 0.0
0.342067 -0.005880 0.189754 0.0
0.875932 -0.002800 0.202423 0.0
3.308862 -0.000676 0.206023 0.0
0.303216 0.000223 0.200405 0.0
1.748319 -0.000523 0.097800 0.0
3.852644 -0.005467 0.161045 0.0
2.156667 0.000111 0.038203 0.0
3.828318 0.000806 0.017467 0.0
2.970258 -0.002271 0.150557 0.0
1.905193 -0.000240 0.103118 0.0
0.927530 -0.005772 0.214464 0.0
0.487729 0.001011 0.007575 0.0
2.318051 -0.003450 0.186364 0.0
3.510721 0.000137 0.110150 0.0
2.982676 -0.005166 0.214865 0.0
1.224870 -0.004284 0.171129 0.0
1.995780 -0.006052 0.133641 0.0
0.091593 0.003177 0.027295 0.0
3.855649 -0.000370 0.044399 0.0
4.093236 -0.000654 0.065080 0.0
2.254440 -0.000787 0.062683 0.0
1.154593 -0.002358 0.118436 0.0
0.270740 0.003158 0.024009 0.0
4.157329 -0.001233 0.066349 0.0
2.093643 -0.001155 0.157095 0.0
0.046078 -0.001431 0.045461 0.0
2.067878 -0.002152 0.156450 0.0
2.648735 -0.004767 0.202492 0.0
4.145435 0.000423 0.053561 0.0
1.480940 0.000206 0.101076 0.0
1.872192 -0.005087 0.175516 0.0
3.185742 -0.001454 0.150677 0.0
2.190681 -0.000729 0.048408 0.0
2.711955 -0.002393 0.200232 0.0
1.166886 0.001816 0.123895 0.0
2.620475 -0.001548 0.113810 0.0
0.311517 0.002819 0.129004 0.0
2.367505 -0.004104 0.136292 0.0
0.622045 -0.002018 0.060409 0.0
1.541685 -0.007290 0.163202 0.0
3.612492 -0.004749 0.189921 0.0
2.232209 -0.003246 0.016796 0.0
2.378830 -0.003649 0.067067 0.0
0.101833 0.000497 0.186886 0.0
1.199412 -0.007483 0.177239 0.0
1.186368 0.001294 0.043125 0.0
2.496581 0.005725 0.040027 0.0
1.103532 -0.000855 0.208319 0.0
3.615415 -0.004129 0.176475 0.0
0.708286 -0.000711 0.132142 0.0
4.287583 -0.002638 0.057202 0.0
0.813367 0.001775 0.120392 0.0
0.778043 -0.005290 0.109264 0.0
3.516147 -0.001513 0.003054 0.0
2.957135 -0.005354 0.186600 0.0
1.651086 0.002257 0.004082 0.0
1.218982 0.000488 0.181199 0.0
0.854503 -0.004021 0.014289 0.0
3.052876 -0.003477 0.181796 0.0
1.197212 -0.002523 0.132485 0.0
2.228249 -0.001298 0.117330 0.0
0.582895 -0.005429 0.093917 0.0
2.358490 0.000048 0.097231 0.0
1.127021 -0.004894 0.145151 0.0
1.175540 0.001457 0.125967 0.0
1.620912 -0.005605 0.185087 0.0
0.673007 -0.001454 0.173566 0.0
3.380918 -0.002310 0.087185 0.0
3.298344 -0.006349 0.142397 0.0
2.707364 -0.002900 0.088589 0.0
2.654355 -0.004590 0.089156 0.0
4.050314 0.000376 0.038061 0.0
1.670858 -0.004384 0.026301 0.0
0.912653 -0.003672 0.040406 0.0
0.054595 -0.003056 0.090613 0.0
4.154980 0.002078 0.036172 0.0
3.268438 -0.006677 0.202421 0.0
0.860012 -0.002960 0.095251 0.0
3.082824 -0.007022 0.066117 0.0
3.117409 -0.005308 0.166585 0.0
2.031981 -0.003081 0.160789 0.0
3.942810 -0.005004 0.213392 0.0
0.889308 -0.001750 0.047730 0.0
3.837885 -0.003336 0.004925 0.0
3.362493 0.001477 0.187319 0.0
3.136418 -0.002605 0.138277 0.0
2.036201 -0.004291 0.084167 0.0
4.135948 -0.002527 0.070829 0.0
2.247573 -0.005261 0.182399 0.0
4.072008 -0.000705 0.009275 0.0
0.338190 -0.003580 0.143368 0.0
2.232088 0.000290 0.166122 0.0
1.215117 -0.001902 0.109519 0.0
1.579777 0.000909 -0.002286 0.0
2.915792 -0.001508 0.124743 0.0
2.006945 -0.001323 0.023009 0.0
0.414372 0.002282 0.068619 0.0
1.135498 0.002093 0.062412 0.0
4.131826 -0.001787 0.138075 0.0
3.110605 -0.001878 0.205047 0.0
0.581109 -0.004962 0.206509 0.0
1.012910 -0.001647 0.049026 0.0
3.888177 0.004051 0.137984 0.0
0.024187 -0.003003 0.179698 0.0
1.809442 -0.004600 0.204883 0.0
2.801912 -0.002968 0.127184 0.0
2.373301 -0.004413 0.164192 0.0
1.764852 -0.000103 0.087235 0.0
4.225519 -0.004042 0.115480 0.0
4.090727 -0.000245 0.011649 0.0
0.547815 -0.002996 0.170346 0.0
2.394209 -0.002141 0.221739 0.0
0.570441 0.000914 0.215191 0.0
0.893345 -0.003379 0.207059 0.0
0.973541 -0.001640 0.053320 0.0
3.387817 0.000494 0.139805 0.0
1.748243 -0.009509 0.206291 0.0
0.157817 -0.002502 0.154352 0.0
1.305699 -0.002056 0.170182 0.0
1.783699 0.000139 0.013742 0.0
2.207236 -0.006714 0.194987 0.0
1.154339 0.004715 0.010025 0.0
3.630799 -0.001802 0.143764 0.0
2.680563 -0.004308 0.053643 0.0
0.807795 -0.000611 0.039854 0.0
2.974622 -0.003939 0.083092 0.0
4.046922 -0.001348 0.101801 0.0
3.405434 -0.003294 0.127978 0.0
1.600548 -0.004861 0.088597 0.0
1.818963 -0.005170 0.124896 0.0
4.253850 -0.006785 0.191565 0.0
2.942435 -0.008322 0.156862 0.0
0.134163 -0.007460 0.014726 0.0
0.572932 -0.003156 0.182564 0.0
0.000345 0.001328 0.029222 0.0
0.528679 0.004202 0.013010 0.0
3.281001 0.001338 0.034103 0.0
2.563500 -0.000428 0.165590 0.0
3.670762 -0.005752 0.124318 0.0
2.908403 -0.004117 0.108833 0.0
0.575048 -0.005453 0.032300 0.0
0.733980 -0.003542 0.139373 0.0
1.263167 -0.004674 0.094715 0.0
3.878020 0.001866 0.124791 0.0
2.414930 -0.003484 0.196965 0.0
2.179306 0.003538 0.040502 0.0
1.136715 -0.003623 0.024036 0.0
1.103744 -0.000968 0.149019 0.0
0.723649 0.000588 0.120405 0.0
0.640001 -0.002181 0.076671 0.0
1.893980 0.000311 0.069564 0.0
1.435532 -0.002941 0.194570 0.0
0.038620 -0.004046 0.106293 0.0
2.747498 -0.005066 0.095086 0.0
3.563423 0.000277 0.050568 0.0
3.036268 -0.004316 0.199953 0.0
1.786132 -0.003812 0.165441 0.0
0.886590 0.003893 0.043631 0.0
0.312638 -0.005161 0.189639 0.0
0.299597 -0.007963 0.099988 0.0
3.716134 -0.001665 0.145394 0.0
2.583157 0.002024 0.061713 0.0
0.835462 0.002151 0.053913 0.0
3.294203 0.000127 0.021743 0.0
2.973181 -0.003498 0.205579 0.0
2.200612 -0.000339 0.089088 0.0
2.098102 -0.001393 0.014863 0.0
1.323521 0.001747 0.145826 0.0
4.134590 -0.003693 0.209879 0.0
2.976625 0.000315 0.134549 0.0
1.425663 -0.001075 0.120139 0.0
1.640308 -0.000203 0.178132 0.0
1.035924 -0.000669 0.111487 0.0
0.607407 0.003271 0.012566 0.0
2.157680 0.000990 0.089308 0.0
2.980866 -0.003630 0.208568 0.0
0.057467 -0.004272 0.001991 0.0
4.195364 -0.004332 0.134052 0.0
4.258461 0.001379 0.031256 0.0
1.549752 -0.000700 0.083474 0.0
2.605944 0.002279 0.014565 0.0
0.243930 -0.000063 0.089244 0.0
0.441933 -0.003659 0.198589 0.0
3.938674 -0.002156 0.025569 0.0
3.797523 -0.002395 0.211911 0.0
2.384913 -0.002132 0.067205 0.0
1.486290 -0.006231 0.076379 0.0
3.792970 -0.000716 0.200048 0.0
0.194303 -0.007228 0.172180 0.0
1.143155 0.000594 0.089465 0.0
2.703103 -0.000847 0.138945 0.0
2.034925 -0.004709 0.208877 0.0
3.333196 -0.001842 0.132853 0.0
2.748664 0.000884 0.206926 0.0
1.900526 -0.004632 0.087378 0.0
1.935001 0.000271 0.189959 0.0
3.720022 -0.000354 0.181538 0.0
0.327440 -0.000561 0.167940 0.0
0.295912 -0.000462 0.163246 0.0
3.014409 -0.002611 0.171489 0.0
2.199605 -0.004024 0.058095 0.0
0.180333 -0.001643 0.171537 0.0
0.403801 -0.005108 0.202421 0.0
2.358885 0.001085 0.026436 0.0
2.874641 -0.002522 0.192926 0.0
1.407853 -0.002553 0.192640 0.0
0.316830 0.000362 0.143498 0.0
1.007623 -0.004116 0.155800 0.0
0.778781 0.000491 0.010200 0.0
4.067815 -0.001849 0.151767 0.0
0.132297 0.001772 0.058407 0.0
4.263502 -0.000590 0.069237 0.0
2.529834 -0.003498 0.118187 0.0
4.115873 -0.000595 0.011038 0.0
1.606900 0.000062 0.136233 0.0
1.679090 -0.000545 0.136149 0.0
1.584297 0.003143 0.065383 0.0
2.185221 0.001298 0.077724 0.0
3.244236 -0.006079 0.195583 0.0
3.402832 -0.000811 0.119850 0.0
3.784171 -0.003104 0.178560 0.0
1.716472 -0.006383 0.020026 0.0
4.301972 -0.003000 0.188978 0.0
0.660146 -0.005035 0.145972 0.0
3.720959 -0.005230 0.185881 0.0
1.450273 -0.000606 0.177321 0.0
3.080781 -0.002913 0.065537 0.0
1.374759 -0.002790 0.103137 0.0
4.246357 -0.007069 0.050084 0.0
3.765702 -0.002428 0.026101 0.0
1.350729 0.002426 0.017049 0.0
1.077195 -0.000536 0.096052 0.0
2.522634 0.001872 0.003399 0.0
2.047426 -0.000827 0.146331 0.0
0.492572 -0.003174 0.015750 0.0
1.838731 -0.004164 0.144235 0.0
1.648399 -0.005183 0.031891 0.0
0.208560 -0.004233 0.178913 0.0
0.560795 -0.001315 0.215247 0.0
4.087136 0.003190 0.041866 0.0
2.676396 0.002070 0.065249 0.0
2.458237 -0.002817 0.057992 0.0
1.696184 -0.000385 0.025026 0.0
0.511346 -0.002729 0.188711 0.0
2.444270 -0.001021 0.054145 0.0
4.027650 -0.001106 0.201550 0.0
1.691341 -0.004427 0.147022 0.0
1.801158 -0.002268 0.140676 0.0
0.093769 0.002577 0.021623 0.0
4.304713 -0.006784 0.118410 0.0
1.644921 0.000859 0.107355 0.0
1.354285 -0.003988 0.112142 0.0
2.246680 0.001332 0.100282 0.0
2.237210 -0.003882 0.025044 0.0
3.674055 -0.000454 0.106444 0.0
1.010523 0.000698 0.064312 0.0
3.479154 -0.002101 0.095863 0.0
1.533765 -0.002770 0.046356 0.0
1.603432 -0.003749 0.113703 0.0
4.077361 0.001042 0.016693 0.0
3.200918 0.003447 0.022825 0.0
3.159953 -0.000824 0.066660 0.0
2.740655 0.001572 0.005578 0.0
2.540847 -0.000279 0.177756 0.0
3.354268 -0.002570 0.069349 0.0
1.160273 -0.003045 0.104096 0.0
3.667249 0.002521 0.007765 0.0
3.188501 -0.000093 0.121958 0.0
2.389801 0.000899 0.085183 0.0
1.823421 0.001285 0.027634 0.0
3.988790 -0.003015 0.065791 0.0
0.028866 -0.001688 0.048699 0.0
3.471559 -0.000033 0.145240 0.0
2.802868 -0.004742 0.160270 0.0
0.396868 -0.002714 0.013436 0.0
2.862953 -0.001381 0.183608 0.0
2.041471 -0.003326 0.026482 0.0
1.207124 -0.001037 0.060877 0.0
4.203609 -0.002906 0.154177 0.0
3.274812 0.002216 0.025280 0.0
3.137058 -0.007999 0.179490 0.0
1.925197 0.003035 0.062335 0.0
2.946901 -0.002251 0.090189 0.0
4.033696 0.000132 0.127411 0.0
3.897916 0.000275 0.156800 0.0
1.173162 -0.005381 0.179541 0.0
4.034047 -0.005266 0.133394 0.0
1.455509 0.001400 0.108089 0.0
3.472816 0.001567 0.062068 0.0
4.010944 0.000637 0.053089 0.0
1.602511 0.004323 0.071676 0.0
1.202235 0.001901 0.131613 0.0
0.393743 0.001272 0.039424 0.0
0.018259 -0.001927 0.158624 0.0
2.575652 -0.000028 0.146168 0.0
2.129888 0.004522 0.167721 0.0
1.383313 -0.004204 0.178249 0.0
0.548761 -0.000257 0.107330 0.0
3.749865 -0.002596 0.215307 0.0
2.882148 -0.001029 0.140041 0.0
3.459099 -0.004500 0.133076 0.0
0.197135 -0.002773 0.130735 0.0
1.791528 -0.004995 0.207611 0.0
2.828647 -0.002823 0.142350 0.0
2.080998 -0.004756 0.193350 0.0
3.916621 0.001351 0.180796 0.0
3.437181 -0.002344 0.101604 0.0
3.841437 -0.000394 0.166868 0.0
4.035998 -0.000555 0.155969 0.0
2.316952 -0.001657 0.216599 0.0
3.118360 -0.005521 0.178590 0.0
1.273243 0.001393 0.076456 0.0
4.091257 -0.001457 0.021455 0.0
3.925641 -0.005570 0.149467 0.0
3.845732 -0.008011 0.179335 0.0
1.610455 0.002544 0.010940 0.0
1.123111 -0.000482 0.060035 0.0
0.380147 -0.002497 0.090079 0.0
1.722739 0.001242 0.089581 0.0
1.697334 -0.002228 0.155034 0.0
1.663420 -0.007314 0.150373 0.0
1.808637 0.000479 0.168590 0.0
0.732620 -0.002554 0.175529 0.0
1.057591 -0.001900 0.162572 0.0
1.097764 0.001130 0.133018 0.0
0.723721 -0.004705 0.032701 0.0
2.690003 -0.004665 0.094777 0.0
0.402733 -0.002630 0.213917 0.0
0.236453 -0.001946 0.199000 0.0
3.243619 -0.003788 -0.000083 0.0
3.657810 -0.003647 0.008675 0.0
2.019973 -0.002318 0.033179 0.0
0.826595 -0.001574 0.064608 0.0
1.556735 -0.003201 0.109359 0.0
0.395750 0.000947 0.009081 0.0
3.928741 -0.005404 0.086602 0.0
0.652638 0.000409 0.155609 0.0
2.025165 -0.003256 0.175191 0.0
3.204628 0.002259 0.110312 0.0
0.459995 -0.005694 0.213340 0.0
3.900838 -0.003741 0.162094 0.0
1.005053 -0.003247 0.005945 0.0
1.545261 -0.000350 0.131564 0.0
2.863493 0.000741 0.087767 0.0
2.597672 -0.001218 0.087412 0.0
2.870945 -0.003924 0.027514 0.0
0.443693 -0.001885 0.132370 0.0
2.796307 -0.009366 0.215336 0.0
1.376321 0.001830 0.019691 0.0
3.082017 0.000301 0.047255 0.0
0.799567 -0.001616 -0.001782 0.0
0.973459 -0.004701 0.212439 0.0
0.207167 -0.003528 0.094946 0.0
1.322858 -0.002175 0.188896 0.0
3.056831 -0.000031 0.003666 0.0
3.615385 -0.002150 0.018313 0.0
1.832816 0.001173 0.040487 0.0
3.915791 -0.003313 0.156180 0.0
4.274688 0.002696 0.124429 0.0
0.197768 -0.003537 0.107402 0.0
3.902266 -0.005289 0.056882 0.0
1.238744 0.002295 0.058607 0.0
0.740539 -0.003592 0.127164 0.0
0.943862 -0.003049 0.006832 0.0
3.225231 -0.000790 0.198795 0.0
4.023258 -0.001292 0.036723 0.0
1.527431 -0.006594 0.038240 0.0
1.089566 0.002977 0.048166 0.0
1.571984 -0.003937 0.124267 0.0
1.690459 -0.004807 0.192987 0.0
1.148212 -0.003769 0.070123 0.0
1.411506 -0.004379 0.154703 0.0
2.293804 -0.000474 0.201604 0.0
3.553630 0.002015 0.032682 0.0
0.528394 0.001593 0.095926 0.0
2.874808 -0.003281 0.001232 0.0
1.283207 -0.005114 0.186448 0.0
4.082884 -0.000550 0.169418 0.0
2.747146 -0.000227 0.018283 0.0
0.367742 -0.004622 0.073138 0.0
4.172222 -0.002693 0.215716 0.0
0.183266 -0.001840 0.217661 0.0
2.448230 -0.000714 0.100370 0.0
2.651319 -0.007293 0.107707 0.0
2.095067 0.000169 0.096555 0.0
0.412203 0.003182 0.010237 0.0
4.126303 0.000116 0.009926 0.0
0.117420 -0.010196 0.142817 0.0
0.611409 -0.002012 0.096577 0.0
4.184881 -0.001179 0.104085 0.0
0.861205 -0.000058 0.098818 0.0
1.990708 -0.001122 0.012487 0.0
2.560841 -0.002545 0.194974 0.0
4.132547 0.003068 0.031503 0.0
2.441709 -0.000477 0.009881 0.0
0.646895 -0.001444 0.050322 0.0
3.820001 -0.001856 0.040476 0.0
3.854283 -0.004613 0.053977 0.0
1.741391 -0.004628 0.101694 0.0
3.770429 -0.000172 0.024740 0.0
1.598268 -0.004643 0.133587 0.0
3.548668 0.001016 0.172099 0.0
3.247063 -0.001447 0.084742 0.0
1.453230 0.003350 0.153620 0.0
3.116083 -0.003045 0.198085 0.0
2.440242 -0.003737 0.002849 0.0
3.462143 -0.004322 0.046757 0.0
2.537689 -0.003346 0.083187 0.0
2.863499 -0.000957 0.027220 0.0
2.306525 -0.002031 0.139444 0.0
3.044734 -0.001158 0.164726 0.0
3.930451 -0.000431 0.080785 0.0
3.105348 -0.001731 0.088578 0.0
0.865244 -0.001823 0.093272 0.0
4.009653 -0.001873 0.218109 0.0
2.749046 -0.004241 0.140551 0.0
2.691834 -0.001668 0.004637 0.0
0.891242 -0.002073 0.042876 0.0
0.251504 -0.007341 0.150028 0.0
2.592314 -0.003530 0.060836 0.0
1.615476 0.001282 0.033764 0.0
0.043807 -0.007144 0.008521 0.0
1.670778 -0.002912 0.065189 0.0
2.122766 -0.000702 0.132681 0.0
0.911075 -0.006728 0.146326 0.0
2.403134 -0.003448 0.123141 0.0
3.031911 -0.004546 0.105260 0.0
0.932371 0.001437 0.072833 0.0
1.720943 -0.003932 0.032027 0.0
1.802073 -0.000960 0.199370 0.0
3.236115 0.002669 0.103285 0.0
2.365115 -0.006221 0.214647 0.0
3.985135 -0.004353 0.198046 0.0
0.624442 -0.001344 0.043628 0.0
3.387132 -0.003048 0.197565 0.0
1.032761 -0.002342 0.023121 0.0
2.668827 -0.005516 0.150747 0.0
2.370327 -0.001092 0.018150 0.0
2.056833 -0.000832 0.164362 0.0
3.856531 -0.003994 0.122116 0.0
1.349859 -0.000734 0.157783 0.0
3.570897 -0.002283 0.038629 0.0
2.490364 -0.001067 0.164687 0.0
1.191401 0.000503 0.124293 0.0
2.778812 -0.005597 0.100136 0.0
3.707555 0.000401 0.142575 0.0
4.266505 -0.002837 0.209158 0.0
3.334779 0.006797 0.028890 0.0
0.997938 -0.000857 0.023596 0.0
3.831209 -0.003250 0.183171 0.0
1.802003 -0.007375 0.204082 0.0
1.550952 -0.005198 0.096717 0.0
1.756010 -0.000191 0.032856 0.0
2.603363 0.000161 0.106384 0.0
0.114393 -0.003213 0.117780 0.0
2.921979 -0.000978 0.200674 0.0
3.808992 -0.001332 0.154218 0.0
3.432283 -0.004761 0.198454 0.0
3.806051 0.000593 0.166775 0.0
1.981128 0.004113 0.117581 0.0
3.793515 -0.001543 0.093813 0.0
2.582388 -0.002768 0.125674 0.0
3.542972 -0.006187 0.137667 0.0
3.421927 -0.002926 0.178577 0.0
0.997597 -0.002796 0.154421 0.0
2.707403 -0.003937 0.041586 0.0
3.479548 -0.002346 0.114491 0.0
3.439756 0.000295 0.131601 0.0
2.681060 -0.005597 0.143406 0.0
1.391275 0.002008 0.156051 0.0
1.161383 -0.001547 0.054555 0.0
3.797300 0.000473 0.042963 0.0
1.921432 -0.001880 0.054957 0.0
0.273722 -0.004593 0.114769 0.0
2.669493 -0.003499 0.155693 0.0
0.773965 -0.002408 0.046956 0.0
0.128024 -0.001746 0.088386 0.0
1.165544 -0.000011 0.003628 0.0
2.829469 -0.001963 0.134768 0.0
2.118928 0.000804 0.069623 0.0
0.563729 -0.003123 0.178895 0.0
2.352192 -0.002052 0.209371 0.0
2.804847 0.003133 0.039253 0.0
4.227612 -0.004689 0.188585 0.0
4.004620 -0.003302 0.210603 0.0
2.594526 -0.003108 0.169121 0.0
2.898432 -0.005080 0.193505 0.0
1.689220 -0.002695 0.147839 0.0
2.551151 -0.001973 0.068579 0.0
3.186292 -0.009925 0.041839 0.0
3.633268 -0.003206 0.217065 0.0
0.898111 -0.000652 0.067224 0.0
2.161896 -0.000100 0.082066 0.0
3.800828 -0.006468 0.058277 0.0
2.366698 -0.001009 0.060220 0.0
3.810553 -0.000581 0.069021 0.0
2.034868 0.004001 0.061407 0.0
1.552310 -0.002840 0.105296 0.0
2.408985 -0.002181 0.118408 0.0
0.728503 -0.003100 0.209614 0.0
1.011339 -0.004113 0.187521 0.0
3.258866 0.001871 0.156051 0.0
1.651739 0.001711 0.000817 0.0
1.628900 0.000858 -0.001637 0.0
0.957475 -0.001866 0.192842 0.0
1.417603 -0.001344 0.051012 0.0
1.060736 -0.004386 0.105399 0.0
0.344541 0.001289 0.148408 0.0
1.647013 -0.000157 0.082487 0.0
1.792716 -0.002760 0.190762 0.0
0.202778 0.001028 0.002190 0.0
0.057827 -0.001798 0.099795 0.0
2.794351 0.002715 0.039776 0.0
2.495189 0.000477 0.012869 0.0
2.362577 -0.003711 0.208012 0.0
3.872737 -0.006169 0.214779 0.0
1.789949 -0.000742 0.025810 0.0
3.358089 0.002366 0.118433 0.0
2.585936 -0.000575 0.128421 0.0
1.576609 0.001039 0.023396 0.0
1.803934 -0.000999 0.219407 0.0
4.212195 -0.000704 0.082037 0.0
0.143078 -0.003682 0.139636 0.0
0.977797 -0.003914 0.040580 0.0
0.260135 -0.000922 0.009680 0.0
2.191058 0.001341 0.077505 0.0
3.266332 -0.002901 0.103771 0.0
2.189755 -0.002182 0.076829 0.0
2.537690 -0.003674 0.181474 0.0
0.135849 -0.001743 0.158632 0.0
1.027120 -0.000778 0.076418 0.0
1.898926 0.000603 0.071819 0.0
2.562923 -0.002751 0.125855 0.0
1.694482 -0.000396 0.136617 0.0
