4.174372 1.380611 0.002772 0.0
0.319402 1.335796 0.003251 0.0
1.560324 1.897040 -0.003244 0.0
2.909453 1.251304 -0.000318 0.0
0.562910 2.200715 -0.000106 0.0
2.204880 2.058798 -0.001425 0.0
1.868811 2.081608 0.001626 0.0
1.813510 1.768722 -0.006345 0.0
1.585691 1.392438 0.000239 0.0
4.325563 1.978535 -0.001044 0.0
2.627684 0.982963 -0.001563 0.0
2.179931 0.662921 0.001791 0.0
2.875056 1.411557 0.001160 0.0
3.959355 1.881121 0.002281 0.0
0.778437 0.482859 0.002905 0.0
0.423130 1.385553 -0.000122 0.0
3.830256 0.665636 -0.000249 0.0
2.877535 2.313044 -0.000849 0.0
1.723838 2.146716 0.003538 0.0
1.256706 0.366459 -0.000707 0.0
3.163669 1.250566 0.001825 0.0
1.012594 1.089851 0.002592 0.0
2.404944 1.405246 -0.001837 0.0
1.160790 1.616772 -0.003043 0.0
3.406336 1.358248 -0.000925 0.0
1.970430 0.003825 -0.004809 0.0
4.385293 1.532307 0.001509 0.0
0.345855 1.869619 0.002979 0.0
3.082426 0.543021 -0.003655 0.0
0.346247 0.873172 0.000239 0.0
0.149585 2.205648 0.002702 0.0
1.224224 1.475172 -0.001659 0.0
0.425936 2.031454 0.001435 0.0
3.461289 1.756712 -0.004668 0.0
3.443602 2.046665 -0.003444 0.0
0.997801 1.082971 0.002845 0.0
4.292711 1.284239 0.003411 0.0
1.048275 1.516942 -0.004168 0.0
2.608549 0.264795 -0.001772 0.0
2.420454 1.897285 -0.003611 0.0
2.698052 0.365628 -0.000065 0.0
0.831452 0.372088 0.006450 0.0
3.050865 0.276560 -0.003969 0.0
1.287668 0.968430 0.000164 0.0
0.565452 2.014794 -0.001982 0.0
1.998779 0.575773 0.000460 0.0
4.262313 0.251110 -0.000307 0.0
3.888929 1.500525 0.003947 0.0
0.603707 1.955952 0.002032 0.0
0.976359 2.129904 -0.001813 0.0
1.153970 0.568970 -0.002944 0.0
0.575020 0.094660 0.004827 0.0
1.809055 0.460557 0.001218 0.0
3.616561 1.282146 -0.001122 0.0
0.213489 1.663131 -0.002900 0.0
3.275416 0.336959 0.000625 0.0
1.477406 1.933311 -0.003709 0.0
1.388427 0.941141 -0.003266 0.0
0.121242 0.203748 0.004817 0.0
3.158635 2.163576 -0.001648 0.0
4.101369 2.337497 -0.004381 0.0
4.318411 1.427410 -0.005798 0.0
0.107095 0.520855 0.001600 0.0
2.335958 0.514078 -0.000987 0.0
2.370803 2.099708 0.001396 0.0
0.686880 1.089183 0.001894 0.0
0.257691 1.329297 -0.001910 0.0
2.572732 2.279414 0.000102 0.0
0.170647 1.370752 0.002125 0.0
2.914551 0.304198 -0.002509 0.0
3.925913 2.097512 -0.000514 0.0
3.799635 0.054800 -0.000938 0.0
2.981334 0.871449 0.005257 0.0
1.261192 2.122031 0.001171 0.0
1.684307 1.498460 -0.001972 0.0
1.398216 1.690748 -0.004228 0.0
2.764919 2.232879 0.005267 0.0
3.232277 1.230530 0.002702 0.0
2.035956 2.216478 -0.001755 0.0
0.103836 1.432694 -0.002366 0.0
3.621673 2.034768 0.003857 0.0
0.345082 0.816431 -0.000098 0.0
2.347181 1.417278 -0.002242 0.0
0.481120 2.146462 -0.000441 0.0
3.966159 0.201509 -0.005695 0.0
1.361270 0.835102 -0.002024 0.0
2.325334 0.528085 0.007179 0.0
0.682388 0.073436 0.000701 0.0
0.706134 2.346721 -0.001187 0.0
0.585409 1.340781 -0.002746 0.0
2.934135 0.006665 -0.002024 0.0
0.893992 1.211704 -0.001483 0.0
1.655318 0.628547 -0.000186 0.0
3.057744 1.880608 0.002018 0.0
0.879322 2.113444 -0.002990 0.0
1.235969 1.383532 0.004278 0.0
2.832047 0.315404 0.000974 0.0
3.545501 0.283915 -0.003156 0.0
3.345960 1.985331 0.000340 0.0
2.969273 2.002710 0.000642 0.0
2.890163 2.249876 -0.000165 0.0
3.561286 1.539928 -0.001623 0.0
1.903102 0.575646 0.000222 0.0
1.014701 0.979983 0.003857 0.0
3.882746 1.543922 0.003070 0.0
3.803569 1.351683 0.001113 0.0
3.163965 1.440885 -0.002117 0.0
1.288573 0.137481 0.000150 0.0
1.618330 0.416331 -0.001724 0.0
2.568505 1.301224 -0.000303 0.0
3.648973 1.900319 0.001282 0.0
2.246716 1.490994 0.000599 0.0
3.858989 0.123072 0.000691 0.0
0.662539 0.101960 -0.000188 0.0
1.972344 0.776407 0.001072 0.0
2.117364 1.694007 0.001166 0.0
4.260860 0.913909 -0.000156 0.0
2.381899 0.694890 0.000432 0.0
3.048562 0.692383 0.002098 0.0
1.813144 0.912268 -0.000673 0.0
1.181522 0.893513 0.003842 0.0
2.822365 1.546115 -0.001543 0.0
4.284041 0.553345 0.001059 0.0
2.893465 1.481764 0.004269 0.0
4.261373 0.526038 0.003491 0.0
1.511196 0.942657 0.001020 0.0
3.469798 0.509458 -0.002246 0.0
1.736245 2.118052 0.002532 0.0
2.162073 0.357175 0.003121 0.0
3.146101 0.848550 0.005403 0.0
1.485959 0.634582 0.002287 0.0
1.939966 0.401555 -0.000335 0.0
4.073358 2.126290 0.000045 0.0
2.810406 0.065252 -0.001076 0.0
1.404995 0.814058 -0.000461 0.0
2.966432 1.259178 0.002446 0.0
3.302177 2.116708 -0.000429 0.0
1.437070 0.004758 0.002405 0.0
4.046797 0.434408 0.005274 0.0
1.740315 1.383681 -0.000999 0.0
0.050596 1.016703 0.001439 0.0
0.595425 0.450659 0.002611 0.0
0.427961 1.483247 -0.003691 0.0
4.217223 1.880953 -0.000513 0.0
4.379072 1.237200 0.003270 0.0
1.087013 1.298579 -0.001323 0.0
1.230329 0.703642 -0.002587 0.0
1.174028 0.998069 -0.004589 0.0
1.352682 1.563619 -0.001284 0.0
0.419904 0.971089 0.000126 0.0
1.090850 2.354651 0.003788 0.0
1.094445 0.708774 -0.001154 0.0
4.381494 1.254529 0.001926 0.0
3.438000 0.489452 0.003546 0.0
1.321868 2.320675 0.000721 0.0
0.841804 0.012051 -0.001091 0.0
3.893784 1.234971 -0.003105 0.0
2.561916 0.690488 -0.001650 0.0
2.568838 0.343836 0.001239 0.0
3.041688 1.427924 0.001215 0.0
1.927378 1.514004 0.000621 0.0
0.291332 0.312693 0.000813 0.0
0.565417 2.196981 -0.000985 0.0
2.853079 2.291748 -0.004957 0.0
3.459981 2.075290 -0.001928 0.0
0.027475 1.847101 -0.001367 0.0
1.494978 0.735000 -0.001399 0.0
1.514463 2.220847 -0.001783 0.0
2.624623 1.851589 0.002262 0.0
3.737543 1.360536 -0.003832 0.0
2.026512 0.154385 0.004592 0.0
3.564488 0.558162 0.000698 0.0
4.384227 1.979360 -0.002747 0.0
2.460524 1.409126 -0.000541 0.0
1.208017 1.656163 0.000490 0.0
0.981219 0.368519 -0.000689 0.0
4.299368 0.900908 -0.003172 0.0
2.507359 1.573423 -0.000270 0.0
2.110341 1.106314 -0.001243 0.0
2.803351 2.049432 0.001174 0.0
1.953073 1.955320 0.001164 0.0
3.029761 0.483511 -0.002965 0.0
3.356229 0.559550 -0.001546 0.0
1.499160 0.995883 0.001296 0.0
2.147941 2.061761 -0.002610 0.0
0.818197 0.541511 -0.000349 0.0
3.314581 0.002618 -0.001993 0.0
3.575396 2.326299 0.001679 0.0
3.826279 0.898038 0.000972 0.0
0.947097 1.566231 0.000917 0.0
0.998947 1.672287 0.003560 0.0
3.075510 1.378811 0.004362 0.0
3.608480 1.516944 -0.001019 0.0
4.300437 0.666983 -0.002799 0.0
1.505217 1.328374 -0.000930 0.0
1.025406 0.448359 0.000705 0.0
4.280095 0.648278 0.005345 0.0
0.583524 1.620883 0.004720 0.0
1.118733 0.877859 -0.001972 0.0
3.053346 1.109152 0.001895 0.0
0.178042 1.732830 0.003313 0.0
2.413544 0.980064 0.001529 0.0
0.988133 1.672619 0.001124 0.0
3.655857 1.255678 0.002462 0.0
2.984327 1.976586 -0.001949 0.0
3.793681 2.303644 0.000868 0.0
3.137050 1.544653 0.002767 0.0
0.182721 2.300577 0.007113 0.0
2.129581 0.351849 -0.001834 0.0
1.300385 1.029162 0.001318 0.0
3.143211 0.010343 -0.003093 0.0
0.367691 2.071767 -0.000249 0.0
3.785409 1.744379 0.000682 0.0
1.218528 0.182094 -0.001264 0.0
1.673821 1.761863 -0.000633 0.0
3.783131 0.208595 -0.002961 0.0
3.910715 1.621987 0.000466 0.0
0.188143 2.043490 -0.002937 0.0
2.471590 0.962747 -0.003485 0.0
4.328152 2.018049 -0.002410 0.0
4.321199 0.127484 -0.000944 0.0
1.684469 1.261208 0.000578 0.0
4.389617 0.317325 -0.000502 0.0
0.616742 1.507612 0.001899 0.0
4.303024 0.914919 -0.002159 0.0
4.195078 0.960713 0.001246 0.0
2.462665 1.823320 -0.000512 0.0
0.677470 0.974933 0.000196 0.0
2.567803 0.541344 0.002245 0.0
2.430013 1.498599 0.000804 0.0
2.409042 0.834840 0.004565 0.0
1.196734 1.988126 0.000548 0.0
4.207232 2.184329 0.000063 0.0
4.363941 0.104191 0.000843 0.0
1.227751 0.605853 -0.003090 0.0
3.322005 2.033990 -0.002754 0.0
3.170336 1.310646 -0.000747 0.0
2.956212 2.341647 -0.000968 0.0
0.222214 1.406023 0.000856 0.0
0.209594 2.204352 0.002825 0.0
1.022387 0.261275 0.001231 0.0
2.525290 1.804354 -0.000482 0.0
2.892278 1.917460 0.000349 0.0
0.437909 0.226667 -0.009824 0.0
2.318624 0.254124 -0.001380 0.0
0.847199 1.541509 0.001782 0.0
2.821405 2.087920 0.000674 0.0
1.160783 0.314766 -0.004911 0.0
3.796098 1.907332 -0.000893 0.0
2.729652 1.559021 0.003447 0.0
4.182008 1.969034 0.000444 0.0
0.687151 1.974173 0.003288 0.0
3.916572 1.960007 0.003377 0.0
3.346944 2.121127 0.002315 0.0
2.688864 0.178615 0.000314 0.0
0.140286 0.194237 0.001327 0.0
3.346418 1.155401 -0.000625 0.0
1.580019 1.269139 -0.002651 0.0
2.259895 0.649298 -0.000209 0.0
1.351389 0.882536 0.005166 0.0
0.909744 1.853668 -0.000760 0.0
2.828822 1.468944 0.001740 0.0
0.181000 0.690868 -0.003013 0.0
3.590094 2.158968 0.000445 0.0
2.269799 0.890237 -0.003523 0.0
2.233806 2.305566 0.002826 0.0
2.908962 2.067945 -0.001307 0.0
3.887008 1.597169 -0.000682 0.0
2.372034 0.155284 -0.007325 0.0
1.586019 1.857004 0.002749 0.0
0.257984 1.995969 -0.005040 0.0
3.783238 1.552977 0.002335 0.0
4.031597 1.702594 -0.000910 0.0
4.035457 1.576831 -0.000535 0.0
4.293490 2.003763 -0.000707 0.0
0.013712 1.163983 0.001678 0.0
3.755554 2.267003 -0.002618 0.0
3.354681 0.285362 0.001694 0.0
3.705410 0.822165 -0.001796 0.0
0.234266 0.014955 0.002022 0.0
0.215198 2.157987 0.001796 0.0
3.341258 0.535282 0.004672 0.0
3.431916 1.888514 -0.003038 0.0
3.206305 0.000179 0.001863 0.0
1.602142 0.347913 -0.004724 0.0
1.206032 2.163185 -0.002468 0.0
1.658900 2.169928 0.002400 0.0
0.637801 1.132042 0.002013 0.0
0.601162 1.524691 0.000037 0.0
2.776426 0.106557 0.003704 0.0
1.599655 0.113389 -0.003628 0.0
2.825411 1.008222 0.002805 0.0
4.194084 1.834860 -0.000137 0.0
1.596529 0.533779 0.001304 0.0
2.616676 0.946512 -0.001989 0.0
3.903411 0.173061 -0.000875 0.0
0.761648 0.885571 0.000848 0.0
0.851897 0.348829 0.001592 0.0
0.236055 0.690477 -0.002507 0.0
0.311810 1.376883 -0.001933 0.0
3.549505 0.984797 -0.004221 0.0
1.383623 0.157827 0.001348 0.0
2.641756 2.189170 0.001641 0.0
3.412570 0.543475 -0.002235 0.0
0.561480 1.710989 0.001067 0.0
1.187503 1.578477 -0.000459 0.0
1.101597 1.719201 -0.000187 0.0
3.454330 0.773366 0.000815 0.0
2.414829 0.034226 0.002446 0.0
2.115199 1.793820 0.001723 0.0
3.520568 1.167051 -0.001511 0.0
3.543859 0.788697 -0.003169 0.0
3.476990 2.162351 0.000558 0.0
2.501639 1.523723 -0.001572 0.0
3.323042 1.978483 0.003380 0.0
1.077773 0.504963 0.001045 0.0
1.214887 1.324731 0.001798 0.0
2.844993 1.154271 -0.001673 0.0
2.768929 1.875652 0.000032 0.0
1.526075 2.174632 0.003232 0.0
3.790322 1.508814 -0.001295 0.0
4.082960 0.248117 -0.000249 0.0
2.211750 0.118701 0.003500 0.0
3.443504 2.294356 -0.000530 0.0
0.319838 2.044324 0.004712 0.0
3.331167 1.984027 -0.002044 0.0
1.247438 1.097268 0.000076 0.0
2.081716 2.091196 -0.002485 0.0
0.718315 2.278259 -0.003692 0.0
1.702399 1.700455 0.000783 0.0
1.821230 0.469703 0.000874 0.0
2.482096 0.839153 -0.003084 0.0
1.254389 1.542497 -0.000834 0.0
4.293990 2.352431 0.000026 0.0
4.340796 0.692364 0.004671 0.0
0.625410 0.874257 -0.001807 0.0
1.496057 1.063283 -0.005204 0.0
1.679300 2.178101 -0.000920 0.0
2.072523 1.956696 0.002327 0.0
2.040990 0.587990 -0.001288 0.0
4.329987 0.570841 0.001346 0.0
0.339728 1.798838 0.002913 0.0
3.930937 0.273039 -0.000718 0.0
3.341712 1.717148 -0.002795 0.0
3.180164 2.007391 0.002608 0.0
2.126643 0.508295 -0.000345 0.0
0.274443 2.069606 -0.002228 0.0
2.073452 2.152175 0.000838 0.0
3.849669 0.377597 0.002929 0.0
3.036543 0.855973 0.003260 0.0
1.136777 0.742981 -0.001988 0.0
0.856755 0.284562 0.001105 0.0
2.664954 1.636749 0.002957 0.0
1.524973 1.691145 -0.003046 0.0
1.812138 0.887493 0.000363 0.0
1.031067 1.512441 -0.001558 0.0
3.422582 0.573884 -0.003247 0.0
4.115880 2.028120 0.001022 0.0
1.179224 1.125105 0.001420 0.0
1.438357 1.012240 0.005884 0.0
1.090257 0.143973 0.003606 0.0
3.609229 1.254641 -0.003049 0.0
0.132020 0.020117 0.003548 0.0
3.920388 1.232318 -0.001984 0.0
3.533675 0.524696 -0.001283 0.0
3.399545 0.093878 0.000960 0.0
3.736626 1.314536 0.001146 0.0
1.560121 0.785277 0.001596 0.0
1.768619 2.256464 -0.000415 0.0
1.766210 0.561235 -0.003944 0.0
2.053963 1.520211 -0.001348 0.0
2.111942 0.092496 0.000865 0.0
0.210377 0.639145 -0.000276 0.0
2.524250 0.341997 0.002934 0.0
4.176865 1.648333 -0.002815 0.0
4.351178 1.688824 0.001638 0.0
0.334087 0.697070 0.000141 0.0
1.705732 0.857338 0.003541 0.0
1.123120 0.532397 -0.001492 0.0
1.803820 0.472129 0.000478 0.0
0.213972 1.582573 0.001312 0.0
0.055922 1.748611 -0.001293 0.0
1.567309 1.615733 0.001252 0.0
2.983685 0.908721 -0.003240 0.0
0.525703 2.079819 -0.001291 0.0
4.329177 1.363073 -0.004866 0.0
0.255392 0.181264 -0.002908 0.0
1.849633 0.668884 0.002202 0.0
1.088494 1.552210 -0.004604 0.0
2.357104 0.242583 0.002140 0.0
3.567049 0.707590 0.001182 0.0
4.157784 0.629102 0.001810 0.0
3.481299 1.141647 0.003564 0.0
2.751942 1.382854 0.001783 0.0
0.275338 2.157787 -0.000437 0.0
1.244959 0.996548 0.004244 0.0
0.247127 2.190972 -0.000899 0.0
1.351212 1.634569 0.002322 0.0
1.966841 1.663006 -0.000527 0.0
3.225872 0.028641 -0.001731 0.0
2.512103 1.046358 0.001203 0.0
2.061935 0.170639 -0.003504 0.0
2.238781 1.707750 -0.002951 0.0
3.528663 0.281124 0.001577 0.0
3.611588 1.897138 0.001686 0.0
2.471487 1.864685 0.001247 0.0
2.310183 0.397607 -0.001934 0.0
1.023309 0.681120 -0.000675 0.0
0.996621 0.337008 0.005858 0.0
4.155815 0.652739 -0.000662 0.0
2.368063 0.864022 0.001628 0.0
2.705750 0.983473 0.001121 0.0
3.948727 2.174920 0.004526 0.0
2.360832 1.467663 0.002134 0.0
1.576702 2.133764 -0.000828 0.0
3.312433 1.091399 0.000586 0.0
3.516535 0.935311 -0.004341 0.0
1.907675 1.704522 -0.002704 0.0
2.387534 0.446427 -0.001243 0.0
0.739319 1.632577 0.002396 0.0
3.243020 2.122397 -0.000685 0.0
0.105774 1.203717 0.001920 0.0
2.892714 0.881014 -0.000570 0.0
2.964116 2.084135 -0.000190 0.0
1.520935 0.071367 -0.002910 0.0
1.980299 0.354007 -0.000244 0.0
3.431008 0.606458 0.001963 0.0
2.432008 1.529180 -0.005164 0.0
0.889351 2.042201 -0.002923 0.0
0.971795 1.316223 0.001512 0.0
1.958894 2.291896 -0.001357 0.0
3.744360 0.168043 -0.000879 0.0
2.977806 1.444323 0.000063 0.0
0.342495 0.676947 -0.003764 0.0
2.886115 1.784085 -0.001654 0.0
1.666746 0.770317 0.004090 0.0
2.222117 0.840512 -0.002202 0.0
3.280035 0.013941 -0.004794 0.0
1.412501 0.941862 0.000740 0.0
0.321627 2.003842 0.002231 0.0
0.249012 0.633125 0.004613 0.0
2.390328 1.979274 0.001475 0.0
0.657390 1.744311 0.003320 0.0
3.485432 0.484750 -0.002407 0.0
2.615394 1.065492 0.004173 0.0
0.757309 0.777019 0.003220 0.0
3.180156 1.202809 -0.001295 0.0
3.448630 0.606235 0.001619 0.0
2.865222 2.152020 -0.003600 0.0
2.512287 1.217886 0.002426 0.0
0.973617 1.878317 0.001291 0.0
1.348376 1.171299 -0.001617 0.0
1.451521 1.056142 -0.001883 0.0
1.219443 0.251445 -0.000201 0.0
1.036945 1.370767 -0.003439 0.0
1.406060 0.050470 -0.004190 0.0
3.463597 0.005587 -0.003678 0.0
2.246656 1.668450 0.001777 0.0
1.954360 0.043387 0.000625 0.0
0.753713 0.714589 0.000552 0.0
3.075107 0.707066 -0.004621 0.0
3.260740 0.786282 0.000941 0.0
0.714095 1.684752 0.002307 0.0
0.599652 0.855504 0.001463 0.0
1.737176 0.152460 0.002578 0.0
0.623989 1.193951 0.000115 0.0
4.279608 1.402671 -0.002700 0.0
0.001867 2.080482 0.003949 0.0
1.881858 1.787078 -0.002652 0.0
3.508000 1.947183 0.002688 0.0
1.454600 2.339083 -0.000810 0.0
3.691129 0.185151 -0.000005 0.0
3.290057 1.793525 0.002543 0.0
1.402121 0.077173 0.001342 0.0
3.259526 0.321317 0.001779 0.0
2.540090 1.353293 -0.001414 0.0
2.479364 1.834258 0.002665 0.0
3.280817 1.698477 -0.002091 0.0
3.587660 2.055828 0.000313 0.0
1.315080 0.261096 -0.002265 0.0
1.550482 1.999039 0.000455 0.0
3.187004 1.902513 0.000507 0.0
1.835547 1.660033 0.001502 0.0
3.996963 2.342349 -0.002001 0.0
1.693691 1.682793 0.001258 0.0
0.052822 1.231918 -0.002508 0.0
2.508857 2.078374 -0.003825 0.0
2.000004 1.674541 0.003094 0.0
4.351434 2.279664 -0.002254 0.0
2.729113 0.741138 -0.001595 0.0
3.614021 1.733159 -0.001962 0.0
1.298214 1.078150 -0.004505 0.0
0.644700 0.005051 -0.000422 0.0
1.850735 1.725888 -0.001551 0.0
1.935045 0.063784 0.001693 0.0
1.795742 0.687009 0.003704 0.0
2.731622 2.044022 0.003619 0.0
3.805092 0.046061 -0.002434 0.0
4.245103 0.803198 -0.004988 0.0
3.003607 1.065201 0.002621 0.0
3.390928 0.029099 0.002802 0.0
3.458757 0.369291 -0.001556 0.0
1.015155 1.304774 0.002722 0.0
0.219566 0.341480 0.002170 0.0
0.381382 1.869275 0.001239 0.0
0.590622 2.117954 -0.004794 0.0
3.103302 0.103483 0.003365 0.0
4.141379 0.899994 0.000680 0.0
2.733627 1.762873 0.001359 0.0
0.182552 1.723701 0.001184 0.0
0.876840 0.224935 -0.000020 0.0
0.625181 0.251154 -0.002458 0.0
4.191691 0.425516 -0.003257 0.0
2.680834 1.933276 0.000933 0.0
0.299035 1.247219 -0.000552 0.0
2.917572 1.582070 0.001342 0.0
2.018705 0.884443 -0.000538 0.0
3.244738 1.238278 -0.001120 0.0
1.033670 0.552071 -0.000082 0.0
2.212811 1.713631 -0.001142 0.0
2.854821 1.040738 0.002567 0.0
2.533967 0.903972 0.001349 0.0
1.166264 1.476283 0.001433 0.0
4.113825 1.755706 0.002826 0.0
3.052502 0.129645 0.000407 0.0
3.106855 1.803764 -0.002539 0.0
1.815483 0.738218 -0.000058 0.0
1.325404 0.221822 0.002428 0.0
0.871388 0.679500 0.002014 0.0
3.360837 1.909953 -0.002917 0.0
1.841642 0.292929 -0.002866 0.0
1.964284 2.145079 0.005163 0.0
1.216214 1.984320 0.002140 0.0
4.389177 1.693264 -0.001004 0.0
2.904571 1.950768 -0.002805 0.0
3.377763 0.813173 -0.001346 0.0
2.098157 0.296902 -0.000633 0.0
1.949994 0.776307 -0.002657 0.0
0.126672 2.171567 -0.003628 0.0
0.864753 1.483937 0.001770 0.0
1.549625 1.235954 -0.001416 0.0
4.060536 0.587599 -0.002805 0.0
1.616964 1.037873 0.000661 0.0
3.627656 1.187522 0.003277 0.0
1.165435 1.313671 0.002263 0.0
0.238232 1.236289 -0.000663 0.0
4.076273 1.466516 -0.003380 0.0
1.280135 0.212464 0.003396 0.0
3.537335 0.753685 0.000273 0.0
2.043537 0.435431 -0.003604 0.0
2.546865 0.653730 0.001380 0.0
1.555165 0.699797 -0.000503 0.0
2.168657 1.885358 -0.004694 0.0
3.812674 1.065300 -0.001244 0.0
1.609749 0.687564 -0.002419 0.0
2.971406 1.887204 0.002391 0.0
2.460575 2.041888 -0.002462 0.0
3.910658 1.605677 0.003855 0.0
3.659547 2.051127 -0.002783 0.0
1.878065 2.357457 0.003670 0.0
2.172606 0.319365 -0.002409 0.0
2.249368 0.075823 -0.001949 0.0
1.353143 1.752399 -0.004094 0.0
0.501145 1.889439 -0.000312 0.0
0.107007 0.523158 0.000718 0.0
3.353873 2.066773 0.001386 0.0
4.191258 0.019165 -0.001260 0.0
4.160714 1.727887 0.003315 0.0
2.084806 1.440589 0.001678 0.0
1.856870 1.833090 -0.003753 0.0
4.190038 2.138664 -0.008121 0.0
2.190110 0.894061 -0.002122 0.0
0.563567 0.173679 -0.002326 0.0
1.195581 1.016483 -0.002985 0.0
3.209190 0.405124 0.000037 0.0
3.566495 0.534775 0.005107 0.0
3.682198 0.047347 0.002952 0.0
0.832899 1.336374 -0.001456 0.0
0.048629 1.029562 0.001812 0.0
0.831308 1.457229 -0.005548 0.0
0.924124 1.891735 0.001406 0.0
3.791820 1.034613 -0.001518 0.0
2.371336 2.121697 -0.000476 0.0
2.185657 0.472533 -0.000117 0.0
2.932677 1.138505 -0.001000 0.0
0.048155 2.295186 0.004181 0.0
1.024994 0.552798 0.000068 0.0
2.824743 0.588928 -0.000412 0.0
3.212297 1.489882 0.002725 0.0
0.922244 1.209928 0.002773 0.0
1.430145 0.649246 0.002567 0.0
1.495517 0.720636 0.000724 0.0
3.000166 0.583024 -0.001793 0.0
2.459933 0.181927 -0.000913 0.0
0.229853 1.866021 0.002430 0.0
2.646402 1.689405 -0.000811 0.0
0.404712 2.033130 0.000136 0.0
3.700032 2.057520 0.003014 0.0
2.010115 1.057541 -0.003692 0.0
3.671041 0.181981 -0.002003 0.0
3.745922 1.147342 -0.002334 0.0
3.722717 2.291739 -0.000953 0.0
0.087456 2.114884 -0.001766 0.0
0.710236 0.686440 -0.001172 0.0
3.853141 2.096047 0.000341 0.0
2.213705 1.865517 0.002749 0.0
3.853336 0.393734 -0.000803 0.0
0.135047 0.784470 -0.000568 0.0
3.373228 0.117981 0.001922 0.0
2.167150 2.129421 0.006348 0.0
2.146562 1.650487 0.002035 0.0
0.629333 0.817657 0.002145 0.0
2.263788 0.552880 -0.000630 0.0
3.673731 0.215175 0.002378 0.0
3.405372 1.739234 -0.000262 0.0
1.043589 0.634871 -0.000884 0.0
3.902774 0.238972 0.002676 0.0
3.499966 0.034192 -0.001690 0.0
0.801582 0.826695 0.002617 0.0
3.159183 1.330946 0.005882 0.0
1.523651 0.220883 -0.001494 0.0
3.047684 0.935590 -0.002189 0.0
2.077038 1.854896 0.001274 0.0
0.472590 1.116358 -0.001534 0.0
1.524255 1.533582 -0.001242 0.0
0.516150 0.164769 0.000835 0.0
3.239677 2.177979 0.004488 0.0
2.257781 1.859987 0.000308 0.0
0.535509 0.414745 0.006227 0.0
4.188763 2.028708 -0.002205 0.0
0.068873 0.533140 -0.001247 0.0
3.170522 1.939947 0.000285 0.0
0.973868 1.492772 -0.001014 0.0
3.798613 1.355894 0.000947 0.0
1.207852 1.319134 -0.000528 0.0
3.521760 0.721931 -0.001727 0.0
4.093539 1.770995 0.001570 0.0
1.872646 1.552901 0.000961 0.0
2.038588 2.116514 0.000764 0.0
0.859388 2.279609 0.001048 0.0
2.881766 1.292613 0.000362 0.0
2.304416 1.209168 -0.000851 0.0
4.203921 0.990260 0.000210 0.0
3.549506 0.003455 -0.003269 0.0
3.230990 0.585502 -0.000225 0.0
1.299257 0.250145 0.001104 0.0
1.566449 0.453029 0.000837 0.0
4.073792 1.752261 -0.002129 0.0
2.699287 1.794076 0.000423 0.0
0.085726 0.660171 -0.000106 0.0
0.963203 2.007418 0.001504 0.0
2.707770 0.568282 0.000014 0.0
1.750755 0.865725 -0.002031 0.0
0.066317 0.906296 0.002801 0.0
3.541950 2.011950 0.001662 0.0
1.228884 0.268270 -0.000494 0.0
0.096646 0.089920 0.002177 0.0
2.408361 1.953670 0.001469 0.0
4.323015 0.356876 -0.004481 0.0
3.329450 1.252396 -0.008220 0.0
4.258608 0.909296 0.000014 0.0
3.437936 1.303609 -0.000537 0.0
1.697418 0.364478 0.002984 0.0
0.770422 0.103433 -0.000327 0.0
2.726839 0.210895 0.000565 0.0
3.078696 0.552130 0.000245 0.0
0.981095 0.647723 0.000030 0.0
4.319594 1.316997 0.004640 0.0
0.199021 1.974844 -0.002041 0.0
0.563071 2.013576 0.000591 0.0
4.207837 1.008322 -0.004002 0.0
4.145355 1.859232 0.000634 0.0
2.361441 1.575211 -0.001961 0.0
1.555228 0.801493 -0.003225 0.0
3.834019 0.496917 0.001064 0.0
2.717387 2.059388 0.001096 0.0
3.917242 1.181490 -0.000099 0.0
3.693383 0.406124 -0.003680 0.0
0.774385 1.106695 -0.002508 0.0
2.729096 1.469971 -0.003668 0.0
0.905280 0.615893 0.000975 0.0
3.559696 0.938135 -0.000696 0.0
1.793626 1.800683 -0.002665 0.0
3.682612 2.308759 0.003091 0.0
1.684356 1.698925 0.001020 0.0
3.830337 1.482748 0.000219 0.0
4.024946 2.051146 -0.002891 0.0
3.736836 0.983785 -0.002229 0.0
3.788507 1.361924 0.001292 0.0
0.853422 0.633344 -0.003238 0.0
1.019367 0.924029 0.000421 0.0
1.610075 1.111943 0.002494 0.0
3.171761 1.390672 0.002634 0.0
2.440902 1.179884 0.002973 0.0
1.244386 1.497957 0.001032 0.0
1.370705 1.313761 0.002886 0.0
3.821518 1.528814 -0.004498 0.0
1.807114 1.690993 0.000671 0.0
4.118865 0.604636 -0.001797 0.0
3.136891 0.323517 -0.002255 0.0
1.758651 1.359339 0.001418 0.0
0.928064 1.054643 -0.000415 0.0
3.250985 1.990978 0.005559 0.0
3.676328 1.860962 -0.002862 0.0
2.793976 0.990086 -0.000125 0.0
1.893238 0.083149 -0.001765 0.0
4.285341 1.588438 0.001946 0.0
3.146956 0.541927 -0.004687 0.0
4.315062 1.570346 0.000538 0.0
2.239754 0.866540 -0.002086 0.0
1.867120 0.704313 0.001791 0.0
1.402976 0.051421 0.000383 0.0
0.730879 1.173458 -0.003679 0.0
1.174723 0.962826 0.004696 0.0
3.474826 0.103904 -0.002011 0.0
3.913245 1.772395 0.004287 0.0
0.164299 0.649687 -0.003629 0.0
3.630107 1.857481 0.000781 0.0
3.409280 0.790912 0.001237 0.0
1.818286 2.149357 0.005741 0.0
1.550533 2.149390 0.001261 0.0
4.349285 0.768949 -0.002352 0.0
1.407485 0.192465 -0.004710 0.0
1.588700 1.518999 -0.001845 0.0
0.277950 2.260775 0.000927 0.0
3.137188 2.148875 -0.000738 0.0
1.920690 1.275172 -0.000532 0.0
2.769242 2.326998 -0.001721 0.0
1.194898 0.140312 0.000125 0.0
0.606039 2.091670 -0.001775 0.0
1.551348 1.783770 0.002905 0.0
3.963567 0.058115 -0.003036 0.0
0.883961 1.752833 -0.002599 0.0
1.111523 1.213552 0.000264 0.0
1.561716 0.952291 -0.004822 0.0
2.936930 0.625931 -0.001098 0.0
2.949715 1.408478 -0.002852 0.0
2.565069 0.193036 0.000983 0.0
0.764210 0.062634 -0.001569 0.0
1.424794 2.108086 -0.000827 0.0
2.182933 1.071478 -0.000472 0.0
3.630016 1.699972 -0.002326 0.0
0.485616 0.100726 0.001157 0.0
0.939160 2.025308 -0.002083 0.0
2.894816 0.134254 -0.000550 0.0
4.047802 0.128122 0.000621 0.0
4.071080 0.000449 -0.002150 0.0
3.041869 2.119237 -0.001927 0.0
2.626098 0.489601 -0.001976 0.0
3.087780 2.101747 0.000539 0.0
2.766913 1.129348 -0.003142 0.0
3.289648 0.559517 0.001890 0.0
2.713388 1.160023 -0.001988 0.0
0.587548 1.070165 -0.003737 0.0
3.201827 1.893064 0.000523 0.0
0.494728 0.651596 0.004147 0.0
3.818850 1.595096 -0.000703 0.0
2.666088 2.128073 -0.002186 0.0
1.972340 0.310841 -0.001907 0.0
3.164198 1.159584 0.002761 0.0
4.252728 0.472356 0.002016 0.0
2.208521 0.116428 0.004594 0.0
0.033958 1.993708 -0.000614 0.0
3.496114 0.439586 -0.000929 0.0
3.650847 0.662620 -0.006072 0.0
2.196697 1.636331 0.000698 0.0
2.183669 0.784669 -0.004463 0.0
2.621986 1.810480 -0.000355 0.0
1.750866 1.028950 0.002790 0.0
1.505651 2.300568 -0.002020 0.0
2.375555 1.093268 0.003358 0.0
2.533210 0.546886 0.004191 0.0
1.360219 1.549985 0.003954 0.0
4.047488 0.057485 0.000007 0.0
0.515845 0.850046 -0.001050 0.0
0.109042 0.001262 0.003554 0.0
0.358848 0.735582 -0.000604 0.0
2.422174 2.305705 0.000671 0.0
2.108928 2.120034 0.007369 0.0
2.013248 0.844595 0.001739 0.0
3.982361 0.486640 -0.000776 0.0
2.735755 1.605864 -0.000154 0.0
1.626338 1.790577 -0.000235 0.0
0.879201 0.673845 -0.002860 0.0
2.349991 0.325627 0.000491 0.0
0.203109 2.146538 -0.002413 0.0
1.207938 2.005383 0.000374 0.0
3.031837 0.162486 -0.000179 0.0
3.593563 2.269222 0.001012 0.0
1.326823 1.200073 0.002653 0.0
2.090748 0.249945 -0.001050 0.0
2.401200 0.933804 -0.000289 0.0
1.211268 0.694257 -0.003111 0.0
2.231211 0.175379 0.000879 0.0
0.919713 0.571557 0.002236 0.0
0.511085 0.450316 -0.002270 0.0
3.403297 0.684802 -0.001498 0.0
0.635434 1.141742 0.001279 0.0
3.596112 0.225592 -0.002307 0.0
2.126564 0.272058 0.003398 0.0
1.648829 0.878945 0.000736 0.0
3.814824 0.220768 0.004792 0.0
0.099386 1.768045 0.000137 0.0
2.751812 0.269237 -0.002008 0.0
0.800391 0.182734 -0.000600 0.0
0.498365 1.866433 0.001861 0.0
2.352619 1.929144 -0.001932 0.0
0.453941 0.098556 0.001570 0.0
1.322864 0.588479 -0.000740 0.0
0.003347 0.164560 -0.000059 0.0
0.393253 1.089667 0.001437 0.0
1.877268 0.287128 -0.000097 0.0
3.332292 0.084366 0.000505 0.0
1.489245 1.280655 0.002597 0.0
3.438829 2.289818 0.002558 0.0
3.663839 1.308206 0.001678 0.0
2.230438 0.800290 0.000420 0.0
1.342417 0.578771 0.001135 0.0
0.376783 0.897886 -0.002155 0.0
3.891159 0.827400 -0.001064 0.0
0.199176 1.147280 0.000580 0.0
4.255541 1.646421 0.000773 0.0
2.493937 1.616491 -0.004119 0.0
0.007898 1.360873 -0.001834 0.0
4.362691 1.955163 0.002400 0.0
1.939297 1.650647 0.001117 0.0
1.002488 0.768827 -0.001164 0.0
2.889425 1.237276 -0.000851 0.0
0.266448 0.301167 0.000502 0.0
0.404692 1.152483 -0.002541 0.0
0.054610 2.057174 0.002607 0.0
0.610682 1.250884 -0.000303 0.0
0.422871 1.297017 -0.002643 0.0
3.818765 2.212073 -0.000668 0.0
1.262336 0.616695 -0.000397 0.0
0.810877 0.024783 0.000293 0.0
1.772408 0.391716 0.001347 0.0
1.818974 1.043556 0.000486 0.0
0.884004 0.117616 -0.001258 0.0
0.579013 1.711501 -0.001506 0.0
4.074641 0.279678 -0.005115 0.0
3.776306 0.358025 -0.002533 0.0
3.631989 0.919300 -0.003838 0.0
1.821546 0.986483 -0.001747 0.0
0.677888 2.122800 -0.004545 0.0
2.270645 1.985290 0.000777 0.0
2.673308 0.199169 -0.002295 0.0
2.394272 2.106602 -0.001642 0.0
2.638790 1.708568 -0.002061 0.0
2.511118 1.149328 -0.000324 0.0
1.736940 0.941449 0.006102 0.0
3.157476 0.678130 0.001648 0.0
2.938348 1.759978 0.001215 0.0
3.010867 2.028959 0.000447 0.0
1.052511 2.235625 -0.001845 0.0
1.804431 1.077834 -0.003346 0.0
4.065540 1.768845 0.000622 0.0
1.441431 0.945050 0.000805 0.0
1.692855 1.850855 0.001340 0.0
3.362495 2.117975 -0.001674 0.0
0.137629 1.814464 0.000605 0.0
3.485690 2.042240 0.002553 0.0
1.617786 0.601679 0.001572 0.0
3.457080 1.099108 0.001243 0.0
0.753301 0.286044 0.002245 0.0
3.573294 1.855311 0.001221 0.0
3.752234 0.976073 -0.001361 0.0
3.304825 1.882340 -0.000459 0.0
2.608462 0.947153 -0.002203 0.0
3.454025 1.202419 0.001418 0.0
3.033641 0.738864 -0.000714 0.0
3.465018 1.754682 0.000459 0.0
0.833951 1.874777 -0.001404 0.0
1.359493 1.937979 0.003665 0.0
1.674985 2.342274 0.001326 0.0
2.262131 2.045766 -0.003977 0.0
2.540858 0.998856 0.003694 0.0
3.151493 2.095222 -0.002977 0.0
3.921509 0.649095 0.000397 0.0
2.016198 1.813091 -0.002612 0.0
1.539128 1.509056 0.000102 0.0
3.699670 1.446522 0.004090 0.0
3.694669 1.436804 0.000940 0.0
2.296336 0.154617 0.002047 0.0
0.835321 0.545944 0.001657 0.0
1.077990 1.589413 0.000873 0.0
4.009275 0.293613 -0.003263 0.0
1.187772 0.834221 -0.002988 0.0
0.232191 2.124853 -0.001931 0.0
2.158423 1.173079 -0.000387 0.0
1.059616 0.842626 -0.001665 0.0
3.293204 1.869767 -0.003992 0.0
3.163782 0.604414 -0.003959 0.0
0.119966 0.841005 -0.002514 0.0
1.134727 0.972190 0.000428 0.0
2.347652 1.174249 -0.003000 0.0
1.777169 1.125535 -0.003794 0.0
3.883431 0.551808 0.002920 0.0
2.380576 1.400279 0.001977 0.0
2.152055 1.422201 0.001950 0.0
0.409180 1.377460 -0.001738 0.0
3.801501 2.006838 0.001914 0.0
0.713992 0.403914 -0.004521 0.0
3.025295 1.730554 0.002448 0.0
3.185641 1.133537 -0.002434 0.0
1.709407 0.620438 -0.003711 0.0
1.202588 1.832702 0.004689 0.0
3.072100 2.269591 0.000734 0.0
3.733996 1.825860 -0.004218 0.0
4.093836 2.022171 0.001322 0.0
3.589223 0.680565 -0.002068 0.0
2.612939 0.272581 0.002191 0.0
2.799720 1.956228 0.000461 0.0
0.440983 0.459201 -0.000156 0.0
0.720350 0.783104 0.003780 0.0
0.954914 1.300868 0.000391 0.0
3.093100 1.573874 -0.001668 0.0
4.266243 1.241307 -0.000226 0.0
3.087459 1.863425 -0.001184 0.0
1.552767 0.168780 -0.001468 0.0
0.082322 2.181076 0.001603 0.0
0.446975 2.247369 0.001088 0.0
2.010420 2.325545 0.000222 0.0
4.247444 2.073219 0.000477 0.0
2.323241 1.659281 0.003974 0.0
1.488846 0.289766 -0.003118 0.0
3.750793 0.378002 0.001601 0.0
3.010184 0.504577 -0.000345 0.0
4.281566 0.247883 -0.000571 0.0
0.720091 2.259713 0.001026 0.0
3.900291 1.472009 -0.000361 0.0
1.681345 1.408153 0.002730 0.0
2.898715 0.625735 -0.002427 0.0
0.574713 1.335377 -0.001152 0.0
4.011877 1.692871 0.001573 0.0
2.008388 1.296960 0.004820 0.0
0.950629 0.555652 -0.001798 0.0
1.849571 2.091159 -0.001374 0.0
4.048696 1.144336 0.004783 0.0
1.290153 0.937849 0.004263 0.0
4.210147 0.681598 0.001783 0.0
0.204234 0.121713 0.003493 0.0
3.131928 1.662795 -0.002583 0.0
4.340080 1.345102 -0.002807 0.0
1.545303 2.029978 -0.001239 0.0
2.030576 1.663971 0.001650 0.0
0.006675 1.788563 -0.005019 0.0
0.936566 0.081937 -0.001719 0.0
3.442010 1.548207 -0.002795 0.0
1.750581 0.703082 0.001902 0.0
0.006555 1.699580 0.001975 0.0
1.853218 1.741011 -0.001613 0.0
1.396879 0.262196 0.002668 0.0
3.786647 0.516873 -0.000323 0.0
3.278458 0.030815 -0.004037 0.0
1.594293 0.008470 -0.000717 0.0
2.478025 0.841710 -0.001282 0.0
2.163094 0.433295 0.000872 0.0
2.493838 0.887078 0.001127 0.0
3.013464 1.786291 0.001961 0.0
1.123339 2.029733 0.001641 0.0
1.273832 2.198015 -0.003007 0.0
3.864029 0.469491 -0.001360 0.0
3.710249 0.658493 0.003756 0.0
3.366694 0.503464 0.000506 0.0
4.015735 1.219555 -0.000975 0.0
0.149483 1.055492 -0.002939 0.0
4.357853 0.086189 -0.003474 0.0
0.315859 1.231504 0.000804 0.0
2.757706 1.717599 0.005035 0.0
2.745998 0.039073 -0.003820 0.0
3.147788 1.342772 -0.002641 0.0
3.365598 1.847140 0.004558 0.0
3.252453 2.087567 0.000829 0.0
3.524933 1.614873 0.002739 0.0
3.888205 1.059996 0.000242 0.0
3.188597 0.487468 0.002218 0.0
4.160621 1.680167 0.001200 0.0
2.244733 0.039254 0.000985 0.0
2.750058 1.580462 0.000743 0.0
0.924287 2.236218 -0.005047 0.0
1.738506 1.258476 0.004847 0.0
0.605128 0.678892 -0.000550 0.0
1.063203 1.255648 -0.000837 0.0
3.231955 1.212930 0.000417 0.0
3.115503 1.295034 0.002558 0.0
4.373595 1.545594 -0.001574 0.0
0.761408 0.152656 -0.001111 0.0
3.360825 0.190587 -0.001185 0.0
3.666057 1.756136 0.002855 0.0
0.389462 1.728613 -0.000047 0.0
1.799703 1.458042 0.004530 0.0
3.888268 1.963794 -0.001491 0.0
3.820055 1.790431 0.002886 0.0
1.086925 1.164663 0.001458 0.0
3.865307 0.802343 -0.001497 0.0
1.832667 1.876310 0.000012 0.0
3.666493 0.703986 -0.002142 0.0
1.929117 2.010668 0.003905 0.0
0.722925 1.159201 -0.000553 0.0
2.658978 0.557230 0.001729 0.0
1.139159 1.392148 0.000491 0.0
3.861542 2.248697 0.000630 0.0
3.215362 2.270822 -0.001918 0.0
0.198476 1.344428 0.001208 0.0
4.256823 0.915644 0.001819 0.0
4.362148 0.083253 0.001114 0.0
0.408313 1.838951 0.000962 0.0
3.115117 0.119554 -0.004045 0.0
4.250239 0.383545 -0.002683 0.0
2.359562 0.178276 -0.000462 0.0
1.319486 2.332436 -0.001909 0.0
3.102908 1.619296 -0.001906 0.0
3.159790 0.033774 0.001656 0.0
1.993467 1.279935 -0.000771 0.0
0.287148 1.420157 0.002431 0.0
3.144110 1.212247 -0.001922 0.0
1.464740 1.224568 -0.003532 0.0
2.714421 0.052906 -0.003564 0.0
3.048350 0.054531 -0.000060 0.0
0.114896 0.055595 -0.000981 0.0
0.079931 0.052138 0.000522 0.0
0.518558 1.893265 -0.002924 0.0
0.237727 1.705689 0.001373 0.0
4.386805 0.074404 0.001179 0.0
0.099852 1.561119 0.000596 0.0
1.133466 0.848680 0.000264 0.0
2.042978 1.390574 -0.001654 0.0
1.505242 1.383448 0.002332 0.0
4.352676 1.829297 -0.001883 0.0
1.805168 1.024750 0.000427 0.0
3.912302 1.842937 0.005896 0.0
3.059597 0.497613 -0.000174 0.0
2.237333 1.008815 0.003082 0.0
3.175224 1.343571 -0.001804 0.0
4.107806 1.931407 -0.001015 0.0
0.733614 0.857064 -0.000340 0.0
1.892568 2.289454 -0.000854 0.0
1.391457 1.625325 0.000295 0.0
1.232177 1.056336 -0.000589 0.0
2.129326 0.748934 0.002864 0.0
2.418141 1.666009 -0.002131 0.0
0.156789 1.132065 0.002800 0.0
4.388047 0.168047 0.000096 0.0
2.500242 0.761752 0.001924 0.0
2.591364 1.383745 0.000063 0.0
0.266143 1.430591 0.002303 0.0
3.197491 1.075308 -0.001512 0.0
2.301950 1.475734 -0.003669 0.0
3.064169 0.784587 -0.000278 0.0
0.031315 0.283569 -0.005276 0.0
1.673038 1.727005 0.000486 0.0
2.484800 0.401386 -0.005564 0.0
0.166420 1.638881 -0.002892 0.0
1.852406 0.695862 0.004363 0.0
0.827937 0.202803 -0.001120 0.0
1.437343 2.266203 -0.001146 0.0
0.794690 1.208575 0.000007 0.0
3.538699 1.679270 -0.001385 0.0
1.107463 1.812155 -0.000832 0.0
3.995050 1.152779 -0.003214 0.0
4.375327 1.747152 -0.000162 0.0
2.358652 2.274800 0.006002 0.0
4.031625 1.043749 0.000345 0.0
2.189128 1.520473 0.002508 0.0
0.631427 2.350347 -0.005432 0.0
3.962871 1.691495 0.003607 0.0
0.429303 0.662687 0.002275 0.0
2.799461 1.370928 0.002389 0.0
2.988125 1.969773 -0.001522 0.0
3.091967 0.844330 0.000321 0.0
3.849854 1.304118 0.003212 0.0
0.975990 2.270180 -0.001318 0.0
2.779298 0.431708 0.003854 0.0
2.106086 1.523313 0.002700 0.0
0.070061 0.201998 0.000924 0.0
3.836685 1.926633 -0.001197 0.0
4.350423 1.682368 0.001036 0.0
0.666695 0.830062 0.001694 0.0
1.598132 1.167977 0.000846 0.0
1.163217 1.542715 0.001036 0.0
3.593725 1.198178 0.001960 0.0
3.128514 2.161006 0.001503 0.0
1.126030 0.428436 0.000015 0.0
1.134315 0.315679 -0.001512 0.0
0.506736 1.242055 0.001582 0.0
1.573005 1.266669 0.000652 0.0
3.777622 0.757500 -0.000723 0.0
1.392833 0.463882 0.000350 0.0
3.969397 0.611041 0.001855 0.0
0.237921 2.312813 -0.000075 0.0
2.480401 0.746406 -0.000946 0.0
1.799603 0.008723 0.000431 0.0
2.821902 1.325790 -0.000403 0.0
2.658425 1.398811 -0.004737 0.0
2.937224 1.895400 0.001524 0.0
2.244782 1.652413 0.001809 0.0
3.562301 0.902782 -0.000739 0.0
1.336897 0.656244 -0.004648 0.0
0.601847 0.985522 0.002539 0.0
2.127992 1.604426 -0.000835 0.0
3.210172 1.307388 -0.003953 0.0
0.394141 1.015832 -0.002196 0.0
0.204271 0.969935 0.001467 0.0
2.808407 1.952072 0.002787 0.0
2.670936 1.918942 -0.004099 0.0
3.076979 0.464461 -0.002141 0.0
3.579889 0.684162 0.004155 0.0
0.998900 1.572053 0.002455 0.0
4.202201 0.746920 -0.001692 0.0
1.772575 0.229455 0.001431 0.0
0.886776 1.119456 0.002033 0.0
2.556064 0.923375 0.001615 0.0
1.148983 0.495818 0.004185 0.0
1.789369 0.221453 -0.001288 0.0
0.844501 0.304103 -0.000177 0.0
1.657759 0.477566 -0.001857 0.0
1.822187 1.358823 -0.000537 0.0
2.548024 1.073448 -0.000496 0.0
3.532148 1.061367 -0.000563 0.0
1.694251 0.462280 0.002713 0.0
0.724796 2.230271 0.001171 0.0
3.439524 1.318973 -0.000096 0.0
3.082401 0.764488 -0.000762 0.0
2.534732 0.370146 0.004127 0.0
3.255584 1.367539 0.001049 0.0
0.772352 1.352663 -0.001896 0.0
1.188000 1.571786 0.001089 0.0
1.997152 1.966441 0.003021 0.0
2.193496 0.116632 -0.001058 0.0
0.753956 0.011033 -0.001502 0.0
2.186073 0.361958 0.000339 0.0
3.407430 0.316192 0.005382 0.0
3.944629 0.314943 -0.000154 0.0
3.487412 1.588626 0.002750 0.0
3.131396 1.574613 0.001529 0.0
0.756469 2.304850 -0.000392 0.0
2.647298 1.038558 0.000642 0.0
1.546472 0.328910 0.002738 0.0
3.895577 1.349808 -0.000734 0.0
1.668640 0.248108 -0.000633 0.0
1.728910 0.186940 -0.002408 0.0
2.523215 0.238872 -0.002931 0.0
0.808658 2.075120 -0.001046 0.0
3.356928 1.285765 -0.000328 0.0
3.610288 2.132157 0.008144 0.0
2.730785 0.402943 -0.003619 0.0
4.041161 1.824692 -0.001305 0.0
4.216708 1.486694 0.000755 0.0
0.136297 1.178841 0.000020 0.0
4.383245 1.628326 -0.004882 0.0
4.052403 1.782044 -0.002699 0.0
3.979491 0.585003 0.000078 0.0
4.239753 0.815396 0.000106 0.0
1.958078 1.947630 -0.003685 0.0
0.710671 0.346869 0.006801 0.0
1.839198 0.096327 0.000465 0.0
0.999133 1.109582 0.003824 0.0
1.912794 1.932925 0.001005 0.0
3.340517 0.657423 -0.000152 0.0
0.220845 1.070528 0.004421 0.0
2.515473 1.418960 0.003366 0.0
4.242890 0.920513 0.001053 0.0
2.100452 1.666815 -0.005255 0.0
2.507167 1.732015 0.000288 0.0
2.830573 1.932854 0.004041 0.0
0.440902 1.244822 0.005737 0.0
4.141457 0.482021 0.000506 0.0
2.356887 1.585118 -0.002136 0.0
4.319691 1.398877 0.001474 0.0
3.570869 1.088788 0.002767 0.0
2.721714 1.858616 -0.002678 0.0
0.487591 0.913366 -0.003949 0.0
2.757022 0.723132 0.003999 0.0
2.654066 2.120438 0.001878 0.0
2.939313 2.016497 0.000280 0.0
2.941344 0.596332 0.000809 0.0
4.344170 1.699105 0.000439 0.0
2.512734 2.293061 -0.003690 0.0
0.178651 2.083283 -0.000730 0.0
3.333353 0.886646 -0.000267 0.0
1.218510 1.906407 0.003267 0.0
0.743314 1.202203 0.001634 0.0
3.147962 0.122207 0.002431 0.0
2.872164 1.798857 -0.002112 0.0
3.838350 1.105410 -0.000690 0.0
0.275288 1.910549 -0.006816 0.0
2.295314 1.442740 0.000650 0.0
0.182456 1.255037 -0.004034 0.0
3.078278 1.646674 -0.003460 0.0
1.198252 1.554452 -0.003016 0.0
1.104031 1.763292 0.002291 0.0
1.901190 0.930553 -0.004936 0.0
0.773353 2.061272 -0.000844 0.0
2.569572 2.299327 0.001487 0.0
1.079200 2.057996 -0.002102 0.0
4.033935 1.555999 -0.000951 0.0
2.587736 0.687665 0.000034 0.0
1.839953 0.505625 -0.002717 0.0
1.118866 1.713744 0.002501 0.0
3.127055 1.760485 0.003910 0.0
3.731227 2.014920 0.005184 0.0
2.104939 1.081036 -0.000564 0.0
1.742717 0.611952 -0.002922 0.0
2.422930 0.306462 0.002793 0.0
1.039563 1.118313 -0.001310 0.0
3.512225 2.006010 -0.000745 0.0
3.190904 1.375338 0.002355 0.0
4.277255 1.335248 0.004455 0.0
1.112977 1.412756 -0.003878 0.0
4.121182 0.328137 -0.003674 0.0
3.336135 1.716318 0.002867 0.0
0.128502 1.917425 -0.000301 0.0
2.470720 0.332445 0.002778 0.0
2.919661 1.962381 -0.003319 0.0
2.343645 0.031757 -0.003620 0.0
0.090580 1.497488 -0.000342 0.0
0.138515 1.706858 -0.000317 0.0
0.609479 1.679608 0.000528 0.0
0.457719 0.153643 -0.003656 0.0
3.729616 2.040467 -0.005458 0.0
2.398651 0.585184 0.003220 0.0
2.647311 0.566259 -0.000067 0.0
0.843969 1.789582 0.001424 0.0
1.350774 1.793315 0.002565 0.0
0.878670 1.204319 -0.001488 0.0
2.903586 0.583733 -0.004590 0.0
0.086974 1.920085 -0.001016 0.0
0.787263 1.593495 0.003481 0.0
4.335670 0.927381 0.000114 0.0
0.401964 1.177681 -0.005208 0.0
4.304645 0.416296 -0.000074 0.0
1.065700 0.172524 -0.000875 0.0
2.012320 0.399678 0.003194 0.0
2.630858 1.528530 -0.001532 0.0
4.027673 0.375776 0.000150 0.0
2.319744 1.872519 -0.000137 0.0
1.816934 0.876552 -0.003419 0.0
3.958661 0.067432 0.005637 0.0
2.318302 1.717927 0.002246 0.0
2.060809 1.140482 -0.001039 0.0
4.086176 1.615178 -0.003909 0.0
3.711510 2.099252 -0.005188 0.0
3.173084 1.067956 0.000265 0.0
2.157092 2.198220 0.001484 0.0
4.380252 1.106585 0.000494 0.0
0.512489 1.214184 -0.000950 0.0
3.491958 0.508633 -0.002498 0.0
3.439693 1.524149 -0.003131 0.0
3.308773 0.311153 0.002064 0.0
0.726805 0.139792 -0.001827 0.0
3.208848 0.935071 -0.002923 0.0
1.916073 2.037678 0.003185 0.0
3.599995 1.161817 -0.001866 0.0
1.121906 1.851506 -0.000666 0.0
1.056364 1.813787 -0.002576 0.0
2.241585 2.187673 -0.001374 0.0
1.535670 1.723999 -0.003007 0.0
0.370760 2.268236 -0.000157 0.0
1.159435 1.640313 -0.001933 0.0
2.457545 2.164736 -0.002260 0.0
2.352991 0.229184 0.001672 0.0
1.357358 0.914366 -0.001960 0.0
0.070214 0.103519 -0.001041 0.0
0.876844 0.791333 -0.000390 0.0
1.031084 2.150730 0.000807 0.0
2.951469 1.140456 0.001292 0.0
0.247821 0.434319 -0.000571 0.0
4.390705 1.289193 0.003363 0.0
1.028161 0.706963 0.001013 0.0
4.272837 0.302467 -0.001867 0.0
4.387643 1.932978 -0.005584 0.0
3.937773 0.433850 0.002760 0.0
4.199285 1.968115 -0.002019 0.0
4.045088 1.108451 0.001856 0.0
1.303663 1.007026 0.001339 0.0
1.149781 1.818806 -0.002071 0.0
3.754250 1.651798 -0.004355 0.0
1.869750 1.702671 -0.003553 0.0
1.592217 1.810681 0.004302 0.0
0.735065 0.149053 0.001540 0.0
0.078282 0.739402 0.002152 0.0
3.347470 0.121077 0.004212 0.0
2.092790 1.610424 0.004311 0.0
3.291586 1.814987 0.004138 0.0
1.366900 0.739294 -0.001227 0.0
3.639516 1.236389 -0.000589 0.0
2.345107 1.307964 0.000584 0.0
0.638772 2.198487 0.002666 0.0
3.899702 2.305888 0.000908 0.0
0.949523 0.104673 0.006305 0.0
2.144242 2.098669 0.001255 0.0
0.042529 1.773161 -0.004391 0.0
3.229363 1.392092 0.003558 0.0
3.282025 0.733225 -0.001008 0.0
3.729121 1.125594 -0.000208 0.0
2.777298 0.490427 0.000098 0.0
3.055561 1.857500 -0.001798 0.0
2.101995 0.765305 0.003255 0.0
3.681708 1.314207 -0.000353 0.0
0.220911 1.095766 0.000939 0.0
2.966603 0.685985 -0.001230 0.0
1.661976 0.490220 -0.002917 0.0
1.928784 1.906483 0.003865 0.0
0.733319 0.791256 -0.004112 0.0
2.188881 0.029446 0.000442 0.0
2.795998 0.680615 -0.002788 0.0
3.705693 1.039272 -0.002889 0.0
2.573234 1.519288 -0.001262 0.0
3.411679 0.962872 -0.004096 0.0
2.339874 1.011418 -0.002691 0.0
2.981121 0.514506 0.000939 0.0
3.672391 1.215758 0.002974 0.0
1.646915 1.427384 -0.000102 0.0
3.767874 0.595571 -0.005174 0.0
3.515545 1.550371 0.001627 0.0
3.497093 0.429774 0.001296 0.0
1.829185 0.222349 0.000903 0.0
3.019193 0.302302 -0.001094 0.0
3.356549 1.429186 -0.005584 0.0
3.946006 2.262406 -0.000889 0.0
4.279760 0.285731 -0.002454 0.0
1.697452 0.447288 -0.004656 0.0
2.421183 1.033114 0.006289 0.0
4.249765 1.909805 -0.000518 0.0
4.349693 1.197119 -0.005789 0.0
0.632003 1.084112 0.002330 0.0
0.677512 1.187180 -0.000636 0.0
3.940485 0.574184 -0.002399 0.0
3.684716 1.514900 -0.002450 0.0
0.655396 1.814179 0.002930 0.0
2.831440 1.549442 0.002315 0.0
3.061608 0.087602 -0.002083 0.0
2.626027 0.270536 -0.004989 0.0
1.110041 0.330114 -0.004851 0.0
2.532897 0.173036 0.002131 0.0
2.448324 1.087253 -0.000019 0.0
1.525252 1.640858 -0.003619 0.0
1.130709 1.110840 0.001407 0.0
0.336480 2.235263 0.000174 0.0
3.573304 0.383301 0.002760 0.0
0.274965 0.832054 -0.001498 0.0
0.102538 1.913025 -0.003294 0.0
2.997485 0.082580 0.004708 0.0
3.430721 0.178401 -0.001005 0.0
3.131363 1.632270 0.003437 0.0
0.962350 1.066658 -0.005364 0.0
2.381951 0.669631 0.002327 0.0
0.814659 2.020068 -0.001973 0.0
1.171987 2.208032 0.000440 0.0
1.891708 1.517275 0.004001 0.0
3.755965 0.371164 0.001411 0.0
4.039160 2.310176 -0.000394 0.0
0.527502 2.329262 -0.002601 0.0
0.826354 1.846690 -0.002089 0.0
2.428695 0.542804 0.004148 0.0
3.011956 0.207121 0.002827 0.0
1.475673 0.173672 0.002573 0.0
2.569853 2.059031 0.005482 0.0
2.063338 0.241406 0.000763 0.0
0.585127 1.769312 0.000539 0.0
1.406568 1.569173 -0.002516 0.0
0.305820 0.566452 0.002791 0.0
1.304469 0.228773 0.005123 0.0
3.657941 0.856116 -0.002056 0.0
0.906225 0.713774 -0.004272 0.0
4.087315 0.211084 0.000186 0.0
4.284031 0.518161 0.001401 0.0
2.536757 0.766209 -0.001607 0.0
1.047833 1.924672 -0.000992 0.0
1.421036 1.307675 -0.001748 0.0
0.350980 0.504995 0.003096 0.0
1.124597 1.003907 0.001618 0.0
0.946105 2.019810 -0.002493 0.0
4.365737 1.261271 -0.001027 0.0
2.114924 1.156894 0.001313 0.0
4.329216 2.144367 0.002086 0.0
3.686476 1.462534 -0.003050 0.0
2.133910 1.593770 -0.001820 0.0
2.932325 0.279395 -0.002430 0.0
0.791311 2.250647 -0.000828 0.0
1.583165 0.612200 -0.003389 0.0
3.293775 0.995697 -0.000429 0.0
0.873036 0.403176 0.002386 0.0
2.848192 1.560058 0.001216 0.0
3.402084 0.180564 -0.001383 0.0
1.855659 0.751598 0.003804 0.0
1.806945 1.601610 -0.002984 0.0
1.644759 0.128140 0.004592 0.0
2.497965 0.832020 0.000769 0.0
2.934270 1.458125 -0.000990 0.0
1.003837 1.629856 0.003151 0.0
4.392767 0.307575 0.003163 0.0
2.062381 1.271541 0.002675 0.0
2.282295 0.173132 -0.003044 0.0
2.907309 1.678656 0.000028 0.0
1.074029 0.077025 0.000365 0.0
0.251721 1.790705 0.001335 0.0
2.729399 0.716739 -0.004168 0.0
1.242514 1.695899 -0.000239 0.0
0.252331 1.491195 -0.001155 0.0
2.974439 1.002597 0.002335 0.0
3.272812 2.186430 0.000583 0.0
0.834529 0.685595 0.004315 0.0
2.981549 0.439877 -0.001278 0.0
3.016207 0.401060 0.001374 0.0
1.151253 0.287286 -0.001273 0.0
3.528298 1.732120 0.001086 0.0
1.739691 0.669083 0.003160 0.0
0.360585 1.548757 -0.001588 0.0
1.405210 1.247550 0.001476 0.0
1.401426 1.962168 -0.002688 0.0
2.649181 1.322100 0.000247 0.0
0.074795 1.732426 0.000964 0.0
2.029047 2.087469 -0.001825 0.0
3.503760 0.639443 0.000121 0.0
3.314503 0.048251 -0.001062 0.0
2.379131 1.556486 0.001568 0.0
0.023652 0.935620 0.003652 0.0
0.686776 1.080912 -0.002518 0.0
3.079942 1.688633 0.001211 0.0
1.273345 0.981532 -0.004380 0.0
1.508101 1.858609 -0.001670 0.0
3.248923 2.045592 0.002786 0.0
1.103373 0.294102 0.000279 0.0
0.578652 1.545238 -0.001930 0.0
0.626479 1.096180 0.002732 0.0
3.342206 0.217084 0.001263 0.0
3.316850 0.978948 -0.000758 0.0
1.066088 2.335178 -0.001299 0.0
1.007825 2.200662 -0.000110 0.0
0.497883 0.873578 -0.000657 0.0
0.791372 1.719686 -0.001816 0.0
0.009707 1.898244 -0.000633 0.0
1.916858 1.551172 0.001032 0.0
0.527744 1.211130 0.004119 0.0
0.649074 0.010231 0.002793 0.0
0.921311 0.701436 -0.000960 0.0
0.332662 0.254371 0.000169 0.0
0.683094 1.387567 0.002065 0.0
2.129263 1.034681 -0.001062 0.0
1.653995 2.119964 0.001464 0.0
1.174522 0.293472 0.003073 0.0
2.489231 0.794515 0.002750 0.0
2.475377 1.071746 -0.001024 0.0
3.044913 1.692663 0.004968 0.0
3.764121 0.635602 -0.001413 0.0
2.719969 0.347758 -0.005418 0.0
3.461062 2.208157 -0.004998 0.0
1.120402 2.299352 -0.002672 0.0
4.064197 1.906617 0.003554 0.0
3.434607 1.716035 0.001027 0.0
2.851178 2.326746 -0.001753 0.0
3.876154 1.929072 0.003381 0.0
4.203914 2.281907 -0.000769 0.0
3.117370 0.901294 0.001035 0.0
0.729780 0.856341 -0.001540 0.0
2.224436 0.816534 0.000734 0.0
1.979829 1.976117 0.001843 0.0
3.085597 2.274863 -0.003055 0.0
1.929869 1.126087 0.000240 0.0
0.504377 1.008318 -0.004369 0.0
0.709292 0.680252 0.003226 0.0
0.968854 0.530719 -0.002033 0.0
2.395101 0.763130 0.002894 0.0
2.925811 1.239718 0.002303 0.0
2.293388 0.187072 -0.003328 0.0
0.927595 0.282473 0.000544 0.0
4.370464 1.779168 -0.001233 0.0
4.287287 0.389100 0.001441 0.0
3.828297 0.980207 0.001034 0.0
3.268606 1.245409 0.000632 0.0
2.477134 1.972398 -0.001706 0.0
0.898795 0.752097 0.000610 0.0
0.483179 0.720469 0.000883 0.0
1.604400 1.368922 -0.000685 0.0
3.491384 0.633268 0.001709 0.0
1.262988 0.751758 -0.000714 0.0
0.062329 0.056037 -0.005345 0.0
2.670566 1.585956 0.000700 0.0
3.013820 1.421985 -0.001619 0.0
3.706683 2.046708 0.004188 0.0
2.254646 0.933538 0.000128 0.0
3.714120 2.002468 0.006933 0.0
4.178894 2.148006 -0.002227 0.0
1.101009 0.572982 0.000582 0.0
2.053381 1.701308 0.001577 0.0
0.492408 0.904276 0.001796 0.0
2.819734 1.902997 0.001778 0.0
1.747969 0.714930 0.000362 0.0
2.643359 0.964351 0.003601 0.0
2.068736 0.407240 0.000455 0.0
1.485158 0.669409 0.005827 0.0
0.522007 1.567251 0.004142 0.0
2.423039 1.141242 0.002292 0.0
3.673676 1.277971 -0.003267 0.0
1.609801 1.487783 0.000073 0.0
1.734432 0.856478 -0.000943 0.0
0.193082 0.543187 -0.004971 0.0
2.496409 0.336294 0.001824 0.0
0.861045 0.382003 0.000629 0.0
3.247971 1.259439 -0.004347 0.0
2.558521 1.291323 0.001117 0.0
2.453067 1.327229 -0.003233 0.0
3.310051 0.494125 -0.000540 0.0
1.262650 2.052017 0.005007 0.0
0.128140 1.692265 0.000080 0.0
3.351575 1.860046 0.000264 0.0
2.185114 1.946582 -0.003335 0.0
0.185075 1.288239 0.001568 0.0
1.217350 2.082126 0.002343 0.0
0.781413 1.060586 -0.003704 0.0
2.584884 1.548790 0.003684 0.0
1.831559 0.024412 -0.001612 0.0
0.138129 0.027797 0.000489 0.0
0.116004 2.037129 -0.001888 0.0
4.291008 0.077047 -0.000392 0.0
0.754002 1.107090 -0.001707 0.0
3.713021 0.317049 -0.005581 0.0
2.810950 0.199090 0.002477 0.0
3.300773 2.092958 -0.000000 0.0
2.275664 0.867244 0.001611 0.0
0.381535 1.776643 -0.000990 0.0
1.956218 2.038663 0.002036 0.0
