2.599987 1.432760 0.000162 0.0
1.979488 1.172196 0.002468 0.0
3.639250 1.127420 -0.002750 0.0
0.785023 1.312125 -0.002581 0.0
4.513461 0.829691 0.000209 0.0
3.721028 0.463602 -0.002235 0.0
1.904223 0.246709 0.003887 0.0
0.002781 1.403266 0.002901 0.0
1.027503 1.922366 0.001527 0.0
4.222736 0.821485 0.005021 0.0
1.705143 0.602216 -0.004826 0.0
1.771039 2.041780 -0.001893 0.0
4.479770 1.138506 -0.001831 0.0
1.995174 1.085810 0.005042 0.0
1.128910 1.287954 0.001230 0.0
3.360579 0.344222 0.001614 0.0
3.298404 1.945008 0.002276 0.0
0.574598 0.515980 0.000007 0.0
2.842199 1.475013 0.001156 0.0
3.613549 0.075590 0.000343 0.0
1.750988 1.973843 0.000417 0.0
4.408634 0.873104 0.002443 0.0
3.270985 1.674996 0.001426 0.0
3.936368 0.707440 0.002012 0.0
2.946966 1.165244 0.000965 0.0
1.844823 0.092958 0.001670 0.0
1.348630 1.290467 0.001009 0.0
1.999658 0.302577 -0.006781 0.0
4.170856 1.273822 0.005672 0.0
0.785599 1.275139 0.000379 0.0
0.390573 1.647943 -0.001752 0.0
2.175446 1.023668 -0.001138 0.0
1.604124 1.406258 -0.002223 0.0
3.199095 1.793757 -0.002108 0.0
0.208818 0.513383 -0.002023 0.0
2.978670 1.857826 -0.002921 0.0
0.984494 1.673389 0.001449 0.0
4.313064 1.724611 0.001304 0.0
3.114871 0.159349 -0.002988 0.0
1.445679 0.774583 -0.000564 0.0
2.905550 0.657479 -0.003953 0.0
3.430910 1.456566 -0.002652 0.0
1.907543 1.236251 -0.003721 0.0
2.024036 0.149340 0.004037 0.0
0.841058 0.389491 0.003591 0.0
0.057803 1.955140 -0.002477 0.0
0.221907 1.471805 -0.001703 0.0
0.584404 0.631880 -0.000786 0.0
3.299293 0.540438 -0.002171 0.0
0.480701 0.262526 -0.003816 0.0
3.504110 0.289751 -0.000072 0.0
2.446805 1.897601 -0.002298 0.0
3.017519 0.113535 -0.003013 0.0
1.899997 0.163276 0.001281 0.0
1.222619 0.520309 0.004324 0.0
3.291773 1.609765 0.002750 0.0
1.466900 1.709142 0.003386 0.0
4.341909 0.155743 0.002072 0.0
3.516862 1.405520 -0.004027 0.0
0.289800 0.023865 0.001150 0.0
0.947205 0.181247 -0.002300 0.0
2.269367 0.307668 0.000307 0.0
2.794624 1.741370 -0.001011 0.0
0.636138 1.038506 -0.000597 0.0
2.714375 1.904580 0.002302 0.0
1.613810 1.562061 -0.001530 0.0
2.202447 0.812725 -0.005188 0.0
3.022432 0.426271 -0.000190 0.0
2.083089 0.352225 -0.000159 0.0
0.404596 1.509289 0.003150 0.0
2.821873 1.906646 -0.000807 0.0
1.709068 0.177269 -0.001756 0.0
2.016909 1.612310 -0.001628 0.0
2.202052 0.017175 0.001641 0.0
1.955337 0.677390 -0.001769 0.0
0.718211 0.571137 0.002853 0.0
1.127462 0.896512 0.000852 0.0
3.448191 0.983085 0.002188 0.0
4.305807 0.712685 -0.000075 0.0
2.534742 0.664180 -0.002999 0.0
2.189057 1.924937 0.001417 0.0
1.693923 0.400587 -0.002489 0.0
1.244890 0.213510 0.002909 0.0
0.756710 0.587656 0.000084 0.0
4.181355 0.268768 0.002159 0.0
3.331339 1.650314 -0.002228 0.0
3.905655 0.955191 0.002820 0.0
0.843766 0.356820 -0.000368 0.0
3.695495 0.358982 -0.001148 0.0
1.221698 0.535450 0.003885 0.0
4.372497 0.593671 -0.001907 0.0
3.795007 0.831124 -0.001101 0.0
1.200413 0.614626 0.001639 0.0
1.220453 1.990995 0.000210 0.0
2.647445 0.310849 0.003140 0.0
2.936849 1.359882 -0.001151 0.0
4.002884 0.670107 -0.001033 0.0
2.771914 1.389217 0.000659 0.0
3.999984 1.532691 0.003074 0.0
4.107891 1.274507 -0.001159 0.0
3.523870 0.051123 -0.001084 0.0
3.095880 0.083125 0.002413 0.0
3.393213 1.846359 -0.000652 0.0
2.052272 0.314649 0.000350 0.0
3.201300 1.898771 0.002992 0.0
2.874275 0.424153 -0.004447 0.0
1.080075 0.921634 0.002006 0.0
1.284265 0.628026 -0.002254 0.0
3.148150 0.952342 -0.000776 0.0
4.640250 0.486473 0.002873 0.0
3.954044 0.737529 0.003410 0.0
0.655614 0.107030 0.003103 0.0
2.821020 1.009057 -0.002218 0.0
3.575704 1.828027 -0.000214 0.0
0.352021 0.854780 0.000201 0.0
4.392523 0.001188 -0.002569 0.0
1.351448 0.985096 0.003108 0.0
2.050439 1.406672 0.003413 0.0
3.181862 0.977526 -0.003723 0.0
4.141798 0.679063 0.002852 0.0
1.758690 1.115892 0.000771 0.0
0.500196 0.103892 0.001754 0.0
2.466417 0.837544 -0.000294 0.0
3.394195 0.112699 0.002656 0.0
4.474899 0.349201 -0.001502 0.0
4.075750 1.860800 0.000019 0.0
2.729652 1.666000 -0.001596 0.0
1.677741 1.559985 0.000189 0.0
2.115451 1.068292 0.002153 0.0
2.113436 0.923807 -0.002685 0.0
3.608879 0.906834 -0.006647 0.0
3.580512 1.550713 0.006725 0.0
1.566612 0.504524 0.001583 0.0
0.334252 2.003746 0.004228 0.0
4.049782 1.728760 0.000868 0.0
2.854531 1.051185 0.003972 0.0
0.700186 0.841922 0.001541 0.0
0.398006 0.801234 -0.002513 0.0
0.790740 1.911106 -0.000841 0.0
3.540386 1.711418 -0.001675 0.0
2.665051 0.951072 -0.001065 0.0
3.126049 1.566354 -0.001866 0.0
1.094893 0.708093 -0.000025 0.0
3.762569 1.801487 0.001224 0.0
4.196736 2.019291 -0.004926 0.0
0.480882 1.453557 -0.004511 0.0
4.387883 0.385154 -0.000222 0.0
4.385706 0.241972 -0.003376 0.0
0.415998 1.078591 -0.000480 0.0
4.057175 1.698162 0.001775 0.0
3.983228 0.678207 0.000103 0.0
0.943439 1.614089 -0.002950 0.0
3.846061 0.350274 -0.000334 0.0
4.632917 1.332128 0.000094 0.0
3.053070 1.888105 0.002670 0.0
0.827082 0.263460 -0.002413 0.0
2.270550 0.429526 0.001885 0.0
3.731039 1.576541 0.000452 0.0
0.601614 0.449116 -0.001882 0.0
0.600021 0.452496 0.000264 0.0
3.245051 1.120180 0.002636 0.0
0.920744 1.917431 -0.001244 0.0
3.217311 1.853412 -0.002493 0.0
1.973390 0.620114 -0.001004 0.0
3.065384 0.211604 -0.005549 0.0
4.036078 2.035357 -0.001096 0.0
1.523366 1.098999 -0.000713 0.0
1.596663 0.791856 -0.000960 0.0
0.054724 1.144503 -0.001128 0.0
1.900110 1.970864 -0.000576 0.0
2.638121 1.374672 0.001064 0.0
3.152725 0.490020 -0.000236 0.0
4.306887 0.739187 -0.004871 0.0
2.098796 2.026941 -0.002352 0.0
1.940088 1.939134 -0.001593 0.0
2.087001 0.660745 0.005413 0.0
1.642897 1.976027 0.001110 0.0
4.112271 0.447783 0.002421 0.0
0.258281 0.936412 -0.001119 0.0
3.933414 1.876802 -0.000985 0.0
3.997053 0.869252 -0.002987 0.0
1.872471 0.920996 0.004173 0.0
3.499850 1.412381 -0.005497 0.0
0.664330 0.316166 -0.002420 0.0
4.506666 1.122588 -0.003422 0.0
4.173381 0.426943 -0.004966 0.0
3.281872 0.547204 0.006413 0.0
4.506424 1.425981 -0.003281 0.0
1.635823 0.119045 0.000320 0.0
4.237099 0.629117 0.001425 0.0
0.921790 0.574489 -0.000048 0.0
1.324234 2.013681 0.002357 0.0
0.135777 0.124263 0.002920 0.0
3.425106 0.011867 -0.000470 0.0
2.027080 0.835193 0.003826 0.0
2.486880 1.752063 0.000959 0.0
3.446713 0.740133 -0.002651 0.0
4.537513 0.171098 -0.000034 0.0
2.946116 1.774463 -0.001476 0.0
2.654783 0.194469 0.006894 0.0
3.866171 0.457200 -0.000963 0.0
3.798077 0.275351 0.005155 0.0
0.555794 1.381087 -0.002619 0.0
3.908363 1.982576 0.000142 0.0
2.316603 1.321810 0.002590 0.0
2.885227 1.309877 -0.002135 0.0
2.966197 0.813293 -0.003870 0.0
0.441673 0.507909 -0.000982 0.0
0.915770 1.507476 -0.003724 0.0
1.789974 2.039662 0.001134 0.0
1.252445 1.634312 -0.001844 0.0
1.296138 1.200265 0.000314 0.0
2.354406 1.430145 -0.002962 0.0
1.101099 1.004145 -0.002309 0.0
0.896646 0.867003 -0.002378 0.0
1.862294 1.581182 0.003075 0.0
3.977919 0.318277 -0.005071 0.0
4.455603 0.949745 0.002581 0.0
0.372864 1.124796 -0.001233 0.0
2.440104 0.231961 0.001801 0.0
1.132543 1.088354 0.000120 0.0
0.398513 0.531969 -0.003826 0.0
3.618266 0.667824 0.002806 0.0
3.264995 1.323189 -0.001007 0.0
2.946884 1.658232 0.000655 0.0
4.262152 0.661742 -0.004136 0.0
4.426424 1.275256 0.003396 0.0
0.464257 2.050196 -0.002221 0.0
3.952681 1.132124 -0.001153 0.0
0.756328 0.645241 0.001004 0.0
4.019798 1.048910 -0.002393 0.0
1.483320 0.594724 0.003112 0.0
4.325056 1.393972 -0.000895 0.0
1.020363 1.495513 0.000802 0.0
1.164981 0.418507 0.000316 0.0
2.622568 0.395024 -0.000182 0.0
3.349455 0.016867 0.001122 0.0
2.472880 1.925997 -0.006346 0.0
3.194237 0.871864 -0.001517 0.0
3.056694 0.982827 -0.004249 0.0
2.714743 0.231359 -0.000724 0.0
1.740336 1.867177 -0.001587 0.0
2.854554 1.360702 0.002499 0.0
1.154402 1.551824 0.001367 0.0
3.055723 1.105064 0.000715 0.0
0.421566 0.752264 -0.000755 0.0
2.750437 0.895355 -0.002443 0.0
0.449501 0.159378 -0.001399 0.0
3.972910 1.438822 0.000721 0.0
2.800574 1.826386 0.000970 0.0
0.354733 0.165164 -0.001592 0.0
1.069512 2.040470 -0.002570 0.0
4.606413 1.224953 0.000838 0.0
1.823679 1.723857 -0.000196 0.0
2.919346 0.181034 -0.000492 0.0
1.917984 1.351432 0.000923 0.0
1.126192 0.451517 0.002820 0.0
1.971883 1.916673 -0.004286 0.0
3.213101 1.268270 0.001241 0.0
2.022973 1.980400 0.002085 0.0
1.994167 0.517610 0.001055 0.0
3.979528 0.647372 0.002756 0.0
3.689456 1.053680 -0.003897 0.0
0.274963 0.015436 0.001103 0.0
4.579242 1.737889 0.002028 0.0
4.302321 1.004212 -0.000964 0.0
3.253913 1.942588 -0.000747 0.0
4.373106 1.194570 0.000714 0.0
1.645540 0.180935 0.004278 0.0
3.006243 0.385568 0.002544 0.0
1.191663 0.144733 -0.001046 0.0
0.729521 1.479675 0.003199 0.0
3.876206 0.695805 0.000939 0.0
0.990893 1.094066 0.002936 0.0
3.058128 0.933971 -0.001725 0.0
0.490692 0.087456 0.003092 0.0
0.397586 1.084977 0.001363 0.0
0.237137 1.609398 0.003687 0.0
0.973837 1.640160 0.001169 0.0
0.051699 0.738370 0.001394 0.0
1.544822 0.122681 -0.000214 0.0
2.583513 1.582880 0.002541 0.0
0.257461 0.789706 0.001031 0.0
0.894941 1.847127 0.005441 0.0
3.586408 0.209467 0.000250 0.0
2.162954 1.261710 -0.001047 0.0
2.453232 0.631784 -0.002013 0.0
0.665106 0.786954 0.001820 0.0
0.148008 1.205773 0.002555 0.0
2.319586 0.443357 0.001378 0.0
0.042697 1.398437 -0.001215 0.0
0.789897 0.354171 0.002927 0.0
3.201175 0.637618 0.002101 0.0
3.133758 1.476203 0.004034 0.0
0.565730 1.738773 -0.000528 0.0
2.638312 1.478672 0.001312 0.0
4.227520 1.703825 -0.003529 0.0
1.428942 0.916992 0.002936 0.0
4.113794 0.930175 0.002612 0.0
2.442803 0.533615 0.002410 0.0
2.647236 0.135722 -0.004045 0.0
4.141620 1.699299 0.000676 0.0
3.113771 1.071910 0.003882 0.0
4.506190 1.107919 -0.000498 0.0
3.650820 0.445588 0.003481 0.0
2.924898 1.452209 -0.001901 0.0
1.297861 0.091882 -0.002651 0.0
1.144126 0.364255 -0.001767 0.0
1.202733 0.596069 0.000151 0.0
0.315719 1.868846 -0.001613 0.0
2.348948 0.834903 -0.003335 0.0
0.311754 1.574094 -0.001058 0.0
2.555265 1.401480 -0.000061 0.0
3.515338 1.451322 -0.000152 0.0
2.449476 0.711957 -0.000126 0.0
1.875658 0.233719 0.000066 0.0
4.495582 1.786394 0.000723 0.0
2.351502 0.645360 0.000669 0.0
3.968561 1.226369 0.000091 0.0
4.377780 1.874448 0.000497 0.0
0.100031 0.026967 -0.001404 0.0
2.092830 1.333167 0.001631 0.0
1.152055 0.259450 0.000716 0.0
1.148136 0.673655 -0.001903 0.0
0.081927 1.336869 -0.000798 0.0
3.562609 0.398198 -0.001499 0.0
2.941508 1.334733 0.003529 0.0
2.596319 0.283690 0.000079 0.0
1.691930 1.157380 -0.002422 0.0
3.120804 0.906051 -0.002916 0.0
4.586458 1.692456 -0.002106 0.0
1.721359 0.792490 -0.000456 0.0
2.062657 0.955032 -0.000257 0.0
2.798320 0.702244 -0.000651 0.0
2.759063 1.776586 -0.003344 0.0
1.034366 1.801623 0.002326 0.0
2.091300 0.845296 0.003876 0.0
0.013598 0.061723 0.002251 0.0
1.551183 0.242367 0.003145 0.0
3.011462 1.115570 -0.001095 0.0
0.124257 1.300184 -0.001063 0.0
1.715339 0.347352 0.000718 0.0
1.081243 1.003804 -0.001581 0.0
0.195229 0.136566 -0.000087 0.0
1.746100 1.421445 0.002059 0.0
3.243774 0.364979 -0.003424 0.0
4.190380 1.135399 -0.002564 0.0
2.850993 1.049901 -0.004571 0.0
1.037604 0.136982 -0.002378 0.0
4.396524 0.571739 -0.000133 0.0
1.202063 1.510875 -0.005742 0.0
2.732518 1.571421 0.003285 0.0
4.300442 0.161235 -0.001965 0.0
3.579001 1.622961 0.004054 0.0
0.034121 1.728780 0.000729 0.0
3.235722 0.864935 0.002719 0.0
1.566867 1.939923 0.004044 0.0
2.589978 1.489488 -0.002546 0.0
0.889131 0.437518 0.005464 0.0
2.626403 0.431671 0.000124 0.0
2.277351 0.600185 0.002904 0.0
3.994417 1.681739 -0.001784 0.0
1.957738 1.549273 -0.003192 0.0
1.869954 1.252053 0.003205 0.0
1.341404 0.648727 -0.003001 0.0
1.331031 0.557401 -0.001984 0.0
1.023141 1.248063 0.001199 0.0
3.664507 0.906201 0.000549 0.0
3.997520 0.738636 0.000560 0.0
2.245361 1.495958 0.000045 0.0
1.307744 1.268997 -0.001292 0.0
4.494204 0.595454 0.001486 0.0
1.532009 0.772968 -0.001903 0.0
0.492827 0.836354 0.001777 0.0
3.546878 1.367722 -0.000569 0.0
1.741299 0.937241 0.003551 0.0
2.024522 0.848793 -0.003059 0.0
2.206516 1.897858 -0.002490 0.0
4.378634 0.479075 0.000428 0.0
2.918291 0.602676 0.000061 0.0
3.693416 1.095031 0.000685 0.0
2.535196 0.061465 0.000083 0.0
0.099352 0.405726 0.001037 0.0
2.251719 0.405414 -0.002814 0.0
2.352583 1.339609 -0.000693 0.0
3.569273 0.411404 -0.002423 0.0
2.902205 0.624164 0.000025 0.0
2.282516 1.362641 0.001848 0.0
1.918730 0.069553 -0.000073 0.0
1.894850 1.310230 -0.000042 0.0
3.835297 1.234585 -0.006166 0.0
3.157069 1.621600 -0.003001 0.0
3.468645 2.007648 -0.002230 0.0
2.237753 0.958029 0.000013 0.0
2.068604 1.223465 0.003437 0.0
3.660969 1.497613 0.004169 0.0
0.190046 1.549981 -0.000332 0.0
4.446179 1.785846 -0.003144 0.0
1.070673 0.547207 0.003198 0.0
0.676224 0.617316 0.000997 0.0
1.748654 1.830918 0.004662 0.0
1.035930 1.770532 0.001303 0.0
1.248392 1.540461 -0.000442 0.0
3.573170 1.128041 0.001139 0.0
0.806637 1.369879 0.002498 0.0
0.128410 0.176565 -0.000455 0.0
0.033244 0.140562 -0.001342 0.0
0.577030 0.632570 -0.003660 0.0
1.793435 0.480660 0.000419 0.0
2.642624 1.372358 -0.001440 0.0
1.015229 1.109769 -0.004106 0.0
1.250911 2.037758 -0.003321 0.0
0.356554 1.400832 -0.000080 0.0
0.076157 2.037176 0.001627 0.0
1.131605 1.122817 -0.003138 0.0
2.230389 0.068276 -0.003283 0.0
4.610435 1.710821 -0.000093 0.0
0.217301 0.219918 0.001056 0.0
3.281807 1.154878 0.000744 0.0
4.128119 0.242944 0.000844 0.0
2.120316 1.461268 0.000816 0.0
4.440277 0.167082 0.004453 0.0
0.086701 1.059077 0.002194 0.0
1.670991 1.705046 0.000961 0.0
0.838950 0.192113 -0.002113 0.0
0.992067 1.639857 -0.000220 0.0
3.741831 0.795863 0.000130 0.0
4.139195 1.868861 0.003221 0.0
3.253904 0.309329 -0.000466 0.0
4.356281 0.627157 0.000042 0.0
0.081346 0.152298 -0.000241 0.0
3.074512 0.054074 0.000325 0.0
0.882761 0.933951 -0.002643 0.0
3.129464 1.403819 0.003285 0.0
1.504318 1.334742 -0.000044 0.0
2.154101 0.357559 0.002068 0.0
2.836230 0.685218 0.003136 0.0
3.312911 0.540553 0.000095 0.0
0.274349 0.150405 0.001770 0.0
1.832709 0.567903 -0.001350 0.0
3.902628 1.189686 0.000229 0.0
0.894000 0.486897 0.000067 0.0
2.140612 1.241496 0.002096 0.0
1.688094 1.458113 -0.002382 0.0
1.607960 1.936445 0.004647 0.0
3.811552 1.527444 0.001545 0.0
3.390927 0.093150 0.002246 0.0
2.821248 1.130688 0.003314 0.0
0.769867 0.338068 -0.003113 0.0
1.968184 0.353442 -0.001912 0.0
4.035673 0.428010 0.001610 0.0
3.371090 0.498189 -0.000649 0.0
1.824978 0.810279 -0.001665 0.0
1.107529 0.172367 -0.000136 0.0
2.713250 1.897178 0.001981 0.0
2.221332 0.194785 0.002873 0.0
0.626773 1.860955 0.001446 0.0
4.013536 1.155475 -0.001323 0.0
1.075958 0.225046 -0.000945 0.0
3.189381 1.623884 -0.006115 0.0
0.109207 0.425901 0.000347 0.0
4.263541 0.874914 0.002876 0.0
1.872611 0.989250 -0.000135 0.0
4.213312 1.114758 -0.002961 0.0
0.281813 1.210149 0.000362 0.0
2.127289 0.371399 -0.004292 0.0
2.582069 1.293563 -0.001513 0.0
0.239642 0.390809 -0.001917 0.0
0.851732 0.356791 0.000039 0.0
0.607816 0.507848 0.003652 0.0
4.299037 0.175923 0.001857 0.0
4.498469 1.826605 0.001696 0.0
3.035739 0.940403 0.001366 0.0
1.432336 0.772367 -0.002356 0.0
0.924595 0.770878 0.000305 0.0
2.070332 1.263946 -0.001484 0.0
4.034063 0.920877 0.002253 0.0
4.622608 0.945390 0.002612 0.0
1.958647 0.904713 -0.001628 0.0
1.823739 1.556178 -0.001330 0.0
2.828935 1.311890 -0.001641 0.0
3.070443 1.917899 -0.002358 0.0
0.234431 1.757095 0.001634 0.0
3.184340 1.539271 0.001158 0.0
0.042731 0.556008 -0.004859 0.0
0.970548 0.432706 -0.000939 0.0
2.812861 1.466126 -0.001267 0.0
0.064065 2.035513 -0.001194 0.0
3.539941 2.019699 0.001009 0.0
4.431081 1.248445 -0.002828 0.0
0.807303 0.688015 0.000381 0.0
0.063515 1.472481 0.004949 0.0
2.011206 1.535137 -0.000366 0.0
4.175969 0.040188 -0.002053 0.0
1.438155 0.136587 0.001676 0.0
1.123405 2.005294 0.000647 0.0
1.707286 0.692439 0.002127 0.0
1.002716 1.490714 0.003755 0.0
0.501204 1.915398 0.002469 0.0
1.671924 0.302261 0.002843 0.0
3.443474 1.090056 -0.003090 0.0
2.164606 0.568081 -0.001763 0.0
0.111940 0.288589 0.001758 0.0
3.555103 1.031724 0.000834 0.0
4.566650 1.317958 0.004404 0.0
1.661083 1.995657 -0.001954 0.0
0.776235 0.762722 0.000466 0.0
3.300683 0.788224 0.002451 0.0
0.119526 1.452520 -0.003049 0.0
3.380939 0.121824 -0.002176 0.0
1.292481 0.632929 0.000149 0.0
3.527175 2.022144 -0.001367 0.0
2.469628 1.409355 -0.003054 0.0
4.513595 0.749364 -0.004499 0.0
4.229621 0.677182 0.000338 0.0
2.514581 0.423935 -0.003287 0.0
3.554061 0.664277 0.004170 0.0
3.114959 1.521477 0.003180 0.0
0.828435 1.143065 -0.002149 0.0
1.352731 0.947947 0.001666 0.0
0.145406 0.366505 0.000152 0.0
3.490622 0.069956 0.002409 0.0
2.064507 1.099872 0.002516 0.0
2.569539 1.918757 -0.001904 0.0
3.593064 1.105319 -0.002782 0.0
0.507565 0.779488 0.001529 0.0
2.417910 0.576137 -0.002219 0.0
3.883316 1.484352 -0.001092 0.0
1.810631 0.690512 0.002643 0.0
1.620252 0.059230 -0.000603 0.0
1.453824 0.614410 0.000184 0.0
0.756950 0.889066 -0.000647 0.0
0.003200 1.934190 0.002971 0.0
2.359336 0.431965 0.002167 0.0
3.288513 0.628550 -0.000146 0.0
2.091704 0.113044 -0.000835 0.0
2.121261 0.821628 0.003003 0.0
2.311831 1.778778 0.001452 0.0
1.321410 0.100293 -0.001313 0.0
0.262522 0.253703 -0.006032 0.0
3.114493 1.692537 -0.002193 0.0
4.326966 0.548280 0.000644 0.0
2.143906 1.512741 0.005139 0.0
2.037636 0.026358 -0.001452 0.0
1.412447 0.362287 0.004345 0.0
2.143541 0.841168 -0.000572 0.0
0.011901 1.199867 0.000379 0.0
3.192529 0.423393 -0.001608 0.0
3.143599 1.352415 0.000368 0.0
3.902230 0.916774 0.005278 0.0
2.338663 1.466514 -0.004614 0.0
4.387705 0.208175 -0.000746 0.0
1.216512 0.924809 0.000869 0.0
0.667144 1.861452 -0.001353 0.0
0.061457 1.756392 0.002312 0.0
1.406904 2.000231 -0.000277 0.0
2.783566 1.121255 -0.001343 0.0
3.919606 1.793503 -0.001706 0.0
2.683377 1.794628 0.000924 0.0
2.860387 0.484782 -0.002346 0.0
1.984170 1.848515 0.000941 0.0
0.520308 0.166523 0.003077 0.0
2.762394 0.432189 -0.001680 0.0
4.116478 0.572857 0.001240 0.0
0.058164 0.823616 0.001570 0.0
1.853394 0.066532 0.000853 0.0
1.733108 1.212828 -0.000713 0.0
0.638570 1.379629 0.002859 0.0
0.916564 0.233074 0.000833 0.0
0.870031 0.379703 0.000016 0.0
3.806557 0.376440 -0.001868 0.0
0.580536 0.221038 0.001115 0.0
0.656819 0.536298 -0.001179 0.0
3.099986 0.920962 -0.000335 0.0
0.800768 1.137352 -0.002166 0.0
2.769496 1.253901 0.000901 0.0
3.796672 0.663731 0.002511 0.0
4.095891 1.025941 -0.002309 0.0
4.603966 0.465085 -0.001802 0.0
1.543552 1.761166 0.003660 0.0
4.396775 0.679266 -0.004885 0.0
1.368077 0.807661 0.001796 0.0
4.369415 0.612392 -0.002712 0.0
3.308878 0.112954 0.001509 0.0
0.687257 1.849694 -0.001227 0.0
1.917298 1.425822 -0.000916 0.0
3.776375 0.960929 -0.005088 0.0
1.247224 0.744299 -0.000100 0.0
4.200714 0.737979 -0.001794 0.0
3.065977 0.996928 0.000721 0.0
0.577197 1.561459 -0.002251 0.0
4.441391 1.451672 -0.004667 0.0
0.371816 0.812687 0.002300 0.0
1.238785 1.342192 0.000469 0.0
3.518798 1.620637 0.000530 0.0
4.397130 0.758319 -0.002268 0.0
0.854684 0.487683 -0.002924 0.0
1.697490 0.430216 0.001491 0.0
2.449171 1.066493 -0.001295 0.0
3.593547 1.176013 -0.004146 0.0
0.091392 0.782220 0.000577 0.0
4.223968 1.973810 0.000567 0.0
2.885532 0.952779 -0.000667 0.0
1.356774 0.893976 -0.000536 0.0
2.367508 1.430749 -0.003758 0.0
2.891555 1.698221 0.006537 0.0
1.462366 0.884796 -0.002945 0.0
0.819139 0.552886 -0.000685 0.0
1.516329 1.171138 0.000952 0.0
1.500255 1.505592 0.000363 0.0
0.213448 1.016062 0.001198 0.0
1.619610 0.912443 0.001224 0.0
3.113264 1.338482 0.002707 0.0
2.087302 0.459578 0.000431 0.0
4.211985 0.492188 -0.000161 0.0
1.258256 0.812730 -0.001879 0.0
0.663439 1.890070 -0.000463 0.0
1.125367 0.650931 -0.000391 0.0
1.063833 0.522265 0.000879 0.0
1.584511 0.557407 0.002385 0.0
0.217359 0.485493 -0.002093 0.0
1.895741 1.828292 -0.000615 0.0
2.175994 0.989851 0.003706 0.0
4.349953 0.156124 0.000540 0.0
2.463979 1.729982 -0.002034 0.0
2.586010 1.610567 0.002771 0.0
4.475094 0.350979 -0.002501 0.0
0.431430 0.226424 0.001923 0.0
0.761861 1.103575 0.002357 0.0
4.049144 0.277020 0.002371 0.0
0.046797 1.929114 0.001010 0.0
2.830486 1.094962 -0.002229 0.0
3.137819 0.530672 -0.001711 0.0
2.431123 0.018326 -0.000367 0.0
3.465666 1.670581 -0.004643 0.0
4.339604 0.028068 0.003745 0.0
4.295423 1.158746 0.000618 0.0
1.627283 0.148244 -0.000675 0.0
2.188105 0.888646 0.003592 0.0
2.528078 1.354835 0.001831 0.0
0.766903 0.630856 0.000932 0.0
2.043381 2.025195 0.001326 0.0
2.623922 1.861677 0.004414 0.0
0.776809 0.610211 0.001485 0.0
2.243626 0.370898 0.003701 0.0
3.192022 1.296397 -0.000928 0.0
0.503809 1.431552 0.000666 0.0
3.215479 0.697582 -0.002307 0.0
0.691995 0.648468 -0.000979 0.0
3.096359 0.937416 0.003063 0.0
1.539389 0.706196 -0.000281 0.0
3.253940 1.697622 -0.000009 0.0
4.441169 0.954412 0.001112 0.0
1.621489 1.448880 0.001044 0.0
4.042796 1.141196 -0.001570 0.0
2.135513 0.607845 -0.002081 0.0
0.723275 0.267721 -0.000823 0.0
0.269293 1.717911 0.001321 0.0
0.114067 1.530128 0.002276 0.0
3.493444 0.638814 -0.001497 0.0
3.778687 1.457939 0.001465 0.0
2.275534 0.586304 0.001760 0.0
2.586962 1.322412 -0.004676 0.0
2.323915 1.472269 -0.002971 0.0
1.120272 1.045454 0.001274 0.0
3.166081 1.724367 -0.000812 0.0
3.057947 1.530091 0.000535 0.0
1.333530 1.862395 -0.001280 0.0
0.045587 1.993445 -0.001837 0.0
3.742020 0.248832 -0.000708 0.0
2.876084 0.905778 -0.003591 0.0
2.579014 0.428320 0.002338 0.0
2.935784 1.220148 0.003351 0.0
0.435419 1.478314 0.001672 0.0
0.319274 1.043966 0.001909 0.0
3.417270 0.973455 -0.002188 0.0
3.074027 1.220967 0.004240 0.0
0.957954 0.387757 -0.003167 0.0
1.721202 0.190987 0.001354 0.0
2.650136 0.497618 0.002559 0.0
1.132996 0.922794 -0.005445 0.0
1.401093 0.546900 0.001428 0.0
3.368510 1.520236 0.002127 0.0
2.448618 0.359202 0.000266 0.0
2.362831 0.057460 -0.002723 0.0
4.007723 1.390075 0.000833 0.0
0.971018 1.272468 -0.001573 0.0
1.722942 0.182283 0.003475 0.0
4.528255 0.435308 -0.001232 0.0
1.272682 0.288928 0.001496 0.0
3.417938 1.013332 -0.004194 0.0
2.083911 0.614444 0.003903 0.0
3.861011 0.497633 0.003607 0.0
3.858335 0.366037 0.002893 0.0
3.925974 1.388623 0.000867 0.0
2.585271 0.625197 0.001131 0.0
2.729331 1.582524 0.000081 0.0
3.762827 0.760864 -0.001108 0.0
1.748400 0.690461 0.004403 0.0
3.093045 0.767438 -0.002495 0.0
0.727193 1.699267 -0.000258 0.0
2.652944 0.534587 -0.003662 0.0
3.072024 1.973603 0.002007 0.0
3.855670 1.209894 -0.000337 0.0
1.044182 1.788008 0.000054 0.0
1.253184 1.264318 -0.002735 0.0
3.015127 0.605473 -0.000742 0.0
0.952538 1.401952 0.001762 0.0
4.335458 1.937817 -0.001930 0.0
1.449544 0.780397 -0.000429 0.0
4.439151 0.959312 -0.001478 0.0
3.140374 0.230200 0.000284 0.0
2.324536 0.142158 0.001787 0.0
1.201442 0.517837 0.000770 0.0
3.911464 0.036970 0.001176 0.0
3.923120 1.394866 0.000842 0.0
0.101299 1.689149 -0.001762 0.0
1.050732 0.666885 -0.000735 0.0
3.604613 0.653473 -0.000132 0.0
2.239410 0.366933 -0.000240 0.0
4.461071 0.419668 0.000464 0.0
1.370631 2.031838 0.000033 0.0
2.520278 1.610619 0.002410 0.0
4.492091 0.055565 -0.001220 0.0
2.248602 1.119404 -0.002046 0.0
2.311919 0.199910 -0.000248 0.0
3.932990 0.189867 -0.005333 0.0
3.441631 1.876198 -0.003545 0.0
3.205993 1.569523 -0.002797 0.0
0.930848 1.257535 -0.002737 0.0
1.150864 0.305377 0.006024 0.0
1.631136 1.143179 -0.002348 0.0
2.901351 1.166976 0.001933 0.0
2.409872 1.994354 0.001483 0.0
1.978178 0.856085 -0.003774 0.0
1.041581 1.020728 0.000579 0.0
2.920100 1.512805 -0.005086 0.0
3.175207 1.746433 -0.003565 0.0
0.058637 1.579915 -0.000555 0.0
3.743345 2.005238 0.002985 0.0
1.965532 0.218598 0.004506 0.0
1.497948 1.381019 -0.005516 0.0
3.469021 0.927780 -0.000871 0.0
1.387872 2.052716 -0.004304 0.0
0.202254 0.583463 0.002105 0.0
1.392109 0.960237 -0.005406 0.0
2.471118 0.750815 0.002258 0.0
3.384051 0.564072 0.001053 0.0
1.572611 1.979197 -0.001089 0.0
1.212062 1.856147 -0.003284 0.0
4.024303 1.945175 0.003712 0.0
2.295432 0.097863 -0.000835 0.0
2.906591 0.446106 -0.002308 0.0
1.512696 1.005877 -0.002884 0.0
3.964938 1.586842 -0.000505 0.0
4.293947 0.139253 -0.001917 0.0
4.049973 0.058547 -0.003742 0.0
4.177557 1.670360 0.001624 0.0
1.541754 1.263418 -0.000760 0.0
3.090744 1.481042 0.002570 0.0
0.883221 0.597851 -0.000529 0.0
1.412530 1.078001 -0.000077 0.0
4.045791 1.724242 0.001046 0.0
0.272936 1.144318 0.000463 0.0
2.931077 1.708449 0.002350 0.0
3.233148 0.137900 0.000153 0.0
1.652387 1.040551 0.001124 0.0
2.184258 1.522510 0.001310 0.0
3.736806 1.335052 0.001592 0.0
0.001863 0.416192 -0.004764 0.0
2.078439 0.209539 0.002801 0.0
3.390083 0.696582 -0.003416 0.0
0.446783 0.982470 -0.000726 0.0
1.194119 0.863790 0.001994 0.0
1.791944 1.927391 0.005968 0.0
0.769508 1.498467 -0.000853 0.0
0.341894 1.421747 -0.001654 0.0
4.148578 0.878108 -0.000373 0.0
2.037249 0.065254 -0.001496 0.0
1.996971 1.991840 -0.001069 0.0
1.025178 1.120138 -0.004697 0.0
1.026736 0.466442 -0.001369 0.0
1.244986 0.747254 -0.003569 0.0
1.490957 1.711700 -0.001156 0.0
4.597872 1.140542 0.001073 0.0
2.660271 0.463233 -0.000693 0.0
4.087809 0.520095 0.002520 0.0
1.820378 0.468310 0.001286 0.0
4.247678 0.376059 -0.001944 0.0
0.317222 1.671640 0.000269 0.0
1.586796 0.619938 -0.002449 0.0
2.887597 0.264678 0.002798 0.0
0.873394 1.705976 -0.000405 0.0
1.329578 0.821091 0.001447 0.0
1.125963 1.294779 -0.000230 0.0
0.576577 1.752575 0.000152 0.0
4.545223 1.214178 -0.000088 0.0
1.632392 1.954454 -0.001631 0.0
1.934281 0.333652 0.003733 0.0
0.179952 1.080597 -0.000329 0.0
4.209291 0.931829 0.001448 0.0
3.901312 1.696984 0.000234 0.0
3.647769 0.215374 -0.000240 0.0
2.308209 1.609436 0.001587 0.0
0.968093 0.474815 -0.000003 0.0
0.525447 1.335918 -0.005694 0.0
2.306987 0.178773 -0.001038 0.0
3.336411 1.670391 0.000900 0.0
0.041063 1.342587 0.001169 0.0
4.586381 0.984494 -0.000385 0.0
1.424261 1.397924 -0.002476 0.0
3.665648 1.737258 0.002167 0.0
3.393141 0.418849 -0.001355 0.0
4.011764 0.854543 0.002333 0.0
1.585945 0.769680 0.000739 0.0
0.153896 0.640704 0.001240 0.0
2.498236 0.693976 0.005490 0.0
4.567233 1.684264 -0.002874 0.0
3.433367 0.570704 0.003736 0.0
2.348216 0.545403 -0.002858 0.0
4.002629 0.224885 -0.001119 0.0
4.039186 0.900316 0.001998 0.0
2.388747 1.597465 -0.004201 0.0
0.634346 0.506761 -0.000123 0.0
3.677740 1.178341 -0.000396 0.0
0.674632 1.935168 0.002191 0.0
2.684971 1.766868 0.004168 0.0
3.065176 0.062166 -0.004912 0.0
1.785134 0.845815 -0.002980 0.0
0.023183 0.629954 0.002149 0.0
0.033338 0.685911 0.000828 0.0
0.857045 0.311022 -0.004606 0.0
1.829495 0.435635 0.000241 0.0
2.282286 0.344762 0.001066 0.0
2.950610 0.672478 0.003880 0.0
4.292567 0.376857 0.001025 0.0
2.484577 1.056878 -0.000368 0.0
3.888142 0.545745 -0.001432 0.0
2.542401 0.594107 -0.000846 0.0
0.713516 1.519442 -0.002690 0.0
1.658429 0.198264 -0.001681 0.0
1.539466 0.830360 -0.000294 0.0
4.580298 0.704061 0.001085 0.0
3.791739 1.722695 0.001025 0.0
4.356275 1.751841 -0.005082 0.0
1.878767 1.387415 -0.002129 0.0
0.199402 0.854463 0.000472 0.0
4.471784 0.686806 -0.002950 0.0
0.711521 1.553236 -0.000994 0.0
3.455575 1.199430 -0.000359 0.0
3.110456 1.802417 -0.002532 0.0
4.507949 1.394129 -0.001293 0.0
0.591139 1.640235 0.001557 0.0
4.295882 0.658821 0.001623 0.0
1.430717 0.837459 0.000507 0.0
1.977960 0.150955 -0.001982 0.0
3.075205 0.965983 0.002789 0.0
0.535737 1.603132 -0.004791 0.0
3.952081 0.954613 0.000379 0.0
4.431810 1.199610 -0.001464 0.0
0.569609 0.107217 0.000556 0.0
3.152701 1.809021 -0.000432 0.0
3.163072 1.850703 -0.002737 0.0
0.939519 2.035275 0.000333 0.0
1.259948 1.871607 -0.001152 0.0
3.076655 1.640102 0.006421 0.0
1.398683 1.176347 -0.004615 0.0
2.419520 1.017094 0.001875 0.0
0.113512 1.216669 0.001112 0.0
4.063901 0.884081 0.004144 0.0
1.300947 1.469100 0.001252 0.0
0.558174 1.836004 0.002620 0.0
0.300688 1.023535 -0.001817 0.0
1.070962 0.072471 -0.001295 0.0
2.420784 1.419568 -0.003003 0.0
3.302967 1.258518 0.001980 0.0
3.527045 0.833070 0.000595 0.0
1.356045 1.059154 -0.000628 0.0
3.954915 1.879438 0.002634 0.0
0.515136 1.989367 -0.003197 0.0
4.046736 1.130235 -0.001100 0.0
3.249267 1.573240 0.001578 0.0
0.069836 0.880842 -0.000900 0.0
4.194755 1.081404 0.001604 0.0
4.272675 0.295206 -0.002981 0.0
0.788120 0.771041 0.000937 0.0
0.368012 0.176090 0.001102 0.0
0.843051 1.308666 -0.001268 0.0
0.983809 1.291944 -0.002724 0.0
0.492797 1.657551 -0.000084 0.0
2.884494 1.881201 0.000882 0.0
2.521716 1.396682 -0.001343 0.0
3.398491 0.440317 -0.003434 0.0
2.512552 1.886097 -0.006999 0.0
4.347085 2.018620 -0.000716 0.0
3.959808 0.417563 -0.002618 0.0
0.192574 0.880635 0.000229 0.0
0.226331 1.817044 -0.001277 0.0
1.339125 0.535146 -0.000637 0.0
2.170746 1.040476 -0.001906 0.0
2.111086 1.879507 0.001983 0.0
0.396932 1.475744 0.001204 0.0
0.780639 1.375734 -0.000863 0.0
1.063707 0.940542 -0.003273 0.0
0.716378 0.009349 -0.001064 0.0
3.361413 0.671596 -0.001214 0.0
4.477164 1.443838 0.000575 0.0
1.384611 0.723316 0.002304 0.0
3.644179 1.683143 -0.000126 0.0
1.359242 0.989529 0.002535 0.0
1.124066 0.981584 -0.001674 0.0
1.810856 0.403044 -0.003794 0.0
0.570747 1.281569 0.003140 0.0
1.734545 1.277347 0.000562 0.0
3.730097 2.014588 -0.001872 0.0
1.635477 1.813180 -0.002436 0.0
0.399151 1.977403 0.003537 0.0
0.426652 0.864172 -0.000692 0.0
1.833333 0.749871 -0.002341 0.0
1.308695 1.905849 -0.000606 0.0
2.364732 1.574855 0.000671 0.0
4.507950 1.181311 -0.002412 0.0
3.945110 0.882408 0.000361 0.0
3.912233 0.289522 -0.006111 0.0
3.476967 1.759396 -0.002244 0.0
3.145150 1.747924 0.002561 0.0
3.554260 1.838301 -0.000863 0.0
0.339171 0.974297 -0.003657 0.0
2.157042 0.855568 0.000003 0.0
1.360351 1.132303 0.002676 0.0
4.603841 1.813614 -0.003835 0.0
2.370334 0.852565 0.000593 0.0
0.440485 1.632988 -0.003258 0.0
1.495681 0.694102 0.002402 0.0
4.086023 1.962920 -0.004674 0.0
2.885683 1.940045 0.002642 0.0
1.666466 0.923553 0.005537 0.0
1.515993 1.174940 -0.000025 0.0
3.696769 1.432232 -0.001958 0.0
1.353063 0.408640 0.001254 0.0
0.797288 1.501736 0.002584 0.0
2.016444 1.748096 0.001872 0.0
3.685297 0.604941 -0.001421 0.0
2.160386 1.232325 0.000431 0.0
4.071374 0.291558 -0.004232 0.0
1.941834 0.215999 0.000727 0.0
3.662717 0.530069 -0.000468 0.0
2.755852 0.043794 0.001280 0.0
0.495737 0.511881 -0.001687 0.0
2.139365 1.654381 -0.000723 0.0
3.810712 1.402568 -0.001251 0.0
1.032170 1.140176 0.005038 0.0
3.877067 1.492177 0.001149 0.0
4.056256 0.826918 0.000688 0.0
3.753914 0.378240 0.002868 0.0
0.404630 2.004315 -0.001168 0.0
4.175577 0.861546 -0.000243 0.0
0.219927 1.871472 0.001419 0.0
4.271019 0.012995 0.000221 0.0
4.534149 1.701659 -0.004725 0.0
1.129004 1.519608 -0.000864 0.0
0.933965 1.259688 -0.002158 0.0
0.452141 0.398074 -0.001787 0.0
2.497606 0.242866 -0.000264 0.0
4.299607 0.844785 0.000300 0.0
1.415047 1.212775 0.002219 0.0
2.112849 1.429294 0.002257 0.0
2.961267 0.743564 -0.002676 0.0
3.706772 0.881470 0.006159 0.0
4.078062 1.836521 -0.002808 0.0
0.680794 1.790166 -0.002078 0.0
0.361758 0.074982 -0.002648 0.0
1.280398 1.566502 -0.002326 0.0
1.918974 1.223920 -0.003176 0.0
3.607156 1.578807 -0.002865 0.0
1.266238 1.998251 0.003422 0.0
0.799951 1.168481 -0.000686 0.0
1.833646 1.666307 0.003081 0.0
1.396293 1.790920 -0.003887 0.0
3.223845 0.527293 0.000696 0.0
3.135534 0.403305 -0.000186 0.0
3.384332 1.249279 -0.002592 0.0
3.877022 1.036406 0.000107 0.0
2.548503 1.925367 -0.000045 0.0
1.158529 0.916129 0.006148 0.0
4.307947 0.590404 0.004625 0.0
1.171321 1.167264 -0.000777 0.0
1.355631 1.259124 -0.003169 0.0
1.619428 0.706443 -0.002156 0.0
2.466411 0.501279 0.003818 0.0
1.795895 0.509791 0.006134 0.0
3.031106 0.393791 -0.001472 0.0
0.716515 1.872561 0.003772 0.0
4.173063 0.014571 0.001739 0.0
1.810511 1.054098 -0.000867 0.0
1.083418 0.933391 0.000886 0.0
4.315320 0.054943 -0.005051 0.0
1.715830 1.867007 -0.000948 0.0
1.890898 1.819010 0.000640 0.0
4.150279 1.875410 -0.003421 0.0
2.490291 0.769818 0.001491 0.0
3.800344 0.213608 0.002741 0.0
1.042145 1.491902 0.003738 0.0
2.326099 1.683827 -0.002462 0.0
2.903405 0.931398 -0.001313 0.0
2.665457 0.054353 0.000534 0.0
4.063428 0.905182 -0.000458 0.0
1.072060 0.435535 -0.004367 0.0
0.233675 0.458448 0.005314 0.0
1.766268 0.337531 -0.001984 0.0
4.322949 1.942737 -0.001730 0.0
0.189685 1.340448 -0.000483 0.0
4.314050 0.884654 0.003890 0.0
1.625057 0.484917 -0.001878 0.0
1.875436 1.443715 -0.003443 0.0
2.332764 0.708029 0.001102 0.0
0.584016 1.920254 -0.003424 0.0
2.741927 0.907535 -0.001112 0.0
2.759472 0.496649 0.001805 0.0
2.665755 1.651056 0.001153 0.0
2.583550 0.637794 -0.000587 0.0
2.194377 0.272968 0.000857 0.0
2.123985 2.039173 0.002152 0.0
0.338304 1.339908 0.002494 0.0
0.222048 0.181390 -0.001704 0.0
4.439475 0.101465 -0.005456 0.0
1.994213 0.976346 -0.004485 0.0
3.902277 1.267816 -0.000246 0.0
0.703307 1.136816 -0.001878 0.0
2.064580 1.924079 0.000780 0.0
3.715346 1.705276 0.000284 0.0
4.231744 0.210937 -0.002142 0.0
2.909750 0.699005 -0.003966 0.0
0.872496 1.524917 -0.002226 0.0
3.002733 1.750638 0.002606 0.0
1.718062 1.857729 -0.001263 0.0
0.248610 1.049678 0.003023 0.0
1.182158 1.807795 0.003015 0.0
2.542562 1.054556 -0.001881 0.0
3.203235 1.419387 0.002499 0.0
3.772970 1.351764 0.003891 0.0
4.430701 0.680596 -0.000441 0.0
3.192559 0.926930 -0.000410 0.0
2.139823 0.923410 0.005672 0.0
3.152766 0.612452 -0.004490 0.0
2.527103 0.546204 -0.001409 0.0
0.205664 1.811954 -0.003355 0.0
1.882735 0.022268 -0.001479 0.0
3.977908 1.266689 -0.003966 0.0
3.586617 1.299695 -0.001369 0.0
4.338595 1.527723 0.001396 0.0
2.521530 0.916631 -0.002779 0.0
4.246701 0.366211 -0.001111 0.0
2.354689 0.620038 -0.001780 0.0
1.183456 0.505445 0.002680 0.0
2.776695 0.211202 0.000248 0.0
1.254230 0.027792 0.000205 0.0
0.319764 0.052275 0.002182 0.0
0.948417 1.402176 -0.004518 0.0
1.523108 1.230545 -0.000422 0.0
0.862348 0.914848 0.002482 0.0
3.820885 1.208303 0.004808 0.0
3.628029 1.962043 0.001398 0.0
2.172741 0.750890 -0.004852 0.0
4.252424 1.415025 0.001996 0.0
2.641407 0.756145 -0.000691 0.0
1.788132 1.049836 0.001531 0.0
3.873257 0.232842 -0.003749 0.0
2.085784 1.879873 0.000015 0.0
0.502700 0.193159 0.000820 0.0
0.991160 0.991449 -0.001307 0.0
2.216050 0.146928 -0.002601 0.0
3.372399 1.870251 -0.000888 0.0
0.911454 0.860934 -0.001960 0.0
2.148381 1.101425 0.002638 0.0
3.081607 0.319805 0.003303 0.0
4.098313 1.272415 0.000052 0.0
1.451526 0.456899 0.000044 0.0
3.458854 1.922064 0.005115 0.0
2.370996 0.009812 0.002224 0.0
1.881034 1.180885 0.000093 0.0
1.697593 0.522215 -0.000811 0.0
1.478872 0.368360 -0.000145 0.0
2.120079 1.767099 -0.000011 0.0
3.889702 1.235895 0.005117 0.0
3.720780 1.407311 -0.005242 0.0
3.270351 1.013259 0.000565 0.0
4.181649 0.977204 -0.001176 0.0
4.487104 1.470732 -0.002746 0.0
4.313133 0.527136 -0.001540 0.0
1.508755 0.109704 0.000462 0.0
0.009808 0.677254 0.001140 0.0
4.196041 0.647356 0.003086 0.0
1.432580 0.567583 0.000959 0.0
4.467474 1.510910 -0.000173 0.0
2.143130 2.037892 0.000057 0.0
3.277624 0.237981 -0.001172 0.0
2.985232 1.557292 0.001789 0.0
2.754789 1.291159 0.000623 0.0
3.998499 0.972779 -0.002244 0.0
3.253493 0.213610 -0.000976 0.0
3.252346 2.042335 0.003308 0.0
1.875218 0.777778 -0.004773 0.0
4.001991 0.496265 -0.001879 0.0
4.212836 1.191007 0.000472 0.0
1.718403 0.624387 0.001478 0.0
2.835751 1.129659 -0.001854 0.0
4.610182 0.008165 -0.000667 0.0
4.453464 1.443913 0.001936 0.0
1.353805 1.393911 -0.004107 0.0
4.429006 0.912696 0.000536 0.0
4.193356 0.055492 -0.003359 0.0
1.767143 1.700285 -0.000765 0.0
0.083082 0.165555 0.000987 0.0
4.129748 1.426907 0.000228 0.0
0.411918 1.459867 -0.002647 0.0
1.746789 1.627646 0.006033 0.0
2.600377 0.230608 0.000295 0.0
0.236753 1.843204 -0.001542 0.0
3.032095 1.786262 -0.002751 0.0
0.317516 0.291988 -0.001195 0.0
3.291602 0.664269 -0.002180 0.0
4.627041 1.827664 -0.002307 0.0
0.499449 1.050932 0.001942 0.0
2.959006 0.172627 -0.000938 0.0
0.049858 1.074197 0.004033 0.0
3.981233 1.121383 0.001379 0.0
0.655404 1.737532 -0.001595 0.0
2.606623 0.186583 -0.000516 0.0
3.589953 0.255726 0.001824 0.0
0.245342 0.046903 0.002583 0.0
1.470583 2.022848 -0.001125 0.0
4.344157 0.938642 -0.003144 0.0
3.468123 2.022638 -0.006866 0.0
0.920466 0.747874 -0.004262 0.0
3.671140 0.997638 0.004613 0.0
1.302865 0.984258 -0.001114 0.0
0.127164 1.788896 0.003522 0.0
0.660827 0.236283 -0.000917 0.0
1.293850 1.674431 -0.004315 0.0
3.317258 0.305623 -0.004406 0.0
1.126185 0.761376 -0.000058 0.0
4.541981 0.450217 0.000700 0.0
4.524864 0.251271 -0.004392 0.0
2.617752 1.056480 0.000425 0.0
1.722185 0.080016 0.000881 0.0
4.511055 1.895765 -0.002845 0.0
1.558019 0.777565 0.000396 0.0
1.241572 1.184154 0.001438 0.0
3.440900 1.865209 0.002034 0.0
0.164406 1.640300 0.002130 0.0
4.235911 0.944134 0.001702 0.0
1.474919 0.620069 0.000924 0.0
4.324118 0.767034 0.003602 0.0
3.938908 0.406899 0.001359 0.0
1.455479 1.473382 -0.000628 0.0
3.752976 1.500282 -0.000886 0.0
1.157583 0.545254 0.002848 0.0
2.771868 0.790469 -0.001422 0.0
0.688120 0.820369 -0.002672 0.0
4.420547 1.817737 0.001806 0.0
4.093315 0.083976 0.004130 0.0
3.631252 1.436858 -0.000181 0.0
2.699180 1.127033 0.002758 0.0
0.275191 0.300827 -0.004168 0.0
4.591935 1.757914 0.004860 0.0
0.862434 0.047313 0.000087 0.0
3.891452 1.860378 -0.001779 0.0
3.044514 1.329650 -0.000156 0.0
2.822350 0.744619 -0.002184 0.0
1.214851 0.404011 0.000608 0.0
1.027493 1.457960 0.000631 0.0
4.304043 0.366193 -0.002861 0.0
1.328969 1.688849 -0.004046 0.0
0.210964 0.804105 -0.001207 0.0
0.532709 1.731584 -0.003813 0.0
0.869122 1.913837 -0.001377 0.0
0.308860 1.425285 0.000694 0.0
1.003294 1.239438 0.001649 0.0
3.048444 0.431974 -0.000909 0.0
3.602696 1.059339 -0.001052 0.0
1.114336 0.589078 0.001870 0.0
0.167442 0.418575 -0.001459 0.0
2.178709 0.251966 -0.002908 0.0
0.888756 0.207075 -0.003124 0.0
1.817135 0.778400 -0.001580 0.0
4.325006 1.806029 0.002310 0.0
4.583159 1.606724 0.000937 0.0
3.854842 0.142031 -0.002817 0.0
1.089268 1.868318 -0.000820 0.0
3.217009 0.722466 0.004252 0.0
4.034604 0.249865 -0.002860 0.0
2.247635 2.050078 -0.002237 0.0
1.948562 1.375926 -0.000109 0.0
0.655307 1.075313 0.002016 0.0
0.568429 1.752713 0.002113 0.0
2.550195 1.115541 0.000712 0.0
1.661665 1.983617 0.000363 0.0
4.544398 0.750115 0.004081 0.0
0.450098 1.812679 -0.000069 0.0
2.774523 1.182240 0.000250 0.0
3.145880 1.105443 -0.001420 0.0
2.213165 0.195658 0.004718 0.0
3.021114 0.777025 0.000268 0.0
1.831193 1.043865 0.002268 0.0
2.940805 1.945890 0.002813 0.0
1.641069 0.042556 -0.001494 0.0
0.859786 0.943882 -0.000085 0.0
4.639194 1.313429 -0.003259 0.0
3.454968 1.161108 -0.001082 0.0
3.523912 0.250949 -0.001392 0.0
0.542040 0.755941 0.002075 0.0
2.953150 2.044599 0.000556 0.0
4.039280 0.746723 0.002684 0.0
0.965210 0.391699 0.000153 0.0
4.087535 0.838797 -0.001822 0.0
1.728390 0.920882 0.004910 0.0
3.772884 1.462449 0.000913 0.0
3.512913 0.120654 0.000253 0.0
4.351883 1.290372 -0.004396 0.0
2.039327 1.490226 -0.001306 0.0
2.784017 1.730292 -0.000710 0.0
0.948275 1.369699 -0.000963 0.0
0.375471 1.395412 0.006282 0.0
1.662003 1.529178 0.005537 0.0
0.118415 1.865965 0.002181 0.0
1.357533 0.310329 -0.002390 0.0
0.710588 0.988282 -0.005292 0.0
2.090561 1.280312 -0.001573 0.0
3.643931 0.869094 -0.002620 0.0
4.099978 1.560201 -0.001632 0.0
1.459066 2.046496 -0.000510 0.0
4.473197 0.608309 -0.000599 0.0
2.668835 1.559910 0.000542 0.0
1.584855 0.939898 0.003804 0.0
3.384052 1.441402 0.001453 0.0
2.055601 0.676798 0.001143 0.0
1.671486 1.344436 -0.000187 0.0
4.218108 1.747902 0.000465 0.0
0.412950 1.961134 -0.004749 0.0
1.511093 0.285632 -0.001689 0.0
1.300463 0.234460 0.004132 0.0
2.366989 1.959835 -0.001990 0.0
1.215684 1.407060 -0.001522 0.0
0.724850 1.739772 -0.000114 0.0
3.742193 1.280243 -0.002124 0.0
4.554816 0.529561 0.000778 0.0
1.164360 1.577066 0.002276 0.0
1.869369 1.947129 -0.000618 0.0
1.798143 0.651526 0.002227 0.0
3.692008 1.093447 0.003258 0.0
1.074500 0.419745 -0.002503 0.0
4.491158 1.493608 -0.001566 0.0
3.129488 1.483385 0.001300 0.0
1.712972 0.252453 0.002343 0.0
0.971846 1.604097 -0.003464 0.0
0.332545 1.321260 -0.001999 0.0
3.050616 0.185646 -0.001913 0.0
3.512927 1.899491 -0.000876 0.0
4.398799 1.771590 -0.006202 0.0
1.986536 1.819646 0.000451 0.0
4.044386 1.285315 -0.005029 0.0
1.056829 0.785659 -0.001898 0.0
3.506696 1.860035 0.007204 0.0
4.431517 0.681710 -0.000718 0.0
1.534305 1.027614 -0.002633 0.0
2.658444 0.472616 -0.001317 0.0
2.603015 1.144395 0.004677 0.0
0.256133 1.209355 -0.001546 0.0
2.537160 1.203412 -0.001859 0.0
1.178035 1.866981 -0.002031 0.0
0.658477 0.949330 -0.000871 0.0
4.173015 0.761224 0.002029 0.0
0.299682 1.878961 0.003264 0.0
4.027068 1.107831 -0.000497 0.0
2.864842 0.296899 0.001238 0.0
3.950545 1.332918 -0.000939 0.0
3.385421 1.536233 -0.000586 0.0
4.252002 0.394770 0.005434 0.0
1.182520 0.187468 0.002370 0.0
2.722009 1.032791 -0.001592 0.0
0.432650 0.165263 -0.000049 0.0
0.816101 0.447023 0.002536 0.0
2.847286 1.811756 0.001685 0.0
3.319682 0.059481 0.003052 0.0
1.635511 1.471477 -0.001117 0.0
1.674726 0.912413 0.002993 0.0
1.546015 0.224945 0.003270 0.0
3.246624 0.343064 -0.004304 0.0
1.056065 0.309507 0.001508 0.0
0.198157 0.582401 -0.002438 0.0
4.523688 1.060751 -0.003116 0.0
2.751911 0.343146 -0.000404 0.0
0.341602 1.010724 -0.000504 0.0
3.894473 1.721955 -0.002294 0.0
0.429210 0.050154 0.003017 0.0
3.451550 0.403247 -0.003681 0.0
1.611442 1.132824 0.001654 0.0
2.431981 0.533190 -0.001044 0.0
2.072393 0.438074 -0.002300 0.0
3.761535 0.827874 -0.001861 0.0
0.843027 2.045233 0.000240 0.0
4.300964 0.429702 -0.001631 0.0
3.899727 0.560587 0.001422 0.0
3.669238 0.317272 -0.000170 0.0
0.231670 0.272747 -0.000143 0.0
2.889677 1.343903 0.002705 0.0
3.077909 1.559412 0.002895 0.0
2.720547 1.986661 0.000447 0.0
1.872963 0.307855 0.000111 0.0
2.227489 1.684178 0.001889 0.0
4.414444 1.072437 0.000793 0.0
0.244256 1.666023 0.004358 0.0
1.385423 1.244587 -0.000979 0.0
2.489259 1.908717 -0.004341 0.0
2.759783 0.598151 -0.000187 0.0
2.080642 1.006560 -0.003311 0.0
3.166687 0.649500 -0.004150 0.0
4.570689 1.008489 -0.000687 0.0
4.458543 1.660086 0.001168 0.0
1.737676 1.200986 0.000443 0.0
4.507129 1.512302 -0.002315 0.0
0.969746 0.129872 0.000647 0.0
0.184919 1.219523 -0.002102 0.0
1.504760 1.591239 -0.001562 0.0
2.063831 0.062953 0.003202 0.0
1.237488 1.180364 -0.000789 0.0
4.191394 0.731201 0.004516 0.0
0.666718 1.990854 0.002635 0.0
3.364461 1.500569 0.000505 0.0
4.257426 0.461490 0.003435 0.0
2.696540 0.983113 -0.000882 0.0
3.271706 1.647074 0.003068 0.0
4.614410 1.711116 0.000625 0.0
3.866914 1.386018 0.001487 0.0
4.287570 1.442658 -0.000786 0.0
0.180865 1.145441 0.004247 0.0
0.584885 1.810678 -0.000940 0.0
3.667459 1.020710 0.002872 0.0
0.549304 1.177700 0.002864 0.0
0.857886 1.229423 -0.003753 0.0
2.538295 0.934938 -0.001440 0.0
4.242261 0.830468 -0.005799 0.0
3.896885 1.414293 0.002233 0.0
1.721954 1.431219 0.003822 0.0
2.955800 1.113175 -0.003309 0.0
0.616546 0.513247 -0.002321 0.0
0.804887 1.041474 -0.000629 0.0
1.270812 0.811786 -0.001030 0.0
3.240084 1.329743 -0.001507 0.0
2.801047 0.480879 0.000054 0.0
2.947467 1.369756 0.002038 0.0
1.263963 0.731984 0.000291 0.0
2.718129 1.302806 0.002954 0.0
1.024614 1.010736 0.000720 0.0
2.780306 0.548159 0.000525 0.0
0.567749 0.422168 0.000416 0.0
2.002160 1.035637 -0.001862 0.0
0.396917 1.905586 -0.001019 0.0
0.148114 1.413955 0.003458 0.0
3.545934 1.716652 -0.000881 0.0
0.801684 1.521859 0.001683 0.0
0.806748 0.602751 0.001705 0.0
1.903569 0.199496 0.002330 0.0
2.408731 1.466040 0.000196 0.0
0.446292 1.375552 -0.001926 0.0
3.620071 1.338573 0.003471 0.0
1.908589 1.694564 -0.000581 0.0
0.180392 0.035950 0.002164 0.0
3.564990 0.707269 0.004546 0.0
2.493342 0.521028 0.001998 0.0
1.383802 1.423340 0.001591 0.0
2.064865 1.991187 0.000936 0.0
2.330744 0.442298 -0.001953 0.0
1.911687 1.099473 -0.002569 0.0
3.065587 1.420300 0.001553 0.0
1.318152 0.789548 -0.002745 0.0
4.177095 1.409623 0.000244 0.0
0.528159 0.160798 0.001755 0.0
1.835364 1.173381 0.001579 0.0
4.504169 0.896714 -0.000632 0.0
3.982444 1.776365 -0.002950 0.0
3.024656 0.343656 0.006847 0.0
4.171972 1.728498 -0.000659 0.0
1.132184 0.035867 -0.001302 0.0
1.193799 1.366563 0.000029 0.0
4.561923 1.567564 -0.000978 0.0
1.873737 1.599710 0.000070 0.0
0.023994 1.308672 -0.001819 0.0
0.611401 0.370888 0.000782 0.0
2.413250 1.732306 -0.005938 0.0
0.353439 1.057785 -0.002388 0.0
1.371569 1.440042 0.000954 0.0
4.056211 1.205865 0.001158 0.0
1.509288 2.013461 0.000334 0.0
3.787848 0.747290 -0.001552 0.0
1.475787 1.720592 -0.003463 0.0
1.903967 1.796034 -0.002745 0.0
3.230433 0.840202 -0.003468 0.0
0.807109 1.346706 0.001949 0.0
0.682557 0.471203 -0.003216 0.0
0.496111 1.623942 0.001528 0.0
3.132471 1.540778 -0.003313 0.0
4.328501 0.440872 0.002067 0.0
1.306590 0.695741 -0.000698 0.0
1.021734 1.614309 -0.001947 0.0
2.489467 1.714501 0.003312 0.0
3.063793 0.632476 -0.000865 0.0
3.068966 1.739460 0.002497 0.0
2.667351 1.211530 -0.001782 0.0
1.697489 1.324039 -0.004796 0.0
2.879142 1.253708 -0.000621 0.0
2.241861 1.030447 0.001381 0.0
1.105091 1.310503 -0.000785 0.0
1.787768 1.059321 0.000070 0.0
0.262706 0.878937 -0.000544 0.0
1.525505 1.451081 -0.001553 0.0
4.610708 1.404284 0.002670 0.0
1.008807 0.463771 0.000988 0.0
1.769668 0.992241 0.001472 0.0
1.343921 1.938609 -0.004357 0.0
1.816925 0.596301 -0.005305 0.0
0.613084 0.975342 0.000699 0.0
2.521734 1.679963 -0.004906 0.0
4.315531 0.818301 0.000440 0.0
1.389051 1.753283 -0.000511 0.0
4.518015 1.356683 -0.004426 0.0
3.778828 1.154213 0.001547 0.0
1.788112 2.028548 0.000814 0.0
4.510370 1.867706 -0.004102 0.0
1.534281 1.633895 0.004129 0.0
1.886470 1.430034 0.000898 0.0
1.659545 1.996447 0.003022 0.0
0.745363 1.575693 0.000360 0.0
1.237835 1.201725 0.003852 0.0
1.184016 1.424566 -0.001188 0.0
2.599519 2.043805 -0.003023 0.0
1.951936 1.548873 0.000767 0.0
2.828126 1.310617 0.002102 0.0
0.920788 0.601291 -0.000134 0.0
4.518769 0.116477 -0.000995 0.0
4.005587 0.306214 -0.000320 0.0
2.181410 0.845775 0.001079 0.0
3.379934 0.952259 0.002880 0.0
2.621978 1.025833 0.004096 0.0
3.893992 1.630419 -0.000463 0.0
2.423847 0.978271 -0.004329 0.0
3.812010 1.175870 -0.001156 0.0
4.208464 1.726947 -0.005634 0.0
1.227351 1.861289 -0.000784 0.0
2.243278 2.027168 0.003928 0.0
2.646008 0.334636 0.004154 0.0
3.887769 0.181598 -0.000890 0.0
0.343816 0.479139 0.002801 0.0
3.140491 1.970190 0.002165 0.0
1.456228 1.068650 0.001479 0.0
2.862489 1.886353 0.000307 0.0
2.902438 1.046896 0.000891 0.0
1.933298 1.176920 0.001262 0.0
3.371368 1.603226 0.001790 0.0
4.240312 2.043186 -0.004604 0.0
1.705712 0.805061 -0.000628 0.0
1.450174 0.835583 -0.000137 0.0
3.800626 0.025996 0.003045 0.0
1.520431 1.909602 0.000595 0.0
1.488671 1.224102 -0.000601 0.0
3.896018 1.250888 -0.001683 0.0
0.796863 1.546884 -0.001116 0.0
1.519860 0.838795 -0.002347 0.0
2.749907 0.113376 0.000687 0.0
3.738604 0.917294 -0.001008 0.0
1.424921 0.389076 -0.002335 0.0
2.098152 0.573178 0.000449 0.0
0.502532 0.787174 -0.003324 0.0
1.730892 0.345212 0.000771 0.0
1.624595 1.043621 0.000991 0.0
2.488285 1.712969 -0.001790 0.0
4.319322 0.857779 0.003293 0.0
2.860256 1.095899 -0.000307 0.0
2.698710 0.143307 0.000836 0.0
1.564753 1.572461 -0.002015 0.0
0.647187 1.301907 -0.000124 0.0
4.395135 1.743608 -0.000600 0.0
3.248542 0.597163 0.000254 0.0
2.083622 1.638337 -0.007424 0.0
3.787379 1.536490 0.001214 0.0
0.566451 0.240223 -0.000105 0.0
4.484957 1.134670 -0.000455 0.0
0.636800 0.934820 0.000743 0.0
2.364733 1.061517 0.001257 0.0
2.762290 0.237549 0.004962 0.0
2.329738 1.535640 -0.000572 0.0
4.127112 0.054385 0.000980 0.0
3.968908 0.362148 -0.003354 0.0
1.249687 0.381107 0.001363 0.0
1.225121 1.161546 0.002289 0.0
2.534050 1.433219 -0.004278 0.0
2.349793 0.890988 0.000517 0.0
2.725690 1.436006 0.002127 0.0
0.307268 1.571879 0.003133 0.0
0.111043 1.701140 -0.000409 0.0
1.604838 0.415389 -0.001680 0.0
0.855434 1.765037 0.000355 0.0
3.078783 1.610112 -0.003303 0.0
3.184482 1.831812 0.001625 0.0
2.957165 1.158202 0.003760 0.0
2.044254 1.555181 -0.002335 0.0
3.267828 0.678927 0.002674 0.0
3.737494 1.545137 0.000942 0.0
0.092013 1.993905 -0.001243 0.0
0.184854 0.985635 0.001717 0.0
1.273846 1.681014 0.004092 0.0
4.471691 0.596974 -0.004751 0.0
2.585731 1.249043 0.000154 0.0
2.872094 1.337503 -0.001872 0.0
1.018524 1.448670 0.000482 0.0
1.291993 1.551962 -0.003037 0.0
3.411989 1.011857 -0.000933 0.0
3.158047 1.166710 0.000239 0.0
0.946369 1.305878 -0.002762 0.0
0.674648 1.310655 -0.001066 0.0
2.524496 0.001818 -0.004974 0.0
3.513133 1.546676 0.002576 0.0
