1.070025 0.951197 0.001006 0.0
2.966511 0.663079 0.003512 0.0
0.331183 0.334763 -0.002058 0.0
0.623589 0.337655 0.003742 0.0
0.412027 1.285340 -0.001863 0.0
1.621456 1.230944 -0.002986 0.0
1.625087 0.329660 -0.001982 0.0
3.395445 0.579136 0.001606 0.0
3.017102 1.168041 -0.002687 0.0
3.161391 1.548090 -0.004296 0.0
3.156005 1.170182 0.000543 0.0
1.431821 1.333270 0.003282 0.0
0.729813 0.018394 -0.001278 0.0
0.074710 0.687629 0.000806 0.0
1.289263 0.242163 0.000243 0.0
2.362296 1.142137 -0.000445 0.0
3.832779 1.243732 -0.001109 0.0
3.360405 0.960873 0.000196 0.0
3.638581 1.445497 0.001869 0.0
3.871834 0.915344 -0.003911 0.0
0.985336 0.661991 -0.003243 0.0
2.903223 0.781505 -0.004427 0.0
0.165377 1.326731 -0.002428 0.0
1.897182 1.172416 -0.005024 0.0
1.373679 1.615454 -0.002688 0.0
2.316038 0.940038 0.002617 0.0
3.017618 0.811186 -0.001538 0.0
1.878199 0.507367 0.000202 0.0
1.836675 1.617420 -0.000287 0.0
0.425759 1.225220 0.002905 0.0
2.058393 1.499700 -0.002506 0.0
0.891983 1.548480 0.002768 0.0
2.567673 0.636521 0.001542 0.0
0.253897 0.065771 -0.004140 0.0
2.103757 1.396219 0.003054 0.0
0.151195 0.150662 -0.000469 0.0
2.209794 0.821861 0.003553 0.0
3.345369 0.238184 0.001349 0.0
0.362450 0.929199 0.005376 0.0
0.999811 1.686196 0.001706 0.0
2.116174 0.049872 -0.000139 0.0
2.543068 0.843777 -0.000017 0.0
2.857329 1.178597 0.002482 0.0
3.334369 0.038769 -0.001295 0.0
2.899767 0.024572 0.000723 0.0
3.739386 0.331076 0.001978 0.0
3.810790 0.411900 -0.002309 0.0
3.240368 1.384896 0.001589 0.0
0.078615 0.276177 0.002697 0.0
1.950750 0.125171 0.000261 0.0
0.629393 0.573028 0.003910 0.0
1.558088 0.306082 0.001008 0.0
1.111868 0.442355 -0.000359 0.0
2.695386 0.309249 0.001196 0.0
3.588641 0.766876 -0.000181 0.0
3.316601 0.957892 -0.004229 0.0
1.060484 1.000718 -0.001548 0.0
1.747283 1.643900 0.001174 0.0
2.484764 1.232621 0.001270 0.0
0.734776 1.123190 0.000099 0.0
1.090456 1.309898 -0.006186 0.0
1.836432 1.269114 0.000977 0.0
3.036756 1.375566 0.001787 0.0
3.677046 0.779813 0.000685 0.0
3.189338 0.909922 -0.002696 0.0
2.246768 0.171577 0.000757 0.0
1.514227 0.855605 0.000218 0.0
2.055588 1.585264 -0.001956 0.0
2.583531 0.914357 -0.002759 0.0
0.975961 0.103131 -0.001600 0.0
3.788203 0.629714 0.001288 0.0
1.194130 1.408777 0.000905 0.0
0.383443 1.183372 -0.001107 0.0
0.828389 1.615309 0.000911 0.0
0.015434 0.946627 -0.000058 0.0
3.567097 0.175754 0.004964 0.0
2.374571 0.786038 0.002582 0.0
3.865345 1.381756 -0.002081 0.0
2.401973 1.276229 -0.000918 0.0
3.099199 0.734987 -0.000123 0.0
0.166594 0.446717 -0.001897 0.0
2.383766 1.170136 -0.005196 0.0
0.941512 0.170383 -0.001032 0.0
0.423289 1.195714 -0.002752 0.0
0.653301 0.947216 0.001468 0.0
3.801284 0.598675 -0.003091 0.0
1.619047 0.585926 0.003024 0.0
2.597294 0.140524 -0.002706 0.0
3.545832 1.078013 -0.001827 0.0
3.429596 1.613093 -0.001379 0.0
2.044359 1.170316 -0.000825 0.0
3.418645 1.733255 0.000780 0.0
0.641635 0.046940 -0.000519 0.0
3.679580 0.986759 0.000289 0.0
1.359725 0.323375 -0.001653 0.0
2.465812 1.272233 0.004986 0.0
0.726533 0.889255 0.001579 0.0
2.257106 1.105894 0.004016 0.0
0.271636 1.471903 -0.001054 0.0
1.628011 0.725180 -0.002824 0.0
0.940148 1.059250 -0.001957 0.0
3.325259 1.015882 -0.003974 0.0
2.414159 0.649408 -0.003001 0.0
1.804725 1.482949 0.001797 0.0
3.564282 0.133825 -0.000182 0.0
2.779322 0.112281 0.000353 0.0
2.618396 1.391128 0.006416 0.0
3.413047 1.507309 -0.004294 0.0
0.843546 0.461907 0.001306 0.0
2.369116 1.517170 -0.003155 0.0
0.526809 1.048242 0.000544 0.0
0.977233 0.523850 0.001545 0.0
2.683796 0.335543 0.000733 0.0
0.707215 0.749578 -0.002334 0.0
0.440129 1.416500 0.001113 0.0
0.005988 0.995893 0.003150 0.0
1.516916 1.551986 0.001758 0.0
1.684451 0.089808 0.006692 0.0
3.961204 0.385566 0.001149 0.0
0.248213 0.086543 -0.000336 0.0
2.558423 0.232657 0.000222 0.0
0.768130 0.592266 -0.002357 0.0
3.671094 1.644626 0.003990 0.0
0.019807 1.330441 -0.002682 0.0
0.925172 1.562671 0.002160 0.0
3.130974 0.819342 0.003540 0.0
3.038523 1.349999 -0.002363 0.0
3.732496 0.181226 0.002564 0.0
1.240937 0.762544 -0.001736 0.0
0.172062 0.263537 0.001491 0.0
2.334567 1.190311 -0.003428 0.0
3.148508 0.985398 0.000388 0.0
3.001950 0.578093 -0.001522 0.0
0.583197 0.404175 -0.003616 0.0
3.570171 1.110794 0.000188 0.0
3.104371 0.314887 0.002796 0.0
2.339861 0.774203 -0.000350 0.0
0.605120 0.570821 0.002359 0.0
1.240557 0.502999 -0.001714 0.0
3.364306 1.399308 -0.001981 0.0
1.820425 0.458297 -0.002274 0.0
3.814075 0.464277 -0.002454 0.0
3.489874 0.434520 0.002119 0.0
1.440543 0.520933 0.004082 0.0
0.163588 0.576993 0.002486 0.0
1.408133 0.257108 -0.001562 0.0
0.135871 0.458361 0.002498 0.0
0.130633 0.183711 0.002059 0.0
0.016345 0.762542 0.000524 0.0
2.762670 1.554642 0.001640 0.0
0.832336 0.144714 -0.000255 0.0
0.377203 0.744456 -0.006116 0.0
3.475083 0.872794 -0.001612 0.0
0.781726 1.029190 0.000530 0.0
2.276973 0.999174 0.001611 0.0
1.704143 1.157471 -0.000246 0.0
3.595247 1.363600 -0.000409 0.0
3.048805 0.551585 0.001860 0.0
2.462012 0.470496 -0.002502 0.0
4.052105 0.819136 0.001367 0.0
2.855315 0.440720 0.000886 0.0
2.960950 0.648265 0.000046 0.0
2.142723 1.164193 0.001423 0.0
0.916729 0.254604 -0.002869 0.0
1.756547 0.919453 -0.001361 0.0
0.426880 1.131271 0.000502 0.0
3.606136 0.953234 -0.000987 0.0
2.247484 1.035971 0.002711 0.0
1.078376 1.599727 -0.004208 0.0
2.410624 0.191929 0.003338 0.0
2.584160 0.910030 0.000312 0.0
2.566833 1.266660 0.001142 0.0
3.181122 0.317036 0.000709 0.0
1.316929 0.235527 -0.002865 0.0
1.632320 1.513909 0.000668 0.0
0.980755 0.112531 0.000315 0.0
1.081134 0.662283 -0.004120 0.0
3.143603 0.568960 -0.001473 0.0
2.291887 1.266494 0.004338 0.0
3.227637 0.514217 0.002715 0.0
1.880000 0.183082 -0.000110 0.0
0.403813 1.055720 0.002126 0.0
2.689714 0.938324 -0.006261 0.0
3.511290 0.687803 -0.001932 0.0
2.074921 0.367986 -0.002295 0.0
2.967069 0.653730 0.004787 0.0
1.764796 0.518188 -0.001322 0.0
4.023233 1.692328 0.004071 0.0
3.095431 0.823494 0.000956 0.0
0.607541 1.570511 0.000404 0.0
3.599290 0.192475 -0.002919 0.0
3.268733 0.607210 -0.003666 0.0
3.498734 0.262385 -0.000021 0.0
3.270496 1.222297 0.003313 0.0
0.264359 0.248878 -0.003375 0.0
3.513581 0.168317 -0.000202 0.0
3.284782 1.465409 -0.001314 0.0
0.646923 1.584202 0.001915 0.0
4.037005 0.483289 -0.001842 0.0
0.385913 1.683637 -0.004204 0.0
0.917652 1.099491 -0.001750 0.0
2.521364 1.547850 0.000356 0.0
2.023305 0.814918 0.003093 0.0
1.088372 0.926270 -0.000503 0.0
3.216789 0.996975 -0.000450 0.0
0.746212 0.747409 -0.001905 0.0
2.202919 0.595487 -0.001730 0.0
1.277046 0.732749 -0.002998 0.0
0.964087 0.892227 -0.002217 0.0
0.049522 1.082129 -0.000011 0.0
3.586709 0.900870 0.000214 0.0
0.037075 1.182816 0.002895 0.0
0.048540 0.395772 0.002395 0.0
2.933718 1.263620 0.001288 0.0
1.416779 1.517903 0.000799 0.0
0.320924 0.684150 0.001619 0.0
2.261673 1.692777 -0.003212 0.0
2.492017 0.247701 -0.000590 0.0
0.664486 0.784467 0.002088 0.0
1.768247 0.483639 0.001250 0.0
0.451002 0.891855 -0.002641 0.0
1.790603 1.596006 0.000171 0.0
0.713528 0.218435 -0.004134 0.0
1.607482 1.541049 -0.002056 0.0
1.543742 0.141475 -0.005249 0.0
0.020894 1.325295 -0.001967 0.0
2.864409 1.124125 0.003034 0.0
0.292943 1.073490 -0.000776 0.0
3.325736 1.027384 0.000093 0.0
0.548484 0.664281 0.004967 0.0
0.964261 1.422629 -0.001568 0.0
1.103732 0.176790 0.002197 0.0
3.973000 1.209494 0.001902 0.0
0.009100 1.513575 0.002237 0.0
3.263924 0.130786 0.005253 0.0
1.437419 0.405500 0.001198 0.0
2.387358 0.893019 0.000132 0.0
1.003499 0.435191 -0.002004 0.0
1.500145 1.647319 0.001723 0.0
2.510603 1.597870 -0.002709 0.0
2.574855 0.713001 0.002575 0.0
0.177968 0.125401 0.001629 0.0
0.297804 1.656205 -0.000133 0.0
3.635311 0.400818 0.001713 0.0
2.561061 1.373383 -0.002691 0.0
0.669960 0.936462 0.009023 0.0
1.925241 0.848592 -0.002665 0.0
1.905627 0.970491 -0.000906 0.0
3.488106 0.762164 0.001723 0.0
1.710236 1.360187 0.001328 0.0
2.145012 0.976288 -0.001653 0.0
3.072156 1.603261 -0.001384 0.0
0.218810 1.385360 0.002239 0.0
0.542452 1.105217 -0.001130 0.0
1.779893 1.256398 0.002209 0.0
3.614740 1.216084 0.001771 0.0
0.900358 1.519463 0.002790 0.0
2.621794 1.225905 0.004443 0.0
1.363223 0.071077 -0.001473 0.0
0.404129 0.661401 0.001679 0.0
2.386569 0.243200 0.004111 0.0
2.893780 1.524105 -0.001150 0.0
3.468328 0.646720 0.000323 0.0
1.625095 0.770760 -0.003306 0.0
2.007669 0.282228 -0.000964 0.0
3.432024 1.129040 0.001392 0.0
0.441254 0.136792 -0.002051 0.0
2.522420 0.615154 -0.000180 0.0
2.798868 1.337347 -0.007416 0.0
1.597165 1.667509 0.005760 0.0
2.896861 0.369547 0.003005 0.0
2.396670 1.640099 -0.001509 0.0
3.414302 1.642073 0.000576 0.0
2.008714 0.956101 0.001559 0.0
1.297304 0.904107 0.003847 0.0
0.264839 0.610951 -0.001690 0.0
0.133894 0.527768 0.000674 0.0
0.184739 0.841112 -0.000063 0.0
0.286614 0.121032 -0.002178 0.0
0.161285 1.015322 0.002254 0.0
3.208170 0.260197 -0.000094 0.0
0.593917 0.906486 0.001721 0.0
1.792167 0.100298 -0.003927 0.0
1.868312 0.793339 -0.001332 0.0
1.215449 0.527473 0.001334 0.0
0.118671 0.030579 0.001211 0.0
1.028430 0.457998 0.000687 0.0
3.046728 1.557869 0.001955 0.0
2.456871 0.918011 0.001944 0.0
3.653265 1.650101 -0.002682 0.0
3.009042 1.640030 0.000918 0.0
0.756405 1.389334 0.001201 0.0
2.619952 1.715309 -0.000270 0.0
0.046363 0.046467 -0.003029 0.0
3.775782 1.336432 0.000128 0.0
4.043114 1.369931 0.002252 0.0
3.838046 0.508915 0.003125 0.0
0.734721 0.462634 0.001289 0.0
0.114027 1.629107 -0.000392 0.0
1.620631 1.051945 0.001686 0.0
2.044826 0.420562 0.001671 0.0
0.610908 1.503878 -0.005130 0.0
2.273055 1.381567 0.007529 0.0
0.815310 0.001203 -0.003622 0.0
0.088388 1.561507 0.001468 0.0
1.983551 0.058469 -0.003055 0.0
0.442433 0.079157 0.001864 0.0
1.296029 1.704983 0.000332 0.0
0.906832 1.419202 -0.000320 0.0
3.292076 1.696709 0.000136 0.0
3.253371 1.428728 -0.000007 0.0
2.133679 1.493382 -0.003354 0.0
1.985139 0.774605 -0.000849 0.0
2.160754 0.050313 -0.002187 0.0
3.345834 1.608076 -0.007565 0.0
0.455360 1.001568 -0.001650 0.0
1.935479 0.306825 -0.004051 0.0
0.993614 0.421000 0.000332 0.0
2.600045 1.375365 -0.003761 0.0
3.282112 1.494869 0.001949 0.0
2.555410 1.280073 -0.000484 0.0
2.252878 1.371561 -0.001420 0.0
1.861820 0.446778 0.004615 0.0
0.246383 1.319801 0.005477 0.0
2.674831 0.528472 -0.000955 0.0
0.238472 0.141671 -0.001957 0.0
3.597041 1.346025 -0.001637 0.0
3.678348 0.391188 0.000481 0.0
0.723567 0.979301 -0.001464 0.0
1.193224 0.751700 0.007623 0.0
0.804502 0.299156 -0.000752 0.0
1.257317 0.010111 -0.003106 0.0
0.796671 1.280245 -0.000070 0.0
1.079899 0.479183 -0.000656 0.0
1.871763 1.673467 -0.000825 0.0
2.476878 1.567733 -0.000521 0.0
0.213793 1.452792 0.000810 0.0
2.686867 1.170259 -0.002549 0.0
0.544989 0.119620 0.000756 0.0
2.337397 1.378187 0.000110 0.0
2.381119 0.536043 0.001243 0.0
1.557110 0.550736 0.000852 0.0
0.752166 0.071820 0.000931 0.0
3.133534 1.669490 -0.005167 0.0
0.211815 0.519864 0.001202 0.0
0.905676 0.236682 0.002705 0.0
2.398036 0.228056 -0.000030 0.0
3.387519 1.637326 -0.000200 0.0
0.783120 1.244056 -0.000269 0.0
4.002577 0.262003 -0.001693 0.0
0.878861 0.777891 0.000613 0.0
2.091098 1.394053 -0.002416 0.0
3.987364 0.047877 -0.001147 0.0
2.146939 1.048347 0.000402 0.0
0.798904 1.014752 -0.000905 0.0
0.328846 0.460894 0.001270 0.0
2.242375 0.237381 0.000561 0.0
0.527605 0.818533 -0.002037 0.0
2.786758 0.996908 -0.002416 0.0
3.579073 0.436373 0.000418 0.0
1.572818 0.444504 0.003605 0.0
0.712300 0.048496 0.003261 0.0
0.942260 0.638887 -0.002291 0.0
0.645728 1.387620 -0.003342 0.0
2.175587 1.697838 0.002172 0.0
1.745975 0.828731 -0.000574 0.0
0.815790 1.402123 0.000601 0.0
2.465478 0.617573 0.002597 0.0
3.488117 0.984283 -0.003741 0.0
3.943419 0.752226 -0.001774 0.0
0.226166 0.826624 0.001636 0.0
2.614420 0.908618 0.000096 0.0
1.138017 0.892305 0.001207 0.0
3.767535 1.609020 -0.001843 0.0
0.780508 1.158359 -0.001589 0.0
2.081502 1.177167 -0.001466 0.0
1.557103 0.559984 -0.000167 0.0
0.089696 0.728251 0.001372 0.0
1.998129 0.550081 -0.001841 0.0
3.813088 0.050691 -0.001337 0.0
2.511883 0.394080 -0.000934 0.0
1.997118 1.572335 -0.001918 0.0
1.755875 0.325082 0.002717 0.0
0.148683 0.269055 0.000876 0.0
1.663512 1.485188 0.000338 0.0
0.968118 0.063724 0.004753 0.0
2.258776 0.335485 -0.000876 0.0
1.834000 1.296206 0.001047 0.0
3.444518 1.088111 0.002795 0.0
3.138673 1.024833 0.001075 0.0
3.545742 0.518375 -0.002475 0.0
0.931033 0.080776 -0.002352 0.0
0.050024 0.620283 0.000071 0.0
3.690437 1.670377 0.000945 0.0
1.723751 0.271157 0.002109 0.0
3.065769 0.965043 -0.002856 0.0
3.814942 1.728968 0.004283 0.0
0.487472 0.811148 0.003044 0.0
0.303263 0.546668 0.005187 0.0
3.231838 0.623214 -0.001325 0.0
3.379297 1.174946 0.000701 0.0
1.034897 0.216756 0.002892 0.0
2.096127 0.081371 0.001877 0.0
0.981992 0.450523 0.003565 0.0
0.951278 1.509097 0.000357 0.0
2.027029 0.447769 -0.004533 0.0
1.373434 0.471508 -0.001656 0.0
2.849905 0.617898 0.004238 0.0
0.654658 1.237314 0.000922 0.0
2.371902 0.867446 -0.001149 0.0
2.346104 0.754218 0.005273 0.0
3.722638 0.714059 0.000547 0.0
0.391224 1.654072 0.000910 0.0
0.470961 0.922440 -0.002169 0.0
3.014868 1.547735 0.002686 0.0
0.712539 1.031955 -0.000101 0.0
0.196607 0.303508 -0.000517 0.0
1.325798 1.004133 -0.002061 0.0
4.000438 1.273169 -0.001019 0.0
0.418437 1.637310 -0.001919 0.0
2.772683 0.048410 0.002187 0.0
2.107310 0.028814 -0.000265 0.0
0.089538 1.160561 -0.000296 0.0
1.507631 0.072361 0.002304 0.0
3.656514 0.228102 -0.003152 0.0
1.784229 0.137342 0.002260 0.0
0.957932 1.638795 0.001231 0.0
0.747040 0.960828 -0.000521 0.0
3.161791 1.228638 0.001477 0.0
1.180869 0.112908 -0.001281 0.0
3.281542 0.398817 0.001889 0.0
2.929746 1.700949 0.001039 0.0
1.503999 1.597654 -0.003463 0.0
3.033773 1.636749 0.000433 0.0
1.616173 1.471766 -0.000961 0.0
3.016834 0.382580 -0.002177 0.0
2.097733 0.725038 -0.003760 0.0
1.695425 0.008945 -0.000756 0.0
3.692920 1.555111 0.003072 0.0
2.289685 1.316449 -0.004125 0.0
1.068917 0.166448 0.000926 0.0
0.333400 0.343479 0.001732 0.0
1.255337 0.283992 0.001303 0.0
0.386478 1.393887 0.001319 0.0
4.024253 1.168842 0.002224 0.0
3.829527 1.634048 0.001615 0.0
1.420167 1.057801 0.000487 0.0
2.824775 0.379064 -0.001071 0.0
2.225864 0.769583 0.002760 0.0
0.871701 0.632465 -0.001961 0.0
0.488721 1.157944 -0.000321 0.0
0.858555 1.656788 0.000994 0.0
3.922729 0.845936 -0.000674 0.0
0.594464 0.630818 -0.002096 0.0
3.039836 1.430532 0.001105 0.0
1.823668 0.926696 0.000062 0.0
0.987125 0.243408 0.004549 0.0
0.669652 0.638611 -0.000258 0.0
0.921023 1.047223 -0.003802 0.0
2.440327 1.422656 -0.000982 0.0
2.756743 0.175831 0.001545 0.0
3.644672 1.088331 -0.003099 0.0
2.858448 0.572129 -0.003977 0.0
3.504944 0.103388 0.001182 0.0
0.401245 0.734658 0.002583 0.0
1.605495 0.544635 0.004841 0.0
1.461439 1.650324 0.001127 0.0
0.149331 0.073409 0.004883 0.0
0.088175 0.734906 -0.000700 0.0
0.502754 0.460303 0.001497 0.0
2.479960 1.175152 0.002311 0.0
2.825238 0.417249 -0.002118 0.0
0.486284 0.198421 -0.000033 0.0
0.873451 1.705730 -0.000188 0.0
1.562617 0.663653 0.003361 0.0
0.562299 0.953989 0.003004 0.0
3.974448 1.259274 0.004099 0.0
1.848797 0.693082 0.001241 0.0
3.268240 0.734119 -0.001053 0.0
1.717706 0.264726 0.000924 0.0
1.451467 0.061124 0.003122 0.0
2.935043 1.715236 -0.000222 0.0
1.152603 1.408358 -0.001477 0.0
0.207293 0.236914 0.002082 0.0
3.879824 0.052137 0.003685 0.0
2.577837 0.048367 -0.005840 0.0
3.063030 0.849248 -0.000325 0.0
0.362035 1.671571 -0.003680 0.0
0.772476 0.820547 -0.001885 0.0
4.064241 0.002198 -0.004388 0.0
0.829928 1.638483 -0.000037 0.0
1.733320 0.206878 0.002880 0.0
3.603735 0.605419 0.001254 0.0
1.889157 0.703300 -0.004520 0.0
2.897378 0.492555 -0.005069 0.0
2.723513 0.140387 0.000894 0.0
1.281113 0.068990 0.002318 0.0
3.401842 0.478767 -0.003093 0.0
2.977514 0.745120 -0.005273 0.0
2.463386 0.844283 -0.002606 0.0
3.047311 1.494248 -0.000055 0.0
2.982664 0.397743 -0.004038 0.0
0.599840 0.509683 0.003109 0.0
3.110883 0.802062 -0.000791 0.0
1.522845 0.641245 -0.000993 0.0
0.179773 0.675258 -0.000465 0.0
1.906445 0.031722 0.001793 0.0
2.711110 1.059994 0.001036 0.0
1.641832 0.968886 -0.001644 0.0
1.457902 0.735657 -0.001131 0.0
0.020527 1.699747 0.000391 0.0
2.677889 0.089353 -0.001813 0.0
3.226123 0.080332 0.004089 0.0
0.205964 0.908415 -0.000700 0.0
2.175956 1.123894 0.001871 0.0
3.658453 1.146574 -0.001739 0.0
0.999132 1.358075 0.000349 0.0
3.683276 0.245891 -0.002206 0.0
0.723864 1.113511 -0.002422 0.0
0.737047 0.927474 -0.000244 0.0
2.822767 0.805089 0.000421 0.0
2.835043 1.437604 -0.003450 0.0
1.647969 0.712307 0.002290 0.0
0.769543 0.457310 0.000665 0.0
4.011707 0.543233 0.001527 0.0
3.085424 0.821955 0.001694 0.0
3.440530 0.787091 -0.000373 0.0
3.428173 1.015648 0.005080 0.0
1.115309 0.613381 -0.002337 0.0
2.611112 0.070920 -0.003752 0.0
2.850757 1.049522 -0.001740 0.0
2.349600 1.324935 -0.002706 0.0
0.140784 1.432388 -0.002707 0.0
1.261044 0.018908 -0.001709 0.0
1.010410 1.572878 0.001053 0.0
1.586475 1.547002 -0.002394 0.0
1.101524 0.030155 -0.000632 0.0
1.167074 1.110555 -0.000468 0.0
3.823439 1.302205 0.005729 0.0
1.997688 1.082285 0.002391 0.0
2.465688 1.496735 -0.001339 0.0
2.761986 1.674717 0.001795 0.0
4.052135 0.068916 -0.005462 0.0
0.058016 1.407659 -0.001643 0.0
1.681059 0.175939 0.000217 0.0
0.549020 1.356287 0.001768 0.0
0.681847 0.332996 0.002269 0.0
1.272899 0.662556 0.001935 0.0
2.004947 0.627636 0.000860 0.0
2.913996 1.082733 0.001879 0.0
2.013899 0.671053 0.002088 0.0
1.033936 1.616828 0.000399 0.0
3.479661 1.008439 0.000828 0.0
2.813220 0.130664 0.001803 0.0
3.067779 1.312309 0.002032 0.0
0.164210 0.184933 -0.000240 0.0
3.941609 0.088568 0.003758 0.0
3.750459 0.745549 0.002603 0.0
2.195183 0.886596 -0.002941 0.0
3.307881 1.584780 0.002213 0.0
0.002401 0.936846 0.002057 0.0
4.018465 1.113826 -0.004843 0.0
0.375115 1.187816 0.000873 0.0
0.455621 0.469918 0.004162 0.0
0.545549 0.758549 0.006443 0.0
3.709350 0.612364 0.001185 0.0
1.578460 1.574473 0.001737 0.0
1.890974 0.975885 0.000817 0.0
2.167855 0.363003 -0.004848 0.0
2.414569 0.402136 -0.002319 0.0
2.450369 0.984349 0.000315 0.0
3.453312 0.531005 0.003165 0.0
3.954242 1.308270 0.003149 0.0
3.211937 0.889240 0.000328 0.0
2.086272 0.466644 0.004563 0.0
1.971658 1.155004 -0.002920 0.0
2.650407 0.463937 -0.002838 0.0
2.138164 1.448764 0.000387 0.0
1.364707 1.436683 -0.002708 0.0
3.601364 0.901256 0.000122 0.0
2.683978 0.261445 0.000063 0.0
0.752469 1.511500 -0.003456 0.0
3.218533 1.629878 -0.001956 0.0
0.223350 0.168459 -0.001748 0.0
3.373498 0.872242 0.006253 0.0
2.163732 1.152695 -0.004188 0.0
0.863482 1.473111 0.003383 0.0
3.051398 0.534658 -0.003272 0.0
3.777538 1.345338 0.002926 0.0
4.019164 0.906567 -0.003398 0.0
2.089796 1.033925 -0.002324 0.0
2.847292 1.439874 -0.004962 0.0
2.480927 1.004583 0.000084 0.0
1.693756 0.552030 0.000239 0.0
3.611030 0.935975 0.001426 0.0
0.598256 1.080575 0.000651 0.0
1.118590 1.694528 -0.000726 0.0
0.280929 1.181306 -0.002949 0.0
3.096279 0.405459 -0.001037 0.0
0.039353 1.664281 -0.001416 0.0
0.215315 1.368629 -0.004491 0.0
0.210894 0.649555 0.001478 0.0
0.860500 0.999134 0.000076 0.0
1.451241 0.155355 -0.000879 0.0
1.749942 1.049538 0.000875 0.0
2.104303 0.721324 0.000346 0.0
0.871503 1.508892 0.001685 0.0
3.392400 0.663605 -0.003884 0.0
1.379750 0.731128 0.001085 0.0
1.960244 0.291770 -0.001495 0.0
3.158226 1.460876 -0.001171 0.0
3.619433 0.258914 -0.002084 0.0
2.237730 1.182349 0.006082 0.0
3.669027 0.064772 0.000473 0.0
3.911667 0.216669 -0.001582 0.0
1.285952 1.707638 -0.000189 0.0
2.200908 0.191571 0.003404 0.0
0.820029 0.070456 0.001884 0.0
0.747728 0.203510 -0.001811 0.0
1.082406 1.137226 0.001221 0.0
1.317898 1.676649 0.001005 0.0
2.151744 1.108690 -0.005873 0.0
2.054859 0.818021 -0.001179 0.0
0.653938 0.545524 0.002378 0.0
1.654030 1.484865 0.004040 0.0
2.359514 1.018960 0.000703 0.0
2.876116 0.478287 -0.003138 0.0
0.690374 0.971236 0.001019 0.0
0.700309 1.616952 0.001938 0.0
3.302782 1.132074 -0.000361 0.0
2.991245 0.097384 -0.001140 0.0
1.419661 1.053434 -0.000837 0.0
1.438214 1.460262 -0.001125 0.0
2.639487 1.267851 -0.003243 0.0
3.858536 0.423013 0.002187 0.0
3.414553 1.637074 -0.001120 0.0
3.648254 0.947091 0.002177 0.0
1.446275 1.316749 -0.000867 0.0
1.209793 0.228709 0.001234 0.0
3.171992 0.228851 0.000405 0.0
1.279108 0.564650 0.004030 0.0
3.821340 0.660829 -0.003022 0.0
2.527101 0.519202 0.001522 0.0
4.040434 0.823713 0.001952 0.0
2.011525 0.070006 -0.000989 0.0
2.085300 0.446485 -0.000514 0.0
1.737949 1.280350 0.001002 0.0
1.285961 0.079901 0.001580 0.0
0.935380 0.468008 0.000175 0.0
3.130610 0.506997 0.001843 0.0
1.111118 1.630233 0.001344 0.0
1.328091 1.644988 0.002378 0.0
2.775288 1.575486 0.000500 0.0
3.357512 0.186106 0.001330 0.0
0.375890 1.563158 -0.000152 0.0
2.231481 0.647107 -0.000213 0.0
1.237764 0.295969 -0.002456 0.0
2.249431 1.062995 -0.002011 0.0
2.323273 0.200030 -0.000534 0.0
2.359497 0.435198 -0.000240 0.0
3.494970 1.525195 -0.002974 0.0
1.659458 1.503074 0.004035 0.0
2.497961 1.555493 -0.000057 0.0
1.362278 0.251841 0.003538 0.0
1.438235 0.956815 0.000929 0.0
3.513534 0.195272 -0.002129 0.0
2.442634 0.839150 -0.002174 0.0
3.624786 1.516127 0.001353 0.0
3.465668 0.928965 0.000453 0.0
2.991891 0.829968 0.003270 0.0
3.270432 1.346379 -0.001234 0.0
0.179849 0.381918 -0.001038 0.0
1.622950 0.399105 -0.000307 0.0
3.847814 0.843387 0.001464 0.0
0.582973 1.725643 0.002036 0.0
3.353177 0.111325 0.002213 0.0
0.694599 1.665551 0.000828 0.0
1.022382 1.167756 0.001528 0.0
3.031896 0.261821 0.002471 0.0
3.083868 1.489640 0.004241 0.0
1.323362 0.787902 0.002005 0.0
1.500316 1.075417 -0.001166 0.0
0.192045 1.024831 0.000360 0.0
1.613715 1.072951 0.001806 0.0
2.711143 0.786265 -0.003591 0.0
3.044646 0.522544 -0.001132 0.0
3.537693 0.015675 0.003735 0.0
2.191511 1.568450 0.001766 0.0
2.637082 0.778592 0.003511 0.0
2.000843 0.965963 -0.002001 0.0
2.288196 1.292033 0.000712 0.0
1.214752 0.632563 0.003160 0.0
2.642401 0.811153 0.001589 0.0
1.489620 0.124259 -0.004771 0.0
0.989271 0.134149 -0.001332 0.0
2.176393 0.282066 -0.001694 0.0
3.518835 1.600774 -0.002310 0.0
3.329915 1.549357 0.000393 0.0
3.264432 1.712926 -0.005012 0.0
2.184658 0.674548 -0.000256 0.0
3.016957 0.588746 -0.002106 0.0
2.842794 1.235081 0.000592 0.0
1.917545 0.385611 0.004855 0.0
2.974971 1.455422 0.004222 0.0
3.389268 0.575061 0.001183 0.0
0.987729 1.630760 0.000456 0.0
3.657122 0.001261 -0.001628 0.0
2.634396 1.092456 -0.000985 0.0
3.138409 0.468480 0.000183 0.0
0.656094 0.572701 0.000610 0.0
2.399962 1.374570 0.002215 0.0
0.318347 0.291525 -0.004047 0.0
1.481383 1.655953 -0.000998 0.0
3.316236 0.158864 0.005522 0.0
3.564034 0.135760 -0.003462 0.0
3.112315 1.643411 0.001074 0.0
2.451518 0.434698 0.002503 0.0
3.092070 0.533176 -0.001045 0.0
1.437077 1.709767 -0.001641 0.0
0.409278 0.285937 -0.002848 0.0
1.814789 1.100822 -0.005486 0.0
0.037242 0.109437 -0.006236 0.0
0.710901 1.652550 -0.000266 0.0
2.705072 1.461004 0.001254 0.0
0.333090 0.842745 0.001037 0.0
2.613806 0.021834 0.000265 0.0
1.415515 1.559324 0.002652 0.0
1.459895 0.096165 0.001254 0.0
1.237081 0.314718 -0.001113 0.0
1.967787 1.356367 -0.001621 0.0
3.545209 0.613667 -0.000038 0.0
3.157571 1.634427 0.000308 0.0
0.514110 1.369470 -0.000157 0.0
0.859942 1.158467 0.001328 0.0
0.273484 0.157341 -0.002753 0.0
1.471371 1.205211 0.000567 0.0
3.585169 0.058179 0.001419 0.0
3.447697 1.375504 0.000517 0.0
3.280427 1.191938 0.002682 0.0
0.650429 1.412339 0.005010 0.0
0.905286 1.503002 -0.000830 0.0
3.475923 1.622836 -0.001111 0.0
0.380422 1.381364 0.002975 0.0
2.390117 1.111367 -0.004034 0.0
3.075332 0.093595 -0.004542 0.0
0.752091 1.659910 0.003288 0.0
3.343480 1.308131 0.000246 0.0
2.065985 1.199203 0.002215 0.0
1.732326 0.380251 0.004202 0.0
0.009934 0.885879 -0.000452 0.0
1.289977 0.996490 -0.000487 0.0
3.993360 0.109829 0.000873 0.0
0.310834 0.333345 0.005038 0.0
0.799778 1.346310 -0.001814 0.0
3.764083 1.356855 -0.004752 0.0
2.579325 0.809249 -0.000654 0.0
1.229727 0.789663 -0.001497 0.0
2.100622 1.067013 -0.000801 0.0
2.595305 0.321985 -0.002474 0.0
3.369805 0.159265 0.003154 0.0
3.839389 1.735626 0.000516 0.0
1.646640 1.311620 0.002100 0.0
2.182037 0.981890 -0.004045 0.0
3.288395 0.220954 -0.002175 0.0
1.225615 1.091967 -0.002234 0.0
1.695083 0.336100 -0.002146 0.0
3.908900 1.058334 -0.000651 0.0
3.399407 0.698759 -0.002069 0.0
3.260884 0.453987 0.000157 0.0
2.393320 1.520178 0.006080 0.0
4.036684 0.955942 0.000103 0.0
2.548037 0.940647 0.002170 0.0
1.957806 0.078246 -0.004478 0.0
2.057159 1.499053 -0.001070 0.0
1.931750 1.662384 0.000828 0.0
0.968825 0.336767 -0.006793 0.0
1.138209 0.628829 0.000328 0.0
3.746119 0.407366 -0.000956 0.0
0.107145 1.689044 -0.000241 0.0
0.186224 0.731375 -0.001602 0.0
3.189884 0.185404 0.005007 0.0
3.892568 0.778160 -0.002057 0.0
0.425440 1.275950 -0.002046 0.0
0.591149 0.100480 -0.000500 0.0
0.972590 1.324861 0.004793 0.0
0.311371 0.840406 -0.000536 0.0
3.946861 1.662055 0.003350 0.0
2.659081 1.251731 0.001488 0.0
1.441798 1.327061 0.001152 0.0
2.405570 1.649111 -0.002016 0.0
3.764658 1.612039 -0.001328 0.0
1.026139 1.438495 -0.001811 0.0
2.701364 1.250833 -0.004234 0.0
3.482542 1.408636 -0.001309 0.0
2.984148 1.091772 0.003110 0.0
3.516283 0.130543 0.000673 0.0
1.084377 0.853178 0.001316 0.0
2.364939 0.458987 0.003306 0.0
3.390357 0.080486 -0.002096 0.0
3.928759 1.170901 0.003602 0.0
2.530622 0.760206 -0.002085 0.0
1.595265 1.524514 0.001905 0.0
2.917801 0.366145 -0.002322 0.0
2.896211 0.830947 -0.003438 0.0
0.533003 0.887170 -0.002933 0.0
2.129646 0.233645 -0.001424 0.0
1.040715 1.122793 0.004836 0.0
3.211049 1.516226 0.002337 0.0
1.717248 0.588702 0.000566 0.0
2.065583 0.666367 -0.004559 0.0
3.200937 1.408286 -0.003236 0.0
2.288736 1.281925 -0.002104 0.0
0.621782 0.842197 0.000850 0.0
3.905756 0.304112 -0.000557 0.0
1.034792 0.577092 0.000310 0.0
0.293266 0.469337 0.000635 0.0
1.795715 0.399919 -0.004776 0.0
2.089041 0.859227 0.001157 0.0
2.317202 1.647587 -0.000230 0.0
0.439484 1.689399 0.000263 0.0
0.402353 1.106273 -0.002359 0.0
1.399323 1.042219 0.001148 0.0
2.289292 0.521096 0.003020 0.0
1.741970 1.199924 -0.000897 0.0
2.654097 0.867897 -0.001599 0.0
1.307164 0.098841 -0.002364 0.0
3.806320 1.691968 0.000721 0.0
3.615896 1.682375 0.002901 0.0
1.062512 0.992018 0.002841 0.0
1.839675 0.028171 -0.003229 0.0
1.634304 1.140880 0.001187 0.0
3.935291 0.485217 -0.000727 0.0
3.270113 0.959371 -0.000005 0.0
3.513972 0.133856 -0.001335 0.0
3.836920 0.554131 -0.000749 0.0
2.501400 1.267073 -0.000995 0.0
0.339751 0.327470 0.000013 0.0
2.547939 0.980831 0.000626 0.0
0.694640 0.755545 -0.000341 0.0
0.788062 0.055908 -0.006169 0.0
0.009279 1.328160 0.003520 0.0
3.456137 1.372074 0.001534 0.0
3.860501 0.318427 0.000526 0.0
0.601513 0.744316 0.000402 0.0
3.674358 1.064732 -0.003615 0.0
0.468455 0.268971 -0.000343 0.0
1.843147 0.422004 0.000574 0.0
2.634431 0.549693 -0.004813 0.0
3.787769 1.423355 0.000882 0.0
1.446476 1.299689 -0.000024 0.0
0.500084 0.930903 0.005388 0.0
0.560717 0.244669 0.000640 0.0
1.807594 1.379244 -0.002200 0.0
3.193628 1.715091 -0.003466 0.0
3.318427 0.312943 -0.000397 0.0
3.601096 1.406723 0.001645 0.0
0.731160 0.279589 -0.006239 0.0
0.360433 1.493900 -0.001994 0.0
0.582463 1.450633 0.006208 0.0
1.118541 0.815186 -0.000279 0.0
1.003880 1.721657 -0.002223 0.0
0.811703 0.257626 -0.001174 0.0
2.507272 1.220736 0.002773 0.0
1.181346 1.194177 -0.003534 0.0
1.059634 1.299776 -0.005137 0.0
2.630178 0.060288 0.002089 0.0
3.891439 0.068666 0.000253 0.0
1.284583 0.613683 -0.000749 0.0
0.540023 1.198017 -0.000083 0.0
2.840767 0.120575 0.001154 0.0
3.317388 0.019703 -0.001902 0.0
0.036231 1.494886 -0.001192 0.0
2.404253 0.923820 0.000129 0.0
1.951886 0.181463 0.002280 0.0
3.427292 0.367418 0.000158 0.0
3.714066 0.831584 0.001103 0.0
3.025025 0.026578 0.000096 0.0
1.627884 1.015636 0.001429 0.0
1.135459 1.675166 -0.000188 0.0
0.630940 0.622645 -0.002558 0.0
3.764112 0.802382 -0.002497 0.0
3.579733 0.672796 -0.001746 0.0
3.688771 1.664098 0.000878 0.0
1.568113 0.115621 0.000679 0.0
0.834931 1.053164 -0.002660 0.0
3.721928 1.395806 -0.000577 0.0
3.370921 1.713049 0.000173 0.0
2.070846 0.940398 -0.000906 0.0
3.755561 1.419380 0.001885 0.0
2.540051 1.324592 0.001364 0.0
2.534062 1.658587 0.005392 0.0
3.094899 0.549129 0.000698 0.0
3.960259 1.654852 -0.000311 0.0
2.891118 0.958444 -0.000690 0.0
0.685215 1.234891 0.003769 0.0
0.252250 1.470572 0.000842 0.0
2.659103 1.583590 -0.002153 0.0
3.331870 0.727246 0.003045 0.0
1.794718 0.431152 0.001564 0.0
2.417644 1.296689 -0.001121 0.0
3.351031 1.470970 0.000581 0.0
1.109684 1.432709 -0.001208 0.0
0.486295 0.414792 0.003490 0.0
2.300550 1.110044 -0.005794 0.0
0.421507 0.347416 -0.006162 0.0
0.022062 0.126747 -0.000877 0.0
1.879351 1.024119 0.001618 0.0
1.822509 1.248128 -0.004517 0.0
2.538675 0.095679 0.002040 0.0
2.283530 0.217726 0.001078 0.0
2.872883 1.279944 -0.000920 0.0
3.803362 1.157926 -0.000934 0.0
0.275955 0.838154 0.000780 0.0
0.472469 1.253806 0.000603 0.0
1.697291 1.297200 -0.000327 0.0
0.023451 1.069689 0.004009 0.0
0.751434 0.728836 0.001117 0.0
0.011026 1.506316 -0.000448 0.0
0.737867 0.366953 0.001383 0.0
2.086282 0.691763 0.001254 0.0
2.368715 0.349432 -0.002462 0.0
0.049492 1.698849 0.004660 0.0
2.016937 0.903695 -0.000265 0.0
1.583870 0.754046 0.001302 0.0
3.677429 0.980002 -0.003127 0.0
0.535700 0.211219 0.001166 0.0
0.400143 1.466807 -0.000288 0.0
3.610544 0.915532 -0.002296 0.0
3.596317 0.954631 -0.001818 0.0
1.161884 0.244569 0.003921 0.0
3.491851 1.472049 0.004513 0.0
2.792712 0.621893 0.001402 0.0
3.270693 0.807779 0.002765 0.0
1.416915 0.021189 0.004288 0.0
3.625719 0.743111 -0.002944 0.0
1.683566 0.733428 0.000434 0.0
2.679182 0.141525 0.004118 0.0
1.260535 1.003978 0.002778 0.0
0.944363 0.824827 -0.002012 0.0
1.018126 0.961336 -0.001657 0.0
1.969103 0.087444 0.002632 0.0
2.037453 0.655200 0.002918 0.0
1.377197 1.101511 0.003089 0.0
2.320376 1.316310 -0.002414 0.0
2.215671 0.274457 0.000864 0.0
1.349735 0.726715 0.000086 0.0
2.696136 1.716980 -0.003713 0.0
3.748214 1.630355 -0.000035 0.0
1.462097 0.830953 -0.001736 0.0
3.830479 1.621053 -0.000044 0.0
1.987752 0.110397 0.001830 0.0
1.019615 0.650458 -0.000535 0.0
3.616403 0.941167 -0.000998 0.0
3.042196 0.072986 0.003395 0.0
1.374612 1.607972 0.000407 0.0
0.960531 0.804530 0.005707 0.0
1.836721 0.668175 -0.001960 0.0
2.391652 -0.001178 -0.000402 0.0
1.523386 0.499931 -0.001410 0.0
1.227926 0.855524 0.002315 0.0
0.965740 0.714971 0.003596 0.0
2.336317 0.535471 -0.003690 0.0
2.098340 1.425120 -0.003080 0.0
0.386211 1.093909 -0.000400 0.0
1.959040 0.170132 0.001748 0.0
0.620761 0.656866 -0.003071 0.0
2.139488 0.640804 -0.000221 0.0
3.627415 0.616259 -0.003596 0.0
2.936648 1.129836 -0.003213 0.0
0.335989 0.418854 -0.000467 0.0
1.602867 0.267758 0.002119 0.0
4.007737 1.257416 0.000270 0.0
0.115171 1.475385 0.001031 0.0
3.478397 0.429866 0.000738 0.0
2.505860 1.709841 0.003950 0.0
3.030999 0.883374 0.006992 0.0
1.616164 1.695295 -0.000439 0.0
1.551131 1.693968 -0.003161 0.0
0.627436 0.403927 0.004678 0.0
0.485607 1.714698 0.000960 0.0
1.159621 1.588828 -0.001338 0.0
2.168903 0.632205 0.000394 0.0
3.951546 1.586332 -0.004045 0.0
3.257109 0.943723 0.000572 0.0
2.338313 1.302267 -0.001350 0.0
1.977941 0.499697 -0.001347 0.0
2.608144 1.062331 -0.002431 0.0
0.523717 1.471385 0.003079 0.0
3.164866 0.354242 0.001977 0.0
2.873307 1.230527 0.001560 0.0
0.924195 0.943086 -0.000146 0.0
1.104391 1.497620 0.001287 0.0
1.781787 1.253724 0.000416 0.0
2.803515 0.508774 0.003401 0.0
0.366020 0.137794 0.005924 0.0
2.822030 0.380039 -0.000452 0.0
0.767564 0.700419 0.002228 0.0
2.215062 0.884463 0.000783 0.0
1.476470 0.025020 -0.003537 0.0
3.837866 1.028743 -0.003151 0.0
1.837010 0.331296 -0.002603 0.0
2.611122 0.187364 0.004118 0.0
1.854933 1.375026 -0.001697 0.0
0.969369 0.174102 0.000449 0.0
0.556987 0.427021 0.002139 0.0
0.956404 0.735524 0.002539 0.0
0.106478 0.843797 0.003725 0.0
2.585384 0.367376 0.002969 0.0
1.328703 0.471491 0.001369 0.0
0.841677 1.540634 0.000155 0.0
3.184843 0.366389 -0.002223 0.0
1.688950 0.946828 0.000794 0.0
1.297281 1.105506 -0.002283 0.0
3.463211 0.012296 0.002360 0.0
1.901804 1.421088 0.001085 0.0
1.073222 1.092068 -0.000909 0.0
2.260202 0.553129 0.000333 0.0
2.421992 0.990286 0.002262 0.0
2.844879 0.923375 -0.002231 0.0
3.190251 1.446827 0.000612 0.0
3.887961 1.209103 -0.002064 0.0
0.529410 1.496777 -0.002399 0.0
3.884361 0.576246 -0.001240 0.0
1.334699 0.167423 -0.001297 0.0
0.164291 0.719520 -0.002162 0.0
3.488397 1.299355 0.001216 0.0
0.638217 0.728419 -0.001108 0.0
0.363296 1.059293 -0.001569 0.0
0.746336 1.492500 -0.003795 0.0
3.247301 0.296137 -0.004593 0.0
2.432517 1.636940 -0.001983 0.0
3.233414 0.114818 -0.002901 0.0
3.175739 1.322786 0.001276 0.0
1.571407 1.285854 -0.002274 0.0
0.516270 0.988709 0.003835 0.0
1.181145 0.287355 0.001415 0.0
2.660218 0.053308 0.000122 0.0
1.948889 0.207537 0.000608 0.0
3.124658 1.391088 0.000002 0.0
1.102354 1.253726 0.002125 0.0
3.479319 0.779514 0.003874 0.0
2.293693 0.385601 -0.000947 0.0
0.906173 1.269870 0.000752 0.0
2.270147 0.179033 -0.001741 0.0
1.986321 1.276878 -0.000055 0.0
0.829129 0.568009 -0.002562 0.0
2.453633 1.597105 -0.000729 0.0
2.685547 0.322663 0.000106 0.0
3.831898 1.310510 -0.002134 0.0
0.768058 0.093058 -0.001960 0.0
3.800697 0.603209 0.003817 0.0
0.145639 1.270223 -0.002209 0.0
1.957636 0.331707 -0.001196 0.0
2.595786 0.655887 -0.001034 0.0
0.386668 1.335950 0.000644 0.0
3.046258 0.712507 -0.001378 0.0
3.902536 0.689766 0.004976 0.0
3.961493 1.262873 -0.005312 0.0
0.996606 0.370803 0.001802 0.0
0.228634 0.161543 -0.000631 0.0
1.490035 0.229397 -0.000767 0.0
3.451668 1.490080 0.000131 0.0
2.107795 1.724799 -0.003334 0.0
2.575838 0.032918 -0.001071 0.0
0.745981 0.677160 0.000785 0.0
1.904361 0.218711 -0.000917 0.0
4.035720 0.458098 0.000321 0.0
1.873373 1.036635 -0.000453 0.0
2.292540 0.725175 -0.001621 0.0
2.453561 0.702088 -0.000312 0.0
2.758247 0.666892 -0.001713 0.0
3.517996 1.152818 -0.003054 0.0
0.925147 0.510796 0.003439 0.0
1.970774 0.713540 -0.001345 0.0
3.339179 0.510957 0.001120 0.0
3.593533 1.485094 0.004918 0.0
0.435152 0.651234 0.002507 0.0
0.832076 0.341366 0.000621 0.0
3.775622 1.294514 0.001622 0.0
3.889568 0.916523 0.006002 0.0
3.312138 0.455216 0.000962 0.0
3.462706 0.180599 -0.002691 0.0
1.474494 1.426971 -0.001435 0.0
3.515125 1.500317 0.002887 0.0
2.644573 1.464330 0.001436 0.0
3.124722 0.835612 0.003065 0.0
2.710869 0.548241 0.001447 0.0
0.198486 0.901377 0.000063 0.0
0.942016 0.894262 0.001097 0.0
1.606785 0.302686 -0.002081 0.0
0.095721 0.791677 0.001093 0.0
1.358982 1.004901 0.002936 0.0
2.545646 1.123449 0.001841 0.0
1.685960 0.603630 0.002492 0.0
2.391684 0.154484 0.002468 0.0
2.850512 0.036186 -0.000548 0.0
2.073688 0.333916 -0.000259 0.0
2.757266 1.309980 0.000002 0.0
0.142055 1.559037 -0.000858 0.0
2.574232 1.434938 -0.001258 0.0
2.777631 1.682413 -0.000941 0.0
1.109939 0.718014 0.000761 0.0
2.986618 0.369991 -0.000973 0.0
2.708509 0.364459 0.002586 0.0
2.800217 0.293416 -0.001829 0.0
1.020622 0.597432 -0.001722 0.0
0.284595 0.479476 -0.001630 0.0
1.271937 0.534818 0.000417 0.0
0.072827 1.341251 0.003085 0.0
3.156514 0.466935 -0.002234 0.0
0.919539 1.386780 -0.000117 0.0
1.253610 1.653761 0.000180 0.0
0.330428 1.238457 0.003428 0.0
3.271313 0.286140 -0.002750 0.0
2.449090 1.724520 -0.000871 0.0
1.036480 1.229487 -0.000491 0.0
2.632705 1.375633 -0.001564 0.0
0.097581 0.125296 -0.000889 0.0
0.714762 0.766987 -0.001387 0.0
3.804337 0.050161 0.005695 0.0
3.888789 0.194195 -0.000328 0.0
2.765624 0.607566 -0.000873 0.0
3.907708 1.480608 0.001669 0.0
1.874447 0.693680 -0.001672 0.0
2.242651 0.976961 -0.002226 0.0
1.931366 0.810816 -0.003473 0.0
1.300494 1.279807 -0.000803 0.0
2.044651 0.803491 -0.006959 0.0
1.170567 0.211918 0.005387 0.0
2.633317 1.413766 -0.001431 0.0
3.812825 0.635323 -0.001647 0.0
2.672619 0.996461 -0.002830 0.0
0.265651 0.735418 -0.000570 0.0
3.672635 1.200854 -0.004411 0.0
4.048694 0.466651 0.000226 0.0
3.181590 0.261748 -0.003237 0.0
2.007931 1.031855 0.008257 0.0
0.052066 0.317191 -0.002891 0.0
0.908430 0.651225 0.000706 0.0
3.152655 1.170752 -0.003823 0.0
3.326528 1.581689 -0.001480 0.0
1.452737 0.633724 -0.002683 0.0
1.344853 0.687111 -0.004107 0.0
2.648483 0.987221 -0.000335 0.0
1.742877 0.477510 -0.004165 0.0
1.050183 0.002965 -0.001028 0.0
1.790959 0.360731 -0.001206 0.0
0.719640 0.661175 0.001052 0.0
0.133486 0.513829 -0.001534 0.0
2.182286 1.360825 -0.000532 0.0
2.572024 0.258469 -0.001757 0.0
0.066263 1.614580 0.003089 0.0
2.576322 1.691486 -0.001068 0.0
2.997108 0.398948 0.000911 0.0
1.296342 1.404046 0.002150 0.0
1.489881 1.181255 -0.001412 0.0
3.743646 1.592657 0.000045 0.0
3.447951 1.260988 0.002940 0.0
2.541346 0.738194 0.004655 0.0
0.698478 1.637029 0.000259 0.0
1.733650 0.615036 0.000635 0.0
1.320708 1.459267 0.001391 0.0
0.454107 0.128955 -0.000681 0.0
3.205477 0.361913 -0.005380 0.0
0.548980 1.649561 -0.004431 0.0
1.720681 1.653188 -0.005870 0.0
0.243029 0.270224 -0.001767 0.0
3.566466 0.736101 0.003485 0.0
3.854395 1.283577 -0.000043 0.0
3.648370 0.138319 -0.000159 0.0
3.502359 0.454825 -0.005593 0.0
3.560350 0.355413 0.000682 0.0
0.425232 0.844899 0.001824 0.0
1.344214 1.110608 -0.002628 0.0
1.978840 0.969633 0.001481 0.0
1.971405 1.005417 -0.003409 0.0
0.046619 0.671604 0.000974 0.0
0.414731 1.574105 0.001484 0.0
2.097049 1.052054 0.002516 0.0
0.916683 0.442561 0.001062 0.0
0.813662 1.684694 0.001352 0.0
2.649981 0.892867 0.000677 0.0
1.640148 0.842333 0.000846 0.0
1.523425 0.931802 -0.000407 0.0
3.861511 1.218456 -0.002828 0.0
1.256367 0.071175 -0.002162 0.0
1.302154 0.779852 -0.001075 0.0
2.945194 0.044697 -0.000416 0.0
3.143312 1.214442 0.000991 0.0
2.084583 1.700513 0.000224 0.0
3.147344 0.682098 0.000144 0.0
0.338882 0.477082 0.001848 0.0
0.189936 0.858846 -0.000264 0.0
2.194181 0.305220 -0.000273 0.0
3.225950 0.460137 -0.005209 0.0
3.848863 0.387311 0.003773 0.0
3.608076 0.754504 0.000959 0.0
2.108455 1.146219 -0.004126 0.0
0.153501 1.449423 0.002001 0.0
0.473529 0.971982 0.004049 0.0
1.134815 1.413091 0.001707 0.0
2.410550 1.015529 -0.000353 0.0
0.915014 0.371380 0.001728 0.0
2.421347 0.037337 0.000608 0.0
3.845433 0.314592 0.003214 0.0
1.832564 0.912129 -0.001661 0.0
2.895007 0.499380 -0.002357 0.0
2.012602 0.664005 -0.002786 0.0
1.749444 0.419311 -0.000876 0.0
0.694553 0.039875 0.000273 0.0
2.627345 1.142997 0.002860 0.0
1.828866 0.386497 0.000770 0.0
0.238776 1.644234 -0.000952 0.0
1.449920 0.838134 -0.001950 0.0
2.197513 1.152750 0.001421 0.0
3.999446 0.584689 -0.002325 0.0
2.190408 0.362668 0.001242 0.0
1.107937 0.024573 -0.002520 0.0
1.233483 0.638251 0.001904 0.0
0.869233 1.072305 -0.000641 0.0
2.501927 0.845362 -0.000489 0.0
2.416870 1.725310 -0.001861 0.0
0.630356 0.479463 -0.003987 0.0
0.674107 0.089522 -0.000040 0.0
3.144225 0.444608 0.000798 0.0
0.353870 1.677946 -0.002515 0.0
0.013094 0.778639 -0.003188 0.0
3.237105 0.762714 0.002441 0.0
0.762609 0.068796 -0.001748 0.0
3.498901 0.480376 -0.001786 0.0
0.314107 0.287105 0.001327 0.0
0.461479 1.052883 0.000418 0.0
3.520766 0.882364 -0.003340 0.0
3.118608 0.018328 0.003854 0.0
2.307590 0.959638 -0.001994 0.0
0.471153 1.582385 -0.002592 0.0
1.973792 1.608178 -0.001813 0.0
4.050181 0.204773 -0.000360 0.0
2.798899 0.915387 0.001936 0.0
0.814126 0.344964 0.000278 0.0
2.634517 0.378396 0.001371 0.0
1.481887 0.944618 0.000565 0.0
3.193576 1.482958 0.002898 0.0
3.061379 0.394020 0.002556 0.0
1.224604 0.521484 0.002914 0.0
2.656233 0.688540 0.000448 0.0
0.405035 0.515865 0.005047 0.0
3.479891 1.514032 -0.000466 0.0
3.976509 0.977345 -0.001044 0.0
1.527593 0.923600 0.002415 0.0
2.903619 1.313319 -0.004042 0.0
0.889078 0.322064 0.000862 0.0
2.270841 0.160391 -0.000480 0.0
2.140351 1.570828 -0.002128 0.0
3.451499 0.707817 -0.000323 0.0
1.430317 0.286627 0.002921 0.0
0.247277 0.547047 0.001028 0.0
2.803615 0.166557 0.001139 0.0
2.786967 0.849198 0.003178 0.0
3.291264 0.355681 -0.001909 0.0
3.323582 0.964258 -0.001133 0.0
0.853302 1.479919 0.001818 0.0
0.210214 1.599669 -0.004576 0.0
2.475589 0.878828 -0.002065 0.0
0.427928 0.898153 -0.002829 0.0
3.757259 0.959077 0.000343 0.0
1.504730 1.384524 0.003122 0.0
1.233251 0.848780 -0.002698 0.0
0.931880 1.401892 0.000404 0.0
0.511516 0.756872 0.003774 0.0
2.939114 0.348532 0.003614 0.0
2.804855 1.643847 0.000250 0.0
2.632193 0.681187 0.000410 0.0
1.224244 0.810376 -0.002933 0.0
0.613140 0.861650 0.004716 0.0
3.268495 0.714078 -0.001195 0.0
2.468768 0.243218 0.002824 0.0
3.529854 1.328159 -0.001977 0.0
0.031307 0.097868 -0.001287 0.0
2.176845 0.658624 -0.003417 0.0
2.714419 1.711379 -0.000376 0.0
3.389764 0.266688 0.000730 0.0
2.588628 1.650847 -0.002159 0.0
0.288598 0.917995 0.000735 0.0
2.669656 0.974817 0.001620 0.0
3.963644 0.035194 -0.002758 0.0
3.913481 0.477206 0.002697 0.0
2.794118 0.929533 0.001141 0.0
3.342811 1.265978 0.000439 0.0
3.700456 1.313456 -0.000965 0.0
2.340517 1.377238 0.000600 0.0
2.968702 0.547978 -0.001031 0.0
2.629836 0.095498 0.000860 0.0
0.235190 0.425272 0.005031 0.0
1.296325 1.617323 0.000855 0.0
3.216681 1.410439 0.000345 0.0
0.331877 0.061112 -0.005379 0.0
1.922692 1.563410 0.002444 0.0
0.899740 0.526092 0.002109 0.0
0.594680 1.673714 -0.000435 0.0
0.478325 1.473138 -0.001484 0.0
2.449016 1.015224 -0.003465 0.0
1.160077 0.020212 -0.001711 0.0
0.209759 0.943919 -0.003689 0.0
2.139585 0.651403 -0.001460 0.0
0.791909 1.711552 -0.000942 0.0
0.489502 0.337421 -0.001469 0.0
1.994144 1.283646 -0.003322 0.0
1.374724 1.230701 0.001367 0.0
1.242149 1.413800 -0.000340 0.0
2.923195 0.942383 0.000342 0.0
3.322918 0.358582 -0.004510 0.0
0.743576 0.362669 -0.001474 0.0
3.460872 0.857689 -0.002050 0.0
1.448594 1.174335 0.003443 0.0
3.651408 0.994899 -0.002380 0.0
0.750064 0.656730 0.003052 0.0
3.960339 1.591785 0.000356 0.0
2.660254 1.644321 0.002044 0.0
0.348213 0.656528 -0.002365 0.0
0.283138 0.295141 -0.004871 0.0
0.354965 0.070015 0.000724 0.0
1.120653 0.079558 0.001717 0.0
2.507972 0.271870 0.001208 0.0
2.115878 0.640787 -0.001540 0.0
4.060425 0.166146 0.001039 0.0
1.194207 1.725628 -0.000557 0.0
0.088135 0.377670 -0.000803 0.0
3.688670 1.073983 -0.000866 0.0
1.303240 0.106284 -0.002667 0.0
3.705609 1.248177 0.000688 0.0
2.802745 0.891781 -0.001027 0.0
0.215897 1.263676 0.001736 0.0
1.620288 0.878039 -0.001861 0.0
0.267147 1.014610 -0.001282 0.0
3.453158 0.682147 -0.002593 0.0
2.579366 0.437503 0.003656 0.0
1.720760 0.508639 -0.001553 0.0
1.432926 0.867206 -0.000638 0.0
2.537338 1.202328 0.000326 0.0
1.708084 1.649562 0.004657 0.0
1.766387 0.678790 -0.001409 0.0
1.535334 0.155148 -0.001860 0.0
3.811356 1.620570 -0.000497 0.0
4.009905 0.022350 -0.004329 0.0
2.433644 0.557074 0.001343 0.0
1.798515 1.438740 -0.000367 0.0
2.649087 0.933570 -0.003520 0.0
0.463351 1.450553 0.000025 0.0
1.212863 1.653989 0.001845 0.0
1.511500 1.627080 -0.001592 0.0
1.674024 1.520610 -0.004236 0.0
2.295122 0.179223 0.003219 0.0
2.991627 0.645358 -0.001796 0.0
1.912500 0.836853 0.002321 0.0
3.923046 0.939019 -0.000696 0.0
1.725881 1.729100 -0.001970 0.0
3.791083 0.340062 0.001227 0.0
3.339541 0.783226 -0.000163 0.0
1.231475 1.663608 0.001704 0.0
1.113107 0.741195 0.002787 0.0
3.372352 0.553541 0.003992 0.0
2.176845 0.138009 0.000120 0.0
3.536214 0.659134 0.000825 0.0
2.766808 0.859057 -0.002371 0.0
0.551614 1.249800 -0.000702 0.0
1.442160 1.668787 -0.000134 0.0
2.658113 0.748857 -0.000951 0.0
1.125673 1.334371 0.001556 0.0
1.176932 0.489709 -0.003719 0.0
0.360601 0.881858 0.001271 0.0
3.765563 1.543122 -0.001593 0.0
0.794567 0.187584 -0.000069 0.0
3.993835 1.672361 -0.000483 0.0
2.152645 0.921325 0.003367 0.0
2.671455 1.278268 0.002506 0.0
1.834735 0.599657 0.003097 0.0
0.722222 1.234171 0.004181 0.0
0.738550 0.110940 0.003143 0.0
3.636117 1.463437 -0.002023 0.0
3.852407 0.267464 0.002525 0.0
0.535764 1.000923 0.003406 0.0
3.688817 1.518254 0.003577 0.0
3.861178 0.918138 -0.001305 0.0
3.692264 1.313096 -0.006125 0.0
2.416533 0.436569 -0.002364 0.0
2.862622 1.490404 -0.002778 0.0
1.729185 1.104109 -0.000707 0.0
3.531746 1.420467 -0.003801 0.0
1.431227 1.684615 0.003187 0.0
0.603685 0.604433 0.002756 0.0
2.612740 1.216787 -0.000032 0.0
0.166022 0.598623 -0.001795 0.0
2.502897 1.455255 -0.001159 0.0
3.702493 1.656867 -0.003096 0.0
0.177990 1.533325 0.006891 0.0
1.448614 1.592427 0.003769 0.0
3.604713 1.159532 -0.001975 0.0
3.587950 0.228899 0.001921 0.0
1.005809 1.362148 -0.002834 0.0
0.658892 1.277428 -0.000843 0.0
0.057740 0.211726 0.000254 0.0
2.546556 1.038446 0.002795 0.0
0.955986 1.387110 0.000222 0.0
0.730519 1.119308 -0.003171 0.0
3.420685 1.514930 0.000702 0.0
2.913119 0.661265 -0.001726 0.0
0.377455 1.351736 0.002366 0.0
2.956134 0.119340 -0.004034 0.0
0.880589 0.962208 0.002406 0.0
2.695315 1.002405 0.002574 0.0
2.312300 0.457589 0.000198 0.0
3.580678 0.811983 0.002242 0.0
1.450472 0.765003 0.002090 0.0
0.796531 0.567983 0.000624 0.0
3.640408 0.097315 0.001490 0.0
3.363603 0.267795 -0.001829 0.0
0.292769 0.843561 0.001543 0.0
0.423787 1.380157 0.004339 0.0
1.672946 1.537122 -0.002713 0.0
2.769731 1.296856 0.000782 0.0
3.167704 1.431459 0.002458 0.0
2.852055 1.698927 0.004228 0.0
1.309275 0.530554 0.002065 0.0
0.267192 1.088060 0.003258 0.0
1.828303 0.531148 0.004454 0.0
3.627568 1.381285 0.000596 0.0
0.166707 1.412571 0.002004 0.0
3.844346 0.474109 0.002486 0.0
2.655119 1.041981 -0.002201 0.0
0.414642 0.779663 -0.000492 0.0
2.779628 1.405653 0.000048 0.0
0.036170 0.272415 0.002086 0.0
1.285349 1.188382 0.000052 0.0
1.946303 0.887115 -0.005825 0.0
0.906351 1.650563 -0.002583 0.0
4.034452 1.029316 -0.000969 0.0
3.202485 0.220250 -0.000117 0.0
1.134087 0.709438 -0.004690 0.0
2.974693 1.622299 -0.003230 0.0
3.856892 0.242840 -0.001785 0.0
1.635949 1.565195 0.003406 0.0
3.529763 1.109968 0.002654 0.0
3.537484 0.985189 -0.003084 0.0
3.994031 1.607354 -0.004778 0.0
2.198500 1.136806 0.001402 0.0
1.525546 0.820250 0.000750 0.0
1.126365 0.250181 0.002471 0.0
0.581434 0.080216 -0.001170 0.0
0.667011 0.843588 0.001594 0.0
2.918388 0.557746 0.001250 0.0
1.180339 1.094495 -0.003019 0.0
0.891125 1.371557 0.002597 0.0
3.779211 0.359535 -0.001409 0.0
4.009349 0.324146 -0.004312 0.0
0.104762 0.831323 0.000083 0.0
1.380532 0.707739 0.000815 0.0
0.635061 1.098126 -0.002263 0.0
0.868380 1.712959 0.002526 0.0
0.857384 0.529717 0.001780 0.0
3.716231 1.087794 -0.001864 0.0
1.877663 0.264196 0.005000 0.0
0.606512 0.818140 -0.002682 0.0
2.995970 1.493540 0.003058 0.0
2.498400 1.679945 0.003108 0.0
2.208149 1.436359 -0.002987 0.0
3.278922 0.880014 -0.001556 0.0
2.642094 0.411772 0.001986 0.0
1.035311 0.630655 -0.000954 0.0
2.789626 1.691363 -0.002777 0.0
3.450489 0.257305 -0.000429 0.0
0.055239 1.701748 0.001253 0.0
1.658805 0.483330 -0.002270 0.0
2.950433 1.218423 0.001000 0.0
3.726797 0.260326 0.007124 0.0
1.273925 0.093017 -0.001429 0.0
3.234790 0.471134 0.000127 0.0
3.561310 0.861567 0.000183 0.0
3.330940 1.327960 -0.002847 0.0
1.379785 0.250924 0.000584 0.0
2.380015 1.527987 0.003525 0.0
3.791898 0.482907 -0.000554 0.0
3.203963 0.735647 -0.001576 0.0
3.425129 1.006275 0.000987 0.0
3.655167 0.263680 -0.006410 0.0
3.411515 0.163896 -0.002955 0.0
0.216099 0.552724 -0.000999 0.0
3.413806 1.072337 -0.002174 0.0
2.522209 1.270226 -0.005163 0.0
2.659510 0.618754 -0.001921 0.0
3.151484 0.078975 -0.003330 0.0
1.553825 1.540326 -0.000163 0.0
2.817063 1.081722 -0.000012 0.0
3.841067 0.899054 0.001489 0.0
1.936811 0.616079 0.000791 0.0
2.225455 1.269836 0.003490 0.0
2.714291 0.486325 0.006277 0.0
1.413668 0.223541 -0.002953 0.0
2.454874 0.290583 0.001574 0.0
3.943802 1.530733 -0.000576 0.0
3.707232 0.930283 -0.003285 0.0
0.455592 0.171790 0.003081 0.0
2.731025 1.137209 0.000844 0.0
0.783844 0.844701 0.001044 0.0
2.956113 0.053684 0.000735 0.0
2.051768 1.474996 -0.004418 0.0
3.400116 1.328746 -0.002209 0.0
3.352586 0.525764 0.001567 0.0
0.591199 1.493884 0.002413 0.0
2.632262 0.468096 -0.001723 0.0
1.568902 1.285463 0.002614 0.0
1.534773 0.202662 0.001658 0.0
1.032773 0.411178 -0.000401 0.0
1.331377 1.334323 -0.007211 0.0
3.800697 0.860548 -0.002368 0.0
2.539023 0.124731 -0.005388 0.0
0.777233 0.979532 0.002574 0.0
0.823792 1.309713 -0.001735 0.0
2.887803 1.551838 -0.001827 0.0
1.335533 1.184537 -0.003265 0.0
0.671064 1.547917 0.003468 0.0
0.767046 0.106203 -0.001302 0.0
0.911707 1.239113 0.001195 0.0
