2.68638808 0.71887035 -0.00433668 0.00000000
1.46946670 0.22476918 0.00048380 0.00000000
3.96889698 0.97970896 0.00086038 0.00000000
1.88561745 0.90929428 -0.00067966 0.00000000
4.15431976 0.03237913 0.00164484 0.00000000
0.81242194 0.50015502 0.00061231 0.00000000
2.95508726 1.67549541 -0.00204298 0.00000000
1.72752608 1.98031068 -0.00025161 0.00000000
4.03585297 1.60651158 0.00108696 0.00000000
3.40433431 1.60751318 -0.00259046 0.00000000
0.72373802 1.77759653 -0.00157684 0.00000000
3.32001025 0.89968230 -0.00143285 0.00000000
3.97851617 1.88983842 0.00091470 0.00000000
2.04259048 0.17753908 0.00085198 0.00000000
1.11784647 0.80361628 0.00206112 0.00000000
2.30384211 0.22315766 -0.00183786 0.00000000
2.79509874 0.43757789 -0.00146266 0.00000000
0.09475511 1.95866297 -0.00027030 0.00000000
3.01286128 0.21184162 0.00658205 0.00000000
2.10057246 0.89265878 -0.00338361 0.00000000
1.50286502 1.08073575 -0.00171561 0.00000000
2.28928331 0.87404116 -0.00301206 0.00000000
1.17933898 1.92903588 -0.00554738 0.00000000
3.05377129 0.32326646 0.00092897 0.00000000
0.23175330 0.95739361 -0.00759656 0.00000000
2.35485152 0.63641078 -0.00395927 0.00000000
0.45223283 0.06745582 0.00035812 0.00000000
3.40990110 0.70379263 -0.00265116 0.00000000
2.75317849 0.99767909 -0.00032457 0.00000000
0.41047276 1.80786901 -0.00355141 0.00000000
2.65614461 0.64805577 0.00093839 0.00000000
0.82292016 1.23724108 0.00237797 0.00000000
2.24991455 0.87337428 -0.00570395 0.00000000
0.92203757 1.85570684 0.00398159 0.00000000
1.65314962 1.66156243 -0.00119556 0.00000000
0.21770439 0.64890672 0.00010217 0.00000000
3.89789842 0.29117811 0.00370533 0.00000000
1.06468739 0.12613156 -0.00277018 0.00000000
2.55441956 1.24676949 0.00174221 0.00000000
0.60156623 0.07276665 0.00046700 0.00000000
1.06177907 1.92473981 0.00047054 0.00000000
3.24451591 0.14521943 0.00111279 0.00000000
2.62791454 1.67712941 -0.00327070 0.00000000
3.67524372 1.75415505 -0.00397313 0.00000000
0.42890678 1.10081859 0.00522727 0.00000000
0.41809436 0.96872322 -0.00352825 0.00000000
3.64647126 1.33460325 0.00646716 0.00000000
3.08703145 1.58676319 -0.00226415 0.00000000
4.02000262 1.54110369 0.00262786 0.00000000
0.32944515 1.30477062 -0.00076410 0.00000000
3.24006650 0.03716046 0.00101163 0.00000000
3.41857536 0.77472576 -0.00124672 0.00000000
1.44115884 1.71958578 0.00050604 0.00000000
0.25711902 0.29374139 -0.00036910 0.00000000
3.73652835 1.05009566 -0.00012189 0.00000000
1.54530598 1.58983527 0.00097747 0.00000000
1.18698575 1.44101769 0.00099916 0.00000000
0.79315273 0.69719103 0.00394592 0.00000000
1.93232893 0.26392543 0.00673691 0.00000000
2.30364414 1.17498219 -0.00153931 0.00000000
0.69269929 0.99991335 0.00689925 0.00000000
3.69494304 1.87643700 -0.00367489 0.00000000
1.71913517 1.47133055 -0.00038855 0.00000000
3.21606928 1.35358172 0.00126691 0.00000000
1.57610246 1.79031273 0.00005443 0.00000000
4.14632020 1.07078000 -0.00024020 0.00000000
4.04206286 1.44505136 0.00102690 0.00000000
2.66734499 0.03738723 -0.00146652 0.00000000
3.81984391 0.40012716 -0.00107684 0.00000000
3.88606758 1.01492254 0.00001893 0.00000000
1.52120675 1.99776221 0.00255012 0.00000000
1.33989112 0.60123516 -0.00139001 0.00000000
1.99075378 0.56149392 -0.00258908 0.00000000
2.53569103 1.06752808 0.00030733 0.00000000
4.04002346 1.11427075 0.00681775 0.00000000
1.57175992 1.62928967 0.00149907 0.00000000
0.57116852 0.09746011 0.00085730 0.00000000
0.25720123 0.96965139 0.00212860 0.00000000
3.16828824 0.33945823 -0.00206462 0.00000000
1.96507104 1.32228379 0.00135173 0.00000000
2.43723688 0.77241241 -0.00240926 0.00000000
2.87022099 0.34131259 0.00355777 0.00000000
3.90336879 0.31409423 -0.00011920 0.00000000
0.81814778 1.48818338 0.00182435 0.00000000
0.60817500 1.36967271 0.00095227 0.00000000
3.59326514 1.82472488 -0.00404344 0.00000000
3.52345307 1.55656620 -0.00032338 0.00000000
0.40025921 0.53887139 0.00054971 0.00000000
0.48991195 0.55498926 -0.00043537 0.00000000
1.54825794 0.83110779 -0.00423662 0.00000000
1.98665049 1.59956271 0.00085031 0.00000000
1.32233564 1.67038830 0.00133971 0.00000000
2.69816411 0.43647163 -0.00164429 0.00000000
0.16644039 1.23712880 -0.00121702 0.00000000
2.39579480 0.65726591 -0.00242128 0.00000000
0.61023886 1.41051434 0.00575845 0.00000000
1.32484511 0.19618457 0.00111516 0.00000000
2.21115006 1.08467018 0.00155034 0.00000000
2.82283135 0.94250098 -0.00025207 0.00000000
3.62295554 0.72455474 0.00192692 0.00000000
1.03797659 0.65760354 0.00054540 0.00000000
2.50369026 1.96378918 0.00014997 0.00000000
0.38772387 0.54688737 -0.00079060 0.00000000
3.84187536 0.44643627 -0.00103532 0.00000000
0.15562519 1.80616041 -0.00003747 0.00000000
0.16744016 0.03672531 -0.00075742 0.00000000
4.26875888 1.76400400 0.00250845 0.00000000
2.04642620 0.98418887 0.00044514 0.00000000
4.30399706 1.28528119 0.00187101 0.00000000
2.04105375 1.68444602 0.00091864 0.00000000
2.65818690 0.13685536 0.00158758 0.00000000
0.15717229 0.58014478 0.00108541 0.00000000
2.63164153 1.36145463 0.00035672 0.00000000
2.23029687 0.07421706 0.00278052 0.00000000
2.79103314 0.47759214 -0.00097326 0.00000000
0.66504238 0.21234277 -0.00145933 0.00000000
3.74015273 0.50250154 0.00023951 0.00000000
2.86367122 0.83371310 -0.00367763 0.00000000
1.01371273 1.80673910 -0.00029996 0.00000000
1.55604427 0.19220527 0.00029440 0.00000000
3.81420678 1.51055948 -0.00034767 0.00000000
2.22538045 1.54846982 -0.00229200 0.00000000
3.43084493 1.34275671 0.00254298 0.00000000
2.28125263 0.53660011 0.00142726 0.00000000
0.28801713 0.39326336 0.00123741 0.00000000
3.88458500 0.17742539 0.00177102 0.00000000
0.84276037 0.11169837 -0.00138821 0.00000000
4.14291432 0.65598756 -0.00055120 0.00000000
3.99227570 1.68900650 -0.00087350 0.00000000
0.28641546 1.82262756 -0.00371051 0.00000000
0.57150252 1.43505054 0.00141219 0.00000000
3.26797747 1.91746411 -0.00583214 0.00000000
0.36423815 0.12597937 -0.00070479 0.00000000
0.23933483 0.69044222 -0.00142882 0.00000000
1.18520491 1.50709230 -0.00395357 0.00000000
3.29531723 1.01313172 -0.00195220 0.00000000
3.56237500 1.53197553 0.00406853 0.00000000
1.46757134 1.76664082 -0.00181351 0.00000000
3.62385618 1.24929277 0.00031065 0.00000000
3.71348596 0.18873872 0.00125456 0.00000000
4.01037462 0.62419188 0.00210506 0.00000000
0.18269080 1.79142934 0.00128152 0.00000000
3.73902456 0.32766704 -0.00090410 0.00000000
0.67008356 0.02610213 -0.00638618 0.00000000
2.62586538 0.90632586 0.00128366 0.00000000
1.59121828 1.63357170 -0.00220780 0.00000000
4.02396307 1.94893350 0.00089048 0.00000000
2.75258307 0.24257901 -0.00172862 0.00000000
1.73813701 0.66035910 0.00463272 0.00000000
2.03143675 0.36879898 -0.00156648 0.00000000
3.06599111 0.05733953 0.00061452 0.00000000
4.28575419 0.28978874 0.00532127 0.00000000
4.30480714 1.22192317 0.00034567 0.00000000
0.13375684 0.54810145 0.00049977 0.00000000
4.04439685 0.54945492 0.00003456 0.00000000
1.49304872 0.26871149 0.00081619 0.00000000
0.38679749 1.42859649 -0.00113473 0.00000000
4.00783082 1.20030384 0.00226995 0.00000000
2.06900240 0.46270486 -0.00167744 0.00000000
0.15740935 0.72158807 0.00228824 0.00000000
3.41598069 0.63991661 -0.00804432 0.00000000
0.99090269 0.76559710 -0.00448326 0.00000000
1.12709192 1.12744317 0.00205785 0.00000000
1.54221029 0.33335247 0.00416470 0.00000000
3.90498747 1.20237032 0.00407659 0.00000000
1.63503571 0.85072123 -0.00098905 0.00000000
2.03980015 1.61395068 -0.00063740 0.00000000
0.37207529 0.67373941 0.00206825 0.00000000
0.76441169 0.27036904 -0.00013101 0.00000000
0.03673034 1.37248191 0.00184959 0.00000000
2.97265901 1.51705476 -0.00021256 0.00000000
3.27692145 1.22142977 0.00277096 0.00000000
3.87623077 1.13306453 -0.00074345 0.00000000
3.27158582 0.87653712 -0.00076449 0.00000000
0.94198449 0.22123111 0.00126054 0.00000000
3.29853653 0.47734175 -0.00490091 0.00000000
2.82880752 0.62614010 0.00074426 0.00000000
1.87294062 1.92785991 -0.00551035 0.00000000
0.27751594 0.05007042 0.00460609 0.00000000
3.56405907 0.63596478 -0.00424896 0.00000000
3.06685310 0.05854470 0.00348885 0.00000000
3.85939752 1.37409859 0.00168589 0.00000000
0.62522060 1.24789577 -0.00145485 0.00000000
2.97213144 0.52911838 -0.00044580 0.00000000
4.21470525 0.41513750 0.00021494 0.00000000
1.53193538 1.89578966 -0.00081258 0.00000000
3.00945450 0.72192398 -0.00323767 0.00000000
2.11622809 0.06329556 0.00175601 0.00000000
0.80491053 0.89530390 0.00314557 0.00000000
1.79132195 0.84222157 0.00787467 0.00000000
1.28183144 1.11292684 0.00023096 0.00000000
4.06993486 0.32232555 -0.00149078 0.00000000
2.70703996 1.75132597 -0.00020935 0.00000000
2.99798663 1.88303572 -0.00240058 0.00000000
4.04417300 1.82128518 0.00056335 0.00000000
0.14659109 1.45883381 0.00038470 0.00000000
1.15624179 1.03910082 -0.00113998 0.00000000
1.02609269 1.17336672 0.00353388 0.00000000
3.84665848 1.61624012 -0.00277035 0.00000000
2.67914717 0.24695597 -0.00124529 0.00000000
2.98236592 1.76876162 0.00235365 0.00000000
0.24492748 1.57664267 0.00671668 0.00000000
2.92806645 0.83284957 -0.00037294 0.00000000
2.50108075 0.90640346 -0.00192774 0.00000000
1.34775200 0.20760848 -0.00117250 0.00000000
0.91756591 1.23811799 0.00284310 0.00000000
3.46717702 0.69410709 0.00227165 0.00000000
0.84852934 0.28006922 0.00271893 0.00000000
0.07373361 1.92237433 -0.00104326 0.00000000
1.71581110 1.61284274 -0.00201505 0.00000000
2.60265278 1.38826220 -0.00431694 0.00000000
3.96283549 1.61389481 0.00199652 0.00000000
3.87074997 1.06533031 -0.00258611 0.00000000
2.66477081 1.32251208 0.00417019 0.00000000
4.15816109 0.85197107 0.00112633 0.00000000
1.24035948 0.36984563 0.00140025 0.00000000
1.15009506 1.39970050 0.00094602 0.00000000
4.28987667 1.53728787 -0.00774048 0.00000000
0.45012962 0.48370741 0.00159410 0.00000000
3.17956740 0.23679349 0.00107683 0.00000000
2.73305706 1.04524892 -0.00275029 0.00000000
0.31532793 1.57849022 -0.00461831 0.00000000
4.00711834 0.65162293 0.00099623 0.00000000
1.99210630 1.44451038 -0.00032173 0.00000000
1.77490022 0.59839573 0.00026065 0.00000000
3.72675273 0.99616964 0.00241226 0.00000000
2.33556172 1.13345165 -0.00355258 0.00000000
4.02435879 1.07688561 0.00147443 0.00000000
1.37606290 1.49397912 0.00071423 0.00000000
0.65758487 0.84471820 -0.00291145 0.00000000
3.76168933 0.62679426 -0.00046842 0.00000000
1.62717249 1.99722666 0.00129693 0.00000000
0.12616763 1.39743161 0.00552054 0.00000000
0.54983108 0.04417126 -0.00204494 0.00000000
0.01499262 0.15318476 -0.00222340 0.00000000
0.02283739 0.09886623 -0.00294711 0.00000000
1.97074118 1.89963574 -0.00286651 0.00000000
0.34497817 1.49147073 -0.00097916 0.00000000
1.19115406 1.70780609 0.00185495 0.00000000
1.87935203 0.00805260 -0.00165709 0.00000000
1.28559876 1.20545148 0.00373791 0.00000000
3.31075349 1.05861639 -0.00206688 0.00000000
1.78162026 1.49573979 0.00064242 0.00000000
1.50960974 1.83128739 -0.00013929 0.00000000
0.54631156 0.51163690 -0.00093454 0.00000000
0.56404250 1.77786568 0.00179892 0.00000000
3.02261917 1.07867318 -0.00115463 0.00000000
2.68052972 0.25366046 -0.00005641 0.00000000
1.29706506 0.66411395 0.00101842 0.00000000
3.78401374 0.07691766 0.00266761 0.00000000
3.97132874 1.99807035 0.00127887 0.00000000
2.14374189 1.72255694 0.00234345 0.00000000
3.34021088 0.56180768 -0.00114196 0.00000000
0.54830260 1.34174285 0.00183469 0.00000000
2.37397108 0.54807869 0.00458585 0.00000000
2.88589883 0.71284288 0.00183022 0.00000000
2.09568564 0.00783158 -0.00312974 0.00000000
2.41187815 1.21225215 -0.00303268 0.00000000
3.48472505 0.98111846 -0.00100921 0.00000000
1.56081299 0.51065432 0.00400638 0.00000000
2.08892179 1.35140242 0.00391071 0.00000000
2.18553815 0.15658911 0.00141058 0.00000000
1.58612778 0.34112415 0.00265087 0.00000000
0.09719931 1.51843564 -0.00070913 0.00000000
3.09975690 0.94792990 0.00249002 0.00000000
3.53666416 0.85524452 -0.00048172 0.00000000
4.01258732 1.83596259 0.00260609 0.00000000
2.55880872 1.65266873 0.00279623 0.00000000
2.90168450 1.55636153 -0.00228518 0.00000000
2.83460673 1.99567933 -0.00502880 0.00000000
0.58633248 1.13519730 0.00300693 0.00000000
1.95794195 0.69657498 -0.00190289 0.00000000
2.68243046 1.93618159 -0.00089759 0.00000000
0.05039009 0.66547933 0.00017426 0.00000000
0.62695532 1.44150708 0.00046038 0.00000000
1.54509414 1.90745632 -0.00109425 0.00000000
1.86333831 0.22780228 0.00032227 0.00000000
0.86866101 1.56517804 0.00186880 0.00000000
0.27869844 1.88482818 -0.00247227 0.00000000
0.73435820 0.31375983 0.00310797 0.00000000
3.02102663 0.94543405 -0.00140786 0.00000000
1.35541186 1.70972521 -0.00198439 0.00000000
2.50086303 0.14195324 -0.00271570 0.00000000
1.16762588 1.19319407 -0.00093292 0.00000000
3.13172012 1.36423450 0.00308985 0.00000000
0.08928293 0.69410097 0.00417053 0.00000000
2.77315303 0.05980988 0.00163535 0.00000000
1.85004862 0.90094088 -0.00114931 0.00000000
2.45582325 0.35991019 0.00008265 0.00000000
2.79947706 0.04910875 -0.00207660 0.00000000
4.12140528 0.83940134 -0.00120470 0.00000000
0.37230434 1.69691171 -0.00083802 0.00000000
3.45917364 0.13417050 -0.00389168 0.00000000
1.74903689 1.54716495 0.00127924 0.00000000
4.08046093 0.72459836 0.00081582 0.00000000
0.02326364 0.08890852 0.00209203 0.00000000
0.63711151 0.75334863 0.00168102 0.00000000
0.04220176 1.60346983 0.00065311 0.00000000
0.42714654 0.00652543 0.00087010 0.00000000
4.06662130 0.79817527 -0.00232235 0.00000000
2.90924734 1.96074832 -0.00102452 0.00000000
1.51119485 0.51560345 -0.00167086 0.00000000
2.97681847 1.02659220 0.00476245 0.00000000
2.14153144 1.45200705 0.00239832 0.00000000
3.12385444 1.90518128 0.00044748 0.00000000
3.59600408 1.99419965 0.00364942 0.00000000
2.58995821 1.89044936 0.00023515 0.00000000
4.31282958 0.35181048 0.00311268 0.00000000
0.33426140 1.52776659 -0.00052087 0.00000000
0.23292305 0.58413772 -0.00215816 0.00000000
2.06856753 0.01012970 0.00068778 0.00000000
3.16651297 1.26543961 0.00070860 0.00000000
2.42192185 1.59010606 0.00245007 0.00000000
2.97372828 0.40666168 0.00137382 0.00000000
2.53774223 1.43183735 -0.00172075 0.00000000
1.52513034 0.50972527 -0.00074324 0.00000000
3.92592440 0.88577081 -0.00003753 0.00000000
3.12557260 1.69250906 0.00127846 0.00000000
0.64624149 0.41428283 0.00058672 0.00000000
3.80075165 1.39056855 -0.00020181 0.00000000
0.11554320 0.75655291 0.00141059 0.00000000
2.62709650 1.89893705 0.00260989 0.00000000
1.54655458 0.77381754 -0.00637157 0.00000000
3.77260370 1.46837804 0.00217107 0.00000000
1.75355339 0.20468339 0.00492344 0.00000000
3.12593253 1.16014700 -0.00323139 0.00000000
1.64400818 1.69624226 -0.00428608 0.00000000
3.19398746 1.98304658 -0.00103190 0.00000000
4.02878629 1.84238596 0.00059981 0.00000000
3.33601781 0.46471578 -0.00184859 0.00000000
3.70206620 0.91342784 -0.00087437 0.00000000
1.17851150 0.28232730 0.00016378 0.00000000
0.83871996 0.34431026 -0.00233208 0.00000000
3.08529902 1.66692382 -0.00062472 0.00000000
3.90180631 1.28758336 0.00160807 0.00000000
4.11301094 1.08735626 -0.00050233 0.00000000
1.95269082 0.33769793 0.00224357 0.00000000
1.17555764 1.00129633 0.00259246 0.00000000
0.05406044 1.56913642 0.00527740 0.00000000
1.06571708 1.16924085 0.00114013 0.00000000
2.78630558 1.60765003 0.00075450 0.00000000
3.39841662 0.48381121 -0.00000020 0.00000000
3.88807502 1.47654366 0.00195376 0.00000000
2.83107928 1.87724377 -0.00305220 0.00000000
2.07353555 0.52033642 -0.00361216 0.00000000
3.25701765 1.82859100 0.00211758 0.00000000
0.26538864 1.34830965 0.00407516 0.00000000
1.72570110 0.51946264 -0.00097262 0.00000000
0.91974283 1.75168774 0.00073716 0.00000000
0.31452326 1.68505567 0.00284391 0.00000000
1.12617315 1.15186246 -0.00108508 0.00000000
0.90955350 0.93304534 -0.00071610 0.00000000
1.35975825 0.87049314 0.00001998 0.00000000
2.30682527 1.64816232 0.00362037 0.00000000
2.88302296 1.56653332 -0.00204897 0.00000000
1.56783317 1.71973151 -0.00418843 0.00000000
1.67057685 1.69517474 0.00076848 0.00000000
3.68355100 0.89964811 0.00335154 0.00000000
0.67575087 1.08250988 -0.00053966 0.00000000
3.49216945 1.43919971 -0.00032822 0.00000000
0.56383122 0.96304679 0.00210341 0.00000000
0.09647959 0.67247298 -0.00062508 0.00000000
1.59846560 0.88379022 -0.00070980 0.00000000
0.01944827 0.78970990 0.00224330 0.00000000
1.81073064 1.64175306 0.00160876 0.00000000
0.21104836 1.37349677 0.00032289 0.00000000
1.60943383 1.56468789 0.00287430 0.00000000
0.32676040 0.64504068 0.00213511 0.00000000
3.39394025 1.51597687 -0.00287247 0.00000000
1.11432243 0.47667766 0.00340068 0.00000000
0.67736891 1.26941024 -0.00061011 0.00000000
3.43480874 0.14921778 0.00144215 0.00000000
3.88246288 0.32389718 -0.00209422 0.00000000
1.55087907 1.58817370 -0.00387476 0.00000000
0.60799910 0.03360348 -0.00167983 0.00000000
2.86772506 0.12204380 0.00026592 0.00000000
3.47824191 1.72026753 -0.00036145 0.00000000
0.76846681 1.03414539 0.00009020 0.00000000
4.24792681 0.98027195 -0.00024633 0.00000000
4.08684229 1.04239620 -0.00258444 0.00000000
3.30586043 1.34593097 -0.00020702 0.00000000
2.22080007 0.76934223 -0.00218239 0.00000000
3.87604011 1.10439460 -0.00263814 0.00000000
1.42223383 1.86624501 -0.00438300 0.00000000
2.64204517 1.97499045 -0.00286601 0.00000000
4.25669434 1.96627413 -0.00425463 0.00000000
1.51722559 0.21456860 -0.00111806 0.00000000
2.74947558 0.47654863 0.00135254 0.00000000
1.53983206 1.12905615 -0.00343118 0.00000000
2.78093903 0.23437636 -0.00204646 0.00000000
3.08988278 1.84195510 -0.00071177 0.00000000
3.47734669 1.96834726 0.00355851 0.00000000
0.46058024 0.69656217 0.00190343 0.00000000
3.76451283 0.41833498 0.00012638 0.00000000
2.65660056 1.25808019 0.00158592 0.00000000
2.22377725 1.14319294 0.00291985 0.00000000
3.40335785 1.89667859 -0.00018460 0.00000000
1.07227486 0.54996533 0.00097261 0.00000000
2.90106710 1.57775878 0.00296720 0.00000000
2.63501978 0.65511394 0.00422987 0.00000000
1.18747247 1.11636299 0.00455828 0.00000000
3.01263335 1.65891994 0.00079093 0.00000000
2.86663753 0.16934969 -0.00035097 0.00000000
1.05918577 0.72859640 0.00462916 0.00000000
2.16008288 0.69102736 -0.00550910 0.00000000
4.29851022 1.97273822 -0.00260904 0.00000000
2.88321006 0.34491045 -0.00010683 0.00000000
0.63453489 0.28057752 0.00175113 0.00000000
1.08433819 0.04783257 -0.00346828 0.00000000
3.69943331 0.19317690 -0.00108862 0.00000000
2.60039422 0.13137822 -0.00292385 0.00000000
1.74612281 1.36726391 0.00191406 0.00000000
1.60395656 0.33592305 0.00160139 0.00000000
3.48919125 1.25720263 -0.00013952 0.00000000
3.59237865 0.33528065 0.00082912 0.00000000
2.20773994 1.26109665 0.00210965 0.00000000
3.45025423 0.13064642 0.00149448 0.00000000
0.94529125 1.95496561 0.00083829 0.00000000
3.13358122 1.48322461 -0.00047605 0.00000000
3.06919213 0.95485257 0.00356896 0.00000000
1.91688106 1.51823090 0.00128008 0.00000000
1.82813035 0.69423356 0.00107886 0.00000000
0.77833717 0.04494017 0.00151979 0.00000000
0.82865851 1.79753918 -0.00087588 0.00000000
0.54004123 0.92821958 0.00213133 0.00000000
3.99237001 0.43523122 -0.00043383 0.00000000
0.70792304 1.17391301 -0.00077178 0.00000000
3.82744135 0.51979533 0.00293737 0.00000000
1.21476422 0.34707267 -0.00284636 0.00000000
3.10675497 0.55675430 0.00174666 0.00000000
1.45446099 0.46273140 -0.00298168 0.00000000
3.81411364 0.66056201 -0.00135339 0.00000000
2.15986073 1.51971114 0.00191756 0.00000000
2.12367795 1.13452606 0.00027353 0.00000000
0.58780181 0.49745784 0.00337059 0.00000000
1.84447265 0.77128175 -0.00010311 0.00000000
0.07000955 0.37596686 0.00023994 0.00000000
3.21810379 0.38092646 -0.00122018 0.00000000
4.10584022 1.58661964 0.00034425 0.00000000
3.40008593 0.04692341 0.00068137 0.00000000
0.48829446 0.55845406 0.00383772 0.00000000
1.61146834 1.64730839 0.00361047 0.00000000
1.45260476 0.81766184 0.00183892 0.00000000
1.70014022 0.20155081 0.00055762 0.00000000
3.17811703 1.36506693 -0.00178402 0.00000000
2.17489030 0.29457233 -0.00539012 0.00000000
1.67093965 0.76837880 0.00228641 0.00000000
0.74453954 1.03189863 -0.00148549 0.00000000
1.71661979 1.63977827 -0.00516780 0.00000000
3.77744933 1.86555604 -0.00075786 0.00000000
3.40303873 1.14552454 0.00321047 0.00000000
0.79233764 1.40166054 -0.00062279 0.00000000
2.39813441 1.60212735 -0.00306856 0.00000000
3.29689517 1.63335191 0.00039965 0.00000000
4.22410835 1.34533357 -0.00116119 0.00000000
1.61061875 0.16017957 0.00027837 0.00000000
1.15297260 0.40578808 0.00177841 0.00000000
1.80547712 0.99689319 -0.00500391 0.00000000
1.10912883 0.99891355 -0.00311423 0.00000000
1.91379552 1.14470103 0.00189556 0.00000000
2.41645525 0.50074542 0.00020545 0.00000000
3.04027676 1.10963193 -0.00102359 0.00000000
3.40408744 0.92160340 -0.00031051 0.00000000
2.07542488 0.29854793 0.00448353 0.00000000
1.49181142 0.88623211 -0.00093745 0.00000000
4.02719024 0.92281214 -0.00034533 0.00000000
3.14222732 0.97452314 -0.00150635 0.00000000
3.29961075 1.58166360 0.00172871 0.00000000
2.01633324 0.57076158 -0.00104185 0.00000000
0.65505492 1.97797523 0.00212469 0.00000000
2.04737933 1.79427611 -0.00027772 0.00000000
2.73469980 1.05408766 0.00296564 0.00000000
1.91936066 0.33742564 0.00010687 0.00000000
3.96177082 1.42476558 -0.00046118 0.00000000
3.55997344 1.77499249 -0.00256560 0.00000000
3.17350265 0.47825423 0.00076991 0.00000000
3.27967118 1.45047289 0.00040390 0.00000000
1.99429981 1.48362080 0.00029215 0.00000000
0.46938760 1.82434323 -0.00077461 0.00000000
1.06029805 1.50273787 0.00121392 0.00000000
1.88399055 0.50626908 -0.00215652 0.00000000
2.21941003 0.02972017 -0.00232776 0.00000000
1.52924927 0.35157954 -0.00131631 0.00000000
3.60105583 0.36818894 -0.00027616 0.00000000
3.50940681 1.18798968 -0.00262194 0.00000000
1.77306855 0.02219214 0.00340512 0.00000000
0.31086089 1.54055057 0.00001010 0.00000000
1.69243884 0.45901560 0.00189775 0.00000000
1.77609346 0.38523461 -0.00159482 0.00000000
0.64368785 0.66160651 -0.00266602 0.00000000
2.90039351 0.35251648 -0.00172423 0.00000000
1.36346067 1.48255573 -0.00074974 0.00000000
0.96617131 1.53850547 -0.00219436 0.00000000
1.10254385 1.94019073 0.00076390 0.00000000
4.13416594 0.23860234 0.00466362 0.00000000
2.36207482 0.11621441 -0.00054404 0.00000000
3.73592151 1.08437220 0.00006648 0.00000000
2.30269707 1.97202209 0.00020705 0.00000000
0.52259737 0.25364317 0.00118585 0.00000000
0.26268441 0.87680629 -0.00157417 0.00000000
0.27416659 1.64581798 -0.00005601 0.00000000
0.28099111 0.27726525 0.00044139 0.00000000
1.08216557 1.98082931 -0.00198743 0.00000000
0.80433689 0.79463854 0.00147883 0.00000000
2.34960121 0.80372497 -0.00262119 0.00000000
3.76989804 0.00220994 0.00390691 0.00000000
2.19939941 0.52201045 -0.00077753 0.00000000
4.11686235 0.23657522 -0.00330564 0.00000000
3.29632515 0.25152917 0.00011375 0.00000000
2.75508212 1.99710677 -0.00178351 0.00000000
0.87395057 0.43432462 -0.00037446 0.00000000
0.62925519 1.25697009 -0.00089762 0.00000000
3.68847966 0.19597896 -0.00134968 0.00000000
1.62658869 0.72831781 0.00318489 0.00000000
1.11815602 1.42619384 -0.00149588 0.00000000
1.97093298 0.72740222 -0.00135351 0.00000000
0.18881634 0.32726414 0.00293035 0.00000000
0.98087692 0.96444784 -0.00553000 0.00000000
3.11839051 1.21240690 -0.00060891 0.00000000
2.70306247 0.23571326 -0.00303127 0.00000000
1.25590311 0.12454396 -0.00031181 0.00000000
4.13482468 0.06406925 0.00536049 0.00000000
2.05722160 1.74707786 -0.00127378 0.00000000
2.12968753 0.04770551 0.00124842 0.00000000
4.03984363 0.26888943 0.00131081 0.00000000
0.02579207 1.23174505 -0.00206794 0.00000000
0.82198840 1.23741396 0.00227069 0.00000000
3.75793355 1.45992481 -0.00179288 0.00000000
0.30553469 0.67787503 -0.00140350 0.00000000
2.97237777 1.40754844 -0.00334395 0.00000000
4.03357596 0.10257976 0.00302484 0.00000000
3.12925340 0.98799126 0.00307540 0.00000000
3.64715131 0.84558836 -0.00285047 0.00000000
2.92941600 1.44258693 0.00080872 0.00000000
0.49165195 0.38484556 -0.00129343 0.00000000
2.33909355 0.38226179 -0.00157996 0.00000000
0.74574601 0.49917178 0.00206171 0.00000000
1.47655633 1.14796966 0.00114491 0.00000000
1.05556298 1.62716863 -0.00090486 0.00000000
3.23895839 0.34696534 0.00130800 0.00000000
3.29741063 0.47988402 0.00134728 0.00000000
2.54700228 0.98872647 0.00070646 0.00000000
0.07945413 0.17128614 -0.00045086 0.00000000
1.67568651 0.70044507 0.00117740 0.00000000
1.71312600 0.18296437 0.00055114 0.00000000
3.35426830 1.76818273 -0.00359997 0.00000000
3.08504181 1.97524500 -0.00110123 0.00000000
2.20155819 1.97139756 0.00107471 0.00000000
0.80810950 1.12151039 -0.00541617 0.00000000
2.76803048 0.23492912 -0.00195787 0.00000000
1.31619590 1.46472086 -0.00225660 0.00000000
1.65194627 1.16017288 0.00027565 0.00000000
1.71003909 1.60311664 -0.00291917 0.00000000
3.92930221 1.67321634 -0.00358176 0.00000000
2.58601894 1.87760022 0.00056622 0.00000000
2.93719972 0.38511498 -0.00348404 0.00000000
2.17782119 0.20562611 -0.00080700 0.00000000
3.85996151 0.88943013 0.00441716 0.00000000
0.13178592 0.36408518 0.00130381 0.00000000
4.14642673 0.98534448 0.00076603 0.00000000
0.89086402 1.58739566 -0.00232230 0.00000000
3.73649803 1.28677210 -0.00121353 0.00000000
0.73257816 1.58274727 -0.00455090 0.00000000
0.15004807 0.95284806 -0.00063624 0.00000000
1.63680860 0.96822699 0.00153217 0.00000000
0.38222934 1.91082922 0.00114542 0.00000000
1.19101129 0.10593833 0.00325277 0.00000000
0.32416984 1.26687418 0.00347235 0.00000000
3.16111077 1.13036925 -0.00010817 0.00000000
0.08656857 1.22512043 -0.00587700 0.00000000
4.28115520 1.26309527 -0.00110786 0.00000000
4.14855221 1.62195020 -0.00095100 0.00000000
2.81648934 1.76283305 0.00283161 0.00000000
1.55383529 0.05533606 0.00234933 0.00000000
2.78218337 1.64404496 0.00094686 0.00000000
0.39700973 0.11782517 -0.00019923 0.00000000
2.25307418 0.92313365 -0.00027394 0.00000000
3.93018598 1.83837500 0.00095446 0.00000000
1.08604785 0.52089263 0.00162418 0.00000000
2.99957595 1.09496800 0.00005846 0.00000000
3.45832062 1.32467303 -0.00090803 0.00000000
2.76533084 1.64545943 -0.00277325 0.00000000
4.12319880 0.11519486 0.00696906 0.00000000
0.21804451 0.44956901 -0.00574811 0.00000000
0.30118012 0.25089691 -0.00346576 0.00000000
2.52781228 1.14646895 0.00055040 0.00000000
0.80439150 1.84220843 -0.00040663 0.00000000
2.79923909 0.15458215 0.00140849 0.00000000
0.73485777 0.36715273 -0.00124224 0.00000000
2.29556833 1.66464094 -0.00245246 0.00000000
2.07468541 0.76337681 0.00199273 0.00000000
0.60917446 0.11667665 -0.00195416 0.00000000
1.95354806 1.47833435 -0.00197911 0.00000000
0.89460724 1.61633490 -0.00053371 0.00000000
1.48437114 0.06388566 -0.00363309 0.00000000
3.28148888 1.67883383 -0.00122310 0.00000000
2.12194880 1.87266731 0.00097149 0.00000000
0.28363285 1.89220446 0.00452215 0.00000000
0.48583243 0.87763410 0.00125252 0.00000000
1.27451118 0.55585820 0.00532921 0.00000000
2.30483517 1.14385222 0.00466062 0.00000000
1.26089351 1.24070376 0.00190363 0.00000000
3.26964982 1.24796742 -0.00384641 0.00000000
4.26729152 0.31929759 0.00096569 0.00000000
1.20438781 1.21201817 0.00243599 0.00000000
2.27971966 0.66738250 0.00687783 0.00000000
1.17476359 1.50957224 0.00147360 0.00000000
3.21819568 0.49363795 -0.00052210 0.00000000
4.02632329 1.81137835 0.00061203 0.00000000
2.55485572 0.78334353 0.00212695 0.00000000
1.89768342 1.30270466 0.00298350 0.00000000
3.56069739 0.50844397 0.00040885 0.00000000
0.80450617 0.89916620 0.00429195 0.00000000
3.07823522 0.49554223 0.00193445 0.00000000
0.44417765 0.55797996 0.00032832 0.00000000
0.83449168 0.39760860 0.00073368 0.00000000
2.99639187 1.56091917 -0.00349699 0.00000000
0.65765362 1.21311548 -0.00103360 0.00000000
2.24147676 0.45487883 0.00192489 0.00000000
2.43869117 0.25163584 0.00134062 0.00000000
0.13924288 0.52628611 0.00122602 0.00000000
1.36531978 1.64163786 0.00050018 0.00000000
1.59230588 0.80536819 -0.00095634 0.00000000
3.85515850 1.04992471 0.00087111 0.00000000
0.31928836 1.46835312 -0.00134881 0.00000000
3.40618746 0.61465065 0.00066575 0.00000000
3.73561508 0.64494044 0.00228472 0.00000000
3.00593746 0.68612429 0.00251356 0.00000000
1.17516597 1.53467465 -0.00193040 0.00000000
2.90384365 1.22532116 -0.00199317 0.00000000
3.55061077 0.63868310 -0.00111816 0.00000000
4.02774485 1.59652340 0.00119277 0.00000000
0.58045638 0.34228326 0.00167805 0.00000000
1.44471925 0.56807262 0.00426808 0.00000000
1.61712722 0.52040884 0.00103346 0.00000000
3.94605489 0.04306680 0.00019383 0.00000000
4.10015802 0.71576434 0.00005795 0.00000000
1.98848221 1.97448959 0.00111567 0.00000000
3.95486117 0.40702534 0.00115311 0.00000000
2.10861984 0.95551771 0.00224252 0.00000000
0.53196286 1.76808388 0.00295635 0.00000000
3.26047816 1.18710017 -0.00015373 0.00000000
0.67120105 0.95803307 0.00231484 0.00000000
0.50767975 1.40213888 -0.00487843 0.00000000
2.90998612 0.05437787 0.00406542 0.00000000
3.53824949 0.18506123 0.00001113 0.00000000
1.63387332 1.83917242 0.00095324 0.00000000
1.35443616 0.35613865 0.00483835 0.00000000
0.09648469 0.21051153 -0.00095051 0.00000000
2.63239716 1.42307842 -0.00218545 0.00000000
0.93391875 1.83823867 -0.00018409 0.00000000
1.11940344 1.29576552 0.00167800 0.00000000
2.98013313 0.96277603 -0.00528755 0.00000000
1.58864181 0.84952318 0.00002912 0.00000000
0.15416929 1.52945582 -0.00125002 0.00000000
4.22564515 1.54705532 0.00004759 0.00000000
2.61472710 0.77823190 -0.00326987 0.00000000
1.96931180 1.90061019 0.00170042 0.00000000
2.32063072 0.64886769 0.00207186 0.00000000
0.85360670 0.23677920 -0.00287417 0.00000000
3.09375528 1.58217285 0.00023163 0.00000000
1.76450525 1.79282605 -0.00136845 0.00000000
1.17270761 1.94165578 0.00174051 0.00000000
1.29165791 0.57765532 -0.00052823 0.00000000
0.81691269 0.10148748 -0.00011647 0.00000000
3.22058387 0.47134939 0.00158321 0.00000000
3.46423867 1.28210986 0.00101020 0.00000000
1.97568144 0.28882919 0.00291425 0.00000000
1.58625263 0.66438848 -0.00159216 0.00000000
4.08553460 0.24079692 0.00116098 0.00000000
1.52699999 1.95742271 0.00039961 0.00000000
2.82282593 0.29590141 0.00621702 0.00000000
1.52755572 0.12640795 0.00048645 0.00000000
1.68784843 1.07759767 -0.00195903 0.00000000
1.31124033 0.68938893 -0.00042398 0.00000000
1.22953559 0.23908850 -0.00191541 0.00000000
3.26338862 0.09171780 -0.00522091 0.00000000
1.97818102 1.78343822 -0.00340940 0.00000000
4.19987459 1.50731435 -0.00442770 0.00000000
1.12047105 0.46619227 0.00120174 0.00000000
3.37067550 1.16968092 0.00272215 0.00000000
3.79200571 0.13461386 0.00143538 0.00000000
2.37892954 0.72263230 0.00180385 0.00000000
3.00288916 1.96869296 0.00432003 0.00000000
1.61619162 0.52733501 -0.00279159 0.00000000
0.16809322 1.87980575 0.00053871 0.00000000
0.48628230 0.04096087 -0.00309849 0.00000000
2.81141384 0.54336152 -0.00228167 0.00000000
0.03667746 1.08910290 0.00213902 0.00000000
1.66195413 0.16233303 -0.00317013 0.00000000
3.16656804 1.28003587 -0.00088721 0.00000000
1.78690933 1.88902143 -0.00142938 0.00000000
0.33528237 1.13541175 -0.00079632 0.00000000
1.29161209 1.22507985 0.00623425 0.00000000
1.82234626 1.14875612 0.00125188 0.00000000
0.50996686 1.25853800 -0.00120522 0.00000000
2.81993193 0.15492349 -0.00258531 0.00000000
3.74587660 0.06073467 0.00194780 0.00000000
2.38870094 1.35113409 0.00313782 0.00000000
1.20033428 1.63891115 0.00028732 0.00000000
1.16177738 1.70782704 0.00018178 0.00000000
3.90415108 0.41346305 0.00289208 0.00000000
3.96563447 0.08799263 -0.00017555 0.00000000
0.92121134 1.78824205 -0.00303825 0.00000000
1.80414281 1.38034105 0.00484058 0.00000000
2.60508996 1.11680103 -0.00187522 0.00000000
1.89204257 0.53064379 -0.00186017 0.00000000
2.74144852 0.32360550 0.00426214 0.00000000
4.22708801 0.97561328 0.00284764 0.00000000
0.26368929 0.11722410 0.00162581 0.00000000
0.77507714 0.56958709 -0.00419300 0.00000000
2.35558886 1.87742518 0.00030191 0.00000000
2.14741473 0.52968976 0.00303441 0.00000000
0.76436640 0.98193324 0.00088003 0.00000000
3.75772010 0.17160096 0.00074956 0.00000000
1.67638108 1.12153559 -0.00376229 0.00000000
1.92664398 0.32022174 0.00177605 0.00000000
2.67525493 1.14587284 -0.00129446 0.00000000
0.82972587 0.05589000 0.00012161 0.00000000
0.30182209 0.50909062 -0.00257019 0.00000000
3.57763356 1.28730619 0.00297100 0.00000000
3.74915743 0.13686918 0.00151652 0.00000000
2.37287534 0.01722865 -0.00012514 0.00000000
3.00015062 1.87754709 0.00035127 0.00000000
0.59358150 1.94230497 -0.00006515 0.00000000
2.56095599 0.13860905 0.00537043 0.00000000
2.25695010 1.48133786 -0.00309702 0.00000000
2.33951706 1.93630822 0.00117931 0.00000000
0.93517024 1.76055979 -0.00295439 0.00000000
3.08838016 0.56708724 -0.00067906 0.00000000
0.59345075 0.92893222 0.00214837 0.00000000
1.38302958 0.36569790 0.00098252 0.00000000
1.77279263 1.79514901 -0.00256942 0.00000000
2.68636438 1.66755022 0.00213460 0.00000000
1.31003956 1.21890066 -0.00162275 0.00000000
0.55188986 0.33645656 -0.00124832 0.00000000
1.67044291 0.46608689 -0.00366056 0.00000000
3.93344849 0.57677029 0.00103330 0.00000000
1.53522976 1.37290659 -0.00096675 0.00000000
3.80902433 0.60143073 -0.00105344 0.00000000
0.21777227 1.51830057 0.00186983 0.00000000
4.07753841 0.74259180 0.00237994 0.00000000
2.97740516 1.00894084 -0.00066742 0.00000000
3.37884699 0.48185145 -0.00108733 0.00000000
3.63139329 0.91745036 0.00053549 0.00000000
1.92972425 0.71486668 -0.00104081 0.00000000
2.89670361 0.91786543 -0.00092831 0.00000000
2.07046277 1.29264770 0.00224210 0.00000000
0.79480660 0.93070478 0.00100213 0.00000000
1.01361522 1.67177467 0.00172411 0.00000000
2.83167983 0.79464451 -0.00240842 0.00000000
1.66412961 0.05212912 0.00093607 0.00000000
2.55947948 0.03950793 0.00317191 0.00000000
1.41012991 1.91822797 -0.00095870 0.00000000
2.17925380 0.81738963 0.00334909 0.00000000
1.62216094 0.61880808 0.00054506 0.00000000
2.42880999 1.48891644 -0.00535229 0.00000000
0.19632261 0.60084657 0.00233690 0.00000000
2.34317123 1.55678655 0.00165406 0.00000000
0.34582436 0.79135313 0.00158922 0.00000000
2.83468945 1.05185590 0.00238255 0.00000000
2.75245306 0.17786259 -0.00207371 0.00000000
2.03755960 1.57688046 -0.00055499 0.00000000
2.68272782 0.62960474 0.00153705 0.00000000
2.55316588 0.56064345 -0.00510718 0.00000000
1.23077175 0.40910556 -0.00085259 0.00000000
1.58110837 1.05546209 -0.00131712 0.00000000
1.08600092 0.12454373 0.00163809 0.00000000
3.48105583 0.36954891 0.00196350 0.00000000
0.43325208 1.46626139 0.00006030 0.00000000
3.59575694 1.43539364 -0.00120484 0.00000000
2.52503638 0.83062972 0.00170472 0.00000000
3.16019610 0.93905822 -0.00222433 0.00000000
2.21431817 0.31923122 0.00212697 0.00000000
3.07416404 0.31363804 -0.00435695 0.00000000
3.09560477 1.45846755 -0.00054966 0.00000000
0.75505280 0.85345191 -0.00152611 0.00000000
2.60301638 1.58367434 -0.00064479 0.00000000
3.76703279 0.90600479 -0.00295125 0.00000000
1.42578414 1.46793173 -0.00441607 0.00000000
1.03431477 1.16504039 -0.00137058 0.00000000
0.42581364 0.05593094 0.00108442 0.00000000
2.74500594 1.45300871 0.00582675 0.00000000
1.93425387 0.53813465 0.00004295 0.00000000
2.29711582 1.86222538 -0.00379137 0.00000000
3.06743333 1.84761680 -0.00104740 0.00000000
3.81496008 1.52995923 0.00239262 0.00000000
1.68855890 0.50646196 0.00030126 0.00000000
0.23546923 0.79422138 0.00038601 0.00000000
2.83074205 1.53329714 0.00429446 0.00000000
2.20419048 1.38504126 -0.00240630 0.00000000
4.24983618 0.59163700 0.00039133 0.00000000
1.59753031 0.01024346 -0.00271460 0.00000000
0.68338324 0.80909913 0.00230399 0.00000000
1.70909627 0.60642175 0.00219545 0.00000000
0.07624201 0.16418680 0.00368450 0.00000000
3.62870860 0.69535943 -0.00301092 0.00000000
2.92576692 1.56314312 0.00315795 0.00000000
1.76137769 0.62761725 0.00266214 0.00000000
1.35539924 0.93070607 -0.00011333 0.00000000
0.20069863 0.12698387 -0.00277608 0.00000000
3.31146155 1.29772119 0.00280350 0.00000000
2.72213588 0.98022889 -0.00265631 0.00000000
3.98430897 0.18181350 -0.00214717 0.00000000
4.02777860 1.99953495 0.00330917 0.00000000
2.00536381 1.61500348 0.00113613 0.00000000
0.86264249 0.65905852 0.00452331 0.00000000
3.94843127 1.14789453 -0.00206633 0.00000000
1.16883313 0.06804088 -0.00207366 0.00000000
3.80149033 1.36580166 0.00136202 0.00000000
1.24289246 1.74742355 -0.00287422 0.00000000
3.56025081 1.57613713 -0.00135047 0.00000000
1.17008470 1.01287144 -0.00390913 0.00000000
0.61177677 0.41282830 -0.00042476 0.00000000
4.01407215 0.34797503 -0.00051081 0.00000000
0.41334286 0.97792208 0.00031490 0.00000000
0.06341491 1.46066711 -0.00029050 0.00000000
0.91440467 1.02935321 0.00215582 0.00000000
2.62388147 1.89683280 -0.00279728 0.00000000
2.07959290 0.30985253 -0.00033152 0.00000000
0.20599183 1.61744537 -0.00587104 0.00000000
3.37180218 0.05462169 0.00029983 0.00000000
2.77244476 1.64846987 -0.00086133 0.00000000
1.65895053 1.03608349 -0.00242760 0.00000000
3.93195889 1.31253817 0.00307447 0.00000000
1.90514096 0.32476610 0.00255659 0.00000000
3.08236120 0.26541293 -0.00074231 0.00000000
3.53506194 0.28258204 -0.00116564 0.00000000
0.70801560 0.98661458 0.00246210 0.00000000
0.37825281 1.77572227 0.00289437 0.00000000
2.21338778 0.45443565 0.00464392 0.00000000
3.73435551 0.37072976 -0.00245785 0.00000000
0.08935520 1.19817716 0.00390383 0.00000000
3.12806193 1.74390431 -0.00115676 0.00000000
3.90460175 0.63152640 0.00147139 0.00000000
2.11119212 0.99937132 0.00098858 0.00000000
0.28707741 0.60750811 -0.00032684 0.00000000
1.73929639 1.30221833 -0.00038726 0.00000000
2.70139030 0.97064624 0.00095315 0.00000000
2.80921383 1.76216439 -0.00385398 0.00000000
0.79154934 0.55343070 -0.00062204 0.00000000
0.47325826 0.46904681 -0.00297490 0.00000000
4.08320792 1.05871209 0.00375594 0.00000000
1.15499773 1.12096496 -0.00260639 0.00000000
0.51796941 1.10582481 0.00000776 0.00000000
3.70541463 0.96544543 -0.00456809 0.00000000
4.14344923 0.34833268 -0.00197361 0.00000000
3.38572769 0.69672551 0.00045256 0.00000000
1.09823430 0.89449585 -0.00032976 0.00000000
1.69877566 1.82715916 0.00337814 0.00000000
4.15303584 1.88792202 0.00235599 0.00000000
0.83156509 0.16943798 -0.00015930 0.00000000
3.75701882 0.82998326 0.00086166 0.00000000
2.10306993 1.51025024 0.00176072 0.00000000
0.05599808 1.68997959 0.00191014 0.00000000
3.94985808 1.48586061 -0.00176844 0.00000000
2.59049330 1.40345921 -0.00212483 0.00000000
0.52312414 0.14588816 -0.00366074 0.00000000
0.03811316 0.98521411 -0.00152825 0.00000000
2.15431238 1.44227177 -0.00223116 0.00000000
1.82741152 0.23072641 -0.00131660 0.00000000
1.82733323 0.32467660 0.00370385 0.00000000
4.19734928 0.15931019 -0.00115491 0.00000000
3.43157062 1.46666722 0.00159970 0.00000000
0.42721865 0.22341336 -0.00405862 0.00000000
2.61646865 1.74871221 0.00130263 0.00000000
1.41643769 1.33683719 0.00291896 0.00000000
4.05945051 1.92867500 0.00193215 0.00000000
3.84119083 1.87168883 0.00187493 0.00000000
3.68734810 0.93890905 -0.00092583 0.00000000
0.63536204 0.75327599 0.00307819 0.00000000
1.92757028 0.92165058 0.00024098 0.00000000
2.94693620 0.36864810 0.00347028 0.00000000
3.00138907 0.85518219 0.00359657 0.00000000
0.36570520 0.22623034 -0.00201451 0.00000000
2.23416696 0.37063007 0.00061994 0.00000000
0.98571820 1.42140632 0.00125675 0.00000000
0.25248004 0.39438734 -0.00024715 0.00000000
0.18310615 0.06867348 0.00131081 0.00000000
1.38563942 0.16413125 0.00088594 0.00000000
3.25112603 1.48133128 -0.00188630 0.00000000
1.56303504 1.20358833 0.00289530 0.00000000
1.56450606 1.36520056 -0.00575561 0.00000000
2.01261772 0.27772275 0.00163422 0.00000000
1.55152599 0.84081489 -0.00284056 0.00000000
0.28733767 0.80855257 -0.00223294 0.00000000
2.68685679 1.48048384 0.00176518 0.00000000
4.07612297 0.08977201 -0.00132861 0.00000000
2.78702983 0.95497303 0.00019221 0.00000000
0.15488995 1.85515188 -0.00111428 0.00000000
0.23671702 1.88992480 -0.00099570 0.00000000
0.53665356 1.51497836 0.00224149 0.00000000
3.84976169 0.35863946 -0.00435052 0.00000000
4.30462613 0.55361477 0.00079842 0.00000000
3.80100406 1.10462714 -0.00049428 0.00000000
3.99959295 1.26553735 0.00536776 0.00000000
1.61416572 0.63414570 -0.00149233 0.00000000
1.74668700 0.02248017 -0.00434606 0.00000000
3.49932010 1.14527319 0.00049726 0.00000000
0.08894083 1.40531102 -0.00198600 0.00000000
1.35615712 0.85593389 -0.00039013 0.00000000
2.91202012 0.25974906 0.00090135 0.00000000
3.16778985 0.83206030 0.00094689 0.00000000
0.14251445 0.47289371 -0.00524988 0.00000000
1.74797300 1.89955837 0.00007981 0.00000000
1.87084778 0.02641139 -0.00069354 0.00000000
0.96226566 0.37047873 -0.00201525 0.00000000
3.87204494 0.59072111 -0.00242338 0.00000000
1.57145380 1.41880708 0.00225720 0.00000000
0.10009571 1.05689948 0.00290525 0.00000000
3.52758503 1.94847848 0.00059090 0.00000000
2.93165649 1.01183137 -0.00408869 0.00000000
0.52076163 1.20840090 0.00035683 0.00000000
1.27499020 1.28720764 0.00257692 0.00000000
2.29145871 1.23785915 -0.00155598 0.00000000
0.77443420 0.68138235 -0.00004796 0.00000000
3.03886071 1.64477905 0.00508171 0.00000000
2.25959795 0.25762074 0.00137613 0.00000000
1.61838558 0.76299514 0.00300087 0.00000000
1.89106082 0.88199613 0.00322820 0.00000000
0.97799099 0.78771278 0.00229818 0.00000000
2.36139887 1.32611985 0.00185513 0.00000000
3.77473825 1.28339067 0.00243346 0.00000000
2.92997123 1.29030006 -0.00207512 0.00000000
1.29475255 0.52876911 0.00008942 0.00000000
1.70816817 0.84333986 -0.00182647 0.00000000
3.42619787 0.51642247 0.00591093 0.00000000
1.20077561 1.10301850 -0.00165814 0.00000000
1.61391778 0.49435207 -0.00098417 0.00000000
0.32964169 1.79240948 0.00177645 0.00000000
0.51446484 0.26544710 0.00271261 0.00000000
3.61264183 0.94790762 0.00018161 0.00000000
0.29442000 1.07210741 -0.00125130 0.00000000
1.84279123 1.49901274 0.00427727 0.00000000
3.28176075 1.44220692 -0.00572012 0.00000000
3.62422716 0.06032704 -0.00140057 0.00000000
2.51111138 1.93813697 0.00305526 0.00000000
0.09847911 1.84372822 -0.00019950 0.00000000
2.72974272 1.94004335 -0.00105011 0.00000000
3.27381623 1.80737460 0.00187198 0.00000000
3.79448945 0.13554954 0.00185332 0.00000000
3.06019759 1.09543407 -0.00331878 0.00000000
1.44424908 0.76590122 0.00054859 0.00000000
1.11610772 0.97278480 0.00447035 0.00000000
2.61201446 0.21304363 -0.00070315 0.00000000
0.95006778 0.61256279 -0.00141505 0.00000000
0.50663570 0.87218092 0.00121636 0.00000000
2.66823416 0.78721218 -0.00019927 0.00000000
0.43495676 1.21745022 -0.00012634 0.00000000
0.01009145 1.06215378 0.00170873 0.00000000
4.23025189 0.21635640 -0.00032942 0.00000000
2.60084137 0.84998551 -0.00039662 0.00000000
3.49236997 0.04500638 -0.00357819 0.00000000
0.53332529 1.31569537 -0.00010843 0.00000000
0.02171992 0.49774403 -0.00001593 0.00000000
0.99846723 1.29205647 -0.00014046 0.00000000
3.67568414 1.43692153 -0.00316014 0.00000000
1.05496038 1.18881577 0.00306732 0.00000000
0.23297791 0.11071728 -0.00137923 0.00000000
2.44896019 0.18066227 -0.00206579 0.00000000
2.22657128 1.58338345 -0.00115180 0.00000000
2.97093934 0.08409287 0.00066634 0.00000000
3.03008820 1.64012345 0.00213246 0.00000000
1.20782514 0.77502248 -0.00192787 0.00000000
2.61749485 1.34584194 0.00090628 0.00000000
0.70790339 0.15293126 -0.00008793 0.00000000
3.99898675 0.81756792 -0.00385640 0.00000000
2.39151122 1.56287129 0.00026575 0.00000000
2.03188892 1.52745283 0.00067168 0.00000000
2.74582447 1.94452558 -0.00246967 0.00000000
2.04198814 0.50057840 -0.00352188 0.00000000
4.04919230 1.18632488 -0.00396130 0.00000000
3.98362271 0.61556059 -0.00193729 0.00000000
0.65408243 0.25675968 -0.00207195 0.00000000
0.15781707 1.34051328 0.00116352 0.00000000
1.57586156 1.21426146 0.00267758 0.00000000
3.42077462 1.23671872 0.00324512 0.00000000
0.29888864 0.04683350 0.00101560 0.00000000
3.80132618 1.26704634 -0.00286231 0.00000000
0.26824567 0.39489945 -0.00119292 0.00000000
3.81964024 0.71484917 -0.00044744 0.00000000
0.59434674 1.67458987 0.00611745 0.00000000
2.88707606 1.84696509 0.00019354 0.00000000
3.18908609 1.24720948 -0.00041606 0.00000000
4.04745018 0.67350549 0.00062744 0.00000000
0.78106250 0.52049909 0.00013652 0.00000000
1.10797294 0.44846681 -0.00181831 0.00000000
1.92735851 0.18910858 0.00145887 0.00000000
1.12024097 0.67865964 0.00534360 0.00000000
3.86107893 0.10903602 -0.00014682 0.00000000
1.81434702 0.28173869 -0.00451127 0.00000000
3.44741067 0.93397650 0.00461440 0.00000000
1.50184723 0.50591017 -0.00274648 0.00000000
4.05603245 0.96869221 0.00068817 0.00000000
3.05138888 1.74382134 -0.00025471 0.00000000
1.84518758 0.13015453 -0.00180158 0.00000000
2.41916021 1.96728282 0.00346911 0.00000000
3.62845627 1.11065509 0.00144435 0.00000000
3.26049581 0.50995685 0.00259421 0.00000000
1.47291238 0.62704145 -0.00358685 0.00000000
0.37599653 1.03075542 -0.00064289 0.00000000
0.80420118 1.65172929 -0.00397681 0.00000000
2.43075740 0.14404767 -0.00056727 0.00000000
1.58143400 0.88961589 -0.00187020 0.00000000
0.80528013 1.76247922 0.00284200 0.00000000
1.06569271 0.40914345 -0.00142870 0.00000000
4.22167338 1.55491529 0.00434469 0.00000000
2.29193668 0.90679720 0.00249975 0.00000000
2.72359923 1.19562151 -0.00093532 0.00000000
0.14907647 1.91546700 -0.00308622 0.00000000
3.04640334 1.31677548 0.00123194 0.00000000
1.44048839 0.51092362 0.00602786 0.00000000
1.08907519 0.77565923 0.00418146 0.00000000
4.05878135 0.05972541 0.00263717 0.00000000
2.29849258 1.99898465 0.00212199 0.00000000
3.43841108 0.33591117 0.00316010 0.00000000
3.23296721 0.89238617 0.00202400 0.00000000
0.98578577 1.66387668 -0.00260999 0.00000000
2.04112232 0.94877145 0.00340215 0.00000000
2.03202427 0.97972772 0.00130273 0.00000000
2.71780137 1.29259458 0.00190167 0.00000000
1.10371922 1.84623666 0.00381654 0.00000000
3.55742963 1.03045698 0.00340428 0.00000000
1.08519166 0.68711830 0.00141351 0.00000000
1.55409907 0.32589505 0.00046757 0.00000000
0.74743050 1.07843534 -0.00416213 0.00000000
3.76286159 0.08849672 -0.00251575 0.00000000
3.65641771 1.96090212 0.00181389 0.00000000
3.47487944 1.62280481 -0.00358327 0.00000000
2.65245584 1.87424074 -0.00242489 0.00000000
0.67139697 0.07132324 0.00295646 0.00000000
3.46341015 1.09758836 0.00189285 0.00000000
0.22271059 0.83750218 -0.00135926 0.00000000
3.89940051 1.34032373 -0.00470965 0.00000000
2.25275836 1.76653550 0.00168916 0.00000000
1.67666620 1.35372944 0.00031622 0.00000000
2.51758946 1.03300503 0.00556664 0.00000000
0.72679422 0.30195318 0.00016801 0.00000000
4.21876663 0.68635129 0.00154445 0.00000000
0.76245736 1.09244629 -0.00139036 0.00000000
0.23453814 0.01172199 0.00001928 0.00000000
1.22257881 0.33670518 -0.00208966 0.00000000
1.04208075 1.28640007 0.00179159 0.00000000
2.47777840 0.12811631 0.00048393 0.00000000
4.24029436 0.59034043 -0.00159551 0.00000000
3.90442422 0.25998553 0.00033372 0.00000000
0.72344063 0.92665872 -0.00153578 0.00000000
2.52442324 1.31197617 -0.00210540 0.00000000
2.25431924 0.12199135 -0.00249260 0.00000000
1.52152184 0.57509970 -0.00259272 0.00000000
4.05194351 0.14907791 -0.00311455 0.00000000
4.15619204 0.44912850 -0.00385786 0.00000000
0.17459952 0.29613560 -0.00185267 0.00000000
2.12151416 0.66311298 0.00259499 0.00000000
2.21560880 1.35514260 0.00118208 0.00000000
4.24005803 1.40582738 0.00602783 0.00000000
3.66575979 0.74796262 -0.00256141 0.00000000
4.24574578 0.96288597 0.00165660 0.00000000
1.57848352 1.60689488 -0.00206319 0.00000000
3.49164952 0.36442100 -0.00088195 0.00000000
2.55488615 1.96879777 -0.00285192 0.00000000
0.27539343 0.57364235 -0.00023478 0.00000000
2.67953358 1.57163907 0.00089044 0.00000000
3.19243211 0.35943088 0.00367717 0.00000000
3.33274094 1.29043875 0.00047393 0.00000000
2.14021104 0.21306413 0.00008792 0.00000000
2.67361685 1.42794219 0.00267075 0.00000000
1.59659766 1.26602482 -0.00270154 0.00000000
3.39181064 0.24962815 0.00450221 0.00000000
0.23542978 1.83424825 -0.00085666 0.00000000
3.30360675 1.59639160 0.00277442 0.00000000
1.80117392 0.32817186 -0.00283093 0.00000000
0.94949687 1.86457664 0.00252715 0.00000000
0.30334165 1.78448323 -0.00065198 0.00000000
0.17313871 1.35544644 0.00069645 0.00000000
3.30656249 1.45053163 0.00009626 0.00000000
1.21351673 0.97313843 0.00337287 0.00000000
0.01894903 1.50561648 0.00479633 0.00000000
0.03310342 0.72406373 0.00026825 0.00000000
