0.03330005 1.95928324 -0.00140047 0.00000000
1.50289748 2.10306540 0.00304304 0.00000000
0.15160761 0.91551952 0.00033090 0.00000000
2.98065133 0.13947052 -0.00068644 0.00000000
3.05339952 1.56494704 0.00068047 0.00000000
3.01861114 0.84590493 0.00168185 0.00000000
0.68288367 1.51989342 -0.00238194 0.00000000
1.25143139 1.31363349 -0.00532770 0.00000000
1.98696877 1.23570957 -0.00419386 0.00000000
1.43514859 0.55383657 0.00264877 0.00000000
2.03335343 1.15847291 0.00306199 0.00000000
2.98231982 0.05289174 -0.00190428 0.00000000
1.18868018 1.45435684 -0.00313737 0.00000000
0.92239448 0.95102654 0.00294070 0.00000000
0.02421617 1.10907452 -0.00048018 0.00000000
0.79329800 0.96023285 -0.00243418 0.00000000
3.50368482 1.59415189 0.00182436 0.00000000
0.47356208 1.45241018 0.00162423 0.00000000
0.25413601 0.20370408 -0.00203422 0.00000000
3.68748295 0.46220077 0.00036910 0.00000000
2.50356586 2.03279688 -0.00060262 0.00000000
1.91577273 1.76080053 0.00610382 0.00000000
0.42749531 0.89111317 0.00139591 0.00000000
1.71388929 0.51844142 0.00016426 0.00000000
0.67421846 1.94448700 0.00265906 0.00000000
3.20121971 0.32708297 0.00600513 0.00000000
4.25635495 0.62010625 -0.00139437 0.00000000
0.77857331 1.63862138 0.00110684 0.00000000
3.17688898 0.24775266 0.00063424 0.00000000
3.83613419 2.09726162 -0.00127692 0.00000000
1.50668820 1.12568015 0.00003365 0.00000000
2.09876782 2.09870321 -0.00022400 0.00000000
2.67139240 0.93578796 0.00312154 0.00000000
0.39106098 1.19561064 0.00015272 0.00000000
3.27918968 1.99873954 0.00070771 0.00000000
4.07045646 1.54165986 0.00036876 0.00000000
3.14908586 0.81064793 0.00299995 0.00000000
0.16649334 0.84422931 -0.00501840 0.00000000
2.43428602 1.61396474 -0.00330055 0.00000000
0.91627306 1.01405735 0.00290935 0.00000000
3.74047192 1.86388055 -0.00472534 0.00000000
3.80400588 0.86900273 0.00281758 0.00000000
0.47643283 0.82864949 -0.00065188 0.00000000
2.03554079 0.56876029 -0.00173180 0.00000000
1.53870533 1.66393850 -0.00091660 0.00000000
0.88109075 1.49717079 0.00011250 0.00000000
0.33095671 1.22725158 0.00349809 0.00000000
2.48208718 1.16165327 -0.00138422 0.00000000
0.00155307 0.45880962 -0.00030745 0.00000000
3.81507035 1.89794094 0.00187077 0.00000000
1.25434058 1.33237850 0.00234645 0.00000000
2.17944295 0.04377659 -0.00197942 0.00000000
3.70738594 1.94326490 0.00275457 0.00000000
2.94799912 0.66858390 0.00541074 0.00000000
3.56173204 1.70271625 -0.00272592 0.00000000
2.04158171 0.90762451 -0.00127000 0.00000000
2.14530821 0.27644465 -0.00186103 0.00000000
2.10501751 0.33025993 0.00238803 0.00000000
0.34804963 0.71230445 -0.00137328 0.00000000
3.06528260 0.57022081 0.00175749 0.00000000
1.35158809 0.44167402 0.00187682 0.00000000
1.37204985 0.73784654 0.00346968 0.00000000
4.03424229 1.96774230 0.00099593 0.00000000
3.79342761 1.30453706 0.00118945 0.00000000
3.93259214 0.58396947 -0.00113457 0.00000000
2.95920506 1.89372065 -0.00107500 0.00000000
1.70644864 0.77494111 0.00183111 0.00000000
1.63664104 1.67580210 -0.00381964 0.00000000
3.16210467 0.16970301 -0.00590026 0.00000000
1.81373696 0.26117159 -0.00303457 0.00000000
3.17612631 1.17483891 0.00292575 0.00000000
1.58893527 0.40758962 -0.00346834 0.00000000
0.77429947 0.73206997 0.00035926 0.00000000
2.89400210 0.30187558 -0.00199895 0.00000000
0.22130977 1.64047013 0.00006653 0.00000000
4.01651905 1.56645463 0.00315321 0.00000000
1.47303444 1.86506618 0.00425128 0.00000000
0.83502848 0.49122235 -0.00081829 0.00000000
2.74052464 1.36861485 -0.00107240 0.00000000
4.16197033 0.26225956 0.00360323 0.00000000
3.19167899 0.61764950 -0.00039984 0.00000000
0.70275739 2.06533479 -0.00121433 0.00000000
1.52688002 1.29554557 -0.00135485 0.00000000
3.27546631 0.64547702 -0.00315898 0.00000000
1.25390733 1.58231797 -0.00101129 0.00000000
0.01870323 1.64160956 0.00421374 0.00000000
3.62191167 0.34857190 -0.00119965 0.00000000
4.05838562 0.55455490 -0.00250342 0.00000000
2.07583873 2.07634913 -0.00096393 0.00000000
2.07589491 1.46671369 0.00078084 0.00000000
3.23574977 0.14051201 -0.00095239 0.00000000
1.81610596 0.41126794 -0.00344687 0.00000000
2.82630743 1.66728842 0.00104082 0.00000000
2.34321850 1.77451325 0.00205515 0.00000000
2.14241459 1.69509046 -0.00143489 0.00000000
1.49455682 0.04181545 0.00068294 0.00000000
2.89181981 0.13216369 0.00399200 0.00000000
3.75972378 1.89313887 0.00067683 0.00000000
3.65907352 0.36762915 0.00132219 0.00000000
1.07333101 1.73904328 -0.00315920 0.00000000
2.55821777 0.33664434 0.00076751 0.00000000
3.45673467 1.37300084 0.00270608 0.00000000
1.23755023 1.82177155 -0.00318972 0.00000000
1.54627853 0.40066563 -0.00053258 0.00000000
0.27381841 1.93308634 -0.00213222 0.00000000
2.75223486 0.70649762 0.00031118 0.00000000
2.24451271 1.65069308 0.00463055 0.00000000
1.38068800 1.18341448 0.00157007 0.00000000
3.84766979 0.66970358 -0.00334871 0.00000000
1.26611805 0.11812002 -0.00051123 0.00000000
3.22358837 2.04820265 -0.00216082 0.00000000
0.92584389 1.01449608 0.00333764 0.00000000
2.29865870 1.64225312 0.00131725 0.00000000
0.76126726 0.35290442 0.00368303 0.00000000
2.17303301 0.75408220 0.00071240 0.00000000
2.93488488 1.24721636 0.00213627 0.00000000
0.32642204 1.34104590 0.00228197 0.00000000
4.25069746 1.53321207 0.00049476 0.00000000
0.12012108 1.32198983 0.00072240 0.00000000
0.51754270 1.81262616 0.00428921 0.00000000
0.78072516 0.28310877 -0.00133227 0.00000000
0.15504469 0.20078759 0.00269970 0.00000000
3.40040666 0.12490856 -0.00244893 0.00000000
0.86278625 0.21696054 -0.00268757 0.00000000
2.82638145 0.91199111 0.00305485 0.00000000
3.28885219 0.04505518 0.00345452 0.00000000
1.10819897 2.09168724 -0.00177489 0.00000000
3.76892442 1.62966117 -0.00406558 0.00000000
3.07450882 0.97992900 -0.00130867 0.00000000
0.89761669 1.28797465 0.00092813 0.00000000
4.07378699 0.66038429 -0.00087779 0.00000000
1.36216909 1.36790989 -0.00030405 0.00000000
3.36740900 0.85424659 -0.00096819 0.00000000
1.70082229 1.41629093 0.00155168 0.00000000
3.35688926 1.15785892 -0.00014589 0.00000000
3.76044961 0.31682935 -0.00250015 0.00000000
1.50244115 1.28038619 0.00325320 0.00000000
0.15235327 1.01688757 -0.00157937 0.00000000
3.17099279 0.82350924 -0.00275821 0.00000000
0.73852116 2.10121090 -0.00291825 0.00000000
0.03319494 0.68772643 -0.00261877 0.00000000
3.08662639 0.12115635 -0.00103789 0.00000000
0.32566790 0.08405888 0.00174739 0.00000000
1.02195207 1.38776889 0.00412320 0.00000000
3.90178845 1.14853364 0.00238155 0.00000000
2.68883265 1.87726705 -0.00294659 0.00000000
3.78572493 0.74844502 0.00112769 0.00000000
3.23926215 0.96287224 0.00342247 0.00000000
3.24065745 0.01295781 0.00251735 0.00000000
3.51011639 1.67188903 0.00051770 0.00000000
0.80821639 1.90416793 0.00106125 0.00000000
1.27853719 1.22341929 0.00091275 0.00000000
3.99173422 0.30276102 0.00124676 0.00000000
2.42723092 1.25044087 -0.00067102 0.00000000
0.01434796 1.40064216 0.00177943 0.00000000
1.79766535 0.57514153 0.00408657 0.00000000
3.80609627 0.80353166 0.00167640 0.00000000
0.89227376 1.27799040 0.00087217 0.00000000
2.83181712 1.69040050 0.00244198 0.00000000
4.08860929 0.84024075 -0.00103653 0.00000000
2.13577847 1.26701682 0.00061887 0.00000000
3.46627442 1.66160612 0.00506560 0.00000000
3.09705748 0.46184534 0.00210988 0.00000000
1.58067102 1.49146968 0.00313327 0.00000000
0.29342306 0.06391148 -0.00107940 0.00000000
0.24133856 1.97613592 0.00183599 0.00000000
3.88038471 0.92034673 -0.00224310 0.00000000
1.62693818 0.99317483 0.00020789 0.00000000
0.55518084 0.42195579 0.00090009 0.00000000
3.77022128 1.07882425 0.00035399 0.00000000
3.45542795 1.65524845 -0.00335213 0.00000000
0.64778863 1.28580272 0.00277017 0.00000000
3.85966647 2.06078637 0.00364608 0.00000000
1.87548845 1.22564970 -0.00031032 0.00000000
2.39459120 0.71211134 -0.00104522 0.00000000
3.18360391 0.09135156 0.00148044 0.00000000
4.16856386 0.98582678 -0.00226627 0.00000000
3.16215103 1.44944327 -0.00044794 0.00000000
2.32790074 1.93809546 -0.00094442 0.00000000
0.87333940 1.96550322 0.00272377 0.00000000
0.05532241 0.77184678 0.00160950 0.00000000
3.08839639 1.20132812 0.00628070 0.00000000
2.04076360 0.39842373 -0.00244607 0.00000000
1.29797023 1.95740155 0.00067049 0.00000000
2.98231680 0.42945601 0.00258998 0.00000000
3.70201125 1.18643740 -0.00105196 0.00000000
3.35857138 0.28740101 0.00411184 0.00000000
0.52767126 1.40919784 0.00037109 0.00000000
2.44831417 0.32275045 -0.00488302 0.00000000
1.88271569 0.72197226 0.00036587 0.00000000
1.57423519 0.60285352 -0.00043640 0.00000000
0.56705861 1.47388692 0.00130058 0.00000000
2.42724322 0.80249225 0.00003253 0.00000000
1.65932629 1.42424255 0.00491726 0.00000000
0.26078580 0.81397423 -0.00401132 0.00000000
1.66347488 0.06756221 -0.00238818 0.00000000
1.62309416 1.87996106 -0.00198090 0.00000000
3.95613690 1.23031071 -0.00150898 0.00000000
3.80544287 0.53254816 -0.00354572 0.00000000
2.41936361 0.00560017 0.00113857 0.00000000
2.56632167 1.57196624 -0.00204745 0.00000000
4.00665390 1.17888736 -0.00076974 0.00000000
3.17001159 1.40195593 -0.00162871 0.00000000
3.44742485 0.50328472 -0.00006961 0.00000000
3.78155467 0.88238280 -0.00083660 0.00000000
3.87964455 1.33278761 -0.00232806 0.00000000
3.85008423 0.75389188 -0.00028298 0.00000000
3.69937354 1.18959343 0.00464511 0.00000000
1.43320803 1.53927265 -0.00246038 0.00000000
0.83749440 0.88842327 -0.00172532 0.00000000
4.21730667 0.40795540 -0.00332237 0.00000000
1.21219685 1.06154213 0.00090997 0.00000000
2.44763423 0.01622665 0.00170356 0.00000000
2.36891508 1.24621015 0.00079463 0.00000000
4.15475155 1.59209126 -0.00474508 0.00000000
0.67123381 0.87534731 0.00038866 0.00000000
1.29796964 0.84660016 -0.00267603 0.00000000
0.41979628 0.04460567 -0.00018759 0.00000000
1.04089177 0.32665507 -0.00235870 0.00000000
4.01849176 1.64090907 -0.00071647 0.00000000
3.31068975 1.82352583 -0.00079289 0.00000000
3.66742659 0.40910160 -0.00415503 0.00000000
3.15325966 1.53102059 0.00151780 0.00000000
4.09104818 0.72542053 0.00085717 0.00000000
1.14852539 0.19720777 -0.00064796 0.00000000
0.12791909 0.62026080 0.00020884 0.00000000
2.53828215 1.57882615 -0.00035772 0.00000000
1.96325386 0.33867434 -0.00198943 0.00000000
0.33657430 0.84412757 0.00078765 0.00000000
3.16536292 1.38775694 0.00175263 0.00000000
0.13470366 1.57016953 0.00042533 0.00000000
0.49346688 0.03407807 -0.00269876 0.00000000
1.17034556 1.73137728 0.00210269 0.00000000
1.99565722 0.19760689 -0.00088479 0.00000000
0.01528475 0.79147531 -0.00116868 0.00000000
2.75072432 1.87377551 -0.00082766 0.00000000
2.04909774 1.21747204 -0.00355374 0.00000000
3.21289931 1.47426302 0.00019346 0.00000000
2.41475964 1.01619541 -0.00265964 0.00000000
1.18433701 0.59114453 -0.00163275 0.00000000
0.92004568 0.45149577 -0.00034156 0.00000000
2.80448184 0.42155320 0.00535403 0.00000000
2.67804037 0.34493487 -0.00025479 0.00000000
2.08180040 1.31690712 -0.00231360 0.00000000
1.66332589 0.53700414 -0.00011231 0.00000000
1.96449266 0.12020744 -0.00113013 0.00000000
2.35763056 1.28806228 0.00141123 0.00000000
3.06570835 0.36946316 0.00682393 0.00000000
3.75822218 0.92168166 -0.00169349 0.00000000
2.10143193 0.43505317 -0.00374679 0.00000000
2.54913219 0.26890765 -0.00361718 0.00000000
3.18902254 0.67727768 0.00376420 0.00000000
0.83728571 0.44476159 0.00286113 0.00000000
0.62660463 1.13910286 0.00486496 0.00000000
3.30267298 1.54614568 0.00173182 0.00000000
4.13369417 0.47853089 -0.00399058 0.00000000
2.80543028 1.72885756 0.00228673 0.00000000
1.61692419 1.01409015 0.00210942 0.00000000
0.28535931 0.01181379 -0.00225304 0.00000000
0.00824968 0.54394470 -0.00269387 0.00000000
0.60192474 0.52124533 -0.00049671 0.00000000
2.07737665 1.49624359 -0.00214596 0.00000000
0.38781063 1.63632886 -0.00131956 0.00000000
0.36235177 1.38510004 -0.00102336 0.00000000
2.11503327 1.62390015 -0.00036947 0.00000000
1.64144231 1.41118625 -0.00076541 0.00000000
3.45381016 0.60152111 0.00277422 0.00000000
2.33947318 0.24889777 0.00161722 0.00000000
3.61331289 0.61686727 0.00075179 0.00000000
1.51971798 1.32834434 -0.00151318 0.00000000
2.54877338 1.94799383 0.00388014 0.00000000
2.31826098 0.50102679 -0.00221274 0.00000000
2.04675674 0.48039415 0.00125713 0.00000000
1.86846095 0.02942042 -0.00016839 0.00000000
4.22619379 1.72126074 -0.00027372 0.00000000
2.83755569 0.41876233 0.00044681 0.00000000
2.33199572 1.85232735 0.00520097 0.00000000
3.23886144 0.38818843 -0.00194107 0.00000000
2.95524913 0.88779403 -0.00180102 0.00000000
1.97000944 1.24935370 0.00159895 0.00000000
3.33326508 1.22910338 -0.00297982 0.00000000
1.14452203 1.52526956 -0.00078187 0.00000000
3.89355237 1.51864867 -0.00040931 0.00000000
3.08436602 0.63400047 0.00260483 0.00000000
0.60621452 1.60600988 -0.00146917 0.00000000
3.68925091 0.41532055 -0.00147679 0.00000000
3.75152117 0.12395089 -0.00009627 0.00000000
3.67997065 0.87430588 0.00248060 0.00000000
4.23104106 0.35867238 -0.00241218 0.00000000
0.11871938 0.79588936 0.00159868 0.00000000
3.45426587 0.92620707 -0.00079412 0.00000000
2.73514222 1.25509171 -0.00284249 0.00000000
1.17004494 0.79853864 0.00226623 0.00000000
0.43534610 0.69367820 -0.00455921 0.00000000
1.17249012 1.80665128 -0.00156335 0.00000000
0.27418487 1.54184429 -0.00004899 0.00000000
3.91751674 2.10907668 0.00090998 0.00000000
0.57442175 1.85264362 0.00022718 0.00000000
2.33566328 1.13894749 -0.00229014 0.00000000
0.31025795 1.28885116 -0.00291244 0.00000000
1.49328228 1.34399827 -0.00440098 0.00000000
0.88410705 0.19035114 -0.00057824 0.00000000
2.26679392 1.46956853 0.00598068 0.00000000
3.90877729 1.86556004 -0.00045104 0.00000000
2.86294074 1.44901087 -0.00105417 0.00000000
0.62829708 2.09119876 0.00397296 0.00000000
2.55760475 1.46287850 -0.00136798 0.00000000
3.90112497 1.46178399 -0.00040803 0.00000000
2.83674859 1.11238842 0.00241306 0.00000000
2.55655934 1.09204642 0.00136052 0.00000000
2.88025287 1.32639635 0.00060105 0.00000000
2.19423770 0.79083381 0.00164644 0.00000000
3.76517727 0.10598925 0.00234062 0.00000000
3.29561411 1.35953881 -0.00307929 0.00000000
0.33279833 2.09059218 0.00006872 0.00000000
1.59720691 1.27362127 0.00323305 0.00000000
3.54496315 1.55711395 -0.00483524 0.00000000
0.69289752 2.10779104 0.00264907 0.00000000
1.76934624 0.83975141 -0.00221976 0.00000000
0.78608721 0.70349943 0.00132454 0.00000000
0.58651212 1.72948766 -0.00198660 0.00000000
1.20638736 1.72392180 0.00427772 0.00000000
2.81096885 0.40487630 0.00073636 0.00000000
2.32409302 1.76304916 -0.00184623 0.00000000
3.31219977 1.46260024 0.00266747 0.00000000
1.61968833 0.36797658 0.00496976 0.00000000
3.97792044 0.76787525 -0.00140931 0.00000000
4.10471309 1.13011388 -0.00008074 0.00000000
2.26042756 0.59252185 -0.00105029 0.00000000
2.47638216 0.60744707 0.00118591 0.00000000
1.41505566 0.88629212 -0.00036079 0.00000000
0.86373154 0.59156860 0.00031343 0.00000000
3.19734372 1.37382939 -0.00169572 0.00000000
3.67984466 0.24682885 -0.00146074 0.00000000
2.60022539 1.62458057 -0.00330094 0.00000000
0.82239119 1.23579091 -0.00283211 0.00000000
2.60988896 2.10470788 -0.00390429 0.00000000
2.95745686 1.35467803 0.00111222 0.00000000
0.23836463 1.80423070 0.00121076 0.00000000
1.77000504 1.58767365 -0.00290052 0.00000000
2.81482685 2.00124182 -0.00237995 0.00000000
3.60477272 0.10037466 0.00090776 0.00000000
2.83852582 0.13722970 0.00149470 0.00000000
1.51777451 0.85839677 -0.00430863 0.00000000
3.98423457 1.40563796 -0.00316638 0.00000000
0.13491165 1.83041537 0.00082179 0.00000000
0.70981278 1.94758461 -0.00056228 0.00000000
3.32898131 0.52019558 0.00448127 0.00000000
1.72156389 2.09436502 0.00383422 0.00000000
1.26507956 0.10559662 0.00273842 0.00000000
3.15014067 0.80712266 0.00116140 0.00000000
2.12387733 0.82969989 -0.00126162 0.00000000
3.06501526 1.24980162 0.00114627 0.00000000
0.20468585 1.88869465 -0.00373983 0.00000000
0.66614454 1.21608931 0.00202971 0.00000000
2.49592608 1.40765385 -0.00024982 0.00000000
4.11558228 1.32088266 -0.00066580 0.00000000
0.70366426 1.51691795 -0.00467745 0.00000000
1.43119200 1.53161367 0.00069645 0.00000000
4.22176929 0.11188723 0.00562581 0.00000000
1.49630669 1.19178479 -0.00424604 0.00000000
2.23662589 0.29527440 0.00213586 0.00000000
0.11193848 0.37166043 -0.00109156 0.00000000
1.83690255 0.48692474 0.00072146 0.00000000
3.65987819 2.08466608 0.00224455 0.00000000
2.18190902 1.70330933 0.00190440 0.00000000
1.31353320 1.84803366 0.00086297 0.00000000
0.24036996 1.01792056 0.00281307 0.00000000
4.13592186 0.48838864 0.00412961 0.00000000
3.42941064 1.70406099 0.00013774 0.00000000
0.41728629 1.64748449 -0.00108962 0.00000000
0.85025528 1.26113744 0.00178144 0.00000000
1.75907815 0.44228970 -0.00022606 0.00000000
0.08670775 0.69969145 -0.00108809 0.00000000
0.18863564 2.00361835 -0.00062227 0.00000000
2.01149167 1.26031054 -0.00237146 0.00000000
1.00156698 1.18003841 -0.00157396 0.00000000
1.25665699 1.08012385 -0.00086606 0.00000000
0.87211365 0.49572848 -0.00263396 0.00000000
2.76694725 0.86318875 -0.00009380 0.00000000
2.10742482 1.47602046 0.00589473 0.00000000
4.23475348 1.31792590 0.00100529 0.00000000
3.63492974 1.69043710 -0.00310180 0.00000000
2.64781978 0.15198036 -0.00716625 0.00000000
3.29580751 1.18639941 -0.00059570 0.00000000
2.24739405 1.51091247 -0.00360446 0.00000000
3.54734068 1.15723415 -0.00471977 0.00000000
1.60256932 0.79424870 -0.00327116 0.00000000
1.61686675 0.12865252 0.00083230 0.00000000
0.02495345 2.03996278 0.00133681 0.00000000
4.28939675 1.66779767 -0.00037308 0.00000000
2.08534417 0.42892390 0.00248807 0.00000000
1.00715139 1.45748405 -0.00629602 0.00000000
1.56821081 0.64795400 0.00028876 0.00000000
1.07140813 1.56894952 -0.00171641 0.00000000
0.35334721 1.63293942 0.00282989 0.00000000
3.90550328 2.02816244 0.00093393 0.00000000
2.20994800 1.68013616 0.00059422 0.00000000
2.41863234 1.78089779 0.00107546 0.00000000
1.39957664 1.64862587 0.00118244 0.00000000
2.01757456 1.76914370 0.00348979 0.00000000
0.75921855 0.32081885 -0.00088322 0.00000000
1.78537644 0.40620673 -0.00263600 0.00000000
0.62173776 0.16039388 -0.00095628 0.00000000
0.25831323 2.00289157 0.00173930 0.00000000
0.76605435 1.58992930 -0.00262223 0.00000000
3.91526066 0.72993470 -0.00074074 0.00000000
1.84642864 1.97506138 0.00052094 0.00000000
1.72059367 0.08025666 -0.00126502 0.00000000
3.10367362 1.06267350 0.00130442 0.00000000
3.09236847 1.98536275 0.00015432 0.00000000
1.84476830 0.81279236 -0.00548296 0.00000000
1.81662947 0.30100480 -0.00347393 0.00000000
2.64797843 0.46083496 0.00334813 0.00000000
1.78449501 0.10800392 -0.00375525 0.00000000
2.85817868 0.55656773 -0.00194328 0.00000000
0.31952585 0.22510989 0.00325724 0.00000000
1.34446890 1.47149742 0.00126865 0.00000000
1.20444868 1.28634240 -0.00376061 0.00000000
3.52748239 0.66776693 -0.00022931 0.00000000
2.35870582 0.45703405 0.00103846 0.00000000
2.73707478 1.45948064 0.00214316 0.00000000
2.81941971 1.48428170 0.00029338 0.00000000
3.98453935 1.50801318 0.00366308 0.00000000
3.63897905 1.44540206 -0.00341653 0.00000000
2.88143873 0.25047658 0.00137737 0.00000000
2.30571323 0.76497107 -0.00182672 0.00000000
2.77542766 1.42064018 -0.00190057 0.00000000
2.67045745 0.04594210 0.00183229 0.00000000
3.94559617 2.09578221 -0.00147600 0.00000000
0.01170648 1.51406228 -0.00511843 0.00000000
2.11866336 0.01246662 -0.00481405 0.00000000
3.87766589 1.85032882 -0.00035845 0.00000000
1.28161219 1.61244449 0.00115666 0.00000000
3.31753400 0.90009374 -0.00101772 0.00000000
3.15523975 1.93573476 -0.00263243 0.00000000
1.54794278 1.58256092 0.00147716 0.00000000
2.64783167 1.33231071 0.00092700 0.00000000
1.16354636 1.47513518 -0.00025061 0.00000000
2.48565450 0.33983230 0.00258506 0.00000000
1.74015312 0.84153588 0.00005822 0.00000000
3.90857309 0.14200739 -0.00181902 0.00000000
3.60474157 1.92050404 0.00149199 0.00000000
3.14679622 0.43654574 0.00333562 0.00000000
0.09026275 2.08979272 0.00056454 0.00000000
1.14573261 1.73150000 0.00323667 0.00000000
3.04431167 0.71173343 -0.00175376 0.00000000
2.16613027 0.02135332 -0.00086359 0.00000000
3.02758172 1.60122818 -0.00401285 0.00000000
0.22884201 1.64696692 0.00068812 0.00000000
1.61594464 1.64135023 0.00261077 0.00000000
3.62575030 0.64256731 0.00004716 0.00000000
0.23139832 1.71217448 0.00204328 0.00000000
1.15353825 1.78098617 0.00030159 0.00000000
2.37170927 1.89530352 0.00478427 0.00000000
0.67069411 1.88820935 0.00564756 0.00000000
1.30838580 0.79431674 -0.00481661 0.00000000
1.59489334 1.35185142 0.00149711 0.00000000
4.13728205 0.58321467 -0.00034285 0.00000000
1.60143557 1.52803235 0.00131182 0.00000000
0.66334456 1.81260166 -0.00129295 0.00000000
2.74448227 1.29592835 0.00348604 0.00000000
0.61270784 0.80139705 -0.00316577 0.00000000
4.19224397 1.27430455 0.00278870 0.00000000
4.06338965 1.41299328 0.00032003 0.00000000
0.44600259 0.93842624 0.00196691 0.00000000
2.63877267 1.26309269 0.00280485 0.00000000
2.43768160 0.38898755 0.00317243 0.00000000
2.75598200 0.65654721 0.00169041 0.00000000
1.98779807 1.04924068 -0.00377668 0.00000000
0.71283961 0.77570958 0.00008051 0.00000000
2.58211070 0.34547543 0.00122814 0.00000000
3.16208445 0.56957771 0.00390998 0.00000000
2.61565817 0.64211777 -0.00193657 0.00000000
0.74161203 1.03214519 0.00059525 0.00000000
1.31755370 1.98634916 0.00150800 0.00000000
4.03552055 1.12539675 0.00310586 0.00000000
2.53021081 0.23294987 0.00239538 0.00000000
2.99142083 1.58635955 0.00331434 0.00000000
0.40962621 0.46624461 -0.00079224 0.00000000
3.63464065 0.75002256 0.00051843 0.00000000
2.75262058 0.32772775 0.00078404 0.00000000
0.98648192 1.93130651 0.00297195 0.00000000
3.80221584 1.89899089 -0.00116058 0.00000000
3.89007726 0.53206000 0.00053603 0.00000000
3.28793759 1.98296358 -0.00121960 0.00000000
2.37142241 0.27654787 -0.00785047 0.00000000
1.66178009 0.63273440 0.00050244 0.00000000
2.43097457 1.94408371 -0.00003131 0.00000000
2.86876281 0.89263535 -0.00141716 0.00000000
1.44906654 1.38934588 0.00028203 0.00000000
4.01592408 1.96434476 -0.00055829 0.00000000
4.26955451 1.08902036 0.00190308 0.00000000
1.02298579 1.15452291 -0.00277596 0.00000000
2.10005785 0.54604586 0.00214458 0.00000000
0.48683551 0.16792219 0.00070780 0.00000000
3.34073900 0.18161739 -0.00254568 0.00000000
1.97253229 1.93333269 -0.00459094 0.00000000
2.10434108 1.26548681 -0.00251316 0.00000000
1.10051816 0.96827750 -0.00240826 0.00000000
1.00311673 0.65798702 0.00228147 0.00000000
1.88638189 1.36384717 -0.00176926 0.00000000
1.60975554 0.20401540 0.00052263 0.00000000
1.46602649 1.95345842 -0.00141778 0.00000000
3.04092129 1.19766651 -0.00144598 0.00000000
3.65756759 1.27321791 -0.00276580 0.00000000
1.76499032 0.83846894 0.00743733 0.00000000
4.03788570 1.17811064 -0.00182971 0.00000000
0.01250273 0.20200009 -0.00155214 0.00000000
2.96904091 1.90454255 -0.00104209 0.00000000
2.56862357 0.60038008 -0.00177925 0.00000000
1.40799372 1.16968345 0.00147085 0.00000000
1.61641443 0.40231479 0.00258845 0.00000000
2.62703738 1.15028217 -0.00591169 0.00000000
0.32905774 0.26701256 0.00060326 0.00000000
3.23816075 1.05285135 -0.00031561 0.00000000
1.28774657 1.79446007 -0.00286069 0.00000000
3.62897426 1.45362816 -0.00422846 0.00000000
2.29406078 0.72598437 -0.00322469 0.00000000
3.14576066 0.70513113 -0.00064852 0.00000000
3.39674300 1.19352973 0.00029211 0.00000000
3.21054207 1.48245055 0.00226825 0.00000000
3.00938333 0.55997148 -0.00151658 0.00000000
2.08843797 1.60813884 -0.00376120 0.00000000
1.02384435 1.43003561 0.00065011 0.00000000
2.76788297 0.14232550 0.00176386 0.00000000
2.33341727 1.79413013 0.00244937 0.00000000
4.11775972 0.58443250 -0.00179387 0.00000000
0.18684218 0.37183947 0.00083617 0.00000000
2.17515868 1.97528883 -0.00107914 0.00000000
0.78562295 1.75031678 0.00388152 0.00000000
2.41188049 0.74479532 0.00094817 0.00000000
2.58408526 1.85978433 0.00133809 0.00000000
1.17535996 2.09702162 0.00375871 0.00000000
2.44027294 1.78685037 -0.00154455 0.00000000
3.95288777 1.58698534 -0.00119995 0.00000000
2.05852288 0.43637674 0.00243644 0.00000000
0.87472618 2.06997198 0.00026301 0.00000000
2.03668974 0.70474007 0.00144586 0.00000000
2.81351523 0.73293285 0.00064110 0.00000000
1.27462156 0.64467147 -0.00058505 0.00000000
3.82444553 0.83738452 -0.00342124 0.00000000
1.91212601 0.33087658 0.00176372 0.00000000
2.01320024 1.63364853 -0.00019919 0.00000000
3.56077708 0.80252850 0.00082581 0.00000000
3.73169197 1.80817282 -0.00341220 0.00000000
4.19574347 1.11173474 -0.00057178 0.00000000
0.21741109 0.27726525 -0.00346322 0.00000000
0.60555487 0.37317654 0.00343820 0.00000000
1.06915210 0.26215205 -0.00090669 0.00000000
2.12320693 0.57340211 0.00215199 0.00000000
2.17662370 0.74691501 -0.00184441 0.00000000
1.68523741 0.83479683 -0.00079484 0.00000000
3.14021937 1.67439719 -0.00253814 0.00000000
2.88474015 1.89535431 -0.00028204 0.00000000
2.87710747 1.07564174 -0.00404380 0.00000000
2.63388387 0.06886045 -0.00543900 0.00000000
0.90774382 0.85327924 -0.00119469 0.00000000
1.44339600 0.82094742 0.00179741 0.00000000
3.97343813 1.25957039 -0.00076782 0.00000000
1.52084687 0.00611935 -0.00081334 0.00000000
1.03446554 0.22118970 -0.00106191 0.00000000
2.10427645 1.55588982 0.00020921 0.00000000
2.70935684 1.10006666 0.00457805 0.00000000
1.04609987 0.58664415 0.00083512 0.00000000
3.39940701 1.43750287 -0.00381500 0.00000000
2.57121423 1.04893035 0.00018203 0.00000000
3.13723439 0.13859481 -0.00607533 0.00000000
2.10320214 0.70060406 0.00089555 0.00000000
1.91051185 0.97174217 -0.00195986 0.00000000
3.77823337 0.28516910 -0.00014350 0.00000000
1.33770124 1.62954590 0.00025725 0.00000000
3.94493637 1.55517317 0.00303082 0.00000000
0.66918226 1.95010542 0.00070998 0.00000000
0.75614793 0.53535236 -0.00074764 0.00000000
1.93496007 0.59247081 0.00126548 0.00000000
3.57934783 1.94022949 0.00108183 0.00000000
3.43888118 1.90930071 -0.00147563 0.00000000
0.53743444 1.23714109 -0.00011974 0.00000000
1.30275049 1.74357496 -0.00030923 0.00000000
1.78116736 1.36215819 0.00073659 0.00000000
0.45014685 1.16993977 -0.00020382 0.00000000
1.71017592 1.76506280 -0.00092164 0.00000000
1.04257628 0.43436952 -0.00040086 0.00000000
1.52097157 0.88357057 -0.00119472 0.00000000
1.15825810 1.15850486 -0.00044946 0.00000000
3.55640580 0.06811269 0.00012597 0.00000000
2.58267705 1.03330603 0.00347985 0.00000000
0.38907387 0.81024148 -0.00147630 0.00000000
0.32081661 1.83628730 0.00140516 0.00000000
0.09202696 0.14786453 0.00298900 0.00000000
3.95775704 1.54489103 0.00043946 0.00000000
3.43328053 1.33954139 0.00007269 0.00000000
3.76147226 0.19305239 -0.00230248 0.00000000
4.16225999 0.82066681 -0.00242938 0.00000000
3.55860104 1.91784959 0.00216781 0.00000000
3.42394590 0.38187645 0.00240637 0.00000000
0.46609191 0.91802885 0.00119291 0.00000000
2.51864835 1.21680300 -0.00197375 0.00000000
1.44771058 0.07701676 0.00447636 0.00000000
0.65116698 0.61858472 -0.00505294 0.00000000
3.11138370 0.87237840 0.00178354 0.00000000
1.19050121 1.07488565 0.00091527 0.00000000
0.89874912 1.76300910 -0.00119215 0.00000000
0.71951727 0.55620193 0.00616372 0.00000000
1.61011655 1.66726071 0.00019962 0.00000000
1.85549216 1.96220532 0.00017274 0.00000000
0.94717889 0.29760370 -0.00340292 0.00000000
3.37815414 1.11786048 -0.00048969 0.00000000
1.93964559 1.94205007 -0.00025333 0.00000000
0.01538752 0.84946939 -0.00209256 0.00000000
3.02611144 0.08598302 0.00189101 0.00000000
0.58571502 0.40272886 -0.00227677 0.00000000
1.97862736 0.02208976 -0.00227135 0.00000000
0.12520261 1.15987574 -0.00065853 0.00000000
0.43055972 1.53456881 0.00120281 0.00000000
0.31308282 1.90316775 0.00154276 0.00000000
3.35293218 0.66984717 -0.00104061 0.00000000
0.21087653 0.24953877 -0.00003205 0.00000000
2.12344133 0.75833529 -0.00230961 0.00000000
2.55920273 0.30653674 0.00187374 0.00000000
1.44955116 0.87959605 0.00187156 0.00000000
3.86971281 1.94750745 0.00035170 0.00000000
1.27622005 0.03525832 0.00277507 0.00000000
1.39460718 0.01204210 0.00190577 0.00000000
2.72036053 1.49577011 -0.00261159 0.00000000
3.97146640 0.46792650 -0.00073068 0.00000000
3.26556046 0.18722188 0.00103587 0.00000000
3.14642520 0.59049343 -0.00265335 0.00000000
0.50337797 1.71328891 -0.00050544 0.00000000
2.97212468 0.79957531 -0.00263744 0.00000000
0.66798032 1.60425829 -0.00165263 0.00000000
3.00961361 1.19367794 -0.00004615 0.00000000
0.94447508 1.06949664 -0.00208751 0.00000000
0.85698915 1.36842643 0.00031161 0.00000000
4.18895433 1.91940077 -0.00249676 0.00000000
3.33017777 1.10105845 0.00430751 0.00000000
0.98594760 1.17357213 0.00051886 0.00000000
3.03685111 1.05783903 -0.00220178 0.00000000
0.23134712 2.01039085 -0.00102129 0.00000000
2.94601984 0.99301181 0.00219746 0.00000000
2.41883100 0.11308151 0.00186960 0.00000000
0.43449977 1.13660254 -0.00208785 0.00000000
4.23925664 0.79919562 -0.00120114 0.00000000
1.39178563 0.67614034 -0.00029777 0.00000000
1.34285652 1.11377493 0.00194091 0.00000000
4.07442205 1.08984220 0.00168487 0.00000000
3.75683564 1.81335158 0.00107869 0.00000000
2.83316957 0.51120633 -0.00076133 0.00000000
2.40024053 1.58017547 -0.00324094 0.00000000
3.58310970 1.11877316 0.00053745 0.00000000
1.06724302 0.22401853 0.00116319 0.00000000
3.47055295 0.64616032 -0.00308291 0.00000000
3.17038921 0.78559271 -0.00072501 0.00000000
4.12040214 0.93318224 0.00342488 0.00000000
0.48006170 0.20482070 0.00166119 0.00000000
0.52203857 1.67087056 0.00327637 0.00000000
0.97728339 1.90296824 0.00122542 0.00000000
3.86789055 0.19942495 0.00046874 0.00000000
0.29586140 1.38078729 -0.00283575 0.00000000
3.71740151 0.44729152 -0.00091687 0.00000000
2.55673862 0.60530217 -0.00289094 0.00000000
1.58966074 1.58506907 0.00185296 0.00000000
1.71771652 0.53430378 -0.00109118 0.00000000
0.58978184 0.84977312 0.00049134 0.00000000
2.11052206 0.58292462 -0.00010509 0.00000000
0.74110656 1.24246671 0.00246322 0.00000000
2.96718635 1.54188096 0.00124991 0.00000000
2.11874958 1.72567492 0.00093144 0.00000000
3.28459559 0.15740786 0.00251807 0.00000000
0.68929109 1.02921365 0.00184417 0.00000000
0.92520011 2.07659501 0.00277054 0.00000000
2.76431500 0.68038085 -0.00106336 0.00000000
1.07915589 0.30808168 -0.00049902 0.00000000
0.87454986 0.08580013 -0.00026007 0.00000000
2.11271154 1.39384013 -0.00201827 0.00000000
3.41147427 0.92155647 -0.00267940 0.00000000
1.81015884 1.05910034 0.00247985 0.00000000
1.34260837 1.85781864 -0.00122283 0.00000000
0.74931250 1.98978013 -0.00073088 0.00000000
3.10480624 0.87667796 0.00542054 0.00000000
1.40196415 1.85289694 -0.00140238 0.00000000
1.66700721 1.42972310 0.00304067 0.00000000
3.23621652 0.98171837 0.00481992 0.00000000
3.31395047 2.03013222 0.00173640 0.00000000
3.64035996 0.04669400 -0.00163286 0.00000000
0.29532691 1.70099174 -0.00332496 0.00000000
2.73060828 1.79736488 -0.00196817 0.00000000
1.41784458 0.11231526 0.00013774 0.00000000
2.78293086 1.33795741 -0.00144524 0.00000000
3.46621802 0.25888003 -0.00201035 0.00000000
3.92466718 0.86261194 -0.00296409 0.00000000
1.43253430 0.98238625 0.00156788 0.00000000
4.19770683 1.03638726 -0.00130655 0.00000000
2.05675080 1.16733863 0.00142077 0.00000000
0.06673423 1.71496064 -0.00264805 0.00000000
1.80590379 1.33159685 0.00087018 0.00000000
1.33250132 0.89143947 0.00177383 0.00000000
1.88758680 0.24290260 -0.00371019 0.00000000
3.31895438 0.76047655 -0.00313740 0.00000000
0.48053572 1.44929985 0.00263483 0.00000000
0.98494139 0.31351664 -0.00077711 0.00000000
2.04960986 0.18473119 -0.00085308 0.00000000
3.06274083 1.86178956 0.00028202 0.00000000
3.19326789 0.15218634 0.00075813 0.00000000
1.96668693 0.52655796 0.00322194 0.00000000
4.07333182 1.92455606 -0.00264651 0.00000000
2.73294856 2.05772524 0.00004303 0.00000000
0.51547348 0.82719872 0.00177437 0.00000000
3.35261378 0.31292002 0.00458519 0.00000000
2.03813827 1.13651733 0.00132138 0.00000000
1.32179254 1.88906181 0.00231165 0.00000000
0.74747898 1.51243489 -0.00073923 0.00000000
3.65083040 1.09278599 -0.00633931 0.00000000
0.27679035 0.13259193 0.00290253 0.00000000
1.90102336 0.97872485 -0.00099552 0.00000000
0.31829126 0.83225829 0.00124656 0.00000000
2.63685124 2.09022007 0.00188601 0.00000000
0.08177491 0.98654962 0.00054677 0.00000000
0.60705997 0.74111948 -0.00023230 0.00000000
4.20963172 0.04982741 -0.00134594 0.00000000
2.77520674 0.87578291 -0.00154194 0.00000000
1.18604010 1.30523029 0.00327453 0.00000000
2.78215566 0.01192939 -0.00651660 0.00000000
0.77615364 1.31537824 0.00508094 0.00000000
0.46457673 1.80132634 -0.00292309 0.00000000
0.05483957 1.79892744 0.00313198 0.00000000
3.67514073 0.69480739 0.00228826 0.00000000
0.67106041 0.67230908 -0.00156341 0.00000000
3.02047833 0.69524211 0.00072238 0.00000000
2.47888653 0.87837657 -0.00087313 0.00000000
0.17429906 0.29224558 -0.00064277 0.00000000
3.19766179 1.06676145 0.00098935 0.00000000
1.48475736 1.85630448 0.00138089 0.00000000
3.94316750 1.99026237 -0.00112973 0.00000000
2.74684977 2.00800798 0.00186998 0.00000000
0.11638885 0.19842980 -0.00264873 0.00000000
2.54009157 1.86106433 0.00139011 0.00000000
2.11156638 1.05102489 0.00378274 0.00000000
1.30098272 0.36491800 0.00152269 0.00000000
2.28978197 0.78760012 0.00201902 0.00000000
3.27799001 1.39615208 0.00280610 0.00000000
2.33195674 0.36516118 0.00239847 0.00000000
1.37017771 0.22192614 0.00140562 0.00000000
2.67141184 1.09805621 -0.00134605 0.00000000
0.11025523 0.32562453 -0.00299701 0.00000000
3.87581815 1.90008061 -0.00229408 0.00000000
2.13111754 0.62214413 -0.00325190 0.00000000
0.56733902 0.12444444 -0.00379662 0.00000000
2.01857646 1.16066075 -0.00012005 0.00000000
3.47282895 1.58012757 -0.00109118 0.00000000
3.73643488 0.75835737 -0.00237915 0.00000000
1.06162857 1.75775669 0.00179264 0.00000000
0.62396866 0.29490531 -0.00039882 0.00000000
2.34054408 0.86262121 -0.00269645 0.00000000
2.94205338 1.56900153 -0.00263244 0.00000000
3.58141371 1.15106064 0.00123942 0.00000000
1.62475584 0.73589235 -0.00211652 0.00000000
3.36275319 0.61023678 0.00477818 0.00000000
1.79017122 0.70240152 -0.00227346 0.00000000
3.95099166 1.46688179 0.00025777 0.00000000
0.98200184 1.22303610 0.00067563 0.00000000
2.49325471 0.89036095 0.00596012 0.00000000
1.77731790 1.85580251 0.00229628 0.00000000
2.76794208 1.80310265 0.00594058 0.00000000
1.10316402 1.71686804 0.00109645 0.00000000
3.30428656 1.02639337 -0.00671068 0.00000000
4.24082136 1.84213713 0.00081116 0.00000000
2.05659121 0.81511341 0.00041913 0.00000000
2.86668767 1.75708569 0.00204940 0.00000000
3.43452215 1.06708246 -0.00285431 0.00000000
1.46516533 1.15971998 0.00396791 0.00000000
1.92216467 0.14416107 0.00462938 0.00000000
4.19904578 1.39976325 0.00097102 0.00000000
1.95731664 2.09868097 0.00238148 0.00000000
3.70287402 1.95012748 0.00061040 0.00000000
1.50863615 1.49533965 -0.00034086 0.00000000
2.41759111 0.27895634 0.00104703 0.00000000
3.03361785 1.52639989 0.00319367 0.00000000
0.14961059 0.99255849 0.00056899 0.00000000
3.55996568 1.18145118 -0.00037268 0.00000000
2.32770919 0.88337004 0.00380970 0.00000000
0.61275307 1.27595514 -0.00321799 0.00000000
1.68456177 2.02552010 0.00119597 0.00000000
1.96213379 1.89944633 0.00102378 0.00000000
0.21291612 0.10839697 -0.00198615 0.00000000
1.13609549 0.68192398 -0.00312048 0.00000000
0.78338237 0.99280729 -0.00025539 0.00000000
2.30788974 1.10034490 0.00490637 0.00000000
2.37599457 1.01606374 -0.00324141 0.00000000
1.82716413 0.77761860 0.00017019 0.00000000
2.37075104 2.00667047 0.00100022 0.00000000
1.19912062 1.28619070 0.00134461 0.00000000
2.97145217 0.09660355 -0.00112584 0.00000000
2.16032719 1.71942225 -0.00042102 0.00000000
1.34426401 0.68257582 0.00412805 0.00000000
2.76863046 1.97304194 0.00637813 0.00000000
3.00598925 0.24269684 0.00506984 0.00000000
1.38781695 2.00471383 0.00315369 0.00000000
1.52033919 1.97104625 0.00012290 0.00000000
0.63885610 1.74365083 -0.00205259 0.00000000
1.90680532 1.17524410 -0.00127043 0.00000000
0.99404410 1.53875560 0.00385866 0.00000000
0.01990065 1.72503006 -0.00133879 0.00000000
4.09329125 1.22260962 0.00033732 0.00000000
3.40498475 0.81933397 -0.00194408 0.00000000
2.60687850 0.33153761 -0.00003253 0.00000000
2.35173412 1.04692432 -0.00359565 0.00000000
1.14141406 1.00342436 -0.00478347 0.00000000
1.74345467 0.81923190 -0.00183717 0.00000000
0.01379108 0.44924909 -0.00197042 0.00000000
4.03037872 1.65594286 -0.00189752 0.00000000
2.05118142 0.08548215 -0.00037647 0.00000000
1.35967856 0.26959715 -0.00099515 0.00000000
0.34428545 0.41570545 -0.00134061 0.00000000
0.88237303 0.45006080 0.00015571 0.00000000
0.40117552 0.15053341 -0.00098924 0.00000000
2.03948317 2.01483940 0.00117527 0.00000000
1.98619916 1.58181283 0.00127126 0.00000000
3.21558320 1.29730363 0.00082964 0.00000000
0.49287684 1.92106700 0.00136236 0.00000000
2.25386397 1.27454632 0.00018257 0.00000000
0.69202025 0.06337554 0.00348516 0.00000000
1.62722288 1.87740699 0.00126720 0.00000000
3.59708026 1.37510729 -0.00113443 0.00000000
3.25263968 0.02223900 -0.00039829 0.00000000
1.80789892 1.20164387 -0.00005573 0.00000000
2.39834342 0.73756751 -0.00097137 0.00000000
2.25965567 1.26443190 -0.00300191 0.00000000
1.14133548 1.23449687 -0.00332405 0.00000000
3.55041359 0.41232118 -0.00130868 0.00000000
2.81635402 0.97250382 -0.00062003 0.00000000
0.88101646 0.91125529 0.00198564 0.00000000
0.58787302 0.20236718 0.00085393 0.00000000
2.07927020 1.57316096 -0.00188736 0.00000000
2.05722327 1.41077620 0.00055471 0.00000000
1.89604084 1.41549536 0.00575521 0.00000000
3.32830354 0.92486041 0.00211608 0.00000000
0.55674590 2.02137989 -0.00229739 0.00000000
0.65044909 0.70225024 -0.00253858 0.00000000
1.39910164 0.93219478 0.00017247 0.00000000
4.16831163 1.95593760 -0.00088402 0.00000000
2.66258796 1.88231286 0.00118667 0.00000000
1.68949762 0.88088037 -0.00097832 0.00000000
1.80918321 1.20224517 0.00205981 0.00000000
0.60085464 1.94904901 -0.00055196 0.00000000
1.87932579 2.01434515 -0.00078535 0.00000000
1.34405396 1.16365079 0.00032397 0.00000000
4.08534297 1.48321280 -0.00034710 0.00000000
1.02940973 1.72251394 0.00067279 0.00000000
0.36482631 1.26695812 0.00015158 0.00000000
3.34573153 1.97651815 -0.00265488 0.00000000
0.98943654 1.14661895 0.00288787 0.00000000
1.64159199 1.83373483 0.00139874 0.00000000
1.43434914 0.89088826 0.00159635 0.00000000
2.38454888 1.43523104 -0.00096127 0.00000000
3.43223212 1.17411000 -0.00090526 0.00000000
0.10506461 1.46033041 -0.00509588 0.00000000
3.26462144 0.75468210 0.00355884 0.00000000
3.95081388 0.42810656 0.00294976 0.00000000
3.55940244 1.28496030 0.00181696 0.00000000
2.43195260 0.46366933 0.00392767 0.00000000
2.41270879 1.55171706 -0.00020850 0.00000000
1.94062327 1.27613124 0.00075546 0.00000000
3.54324806 0.31316242 0.00028900 0.00000000
4.18747782 0.71921756 -0.00120737 0.00000000
1.33519511 0.00929058 0.00315366 0.00000000
3.74077116 0.72436101 0.00105883 0.00000000
4.08841576 1.04295772 -0.00039594 0.00000000
3.60050964 0.81874902 0.00212059 0.00000000
2.55604575 0.67797297 0.00361074 0.00000000
1.85085545 2.05810954 -0.00446471 0.00000000
0.79308623 1.05864030 0.00014796 0.00000000
1.90575557 0.13008764 -0.00141371 0.00000000
1.47600131 0.20442097 0.00534580 0.00000000
4.26274586 1.44533434 0.00191128 0.00000000
0.98112209 1.80621839 0.00101930 0.00000000
2.85967435 1.82791336 0.00207836 0.00000000
0.35718690 1.21225387 -0.00101059 0.00000000
2.88433154 1.89062299 0.00059260 0.00000000
2.76340505 0.41870351 0.00123691 0.00000000
2.60322724 0.71766202 -0.00339031 0.00000000
3.71482282 1.85862201 0.00223918 0.00000000
1.73459068 0.29194165 -0.00139966 0.00000000
2.59704507 0.63295687 0.00135631 0.00000000
4.19389596 1.82962474 0.00201607 0.00000000
0.13397415 0.02411798 -0.00648676 0.00000000
1.70202885 1.53188800 0.00226210 0.00000000
0.07805770 0.97846921 -0.00256332 0.00000000
0.88715105 1.82365788 -0.00062287 0.00000000
3.75934776 1.55021173 -0.00114212 0.00000000
3.01985878 0.01490593 0.00040949 0.00000000
1.70378354 1.15610419 -0.00237723 0.00000000
1.55966431 1.67944904 0.00292278 0.00000000
1.57809552 0.11678448 0.00066888 0.00000000
0.79869021 1.22534165 0.00110690 0.00000000
2.18939845 1.87688389 0.00203672 0.00000000
2.97397262 0.27579402 -0.00252744 0.00000000
0.49940361 0.84197183 -0.00009172 0.00000000
3.08090910 1.91645094 -0.00054043 0.00000000
2.32995019 2.04297165 0.00397993 0.00000000
2.60241105 0.15371273 0.00018989 0.00000000
1.31827885 2.06474761 -0.00165757 0.00000000
0.33505523 1.13840903 0.00147187 0.00000000
2.04320981 0.39099162 -0.00080158 0.00000000
0.87015977 2.03945678 -0.00502076 0.00000000
3.95956017 0.02586997 -0.00258458 0.00000000
0.60778751 1.96240608 0.00110896 0.00000000
0.11118963 1.21552131 -0.00319886 0.00000000
3.37729770 0.60622250 0.00632297 0.00000000
0.75638237 1.94540698 -0.00017137 0.00000000
0.37176768 0.93412470 -0.00385873 0.00000000
4.18632741 0.20642973 0.00358542 0.00000000
0.81380225 1.53459018 0.00461982 0.00000000
2.42341537 1.65221947 0.00374854 0.00000000
2.49723218 1.00839026 0.00064343 0.00000000
1.05118525 1.60527867 0.00139677 0.00000000
1.21134692 1.37587565 -0.00482216 0.00000000
1.21580765 1.98391097 -0.00218916 0.00000000
2.73126324 0.34061828 -0.00039283 0.00000000
2.83551945 0.54024608 0.00073469 0.00000000
4.09428103 0.76134048 -0.00197702 0.00000000
4.21503227 1.85478903 0.00508117 0.00000000
0.88062982 0.20092968 -0.00439497 0.00000000
1.36296944 0.92397843 -0.00217459 0.00000000
4.07751125 1.66782856 -0.00056641 0.00000000
3.51546843 0.28414342 0.00422758 0.00000000
1.55906895 2.07882758 -0.00441737 0.00000000
3.95661064 1.45300100 -0.00169585 0.00000000
2.81508795 0.85226105 -0.00244998 0.00000000
3.99870672 0.29770188 -0.00172877 0.00000000
0.85669592 0.35975115 -0.00200492 0.00000000
3.93067796 0.29075827 0.00071092 0.00000000
1.06591245 0.14055802 -0.00522419 0.00000000
1.43658681 1.13516978 0.00533377 0.00000000
3.22826149 0.13782913 -0.00227167 0.00000000
3.57439407 1.59768445 0.00028302 0.00000000
1.19033532 0.34125809 0.00126166 0.00000000
2.74872411 0.31333259 0.00021127 0.00000000
1.25318679 1.92904633 0.00286393 0.00000000
2.38470789 2.04525698 0.00572394 0.00000000
3.73508799 0.04130632 -0.00072673 0.00000000
0.90675164 0.85229081 -0.00391785 0.00000000
4.10162012 1.32279343 0.00080935 0.00000000
2.08309081 0.33280963 0.00132561 0.00000000
1.79488675 0.17906132 -0.00065934 0.00000000
2.47908026 0.19535169 0.00255617 0.00000000
3.05900661 1.07979544 0.00186401 0.00000000
0.73765144 0.76175742 0.00103793 0.00000000
2.10763687 1.92970063 0.00042181 0.00000000
0.60490550 2.01065235 -0.00062123 0.00000000
0.40737134 0.25077082 0.00460088 0.00000000
3.90013802 0.54676530 0.00761973 0.00000000
0.71567158 2.07454055 0.00010525 0.00000000
1.00659777 1.99701085 -0.00544892 0.00000000
0.01309216 1.47272876 0.00350055 0.00000000
1.73725933 1.85171056 0.00356598 0.00000000
2.90192193 0.42355348 -0.00410296 0.00000000
4.22332522 1.45438062 0.00018386 0.00000000
2.69717368 1.04311605 0.00025213 0.00000000
0.59407633 1.07922401 -0.00543435 0.00000000
2.51232430 0.24965493 0.00079390 0.00000000
3.91993237 1.63686811 -0.00261528 0.00000000
2.70623809 1.26170100 0.00176111 0.00000000
0.10188126 0.66377213 -0.00373239 0.00000000
3.01593721 1.76894649 -0.00474020 0.00000000
0.45004201 1.07018686 0.00331378 0.00000000
1.36965392 0.52892734 0.00498980 0.00000000
2.69798354 0.42437190 0.00010385 0.00000000
3.47257967 1.85167279 -0.00046125 0.00000000
1.32442685 1.05304975 -0.00173562 0.00000000
2.98476860 0.13038933 -0.00268197 0.00000000
2.10048365 1.26414484 -0.00210169 0.00000000
0.83393708 0.83781495 -0.00041205 0.00000000
2.68393054 1.53083575 0.00125583 0.00000000
2.18197239 0.52362460 -0.00123363 0.00000000
0.75235558 1.51631036 0.00192840 0.00000000
2.05213625 0.11699911 -0.00199118 0.00000000
1.05739569 1.85614859 0.00447212 0.00000000
1.53309491 1.15896199 0.00219318 0.00000000
3.16301312 1.66605301 -0.00201148 0.00000000
2.71498093 1.20283764 -0.00210392 0.00000000
3.57797829 1.71692795 0.00339936 0.00000000
0.29443461 0.91893648 0.00303669 0.00000000
0.98780382 1.31035796 -0.00117625 0.00000000
2.93842576 1.01098674 -0.00431909 0.00000000
0.44083233 0.02979197 -0.00405550 0.00000000
3.79026132 0.70177117 -0.00027764 0.00000000
2.17207436 0.72320040 -0.00253629 0.00000000
2.41929618 0.07156566 -0.00005219 0.00000000
4.00090963 0.66975657 -0.00149752 0.00000000
0.84546170 1.25049932 -0.00003008 0.00000000
1.57258340 1.56160650 0.00368815 0.00000000
0.49685831 0.56107069 0.00454121 0.00000000
2.38944492 0.48140057 -0.00305199 0.00000000
0.84246281 0.22528058 -0.00023809 0.00000000
4.01597966 0.57095224 0.00416961 0.00000000
1.64607298 0.96882653 0.00234495 0.00000000
3.56907008 0.63814385 -0.00229877 0.00000000
0.69999245 1.71689676 0.00010164 0.00000000
2.94932285 0.86461040 -0.00101846 0.00000000
3.84483044 0.34379287 0.00069864 0.00000000
1.33920268 1.66391863 0.00182629 0.00000000
2.82835226 1.59498524 -0.00090784 0.00000000
2.78706917 0.09527797 -0.00269554 0.00000000
1.55209989 2.00795508 0.00260747 0.00000000
1.42142332 1.95216832 -0.00418834 0.00000000
3.43981710 2.08744701 -0.00045460 0.00000000
2.77405699 1.00487671 -0.00118781 0.00000000
3.79613419 1.56339263 -0.00064677 0.00000000
1.41985980 1.06768650 -0.00797639 0.00000000
0.21924308 1.03496978 0.00102654 0.00000000
0.09386947 0.12462934 0.00146372 0.00000000
0.31781917 1.74872979 -0.00117642 0.00000000
0.40873034 1.68714422 0.00030305 0.00000000
0.49563038 1.90625692 -0.00228765 0.00000000
3.04472973 0.93814875 -0.00083458 0.00000000
1.68920018 0.19072788 0.00038676 0.00000000
2.49711849 1.12394799 0.00131571 0.00000000
2.65561614 1.00949355 -0.00214868 0.00000000
1.83640299 1.33222948 -0.00437424 0.00000000
2.75434382 1.17280661 0.00135794 0.00000000
3.98360727 1.50829443 -0.00217094 0.00000000
2.52205610 1.99648091 0.00258526 0.00000000
4.19901800 1.31094742 0.00344599 0.00000000
3.68773902 0.32791149 0.00277882 0.00000000
2.22334285 0.36111659 0.00182083 0.00000000
2.08709796 0.67106409 -0.00035658 0.00000000
2.12668471 0.25796635 0.00280977 0.00000000
4.02723277 0.99954704 -0.00261474 0.00000000
2.90323245 1.29556065 0.00302739 0.00000000
1.20694539 0.30133612 0.00085525 0.00000000
3.20259585 0.12709121 0.00201692 0.00000000
0.25151056 1.47705088 0.00052266 0.00000000
1.35352235 0.56572787 -0.00077843 0.00000000
3.13294704 0.58662833 -0.00635346 0.00000000
3.99426194 0.38204636 0.00635272 0.00000000
3.47741746 1.63757949 0.00032026 0.00000000
1.78297131 0.41352622 -0.00194359 0.00000000
3.00120174 2.09826051 0.00238060 0.00000000
3.51010052 0.78628634 -0.00064881 0.00000000
2.77784257 0.56915570 0.00192669 0.00000000
3.72250746 0.55620082 -0.00084025 0.00000000
1.37796967 1.82571514 0.00156303 0.00000000
0.76632558 0.19005140 0.00194769 0.00000000
0.01736446 0.75486352 -0.00026258 0.00000000
0.87418315 1.43313005 -0.00221288 0.00000000
3.58097009 0.39085271 -0.00064073 0.00000000
2.52986965 0.12536248 0.00071085 0.00000000
3.86660675 1.78410921 0.00000871 0.00000000
1.18706973 1.44211611 -0.00104271 0.00000000
3.39852534 1.37326188 -0.00183477 0.00000000
2.35803275 0.65339877 0.00034437 0.00000000
1.56594763 0.02398060 -0.00338894 0.00000000
1.77167418 0.21831411 -0.00093773 0.00000000
0.20737526 1.42370231 0.00049586 0.00000000
4.10415364 0.78135976 -0.00013301 0.00000000
1.81508300 1.53531704 0.00355185 0.00000000
2.98614613 1.08702345 -0.00126032 0.00000000
1.18984469 0.62959641 0.00275828 0.00000000
2.92972181 0.22031874 0.00106837 0.00000000
1.36637535 1.78402945 -0.00480459 0.00000000
1.96008831 1.56313713 -0.00060337 0.00000000
4.00264214 0.15982090 -0.00121728 0.00000000
0.84005748 0.40214821 -0.00135627 0.00000000
0.48715405 0.82253465 -0.00397820 0.00000000
0.67946616 1.78968721 -0.00020599 0.00000000
1.39725384 1.18581611 0.00191376 0.00000000
3.11974725 0.48319153 0.00305053 0.00000000
2.84406753 1.96725011 -0.00279082 0.00000000
0.05080090 1.90737241 0.00104924 0.00000000
2.02409774 0.67324860 -0.00007224 0.00000000
3.53920087 0.44241629 0.00012812 0.00000000
0.98784843 1.88028615 0.00108350 0.00000000
0.90741881 1.93258053 -0.00035174 0.00000000
4.05772094 1.68062796 -0.00091327 0.00000000
3.47417379 1.42513299 -0.00148978 0.00000000
0.99133380 0.73992423 -0.00126224 0.00000000
