1.75243610 0.38996397 -0.00094877 0.00000000
3.82890815 0.27652770 -0.00044136 0.00000000
4.20559826 0.58855424 -0.00105684 0.00000000
2.14672640 0.20131725 -0.00038926 0.00000000
3.62585880 2.04524010 -0.00032924 0.00000000
2.53961866 0.90512760 0.00088526 0.00000000
1.62055565 0.06998690 -0.00241290 0.00000000
1.40641310 0.25990698 0.00155874 0.00000000
0.22794271 1.64236997 -0.00688046 0.00000000
4.64038137 1.74630409 0.00177797 0.00000000
0.74525371 0.76063547 -0.00148772 0.00000000
0.31912196 0.17408182 0.00268708 0.00000000
1.40357828 0.22886015 -0.00286140 0.00000000
3.83397015 1.30432872 -0.00325602 0.00000000
3.81933612 1.52749130 0.00215948 0.00000000
1.21156593 0.99060906 -0.00303643 0.00000000
1.67932545 0.79891308 0.00182247 0.00000000
0.46312920 0.34833494 -0.00253468 0.00000000
4.38132171 0.33366468 -0.00102797 0.00000000
3.39916160 0.75606310 -0.00089846 0.00000000
2.10646981 1.65137251 0.00004494 0.00000000
1.40601676 1.53743760 -0.00088077 0.00000000
2.18914432 2.04080433 -0.00056083 0.00000000
4.09711209 1.31255380 0.00183226 0.00000000
0.06995164 0.09935305 0.00235654 0.00000000
0.90725101 1.97085553 0.00245876 0.00000000
3.95480974 1.66189680 0.00083588 0.00000000
4.02494594 1.75514426 0.00021230 0.00000000
3.51757874 0.22184823 0.00091078 0.00000000
4.03489720 1.99943152 -0.00257030 0.00000000
1.11323540 1.52806572 0.00137136 0.00000000
3.77866267 1.50186613 -0.00200078 0.00000000
3.18718396 0.42949434 0.00267011 0.00000000
1.85721855 0.57827748 -0.00134994 0.00000000
3.59959430 0.94458384 0.00474771 0.00000000
1.83359426 0.43981744 -0.00094379 0.00000000
2.26823462 1.01646581 0.00011583 0.00000000
4.06047688 0.85111012 0.00161105 0.00000000
0.98363039 1.28295328 0.00185665 0.00000000
2.11109809 1.81034087 -0.00265395 0.00000000
0.88760333 0.89866343 0.00329862 0.00000000
4.36732626 1.70451132 0.00270225 0.00000000
1.90397518 1.01231032 0.00214934 0.00000000
4.40519776 1.36972934 0.00513935 0.00000000
3.18407505 0.67655289 0.00106355 0.00000000
1.36365324 1.73912347 -0.00372186 0.00000000
0.86456653 1.91637053 0.00041416 0.00000000
4.80378618 0.18760836 0.00042280 0.00000000
0.15680587 0.67243171 0.00087292 0.00000000
3.09892095 1.24838189 0.00055206 0.00000000
3.85700205 1.77561572 -0.00449131 0.00000000
4.35590806 0.24485304 0.00226032 0.00000000
0.94289997 1.72723087 -0.00007602 0.00000000
1.66240872 0.28708098 0.00000364 0.00000000
3.06954135 1.90380085 -0.00262868 0.00000000
3.29495624 2.00217668 0.00073694 0.00000000
4.46345943 0.31231008 0.00069399 0.00000000
2.48712684 1.11914767 0.00218764 0.00000000
0.17381878 0.23052417 -0.00059787 0.00000000
0.10625015 1.09629477 -0.00041054 0.00000000
4.51186618 1.54306306 0.00272683 0.00000000
1.94944107 0.04733211 0.00255016 0.00000000
4.39044624 0.23664153 0.00199141 0.00000000
1.73343812 0.00520849 -0.00103671 0.00000000
0.29749090 1.67028686 -0.00216406 0.00000000
0.35291450 0.29658567 0.00121362 0.00000000
1.80570498 1.70510104 -0.00246910 0.00000000
1.77936524 0.40231590 -0.00404406 0.00000000
4.45896762 0.19838727 0.00397699 0.00000000
3.42932718 1.11940485 -0.00319734 0.00000000
0.17845155 0.09465913 -0.00207744 0.00000000
2.65530898 1.86789061 -0.00346439 0.00000000
3.67464672 0.03214904 -0.00004331 0.00000000
2.83044195 0.46841474 0.00219533 0.00000000
1.80708577 1.52412088 -0.00103451 0.00000000
4.73638163 0.66759660 0.00091662 0.00000000
0.51484461 0.34706399 0.00643137 0.00000000
2.66594554 0.41801723 -0.00044732 0.00000000
0.34915368 0.33556114 0.00112055 0.00000000
3.47505063 0.88767161 0.00128273 0.00000000
4.39526421 0.88265064 0.00333355 0.00000000
0.88663202 0.23998192 0.00274399 0.00000000
2.90600079 1.09948429 -0.00194786 0.00000000
1.53303972 1.19352169 -0.00223832 0.00000000
1.38172448 2.03891778 0.00030452 0.00000000
1.54276838 1.90185397 -0.00061109 0.00000000
2.43854718 0.34865233 -0.00106049 0.00000000
1.00912678 1.17561701 0.00034761 0.00000000
3.47427169 1.38910887 -0.00238806 0.00000000
4.75226076 1.97442151 0.00257890 0.00000000
3.83005302 1.42844072 0.00356858 0.00000000
3.82097739 0.82602345 0.00432187 0.00000000
1.52398603 0.81639094 0.00115486 0.00000000
3.46658431 0.23366076 0.00071137 0.00000000
3.01689456 0.83452135 -0.00018881 0.00000000
1.03036325 0.40844284 0.00445089 0.00000000
0.83170232 0.02790077 0.00434214 0.00000000
4.48380236 1.48125507 -0.00078580 0.00000000
2.98450341 0.49787205 -0.00314747 0.00000000
3.29818935 0.67470362 0.00185017 0.00000000
4.08128887 0.16147004 -0.00319472 0.00000000
3.99782181 1.99843708 0.00109543 0.00000000
1.85953182 1.97969203 0.00015299 0.00000000
0.58888202 1.19514997 -0.00420037 0.00000000
0.69406473 1.13168510 -0.00328660 0.00000000
2.62737258 0.21215291 0.00073137 0.00000000
3.64162849 0.96697515 -0.00682486 0.00000000
4.34479626 0.20282466 -0.00206918 0.00000000
4.21774809 0.66427757 -0.00178157 0.00000000
2.73579000 0.48883127 0.00200261 0.00000000
0.43334387 0.72824407 0.00215500 0.00000000
4.83130289 0.98265266 0.00173792 0.00000000
3.10917939 0.83281113 -0.00295157 0.00000000
2.32451384 1.86150690 -0.00018841 0.00000000
0.48356421 0.40232980 -0.00185685 0.00000000
3.22750184 1.94660563 -0.00009490 0.00000000
2.10796643 0.51600207 -0.00461016 0.00000000
3.75794062 1.19579317 -0.00005591 0.00000000
0.99903976 1.62001527 -0.00034509 0.00000000
1.47250813 1.28236948 0.00284419 0.00000000
2.34733914 0.84219189 -0.00004517 0.00000000
3.52633593 0.56872834 0.00114917 0.00000000
1.52821174 1.36036571 0.00215457 0.00000000
4.52005947 1.85087195 -0.00154400 0.00000000
4.39064882 0.57797465 0.00504632 0.00000000
4.45277213 0.20630802 -0.00087032 0.00000000
1.33827075 1.05998840 -0.00385025 0.00000000
0.38173395 1.67806104 0.00170095 0.00000000
1.05088940 0.98878896 -0.00051523 0.00000000
0.79210789 0.48947869 -0.00514592 0.00000000
3.14807104 0.67700899 0.00076632 0.00000000
3.87566812 1.46053279 -0.00505646 0.00000000
2.27773961 1.27780513 -0.00191175 0.00000000
4.65744195 1.45291407 -0.00041824 0.00000000
0.95614930 2.03308335 0.00460656 0.00000000
1.36862249 0.36362471 0.00055695 0.00000000
1.15374479 1.03172446 -0.00356599 0.00000000
1.67016573 1.52192214 -0.00468154 0.00000000
4.77050847 0.03546960 0.00003561 0.00000000
2.27091902 1.96685684 0.00520141 0.00000000
2.51103977 1.88794409 -0.00057703 0.00000000
4.43193836 0.69308552 -0.00172618 0.00000000
1.82790763 0.39905025 -0.00037673 0.00000000
4.84503885 1.84684801 0.00249358 0.00000000
1.57513795 0.47921430 0.00070142 0.00000000
1.57513076 2.04747095 0.00310521 0.00000000
3.00009078 0.98054590 -0.00219345 0.00000000
3.79418834 1.33616590 -0.00245293 0.00000000
3.57066464 1.56319941 -0.00086587 0.00000000
1.55311889 0.23070024 0.00194024 0.00000000
0.82748694 0.33651396 0.00423471 0.00000000
1.59163192 0.22769574 0.00106564 0.00000000
2.24077696 1.17199633 0.00677602 0.00000000
1.36964690 2.03533095 -0.00059558 0.00000000
3.74900019 1.42954912 0.00101722 0.00000000
4.27726931 0.51582021 0.00002598 0.00000000
2.50189195 1.86951458 -0.00171188 0.00000000
2.99252297 1.17474221 -0.00046821 0.00000000
1.94039671 1.02408898 0.00097571 0.00000000
2.16944231 0.17040006 -0.00307552 0.00000000
4.83923098 1.18154074 -0.00434179 0.00000000
2.20759084 0.55768873 -0.00068980 0.00000000
0.98013823 1.08791153 -0.00210570 0.00000000
4.67596540 0.96983272 0.00197748 0.00000000
4.42851794 0.98323859 0.00064957 0.00000000
0.72920866 1.87198952 -0.00014796 0.00000000
3.89195369 1.46502549 -0.00053718 0.00000000
2.42261754 1.22586306 0.00189331 0.00000000
0.89474805 1.10350448 0.00633325 0.00000000
0.21178618 1.38188474 0.00424565 0.00000000
1.77140653 0.53292537 -0.00284240 0.00000000
1.42367928 0.96274579 0.00067608 0.00000000
4.24198063 1.52891564 -0.00343907 0.00000000
4.38290951 0.74588224 -0.00359880 0.00000000
2.42849697 1.57228975 -0.00141710 0.00000000
3.20193057 1.53887303 -0.00120522 0.00000000
3.55505581 0.88403969 0.00085644 0.00000000
2.64133901 1.02333258 -0.00056783 0.00000000
1.93539900 0.51645790 0.00179232 0.00000000
3.95437845 1.50301658 -0.00148575 0.00000000
3.46214631 1.72404130 0.00296740 0.00000000
2.86656634 1.77393906 -0.00106956 0.00000000
2.73665022 0.71102434 -0.00193465 0.00000000
2.83244183 1.27958278 0.00339105 0.00000000
2.50514903 1.11477400 0.00074442 0.00000000
0.89436805 1.08634103 -0.00239538 0.00000000
1.04459459 0.98118415 0.00222759 0.00000000
4.29994273 1.48889840 -0.00397559 0.00000000
0.19015035 0.39479398 -0.00248412 0.00000000
3.23081310 1.67126121 0.00397834 0.00000000
2.67161688 1.50336776 0.00286696 0.00000000
1.37052298 0.46526726 -0.00269609 0.00000000
1.16547651 0.59474446 -0.00314458 0.00000000
2.11445540 1.51403271 -0.00619269 0.00000000
2.13926643 0.10637708 0.00161689 0.00000000
2.18422927 0.64041515 -0.00229079 0.00000000
3.61120948 1.09689164 -0.00134138 0.00000000
0.25583671 1.06681305 -0.00059798 0.00000000
1.25108905 1.35392688 -0.00276910 0.00000000
3.73184273 1.32539213 0.00090613 0.00000000
1.53583071 0.34119885 0.00222109 0.00000000
1.53572369 0.65049792 0.00047745 0.00000000
1.00349549 1.40710159 0.00486759 0.00000000
0.89598883 1.73865426 0.00417862 0.00000000
3.88749712 0.91038929 0.00016017 0.00000000
1.05109793 1.94655263 0.00038345 0.00000000
4.11137468 0.24437570 0.00082891 0.00000000
3.21684055 1.73744457 -0.00064538 0.00000000
0.12971927 1.89573372 -0.00180128 0.00000000
2.74178468 1.20475044 0.00680324 0.00000000
1.36043603 0.70011666 -0.00019663 0.00000000
0.58359735 1.77501284 0.00485755 0.00000000
4.15055178 0.37547037 0.00167459 0.00000000
0.23819168 1.78148096 0.00194887 0.00000000
2.92035269 2.01723448 -0.00134891 0.00000000
3.16096307 0.26601675 -0.00533031 0.00000000
0.13095278 1.18166159 0.00177644 0.00000000
2.17039410 1.02381554 0.00333180 0.00000000
0.61101105 1.66739493 -0.00192971 0.00000000
2.36656858 0.37104406 -0.00528941 0.00000000
2.11554637 0.75966289 -0.00063613 0.00000000
4.50012691 0.31742780 -0.00044615 0.00000000
2.82842860 0.77012706 -0.00169711 0.00000000
3.18789491 0.88914647 -0.00044165 0.00000000
3.64878068 1.53851445 -0.00393638 0.00000000
1.36308704 0.00271986 -0.00067529 0.00000000
2.22458153 1.44128336 0.00078002 0.00000000
1.87001736 1.31252565 0.00262733 0.00000000
2.08177729 0.85842743 0.00069260 0.00000000
3.37031331 1.51134692 0.00252306 0.00000000
1.08085681 0.12054654 0.00187287 0.00000000
2.05255881 1.04551251 -0.00049714 0.00000000
1.63328543 1.31254306 -0.00205818 0.00000000
4.40716225 0.84208034 0.00216394 0.00000000
3.50946002 0.47218265 0.00144741 0.00000000
3.20925115 0.94946152 0.00021303 0.00000000
1.28608130 1.19474350 0.00224344 0.00000000
0.49742343 1.62176359 -0.00153436 0.00000000
4.77416602 1.77457622 0.00335116 0.00000000
2.02350924 0.06201942 0.00079759 0.00000000
1.23113277 0.01199100 -0.00088266 0.00000000
2.25969250 1.88702902 -0.00213151 0.00000000
2.13259415 1.29254080 0.00273086 0.00000000
3.16848155 1.67541501 0.00494369 0.00000000
4.39266773 1.18097502 -0.00319019 0.00000000
2.05972486 0.48406183 0.00140782 0.00000000
2.30555975 0.26147516 -0.00435224 0.00000000
3.68214565 0.33083858 -0.00122388 0.00000000
0.46143129 2.06295327 0.00096233 0.00000000
1.83629730 1.79594609 -0.00165871 0.00000000
1.47179103 1.78534711 0.00042920 0.00000000
1.79377767 1.25317352 0.00050489 0.00000000
3.82863808 1.40182978 -0.00378618 0.00000000
2.15642792 0.32330672 0.00066730 0.00000000
4.47403514 0.78969363 0.00282275 0.00000000
1.76072384 1.40109407 0.00194076 0.00000000
4.09292100 1.81580436 0.00098353 0.00000000
1.40076901 1.73862139 -0.00139331 0.00000000
1.83372905 0.23802106 0.00106189 0.00000000
4.37991448 1.92898207 0.00067657 0.00000000
4.32116992 0.78178621 0.00041108 0.00000000
2.12924812 0.54680401 -0.00027018 0.00000000
3.97122898 1.45330792 -0.00025746 0.00000000
4.31931063 0.84970276 -0.00261130 0.00000000
0.60692573 0.40426879 0.00096472 0.00000000
0.28251533 1.90182115 0.00338323 0.00000000
3.52448933 0.78015161 -0.00012562 0.00000000
4.38092720 1.50784116 -0.00212091 0.00000000
4.32687049 1.70308715 0.00078454 0.00000000
3.91306951 1.05878160 0.00224734 0.00000000
3.90235556 0.73809725 -0.00244685 0.00000000
4.34346122 0.77446571 0.00402443 0.00000000
4.48574143 0.89917750 0.00088296 0.00000000
1.89769095 1.12050506 -0.00363580 0.00000000
4.32802476 1.49534350 0.00074597 0.00000000
2.37879701 0.24028741 0.00064026 0.00000000
4.49871540 1.81261002 -0.00097166 0.00000000
4.18320597 1.14832077 0.00281111 0.00000000
3.98492690 0.00764708 0.00053558 0.00000000
3.90874226 1.61471755 -0.00144068 0.00000000
2.50668211 1.70741498 -0.00084991 0.00000000
1.48569979 1.61592909 0.00083496 0.00000000
4.40004351 0.11212916 -0.00341453 0.00000000
1.88956716 0.12571676 -0.00113713 0.00000000
0.79242596 1.34502449 -0.00251636 0.00000000
1.60722350 1.29025464 0.00073297 0.00000000
0.11568888 0.76918090 -0.00157387 0.00000000
4.32701897 1.86932659 -0.00487337 0.00000000
2.72136513 1.17071129 -0.00027205 0.00000000
1.23439169 0.01974062 0.00131486 0.00000000
0.92232456 0.15561240 0.00014841 0.00000000
1.81979600 0.07452269 0.00183194 0.00000000
0.54108141 1.38123707 0.00220441 0.00000000
4.81468757 0.50912748 -0.00071094 0.00000000
4.39694863 1.87327703 0.00117787 0.00000000
2.75044839 2.00027602 -0.00212191 0.00000000
0.06443280 1.72258138 -0.00084369 0.00000000
1.98510693 0.23768934 -0.00064615 0.00000000
1.17687584 1.62822479 -0.00236846 0.00000000
0.56627056 1.09167348 -0.00195210 0.00000000
2.78462991 2.03786909 0.00068755 0.00000000
2.83337034 1.74797446 0.00107048 0.00000000
3.55530198 0.49608262 -0.00050002 0.00000000
2.67645559 0.89823488 0.00188220 0.00000000
2.94928052 0.24212677 -0.00178687 0.00000000
2.31906209 1.14754097 0.00059613 0.00000000
3.71165570 1.85219767 0.00162564 0.00000000
2.18027139 0.12739309 -0.00181820 0.00000000
1.96624847 2.04924813 0.00399679 0.00000000
2.90382605 0.27968063 0.00089287 0.00000000
4.44974259 2.02090064 0.00075182 0.00000000
3.72242054 1.95312492 0.00694669 0.00000000
1.67622227 0.50639328 0.00265646 0.00000000
3.82657713 1.97585791 -0.00388061 0.00000000
1.07406188 2.00978594 0.00184419 0.00000000
1.86010556 0.70255242 0.00086197 0.00000000
0.20370620 0.04601929 0.00059015 0.00000000
3.17137670 0.89991702 0.00287032 0.00000000
1.78740395 1.54042662 0.00111600 0.00000000
0.23518882 0.10363357 0.00118865 0.00000000
3.71040180 0.60996396 0.00254631 0.00000000
2.53322894 0.61915424 -0.00073820 0.00000000
2.00642679 1.76965434 -0.00040499 0.00000000
2.03838486 0.04016648 0.00203690 0.00000000
3.46476909 0.97487911 0.00216204 0.00000000
0.15861173 1.74624562 -0.00133055 0.00000000
1.44751186 0.80336345 0.00425380 0.00000000
1.75353806 0.23235562 -0.00597309 0.00000000
1.30184000 1.81784209 0.00110981 0.00000000
0.74141669 0.54619240 0.00340384 0.00000000
4.85025804 0.34633319 0.00003253 0.00000000
1.91823316 0.23729725 -0.00107073 0.00000000
3.76847203 1.86982030 -0.00284200 0.00000000
0.97945097 1.64549160 -0.00034409 0.00000000
3.11464495 0.90679145 0.00063943 0.00000000
4.06242622 0.65708923 0.00257365 0.00000000
1.50579180 0.79908923 0.00382819 0.00000000
0.52939936 0.38901465 -0.00317783 0.00000000
1.06677188 0.42314068 0.00076769 0.00000000
2.82605749 1.79940784 -0.00105261 0.00000000
1.73496547 0.97366911 0.00089208 0.00000000
0.46115770 0.16836688 -0.00149372 0.00000000
2.48437885 0.44157139 0.00083862 0.00000000
3.25690325 1.26175106 0.00130403 0.00000000
3.08319971 1.36897235 0.00596130 0.00000000
1.49040967 1.10339304 0.00202450 0.00000000
1.65846033 0.28336802 0.00204596 0.00000000
0.32475023 1.79345763 0.00009355 0.00000000
4.05401038 1.49827080 0.00244896 0.00000000
0.89884085 0.57722627 -0.00200581 0.00000000
4.36553065 1.53253521 -0.00647614 0.00000000
1.82130299 1.96672640 0.00171559 0.00000000
1.07371242 1.87112876 0.00084893 0.00000000
1.37498659 0.28085392 -0.00416546 0.00000000
4.32059092 0.83324511 0.00444505 0.00000000
3.09566022 0.77640300 -0.00299410 0.00000000
0.75422665 1.97387971 0.00253051 0.00000000
2.54003593 0.53963080 -0.00367005 0.00000000
3.08034231 1.19881273 -0.00384372 0.00000000
0.52226754 1.74450933 0.00114714 0.00000000
3.08036837 0.95924356 -0.00410809 0.00000000
1.88304955 1.27195948 0.00028470 0.00000000
2.07310762 0.14834104 -0.00261382 0.00000000
4.39197110 0.87415430 0.00326689 0.00000000
2.68040359 1.20861458 0.00052446 0.00000000
1.20252952 2.06484820 0.00058524 0.00000000
0.61096908 0.11780219 -0.00021199 0.00000000
4.11488544 0.42958656 -0.00197300 0.00000000
1.66849719 1.00209576 -0.00125929 0.00000000
0.96989417 0.80568351 -0.00232122 0.00000000
0.59257073 0.99141557 -0.00040127 0.00000000
1.67663949 1.62268676 0.00092837 0.00000000
3.19712999 1.50771580 0.00059838 0.00000000
2.09667763 0.81565985 -0.00233118 0.00000000
4.63726543 0.28830497 0.00197326 0.00000000
2.20710622 0.78447094 0.00037449 0.00000000
4.82796363 1.33728362 -0.00076739 0.00000000
4.17928176 1.25362878 -0.00438107 0.00000000
2.00053881 0.71400242 0.00431654 0.00000000
4.35882256 1.93915527 0.00131041 0.00000000
4.56993378 0.47662207 0.00366730 0.00000000
4.39596373 1.12082333 0.00438454 0.00000000
3.17925996 1.45512369 -0.00081851 0.00000000
0.74060680 1.26648675 -0.00071268 0.00000000
2.81198981 1.89667795 0.00344672 0.00000000
3.72390352 1.19982526 -0.00516123 0.00000000
4.04999016 1.62058685 0.00095354 0.00000000
1.25377664 0.20365488 0.00002221 0.00000000
4.13665473 1.56571187 0.00197238 0.00000000
0.85573810 0.76536129 0.00159147 0.00000000
4.25757017 0.22460879 -0.00083280 0.00000000
1.27576712 0.30764317 -0.00102454 0.00000000
0.15695932 1.13135181 -0.00025256 0.00000000
3.42457645 0.94857177 -0.00167066 0.00000000
1.53415215 0.10466418 0.00181918 0.00000000
3.47885166 0.63234604 -0.00161338 0.00000000
0.38264750 0.22409482 -0.00014845 0.00000000
2.34795220 0.49065726 0.00197809 0.00000000
3.07539480 1.74043177 0.00358962 0.00000000
0.53336107 1.43469722 0.00041548 0.00000000
1.76975965 1.93562560 0.00401396 0.00000000
4.53726801 1.52539006 0.00063464 0.00000000
2.35266735 1.58703419 -0.00117233 0.00000000
4.23163071 0.13154530 0.00466883 0.00000000
1.07653024 1.94306283 -0.00070855 0.00000000
0.22232468 0.38522838 -0.00338159 0.00000000
3.75518773 0.88297114 -0.00056346 0.00000000
4.59529209 0.20323156 0.00026559 0.00000000
2.70490643 1.47405967 -0.00024216 0.00000000
0.81838717 1.21266550 -0.00201486 0.00000000
0.13856505 0.26233939 -0.00344286 0.00000000
2.88012515 0.59111265 -0.00045255 0.00000000
0.37861046 0.53825041 -0.00215241 0.00000000
4.80984369 0.44014009 -0.00037197 0.00000000
3.95400811 1.13126329 0.00233622 0.00000000
0.08054248 0.20248043 -0.00469076 0.00000000
4.49600713 0.06547414 0.00145511 0.00000000
4.24476665 1.39970159 0.00092317 0.00000000
4.02002281 1.81331287 0.00079449 0.00000000
1.56907658 1.30208716 -0.00022834 0.00000000
3.67443966 0.99468265 0.00041145 0.00000000
4.64537165 0.94509743 -0.00097367 0.00000000
1.17370153 1.54586885 0.00763974 0.00000000
0.28293879 0.28820628 0.00163639 0.00000000
1.20813245 1.37099136 -0.00260931 0.00000000
1.55132269 0.44592799 0.00277889 0.00000000
2.44131563 0.66729830 -0.00108520 0.00000000
0.76867687 0.41298807 0.00583241 0.00000000
2.55852980 1.42549746 0.00177450 0.00000000
4.15081015 1.58306983 0.00231203 0.00000000
4.24990696 0.94515899 0.00037094 0.00000000
0.41897182 0.05402157 -0.00146206 0.00000000
0.31794730 1.84364744 0.00343384 0.00000000
1.98358753 0.38488197 0.00042870 0.00000000
1.73003724 0.40436889 -0.00333707 0.00000000
2.94758454 1.32989675 0.00096391 0.00000000
4.24844905 1.71984546 0.00166643 0.00000000
0.67699675 1.87922488 -0.00166421 0.00000000
2.91414820 0.17577553 0.00162835 0.00000000
4.05598967 1.49576955 0.00165939 0.00000000
4.05106814 1.67625471 -0.00300365 0.00000000
2.87058649 1.53259488 0.00294232 0.00000000
1.85817164 0.90778390 -0.00369351 0.00000000
2.34757068 1.16916260 -0.00348562 0.00000000
2.40818743 0.79633091 -0.00238147 0.00000000
3.68833400 0.61770130 0.00032400 0.00000000
0.07822386 0.40956888 0.00029945 0.00000000
1.95973319 0.14146786 0.00066684 0.00000000
3.18201866 0.67781710 0.00529763 0.00000000
1.69046293 1.43206122 -0.00046846 0.00000000
0.10069250 1.08484541 0.00030185 0.00000000
0.27004673 0.43547874 -0.00079877 0.00000000
0.06129902 0.58053271 -0.00054838 0.00000000
1.75126348 0.31484406 0.00149245 0.00000000
3.57350625 1.62001342 0.00402239 0.00000000
2.15095666 1.86859786 -0.00198732 0.00000000
3.05259056 2.01923435 -0.00299227 0.00000000
1.11048565 0.63428710 -0.00249679 0.00000000
3.50672183 1.24696309 0.00106876 0.00000000
3.63262406 1.22043046 -0.00169692 0.00000000
1.73954282 1.52704016 0.00099358 0.00000000
2.21632611 1.97112722 -0.00166161 0.00000000
4.29851554 1.39844290 0.00065092 0.00000000
3.31739661 1.22494294 0.00046428 0.00000000
3.36280858 0.69274425 -0.00080816 0.00000000
4.65663409 0.61142330 -0.00345839 0.00000000
2.25935059 1.37794816 -0.00681987 0.00000000
3.78926338 0.87446984 0.00125268 0.00000000
1.86361695 0.92180016 -0.00127784 0.00000000
3.60662114 1.25186655 -0.00230753 0.00000000
4.30287135 0.93142583 0.00028551 0.00000000
2.02458221 1.46991631 0.00298103 0.00000000
1.80474987 1.12171640 -0.00199507 0.00000000
0.02705586 1.89478260 -0.00726671 0.00000000
4.01560876 0.08513820 -0.00087856 0.00000000
2.63533278 0.99997191 0.00499622 0.00000000
4.14007201 2.04324940 0.00049433 0.00000000
1.90374209 0.53033762 -0.00164795 0.00000000
2.50897566 0.77689336 0.00032131 0.00000000
1.86819733 0.93566257 0.00722480 0.00000000
4.80444976 0.01020953 -0.00082216 0.00000000
2.96922368 1.59256875 -0.00401371 0.00000000
0.31221929 0.39403838 0.00039244 0.00000000
4.80163650 0.47412424 -0.00376958 0.00000000
3.87383437 0.32751183 0.00161919 0.00000000
2.31396323 0.11588586 0.00596531 0.00000000
4.31253322 1.61832919 -0.00089169 0.00000000
3.66024836 2.03057513 0.00207362 0.00000000
1.14453006 0.61628559 0.00163807 0.00000000
3.85318573 1.69452001 0.00095266 0.00000000
4.54526456 1.03269797 0.00070854 0.00000000
3.70753320 0.82020219 0.00032679 0.00000000
1.56912556 1.94194151 0.00343791 0.00000000
4.67396711 0.13091656 -0.00408335 0.00000000
4.23791288 1.76975110 -0.00336983 0.00000000
1.25436719 0.68406802 -0.00416808 0.00000000
2.76511689 0.72499235 -0.00106840 0.00000000
3.39064408 0.74557469 -0.00117396 0.00000000
1.82529405 0.90832414 0.00042759 0.00000000
3.68305615 1.88143931 -0.00375344 0.00000000
2.81438552 1.23860697 -0.00020214 0.00000000
0.94377548 0.15165650 -0.00148052 0.00000000
4.42575977 1.47712233 -0.00397563 0.00000000
0.51157194 1.04294848 0.00084674 0.00000000
1.46126502 2.01699389 -0.00404935 0.00000000
4.82228931 1.35753387 -0.00038616 0.00000000
0.55790975 2.04311662 0.00032297 0.00000000
4.58577250 1.66287750 0.00157339 0.00000000
1.49511381 0.50053129 -0.00013267 0.00000000
2.72029938 0.94292926 -0.00362898 0.00000000
0.14526032 1.35064454 -0.00258902 0.00000000
3.43287968 0.26327931 -0.00220194 0.00000000
2.91380538 0.90636302 0.00071898 0.00000000
3.09070698 0.65071880 -0.00110541 0.00000000
2.18341309 0.53837008 -0.00385653 0.00000000
2.92849505 0.41420767 -0.00485311 0.00000000
1.97631482 1.08088327 -0.00103385 0.00000000
2.97555725 0.25461452 0.00423742 0.00000000
2.96069587 0.91020930 -0.00294804 0.00000000
1.57970941 0.61094707 0.00266119 0.00000000
4.55718994 1.80826748 0.00102589 0.00000000
3.20187807 1.37102068 0.00219356 0.00000000
3.65848944 1.74180875 -0.00180021 0.00000000
0.29105267 1.52567736 0.00126810 0.00000000
3.23901334 1.28095396 -0.00233390 0.00000000
1.00197302 1.42822853 0.00087007 0.00000000
0.59614687 1.69751867 0.00186707 0.00000000
2.82540368 0.49428680 -0.00167995 0.00000000
0.25136688 1.68950196 0.00179848 0.00000000
3.78631236 0.12621828 -0.00133737 0.00000000
0.85387721 1.22766303 -0.00022897 0.00000000
4.31885611 1.07674997 -0.00079465 0.00000000
3.28332175 1.25216256 0.00064622 0.00000000
3.22017964 2.04111270 -0.00117069 0.00000000
3.04589082 0.86731231 0.00201997 0.00000000
1.78247154 0.63336817 -0.00175983 0.00000000
1.11249292 0.50686741 0.00273021 0.00000000
4.16847171 0.47319268 0.00099602 0.00000000
3.86892811 0.39474687 0.00230675 0.00000000
0.39824335 0.98625640 -0.00059357 0.00000000
3.45908686 0.57862979 -0.00277213 0.00000000
4.01523122 1.63668909 -0.00501575 0.00000000
2.60074859 0.35046723 -0.00276460 0.00000000
2.84482725 1.85687650 -0.00389837 0.00000000
4.44880293 0.11330090 -0.00305810 0.00000000
2.11532237 1.64620425 -0.00025647 0.00000000
0.32943403 1.76046439 -0.00522880 0.00000000
1.90042510 0.25446007 0.00287535 0.00000000
1.34715122 2.05596471 -0.00019641 0.00000000
3.84499305 1.45622010 -0.00016822 0.00000000
3.85432181 1.63352632 -0.00059681 0.00000000
3.42616261 1.97579972 0.00306493 0.00000000
2.81676169 1.38290721 0.00323850 0.00000000
3.19197810 0.50973688 -0.00028438 0.00000000
2.65121945 0.35378884 0.00075877 0.00000000
2.95200946 0.20554602 0.00792396 0.00000000
1.40275548 0.68619558 -0.00096326 0.00000000
0.13420078 1.34110721 0.00281906 0.00000000
0.57919204 1.56255828 0.00258171 0.00000000
1.81827840 0.05825738 -0.00235263 0.00000000
1.52111220 0.99819417 -0.00189444 0.00000000
3.88792088 1.85788085 -0.00208980 0.00000000
4.34661496 0.45327334 0.00054613 0.00000000
2.04164720 2.00824555 -0.00205988 0.00000000
4.26751831 1.90599096 0.00163486 0.00000000
1.72696911 0.36442955 0.00192048 0.00000000
2.63371543 1.11397388 0.00109956 0.00000000
0.57166238 0.54027041 -0.00319587 0.00000000
1.62837189 1.84037984 -0.00022802 0.00000000
4.10866485 1.95127954 -0.00221903 0.00000000
2.45271306 0.71280115 0.00040545 0.00000000
0.27461639 1.07917453 -0.00394305 0.00000000
2.69664335 1.67089321 -0.00239708 0.00000000
2.34966935 0.86372472 0.00211024 0.00000000
1.45528771 0.05200487 0.00061589 0.00000000
0.68890874 1.36403685 -0.00051446 0.00000000
4.56653336 1.99910359 0.00255932 0.00000000
0.99345665 1.05117410 0.00366063 0.00000000
4.33017434 1.07377430 -0.00240498 0.00000000
4.79938995 1.15297998 -0.00284124 0.00000000
2.32896375 1.25189170 0.00181996 0.00000000
0.34481099 1.19307801 0.00040008 0.00000000
0.44634685 0.05415636 0.00247659 0.00000000
0.54764284 0.32733255 -0.00185000 0.00000000
0.75969459 0.15306594 0.00058919 0.00000000
1.99408528 0.27961677 0.00259269 0.00000000
3.52281007 0.69469525 -0.00494780 0.00000000
1.89964232 1.07650213 -0.00155544 0.00000000
0.67170072 0.14136249 -0.00089097 0.00000000
2.59152802 1.50678765 0.00443264 0.00000000
3.98792498 0.72267987 -0.00173111 0.00000000
4.47695225 0.71823600 -0.00415849 0.00000000
1.80705259 1.31593175 -0.00273389 0.00000000
1.93298632 0.52204193 -0.00120131 0.00000000
4.04273735 1.70259836 0.00176906 0.00000000
1.78689720 0.54309911 -0.00190277 0.00000000
0.53281393 0.40074262 -0.00337425 0.00000000
3.73343938 1.33900135 0.00564245 0.00000000
1.95760520 1.78726337 0.00366623 0.00000000
3.32190080 0.61169192 0.00044361 0.00000000
0.53947312 1.08281088 0.00106204 0.00000000
3.63383215 0.63826836 -0.00313638 0.00000000
4.21363512 0.58338666 -0.00184875 0.00000000
0.60876736 0.36050117 0.00134279 0.00000000
2.08830723 0.52209912 0.00087283 0.00000000
3.00171742 0.53647643 -0.00044716 0.00000000
3.27675371 0.10871889 0.00131011 0.00000000
0.49334656 1.95122396 0.00082068 0.00000000
2.25869194 2.04821976 0.00032698 0.00000000
1.55431537 1.07319667 0.00065239 0.00000000
4.12300402 1.43029516 0.00080103 0.00000000
0.85246568 2.02956939 -0.00031650 0.00000000
3.08530025 0.99986305 0.00016266 0.00000000
3.06824627 1.54691959 -0.00056545 0.00000000
0.59387056 0.88314974 -0.00251303 0.00000000
0.24478878 0.75835396 -0.00436437 0.00000000
3.53694151 0.98251652 0.00009065 0.00000000
1.87983654 0.64259267 0.00133962 0.00000000
2.43360079 0.48565769 -0.00205889 0.00000000
2.72319064 0.00997665 0.00190885 0.00000000
3.27060155 1.48638259 0.00049258 0.00000000
3.05871647 0.00176660 -0.00531692 0.00000000
2.88968620 0.75575022 -0.00149865 0.00000000
4.27849832 1.23030487 0.00301145 0.00000000
0.49483956 0.55731774 -0.00236903 0.00000000
4.47729472 0.39453433 -0.00319775 0.00000000
0.11175269 1.40317233 0.00001671 0.00000000
2.41091319 0.56485867 -0.00454019 0.00000000
0.76343057 0.10975122 -0.00145268 0.00000000
2.72712880 0.64899292 -0.00217432 0.00000000
0.73926130 0.92964607 0.00534809 0.00000000
4.14342200 1.46188214 -0.00275221 0.00000000
2.04650385 0.67006464 0.00221980 0.00000000
3.98831970 1.24711831 -0.00333372 0.00000000
0.41872248 0.82908237 0.00178269 0.00000000
0.07305685 0.52876884 0.00604518 0.00000000
0.18106677 1.74090487 0.00081228 0.00000000
2.10630574 0.81078308 0.00108052 0.00000000
0.66087763 0.25902543 0.00152569 0.00000000
4.25365047 1.86437778 0.00087874 0.00000000
4.68473423 1.81164578 -0.00132739 0.00000000
0.48362799 0.29572907 -0.00215141 0.00000000
0.78101568 1.22928173 -0.00207219 0.00000000
1.15451772 1.54705664 -0.00435615 0.00000000
2.78301346 0.15426976 -0.00031717 0.00000000
0.84233877 1.66139159 -0.00203153 0.00000000
4.57911148 0.50396375 0.00114878 0.00000000
2.60890473 2.05413250 0.00303216 0.00000000
3.77198455 1.29770673 0.00196426 0.00000000
4.64190737 0.09814105 -0.00003270 0.00000000
2.98418497 1.53865118 0.00297859 0.00000000
0.86341252 1.24532503 -0.00075600 0.00000000
0.06539898 1.66859936 -0.00198714 0.00000000
3.57014161 1.08506715 -0.00091842 0.00000000
1.67172537 0.67538619 0.00080521 0.00000000
0.10871739 1.33840138 -0.00232127 0.00000000
0.30060462 0.93761853 -0.00037457 0.00000000
4.17629121 1.11148038 -0.00102751 0.00000000
3.31733505 0.87025590 -0.00117786 0.00000000
2.53047765 2.04447030 0.00250820 0.00000000
0.93423442 2.03097902 0.00266900 0.00000000
4.77397815 0.44786059 -0.00300338 0.00000000
1.68381594 0.05235552 0.00116294 0.00000000
1.99967491 1.06738332 0.00163829 0.00000000
3.94910154 1.34684518 0.00079961 0.00000000
0.24977368 1.37816485 0.00211934 0.00000000
0.96826421 1.41459871 0.00195585 0.00000000
4.76681830 0.35298102 -0.00001239 0.00000000
1.46852643 0.53328788 0.00356549 0.00000000
2.05011636 0.14548678 0.00248704 0.00000000
2.99706705 0.10002872 -0.00238077 0.00000000
2.48513855 0.52577038 -0.00377218 0.00000000
2.57883542 1.37533677 0.00328867 0.00000000
1.91348021 0.39975278 -0.00052553 0.00000000
3.68899955 0.47879166 -0.00168114 0.00000000
3.45917899 1.45659603 0.00005563 0.00000000
0.32663210 1.14999182 -0.00073406 0.00000000
4.51843161 0.36956560 0.00314390 0.00000000
2.18746499 1.77343710 -0.00139950 0.00000000
3.12915388 1.98926556 -0.00080354 0.00000000
3.48194362 0.74948329 0.00072846 0.00000000
3.89574033 1.12364537 -0.00507611 0.00000000
1.85054035 1.25661244 0.00160448 0.00000000
2.12847948 0.46018367 -0.00176533 0.00000000
1.30352581 1.84409640 0.00372907 0.00000000
4.28637908 0.12310926 -0.00136287 0.00000000
1.89218137 1.51934858 0.00042539 0.00000000
2.88421279 1.19057263 0.00054845 0.00000000
2.16878410 0.69412501 0.00136113 0.00000000
1.41295196 0.44035557 -0.00476646 0.00000000
2.61334040 1.61408164 0.00152628 0.00000000
3.51244782 0.67879531 0.00223724 0.00000000
4.44380192 1.06689187 -0.00054784 0.00000000
4.28540126 1.54909824 -0.00345386 0.00000000
2.45752673 1.22671614 0.00307061 0.00000000
0.97942276 0.85886510 -0.00183019 0.00000000
4.19455683 0.19399972 0.00344455 0.00000000
4.38036026 0.48344804 0.00321250 0.00000000
1.39357249 1.60116733 -0.00179861 0.00000000
3.73186415 0.97599918 0.00006045 0.00000000
4.22246745 0.44334541 -0.00129073 0.00000000
3.39940489 2.05579509 0.00132218 0.00000000
3.34370220 1.43582772 0.00179225 0.00000000
2.94688648 0.55696475 0.00196461 0.00000000
2.47159038 0.17926625 -0.00136666 0.00000000
0.25160141 1.15702268 -0.00157585 0.00000000
4.79420748 0.04408455 0.00356397 0.00000000
0.17645596 1.02119130 -0.00124286 0.00000000
0.53518439 0.87856462 -0.00215672 0.00000000
0.66963857 0.28483763 0.00190502 0.00000000
1.31732576 1.00171882 -0.00064989 0.00000000
0.34661719 0.01800942 -0.00252773 0.00000000
2.43177290 1.57757043 -0.00064147 0.00000000
0.60010685 1.77840718 0.00237685 0.00000000
3.21540384 1.85672632 0.00222150 0.00000000
0.64034355 0.80488570 0.00231676 0.00000000
1.25083029 1.71695235 0.00073986 0.00000000
4.78902393 1.84160051 0.00017047 0.00000000
4.82402515 0.96721122 0.00047374 0.00000000
4.53449960 1.41498350 0.00439142 0.00000000
0.66362149 1.92145886 -0.00049474 0.00000000
0.66343257 0.27472494 -0.00411995 0.00000000
4.70310748 0.62327333 -0.00118873 0.00000000
1.50992999 0.35674831 -0.00347719 0.00000000
1.41355190 1.21001288 0.00221725 0.00000000
0.23268040 1.58462807 -0.00146882 0.00000000
0.38339156 0.47530563 -0.00151011 0.00000000
3.46934370 1.82000796 0.00392089 0.00000000
0.32313948 1.10954027 0.00075639 0.00000000
0.53803686 0.60638860 0.00154070 0.00000000
2.75774871 2.01269746 -0.00049499 0.00000000
1.54593099 0.64849981 -0.00023670 0.00000000
1.99245164 1.69949793 -0.00429509 0.00000000
0.88421417 1.32337898 0.00098262 0.00000000
3.66474897 1.01569924 -0.00070893 0.00000000
1.99872650 2.02160502 0.00265855 0.00000000
0.42130872 1.57011359 0.00271113 0.00000000
4.77232304 0.09578531 -0.00064884 0.00000000
1.14038593 0.80536024 0.00350135 0.00000000
0.94399556 1.69134655 -0.00107382 0.00000000
0.73284976 1.04962435 0.00060129 0.00000000
3.50398169 1.17989452 -0.00002099 0.00000000
1.24200790 0.97785457 0.00171395 0.00000000
0.21922465 0.39715711 0.00194372 0.00000000
4.65045841 0.25988260 -0.00563971 0.00000000
3.56989278 0.76310872 -0.00101030 0.00000000
3.75905699 1.62017628 -0.00062899 0.00000000
4.43431410 0.33135694 -0.00603621 0.00000000
1.41832653 1.98501133 -0.00066928 0.00000000
4.01622113 1.74722438 0.00156646 0.00000000
2.52959369 0.34915092 0.00095884 0.00000000
0.71226114 1.02536135 0.00052864 0.00000000
2.90067824 0.65596091 -0.00081645 0.00000000
0.35294415 0.77115762 0.00127634 0.00000000
2.48486954 1.89681759 0.00083216 0.00000000
2.70601539 1.25099928 -0.00159491 0.00000000
1.57202097 0.68604991 -0.00051913 0.00000000
4.09429473 0.32061322 -0.00158639 0.00000000
0.48971944 0.28917598 -0.00075557 0.00000000
4.03727401 0.13744959 0.00269146 0.00000000
0.46106708 0.94127767 0.00083754 0.00000000
2.15203996 1.83327297 -0.00065402 0.00000000
1.13712040 1.27412635 -0.00618537 0.00000000
0.98007920 1.44187186 -0.00141783 0.00000000
0.95985520 1.57728592 0.00033749 0.00000000
1.81724760 0.95501648 0.00215980 0.00000000
3.96166658 1.62229940 -0.00334394 0.00000000
2.38896365 0.30074127 -0.00220363 0.00000000
4.00787581 0.22290430 -0.00441274 0.00000000
0.93275370 1.34788617 -0.00132894 0.00000000
0.59652450 1.98631990 -0.00267367 0.00000000
1.60971156 0.56067941 0.00253869 0.00000000
3.15683776 1.26759226 -0.00324218 0.00000000
0.73794257 0.19111925 0.00225177 0.00000000
0.68908798 0.81186731 -0.00066287 0.00000000
1.38232365 1.73798487 0.00010640 0.00000000
1.40385070 0.02331848 0.00318513 0.00000000
0.63500166 0.47582885 -0.00264053 0.00000000
4.09737306 0.46602940 -0.00438271 0.00000000
2.90265659 0.89723318 0.00167011 0.00000000
3.61336068 1.14630984 0.00002327 0.00000000
2.83355694 0.83196199 0.00153334 0.00000000
2.74928492 0.26859420 -0.00076091 0.00000000
0.99049365 0.72803319 0.00223753 0.00000000
1.24263028 0.63013216 -0.00240099 0.00000000
3.25120951 0.16420930 0.00042417 0.00000000
4.35674173 0.45776633 -0.00038332 0.00000000
0.26520425 0.68399168 -0.00079073 0.00000000
1.59102460 1.82709403 -0.00074627 0.00000000
0.23040766 1.64987909 -0.00147029 0.00000000
1.98546310 1.86770212 -0.00062148 0.00000000
4.40287411 1.67490044 -0.00250783 0.00000000
4.23469491 1.54203227 -0.00313928 0.00000000
4.09613771 0.66455535 0.00079024 0.00000000
1.14968800 1.36263572 0.00907249 0.00000000
4.06051305 1.92725435 0.00100646 0.00000000
0.66097781 0.53804080 -0.00080547 0.00000000
1.28414180 1.80145755 -0.00013667 0.00000000
2.62886252 1.35664036 -0.00001612 0.00000000
2.78388957 1.90840354 -0.00159047 0.00000000
2.46235822 0.46481528 0.00026935 0.00000000
1.60467062 0.55892000 -0.00005535 0.00000000
2.16997125 1.97161940 -0.00230066 0.00000000
3.74066715 1.79277913 0.00286980 0.00000000
2.44126426 1.32159509 -0.00100473 0.00000000
2.72834964 1.00136232 -0.00060618 0.00000000
3.21118797 1.26767027 0.00085990 0.00000000
0.98608688 0.00118447 -0.00048856 0.00000000
4.16252744 1.68259292 0.00194680 0.00000000
1.08621601 1.83208898 0.00542112 0.00000000
1.06013877 0.63238737 -0.00074523 0.00000000
3.64035799 0.13861963 -0.00091355 0.00000000
4.77040523 0.99319600 0.00094516 0.00000000
0.53122895 1.49172522 0.00378108 0.00000000
3.22697176 1.37727581 0.00088189 0.00000000
1.05355851 0.34554047 0.00236351 0.00000000
0.60409604 1.92498644 0.00557811 0.00000000
1.26870501 1.00417108 0.00207625 0.00000000
0.44719173 1.82293942 -0.00379309 0.00000000
0.13312825 1.39776444 -0.00236235 0.00000000
2.89961345 0.18782925 0.00346189 0.00000000
1.98493998 1.06373286 -0.00033145 0.00000000
0.70451143 1.62353298 -0.00073788 0.00000000
1.11576465 0.58638476 0.00088782 0.00000000
1.54640709 0.20139160 0.00144821 0.00000000
2.94120008 0.62750353 -0.00018578 0.00000000
3.93927824 1.52442197 -0.00018152 0.00000000
1.90804492 0.36743912 0.00149737 0.00000000
1.06781296 0.78180701 0.00052424 0.00000000
0.00476282 1.47538218 0.00233772 0.00000000
0.66148991 2.05505356 0.00269352 0.00000000
3.36257568 0.44098799 0.00351158 0.00000000
2.85244526 0.86678307 0.00173882 0.00000000
2.16190826 0.15235940 -0.00242269 0.00000000
3.62884330 0.72428473 -0.00147759 0.00000000
4.27952058 0.84027711 -0.00093710 0.00000000
1.94099872 0.16135993 -0.00215665 0.00000000
2.80479197 0.98544512 -0.00234979 0.00000000
1.41566099 1.81538403 0.00206874 0.00000000
1.66370368 1.59354088 0.00088069 0.00000000
4.46739071 0.66688676 -0.00210273 0.00000000
2.48857288 0.70005815 -0.00126085 0.00000000
1.61681241 1.27559791 0.00080365 0.00000000
1.61194021 0.23050945 0.00681016 0.00000000
2.42055831 0.02177936 0.00308232 0.00000000
3.30412071 1.91975987 -0.00095088 0.00000000
1.70036862 0.46485634 0.00212092 0.00000000
3.23953473 0.66021542 0.00369713 0.00000000
1.18770981 0.01712590 -0.00347332 0.00000000
2.69622721 0.83472656 0.00080941 0.00000000
2.79894998 1.84257815 -0.00110512 0.00000000
3.42237662 1.40270477 -0.00363260 0.00000000
4.41984128 1.03978940 -0.00020871 0.00000000
3.86178755 0.83856766 0.00034336 0.00000000
3.59946819 0.38540813 -0.00205482 0.00000000
0.59808470 0.11840375 -0.00077484 0.00000000
3.64484640 1.00088958 -0.00446761 0.00000000
3.41567366 0.40266083 -0.00058148 0.00000000
0.70189803 0.23827251 0.00028516 0.00000000
3.13509437 0.24569428 0.00061831 0.00000000
4.34340227 0.89787641 0.00155611 0.00000000
2.91673611 0.38537337 -0.00308204 0.00000000
4.53117894 1.50171756 0.00163071 0.00000000
4.04067014 0.49368348 0.00005037 0.00000000
3.40792259 0.26036039 -0.00388236 0.00000000
1.94414899 0.20238485 0.00126639 0.00000000
0.79858485 1.73433293 0.00405333 0.00000000
1.65910785 0.43247443 -0.00385778 0.00000000
1.18161062 0.04603213 0.00419613 0.00000000
1.27479198 1.08735051 0.00297225 0.00000000
2.01337268 0.83971351 -0.00017432 0.00000000
3.76223564 1.19590995 -0.00162194 0.00000000
2.03342816 1.20270186 -0.00143713 0.00000000
0.99174477 1.79443643 0.00022576 0.00000000
4.12821132 1.45056124 0.00514688 0.00000000
4.25522556 0.43957578 -0.00169506 0.00000000
2.28438338 0.20234964 -0.00356321 0.00000000
0.32738025 1.08056577 -0.00140830 0.00000000
0.84157881 1.56369074 -0.00072786 0.00000000
3.85725657 1.21472912 -0.00394842 0.00000000
3.02255461 0.22845312 -0.00115678 0.00000000
2.08700662 1.16611755 0.00119096 0.00000000
2.83815055 0.70030180 -0.00038235 0.00000000
2.81266205 1.44439195 -0.00055023 0.00000000
0.71151330 0.17454709 0.00196317 0.00000000
1.71805007 1.32310023 0.00170068 0.00000000
4.17792191 1.92093643 -0.00241092 0.00000000
0.43066013 0.96667554 -0.00311766 0.00000000
0.16431484 1.09563470 -0.00040873 0.00000000
0.63549636 0.90051259 0.00118434 0.00000000
1.72070652 1.18405315 0.00147954 0.00000000
2.23887494 0.91546851 -0.00162176 0.00000000
1.88568939 0.97667636 0.00007573 0.00000000
1.08600483 1.65148559 -0.00341699 0.00000000
0.33709209 1.04354458 -0.00263156 0.00000000
1.32640051 0.15264757 0.00143209 0.00000000
4.75445573 1.71834981 -0.00319744 0.00000000
0.03024738 0.52160183 -0.00084404 0.00000000
0.39897946 1.93938866 -0.00266516 0.00000000
3.06044356 1.33177693 0.00258818 0.00000000
2.09402975 0.36083606 -0.00350912 0.00000000
3.81308151 1.55378754 0.00041152 0.00000000
3.45859989 1.30734673 -0.00328822 0.00000000
4.83073366 0.35992325 -0.00012338 0.00000000
0.55990260 0.56162894 -0.00103447 0.00000000
4.51721750 1.41496666 0.00032099 0.00000000
2.24387697 1.26837223 -0.00008568 0.00000000
1.14821816 0.76276924 -0.00327416 0.00000000
2.48480428 0.05994787 -0.00043702 0.00000000
0.10092370 0.15841903 0.00285446 0.00000000
0.62946129 0.30209444 0.00256611 0.00000000
1.86509431 0.83035413 0.00217724 0.00000000
1.30102702 1.21943924 0.00191017 0.00000000
4.53262462 0.83410732 -0.00287630 0.00000000
2.04472922 0.87021447 -0.00644535 0.00000000
0.50695582 2.06523788 0.00154615 0.00000000
1.10880301 0.82737633 -0.00206408 0.00000000
3.82848482 0.45038039 -0.00035525 0.00000000
3.28415414 0.13423812 0.00172775 0.00000000
2.48705125 1.24291684 -0.00236837 0.00000000
3.14015861 0.78906344 -0.00266742 0.00000000
2.64498191 0.04592385 0.00172623 0.00000000
4.35667428 0.34639154 0.00104604 0.00000000
2.09753972 0.71202761 0.00057491 0.00000000
0.97178193 1.03990563 0.00105512 0.00000000
0.89899747 0.87398488 0.00489133 0.00000000
1.19711157 1.76414900 0.00017372 0.00000000
1.41669969 0.92916040 0.00056995 0.00000000
4.64229159 1.90351464 -0.00143606 0.00000000
1.83906982 0.68772563 0.00080931 0.00000000
0.25252156 1.02863390 -0.00101741 0.00000000
3.49567025 1.12772578 -0.00179650 0.00000000
0.36641256 0.09419328 0.00190326 0.00000000
2.42270361 0.44388901 0.00041853 0.00000000
4.26343613 1.65337410 0.00099359 0.00000000
0.29793229 1.52947995 0.00172187 0.00000000
1.79698081 0.56775453 -0.00102994 0.00000000
3.13179371 0.03807597 -0.00024040 0.00000000
2.50028841 0.26314297 0.00174639 0.00000000
3.65116222 0.87805389 0.00038434 0.00000000
0.38740357 0.45912823 -0.00757739 0.00000000
2.30496265 1.64894053 0.00181681 0.00000000
1.53423412 1.74112355 0.00243004 0.00000000
1.07234677 1.97199115 -0.00411350 0.00000000
2.40698536 1.58073537 -0.00012418 0.00000000
3.46314349 0.26794333 0.00023807 0.00000000
4.35239557 0.58708580 0.00150367 0.00000000
4.55630162 0.69389292 0.00020768 0.00000000
4.12035551 0.55324391 0.00184922 0.00000000
2.32862592 0.11120393 -0.00029891 0.00000000
1.54691930 1.30750023 0.00441776 0.00000000
4.40661586 0.51255722 0.00146148 0.00000000
4.18237993 0.69284396 0.00108489 0.00000000
3.42595813 0.70557148 0.00220387 0.00000000
1.56225052 1.64890109 0.00035687 0.00000000
4.50980241 1.19196658 -0.00381220 0.00000000
0.76273823 1.23616078 0.00007760 0.00000000
1.02638780 1.37489636 -0.00356039 0.00000000
3.28194644 1.94665405 0.00075579 0.00000000
0.22228676 1.82236530 -0.00422866 0.00000000
4.04302409 0.21961107 -0.00270653 0.00000000
4.19275840 0.78654977 0.00336190 0.00000000
0.37846150 1.12573539 0.00046760 0.00000000
4.29828419 0.21725938 0.00299753 0.00000000
3.16193779 0.97112540 0.00131976 0.00000000
3.80039100 1.90907974 -0.00385734 0.00000000
3.63624291 0.35637615 -0.00141345 0.00000000
3.74175056 1.48714430 -0.00432173 0.00000000
1.62545677 0.89198923 -0.00097891 0.00000000
3.09573562 0.37889053 0.00183801 0.00000000
3.20688727 1.08611230 0.00006427 0.00000000
0.83151988 0.45776810 0.00045275 0.00000000
2.75913991 1.98915950 0.00330311 0.00000000
4.59088742 1.97662193 -0.00152498 0.00000000
0.76588868 1.53690109 0.00000356 0.00000000
3.21755671 1.77433917 -0.00431824 0.00000000
1.79454842 1.25087707 0.00074778 0.00000000
3.64499401 1.16100284 -0.00043233 0.00000000
0.27444399 1.43047162 -0.00614057 0.00000000
2.65789053 0.12993284 -0.00373241 0.00000000
2.99623021 1.59245311 -0.00455379 0.00000000
0.23755921 1.46654940 0.00008471 0.00000000
1.24236555 1.78990085 0.00178751 0.00000000
4.79826218 1.79910842 0.00116962 0.00000000
0.62228255 0.85861776 0.00222656 0.00000000
3.14932641 1.21746153 -0.00018827 0.00000000
0.45217714 1.32542928 0.00435097 0.00000000
0.63375448 0.00119195 -0.00044143 0.00000000
0.04288513 0.84063292 -0.00310655 0.00000000
3.29503692 0.97886799 0.00133498 0.00000000
1.18125198 0.66539243 -0.00051540 0.00000000
4.75732816 1.26971953 0.00056528 0.00000000
0.40425701 1.03504619 -0.00024692 0.00000000
1.89362188 1.88945207 -0.00565677 0.00000000
3.21834712 1.54419953 0.00419920 0.00000000
2.95873086 0.15918789 0.00295286 0.00000000
0.04307430 1.53353889 -0.00222745 0.00000000
3.54811681 0.91891352 -0.00254377 0.00000000
3.89934818 0.00822412 -0.00086934 0.00000000
0.75160295 1.66273710 0.00125917 0.00000000
1.73171176 1.05327346 -0.00496300 0.00000000
4.19431436 0.73874824 -0.00345052 0.00000000
2.92836786 1.72949675 -0.00183554 0.00000000
2.38609560 1.29412985 0.00478821 0.00000000
2.68672847 0.12471846 -0.00023226 0.00000000
2.26306474 0.02986983 -0.00480889 0.00000000
3.11148718 0.07476139 -0.00120799 0.00000000
0.08330811 1.02954190 -0.00221869 0.00000000
3.79548508 0.42162611 0.00074342 0.00000000
2.89698567 2.01023914 -0.00125248 0.00000000
2.58434294 0.13720619 0.00034763 0.00000000
4.50235628 0.24399644 -0.00036193 0.00000000
2.60342370 0.57367739 -0.00233909 0.00000000
0.15410907 0.23384240 0.00107466 0.00000000
1.98127448 1.17274452 0.00678564 0.00000000
0.83657226 1.33185880 0.00245600 0.00000000
4.50442746 0.97666982 -0.00318788 0.00000000
2.52959587 0.20939224 -0.00381617 0.00000000
4.34406255 0.93083199 0.00361876 0.00000000
0.62602760 0.98128665 0.00005100 0.00000000
4.11370557 0.97932045 0.00445793 0.00000000
3.69610968 0.20741520 0.00085432 0.00000000
4.62272988 1.16748801 -0.00094240 0.00000000
2.49229638 1.06601168 -0.00176947 0.00000000
3.26732559 1.29618812 0.00275455 0.00000000
4.52686476 1.35387100 -0.00034984 0.00000000
0.58628718 1.38165274 0.00470538 0.00000000
0.02405088 0.41230180 0.00008293 0.00000000
1.14605632 0.08394663 0.00014674 0.00000000
3.95078492 0.01088245 0.00034783 0.00000000
3.52525285 1.15810443 0.00039965 0.00000000
3.04102958 0.97978673 0.00504458 0.00000000
0.18440804 0.82263423 -0.00125984 0.00000000
2.70162661 1.72487600 -0.00167063 0.00000000
1.96265269 0.20051681 -0.00541213 0.00000000
0.50985635 0.30363935 -0.00423113 0.00000000
1.34948689 1.97902235 -0.00462952 0.00000000
3.65551063 1.32584022 -0.00191418 0.00000000
3.67174347 0.26462614 -0.00008340 0.00000000
2.27799965 1.81488508 -0.00272144 0.00000000
3.02694688 2.01981760 0.00297242 0.00000000
2.49601951 0.80226731 -0.00256873 0.00000000
0.01171243 0.08385006 0.00219277 0.00000000
1.51768412 1.71532974 0.00376758 0.00000000
1.19750643 1.07471702 -0.00504253 0.00000000
0.45676869 1.28862370 0.00188862 0.00000000
3.89409098 0.05300784 0.00087063 0.00000000
4.55017023 1.61258948 -0.00085618 0.00000000
1.79979673 0.43343405 0.00076342 0.00000000
3.77606809 0.20220354 0.00031281 0.00000000
3.45062094 0.14570139 -0.00390608 0.00000000
1.09224370 0.71244134 0.00012426 0.00000000
2.19265017 1.01113087 -0.00275995 0.00000000
2.07842002 1.28314205 0.00020364 0.00000000
1.29985712 1.81044666 0.00160769 0.00000000
0.58922946 0.60905373 0.00092026 0.00000000
0.02496733 0.93449989 0.00416563 0.00000000
3.73882413 0.33764245 -0.00050918 0.00000000
2.92590151 2.01789169 -0.00255252 0.00000000
3.37559119 0.01168107 -0.00256677 0.00000000
0.24992825 0.98694551 -0.00273988 0.00000000
0.33338961 1.87148166 -0.00119812 0.00000000
1.48417139 0.58351309 -0.00341456 0.00000000
2.89206065 0.54574501 0.00014136 0.00000000
0.99311958 0.13306237 -0.00030431 0.00000000
1.47779265 0.91509720 0.00240853 0.00000000
1.22166691 1.53255789 -0.00376344 0.00000000
1.22674732 0.42550475 0.00303377 0.00000000
0.75326060 1.51537702 -0.00414947 0.00000000
0.18209446 0.57416752 -0.00299148 0.00000000
4.52539698 0.47207257 -0.00126233 0.00000000
3.44859723 0.81070506 0.00168262 0.00000000
2.09047540 1.19972215 -0.00203842 0.00000000
2.31621086 1.88626386 -0.00020091 0.00000000
3.14852612 0.42925210 -0.00072662 0.00000000
3.04275772 1.92180337 -0.00077579 0.00000000
4.80793212 0.58075811 -0.00357755 0.00000000
1.61743326 1.55734648 0.00213703 0.00000000
