1.99454374 0.00282687 0.00121153 1.00000000
2.12319604 -0.00253184 0.00001677 1.00000000
3.36885360 0.00193920 -0.00316284 1.00000000
2.99161155 0.00357277 -0.00007420 1.00000000
0.11872315 -0.00066072 0.00000646 1.00000000
0.53004086 0.00160622 0.00096969 1.00000000
3.36060074 -0.00233388 -0.00055558 1.00000000
0.61217522 -0.00260581 0.00192205 1.00000000
1.85276752 -0.00233619 -0.00013781 1.00000000
2.72092811 0.00080826 -0.00163292 1.00000000
1.30927150 -0.00119622 -0.00079358 1.00000000
2.09550042 -0.00160544 -0.00136822 1.00000000
1.28523017 -0.00170736 0.00147916 1.00000000
2.50131049 -0.00238000 0.00065279 1.00000000
0.26197773 -0.00208512 0.00086223 1.00000000
0.11878584 0.00184348 -0.00182859 1.00000000
0.18126152 0.00049812 -0.00174249 1.00000000
2.40176128 0.00023964 -0.00291402 1.00000000
0.87171371 0.00031665 -0.00029090 1.00000000
3.10707843 -0.00127494 -0.00106014 1.00000000
3.02188971 -0.00154437 0.00363959 1.00000000
1.12044642 -0.00135301 0.00505451 1.00000000
0.78392576 0.00072334 0.00018843 1.00000000
1.73788287 0.00045472 0.00205695 1.00000000
1.74635359 -0.00287188 0.00115389 1.00000000
2.02675976 0.00040311 0.00143260 1.00000000
0.45948476 0.00237171 -0.00551200 1.00000000
4.00128324 0.00111259 0.00007916 1.00000000
2.09564610 -0.00026423 0.00321817 1.00000000
2.81338642 -0.00115351 0.00167645 1.00000000
0.65117923 0.00320776 0.00163122 1.00000000
1.42007535 -0.00057589 -0.00116561 1.00000000
3.97763123 0.00013690 -0.00138156 1.00000000
0.33457262 -0.00590739 0.00100788 1.00000000
0.82822813 0.00561073 0.00391238 1.00000000
1.24882129 -0.00143275 0.00087423 1.00000000
0.84406352 -0.00018866 -0.00410229 1.00000000
0.18105412 0.00088717 -0.00086148 1.00000000
0.64973584 0.00344802 0.00005472 1.00000000
2.19705295 0.00148859 0.00097586 1.00000000
0.98517509 0.00316914 0.00254731 1.00000000
1.66590274 -0.00105929 0.00359901 1.00000000
3.71919460 -0.00099284 0.00233328 1.00000000
2.86451027 0.00298361 0.00163986 1.00000000
2.98626550 0.00309595 0.00101279 1.00000000
0.33752654 0.00212261 0.00049683 1.00000000
2.64897813 0.00032020 0.00357199 1.00000000
2.13654453 -0.00416692 -0.00069794 1.00000000
3.32513279 0.00331000 -0.00391953 1.00000000
1.21101237 0.00036989 -0.00277316 1.00000000
2.96368514 -0.00213850 0.00354517 1.00000000
2.84413179 -0.00231969 -0.00086031 1.00000000
0.49502485 0.00205163 0.00094635 1.00000000
0.49313119 -0.00151159 -0.00030672 1.00000000
1.33187822 0.00303481 -0.00179211 1.00000000
3.37632209 0.00362636 -0.00046744 1.00000000
3.89323003 -0.00289223 0.00263354 1.00000000
3.21493150 -0.00134703 0.00021745 1.00000000
3.87116719 0.00330244 -0.00428460 1.00000000
3.49141652 -0.00253395 0.00003023 1.00000000
3.67389805 0.00164541 -0.00108466 1.00000000
0.22397261 0.00178897 0.00078801 1.00000000
3.47456068 -0.00074036 -0.00077723 1.00000000
0.54828018 0.00483466 -0.00118622 1.00000000
1.76523559 -0.00207602 0.00154922 1.00000000
3.59334444 -0.00025829 -0.00112706 1.00000000
1.15580977 0.00148896 0.00136630 1.00000000
2.03002285 -0.00233089 -0.00068204 1.00000000
2.62619235 -0.00409436 0.00165598 1.00000000
0.40487767 -0.00105208 0.00108032 1.00000000
0.05903286 0.00277849 -0.00384037 1.00000000
3.23246527 0.00162157 0.00136122 1.00000000
0.13393395 -0.00226292 0.00435389 1.00000000
1.42473155 -0.00079395 -0.00047360 1.00000000
2.12507618 0.00149521 0.00515383 1.00000000
2.83494823 0.00048937 0.00272416 1.00000000
3.12619464 0.00137604 -0.00007765 1.00000000
1.26522301 0.00491827 -0.00275167 1.00000000
1.47206820 0.00035688 -0.00044160 1.00000000
0.65068189 0.00439050 0.00004063 1.00000000
1.11077678 -0.00351189 -0.00574030 1.00000000
1.90336162 0.00172779 0.00113693 1.00000000
2.78910183 -0.00234324 -0.00108735 1.00000000
0.03067875 -0.00366969 -0.00008893 1.00000000
3.47762519 -0.00164236 0.00174232 1.00000000
1.73775689 -0.00039827 0.00081427 1.00000000
3.39461650 -0.00023093 -0.00632788 1.00000000
2.66370025 0.00038342 -0.00060663 1.00000000
2.79733705 0.00031448 0.00012641 1.00000000
1.38926632 0.00051068 0.00540634 1.00000000
2.98170826 -0.00019776 0.00169360 1.00000000
3.88995078 0.00453084 0.00197931 1.00000000
1.72884545 -0.00271650 -0.00166500 1.00000000
2.23701312 -0.00075740 -0.00103734 1.00000000
3.05390462 0.00279409 -0.00204033 1.00000000
1.39967975 0.00176047 -0.00070461 1.00000000
0.77219689 0.00409251 -0.00117929 1.00000000
3.35076409 -0.00132002 -0.00394963 1.00000000
3.82664247 -0.00309527 0.00128333 1.00000000
0.65934676 0.00149152 0.00011232 1.00000000
2.89581417 -0.00144650 -0.00032726 1.00000000
2.39461255 0.00014097 -0.00019446 1.00000000
0.68469188 0.00232944 0.00072460 1.00000000
1.86489263 0.00195726 -0.00650519 1.00000000
2.12126580 0.00243459 -0.00279656 1.00000000
1.20610089 0.00192972 0.00081408 1.00000000
1.62370557 0.00089593 0.00587895 1.00000000
2.00560450 0.00352785 -0.00101931 1.00000000
0.29274509 -0.00044885 -0.00003324 1.00000000
3.15264265 0.00109464 -0.00288105 1.00000000
3.52725477 -0.00260201 0.00064660 1.00000000
0.77896765 -0.00105509 -0.00086990 1.00000000
2.01354544 0.00354581 -0.00010996 1.00000000
4.00776737 -0.00016557 0.00651395 1.00000000
3.64590337 0.00332330 -0.00211945 1.00000000
2.34907319 0.00273022 -0.00370394 1.00000000
0.55814233 0.00171662 0.00191916 1.00000000
2.67862402 0.00132999 -0.00086328 1.00000000
1.48470038 -0.00280494 -0.00007867 1.00000000
0.80913037 -0.00034067 -0.00017102 1.00000000
2.33450239 -0.00111031 -0.00078745 1.00000000
0.98187727 0.00167707 -0.00017282 1.00000000
0.74544486 0.00106751 -0.00451637 1.00000000
0.36169591 -0.00033391 -0.00002715 1.00000000
3.94155932 -0.00206661 -0.00245170 1.00000000
1.98433982 0.00546098 -0.00125653 1.00000000
1.02315750 -0.00310273 0.00448903 1.00000000
0.81888995 0.00507362 -0.00364571 1.00000000
1.57089229 -0.00415961 0.00248054 1.00000000
1.73396414 -0.00343253 0.00058367 1.00000000
0.40847437 -0.00014083 -0.00126452 1.00000000
3.89683863 0.00102705 -0.00444581 1.00000000
2.29077029 0.00231734 0.00084625 1.00000000
2.99699820 0.00114363 0.00175284 1.00000000
2.69480916 -0.00319089 0.00380494 1.00000000
2.76114992 -0.00185224 -0.00416770 1.00000000
2.22040936 -0.00062492 -0.00592642 1.00000000
2.57108566 -0.00355481 0.00032171 1.00000000
0.55100827 -0.00206613 -0.00134382 1.00000000
2.56038696 0.00132760 0.00122085 1.00000000
0.49997033 -0.00390230 -0.00022233 1.00000000
2.27222987 0.00550704 -0.00083356 1.00000000
2.08898150 0.00081793 0.00048862 1.00000000
0.78241985 -0.00224114 -0.00075442 1.00000000
0.47992847 0.00196448 -0.00380675 1.00000000
2.52962387 -0.00190386 0.00437487 1.00000000
0.57668023 -0.00432036 0.00064234 1.00000000
1.77683528 -0.00064368 0.00309962 1.00000000
3.89350547 0.00054711 -0.00020967 1.00000000
2.24040649 -0.00353291 -0.00152542 1.00000000
1.01767688 0.00219058 -0.00151956 1.00000000
0.25637162 -0.00300911 0.00133923 1.00000000
1.19268295 0.00059941 -0.00427775 1.00000000
3.59355477 0.00082399 -0.00038340 1.00000000
3.31379859 -0.00101521 -0.00181258 1.00000000
0.16970054 0.00018357 0.00160107 1.00000000
1.92775598 0.00130911 -0.00104450 1.00000000
0.74944920 -0.00015530 -0.00384207 1.00000000
1.34371394 -0.00510942 -0.00645897 1.00000000
1.32432726 0.00165041 -0.00286679 1.00000000
0.45638325 0.00580990 0.00095747 1.00000000
0.80326539 0.00092196 -0.00077260 1.00000000
1.14170026 0.00017126 0.00077969 1.00000000
2.17235089 0.00132820 -0.00757883 1.00000000
3.94791517 0.00055446 -0.00014985 1.00000000
0.58362668 -0.00042799 0.00280733 1.00000000
0.71710754 0.00376698 0.00281545 1.00000000
3.33885398 -0.00113975 0.00356413 1.00000000
1.28452630 -0.00020034 0.00000695 1.00000000
2.27039866 0.00150492 0.00119605 1.00000000
0.21665437 -0.00179032 0.00504560 1.00000000
1.48169049 0.00119371 0.00206980 1.00000000
2.74328756 0.00014272 -0.00080556 1.00000000
0.30018411 -0.00073900 -0.00130820 1.00000000
3.34577956 0.00090244 -0.00103072 1.00000000
0.96709254 -0.00246863 0.00400431 1.00000000
1.81180810 -0.00107262 0.00243210 1.00000000
1.94720254 -0.00176343 -0.00320134 1.00000000
2.81326348 -0.00440487 0.00125911 1.00000000
2.24344271 0.00077062 -0.00102982 1.00000000
2.61222240 -0.00134202 -0.00332660 1.00000000
1.69094247 -0.00176559 -0.00434392 1.00000000
3.73835100 -0.00095610 -0.00070080 1.00000000
0.44503259 0.00059646 0.00058825 1.00000000
3.88423923 0.00013677 0.00078187 1.00000000
0.98301291 -0.00184267 0.00075430 1.00000000
3.05852442 -0.00496668 -0.00209808 1.00000000
0.02136766 0.00029264 -0.00120381 1.00000000
1.72134554 -0.00271629 -0.00097964 1.00000000
0.43432095 -0.00050774 0.00175143 1.00000000
1.97309356 0.00088916 -0.00290149 1.00000000
2.67213298 0.00214894 0.00117137 1.00000000
3.18286139 0.00072282 0.00367949 1.00000000
1.48164089 0.00580353 0.00096627 1.00000000
2.24892274 0.00020271 0.00373208 1.00000000
3.57468742 -0.00283855 0.00298343 1.00000000
2.15095401 -0.00052701 -0.00216203 1.00000000
2.63999301 -0.00087216 0.00000018 1.00000000
2.35845639 0.00360219 -0.00224678 1.00000000
1.63568299 -0.00072491 -0.00177597 1.00000000
0.14385122 0.00089313 0.00363472 1.00000000
3.03003964 0.00035616 -0.00486495 1.00000000
4.05345655 -0.00260138 -0.00093688 1.00000000
0.55810436 0.00197480 -0.00335002 1.00000000
4.03914106 0.00072109 -0.00528726 1.00000000
2.99742162 0.00182536 -0.00095290 1.00000000
2.15501841 0.00283812 -0.00110215 1.00000000
2.70314717 0.00034753 0.00148038 1.00000000
3.91470322 0.00084592 0.00289659 1.00000000
3.97875149 0.00328220 0.00082230 1.00000000
0.74895097 -0.00065771 -0.00213736 1.00000000
1.74241402 -0.00109251 -0.00104536 1.00000000
2.74186425 -0.00198364 0.00396255 1.00000000
1.94290149 0.00195929 0.00492683 1.00000000
3.17892229 0.00378336 0.00003679 1.00000000
2.84740729 0.00258331 0.00168513 1.00000000
3.53465607 -0.00068196 -0.00009461 1.00000000
0.31751486 -0.00098904 -0.00094571 1.00000000
1.67129673 0.00230489 0.00270765 1.00000000
2.63745769 0.00341066 -0.00201320 1.00000000
2.60480967 -0.00560134 -0.00139723 1.00000000
3.72059663 -0.00210910 0.00060950 1.00000000
2.27956019 0.00041172 -0.00416234 1.00000000
2.76559278 -0.00239581 0.00085358 1.00000000
2.71813411 -0.00181692 0.00269548 1.00000000
0.87839443 -0.00128428 0.00499649 1.00000000
0.24037530 0.00079023 0.00227384 1.00000000
1.31784103 -0.00046790 -0.00095551 1.00000000
2.32376020 0.00229435 0.00039122 1.00000000
3.38463770 0.00194233 -0.00271138 1.00000000
1.37514244 0.00418419 -0.00226208 1.00000000
2.65217870 -0.00316071 0.00107855 1.00000000
1.24256667 -0.00310506 -0.00290282 1.00000000
1.46217630 -0.00005247 0.00427112 1.00000000
2.14350520 0.00038578 -0.00064510 1.00000000
0.71975019 0.00042116 0.00070851 1.00000000
1.47097674 0.00345978 -0.00254016 1.00000000
0.66605792 0.00219190 -0.00126271 1.00000000
0.78301114 0.00217556 -0.00058345 1.00000000
1.47981562 -0.00080920 -0.00178336 1.00000000
3.54119869 0.00012264 0.00298847 1.00000000
1.66799628 0.00037744 0.00196195 1.00000000
3.70262940 0.00066052 -0.00136393 1.00000000
0.98114959 0.00352159 0.00154206 1.00000000
3.30706396 0.00438659 -0.00341872 1.00000000
3.79265771 -0.00146320 0.00535812 1.00000000
3.37323203 -0.00018371 -0.00314228 1.00000000
1.12771421 -0.00375007 0.00084986 1.00000000
3.09684549 -0.00223762 0.00056367 1.00000000
1.92988190 0.00252153 -0.00055658 1.00000000
2.49643970 0.00152775 0.00022623 1.00000000
0.16435259 -0.00119199 0.00061577 1.00000000
0.68522867 -0.00117173 -0.00006543 1.00000000
0.22589717 0.00028329 -0.00011952 1.00000000
0.10489747 -0.00202035 -0.00490926 1.00000000
2.38315477 -0.00136175 -0.00416893 1.00000000
1.72031141 0.00198863 -0.00007843 1.00000000
0.42853818 0.00049185 0.00287322 1.00000000
0.37452351 -0.00078580 -0.00191067 1.00000000
1.55220201 -0.00319319 0.00265558 1.00000000
3.25965193 -0.00118426 -0.00120658 1.00000000
2.09706172 -0.00124206 0.00305186 1.00000000
2.32224378 -0.00066772 0.00044165 1.00000000
3.53841977 0.00189506 0.00118293 1.00000000
3.25317681 0.00493044 -0.00212207 1.00000000
2.44681023 0.00034879 0.00074451 1.00000000
4.00372107 -0.00249045 0.00046217 1.00000000
0.10760832 -0.00106668 0.00066543 1.00000000
2.91828981 0.00068874 -0.00390632 1.00000000
2.73221158 0.00234672 0.00210900 1.00000000
3.22602336 0.00065336 -0.00186946 1.00000000
0.90924239 -0.00097748 -0.00310665 1.00000000
1.17773697 0.00402767 -0.00245888 1.00000000
3.65940287 0.00488201 -0.00016315 1.00000000
3.09844058 -0.00084450 0.00031792 1.00000000
3.11209292 -0.00182828 0.00184852 1.00000000
1.53447686 -0.00071453 0.00143718 1.00000000
2.94264934 -0.00175895 -0.00132754 1.00000000
2.11657668 0.00148205 0.00517459 1.00000000
3.90925755 -0.00265009 0.00095156 1.00000000
0.57259846 -0.00161787 -0.00380149 1.00000000
3.05849091 0.00016998 0.00241693 1.00000000
3.46254509 -0.00120415 -0.00183102 1.00000000
3.34189445 -0.00053465 0.00436407 1.00000000
1.20936584 0.00069294 -0.00212738 1.00000000
1.35361015 0.00113669 -0.00018522 1.00000000
2.22622843 0.00232234 0.00245703 1.00000000
3.07737969 -0.00133710 0.00172463 1.00000000
2.85364880 0.00048671 -0.00145472 1.00000000
1.77786053 0.00046192 0.00096684 1.00000000
0.00800232 -0.00338513 0.00186633 1.00000000
2.55900672 -0.00092685 -0.00294032 1.00000000
4.02149101 -0.00256214 -0.00289536 1.00000000
2.33166420 0.00423419 0.00123857 1.00000000
0.75028842 0.00098490 -0.00351536 1.00000000
0.07359409 0.00056190 -0.00301513 1.00000000
1.70795898 0.00123667 0.00108606 1.00000000
0.61634200 -0.00106551 -0.00110652 1.00000000
2.00160047 0.00488054 -0.00120008 1.00000000
1.29139595 0.00329618 0.00083156 1.00000000
3.33152320 0.00576568 -0.12515873 0.00000000
0.20608833 0.00112763 -0.12916019 0.00000000
1.04259798 0.00289469 -0.13060745 0.00000000
1.18011662 0.00404499 -0.05278984 0.00000000
1.62284860 -0.00010163 -0.11052983 0.00000000
3.88147588 0.00185273 -0.06351732 0.00000000
3.30640476 -0.00292769 -0.10345215 0.00000000
0.47510983 0.00285968 -0.13172559 0.00000000
1.77416128 0.00091364 -0.15210892 0.00000000
2.81044042 0.00099629 -0.15494008 0.00000000
2.58821305 0.00327354 -0.14482968 0.00000000
3.59586660 -0.00123170 -0.08493474 0.00000000
1.66508267 -0.00425642 -0.06417073 0.00000000
2.30869224 0.00014451 -0.13899188 0.00000000
0.56579797 0.00121717 -0.05905074 0.00000000
2.73660398 0.00130837 -0.13458853 0.00000000
1.84601981 0.00080080 -0.10255390 0.00000000
0.80869225 0.00150440 -0.08329328 0.00000000
1.71468472 0.00143250 -0.15433709 0.00000000
1.88080561 0.00416472 -0.01691370 0.00000000
1.92672852 -0.00443297 -0.01447607 0.00000000
0.05027604 0.00022525 -0.15878233 0.00000000
2.63752870 0.00123092 -0.10405360 0.00000000
3.39362493 0.00039663 -0.01936075 0.00000000
3.82924532 0.00209266 -0.14466566 0.00000000
3.28180537 0.00254086 -0.02868670 0.00000000
3.41079027 0.00329584 -0.14170045 0.00000000
3.22038224 0.00470822 -0.10280484 0.00000000
0.61494671 -0.00337239 -0.02799420 0.00000000
3.71361853 0.00308104 -0.10842649 0.00000000
1.66542478 0.00092232 -0.00980089 0.00000000
0.56947224 0.00062003 -0.11810395 0.00000000
2.98492558 0.00396277 -0.09469310 0.00000000
1.85961011 0.00366094 -0.14422014 0.00000000
3.28563087 -0.00049338 -0.12545433 0.00000000
1.29562131 0.00274790 -0.05654193 0.00000000
0.67594541 0.00102471 -0.01313821 0.00000000
2.60917675 -0.00370872 -0.07527434 0.00000000
2.23736503 0.00112089 -0.07192681 0.00000000
1.48444131 0.00010543 -0.07783417 0.00000000
1.56401739 -0.00424404 -0.07290840 0.00000000
0.42860106 -0.00312131 -0.12220355 0.00000000
3.71661039 0.00531228 -0.13315428 0.00000000
4.03093156 0.00080084 -0.02621187 0.00000000
3.38030798 -0.00092163 -0.00423498 0.00000000
2.21180776 -0.00035193 -0.06343205 0.00000000
0.79778240 -0.00111595 -0.06493916 0.00000000
1.57779226 -0.00019176 -0.14430251 0.00000000
1.25603316 0.00204327 -0.09292137 0.00000000
3.69151733 0.00009023 -0.02075270 0.00000000
1.00451074 0.00077933 -0.06292459 0.00000000
1.69540259 0.00379638 -0.05167956 0.00000000
1.15319862 -0.00049797 -0.03616428 0.00000000
3.71658212 0.00198648 -0.13579920 0.00000000
4.05169222 0.00009937 -0.03818302 0.00000000
1.54830914 0.00553580 -0.09699871 0.00000000
0.98714786 0.00181206 -0.10154528 0.00000000
0.54733595 0.00301861 -0.05992471 0.00000000
0.16814564 0.00053255 -0.02775044 0.00000000
0.78288975 0.00058935 -0.08368984 0.00000000
3.32731468 0.00051533 -0.06611744 0.00000000
4.04516691 -0.00164340 -0.03257557 0.00000000
4.05303605 -0.00170140 -0.04925840 0.00000000
3.54015722 0.00303277 -0.06485690 0.00000000
0.95712876 0.00284559 -0.12133666 0.00000000
0.04727051 0.00132659 -0.00970140 0.00000000
1.13215601 0.00536636 -0.01978639 0.00000000
2.07536738 0.00431880 -0.08437049 0.00000000
0.00617661 -0.00022944 -0.14917765 0.00000000
2.55298342 -0.00198978 -0.09367492 0.00000000
2.03031509 0.00196093 -0.14193160 0.00000000
1.51537065 0.00397261 -0.16388812 0.00000000
3.05531575 0.00174778 -0.12034773 0.00000000
1.14276586 -0.00201790 -0.05254983 0.00000000
2.07902566 0.00176623 -0.00073983 0.00000000
0.99167398 0.00115841 -0.06866998 0.00000000
2.60483224 -0.00012537 -0.00071611 0.00000000
1.72154760 0.00028413 -0.04236239 0.00000000
1.31268934 -0.00040863 -0.01087643 0.00000000
1.02754204 0.00255908 -0.12718243 0.00000000
3.68184748 0.00462131 -0.15108329 0.00000000
1.27314283 -0.00206437 -0.07599065 0.00000000
0.92790834 -0.00181116 -0.13820208 0.00000000
0.96430432 0.00257473 -0.16076681 0.00000000
3.64316673 0.00009671 -0.14928411 0.00000000
3.48360987 0.00478672 -0.05189895 0.00000000
3.13620257 -0.00190106 -0.14002889 0.00000000
0.96724126 0.00586078 -0.13349482 0.00000000
0.48862681 0.00520446 -0.11818264 0.00000000
0.02299830 0.00131525 -0.00174667 0.00000000
1.12346733 -0.00221386 -0.10780415 0.00000000
0.85754621 0.00431849 -0.16417887 0.00000000
4.02163106 -0.00021009 -0.06391375 0.00000000
2.20115612 0.00439466 -0.12121216 0.00000000
3.30672592 -0.00436783 -0.13246086 0.00000000
0.88702963 -0.00072488 -0.16791175 0.00000000
1.21733579 0.00132017 -0.13727410 0.00000000
0.48098227 0.00463183 -0.02828918 0.00000000
3.57335685 0.00215710 -0.07743426 0.00000000
0.67557822 0.00528024 -0.11821955 0.00000000
1.08482788 0.00254269 -0.08957466 0.00000000
1.30310281 0.00294544 -0.03147863 0.00000000
3.50673399 0.00163781 -0.00735563 0.00000000
2.61257587 -0.00008836 -0.14567963 0.00000000
0.46073611 0.00246127 -0.13638787 0.00000000
0.91950680 -0.00158661 -0.14851875 0.00000000
1.68852595 0.00395445 -0.03753644 0.00000000
2.73553739 0.00507224 -0.08305761 0.00000000
4.04695692 -0.00083855 -0.06697842 0.00000000
0.85368360 0.00255485 -0.02731029 0.00000000
0.52405165 0.00121643 -0.05182502 0.00000000
2.57315722 -0.00054634 -0.06825189 0.00000000
2.76225056 0.00156876 -0.05266013 0.00000000
0.62547085 0.00237928 -0.10079823 0.00000000
2.20153554 -0.00229341 -0.04945708 0.00000000
1.91587083 0.00263296 -0.12136031 0.00000000
3.95653761 -0.00165972 -0.01844017 0.00000000
3.89915217 0.00436445 -0.15521191 0.00000000
0.44558546 0.00486282 -0.13083787 0.00000000
3.77241999 0.00194135 -0.14451791 0.00000000
1.36672024 -0.00052170 -0.12424180 0.00000000
3.64089175 0.00076415 -0.04977744 0.00000000
3.34316970 0.00134148 -0.07486892 0.00000000
2.98432349 0.00204593 -0.10210952 0.00000000
2.00245139 0.00235156 -0.14921505 0.00000000
0.92611090 0.00267220 -0.14816490 0.00000000
3.13306156 -0.00250076 -0.14956664 0.00000000
0.85212203 0.00177408 -0.10675477 0.00000000
1.84294242 -0.00184445 -0.05938698 0.00000000
1.01234613 0.00129652 -0.03531751 0.00000000
1.68174195 -0.00230783 -0.01092161 0.00000000
3.77516131 0.00258574 -0.05561351 0.00000000
1.30765906 0.00143631 -0.16741452 0.00000000
1.62017535 -0.00079342 -0.11424471 0.00000000
1.37274822 -0.00116331 -0.10745205 0.00000000
4.00493630 -0.00052847 -0.08849414 0.00000000
1.64132967 -0.00616885 -0.05853714 0.00000000
3.36340020 0.00198436 -0.02458600 0.00000000
0.95978967 0.00306298 -0.04547086 0.00000000
0.12765795 0.00077684 -0.05627512 0.00000000
1.78217673 0.00563434 -0.10363810 0.00000000
2.05259130 0.00337315 -0.06943630 0.00000000
2.32087759 -0.00259113 -0.16641894 0.00000000
2.91407571 0.00501379 -0.16613379 0.00000000
4.00088992 0.00248285 -0.12477006 0.00000000
1.49422511 -0.00222860 -0.07466996 0.00000000
0.21183031 -0.00591312 -0.00789511 0.00000000
2.49530152 -0.00184752 -0.01624082 0.00000000
3.88669692 0.00076235 -0.02608191 0.00000000
3.21095275 0.00482455 -0.07684901 0.00000000
1.26857794 0.00229299 -0.07592677 0.00000000
1.04120971 -0.00159994 -0.01977103 0.00000000
2.99664261 -0.00055583 -0.07802150 0.00000000
2.24921185 -0.00446627 -0.09816907 0.00000000
0.02008469 0.00200845 -0.12352019 0.00000000
1.44628805 0.00092081 -0.04608830 0.00000000
0.98911242 -0.00143912 -0.01327173 0.00000000
3.52228019 0.00594351 -0.13654412 0.00000000
2.84280988 0.00226450 -0.12998106 0.00000000
1.22573703 -0.00516870 -0.10196807 0.00000000
3.40613344 0.00301368 -0.08101298 0.00000000
2.74248094 0.00030342 -0.09693340 0.00000000
3.50271636 -0.00063646 -0.12778888 0.00000000
2.98319677 0.00096696 -0.13103149 0.00000000
0.83352070 -0.00301218 -0.04614032 0.00000000
3.06161084 0.00026686 -0.14686908 0.00000000
3.39480873 0.00264945 -0.16629342 0.00000000
2.17330814 -0.00053913 -0.16300030 0.00000000
2.12969768 -0.00041189 -0.05613366 0.00000000
2.94267467 0.00375373 -0.09462704 0.00000000
1.79440472 -0.00071787 -0.05159617 0.00000000
1.59580555 0.00171420 -0.04462781 0.00000000
1.48304132 -0.00027480 -0.04523435 0.00000000
1.58720040 -0.00322590 -0.12888767 0.00000000
3.88870436 0.00154659 -0.16003229 0.00000000
0.40038035 -0.00149720 -0.10075550 0.00000000
3.97774974 0.00494834 -0.09511953 0.00000000
3.20600847 -0.00509131 -0.02730711 0.00000000
1.01516066 0.00247621 -0.14503539 0.00000000
0.10979110 0.00335151 -0.15268012 0.00000000
3.59567479 -0.00201925 -0.06112916 0.00000000
3.73206253 -0.00319231 -0.09725964 0.00000000
0.28515488 -0.00087154 -0.14697701 0.00000000
0.95228064 0.00241692 -0.15111702 0.00000000
2.89265203 0.00198131 -0.10991977 0.00000000
2.26229229 0.00063098 -0.02122407 0.00000000
1.34969078 0.00120847 -0.00283772 0.00000000
2.48592682 0.00054666 -0.12316501 0.00000000
0.23064998 0.00361863 -0.01627357 0.00000000
1.16476555 0.00191244 -0.15933916 0.00000000
0.68887485 0.00356479 -0.16517739 0.00000000
1.12361992 0.00295643 -0.06353780 0.00000000
1.74903801 0.00430712 -0.11623168 0.00000000
0.21498064 -0.00052597 -0.16525300 0.00000000
0.36615678 0.00126619 -0.11735780 0.00000000
2.91075346 -0.00223158 -0.00038407 0.00000000
3.86563668 0.00024032 -0.03025603 0.00000000
3.95449991 0.00313804 -0.09954123 0.00000000
1.08422572 0.00216614 -0.08454543 0.00000000
1.49930937 0.00578234 -0.12507179 0.00000000
3.28595355 -0.00329346 -0.05999886 0.00000000
2.11491762 0.00578724 -0.06095136 0.00000000
4.03057367 0.00206309 -0.04473054 0.00000000
0.33166609 -0.00001575 -0.03113471 0.00000000
3.39329459 0.00531570 -0.16284918 0.00000000
1.75179209 -0.00100058 -0.01313779 0.00000000
0.12732420 0.00049672 -0.06090853 0.00000000
2.29751527 0.00358202 -0.04581348 0.00000000
1.93741399 -0.00370439 -0.00330743 0.00000000
3.86827956 0.00115158 -0.07090123 0.00000000
2.70553853 -0.00074451 -0.02371317 0.00000000
1.92770870 -0.00121426 -0.12088001 0.00000000
0.71039661 -0.00076259 -0.11979361 0.00000000
1.10950504 -0.00287969 -0.09288822 0.00000000
1.73555341 -0.00204938 -0.15974162 0.00000000
3.94603269 0.00026079 -0.13222560 0.00000000
2.39870810 0.00015836 -0.07309027 0.00000000
4.04094658 0.00338528 -0.10350171 0.00000000
4.04706609 0.00203778 -0.07827668 0.00000000
2.32851288 0.00250950 -0.14954530 0.00000000
1.30121234 0.00156681 -0.03361942 0.00000000
2.47851981 0.00379793 -0.02811858 0.00000000
3.52883655 0.00397574 -0.14352833 0.00000000
1.48308187 0.00176375 -0.07179823 0.00000000
0.02985843 -0.00114037 -0.15062976 0.00000000
3.71087441 0.00617503 -0.11414312 0.00000000
0.57146392 0.00273870 -0.13697924 0.00000000
2.15047791 0.00346103 -0.08722632 0.00000000
1.78389992 -0.00046692 -0.03011975 0.00000000
1.41203183 -0.00208480 -0.08297739 0.00000000
2.13161472 -0.00349814 -0.12929584 0.00000000
1.24305958 0.00009737 -0.11065035 0.00000000
3.03013395 0.00047891 -0.11906472 0.00000000
0.35806773 -0.00004713 -0.09068669 0.00000000
2.98553053 0.00010115 -0.16752309 0.00000000
0.81493775 -0.00093970 -0.09248333 0.00000000
1.82655666 0.00378263 -0.12177024 0.00000000
1.33459442 0.00212599 -0.08654403 0.00000000
3.96003957 -0.00106911 -0.13235056 0.00000000
3.43640200 0.00213858 -0.07503161 0.00000000
3.58724901 0.00232733 -0.16251405 0.00000000
0.17913921 0.00028863 -0.05930792 0.00000000
1.45657467 0.00381516 -0.12299425 0.00000000
3.95772771 -0.00348013 -0.09229221 0.00000000
1.12056151 0.00252379 -0.05323475 0.00000000
3.67639723 0.00064408 -0.13916693 0.00000000
0.10301689 -0.00175009 -0.12397575 0.00000000
3.91556604 0.00027611 -0.06488835 0.00000000
1.83516236 0.00328730 -0.12244866 0.00000000
3.53869491 0.00142124 -0.03225458 0.00000000
0.43259369 -0.00035047 -0.02552870 0.00000000
1.65431897 0.00591864 -0.12734699 0.00000000
1.83180073 -0.00017160 -0.01981677 0.00000000
2.25510097 0.00085859 -0.00843227 0.00000000
1.66581317 0.00355513 -0.08267807 0.00000000
1.38773309 0.00288420 -0.02102312 0.00000000
1.10124639 0.00045110 -0.05667772 0.00000000
1.68029270 -0.00129619 -0.05420059 0.00000000
0.04214285 -0.00278155 -0.05310709 0.00000000
0.29857826 -0.00463619 -0.13895083 0.00000000
0.68056765 -0.00020782 -0.03804665 0.00000000
0.75215250 0.00301726 -0.15470056 0.00000000
1.30989500 -0.00052346 -0.16256424 0.00000000
0.12483480 -0.00418699 -0.05738775 0.00000000
0.59663151 -0.00289035 -0.11267997 0.00000000
3.12353061 0.00161399 -0.01914242 0.00000000
2.57474120 0.00309470 -0.14687675 0.00000000
0.18940908 -0.00173540 -0.11499576 0.00000000
3.69164098 -0.00142983 -0.02376706 0.00000000
2.62477751 0.00218247 -0.06109549 0.00000000
3.69783344 0.00084467 -0.01928892 0.00000000
0.77459626 -0.00210787 -0.06050236 0.00000000
1.96117165 0.00326595 -0.02723212 0.00000000
1.64986117 0.00363939 -0.03724451 0.00000000
2.44378905 -0.00056410 -0.01329522 0.00000000
1.83933963 -0.00360165 -0.08880034 0.00000000
1.48209128 -0.00293266 -0.07428630 0.00000000
2.84353336 0.00074504 -0.07824743 0.00000000
3.80069803 0.00424485 -0.15210355 0.00000000
3.92988761 0.00343543 -0.04986494 0.00000000
0.53142967 0.00230772 -0.07498891 0.00000000
1.06662120 -0.00046554 -0.10692123 0.00000000
0.14205966 -0.00155200 -0.04839057 0.00000000
1.97016767 -0.00040678 -0.10451132 0.00000000
3.69399939 0.00154454 -0.07589663 0.00000000
0.39649061 0.00474226 -0.11570543 0.00000000
2.02874523 -0.00206852 -0.07166526 0.00000000
2.83152754 -0.00240772 -0.00453962 0.00000000
0.57779116 0.00320626 -0.13266300 0.00000000
0.59921559 0.00462368 -0.14273458 0.00000000
0.78481552 -0.00228423 -0.01536518 0.00000000
0.93185403 0.00145895 -0.02952202 0.00000000
2.20404212 0.00328056 -0.04968181 0.00000000
3.17486625 0.00460346 -0.05208248 0.00000000
0.87771990 -0.00107123 -0.05334551 0.00000000
2.45834919 0.00597984 -0.15104061 0.00000000
1.07051644 -0.00117828 -0.14427472 0.00000000
2.38702213 0.00323754 -0.10974214 0.00000000
3.72794816 0.00077988 -0.13325020 0.00000000
0.50478756 -0.00036739 -0.15016978 0.00000000
1.16929935 0.00155503 -0.16499810 0.00000000
0.17083193 -0.00364063 -0.07288117 0.00000000
2.66178159 0.00743916 -0.10974533 0.00000000
1.43256977 0.00295812 -0.07355284 0.00000000
3.39597219 0.00545908 -0.09835951 0.00000000
3.21043659 0.00375679 -0.09926078 0.00000000
3.89269215 -0.00181076 -0.04387170 0.00000000
3.13403908 0.00200403 -0.04850286 0.00000000
2.19582879 -0.00329767 -0.08191237 0.00000000
2.37579261 0.00458194 -0.09071477 0.00000000
3.92015547 -0.00039323 -0.06259227 0.00000000
1.66174259 0.00314353 -0.12868922 0.00000000
2.14063180 0.00179268 -0.14628340 0.00000000
2.42962949 0.00405932 -0.10501932 0.00000000
2.95729817 -0.00196151 -0.14336541 0.00000000
2.42393963 0.00472839 -0.12013095 0.00000000
2.09231516 0.00028273 -0.00668230 0.00000000
2.13723052 0.00388036 -0.00374037 0.00000000
0.00712482 -0.00284856 -0.02260580 0.00000000
2.28175585 -0.00123919 -0.06457800 0.00000000
3.32514415 0.00062263 -0.06964597 0.00000000
3.90975545 0.00187321 -0.13140787 0.00000000
1.31039031 0.00455931 -0.06168334 0.00000000
3.97176328 -0.00132014 -0.08968656 0.00000000
1.61782095 0.00071451 -0.06742406 0.00000000
3.90527034 0.00079700 -0.06746746 0.00000000
1.28307871 0.00172733 -0.09055717 0.00000000
3.36226680 -0.00200394 -0.00255862 0.00000000
1.57759232 0.00235451 -0.06512252 0.00000000
1.13618948 -0.00470834 -0.07834856 0.00000000
3.61123400 -0.00777607 -0.14321192 0.00000000
3.12882545 0.00786431 -0.11068508 0.00000000
0.21787383 0.00072675 -0.05206755 0.00000000
3.04562537 -0.00393263 -0.07775820 0.00000000
4.04291322 0.00202699 -0.09183945 0.00000000
0.48067622 -0.00259658 -0.14305929 0.00000000
1.29680671 0.00305024 -0.16664063 0.00000000
1.01517907 0.00224307 -0.06729704 0.00000000
2.56167298 0.00073655 -0.13878572 0.00000000
3.19573547 -0.00019174 -0.03916797 0.00000000
3.06802517 0.00073085 -0.05017789 0.00000000
3.56849470 -0.00044779 -0.06349004 0.00000000
2.48207148 0.00155016 -0.01160022 0.00000000
0.26980150 -0.00019352 -0.15402889 0.00000000
1.80424384 0.00259273 -0.00053006 0.00000000
1.98536277 -0.00602684 -0.15645791 0.00000000
1.41782487 -0.00319219 -0.03719558 0.00000000
0.33236658 0.00060742 -0.05024330 0.00000000
3.59452131 0.00455590 -0.11127115 0.00000000
2.84436549 0.00183023 -0.00192796 0.00000000
3.51113449 0.00267797 -0.16602570 0.00000000
0.25189666 -0.00188966 -0.00192646 0.00000000
2.22603610 -0.00279943 -0.07569125 0.00000000
3.24826442 0.00129871 -0.11280290 0.00000000
1.11477764 -0.00280376 -0.09516355 0.00000000
3.85768144 -0.00124559 -0.02234036 0.00000000
1.17411346 -0.00071496 -0.08448691 0.00000000
0.33766564 0.00195577 -0.11066402 0.00000000
0.67668301 -0.00133761 -0.05403882 0.00000000
1.92855759 -0.00068801 -0.11311153 0.00000000
1.92417839 0.00139413 -0.16718256 0.00000000
0.24436307 -0.00319274 -0.05123769 0.00000000
1.33076887 0.00203697 -0.04159484 0.00000000
0.40055307 0.00357732 -0.11679002 0.00000000
0.58229670 0.00092712 -0.08952095 0.00000000
1.22101231 0.00239165 -0.00817860 0.00000000
2.67908859 0.00314975 -0.02882389 0.00000000
2.24027565 -0.00204465 -0.01714135 0.00000000
3.59579257 0.00324747 -0.16311976 0.00000000
0.13156659 0.00582491 -0.07282459 0.00000000
0.06642759 0.00170484 -0.05702804 0.00000000
3.54922623 -0.00162946 -0.03766611 0.00000000
2.86393132 0.00260711 -0.02006894 0.00000000
3.13905271 -0.00133825 -0.10589596 0.00000000
0.59054521 -0.00163138 -0.00399907 0.00000000
1.89987594 0.00345573 -0.03489623 0.00000000
3.22886317 0.00229576 -0.00811526 0.00000000
2.05297034 0.00221537 -0.16373553 0.00000000
2.26774886 0.00319727 -0.11185619 0.00000000
2.41741323 0.00510054 -0.09368739 0.00000000
1.29327265 0.00024175 -0.04026040 0.00000000
1.42240699 0.00148034 -0.08256185 0.00000000
3.54056123 0.00436225 -0.06163147 0.00000000
3.51915809 -0.00082862 -0.08446693 0.00000000
3.75457160 -0.00187708 -0.03479144 0.00000000
0.69757803 0.00029713 -0.11121888 0.00000000
2.35809527 0.00102465 -0.11099905 0.00000000
0.11167823 0.00029362 -0.12677594 0.00000000
1.23041590 0.00120732 -0.15632384 0.00000000
0.43831784 -0.00102795 -0.01559169 0.00000000
1.52089155 0.00403216 -0.08871697 0.00000000
0.11592098 -0.00492083 -0.03977692 0.00000000
1.97993271 -0.00046800 -0.15652884 0.00000000
0.72704731 -0.00212294 -0.16708338 0.00000000
0.36860143 0.00221248 -0.00886319 0.00000000
1.40774454 -0.00014380 -0.08142669 0.00000000
3.95476356 0.00033412 -0.02925332 0.00000000
1.71934426 0.00033204 -0.02662251 0.00000000
2.47369144 -0.00029053 -0.12786401 0.00000000
3.04865715 0.00124082 -0.14655418 0.00000000
1.13015841 0.00168609 -0.10728336 0.00000000
2.45387428 -0.00065164 -0.00294444 0.00000000
0.95894251 0.00343628 -0.06494215 0.00000000
0.64519775 0.00502800 -0.15936384 0.00000000
0.54729561 -0.00037037 -0.03041295 0.00000000
1.45054282 0.00194489 -0.09609823 0.00000000
1.61086511 0.00091416 -0.09320427 0.00000000
0.24205188 0.00391213 -0.04595751 0.00000000
1.01682010 -0.00155725 -0.16737749 0.00000000
1.94808759 0.00049481 -0.01343174 0.00000000
0.31525034 0.00094873 -0.05796209 0.00000000
0.54542987 0.00134693 -0.14647466 0.00000000
1.06496950 0.00017888 -0.16127728 0.00000000
2.58510507 0.00003173 -0.15511761 0.00000000
1.14312419 0.00093564 -0.07564780 0.00000000
3.01458123 -0.00025988 -0.01964222 0.00000000
1.31270100 0.00240480 -0.07033545 0.00000000
1.42629911 -0.00078158 -0.05541202 0.00000000
1.72528698 -0.00225794 -0.02017193 0.00000000
0.15134148 0.00104928 -0.13586401 0.00000000
0.36188210 -0.00256389 -0.13473293 0.00000000
1.30480790 0.00030583 -0.03533629 0.00000000
1.69008025 0.00318085 -0.07350649 0.00000000
2.44206658 0.00377895 -0.10518552 0.00000000
0.35164150 0.00335407 -0.13013085 0.00000000
0.79083107 -0.00623471 -0.00686177 0.00000000
3.40335558 -0.00151666 -0.03019156 0.00000000
0.45313948 -0.00077681 -0.01470530 0.00000000
3.87917177 0.00058753 -0.07432151 0.00000000
1.69581483 0.00039286 -0.03090652 0.00000000
1.65960939 -0.00303628 -0.07817686 0.00000000
2.34333328 -0.00373396 -0.03838457 0.00000000
2.56347413 0.00279189 -0.04816862 0.00000000
3.96316237 0.00010696 -0.11988070 0.00000000
1.30198599 0.00114990 -0.04789885 0.00000000
0.55625093 -0.00026679 -0.00492494 0.00000000
2.66252739 -0.00204619 -0.01875803 0.00000000
0.19094206 0.00404583 -0.09962845 0.00000000
2.12925895 -0.00174488 -0.03959418 0.00000000
1.98332209 0.00346717 -0.08742391 0.00000000
1.62949651 0.00299160 -0.06769574 0.00000000
3.13555434 0.00237415 -0.03018655 0.00000000
1.66542924 -0.00079195 -0.03161286 0.00000000
0.03068726 -0.00333432 -0.05599921 0.00000000
1.04298187 0.00085523 -0.08303180 0.00000000
1.35138344 0.00304048 -0.03456713 0.00000000
0.27184897 0.00086424 -0.03242492 0.00000000
2.71723457 0.00105743 -0.08876875 0.00000000
2.47452845 0.00160780 -0.14251728 0.00000000
0.54733423 -0.00300517 -0.14160644 0.00000000
0.97204734 -0.00022586 -0.08087627 0.00000000
3.92852718 0.00149357 -0.08554315 0.00000000
0.01202608 0.00185506 -0.16564476 0.00000000
2.90225421 0.00389377 -0.14463885 0.00000000
1.31484263 0.00172866 -0.12284774 0.00000000
0.45893265 0.00045298 -0.03945185 0.00000000
3.96211903 -0.00163168 -0.06692876 0.00000000
1.42263076 -0.00151136 -0.15540498 0.00000000
1.51597148 0.00139753 -0.14126324 0.00000000
3.30206833 0.00823649 -0.15614493 0.00000000
2.78986873 -0.00005791 -0.06886610 0.00000000
1.68348280 0.00117504 -0.11623581 0.00000000
2.03516919 -0.00039348 -0.15185327 0.00000000
1.34206026 0.00032444 -0.03988179 0.00000000
1.08077413 0.00170636 -0.13588606 0.00000000
0.59702208 -0.00162369 -0.06108427 0.00000000
0.58711672 0.00538440 -0.04068129 0.00000000
0.00533656 0.00217893 -0.03552125 0.00000000
0.14111891 0.00044571 -0.14324174 0.00000000
3.48612565 0.00477142 -0.15164503 0.00000000
3.61762160 -0.00095117 -0.02774092 0.00000000
3.77723728 0.00193988 -0.05103583 0.00000000
1.48398873 0.00342112 -0.09736017 0.00000000
3.42855528 0.00259879 -0.12157262 0.00000000
0.16146314 -0.00208312 -0.10416630 0.00000000
0.41586970 0.00227813 -0.09473570 0.00000000
0.31446338 -0.00227282 -0.05964331 0.00000000
3.26965337 -0.00268939 -0.12518958 0.00000000
2.38643156 0.00192001 -0.11165540 0.00000000
2.52004973 -0.00330220 -0.07714784 0.00000000
0.51086197 0.00116727 -0.08472740 0.00000000
2.97601975 0.00149825 -0.01371818 0.00000000
0.97735628 -0.00113969 -0.14931675 0.00000000
3.16290932 0.00281914 -0.04299694 0.00000000
2.72312483 0.00285155 -0.07709097 0.00000000
2.83311187 0.00283937 -0.05191573 0.00000000
2.54762130 0.00106206 -0.02896610 0.00000000
1.74351053 -0.00167801 -0.07581756 0.00000000
2.44663233 0.00239104 -0.16390271 0.00000000
2.63342470 0.00382562 -0.12148154 0.00000000
0.84403342 -0.00347567 -0.06148017 0.00000000
1.82465193 0.00210204 -0.06579096 0.00000000
3.06313330 0.00445759 -0.10628539 0.00000000
2.91898488 0.00207039 -0.08715338 0.00000000
1.96409444 0.00062773 -0.06377181 0.00000000
3.19804884 0.00171072 -0.01022015 0.00000000
2.86169205 0.00268763 -0.03881403 0.00000000
2.42849488 0.00136744 -0.01616665 0.00000000
3.97670438 0.00097854 -0.12933787 0.00000000
0.22550531 0.00748112 -0.09829858 0.00000000
2.60126241 0.00236997 -0.03097929 0.00000000
3.92707331 0.00114627 -0.08153034 0.00000000
1.15664014 -0.00007467 -0.03169861 0.00000000
0.36419397 -0.00217097 -0.09403761 0.00000000
0.67231031 -0.00021559 -0.14380990 0.00000000
3.84526077 0.00208244 -0.04039372 0.00000000
2.10639662 0.00039227 -0.02419138 0.00000000
2.87531992 0.00437256 -0.13940231 0.00000000
3.77316106 0.00365994 -0.15953350 0.00000000
2.27621828 0.00220399 -0.10041529 0.00000000
0.54985924 0.00055258 -0.00685778 0.00000000
2.20570128 -0.00425505 -0.02363764 0.00000000
4.05443375 0.00135817 -0.07805112 0.00000000
3.04820907 0.00036431 -0.12342828 0.00000000
0.05493650 0.00207013 -0.14204034 0.00000000
0.96632988 0.00285751 -0.15197236 0.00000000
3.89652421 0.00211008 -0.05451741 0.00000000
0.33619267 -0.00009539 -0.08102955 0.00000000
3.87907988 0.00205294 -0.10522706 0.00000000
3.38723853 0.00524869 -0.14776228 0.00000000
0.16881810 0.00241850 -0.00414586 0.00000000
2.19853122 -0.00038766 -0.12857383 0.00000000
2.38940780 -0.00172525 -0.14785683 0.00000000
0.51412564 0.00084797 -0.02803386 0.00000000
2.46809875 -0.00072993 -0.02340365 0.00000000
3.14745279 0.00254490 -0.02954934 0.00000000
2.50288490 0.00214427 -0.01644652 0.00000000
1.71144306 0.00343485 -0.10172897 0.00000000
3.93318967 0.00100373 -0.05726127 0.00000000
3.78212564 0.00041679 -0.08427277 0.00000000
1.15721429 0.00311294 -0.16066301 0.00000000
1.23210779 -0.00217756 -0.09172214 0.00000000
1.34077676 0.00371016 -0.02473408 0.00000000
1.54400827 -0.00130172 -0.10778661 0.00000000
1.64680447 0.00161309 -0.00625900 0.00000000
0.89148112 0.00741044 -0.08573879 0.00000000
2.81885816 0.00600483 -0.12731527 0.00000000
0.40948812 -0.00051477 -0.00471943 0.00000000
0.65499354 0.00093151 -0.14347963 0.00000000
0.30823981 0.00600831 -0.16222504 0.00000000
2.52552587 0.00186744 -0.09263730 0.00000000
2.87513401 0.00041417 -0.08708143 0.00000000
1.93424543 0.00733422 -0.15637497 0.00000000
0.66234375 -0.00459940 -0.04549200 0.00000000
0.03928770 0.00688927 -0.07499185 0.00000000
3.90937596 0.00272224 -0.14830626 0.00000000
0.74006550 -0.00178840 -0.00501974 0.00000000
3.91946183 -0.00115167 -0.08766872 0.00000000
3.63927844 0.00382831 -0.00529407 0.00000000
3.43151677 0.00373909 -0.11884710 0.00000000
0.28284583 0.00023181 -0.06736607 0.00000000
2.68441832 0.00038641 -0.14210712 0.00000000
2.72384497 0.00212400 -0.05147782 0.00000000
1.82390807 0.00200305 -0.09209863 0.00000000
3.47164973 0.00068899 -0.05021745 0.00000000
3.86242949 0.00423916 -0.08713850 0.00000000
1.43830494 0.00942071 -0.07306954 0.00000000
1.25891290 -0.00066429 -0.00553503 0.00000000
0.21620576 -0.00165312 -0.06911844 0.00000000
2.73408653 0.00084563 -0.09202072 0.00000000
2.80030291 -0.00174446 -0.02564297 0.00000000
1.15761148 -0.00094884 -0.02142462 0.00000000
1.25266649 -0.00037174 -0.13796746 0.00000000
0.21171371 -0.00068577 -0.04538319 0.00000000
0.43981932 0.00527082 -0.10800423 0.00000000
1.84557883 -0.00048891 -0.00846626 0.00000000
2.01838004 0.00105782 -0.10026126 0.00000000
1.36864611 -0.00124467 -0.02652425 0.00000000
2.12604550 0.00323968 -0.09946145 0.00000000
3.77734510 -0.00066984 -0.03127010 0.00000000
0.33834988 0.00036403 -0.01517296 0.00000000
0.84033032 0.00023571 -0.05897366 0.00000000
1.63073445 0.00061367 -0.00086712 0.00000000
2.13266125 0.00219388 -0.16513983 0.00000000
2.84438500 0.00291789 -0.05879134 0.00000000
1.75489708 -0.00149057 -0.13529066 0.00000000
1.05532066 -0.00346145 -0.11012570 0.00000000
1.35025790 0.00536338 -0.09379263 0.00000000
0.83744972 0.00394229 -0.07064740 0.00000000
3.73346441 0.00015016 -0.16018408 0.00000000
0.34643952 0.00060864 -0.09011465 0.00000000
0.12747863 0.00284055 -0.16512818 0.00000000
3.02571129 0.00045919 -0.01743035 0.00000000
2.87480107 -0.00105247 -0.11530435 0.00000000
3.75065902 -0.00055068 -0.09689620 0.00000000
2.22702882 0.00066426 -0.12353633 0.00000000
2.78027428 0.00386816 -0.05276048 0.00000000
1.39046032 0.00465735 -0.09335185 0.00000000
1.65134774 -0.00443532 -0.01815122 0.00000000
2.32679373 0.00428539 -0.08420734 0.00000000
0.40513097 0.00283730 -0.15487263 0.00000000
3.45758675 -0.00119470 -0.02469244 0.00000000
2.59142590 0.00635151 -0.14365477 0.00000000
2.21845381 0.00109972 -0.05738525 0.00000000
2.70623099 -0.00093809 -0.10807583 0.00000000
0.07391435 0.00320732 -0.12776940 0.00000000
1.05446917 0.00048966 -0.12754353 0.00000000
0.22929050 -0.00358043 -0.06981107 0.00000000
0.45019632 -0.00279988 -0.08526021 0.00000000
2.23012958 0.00045520 -0.04219241 0.00000000
2.22086655 -0.00190129 -0.14712918 0.00000000
0.64774462 0.00266930 -0.05561347 0.00000000
3.65640513 -0.00027748 -0.08709322 0.00000000
2.20134136 0.00047946 -0.14045745 0.00000000
3.02658813 -0.00327633 -0.01953020 0.00000000
1.45758938 -0.00116454 -0.14437988 0.00000000
1.23696993 0.00079786 -0.07989098 0.00000000
2.67784012 -0.00300185 -0.07792609 0.00000000
1.72247354 0.00196560 -0.16117965 0.00000000
1.93132854 -0.00070193 -0.16049009 0.00000000
0.88829896 0.00345328 -0.06765927 0.00000000
3.52699119 0.00427350 -0.14411049 0.00000000
3.82441806 -0.00226807 -0.03064533 0.00000000
1.12266241 -0.00049381 -0.02734142 0.00000000
0.50734580 0.00175593 -0.05448405 0.00000000
0.80429595 -0.00013106 -0.13427347 0.00000000
2.50491970 -0.00361035 -0.13656132 0.00000000
3.65223606 0.00503856 -0.00011518 0.00000000
0.02278954 -0.00286308 -0.10991850 0.00000000
0.46977721 0.00343259 -0.15287055 0.00000000
0.36372739 0.00144692 -0.13000645 0.00000000
0.32058876 -0.00041065 -0.08567726 0.00000000
3.11966626 0.00429433 -0.15064220 0.00000000
0.26880201 0.00281331 -0.16364937 0.00000000
2.17242685 0.00288357 -0.04407555 0.00000000
2.14096616 0.00056017 -0.05946755 0.00000000
3.10288195 0.00234023 -0.15353824 0.00000000
0.62001419 0.00398725 -0.11643400 0.00000000
0.23673018 0.00145183 -0.11824018 0.00000000
2.04806884 0.00010498 -0.16313561 0.00000000
3.07309434 0.00270371 -0.09689245 0.00000000
2.70049168 0.00221831 -0.14054636 0.00000000
2.38825290 -0.00318068 -0.05916260 0.00000000
0.53753308 -0.00105734 -0.10443133 0.00000000
3.85589776 -0.00543043 -0.07503724 0.00000000
1.28578193 0.00239649 -0.10384618 0.00000000
3.31108348 0.00010250 -0.03599408 0.00000000
1.21667930 0.00283462 -0.10004860 0.00000000
0.31296191 0.00581513 -0.14868071 0.00000000
2.26057681 0.00111062 -0.04036418 0.00000000
1.21708332 0.00219389 -0.04802987 0.00000000
2.20505583 -0.00046717 -0.01540707 0.00000000
1.36828785 0.00339122 -0.05252211 0.00000000
3.58379210 0.00104223 -0.10507982 0.00000000
3.54061842 0.00183417 -0.00707007 0.00000000
2.80948924 -0.00238121 -0.16618051 0.00000000
3.88452867 0.00222841 -0.04599486 0.00000000
0.89098335 0.00240714 -0.07520591 0.00000000
0.88141184 0.00076436 -0.13068785 0.00000000
3.24031002 0.00427409 -0.15199703 0.00000000
0.74431590 0.00278515 -0.15045360 0.00000000
2.91376240 -0.00046827 -0.05911207 0.00000000
3.09693656 0.00062718 -0.05993141 0.00000000
1.38802566 -0.00076076 -0.03689339 0.00000000
2.22276603 -0.00464665 -0.00909900 0.00000000
1.98268402 0.00048638 -0.04339890 0.00000000
2.85984028 0.00293508 -0.03125853 0.00000000
2.98946900 0.00352121 -0.16368287 0.00000000
2.55408333 -0.00077928 -0.03204059 0.00000000
2.36518263 0.00189518 -0.01407423 0.00000000
2.42590001 -0.00059646 -0.12485869 0.00000000
3.12469520 0.00291068 -0.13679768 0.00000000
0.86552970 0.00271967 -0.10557835 0.00000000
2.19342699 0.00387895 -0.02893514 0.00000000
2.84029115 0.00440728 -0.15972562 0.00000000
2.12453086 0.00499422 -0.12622805 0.00000000
3.26268144 0.00008315 -0.07690649 0.00000000
1.35185987 -0.00105609 -0.12609992 0.00000000
0.01201743 -0.00214773 -0.02079307 0.00000000
3.50971666 0.00142337 -0.05156476 0.00000000
0.52202605 0.00292943 -0.13083905 0.00000000
1.13622002 -0.00629118 -0.00435260 0.00000000
3.86323529 0.00245322 -0.12245313 0.00000000
2.11006564 0.00140141 -0.04861869 0.00000000
1.86879393 0.00141609 -0.08266879 0.00000000
3.26112791 -0.00140644 -0.13379614 0.00000000
1.34227654 0.00024274 -0.16690768 0.00000000
1.45439128 -0.00051410 -0.07362884 0.00000000
1.57899745 0.00405122 -0.13392270 0.00000000
2.23762740 0.00168604 -0.16538085 0.00000000
3.83762107 0.00038268 -0.06191759 0.00000000
2.26553261 -0.00312153 -0.07698223 0.00000000
0.75013910 -0.00005514 -0.13853827 0.00000000
3.06374546 0.00416539 -0.07078009 0.00000000
3.99180129 0.00197198 -0.16761379 0.00000000
3.72080505 0.00193450 -0.16712106 0.00000000
0.92443351 -0.00121321 -0.05681616 0.00000000
1.62928475 0.00081928 -0.14936355 0.00000000
2.51917809 0.00046946 -0.15713641 0.00000000
1.43880177 -0.00151305 -0.09428043 0.00000000
3.02497745 0.00010729 -0.09519589 0.00000000
3.20557995 0.00000930 -0.03629156 0.00000000
1.38989065 0.00422637 -0.04837176 0.00000000
0.72422410 0.00499153 -0.05504220 0.00000000
3.23325544 0.00522886 -0.13481384 0.00000000
1.34568296 -0.00236151 -0.07008510 0.00000000
1.04313422 -0.00143854 -0.01778643 0.00000000
2.87902442 0.00124796 -0.08402480 0.00000000
0.90546132 0.00408155 -0.10792770 0.00000000
1.13748383 0.00359736 -0.06444203 0.00000000
0.78024619 -0.00108318 -0.05631068 0.00000000
1.68687257 0.00182795 -0.12608316 0.00000000
0.80292720 -0.00362287 -0.09674768 0.00000000
3.34801948 0.00046834 -0.05086138 0.00000000
1.78464743 0.00337984 -0.08322181 0.00000000
2.27077277 0.00102568 -0.14552095 0.00000000
0.37377021 0.00458004 -0.02391704 0.00000000
2.10891374 -0.00019013 -0.05032489 0.00000000
2.61430488 0.00101474 -0.15174284 0.00000000
0.73207376 0.00011197 -0.03456451 0.00000000
1.74820505 0.00189442 -0.01418472 0.00000000
1.97662116 0.00407688 -0.07510308 0.00000000
2.66119128 0.00208717 -0.08080418 0.00000000
1.25205906 0.00372010 -0.12301064 0.00000000
3.40374017 -0.00159804 -0.07896344 0.00000000
0.88742004 0.00302614 -0.12162767 0.00000000
0.98024761 0.00037371 -0.12671239 0.00000000
3.23729370 -0.00221214 -0.11066568 0.00000000
0.77313827 0.00204875 -0.07793547 0.00000000
0.58403452 0.00360841 -0.07666393 0.00000000
0.78211356 -0.00045319 -0.00384660 0.00000000
3.23389091 0.00554796 -0.16204019 0.00000000
0.11406619 -0.00057525 -0.09600444 0.00000000
1.92657141 0.00092270 -0.12838143 0.00000000
0.87873785 0.00016410 -0.05119525 0.00000000
1.19136366 -0.00301337 -0.05177538 0.00000000
0.40468285 -0.00348578 -0.04844553 0.00000000
1.16490227 -0.00031057 -0.05436029 0.00000000
1.45046006 0.00354701 -0.16046263 0.00000000
0.22755077 0.00000720 -0.06489326 0.00000000
0.34853273 0.00163187 -0.07402871 0.00000000
1.55207777 -0.00042207 -0.11526944 0.00000000
3.38743527 -0.00436519 -0.01667477 0.00000000
0.71367400 -0.00361893 -0.06275416 0.00000000
1.35850200 -0.00093605 -0.07569344 0.00000000
1.36103610 -0.00218842 -0.16614811 0.00000000
1.46192458 -0.00385814 -0.11801390 0.00000000
2.88754064 -0.00050229 -0.15944625 0.00000000
1.08198522 0.00070823 -0.03891286 0.00000000
2.06866222 0.00199939 -0.01827163 0.00000000
1.52337439 0.00153319 -0.10633839 0.00000000
0.23598598 0.00217096 -0.00405190 0.00000000
0.83767136 0.00090721 -0.01493935 0.00000000
2.84155354 0.00278840 -0.11564798 0.00000000
3.94875930 0.00080284 -0.00538232 0.00000000
0.64266763 0.00588898 -0.08413901 0.00000000
0.74969095 0.00029302 -0.06011587 0.00000000
0.67007974 0.00323688 -0.02654169 0.00000000
0.76072336 0.00053318 -0.06437431 0.00000000
0.96277086 0.00070875 -0.07964878 0.00000000
1.86017253 0.00146090 -0.14840370 0.00000000
0.59997949 -0.00132696 -0.11930735 0.00000000
2.20235964 -0.00081767 -0.15397443 0.00000000
3.55945160 0.00323396 -0.05381172 0.00000000
0.01058092 0.00154285 -0.02306189 0.00000000
0.93452867 -0.00015873 -0.04061913 0.00000000
0.46084860 -0.00145164 -0.07160951 0.00000000
2.28715373 0.00164112 -0.05260106 0.00000000
0.19871246 -0.00018525 -0.08906303 0.00000000
1.43534669 -0.00074981 -0.01789186 0.00000000
