3.130145 1.542135 -0.003719 0.0
1.735874 1.172619 0.004930 0.0
3.635595 1.277323 0.002655 0.0
4.601763 0.080451 0.004701 0.0
1.716912 0.270619 0.001891 0.0
1.569895 0.629772 0.000296 0.0
3.877132 0.411483 -0.001304 0.0
2.616235 0.222544 -0.006366 0.0
0.217607 0.058190 0.003277 0.0
3.975879 1.195614 0.001442 0.0
0.888202 1.552301 0.000390 0.0
3.466381 0.925656 0.000711 0.0
4.200414 1.777014 0.003961 0.0
0.434552 1.938749 0.002951 0.0
2.738011 1.409607 -0.000458 0.0
3.820967 1.498743 0.003645 0.0
0.608211 1.744951 0.000046 0.0
2.871549 1.779328 -0.005725 0.0
3.962739 1.032741 0.004424 0.0
1.351596 1.862984 0.000295 0.0
2.829006 1.949626 -0.002264 0.0
4.076197 1.931390 0.002385 0.0
0.516871 1.121748 0.008011 0.0
3.258487 1.721878 0.003602 0.0
4.544832 0.024307 0.001095 0.0
3.781688 0.361271 0.001819 0.0
4.302281 0.648452 0.001689 0.0
1.957671 0.860886 0.001643 0.0
4.223752 0.838331 -0.003702 0.0
0.543468 1.766288 -0.001306 0.0
3.428394 2.010317 0.000242 0.0
3.466849 1.799163 0.001198 0.0
2.316468 2.012957 -0.004497 0.0
2.266099 1.843366 -0.001386 0.0
3.427959 1.880139 0.001466 0.0
3.735189 1.505639 -0.002656 0.0
3.706954 0.200870 0.003876 0.0
2.048348 1.732688 0.004333 0.0
3.815002 0.903845 0.002230 0.0
4.692971 0.632823 0.001297 0.0
4.444869 0.649923 0.000197 0.0
3.853106 1.570927 -0.002382 0.0
4.724711 0.006479 -0.003284 0.0
4.202122 1.885844 -0.002268 0.0
3.798426 1.721934 -0.002046 0.0
2.760358 0.471395 -0.000611 0.0
2.725704 0.437684 -0.003840 0.0
4.631802 0.133508 0.002757 0.0
0.663576 0.147536 -0.000098 0.0
0.996051 0.623065 -0.000380 0.0
0.649567 0.394823 0.002124 0.0
2.256895 1.749105 -0.004444 0.0
4.561747 0.916351 -0.001798 0.0
4.447549 1.366690 -0.001631 0.0
2.012159 2.005755 -0.001021 0.0
4.716599 0.250325 -0.000746 0.0
3.882214 0.694229 -0.000966 0.0
3.220734 1.373035 -0.000157 0.0
2.558721 1.243431 -0.000893 0.0
4.085146 0.841552 0.001481 0.0
0.939823 1.959888 -0.001657 0.0
3.599018 0.081081 -0.003283 0.0
0.082185 1.719538 0.001111 0.0
3.402130 1.968496 0.005219 0.0
3.487648 1.306911 -0.004434 0.0
4.731262 0.768570 0.001103 0.0
0.740564 1.328191 -0.001652 0.0
2.402758 0.903558 -0.000844 0.0
3.102969 1.420191 -0.001865 0.0
3.853724 1.327488 0.003039 0.0
0.977618 0.234444 -0.000299 0.0
3.500205 0.952153 -0.001380 0.0
1.023767 1.438041 -0.000656 0.0
2.312093 1.050092 -0.000052 0.0
2.348493 1.876483 0.001366 0.0
1.503377 1.105950 0.005143 0.0
4.249559 0.715900 -0.002089 0.0
3.580501 0.285613 0.000733 0.0
3.354621 0.260290 -0.000623 0.0
3.366956 0.825571 -0.000479 0.0
3.461685 1.524470 -0.002952 0.0
3.888192 1.789957 -0.000857 0.0
0.778618 0.959213 0.002101 0.0
1.770167 1.870963 -0.003565 0.0
4.184102 1.907266 0.000637 0.0
3.544450 0.218434 0.004112 0.0
4.587647 1.338060 0.001351 0.0
1.794427 1.884968 0.001130 0.0
3.737747 1.711598 -0.002047 0.0
2.448230 0.647251 -0.000012 0.0
0.572983 0.573221 -0.000736 0.0
1.075705 1.371683 0.002199 0.0
2.328991 1.648651 -0.003660 0.0
2.197203 1.321160 -0.003342 0.0
1.955555 0.183945 0.003182 0.0
3.789572 1.835835 0.001048 0.0
3.332597 1.873778 0.001713 0.0
3.812216 0.990087 -0.001407 0.0
2.234833 1.812824 -0.000516 0.0
0.952045 1.416225 0.002519 0.0
1.335371 0.060686 0.000470 0.0
3.121661 1.667141 0.001226 0.0
2.576424 1.684121 -0.000146 0.0
2.377104 1.870610 0.000132 0.0
2.912715 0.288728 -0.000215 0.0
3.050312 1.012287 -0.003927 0.0
1.231284 1.496590 0.002282 0.0
2.180402 1.647955 -0.002264 0.0
4.749727 1.378115 0.001358 0.0
1.485914 1.369160 -0.000558 0.0
0.867699 1.937825 0.005585 0.0
4.606088 0.324858 0.001970 0.0
0.663661 1.942058 0.001478 0.0
1.140694 1.228857 -0.003867 0.0
0.225551 0.478145 0.002614 0.0
3.547749 1.687243 0.001637 0.0
3.292658 0.598375 0.003532 0.0
1.630197 1.638451 -0.000001 0.0
3.762159 1.902523 0.002161 0.0
3.368281 0.157428 0.002567 0.0
2.741207 1.131114 -0.000319 0.0
2.345863 1.762998 0.000203 0.0
2.932165 1.950577 -0.002477 0.0
3.072887 0.356910 -0.000327 0.0
0.659609 1.244701 0.001043 0.0
0.410440 0.770426 -0.001013 0.0
0.542011 1.502537 -0.003482 0.0
1.912897 0.055515 0.001175 0.0
0.751051 1.019364 0.001007 0.0
1.249065 1.192868 -0.001735 0.0
4.053880 0.614838 0.002349 0.0
3.085060 0.404224 -0.005163 0.0
1.325961 0.872271 0.002398 0.0
3.762161 0.941690 -0.002542 0.0
4.178132 1.094314 0.001211 0.0
3.603867 1.927355 -0.000459 0.0
3.653572 0.706036 0.003878 0.0
3.959068 1.253073 -0.001833 0.0
0.784588 1.572923 0.004098 0.0
4.151184 0.888929 -0.001846 0.0
0.598615 1.838589 0.002653 0.0
3.458721 0.641640 -0.001513 0.0
1.521963 0.445417 -0.000113 0.0
3.899495 0.047491 0.003694 0.0
4.280708 0.867906 -0.003570 0.0
3.775308 1.869264 -0.000944 0.0
3.918097 0.908045 -0.001554 0.0
2.668741 1.141790 -0.006464 0.0
4.500673 1.133252 0.001695 0.0
0.265824 1.488303 -0.000834 0.0
3.365420 1.820625 -0.004304 0.0
1.385828 1.500615 0.000069 0.0
1.785901 1.358732 0.003978 0.0
4.605305 1.687968 0.005593 0.0
3.824981 0.674675 0.000790 0.0
2.512216 1.969081 0.001566 0.0
1.817893 0.421064 0.001702 0.0
2.096810 0.977241 -0.003727 0.0
0.525215 0.435297 0.003004 0.0
1.526152 0.709494 0.002680 0.0
0.729846 1.172214 0.000216 0.0
0.219297 0.361986 -0.002167 0.0
3.404951 1.534578 0.000142 0.0
2.363393 0.672118 0.000622 0.0
4.773070 0.917534 0.004369 0.0
1.500565 0.393819 0.001875 0.0
1.726812 0.634395 0.001228 0.0
4.125835 1.378715 0.002351 0.0
4.533051 0.409484 -0.002433 0.0
3.458559 0.559730 0.001379 0.0
3.290594 1.428602 0.000005 0.0
4.566609 0.206242 -0.007258 0.0
3.392637 0.898649 -0.002174 0.0
0.747653 0.006912 -0.005974 0.0
1.234519 0.407564 -0.000929 0.0
0.475426 1.367577 0.001696 0.0
0.195686 1.642164 0.001534 0.0
0.549117 1.239150 0.002294 0.0
1.321517 1.108358 0.000520 0.0
3.172865 1.669893 -0.000950 0.0
0.936572 0.847835 -0.000494 0.0
0.395849 0.389784 0.000174 0.0
1.698937 1.073605 -0.003471 0.0
4.258900 0.645087 -0.003459 0.0
4.018945 1.608125 -0.004801 0.0
4.418382 1.742178 -0.001413 0.0
2.351012 1.055669 -0.000816 0.0
2.933810 0.544590 -0.000076 0.0
4.387480 1.481460 0.001208 0.0
1.064024 0.389047 -0.004102 0.0
0.545055 1.179121 0.002404 0.0
3.158296 0.852036 -0.000659 0.0
0.532766 1.961509 -0.001221 0.0
2.734210 1.148268 0.000309 0.0
1.682499 1.528638 -0.000580 0.0
3.196829 1.805841 0.003677 0.0
3.134153 1.624425 -0.002665 0.0
4.473885 0.660545 -0.003653 0.0
3.219863 1.560375 0.002421 0.0
1.704688 0.444374 0.000563 0.0
3.107361 1.258543 0.000661 0.0
3.958816 0.779897 -0.002181 0.0
1.899911 0.109137 0.002601 0.0
4.730335 1.750369 -0.002475 0.0
3.353292 1.377951 0.000983 0.0
2.597854 0.764744 0.004063 0.0
1.988961 0.977098 0.003888 0.0
0.107073 1.149543 -0.005340 0.0
2.768198 1.071100 0.000828 0.0
2.467415 1.682213 0.000485 0.0
1.169987 1.212609 -0.000411 0.0
1.802486 1.921531 -0.002249 0.0
3.852111 0.226839 -0.000410 0.0
1.694137 0.314383 -0.003046 0.0
3.856338 1.017963 0.002079 0.0
0.161021 0.913672 0.004872 0.0
3.222669 0.985565 0.001667 0.0
0.252035 0.466060 -0.000348 0.0
2.859454 0.452467 -0.001066 0.0
2.552143 1.159328 0.000535 0.0
3.466214 0.151922 0.005201 0.0
3.139345 1.438206 0.000888 0.0
1.029326 0.963951 0.002650 0.0
4.404942 1.589834 0.000548 0.0
1.662967 0.991505 -0.000311 0.0
4.237779 1.230079 -0.002241 0.0
2.132016 1.999164 -0.003180 0.0
4.780546 1.170924 -0.005034 0.0
0.030002 0.263099 0.001096 0.0
2.618160 1.712102 0.001487 0.0
3.792357 1.734626 0.000717 0.0
2.161651 1.008164 -0.000226 0.0
0.066582 0.615051 -0.001877 0.0
1.868689 0.298966 -0.001019 0.0
0.530500 0.924022 -0.002648 0.0
1.290904 1.994296 0.000029 0.0
3.830786 1.702367 -0.000677 0.0
0.915285 1.513306 0.000303 0.0
1.536648 0.303049 0.002175 0.0
0.028993 1.321336 -0.001628 0.0
4.237858 1.996552 0.002070 0.0
0.979094 1.461506 -0.002387 0.0
0.404379 0.007155 0.001982 0.0
3.260611 1.077070 0.005039 0.0
1.051419 1.874835 0.001061 0.0
4.281330 1.082604 -0.000152 0.0
2.979368 1.583762 0.001132 0.0
1.902872 0.786931 -0.004637 0.0
2.764889 1.748173 0.001508 0.0
1.700919 1.921992 0.000085 0.0
3.707378 0.146275 -0.002527 0.0
4.100173 0.788326 -0.001152 0.0
0.472565 1.246569 -0.001269 0.0
4.110077 1.246421 0.001866 0.0
4.269991 0.938759 0.000411 0.0
4.115305 0.814452 -0.003378 0.0
0.442797 1.036448 0.004984 0.0
1.833964 1.496930 -0.000014 0.0
1.766841 0.048716 0.001964 0.0
1.202050 1.253561 0.002032 0.0
0.663101 0.611215 -0.006094 0.0
3.983960 0.273009 0.002464 0.0
1.906332 0.026387 -0.001515 0.0
1.122086 0.701546 -0.004715 0.0
1.126654 1.939755 0.000033 0.0
4.040850 1.718887 0.000166 0.0
0.981624 0.396350 0.001268 0.0
2.624664 1.454395 -0.002658 0.0
3.658565 1.938209 -0.003703 0.0
4.260466 2.014593 -0.002025 0.0
2.192126 1.000266 0.002936 0.0
1.816739 1.250725 0.000893 0.0
1.845466 0.296498 -0.004456 0.0
0.560354 1.906609 -0.001626 0.0
4.308670 1.134736 0.003300 0.0
4.445464 0.421905 0.000927 0.0
1.071231 0.083161 -0.002341 0.0
3.407100 1.469663 0.001046 0.0
1.920495 0.533517 0.001876 0.0
4.592566 0.936737 0.000582 0.0
0.088679 0.228796 0.006381 0.0
4.719093 0.897304 0.002571 0.0
0.123867 0.536843 -0.002681 0.0
2.762317 1.425788 0.000552 0.0
2.261724 1.976793 0.000848 0.0
3.831777 0.940212 -0.000955 0.0
2.247637 1.287155 0.001193 0.0
0.447829 0.515350 -0.001428 0.0
0.931703 1.958643 -0.002777 0.0
2.490311 0.370977 -0.000458 0.0
1.945587 0.849304 0.001246 0.0
3.198883 0.622123 0.002419 0.0
0.618606 0.112177 -0.001297 0.0
0.860198 1.880496 -0.003960 0.0
2.760552 0.817067 0.001279 0.0
3.099461 0.580849 0.003428 0.0
3.224253 1.662936 0.004881 0.0
1.372213 0.495285 -0.001966 0.0
4.651438 1.096582 0.000808 0.0
4.747040 1.908105 -0.001894 0.0
0.393671 1.106513 0.001670 0.0
3.681937 1.121775 0.000046 0.0
1.111073 1.134651 -0.000332 0.0
3.985376 1.965988 0.000682 0.0
1.741960 0.039326 -0.000229 0.0
3.276695 1.838209 -0.000489 0.0
1.644429 1.492763 -0.003500 0.0
4.534853 0.649353 -0.001346 0.0
4.461057 1.301770 -0.002378 0.0
1.683304 0.891052 0.000854 0.0
2.910226 1.884493 0.000482 0.0
3.390184 1.409412 -0.001673 0.0
0.639878 1.504345 0.001051 0.0
2.628921 1.153622 0.000484 0.0
4.582027 0.137578 -0.002305 0.0
0.299293 1.689036 0.000105 0.0
3.362714 0.138831 -0.003109 0.0
0.455763 1.515550 0.000119 0.0
3.035276 1.612135 0.002706 0.0
4.671767 0.554019 0.001232 0.0
3.117485 1.986699 0.003683 0.0
4.379601 0.701103 0.000204 0.0
4.164092 1.917473 0.001789 0.0
3.044483 0.726680 -0.001003 0.0
4.177009 0.046381 0.001523 0.0
1.329435 1.826095 -0.003827 0.0
3.418718 0.573497 0.002303 0.0
3.060499 1.063029 0.002254 0.0
1.870544 1.492132 0.001849 0.0
3.548411 1.062935 -0.000292 0.0
3.562795 0.481544 -0.000437 0.0
2.432721 1.825144 -0.000980 0.0
3.664210 1.691413 0.001778 0.0
3.479619 0.529428 0.001236 0.0
1.607745 1.331769 -0.000768 0.0
1.385053 0.768787 -0.000942 0.0
0.383988 0.934997 0.001686 0.0
1.746665 1.017027 -0.000076 0.0
4.084611 0.592098 0.000529 0.0
0.056205 0.523776 0.000555 0.0
4.457897 1.457462 0.006739 0.0
0.543389 1.384509 0.000431 0.0
1.701392 0.190703 -0.000544 0.0
3.617888 0.197628 0.001975 0.0
3.188442 1.929309 0.003610 0.0
2.071384 0.980416 0.003804 0.0
1.463316 1.314164 -0.000492 0.0
0.330754 1.000746 -0.001181 0.0
3.118455 0.402424 0.001524 0.0
0.865766 1.010868 -0.002128 0.0
1.672950 0.597559 0.003440 0.0
0.753054 0.545677 -0.001861 0.0
2.171351 0.938493 0.000097 0.0
3.159071 0.954557 0.001212 0.0
4.149355 0.436062 -0.000022 0.0
1.837812 0.103363 0.003106 0.0
1.421878 1.477839 -0.001556 0.0
3.146551 1.378187 -0.001964 0.0
3.018487 0.515231 -0.003399 0.0
1.408408 1.295393 0.002212 0.0
1.966838 0.644484 0.005847 0.0
4.557482 1.303541 0.000434 0.0
1.640615 0.643035 0.003041 0.0
2.246358 1.172069 0.000640 0.0
2.286856 0.524783 0.002887 0.0
2.649611 0.067223 0.000814 0.0
2.313348 1.576510 -0.002220 0.0
2.321804 1.493665 0.002335 0.0
0.189942 0.700188 0.001458 0.0
0.597233 1.628536 -0.001003 0.0
0.893814 0.915436 -0.000034 0.0
1.858028 1.890517 0.001101 0.0
0.753594 0.326588 -0.000341 0.0
1.553268 1.729606 0.000194 0.0
3.701738 0.982179 0.001716 0.0
1.211137 1.415634 0.001473 0.0
2.331467 0.496625 0.001128 0.0
2.302190 0.745508 -0.000838 0.0
3.818047 1.035957 0.001252 0.0
4.251815 1.585389 -0.001479 0.0
0.351926 1.379425 0.000593 0.0
1.059640 1.054582 0.001096 0.0
3.853938 1.929555 -0.002258 0.0
4.300769 0.982512 0.000466 0.0
0.869771 1.201651 0.002240 0.0
1.418521 0.735899 -0.000155 0.0
3.757134 0.921753 0.000132 0.0
0.073039 0.120927 0.001983 0.0
2.905117 0.490818 -0.003460 0.0
0.096729 1.900227 -0.002952 0.0
0.776735 0.778455 0.002091 0.0
3.015747 1.060395 0.002515 0.0
0.913862 1.448793 0.000569 0.0
3.619987 0.149316 -0.001475 0.0
4.237892 0.377890 -0.002859 0.0
0.225311 1.119074 -0.003136 0.0
3.218481 1.671029 0.005522 0.0
4.566124 0.744657 -0.004347 0.0
4.779399 1.327740 0.001087 0.0
3.055418 1.093069 -0.000243 0.0
3.302465 0.696893 0.002715 0.0
4.720934 1.334384 0.000628 0.0
0.599264 0.186130 0.000104 0.0
4.270284 0.561136 0.001303 0.0
1.821859 0.728604 -0.001313 0.0
2.816708 0.639515 0.001132 0.0
1.337954 0.046722 -0.001432 0.0
0.266816 0.498099 -0.001944 0.0
3.916891 0.802594 -0.004682 0.0
2.395728 0.238922 0.000068 0.0
1.906472 0.731950 -0.001002 0.0
3.623157 0.908058 0.000497 0.0
2.095052 1.730988 0.001611 0.0
2.885004 1.576363 0.002316 0.0
2.273396 1.355473 0.000154 0.0
1.654289 0.147803 -0.000797 0.0
3.747530 1.272198 0.001790 0.0
1.153721 1.640728 0.003130 0.0
2.600846 0.744212 -0.001308 0.0
0.603751 0.607490 -0.002763 0.0
3.012310 1.535470 -0.004503 0.0
2.011107 1.953376 0.001548 0.0
4.233810 0.789572 -0.002237 0.0
0.884350 1.629814 -0.000558 0.0
0.073672 0.619104 0.001445 0.0
0.711195 2.012344 0.000535 0.0
1.544828 0.166080 -0.000033 0.0
1.901019 1.858774 -0.000963 0.0
3.734204 1.546791 0.000176 0.0
3.813087 0.279075 -0.001795 0.0
2.618810 1.142644 -0.000239 0.0
0.841109 0.140993 -0.001648 0.0
2.285503 0.981532 -0.002335 0.0
0.279446 0.769468 -0.000056 0.0
2.397186 1.305367 -0.001647 0.0
2.315171 0.741878 0.001727 0.0
2.303198 1.252286 0.004593 0.0
0.265541 1.563970 0.000906 0.0
2.095956 1.447126 -0.000715 0.0
0.757121 0.700340 0.000844 0.0
0.055580 0.409619 0.000974 0.0
3.011489 0.247435 -0.001899 0.0
3.223264 0.485907 0.000281 0.0
3.806043 1.953619 0.006425 0.0
3.087852 1.738269 0.000806 0.0
1.534293 1.763449 -0.001808 0.0
4.028672 0.777128 -0.001800 0.0
2.444163 1.350285 -0.003450 0.0
4.022958 0.387232 0.000405 0.0
3.115230 1.753210 0.003134 0.0
3.106399 1.574680 0.005187 0.0
4.657524 1.042228 -0.001493 0.0
2.938454 0.843982 -0.003430 0.0
0.248847 1.570562 0.001281 0.0
0.246737 1.493062 0.000281 0.0
0.564063 1.606839 0.002483 0.0
1.722824 1.939152 -0.000284 0.0
3.856253 0.889701 -0.004214 0.0
1.402001 0.831937 -0.001124 0.0
4.762238 1.102540 0.006630 0.0
3.881038 0.090443 -0.004011 0.0
3.921465 1.804119 0.004565 0.0
1.939960 1.455825 -0.000455 0.0
4.744621 1.854169 -0.000019 0.0
1.586554 1.612560 0.005274 0.0
0.703183 0.428294 -0.002852 0.0
4.621189 1.564360 -0.002649 0.0
0.885900 1.133224 -0.001553 0.0
3.208447 0.094865 -0.002983 0.0
3.840185 1.796365 -0.000301 0.0
4.494414 0.761819 0.004228 0.0
0.841643 1.545575 -0.002202 0.0
2.382250 1.922441 0.001552 0.0
4.746004 1.551514 0.001343 0.0
3.315195 0.501214 0.000067 0.0
1.690601 1.623534 -0.000953 0.0
4.004410 1.057808 0.004114 0.0
0.710779 0.577599 0.000215 0.0
4.403967 0.180546 0.000503 0.0
2.022651 0.494258 -0.000651 0.0
0.450712 1.081996 -0.000813 0.0
1.559650 0.541519 0.002553 0.0
1.510574 1.166261 0.001854 0.0
3.006691 1.032821 -0.002954 0.0
1.855522 0.183640 0.000674 0.0
2.049998 1.040334 -0.004280 0.0
3.280215 1.943850 -0.003952 0.0
2.949161 1.746005 0.004715 0.0
2.717656 1.041344 0.004170 0.0
0.054720 0.991730 -0.004510 0.0
4.043322 1.811840 -0.001196 0.0
0.749089 1.871942 -0.002620 0.0
0.868740 1.475199 0.000098 0.0
0.077737 0.663270 -0.002890 0.0
2.564315 1.326212 0.000132 0.0
3.506142 0.175955 0.000499 0.0
1.851339 0.690357 0.001044 0.0
0.107026 1.330515 -0.001661 0.0
3.164295 1.501171 -0.001418 0.0
4.633073 1.588771 0.000294 0.0
1.284656 1.733632 0.004263 0.0
1.283713 0.098478 0.004397 0.0
2.069239 0.473717 -0.001769 0.0
1.445859 1.571198 0.002735 0.0
3.963833 1.798812 -0.002196 0.0
3.610534 0.984299 -0.004766 0.0
3.533254 0.217621 -0.000654 0.0
1.328601 2.020757 -0.001259 0.0
2.476430 1.886748 -0.002168 0.0
3.360424 0.453413 0.003440 0.0
0.692772 1.373763 0.004117 0.0
0.366590 0.538854 0.000784 0.0
1.056721 1.930695 -0.000570 0.0
2.239516 1.539747 0.002262 0.0
3.771844 0.678771 -0.003536 0.0
1.882738 0.957739 0.000929 0.0
0.466754 1.023911 0.003005 0.0
4.358592 0.954359 -0.000812 0.0
3.967128 1.061950 -0.001959 0.0
1.755459 0.812162 0.002144 0.0
1.386262 0.994564 -0.001980 0.0
1.847397 1.922476 0.000620 0.0
3.526548 0.127485 0.000867 0.0
0.662580 0.004826 -0.002357 0.0
2.159033 0.726422 0.001926 0.0
3.258881 1.341874 0.001613 0.0
4.107905 1.697118 0.000426 0.0
1.984988 0.315384 -0.000623 0.0
2.522634 1.178059 0.002947 0.0
4.107951 0.753695 0.003479 0.0
0.692021 0.266252 -0.003523 0.0
2.060600 0.665967 0.003726 0.0
3.234091 1.741857 -0.001885 0.0
4.659656 1.279318 -0.000181 0.0
3.848870 0.384017 0.001345 0.0
0.384623 1.739780 -0.000776 0.0
4.018948 0.238029 -0.004448 0.0
2.210956 2.008290 0.000664 0.0
3.770336 0.442692 -0.003796 0.0
3.093355 1.604220 0.000414 0.0
1.276532 0.955860 0.005721 0.0
1.200655 1.820520 -0.001422 0.0
3.496167 1.030739 0.001962 0.0
1.120351 1.791255 0.001861 0.0
4.539694 1.681053 0.003554 0.0
4.139761 0.243169 0.006131 0.0
1.709919 1.364575 0.001641 0.0
0.040072 1.448102 -0.003302 0.0
0.579061 1.444835 -0.003784 0.0
4.727146 1.141737 0.006710 0.0
2.521392 0.586679 0.002225 0.0
2.408131 0.805188 0.002666 0.0
1.560191 1.642864 0.001543 0.0
0.075664 1.672196 0.000146 0.0
0.331926 1.520078 0.001724 0.0
0.616124 1.227808 -0.003168 0.0
3.037751 1.410788 0.003281 0.0
2.377556 0.206652 -0.002972 0.0
0.649738 0.801596 -0.002712 0.0
4.372482 0.089252 0.001481 0.0
2.117567 0.205618 -0.002376 0.0
3.923804 0.732879 0.000828 0.0
3.545477 1.503915 0.000485 0.0
3.761225 1.379709 0.001717 0.0
0.861078 0.033144 0.000163 0.0
3.352468 0.301036 -0.002813 0.0
3.221246 1.433454 0.003547 0.0
2.177352 0.366872 0.001307 0.0
2.850382 1.215934 -0.000087 0.0
0.830572 0.199288 -0.001231 0.0
3.329793 0.825105 0.001585 0.0
2.086661 1.549585 0.000306 0.0
1.271808 1.994096 -0.003364 0.0
3.541218 1.950937 0.001576 0.0
1.026097 2.002083 -0.002133 0.0
4.584415 1.237961 -0.005037 0.0
4.591676 1.691081 -0.002878 0.0
1.201307 1.942073 -0.001523 0.0
3.393670 0.544669 0.002907 0.0
2.822639 1.879171 -0.000677 0.0
1.929604 0.495952 0.001217 0.0
3.201489 1.486136 -0.003484 0.0
2.810893 1.696937 0.001704 0.0
4.786672 1.412547 0.000521 0.0
1.394411 0.013809 -0.000774 0.0
3.916810 1.640953 -0.000718 0.0
0.412532 0.627805 0.002253 0.0
0.227938 0.265732 -0.000347 0.0
3.957580 1.077383 -0.002444 0.0
3.861236 1.419419 0.004838 0.0
0.496946 1.002131 0.006756 0.0
1.248143 1.153546 0.001676 0.0
0.972430 1.895519 -0.002977 0.0
3.437321 1.707696 0.002859 0.0
1.950819 1.850614 0.004230 0.0
4.354068 1.740266 0.002838 0.0
1.608512 0.748222 0.003410 0.0
2.276819 0.804494 -0.003957 0.0
2.911674 1.474499 0.004744 0.0
0.574097 0.225755 -0.000348 0.0
4.438268 0.034005 0.005400 0.0
0.117493 1.935042 -0.000239 0.0
2.398452 1.227399 -0.004193 0.0
1.049381 0.049792 -0.001446 0.0
0.889500 1.991070 -0.000109 0.0
0.891886 0.300938 -0.001140 0.0
4.784198 1.132996 -0.000176 0.0
0.091734 0.535691 0.000187 0.0
2.060700 1.177014 0.003032 0.0
0.422463 0.379866 -0.003453 0.0
4.042527 0.004896 0.003122 0.0
3.917522 1.844537 0.001125 0.0
0.448401 0.192101 0.003838 0.0
2.130516 0.245352 0.000719 0.0
1.762461 1.467023 0.001081 0.0
2.797620 0.443015 -0.001648 0.0
1.164764 1.308947 0.002144 0.0
4.420395 0.242121 -0.000603 0.0
2.811928 0.655895 -0.006353 0.0
2.178741 1.946818 -0.000085 0.0
3.619514 0.578662 -0.003108 0.0
2.537532 0.808329 -0.005309 0.0
0.841333 1.780816 -0.002449 0.0
0.899001 1.202973 -0.000402 0.0
2.802394 0.653399 -0.000879 0.0
3.433764 1.509917 -0.000953 0.0
1.119865 1.398860 0.005902 0.0
2.551092 1.390139 0.001998 0.0
3.620203 0.666052 0.000383 0.0
0.265354 1.843236 -0.003049 0.0
2.527035 0.106048 -0.004692 0.0
3.383430 0.597354 0.001538 0.0
0.749450 0.868303 0.004019 0.0
0.042405 1.409713 0.001259 0.0
0.843859 0.968133 -0.000243 0.0
1.937339 0.111972 -0.003133 0.0
1.467522 0.213261 -0.000108 0.0
2.395405 1.854946 -0.000112 0.0
0.615931 1.271755 0.001198 0.0
4.630772 1.681347 0.003689 0.0
1.375585 1.615644 0.001342 0.0
2.400551 0.852446 0.003443 0.0
2.830918 1.230090 0.001361 0.0
0.860935 0.576381 0.000239 0.0
0.828204 0.723747 0.005085 0.0
0.276842 0.305316 -0.000001 0.0
0.697092 0.361830 0.001420 0.0
4.115962 1.971510 -0.001058 0.0
0.262828 0.847903 0.001186 0.0
4.435616 0.002786 -0.003455 0.0
4.192032 1.366064 0.000589 0.0
2.514349 0.561306 -0.001699 0.0
0.666309 1.761002 -0.000661 0.0
3.073055 1.822969 -0.004286 0.0
1.510066 1.702669 -0.002346 0.0
2.296896 0.443716 0.002394 0.0
3.042183 1.418237 -0.000321 0.0
0.460368 1.283598 -0.000129 0.0
1.666806 0.318676 -0.002989 0.0
0.256446 0.230957 0.002091 0.0
2.871191 1.257428 0.000201 0.0
1.802258 1.692826 -0.001448 0.0
1.429250 0.014505 0.002692 0.0
4.299919 0.040317 -0.001024 0.0
0.786775 0.740147 0.004812 0.0
1.186033 0.461637 0.002963 0.0
1.176359 0.830969 0.000796 0.0
0.505242 1.228486 0.000606 0.0
3.193194 1.729489 0.000658 0.0
0.163696 1.366563 -0.000615 0.0
3.339563 0.118191 -0.002964 0.0
0.143890 1.581005 0.002497 0.0
0.135628 1.362911 -0.002398 0.0
2.122410 0.337777 0.002446 0.0
2.136994 0.249852 -0.002230 0.0
2.201140 1.936750 -0.002091 0.0
2.636721 1.830830 0.001004 0.0
4.053994 1.901667 -0.000458 0.0
2.044365 1.111913 -0.002481 0.0
1.355487 0.922239 -0.002228 0.0
4.243642 1.908304 0.002756 0.0
1.611912 1.107931 -0.000028 0.0
2.072865 0.301457 -0.000321 0.0
0.234781 0.987057 0.000746 0.0
3.868691 0.399960 -0.001529 0.0
1.505981 0.199685 0.000886 0.0
3.143990 0.988209 -0.000784 0.0
1.922585 1.723564 -0.001586 0.0
3.286351 1.347353 -0.002683 0.0
0.894161 1.971046 -0.002515 0.0
1.674765 0.046712 0.002866 0.0
3.785567 0.842638 0.005215 0.0
3.384961 1.550974 0.001592 0.0
2.486960 0.181711 0.001647 0.0
4.651544 1.160480 0.002228 0.0
2.937856 1.335171 0.000917 0.0
3.430285 1.576837 -0.000408 0.0
2.095647 0.502281 0.001856 0.0
1.156732 1.850221 0.002883 0.0
0.804906 1.826515 -0.000786 0.0
0.428202 0.840911 0.001850 0.0
3.203086 0.156161 -0.002232 0.0
4.113882 1.953967 0.001064 0.0
4.043645 1.632611 0.001072 0.0
2.432343 1.746217 0.001533 0.0
3.098088 0.404714 0.000549 0.0
0.848764 1.534800 0.002613 0.0
0.603315 1.831097 0.001586 0.0
0.064318 0.005210 0.002908 0.0
3.173791 1.044009 -0.000965 0.0
1.273753 0.556998 0.000076 0.0
3.648145 1.486572 -0.000550 0.0
1.868887 1.204641 -0.000097 0.0
0.569717 0.739782 -0.000268 0.0
3.303076 0.234914 0.002529 0.0
2.544140 0.319113 0.002290 0.0
2.739496 0.872369 -0.004853 0.0
4.181826 0.324166 -0.001487 0.0
4.586961 1.720642 -0.001832 0.0
2.276334 0.862673 -0.001782 0.0
0.302744 1.181708 -0.000476 0.0
3.192310 0.210827 0.002028 0.0
3.374095 1.152786 0.003078 0.0
2.952876 0.448411 0.004097 0.0
2.517268 1.745770 -0.001312 0.0
0.584586 0.962010 0.000774 0.0
0.678249 1.354439 -0.001730 0.0
4.369481 0.324615 0.000824 0.0
4.324817 1.749814 0.002165 0.0
3.475733 1.210147 -0.002947 0.0
3.689470 1.151072 0.003164 0.0
2.528900 1.984623 -0.004033 0.0
2.689529 1.074954 -0.000695 0.0
0.332293 1.492532 -0.002338 0.0
3.565923 1.482750 -0.000873 0.0
3.349916 1.698082 0.002455 0.0
3.769081 1.866631 -0.001870 0.0
1.730718 1.678352 -0.002035 0.0
0.713846 1.487771 -0.003809 0.0
2.990470 1.882534 0.001817 0.0
1.152028 0.206708 -0.000961 0.0
0.595192 1.756450 0.000467 0.0
4.787828 1.276116 -0.001276 0.0
2.341568 1.702022 -0.002916 0.0
1.200371 1.573030 -0.001060 0.0
3.948906 0.909399 0.001102 0.0
0.169855 1.916620 -0.003724 0.0
2.036602 1.733508 0.002017 0.0
2.016194 0.301612 0.001631 0.0
2.903371 0.845407 0.001274 0.0
3.671627 1.808623 0.000731 0.0
3.723793 0.890308 -0.002406 0.0
3.562888 0.793065 -0.000679 0.0
2.206139 1.973909 -0.001158 0.0
0.246604 1.584183 -0.002793 0.0
3.490746 1.126773 0.003868 0.0
3.275082 0.286596 0.007033 0.0
1.118598 1.329838 -0.003128 0.0
1.470126 1.101186 0.003988 0.0
0.258817 0.463216 -0.003736 0.0
1.005328 0.565930 0.001853 0.0
4.192700 1.689084 0.000835 0.0
3.747808 1.665405 -0.000130 0.0
4.206543 0.106853 0.000239 0.0
2.580182 1.674303 -0.002523 0.0
2.642514 1.918363 -0.003765 0.0
3.652602 0.702413 -0.004900 0.0
3.408089 2.008516 -0.003341 0.0
0.489528 1.490707 0.001936 0.0
4.748799 1.373642 0.001988 0.0
2.331791 1.611669 -0.003473 0.0
1.024827 1.257566 -0.002297 0.0
1.863752 0.918215 0.003339 0.0
2.729069 0.553496 -0.004093 0.0
4.680883 1.197005 0.000642 0.0
1.078015 1.621631 0.000324 0.0
1.774206 0.948794 0.004861 0.0
1.369777 0.474702 0.000989 0.0
0.387517 1.734599 -0.001141 0.0
0.031531 0.336158 0.000653 0.0
3.156387 0.550239 -0.000385 0.0
3.183007 1.802920 0.003419 0.0
2.986809 1.193065 0.001414 0.0
0.184613 0.011986 -0.000394 0.0
1.296693 0.737378 -0.000739 0.0
2.405811 0.892779 -0.001009 0.0
2.319152 1.922557 -0.003514 0.0
3.771918 0.205028 -0.002593 0.0
0.711247 1.469665 -0.002488 0.0
2.956042 0.805517 -0.002211 0.0
4.754231 1.200736 -0.000011 0.0
1.365477 0.715805 0.000990 0.0
2.560955 1.639905 0.000229 0.0
3.542865 0.754797 -0.003223 0.0
2.984961 0.764817 0.000087 0.0
2.916780 1.749361 -0.003557 0.0
0.355808 1.473796 -0.003533 0.0
1.179295 0.894660 -0.001435 0.0
2.610764 0.636894 0.002605 0.0
1.598652 0.382130 0.001501 0.0
3.993657 1.357235 -0.000044 0.0
3.147381 0.415006 0.000353 0.0
0.712241 1.820481 0.000397 0.0
1.628866 1.980041 -0.000711 0.0
4.394980 0.396586 -0.002600 0.0
0.142571 1.955712 0.000532 0.0
2.101907 0.108184 0.001365 0.0
1.009113 1.466720 -0.005878 0.0
0.357970 0.930259 0.001380 0.0
3.448488 0.149212 0.001533 0.0
1.436053 1.641511 -0.003033 0.0
4.063506 1.178175 -0.001762 0.0
2.780558 1.534815 0.001335 0.0
0.990764 0.545132 -0.000720 0.0
2.061739 0.307921 0.000023 0.0
1.642779 1.001770 0.001331 0.0
3.220886 0.705728 -0.002229 0.0
3.950205 0.112014 0.003359 0.0
2.230152 0.349324 0.001456 0.0
2.385055 1.586718 -0.001312 0.0
4.605243 1.735317 -0.002875 0.0
3.850437 0.089627 0.000515 0.0
2.324382 1.975638 -0.005414 0.0
4.320599 0.491346 0.000566 0.0
2.767028 0.117377 -0.000569 0.0
2.876302 0.192771 -0.000133 0.0
2.566578 1.425610 -0.000929 0.0
1.897913 0.067934 0.001128 0.0
2.360681 1.954805 -0.002514 0.0
2.718928 0.694193 0.004017 0.0
4.561282 1.443951 -0.000958 0.0
3.030828 0.490467 0.000962 0.0
1.777178 1.930533 -0.000666 0.0
2.007883 0.383308 -0.002523 0.0
3.717791 1.717009 0.003239 0.0
2.317585 1.301270 0.001947 0.0
0.013844 0.078327 -0.001752 0.0
0.071197 1.780745 0.001324 0.0
4.542324 1.623710 0.001814 0.0
4.138298 1.119169 0.000673 0.0
4.768633 0.241365 0.001626 0.0
1.070680 0.122264 -0.002766 0.0
4.564790 0.014011 0.000518 0.0
2.148316 0.561376 -0.000174 0.0
3.958495 0.249157 0.000854 0.0
0.031127 0.389913 -0.001931 0.0
0.044749 1.476749 0.002774 0.0
3.439585 1.929104 -0.002249 0.0
0.426169 0.083201 0.007259 0.0
2.499724 1.147901 -0.001968 0.0
0.791191 0.329061 0.003420 0.0
2.243678 0.089157 0.000293 0.0
3.737082 0.589153 0.000310 0.0
4.129636 0.366470 -0.002719 0.0
1.440101 1.873408 0.001085 0.0
3.079012 1.232576 0.002009 0.0
1.965666 1.758691 0.001757 0.0
1.968587 1.665781 -0.003405 0.0
4.282341 0.174296 -0.005929 0.0
3.412525 1.911513 0.003014 0.0
0.593589 1.839627 -0.001478 0.0
3.930256 1.780484 -0.000164 0.0
0.276263 1.644524 -0.001768 0.0
0.918538 2.020193 -0.000280 0.0
4.100478 0.049118 -0.000071 0.0
2.691673 0.945984 -0.002079 0.0
1.673217 1.538092 -0.001094 0.0
0.589933 1.390536 -0.001511 0.0
3.398289 1.293130 0.001534 0.0
0.937779 1.273415 0.001561 0.0
1.124358 1.003593 -0.004651 0.0
3.781857 0.085463 0.000344 0.0
3.940116 1.012985 0.001596 0.0
2.914706 0.819891 0.001331 0.0
3.338032 1.442648 0.001303 0.0
3.418127 0.973469 0.002159 0.0
1.577600 0.733628 -0.001464 0.0
0.469772 1.692147 0.002207 0.0
3.018744 0.116198 -0.002414 0.0
3.723544 0.397177 -0.002653 0.0
2.312639 1.153568 0.001104 0.0
0.642288 1.613657 0.006772 0.0
3.257812 0.562486 -0.001997 0.0
3.034416 1.831349 -0.000701 0.0
0.922722 1.686185 0.000209 0.0
4.752505 0.457327 0.000560 0.0
2.185764 1.359320 -0.004225 0.0
0.156045 1.663390 0.000004 0.0
1.639761 0.144474 0.003568 0.0
1.912505 0.088434 -0.003682 0.0
2.028042 1.062683 0.000804 0.0
1.733472 1.833021 0.001254 0.0
2.831311 0.956351 0.004895 0.0
1.560400 1.534905 -0.004654 0.0
4.242240 1.533697 -0.000182 0.0
0.434617 0.888170 -0.003668 0.0
0.907219 1.983775 -0.003333 0.0
2.383743 1.728706 0.001933 0.0
0.411609 1.877352 0.000844 0.0
4.108728 0.168143 0.001250 0.0
3.018989 1.509935 0.004033 0.0
2.664883 1.510067 -0.000587 0.0
2.801419 0.092870 -0.001232 0.0
4.019022 1.557586 -0.001757 0.0
3.332380 1.232492 0.002306 0.0
1.521432 1.120477 -0.003070 0.0
1.616890 0.951341 -0.000752 0.0
1.291203 1.394832 -0.002309 0.0
4.224907 0.623877 0.004838 0.0
4.061617 1.175316 0.002211 0.0
4.619175 1.479023 0.002427 0.0
0.341374 0.819657 0.000682 0.0
0.878138 0.247243 -0.004661 0.0
4.365764 0.023207 0.002839 0.0
3.370458 0.285300 -0.002941 0.0
2.226184 0.687256 -0.001644 0.0
2.149584 0.754998 0.003053 0.0
3.535392 1.093830 -0.000499 0.0
4.237891 1.791779 0.003304 0.0
1.365746 0.428256 -0.001597 0.0
4.138704 0.120966 -0.004923 0.0
3.003109 0.689309 0.002928 0.0
1.458719 1.409766 -0.000344 0.0
0.014312 1.247060 -0.000105 0.0
4.708753 1.872107 0.000954 0.0
2.696594 0.975955 -0.000730 0.0
3.196545 1.672017 -0.000826 0.0
0.626950 0.326359 0.006204 0.0
1.353608 0.662486 0.000572 0.0
2.682732 0.820388 -0.001282 0.0
4.050867 1.826742 0.000790 0.0
0.575824 1.421287 0.000168 0.0
2.596580 0.992773 -0.000455 0.0
1.814054 1.784737 0.000727 0.0
0.649785 0.419860 -0.003288 0.0
4.327347 0.905873 -0.004431 0.0
3.500086 0.578010 0.001121 0.0
1.987291 1.928139 -0.000074 0.0
4.317104 1.538598 0.004040 0.0
3.533160 0.371039 0.004643 0.0
1.037147 1.026141 -0.000178 0.0
3.686606 1.304950 0.001204 0.0
3.365443 1.070061 -0.001177 0.0
0.878753 0.595791 -0.000277 0.0
0.269628 1.133292 0.001040 0.0
4.779261 0.210455 -0.000836 0.0
2.846956 0.801056 -0.000115 0.0
1.389133 1.853591 0.001256 0.0
3.973999 1.393217 0.000564 0.0
3.074505 1.309074 0.004131 0.0
0.469271 0.257956 0.002908 0.0
4.568237 1.915408 -0.000714 0.0
4.711754 0.146737 -0.002625 0.0
3.823775 1.124388 -0.000700 0.0
2.223309 0.056622 -0.003479 0.0
1.035796 0.982418 -0.003362 0.0
3.408403 0.104533 -0.005902 0.0
4.708764 0.555577 -0.000266 0.0
1.851238 1.384997 -0.001653 0.0
3.138201 0.486742 0.001194 0.0
0.992418 0.718768 0.000320 0.0
0.481498 1.912256 -0.002868 0.0
3.388852 0.222964 -0.004098 0.0
4.640962 2.018548 -0.005637 0.0
1.202673 1.642378 -0.001062 0.0
1.230208 1.831402 -0.002715 0.0
0.232608 1.742975 0.002755 0.0
0.821082 0.203906 -0.000771 0.0
3.477538 0.321399 -0.000114 0.0
3.230266 1.157669 -0.002099 0.0
1.575974 1.450174 0.001201 0.0
3.990263 1.062227 0.001454 0.0
3.790854 0.608169 0.000148 0.0
4.713593 0.053414 -0.004633 0.0
3.725901 0.743343 0.001494 0.0
4.406613 1.099496 0.003266 0.0
3.314524 0.528361 -0.001263 0.0
0.384670 0.758823 0.004144 0.0
3.820420 1.918588 -0.000065 0.0
1.091096 1.569023 0.006046 0.0
2.912032 1.188499 -0.002668 0.0
0.240036 1.990676 0.000768 0.0
1.312055 1.091355 -0.000313 0.0
1.499005 0.909310 -0.003960 0.0
0.543843 1.071554 0.002802 0.0
4.779897 1.253151 0.000545 0.0
4.502129 0.485302 -0.002412 0.0
4.464187 0.106679 -0.000991 0.0
0.501585 1.821984 -0.001483 0.0
4.478109 1.361272 -0.001535 0.0
2.904435 0.789439 0.002715 0.0
0.761799 0.264776 0.001450 0.0
0.623034 0.411912 0.000746 0.0
2.788021 1.539466 0.002278 0.0
3.502629 0.141842 0.000298 0.0
2.211405 0.399228 -0.001620 0.0
1.150678 1.129503 0.002443 0.0
2.524344 1.889483 0.000561 0.0
0.299845 1.012119 -0.005521 0.0
1.190707 0.377094 0.005033 0.0
1.206642 0.619994 0.002267 0.0
2.584948 1.534913 0.000839 0.0
3.683781 0.904952 -0.002378 0.0
1.321986 0.599532 -0.000019 0.0
4.383335 1.582280 0.003109 0.0
3.363188 1.109795 0.000721 0.0
3.359000 0.549059 -0.000254 0.0
3.072644 0.750724 -0.003406 0.0
1.682766 0.881370 -0.000039 0.0
1.010826 1.640998 0.000111 0.0
1.054617 0.701246 0.001109 0.0
3.792902 1.781656 -0.000057 0.0
2.316780 1.738172 -0.001786 0.0
3.792945 1.928941 -0.006415 0.0
4.586829 1.996783 0.000748 0.0
0.424147 0.403048 -0.000167 0.0
1.435936 1.466633 -0.000059 0.0
2.894458 0.060793 -0.004225 0.0
3.665988 0.456986 -0.001153 0.0
4.411019 1.181768 0.002581 0.0
0.495305 0.016079 0.003007 0.0
1.217497 1.507721 -0.004053 0.0
3.135538 0.991789 0.000297 0.0
1.841610 1.160611 -0.003842 0.0
3.345195 0.745593 -0.004128 0.0
2.809686 1.431880 -0.003794 0.0
3.703789 1.408015 -0.002225 0.0
2.469115 0.683721 0.001286 0.0
0.584522 1.851241 -0.000182 0.0
0.846801 1.352228 0.003000 0.0
2.219591 0.788942 0.000443 0.0
4.511650 0.283389 -0.001907 0.0
2.774155 1.060743 0.001802 0.0
3.984380 0.872014 -0.004179 0.0
4.468779 0.592625 -0.001312 0.0
0.681779 1.178115 -0.003519 0.0
2.253056 1.388057 0.002415 0.0
0.207559 0.472249 -0.002401 0.0
3.111953 1.722379 -0.002269 0.0
3.791760 0.962346 -0.000135 0.0
4.585162 0.401691 0.002614 0.0
1.716395 0.304185 -0.000466 0.0
4.651453 0.421283 -0.000283 0.0
0.196304 0.091090 -0.000321 0.0
1.357405 0.613213 0.002110 0.0
1.188530 0.644270 0.002019 0.0
2.705372 0.856114 -0.001346 0.0
0.282147 1.279399 -0.002324 0.0
1.317022 0.890897 -0.000320 0.0
0.201925 1.441747 0.001324 0.0
1.952332 0.352439 -0.000104 0.0
2.642354 0.842459 0.000366 0.0
3.971942 0.298995 -0.003396 0.0
0.513449 1.040875 -0.003676 0.0
3.271356 1.348398 -0.000336 0.0
2.034371 1.653179 0.000057 0.0
0.035426 1.191928 -0.001216 0.0
2.255422 1.660240 0.003865 0.0
3.332912 1.005849 0.000544 0.0
1.813389 0.542502 -0.002011 0.0
0.329062 1.510758 0.001118 0.0
3.058740 0.660428 0.002931 0.0
3.324333 1.440851 0.000647 0.0
1.758859 1.155596 0.002335 0.0
1.671400 0.766647 0.001334 0.0
1.298257 1.330164 0.001135 0.0
3.460329 0.177932 -0.000964 0.0
0.490168 1.816473 0.000534 0.0
3.627627 0.990720 0.000232 0.0
1.025995 2.013417 0.000809 0.0
4.450479 0.866051 0.001163 0.0
1.038518 0.178077 0.002462 0.0
0.087263 1.692319 -0.002684 0.0
4.764145 0.260465 0.000172 0.0
2.520186 0.606865 -0.006752 0.0
2.418596 1.492221 0.004757 0.0
0.788144 1.334355 0.000660 0.0
2.152490 1.738116 -0.001271 0.0
2.866041 1.621152 -0.000864 0.0
1.009989 0.034039 0.003588 0.0
4.004704 0.352934 0.003330 0.0
3.284390 0.569653 -0.001483 0.0
2.377759 1.015667 0.000873 0.0
0.605164 1.059048 -0.000078 0.0
3.911385 0.067485 -0.002916 0.0
2.787559 1.203325 -0.002215 0.0
1.741076 1.429796 -0.005285 0.0
2.821020 0.064128 0.000370 0.0
2.234923 0.980244 -0.000779 0.0
4.351401 1.103245 -0.003237 0.0
1.643658 1.410671 0.000999 0.0
4.036168 1.259298 -0.003315 0.0
3.263948 1.066646 -0.001306 0.0
0.285077 0.951537 0.000450 0.0
1.780160 0.021797 0.003435 0.0
4.641756 1.704440 0.002016 0.0
4.331162 0.108322 -0.002409 0.0
4.340663 0.536267 -0.001812 0.0
3.204446 0.042656 0.000669 0.0
0.455901 0.329909 -0.001839 0.0
2.116851 1.079062 0.000496 0.0
3.266886 0.695542 -0.001321 0.0
4.258183 0.068848 -0.001026 0.0
3.233133 1.632367 -0.000535 0.0
4.401714 0.281700 0.001231 0.0
2.024756 0.926528 -0.001372 0.0
2.193725 0.836006 0.001527 0.0
4.537914 0.175173 -0.000649 0.0
1.305431 1.903624 -0.000269 0.0
3.312384 1.492856 0.004723 0.0
4.236197 0.055693 -0.004813 0.0
3.374971 0.821884 -0.003082 0.0
1.019538 1.402705 0.000144 0.0
2.051603 1.204677 -0.000873 0.0
2.767745 1.663406 0.000650 0.0
2.619996 0.530368 0.001738 0.0
3.580886 1.719550 -0.001831 0.0
2.475009 1.068509 -0.002022 0.0
4.365081 0.186974 -0.002540 0.0
3.143553 0.902149 -0.001925 0.0
0.447514 1.267246 -0.003323 0.0
4.165007 0.403082 0.004381 0.0
2.566902 0.473208 0.000106 0.0
0.594611 1.193699 -0.002067 0.0
3.063219 1.532447 0.005447 0.0
4.595156 1.044666 0.000357 0.0
1.957293 1.205874 -0.001360 0.0
4.702550 0.780328 0.000679 0.0
3.971489 0.361959 -0.002589 0.0
3.803786 0.900091 0.002158 0.0
4.328295 0.216111 0.000907 0.0
1.421989 0.622927 -0.002497 0.0
4.194898 1.275686 -0.001031 0.0
3.784826 0.196762 -0.003312 0.0
2.581745 1.893788 -0.001010 0.0
0.825967 0.132434 -0.001919 0.0
0.350543 0.117553 0.004734 0.0
4.678873 0.618350 0.001273 0.0
0.528468 1.247081 -0.000364 0.0
4.426736 1.657274 -0.002791 0.0
3.738914 0.440933 0.001361 0.0
1.499041 0.470621 0.004626 0.0
2.045033 1.292872 -0.001033 0.0
0.560606 0.232237 -0.000416 0.0
4.148405 0.741786 0.004981 0.0
0.653185 1.007409 0.001812 0.0
0.321468 0.273824 -0.002010 0.0
0.777037 1.769041 -0.001553 0.0
0.877693 1.049763 -0.002346 0.0
3.996363 1.480230 0.000700 0.0
0.401079 1.026004 -0.003892 0.0
1.556270 0.408957 -0.004845 0.0
4.178204 1.124810 0.000130 0.0
4.686017 1.919833 0.001656 0.0
1.184003 0.866643 0.000962 0.0
1.116646 1.334304 0.000345 0.0
1.373032 1.759951 -0.005313 0.0
4.528996 1.215381 0.000686 0.0
0.405208 1.944326 0.001546 0.0
1.401919 0.413444 0.002250 0.0
2.896616 1.724883 0.001193 0.0
0.814996 0.883803 -0.001884 0.0
3.877982 0.511019 -0.002218 0.0
1.228256 1.219029 -0.000087 0.0
0.484678 1.253711 -0.000617 0.0
3.756088 1.404878 -0.000691 0.0
3.652893 1.722171 -0.002543 0.0
0.356880 0.393757 -0.004546 0.0
0.416016 1.026981 0.001694 0.0
4.693370 1.609194 0.003169 0.0
3.350494 0.067413 0.004169 0.0
0.984631 1.057317 0.002738 0.0
0.382848 1.374034 -0.000243 0.0
0.324656 0.635806 -0.001728 0.0
2.185235 1.324945 -0.002109 0.0
4.083522 0.868408 0.001529 0.0
0.638311 1.337332 0.005266 0.0
0.058941 0.827238 0.000635 0.0
0.420796 1.030198 0.000673 0.0
1.615645 0.648736 -0.003515 0.0
3.844882 0.011381 -0.004077 0.0
3.231758 1.612302 -0.000008 0.0
3.553209 1.135981 0.002086 0.0
1.783115 1.673488 -0.005066 0.0
0.223748 1.097101 -0.004249 0.0
1.510031 0.374370 0.000926 0.0
3.150970 1.437333 -0.001282 0.0
1.810288 0.185700 -0.000619 0.0
1.673913 1.120807 -0.002872 0.0
3.733172 1.138250 -0.005313 0.0
3.548834 0.220800 0.000701 0.0
3.626739 1.428413 0.000890 0.0
1.148521 0.326316 -0.000398 0.0
0.754082 0.099922 0.000029 0.0
3.869238 0.269551 -0.000449 0.0
0.002212 0.225501 -0.001781 0.0
1.671078 1.601508 0.004967 0.0
0.254151 1.531772 0.000576 0.0
3.939744 0.253166 -0.002317 0.0
4.430101 1.983458 0.002645 0.0
4.203355 0.925670 0.004542 0.0
2.680101 1.235148 0.002067 0.0
4.288487 0.951574 -0.001089 0.0
1.351851 -0.001012 0.001422 0.0
4.432007 1.481746 0.001045 0.0
4.727991 0.888349 0.002323 0.0
1.368812 1.435879 0.000099 0.0
1.028432 1.376941 0.002663 0.0
4.630868 0.482186 0.000125 0.0
4.085813 0.817343 0.000391 0.0
0.247618 0.340278 0.006524 0.0
3.973458 0.296409 -0.001040 0.0
2.056553 1.167967 -0.004301 0.0
3.707421 0.486515 -0.000277 0.0
3.006488 1.876876 0.001930 0.0
0.603101 0.516361 -0.000687 0.0
0.204389 1.845890 -0.002332 0.0
1.202787 0.223865 -0.003657 0.0
0.809052 1.933747 0.000555 0.0
4.765277 0.455757 -0.001297 0.0
1.299912 0.566001 0.001898 0.0
0.804333 0.184246 0.001024 0.0
0.475182 0.514547 -0.000014 0.0
3.804776 0.707389 0.003543 0.0
2.473090 0.413830 -0.000248 0.0
2.403243 1.883551 0.001991 0.0
4.071161 1.076826 -0.001557 0.0
2.062095 1.221636 0.002615 0.0
2.072397 1.449326 -0.003199 0.0
4.431579 2.020807 -0.000464 0.0
1.379444 0.240623 -0.004999 0.0
4.303323 0.859734 0.000198 0.0
2.847249 0.201114 -0.001449 0.0
1.509628 0.270862 -0.000389 0.0
2.379778 1.448445 0.001894 0.0
2.881640 1.069181 -0.001782 0.0
0.144673 1.616441 -0.000426 0.0
1.029375 0.733758 -0.001475 0.0
0.583811 0.646930 0.001113 0.0
1.167418 0.468807 -0.002170 0.0
3.585283 1.463923 0.002816 0.0
2.320373 1.705434 0.005357 0.0
1.856961 1.947994 -0.002425 0.0
2.454815 0.369329 -0.003626 0.0
1.433505 1.776647 0.002781 0.0
4.405144 0.836115 -0.003643 0.0
4.533751 0.382119 -0.000232 0.0
3.180872 0.393642 -0.000388 0.0
1.630579 1.252200 -0.003348 0.0
1.498956 1.517017 0.001260 0.0
0.800082 0.510079 -0.000578 0.0
2.568537 1.749839 0.000616 0.0
1.662110 1.983962 -0.003621 0.0
2.555847 1.677148 0.001139 0.0
2.629870 0.367632 0.001331 0.0
4.430263 0.182370 0.001042 0.0
3.049843 0.402848 0.000403 0.0
1.581225 0.397066 -0.001119 0.0
1.818034 1.209544 -0.000935 0.0
0.357771 0.023627 0.000292 0.0
0.517868 0.309812 0.001032 0.0
1.093250 0.713605 -0.000534 0.0
0.662554 0.658882 -0.003953 0.0
0.848871 1.540396 -0.000506 0.0
1.398110 1.828074 0.002268 0.0
0.337684 1.869761 0.001948 0.0
3.706409 1.802434 0.003079 0.0
1.602495 1.907307 0.005918 0.0
0.851118 1.947541 0.003146 0.0
3.020292 0.679284 -0.001857 0.0
0.354113 0.322037 -0.002705 0.0
0.475088 1.538648 -0.001201 0.0
0.054007 0.429912 0.002995 0.0
4.263765 1.279210 0.002181 0.0
2.031501 1.878574 0.004188 0.0
2.654548 0.269212 -0.001473 0.0
3.214497 0.109466 0.000658 0.0
2.478813 1.379279 -0.001454 0.0
2.986487 1.564800 0.004178 0.0
1.256371 1.458500 0.001634 0.0
1.686937 0.690918 0.000748 0.0
2.411307 0.790898 -0.002603 0.0
4.266012 1.839840 -0.002950 0.0
0.182811 0.968795 0.001148 0.0
3.690776 1.236110 0.001100 0.0
0.408402 2.002753 -0.005511 0.0
4.763003 1.314058 -0.000865 0.0
3.654252 0.511234 -0.004087 0.0
1.488615 0.651869 -0.002116 0.0
2.993766 1.470508 -0.000156 0.0
0.188493 0.973164 0.001746 0.0
1.939068 1.572277 0.001679 0.0
3.721738 0.278003 -0.002375 0.0
0.213050 1.380982 0.000605 0.0
4.444765 1.418315 0.005039 0.0
0.168479 1.870664 0.000225 0.0
2.093339 0.197625 -0.000500 0.0
3.557599 0.341497 -0.004095 0.0
3.504078 1.140963 0.003952 0.0
0.511118 1.950042 -0.000111 0.0
1.732911 0.967921 -0.003652 0.0
0.532570 0.583006 0.000082 0.0
0.557967 1.174854 -0.001422 0.0
2.893455 0.396415 -0.000811 0.0
2.195419 1.844351 0.002446 0.0
3.072689 0.569575 0.001345 0.0
1.258683 0.240290 -0.002794 0.0
1.740124 1.572316 0.001324 0.0
2.874278 0.527299 0.004222 0.0
2.738284 0.852345 0.001268 0.0
0.334843 1.940576 -0.000710 0.0
2.658153 0.371076 0.004948 0.0
0.905250 1.315572 0.001405 0.0
3.313022 0.856643 -0.002527 0.0
4.258075 0.083822 0.001067 0.0
1.451543 1.465210 0.001251 0.0
0.450592 0.341728 -0.000585 0.0
2.323665 1.859209 -0.001438 0.0
1.015651 1.000721 -0.001389 0.0
1.113848 1.669018 -0.000903 0.0
3.820777 1.884636 -0.001318 0.0
2.636891 0.333845 0.000285 0.0
1.880057 1.619355 -0.003025 0.0
2.906416 1.432400 -0.000658 0.0
4.694622 1.270898 0.002948 0.0
4.516441 0.978930 0.001179 0.0
4.242152 0.019428 0.002760 0.0
3.017520 1.572747 -0.000575 0.0
0.850048 1.899510 -0.000345 0.0
3.596641 1.508543 -0.003719 0.0
0.062148 1.172966 -0.002521 0.0
2.187612 0.632427 -0.000067 0.0
3.130217 1.600676 0.002390 0.0
3.597921 1.445135 0.004070 0.0
4.583482 0.897321 0.001135 0.0
2.901720 0.512788 -0.004781 0.0
0.931746 0.052560 0.002452 0.0
0.315923 1.006370 0.001049 0.0
3.791306 1.531250 -0.000515 0.0
4.617707 1.027149 0.002170 0.0
4.087277 0.135301 -0.002089 0.0
3.138851 1.494075 0.000683 0.0
2.691817 1.035749 -0.001053 0.0
1.977169 0.746257 0.002336 0.0
2.048897 0.442039 -0.001554 0.0
4.748659 1.369302 0.000311 0.0
3.123893 1.621654 0.003490 0.0
0.139428 1.299715 0.002011 0.0
1.275318 1.703408 0.000806 0.0
1.202198 0.491325 -0.001825 0.0
1.983012 1.306666 -0.003300 0.0
3.342066 1.482009 0.001077 0.0
2.529174 0.020728 0.001487 0.0
1.528817 1.561778 -0.000788 0.0
3.280294 0.637918 0.000603 0.0
3.082459 0.942100 0.000224 0.0
1.152590 0.221183 0.000803 0.0
0.511635 0.157641 0.000575 0.0
2.319090 0.152640 -0.001615 0.0
0.284704 1.550178 -0.002312 0.0
1.177715 1.963775 -0.000967 0.0
2.567709 0.907090 0.006652 0.0
2.762937 1.970227 -0.000314 0.0
2.321272 0.221075 -0.002049 0.0
4.601562 0.742723 0.006977 0.0
3.730436 1.464140 -0.000007 0.0
1.807128 1.449959 0.001159 0.0
1.342479 0.250323 -0.000195 0.0
1.091510 0.186962 -0.004336 0.0
2.595236 0.643911 0.000376 0.0
0.528146 1.770275 -0.000626 0.0
1.685501 1.352559 -0.000548 0.0
3.955738 1.718018 0.000481 0.0
0.261230 0.255713 0.005815 0.0
1.920950 1.407289 0.007888 0.0
2.856535 1.664232 0.000868 0.0
2.989404 0.413808 0.003676 0.0
0.816833 0.369479 0.000942 0.0
1.318818 1.588742 -0.003606 0.0
1.438597 0.734009 0.000183 0.0
3.062411 1.988472 -0.000949 0.0
1.635688 1.620093 -0.003899 0.0
4.003929 1.575386 -0.000385 0.0
0.267785 0.464219 0.000790 0.0
3.760342 1.807308 -0.004088 0.0
4.305136 0.625628 0.000066 0.0
1.479762 1.966939 0.003976 0.0
0.853519 1.560144 0.002474 0.0
2.234609 1.190277 0.001704 0.0
0.840370 0.380612 0.003457 0.0
0.965986 0.598298 0.001604 0.0
2.245270 0.397453 -0.001357 0.0
0.277791 1.457126 0.000988 0.0
4.057094 0.906405 -0.002066 0.0
2.517192 1.113422 0.003147 0.0
4.590270 0.324666 0.001495 0.0
2.343238 1.167905 0.002064 0.0
0.653067 1.909108 0.000538 0.0
4.235596 2.013746 0.000702 0.0
3.609466 1.855136 -0.001398 0.0
3.554657 1.588317 -0.001147 0.0
2.198197 0.975674 0.001094 0.0
4.522965 0.960337 -0.000868 0.0
1.688165 1.649032 0.000841 0.0
1.620593 1.614550 0.000142 0.0
1.110656 0.400639 -0.001756 0.0
2.291807 1.794129 -0.000941 0.0
2.444774 0.862622 0.001150 0.0
1.218172 1.191406 0.002130 0.0
1.405799 1.985386 0.001787 0.0
1.462166 0.888400 -0.003746 0.0
3.356540 1.471787 0.000182 0.0
4.710246 1.049216 0.003751 0.0
0.430781 0.813615 0.003555 0.0
3.199909 1.009133 -0.003767 0.0
3.227451 1.628808 -0.002042 0.0
4.126652 0.173075 -0.001602 0.0
1.226095 1.181447 -0.003168 0.0
3.065819 1.544731 0.001998 0.0
3.852188 0.649084 -0.000087 0.0
1.920299 0.695496 -0.004690 0.0
0.599293 1.576995 -0.003662 0.0
1.203259 0.189388 -0.002634 0.0
1.480133 0.028426 -0.000975 0.0
0.558326 1.853236 -0.006174 0.0
4.334022 1.065999 0.002280 0.0
3.874126 1.778204 -0.002451 0.0
4.240402 1.912156 -0.001327 0.0
4.025213 0.900366 0.000789 0.0
3.803800 1.224689 0.001401 0.0
1.719554 0.093527 -0.000548 0.0
1.889868 1.886752 0.003321 0.0
0.926078 1.869469 -0.001240 0.0
0.816466 0.848157 -0.003391 0.0
0.586255 1.782084 0.004959 0.0
2.816519 1.141875 -0.003266 0.0
4.652935 1.167537 -0.003937 0.0
1.133318 -0.000828 0.003903 0.0
1.924967 0.736028 -0.000877 0.0
4.611760 0.285693 0.006477 0.0
2.499570 1.355973 -0.001148 0.0
2.626046 0.107547 0.001463 0.0
0.877355 1.732237 0.002792 0.0
4.490427 1.332988 0.001552 0.0
4.204830 1.835864 -0.004609 0.0
3.835598 1.322975 -0.004075 0.0
1.707474 1.140024 0.001394 0.0
0.962977 0.337422 -0.001730 0.0
3.412799 0.162884 -0.001782 0.0
2.806992 1.131071 0.001245 0.0
0.002476 0.907559 -0.002216 0.0
1.210117 0.341680 0.001334 0.0
3.903772 1.380262 0.001050 0.0
1.060841 0.786751 0.002438 0.0
4.780471 0.676857 0.004199 0.0
4.132137 0.634398 0.002145 0.0
3.111798 1.950779 0.003923 0.0
2.497160 0.977918 -0.001656 0.0
4.747395 1.852888 -0.002204 0.0
2.488493 1.877820 -0.006632 0.0
4.702447 0.816236 0.001216 0.0
1.309482 0.956338 -0.001985 0.0
2.887535 0.803298 0.000082 0.0
0.927115 1.621455 0.000923 0.0
4.714047 0.786726 -0.002192 0.0
1.976188 0.315697 0.000130 0.0
1.895830 0.328647 0.001865 0.0
0.711165 1.006897 -0.002461 0.0
2.283406 1.691765 -0.002707 0.0
2.654712 0.987662 0.000799 0.0
1.734090 0.772747 0.002870 0.0
0.320487 0.383310 0.001717 0.0
1.046057 0.891927 0.000973 0.0
1.884315 1.016289 0.000256 0.0
3.756623 0.162349 0.002502 0.0
0.873280 0.307940 -0.001026 0.0
3.234445 1.385640 0.001528 0.0
1.941872 0.920415 0.003575 0.0
4.144861 0.087860 0.002652 0.0
2.749889 0.750350 -0.005031 0.0
2.824809 1.180535 -0.003505 0.0
0.240919 0.796849 -0.002103 0.0
1.717932 0.453488 0.004393 0.0
3.790301 0.024780 0.002303 0.0
3.305808 0.666082 0.000929 0.0
4.001333 0.609234 0.002193 0.0
4.343907 0.297480 -0.001277 0.0
3.424051 1.833267 0.000219 0.0
3.523722 1.991708 0.001629 0.0
0.800294 0.194460 0.005986 0.0
3.558928 0.216005 0.000522 0.0
2.970261 1.646690 -0.000744 0.0
1.814991 1.785222 -0.000016 0.0
4.080115 1.809551 0.002814 0.0
4.254363 0.594339 -0.001040 0.0
2.587489 1.836978 0.000226 0.0
1.293178 0.686604 -0.000437 0.0
3.195840 1.398200 0.001104 0.0
2.918302 0.049580 -0.000127 0.0
3.471639 0.424182 -0.002527 0.0
3.250285 1.201752 -0.000017 0.0
3.016477 0.178045 0.001315 0.0
4.050866 1.791138 -0.004010 0.0
1.363012 1.074891 0.005199 0.0
3.312286 0.390024 0.002318 0.0
0.337589 1.176119 0.004386 0.0
4.218463 1.444447 -0.002792 0.0
0.081358 0.976267 -0.000686 0.0
4.023066 0.155205 0.003971 0.0
0.386907 1.242484 0.002302 0.0
1.862660 0.907902 0.001846 0.0
2.552474 0.881497 -0.000679 0.0
2.889623 0.362658 -0.001432 0.0
4.030640 0.148156 0.000743 0.0
4.692044 0.434375 -0.001770 0.0
3.365875 1.183634 0.000409 0.0
3.401304 0.830128 0.000140 0.0
2.494996 1.948403 -0.001951 0.0
3.493253 1.396934 0.001417 0.0
1.756823 0.076779 0.002734 0.0
1.139142 1.477744 0.001209 0.0
1.007426 1.874083 0.002246 0.0
3.026900 0.326748 -0.002986 0.0
3.646802 1.427883 -0.000239 0.0
