3.48602873 0.85151135 -0.00032896 0.00000000
3.71924808 0.63578089 -0.00024694 0.00000000
0.64574005 0.45956733 0.00434065 0.00000000
0.64824573 0.87299281 -0.00074147 0.00000000
3.40174698 1.09572530 0.00304840 0.00000000
0.84060298 0.49834744 -0.00145712 0.00000000
2.19546756 1.53090013 -0.00153377 0.00000000
2.02206546 1.54290472 0.00020523 0.00000000
2.45071171 0.64032601 -0.00077307 0.00000000
0.30915024 1.53278279 -0.00209891 0.00000000
4.46431168 0.98074357 0.00140403 0.00000000
0.03959844 0.81168004 0.00074438 0.00000000
0.72734672 0.68168827 0.00103246 0.00000000
4.13051267 0.68402028 -0.00086370 0.00000000
0.98043302 0.24511995 -0.00018274 0.00000000
3.19160564 1.90058779 0.00021385 0.00000000
0.44774624 0.86181883 -0.00036992 0.00000000
0.69664135 1.82108748 -0.00235255 0.00000000
2.44710426 1.49356487 0.00145043 0.00000000
2.97661657 1.57563434 -0.00030167 0.00000000
2.02106491 0.93637582 0.00304887 0.00000000
3.41040005 1.47740446 0.00206558 0.00000000
1.54436885 1.51120684 0.00154758 0.00000000
3.51072191 1.14743518 0.00154970 0.00000000
2.64532042 0.33794511 -0.00107225 0.00000000
1.82201819 0.52005339 -0.00600824 0.00000000
3.81222795 1.80749864 0.00109114 0.00000000
3.94290043 1.29418962 -0.00426447 0.00000000
4.33860944 2.04262364 -0.00209553 0.00000000
4.49893696 0.19616661 0.00226665 0.00000000
1.19789103 1.57220556 -0.00122294 0.00000000
0.46233594 0.00607823 0.00252832 0.00000000
4.15801722 1.17043850 0.00309566 0.00000000
0.27377745 1.78830062 -0.00190938 0.00000000
2.34337757 1.38213925 0.00433611 0.00000000
2.83888153 1.85464505 0.00356019 0.00000000
3.85637157 1.59351708 0.00355841 0.00000000
2.10740435 0.82634387 -0.00012296 0.00000000
0.18902824 1.41415875 -0.00150201 0.00000000
3.73674060 1.27801765 0.00389195 0.00000000
0.62295064 2.11350842 -0.00199519 0.00000000
0.49827032 0.77809859 0.00112220 0.00000000
1.67993183 0.32102766 -0.00121134 0.00000000
2.95634657 1.99604083 -0.00127237 0.00000000
1.19783076 0.82017429 -0.00265614 0.00000000
3.56656940 1.23051696 0.00085277 0.00000000
0.37247365 0.78061118 -0.00200565 0.00000000
0.22187971 2.07683223 -0.00071539 0.00000000
2.88618047 1.33405038 -0.00584854 0.00000000
4.08038789 1.81200566 0.00243890 0.00000000
2.71942140 0.65447130 -0.00228917 0.00000000
2.35692125 0.48807013 -0.00278064 0.00000000
0.63147887 0.82030824 -0.00162148 0.00000000
2.55429765 1.32196883 0.00105957 0.00000000
2.05420740 1.98149349 -0.00363370 0.00000000
4.30895430 2.10769450 -0.00112751 0.00000000
0.88860325 2.22231340 -0.00269127 0.00000000
4.09480195 1.80003173 -0.00564097 0.00000000
3.88871666 0.29907522 0.00074152 0.00000000
1.30083609 0.46859980 -0.00000050 0.00000000
4.18293136 2.14379801 0.00188542 0.00000000
1.13109415 1.72650615 0.00371574 0.00000000
2.46200455 1.00926553 -0.00130303 0.00000000
3.03069499 0.51684633 0.00057390 0.00000000
1.42664947 1.47124646 0.00200149 0.00000000
2.90240598 1.45930940 0.00156433 0.00000000
1.82895268 1.93303801 -0.00124222 0.00000000
0.42018378 2.03351442 -0.00177125 0.00000000
0.17634425 2.11458181 0.00307040 0.00000000
0.42967243 0.56576165 -0.00187647 0.00000000
1.83127930 0.65697124 -0.00512556 0.00000000
0.04410989 0.50083222 0.00148754 0.00000000
2.33254872 1.84580489 -0.00415164 0.00000000
2.18088033 1.51731875 0.00185935 0.00000000
4.10931315 1.04757838 0.00303929 0.00000000
0.03971982 1.41432432 -0.00475816 0.00000000
4.44617795 0.06288821 -0.00318152 0.00000000
3.92655992 1.05658011 0.00239594 0.00000000
0.79287794 0.53215612 0.00448132 0.00000000
0.26262080 0.80476793 0.00536468 0.00000000
2.12599498 1.67509425 -0.00366137 0.00000000
1.91051516 0.35182412 -0.00009050 0.00000000
3.00293489 1.60555697 -0.00315043 0.00000000
3.60761361 0.11068731 -0.00112927 0.00000000
1.54628380 0.99138533 -0.00410886 0.00000000
0.28384744 0.49766632 0.00006344 0.00000000
1.76508820 1.96917658 0.00262693 0.00000000
4.35505105 0.77504604 -0.00272234 0.00000000
2.42141290 0.52415798 -0.00689869 0.00000000
0.58984338 1.78519841 -0.00115118 0.00000000
0.18757832 2.10350112 0.00276936 0.00000000
1.05292589 0.19373302 0.00435877 0.00000000
3.60485234 0.36823904 0.00228387 0.00000000
2.45061557 0.32859639 0.00068663 0.00000000
1.50774691 1.37723425 -0.00377793 0.00000000
2.35640858 1.22975802 -0.00147445 0.00000000
3.52048374 1.05985552 0.00145556 0.00000000
0.24427375 1.20455100 0.00360890 0.00000000
1.50877875 0.54187804 -0.00000686 0.00000000
3.41822223 2.11205496 -0.00116965 0.00000000
0.05826757 0.98019807 0.00277845 0.00000000
0.84791850 1.64739820 -0.00426683 0.00000000
0.54252022 0.86301539 0.00031846 0.00000000
3.57131998 1.53641814 -0.00100144 0.00000000
2.10107751 1.38716144 0.00109694 0.00000000
2.18394229 2.19301510 -0.00442417 0.00000000
3.46841959 1.87585145 -0.00445074 0.00000000
1.36080181 0.36605615 0.00102695 0.00000000
3.98513066 2.17537397 -0.00274118 0.00000000
3.01903546 0.78922632 -0.00166004 0.00000000
2.85428860 0.61308215 -0.00103646 0.00000000
0.73123714 1.11953706 0.00421318 0.00000000
1.58362628 0.47405200 0.00324113 0.00000000
3.95889322 1.59647875 0.00336153 0.00000000
1.73371799 0.19690668 0.00241707 0.00000000
1.77523772 2.11618843 0.00138383 0.00000000
1.01174377 1.62785593 0.00317417 0.00000000
1.07152685 2.13495006 0.00223575 0.00000000
2.65764948 0.49265660 0.00037486 0.00000000
2.04578989 2.01805587 0.00397900 0.00000000
0.61806877 0.99977952 -0.00362425 0.00000000
2.76233410 2.07152805 -0.00147242 0.00000000
1.32690532 0.84143271 0.00155883 0.00000000
2.64935769 0.12466645 0.00063402 0.00000000
1.13545965 2.04111337 -0.00122090 0.00000000
3.38247775 2.12297194 -0.00128758 0.00000000
1.26219923 0.62338150 -0.00124955 0.00000000
1.88904209 2.04008059 -0.00037332 0.00000000
0.03483762 1.61310847 -0.00089843 0.00000000
3.07631420 0.40869425 -0.00069488 0.00000000
4.19307526 0.31438969 -0.00262247 0.00000000
0.39194684 0.72897091 0.00462881 0.00000000
2.01608297 2.13554036 0.00196684 0.00000000
0.31033711 0.38764684 -0.00300334 0.00000000
3.94764754 1.49654962 0.00139740 0.00000000
2.37428534 0.50535761 -0.00109071 0.00000000
4.15098553 2.05674002 0.00025367 0.00000000
0.87547228 1.38445364 -0.00209032 0.00000000
3.81938951 1.37394722 -0.00261443 0.00000000
3.96889013 0.30885835 -0.00036184 0.00000000
3.03134163 0.32452838 -0.00745146 0.00000000
3.06982881 1.27330355 -0.00014097 0.00000000
0.35071306 0.75345878 -0.00236728 0.00000000
2.16733157 2.16575480 -0.00285645 0.00000000
3.43410909 0.00884312 0.00194949 0.00000000
1.62843455 1.19736218 -0.00200915 0.00000000
1.39480076 1.79118898 0.00166614 0.00000000
0.92466201 1.21461061 0.00856037 0.00000000
0.64921339 1.18743710 -0.00185719 0.00000000
0.55419700 1.97962994 -0.00308609 0.00000000
1.00769069 0.47088681 -0.00208905 0.00000000
0.42533875 1.01492259 -0.00157762 0.00000000
4.48575296 0.74215064 -0.00858424 0.00000000
3.35463722 0.20218817 -0.00498769 0.00000000
3.56397082 1.76064568 0.00180239 0.00000000
4.22137343 0.14424060 0.00060057 0.00000000
1.75077252 1.29771403 0.00010450 0.00000000
0.31394685 0.25277124 0.00210708 0.00000000
0.38934488 1.49148833 -0.00216539 0.00000000
2.92425417 0.68637869 0.00353073 0.00000000
3.61487669 1.95129483 -0.00306402 0.00000000
0.06590412 0.91970271 0.00498227 0.00000000
0.14019169 1.37214317 0.00058477 0.00000000
0.81076457 1.64784076 -0.00091910 0.00000000
3.92879326 0.94460385 0.00103392 0.00000000
3.64006614 1.64531144 0.00214294 0.00000000
4.43804401 0.41797389 -0.00392740 0.00000000
2.52187455 1.56857768 -0.00175090 0.00000000
2.82400661 0.80251961 0.00233024 0.00000000
1.84665188 0.57334601 0.00159498 0.00000000
0.05920505 0.87889888 -0.00047657 0.00000000
2.33065479 1.48219611 -0.00062978 0.00000000
1.01110069 2.04502133 0.00122107 0.00000000
0.03281189 1.78073717 0.00247180 0.00000000
2.75903896 1.31653829 -0.00062636 0.00000000
3.28949069 2.16157320 -0.00352142 0.00000000
4.46152067 1.31333482 -0.00424284 0.00000000
2.27980685 1.69616647 0.00257915 0.00000000
1.29819309 1.99688689 0.00806550 0.00000000
1.85636937 1.62934137 0.00318733 0.00000000
0.89467372 1.88926354 -0.00430287 0.00000000
4.06797404 1.97890136 -0.00325869 0.00000000
1.37210839 1.95998971 -0.00303862 0.00000000
0.69759910 1.78007998 -0.00224336 0.00000000
2.02459612 1.45940196 0.00078444 0.00000000
2.52493941 0.96219363 0.00179352 0.00000000
1.27541610 0.64700270 0.00252439 0.00000000
1.93155882 0.75412458 -0.00272550 0.00000000
3.44352196 0.40572753 0.00491045 0.00000000
2.22106500 0.76334617 -0.00286805 0.00000000
0.27281647 1.99058562 -0.00232253 0.00000000
0.13400281 1.94209123 0.00132427 0.00000000
1.01238190 1.50897083 -0.00142129 0.00000000
1.71767347 0.57526344 0.00012179 0.00000000
4.39292111 1.46268302 0.00375210 0.00000000
2.65664808 1.76759762 -0.00114933 0.00000000
1.27407719 1.69904291 0.00369980 0.00000000
2.51936857 1.32634633 0.00187211 0.00000000
1.68192595 0.90905305 0.00456286 0.00000000
4.25428146 1.31170066 -0.00203853 0.00000000
3.35528096 0.13291204 -0.00009890 0.00000000
2.11278890 1.18583563 0.00054510 0.00000000
0.40692751 1.19466696 -0.00273687 0.00000000
3.10535452 0.05694239 0.00307092 0.00000000
1.88082037 0.27116406 0.00051130 0.00000000
2.06466827 0.90342724 -0.00109158 0.00000000
3.21630465 1.11735881 0.00124396 0.00000000
1.54862980 2.23593139 0.00468515 0.00000000
3.24988231 2.18159324 0.00098276 0.00000000
0.02504713 1.87115576 -0.00300583 0.00000000
2.81929835 0.29019146 0.00368820 0.00000000
4.35783403 0.90090929 0.00317477 0.00000000
0.86191734 1.66635315 0.00190457 0.00000000
2.14218445 1.10180504 -0.00150961 0.00000000
2.73919803 0.63930900 0.00131999 0.00000000
1.03855164 1.27247228 0.00065102 0.00000000
2.38555740 0.16063212 0.00027029 0.00000000
3.97496252 1.93789150 -0.00315105 0.00000000
4.06273487 1.44284430 -0.00089773 0.00000000
0.20090707 1.99946023 -0.00222170 0.00000000
3.06100625 1.40929458 -0.00092409 0.00000000
3.85080961 0.78223152 0.00002885 0.00000000
2.92197305 0.69902084 0.00155915 0.00000000
0.40561135 0.31185788 -0.00167978 0.00000000
2.04502185 0.44936951 -0.00100695 0.00000000
1.56496646 1.67210410 -0.00368302 0.00000000
3.48793197 1.69533106 -0.00332969 0.00000000
3.33004379 1.67778557 0.00119245 0.00000000
1.62348029 0.66721232 -0.00045284 0.00000000
2.46476701 1.81857781 0.00519634 0.00000000
1.83671322 1.03130424 -0.00000098 0.00000000
1.35018255 1.14760554 -0.00313661 0.00000000
0.28435917 0.14873882 0.00078139 0.00000000
3.93042199 1.20389336 -0.00075519 0.00000000
1.62939747 0.74121521 -0.00107989 0.00000000
3.07397317 1.95569257 -0.00141958 0.00000000
3.81778530 0.43816752 -0.00340864 0.00000000
2.24780995 1.03454157 -0.00150938 0.00000000
2.96919304 0.86504662 0.00120624 0.00000000
4.12142617 1.57825977 0.00027875 0.00000000
2.21161896 0.86371603 -0.00135079 0.00000000
4.34065507 1.82824698 -0.00125822 0.00000000
0.34583570 1.30845871 0.00258239 0.00000000
0.97843091 0.17165184 0.00329411 0.00000000
3.40436934 0.68830402 0.00046098 0.00000000
0.00113635 1.64361403 -0.00071547 0.00000000
0.78190336 2.12796008 0.00052855 0.00000000
3.84754805 2.11797000 -0.00075542 0.00000000
0.36763826 2.19819310 0.00080551 0.00000000
1.12173968 0.81029977 0.00013560 0.00000000
1.78498320 1.94157557 0.00167336 0.00000000
3.56904878 0.40544585 0.00145769 0.00000000
0.91175270 1.90036459 -0.00112672 0.00000000
2.45071809 1.27524002 -0.00238061 0.00000000
4.51408410 0.87816744 0.00088286 0.00000000
0.77165657 1.26758764 0.00350061 0.00000000
2.11499370 1.27622609 0.00154943 0.00000000
1.71894129 1.00520589 0.00182424 0.00000000
1.52519462 0.66609024 -0.00298063 0.00000000
0.07130496 1.89795940 -0.00217601 0.00000000
0.32094314 2.02308013 0.00296527 0.00000000
1.89612845 1.77863105 0.00519914 0.00000000
2.92650787 1.88094413 0.00251680 0.00000000
1.26514140 0.37519721 -0.00220420 0.00000000
0.96412829 0.65736022 -0.00082563 0.00000000
3.46133773 0.68035325 0.00110046 0.00000000
3.71805878 0.10877829 -0.00338063 0.00000000
0.87690168 0.40092961 0.00038469 0.00000000
0.89382793 0.63061239 -0.00293690 0.00000000
0.08249063 0.41597934 0.00003029 0.00000000
0.13899810 1.66785486 0.00042175 0.00000000
2.99352152 0.34667489 0.00081970 0.00000000
2.00742635 0.21045781 -0.00323795 0.00000000
2.03761353 0.46060136 0.00090763 0.00000000
0.08843167 0.21926407 0.00119067 0.00000000
2.06519936 1.86604186 0.00085688 0.00000000
2.12492471 1.89102859 0.00273447 0.00000000
2.12592186 0.23028506 -0.00320887 0.00000000
1.83913540 0.18066704 -0.00239332 0.00000000
1.64935758 1.37216917 0.00111328 0.00000000
4.33041491 0.15742282 0.00098629 0.00000000
0.73747086 0.32431178 0.00030069 0.00000000
0.63372666 1.24696305 -0.00100658 0.00000000
0.06782560 1.63377693 -0.00006912 0.00000000
0.54218445 1.14022350 0.00248512 0.00000000
3.63400155 1.52801297 0.00521262 0.00000000
3.18580121 0.77636109 -0.00057966 0.00000000
0.23835240 1.64218749 0.00288390 0.00000000
0.28192331 1.03455221 0.00429177 0.00000000
2.38123680 1.84040863 -0.00310863 0.00000000
2.60475454 1.10595660 -0.00039291 0.00000000
0.28922103 1.26813094 -0.00592175 0.00000000
0.52066997 1.76035511 -0.00221979 0.00000000
2.44204413 1.43946175 0.00212467 0.00000000
1.11412651 1.05167311 0.00084510 0.00000000
0.98854585 1.25391281 0.00194268 0.00000000
0.06841971 0.50042001 0.00159549 0.00000000
1.76852613 2.10159904 0.00131227 0.00000000
3.45205664 1.52893575 0.00460550 0.00000000
2.93741976 2.09330218 0.00469303 0.00000000
1.46966304 1.40610032 -0.00137825 0.00000000
0.80973412 1.09003494 -0.00250558 0.00000000
3.44578198 0.83156795 -0.00136424 0.00000000
4.50748678 0.08107139 0.00400534 0.00000000
2.50795597 1.32027923 0.00327673 0.00000000
1.44036591 1.37239835 -0.00194044 0.00000000
3.64936463 0.94102726 -0.00015903 0.00000000
3.98531064 0.57844432 0.00016301 0.00000000
4.22224087 1.89302718 -0.00453073 0.00000000
1.59142513 0.04456872 -0.00073377 0.00000000
2.42227852 0.10505020 0.00361023 0.00000000
4.32986403 1.08588093 -0.00009595 0.00000000
1.71290294 1.14968257 -0.00070234 0.00000000
2.13668417 2.11024816 -0.00250463 0.00000000
0.09202247 2.11634562 -0.00001947 0.00000000
3.29616573 2.01598124 -0.00358430 0.00000000
2.94014251 1.69499104 0.00048257 0.00000000
4.34359408 1.41068308 0.00485777 0.00000000
2.68463092 1.46919658 -0.00388924 0.00000000
2.07306863 1.20193455 -0.00091092 0.00000000
1.45582377 2.06074543 -0.00156285 0.00000000
3.07141159 0.21930671 -0.00052522 0.00000000
0.01023667 1.41652006 -0.00198498 0.00000000
3.57267914 1.15337844 -0.00006185 0.00000000
3.90180013 0.81285546 0.00156062 0.00000000
2.15891031 1.10879755 -0.00287500 0.00000000
0.32189052 1.14390252 -0.00316880 0.00000000
3.56019382 1.78055698 0.00545172 0.00000000
2.41482328 2.18681212 0.00213855 0.00000000
4.22016086 0.56980321 0.00360193 0.00000000
0.52541549 0.29145368 -0.00343011 0.00000000
3.14840789 1.95208819 0.00027611 0.00000000
0.83328309 0.66837598 0.00088028 0.00000000
2.84912538 0.07802974 0.00144729 0.00000000
3.57750001 2.04167646 -0.00084714 0.00000000
1.81657309 1.31310178 -0.00459596 0.00000000
0.73341434 1.20922571 0.00066999 0.00000000
2.42191956 0.37946462 -0.00129813 0.00000000
3.03558878 0.28579258 0.00470410 0.00000000
2.62730332 0.52336571 0.00178022 0.00000000
4.22961960 0.88297305 0.00022922 0.00000000
4.48749827 0.39877712 0.00311235 0.00000000
1.39751991 0.89286831 -0.00069769 0.00000000
1.95857247 1.44578688 0.00203157 0.00000000
4.11553650 1.85383046 0.00075572 0.00000000
3.76726296 0.67962407 -0.00174611 0.00000000
4.50866537 0.56652010 -0.00288883 0.00000000
4.38537137 1.62633829 -0.00458781 0.00000000
4.49808112 0.13744216 -0.00231876 0.00000000
0.50746062 1.21305280 -0.00024763 0.00000000
3.88420361 0.95667874 0.00000926 0.00000000
2.20179998 0.38977244 -0.00067697 0.00000000
2.35207574 0.77992030 0.00130639 0.00000000
0.48957303 1.54551237 0.00380533 0.00000000
0.40930429 1.61666398 -0.00048744 0.00000000
0.84540177 1.07801755 0.00092083 0.00000000
0.62241704 0.18162419 0.00198492 0.00000000
1.37148420 1.20965424 0.00179387 0.00000000
3.54443328 0.82323670 -0.00331517 0.00000000
4.42644546 1.96226107 0.00037712 0.00000000
4.00998057 0.68912115 -0.00295242 0.00000000
4.07804644 0.44626535 0.00469092 0.00000000
2.32224499 0.85948391 0.00060525 0.00000000
3.98703909 1.03332419 0.00049225 0.00000000
2.02761321 2.06488362 0.00850830 0.00000000
4.40076306 1.30297536 0.00309716 0.00000000
3.63692082 1.59508512 -0.00017439 0.00000000
0.37874502 0.26798197 0.00145672 0.00000000
4.27276257 0.13390722 0.00033396 0.00000000
2.79109639 1.27822311 0.00124772 0.00000000
3.81333125 0.76739988 -0.00146193 0.00000000
3.03146102 0.35309928 -0.00195057 0.00000000
3.23271358 0.06618648 0.00332969 0.00000000
2.00750948 1.16643348 -0.00623288 0.00000000
1.85744360 1.93366942 -0.00267558 0.00000000
4.31817036 0.03753816 -0.00471519 0.00000000
0.25599641 1.59642014 0.00390160 0.00000000
4.20763959 0.53686099 -0.00293879 0.00000000
2.46359545 0.54299801 -0.00154593 0.00000000
3.55974310 0.93470930 0.00101740 0.00000000
0.20256759 2.06012909 0.00106142 0.00000000
4.46847268 1.30179469 -0.00241224 0.00000000
0.25640258 1.17927278 -0.00483044 0.00000000
0.47843813 0.79842683 0.00232874 0.00000000
1.11951122 0.13662832 -0.00156050 0.00000000
1.62615750 1.46150655 0.00203639 0.00000000
3.87866271 0.20393626 -0.00169753 0.00000000
2.04551691 0.71812803 0.00730833 0.00000000
3.52206502 1.68958351 -0.00119360 0.00000000
3.72914353 1.40346308 0.00304907 0.00000000
2.05020705 1.76788280 -0.00096273 0.00000000
0.50834979 1.97941248 0.00205740 0.00000000
4.43826446 1.45454325 -0.00024905 0.00000000
4.34512064 0.53724164 -0.00091853 0.00000000
4.32849091 1.78461722 0.00109610 0.00000000
2.29841882 1.52611132 -0.00123757 0.00000000
0.28041727 1.88954439 0.00026061 0.00000000
3.54554088 1.22589829 0.00376040 0.00000000
1.09198728 1.24831766 0.00042929 0.00000000
0.58086718 0.25411215 -0.00147988 0.00000000
0.42772816 0.86156123 0.00024129 0.00000000
1.51332585 0.17566204 0.00098886 0.00000000
0.52480502 0.97958448 -0.00150953 0.00000000
2.27202173 1.77158248 0.00045210 0.00000000
3.33779734 0.16647828 -0.00116946 0.00000000
0.49671151 0.67270980 -0.00037666 0.00000000
0.58575562 0.75353649 0.00367828 0.00000000
0.62656744 0.80563651 0.00097106 0.00000000
3.61039663 0.91778362 -0.00256647 0.00000000
0.08787740 2.10545555 -0.00396391 0.00000000
4.50726051 0.82508896 -0.00188010 0.00000000
4.15140274 0.71188638 0.00000096 0.00000000
4.21206901 1.70491314 -0.00243483 0.00000000
3.32169371 0.67490599 0.00084199 0.00000000
4.06126514 1.36645228 0.00306701 0.00000000
1.30001181 0.21607058 0.00203331 0.00000000
0.15061593 0.57242159 0.00257108 0.00000000
3.97679712 0.96478361 0.00380909 0.00000000
3.22721018 1.49457946 0.00121879 0.00000000
0.60122782 1.08596980 0.00088069 0.00000000
2.61191779 1.74182815 0.00323156 0.00000000
0.41813395 1.35871317 0.00485247 0.00000000
4.07076331 2.07822948 -0.00123122 0.00000000
4.53466943 0.74177651 -0.00286417 0.00000000
1.89218274 0.04026718 -0.00385842 0.00000000
2.25606790 1.06378580 -0.00117038 0.00000000
1.48537803 0.03665020 -0.00009653 0.00000000
3.91981060 1.60667055 0.00247795 0.00000000
2.02917314 0.12362162 0.00076654 0.00000000
1.63852878 1.65425044 0.00370971 0.00000000
1.14907875 0.88180780 -0.00095200 0.00000000
1.89717326 0.10941615 -0.00043395 0.00000000
3.19696003 0.09488867 -0.00280229 0.00000000
0.51315178 0.44821981 -0.00245525 0.00000000
0.70500672 1.79960686 -0.00246456 0.00000000
0.20766177 0.63516873 -0.00051861 0.00000000
1.19428532 1.92050141 -0.00097408 0.00000000
1.02248550 0.63783705 -0.00137463 0.00000000
3.71993833 1.57995006 -0.00068743 0.00000000
2.58134095 0.43621681 -0.00155368 0.00000000
2.74912186 0.28939876 -0.00068600 0.00000000
3.98864003 1.73589861 -0.00220834 0.00000000
3.78690604 0.57998153 0.00297178 0.00000000
2.54641248 2.11584748 0.00004305 0.00000000
1.51585634 0.57312301 0.00161135 0.00000000
3.93065460 2.14941749 -0.00305292 0.00000000
0.30185182 1.82767267 -0.00158087 0.00000000
4.03422602 1.35965318 0.00035399 0.00000000
3.30027022 0.84863079 0.00011848 0.00000000
1.55283115 0.88854491 -0.00216909 0.00000000
0.64859948 0.93718551 -0.00435353 0.00000000
3.39184677 1.77653692 0.00192096 0.00000000
1.83029634 0.05753637 -0.00118835 0.00000000
2.74660796 2.18975485 -0.00164391 0.00000000
2.50580462 0.96109779 0.00025414 0.00000000
0.31862512 0.87226794 0.00085417 0.00000000
3.89914286 0.77012302 -0.00358158 0.00000000
3.12592955 0.20547533 0.00499705 0.00000000
0.71533383 0.59715451 -0.00199728 0.00000000
3.38461519 2.18648997 0.00440057 0.00000000
0.62481979 0.22882512 -0.00061197 0.00000000
3.51654501 0.72606193 0.00051707 0.00000000
3.61695824 0.73973530 -0.00061915 0.00000000
0.04683020 0.28994963 -0.00194353 0.00000000
3.19623793 2.01767655 -0.00385654 0.00000000
1.79422960 0.60176360 0.00060300 0.00000000
1.67921696 1.14306836 -0.00061022 0.00000000
3.29028826 1.39929550 0.00354564 0.00000000
1.47877937 1.12250864 -0.00338733 0.00000000
0.78768510 0.22415655 -0.00230036 0.00000000
1.59389880 1.94731288 -0.00722447 0.00000000
3.51819686 1.97978886 0.00240199 0.00000000
2.28740836 2.21223196 0.00026782 0.00000000
3.81087289 0.19001351 0.00098516 0.00000000
2.44542647 2.10608799 0.00140511 0.00000000
2.83128183 0.35464090 -0.00145763 0.00000000
0.67721887 2.15527217 0.00084462 0.00000000
2.40673439 0.65822988 0.00109114 0.00000000
2.43432050 1.83712374 0.00162847 0.00000000
1.04640285 0.37653802 0.00202202 0.00000000
1.45981687 1.48214564 0.00086121 0.00000000
2.93943826 1.92292014 0.00123345 0.00000000
2.25017992 1.35727656 -0.00061116 0.00000000
1.65456769 2.12365200 0.00081219 0.00000000
2.81770843 1.91508568 0.00078830 0.00000000
4.12595212 0.96931463 0.00184086 0.00000000
3.29446234 0.36393588 -0.00343097 0.00000000
3.19321301 1.80078781 0.00057861 0.00000000
0.33153387 0.62928747 -0.00417397 0.00000000
4.39762505 1.28679043 0.00224411 0.00000000
2.16451801 0.34934304 -0.00215259 0.00000000
1.74562254 1.90889446 0.00198294 0.00000000
0.11919910 0.71724889 0.00104209 0.00000000
3.89009606 0.49104017 0.00052592 0.00000000
2.70726382 0.48997234 0.00185966 0.00000000
3.67579314 1.18101713 -0.00552021 0.00000000
4.38748828 0.75703561 0.00003484 0.00000000
3.73177602 2.09747819 -0.00335234 0.00000000
1.53999890 2.22072756 0.00096794 0.00000000
3.34788698 1.80520678 0.00161180 0.00000000
2.56316853 1.36645987 -0.00539992 0.00000000
2.16807847 1.03597186 -0.00302199 0.00000000
0.32174541 1.97711230 0.00049188 0.00000000
1.94246988 2.14254079 -0.00178557 0.00000000
2.87646823 0.38210019 0.00284053 0.00000000
1.09814620 1.25335189 -0.00161610 0.00000000
3.15857938 1.43576260 -0.00462882 0.00000000
0.78848232 2.01127556 -0.00096251 0.00000000
2.05432626 1.45493373 0.00842230 0.00000000
2.64807145 2.18216123 -0.00142457 0.00000000
1.93725441 1.51133879 -0.00365060 0.00000000
1.78731886 1.74149592 0.00201736 0.00000000
2.40143895 2.09171351 -0.00250005 0.00000000
3.38472707 0.83877795 0.00477317 0.00000000
1.26721822 2.17619286 -0.00026908 0.00000000
1.77636487 1.11466612 0.00295069 0.00000000
0.37006772 0.86635796 -0.00058319 0.00000000
0.04374074 1.47142434 -0.00343293 0.00000000
2.50876460 2.05019004 0.00275269 0.00000000
3.48249719 1.35599219 0.00034106 0.00000000
2.09022141 1.62573529 0.00026311 0.00000000
2.99008474 0.11415943 -0.00106893 0.00000000
2.35313158 1.42934548 0.00025643 0.00000000
4.46071444 1.58060517 0.00201090 0.00000000
3.44352243 0.20906061 0.00154142 0.00000000
2.65281316 1.26103927 0.00005599 0.00000000
0.52328903 0.99277591 -0.00201274 0.00000000
2.33561690 1.15950019 0.00196367 0.00000000
2.27090410 1.92748246 -0.00119662 0.00000000
4.00549052 1.01826871 -0.00286290 0.00000000
2.08065701 1.54508481 -0.00131591 0.00000000
3.82627222 1.14000724 0.00015524 0.00000000
0.26791592 2.19171986 0.00056558 0.00000000
4.19603778 0.12963922 0.00008294 0.00000000
1.07612934 1.77073067 0.00110513 0.00000000
4.22175290 0.58483512 -0.00600215 0.00000000
4.16015353 2.22276580 -0.00307574 0.00000000
0.70455078 0.38190320 -0.00229916 0.00000000
0.61027699 0.40716130 -0.00359050 0.00000000
0.40256803 0.45703705 -0.00419120 0.00000000
3.29670903 0.62221023 0.00360108 0.00000000
1.70942089 0.32509710 -0.00223856 0.00000000
4.06080672 0.09386723 0.00232294 0.00000000
3.78540544 0.61789993 0.00291882 0.00000000
2.95513570 0.18386056 0.00592288 0.00000000
0.69686592 0.55793286 -0.00083480 0.00000000
1.26198657 0.78354473 -0.00128143 0.00000000
0.19924881 1.68043359 -0.00031693 0.00000000
2.95390952 2.13297016 0.00072983 0.00000000
0.09920442 2.11285210 0.00028240 0.00000000
2.80400424 0.80529077 0.00077294 0.00000000
3.04362361 2.12124924 0.00013714 0.00000000
1.14143389 1.96444130 -0.00218875 0.00000000
1.49385485 0.83539054 0.00473080 0.00000000
3.68613597 1.94293918 0.00114643 0.00000000
1.17368354 0.73190942 0.00139226 0.00000000
1.49956289 2.13770608 0.00545882 0.00000000
1.36144635 2.03979267 0.00054203 0.00000000
0.09488595 1.61953427 -0.00117666 0.00000000
0.79057519 1.88146207 -0.00015575 0.00000000
3.62684418 2.12689185 -0.00000444 0.00000000
0.90406753 0.13613905 -0.00006416 0.00000000
4.01705040 1.88722768 0.00139610 0.00000000
1.94232925 1.24519876 -0.00056154 0.00000000
4.25002142 0.89713385 -0.00031126 0.00000000
0.19246436 1.76678934 0.00067425 0.00000000
3.38865458 1.00526881 -0.00118334 0.00000000
1.07981377 0.91142117 -0.00139683 0.00000000
1.29923470 0.38594119 0.00265397 0.00000000
0.63470313 1.03082356 -0.00497483 0.00000000
1.08464047 0.77062221 0.00237102 0.00000000
0.46791173 1.89864351 -0.00164574 0.00000000
2.38951243 0.77542545 0.00264344 0.00000000
2.83772934 0.90106202 -0.00248683 0.00000000
4.32137090 1.31816295 -0.00204063 0.00000000
1.54695235 0.18118804 0.00484597 0.00000000
2.61084183 0.09249500 -0.00255136 0.00000000
3.32690389 2.19761395 0.00149357 0.00000000
1.90849384 1.47334793 -0.00495133 0.00000000
0.51775357 1.37430441 -0.00017470 0.00000000
2.75923951 1.22049012 -0.00356621 0.00000000
0.54884413 1.72547345 -0.00161232 0.00000000
2.37587561 2.04992264 0.00049544 0.00000000
2.30204135 1.08401949 0.00078350 0.00000000
2.85312868 1.17760029 -0.00480813 0.00000000
4.37319486 1.40887180 -0.00107931 0.00000000
2.09838202 1.60794898 0.00059913 0.00000000
4.35450504 0.14981763 0.00369045 0.00000000
0.26429242 0.93087091 0.00081125 0.00000000
3.35715899 0.68875160 0.00282185 0.00000000
0.24051801 1.74757128 0.00242296 0.00000000
1.41350636 0.19051003 0.00139076 0.00000000
0.46105318 2.10597296 -0.00134615 0.00000000
1.34665168 1.51320188 0.00110581 0.00000000
1.23348003 0.11356310 -0.00044965 0.00000000
1.11374147 1.44848563 -0.00257269 0.00000000
1.03327037 1.32284588 -0.00278641 0.00000000
1.61655976 0.47402006 0.00425167 0.00000000
2.92967991 0.23407640 0.00034966 0.00000000
3.94992625 0.27167382 0.00265266 0.00000000
3.19443730 1.85025357 0.00560777 0.00000000
2.58532328 0.92591518 -0.00231690 0.00000000
2.94697060 0.69372382 0.00043824 0.00000000
0.29691948 0.00730638 0.00165102 0.00000000
0.56462192 0.48007989 0.00130365 0.00000000
0.89313657 0.71632795 0.00087247 0.00000000
3.60585314 1.73772695 -0.00006078 0.00000000
1.38974001 0.89246484 -0.00093333 0.00000000
2.71605888 0.74894738 -0.00240679 0.00000000
2.26371421 1.86027977 0.00134425 0.00000000
2.79059390 1.93985440 -0.00135726 0.00000000
4.36900922 2.18666003 -0.00238001 0.00000000
2.06986992 0.06914774 -0.00068575 0.00000000
0.41157950 0.74484434 0.00026316 0.00000000
1.59336020 1.89731478 -0.00074722 0.00000000
2.47949948 0.23820806 0.00413658 0.00000000
2.57752331 2.09979836 -0.00023446 0.00000000
3.53855248 1.30549422 -0.00144475 0.00000000
2.96721615 2.14185218 -0.00070516 0.00000000
2.67969258 1.65187288 -0.00231237 0.00000000
3.60542135 1.85832015 -0.00078938 0.00000000
3.93520682 2.12333502 -0.00254053 0.00000000
1.78982011 0.54105680 -0.00017180 0.00000000
1.94718031 0.01760130 -0.00217231 0.00000000
0.75325133 1.04401066 0.00230982 0.00000000
3.72942305 1.89676940 -0.00164293 0.00000000
3.59136378 2.10979807 -0.00270396 0.00000000
0.48284794 0.97156111 0.00245258 0.00000000
4.19162995 2.08033500 -0.00059417 0.00000000
3.24431715 0.09000935 -0.00019622 0.00000000
4.47063014 0.90747068 -0.00224084 0.00000000
2.91852149 1.80394144 -0.00071612 0.00000000
4.52881029 1.61772984 -0.00099606 0.00000000
0.44994651 1.28199940 -0.00285630 0.00000000
1.62256263 1.94992464 -0.00159012 0.00000000
0.77430130 0.82582029 -0.00023498 0.00000000
0.52161830 1.20237166 -0.00297890 0.00000000
0.26753756 0.20203239 -0.00224706 0.00000000
1.27573598 1.20837304 0.00070547 0.00000000
3.65759023 2.13149089 0.00067105 0.00000000
3.70134702 2.14001915 -0.00300736 0.00000000
0.77250745 0.58954644 0.00297554 0.00000000
0.93653906 1.09861057 0.00363787 0.00000000
1.60534645 0.39758783 -0.00069070 0.00000000
3.65518077 0.63653407 -0.00160895 0.00000000
0.84813673 0.22773353 0.00420444 0.00000000
2.73408970 1.64241621 -0.00023597 0.00000000
2.81282549 0.17493870 -0.00221237 0.00000000
2.95198569 0.01641832 0.00220960 0.00000000
3.53262251 1.15444250 0.00183626 0.00000000
4.00429757 0.48838273 -0.00101019 0.00000000
1.33822240 0.44190974 -0.00125661 0.00000000
1.06704257 1.67130501 -0.00355767 0.00000000
0.64242399 0.18184221 0.00027026 0.00000000
2.32986642 1.76323157 -0.00280079 0.00000000
1.57815206 0.79593224 0.00313677 0.00000000
1.25806538 1.93298636 -0.00021570 0.00000000
1.86372358 0.24514222 0.00042579 0.00000000
1.55970521 1.34543137 -0.00141376 0.00000000
0.45809689 0.37162466 0.00265202 0.00000000
2.90221755 1.62671058 0.00267860 0.00000000
1.22681470 0.83513595 0.00176478 0.00000000
0.58269713 1.36955341 -0.00224317 0.00000000
0.90613738 0.79620180 0.00144453 0.00000000
0.55404276 0.74347565 -0.00335159 0.00000000
0.67068091 1.33857170 -0.00431560 0.00000000
1.27495581 0.26821419 -0.00187278 0.00000000
2.47789789 0.09524416 0.00430926 0.00000000
1.74952447 0.19848455 -0.00126988 0.00000000
2.29536289 0.79471041 -0.00387963 0.00000000
0.88432066 0.94216917 0.00450994 0.00000000
2.84132357 0.95060906 0.00017593 0.00000000
0.38732492 0.12141316 -0.00278030 0.00000000
2.31945814 1.27498757 -0.00145575 0.00000000
2.83009275 0.46125810 0.00081847 0.00000000
1.59614417 2.09629148 -0.00016548 0.00000000
4.16476703 1.86540927 0.00007213 0.00000000
2.60803586 0.98080383 -0.00009496 0.00000000
0.77513211 2.07526306 0.00214043 0.00000000
4.18121227 0.50327001 -0.00162979 0.00000000
0.99107102 0.57185195 -0.00092371 0.00000000
0.89938095 0.01942989 0.00098773 0.00000000
1.54460963 0.24402201 0.00081823 0.00000000
3.60324268 0.00872389 -0.00340832 0.00000000
4.03550631 0.24662531 -0.00264444 0.00000000
1.50698479 1.91032962 0.00139178 0.00000000
4.48201330 0.75808706 0.00094047 0.00000000
4.05697044 0.21636614 -0.00056114 0.00000000
0.63331108 0.16018121 0.00046318 0.00000000
0.85277835 2.18496342 0.00023530 0.00000000
3.16166370 0.72402532 -0.00334385 0.00000000
4.40172246 0.84997046 0.00748288 0.00000000
2.72984801 2.08443075 -0.00287070 0.00000000
0.53631179 1.28520645 -0.00118856 0.00000000
0.80718607 1.67333491 -0.00151420 0.00000000
4.34508466 0.43070054 -0.00054851 0.00000000
2.13145203 0.87981112 0.00311819 0.00000000
3.45820459 0.65034308 -0.00151013 0.00000000
3.21851965 1.93418941 -0.00127058 0.00000000
1.50873893 1.44017541 0.00258798 0.00000000
2.37355047 2.12908166 -0.00399529 0.00000000
0.28378298 0.45677353 -0.00206478 0.00000000
0.95196492 2.11236448 -0.00152024 0.00000000
1.85013568 1.10511278 0.00172960 0.00000000
3.12717943 1.65175892 -0.00415681 0.00000000
2.14629175 1.81330139 -0.00306632 0.00000000
2.96138677 1.01976584 -0.00264793 0.00000000
4.27544747 1.71807120 0.00051436 0.00000000
4.18329802 2.12088450 0.00195087 0.00000000
2.91165605 1.16500547 0.00052112 0.00000000
1.44324827 0.06465460 0.00292586 0.00000000
2.62350087 0.29706109 -0.00146664 0.00000000
3.79517448 1.38288201 -0.00088819 0.00000000
2.45731314 0.62307438 0.00192483 0.00000000
3.35035410 2.02922022 0.00319302 0.00000000
0.92433940 0.22276622 -0.00022035 0.00000000
2.57673152 1.91733649 -0.00201567 0.00000000
4.48877454 1.05139453 0.00142828 0.00000000
3.33201876 0.56876480 0.00006849 0.00000000
3.80270773 0.18997869 -0.00267149 0.00000000
3.00902808 0.41203638 0.00035136 0.00000000
0.39042182 1.72928331 0.00309450 0.00000000
1.90260611 1.37002967 -0.00120229 0.00000000
2.27803068 1.51109294 -0.00123986 0.00000000
0.57783609 0.45145187 -0.00130016 0.00000000
0.92534528 0.38327148 0.00165365 0.00000000
0.73894844 1.54804970 -0.00249601 0.00000000
2.33972655 1.90188108 0.00393433 0.00000000
2.46750695 2.15383647 -0.00357289 0.00000000
1.66813464 1.83710712 0.00214176 0.00000000
3.82565083 1.65723352 -0.00151008 0.00000000
1.18001248 2.17930807 0.00052522 0.00000000
3.50783010 0.90608435 0.00068581 0.00000000
3.23298004 0.12821244 0.00340825 0.00000000
1.23009743 0.39696722 0.00292737 0.00000000
1.52564831 0.10422012 0.00522774 0.00000000
1.58385502 1.46735836 0.00282660 0.00000000
1.98748667 1.58002674 -0.00345795 0.00000000
4.35761581 0.19247148 0.00257715 0.00000000
1.92259125 0.22372054 -0.00132221 0.00000000
3.86572972 1.03887578 0.00077404 0.00000000
3.37134253 0.06130959 0.00128787 0.00000000
2.72727016 1.34935220 0.00127638 0.00000000
2.17086975 1.42648238 0.00240763 0.00000000
0.52262640 0.16141496 0.00051227 0.00000000
0.75017726 0.92081638 -0.00372276 0.00000000
3.52965702 1.48933068 0.00043945 0.00000000
3.00650855 0.07336000 0.00283433 0.00000000
1.77794054 2.10397183 -0.00614678 0.00000000
3.67545747 1.33692654 -0.00077854 0.00000000
2.82851495 1.04679819 0.00164644 0.00000000
4.48058896 0.26889839 0.00308964 0.00000000
3.93336427 1.29836026 -0.00069924 0.00000000
0.47320696 0.01088432 -0.00017447 0.00000000
3.65470425 1.10208419 0.00165962 0.00000000
3.48980441 0.49877760 -0.00188115 0.00000000
1.51942010 1.90784632 -0.00055583 0.00000000
1.87064814 0.19829375 0.00269903 0.00000000
3.77230806 1.72517703 0.00252914 0.00000000
2.39763116 0.44105096 -0.00026826 0.00000000
2.85685047 1.24969732 0.00143908 0.00000000
2.31428199 1.62436312 -0.00101781 0.00000000
0.86255222 1.61893887 0.00188115 0.00000000
2.22266106 1.94712380 0.00244111 0.00000000
2.84336080 0.11478665 -0.00364380 0.00000000
4.15648398 1.85156140 0.00515317 0.00000000
3.86835938 2.20782874 0.00209109 0.00000000
1.91148595 0.32711241 0.00004087 0.00000000
3.06855439 2.09965247 -0.00034514 0.00000000
0.66468306 2.14664869 0.00151397 0.00000000
2.54785866 1.57393987 0.00196468 0.00000000
2.54082276 0.67624848 -0.00004078 0.00000000
1.00629796 0.74260904 0.00113473 0.00000000
2.48911052 1.27442113 0.00143276 0.00000000
4.13363401 2.23034620 0.00117071 0.00000000
3.04428480 0.16604974 -0.00191675 0.00000000
2.23350979 1.13683932 -0.00183755 0.00000000
1.83448645 0.43080140 0.00075769 0.00000000
0.99386025 0.52114087 0.00101196 0.00000000
4.10223479 1.65697990 -0.00518882 0.00000000
2.45806742 0.08742252 -0.00168381 0.00000000
2.87425144 0.12135411 -0.00388670 0.00000000
2.82138842 1.40925295 0.00164507 0.00000000
2.22856681 1.05838337 0.00347123 0.00000000
4.17239866 2.09065996 0.00346835 0.00000000
2.11960294 0.75148832 -0.00368925 0.00000000
4.53334926 1.05414599 0.00248018 0.00000000
0.67727561 0.91731563 0.00330744 0.00000000
3.04973701 0.34928772 -0.00355669 0.00000000
1.02376294 2.12086152 -0.00218803 0.00000000
1.47506872 1.55503576 0.00496430 0.00000000
0.37959440 0.50060305 0.00111413 0.00000000
3.88766070 0.32491653 -0.00251095 0.00000000
0.27572532 0.21919837 -0.00224542 0.00000000
2.17140711 2.23428547 0.00202278 0.00000000
0.06445020 0.42890851 -0.00252128 0.00000000
2.95645508 0.06252915 0.00015036 0.00000000
3.01457270 0.21679284 0.00191956 0.00000000
1.29916060 0.68178190 -0.00192647 0.00000000
2.74071127 1.65314592 -0.00042517 0.00000000
1.54044423 1.30012360 -0.00092472 0.00000000
1.99660045 0.11285775 0.00324139 0.00000000
0.62632169 0.94252578 0.00468474 0.00000000
1.27535746 0.56754776 -0.00411057 0.00000000
2.40966653 0.05054981 0.00107294 0.00000000
1.75629105 0.22894127 0.00281353 0.00000000
3.79231520 2.16272185 -0.00220565 0.00000000
3.28247248 0.35344498 -0.00155310 0.00000000
3.49847883 1.14203784 0.00319409 0.00000000
3.80861854 1.84377901 0.00159354 0.00000000
3.17330430 0.37790788 0.00304192 0.00000000
4.19600508 2.12573701 0.00118570 0.00000000
4.24620983 0.11661262 0.00322068 0.00000000
3.38700368 1.57325894 0.00430418 0.00000000
0.83224543 2.20299364 0.00068110 0.00000000
1.28769688 0.23635608 -0.00311682 0.00000000
4.51071126 0.57693417 -0.00407616 0.00000000
0.43068712 0.76146797 -0.00061051 0.00000000
3.75914036 1.50468916 -0.00493214 0.00000000
0.31096261 0.35246561 -0.00058347 0.00000000
0.51647487 0.20802940 0.00236893 0.00000000
4.36044380 1.48530935 -0.00207814 0.00000000
1.67417276 1.36079723 -0.00227956 0.00000000
0.58476284 0.74148893 0.00030560 0.00000000
0.06700258 0.11187371 0.00035262 0.00000000
3.53190126 2.07224322 0.00037017 0.00000000
0.34867959 1.54331652 -0.00134228 0.00000000
1.23751322 1.00558219 0.00323427 0.00000000
1.27890758 1.04984957 0.00116181 0.00000000
3.30649651 0.67024482 -0.00161891 0.00000000
2.27947902 0.07829415 -0.00432843 0.00000000
2.83926981 0.48932435 -0.00072680 0.00000000
0.27296671 0.10747889 0.00362740 0.00000000
4.39531475 0.68638994 0.00216117 0.00000000
1.64833052 1.59126953 -0.00581988 0.00000000
2.79703317 0.25179760 -0.00002812 0.00000000
3.98473405 1.53130924 0.00192976 0.00000000
1.71689005 2.15250245 0.00104326 0.00000000
3.06522996 0.98953084 0.00134402 0.00000000
3.53988947 1.02514841 0.00185657 0.00000000
3.39689364 2.02851174 -0.00137032 0.00000000
4.35526421 0.54183259 0.00090593 0.00000000
1.87089539 1.96021728 0.00013334 0.00000000
1.06761560 0.10983464 0.00214052 0.00000000
3.64221156 0.14964227 -0.00034361 0.00000000
2.09509524 0.85161769 0.00158663 0.00000000
1.85697321 2.18495288 0.00369302 0.00000000
4.48082533 1.05226523 -0.00195578 0.00000000
0.04861369 1.78801755 -0.00818535 0.00000000
1.25002265 0.88917080 0.00079916 0.00000000
4.33414982 1.88283524 0.00203783 0.00000000
4.28229146 1.17932073 -0.00108727 0.00000000
0.91664554 0.59128395 0.00025062 0.00000000
2.38562499 1.64330863 -0.00094158 0.00000000
0.98923416 0.29235912 0.00278813 0.00000000
1.68893958 1.72141355 -0.00113653 0.00000000
0.09148797 0.77309152 -0.00301298 0.00000000
0.54581569 0.31498114 -0.00084313 0.00000000
2.16023617 0.91206398 -0.00230118 0.00000000
1.26630938 1.58933977 -0.00238559 0.00000000
0.40385274 0.08986244 0.00258633 0.00000000
2.98450610 1.88889868 -0.00037695 0.00000000
1.96585116 0.73494417 0.00447208 0.00000000
0.91424741 0.23488941 -0.00313080 0.00000000
3.96359361 1.72860060 0.00222841 0.00000000
0.02655798 0.71473141 0.00006589 0.00000000
4.30501155 0.24817116 -0.00074141 0.00000000
1.41538402 0.49372152 -0.00072698 0.00000000
1.77705491 0.65173214 0.00069851 0.00000000
2.99058327 0.32711036 0.00110773 0.00000000
0.66296299 2.14130760 0.00191147 0.00000000
0.27414073 1.17275649 -0.00727197 0.00000000
0.76327044 0.17118464 -0.00093480 0.00000000
0.02043016 1.40894059 0.00565393 0.00000000
2.99034624 1.89757778 0.00019435 0.00000000
0.15022454 1.65399005 -0.00074924 0.00000000
4.27922978 1.29324717 -0.00023673 0.00000000
4.03041614 1.53604428 0.00278783 0.00000000
2.94531401 0.04488970 0.00052900 0.00000000
0.48286334 0.73396681 0.00114070 0.00000000
1.20927440 0.76552461 0.00165628 0.00000000
1.13184075 0.39070300 -0.00264405 0.00000000
3.91602380 1.82383526 -0.00010788 0.00000000
4.34699676 1.05824263 -0.00179605 0.00000000
2.54197178 1.96131196 0.00024091 0.00000000
1.50124597 0.81125036 0.00187561 0.00000000
3.88768378 2.06268145 0.00297304 0.00000000
1.55192728 0.25306738 0.00033876 0.00000000
3.98934046 1.61019529 -0.00037532 0.00000000
0.65107380 1.19768008 -0.00539533 0.00000000
2.56857573 0.34997266 0.00256611 0.00000000
1.16280523 2.22377756 -0.00558110 0.00000000
2.57167453 1.13736573 -0.00141901 0.00000000
2.71421928 1.21503087 0.00095233 0.00000000
3.09848405 0.34319689 0.00233646 0.00000000
3.02084678 1.08123950 0.00122720 0.00000000
1.03380397 0.34428393 -0.00558427 0.00000000
2.74328058 0.06960936 0.00410999 0.00000000
0.76251149 1.58390572 -0.00066483 0.00000000
3.52695180 0.73410793 0.00626853 0.00000000
0.08039543 0.73280832 -0.00094962 0.00000000
2.14752745 1.94380201 0.00096655 0.00000000
3.61122294 0.47625628 0.00318765 0.00000000
2.63040307 1.58049685 -0.00489835 0.00000000
2.76770191 0.88987637 0.00113221 0.00000000
2.58765981 0.23941927 -0.00300499 0.00000000
0.91423502 2.13939831 0.00288822 0.00000000
2.45901187 2.22996132 0.00415150 0.00000000
2.15534161 0.23683929 -0.00229083 0.00000000
0.67091710 1.47683941 -0.00076842 0.00000000
2.38539750 2.12588503 0.00257971 0.00000000
2.74663917 0.49539403 -0.00145091 0.00000000
0.64570862 1.80983420 0.00012201 0.00000000
3.58553418 2.20718843 0.00106629 0.00000000
4.02981331 0.72150332 -0.00125767 0.00000000
1.43278411 1.03703483 -0.00144997 0.00000000
4.23601212 0.34771796 0.00209692 0.00000000
4.38854686 1.72696346 0.00139501 0.00000000
1.09831914 1.77806972 0.00167830 0.00000000
3.15300367 0.08846817 -0.00094510 0.00000000
3.85065792 0.50537520 0.00153742 0.00000000
1.73471967 0.13724104 0.00171033 0.00000000
0.99205249 1.82022078 0.00076741 0.00000000
2.44529506 2.09487219 -0.00179439 0.00000000
3.23310200 0.20667941 -0.00110036 0.00000000
0.74907658 1.71906785 -0.00163658 0.00000000
4.34982311 0.32737933 0.00065307 0.00000000
2.68920289 1.83047490 0.00074739 0.00000000
4.47276333 1.64375976 -0.00604847 0.00000000
2.61069938 1.65932368 -0.00660015 0.00000000
2.71937835 1.47639721 -0.00187318 0.00000000
0.29148436 1.37993906 0.00525621 0.00000000
3.99673304 1.74040923 0.00218054 0.00000000
4.47656452 0.67162299 -0.00332032 0.00000000
0.44379494 0.95435410 -0.00003393 0.00000000
3.05194121 1.73286162 0.00292000 0.00000000
0.74701085 1.22975949 -0.00037228 0.00000000
2.81712183 2.08225595 0.00297987 0.00000000
2.63417218 1.22678310 -0.00072483 0.00000000
3.76710923 0.11722790 -0.00190961 0.00000000
0.74430690 0.91732198 -0.00235332 0.00000000
3.99814261 1.78596958 0.00021187 0.00000000
0.74201025 2.08012004 -0.00409476 0.00000000
1.05716091 0.66040231 -0.00041513 0.00000000
4.32614480 0.33065888 -0.00052792 0.00000000
1.43494660 0.24733778 0.00139455 0.00000000
3.32247296 0.31093006 0.00266417 0.00000000
2.92371745 0.79818033 -0.00064457 0.00000000
3.26025483 0.99874195 -0.00145522 0.00000000
1.04683702 0.42207004 -0.00183600 0.00000000
3.78817388 1.32253665 -0.00082953 0.00000000
1.63976672 2.12833206 -0.00203768 0.00000000
2.37146259 1.77525240 0.00282453 0.00000000
2.02076712 0.73580877 0.00329179 0.00000000
3.21587942 1.76502231 -0.00244158 0.00000000
0.59574636 0.93764315 0.00240257 0.00000000
0.59375392 1.44179183 -0.00159606 0.00000000
2.27295387 2.12626319 -0.00221289 0.00000000
0.91875365 0.47284770 -0.00000226 0.00000000
0.70202002 1.23321211 0.00005057 0.00000000
3.56493878 1.14463434 0.00069810 0.00000000
3.88815243 1.64969800 0.00139739 0.00000000
0.43637532 1.45164452 -0.00266147 0.00000000
3.97136883 0.25959292 -0.00044895 0.00000000
1.02320440 1.32942110 0.00018387 0.00000000
4.07815075 0.59833410 -0.00056061 0.00000000
2.34180652 1.07980001 -0.00297138 0.00000000
3.85828374 0.00725621 0.00184206 0.00000000
0.63700911 1.86145709 -0.00448257 0.00000000
4.02829620 1.43192027 -0.00102161 0.00000000
0.89880836 0.26126226 -0.00494111 0.00000000
2.18225628 0.40986684 0.00319394 0.00000000
0.77850023 0.10894514 0.00090442 0.00000000
1.93874403 1.03576387 0.00020571 0.00000000
0.83626290 2.03880658 -0.00100682 0.00000000
4.41652138 0.35484151 -0.00325130 0.00000000
2.07262394 0.38768164 0.00077580 0.00000000
4.06595521 0.91095283 0.00317810 0.00000000
1.71928008 1.82306837 -0.00021477 0.00000000
4.47019822 0.13397712 -0.00315485 0.00000000
3.64389225 1.94675502 0.00294740 0.00000000
1.71161739 1.57258636 -0.00209520 0.00000000
2.28043970 1.63552900 -0.00153319 0.00000000
2.73122466 1.73686688 -0.00372064 0.00000000
0.21142387 1.02589170 0.00371462 0.00000000
0.99849724 0.99798646 -0.00278850 0.00000000
2.61871513 0.31587933 -0.00314521 0.00000000
1.20864284 0.90776917 -0.00020406 0.00000000
4.37075576 0.05433500 0.00216644 0.00000000
1.01885146 0.68837811 -0.00429914 0.00000000
3.12772999 1.17402827 0.00013685 0.00000000
0.11860900 1.65714559 0.00122057 0.00000000
2.71554018 0.38246324 0.00043115 0.00000000
3.06833867 1.67092250 -0.00227867 0.00000000
3.59273151 1.91916352 0.00263980 0.00000000
1.17528058 1.99989417 -0.00001653 0.00000000
0.54929530 0.08039620 -0.00092591 0.00000000
3.70238353 1.64236872 -0.00107001 0.00000000
3.11650999 0.92105785 -0.00046872 0.00000000
1.22250146 2.20146615 0.00179434 0.00000000
4.48909615 1.97636192 -0.00067634 0.00000000
3.79256693 0.64382578 -0.00247963 0.00000000
3.91446149 0.18945652 -0.00076695 0.00000000
2.57101455 0.71981723 -0.00044781 0.00000000
3.25194164 0.68026540 -0.00271817 0.00000000
1.15393103 2.04848769 -0.00073909 0.00000000
1.53329035 0.59069865 -0.00244685 0.00000000
0.35567924 1.91377459 -0.00132756 0.00000000
2.05348243 0.42626012 -0.00337460 0.00000000
3.00967286 0.46516392 0.00273556 0.00000000
2.71349066 0.91567491 -0.00234206 0.00000000
3.85489467 2.22085068 0.00204581 0.00000000
3.48949018 0.96342065 0.00258062 0.00000000
1.14017059 1.94823346 -0.00091116 0.00000000
1.79637221 0.48313900 -0.00530032 0.00000000
1.40160622 1.35920610 -0.00068077 0.00000000
3.15561226 0.00044076 0.00131143 0.00000000
1.26478120 0.20675472 -0.00061955 0.00000000
1.22233653 0.87444651 -0.00126162 0.00000000
1.10635532 0.26402780 -0.00141760 0.00000000
1.39723621 1.61260776 -0.00175191 0.00000000
2.55534655 1.96286040 -0.00205721 0.00000000
1.34558336 1.78087885 0.00138465 0.00000000
2.30892600 1.30476065 -0.00214206 0.00000000
4.05294939 0.83276224 -0.00523416 0.00000000
2.54002818 0.22629882 -0.00253983 0.00000000
0.79667150 1.80184458 -0.00299742 0.00000000
1.53884184 1.17772566 -0.00047560 0.00000000
2.09883825 1.47973956 -0.00172484 0.00000000
3.86622119 1.79212886 -0.00087513 0.00000000
3.19706004 1.82213764 -0.00038629 0.00000000
1.83851948 0.86633557 -0.00398916 0.00000000
0.63063144 0.98555705 0.00378394 0.00000000
1.16993313 0.59556980 0.00231245 0.00000000
0.81474542 0.44114990 -0.00353684 0.00000000
3.43346431 1.84593360 -0.00536056 0.00000000
1.56071688 0.65529875 -0.00087348 0.00000000
1.43141501 1.15537064 -0.00071045 0.00000000
4.43554028 0.83660987 -0.00613426 0.00000000
3.98366080 1.16526892 -0.00175578 0.00000000
3.37899383 0.97472877 -0.00275016 0.00000000
4.31748310 0.55873383 -0.00137152 0.00000000
1.41923598 0.53542078 0.00309233 0.00000000
0.82319173 1.09522571 -0.00265813 0.00000000
0.71159280 0.14726707 0.00271621 0.00000000
3.25850426 2.20439705 0.00218783 0.00000000
4.17409379 0.23997095 -0.00267712 0.00000000
2.00167124 1.76350331 -0.00074235 0.00000000
3.45764061 1.99910684 0.00133108 0.00000000
1.75150759 0.02133416 -0.00350831 0.00000000
0.12670402 0.32245669 0.00178510 0.00000000
3.02018376 2.06364127 -0.00076285 0.00000000
1.45102640 1.51674840 -0.00321886 0.00000000
0.04100402 1.28023972 -0.00031326 0.00000000
3.00890150 1.70078197 0.00234995 0.00000000
1.40664858 0.35513229 -0.00226103 0.00000000
2.17833495 1.70701481 -0.00147539 0.00000000
4.27871514 0.93960356 -0.00226362 0.00000000
1.27682300 0.60063827 0.00114755 0.00000000
2.68498358 1.92045670 0.00015960 0.00000000
3.79661963 0.22087299 0.00157149 0.00000000
0.66512806 0.86506285 0.00054150 0.00000000
2.47302652 1.25737892 0.00294163 0.00000000
4.17420018 1.58486232 0.00355911 0.00000000
4.03102139 0.60165922 0.00170618 0.00000000
2.87157538 1.79112001 0.00309550 0.00000000
1.38031597 0.62679196 0.00198628 0.00000000
2.35390731 0.91928635 -0.00012166 0.00000000
2.59260353 1.63824120 0.00043201 0.00000000
3.15774335 0.67782290 0.00402386 0.00000000
1.78659899 0.40928839 0.00049469 0.00000000
2.49936556 0.97242989 0.00111636 0.00000000
2.93930092 0.07340556 -0.00419662 0.00000000
1.46534950 1.95674522 0.00319540 0.00000000
1.89552179 0.64666555 0.00232111 0.00000000
4.17617687 0.00060123 0.00444636 0.00000000
4.22183280 0.75435022 -0.00560298 0.00000000
1.13992583 0.68683326 0.00321371 0.00000000
