2.677301 1.493031 -0.001551 0.0
0.427836 1.951880 0.004772 0.0
4.415326 0.391494 -0.002008 0.0
2.246410 1.598674 0.002246 0.0
2.806774 0.227088 -0.002504 0.0
0.466155 0.571152 0.004035 0.0
3.864335 0.128690 -0.000859 0.0
0.392870 0.934405 0.000991 0.0
1.880675 2.045705 -0.001188 0.0
1.032340 1.678841 -0.002045 0.0
3.001652 0.516969 -0.001989 0.0
0.589395 2.033318 -0.000159 0.0
3.255268 1.568925 0.000887 0.0
2.467800 1.643490 -0.003628 0.0
1.484468 1.177015 -0.002859 0.0
0.611420 0.819205 -0.000105 0.0
1.928887 0.653622 -0.001319 0.0
3.164213 0.013455 0.001527 0.0
2.047426 1.579767 0.003813 0.0
3.521427 1.217703 -0.000398 0.0
1.367155 1.434582 0.000764 0.0
2.055086 0.313897 0.005066 0.0
4.334392 0.498363 0.000213 0.0
3.154899 1.852822 -0.000637 0.0
0.221863 1.529315 -0.001255 0.0
4.424885 0.776015 0.000414 0.0
1.655435 0.090760 -0.003404 0.0
2.155967 1.040280 0.004255 0.0
0.554600 0.086113 0.003575 0.0
0.457267 1.941514 0.005483 0.0
0.555739 0.313820 -0.001595 0.0
0.744137 0.204280 0.000201 0.0
1.661979 1.203619 0.000525 0.0
3.379937 0.470403 0.005003 0.0
4.591662 1.916162 -0.000875 0.0
2.646764 0.208341 0.002091 0.0
4.123807 1.815114 0.000253 0.0
0.113089 0.608148 -0.000355 0.0
1.088271 0.378869 -0.003540 0.0
4.323852 0.722038 0.003608 0.0
4.498722 1.724712 0.002189 0.0
3.561510 1.876883 0.003558 0.0
2.201261 1.924614 -0.001210 0.0
2.767839 0.239216 0.003170 0.0
1.897404 1.135224 0.000304 0.0
3.185716 1.759298 -0.002166 0.0
1.618594 0.313716 0.002848 0.0
4.496076 1.220681 0.001795 0.0
0.091696 0.990836 -0.002780 0.0
2.629410 0.578300 -0.002070 0.0
4.483926 1.275886 -0.000099 0.0
2.009168 0.884519 -0.001079 0.0
0.402271 1.937775 -0.000201 0.0
1.437523 0.473125 -0.004481 0.0
1.655462 0.419758 -0.001155 0.0
1.346456 1.996114 0.002926 0.0
4.469843 0.150394 -0.001972 0.0
4.426665 2.051363 0.000333 0.0
0.410600 0.568401 -0.000260 0.0
3.061483 1.790819 -0.000131 0.0
4.125474 0.141052 0.000907 0.0
4.046151 1.075883 -0.003030 0.0
2.635222 1.087728 0.001298 0.0
3.169478 0.362592 -0.001422 0.0
3.585780 0.041384 0.000393 0.0
1.622401 1.738113 -0.002209 0.0
2.122130 1.858706 -0.002386 0.0
2.405860 0.775436 -0.000610 0.0
2.748005 0.219196 -0.002530 0.0
1.211722 1.404524 0.001116 0.0
4.617964 0.801129 -0.003357 0.0
2.489681 1.542264 -0.000350 0.0
4.191547 0.281582 0.001548 0.0
1.106558 1.873514 0.002185 0.0
0.857714 1.696501 0.001801 0.0
1.165829 1.181661 -0.000773 0.0
0.521852 1.936233 0.003538 0.0
0.249084 0.885915 -0.001151 0.0
2.562648 1.910731 -0.002275 0.0
4.429703 0.683378 -0.002495 0.0
3.643075 0.764347 0.001518 0.0
3.629074 1.757081 0.001761 0.0
4.290679 1.677080 0.000545 0.0
3.862355 0.682187 -0.003009 0.0
0.784822 0.639110 0.000126 0.0
3.661347 0.940385 -0.001423 0.0
3.898729 0.052358 -0.001900 0.0
0.419631 1.854488 0.001390 0.0
2.119156 1.761121 0.002736 0.0
2.252944 1.351570 -0.001931 0.0
4.347588 0.480785 0.002960 0.0
3.943685 1.526937 0.000856 0.0
1.189974 0.084342 -0.004357 0.0
2.600273 1.694861 -0.001464 0.0
0.474385 1.321759 -0.002237 0.0
2.862128 1.806974 0.000925 0.0
3.390045 1.281701 0.001624 0.0
3.297778 1.109289 -0.000511 0.0
0.248223 0.873462 0.000023 0.0
3.045590 1.189404 -0.002213 0.0
2.005932 0.614335 0.000547 0.0
3.231323 0.899642 -0.001983 0.0
1.312826 1.934483 -0.001085 0.0
3.557661 1.869556 -0.003196 0.0
3.933204 1.056320 -0.001925 0.0
1.299795 1.833108 -0.002726 0.0
2.648277 1.331602 -0.002408 0.0
4.027973 1.285235 -0.002448 0.0
4.486250 1.009297 0.000429 0.0
2.343903 0.556087 0.004074 0.0
2.426474 1.076304 -0.001695 0.0
3.546524 1.150010 -0.001566 0.0
0.744011 2.056067 0.005087 0.0
3.143011 1.468759 -0.000861 0.0
0.058705 1.889575 0.000046 0.0
2.240525 1.249110 -0.001161 0.0
0.998907 1.347667 -0.005167 0.0
4.050262 1.076120 -0.005428 0.0
4.762666 0.244945 -0.000064 0.0
1.416945 0.392241 -0.004198 0.0
2.061716 1.509397 -0.001434 0.0
0.833650 1.366242 0.001488 0.0
3.376247 1.999223 -0.002423 0.0
2.271405 1.234770 0.001056 0.0
2.812588 1.955724 -0.003026 0.0
2.736917 0.517002 0.000383 0.0
1.165763 1.102499 0.001824 0.0
3.409682 0.024492 -0.000392 0.0
2.414531 0.681261 -0.000311 0.0
1.706527 1.747345 -0.000642 0.0
3.529768 0.502258 -0.000357 0.0
0.706936 0.906974 -0.000074 0.0
4.296215 1.123115 -0.002171 0.0
1.679212 1.477251 0.000561 0.0
4.472766 1.586628 -0.001237 0.0
0.545121 1.931882 -0.001976 0.0
3.056960 1.778541 -0.001067 0.0
4.685689 0.789460 -0.000189 0.0
4.399971 1.550787 -0.000435 0.0
4.745220 0.036708 -0.001515 0.0
2.947967 0.876417 -0.003039 0.0
4.710409 1.924240 0.000639 0.0
0.092617 1.313089 -0.001032 0.0
0.027059 0.953750 -0.001363 0.0
0.374850 1.888679 -0.002747 0.0
3.924066 0.149203 -0.000916 0.0
2.011456 1.369806 -0.001031 0.0
3.455792 1.444995 -0.000816 0.0
0.045012 0.400689 -0.000089 0.0
2.813844 0.772638 -0.000836 0.0
3.239243 1.316992 0.001269 0.0
0.163403 0.899465 0.002996 0.0
0.231258 0.707975 -0.000548 0.0
3.126296 0.730099 0.000552 0.0
2.314968 0.849334 0.005358 0.0
3.438347 1.887798 0.003114 0.0
2.733349 0.911753 0.005034 0.0
0.049880 1.833917 -0.002852 0.0
4.376581 2.040533 -0.002301 0.0
0.536512 0.761216 -0.000930 0.0
2.269345 0.377924 -0.000651 0.0
2.163624 1.725660 0.000128 0.0
4.713156 0.849747 0.001848 0.0
1.219218 1.101432 -0.003011 0.0
4.415475 1.115165 -0.001714 0.0
4.300717 1.991456 -0.001222 0.0
1.530236 0.437557 -0.004093 0.0
0.217366 0.812531 -0.005887 0.0
2.982603 1.619193 0.001531 0.0
3.226189 1.041662 0.006326 0.0
3.868273 1.862607 0.001552 0.0
1.512136 0.861989 0.000177 0.0
4.127705 1.894764 -0.001642 0.0
3.523215 1.284280 0.000474 0.0
2.662712 1.978032 0.002679 0.0
1.943066 1.324221 0.000690 0.0
3.650989 1.827158 0.003137 0.0
0.893089 1.388883 -0.000430 0.0
1.856341 1.811016 -0.002452 0.0
1.600852 0.284373 -0.001251 0.0
4.276321 1.075394 0.000532 0.0
0.635201 0.737537 0.000983 0.0
4.373373 1.563066 -0.001523 0.0
1.323882 0.814095 -0.000686 0.0
0.579500 1.438115 -0.004141 0.0
0.393516 2.033159 0.002458 0.0
0.962850 2.034228 -0.000600 0.0
1.852966 1.544870 0.000431 0.0
1.708935 0.195742 0.002138 0.0
0.801627 0.176947 -0.003003 0.0
1.355356 1.211277 0.003873 0.0
1.828730 0.623883 0.001106 0.0
3.310720 1.485617 0.000973 0.0
2.527151 0.658818 0.001247 0.0
2.356471 0.744617 -0.000996 0.0
1.632468 0.208652 0.000896 0.0
1.264844 1.319840 0.001187 0.0
3.072947 0.975764 -0.000763 0.0
1.494673 1.547680 0.000460 0.0
0.260312 1.076343 -0.003180 0.0
4.266645 1.612748 0.005192 0.0
3.459917 1.539282 -0.005297 0.0
0.740568 1.655609 0.001937 0.0
3.845068 0.019733 0.000594 0.0
0.271880 1.869660 0.000254 0.0
2.373276 1.361013 0.002769 0.0
2.190310 0.758183 -0.001453 0.0
1.453145 1.041799 -0.002586 0.0
4.414745 1.604398 0.004952 0.0
1.999431 0.744294 0.001873 0.0
4.488660 0.971904 0.001263 0.0
1.512886 0.954717 0.001662 0.0
4.685897 0.168393 -0.003320 0.0
4.347473 1.333233 -0.000907 0.0
0.504195 1.280742 -0.000553 0.0
4.181920 0.281907 0.000901 0.0
3.156891 1.764969 -0.003039 0.0
3.660041 0.573563 -0.000958 0.0
4.163394 0.024715 0.003128 0.0
0.021572 0.192335 0.000591 0.0
2.025505 0.934931 -0.000105 0.0
2.575653 0.478225 0.000411 0.0
0.390222 1.140939 0.002604 0.0
1.854801 1.167311 -0.000366 0.0
2.934872 1.503519 0.002130 0.0
1.700251 1.071454 0.001762 0.0
1.963129 1.230800 0.000985 0.0
2.855553 0.239318 -0.003189 0.0
1.663723 1.066962 -0.002595 0.0
1.889741 0.017997 -0.003583 0.0
3.042549 1.528695 0.004077 0.0
0.892049 1.572154 -0.000845 0.0
1.539516 1.984206 0.000460 0.0
2.900677 1.332619 -0.001152 0.0
4.039540 0.303947 -0.000143 0.0
3.378305 1.258121 0.001125 0.0
2.179998 0.553392 0.002045 0.0
0.228168 0.064619 -0.005011 0.0
4.715656 1.655544 -0.002287 0.0
3.223979 1.208120 0.000426 0.0
0.145684 1.621024 -0.001684 0.0
3.063801 1.883818 -0.002402 0.0
3.127733 1.182575 -0.002393 0.0
1.069467 2.031381 0.000437 0.0
0.759444 0.675422 0.001044 0.0
1.644088 1.471464 0.001049 0.0
3.660197 1.730408 -0.002830 0.0
3.884886 0.736519 -0.001396 0.0
2.660983 0.592283 -0.001786 0.0
2.366366 1.518201 -0.001715 0.0
0.581542 0.822726 -0.003426 0.0
3.984690 1.147081 -0.003483 0.0
1.990051 1.147285 0.003979 0.0
3.902219 1.549090 0.003572 0.0
0.577552 0.818892 -0.001317 0.0
1.310086 0.422457 -0.000310 0.0
3.150383 0.808060 -0.002617 0.0
0.753945 0.286045 0.002105 0.0
4.484703 0.953317 -0.005257 0.0
4.388488 0.798266 0.000092 0.0
2.193680 1.086518 -0.000104 0.0
2.596469 1.975926 -0.001728 0.0
1.824842 0.599953 0.002052 0.0
0.580657 1.642938 -0.007065 0.0
2.149758 0.952245 0.000810 0.0
1.775968 1.002677 -0.004665 0.0
2.435129 0.628764 -0.000229 0.0
3.975794 1.506427 0.000911 0.0
1.786323 1.566717 -0.003743 0.0
1.392692 0.976042 0.003687 0.0
0.386751 1.886438 -0.000088 0.0
4.661925 1.618183 0.000065 0.0
4.309342 0.954943 -0.000893 0.0
0.965427 1.481862 -0.005831 0.0
0.747580 0.360243 0.001657 0.0
2.098238 1.889109 0.000140 0.0
1.726074 1.396538 -0.002136 0.0
1.716260 0.937658 0.005673 0.0
0.744842 1.908717 -0.003635 0.0
1.768230 1.086686 0.002292 0.0
3.969559 1.525417 0.000922 0.0
3.991033 1.866409 0.001456 0.0
0.194787 1.722877 0.001363 0.0
0.656559 0.998906 0.005609 0.0
0.952646 0.192012 0.000246 0.0
0.580796 1.649490 -0.000398 0.0
3.698780 1.027041 0.000425 0.0
0.771915 0.733761 -0.002233 0.0
1.614447 1.283461 -0.004545 0.0
1.765197 0.161776 -0.000233 0.0
1.034556 1.287334 -0.000180 0.0
4.691693 0.542451 -0.000757 0.0
3.144466 0.443449 -0.000194 0.0
4.200862 1.275522 -0.001096 0.0
0.859185 1.588685 -0.002457 0.0
0.421938 1.968943 -0.002649 0.0
2.788367 1.918985 0.001073 0.0
0.008241 0.046288 -0.002790 0.0
0.251888 1.295582 0.000646 0.0
2.008651 0.651822 -0.001590 0.0
4.126636 0.817249 -0.002038 0.0
0.435283 1.751922 -0.000583 0.0
1.408771 0.801847 -0.003304 0.0
3.198975 1.903904 0.003408 0.0
1.705443 0.552276 0.003857 0.0
1.055150 0.177549 -0.003352 0.0
2.721122 0.218780 0.002975 0.0
4.266998 1.465727 -0.000578 0.0
2.387353 1.932172 -0.003790 0.0
1.676833 1.944758 0.004654 0.0
1.254018 1.022701 0.005429 0.0
3.731925 2.052005 -0.001868 0.0
4.279811 1.801653 0.005372 0.0
3.514020 0.692439 0.002807 0.0
1.356259 0.012883 0.002301 0.0
2.746813 1.613215 -0.000706 0.0
1.510094 1.945459 -0.004680 0.0
0.324830 1.323888 0.001219 0.0
2.023294 1.402049 -0.000491 0.0
2.438101 1.413887 -0.004017 0.0
4.410736 0.843472 -0.002804 0.0
3.318138 1.550893 -0.000263 0.0
3.205728 0.058688 0.002129 0.0
3.151331 0.832259 0.000183 0.0
2.622997 1.493416 -0.004806 0.0
4.777738 1.739012 0.001956 0.0
2.401338 0.552228 0.001450 0.0
0.262124 0.520012 0.002444 0.0
0.052791 1.822292 0.000108 0.0
1.579998 0.278803 -0.000333 0.0
2.668643 0.547749 0.001485 0.0
4.179632 0.517616 0.001585 0.0
1.745850 2.034570 0.001872 0.0
3.570568 1.182357 -0.001224 0.0
2.794993 1.249984 -0.003763 0.0
0.414790 1.637578 -0.003177 0.0
0.474056 0.800306 0.002166 0.0
1.071887 1.163597 -0.000567 0.0
3.891554 1.622287 0.001458 0.0
1.596143 1.552620 0.001546 0.0
3.919159 1.977841 -0.002677 0.0
2.067725 1.580764 0.000934 0.0
3.661297 1.064728 -0.000509 0.0
2.694998 1.460617 0.002678 0.0
4.139833 1.668911 -0.003221 0.0
3.823504 0.359547 0.001732 0.0
2.879277 0.925943 0.000042 0.0
2.987884 0.092446 0.001725 0.0
2.431728 1.544880 -0.000866 0.0
3.295315 0.778754 -0.001741 0.0
0.053061 0.157315 -0.002944 0.0
3.499285 0.059066 0.003032 0.0
2.286169 0.232020 0.003335 0.0
1.277556 1.278127 -0.003349 0.0
4.150755 1.847184 0.000853 0.0
2.608219 1.091146 -0.006101 0.0
0.459448 1.091439 0.000058 0.0
3.023902 0.398501 0.002548 0.0
1.566435 1.913887 0.000903 0.0
3.966819 0.944279 -0.000145 0.0
1.583565 2.008476 -0.000456 0.0
0.334892 0.847359 -0.001006 0.0
2.573739 0.371628 -0.003085 0.0
2.611353 1.072217 -0.000036 0.0
4.147821 0.286678 0.001447 0.0
0.959759 1.699784 0.001237 0.0
1.058739 0.173671 0.002403 0.0
0.355115 1.777877 0.001726 0.0
0.814797 0.078925 -0.001673 0.0
1.971673 0.051764 0.001191 0.0
1.753497 1.396009 -0.002461 0.0
0.134214 0.354872 -0.000486 0.0
3.056210 0.472481 0.001355 0.0
3.842061 0.228398 0.000973 0.0
1.932580 1.042919 -0.001531 0.0
1.068476 1.842410 -0.001271 0.0
2.220488 0.684290 0.000097 0.0
3.637715 0.204797 0.002852 0.0
-0.000228 1.268230 0.000114 0.0
0.402142 0.874467 0.001194 0.0
2.793710 1.779570 -0.004767 0.0
1.422155 0.980509 -0.001976 0.0
0.927588 0.894128 0.000471 0.0
1.638106 0.357420 -0.002921 0.0
2.073224 1.242503 -0.000562 0.0
0.931326 1.083728 0.002316 0.0
0.332056 0.621508 0.001908 0.0
1.693778 0.191602 -0.003276 0.0
1.192083 1.181863 0.001183 0.0
2.612712 0.452441 0.002362 0.0
4.095987 2.013542 0.001678 0.0
1.084045 2.032591 -0.002680 0.0
4.452466 0.243617 0.000375 0.0
0.500534 1.308284 -0.001647 0.0
4.364523 1.539453 -0.002507 0.0
4.347469 1.944211 -0.001125 0.0
3.982787 0.321049 -0.001225 0.0
1.438026 1.728889 0.002728 0.0
3.190567 0.640838 -0.000815 0.0
2.393333 0.104456 0.003244 0.0
0.327790 1.205727 -0.005323 0.0
2.099902 0.613601 0.003254 0.0
3.957574 1.260548 -0.003510 0.0
1.514993 1.403690 -0.001194 0.0
0.146413 1.705986 -0.001364 0.0
0.483772 1.674243 0.000410 0.0
1.414599 0.108377 -0.002040 0.0
1.927508 1.832839 -0.004026 0.0
0.723491 1.156051 0.004683 0.0
1.818976 0.678911 -0.004583 0.0
3.678840 0.225498 0.002034 0.0
1.326517 0.781439 0.001546 0.0
2.976014 0.401807 0.002218 0.0
0.517028 1.732275 -0.000288 0.0
2.229639 0.279187 -0.002712 0.0
2.338050 1.303942 0.002896 0.0
0.180248 1.821422 -0.006285 0.0
0.933279 1.168499 -0.000617 0.0
1.024335 1.878157 0.001793 0.0
1.448295 0.428679 -0.000562 0.0
0.158108 1.431436 0.000983 0.0
4.328573 0.451319 0.000004 0.0
2.617940 1.868803 -0.000693 0.0
0.205374 1.841976 0.002439 0.0
1.729980 0.485076 -0.004170 0.0
4.471271 0.839310 -0.000332 0.0
1.858127 1.718288 -0.002632 0.0
1.867199 0.911366 -0.002703 0.0
4.506466 1.472518 -0.003453 0.0
0.004681 1.501099 -0.003975 0.0
2.183129 0.137703 -0.002044 0.0
0.469405 0.490185 0.001806 0.0
3.427314 1.307873 -0.002901 0.0
2.883635 0.355551 0.004518 0.0
2.514309 1.928543 -0.001765 0.0
1.652565 1.772588 0.002114 0.0
2.819544 0.993664 -0.002104 0.0
3.873223 0.819499 0.001111 0.0
4.564002 0.064990 -0.001848 0.0
2.056912 1.709772 0.002534 0.0
2.964604 1.708598 0.000356 0.0
0.319590 1.830906 -0.001159 0.0
2.296095 0.419199 -0.002611 0.0
0.574288 1.054711 0.001536 0.0
4.081625 1.946303 0.000165 0.0
4.045566 0.486917 -0.002646 0.0
1.157864 1.672782 -0.000176 0.0
4.361068 0.951963 -0.001059 0.0
1.387830 1.771285 -0.000021 0.0
3.535875 0.650581 0.003115 0.0
1.588309 1.920980 -0.002222 0.0
1.495105 1.760890 0.002314 0.0
3.340911 1.564973 -0.000850 0.0
3.794308 1.212099 -0.001910 0.0
1.380800 1.608057 0.002620 0.0
3.357759 1.544864 -0.003015 0.0
1.544051 1.212844 -0.002221 0.0
0.874199 0.381388 0.000239 0.0
4.468841 1.006725 -0.000928 0.0
4.746612 0.895324 -0.000186 0.0
1.604799 1.044384 0.002399 0.0
0.079069 0.378037 0.000432 0.0
3.611383 1.880579 0.000586 0.0
2.548589 0.918097 0.001088 0.0
0.760133 0.031708 -0.004911 0.0
4.329630 1.930659 -0.003518 0.0
2.742083 0.366301 0.001632 0.0
3.626541 1.634077 -0.001705 0.0
4.033784 1.552993 -0.002959 0.0
2.766744 1.270934 0.004265 0.0
0.668046 1.446668 0.001919 0.0
3.633206 0.502615 -0.000310 0.0
2.853416 1.694483 -0.001797 0.0
4.726937 1.313204 0.000956 0.0
3.953319 0.629501 -0.001160 0.0
4.319293 0.438567 0.000723 0.0
2.375877 1.593817 -0.000150 0.0
3.246755 1.127992 0.003832 0.0
4.788672 0.243062 -0.001029 0.0
4.673140 1.945667 0.002024 0.0
4.419648 0.803887 0.001211 0.0
2.027944 0.198862 -0.000201 0.0
2.930047 1.550644 -0.006976 0.0
4.104017 0.004419 -0.004271 0.0
2.989800 1.730904 -0.003646 0.0
2.266066 0.710570 -0.003413 0.0
3.537080 0.082677 -0.006095 0.0
1.395020 2.021794 0.001994 0.0
3.718582 0.509794 -0.000214 0.0
2.732501 0.168793 0.000400 0.0
3.239442 0.956130 0.005009 0.0
2.206450 1.466111 0.002585 0.0
3.760985 0.642169 -0.000391 0.0
1.492514 0.060829 -0.001210 0.0
4.299337 1.494243 -0.001502 0.0
3.986567 0.309327 -0.006427 0.0
0.268268 0.850456 -0.000310 0.0
2.327989 1.547365 0.001276 0.0
1.560459 0.162494 -0.002913 0.0
1.765772 0.916279 0.002087 0.0
1.723457 0.309894 -0.000609 0.0
4.566131 1.450389 0.000479 0.0
4.072263 1.028761 -0.000123 0.0
1.938016 0.417731 0.002319 0.0
0.524558 0.647469 0.002448 0.0
2.971793 2.008558 -0.002878 0.0
2.330903 1.809322 -0.002167 0.0
1.417506 0.464400 0.000084 0.0
0.657895 1.317598 0.000199 0.0
1.442087 1.167492 -0.003338 0.0
4.477999 0.067049 -0.003219 0.0
1.938390 1.029098 -0.002601 0.0
2.898986 0.788941 0.003435 0.0
4.273792 1.680659 0.004764 0.0
2.853051 1.222764 0.001683 0.0
2.631113 0.313374 0.000849 0.0
0.472010 1.854201 0.000590 0.0
0.256482 1.080710 -0.001282 0.0
4.295176 1.572044 0.000788 0.0
4.390651 1.200908 -0.001495 0.0
2.681969 0.224344 0.001386 0.0
1.432774 0.986567 -0.002688 0.0
4.307681 0.930191 0.000447 0.0
2.738371 1.545862 -0.001032 0.0
3.875911 1.385626 0.003281 0.0
4.336872 0.212851 -0.001520 0.0
3.284030 1.291308 -0.000595 0.0
3.572830 0.195258 0.003709 0.0
1.211478 1.166838 -0.000901 0.0
4.542712 0.555084 0.008697 0.0
2.530988 1.106593 -0.000248 0.0
2.901831 1.697504 -0.002120 0.0
3.077823 0.274619 0.004161 0.0
0.445878 0.869752 -0.001400 0.0
3.270610 0.151617 0.001827 0.0
4.467275 1.095001 -0.004486 0.0
0.888860 1.177247 -0.002056 0.0
3.462924 2.043555 0.003435 0.0
0.684485 0.024066 -0.003275 0.0
3.652104 0.841871 0.001492 0.0
3.592666 0.763264 0.003859 0.0
3.580443 0.291650 0.001094 0.0
0.416605 0.661506 0.007302 0.0
2.868897 0.244639 -0.004782 0.0
1.927728 1.871558 -0.000432 0.0
0.623749 1.437557 -0.001341 0.0
3.529635 1.883307 0.000110 0.0
2.720695 1.333693 -0.004858 0.0
1.197509 1.116343 0.000901 0.0
0.620775 0.311059 0.002270 0.0
0.085179 1.350713 -0.003959 0.0
1.017250 0.268254 0.003504 0.0
2.291053 0.951730 0.002061 0.0
1.913283 0.074442 0.000529 0.0
3.728335 2.016626 -0.002934 0.0
2.281523 0.944352 0.002004 0.0
1.631819 1.135971 0.002277 0.0
1.797528 1.205362 -0.001401 0.0
4.187419 1.914483 -0.001416 0.0
1.822193 2.039712 -0.005324 0.0
3.237332 0.558200 0.002394 0.0
1.303584 0.952409 -0.003106 0.0
0.891462 1.617985 0.006117 0.0
4.437799 1.140042 -0.001849 0.0
0.418042 0.914771 0.003014 0.0
2.534930 1.212243 -0.002234 0.0
3.122389 1.237266 -0.001963 0.0
2.539137 1.520199 0.003669 0.0
0.668754 1.564629 0.002002 0.0
3.050049 0.121709 0.000803 0.0
2.425258 1.295717 0.003078 0.0
4.132736 1.061489 0.000228 0.0
2.127821 2.055812 -0.004815 0.0
3.408619 0.866338 -0.002320 0.0
2.541854 1.896872 -0.003823 0.0
4.508847 0.480396 0.000427 0.0
1.022543 0.267104 0.000684 0.0
0.264586 0.212489 -0.001478 0.0
1.053738 0.854672 0.000453 0.0
2.550244 0.310822 0.001774 0.0
3.389637 1.318875 0.000436 0.0
3.222114 1.715082 0.006036 0.0
2.659021 0.260264 0.001441 0.0
1.787812 2.035567 -0.000575 0.0
1.423878 1.111949 -0.001984 0.0
3.535229 0.342982 0.001657 0.0
3.967477 0.495403 -0.000870 0.0
1.162039 1.834674 0.000684 0.0
2.642675 1.077085 0.000755 0.0
1.312103 0.016981 0.001462 0.0
2.381703 1.669219 -0.002603 0.0
0.386030 0.311660 0.000684 0.0
1.769024 0.008825 -0.000889 0.0
0.811344 1.187797 0.001937 0.0
3.751043 0.707157 -0.000871 0.0
1.596343 1.336354 0.001886 0.0
2.342846 0.965792 0.001049 0.0
4.508146 0.512849 -0.001470 0.0
3.302068 1.935163 -0.001643 0.0
2.892991 0.465067 -0.000883 0.0
3.004651 0.893288 -0.001253 0.0
1.731371 1.525261 0.001032 0.0
2.090181 0.337148 -0.001854 0.0
4.191066 0.873418 0.001455 0.0
3.537928 0.125486 -0.003027 0.0
3.784014 1.865931 -0.002636 0.0
3.773722 1.865346 0.002386 0.0
4.004055 0.144640 0.002543 0.0
1.562357 0.582386 0.002631 0.0
1.707365 1.446417 0.001010 0.0
2.511023 1.906971 0.003732 0.0
4.634156 0.244955 -0.000625 0.0
4.322120 0.229286 0.002690 0.0
1.681337 0.117873 -0.002784 0.0
1.629914 1.710747 -0.000829 0.0
3.686019 0.943064 0.000444 0.0
1.731600 1.938792 0.000816 0.0
2.530765 0.581828 0.000594 0.0
1.732520 1.738129 0.002241 0.0
4.425939 0.419941 -0.003926 0.0
2.925009 0.423751 -0.000618 0.0
2.651683 0.789785 0.000111 0.0
3.397098 2.025151 0.002597 0.0
0.671054 1.236092 -0.002842 0.0
1.046122 1.163106 0.000009 0.0
2.554614 0.774489 0.002285 0.0
3.478463 0.030126 0.001762 0.0
1.588368 0.747774 0.000746 0.0
4.757423 1.946547 -0.004641 0.0
4.499637 0.037925 0.000167 0.0
3.657444 0.864353 -0.001046 0.0
1.793717 0.469270 -0.000421 0.0
4.268221 0.493969 0.000699 0.0
2.746638 1.709753 0.000584 0.0
3.087978 0.259018 0.001630 0.0
4.338317 1.039694 -0.000320 0.0
4.245780 1.601141 -0.004663 0.0
0.792218 1.715688 0.002308 0.0
4.400671 0.256578 -0.000407 0.0
3.759860 0.677272 -0.000263 0.0
2.412910 1.547348 0.002380 0.0
1.078271 1.913871 0.001620 0.0
2.656990 2.056409 -0.004808 0.0
1.180864 1.528355 -0.002013 0.0
3.538722 0.990706 0.003945 0.0
4.111932 0.452310 -0.001272 0.0
2.185337 0.276039 -0.002426 0.0
0.054818 2.057237 0.002790 0.0
3.179649 2.030257 -0.002541 0.0
2.049693 1.161810 -0.001556 0.0
1.366183 0.364553 0.001177 0.0
0.965802 0.438660 -0.001133 0.0
2.728300 0.119362 0.000371 0.0
1.721530 0.405533 0.001544 0.0
3.231518 1.543860 -0.001055 0.0
2.786453 1.268700 0.003140 0.0
2.999939 1.273022 0.003690 0.0
2.015296 2.051033 0.001735 0.0
0.846663 1.967360 -0.000337 0.0
1.660089 0.052648 -0.001536 0.0
2.403782 0.899944 -0.001906 0.0
1.462708 1.382306 -0.005229 0.0
4.631437 1.390912 0.001337 0.0
4.116480 0.387869 -0.003655 0.0
3.602672 1.669372 -0.004151 0.0
3.338664 0.839422 0.005590 0.0
3.062424 0.615473 -0.000879 0.0
0.298355 0.799363 0.003068 0.0
4.094313 1.222304 0.000209 0.0
2.580174 0.460650 -0.004338 0.0
3.387631 0.419950 -0.003314 0.0
1.789870 0.833754 0.002168 0.0
1.772397 1.400990 -0.003444 0.0
0.681968 1.508219 -0.001555 0.0
1.930314 0.730925 0.001747 0.0
1.465475 1.363280 -0.001089 0.0
1.091151 1.486081 0.000720 0.0
0.079629 1.826751 0.002056 0.0
3.853618 0.918790 -0.001840 0.0
3.975984 0.575045 -0.002858 0.0
3.332990 1.169859 -0.005123 0.0
2.982413 0.405970 -0.004834 0.0
4.571158 1.926514 0.002706 0.0
3.914507 1.611637 -0.000130 0.0
0.822674 1.313884 -0.001452 0.0
0.322598 0.916745 0.001567 0.0
4.653382 1.709442 0.001263 0.0
3.783327 0.812096 -0.003481 0.0
0.129380 0.668559 0.002976 0.0
2.284159 1.808005 0.003022 0.0
3.680536 1.326330 -0.002339 0.0
3.633114 0.759721 -0.000119 0.0
2.801903 1.109703 -0.002915 0.0
2.348457 0.605390 -0.000507 0.0
0.283604 0.274274 -0.001369 0.0
3.999217 1.244544 0.003546 0.0
4.505227 0.504407 -0.002326 0.0
4.319993 1.440261 -0.003162 0.0
2.040924 0.151344 -0.003499 0.0
3.945957 1.999139 -0.001051 0.0
0.530969 0.092287 -0.000337 0.0
2.636042 0.787278 0.001583 0.0
0.187252 0.395102 0.001920 0.0
3.173129 1.377005 0.005124 0.0
2.770035 1.075521 0.000786 0.0
1.683853 1.656327 -0.001874 0.0
4.369177 0.061757 -0.003639 0.0
2.836319 0.436471 -0.003405 0.0
0.145213 1.873588 -0.002478 0.0
1.020168 0.445850 0.002856 0.0
4.219091 0.446028 0.000193 0.0
1.595102 0.260600 0.002345 0.0
3.381119 1.159429 0.000820 0.0
4.209314 1.347176 -0.003630 0.0
3.992416 0.544189 -0.000892 0.0
1.773412 0.405138 -0.000343 0.0
0.956182 1.387755 0.002476 0.0
2.819610 1.781226 -0.000923 0.0
4.661587 1.347824 -0.000068 0.0
0.710935 1.186587 -0.001670 0.0
1.621817 1.885494 -0.001519 0.0
4.215280 0.245137 0.003074 0.0
1.368965 1.718451 -0.000210 0.0
1.619252 0.794247 0.001141 0.0
0.143421 0.128680 -0.000749 0.0
4.552892 0.661211 0.001022 0.0
4.356441 1.206124 -0.003803 0.0
0.396359 0.361108 -0.003541 0.0
1.621942 1.863444 -0.001109 0.0
3.681172 0.217087 0.000567 0.0
0.681238 0.957241 0.000502 0.0
3.274683 1.155956 0.005103 0.0
1.113183 1.203042 0.000998 0.0
1.938717 1.922924 0.003467 0.0
4.058424 1.121159 0.004631 0.0
1.739415 0.447954 -0.002649 0.0
2.585001 0.443348 -0.003599 0.0
4.046106 1.833071 -0.002014 0.0
3.168938 1.511797 -0.000535 0.0
4.772128 0.320362 0.003332 0.0
3.984747 1.649623 -0.001327 0.0
0.118282 0.474904 0.002988 0.0
2.603931 1.839550 0.000808 0.0
1.442814 1.881946 0.003498 0.0
2.136515 0.046020 0.002195 0.0
3.878250 0.605151 0.001364 0.0
4.539501 1.969393 -0.000535 0.0
0.996312 0.754686 0.001219 0.0
4.589611 1.946477 -0.003700 0.0
0.859449 0.877352 -0.002982 0.0
1.478866 1.659539 -0.001821 0.0
4.757446 0.384347 0.000800 0.0
3.643452 0.195424 -0.002423 0.0
4.490995 1.899506 -0.001174 0.0
2.520474 0.591142 0.001977 0.0
0.060009 1.327396 -0.002755 0.0
4.478572 1.968178 -0.000769 0.0
1.408435 0.503976 0.004077 0.0
3.062715 1.682934 -0.000980 0.0
0.021715 1.487057 -0.001847 0.0
1.390428 1.123718 0.005726 0.0
1.064857 0.269319 0.003067 0.0
4.301133 0.151306 0.000540 0.0
4.598665 0.700656 -0.000135 0.0
1.288912 1.899853 0.001329 0.0
0.289916 0.362530 0.001941 0.0
1.978168 1.117598 -0.001573 0.0
2.689454 0.758179 0.000139 0.0
4.016617 1.757147 0.000642 0.0
3.805640 1.829201 0.001048 0.0
0.746105 1.035574 -0.000914 0.0
3.236610 1.861126 0.001574 0.0
1.276366 1.032758 0.002216 0.0
4.637443 0.972610 0.001370 0.0
3.214340 1.588039 0.002621 0.0
2.002605 1.548651 -0.002788 0.0
1.455520 0.803530 -0.001939 0.0
4.240354 0.529468 -0.000762 0.0
1.025761 0.366809 0.003914 0.0
0.047370 0.363758 0.000726 0.0
0.230216 0.821698 0.000710 0.0
3.952093 0.775602 0.003230 0.0
0.242170 0.541538 -0.004458 0.0
2.839395 0.019934 -0.001996 0.0
0.363645 0.654695 -0.001181 0.0
3.047574 1.594709 0.001195 0.0
1.667313 1.533311 0.005681 0.0
4.266540 1.409579 0.000582 0.0
0.154937 0.522723 0.001075 0.0
0.789329 0.293826 -0.000723 0.0
3.892463 1.359954 0.004214 0.0
0.022423 0.287725 0.001434 0.0
1.169108 0.583399 -0.000148 0.0
4.318277 1.040327 -0.002941 0.0
2.455137 0.197360 -0.003757 0.0
3.627414 0.387671 -0.001777 0.0
1.839419 0.572119 -0.001175 0.0
0.093120 1.264849 -0.001978 0.0
3.692234 0.945319 -0.000144 0.0
4.226602 1.726443 0.000347 0.0
3.921780 1.808727 0.002024 0.0
3.576199 0.667243 0.003285 0.0
0.004815 1.577049 -0.000387 0.0
4.296652 2.057755 0.001243 0.0
4.622137 0.339308 -0.000994 0.0
0.102794 1.477808 0.002794 0.0
4.740149 1.466578 -0.000391 0.0
1.869746 0.464613 -0.000875 0.0
1.843812 0.741584 0.002412 0.0
4.262347 1.162331 0.002897 0.0
2.076732 0.540748 -0.002032 0.0
3.074832 0.004644 -0.002759 0.0
3.172377 0.471328 -0.002629 0.0
3.679137 2.000753 0.001225 0.0
2.675881 0.865165 -0.000547 0.0
1.655577 1.540996 -0.000580 0.0
1.864264 0.347250 -0.000287 0.0
0.482082 1.206174 -0.000493 0.0
2.926673 0.110472 -0.000778 0.0
4.579978 2.007066 -0.001771 0.0
0.479371 0.329340 -0.000268 0.0
2.113779 1.517797 -0.003822 0.0
1.538919 1.717054 -0.004484 0.0
1.901899 0.986819 -0.003585 0.0
2.180553 0.140813 -0.001643 0.0
1.169074 0.923527 0.000043 0.0
0.761767 0.481700 -0.005055 0.0
1.046005 0.032478 0.000429 0.0
3.268154 0.820486 0.000001 0.0
1.518150 0.306755 0.002918 0.0
1.311841 0.405644 0.000527 0.0
3.435980 0.630444 0.002494 0.0
1.256848 0.775145 0.004672 0.0
3.048088 1.531019 0.001268 0.0
0.516638 1.507940 0.001861 0.0
2.686582 0.247952 0.001540 0.0
2.431976 1.371103 0.006152 0.0
0.467221 0.929581 0.008449 0.0
4.403706 0.637195 0.003530 0.0
2.468518 1.964322 0.004405 0.0
1.335868 0.275181 0.001573 0.0
3.767840 2.025884 0.001027 0.0
1.439586 0.246949 -0.002674 0.0
1.275577 1.557421 -0.004891 0.0
4.572527 0.695975 0.001248 0.0
3.932397 0.224060 -0.003650 0.0
3.739643 1.747788 0.001210 0.0
3.488142 1.175743 0.000709 0.0
4.545096 0.645629 -0.000144 0.0
2.758401 0.876064 -0.000403 0.0
0.855888 1.582079 -0.000599 0.0
2.229599 0.669565 -0.002311 0.0
3.069331 1.641966 0.004107 0.0
4.505426 0.033380 0.000907 0.0
4.204203 0.650804 0.000756 0.0
0.788481 0.948911 0.001038 0.0
1.423918 0.225394 -0.002178 0.0
0.809699 1.625198 -0.003141 0.0
0.375280 0.868511 -0.003053 0.0
3.550594 1.784083 -0.001324 0.0
3.487711 1.243533 -0.000224 0.0
4.228218 1.518221 -0.000301 0.0
0.317482 1.288610 -0.001365 0.0
0.660129 0.592112 -0.002051 0.0
0.089894 1.815249 -0.002183 0.0
0.700311 0.546220 0.003865 0.0
3.586373 0.918423 -0.000027 0.0
2.213082 1.626136 0.001694 0.0
0.328008 1.925750 -0.000470 0.0
4.436614 1.599840 0.000528 0.0
3.251972 0.482992 -0.000412 0.0
4.543164 1.864123 0.002029 0.0
2.339979 1.115745 -0.001695 0.0
2.618584 0.717182 -0.002004 0.0
1.759828 0.864622 0.000868 0.0
1.589254 1.051916 0.002633 0.0
2.119692 2.031919 -0.002430 0.0
0.365935 2.013029 0.001312 0.0
3.807917 1.746722 0.000053 0.0
0.629627 1.210394 0.002308 0.0
0.232321 1.640345 0.000268 0.0
3.379818 0.440877 0.001100 0.0
2.869838 0.314799 0.000288 0.0
1.494655 0.502182 -0.000489 0.0
4.243171 0.748406 0.000074 0.0
2.666399 0.870650 0.000505 0.0
2.913725 0.133595 0.003951 0.0
3.112048 0.845352 -0.005513 0.0
4.435232 1.470741 0.002720 0.0
4.334447 1.674455 -0.000624 0.0
1.990019 1.226871 0.001054 0.0
4.782079 1.506970 -0.002371 0.0
4.028347 1.108066 -0.002508 0.0
0.947294 0.526510 0.000924 0.0
4.419165 1.839602 -0.003234 0.0
2.328101 0.891827 -0.001044 0.0
4.616184 0.581187 0.000115 0.0
1.066408 0.335193 -0.004595 0.0
3.277959 1.668208 0.000513 0.0
0.494152 0.396222 0.001444 0.0
2.867194 1.797052 0.003728 0.0
0.291753 0.830937 -0.003854 0.0
4.005302 0.908577 -0.002584 0.0
3.872946 0.989454 0.003466 0.0
2.311918 0.214511 0.000895 0.0
0.904863 1.070919 0.000810 0.0
1.193685 0.783884 0.000943 0.0
2.594399 0.822486 0.001783 0.0
1.059451 0.860043 -0.002082 0.0
1.974046 1.329336 0.001022 0.0
1.384593 1.809791 -0.002103 0.0
4.006434 1.285931 0.000598 0.0
3.678979 0.231304 0.001238 0.0
4.485454 0.624748 0.002084 0.0
2.302205 0.486767 0.003383 0.0
3.918669 1.653729 -0.000730 0.0
3.111479 1.204673 -0.001990 0.0
1.631584 2.033822 -0.004049 0.0
3.660400 1.526530 -0.002098 0.0
4.111647 0.310416 -0.000115 0.0
2.827184 0.534276 0.004151 0.0
0.641903 0.142742 -0.000251 0.0
2.666784 1.189279 -0.000237 0.0
1.265493 0.393434 -0.005320 0.0
2.481859 1.810982 -0.001634 0.0
4.537278 1.377890 0.002952 0.0
0.289774 0.310985 -0.002178 0.0
0.421096 0.325640 0.000544 0.0
3.339213 1.535670 -0.002763 0.0
1.624866 1.991930 -0.001351 0.0
3.639288 1.968798 -0.006166 0.0
0.995107 1.032538 -0.001650 0.0
4.615300 1.416277 0.000567 0.0
4.325678 0.296195 0.001778 0.0
1.073557 1.451000 -0.000277 0.0
0.559718 1.372337 0.000657 0.0
1.697486 0.151430 -0.001949 0.0
0.255986 0.133445 0.002884 0.0
4.224465 1.089416 0.000968 0.0
3.438551 0.894927 0.001616 0.0
1.816300 1.098127 0.003420 0.0
3.218282 0.968029 0.002097 0.0
3.763474 0.930613 -0.000072 0.0
2.319958 1.799702 0.001606 0.0
0.884157 1.177564 0.000789 0.0
4.000265 0.839614 0.004539 0.0
4.330540 1.743003 0.002199 0.0
2.360429 1.034128 0.000090 0.0
0.319283 1.936097 -0.001501 0.0
4.255516 1.268819 0.001399 0.0
2.225183 2.022022 0.002252 0.0
1.154225 2.015635 0.003162 0.0
0.738865 0.978045 -0.001439 0.0
1.284047 1.649093 -0.000349 0.0
2.984152 1.754881 -0.004745 0.0
1.483317 0.602535 -0.001349 0.0
4.705374 1.604372 -0.005032 0.0
1.228989 0.867052 0.000434 0.0
0.304865 0.729833 -0.002711 0.0
1.755893 1.284308 0.001793 0.0
3.297960 0.236835 -0.001731 0.0
2.013272 1.285202 -0.001955 0.0
0.857093 1.374750 -0.001452 0.0
0.396979 1.652996 -0.000931 0.0
3.826153 0.521654 -0.001161 0.0
0.917574 1.441321 0.004189 0.0
1.330121 1.351940 0.001280 0.0
2.075567 1.073097 -0.001398 0.0
1.760434 1.573379 0.000745 0.0
4.283562 0.565922 0.002703 0.0
3.231597 0.011632 0.000201 0.0
0.047065 1.818849 0.002365 0.0
0.834396 1.743398 0.001854 0.0
4.694464 0.452207 -0.004557 0.0
3.141291 1.085947 -0.000578 0.0
0.373168 1.336281 0.001652 0.0
1.500927 0.393605 0.000125 0.0
2.066986 1.512261 -0.004568 0.0
4.340201 1.051906 0.003420 0.0
1.172433 0.053928 -0.000376 0.0
1.416486 2.001655 -0.001637 0.0
4.193554 0.691982 0.001444 0.0
1.186763 0.878896 -0.001147 0.0
0.809677 0.080250 -0.003347 0.0
2.088491 2.022221 -0.000403 0.0
0.224267 0.186051 0.000688 0.0
4.463872 0.296450 0.001563 0.0
1.830173 1.783988 0.004053 0.0
3.312102 1.827242 -0.000564 0.0
4.792457 1.816265 -0.002726 0.0
4.657120 0.220926 0.001682 0.0
0.554516 1.611122 -0.001008 0.0
1.886115 0.127311 0.000088 0.0
1.890759 1.265651 0.001023 0.0
3.515009 1.407505 0.001711 0.0
3.799969 1.624135 0.004079 0.0
2.994918 1.645248 -0.001613 0.0
2.029010 1.988313 -0.004851 0.0
4.438428 0.259132 0.000714 0.0
3.126058 1.236222 -0.001072 0.0
0.213230 1.157222 -0.001311 0.0
1.470259 1.255392 -0.002891 0.0
2.636361 2.049695 0.003162 0.0
4.552023 0.375856 0.004256 0.0
3.743637 1.817300 0.001903 0.0
4.459145 1.880688 -0.000863 0.0
3.972387 1.745965 -0.000117 0.0
2.081068 1.090716 -0.000721 0.0
4.611431 1.129480 -0.003667 0.0
1.859111 1.140951 -0.001524 0.0
3.124645 1.210120 0.002049 0.0
3.406781 0.599030 -0.001626 0.0
1.729551 0.094617 -0.002375 0.0
3.240044 1.806495 0.001561 0.0
4.401552 0.523567 -0.008611 0.0
2.968783 0.620938 0.002298 0.0
0.549316 1.870941 -0.004823 0.0
1.244410 2.048796 -0.000527 0.0
3.611378 1.035241 -0.001696 0.0
2.901832 0.727719 -0.001590 0.0
1.356116 1.233460 0.001943 0.0
3.814811 0.388131 -0.001036 0.0
4.474913 0.732905 0.000031 0.0
2.690202 2.038881 -0.000144 0.0
2.518731 0.385091 -0.003171 0.0
3.791660 0.462112 -0.000653 0.0
4.140246 1.035850 0.003928 0.0
3.132887 1.642719 0.007409 0.0
2.752229 0.789221 -0.000261 0.0
1.495689 1.759852 -0.002428 0.0
3.090536 1.450094 -0.003807 0.0
4.749340 0.892767 -0.002620 0.0
2.182029 1.726964 0.003155 0.0
4.092607 0.700520 -0.001953 0.0
0.669507 1.464918 0.001636 0.0
4.731040 1.069657 0.000090 0.0
4.468219 0.932865 0.001814 0.0
3.214808 0.167963 -0.000367 0.0
1.997850 1.202336 -0.005801 0.0
0.029416 2.000910 0.001595 0.0
1.739998 1.668859 -0.003616 0.0
2.994061 1.908748 0.001522 0.0
1.672833 1.409822 -0.002576 0.0
4.247995 0.748269 0.001962 0.0
3.822715 1.191758 0.000854 0.0
1.063360 1.058524 0.003998 0.0
3.694566 1.668680 0.002071 0.0
4.201872 0.576146 0.002563 0.0
1.954333 0.682326 0.008464 0.0
0.090016 0.547038 -0.000302 0.0
1.177981 1.046312 -0.000664 0.0
0.310897 1.615979 -0.001963 0.0
0.163855 1.207264 -0.000703 0.0
3.341515 0.269807 -0.001065 0.0
1.157827 1.801327 -0.003078 0.0
1.257616 1.371242 -0.001203 0.0
2.553435 0.228765 -0.006183 0.0
4.531648 1.879181 0.003439 0.0
1.696723 0.287629 -0.000390 0.0
4.234656 1.937129 -0.003360 0.0
1.447167 0.642127 -0.000889 0.0
1.164832 1.468761 0.001969 0.0
1.782485 1.473424 -0.000745 0.0
3.320243 0.724952 -0.002319 0.0
4.377325 0.067053 -0.001179 0.0
2.010361 0.893680 0.003734 0.0
0.104886 0.328635 -0.004049 0.0
3.689432 1.960996 0.005472 0.0
2.224891 1.336311 -0.004269 0.0
3.109582 0.434466 -0.001264 0.0
2.034458 0.475472 -0.004981 0.0
3.061451 0.690399 -0.001234 0.0
2.883061 1.419764 0.000294 0.0
4.714511 1.121119 0.000533 0.0
4.008822 0.313708 -0.002541 0.0
3.918220 0.473303 -0.002164 0.0
2.223826 0.078388 -0.001779 0.0
1.838719 1.042600 0.002295 0.0
1.444327 1.524091 0.004082 0.0
4.046339 0.717104 0.001501 0.0
2.762763 1.963215 -0.004444 0.0
0.121131 1.434403 0.000346 0.0
0.307331 1.453452 -0.000953 0.0
1.205105 0.814036 0.004315 0.0
2.182953 0.760699 -0.000571 0.0
3.280647 0.173142 -0.001132 0.0
1.427015 1.199305 -0.001244 0.0
0.740090 1.073979 0.004361 0.0
4.252488 0.119915 -0.001490 0.0
2.192411 1.711959 0.002642 0.0
4.330612 0.988922 -0.000204 0.0
4.586217 1.052876 -0.000110 0.0
0.687530 0.637106 -0.002262 0.0
1.749159 0.196443 0.001182 0.0
2.148420 1.214490 -0.002391 0.0
0.818697 1.038550 -0.001852 0.0
2.358869 1.475339 0.001893 0.0
0.792519 0.150688 -0.001684 0.0
3.886077 1.725978 0.001740 0.0
4.415860 1.096584 0.001291 0.0
2.167329 0.241986 0.000849 0.0
0.889735 0.335378 0.001009 0.0
2.861556 0.086658 -0.001550 0.0
2.189816 1.153632 0.001606 0.0
4.452610 2.054316 0.004186 0.0
4.635940 0.061770 0.000907 0.0
1.990818 0.471779 -0.002386 0.0
4.176806 1.376198 -0.001847 0.0
1.996848 0.634520 -0.003965 0.0
3.439034 1.402532 0.000330 0.0
1.824641 0.411360 -0.004546 0.0
3.648209 1.153401 -0.000645 0.0
0.438805 1.748679 -0.002586 0.0
1.735776 1.340235 0.003519 0.0
1.054595 1.251809 0.001729 0.0
1.988604 1.479145 0.002235 0.0
1.781242 0.132617 0.002429 0.0
2.532037 0.343565 -0.001027 0.0
2.833074 0.736494 0.000236 0.0
0.967650 1.366457 0.003168 0.0
2.327429 0.152488 0.002711 0.0
1.205230 1.837851 0.003262 0.0
2.680653 0.065165 -0.003342 0.0
4.267321 1.235022 0.005811 0.0
0.298725 1.715777 0.002294 0.0
1.543560 0.702116 0.000634 0.0
0.322067 1.000089 0.002579 0.0
3.409360 2.050594 0.001091 0.0
1.446327 0.378222 -0.001349 0.0
2.417934 0.201122 -0.000519 0.0
0.483959 0.638731 -0.004222 0.0
0.069936 1.236601 0.005641 0.0
1.023773 0.816360 -0.000550 0.0
3.267164 1.363095 -0.001101 0.0
2.977778 1.199375 -0.002526 0.0
0.033477 1.431442 0.004009 0.0
1.616952 0.916828 0.004579 0.0
2.530631 0.899561 -0.001053 0.0
3.968822 0.291277 -0.001567 0.0
0.054494 0.714878 -0.003738 0.0
3.963108 0.817771 0.002817 0.0
4.059797 0.639682 0.001653 0.0
1.730577 1.273372 0.002542 0.0
0.519532 2.052328 -0.000213 0.0
0.244970 0.270584 -0.000921 0.0
0.212374 0.432067 -0.002694 0.0
4.470023 1.463855 0.004671 0.0
4.589009 1.924144 -0.003172 0.0
2.394361 1.086598 0.001216 0.0
3.462645 1.371059 -0.006145 0.0
1.451366 1.081304 0.001938 0.0
2.192516 1.739426 -0.003529 0.0
4.126364 0.623002 0.000460 0.0
1.584183 1.593046 -0.002406 0.0
2.821548 1.129802 -0.004340 0.0
2.181746 0.858379 -0.000924 0.0
2.808938 0.759811 -0.000094 0.0
0.716371 0.859083 0.004213 0.0
4.798138 1.775163 -0.001033 0.0
3.695740 1.609041 -0.001038 0.0
1.334030 0.618555 0.002831 0.0
0.898217 1.745786 0.001739 0.0
4.641198 1.699011 0.003128 0.0
1.522547 0.927715 -0.002213 0.0
3.646152 1.789722 -0.004394 0.0
2.082326 1.031893 -0.000965 0.0
0.526294 1.852111 0.002979 0.0
2.430432 0.002402 0.002372 0.0
0.490247 1.828361 -0.000852 0.0
4.781090 0.165216 -0.001442 0.0
1.259894 0.007544 0.001525 0.0
1.305657 0.667193 -0.001117 0.0
1.816150 0.304401 0.000885 0.0
3.957872 0.767194 -0.002703 0.0
1.427952 0.114948 -0.001820 0.0
4.132940 1.190298 0.001885 0.0
1.500222 0.843531 0.000404 0.0
2.259299 0.001722 0.003575 0.0
0.068361 2.055893 -0.001742 0.0
4.742042 0.717304 -0.000276 0.0
2.882088 0.001762 -0.000127 0.0
1.636587 0.595735 0.003654 0.0
4.661720 0.234907 0.001014 0.0
3.980664 0.633928 -0.000439 0.0
1.865812 0.800154 0.001200 0.0
3.331262 1.520686 -0.003628 0.0
2.096579 0.776666 -0.000816 0.0
2.745823 0.136715 -0.000704 0.0
2.043678 0.593545 -0.000228 0.0
4.409593 1.062174 0.002375 0.0
2.617337 1.205797 -0.000091 0.0
1.607924 1.030853 -0.000286 0.0
1.547020 0.809612 -0.004467 0.0
0.573428 1.018114 0.000263 0.0
4.156860 1.257631 0.001322 0.0
1.646960 2.009569 0.000146 0.0
1.156688 1.269161 -0.003473 0.0
4.145474 1.667188 -0.000926 0.0
0.481842 1.163673 0.002130 0.0
4.258587 1.641249 0.003120 0.0
4.062028 0.290544 -0.002720 0.0
4.604575 1.652343 0.002394 0.0
3.569841 1.987970 -0.002253 0.0
2.168984 1.205689 0.000494 0.0
0.644708 0.401119 -0.000448 0.0
1.898985 0.121838 -0.004018 0.0
0.875988 0.118665 -0.002475 0.0
3.772799 1.140966 0.003848 0.0
2.638474 1.921915 0.001095 0.0
3.244507 1.042281 -0.002820 0.0
0.635384 1.839761 0.000842 0.0
3.408223 0.966995 0.002620 0.0
1.655965 0.472324 0.001267 0.0
2.909753 1.923722 -0.000082 0.0
3.665240 0.848963 0.002847 0.0
4.680013 1.622346 0.002437 0.0
3.597259 1.969533 -0.001647 0.0
4.670058 1.963649 0.000377 0.0
3.099834 1.956518 -0.003603 0.0
0.614926 1.587400 0.000610 0.0
0.371274 1.376617 -0.001723 0.0
3.703309 1.808471 -0.001370 0.0
2.434303 0.740679 -0.002020 0.0
2.203474 0.011832 -0.002680 0.0
4.112757 1.940157 0.000204 0.0
3.232784 1.813447 0.003279 0.0
0.572787 1.914213 0.000287 0.0
0.492014 1.856568 0.000790 0.0
4.455783 1.315853 -0.003366 0.0
2.204995 0.496323 -0.004265 0.0
2.416394 1.442716 0.002129 0.0
0.898223 1.407856 -0.000790 0.0
2.674530 0.418750 -0.000652 0.0
0.718277 0.995310 -0.002812 0.0
3.328094 0.082239 0.002286 0.0
4.593249 1.332839 -0.002620 0.0
3.286462 1.229526 -0.001297 0.0
4.153561 0.340169 -0.001636 0.0
3.326131 1.600446 -0.002108 0.0
1.699706 1.614801 0.001966 0.0
1.801796 1.253656 0.001846 0.0
0.152161 1.443997 -0.003734 0.0
4.391475 0.565258 0.005423 0.0
0.149007 1.032540 0.001924 0.0
1.608312 1.960925 0.003087 0.0
1.129728 1.420962 0.001306 0.0
0.579322 1.126815 -0.001801 0.0
3.891305 0.255176 0.000448 0.0
4.290164 1.011880 -0.001139 0.0
4.740082 1.429595 0.000303 0.0
2.286178 1.318833 -0.004282 0.0
2.579739 0.613173 -0.002124 0.0
4.727698 1.251253 0.001540 0.0
4.771511 0.420153 -0.000316 0.0
1.129570 1.266590 0.001977 0.0
3.035650 0.694064 -0.004767 0.0
0.796865 1.161686 0.000766 0.0
3.975576 0.266750 0.002630 0.0
0.339661 0.986303 0.000542 0.0
1.020851 1.866004 -0.000554 0.0
2.416662 0.970420 0.000799 0.0
3.563214 0.907918 -0.002026 0.0
2.962621 1.495739 0.001198 0.0
1.920526 1.448058 0.002200 0.0
2.258917 0.772721 0.005732 0.0
4.111690 2.008529 -0.001140 0.0
1.176740 1.893435 0.003121 0.0
0.993389 0.429486 0.002738 0.0
4.476256 0.317788 -0.001747 0.0
4.412284 0.267023 0.000602 0.0
0.183434 0.116443 -0.002450 0.0
2.200217 1.232071 0.003063 0.0
1.743525 0.421377 0.001991 0.0
3.074793 1.288579 -0.005982 0.0
2.993946 1.737301 0.004304 0.0
2.973028 0.189283 0.003601 0.0
2.357815 0.882845 -0.002554 0.0
4.619251 1.918248 0.003595 0.0
1.088073 0.440985 0.003606 0.0
3.992493 0.230744 -0.003336 0.0
2.857166 1.018842 -0.001207 0.0
4.275822 0.922662 -0.001290 0.0
0.102668 1.136223 -0.002700 0.0
1.193949 1.290845 -0.000441 0.0
1.509471 1.506587 -0.001038 0.0
2.720611 0.590846 -0.005363 0.0
1.860300 2.056724 -0.001906 0.0
3.932880 1.512762 -0.000594 0.0
4.454152 0.126626 0.003792 0.0
2.022581 1.243697 -0.002581 0.0
3.971356 1.896921 -0.000520 0.0
3.184352 0.786590 0.001627 0.0
2.153896 1.244768 0.000608 0.0
1.112323 2.018181 -0.001360 0.0
4.023984 0.668831 0.004240 0.0
0.153275 1.244436 0.002318 0.0
3.534418 0.361844 0.001979 0.0
1.560974 1.124695 0.002946 0.0
3.802999 1.868936 0.002420 0.0
1.137337 0.764254 0.004512 0.0
0.517053 1.480074 -0.002199 0.0
1.912105 0.717316 -0.003310 0.0
0.880821 0.011820 0.000130 0.0
3.504683 0.893714 0.000405 0.0
3.903252 1.970374 -0.006429 0.0
3.523660 0.785292 0.003135 0.0
1.339974 0.678511 -0.000077 0.0
2.599631 0.280569 -0.003583 0.0
1.965542 1.206587 -0.002440 0.0
2.348163 0.067836 -0.001403 0.0
3.224762 2.034111 -0.003340 0.0
3.766331 0.531938 0.002337 0.0
1.865948 1.037855 0.001399 0.0
1.259749 0.339833 -0.002397 0.0
0.500893 1.710831 -0.000111 0.0
0.609298 0.080189 -0.002225 0.0
1.638825 1.298900 -0.000439 0.0
3.104211 0.277830 0.002495 0.0
2.792553 1.837053 0.004213 0.0
2.534531 1.957201 0.000581 0.0
3.661432 0.627385 -0.000793 0.0
0.717949 0.915732 -0.001531 0.0
2.892467 2.037763 0.002429 0.0
1.628326 1.796191 0.000799 0.0
4.507120 2.005693 -0.001225 0.0
3.943824 0.978670 0.002663 0.0
4.225612 0.363997 0.001830 0.0
3.787930 1.913862 -0.001024 0.0
1.830880 1.430462 -0.000542 0.0
4.124916 0.870794 -0.000751 0.0
3.007403 1.028876 -0.002745 0.0
1.299683 0.995035 0.001072 0.0
2.667184 1.667095 -0.001128 0.0
4.207540 0.377706 -0.000328 0.0
1.988558 1.708634 -0.002144 0.0
2.968525 1.393110 0.001962 0.0
0.454038 0.527865 -0.000587 0.0
3.222816 1.779406 -0.000531 0.0
4.453910 0.563150 0.002179 0.0
3.579426 1.430041 0.001109 0.0
2.020627 1.110729 -0.002060 0.0
1.869512 0.485512 0.000675 0.0
0.447079 0.568198 0.001043 0.0
0.124122 0.582302 -0.000174 0.0
3.693594 1.558678 -0.002755 0.0
1.509437 2.057814 0.000983 0.0
3.760598 1.929112 0.000809 0.0
4.541141 2.005628 -0.000582 0.0
1.436434 1.183658 0.004785 0.0
0.987474 1.873631 0.000606 0.0
2.105215 1.794411 -0.002971 0.0
3.191717 1.702250 0.001115 0.0
3.934182 1.685254 0.004129 0.0
1.389626 1.230438 -0.002248 0.0
2.060081 0.769141 -0.000497 0.0
3.454033 0.568188 -0.001369 0.0
0.359474 1.896764 0.000352 0.0
1.666709 1.812966 0.003342 0.0
0.130575 1.875462 -0.002347 0.0
2.525882 1.996895 0.004485 0.0
4.029950 1.100951 0.001089 0.0
1.802139 1.373177 -0.000216 0.0
1.348719 1.976109 -0.000073 0.0
1.093036 1.863715 -0.000247 0.0
4.568563 0.556230 -0.000950 0.0
3.585043 0.389575 -0.001043 0.0
2.258414 1.186693 -0.001756 0.0
2.717110 0.202801 0.001423 0.0
0.347543 1.033243 0.002586 0.0
0.525159 0.151218 0.000167 0.0
4.256730 1.485673 0.000752 0.0
3.337625 1.347836 0.001866 0.0
3.795253 0.387159 0.003012 0.0
3.054986 1.588480 -0.000723 0.0
4.370453 0.581854 -0.003497 0.0
1.621325 0.735689 0.000646 0.0
3.503906 0.828618 0.000402 0.0
2.781577 1.565077 -0.000426 0.0
4.508461 1.778874 0.002419 0.0
4.071727 0.087539 -0.002636 0.0
3.136029 0.321481 0.000153 0.0
0.717040 0.746762 0.000777 0.0
1.176291 0.672583 0.001135 0.0
4.034322 0.059305 -0.003145 0.0
2.851657 0.687510 0.002130 0.0
3.421189 0.091779 -0.002591 0.0
2.004442 0.906081 -0.000978 0.0
1.228576 0.727967 0.001249 0.0
1.088163 1.018321 -0.004695 0.0
0.120001 0.065314 -0.003323 0.0
3.232534 1.498986 -0.001142 0.0
0.614572 1.654073 0.001746 0.0
4.694578 2.033404 -0.000168 0.0
1.159985 0.064531 -0.004244 0.0
4.718587 0.525599 -0.001538 0.0
3.624252 0.686834 0.004583 0.0
1.774584 0.297536 0.000996 0.0
0.043441 1.428126 -0.000033 0.0
2.931127 0.814512 -0.001786 0.0
3.400802 1.485067 -0.001298 0.0
3.600000 0.021349 0.001356 0.0
0.707832 0.279606 -0.004315 0.0
2.416850 0.528958 -0.001618 0.0
2.041053 1.677643 -0.003524 0.0
3.215766 1.860248 0.001692 0.0
1.684188 0.709824 0.000217 0.0
2.420677 1.455066 0.002426 0.0
3.319319 0.546060 -0.003326 0.0
3.878131 1.296596 0.005486 0.0
2.093185 0.007456 -0.000557 0.0
1.424758 1.860619 -0.003855 0.0
0.903238 0.570269 0.002324 0.0
2.217641 0.021073 0.000558 0.0
3.327379 1.865921 0.000112 0.0
2.665102 2.046240 -0.001184 0.0
4.184631 1.600398 -0.000318 0.0
4.598931 1.053004 0.000296 0.0
3.106003 0.757544 -0.002637 0.0
2.842642 0.864328 0.002910 0.0
3.313266 0.025039 0.003281 0.0
1.658783 2.059351 -0.004030 0.0
2.402797 1.236063 -0.000862 0.0
0.258062 1.960074 -0.002861 0.0
4.234092 1.837215 -0.001878 0.0
0.664609 0.543760 -0.000500 0.0
1.216479 0.681216 -0.000148 0.0
1.249734 2.055144 -0.000908 0.0
4.742745 1.042695 0.006422 0.0
4.179010 1.322809 0.002386 0.0
0.479017 0.042817 -0.001615 0.0
4.086362 0.239078 -0.000251 0.0
2.756354 1.119590 0.000621 0.0
3.007954 1.972747 -0.004936 0.0
4.034988 1.399275 -0.001443 0.0
2.736889 0.491038 0.000852 0.0
0.828390 0.205182 0.005971 0.0
3.928866 1.231507 -0.000059 0.0
3.124325 1.857562 -0.000476 0.0
3.111795 0.169793 0.001946 0.0
0.774052 0.108174 -0.000148 0.0
4.260273 1.646321 0.002024 0.0
1.256727 0.694856 -0.001362 0.0
4.288810 0.863314 0.000466 0.0
1.556333 1.242612 0.000123 0.0
1.567148 2.020122 -0.000128 0.0
3.139008 1.441472 -0.001191 0.0
2.518070 0.067800 0.004128 0.0
1.157209 0.236946 -0.001161 0.0
0.192169 1.082853 0.004445 0.0
0.526403 1.699289 0.001651 0.0
0.859213 0.670989 -0.002785 0.0
4.488836 0.594843 -0.001788 0.0
1.434093 0.798331 -0.001022 0.0
0.358194 1.325930 0.000354 0.0
0.842118 0.670808 -0.000683 0.0
1.937366 0.646806 -0.000526 0.0
3.008004 0.960977 0.001758 0.0
3.605170 1.552739 -0.000507 0.0
2.609804 0.556620 0.000537 0.0
3.155260 1.378062 0.000396 0.0
3.087696 0.042305 0.001900 0.0
1.804942 0.952641 -0.001368 0.0
2.261475 0.744021 0.002890 0.0
0.268877 0.804181 0.000909 0.0
3.643560 0.832224 -0.001350 0.0
1.226193 0.252324 -0.000149 0.0
0.628113 1.317609 -0.005617 0.0
1.815873 1.578658 0.000198 0.0
4.045748 0.216609 0.002588 0.0
4.650415 1.247880 -0.000019 0.0
1.951060 1.532162 -0.004985 0.0
4.759635 0.259646 0.000095 0.0
4.242688 2.001595 0.000770 0.0
3.278206 0.844056 -0.000705 0.0
3.359008 1.023677 -0.001745 0.0
1.248305 1.671406 0.001958 0.0
4.480138 0.757824 -0.001333 0.0
0.940790 0.133842 -0.005435 0.0
0.141276 0.390685 -0.005564 0.0
0.877883 1.141197 -0.001051 0.0
4.204925 1.126164 -0.000947 0.0
3.133853 1.724069 0.000814 0.0
0.852151 1.644875 -0.000652 0.0
1.702347 1.968773 -0.001514 0.0
2.874018 1.353928 0.000955 0.0
1.435534 0.518546 0.002748 0.0
2.716517 1.198077 -0.001095 0.0
4.659631 1.228885 -0.001828 0.0
3.654990 0.674243 -0.002904 0.0
1.116736 0.199877 0.002614 0.0
0.443507 0.375837 -0.001504 0.0
3.351644 1.961244 0.002533 0.0
2.744384 1.537785 -0.002490 0.0
4.534422 0.510021 -0.002307 0.0
4.262563 0.270628 -0.001843 0.0
1.210013 1.540972 -0.000074 0.0
3.336985 0.483302 -0.000952 0.0
3.338889 1.931708 -0.000661 0.0
1.006668 0.544082 0.005131 0.0
1.683238 1.253117 0.000959 0.0
4.300851 0.294984 -0.002752 0.0
1.322542 1.630757 -0.003058 0.0
1.490013 1.109207 0.000959 0.0
4.378324 0.317435 -0.000029 0.0
1.231141 1.284727 0.001683 0.0
2.464708 0.368587 0.000966 0.0
1.553975 1.858476 0.001514 0.0
1.054286 0.192232 0.002308 0.0
2.538755 0.993405 -0.000988 0.0
2.379345 0.999098 -0.000485 0.0
4.760977 1.846141 0.000438 0.0
0.356535 0.366042 0.004555 0.0
4.077358 0.873495 0.002081 0.0
4.643073 0.547281 -0.000009 0.0
3.100275 0.096745 0.000100 0.0
1.405151 0.689936 0.004541 0.0
2.473665 0.901387 0.003024 0.0
3.689554 0.441382 -0.001752 0.0
0.410534 1.242430 0.005239 0.0
3.758097 0.048989 0.000458 0.0
1.883873 0.049377 0.007217 0.0
0.648749 1.377046 -0.003801 0.0
