4.20308769 1.83733537 -0.00082390 0.00000000
4.31938634 1.49789228 -0.00486261 0.00000000
2.55084924 1.98173733 -0.00341189 0.00000000
0.38008863 0.99358405 -0.00198440 0.00000000
4.35340733 1.65525207 -0.00231051 0.00000000
3.63072619 0.46873366 0.00395244 0.00000000
1.51866970 0.51545854 0.00060610 0.00000000
2.76408451 1.31471876 -0.00432894 0.00000000
2.31363533 1.68120629 -0.00046106 0.00000000
3.74235238 0.26826616 -0.00291923 0.00000000
1.88102772 1.22730663 0.00069870 0.00000000
4.25534791 1.63429140 -0.00063329 0.00000000
1.22605241 0.98144761 -0.00199312 0.00000000
2.97750460 0.98157228 -0.00132094 0.00000000
3.70709278 2.04112746 -0.00331186 0.00000000
0.52887906 0.63727662 -0.00053249 0.00000000
4.36305116 0.70356284 0.00011815 0.00000000
0.59909060 1.95909032 -0.00380836 0.00000000
4.19369476 1.54870283 -0.00732373 0.00000000
3.73993116 1.11451726 0.00159039 0.00000000
3.45792480 1.67763837 -0.00225111 0.00000000
0.57663507 0.62140691 -0.00094433 0.00000000
4.13196711 1.21568701 -0.00121180 0.00000000
4.18565751 1.29857312 -0.00191493 0.00000000
2.69400380 0.35543964 0.00400443 0.00000000
3.59080080 0.25167683 0.00223738 0.00000000
2.10147648 0.11462901 -0.00409294 0.00000000
1.74264220 0.93143358 -0.00029568 0.00000000
1.62288576 1.65263531 0.00412740 0.00000000
0.34816460 0.04201551 0.00123167 0.00000000
3.53056415 0.13602095 -0.00588062 0.00000000
4.29318272 2.00200063 -0.00316263 0.00000000
4.01635113 0.68388861 -0.00233417 0.00000000
3.33884962 0.05062727 0.00078557 0.00000000
2.87633500 0.71349465 0.00167284 0.00000000
1.39543533 0.89590318 0.00274361 0.00000000
4.29875025 1.65138105 0.00070017 0.00000000
0.64896692 0.76170137 0.00066166 0.00000000
2.89856750 0.18898282 -0.00124906 0.00000000
0.96508617 1.92675716 -0.00275449 0.00000000
1.49732226 0.71621780 0.00196816 0.00000000
2.84283186 0.57930117 0.00032143 0.00000000
4.07091220 0.81574203 0.00437539 0.00000000
0.78595634 0.99845736 -0.00213221 0.00000000
1.17712631 1.03025591 0.00036686 0.00000000
3.23051038 0.99072065 -0.00374511 0.00000000
1.34360790 0.56277060 -0.00020667 0.00000000
4.31343350 0.34512415 -0.00326757 0.00000000
3.95087702 0.55831703 0.00171797 0.00000000
0.75205715 1.55901272 0.00397641 0.00000000
4.10467201 0.84610451 0.00096505 0.00000000
2.12901497 0.46094141 0.00019504 0.00000000
2.32595399 1.64713490 0.00174749 0.00000000
0.15675046 1.99106831 -0.00207684 0.00000000
4.42129071 0.09435700 0.00131011 0.00000000
1.57576589 0.92623891 0.00115457 0.00000000
4.02684946 1.41107413 0.00031847 0.00000000
0.71723140 0.72857992 -0.00110408 0.00000000
1.30504930 0.34749885 0.00250899 0.00000000
2.45073679 1.35148262 -0.00002528 0.00000000
1.79818793 1.18606862 0.00111177 0.00000000
4.31845313 0.44172440 0.00255952 0.00000000
0.60267206 0.19242807 0.00203305 0.00000000
3.60856786 0.00805195 0.00239594 0.00000000
0.50153903 1.67776469 0.00238327 0.00000000
0.33048857 1.91177238 0.00238975 0.00000000
4.42252383 1.43477121 -0.00238710 0.00000000
1.61129038 1.53585183 -0.00151944 0.00000000
0.47938895 1.04501082 0.00105932 0.00000000
2.86691825 0.60802157 0.00149498 0.00000000
1.75602572 1.13580249 -0.00222462 0.00000000
1.45600750 1.44565328 -0.00085666 0.00000000
3.56739759 1.21488234 -0.00484274 0.00000000
0.48196156 1.69025605 -0.00098391 0.00000000
0.56223504 1.37387340 0.00133821 0.00000000
4.43624260 0.81691678 0.00356805 0.00000000
1.23786529 0.46205664 0.00074876 0.00000000
4.67179828 0.84651602 -0.00021004 0.00000000
1.00929750 0.93171574 -0.00305075 0.00000000
1.42954532 0.01882124 -0.00169559 0.00000000
2.15407048 1.56542981 -0.00039569 0.00000000
3.61409726 1.42862762 0.00100971 0.00000000
3.25395655 1.03600370 -0.00360130 0.00000000
1.22473071 1.71087439 -0.00125443 0.00000000
4.63760909 1.57369707 0.00390142 0.00000000
2.52253954 0.34123787 -0.00136123 0.00000000
1.25430071 1.01787812 -0.00110601 0.00000000
1.21914537 0.11763873 -0.00213960 0.00000000
3.88912907 2.06926442 0.00020885 0.00000000
1.10326449 1.02985306 0.00224782 0.00000000
1.80632132 1.00195985 0.00044489 0.00000000
1.42732590 0.92705105 0.00042919 0.00000000
3.60971923 0.76289334 0.00271335 0.00000000
4.62817231 0.40369507 0.00042781 0.00000000
4.55684569 1.32215041 0.00428072 0.00000000
3.34176378 1.58803132 -0.00131997 0.00000000
3.04047344 0.33019378 -0.00136736 0.00000000
2.03266705 0.96257989 -0.00206722 0.00000000
3.76715229 1.75294414 0.00472174 0.00000000
4.58342608 0.67099849 -0.00125731 0.00000000
3.27007771 1.04412513 -0.00466097 0.00000000
3.32469184 0.78431574 -0.00194343 0.00000000
3.44669204 1.40529152 0.00308717 0.00000000
2.00413651 0.36237799 0.00105160 0.00000000
1.13063003 0.47053327 0.00200407 0.00000000
3.09197091 1.19464351 0.00175815 0.00000000
1.68238958 1.89894707 0.00141037 0.00000000
4.33014628 1.00813987 -0.00829592 0.00000000
1.78301094 1.45893238 0.00439220 0.00000000
2.24185376 0.24267404 0.00160841 0.00000000
3.71601070 2.04149792 -0.00028832 0.00000000
4.14681352 1.30025819 0.00153816 0.00000000
2.72813569 1.14520200 -0.00263340 0.00000000
0.46295737 0.14036741 -0.00015099 0.00000000
2.91499727 1.38351699 -0.00048691 0.00000000
2.23752960 2.01509225 0.00138480 0.00000000
2.00632769 1.99377040 0.00197090 0.00000000
3.24776538 0.44169538 0.00422196 0.00000000
0.25810541 1.70407032 -0.00259256 0.00000000
0.44412207 0.32413959 0.00192753 0.00000000
2.90162145 0.95512719 -0.00174660 0.00000000
1.45899941 1.62937532 -0.00332863 0.00000000
1.37421536 0.28323946 -0.00002372 0.00000000
3.60476922 1.50530011 -0.00459953 0.00000000
3.12552100 1.09206621 -0.00078274 0.00000000
1.93463784 0.07122673 -0.00011906 0.00000000
0.54772085 0.29498886 -0.00245976 0.00000000
1.33515613 0.39678725 0.00150279 0.00000000
3.29068134 0.51599212 -0.00062216 0.00000000
2.95947486 1.98595236 -0.00027761 0.00000000
1.28221770 0.89041264 0.00130997 0.00000000
0.01428229 1.05486188 0.00127667 0.00000000
1.95498257 1.38724323 -0.00180885 0.00000000
3.50865581 0.37589884 -0.00240594 0.00000000
0.33220176 1.14093405 -0.00051828 0.00000000
1.31628810 1.60792948 -0.00152020 0.00000000
2.04816838 0.64439200 -0.00023045 0.00000000
1.56840178 2.04173128 0.00217419 0.00000000
4.45317266 0.69172779 -0.00103019 0.00000000
2.17013890 1.81460702 -0.00024475 0.00000000
4.36428570 0.68511932 0.00150190 0.00000000
1.48765894 0.98020631 0.00071785 0.00000000
0.67421050 1.96917442 0.00142480 0.00000000
2.49653661 1.58683640 -0.00339552 0.00000000
0.59656900 0.14477681 -0.00102391 0.00000000
2.98752240 1.92869544 -0.00430757 0.00000000
3.87014571 0.25822387 -0.00132868 0.00000000
3.18070003 1.43327547 0.00335813 0.00000000
3.82172979 0.92044095 -0.00225746 0.00000000
1.00699319 0.38056417 0.00343683 0.00000000
3.82729166 1.80980781 0.00062136 0.00000000
2.42221132 0.29193862 0.00219399 0.00000000
2.24396085 1.21959456 -0.00014186 0.00000000
2.69827912 0.62600114 0.00312067 0.00000000
3.00037100 0.13008107 -0.00192188 0.00000000
4.47655635 0.70538620 0.00028385 0.00000000
2.02057190 0.55849413 0.00123400 0.00000000
2.39549451 1.52279950 -0.00445405 0.00000000
1.85726203 0.65104082 0.00046885 0.00000000
0.78721994 1.12209697 -0.00476182 0.00000000
4.23150416 1.73111282 -0.00066539 0.00000000
0.03683689 0.59115883 0.00099230 0.00000000
4.05172791 0.21250882 0.00481176 0.00000000
2.21756860 1.21406187 0.00073411 0.00000000
4.50148300 0.66086794 0.00084484 0.00000000
1.20177856 0.17612466 0.00044406 0.00000000
4.47483739 1.68543971 0.00113031 0.00000000
0.95691193 1.70707322 -0.00147005 0.00000000
0.55067688 0.57491949 -0.00181474 0.00000000
1.41103972 0.65708549 -0.00078339 0.00000000
1.59713963 2.01383089 -0.00106934 0.00000000
3.77104628 1.83014051 0.00026335 0.00000000
2.10007472 0.61095742 -0.00069307 0.00000000
1.36205712 0.76868099 0.00070403 0.00000000
3.39174223 0.14415202 0.00234548 0.00000000
0.59041379 0.03619641 -0.00167572 0.00000000
3.38186824 0.23479212 -0.00235540 0.00000000
1.04403144 0.44129975 0.00146357 0.00000000
3.85549960 1.61698931 -0.00044263 0.00000000
3.60489816 1.96145391 0.00230072 0.00000000
1.57169648 1.38585904 0.00291537 0.00000000
1.87541989 0.83788230 -0.00523258 0.00000000
3.35515403 0.68798526 0.00121369 0.00000000
4.27097873 0.12447273 0.00025018 0.00000000
2.30374559 2.00508859 0.00284830 0.00000000
3.04775585 0.31804533 0.00186280 0.00000000
2.54150948 0.68221639 -0.00298817 0.00000000
2.78368843 1.57159503 0.00122273 0.00000000
3.48801852 0.34581552 0.00423060 0.00000000
3.80654076 2.00736673 -0.00127009 0.00000000
1.23823319 0.26379726 0.00020351 0.00000000
2.45841077 2.07605486 0.00166743 0.00000000
3.27889763 1.43091155 -0.00205987 0.00000000
2.47482621 1.59236162 0.00432606 0.00000000
4.33158118 1.00284661 -0.00342048 0.00000000
2.37119255 0.80528891 -0.00038749 0.00000000
4.44120505 1.66895703 -0.00026544 0.00000000
4.66386295 0.35317511 -0.00524475 0.00000000
2.84913635 0.86837868 0.00361025 0.00000000
1.42601901 1.29091473 0.00521013 0.00000000
4.04609556 1.96080560 -0.00342907 0.00000000
4.10060218 1.59604310 0.00205989 0.00000000
2.17645457 0.24148476 0.00135288 0.00000000
2.98348628 1.15057872 -0.00421460 0.00000000
0.86585622 0.80710249 -0.00105891 0.00000000
4.62509769 1.38437356 0.00575546 0.00000000
0.36551237 1.12182300 0.00250258 0.00000000
3.16400194 1.77211099 -0.00093857 0.00000000
3.84291050 0.62043261 -0.00360987 0.00000000
3.31303227 1.79444415 0.00151767 0.00000000
2.88804015 0.06170171 0.00050803 0.00000000
2.26759936 0.69632167 -0.00062714 0.00000000
3.10495070 0.95599836 0.00222498 0.00000000
2.16695923 1.24061829 0.00128731 0.00000000
2.26123486 1.85691394 0.00010730 0.00000000
4.51985256 1.99041424 -0.00026936 0.00000000
3.01164828 1.47443618 -0.00051876 0.00000000
2.22912172 0.15187780 -0.00055014 0.00000000
3.13419241 0.65271983 -0.00181558 0.00000000
2.35931859 0.67189885 0.00058617 0.00000000
1.68715985 0.43181242 -0.00024799 0.00000000
2.63911123 1.73430143 0.00314260 0.00000000
3.10785293 0.04945535 0.00068381 0.00000000
4.44264517 0.83405176 -0.00405235 0.00000000
3.62182396 2.01428877 0.00537013 0.00000000
1.36074234 0.92283688 0.00278330 0.00000000
4.50679271 0.69991096 -0.00054933 0.00000000
1.65290826 1.35844844 -0.00423670 0.00000000
0.41608031 0.71914810 -0.00182092 0.00000000
0.45357492 0.63971873 -0.00255391 0.00000000
3.84545473 2.04713750 -0.00044269 0.00000000
1.42969276 0.52314848 -0.00307591 0.00000000
0.47337203 0.18823985 -0.00217236 0.00000000
0.06970590 1.67015846 -0.00199248 0.00000000
3.36366688 0.68110027 0.00159420 0.00000000
4.06678553 1.82251136 -0.00198314 0.00000000
2.91256290 1.45389491 0.00350122 0.00000000
2.01127145 0.49086414 -0.00345679 0.00000000
3.48254524 2.02448837 0.00268095 0.00000000
0.76609612 1.46940391 -0.00498625 0.00000000
1.18141178 0.26464048 -0.00268009 0.00000000
2.92712787 0.82353724 -0.00321427 0.00000000
4.63392655 1.19531358 0.00015735 0.00000000
0.52067581 2.07592270 0.00105248 0.00000000
4.50160528 0.91812122 -0.00167293 0.00000000
2.81302664 0.60616983 -0.00353239 0.00000000
3.93655265 1.80444057 -0.00431017 0.00000000
2.99023606 0.10468530 -0.00081168 0.00000000
1.26089567 0.89405965 -0.00269618 0.00000000
0.28492388 0.37483658 -0.00226378 0.00000000
0.65756354 1.18731023 -0.00067156 0.00000000
4.41910466 0.76893021 0.00393161 0.00000000
1.20269703 0.79946205 0.00353383 0.00000000
4.43624296 0.63873267 0.00143528 0.00000000
0.75190935 0.82281245 -0.00073475 0.00000000
1.86463864 0.48251193 -0.00250516 0.00000000
0.22992343 0.60919687 -0.00063173 0.00000000
3.78551968 1.43715097 0.00185937 0.00000000
4.08602265 0.75224644 -0.00411590 0.00000000
0.18351263 0.79482445 -0.00192848 0.00000000
3.05055963 0.38233722 0.00180606 0.00000000
4.08100057 1.63512592 0.00415480 0.00000000
3.85803247 0.58703052 0.00003926 0.00000000
2.97765991 1.70751946 0.00070556 0.00000000
1.26011738 1.57294229 -0.00038560 0.00000000
4.32390413 0.60658697 0.00038939 0.00000000
0.74004756 0.70148985 -0.00384721 0.00000000
2.45796205 0.44046735 -0.00038633 0.00000000
1.15282424 1.90171581 -0.00137011 0.00000000
0.53210382 0.43336615 -0.00152874 0.00000000
4.66160764 1.56832976 0.00364173 0.00000000
3.25288004 0.54822361 0.00255355 0.00000000
0.18634991 0.66328261 0.00446819 0.00000000
0.18705677 1.67120712 -0.00120580 0.00000000
1.76791433 1.58501497 -0.00156440 0.00000000
1.95020556 1.44654051 0.00052954 0.00000000
1.93934053 0.43288570 0.00337443 0.00000000
2.01572116 0.94495644 0.00059720 0.00000000
0.15502173 0.86903921 -0.00012660 0.00000000
1.76534833 1.16488965 0.00021281 0.00000000
2.31550315 0.38384368 -0.00031413 0.00000000
3.43821488 0.43581988 -0.00436140 0.00000000
0.91181265 0.52739825 0.00227162 0.00000000
0.50156437 1.02166161 -0.00096652 0.00000000
3.28828152 1.19507458 -0.00387241 0.00000000
1.84937998 1.76493185 -0.00144038 0.00000000
0.38578566 0.47301509 0.00035725 0.00000000
0.69654021 0.89260095 -0.00056789 0.00000000
1.75958786 1.64526664 -0.00341428 0.00000000
3.53483370 1.33655414 -0.00189183 0.00000000
1.67548069 0.44236211 -0.00090032 0.00000000
1.26483944 1.49899838 -0.00245424 0.00000000
2.79636455 0.68454800 -0.00133901 0.00000000
0.60339912 1.09057064 0.00005301 0.00000000
0.00531448 1.43788756 0.00353561 0.00000000
1.05212595 1.63213668 -0.00029442 0.00000000
2.46524841 0.28159672 -0.00253663 0.00000000
0.51036122 0.50437834 0.00049124 0.00000000
2.96947182 0.33079344 0.00215429 0.00000000
1.50992526 1.46085697 -0.00168378 0.00000000
2.02133605 0.63295513 0.00077847 0.00000000
1.11446396 1.79412453 -0.00431646 0.00000000
0.96748823 2.09259347 0.00369567 0.00000000
4.23673358 0.32720018 0.00174605 0.00000000
2.88073929 1.37444023 0.00122446 0.00000000
0.71753483 0.46829413 -0.00117955 0.00000000
0.37043607 0.87465732 -0.00194843 0.00000000
1.31363007 1.50384838 -0.00373424 0.00000000
0.93049557 1.96826167 -0.00074391 0.00000000
0.50303305 2.07548752 0.00080912 0.00000000
3.56703961 0.17007019 0.00356388 0.00000000
2.14302997 0.23575009 -0.00079775 0.00000000
1.03645413 2.03030394 -0.00380218 0.00000000
4.54412258 0.70904916 -0.00222832 0.00000000
1.68576995 1.54032924 -0.00210235 0.00000000
0.29113673 0.96882149 -0.00208260 0.00000000
3.75937824 1.54673097 -0.00093075 0.00000000
1.51714698 1.54607309 -0.00004324 0.00000000
3.48692761 2.05867636 -0.00151399 0.00000000
2.38631885 1.51540804 0.00134299 0.00000000
1.70459927 1.83702253 0.00157788 0.00000000
4.03869539 0.37744141 -0.00685941 0.00000000
0.16902363 0.63609576 0.00173601 0.00000000
0.27618451 0.10931365 -0.00032717 0.00000000
2.20318737 0.17192498 0.00146386 0.00000000
1.15446251 1.13865031 -0.00113290 0.00000000
2.04876402 1.80041312 -0.00085182 0.00000000
2.88843521 0.62149235 0.00620820 0.00000000
0.35103871 0.76350702 -0.00032672 0.00000000
1.97043212 1.70150593 -0.00051348 0.00000000
1.47916092 1.84488292 0.00021713 0.00000000
3.59857486 0.59643011 -0.00113881 0.00000000
0.39772973 0.51306065 0.00002831 0.00000000
2.31055246 0.38588806 -0.00155684 0.00000000
4.36080764 0.83531829 -0.00048336 0.00000000
2.24685868 0.79166991 -0.00614930 0.00000000
3.15130402 1.55509999 -0.00293975 0.00000000
0.38704883 0.42000798 -0.00021261 0.00000000
4.54157285 0.33865870 0.00223627 0.00000000
3.83136212 2.05241771 -0.00291760 0.00000000
0.75863507 0.29959560 -0.00159808 0.00000000
1.42917571 1.56989852 0.00088640 0.00000000
3.34676250 1.72372420 0.00156238 0.00000000
0.36541232 1.20288224 0.00088469 0.00000000
0.50389617 1.21469506 0.00130541 0.00000000
4.63984164 0.07922686 -0.00180175 0.00000000
2.54962794 0.54392778 0.00188503 0.00000000
0.46644744 1.63909577 -0.00183221 0.00000000
1.37971245 1.50078597 0.00218533 0.00000000
1.75876653 1.45871690 0.00338251 0.00000000
0.49992573 0.01139978 -0.00102691 0.00000000
0.52513077 1.84758057 -0.00316200 0.00000000
3.81058846 0.40299710 0.00117453 0.00000000
0.59715502 1.46181833 0.00579652 0.00000000
1.65766074 0.62747911 0.00133435 0.00000000
4.28716590 0.11214452 0.00043259 0.00000000
2.16975223 0.56364575 0.00383880 0.00000000
0.36387669 1.81999590 0.00383732 0.00000000
3.98612593 1.35686257 0.00352624 0.00000000
2.44801915 1.20820796 -0.00328571 0.00000000
0.36134236 1.97503070 -0.00248266 0.00000000
1.98148902 1.07451472 0.00247139 0.00000000
3.27034070 0.80356256 0.00208885 0.00000000
3.61246570 2.06418731 -0.00250852 0.00000000
0.14195912 0.12688194 -0.00032171 0.00000000
0.05649101 0.83158336 -0.00139651 0.00000000
1.84321976 0.76096090 0.00150822 0.00000000
1.84292840 1.37136711 -0.00231938 0.00000000
3.44872140 1.96127911 0.00042855 0.00000000
1.37440921 0.72010851 0.00067255 0.00000000
0.62094599 0.22788336 0.00391757 0.00000000
2.99815831 1.20168305 -0.00396264 0.00000000
3.75563451 2.05262428 -0.00107573 0.00000000
1.02476544 1.95464518 -0.00058714 0.00000000
2.81851771 0.11573189 -0.00068982 0.00000000
3.49090967 1.87315774 -0.00221454 0.00000000
2.55755087 1.32813196 -0.00087546 0.00000000
2.04558515 1.01273972 0.00193414 0.00000000
3.49814163 0.14102463 -0.00151766 0.00000000
0.34088801 1.71660262 0.00295506 0.00000000
2.43739444 1.97593559 -0.00196965 0.00000000
1.89348368 1.07451154 -0.00279146 0.00000000
0.70110798 1.40290043 0.00554756 0.00000000
1.07454215 0.60566094 0.00184385 0.00000000
4.53235504 1.63165498 0.00220518 0.00000000
0.65428543 1.55823730 -0.00368319 0.00000000
2.97531488 0.45858791 -0.00026809 0.00000000
4.48930479 0.25772513 0.00182926 0.00000000
3.21876785 1.90537156 0.00171799 0.00000000
0.24684957 0.58950366 -0.00110573 0.00000000
1.74040984 1.83193893 0.00462867 0.00000000
1.24264765 0.21520706 -0.00183091 0.00000000
4.31889497 0.87933781 -0.00302995 0.00000000
4.38783951 1.25225835 -0.00131679 0.00000000
2.79741236 0.67998746 0.00198259 0.00000000
0.34487715 0.63121526 0.00462290 0.00000000
0.21984597 1.94277960 -0.00080999 0.00000000
1.96925390 1.18914033 0.00105538 0.00000000
1.95856184 1.73455700 -0.00067785 0.00000000
1.77215158 1.39700829 -0.00120991 0.00000000
0.26418719 0.31026272 -0.00093710 0.00000000
2.17503101 1.74858337 0.00169731 0.00000000
0.73559635 1.52464610 0.00233372 0.00000000
4.50069618 0.48636664 0.00016838 0.00000000
1.95267725 0.38982059 0.00098149 0.00000000
1.68939231 0.84048862 -0.00082675 0.00000000
1.56583648 1.80432306 -0.00339711 0.00000000
3.44265695 1.89566157 0.00136068 0.00000000
0.40561405 1.61765779 -0.00121270 0.00000000
1.53522955 1.07963013 0.00088072 0.00000000
0.74193364 0.18292993 0.00022753 0.00000000
2.13037876 1.69906445 -0.00108062 0.00000000
0.84698759 0.25826889 0.00048160 0.00000000
2.99921572 1.99740081 -0.00127397 0.00000000
2.59645233 1.36607305 0.00165027 0.00000000
3.83047112 0.32900296 -0.00126618 0.00000000
2.88378225 1.98883159 0.00255209 0.00000000
4.64121863 0.86566520 0.00239401 0.00000000
0.37193472 0.01962756 -0.00159706 0.00000000
1.42360063 0.91170285 -0.00165240 0.00000000
2.86842328 0.84869759 -0.00114337 0.00000000
0.82288195 2.07118042 0.00216202 0.00000000
0.57200597 0.05618310 -0.00294737 0.00000000
1.73887277 1.85978907 0.00390113 0.00000000
1.32804308 0.18524274 -0.00324102 0.00000000
1.39475073 0.44086649 0.00485979 0.00000000
2.25549459 1.49774332 0.00160838 0.00000000
2.99663895 1.03793016 0.00013427 0.00000000
4.38896404 1.16973113 -0.00040583 0.00000000
2.08784682 0.80209990 -0.00049095 0.00000000
0.43299535 1.18155618 0.00306892 0.00000000
3.74122266 0.09434682 -0.00058727 0.00000000
3.49302893 1.14252161 -0.00315390 0.00000000
0.34830722 0.62233174 -0.00178336 0.00000000
2.20760178 1.55142554 -0.00119501 0.00000000
1.71689247 1.98759030 -0.00046850 0.00000000
2.43352186 1.90730382 -0.00147604 0.00000000
4.67331974 1.09684564 -0.00333410 0.00000000
3.06608606 1.91932471 0.00131250 0.00000000
2.48013587 1.89187378 -0.00100226 0.00000000
1.46787792 1.77948989 -0.00402559 0.00000000
0.06645564 0.94823498 -0.00146338 0.00000000
4.65475271 0.36523037 0.00047870 0.00000000
4.11619653 0.69818824 0.00466477 0.00000000
0.31789337 0.83242657 0.00272556 0.00000000
2.82317219 0.56308665 0.00255590 0.00000000
3.43239667 0.13468060 0.00318337 0.00000000
1.98320651 0.12786750 0.00320707 0.00000000
3.01340371 1.15987770 0.00399241 0.00000000
2.64898900 1.26364630 0.00200350 0.00000000
0.81202337 1.61166103 -0.00435022 0.00000000
1.21394499 1.62609941 -0.00309105 0.00000000
2.68353582 0.15711658 -0.00218556 0.00000000
2.96674099 1.57553620 -0.00139645 0.00000000
4.56744250 1.29674004 0.00244788 0.00000000
0.67895823 0.57451792 0.00107370 0.00000000
3.21867512 1.37432591 0.00011021 0.00000000
0.29400770 0.79165157 -0.00229587 0.00000000
1.37976867 0.13235774 -0.00103537 0.00000000
3.93352636 1.20768715 -0.00051950 0.00000000
0.18706163 1.52996479 0.00132357 0.00000000
3.05090222 1.20234043 -0.00020417 0.00000000
3.94949070 0.94011037 0.00034165 0.00000000
0.98186266 0.03639620 0.00361450 0.00000000
3.57669107 1.20062825 0.00051976 0.00000000
4.07359145 1.90343520 0.00324873 0.00000000
3.87758510 0.30765973 -0.00109796 0.00000000
4.12246209 0.33236014 -0.00195152 0.00000000
4.20558357 1.94620220 0.00133822 0.00000000
3.97623291 0.05708571 -0.00031189 0.00000000
3.23435583 0.98310305 0.00234725 0.00000000
3.10473186 1.39913241 -0.00184747 0.00000000
3.68625190 1.87674548 -0.00049891 0.00000000
2.83064575 0.27062137 0.00093523 0.00000000
2.78864220 0.71585964 -0.00776087 0.00000000
1.58119077 1.72366438 0.00451990 0.00000000
3.62748631 0.02586703 0.00167838 0.00000000
2.48538960 2.06650818 0.00111375 0.00000000
1.59052027 0.16765191 0.00061982 0.00000000
1.12186085 0.08638041 0.00491220 0.00000000
3.96775444 1.72113796 -0.00450906 0.00000000
4.64325062 2.05898665 0.00417826 0.00000000
3.55273919 1.89291827 0.00291078 0.00000000
2.93611661 0.48344796 0.00077808 0.00000000
1.35644360 1.22639526 0.00111344 0.00000000
4.45894682 0.90314018 0.00205729 0.00000000
3.80862597 1.46128460 0.00326688 0.00000000
4.58222703 0.89310981 0.00005220 0.00000000
3.54679961 0.73255628 -0.00387466 0.00000000
0.51699277 2.05060618 0.00144902 0.00000000
3.09839525 0.36771627 -0.00234383 0.00000000
0.87823069 1.24047350 0.00640786 0.00000000
1.12103839 1.19806223 -0.00454515 0.00000000
4.59934121 1.46035713 0.00475555 0.00000000
4.12427255 1.43178410 0.00203014 0.00000000
3.03774356 1.74589954 0.00410280 0.00000000
0.07458499 0.20596833 -0.00290124 0.00000000
1.77899460 0.82453172 0.00259691 0.00000000
4.44039230 1.61527223 0.00013201 0.00000000
0.93150049 1.92591091 -0.00148293 0.00000000
2.16662276 1.64120696 -0.00166755 0.00000000
3.50534702 0.94480409 0.00112991 0.00000000
2.59612897 0.34793231 -0.00104339 0.00000000
2.88808298 1.37001383 0.00115219 0.00000000
3.71719797 0.90592553 0.00095510 0.00000000
4.42784716 0.30240455 -0.00044070 0.00000000
2.45944489 0.52014593 -0.00104730 0.00000000
2.76002998 1.82035800 0.00655690 0.00000000
4.36340939 1.39183468 -0.00372680 0.00000000
1.36692264 1.97967891 0.00456542 0.00000000
2.67171939 0.14760923 -0.00473352 0.00000000
3.50116367 1.90003431 0.00151292 0.00000000
4.04850655 0.78962154 -0.00061764 0.00000000
2.88547606 0.96325340 -0.00117311 0.00000000
2.45441591 0.86134538 0.00386290 0.00000000
0.90649832 0.09712984 -0.00145740 0.00000000
0.42938321 2.08776630 -0.00119978 0.00000000
4.52388149 1.70618918 0.00290842 0.00000000
4.65245110 1.72565959 0.00150816 0.00000000
1.46692031 0.89603666 0.00322904 0.00000000
2.36948385 1.69428063 0.00219906 0.00000000
4.04548880 1.70165496 -0.00174202 0.00000000
4.48200377 0.42716394 0.00066280 0.00000000
4.30288604 1.35198152 0.00230910 0.00000000
0.05529281 1.77771591 -0.00025337 0.00000000
4.06916373 1.26718090 -0.00129188 0.00000000
0.54372515 1.66720685 0.00211092 0.00000000
2.62924940 1.86791446 0.00319414 0.00000000
0.50069843 2.02078514 0.00209004 0.00000000
2.26188328 1.96674006 -0.00088437 0.00000000
2.64768776 1.54243106 -0.00129532 0.00000000
4.16702185 1.36438158 -0.00220673 0.00000000
0.64707305 1.54100592 0.00098476 0.00000000
4.48937093 1.62236846 0.00415116 0.00000000
4.53742020 0.69396160 0.00065726 0.00000000
1.65163401 1.43554941 0.00019867 0.00000000
2.23423653 0.49080285 -0.00141247 0.00000000
3.00093745 1.44257521 0.00200924 0.00000000
0.15590853 1.96463649 0.00390239 0.00000000
0.45456570 0.34376928 -0.00446988 0.00000000
3.73312778 1.55216180 0.00187614 0.00000000
1.41435547 0.39546007 -0.00146462 0.00000000
2.09568770 0.56863553 -0.00357415 0.00000000
3.74806595 1.92644042 0.00114974 0.00000000
1.49582787 0.01560178 0.00182982 0.00000000
2.24986042 0.87712635 0.00249618 0.00000000
0.52317633 1.45419643 -0.00096878 0.00000000
3.12922299 1.57931382 -0.00554215 0.00000000
2.33732971 1.15019090 0.00062677 0.00000000
2.00649365 1.47482881 0.00197349 0.00000000
0.60193352 1.21711227 -0.00346251 0.00000000
2.03515430 1.89559134 -0.00045698 0.00000000
1.07965544 0.67484604 -0.00076800 0.00000000
0.47086914 1.44612785 0.00265895 0.00000000
3.83666833 1.65096737 0.00571678 0.00000000
1.11812313 1.40161860 -0.00267182 0.00000000
4.71027262 1.20502937 -0.00168552 0.00000000
4.09305599 1.21919501 -0.00201771 0.00000000
3.86304495 0.89893163 -0.00227931 0.00000000
3.02634545 0.53728082 0.00144504 0.00000000
1.38483597 0.29925485 0.00384822 0.00000000
2.65944278 1.27655809 -0.00002134 0.00000000
3.47234328 1.70062145 0.00159599 0.00000000
0.10560801 0.31172168 -0.00343037 0.00000000
3.75893045 1.02246429 -0.00115051 0.00000000
1.52489232 0.94845996 -0.00081974 0.00000000
2.77880695 1.42591680 0.00170492 0.00000000
3.28979370 2.04887574 0.00773592 0.00000000
0.76589150 1.63202086 0.00075222 0.00000000
2.34545369 1.31605034 0.00100584 0.00000000
0.14190510 1.54530559 0.00039545 0.00000000
0.02704203 0.38447936 -0.00095396 0.00000000
0.65208167 1.04556632 0.00330039 0.00000000
4.62143278 1.83441218 0.00441786 0.00000000
3.84408899 0.02732044 -0.00438716 0.00000000
4.22766416 0.82061456 0.00302940 0.00000000
1.58780651 1.41095199 -0.00367500 0.00000000
3.92901287 0.79052421 -0.00494891 0.00000000
4.44799381 1.43397509 -0.00386249 0.00000000
0.76730597 0.22848549 -0.00111548 0.00000000
1.17697348 0.14524330 -0.00224501 0.00000000
2.69772316 0.59358096 0.00269735 0.00000000
2.54250256 1.41914364 -0.00054946 0.00000000
2.75187209 1.88977293 0.00085720 0.00000000
0.07302823 1.15873235 -0.00096780 0.00000000
0.90016930 0.62553250 0.00176843 0.00000000
3.14246486 1.10785779 -0.00168480 0.00000000
0.20431851 1.12605998 0.00158448 0.00000000
3.29756140 0.44005599 -0.00057407 0.00000000
0.01968001 0.83568558 -0.00012948 0.00000000
0.01686682 1.24827176 0.00277836 0.00000000
1.85545297 1.85451283 -0.00079398 0.00000000
4.14478980 0.53055338 0.00351190 0.00000000
1.05842991 0.39261826 -0.00522153 0.00000000
0.64462743 0.20194869 0.00040418 0.00000000
0.26780022 0.09035700 0.00235139 0.00000000
4.68230563 2.07761413 -0.00443005 0.00000000
0.37984056 1.89911716 -0.00257322 0.00000000
4.40521923 1.80994085 -0.00281912 0.00000000
0.69651466 1.09837139 0.00604583 0.00000000
2.46241979 1.10837326 0.00257709 0.00000000
1.74978331 0.76106992 -0.00367670 0.00000000
3.37291657 1.38143505 -0.00375384 0.00000000
3.53717524 1.16854378 0.00135131 0.00000000
1.13070350 1.52107592 -0.00131081 0.00000000
1.00279609 1.31646032 0.00268340 0.00000000
2.16306224 1.81977783 0.00089080 0.00000000
2.23376743 0.23161290 -0.00090898 0.00000000
2.28284916 0.62826990 -0.00172491 0.00000000
3.25103582 1.03374987 -0.00137358 0.00000000
1.61951022 1.28559276 0.00180205 0.00000000
1.57510724 1.77064688 0.00035675 0.00000000
1.22797428 1.70215824 -0.00160326 0.00000000
0.53727448 1.50716243 0.00061786 0.00000000
0.68797052 1.88126277 0.00057931 0.00000000
2.49401766 1.61384015 0.00123379 0.00000000
4.22171544 0.68913814 -0.00260058 0.00000000
2.17790678 0.00816906 0.00191817 0.00000000
3.76740004 0.33081124 0.00191826 0.00000000
3.70095685 0.83163413 -0.00271611 0.00000000
1.92879433 1.99433560 -0.00083584 0.00000000
0.14446410 0.95131374 -0.00137239 0.00000000
0.93980626 1.18601173 -0.00103434 0.00000000
2.83318220 1.99277005 -0.00144273 0.00000000
1.61501013 1.65753978 -0.00239265 0.00000000
2.50848399 0.95956197 -0.00012790 0.00000000
3.01349941 0.67978825 0.00129223 0.00000000
1.35401041 1.43389262 0.00487662 0.00000000
4.05701754 2.02541369 -0.00204278 0.00000000
0.09864569 1.36000597 -0.00384270 0.00000000
3.44915016 1.10115350 0.00000015 0.00000000
3.75250383 1.12121280 0.00014793 0.00000000
4.68026732 0.51233980 0.00240437 0.00000000
1.53511728 0.37721294 -0.00088948 0.00000000
1.25719735 0.32823053 0.00054026 0.00000000
4.18619424 1.49947577 0.00286938 0.00000000
0.61562276 1.19559280 0.00372151 0.00000000
2.36429635 0.29257285 -0.00280282 0.00000000
2.40151892 1.42591527 -0.00316655 0.00000000
3.16570511 0.37893351 0.00273474 0.00000000
2.58236626 0.32364393 0.00183134 0.00000000
0.86825089 0.01304742 -0.00112639 0.00000000
2.97301377 1.35346803 0.00438803 0.00000000
3.18474398 1.05397415 0.00123912 0.00000000
1.85848134 1.88730301 0.00179739 0.00000000
0.86017506 1.10283034 -0.00211512 0.00000000
1.02006252 0.51152815 -0.00354398 0.00000000
4.45096805 0.84423336 -0.00378353 0.00000000
4.39047002 0.21032276 0.00036316 0.00000000
2.37149033 0.19094436 -0.00151185 0.00000000
0.73565757 0.59859754 -0.00477795 0.00000000
1.31003878 1.79481400 0.00399275 0.00000000
0.06784972 0.43958696 -0.00021758 0.00000000
2.09024597 0.08380090 0.00313865 0.00000000
1.10636677 1.08588243 -0.00025434 0.00000000
4.70829322 1.73278786 -0.00374372 0.00000000
2.74981980 1.40519206 -0.00052629 0.00000000
0.39939228 1.73234575 -0.00143272 0.00000000
0.61864294 0.02573219 -0.00126949 0.00000000
3.03263851 0.98404122 -0.00385066 0.00000000
3.69769007 0.24371553 -0.00081519 0.00000000
0.76528144 2.00722470 -0.00154267 0.00000000
1.98784317 0.76718960 0.00397904 0.00000000
1.99282332 0.50825976 -0.00037788 0.00000000
1.24887599 0.22912165 0.00048608 0.00000000
4.68317005 0.18767573 0.00389970 0.00000000
2.62944359 1.36346800 -0.00237921 0.00000000
2.24806934 0.28815707 -0.00060790 0.00000000
2.43412839 0.17826432 0.00138542 0.00000000
1.02487560 1.97188417 -0.00147812 0.00000000
4.32012632 0.50211050 0.00143583 0.00000000
1.28778765 0.29141542 -0.00002671 0.00000000
3.18370756 0.32855394 0.00411864 0.00000000
1.80574773 1.84996388 -0.00169755 0.00000000
3.34982150 0.25001504 -0.00067090 0.00000000
1.96557358 1.99922152 -0.00145695 0.00000000
0.27783910 1.50386897 0.00375499 0.00000000
3.70299932 1.56345249 -0.00184967 0.00000000
1.17566940 0.72925251 0.00355402 0.00000000
1.42130083 0.37024366 0.00580971 0.00000000
2.23048589 1.16788463 0.00260879 0.00000000
3.57272956 1.67298106 0.00411074 0.00000000
4.53074177 0.63277902 -0.00242086 0.00000000
1.48590078 1.14736396 -0.00372884 0.00000000
0.13781695 0.71518788 -0.00225026 0.00000000
4.63174869 0.42791599 0.00002264 0.00000000
2.56797225 0.56860609 0.00267430 0.00000000
1.04829708 0.43794764 -0.00061265 0.00000000
3.96472626 1.70165010 -0.00189437 0.00000000
4.19839130 1.87378468 -0.00253632 0.00000000
0.10865659 1.03275346 0.00269268 0.00000000
2.33289003 0.75582749 0.00060349 0.00000000
1.69031739 0.17943414 -0.00253292 0.00000000
1.68903532 0.95837215 0.00210657 0.00000000
3.83326682 1.22335415 0.00235699 0.00000000
0.04974763 1.94720999 0.00354556 0.00000000
4.34563507 1.67561764 0.00053430 0.00000000
2.40406487 1.18298556 0.00330542 0.00000000
2.79171664 2.08794302 -0.00153894 0.00000000
1.65786022 0.51023388 0.00112228 0.00000000
3.52952459 0.86502092 -0.00184526 0.00000000
1.77700889 0.14257667 0.00148047 0.00000000
3.27589264 1.48303472 0.00377422 0.00000000
3.20650045 1.53181525 -0.00207298 0.00000000
3.92889846 1.97564175 -0.00242441 0.00000000
2.38338320 1.39502104 -0.00278567 0.00000000
1.92250333 2.07164413 -0.00179715 0.00000000
3.32438517 1.19885374 -0.00436733 0.00000000
0.98344693 0.72534692 -0.00054441 0.00000000
1.02767178 1.54513821 -0.00030066 0.00000000
4.40669579 0.98017448 -0.00016110 0.00000000
3.10645718 0.44749040 -0.00218365 0.00000000
3.75176802 0.00079628 0.00013620 0.00000000
4.10237468 1.06125778 0.00310400 0.00000000
0.71948014 0.42887299 -0.00122546 0.00000000
0.96637383 0.88297615 -0.00026148 0.00000000
1.23554383 1.58730753 -0.00373231 0.00000000
2.28187333 1.30688834 0.00056268 0.00000000
3.51010806 1.78858632 0.00550456 0.00000000
3.33754176 0.90548018 0.00124428 0.00000000
0.81583470 2.02883343 -0.00234550 0.00000000
4.17573446 1.66014643 0.00453859 0.00000000
0.91819228 0.81786696 0.00014979 0.00000000
2.15004188 0.76888337 -0.00225552 0.00000000
3.76094681 0.25121425 -0.00261895 0.00000000
4.67503716 1.94790541 0.00036910 0.00000000
3.12797301 1.75090494 0.00305351 0.00000000
0.05215287 2.04753450 -0.00400571 0.00000000
0.09886600 0.94821949 -0.00215628 0.00000000
3.32072645 1.88136051 -0.00146326 0.00000000
2.73835345 1.04152897 -0.00198173 0.00000000
0.11491788 0.19992614 0.00083258 0.00000000
4.53305433 0.84344959 0.00056098 0.00000000
1.85864930 0.44930195 0.00001262 0.00000000
4.26419660 1.61043277 0.00155878 0.00000000
3.28952513 0.94014341 -0.00343471 0.00000000
3.34614991 0.85178117 -0.00581414 0.00000000
1.16467580 1.20083707 -0.00379132 0.00000000
3.19202913 1.30216022 0.00064251 0.00000000
0.71256911 0.64915747 -0.00148363 0.00000000
1.03280381 1.88134599 -0.00222339 0.00000000
4.61099940 0.09208508 0.00280286 0.00000000
3.35431542 1.51850941 0.00539626 0.00000000
0.73559450 0.56638975 0.00013897 0.00000000
3.12757001 1.09622305 -0.00165221 0.00000000
3.24192075 0.87525167 -0.00320773 0.00000000
3.80797364 1.84217805 0.00522410 0.00000000
0.56890330 0.71253505 0.00246374 0.00000000
2.10209505 0.37768146 -0.00357138 0.00000000
4.42651253 0.45564149 0.00190981 0.00000000
0.49866016 1.99827621 -0.00146998 0.00000000
1.27702150 1.58128579 0.00027134 0.00000000
4.17189878 0.80773289 -0.00245363 0.00000000
0.60742758 1.41100687 0.00190406 0.00000000
2.47644739 1.58288628 0.00073197 0.00000000
0.48486979 0.77867831 -0.00279721 0.00000000
2.61908322 0.73917774 0.00070118 0.00000000
0.68128805 1.44995298 0.00016846 0.00000000
1.06655019 1.55090795 -0.00126773 0.00000000
4.00190030 1.26670758 0.00111723 0.00000000
3.50499314 0.02162889 0.00104107 0.00000000
2.70601086 1.58801786 0.00095068 0.00000000
1.24330215 0.14884992 -0.00208501 0.00000000
4.52893720 1.38460267 -0.00321334 0.00000000
4.19324117 1.67805062 -0.00046013 0.00000000
3.28983523 0.24909544 -0.00152596 0.00000000
2.55197714 0.02506752 0.00228511 0.00000000
0.00229479 1.84102931 0.00144153 0.00000000
1.15244604 0.39250604 0.00340182 0.00000000
2.10904168 0.85229766 0.00181544 0.00000000
1.92187562 1.65604223 0.00082225 0.00000000
2.21017362 1.96009057 -0.00216438 0.00000000
0.33723786 0.12054458 -0.00234522 0.00000000
2.38933258 1.44702334 -0.00368919 0.00000000
0.35443733 1.13811434 0.00389682 0.00000000
2.10251269 0.64182207 -0.00257584 0.00000000
1.86365347 1.62943071 0.00094084 0.00000000
0.61428468 0.22922702 -0.00392869 0.00000000
0.99384807 1.36884834 0.00568563 0.00000000
3.54455449 1.23975336 -0.00075519 0.00000000
1.85637096 0.16108453 -0.00389995 0.00000000
4.65516672 2.00408617 0.00077738 0.00000000
0.28196564 0.07271016 0.00095951 0.00000000
0.78764228 1.16629487 0.00196946 0.00000000
0.04873414 0.46974872 -0.00010355 0.00000000
0.82501363 1.41946183 -0.00455179 0.00000000
1.71237987 1.51869256 -0.00335700 0.00000000
2.64857663 0.89341953 -0.00029169 0.00000000
1.54818191 1.51787474 -0.00326506 0.00000000
1.78729713 1.64620592 -0.00090306 0.00000000
3.68587762 0.60195562 0.00116645 0.00000000
4.69828637 0.36393654 -0.00058674 0.00000000
0.74345066 1.20126101 -0.00371254 0.00000000
0.59383632 1.81612064 0.00232864 0.00000000
0.53481915 0.70921482 0.00327386 0.00000000
1.84583064 1.12508529 0.00078937 0.00000000
4.54279979 0.55645461 -0.00133064 0.00000000
2.89986364 2.06527803 0.00363277 0.00000000
2.13420278 0.74448426 0.00671796 0.00000000
0.74228009 1.17254142 -0.00140427 0.00000000
2.48201045 0.95201562 -0.00260648 0.00000000
2.07330879 0.53700232 -0.00281629 0.00000000
4.42982915 0.38812237 0.00256960 0.00000000
4.16388044 0.65706155 -0.00180365 0.00000000
4.21863096 1.86694832 0.00101770 0.00000000
4.64841424 1.61333918 0.00473215 0.00000000
0.05765572 0.78204412 -0.00076595 0.00000000
0.58663638 0.29702597 -0.00541901 0.00000000
1.36221123 0.84317962 -0.00046162 0.00000000
4.57780776 0.12716401 -0.00103469 0.00000000
0.16521006 0.18221523 0.00298360 0.00000000
4.06284139 0.88023526 -0.00078774 0.00000000
2.83271234 1.58396966 -0.00127589 0.00000000
0.74289224 1.66558738 0.00083247 0.00000000
3.34832272 0.50350370 -0.00054236 0.00000000
3.66508008 1.88723563 -0.00109942 0.00000000
0.08737729 1.15631506 0.00241645 0.00000000
0.27271239 0.21022282 -0.00109698 0.00000000
4.44996475 0.10937417 0.00208747 0.00000000
3.68690302 1.92839975 -0.00121655 0.00000000
0.53525827 1.62328468 0.00203448 0.00000000
1.16730427 1.98195585 0.00365350 0.00000000
4.34045900 1.35187569 0.00135150 0.00000000
1.57054778 1.42072133 0.00120159 0.00000000
1.38840572 0.19273089 0.00480892 0.00000000
0.17240832 1.98931959 -0.00046353 0.00000000
1.36681637 0.48293623 0.00155112 0.00000000
4.35268321 1.45308678 0.00094467 0.00000000
2.53442256 0.79052628 -0.00365943 0.00000000
4.17629246 1.47585206 -0.00220777 0.00000000
4.04106682 1.08828218 -0.00286105 0.00000000
3.11783671 1.91240763 -0.00122758 0.00000000
3.34843034 0.88612787 -0.00059625 0.00000000
1.78632614 0.04126374 0.00147605 0.00000000
1.95350762 0.12301949 -0.00185968 0.00000000
2.18482412 1.24772129 -0.00120626 0.00000000
0.09179994 1.06199337 0.00260424 0.00000000
3.46350215 1.36437734 0.00053498 0.00000000
3.08633875 0.69112116 -0.00014347 0.00000000
2.11956845 1.39945368 -0.00260504 0.00000000
4.36455694 1.61095129 0.00083258 0.00000000
4.68717201 1.68431052 0.00020764 0.00000000
3.93961339 0.77847129 0.00118978 0.00000000
0.38153014 1.06917954 0.00191794 0.00000000
3.15746610 1.30996871 -0.00163536 0.00000000
0.60549635 0.22711531 -0.00088162 0.00000000
3.86736283 0.51526760 -0.00003724 0.00000000
1.45425682 0.22575680 0.00398581 0.00000000
1.49571089 1.55150834 -0.00006247 0.00000000
0.53896445 0.51850340 0.00091644 0.00000000
0.41492143 1.85844488 -0.00147395 0.00000000
4.15618088 0.11376201 -0.00035533 0.00000000
0.77535021 0.72696242 0.00041045 0.00000000
4.10038594 0.46130448 -0.00097828 0.00000000
1.86605529 0.36762604 -0.00035371 0.00000000
2.07392145 0.80293310 0.00087191 0.00000000
0.68045231 1.36471367 -0.00195432 0.00000000
2.88175506 1.15751284 0.00352152 0.00000000
0.43771189 0.32480075 -0.00634431 0.00000000
2.36053587 0.56842943 -0.00086969 0.00000000
4.14703157 0.48082078 -0.00150826 0.00000000
0.15029391 1.77513192 0.00142947 0.00000000
4.62583771 1.86488501 0.00081566 0.00000000
2.16649521 0.15651650 0.00011644 0.00000000
3.16791615 2.05319851 -0.00033282 0.00000000
3.75971222 0.28785786 -0.00045547 0.00000000
3.85833195 0.21023544 -0.00004773 0.00000000
2.01696790 1.08833901 0.00488816 0.00000000
3.23562468 1.06070369 0.00167955 0.00000000
2.05049744 1.70199261 0.00120486 0.00000000
2.11389623 0.67153427 -0.00047935 0.00000000
1.32227021 1.08061972 -0.00098482 0.00000000
4.15183724 1.76978181 -0.00251634 0.00000000
1.03857513 1.27273672 -0.00009290 0.00000000
0.79247161 0.91431799 0.00623236 0.00000000
3.52513709 0.02434249 -0.00045389 0.00000000
1.50024481 0.62448860 0.00411982 0.00000000
4.47830025 0.01542907 0.00253166 0.00000000
0.47054560 0.57076915 -0.00398512 0.00000000
3.82614156 0.21804111 0.00091985 0.00000000
3.47268887 0.10037544 0.00310260 0.00000000
2.66435964 2.03479169 -0.00000290 0.00000000
2.51671354 0.63087082 -0.00035428 0.00000000
2.51260232 1.12139463 -0.00087577 0.00000000
2.75381660 0.76302765 -0.00196985 0.00000000
1.26108536 0.62555250 -0.00287247 0.00000000
0.48160813 1.25174302 0.00156524 0.00000000
4.07602164 0.25624462 -0.00002412 0.00000000
0.88081828 1.63865783 0.00361246 0.00000000
1.59370405 0.75261373 0.00266687 0.00000000
2.93459571 1.20805458 0.00100201 0.00000000
0.71726599 0.02021984 -0.00276997 0.00000000
4.15441878 0.47811258 0.00178566 0.00000000
1.46077953 0.08588407 0.00007940 0.00000000
1.41488675 1.20371362 0.00547706 0.00000000
0.44040365 1.32204965 -0.00163486 0.00000000
2.98613655 1.58404018 0.00143070 0.00000000
1.20076771 0.30515551 -0.00140687 0.00000000
4.14065193 1.15283435 -0.00095170 0.00000000
2.55830926 1.44354936 0.00160085 0.00000000
2.63631200 0.43248350 -0.00078973 0.00000000
2.64449155 0.25035665 0.00257576 0.00000000
0.63886515 0.99594185 -0.00091678 0.00000000
3.95667563 0.26891026 0.00217205 0.00000000
2.67863794 0.91676631 -0.00252817 0.00000000
0.25198854 1.80225848 -0.00405890 0.00000000
1.92790583 1.61601101 0.00012940 0.00000000
4.70188643 1.99088825 -0.00134985 0.00000000
2.52041080 1.35399266 -0.00174542 0.00000000
2.61558419 1.76122851 0.00110430 0.00000000
4.66975669 1.41193792 -0.00052882 0.00000000
4.34489195 0.64734435 -0.00702521 0.00000000
0.98059229 0.00691304 0.00107858 0.00000000
3.63044301 1.92984351 0.00107314 0.00000000
2.55866739 0.82433804 -0.00068171 0.00000000
1.87692840 0.45611699 0.00248072 0.00000000
1.87516057 1.49419178 0.00239298 0.00000000
0.54962227 1.38124664 0.00161260 0.00000000
4.06011638 0.11351454 0.00059128 0.00000000
1.57222792 1.97299975 -0.00025804 0.00000000
3.77238559 1.33102719 0.00151217 0.00000000
3.21501068 1.61135849 -0.00157703 0.00000000
1.69944848 0.56652238 -0.00026785 0.00000000
4.50706474 1.08617335 0.00235048 0.00000000
4.00389018 1.26508068 -0.00154930 0.00000000
1.90023248 0.48055220 -0.00326559 0.00000000
2.81275342 1.55925864 0.00089946 0.00000000
0.22591439 0.12488399 0.00128684 0.00000000
2.87950046 0.68314028 -0.00326442 0.00000000
0.73421699 0.00323018 -0.00430856 0.00000000
2.64003547 1.15475180 0.00025500 0.00000000
3.22737451 1.00046287 -0.00017480 0.00000000
1.25252022 0.51383705 -0.00182166 0.00000000
3.64374507 1.31539757 -0.00136632 0.00000000
2.55209536 0.67918230 0.00395458 0.00000000
2.02602860 0.81328124 -0.00031307 0.00000000
3.00887907 1.96463345 -0.00477422 0.00000000
3.69327990 0.49351008 -0.00303190 0.00000000
3.80409539 0.04859396 0.00287439 0.00000000
4.15840095 1.40525144 0.00114871 0.00000000
0.66540668 1.00684418 0.00538488 0.00000000
3.83403219 0.06399763 -0.00438302 0.00000000
0.70829976 0.90174745 -0.00415471 0.00000000
3.99538756 0.55082677 -0.00205167 0.00000000
0.33282812 2.03199808 -0.00013541 0.00000000
2.16720550 1.87292839 -0.00423373 0.00000000
0.97817359 0.78479847 0.00071734 0.00000000
0.25247159 0.95749922 0.00308628 0.00000000
3.71511815 1.37415937 0.00222950 0.00000000
0.71245625 0.92149301 0.00524376 0.00000000
3.74827003 0.34553242 -0.00150133 0.00000000
3.95313207 0.96511291 -0.00062106 0.00000000
1.16789066 1.18622659 -0.00528642 0.00000000
3.91394918 1.67732533 0.00307436 0.00000000
0.34695532 0.30302083 0.00013814 0.00000000
0.57205355 1.46019622 0.00414418 0.00000000
0.96810792 0.88011429 -0.00314764 0.00000000
0.19800893 0.47731938 -0.00304406 0.00000000
0.21632880 1.00835707 -0.00186158 0.00000000
3.37160796 1.17018410 0.00377780 0.00000000
1.84653384 1.27667615 -0.00024761 0.00000000
3.93913133 1.35206023 0.00314893 0.00000000
1.87774717 0.08411649 0.00098361 0.00000000
0.74158481 0.52642629 -0.00187999 0.00000000
0.35033890 0.04003535 0.00530072 0.00000000
3.95366527 0.87522201 0.00090969 0.00000000
1.91797672 1.53599942 -0.00033785 0.00000000
4.50191585 0.29062435 -0.00001688 0.00000000
1.11495987 1.29832016 -0.00264500 0.00000000
1.40469505 0.40461120 0.00387123 0.00000000
4.21022994 0.75508314 0.00213369 0.00000000
4.03375101 0.77023978 0.00010084 0.00000000
1.75887643 0.05084463 0.00135165 0.00000000
2.77089699 1.26584742 0.00397084 0.00000000
2.87635447 0.75592771 0.00031357 0.00000000
1.99774543 1.17616602 0.00071654 0.00000000
4.70240393 0.99763300 -0.00504456 0.00000000
2.90459139 2.06414281 0.00406071 0.00000000
2.01811391 1.77813192 0.00231390 0.00000000
4.49744736 1.33383715 0.00267810 0.00000000
2.65424991 1.58220912 -0.00012915 0.00000000
2.18629985 0.32687576 -0.00092765 0.00000000
1.71056533 1.25858196 0.00078435 0.00000000
4.48940293 0.69025126 -0.00226579 0.00000000
3.29720051 0.18733960 0.00096599 0.00000000
2.98673614 1.12105375 -0.00150156 0.00000000
0.59809337 0.57938030 -0.00178010 0.00000000
3.74638662 1.67016054 -0.00209557 0.00000000
2.38329885 2.09296685 -0.00012070 0.00000000
3.17130374 0.99236778 0.00068470 0.00000000
1.95033483 0.70333190 -0.00006197 0.00000000
4.05981493 0.14230162 0.00381160 0.00000000
0.02202729 1.60520550 0.00063497 0.00000000
4.26876740 1.87682182 -0.00103484 0.00000000
3.31629123 1.11055569 0.00103236 0.00000000
0.04410030 1.08193709 -0.00174169 0.00000000
4.01067631 1.39410721 0.00082135 0.00000000
1.02793054 0.66491923 -0.00200223 0.00000000
2.77061957 1.40947997 -0.00032049 0.00000000
4.33413985 1.43428508 -0.00178511 0.00000000
3.39553395 1.73601864 0.00564260 0.00000000
2.67767435 1.04407363 -0.00469411 0.00000000
1.51968625 1.03061031 -0.00261348 0.00000000
3.08352986 1.69877011 -0.00345966 0.00000000
1.53392249 2.01919615 0.00066414 0.00000000
3.90071061 0.76347033 0.00269622 0.00000000
2.65780796 0.30162458 -0.00465910 0.00000000
0.37913411 0.19814609 0.00130324 0.00000000
3.28624569 1.22741057 -0.00102986 0.00000000
1.73484888 1.91901590 -0.00410567 0.00000000
1.56397259 0.42215373 0.00123677 0.00000000
0.59320270 1.80522759 0.00073835 0.00000000
1.91788645 0.71950589 0.00154897 0.00000000
3.77789478 0.26325637 0.00157294 0.00000000
1.97832806 1.79549849 -0.00122356 0.00000000
4.33853352 1.32771262 0.00010006 0.00000000
1.30681297 0.78262748 -0.00292732 0.00000000
0.55015636 0.92016489 -0.00250330 0.00000000
0.79115784 1.96198271 -0.00356314 0.00000000
3.92839370 1.20907737 0.00363182 0.00000000
2.47337050 1.94495113 0.00435560 0.00000000
3.67542167 0.29467514 0.00032081 0.00000000
0.35490024 0.76227896 -0.00524826 0.00000000
1.74214884 1.10704121 0.00646556 0.00000000
4.12423470 1.22988722 -0.00270170 0.00000000
2.98598938 0.07676254 0.00283755 0.00000000
3.24664393 0.70507676 0.00081663 0.00000000
3.97500318 0.98023565 -0.00231176 0.00000000
4.28064575 0.66902632 -0.00145272 0.00000000
4.54784406 1.53083180 -0.00175253 0.00000000
4.30274918 1.79132608 0.00085458 0.00000000
2.55719083 0.05422803 -0.00220668 0.00000000
1.69293570 1.00917435 -0.00267926 0.00000000
2.80714034 1.31912061 0.00028717 0.00000000
3.78322711 1.04536690 -0.00143318 0.00000000
0.10093119 0.76911259 0.00068126 0.00000000
1.33266190 0.11750524 0.00107538 0.00000000
0.44626062 0.62005100 -0.00198137 0.00000000
1.69830911 0.57812421 0.00082015 0.00000000
3.12732877 1.53051048 0.00590369 0.00000000
0.69503514 0.59997076 0.00365672 0.00000000
1.42255103 1.96700861 -0.00053982 0.00000000
2.90611233 1.70550805 0.00423244 0.00000000
4.54219749 2.00423346 0.00031548 0.00000000
0.48980076 1.81210611 0.00064510 0.00000000
2.44184325 1.38486292 -0.00156946 0.00000000
3.99980678 1.92090566 0.00125609 0.00000000
2.01317289 1.04954358 0.00280082 0.00000000
2.07644464 0.73180868 -0.00351675 0.00000000
2.16915931 0.67423083 -0.00451797 0.00000000
2.31851922 0.63269219 0.00323905 0.00000000
1.31327189 1.70264586 -0.00050013 0.00000000
2.80879031 0.65519692 0.00321550 0.00000000
2.27167391 1.67507482 0.00127344 0.00000000
4.69567980 1.94255940 -0.00266658 0.00000000
0.07304974 1.52237703 -0.00412517 0.00000000
3.42536979 1.85238995 0.00327877 0.00000000
4.54808053 0.97598314 0.00136561 0.00000000
4.56211494 1.70998957 -0.00274138 0.00000000
3.71115319 0.34953661 -0.00070056 0.00000000
1.79446376 2.08236543 -0.00012280 0.00000000
1.68524802 1.60313020 -0.00002639 0.00000000
1.03669777 1.55227687 0.00270766 0.00000000
2.08699049 1.25489936 -0.00333462 0.00000000
0.66531545 2.07408333 -0.00069300 0.00000000
2.66931535 1.84866312 0.00107727 0.00000000
2.59043266 0.30240400 0.00028321 0.00000000
0.51954147 1.47549725 0.00125343 0.00000000
1.33206054 2.08561708 -0.00085839 0.00000000
3.41000600 1.23363959 -0.00014348 0.00000000
4.43488228 1.65265606 0.00214308 0.00000000
1.67539176 0.39683237 0.00018351 0.00000000
4.24167982 1.84329696 0.00088494 0.00000000
2.37146911 1.53521685 0.00124550 0.00000000
1.35501400 0.43820726 0.00280013 0.00000000
3.72987815 0.00145292 0.00056319 0.00000000
3.97372184 0.09912747 0.00133681 0.00000000
0.44474015 0.39581924 -0.00163084 0.00000000
