4.052742 0.929057 0.001242 0.0
3.086703 0.444409 -0.001342 0.0
4.313098 2.196577 -0.001141 0.0
1.385828 1.253500 0.001551 0.0
0.012728 1.127251 -0.000579 0.0
4.591690 1.337779 -0.002791 0.0
1.953701 0.843206 0.002804 0.0
1.162711 2.103670 0.001832 0.0
3.520642 0.489542 -0.003200 0.0
0.860392 1.477407 0.000024 0.0
0.243905 1.514687 -0.000207 0.0
4.113566 1.070580 -0.001268 0.0
0.078328 1.331587 0.000750 0.0
1.967380 1.199854 -0.005565 0.0
4.170929 1.191090 0.003054 0.0
1.732481 1.320072 0.000229 0.0
2.320534 1.179626 -0.000101 0.0
3.343010 1.082217 -0.000709 0.0
0.986639 2.028112 -0.000337 0.0
2.560239 1.681360 0.001497 0.0
3.824115 1.180531 -0.000915 0.0
2.848840 0.392202 -0.002031 0.0
3.369061 1.032085 -0.001227 0.0
2.681773 1.837249 -0.001187 0.0
1.235500 2.240361 -0.000986 0.0
1.703365 1.650931 0.001275 0.0
1.555659 0.892622 -0.002042 0.0
4.565102 2.126452 0.000628 0.0
0.379487 1.788289 0.000584 0.0
0.012557 0.307481 -0.000830 0.0
4.571599 1.556364 -0.002446 0.0
1.761754 0.183063 -0.000274 0.0
4.320202 1.419629 0.002254 0.0
2.305157 1.852564 -0.002415 0.0
1.535036 1.349113 -0.002979 0.0
4.628674 0.792046 0.001145 0.0
1.812224 1.487821 -0.003137 0.0
1.191826 0.127403 0.000062 0.0
1.353946 0.587314 -0.005366 0.0
1.000301 0.476869 -0.001005 0.0
0.984109 0.814875 0.001829 0.0
0.369652 1.897394 -0.000725 0.0
2.928687 2.158117 0.001699 0.0
2.045601 0.421122 0.001898 0.0
2.161260 2.255644 0.000220 0.0
2.545507 0.933462 0.001943 0.0
3.086087 1.803730 0.002872 0.0
0.426316 0.770878 0.000627 0.0
3.163562 0.823712 0.004102 0.0
1.936692 0.731435 0.002252 0.0
0.667572 0.196272 -0.001076 0.0
2.509028 0.064730 0.001748 0.0
2.913451 1.679842 0.002787 0.0
3.399428 0.688713 -0.001853 0.0
2.268166 2.038425 -0.001444 0.0
0.623514 1.935193 -0.000643 0.0
3.901095 1.728498 -0.002905 0.0
3.730848 2.026130 -0.003864 0.0
3.218477 1.633372 0.001309 0.0
1.993176 0.592777 0.000737 0.0
0.987467 1.117463 -0.002413 0.0
2.492693 1.131877 -0.000143 0.0
1.611623 0.829320 0.002426 0.0
4.159897 1.915668 -0.003666 0.0
0.938548 0.459766 0.003289 0.0
2.159680 2.228181 -0.000909 0.0
3.787547 1.814293 0.002162 0.0
0.556014 1.619837 -0.002547 0.0
3.313707 0.446646 0.005878 0.0
3.443466 1.258016 -0.002486 0.0
0.218529 1.358193 -0.003406 0.0
0.262579 1.823710 0.002973 0.0
2.180519 0.550437 0.000750 0.0
2.574851 1.151593 -0.003583 0.0
0.618082 0.619452 0.000323 0.0
3.967220 2.022617 -0.000986 0.0
1.540922 1.834122 0.000872 0.0
1.716472 1.556205 0.001740 0.0
4.137203 0.458720 0.002585 0.0
3.057520 0.653364 0.000251 0.0
0.415363 0.058399 0.003013 0.0
4.426495 0.409455 -0.000461 0.0
1.189303 1.224644 -0.000404 0.0
2.524196 1.628279 0.000860 0.0
2.397094 0.356298 0.000785 0.0
1.850018 0.991438 -0.000989 0.0
2.953330 1.112935 -0.001133 0.0
1.281800 0.521621 -0.001329 0.0
0.504164 0.264881 -0.001659 0.0
0.080062 0.484321 0.001800 0.0
0.915225 1.385068 0.001861 0.0
2.587766 1.841273 0.003617 0.0
1.288601 1.646098 -0.001684 0.0
0.070272 2.152184 0.001642 0.0
3.853793 0.001302 0.001082 0.0
3.143566 1.611146 0.000571 0.0
3.759063 2.194513 0.002882 0.0
0.828650 1.256405 -0.002039 0.0
1.654490 2.107744 0.003249 0.0
4.413300 1.805181 0.002238 0.0
2.044055 1.727212 -0.000645 0.0
4.519556 1.587625 -0.001037 0.0
1.394175 0.558794 -0.001861 0.0
3.788254 0.139135 -0.004801 0.0
3.133559 1.037151 0.002136 0.0
0.565935 0.332918 0.003579 0.0
2.206842 1.540627 0.002465 0.0
0.899461 1.321124 0.001682 0.0
3.231067 0.257567 -0.003084 0.0
0.420129 0.424355 0.002600 0.0
3.432597 1.859872 0.001243 0.0
0.194415 1.981507 -0.002823 0.0
3.409754 0.769957 0.000920 0.0
0.838076 1.183800 0.000148 0.0
3.569715 1.649876 -0.002033 0.0
0.408576 1.384601 -0.001442 0.0
3.192183 1.874162 -0.001685 0.0
4.038426 2.020494 -0.000008 0.0
2.427166 0.913439 0.000130 0.0
3.214825 0.736212 0.001247 0.0
4.360924 2.076023 0.003035 0.0
1.934536 0.046744 -0.000853 0.0
3.651460 2.133992 -0.002593 0.0
2.450573 2.041831 0.000093 0.0
1.030263 0.826086 0.002289 0.0
2.875460 1.233436 -0.001071 0.0
1.485183 1.634455 -0.002034 0.0
1.024902 1.351498 -0.003407 0.0
3.357079 1.960959 -0.000491 0.0
3.448050 2.072759 -0.000347 0.0
1.632436 1.597468 -0.003481 0.0
1.255665 0.200808 0.000046 0.0
3.531844 1.371481 0.001099 0.0
0.243635 2.061806 0.004003 0.0
0.046642 2.136294 0.006273 0.0
3.156365 0.021570 0.000918 0.0
3.334267 1.574272 0.000330 0.0
2.593383 0.769159 0.006078 0.0
0.380784 2.032810 -0.004114 0.0
4.136302 0.586068 -0.000799 0.0
0.246863 0.030818 0.001807 0.0
1.945576 0.323206 0.001028 0.0
2.041976 1.111786 0.002840 0.0
0.524453 1.653102 -0.001920 0.0
1.092828 0.277569 -0.000476 0.0
1.077369 1.781420 0.001698 0.0
1.042214 0.699487 0.000659 0.0
0.237723 1.603262 0.004704 0.0
3.512431 0.829325 0.002137 0.0
3.431485 0.125470 0.001884 0.0
4.347737 1.830575 0.000965 0.0
0.172084 1.104984 0.000924 0.0
1.884265 0.475052 0.002052 0.0
4.525434 1.621634 0.001552 0.0
2.958228 0.716926 0.001112 0.0
4.084845 0.815844 0.000166 0.0
1.143877 1.994131 0.000865 0.0
3.078485 0.629259 0.001223 0.0
2.010818 0.014847 0.003847 0.0
3.845212 1.728117 0.001654 0.0
4.347012 0.133881 -0.000038 0.0
1.940192 1.569736 0.002246 0.0
0.778837 2.218042 0.002366 0.0
2.947010 0.277546 -0.003082 0.0
3.199774 1.714117 -0.000046 0.0
0.010511 0.521297 0.001019 0.0
2.441579 0.468166 0.001711 0.0
3.307226 1.205282 0.001580 0.0
1.881428 1.213951 -0.000889 0.0
0.042655 0.732992 -0.001498 0.0
3.222919 1.458702 -0.002597 0.0
0.124623 1.942463 0.002805 0.0
2.489066 1.119008 0.000105 0.0
4.265667 1.642416 -0.000110 0.0
2.107123 0.415724 0.002588 0.0
1.362792 0.658576 -0.000118 0.0
0.848755 2.212518 -0.001720 0.0
0.202802 1.878278 -0.002498 0.0
4.240398 0.293794 0.000947 0.0
0.833509 1.996086 -0.001714 0.0
1.038296 2.097568 -0.002100 0.0
2.472152 0.694257 -0.002341 0.0
1.493492 1.067663 -0.001070 0.0
1.864325 0.678430 -0.000642 0.0
3.100549 2.054631 -0.001876 0.0
4.173815 1.989964 -0.005627 0.0
2.739827 1.769809 0.000783 0.0
2.798936 0.093032 0.003612 0.0
0.560152 0.753521 0.002758 0.0
4.115015 1.581359 -0.002065 0.0
0.557133 0.086588 -0.001243 0.0
1.319377 0.173838 -0.000216 0.0
1.395139 1.850785 -0.001631 0.0
0.775366 1.227041 0.000585 0.0
3.161800 1.208356 0.001398 0.0
2.409126 2.237715 -0.004029 0.0
3.752026 1.989189 0.000288 0.0
3.450965 1.762694 0.000571 0.0
3.983718 1.167645 -0.004653 0.0
1.933306 1.682162 0.002899 0.0
4.083030 0.067513 -0.003869 0.0
3.849744 1.941590 0.002907 0.0
4.549104 1.221638 -0.001161 0.0
3.309433 1.184674 0.000047 0.0
2.141514 1.769092 0.000597 0.0
4.647937 1.406770 -0.002518 0.0
0.918719 0.976454 -0.002084 0.0
3.056613 1.133195 -0.000516 0.0
2.753052 0.037130 0.002301 0.0
3.333140 2.156924 0.003563 0.0
1.148059 1.755130 0.000834 0.0
0.452441 0.498268 -0.000290 0.0
0.800144 0.683873 0.002111 0.0
4.183320 0.684405 -0.000443 0.0
4.159391 0.929794 0.004526 0.0
0.111287 1.204404 -0.001398 0.0
1.278402 1.603641 -0.000835 0.0
3.446398 1.610217 -0.002796 0.0
4.094243 0.523526 0.001546 0.0
1.522716 1.915161 0.004918 0.0
1.622120 2.018671 0.003370 0.0
1.142474 2.091220 -0.000208 0.0
2.585250 0.521167 0.001305 0.0
0.251913 1.941012 0.009444 0.0
0.250033 2.188308 0.000104 0.0
4.135306 1.320064 0.002529 0.0
0.848066 1.547819 0.001931 0.0
1.621528 0.261014 -0.001684 0.0
0.903537 1.948896 0.000040 0.0
2.482905 1.244142 0.004660 0.0
4.352473 2.209817 -0.000039 0.0
4.129404 0.751658 -0.002222 0.0
3.273604 1.424234 0.006795 0.0
0.638384 0.434335 -0.000855 0.0
0.331692 0.004025 0.000034 0.0
4.651394 0.848590 -0.000955 0.0
2.974008 1.368534 -0.002937 0.0
0.321148 2.079171 0.000183 0.0
2.049564 1.371080 -0.003334 0.0
2.240863 0.393147 0.001344 0.0
0.358861 0.410223 -0.004181 0.0
2.885231 0.353018 0.002573 0.0
0.414117 0.168965 0.001964 0.0
1.459136 1.462131 0.002599 0.0
0.646036 1.386190 -0.004036 0.0
3.557422 0.832322 -0.001643 0.0
3.439090 1.698585 -0.000740 0.0
2.702134 0.562872 -0.001511 0.0
0.805637 1.470661 -0.001539 0.0
1.658580 0.802758 -0.000514 0.0
2.071885 2.263221 -0.003565 0.0
1.322249 1.864904 0.000004 0.0
0.674871 0.765900 -0.002325 0.0
1.112307 2.209111 0.000742 0.0
4.352044 0.810574 0.000005 0.0
0.113286 0.589078 -0.003225 0.0
2.678463 1.130522 -0.002114 0.0
0.749473 1.705937 -0.002882 0.0
3.771638 1.345516 -0.002289 0.0
2.642624 0.835830 0.001662 0.0
1.142499 0.548595 0.000274 0.0
2.602254 0.707720 -0.004200 0.0
0.558022 0.271985 0.001209 0.0
1.726033 0.337767 0.001414 0.0
0.006961 0.047177 -0.005677 0.0
0.699916 2.023636 -0.000025 0.0
0.878480 1.953273 -0.008211 0.0
0.461623 1.564983 0.000719 0.0
1.741744 2.248593 0.000918 0.0
2.751194 1.950641 -0.001555 0.0
0.303379 1.233754 -0.002452 0.0
0.450054 2.179746 -0.000742 0.0
4.466745 1.925202 0.001929 0.0
2.113365 2.152167 0.001259 0.0
3.028249 0.313642 0.000974 0.0
3.025363 1.476884 -0.002743 0.0
1.792420 1.263284 0.001537 0.0
2.387957 1.998757 -0.002132 0.0
3.911810 1.522952 -0.000251 0.0
2.515794 2.020936 -0.000981 0.0
3.566968 2.161204 -0.000464 0.0
0.412197 0.672217 0.001382 0.0
2.659757 1.403476 0.000700 0.0
4.080626 1.964424 0.002746 0.0
1.314904 0.062983 0.003105 0.0
2.568588 1.077284 -0.002600 0.0
2.819189 0.946137 -0.000837 0.0
2.302076 1.865964 0.001142 0.0
4.358130 1.621443 0.002616 0.0
0.549871 1.991303 0.004812 0.0
1.161303 1.251541 0.000125 0.0
1.679395 1.004826 0.003198 0.0
3.079811 1.791606 0.001660 0.0
2.268661 1.289933 0.004399 0.0
0.408603 1.347075 -0.001904 0.0
1.621621 2.057289 0.000537 0.0
4.193099 1.841582 0.000605 0.0
3.702072 0.564908 0.000437 0.0
0.667490 1.573328 -0.000301 0.0
0.108808 0.824879 0.000602 0.0
4.241903 0.578820 0.001494 0.0
3.088012 0.649944 0.004964 0.0
1.968565 0.082302 0.000436 0.0
0.929086 1.688295 0.000986 0.0
0.807539 1.909107 -0.000462 0.0
3.469976 1.344730 0.000895 0.0
0.978356 2.121746 -0.005057 0.0
2.284349 1.476800 0.001010 0.0
0.951543 1.802951 -0.002957 0.0
3.291021 1.832624 0.002566 0.0
2.383446 1.873751 -0.004286 0.0
2.319783 1.011083 0.004016 0.0
2.290488 1.146418 0.003078 0.0
3.895997 0.469609 -0.004611 0.0
0.466750 0.710371 0.001589 0.0
0.346933 1.507550 0.001459 0.0
1.973511 0.522817 0.002806 0.0
1.969830 2.118328 -0.000243 0.0
1.433852 0.480818 -0.003461 0.0
2.330956 0.358726 0.002210 0.0
2.333371 2.239832 -0.004428 0.0
1.008509 0.376436 -0.000050 0.0
4.517317 1.121414 -0.002840 0.0
2.828236 1.002389 -0.001848 0.0
0.560024 1.776581 0.003561 0.0
1.448793 1.052455 -0.001686 0.0
3.888879 2.113767 0.003317 0.0
1.803061 1.966991 0.002451 0.0
1.211943 0.412978 -0.001449 0.0
3.854534 0.288151 -0.002673 0.0
2.842750 0.979635 -0.000224 0.0
4.068263 2.205513 0.004120 0.0
0.859319 1.242611 -0.002081 0.0
3.211786 1.591784 0.003134 0.0
4.049996 2.071279 0.001800 0.0
3.810847 0.029770 0.000047 0.0
3.229903 1.024689 -0.003633 0.0
3.585302 1.634520 -0.000815 0.0
1.795597 0.303858 -0.001825 0.0
4.455017 0.000741 -0.004655 0.0
1.921866 1.581648 -0.003435 0.0
4.133734 2.207515 -0.002379 0.0
0.743445 0.742255 -0.001859 0.0
3.128745 0.282044 -0.002156 0.0
0.070337 1.557829 0.000475 0.0
1.006199 0.681502 -0.004974 0.0
0.890633 1.247992 -0.000702 0.0
0.213760 1.919560 0.000181 0.0
3.302499 0.010838 -0.002072 0.0
1.037195 1.452439 0.000444 0.0
2.879496 2.023600 -0.000059 0.0
0.325971 1.056534 -0.002034 0.0
1.745635 1.937703 -0.002992 0.0
4.302154 0.519016 -0.000221 0.0
2.697077 2.037737 0.004936 0.0
3.624729 0.786812 0.000141 0.0
1.973377 1.945964 0.002532 0.0
4.186646 0.346168 -0.005607 0.0
1.795885 1.975012 0.003700 0.0
2.652968 1.242986 0.000283 0.0
1.708518 2.202816 0.007002 0.0
0.184810 0.099124 0.000939 0.0
3.685642 0.734401 -0.000113 0.0
1.100920 1.906910 -0.000553 0.0
2.534240 1.950362 -0.003839 0.0
3.390283 1.791006 -0.002261 0.0
2.432946 0.595010 -0.003111 0.0
4.376178 1.153120 -0.003818 0.0
4.502738 1.602537 0.001560 0.0
1.374296 1.713832 0.001379 0.0
3.100444 1.998992 0.000193 0.0
2.591574 1.839090 -0.002197 0.0
1.171426 1.111661 0.002821 0.0
3.578560 0.535852 0.000306 0.0
4.237994 0.880296 0.006110 0.0
2.477095 2.228236 -0.003679 0.0
0.533659 0.116219 0.001056 0.0
2.908344 1.616944 0.001306 0.0
1.557571 1.390950 0.001719 0.0
2.508933 2.004696 0.001468 0.0
0.146350 0.046643 0.002952 0.0
0.283238 1.783989 -0.004155 0.0
2.057965 0.931744 -0.002595 0.0
4.001885 0.028043 0.004493 0.0
3.467634 0.410323 0.000624 0.0
1.639068 2.232627 -0.000411 0.0
1.512286 1.879049 0.000653 0.0
3.226205 0.611006 -0.004711 0.0
0.506455 1.677612 -0.002805 0.0
4.589204 0.317918 -0.002922 0.0
3.845892 0.793196 -0.002964 0.0
2.263919 0.423648 0.000539 0.0
0.285201 2.187280 0.003679 0.0
4.629392 2.200648 0.003480 0.0
0.348087 2.113423 -0.000237 0.0
2.368471 1.115680 0.003174 0.0
0.205414 1.001938 -0.003504 0.0
3.368472 0.749774 0.002964 0.0
2.381346 1.713553 -0.001914 0.0
0.505136 1.052528 -0.000012 0.0
3.614630 0.486407 0.001134 0.0
3.202880 1.198089 -0.000025 0.0
0.126964 2.232533 -0.003859 0.0
1.807869 2.046102 0.004640 0.0
0.980975 1.324333 -0.000321 0.0
0.946520 0.378530 -0.001485 0.0
4.585804 1.890726 0.001477 0.0
3.694486 2.007240 0.001505 0.0
4.183040 2.148653 -0.000474 0.0
1.218578 2.204506 -0.004978 0.0
3.850824 2.120423 0.002929 0.0
2.798927 2.211436 -0.000893 0.0
3.778105 0.718638 0.000095 0.0
3.031521 2.241543 -0.003486 0.0
2.931832 2.057347 0.001108 0.0
1.544473 0.333793 0.000730 0.0
3.725644 0.060766 -0.001272 0.0
2.072975 0.332797 0.002491 0.0
1.390738 2.249933 0.002918 0.0
3.129839 1.590399 0.006763 0.0
2.975504 2.073525 0.000861 0.0
1.094986 2.142661 0.001666 0.0
3.165286 1.965933 0.007352 0.0
2.106908 1.455155 0.002677 0.0
1.412902 0.738874 0.000355 0.0
4.504432 2.104455 -0.001743 0.0
3.055634 1.896660 -0.000415 0.0
2.213558 1.269812 0.002146 0.0
2.988214 0.601715 0.000787 0.0
0.191999 0.676730 -0.001489 0.0
2.638224 1.625457 0.002191 0.0
0.445047 1.355093 -0.002169 0.0
1.920605 1.735496 0.002708 0.0
1.934401 0.691030 -0.001590 0.0
2.723129 0.797115 -0.004116 0.0
2.383224 0.870679 -0.001895 0.0
2.252777 1.496108 0.003064 0.0
2.810978 0.456747 -0.001118 0.0
2.649323 2.159449 0.003617 0.0
3.313249 1.609022 0.000173 0.0
1.804559 0.672014 0.000824 0.0
3.617209 1.167853 0.003330 0.0
4.268916 1.200162 -0.000271 0.0
1.877045 0.868373 0.001239 0.0
2.273939 2.019525 -0.000381 0.0
3.420229 0.451052 0.001162 0.0
0.566227 0.920015 0.001683 0.0
2.271055 1.905581 -0.002143 0.0
2.212014 1.193808 -0.000896 0.0
3.345216 0.745796 0.002836 0.0
4.109633 0.842109 0.003099 0.0
3.438814 0.557923 -0.002115 0.0
0.219044 2.254540 -0.003114 0.0
0.350901 0.708335 -0.001705 0.0
3.517773 0.831152 0.001678 0.0
0.270911 0.900481 0.000792 0.0
1.491158 1.928365 0.002259 0.0
1.183928 2.171737 0.003502 0.0
4.142698 0.545468 -0.001659 0.0
2.706521 2.099528 0.001638 0.0
4.482743 0.761697 0.000824 0.0
4.642545 0.906759 -0.000445 0.0
3.938120 0.183251 -0.001257 0.0
1.985706 1.704836 0.002039 0.0
0.458534 1.246590 0.000293 0.0
2.370893 0.698492 -0.003357 0.0
3.017070 1.107233 0.000909 0.0
2.702011 0.235595 0.001787 0.0
1.920107 2.161419 0.004831 0.0
1.730411 1.691216 0.000827 0.0
4.201137 0.110894 0.002516 0.0
3.960682 1.796049 0.004033 0.0
0.664550 2.058216 0.001371 0.0
2.551033 0.804199 -0.001544 0.0
3.719335 0.251389 0.000663 0.0
1.507543 0.646616 -0.000965 0.0
4.590116 0.222142 0.003598 0.0
0.790614 1.598083 -0.005238 0.0
1.332642 1.784506 -0.002291 0.0
0.728055 0.907099 0.000802 0.0
0.398530 1.003730 0.003262 0.0
3.216684 0.362553 0.001923 0.0
4.479018 1.994004 0.002482 0.0
2.234359 1.046705 0.002256 0.0
4.562464 0.355766 -0.001496 0.0
4.575564 1.483601 -0.000309 0.0
0.447098 0.775960 0.000528 0.0
2.796797 1.120011 0.002500 0.0
0.953159 0.242267 -0.003035 0.0
0.373828 0.809189 0.000537 0.0
1.740578 1.350684 0.000712 0.0
1.276118 0.878068 -0.000651 0.0
4.455847 1.144768 -0.003291 0.0
4.012586 0.443462 -0.002015 0.0
4.556543 1.743599 0.002368 0.0
0.624832 0.728781 -0.000323 0.0
2.400128 1.848853 -0.001051 0.0
4.375382 0.380392 0.003831 0.0
4.491035 0.346851 -0.001723 0.0
4.545619 1.191762 -0.000201 0.0
0.256001 0.902435 0.000023 0.0
4.166157 0.303966 -0.002343 0.0
1.398039 1.484837 -0.002553 0.0
3.496500 0.372641 -0.004651 0.0
1.160968 1.299073 -0.001912 0.0
2.866127 1.929908 -0.002322 0.0
0.888691 1.898091 0.000181 0.0
4.179356 0.507989 0.001005 0.0
1.390503 2.033611 0.001341 0.0
3.570564 1.926055 -0.000767 0.0
2.599323 2.191838 0.000362 0.0
0.304228 1.231590 0.000392 0.0
3.428164 1.127510 -0.002099 0.0
0.683159 0.666956 -0.004309 0.0
4.157693 0.153156 -0.000171 0.0
3.657290 1.144339 0.000954 0.0
1.220764 0.314123 -0.002965 0.0
3.764942 0.631884 -0.002066 0.0
2.483224 0.357042 -0.002228 0.0
0.260280 0.207827 -0.000351 0.0
0.736895 0.510685 0.000843 0.0
3.302883 1.940297 -0.000468 0.0
2.928037 1.160924 -0.002098 0.0
0.457146 0.454544 0.005577 0.0
4.616832 1.626418 -0.000949 0.0
3.831103 1.118638 0.001231 0.0
1.656944 1.665218 -0.001524 0.0
0.623929 0.389892 0.001407 0.0
0.351073 2.140169 -0.001423 0.0
4.405274 1.938850 0.004684 0.0
4.542423 0.180325 0.000680 0.0
1.012085 0.311529 -0.002138 0.0
0.527078 0.545823 -0.003391 0.0
1.457064 0.211458 -0.003777 0.0
0.059252 1.926001 -0.001082 0.0
3.544175 1.483359 0.002260 0.0
3.131956 0.811148 0.000330 0.0
2.468480 0.776539 0.000499 0.0
4.597857 1.368958 0.001640 0.0
3.409301 0.029143 0.000381 0.0
2.493725 2.095831 0.005904 0.0
3.967467 1.781011 -0.006450 0.0
2.576433 0.897512 -0.000085 0.0
2.844919 0.382246 -0.000236 0.0
2.474355 0.359438 -0.002055 0.0
1.913199 0.914161 0.000364 0.0
4.258825 1.774077 -0.002573 0.0
2.959456 0.445439 0.002522 0.0
4.290854 0.086503 0.001886 0.0
0.805243 0.491391 -0.002881 0.0
0.105774 1.081905 0.002125 0.0
2.341452 0.691757 0.001628 0.0
3.423508 0.958476 -0.000446 0.0
3.847918 1.275208 -0.000011 0.0
2.186650 0.414068 0.002174 0.0
0.460893 1.355203 0.001443 0.0
0.547546 1.997335 -0.001329 0.0
4.098118 1.397669 0.005568 0.0
1.162761 0.786324 -0.000342 0.0
1.150661 1.186925 0.000644 0.0
1.694523 2.077224 -0.003617 0.0
0.992082 0.027453 0.000907 0.0
2.741077 0.611933 0.002154 0.0
2.929850 0.953032 0.002564 0.0
3.449089 0.960821 -0.001615 0.0
2.164698 0.699363 -0.004090 0.0
4.165421 0.067261 -0.002510 0.0
4.117102 1.118047 0.001298 0.0
0.908899 0.036756 0.000984 0.0
1.214336 0.889639 0.001449 0.0
2.185810 0.866534 0.000219 0.0
0.665831 0.127699 -0.002872 0.0
1.890408 1.212646 -0.000365 0.0
0.268560 0.107132 -0.002588 0.0
1.519935 0.938897 0.002547 0.0
3.362973 0.549584 0.003903 0.0
1.555793 1.235020 -0.000509 0.0
3.516448 0.105178 0.001231 0.0
4.248459 2.130220 0.001232 0.0
0.750962 0.461678 0.002724 0.0
2.004885 1.349025 0.004370 0.0
2.706051 0.861040 -0.002111 0.0
4.458542 1.115412 -0.000411 0.0
1.864758 1.799449 0.001953 0.0
4.642361 1.274166 0.001133 0.0
2.356894 0.175685 -0.001768 0.0
1.103652 0.873883 0.001530 0.0
2.541113 1.305796 0.002407 0.0
3.131376 1.245054 -0.002306 0.0
1.437859 1.128298 -0.005740 0.0
2.301287 0.587487 -0.001654 0.0
4.258610 0.781821 -0.001009 0.0
2.178137 0.965332 -0.000989 0.0
0.855319 1.594051 0.000391 0.0
3.101598 0.120654 -0.004535 0.0
2.371415 0.752551 -0.000346 0.0
4.548399 1.157993 -0.001838 0.0
1.502092 1.514456 -0.002718 0.0
1.894887 2.211492 -0.000812 0.0
1.334379 0.401087 0.000771 0.0
1.750840 0.729875 0.002521 0.0
2.801573 1.608216 0.000137 0.0
3.073343 1.136830 0.001687 0.0
4.435034 2.121905 0.001894 0.0
2.474969 0.336345 0.000596 0.0
1.999232 0.239935 -0.003451 0.0
1.975593 0.369718 0.000475 0.0
1.625898 1.459222 0.000929 0.0
0.678423 0.543890 -0.001725 0.0
3.192181 1.867876 0.002003 0.0
1.741735 1.970979 0.001824 0.0
0.850511 1.887301 0.003221 0.0
0.597486 1.097101 -0.001429 0.0
1.192348 0.771894 0.001045 0.0
2.284968 1.986400 -0.000994 0.0
1.658333 1.942287 -0.004449 0.0
1.829121 0.497288 0.002871 0.0
0.845886 2.194355 -0.001773 0.0
0.264644 1.105253 0.002150 0.0
1.480579 1.874722 -0.004168 0.0
0.184774 0.107156 -0.000706 0.0
1.152110 1.458831 0.000089 0.0
1.132065 2.080460 -0.003337 0.0
2.412211 1.682144 -0.001480 0.0
1.576185 0.044784 -0.000480 0.0
4.025051 0.623790 0.002504 0.0
0.228615 2.248633 0.001300 0.0
3.597469 1.592797 0.004349 0.0
3.272789 0.400993 -0.001643 0.0
2.943256 0.181037 -0.001468 0.0
1.270545 1.845309 -0.000387 0.0
1.134315 1.853321 0.001618 0.0
3.973671 0.044470 -0.000748 0.0
4.137606 0.016904 -0.004129 0.0
0.024499 0.366682 -0.002248 0.0
4.490582 0.129789 -0.001235 0.0
4.136475 1.808527 -0.001826 0.0
1.461676 2.106954 0.001310 0.0
4.059526 1.795080 -0.002048 0.0
2.050793 0.568035 -0.000254 0.0
0.786553 0.934530 0.000132 0.0
2.106416 0.975692 -0.000763 0.0
3.488440 0.576502 -0.000675 0.0
4.336552 0.601379 0.000360 0.0
2.137917 1.366118 0.003454 0.0
1.507471 1.319537 0.000895 0.0
0.887598 1.013863 -0.000907 0.0
0.381078 2.148553 -0.000806 0.0
4.564828 0.008078 0.001347 0.0
2.259355 2.257372 -0.002590 0.0
4.399244 0.155271 0.000790 0.0
1.456178 0.303535 0.001662 0.0
0.960235 1.317461 -0.004929 0.0
3.002212 1.786555 -0.000221 0.0
3.430242 0.494995 0.002337 0.0
4.047555 2.039250 -0.000101 0.0
4.636030 0.471052 -0.001260 0.0
1.589739 2.014910 0.000838 0.0
1.434525 0.364173 -0.000363 0.0
0.724938 1.842625 0.000241 0.0
4.014335 0.049877 -0.002083 0.0
3.518568 1.534163 -0.000308 0.0
1.975131 0.669519 0.000444 0.0
4.407767 0.497008 0.000749 0.0
3.675394 1.750939 0.000835 0.0
2.558660 1.882634 -0.002508 0.0
1.865575 0.360857 0.003265 0.0
0.353299 1.612157 0.000800 0.0
4.374105 1.904882 0.000357 0.0
3.623038 1.654422 0.001520 0.0
1.299310 0.381076 -0.002078 0.0
2.522200 1.080006 0.002559 0.0
4.358772 1.518431 0.000937 0.0
1.597343 2.092887 -0.002285 0.0
2.672098 1.135830 -0.000452 0.0
0.863297 0.782537 0.005090 0.0
1.930620 1.172178 0.000814 0.0
2.738333 1.377421 0.000252 0.0
2.274628 0.128063 -0.002080 0.0
2.577907 0.874345 0.003816 0.0
4.414165 1.973145 -0.001312 0.0
4.261592 2.087209 0.001975 0.0
3.896968 1.489358 0.000020 0.0
1.323728 0.619375 -0.002157 0.0
4.362652 0.905963 -0.006102 0.0
0.425672 1.622187 -0.000908 0.0
3.497324 0.385522 -0.001701 0.0
4.365295 2.239865 -0.002452 0.0
4.172125 1.511203 -0.000082 0.0
2.773472 1.654820 0.002431 0.0
0.693377 0.130106 -0.004445 0.0
1.343507 1.545283 0.000591 0.0
1.060649 0.477314 0.003113 0.0
2.894260 2.098842 -0.002118 0.0
1.579681 1.900376 0.003240 0.0
0.539148 0.686929 -0.000393 0.0
2.199078 1.626642 -0.002044 0.0
0.373391 1.912443 -0.002210 0.0
0.477820 0.654939 0.000022 0.0
0.583461 1.209882 -0.000874 0.0
4.220851 1.256589 -0.002435 0.0
4.252308 0.128356 -0.000219 0.0
2.727408 0.161009 -0.000049 0.0
1.189023 1.696483 0.000216 0.0
1.103262 1.034378 0.001777 0.0
1.122363 1.596626 0.002383 0.0
0.519321 1.481944 0.000929 0.0
1.369252 0.790629 -0.000919 0.0
0.098800 0.286562 -0.004742 0.0
0.046612 1.142251 0.002374 0.0
0.961494 0.663900 -0.002671 0.0
4.300700 0.519333 0.000281 0.0
1.352738 2.149474 -0.000195 0.0
0.297391 0.956923 0.001247 0.0
1.796377 0.541401 -0.001999 0.0
3.158869 0.854491 -0.001627 0.0
2.379020 0.819896 -0.002037 0.0
0.808589 0.615677 0.002689 0.0
2.246791 1.644667 -0.001118 0.0
1.588225 1.800561 0.002488 0.0
1.654489 0.012613 -0.001468 0.0
0.746237 0.466550 0.004098 0.0
0.680058 1.845079 -0.000354 0.0
2.634876 0.857973 -0.001623 0.0
1.652438 0.753620 0.003514 0.0
0.056510 0.449914 -0.004194 0.0
2.551773 1.038406 0.002972 0.0
3.107902 1.325613 -0.001767 0.0
1.568768 1.296517 -0.001858 0.0
3.388906 1.728505 0.001463 0.0
2.793175 0.808053 -0.000251 0.0
1.548930 0.663331 -0.001886 0.0
2.449074 1.238981 -0.004427 0.0
3.454154 0.548856 0.000248 0.0
2.420181 1.890493 -0.002306 0.0
3.847210 1.808032 -0.004086 0.0
4.469100 1.676806 -0.003861 0.0
3.921475 1.644529 0.000179 0.0
0.160096 1.344894 0.001340 0.0
3.701584 1.048189 -0.000061 0.0
1.437357 0.547456 0.000010 0.0
2.987047 2.232127 -0.000062 0.0
4.080568 0.158245 -0.001410 0.0
2.024078 0.998434 -0.001874 0.0
4.191914 1.498068 -0.000625 0.0
3.584737 1.482532 -0.000004 0.0
3.515637 0.069259 -0.000012 0.0
2.664428 2.008260 0.001597 0.0
1.210350 0.028879 0.001440 0.0
4.593270 1.087468 0.004482 0.0
3.969504 1.031934 0.006785 0.0
1.576096 1.470400 -0.001384 0.0
0.486131 0.199431 0.002272 0.0
1.400892 0.723009 0.000145 0.0
1.384219 1.005700 -0.002269 0.0
0.385034 1.266142 0.000669 0.0
1.426145 1.977259 0.002633 0.0
3.148821 1.435658 0.000685 0.0
0.380021 1.695398 -0.000912 0.0
0.147810 0.362879 -0.001611 0.0
4.559333 1.341273 -0.000705 0.0
3.920499 1.260237 0.001338 0.0
4.586723 1.564542 0.002259 0.0
2.032080 2.165946 -0.000549 0.0
1.452746 0.559483 -0.001714 0.0
2.023864 0.182041 -0.001139 0.0
3.642115 0.686687 0.004022 0.0
3.121987 1.261755 -0.002136 0.0
4.081222 1.090465 -0.001581 0.0
2.541408 1.983903 -0.001917 0.0
0.768963 1.310393 -0.000471 0.0
1.158258 0.385936 0.000184 0.0
2.653074 1.027182 0.000355 0.0
1.669307 1.278160 -0.001087 0.0
1.512620 0.212452 0.001824 0.0
1.544002 0.292373 0.001462 0.0
4.379712 2.072634 0.001669 0.0
0.264386 0.931106 0.000639 0.0
0.529231 2.238539 0.001563 0.0
3.079902 0.616951 0.000385 0.0
2.657198 0.182197 -0.000066 0.0
2.791266 1.986964 -0.004574 0.0
2.733633 0.709783 -0.000177 0.0
1.482801 0.013416 -0.006062 0.0
1.490281 0.491759 0.003341 0.0
2.189644 1.602861 -0.000977 0.0
4.183994 1.826759 0.000262 0.0
1.218357 1.618083 0.000286 0.0
0.881938 1.811692 0.002734 0.0
1.435651 1.513955 -0.000567 0.0
4.167249 0.419349 0.001669 0.0
1.100627 0.763015 0.003235 0.0
4.364158 0.785544 0.000771 0.0
3.793860 0.344667 -0.000592 0.0
0.549825 1.976368 -0.006448 0.0
3.231196 0.533003 -0.000834 0.0
2.239118 0.432425 0.001898 0.0
4.394774 1.346941 0.003389 0.0
0.964732 1.608877 0.002273 0.0
0.937347 0.917261 0.004193 0.0
0.967262 0.212810 0.001375 0.0
2.471986 0.403679 0.001946 0.0
3.462477 2.100307 0.001618 0.0
2.774994 0.269735 -0.001081 0.0
4.631891 1.531577 0.000740 0.0
0.639892 0.439653 0.001194 0.0
4.243242 0.569528 -0.000772 0.0
1.773222 1.967943 0.001604 0.0
2.239024 1.871624 0.005773 0.0
2.357176 0.752949 -0.002787 0.0
3.625437 1.816215 -0.008175 0.0
2.470841 1.820326 0.001593 0.0
2.776315 0.608284 -0.003904 0.0
1.130461 0.373254 0.001165 0.0
0.389532 1.958073 0.000616 0.0
2.432859 0.945380 0.000331 0.0
0.671685 0.282238 0.001456 0.0
0.464812 1.199335 0.004684 0.0
1.059671 0.985512 0.004414 0.0
0.061458 1.768265 0.001819 0.0
2.795654 0.035002 -0.002124 0.0
1.976428 1.519743 -0.002126 0.0
1.251250 1.992108 -0.000958 0.0
1.398809 0.812961 0.000184 0.0
3.789827 1.722008 0.001235 0.0
0.345018 0.469556 0.000645 0.0
3.937164 1.433297 -0.005015 0.0
0.887455 0.116485 0.000342 0.0
3.724075 2.045018 0.003478 0.0
4.087451 0.154802 0.002675 0.0
1.775946 0.041362 0.000939 0.0
4.152963 1.478020 0.004780 0.0
3.804245 1.432278 -0.001009 0.0
0.820269 1.116999 0.001670 0.0
1.515995 0.152320 -0.000300 0.0
0.122035 0.470540 0.001143 0.0
2.417904 0.902579 -0.001277 0.0
0.685404 1.350872 0.002899 0.0
0.682670 1.412602 0.001890 0.0
0.374601 0.305781 -0.005124 0.0
3.050337 1.420951 0.005268 0.0
2.018938 1.796447 -0.000892 0.0
0.655533 2.012776 0.000182 0.0
1.659263 0.788842 -0.000894 0.0
3.856343 0.803453 0.000604 0.0
4.253506 1.183786 -0.001243 0.0
3.040589 1.478821 -0.003144 0.0
2.421442 1.798510 0.001634 0.0
1.255760 1.441426 0.003493 0.0
3.535261 1.888977 0.002792 0.0
0.315989 1.865659 0.002031 0.0
0.764583 1.209078 -0.000984 0.0
1.333295 1.063021 0.001189 0.0
3.933567 1.263428 -0.001002 0.0
1.853933 0.702146 0.002409 0.0
4.389524 0.481449 0.001350 0.0
3.257076 0.167437 0.000883 0.0
2.431436 1.804763 -0.000275 0.0
2.952844 0.908007 -0.004690 0.0
0.466959 0.112210 0.002076 0.0
3.611416 0.328138 -0.001037 0.0
4.240803 1.865735 -0.003458 0.0
4.140130 0.676300 0.002395 0.0
3.554260 2.150286 -0.004586 0.0
2.893956 1.035977 0.001020 0.0
0.802778 1.252156 0.002534 0.0
2.279169 1.154288 0.002796 0.0
3.480317 1.679694 0.003004 0.0
3.654932 0.731297 -0.000439 0.0
2.892179 1.466078 0.000813 0.0
3.193824 0.394854 0.001946 0.0
0.566010 0.788588 0.000918 0.0
1.087212 1.523467 -0.003197 0.0
3.566164 0.295580 0.003005 0.0
4.087482 1.268516 -0.000489 0.0
1.277842 0.230115 -0.005692 0.0
0.893559 0.763148 -0.000128 0.0
1.575743 1.869797 0.000781 0.0
2.396037 1.401274 -0.001385 0.0
0.918011 0.159102 0.000439 0.0
1.176532 0.391167 0.002477 0.0
4.304175 1.135187 0.000073 0.0
3.663841 1.546117 0.000705 0.0
0.986405 0.927800 -0.003249 0.0
0.591998 0.612925 0.000306 0.0
3.046500 1.628963 0.001246 0.0
0.074593 1.617659 -0.001736 0.0
2.794681 1.599587 0.002447 0.0
1.674816 1.500058 -0.000851 0.0
2.085340 1.547455 -0.001659 0.0
3.274564 0.532484 0.003352 0.0
2.985248 1.787896 0.000707 0.0
0.540997 1.633500 0.000181 0.0
1.941930 0.509271 -0.004290 0.0
0.293595 0.234457 -0.001411 0.0
0.705013 0.681721 -0.003520 0.0
2.888322 0.901711 -0.003460 0.0
3.457802 0.555110 0.002908 0.0
2.249954 1.566822 0.002438 0.0
0.771203 1.629613 0.001158 0.0
0.653055 2.050287 -0.000990 0.0
3.312986 0.302467 -0.003516 0.0
3.546289 0.145466 0.002343 0.0
1.189608 0.868006 0.002455 0.0
4.599746 0.890968 -0.006297 0.0
4.263393 1.721343 0.004232 0.0
2.354859 1.761000 0.004442 0.0
2.954581 1.381902 -0.000265 0.0
2.302135 1.773690 -0.002342 0.0
2.879063 0.892788 -0.003968 0.0
0.267639 0.381889 -0.002698 0.0
1.459304 1.051234 0.001437 0.0
2.683730 1.856622 0.003055 0.0
2.112304 0.924733 -0.001524 0.0
3.256499 0.748494 -0.000103 0.0
2.602496 0.535149 -0.000065 0.0
4.160201 0.450470 0.001803 0.0
1.087862 1.798498 -0.000846 0.0
3.956924 0.871054 0.000383 0.0
1.424548 1.824688 -0.004213 0.0
2.222254 1.714867 0.000461 0.0
0.639322 2.130727 0.000438 0.0
3.430843 1.741236 -0.005569 0.0
4.463664 0.162535 0.002454 0.0
2.726154 1.603462 0.000101 0.0
4.540840 2.177577 0.001105 0.0
0.729819 1.428770 -0.001358 0.0
3.861043 0.478359 -0.003122 0.0
2.925503 1.973818 0.003286 0.0
2.159980 0.045529 -0.001466 0.0
0.168523 0.678738 0.003152 0.0
0.542328 1.474399 0.000936 0.0
1.498720 0.463405 -0.001364 0.0
1.830577 0.745826 0.000060 0.0
0.948190 1.812524 -0.005342 0.0
3.388322 1.067250 0.001281 0.0
2.062485 2.237493 -0.001415 0.0
4.525577 0.416316 0.005548 0.0
2.625109 2.139544 0.000173 0.0
0.042205 0.630095 -0.005803 0.0
2.279399 2.178643 -0.000777 0.0
0.609772 0.087996 -0.001880 0.0
3.279363 1.109087 -0.000607 0.0
0.017461 1.287489 -0.004042 0.0
0.077915 1.946160 0.000184 0.0
4.077673 0.725117 0.002270 0.0
0.483206 0.293967 0.006915 0.0
3.884939 1.590205 0.001962 0.0
2.100243 0.814018 -0.000232 0.0
0.985518 0.122180 0.007222 0.0
1.369001 1.225516 -0.001646 0.0
3.236341 0.835353 -0.001372 0.0
1.379904 1.534432 -0.000869 0.0
3.669601 0.900152 0.002029 0.0
0.916123 1.366278 -0.002979 0.0
1.620140 2.059875 -0.003792 0.0
2.926725 1.140031 0.004502 0.0
2.699960 1.926973 0.001401 0.0
4.232261 2.008105 0.001864 0.0
2.063170 1.085318 -0.000920 0.0
2.947319 1.002905 0.002599 0.0
3.365765 2.093516 0.003174 0.0
3.440709 0.481020 0.001422 0.0
3.906236 1.305100 0.002854 0.0
3.454842 0.290960 -0.003205 0.0
3.734294 1.623780 0.004222 0.0
4.116090 0.258512 0.004078 0.0
0.482594 1.387509 -0.000743 0.0
3.500722 0.764339 0.002394 0.0
4.189049 0.806077 0.003900 0.0
4.241949 1.781103 0.002049 0.0
4.409807 1.782555 0.000630 0.0
4.038673 0.662289 0.002891 0.0
1.961892 0.153466 -0.001823 0.0
3.890384 2.046455 -0.001363 0.0
2.602507 1.671865 0.001214 0.0
3.834761 0.646118 0.002182 0.0
2.508364 1.623331 -0.002243 0.0
3.663157 0.089519 0.001554 0.0
4.150009 1.404232 -0.002893 0.0
1.704578 1.610565 -0.003989 0.0
2.588350 0.406672 -0.002226 0.0
2.703880 0.395038 0.000036 0.0
0.900092 1.305882 -0.002024 0.0
4.253981 1.784394 -0.000726 0.0
4.044970 0.284409 -0.003269 0.0
3.477920 0.190433 -0.005413 0.0
3.559838 0.724231 0.001289 0.0
3.011190 0.706513 0.002632 0.0
4.313113 1.296696 -0.001887 0.0
3.013311 0.660126 -0.000785 0.0
1.065730 1.320050 -0.001290 0.0
3.046299 0.155575 0.001108 0.0
0.845972 0.771974 0.005857 0.0
0.221376 1.624497 0.001997 0.0
2.907201 1.295388 -0.003847 0.0
0.508256 1.179440 0.001364 0.0
0.731804 0.488909 0.000944 0.0
0.466139 1.836204 0.000801 0.0
0.665815 1.351482 0.000955 0.0
0.574308 0.230606 -0.001851 0.0
1.580231 2.009193 -0.000740 0.0
0.439669 0.952245 -0.002871 0.0
3.603516 1.965657 -0.003360 0.0
0.045266 2.161300 -0.001368 0.0
4.359647 1.734150 -0.001969 0.0
4.303047 0.172456 -0.001772 0.0
3.113432 0.858360 0.000217 0.0
3.775586 1.757160 0.000520 0.0
4.403032 0.027077 0.002416 0.0
2.196338 0.349334 -0.000784 0.0
0.407425 2.047902 0.003657 0.0
0.267981 1.818431 -0.003809 0.0
2.953339 1.552939 -0.002834 0.0
2.785597 0.217474 -0.003141 0.0
3.468028 1.686764 -0.002748 0.0
3.989335 0.354863 0.003281 0.0
1.717807 0.267322 0.000560 0.0
0.168652 0.193893 -0.003891 0.0
1.424040 1.550950 -0.001117 0.0
2.589195 0.675570 -0.000202 0.0
0.303162 2.069462 0.005245 0.0
0.798080 1.861344 0.004639 0.0
4.372972 0.978382 -0.006359 0.0
4.270326 1.410621 0.006426 0.0
1.795867 1.981505 -0.000351 0.0
1.968203 1.179602 0.000037 0.0
2.540072 1.617967 0.003926 0.0
2.859647 1.467231 -0.000691 0.0
4.234229 1.816951 0.000279 0.0
4.395581 1.083671 0.001156 0.0
1.509131 0.796372 -0.004843 0.0
1.139338 1.886732 -0.001928 0.0
4.596418 0.307290 -0.003097 0.0
4.328413 0.272402 0.002600 0.0
2.741638 0.173151 -0.000326 0.0
4.239065 0.352920 -0.000927 0.0
3.350653 1.390237 -0.000347 0.0
4.327014 0.971650 -0.001869 0.0
0.895317 0.530469 0.001341 0.0
2.601376 0.509451 0.000046 0.0
1.926413 0.280851 0.000332 0.0
0.464272 1.090539 0.000743 0.0
1.456587 1.314136 0.002152 0.0
0.744190 1.905814 0.002249 0.0
1.409535 0.424183 0.000972 0.0
3.639608 1.325901 0.001713 0.0
4.440803 2.146016 0.000225 0.0
3.644081 2.116609 0.000419 0.0
1.405600 0.587712 -0.002903 0.0
3.708777 1.702193 0.003116 0.0
0.596280 1.282249 -0.000218 0.0
0.853611 1.450879 -0.000238 0.0
3.878989 0.440823 -0.003483 0.0
1.409928 2.138321 0.004190 0.0
3.546232 1.089205 0.001552 0.0
3.797604 0.030576 0.001261 0.0
1.500992 1.339175 0.000275 0.0
0.252743 1.804508 0.003398 0.0
1.019881 1.514242 0.001101 0.0
0.169367 1.728905 0.000890 0.0
2.739663 0.284242 0.000536 0.0
1.677549 2.104524 -0.000792 0.0
2.380526 0.278115 0.001664 0.0
3.654896 0.382278 0.003105 0.0
4.080559 0.932180 -0.003430 0.0
3.534783 1.185709 0.000042 0.0
4.653655 2.107430 0.000983 0.0
1.140999 0.133686 0.003457 0.0
4.180707 1.207048 -0.000240 0.0
2.078836 0.753343 -0.002999 0.0
3.585121 0.287991 -0.001274 0.0
2.629463 0.055372 -0.000097 0.0
0.606498 1.951901 -0.002476 0.0
0.558096 1.050733 -0.000342 0.0
2.840920 1.231343 0.000944 0.0
1.071986 1.026012 0.000471 0.0
0.589326 1.395947 -0.002128 0.0
2.441452 2.012776 0.000008 0.0
4.520046 1.002289 -0.001238 0.0
3.290707 0.049594 -0.002442 0.0
3.217939 0.005277 0.000810 0.0
1.226431 1.402866 -0.001521 0.0
0.490193 0.246714 -0.003012 0.0
3.383215 1.674637 -0.000192 0.0
4.388053 1.416837 0.000340 0.0
4.583821 0.178140 0.000400 0.0
0.920224 1.867652 -0.000807 0.0
1.983565 1.765353 -0.001627 0.0
0.096696 1.290009 0.002051 0.0
0.878069 0.767649 -0.000398 0.0
2.864785 1.884231 -0.001459 0.0
3.950814 1.370389 0.000407 0.0
0.413514 1.328345 0.001655 0.0
4.601384 1.382892 -0.000318 0.0
0.919282 0.704294 -0.002052 0.0
4.488012 1.852577 -0.002490 0.0
1.940239 0.129162 0.003242 0.0
4.099985 2.191295 -0.000161 0.0
2.257845 0.005901 0.001484 0.0
3.903056 1.315212 0.004015 0.0
4.266692 1.736132 -0.000669 0.0
2.996089 1.011303 0.000440 0.0
0.525412 0.714795 -0.000736 0.0
2.503845 0.992559 0.001823 0.0
4.297571 2.244171 -0.000426 0.0
0.368105 0.111333 0.002778 0.0
1.358592 1.643915 -0.006482 0.0
3.363739 0.622371 0.000070 0.0
1.096886 0.433432 0.003091 0.0
1.932194 2.255074 -0.001070 0.0
1.305441 0.165180 -0.003656 0.0
4.107366 2.257526 0.003916 0.0
2.433168 0.715776 -0.001702 0.0
3.913187 1.516068 0.000575 0.0
4.092975 1.110553 0.001236 0.0
3.092380 2.231181 -0.005594 0.0
2.907058 1.579998 -0.004731 0.0
1.334916 1.734971 0.000555 0.0
3.085548 0.143940 -0.003985 0.0
4.190911 1.092470 0.003789 0.0
3.968136 0.419061 0.004141 0.0
1.227897 0.407154 -0.000716 0.0
4.549866 0.481872 0.001890 0.0
3.408057 0.704201 0.000170 0.0
2.001292 1.471880 0.000057 0.0
3.458118 0.393049 0.000056 0.0
3.508143 0.467077 0.001773 0.0
2.235790 2.135632 -0.001507 0.0
0.953979 1.800283 -0.000187 0.0
0.860503 1.546828 -0.003329 0.0
2.518490 1.983860 0.002260 0.0
1.341573 1.451658 0.002395 0.0
0.134154 1.063569 0.003099 0.0
1.780118 1.940548 0.000806 0.0
0.151384 0.510419 -0.001480 0.0
0.122353 0.196297 0.002020 0.0
4.588576 1.094942 0.000593 0.0
0.594030 1.440465 0.001677 0.0
4.411172 0.711010 0.003332 0.0
0.217834 0.813116 0.001559 0.0
2.325140 1.866534 -0.000455 0.0
3.044183 1.998370 0.000205 0.0
4.375806 0.568258 0.001452 0.0
3.976204 1.012677 0.003582 0.0
3.395563 1.173681 -0.000045 0.0
0.105832 1.739362 -0.001917 0.0
1.747254 0.222264 0.001260 0.0
3.353651 2.169789 0.000693 0.0
1.189013 1.902982 -0.002798 0.0
1.421297 0.028702 0.001240 0.0
1.441089 0.323681 0.000721 0.0
1.999672 1.962717 0.005133 0.0
2.366404 1.187809 -0.000167 0.0
0.105537 0.926646 -0.000765 0.0
4.436127 0.184430 -0.003495 0.0
4.329551 1.037998 0.002837 0.0
1.649946 0.869881 0.004303 0.0
4.631641 0.316217 0.002263 0.0
1.453789 0.127014 -0.000546 0.0
0.510154 1.328208 0.000995 0.0
0.785327 1.849843 0.006266 0.0
2.845267 1.932561 -0.003206 0.0
4.554163 1.023701 -0.001735 0.0
1.406024 0.669606 -0.000729 0.0
1.954315 2.026326 0.001093 0.0
0.602492 0.585154 0.002541 0.0
1.752426 2.161470 0.002942 0.0
0.654600 2.056979 0.001432 0.0
1.409153 0.297155 0.001214 0.0
2.908410 1.270334 0.000069 0.0
0.885526 0.208388 0.002020 0.0
3.444490 0.392034 0.003136 0.0
1.465241 0.201636 -0.001014 0.0
0.786279 0.871145 -0.002290 0.0
3.988108 1.662532 0.001777 0.0
1.639892 0.655626 -0.000344 0.0
2.136910 1.541811 0.002301 0.0
2.831597 0.363756 -0.003864 0.0
0.730435 1.435306 -0.003035 0.0
4.362008 1.968548 -0.005566 0.0
3.858839 0.462098 -0.005712 0.0
2.383726 1.685848 0.003594 0.0
4.223055 2.055629 0.002231 0.0
3.498721 0.942120 0.002048 0.0
3.524072 1.551487 0.001038 0.0
4.307458 1.964057 0.000725 0.0
0.223299 1.243835 0.000156 0.0
0.986718 2.221408 0.004200 0.0
1.565897 1.358159 -0.004863 0.0
0.453195 1.487690 0.002141 0.0
1.433466 1.773366 -0.003639 0.0
4.144848 1.804284 0.000212 0.0
1.380415 1.949236 0.003925 0.0
3.461490 1.498885 0.001122 0.0
1.224337 1.767782 -0.000251 0.0
0.740277 0.902110 -0.002364 0.0
1.233487 1.226903 0.001635 0.0
3.041971 1.388886 0.000325 0.0
3.696965 1.479231 0.002034 0.0
1.461200 0.488089 0.005413 0.0
4.343860 1.221201 0.002284 0.0
0.799801 0.382966 -0.003865 0.0
1.738597 0.987533 -0.003466 0.0
4.566676 2.062259 -0.000873 0.0
3.592682 1.111803 0.002052 0.0
1.461652 0.995736 -0.000361 0.0
0.750029 0.146528 0.004109 0.0
1.633486 1.123742 0.000645 0.0
0.416637 1.535030 -0.003825 0.0
0.102614 0.430497 -0.001755 0.0
0.617955 0.647484 -0.000484 0.0
4.255150 1.062190 -0.000986 0.0
0.853203 1.510569 -0.000296 0.0
2.207469 1.148389 0.003695 0.0
0.862185 1.007877 0.000131 0.0
1.894463 2.019818 0.002917 0.0
1.597823 0.480329 -0.002937 0.0
3.314906 2.105506 -0.000107 0.0
0.059075 0.846250 0.001167 0.0
1.010396 0.701632 0.005155 0.0
4.171239 1.849620 -0.001629 0.0
4.053774 1.961718 0.000092 0.0
1.851060 1.818200 0.000458 0.0
0.211669 0.581985 0.002062 0.0
2.124683 1.378774 -0.000180 0.0
1.705656 1.943297 -0.000148 0.0
2.450556 0.172485 -0.001341 0.0
3.972844 0.941403 -0.002104 0.0
0.874010 1.422119 0.002908 0.0
0.025287 0.001932 0.001131 0.0
1.355780 0.930706 0.002427 0.0
1.008853 1.455326 -0.002824 0.0
3.374683 1.099549 -0.001114 0.0
2.158250 1.870029 0.001545 0.0
1.589989 2.060957 -0.000465 0.0
3.951472 0.172992 -0.002781 0.0
3.172997 0.641029 0.001310 0.0
4.546814 0.032273 0.000457 0.0
4.372287 2.103132 0.001901 0.0
0.535823 1.693557 0.002214 0.0
3.461545 2.083292 -0.001005 0.0
0.110114 1.193381 -0.001832 0.0
0.092383 1.309705 -0.001551 0.0
3.295015 0.846450 0.000669 0.0
1.160792 1.863792 0.000618 0.0
3.162925 1.578745 -0.001344 0.0
2.639015 0.857846 -0.000183 0.0
2.976600 1.748611 0.000191 0.0
0.833095 1.073590 0.000577 0.0
0.149679 1.086706 -0.001226 0.0
0.443474 1.758724 -0.003035 0.0
1.437144 1.349307 0.002940 0.0
1.387827 0.109946 -0.003203 0.0
2.469156 0.558797 -0.002475 0.0
0.540046 0.396644 -0.001700 0.0
1.927383 2.215310 0.002349 0.0
2.202166 1.130694 -0.002982 0.0
4.385153 0.931412 0.001668 0.0
1.236003 2.060500 -0.002704 0.0
0.877439 1.360763 -0.004653 0.0
2.063342 0.149937 -0.000917 0.0
3.368272 2.155087 -0.006625 0.0
4.134505 0.761850 -0.002683 0.0
4.446294 1.208942 -0.001352 0.0
4.124529 1.287064 -0.000570 0.0
0.685809 0.260511 0.006842 0.0
2.999971 0.573151 0.005374 0.0
0.480842 1.397160 0.002931 0.0
3.107372 0.665106 -0.001520 0.0
2.159301 0.998950 -0.005627 0.0
1.954528 0.515530 0.001150 0.0
0.807883 0.792932 0.000704 0.0
2.272789 0.352543 0.001538 0.0
1.867327 1.686735 -0.002090 0.0
2.991961 0.366807 0.004249 0.0
1.765213 0.241955 -0.000863 0.0
0.907689 0.123316 -0.003067 0.0
0.582718 2.050602 0.001869 0.0
2.428896 0.039452 -0.006465 0.0
1.254224 2.163999 0.004564 0.0
2.577875 0.611099 0.003599 0.0
2.055533 2.012341 -0.004567 0.0
1.711970 0.775184 -0.001196 0.0
4.120931 1.419275 0.001765 0.0
0.416769 1.518325 -0.000998 0.0
2.018222 0.260735 0.001354 0.0
2.992695 0.423318 -0.001864 0.0
2.548719 2.063782 -0.000925 0.0
1.666429 2.261415 -0.001059 0.0
3.924242 0.848356 0.005701 0.0
1.920036 0.439973 -0.001064 0.0
1.774166 0.922901 0.001463 0.0
0.970002 1.428628 -0.001002 0.0
4.359422 0.817418 -0.001806 0.0
1.694549 1.543196 -0.001173 0.0
4.020011 1.693729 -0.001093 0.0
4.261799 1.939315 0.000102 0.0
0.158172 1.124147 -0.001355 0.0
4.571189 1.574781 0.000769 0.0
2.515856 0.081804 0.002099 0.0
0.508172 1.900837 0.001733 0.0
3.082081 0.394938 -0.000392 0.0
0.306940 0.647814 0.003573 0.0
0.790848 0.296838 0.003432 0.0
3.863665 1.317674 0.000450 0.0
0.770947 1.615352 -0.001304 0.0
3.035310 0.527225 -0.001943 0.0
4.232872 0.732437 0.000943 0.0
3.751148 1.958323 -0.003506 0.0
0.117399 1.739299 0.003224 0.0
4.274134 1.263445 0.003605 0.0
4.144992 0.753941 0.001001 0.0
2.153989 1.060388 -0.001551 0.0
1.345599 1.823925 -0.001243 0.0
0.615451 1.849847 0.000482 0.0
1.643528 0.980580 -0.000815 0.0
3.677537 0.139544 -0.001901 0.0
1.623564 1.024183 -0.000826 0.0
4.265987 0.260721 0.002983 0.0
4.268279 0.268937 -0.001115 0.0
1.391445 0.694008 -0.000694 0.0
3.110142 1.608959 0.003301 0.0
4.336655 1.364905 -0.003557 0.0
2.072067 2.001612 0.001330 0.0
2.133802 2.213243 -0.002073 0.0
3.718784 0.213631 -0.001602 0.0
2.572211 1.561290 0.000408 0.0
4.624973 0.440650 -0.001226 0.0
3.300941 1.489080 0.002274 0.0
4.471900 2.045140 0.005714 0.0
1.677284 1.115729 0.002767 0.0
4.479896 0.247661 -0.000919 0.0
3.662441 0.954827 0.001181 0.0
0.080670 0.846462 0.001553 0.0
1.398870 0.687160 0.001187 0.0
0.720045 0.154885 0.002765 0.0
0.780482 0.797092 0.001240 0.0
3.324123 2.146246 0.000719 0.0
0.170029 1.763695 -0.004595 0.0
1.123031 1.965433 0.006531 0.0
1.706581 1.770230 -0.001982 0.0
0.498670 1.219855 0.000596 0.0
0.369256 0.438199 -0.000012 0.0
1.769908 1.246237 -0.002733 0.0
0.075679 2.102647 0.001515 0.0
0.195205 2.178828 0.003801 0.0
1.332695 1.890158 0.000710 0.0
1.131050 0.395223 -0.002074 0.0
1.076238 1.215912 0.003044 0.0
0.779938 1.069540 0.002172 0.0
2.481190 2.181364 0.000046 0.0
2.102703 0.716932 0.002811 0.0
3.726898 1.558976 0.000188 0.0
1.947713 1.653778 -0.002319 0.0
2.633425 0.601542 0.001206 0.0
0.132044 1.679280 0.004190 0.0
0.589995 1.619859 -0.000526 0.0
4.591809 0.551831 0.000914 0.0
0.824931 1.643888 0.000318 0.0
3.231954 1.843703 0.002096 0.0
4.604974 0.263394 0.000979 0.0
4.299620 1.323179 -0.001904 0.0
0.537503 1.432846 -0.001017 0.0
4.198635 1.681005 -0.001845 0.0
3.567851 0.194118 -0.004759 0.0
0.722757 1.982427 -0.000344 0.0
2.896644 0.421238 -0.000935 0.0
1.000501 0.591653 -0.001213 0.0
0.556868 0.070017 -0.000197 0.0
0.595958 1.780944 0.001793 0.0
4.514614 0.904288 0.000524 0.0
3.226157 0.993857 -0.001595 0.0
2.886371 0.782880 -0.003584 0.0
0.342157 0.367729 -0.002359 0.0
3.834081 0.345377 -0.000448 0.0
3.110900 0.318530 0.001849 0.0
1.078563 1.190693 0.002560 0.0
1.874993 0.870482 -0.003163 0.0
3.703647 1.958581 -0.001153 0.0
4.633614 0.589571 -0.003671 0.0
4.633300 0.169009 0.002086 0.0
3.137694 0.462159 -0.003191 0.0
0.311666 0.728824 -0.002139 0.0
3.622942 0.775795 0.001897 0.0
0.255607 1.701212 0.001549 0.0
4.480852 1.376483 0.000510 0.0
0.798049 1.507718 0.000656 0.0
3.587360 0.566190 0.002728 0.0
4.455424 0.163703 -0.005219 0.0
2.326935 0.347500 -0.001613 0.0
2.126076 0.020452 -0.000516 0.0
2.716455 0.595507 0.004582 0.0
3.834270 1.396679 0.004308 0.0
2.407518 1.910014 0.001306 0.0
2.745591 2.039283 -0.000647 0.0
2.233028 2.250016 0.000503 0.0
3.151246 0.482755 -0.000839 0.0
2.930496 1.675680 0.001118 0.0
0.857090 0.819773 0.000708 0.0
1.052465 0.679329 0.000516 0.0
2.649036 1.039221 -0.000029 0.0
0.564306 1.047178 0.006564 0.0
2.196783 1.153882 0.001009 0.0
0.872282 1.799891 0.001679 0.0
0.046774 1.991500 -0.002736 0.0
0.044143 0.557016 0.000828 0.0
2.581717 1.842730 -0.005831 0.0
1.808683 1.196945 0.000551 0.0
1.013152 1.719669 0.000153 0.0
2.504500 1.039300 0.000741 0.0
2.364635 1.589592 -0.000848 0.0
2.490126 1.037094 0.001268 0.0
3.473654 0.389923 -0.001754 0.0
0.590941 1.090681 -0.005900 0.0
2.918793 0.372563 -0.002427 0.0
2.650589 1.507328 0.002919 0.0
3.544678 0.594693 -0.000129 0.0
3.597318 1.556673 0.001225 0.0
2.994643 0.956393 0.002658 0.0
3.415900 2.044926 -0.001249 0.0
0.609093 0.125407 0.002666 0.0
2.046941 1.206960 -0.000490 0.0
4.457764 0.610015 0.000476 0.0
0.879696 1.101439 -0.000603 0.0
2.880845 1.195910 0.000330 0.0
3.362820 1.761725 -0.001614 0.0
3.639339 1.548111 0.004138 0.0
2.900375 1.212383 0.002071 0.0
3.978501 0.659858 0.000992 0.0
2.797811 1.403496 0.001037 0.0
0.423091 0.006057 0.001563 0.0
1.265922 1.659572 0.002299 0.0
4.352203 1.977079 0.002965 0.0
2.334056 1.541352 -0.002941 0.0
3.688981 0.861317 -0.000980 0.0
0.633640 1.806046 -0.001540 0.0
0.022325 1.868911 -0.005494 0.0
1.629163 1.546717 -0.000382 0.0
4.280945 0.324584 0.005882 0.0
2.007854 1.185499 0.002823 0.0
0.228224 1.863148 0.000494 0.0
3.397372 1.339545 0.000356 0.0
3.768445 0.581736 -0.000911 0.0
2.818152 0.215784 0.000255 0.0
3.857442 0.917807 -0.003622 0.0
3.179920 0.023182 0.001016 0.0
2.465583 0.350163 0.000370 0.0
3.844891 0.376722 0.001906 0.0
4.211320 0.500636 -0.000019 0.0
2.039818 0.125617 0.002170 0.0
2.263507 1.559712 -0.001332 0.0
4.325077 0.817858 0.003529 0.0
3.522770 1.334185 0.002278 0.0
2.431392 0.500922 0.001355 0.0
2.368758 0.030282 -0.004451 0.0
3.943586 1.874275 0.000353 0.0
2.965102 1.057964 -0.001142 0.0
0.305958 0.798347 -0.000896 0.0
1.025927 0.028587 0.005393 0.0
3.571269 2.186199 -0.002462 0.0
0.541979 1.273529 -0.001402 0.0
0.727253 1.770883 -0.001673 0.0
2.538877 1.354755 0.001535 0.0
3.434964 0.741087 0.002126 0.0
0.439479 0.438986 -0.001621 0.0
3.527480 1.895759 0.001992 0.0
1.685228 1.670320 0.000946 0.0
3.372604 0.866017 0.001004 0.0
2.125386 2.074891 -0.002005 0.0
3.865700 1.442516 0.004212 0.0
2.214757 0.775050 -0.001112 0.0
0.031282 2.200744 -0.001867 0.0
0.819523 2.198146 0.002979 0.0
2.119937 0.836562 -0.000803 0.0
0.610295 1.953000 0.001759 0.0
3.519034 0.557278 -0.002240 0.0
3.430542 1.159487 -0.003181 0.0
1.129425 1.552151 -0.000062 0.0
2.160964 0.338471 0.001319 0.0
3.492223 0.569156 -0.000816 0.0
3.887307 1.005520 0.003024 0.0
3.827257 0.640122 0.001421 0.0
3.210756 0.551017 0.002677 0.0
3.023759 0.486436 0.000246 0.0
1.051249 1.171199 0.000712 0.0
0.884625 0.039341 0.001213 0.0
1.276814 0.300568 -0.000113 0.0
2.906173 2.158996 0.002174 0.0
1.485829 0.948705 0.001220 0.0
4.423910 2.231237 -0.000726 0.0
0.113828 1.700271 0.001266 0.0
2.335141 1.301735 0.000937 0.0
4.370108 0.487158 -0.003501 0.0
3.258839 0.370029 0.001642 0.0
3.306805 0.465256 -0.001092 0.0
2.621122 0.629324 -0.005054 0.0
3.734499 0.759673 0.001911 0.0
4.564046 1.372965 0.002865 0.0
1.980194 0.833173 0.003538 0.0
0.191253 0.868094 -0.000667 0.0
2.656533 2.013739 -0.000864 0.0
0.679772 0.524235 -0.004232 0.0
0.756620 1.011332 0.000663 0.0
1.660279 0.519490 -0.000179 0.0
1.405450 0.472541 0.000827 0.0
3.436273 1.296237 0.001113 0.0
0.741073 0.521998 -0.002131 0.0
1.013798 0.616140 0.002823 0.0
4.342797 0.847342 0.000698 0.0
1.469656 0.917187 0.000400 0.0
4.649210 0.150431 -0.001784 0.0
2.838324 1.473798 0.000528 0.0
4.606388 0.458458 -0.000171 0.0
2.621887 1.100978 0.002206 0.0
4.521125 0.318818 -0.001195 0.0
2.858720 0.695630 0.003094 0.0
1.536691 0.190107 0.001073 0.0
1.527623 0.336890 -0.000019 0.0
4.211090 0.084284 -0.000246 0.0
2.945409 1.263279 -0.001063 0.0
3.789681 0.435313 0.001505 0.0
2.414950 2.116674 0.003124 0.0
4.480826 1.761027 -0.003123 0.0
0.588294 0.264167 -0.000568 0.0
