1.672568 0.825663 -0.001191 0.0
3.175477 1.487716 0.000236 0.0
3.907683 1.424085 0.000088 0.0
1.425753 0.052897 -0.000277 0.0
3.152161 0.197318 0.001051 0.0
2.000365 0.564684 0.000438 0.0
0.215047 1.766785 0.000278 0.0
4.610705 0.281365 0.002605 0.0
3.830021 1.289706 -0.003612 0.0
2.117368 1.730235 0.004723 0.0
2.831046 1.404613 -0.003585 0.0
0.371439 2.107539 0.002402 0.0
4.580451 0.953930 -0.001979 0.0
1.475953 1.415911 -0.001091 0.0
3.025492 0.943500 0.000333 0.0
3.953272 0.727019 0.005962 0.0
1.878979 1.402949 -0.000299 0.0
2.779532 1.516641 0.000477 0.0
1.929065 1.278994 0.004152 0.0
2.897193 0.605709 0.000741 0.0
2.057263 2.063524 0.003428 0.0
1.485749 2.139605 0.000050 0.0
3.233649 1.492147 0.000493 0.0
2.705460 0.481840 -0.002897 0.0
3.407791 0.199489 -0.004649 0.0
3.001200 0.247761 0.003466 0.0
0.811987 0.988638 -0.004606 0.0
4.083476 2.041481 0.001503 0.0
2.730715 0.274794 -0.001500 0.0
4.343262 1.099693 -0.000882 0.0
4.499427 1.368222 0.001050 0.0
1.507746 0.770317 -0.002459 0.0
4.565153 1.303267 0.002858 0.0
4.086798 2.049148 0.000568 0.0
2.147068 0.869668 0.000062 0.0
1.659117 1.214092 0.000309 0.0
2.046789 0.793546 0.005734 0.0
3.582768 1.208532 0.003564 0.0
4.216457 0.968858 0.001817 0.0
2.804980 0.853320 -0.001558 0.0
3.649123 0.986194 0.002607 0.0
4.280815 0.799698 0.006238 0.0
2.199954 0.532384 0.000716 0.0
0.818174 0.525047 0.002521 0.0
3.964223 0.831366 -0.000310 0.0
2.114194 1.182900 0.001557 0.0
1.985684 2.190028 0.001653 0.0
2.388666 0.106282 -0.002225 0.0
1.173475 0.282339 -0.000017 0.0
1.664927 0.329501 0.001244 0.0
0.964725 0.890549 -0.000434 0.0
0.222224 2.157459 0.001327 0.0
1.576345 0.937969 -0.002090 0.0
3.091482 1.457954 -0.000680 0.0
0.576383 1.730632 -0.001046 0.0
1.030953 1.434965 0.001224 0.0
1.063324 0.928512 -0.000798 0.0
4.615469 1.580638 0.001054 0.0
3.508777 0.732550 0.002298 0.0
0.181922 0.545529 -0.002931 0.0
4.388650 0.413045 0.001050 0.0
1.278366 1.690846 -0.000192 0.0
2.230749 0.498829 -0.000433 0.0
4.679552 2.022914 0.002377 0.0
1.393222 0.844368 -0.001631 0.0
0.216656 0.970441 -0.000665 0.0
2.829763 1.559301 -0.002841 0.0
0.675092 0.148045 0.000861 0.0
2.091503 1.705332 0.001355 0.0
1.635791 0.928747 0.004129 0.0
4.249834 0.498682 -0.000638 0.0
3.202255 0.348767 0.002099 0.0
1.454045 0.378786 0.004072 0.0
1.325339 2.076680 0.005163 0.0
0.570683 0.072879 0.001559 0.0
3.571806 0.036917 0.002838 0.0
0.317870 1.830334 -0.000228 0.0
4.194637 2.167599 0.002659 0.0
3.925403 1.861902 0.002219 0.0
3.034482 0.265351 -0.003520 0.0
0.708339 1.717182 -0.000906 0.0
2.138782 1.266598 0.000973 0.0
0.217935 0.206276 -0.003726 0.0
0.258151 0.207147 0.000648 0.0
1.878954 0.408783 0.000300 0.0
4.768099 0.857545 0.003127 0.0
0.337666 1.457138 -0.001445 0.0
3.486047 0.654038 -0.000006 0.0
2.944166 1.586550 0.003286 0.0
3.050880 0.725522 0.000263 0.0
4.709565 0.076364 0.001074 0.0
0.604536 1.514383 0.000091 0.0
4.224885 1.474756 -0.003351 0.0
4.039573 0.619262 0.001663 0.0
0.933469 1.669872 -0.000526 0.0
2.559461 1.141908 -0.003362 0.0
2.892174 0.844652 0.002215 0.0
3.504881 0.213209 -0.004640 0.0
4.597527 1.337449 0.000081 0.0
1.356410 0.239716 0.001405 0.0
3.202218 1.943193 0.001959 0.0
1.812600 2.199487 0.001297 0.0
2.940065 0.771839 -0.004624 0.0
3.039718 0.535217 0.001722 0.0
4.027996 2.001267 -0.004052 0.0
1.766928 0.914750 0.003892 0.0
3.300012 1.783433 -0.000182 0.0
0.393371 2.072739 -0.006564 0.0
2.494633 0.354338 0.001455 0.0
3.193075 0.952715 0.000138 0.0
3.493664 2.009457 0.003218 0.0
2.000722 2.191016 -0.003989 0.0
1.717501 0.816379 0.000525 0.0
0.344051 1.096909 -0.001725 0.0
0.488901 2.141158 0.001966 0.0
1.159066 1.441491 -0.003506 0.0
3.837377 1.582674 -0.000026 0.0
0.403514 0.346646 0.001549 0.0
1.218922 0.263224 0.000889 0.0
4.624886 1.326452 0.001282 0.0
2.417236 0.094474 -0.001595 0.0
2.648176 0.376917 -0.003709 0.0
4.523316 0.299944 0.001160 0.0
1.032352 1.988498 -0.005710 0.0
1.695256 2.119537 0.002806 0.0
2.515579 0.465104 0.000767 0.0
3.375310 0.974383 -0.003025 0.0
0.777451 1.622044 0.000648 0.0
0.358243 0.176097 0.001546 0.0
0.661936 0.342246 -0.002485 0.0
1.180264 1.174850 -0.000681 0.0
1.355593 1.837783 -0.000916 0.0
3.215202 1.714047 -0.003874 0.0
0.328225 0.299592 0.004439 0.0
1.924690 1.058851 -0.001299 0.0
0.999752 0.850625 0.000107 0.0
4.081849 1.973067 0.002778 0.0
3.098303 1.299767 0.002826 0.0
2.736380 1.130162 -0.002263 0.0
4.534791 1.542360 -0.004393 0.0
1.621362 0.822321 -0.001357 0.0
1.066053 0.718729 -0.000787 0.0
4.294586 0.230216 0.002600 0.0
0.881953 1.478705 0.003842 0.0
2.519402 0.921710 0.002701 0.0
2.962679 0.386578 -0.004811 0.0
3.151819 0.987056 -0.005010 0.0
1.475605 1.198238 0.001723 0.0
3.425282 0.100707 0.002263 0.0
2.745246 0.276731 0.002932 0.0
4.536225 0.553441 -0.002950 0.0
0.025505 2.130312 -0.001267 0.0
3.842255 0.649583 0.000194 0.0
4.543089 0.835273 -0.000422 0.0
2.494986 1.532801 -0.002422 0.0
2.630679 0.079187 -0.000562 0.0
0.569037 1.340133 0.001184 0.0
2.490417 0.732984 -0.001870 0.0
0.979511 0.308915 -0.001136 0.0
0.308736 0.030066 -0.002309 0.0
2.917105 0.157290 -0.005399 0.0
4.029280 0.521886 0.003950 0.0
3.316577 1.173084 0.000033 0.0
3.526628 1.578496 0.001113 0.0
1.381211 1.526973 0.000566 0.0
2.335346 1.869270 0.000267 0.0
2.824960 0.621625 0.000761 0.0
1.371431 0.843667 -0.000155 0.0
4.443226 1.879259 0.001732 0.0
1.602182 0.305407 0.000669 0.0
4.729469 1.006084 0.000315 0.0
3.375484 1.624514 0.004384 0.0
1.595761 0.414435 -0.003425 0.0
2.458147 1.486129 0.000322 0.0
0.066946 0.027348 -0.001429 0.0
3.174456 1.151890 0.005463 0.0
3.538870 0.586145 -0.000383 0.0
4.060894 0.496288 -0.002708 0.0
0.685679 2.171002 -0.004935 0.0
1.219851 0.015837 -0.000417 0.0
1.667113 0.490968 0.001029 0.0
4.816928 1.288040 0.000616 0.0
4.537811 0.764905 0.002297 0.0
2.045685 0.885009 0.001989 0.0
0.006929 0.789191 0.003101 0.0
0.082849 1.737253 0.000181 0.0
4.180963 1.319744 -0.002369 0.0
2.558285 0.267256 -0.001756 0.0
3.657956 1.396332 0.000417 0.0
0.663514 0.375021 -0.000484 0.0
1.824918 0.155051 -0.001536 0.0
3.917386 0.641563 0.001980 0.0
1.773989 0.813291 -0.001668 0.0
2.670777 1.894029 -0.000007 0.0
2.904566 1.107942 -0.000551 0.0
1.172878 0.437887 0.001307 0.0
1.647920 1.257992 -0.002074 0.0
2.986939 0.885835 0.000839 0.0
4.204074 0.677934 -0.000138 0.0
0.073745 0.734945 0.001922 0.0
0.392533 0.860278 -0.000393 0.0
4.070930 0.512137 -0.000659 0.0
2.482814 1.141156 0.004714 0.0
1.279280 0.780156 -0.001556 0.0
1.149537 0.066076 -0.000308 0.0
0.013391 1.215178 -0.004078 0.0
3.468517 0.252506 0.000054 0.0
4.274108 1.175217 0.001131 0.0
3.548669 1.083466 -0.000348 0.0
2.105534 1.102079 0.001748 0.0
4.251900 0.243619 -0.000375 0.0
2.550751 0.941062 -0.000495 0.0
2.687219 1.774858 0.000660 0.0
4.509979 0.973697 0.001592 0.0
3.647926 0.788037 0.000947 0.0
0.569247 0.445467 0.002693 0.0
1.278217 0.031159 -0.000670 0.0
0.531655 0.518091 -0.000035 0.0
4.591293 0.826940 0.001319 0.0
1.477033 1.668604 -0.002011 0.0
1.892516 0.145955 0.002864 0.0
0.145514 0.472449 -0.003542 0.0
0.832480 1.260491 -0.001078 0.0
1.986406 1.549815 -0.001087 0.0
0.658042 1.575196 -0.000372 0.0
3.834254 1.874824 0.002402 0.0
3.812867 0.797325 -0.001232 0.0
3.853363 1.806774 -0.005983 0.0
0.050196 1.014047 0.004058 0.0
3.143381 1.132123 0.001491 0.0
3.105611 0.523680 0.001170 0.0
1.005816 0.813440 0.002487 0.0
2.765349 0.970072 -0.002795 0.0
4.373315 1.184852 -0.000559 0.0
3.784877 0.933134 0.000696 0.0
4.384930 0.891954 -0.002698 0.0
2.161221 2.203940 -0.002103 0.0
0.465534 0.660453 0.001793 0.0
3.829199 0.241564 0.002529 0.0
1.860628 1.593646 -0.001347 0.0
2.790643 0.949518 -0.004556 0.0
0.352094 1.107024 -0.002141 0.0
2.638671 0.415724 0.000966 0.0
2.268441 1.429850 -0.001027 0.0
3.142614 1.912775 0.000910 0.0
2.383467 1.129490 0.001182 0.0
2.816447 1.217895 -0.000624 0.0
4.527912 0.042137 0.002481 0.0
4.458045 1.890095 0.001085 0.0
3.351817 1.508519 -0.001623 0.0
2.988888 2.138446 0.001306 0.0
0.511217 2.059640 -0.000508 0.0
1.471528 0.456568 -0.000936 0.0
4.778915 1.292815 -0.001050 0.0
4.029638 1.181986 0.000423 0.0
2.986929 0.567584 -0.003232 0.0
4.023440 0.407416 -0.000203 0.0
1.686942 1.277224 -0.000258 0.0
0.888130 1.199401 0.003934 0.0
3.589506 1.089256 0.000444 0.0
3.504289 1.471815 -0.003898 0.0
2.063855 1.589576 0.000993 0.0
0.849188 0.691695 0.002085 0.0
3.850910 1.726407 -0.000998 0.0
3.630928 0.865255 0.005541 0.0
4.476254 0.005673 0.000092 0.0
4.548003 0.394144 0.000103 0.0
2.593030 0.729253 0.001320 0.0
2.121602 0.998286 0.000475 0.0
4.339258 1.546432 0.002265 0.0
2.575941 1.758163 0.000056 0.0
4.619749 0.215117 0.000603 0.0
1.341031 0.189056 -0.002541 0.0
3.318177 1.485385 -0.001452 0.0
2.786710 0.090854 0.001470 0.0
4.176026 1.605060 0.001644 0.0
2.937922 1.949925 0.002674 0.0
1.461600 1.381030 -0.001056 0.0
2.191398 0.477390 -0.002197 0.0
2.291018 0.204529 0.001606 0.0
3.326585 1.455672 -0.002216 0.0
3.428721 0.098714 -0.000375 0.0
1.546688 1.022634 -0.000066 0.0
0.820063 1.766160 -0.003552 0.0
0.782585 0.608828 0.002549 0.0
2.957515 0.280466 -0.002394 0.0
3.425601 0.412021 -0.000555 0.0
1.840270 1.969531 -0.002088 0.0
2.906019 1.750830 0.000674 0.0
4.570166 0.004243 0.003088 0.0
2.419386 0.567820 -0.001450 0.0
0.313617 2.190655 0.001057 0.0
2.092644 1.791429 -0.002212 0.0
1.283774 1.738361 -0.001454 0.0
2.880717 2.099394 -0.001107 0.0
1.130634 1.992961 -0.000706 0.0
4.678495 0.919780 -0.001917 0.0
3.282716 0.653660 0.002023 0.0
0.480502 0.816354 -0.000198 0.0
2.456349 0.275936 0.002329 0.0
1.676612 1.768844 -0.003850 0.0
0.501700 1.383263 -0.001770 0.0
2.102742 1.576713 0.000010 0.0
0.818598 2.167161 -0.001837 0.0
1.018443 1.075474 -0.000417 0.0
3.266116 2.174329 -0.003267 0.0
2.815921 1.935099 0.000486 0.0
2.460324 0.249739 -0.001058 0.0
1.507340 1.181534 0.002779 0.0
3.217607 0.532004 -0.001631 0.0
3.660819 0.944569 -0.004551 0.0
2.558606 0.179348 -0.005778 0.0
4.144176 1.517456 -0.002553 0.0
4.636995 1.843838 -0.004747 0.0
4.593511 0.687355 0.001790 0.0
3.378346 0.653185 -0.001841 0.0
4.528980 0.366101 -0.000699 0.0
4.655567 2.034351 0.002351 0.0
0.393435 1.435484 0.001997 0.0
2.565422 0.727539 0.005799 0.0
4.620436 1.538218 0.004868 0.0
4.053044 0.096265 -0.004497 0.0
2.607278 0.480320 0.001734 0.0
2.327919 0.291368 0.005475 0.0
2.368009 1.608455 -0.002690 0.0
0.890123 0.657203 0.003618 0.0
3.588638 0.549528 -0.002207 0.0
4.301279 1.797909 -0.003926 0.0
3.476467 0.875475 0.001223 0.0
3.398236 2.028337 -0.001582 0.0
1.255846 1.561513 -0.006573 0.0
3.801675 0.122160 -0.000598 0.0
3.740920 1.267680 0.001386 0.0
0.954449 0.780576 -0.003681 0.0
4.417867 0.609447 0.000019 0.0
2.975285 1.863836 -0.001210 0.0
3.822800 0.384595 -0.006200 0.0
2.965011 1.094476 -0.001210 0.0
0.937786 0.040156 -0.002262 0.0
4.770852 1.425015 -0.002634 0.0
1.953197 1.837036 0.003244 0.0
1.781678 0.384312 -0.000870 0.0
0.615931 1.648194 -0.005252 0.0
0.157019 0.813747 -0.001131 0.0
3.294291 0.212664 -0.001742 0.0
2.543005 0.787025 -0.002100 0.0
0.975573 1.058215 0.003328 0.0
3.499822 1.684666 -0.002316 0.0
1.593214 0.775418 -0.001398 0.0
1.926114 0.510212 0.003772 0.0
4.315727 1.562840 -0.000783 0.0
3.402793 1.954027 -0.005589 0.0
3.031094 2.110421 -0.001035 0.0
3.545221 1.860300 -0.001540 0.0
0.696153 1.904785 -0.002059 0.0
2.806421 1.025147 -0.000380 0.0
0.482623 1.355923 -0.000374 0.0
2.229174 1.315203 0.000820 0.0
1.455096 1.638730 -0.001167 0.0
0.038606 2.064752 -0.003207 0.0
0.105219 1.025276 0.000075 0.0
2.021084 0.684207 -0.000597 0.0
1.936149 0.176898 -0.003391 0.0
1.752252 0.858216 -0.003115 0.0
0.287487 2.014021 -0.000544 0.0
4.817020 2.039960 0.001668 0.0
0.876526 0.704765 -0.001616 0.0
0.705712 1.014801 0.001376 0.0
2.491984 1.642677 -0.001134 0.0
3.495161 0.834682 -0.002951 0.0
2.025467 1.362908 -0.003833 0.0
2.126580 1.466700 -0.000325 0.0
3.130929 2.061213 -0.003063 0.0
1.655709 0.009098 -0.003786 0.0
3.893773 0.901588 -0.006340 0.0
3.857819 1.008705 0.002480 0.0
2.198729 2.005824 0.000959 0.0
3.301832 0.550677 0.003082 0.0
4.293377 0.035343 0.000121 0.0
4.103819 0.857335 -0.000575 0.0
3.690965 1.888248 -0.003593 0.0
3.857974 0.219715 0.003522 0.0
3.784047 2.177963 0.000404 0.0
1.308638 1.098545 -0.001660 0.0
2.305650 0.838129 -0.003101 0.0
0.952891 0.263472 0.001628 0.0
1.560435 0.665364 -0.001622 0.0
0.620597 0.244272 -0.004152 0.0
2.785015 1.686570 0.001256 0.0
4.802428 0.640698 0.000536 0.0
2.873664 1.518812 -0.002796 0.0
1.229067 1.233594 0.002506 0.0
2.344373 0.133291 0.007453 0.0
4.245355 1.305373 -0.002232 0.0
1.959324 0.766565 -0.001838 0.0
3.459162 0.015393 0.000164 0.0
4.582578 0.124372 -0.000466 0.0
4.362127 1.025225 -0.000844 0.0
2.430908 1.446991 -0.004096 0.0
2.965131 2.191802 0.002977 0.0
4.785154 0.270334 -0.000255 0.0
0.356929 0.120399 -0.001693 0.0
0.669638 1.712662 0.000222 0.0
2.969716 1.779927 -0.001090 0.0
2.759081 2.034173 0.000159 0.0
1.640461 1.844112 0.004181 0.0
2.531474 0.404039 -0.001784 0.0
1.267879 2.177896 0.001766 0.0
2.342278 0.075045 -0.001711 0.0
2.659692 0.822191 -0.004638 0.0
0.504775 0.050323 0.001629 0.0
3.714030 0.993354 -0.003558 0.0
0.031713 1.962773 -0.001352 0.0
1.471005 0.098909 -0.000524 0.0
4.424447 1.705626 -0.000435 0.0
0.362428 0.835114 0.000480 0.0
0.641267 2.053773 0.002142 0.0
2.198898 0.699470 -0.002330 0.0
0.544237 1.568932 0.002909 0.0
1.804132 1.073598 0.004826 0.0
2.368763 2.138246 -0.002358 0.0
1.416082 1.865289 -0.004747 0.0
3.861116 2.075788 0.000392 0.0
4.177313 1.174059 0.001054 0.0
1.379121 1.678332 -0.000592 0.0
0.945544 1.862229 -0.001369 0.0
1.564689 1.150401 -0.002143 0.0
2.831674 0.246154 -0.002672 0.0
0.731928 1.521511 -0.003765 0.0
0.139606 2.063942 -0.000628 0.0
3.279785 1.830457 -0.001622 0.0
4.677125 0.072225 0.001253 0.0
3.715922 1.505159 0.000095 0.0
0.130787 0.757492 -0.002036 0.0
3.690519 1.078919 0.000988 0.0
3.014339 0.109451 -0.001103 0.0
2.658529 0.483934 -0.003702 0.0
4.798315 2.096285 0.004355 0.0
1.452080 0.901986 -0.003113 0.0
0.484517 1.954091 -0.003283 0.0
1.617991 1.213443 0.003317 0.0
1.525817 0.796312 -0.000646 0.0
0.297744 0.672771 -0.003347 0.0
1.433367 1.403911 -0.000831 0.0
4.393886 1.245569 0.002414 0.0
0.515020 0.225863 0.000445 0.0
3.070923 1.602738 -0.002972 0.0
1.217919 2.029640 -0.002825 0.0
1.163278 0.459338 0.003375 0.0
3.666970 1.554402 -0.002059 0.0
0.880003 2.142152 0.002267 0.0
2.464355 0.049343 0.000366 0.0
3.623463 0.520226 -0.000193 0.0
1.397214 1.288488 0.004438 0.0
4.091074 1.695613 0.000037 0.0
0.365222 1.463253 -0.000380 0.0
3.884658 1.730249 -0.001336 0.0
1.748871 1.980804 0.004259 0.0
4.566097 1.203352 -0.002226 0.0
4.767801 1.104317 0.000477 0.0
4.228812 0.967412 0.000077 0.0
2.329522 0.281825 0.004262 0.0
0.881748 0.069752 0.000857 0.0
3.906300 1.980729 -0.001315 0.0
1.133693 0.809143 -0.001317 0.0
4.204826 1.730399 0.003073 0.0
2.463396 2.111590 -0.004030 0.0
1.480290 0.436324 0.000335 0.0
0.006653 0.761721 0.002162 0.0
4.810714 1.621164 0.004456 0.0
0.511449 0.111197 0.000498 0.0
1.311833 1.507320 0.002405 0.0
2.562362 0.813211 -0.002449 0.0
2.827532 1.229788 -0.001797 0.0
4.169765 0.908254 0.001088 0.0
2.394392 0.803167 -0.001041 0.0
1.687674 0.373341 0.002631 0.0
0.612077 1.771746 0.003942 0.0
3.376482 0.047705 0.000442 0.0
1.680527 2.104106 0.002472 0.0
1.817266 0.939123 0.000250 0.0
0.962665 1.365556 0.000961 0.0
3.152788 1.313327 0.003465 0.0
3.542248 2.019038 0.001825 0.0
1.680898 1.906324 -0.003221 0.0
4.384660 0.760423 -0.002438 0.0
2.123329 2.079107 0.001900 0.0
1.374863 1.532563 -0.003368 0.0
2.957784 1.867493 -0.005263 0.0
4.571524 0.990161 0.003654 0.0
0.382561 1.960027 0.002164 0.0
0.135543 0.860122 0.001990 0.0
0.176383 0.163812 -0.001564 0.0
4.162325 2.140647 0.002398 0.0
1.186425 1.825486 0.001979 0.0
3.730231 0.730650 0.001929 0.0
2.630304 0.790202 -0.005068 0.0
2.367901 1.990232 -0.005463 0.0
0.109247 1.431430 0.002704 0.0
3.223412 0.206204 0.003313 0.0
3.923633 0.339139 0.000627 0.0
2.904785 0.956363 0.000799 0.0
1.254055 1.894777 0.000571 0.0
2.721719 1.916977 0.005163 0.0
2.632540 0.056564 -0.001968 0.0
1.327715 1.736897 0.000014 0.0
3.998608 0.028244 0.001115 0.0
2.502240 1.609282 0.001391 0.0
1.256123 0.899557 -0.000741 0.0
4.613520 2.082022 -0.006685 0.0
4.177692 1.982172 0.001995 0.0
0.314617 1.148531 0.002017 0.0
2.275764 1.822172 -0.000460 0.0
0.449050 0.001189 0.000591 0.0
0.449411 1.958656 -0.003050 0.0
2.460170 1.953752 -0.002204 0.0
3.079436 2.173835 -0.001197 0.0
2.782332 2.124697 -0.001559 0.0
2.626730 0.312990 0.003490 0.0
1.365889 0.258462 -0.000927 0.0
0.098508 2.132306 0.001546 0.0
0.090735 0.459741 -0.002946 0.0
2.303139 1.835463 -0.002288 0.0
1.715183 1.683387 0.002109 0.0
1.786261 1.843838 0.003828 0.0
2.315592 1.166307 -0.001872 0.0
4.087779 2.057844 -0.004560 0.0
4.594964 0.584500 0.000786 0.0
2.477538 1.390207 0.003260 0.0
2.738849 0.615083 -0.001015 0.0
3.905848 1.492578 -0.000791 0.0
1.192893 1.301839 0.000704 0.0
3.880851 0.489619 -0.000883 0.0
4.794140 1.486640 0.002993 0.0
2.290776 1.233985 -0.001344 0.0
0.937537 0.644704 -0.002614 0.0
3.711804 2.189338 0.002364 0.0
0.936962 0.830829 0.002167 0.0
2.823762 1.683708 -0.001517 0.0
4.192771 0.573638 0.000359 0.0
2.035467 0.128833 -0.002243 0.0
2.118688 0.143039 -0.004086 0.0
3.120483 0.389495 0.003075 0.0
3.323960 0.881065 0.000208 0.0
0.493347 1.764882 0.003983 0.0
2.533007 1.061867 0.000892 0.0
0.281207 0.343714 -0.001011 0.0
4.208846 1.820760 0.001299 0.0
0.995987 0.463464 0.002893 0.0
2.770650 1.425706 -0.000050 0.0
0.936939 0.207800 -0.001485 0.0
3.908858 1.425768 -0.000519 0.0
2.526539 1.043253 -0.003780 0.0
3.778132 0.038655 -0.000410 0.0
3.471360 1.864112 0.000139 0.0
0.952780 1.003111 -0.003637 0.0
4.400592 1.482018 0.004251 0.0
3.721012 1.039014 -0.002827 0.0
2.369954 1.378192 0.000975 0.0
0.611977 1.349531 -0.001359 0.0
3.744465 0.138917 0.000136 0.0
2.383739 0.720974 -0.003250 0.0
4.478010 0.636053 0.005107 0.0
2.453260 1.034419 0.000729 0.0
2.803071 1.533444 -0.000612 0.0
1.764257 0.906247 0.002834 0.0
3.609924 0.327518 0.006229 0.0
1.241308 0.321063 0.000219 0.0
0.282640 2.125764 0.003845 0.0
4.193568 1.275860 -0.003424 0.0
0.128070 2.148907 0.003111 0.0
4.250539 2.045438 -0.004152 0.0
2.483863 0.880011 -0.001159 0.0
2.249623 2.169910 0.003563 0.0
1.934324 1.168752 0.000118 0.0
0.592081 1.861265 0.002151 0.0
1.723839 1.248591 -0.005234 0.0
3.062619 0.643938 0.003277 0.0
3.362553 0.317977 -0.000330 0.0
1.320251 1.911424 0.001847 0.0
4.016042 1.649824 -0.001499 0.0
3.961564 2.013185 0.003061 0.0
0.053242 1.242368 -0.001020 0.0
2.434423 0.183331 -0.002263 0.0
4.148792 1.049308 -0.000928 0.0
2.815676 0.544577 -0.001168 0.0
0.806952 1.313867 0.001794 0.0
2.570340 1.084374 0.001241 0.0
2.325226 1.205764 0.001502 0.0
4.804943 0.128806 0.002309 0.0
4.095232 0.301587 -0.000849 0.0
4.172235 0.870629 -0.002857 0.0
3.495195 1.406339 -0.004494 0.0
1.411348 0.385646 -0.000232 0.0
4.418353 0.930459 -0.003467 0.0
0.242442 1.518619 0.000917 0.0
0.084378 2.190207 0.002487 0.0
2.552655 1.414193 0.001665 0.0
4.022174 1.552482 0.005028 0.0
1.594460 1.376917 0.002859 0.0
4.089541 2.204357 -0.001803 0.0
2.398356 1.584109 0.002393 0.0
0.187928 1.272513 -0.003640 0.0
3.533669 0.031864 -0.000771 0.0
4.306363 1.772478 -0.001685 0.0
3.337280 2.165794 -0.001301 0.0
1.987265 0.664795 0.002503 0.0
0.467995 0.076823 -0.000676 0.0
1.076442 0.946729 0.001033 0.0
2.695342 1.190172 -0.001142 0.0
4.412180 0.132411 0.000164 0.0
4.065864 0.756664 0.000652 0.0
0.777361 0.975243 0.004536 0.0
4.173724 0.972893 0.002750 0.0
1.960438 0.724151 0.002133 0.0
3.652926 0.097747 -0.001147 0.0
0.187187 0.863081 0.001086 0.0
3.296349 1.775027 -0.000079 0.0
1.339038 1.791464 -0.002477 0.0
2.321054 1.597841 0.003799 0.0
1.188961 1.272081 -0.001458 0.0
0.316753 1.022224 -0.002124 0.0
3.772495 0.045263 -0.002369 0.0
3.117904 0.688178 -0.001662 0.0
2.964601 0.134425 -0.002503 0.0
2.568092 2.193249 -0.002919 0.0
4.578655 1.279544 0.000082 0.0
0.544635 0.613854 -0.004328 0.0
0.951004 0.849290 0.004212 0.0
0.164187 0.467373 -0.000251 0.0
0.555181 1.766596 -0.002336 0.0
1.204012 1.983429 0.004028 0.0
2.543953 0.207921 -0.001597 0.0
1.411717 1.054824 0.001613 0.0
0.386457 1.850690 -0.001080 0.0
2.331105 1.758548 0.000346 0.0
3.676889 1.883399 -0.000580 0.0
4.480304 0.493215 -0.002681 0.0
2.250140 0.711377 -0.001345 0.0
2.866126 0.971142 -0.001105 0.0
3.345793 0.444799 -0.005412 0.0
2.764587 1.630848 0.003126 0.0
0.867572 0.401374 -0.002784 0.0
0.059528 2.189425 0.000648 0.0
2.664043 2.071560 0.000624 0.0
0.983429 0.901741 -0.000795 0.0
4.558275 0.915239 -0.003673 0.0
1.630093 1.256558 -0.002050 0.0
3.952861 1.223004 0.000563 0.0
0.099788 0.299450 0.000706 0.0
2.181731 1.249006 -0.002641 0.0
3.937638 1.906039 0.001697 0.0
1.314505 0.572983 -0.001488 0.0
4.750707 0.773119 0.003282 0.0
0.504939 2.027631 -0.001999 0.0
4.269274 1.563835 0.003962 0.0
0.746612 0.443525 0.001396 0.0
0.670429 1.943366 0.001083 0.0
1.956086 1.680061 -0.005155 0.0
2.581511 0.046752 -0.000809 0.0
3.346616 0.666332 0.000710 0.0
3.210646 0.009351 0.004960 0.0
4.340496 1.737510 -0.000148 0.0
4.686274 1.751213 0.003654 0.0
0.425967 0.981916 0.001679 0.0
3.187171 1.570181 -0.000850 0.0
4.338314 1.631005 -0.003733 0.0
0.795031 0.458385 -0.002080 0.0
2.530947 0.418254 0.000444 0.0
4.385238 1.508988 0.003652 0.0
0.341820 2.018909 -0.000593 0.0
3.133206 0.851477 -0.001192 0.0
3.989488 0.455312 0.002711 0.0
2.366414 0.291661 -0.001515 0.0
4.718612 0.777371 0.001309 0.0
2.661129 0.461080 0.001907 0.0
1.091153 0.696054 0.002288 0.0
2.146176 0.606065 0.003643 0.0
1.946478 0.402093 -0.000185 0.0
2.337451 1.308211 -0.003751 0.0
3.281255 0.461789 -0.002491 0.0
2.453514 1.066010 0.002449 0.0
3.948951 1.920397 -0.002000 0.0
2.378095 1.869536 0.000269 0.0
4.414465 1.197044 -0.005348 0.0
1.909399 0.145622 0.000761 0.0
2.135314 0.463260 0.001181 0.0
1.220201 1.298238 0.000114 0.0
0.695886 2.082968 0.002477 0.0
2.517087 1.432671 0.001991 0.0
2.927627 0.828462 0.001006 0.0
2.277073 0.385006 -0.000536 0.0
3.914815 0.568615 0.004252 0.0
3.621627 0.953833 0.001313 0.0
4.395940 0.895454 -0.001263 0.0
4.159324 1.594905 -0.003981 0.0
2.050495 0.744375 -0.000538 0.0
4.060588 1.075233 0.004030 0.0
3.641620 1.091792 -0.000997 0.0
1.847297 0.692198 0.000679 0.0
3.948451 0.142329 0.004860 0.0
4.713269 0.909676 -0.002739 0.0
0.466108 0.817018 0.001822 0.0
2.505869 1.985284 0.001930 0.0
3.665567 0.475109 -0.000820 0.0
4.659655 0.986867 0.002475 0.0
4.736805 0.308826 0.001571 0.0
3.713014 1.215643 0.003468 0.0
0.686012 1.741727 -0.004164 0.0
4.148417 1.964048 0.003803 0.0
1.365371 0.582547 0.003422 0.0
2.421856 1.685742 -0.000701 0.0
3.352650 0.187434 -0.003084 0.0
0.035909 0.402366 0.005285 0.0
4.016651 1.160766 -0.001218 0.0
1.107535 0.669645 -0.002715 0.0
4.605501 2.008940 0.002844 0.0
1.564116 0.422715 0.003748 0.0
0.835025 0.702701 -0.000606 0.0
2.425117 1.842670 0.000196 0.0
1.563798 1.280180 -0.003577 0.0
1.534366 0.902607 -0.000175 0.0
1.287474 1.205662 0.000120 0.0
1.489086 1.276518 -0.003016 0.0
1.252146 0.343643 0.001358 0.0
4.476321 1.972918 0.002701 0.0
2.382675 0.633556 -0.000351 0.0
0.753995 0.631730 -0.003005 0.0
4.015122 1.939469 0.004962 0.0
3.952651 0.595856 -0.002048 0.0
1.971015 2.109752 0.002733 0.0
3.540676 1.199831 -0.000353 0.0
2.673850 0.265354 0.001895 0.0
0.708103 1.451865 -0.000216 0.0
0.067853 0.771836 0.005054 0.0
2.001196 0.551291 -0.004679 0.0
1.344086 1.725390 0.002948 0.0
4.440835 1.522044 -0.003690 0.0
2.906605 1.181344 0.000235 0.0
0.534334 0.630690 -0.002094 0.0
0.643942 1.972091 -0.000643 0.0
3.482488 0.257942 -0.003157 0.0
2.865004 2.009825 0.002065 0.0
2.604617 0.158549 0.006472 0.0
0.925949 0.438544 0.001377 0.0
3.463656 2.080588 0.003321 0.0
2.808080 0.537820 0.001669 0.0
4.119503 1.914658 0.003316 0.0
1.884939 2.166233 -0.003350 0.0
1.422826 1.017682 0.004961 0.0
0.267561 0.266147 -0.001790 0.0
0.265401 1.875831 -0.003222 0.0
4.340519 1.173985 0.002828 0.0
0.641345 0.228095 0.003661 0.0
1.560426 1.844724 0.001121 0.0
1.892130 1.025211 -0.002656 0.0
0.621356 0.351184 -0.001735 0.0
3.182489 1.409506 -0.003245 0.0
3.032631 1.226154 0.002160 0.0
4.382155 1.756360 0.004528 0.0
4.790085 0.745090 -0.001360 0.0
3.181205 0.698567 0.003778 0.0
1.124349 0.380098 0.002064 0.0
2.436389 1.673477 -0.000839 0.0
4.104074 2.111719 0.001420 0.0
3.680804 1.922771 -0.001043 0.0
1.114856 0.929333 0.000844 0.0
2.878566 0.083088 -0.000866 0.0
3.786242 0.444082 0.000901 0.0
0.377534 1.367036 -0.000066 0.0
0.042666 1.297901 0.001455 0.0
0.332098 1.932627 0.002151 0.0
0.036208 0.669001 -0.001205 0.0
1.878574 0.625686 0.001298 0.0
3.602110 2.149756 0.000252 0.0
2.547916 1.145930 -0.002149 0.0
1.478687 2.070819 0.001179 0.0
2.598042 0.918988 0.000344 0.0
2.203128 0.104386 -0.002987 0.0
2.053368 0.784200 -0.000520 0.0
1.556286 1.760825 -0.000412 0.0
2.142389 0.897836 -0.002706 0.0
3.985295 0.003413 -0.001285 0.0
4.594226 0.665286 -0.005074 0.0
2.042984 1.650700 -0.003029 0.0
1.018054 0.581193 -0.001986 0.0
3.459471 0.482083 0.001904 0.0
0.609134 0.161599 0.003531 0.0
4.504940 2.205441 -0.002121 0.0
3.248383 0.985269 0.000741 0.0
3.919799 1.047053 -0.001700 0.0
3.877518 0.013259 -0.001033 0.0
2.892345 1.236252 -0.002278 0.0
4.661529 0.499982 -0.002157 0.0
4.719442 0.923937 -0.001320 0.0
3.423993 0.889768 -0.000422 0.0
1.808636 2.056972 -0.000618 0.0
3.380651 1.668071 0.001010 0.0
0.418557 1.812665 0.000937 0.0
2.681549 0.882867 -0.001063 0.0
4.514703 0.706997 -0.001573 0.0
2.822636 1.251177 0.003054 0.0
1.276057 0.108259 -0.002924 0.0
1.937802 0.743202 -0.002432 0.0
2.993559 1.250034 -0.000679 0.0
2.576647 1.078587 0.001074 0.0
2.693242 2.020876 -0.001681 0.0
4.330740 1.347078 0.001635 0.0
1.204294 1.265296 -0.001733 0.0
0.424752 0.433042 -0.000034 0.0
2.772528 1.179779 -0.000265 0.0
4.518090 2.090198 0.001053 0.0
3.342996 0.570795 -0.002703 0.0
0.946272 1.139950 -0.001336 0.0
2.433701 0.206821 0.001440 0.0
0.801446 1.309150 0.000136 0.0
3.268295 0.802580 -0.002063 0.0
3.539059 1.067724 -0.002614 0.0
2.128930 1.797654 0.001960 0.0
3.223699 0.500482 0.001908 0.0
4.257805 0.971024 0.003170 0.0
3.580419 1.104938 0.002415 0.0
4.264875 1.940651 -0.000686 0.0
3.466297 1.942533 0.002636 0.0
2.593788 0.493492 0.002138 0.0
3.325576 0.043435 0.002491 0.0
1.461557 0.766964 -0.001839 0.0
2.239922 0.680800 0.001173 0.0
0.482429 1.630671 -0.003716 0.0
3.640146 0.866602 -0.002585 0.0
1.561803 1.264599 0.003427 0.0
0.265856 1.731027 -0.003591 0.0
3.305735 0.184445 0.001534 0.0
0.820910 1.526765 -0.000374 0.0
0.030063 0.734756 0.002883 0.0
0.446278 0.959489 -0.001902 0.0
2.024251 0.731528 0.000336 0.0
1.101782 1.444569 -0.005442 0.0
4.235750 0.753248 0.002327 0.0
2.515931 0.780475 -0.001421 0.0
2.012663 1.730727 -0.001401 0.0
3.124250 1.456796 0.000723 0.0
2.293126 1.525584 0.000814 0.0
2.593698 0.454827 -0.002306 0.0
0.916660 0.953595 -0.003285 0.0
2.294327 0.745480 0.000536 0.0
2.227530 1.979689 0.001336 0.0
3.260673 1.515450 -0.000645 0.0
3.499713 1.023489 0.006375 0.0
0.668989 0.122761 -0.001757 0.0
1.013721 1.622202 -0.001695 0.0
4.049557 1.762314 0.000359 0.0
1.609978 1.786164 -0.002579 0.0
4.132679 2.199284 0.001026 0.0
1.196752 1.334239 -0.005946 0.0
3.081452 1.334539 -0.004500 0.0
4.568197 1.020234 -0.005336 0.0
2.235631 1.286330 0.003442 0.0
1.562026 1.133217 0.001413 0.0
0.063284 1.123179 -0.001995 0.0
4.354692 0.765405 0.007021 0.0
3.304888 1.329868 -0.004143 0.0
0.431583 1.790631 -0.003218 0.0
2.345726 2.024457 0.000332 0.0
3.163151 0.974993 -0.003510 0.0
1.274993 1.072394 0.003169 0.0
0.634409 0.124610 0.001188 0.0
1.447799 1.076348 -0.003039 0.0
3.998179 2.045260 -0.000934 0.0
3.871331 1.481633 -0.007491 0.0
3.273575 1.250398 0.000858 0.0
3.941205 1.396461 -0.003793 0.0
1.128438 0.457239 0.002124 0.0
3.163386 1.144334 0.000731 0.0
3.054093 1.032179 0.001378 0.0
4.042431 0.301153 0.001203 0.0
4.043161 1.128451 -0.003156 0.0
2.766865 0.499653 0.000423 0.0
2.780186 0.728271 -0.002215 0.0
1.305736 1.135010 0.001356 0.0
4.132992 2.050311 -0.001445 0.0
2.397767 1.075039 -0.000601 0.0
2.801668 0.843596 -0.002475 0.0
1.383235 1.498827 -0.005345 0.0
2.809104 2.200745 0.000129 0.0
4.677708 0.765481 0.006538 0.0
3.709839 0.945165 -0.002421 0.0
2.208819 2.164354 0.002434 0.0
3.349114 0.289008 0.003273 0.0
1.039878 0.242511 -0.001654 0.0
4.630969 0.482144 -0.002014 0.0
2.272214 1.249368 0.001640 0.0
0.093964 0.840918 -0.005529 0.0
1.252155 2.141438 -0.004055 0.0
3.002463 0.175409 0.003117 0.0
1.347737 2.113033 0.002159 0.0
0.245935 2.015006 -0.004622 0.0
4.378935 1.482191 0.001037 0.0
0.746665 0.846353 -0.000856 0.0
2.378163 0.432551 -0.002726 0.0
3.556469 0.219910 -0.004631 0.0
0.921511 1.544844 -0.003456 0.0
0.909114 1.351654 -0.001878 0.0
0.233364 0.973479 -0.002132 0.0
2.984984 1.316310 0.000683 0.0
1.060248 0.227087 -0.001358 0.0
2.052721 0.295120 -0.000687 0.0
0.681915 1.783850 0.000292 0.0
3.598920 0.719524 0.003698 0.0
0.235104 0.139511 0.002662 0.0
2.092780 1.196222 -0.002066 0.0
0.495629 0.940348 -0.001354 0.0
3.323824 0.403158 0.001879 0.0
2.872689 0.774624 0.001585 0.0
2.435811 0.609299 0.000580 0.0
2.232141 0.981985 -0.003437 0.0
3.514639 0.208019 0.000028 0.0
0.511297 0.655431 0.003087 0.0
0.465939 1.004582 0.001739 0.0
4.141344 1.357342 -0.005654 0.0
3.826125 1.491310 0.003709 0.0
1.550395 0.242657 0.002573 0.0
2.554724 2.079994 -0.006334 0.0
0.987945 1.798371 0.002958 0.0
2.602490 0.684693 0.001076 0.0
4.447870 0.859048 0.000207 0.0
4.124284 1.733333 -0.001840 0.0
0.190155 1.051724 0.002608 0.0
1.495554 0.671182 0.000723 0.0
3.764710 0.979535 0.004733 0.0
0.456474 1.903859 0.001959 0.0
0.585649 0.214786 -0.001179 0.0
0.956555 0.804386 0.003114 0.0
2.732397 1.268366 0.000821 0.0
3.953339 0.609286 -0.002883 0.0
2.844350 0.856780 0.002064 0.0
4.321127 1.929607 -0.000270 0.0
0.837721 0.320251 0.000506 0.0
0.140399 0.142081 -0.004069 0.0
1.575778 0.503121 -0.000269 0.0
3.918190 1.393055 0.000632 0.0
3.628274 0.384219 0.001926 0.0
3.679581 1.989051 -0.002232 0.0
1.496535 1.237282 0.003750 0.0
2.555201 1.010048 0.001285 0.0
1.794136 1.787390 -0.000897 0.0
3.795531 0.859066 0.002115 0.0
4.454308 1.896257 0.000349 0.0
3.434521 2.066016 -0.004418 0.0
3.758452 0.083717 0.001660 0.0
1.270570 1.892652 -0.003747 0.0
2.541242 1.255270 -0.004851 0.0
4.234533 0.084894 -0.001050 0.0
3.701119 0.816279 -0.004387 0.0
4.270416 2.105541 -0.001223 0.0
3.740386 0.562140 0.001632 0.0
1.171314 0.535894 -0.002766 0.0
3.870472 1.844127 0.001120 0.0
1.678796 1.874945 0.000262 0.0
4.458195 0.341766 -0.001469 0.0
0.402885 0.568002 0.001767 0.0
0.391663 1.965742 -0.001273 0.0
3.109143 0.316339 0.001303 0.0
0.190106 1.090470 -0.002982 0.0
4.368998 0.128408 -0.000994 0.0
2.528771 1.523017 0.000670 0.0
4.582441 1.046083 0.000571 0.0
2.617245 1.179434 -0.003854 0.0
0.590098 1.887246 0.002425 0.0
4.713161 1.141919 -0.000836 0.0
3.523647 2.022872 0.002431 0.0
3.303168 0.421738 0.001057 0.0
0.839833 0.545362 0.005099 0.0
2.428851 2.126927 0.004432 0.0
4.541897 1.214657 -0.002341 0.0
3.314718 1.626722 -0.001770 0.0
3.234210 0.423031 0.000975 0.0
1.054298 0.245857 0.002633 0.0
2.730890 0.188051 -0.004684 0.0
1.481690 0.653927 0.003176 0.0
4.060936 0.307254 0.001031 0.0
3.710202 0.226436 -0.003547 0.0
0.994067 1.952822 0.001744 0.0
3.891876 2.098601 -0.001880 0.0
2.380092 0.087977 0.003881 0.0
3.907203 0.220199 0.000388 0.0
0.386703 1.110469 -0.000224 0.0
3.582258 0.597784 0.001996 0.0
3.402817 1.689588 0.000204 0.0
4.741366 1.362237 -0.002008 0.0
2.327989 0.570666 0.005222 0.0
2.299682 0.713094 -0.002554 0.0
2.385839 1.054571 -0.002838 0.0
3.395194 0.753308 0.000836 0.0
4.822113 1.512441 0.003766 0.0
3.763012 1.028542 -0.000316 0.0
1.101657 0.733444 -0.001600 0.0
0.174899 0.227933 -0.001619 0.0
2.689033 1.501409 0.001842 0.0
0.586994 0.888693 0.000424 0.0
0.969669 1.588754 0.001775 0.0
0.595279 0.663171 -0.001193 0.0
2.649810 0.244450 0.001526 0.0
3.531759 1.270557 0.001357 0.0
3.362705 0.140948 -0.002983 0.0
4.395543 1.505446 0.000320 0.0
2.729850 1.030976 -0.000759 0.0
0.081058 0.290044 -0.000657 0.0
3.657042 1.397869 -0.003547 0.0
3.404955 0.174607 0.001809 0.0
3.914981 1.864284 -0.003303 0.0
0.240667 0.183514 0.003006 0.0
1.187958 0.736666 0.001064 0.0
3.829439 0.935456 0.001643 0.0
1.669659 1.391769 -0.002295 0.0
4.227578 1.056232 0.001533 0.0
1.004062 1.854257 -0.002094 0.0
3.376771 2.078319 0.002479 0.0
4.220519 1.488996 -0.006950 0.0
4.548240 0.984264 0.002407 0.0
2.968099 0.564027 -0.000786 0.0
2.514267 0.390900 0.001865 0.0
1.738089 0.042336 0.000964 0.0
4.808849 1.982446 -0.001731 0.0
0.815098 0.140160 -0.001599 0.0
0.185899 0.608392 0.002375 0.0
4.169037 2.010694 -0.000938 0.0
4.546708 2.188992 0.000473 0.0
4.070769 1.930640 0.002247 0.0
0.945758 1.969067 0.001004 0.0
4.556112 1.513195 -0.004816 0.0
3.201113 0.016633 0.000287 0.0
4.090423 2.034901 -0.001313 0.0
2.770968 1.447696 -0.002693 0.0
2.697119 0.261509 0.003657 0.0
3.077401 0.220313 -0.000960 0.0
2.963416 1.013266 0.004853 0.0
0.024421 0.164131 -0.003487 0.0
2.128903 0.479551 -0.000833 0.0
3.045799 0.712440 -0.000659 0.0
0.504280 0.255185 -0.000779 0.0
1.265767 1.136158 -0.000703 0.0
1.884398 1.575888 -0.001406 0.0
0.310600 0.669626 0.000250 0.0
0.543541 1.025383 0.003162 0.0
2.367813 0.916973 -0.001062 0.0
4.543000 1.905556 0.001613 0.0
2.852450 0.995672 0.000637 0.0
3.717503 0.882570 0.001307 0.0
0.896102 2.186112 -0.002814 0.0
1.339343 1.993327 0.001043 0.0
1.348989 0.197895 -0.001411 0.0
0.767312 0.388145 0.003632 0.0
3.881199 1.928435 -0.000635 0.0
2.230308 0.506318 -0.003028 0.0
3.807519 2.066105 -0.001438 0.0
3.697369 0.976864 -0.002020 0.0
3.559467 1.125259 -0.000328 0.0
3.266521 0.255045 0.001817 0.0
3.726466 0.723702 0.003168 0.0
4.366133 0.972875 -0.005122 0.0
2.112327 0.967033 0.005194 0.0
1.564408 0.409047 0.000607 0.0
4.632629 1.975000 0.000120 0.0
3.501654 2.020002 -0.001901 0.0
1.741312 0.480571 -0.001412 0.0
2.606815 1.581928 0.001852 0.0
2.688346 0.918811 0.005005 0.0
0.819175 0.788629 0.001089 0.0
0.608871 0.771891 -0.002294 0.0
0.001385 1.988503 0.002731 0.0
0.860101 0.835347 0.001803 0.0
2.428588 0.047015 0.000934 0.0
0.009953 1.544434 0.000698 0.0
3.988844 0.801085 0.004324 0.0
0.763253 0.164794 0.001059 0.0
3.476766 1.842676 -0.000835 0.0
3.399957 0.839330 0.000035 0.0
3.210068 1.627622 -0.001242 0.0
3.386615 2.155158 0.000241 0.0
0.502309 1.290596 0.002904 0.0
2.087046 1.326564 0.000857 0.0
2.698968 0.348280 -0.000590 0.0
4.409384 1.331866 0.003567 0.0
3.057687 0.681938 0.001573 0.0
4.203974 1.845726 -0.004885 0.0
1.576164 0.831951 0.000752 0.0
0.836240 1.995464 -0.000774 0.0
0.212727 0.233496 0.003161 0.0
1.765366 1.556419 -0.000404 0.0
4.687130 0.601996 -0.002015 0.0
2.482019 1.659826 0.002777 0.0
2.816620 0.581417 -0.001103 0.0
2.604337 1.448954 -0.002107 0.0
2.704849 1.976736 0.002458 0.0
4.751402 1.417926 0.002322 0.0
0.121589 1.498202 -0.001314 0.0
2.050971 2.152132 0.006969 0.0
4.720382 0.946038 -0.000091 0.0
2.529049 1.017236 -0.000253 0.0
2.224260 1.368395 0.002593 0.0
3.531229 0.399673 -0.001253 0.0
3.458174 0.477858 -0.001645 0.0
2.754624 1.877718 -0.002615 0.0
0.766838 1.852810 0.001334 0.0
2.479059 1.247742 0.001860 0.0
1.543273 1.057254 -0.001528 0.0
2.599257 1.780732 0.000213 0.0
2.385358 1.907289 -0.001631 0.0
2.474458 1.452514 -0.004006 0.0
0.520289 2.002501 -0.000519 0.0
1.796195 0.602272 -0.000241 0.0
4.113268 0.434856 0.001648 0.0
3.857070 1.467110 0.001033 0.0
3.218120 0.088169 0.000957 0.0
2.524998 1.750535 0.006145 0.0
3.371889 0.951275 0.001293 0.0
2.036747 0.832143 -0.003538 0.0
1.636450 2.082375 -0.001762 0.0
4.466039 0.140803 -0.001262 0.0
0.376999 0.561923 0.000010 0.0
0.718744 1.143646 -0.002670 0.0
0.323181 0.894363 -0.004856 0.0
1.176682 0.180210 -0.000143 0.0
1.725621 1.248024 -0.001538 0.0
1.405262 1.485170 -0.002509 0.0
1.492288 1.081611 -0.004127 0.0
0.629545 2.173537 0.001396 0.0
0.432932 0.412725 0.001229 0.0
3.261329 1.571685 -0.004047 0.0
2.432168 0.660981 0.000542 0.0
1.681850 1.865558 -0.001659 0.0
2.832613 0.026679 0.000519 0.0
4.675997 1.212668 -0.000083 0.0
0.533625 0.130976 0.000918 0.0
0.397498 1.174036 0.000336 0.0
2.908677 0.365414 0.002332 0.0
1.167943 1.930954 0.002041 0.0
1.397844 2.200815 0.000605 0.0
0.715172 2.052308 0.004683 0.0
2.527371 1.488038 -0.002749 0.0
3.928479 1.327647 0.000502 0.0
0.671551 0.272615 0.001713 0.0
2.347108 0.629857 0.001918 0.0
0.186826 0.480493 0.001028 0.0
0.989504 1.482914 0.000490 0.0
1.247167 0.709354 0.003949 0.0
2.186722 2.032056 0.002639 0.0
2.612458 1.912064 0.000181 0.0
2.286298 0.895155 -0.002039 0.0
3.644589 1.333879 -0.000261 0.0
3.699364 1.260807 -0.003410 0.0
1.963860 1.189136 0.001196 0.0
2.438594 1.397497 0.000081 0.0
1.642884 0.086255 -0.000710 0.0
4.773363 1.670154 0.000630 0.0
4.548001 2.018467 0.000388 0.0
4.138768 1.238938 0.006349 0.0
1.758982 2.074269 0.002421 0.0
4.778279 0.409424 0.000493 0.0
4.313232 1.903955 -0.001453 0.0
3.038410 1.956228 0.000668 0.0
0.413448 1.937984 -0.001094 0.0
2.025831 1.564949 0.000447 0.0
2.942991 1.823551 0.001678 0.0
3.192287 1.544265 -0.001550 0.0
3.750084 1.021204 0.002519 0.0
3.913743 1.361971 -0.000191 0.0
2.208817 0.902698 -0.001217 0.0
3.597778 1.225875 0.001007 0.0
2.762115 0.609650 -0.001092 0.0
2.847368 0.413529 -0.004653 0.0
2.172958 0.192183 -0.003951 0.0
1.834708 1.139535 0.000604 0.0
2.742034 0.537254 -0.002771 0.0
2.643213 0.842035 0.004530 0.0
1.605266 0.263244 -0.000878 0.0
1.581201 1.259038 -0.001480 0.0
1.841698 1.281167 0.000256 0.0
0.309665 1.822476 0.001617 0.0
2.836825 1.225789 0.004071 0.0
0.669659 0.761082 -0.000030 0.0
3.010986 0.780284 -0.000603 0.0
0.137992 0.336620 -0.004660 0.0
0.659551 2.032329 0.002099 0.0
3.613520 1.257546 -0.000448 0.0
0.015519 0.860403 -0.002424 0.0
2.930262 1.099729 0.001982 0.0
4.036897 0.798641 -0.002304 0.0
2.066038 2.102928 0.000704 0.0
2.204524 1.136759 -0.001450 0.0
0.292701 0.122484 -0.000254 0.0
2.850811 0.273675 -0.002242 0.0
4.366425 0.949245 -0.001813 0.0
0.360499 1.006327 0.004802 0.0
4.559071 0.786139 0.002407 0.0
0.787232 1.119340 0.001883 0.0
1.502515 2.128588 -0.001853 0.0
0.798460 0.407391 -0.000835 0.0
4.164048 1.919064 -0.000834 0.0
1.309848 1.464820 0.000594 0.0
0.966001 1.534360 -0.000162 0.0
1.784905 1.857384 0.003301 0.0
3.335033 0.904517 -0.004132 0.0
4.168163 0.295367 -0.001654 0.0
2.377543 0.840502 0.002459 0.0
2.387345 0.322792 0.001077 0.0
0.619413 0.002224 0.032132 0.0
2.981350 0.002773 0.160045 0.0
1.905963 -0.000286 0.234250 0.0
2.312823 -0.002580 0.233578 0.0
0.057758 0.002399 0.237520 0.0
4.282678 0.003093 0.296003 0.0
2.864409 0.000692 0.100274 0.0
3.266023 0.000934 0.100235 0.0
1.835889 -0.005500 0.245943 0.0
0.308656 0.001461 0.097890 0.0
1.738523 -0.000585 0.289283 0.0
4.000951 -0.000224 0.027782 0.0
3.251643 0.005354 0.047323 0.0
3.718342 -0.001732 0.261462 0.0
1.323260 -0.001635 0.117578 0.0
1.658365 -0.000144 0.297955 0.0
4.579853 -0.004510 0.237323 0.0
4.583805 -0.002759 0.086070 0.0
1.099640 0.000276 0.193969 0.0
3.510906 0.002250 0.216484 0.0
0.778413 -0.001769 0.056164 0.0
2.760321 -0.001958 0.284622 0.0
3.943546 -0.000051 0.083814 0.0
1.229835 0.000651 0.037904 0.0
3.902885 -0.001353 0.219903 0.0
3.766159 0.001641 0.251955 0.0
0.085849 -0.003414 0.091639 0.0
4.114628 0.002807 0.142033 0.0
2.973282 -0.003365 0.261604 0.0
2.399739 0.000157 0.183380 0.0
1.365327 0.002172 0.270015 0.0
3.320941 -0.000427 0.295135 0.0
1.359735 0.000148 0.011537 0.0
1.569332 -0.001109 0.255438 0.0
4.792118 -0.004484 0.289332 0.0
0.903732 -0.001540 0.005185 0.0
3.745313 -0.003705 0.223350 0.0
2.036257 -0.003509 0.113009 0.0
2.373145 0.002637 0.278836 0.0
1.511969 -0.001021 0.075133 0.0
3.540294 0.002192 0.111981 0.0
0.450879 -0.004023 0.063115 0.0
0.089294 -0.001648 0.210781 0.0
0.386120 -0.002011 0.138598 0.0
2.548316 -0.000315 0.181566 0.0
1.792875 0.000907 0.198155 0.0
4.320065 0.001747 0.191601 0.0
1.452536 0.000887 0.008014 0.0
0.793473 -0.000020 0.030378 0.0
0.259129 -0.002188 0.020847 0.0
2.392113 -0.001565 0.273632 0.0
0.753738 -0.005264 0.173682 0.0
4.047968 -0.000888 0.257648 0.0
0.882683 -0.001618 0.011860 0.0
3.995056 -0.003795 0.233122 0.0
4.375664 -0.001090 0.264765 0.0
1.271733 -0.005472 0.175739 0.0
4.291218 -0.000003 0.137142 0.0
0.453701 -0.000252 0.274066 0.0
4.250712 -0.000572 0.093788 0.0
0.383489 -0.001357 0.026070 0.0
3.911799 -0.001609 0.204311 0.0
4.798203 0.001145 0.254721 0.0
0.594323 -0.000283 0.281705 0.0
1.696417 -0.000540 0.248487 0.0
4.815274 -0.002319 0.200255 0.0
2.226150 -0.003220 0.256447 0.0
2.229001 -0.007734 0.148385 0.0
0.260724 0.002792 0.021679 0.0
0.872454 -0.003107 0.283919 0.0
4.397640 -0.003052 0.114453 0.0
0.969683 0.000366 0.132601 0.0
4.605804 -0.002503 0.010010 0.0
0.072794 0.003759 0.222408 0.0
4.813565 -0.001040 0.254196 0.0
3.445765 -0.000786 0.276083 0.0
4.642828 0.001323 0.266518 0.0
4.372947 -0.000036 0.172203 0.0
0.250352 -0.006540 0.123706 0.0
3.119423 -0.002299 0.068941 0.0
4.805836 -0.000288 0.082764 0.0
0.409322 -0.001385 0.251032 0.0
4.364953 0.001124 0.039614 0.0
3.490219 -0.001735 0.033705 0.0
4.702590 0.002641 0.204699 0.0
1.982431 0.000293 0.113636 0.0
3.538130 -0.005433 0.126455 0.0
1.097551 0.005963 0.161595 0.0
0.507915 -0.000222 0.235775 0.0
1.070641 0.004972 0.122371 0.0
1.812806 -0.003053 0.099266 0.0
3.066049 0.002435 0.094776 0.0
0.132886 -0.002228 0.018954 0.0
4.499217 -0.003073 0.281790 0.0
0.762792 -0.004481 0.270231 0.0
3.224069 -0.002172 0.002086 0.0
0.528726 0.002487 0.096430 0.0
3.151691 0.003058 0.181267 0.0
0.998479 0.000274 0.033114 0.0
0.608534 -0.003727 0.030726 0.0
2.525665 -0.001299 0.062541 0.0
3.010469 0.003107 0.217847 0.0
1.117470 -0.000012 0.172560 0.0
2.223257 -0.002264 0.273957 0.0
3.420211 0.000970 0.122005 0.0
2.717204 0.000640 0.077838 0.0
3.792619 0.000253 0.101949 0.0
2.290319 -0.001352 0.042645 0.0
0.213313 -0.002528 0.295890 0.0
3.412997 -0.001584 0.069126 0.0
0.287034 0.000828 0.255803 0.0
2.714164 -0.004121 0.123530 0.0
3.366104 0.000185 0.205446 0.0
1.568652 -0.004662 0.077330 0.0
4.654889 0.001033 0.181696 0.0
2.119010 -0.002757 0.143092 0.0
0.133116 0.000946 0.285754 0.0
2.827542 -0.002799 0.117995 0.0
3.015418 -0.000283 0.232092 0.0
1.077767 -0.002502 0.249525 0.0
1.957842 -0.007102 0.282662 0.0
4.364834 -0.000623 0.201938 0.0
3.348677 -0.001722 0.195277 0.0
0.142247 0.004244 0.241935 0.0
2.156673 -0.002007 0.160185 0.0
2.844614 0.001912 0.098731 0.0
3.884761 -0.001287 0.281242 0.0
3.403426 0.001575 0.058839 0.0
-0.000309 0.000996 0.011349 0.0
0.616398 -0.003494 0.183073 0.0
4.495639 -0.000233 0.089629 0.0
3.076413 -0.000120 0.176120 0.0
4.726801 -0.001155 0.293296 0.0
1.828588 -0.006468 0.095241 0.0
2.337434 0.003840 0.051884 0.0
2.362760 0.003074 0.140749 0.0
3.954655 -0.000483 0.110078 0.0
0.007731 0.001762 0.226744 0.0
3.260177 0.002926 0.215245 0.0
2.703238 -0.004382 0.022704 0.0
0.089078 -0.000285 0.300091 0.0
2.208608 0.005526 0.017723 0.0
4.431424 0.004106 0.094177 0.0
1.818275 -0.003566 0.115345 0.0
2.555422 0.000216 0.121813 0.0
2.838717 0.000997 0.215226 0.0
1.129909 -0.001481 0.272981 0.0
3.424757 -0.003063 0.286149 0.0
1.444473 -0.002778 0.073783 0.0
1.258178 -0.003019 0.295687 0.0
1.132399 0.000979 0.031362 0.0
0.127336 0.001196 0.293656 0.0
2.683894 0.000685 0.052873 0.0
4.772978 0.001105 0.244572 0.0
1.409631 -0.003553 0.156091 0.0
4.445506 -0.000049 0.149800 0.0
1.063872 -0.001627 0.133106 0.0
1.191908 0.002327 0.277084 0.0
2.474567 -0.000592 0.038663 0.0
4.564630 0.000624 0.191138 0.0
0.269836 -0.006913 0.082241 0.0
4.295319 -0.003177 0.058948 0.0
4.373500 0.001092 0.280095 0.0
4.231753 -0.003786 0.263548 0.0
2.384636 -0.002221 0.238915 0.0
2.712668 -0.004749 0.244543 0.0
1.046539 0.003324 0.022042 0.0
4.692732 -0.001551 0.021819 0.0
1.525136 0.000402 0.117085 0.0
3.662680 -0.002753 0.198980 0.0
1.256916 -0.001983 0.110206 0.0
1.527199 0.004668 0.227448 0.0
1.275152 0.002153 0.102240 0.0
4.419228 0.000625 0.296563 0.0
1.302372 -0.000961 0.084060 0.0
2.256403 -0.003248 0.144347 0.0
1.963977 -0.001932 0.231359 0.0
0.885052 0.001963 0.214684 0.0
2.492029 0.000462 0.131457 0.0
3.881420 -0.001021 0.091858 0.0
4.129853 -0.000776 0.263669 0.0
1.430985 0.003350 0.234807 0.0
2.080517 0.001058 0.060208 0.0
2.092817 0.002181 0.241620 0.0
4.320447 -0.000493 0.034329 0.0
1.566837 0.003405 0.286409 0.0
3.936409 0.001394 0.110665 0.0
4.785304 -0.004900 0.166936 0.0
0.012083 0.001259 0.299242 0.0
2.350020 -0.001128 0.053609 0.0
0.152931 -0.002197 0.250510 0.0
1.066034 0.002155 0.129117 0.0
2.123092 -0.000151 0.125496 0.0
2.694086 -0.001267 0.177744 0.0
2.647837 0.000123 0.028247 0.0
2.492175 -0.000222 0.057455 0.0
1.213095 -0.001448 0.258556 0.0
3.690169 -0.002843 0.104780 0.0
1.172280 0.001166 0.008646 0.0
2.364870 0.002102 0.242430 0.0
4.498197 0.000151 0.164116 0.0
1.864531 -0.001537 0.224974 0.0
2.272092 0.003098 0.088227 0.0
4.450238 -0.000315 0.136736 0.0
1.532507 -0.001894 0.224472 0.0
0.072850 -0.003629 0.177875 0.0
2.151316 0.001647 0.218703 0.0
3.744717 0.001401 0.098702 0.0
2.230522 0.000994 0.237548 0.0
4.666015 -0.004737 0.119193 0.0
4.469392 -0.003586 0.096291 0.0
3.733517 -0.002092 0.196562 0.0
3.994219 -0.002440 0.027163 0.0
2.874214 -0.001864 0.273823 0.0
1.328920 -0.000466 0.221640 0.0
3.408840 0.000540 0.189483 0.0
4.045887 -0.001790 0.185886 0.0
0.972119 -0.005858 0.114149 0.0
3.629004 0.000343 0.264880 0.0
2.839132 0.000756 0.107428 0.0
1.319919 0.002147 0.193331 0.0
2.023165 0.000534 0.033073 0.0
0.309819 0.000750 0.193932 0.0
1.185077 0.000819 0.170058 0.0
3.547129 0.000693 0.059057 0.0
3.986080 0.001096 0.229592 0.0
1.891090 -0.005955 0.073306 0.0
4.540486 -0.003590 0.136357 0.0
0.928534 -0.000569 0.021792 0.0
2.022549 0.005227 0.003860 0.0
2.997622 -0.000102 0.231296 0.0
4.447297 -0.001498 0.089582 0.0
1.933974 0.000754 0.191384 0.0
1.045145 -0.001556 0.063695 0.0
4.009368 0.000586 0.268945 0.0
0.971188 0.003728 0.021276 0.0
0.154604 -0.000019 0.171495 0.0
3.576237 -0.003294 0.069086 0.0
1.551185 0.000408 0.057219 0.0
0.110030 -0.001628 0.108836 0.0
1.190975 0.000795 0.110498 0.0
1.719769 0.001288 0.101252 0.0
2.687589 -0.005125 0.164294 0.0
1.192665 -0.001972 0.061181 0.0
3.496183 -0.000387 0.027103 0.0
4.362826 -0.002383 0.223504 0.0
3.942855 -0.002291 0.171623 0.0
2.951228 0.001169 0.242436 0.0
0.245266 -0.003463 0.201772 0.0
4.231078 0.003672 0.123765 0.0
2.255408 -0.001526 0.055886 0.0
4.569934 -0.002178 0.210207 0.0
1.430902 -0.005058 0.219148 0.0
2.793501 -0.000421 0.032003 0.0
1.725970 0.001475 0.206279 0.0
4.230757 -0.001582 0.227489 0.0
4.784762 -0.000587 0.094048 0.0
1.637845 0.001800 0.080008 0.0
4.441148 0.000360 0.111080 0.0
2.232037 -0.002016 0.153838 0.0
4.612959 0.003451 0.110490 0.0
3.005173 0.001770 0.223168 0.0
2.155566 -0.000931 0.284830 0.0
0.161127 0.004143 0.108938 0.0
1.783043 -0.003791 0.236008 0.0
3.202289 0.002608 0.129575 0.0
2.917827 0.004089 0.168679 0.0
0.943695 -0.000627 0.256605 0.0
1.263802 -0.004741 0.147373 0.0
0.110560 -0.007294 0.275548 0.0
0.948040 -0.000465 0.001749 0.0
0.977770 0.000747 0.203929 0.0
4.657478 -0.001679 0.258736 0.0
2.978415 -0.007574 0.208350 0.0
1.480399 0.000024 0.163712 0.0
1.174744 0.001701 0.003767 0.0
2.146741 -0.000742 0.198064 0.0
4.489322 0.001084 0.173772 0.0
1.386582 -0.001093 0.186954 0.0
4.017846 -0.003099 0.203856 0.0
2.684370 -0.002069 0.133641 0.0
2.727792 -0.000986 0.214274 0.0
4.166437 0.004077 0.113496 0.0
3.868159 0.000618 0.068642 0.0
1.399657 -0.000532 0.248753 0.0
1.161221 0.002671 0.268426 0.0
0.255428 -0.003242 0.056936 0.0
1.468367 -0.001186 -0.001006 0.0
2.958414 0.001483 0.025512 0.0
0.709138 -0.000237 0.278769 0.0
1.625566 0.002399 0.270393 0.0
1.759133 -0.002644 0.031629 0.0
4.763896 0.003034 0.169105 0.0
3.642543 0.001178 0.269259 0.0
2.834695 -0.000514 0.298319 0.0
2.248059 -0.001051 0.296784 0.0
3.151367 -0.000220 0.087302 0.0
4.138961 -0.002587 0.068618 0.0
2.630100 0.000546 0.110581 0.0
1.544585 -0.003661 0.010755 0.0
1.682439 -0.001027 0.290093 0.0
4.718839 -0.000457 0.024729 0.0
4.081170 0.001082 0.284307 0.0
3.084618 0.000369 0.146066 0.0
2.031324 0.001051 0.278218 0.0
1.671071 -0.001575 0.020433 0.0
4.600187 0.000853 0.004463 0.0
2.506122 0.003893 0.177629 0.0
2.910868 -0.004748 0.076034 0.0
4.092784 0.000918 0.169351 0.0
3.091686 -0.001226 0.134135 0.0
2.633672 -0.002688 0.209483 0.0
3.761625 -0.003318 0.265591 0.0
4.584738 -0.001892 0.220711 0.0
3.682650 -0.000704 0.078465 0.0
