1.34324296 1.60452879 -0.00046859 0.00000000
2.71309820 1.03372428 -0.00230418 0.00000000
1.08253593 0.10461087 0.00169987 0.00000000
4.30793253 1.54347173 0.00082968 0.00000000
3.43951657 1.31511791 -0.00507239 0.00000000
2.55645295 0.37504911 0.00058795 0.00000000
2.86644498 0.62694961 -0.00399099 0.00000000
0.51421728 1.62835205 -0.00355704 0.00000000
3.05770650 1.18291792 0.00104500 0.00000000
0.91615705 1.04145792 0.00049575 0.00000000
3.93674918 0.80525726 0.00708068 0.00000000
3.04349632 0.17374724 -0.00242351 0.00000000
0.60746311 0.42179488 -0.00358648 0.00000000
4.36552922 0.96440101 0.00023950 0.00000000
3.09177650 1.50828555 0.00219897 0.00000000
2.77535626 0.22342050 -0.00164914 0.00000000
1.79363007 0.38224726 0.00154926 0.00000000
2.78541481 1.09345517 0.00091389 0.00000000
2.40052914 1.54479463 0.00028733 0.00000000
2.30437875 1.45247839 0.00385222 0.00000000
1.93272317 0.43895614 -0.00396710 0.00000000
4.41981868 1.66238656 0.00153417 0.00000000
2.47442132 1.03349504 -0.00110738 0.00000000
1.31188236 0.39311936 -0.00106051 0.00000000
1.60989928 1.39111080 -0.00075872 0.00000000
3.06828049 0.61885869 0.00184441 0.00000000
4.41982605 1.58093002 0.00186934 0.00000000
1.64044693 0.74405040 -0.00036612 0.00000000
0.80900822 0.30666496 0.00258890 0.00000000
3.54260764 0.69464177 0.00370567 0.00000000
1.68466454 0.20721626 0.00140678 0.00000000
1.50631729 0.32696904 0.00350667 0.00000000
2.35272647 0.44705029 -0.00181158 0.00000000
1.81303299 1.34149347 0.00196728 0.00000000
2.44037717 0.40550070 0.00378439 0.00000000
1.60604354 0.51510888 -0.00054843 0.00000000
0.67799949 1.66477182 -0.00056299 0.00000000
3.30049035 0.54524613 -0.00383971 0.00000000
0.43761922 1.59767283 0.00331189 0.00000000
3.08752816 0.69992679 0.00197017 0.00000000
4.03779788 0.49204166 -0.00235895 0.00000000
1.20236074 0.39026418 0.00248324 0.00000000
3.36021054 0.00425130 0.00149536 0.00000000
1.69279210 0.38019614 0.00387702 0.00000000
2.56325076 1.66898901 0.00306291 0.00000000
3.45061614 0.81591797 0.00457019 0.00000000
0.20288656 0.22041789 0.00300245 0.00000000
4.21350865 0.13660972 -0.00355212 0.00000000
3.88451847 0.52234215 -0.00047993 0.00000000
1.07277797 0.82985482 0.00243591 0.00000000
1.18921049 1.32047733 0.00346791 0.00000000
1.90893632 1.61772641 -0.00083863 0.00000000
3.39337288 0.01812192 -0.00131282 0.00000000
2.30218091 1.38088798 -0.00261772 0.00000000
1.56950555 1.16185081 -0.00148269 0.00000000
3.43988090 0.85606433 -0.00039381 0.00000000
1.00428079 1.44652760 -0.00347601 0.00000000
1.21232466 1.60527515 -0.00132254 0.00000000
1.76277774 0.23898647 -0.00125259 0.00000000
1.45336615 0.70938655 -0.00298496 0.00000000
0.84553961 0.46201446 0.00352502 0.00000000
4.35505341 0.14066390 0.00233290 0.00000000
3.00159979 0.56382296 -0.00147375 0.00000000
1.84275926 1.39903559 -0.00186844 0.00000000
2.90437581 1.59627109 -0.00203195 0.00000000
0.12788985 1.64456504 0.00405293 0.00000000
2.55551020 1.30717344 -0.00665710 0.00000000
2.60594791 0.03204071 -0.00052964 0.00000000
2.37251134 0.44893122 0.00220318 0.00000000
2.20728703 0.47753531 -0.00335911 0.00000000
3.44707774 1.33886326 0.00332803 0.00000000
2.00611378 1.01921502 -0.00309650 0.00000000
2.47472232 0.61374772 0.00163782 0.00000000
3.83572941 1.61349330 -0.00247298 0.00000000
4.34490033 1.29951085 -0.00270785 0.00000000
2.47720633 1.50765630 -0.00048501 0.00000000
3.83757648 1.58590342 0.00258481 0.00000000
0.70665273 0.71745841 0.00150565 0.00000000
3.69896093 0.97218658 0.00203302 0.00000000
0.79768370 1.36818607 -0.00344559 0.00000000
1.47688520 0.96004305 -0.00231570 0.00000000
1.78273878 0.88395182 -0.00157403 0.00000000
2.61850778 1.07376389 0.00476992 0.00000000
2.26853821 1.24136307 0.00049171 0.00000000
2.15072230 0.21544959 -0.00470336 0.00000000
3.42474015 0.65191034 0.00103179 0.00000000
1.80119513 1.06572253 0.00280182 0.00000000
0.12951330 1.19677158 -0.00277281 0.00000000
1.11884660 1.30736325 -0.00065426 0.00000000
1.58708158 1.22385818 0.00181783 0.00000000
0.90156744 1.36265642 0.00006159 0.00000000
0.23726254 1.21163559 0.00127480 0.00000000
0.63822399 1.28680142 -0.00225920 0.00000000
0.53568059 1.53797551 -0.00172982 0.00000000
0.68103972 1.17206347 -0.00020892 0.00000000
0.17551216 0.37325992 -0.00456534 0.00000000
3.59876537 1.42706973 0.00234298 0.00000000
3.52456373 1.24623483 0.00038752 0.00000000
1.11004955 0.38133867 -0.00092049 0.00000000
3.35604697 0.18196310 0.00347888 0.00000000
2.57698165 1.44388535 -0.00185624 0.00000000
0.58894582 1.25224596 0.00369695 0.00000000
1.30919003 1.46002100 0.00349788 0.00000000
4.35795683 1.28521547 0.00646725 0.00000000
3.75754144 0.60856925 -0.00157320 0.00000000
3.96550301 0.98991218 -0.00403467 0.00000000
2.99548958 1.57032740 0.00130380 0.00000000
1.64595300 1.22891927 -0.00020552 0.00000000
3.29883994 0.47731909 -0.00182226 0.00000000
0.08351680 0.83144549 0.00367185 0.00000000
3.38775285 0.49556441 -0.00215705 0.00000000
3.16997288 1.29659658 -0.00600951 0.00000000
0.91430287 0.70082820 0.00306946 0.00000000
4.10128843 1.10070816 0.00113223 0.00000000
4.10357190 1.30210701 -0.00032434 0.00000000
0.56193780 1.63747888 0.00140717 0.00000000
2.76239870 0.28458412 0.00006706 0.00000000
0.57984467 0.51612115 -0.00358871 0.00000000
1.24647140 0.32763598 0.00328103 0.00000000
2.54812167 1.54696484 -0.00059430 0.00000000
3.88557438 0.82500129 -0.00406261 0.00000000
1.82635235 0.48835636 0.00082936 0.00000000
2.45977178 1.45055940 -0.00022386 0.00000000
1.40505398 0.69516840 -0.00412666 0.00000000
0.04963403 1.43746715 -0.00507062 0.00000000
0.44566207 0.69794369 -0.00279015 0.00000000
4.21098680 1.11607063 -0.00096984 0.00000000
1.86077296 0.49209870 0.00118535 0.00000000
1.72029914 0.59178492 0.00209313 0.00000000
3.28694668 1.57734571 -0.00211204 0.00000000
0.27989473 0.20659187 -0.00112877 0.00000000
2.58964714 0.88557663 -0.00433464 0.00000000
1.99992166 0.05465246 -0.00210589 0.00000000
3.85274251 0.04669548 -0.00168269 0.00000000
2.64149790 1.07206113 0.00009534 0.00000000
3.73402205 1.55278644 0.00219775 0.00000000
1.14208152 0.53399200 -0.00468472 0.00000000
0.87526584 0.87718714 -0.00055703 0.00000000
1.18824150 0.05696606 -0.00353487 0.00000000
2.36179630 0.96739638 -0.00433635 0.00000000
4.08282746 0.71352298 0.00301808 0.00000000
1.55288045 1.03528518 0.00295520 0.00000000
1.92743852 0.40161956 -0.00279731 0.00000000
0.13241824 1.07806411 0.00039729 0.00000000
4.02846427 1.35185536 0.00319229 0.00000000
3.30579915 0.44154801 -0.00207039 0.00000000
3.00109566 0.02517777 -0.00277470 0.00000000
3.28557079 0.82265845 0.00234086 0.00000000
0.02038551 0.53848629 -0.00172660 0.00000000
2.60214392 0.19223015 0.00385047 0.00000000
4.36560151 1.09351430 0.00073050 0.00000000
2.69877875 0.30759404 0.00234656 0.00000000
2.86323850 0.63239770 0.00031442 0.00000000
3.70122081 0.92254453 0.00137843 0.00000000
1.52884370 0.35139353 -0.00518704 0.00000000
4.31224321 1.28772848 -0.00073494 0.00000000
0.90401165 1.20379234 -0.00200662 0.00000000
0.38682941 1.04565443 -0.00432489 0.00000000
1.55325785 1.59194659 -0.00243295 0.00000000
4.42300442 0.52646134 -0.00012907 0.00000000
2.41975009 0.71421339 0.00415908 0.00000000
2.60803502 0.42451475 0.00377587 0.00000000
0.76368384 0.88699573 -0.00129765 0.00000000
3.12792068 1.21838003 0.00663838 0.00000000
3.36990746 0.57195371 -0.00042265 0.00000000
2.79490511 0.73258367 -0.00385870 0.00000000
0.32363363 0.94994891 -0.00177127 0.00000000
0.74655756 1.16017349 -0.00366595 0.00000000
2.95143621 0.56015783 -0.00094845 0.00000000
4.26346631 0.95874707 -0.00036964 0.00000000
2.23196085 1.48680572 0.00312922 0.00000000
3.30128705 0.67473855 -0.00146636 0.00000000
3.03996420 1.03834333 -0.00264081 0.00000000
3.37710186 0.30807836 0.00382717 0.00000000
0.73584903 1.55224635 -0.00142356 0.00000000
1.57111640 1.08754386 0.00103323 0.00000000
0.24609611 1.25612360 -0.00074952 0.00000000
3.67759209 1.14340482 0.00087075 0.00000000
3.30356505 0.26520657 -0.00168100 0.00000000
3.97917774 1.56915119 -0.00115713 0.00000000
0.51941777 1.18567954 -0.00508409 0.00000000
0.46343698 1.12417755 0.00257581 0.00000000
1.44554233 0.42928604 -0.00112939 0.00000000
3.41355692 1.48791395 0.00290184 0.00000000
2.38319417 0.04894635 0.00052502 0.00000000
2.50716433 0.62739368 -0.00252067 0.00000000
1.25028515 0.73510900 0.00214435 0.00000000
3.98423232 0.32995168 0.00297141 0.00000000
2.77969589 0.73636433 0.00009068 0.00000000
4.41740393 1.28789626 0.00070371 0.00000000
2.90939002 1.64511071 0.00520111 0.00000000
1.20216958 0.27505039 -0.00232768 0.00000000
2.08982381 0.35974896 -0.00359680 0.00000000
2.95052975 0.14092666 0.00147894 0.00000000
2.89373931 0.29630906 -0.00373492 0.00000000
1.56350970 0.44293888 0.00395988 0.00000000
2.10189192 1.17823992 -0.00153454 0.00000000
1.10408468 1.01948052 -0.00422875 0.00000000
0.36469911 1.14358114 0.00230727 0.00000000
3.48885819 1.51814740 -0.00171135 0.00000000
0.35407194 1.39397409 0.00273580 0.00000000
3.44612662 0.07914754 0.00151084 0.00000000
0.40436148 1.37176125 0.00298078 0.00000000
3.77625167 0.87981073 -0.00250247 0.00000000
2.89180125 1.24804702 0.00458235 0.00000000
4.00925767 0.13376614 -0.00034455 0.00000000
2.37108070 0.69388956 -0.00209641 0.00000000
0.93810838 0.67582404 -0.00022604 0.00000000
2.50607885 1.51466892 -0.00096877 0.00000000
3.81855695 1.38672650 0.00073339 0.00000000
0.39839610 1.23271958 0.00055287 0.00000000
2.03509723 0.14755452 -0.00049554 0.00000000
4.14333780 1.51200404 0.00059858 0.00000000
0.68260838 0.00045151 0.00153025 0.00000000
0.86785045 1.17653469 -0.00034388 0.00000000
1.00027697 0.42037779 0.00200139 0.00000000
2.63255429 0.15642361 0.00234844 0.00000000
3.91680301 0.30369881 -0.00258771 0.00000000
1.78306110 1.16550411 0.00057400 0.00000000
1.53939181 0.78862511 -0.00244354 0.00000000
4.27354474 1.55039025 -0.00171561 0.00000000
0.75842057 0.11281188 -0.00715677 0.00000000
0.61996451 0.95151974 0.00709093 0.00000000
1.69561917 0.28353357 0.00220223 0.00000000
3.32261667 1.55758740 0.00067772 0.00000000
3.23769575 0.61253648 -0.00346242 0.00000000
1.51249679 0.39296268 -0.00019724 0.00000000
3.86528835 1.59232612 -0.00134170 0.00000000
1.34191559 0.18180206 -0.00368318 0.00000000
4.31780103 0.97241460 0.00317375 0.00000000
1.36050243 0.56448666 0.00046091 0.00000000
2.65342857 1.00431624 -0.00204547 0.00000000
2.95375155 0.77804789 -0.00316252 0.00000000
2.72260213 0.25248158 -0.00657232 0.00000000
0.13378844 1.30952370 -0.00263381 0.00000000
3.05123512 1.65628590 -0.00015086 0.00000000
3.01828368 1.67035927 -0.00143676 0.00000000
2.64512974 0.51767082 0.00081109 0.00000000
1.49514482 1.10740401 -0.00115623 0.00000000
3.35349959 1.59920353 0.00444369 0.00000000
2.76610958 0.57725530 0.00422365 0.00000000
0.59987965 0.38584167 0.00085262 0.00000000
2.77760303 0.34425975 0.00648389 0.00000000
0.51243801 0.46812599 -0.00514089 0.00000000
0.81233548 1.51068437 -0.00177346 0.00000000
4.40330576 0.73118209 0.00123934 0.00000000
3.89621693 0.79020259 -0.00149299 0.00000000
0.96840784 0.32128947 -0.00267961 0.00000000
1.69269558 0.19399192 -0.00115129 0.00000000
0.64407256 0.94250143 -0.00238785 0.00000000
2.70910984 0.52493843 -0.00005994 0.00000000
3.24860229 0.74595513 0.00351368 0.00000000
1.72762409 1.30488926 -0.00025301 0.00000000
2.44659614 0.03094711 0.00281792 0.00000000
1.24781188 0.65852873 0.00093629 0.00000000
4.22150370 0.33150142 -0.00186256 0.00000000
0.08355498 0.37911356 -0.00329508 0.00000000
1.72839507 0.50951415 0.00243210 0.00000000
2.11968488 0.70462056 -0.00428917 0.00000000
4.43439536 1.49397248 0.00289679 0.00000000
0.79045809 0.53162169 0.00158013 0.00000000
2.43917525 1.11549053 -0.00025351 0.00000000
2.58211659 0.13656028 -0.00340658 0.00000000
4.23110298 1.38852376 -0.00109205 0.00000000
0.74964618 0.19756650 -0.00125875 0.00000000
0.32912357 1.60193627 0.00070722 0.00000000
4.41816032 0.94596718 -0.00176658 0.00000000
3.23449082 0.72848045 -0.00236735 0.00000000
2.90597563 0.64528994 -0.00073117 0.00000000
0.83952878 0.45382736 0.00197643 0.00000000
2.09599778 1.05905895 -0.00361328 0.00000000
1.16180421 0.19786962 -0.00269734 0.00000000
2.42542771 0.12523341 0.00201856 0.00000000
2.28202917 0.37371945 0.00109829 0.00000000
2.92639703 0.54362160 -0.00156355 0.00000000
3.71801946 0.53477390 -0.00232072 0.00000000
4.39461127 0.32278087 0.00030234 0.00000000
1.52242247 0.86101745 -0.00100228 0.00000000
0.02697137 0.88541675 -0.00085279 0.00000000
1.99380541 0.18319657 0.00045840 0.00000000
2.58855675 1.33616693 0.00213468 0.00000000
2.38359908 0.33479859 -0.00085754 0.00000000
3.81712281 0.49814538 -0.00330317 0.00000000
1.07109607 0.09510963 -0.00023078 0.00000000
1.11920933 0.57900844 -0.00150877 0.00000000
3.17042818 0.82532186 -0.00141032 0.00000000
1.97069852 0.74403977 -0.00412214 0.00000000
2.04441522 0.78711133 -0.00157299 0.00000000
1.58755024 0.76735569 0.00089086 0.00000000
1.79210991 0.37599153 0.00069694 0.00000000
4.25260691 0.69477145 -0.00141871 0.00000000
3.92662318 1.40706187 -0.00426444 0.00000000
3.11301997 0.80453815 0.00075808 0.00000000
3.13909759 1.05975280 -0.00540753 0.00000000
2.29180751 0.80351290 0.00003453 0.00000000
3.99024755 0.27259574 -0.00088279 0.00000000
0.21569825 0.47414280 0.00390720 0.00000000
2.70374101 1.38638176 -0.00023823 0.00000000
0.58087961 0.01477982 0.00030801 0.00000000
2.71805925 0.94210718 -0.00027219 0.00000000
3.77416764 0.97860685 -0.00227490 0.00000000
2.64241036 0.81481596 -0.00045565 0.00000000
4.04393962 0.60891637 0.00538567 0.00000000
3.21833770 0.01711820 0.00504838 0.00000000
3.48003991 0.21416980 0.00394492 0.00000000
0.36463384 0.51637319 0.00465805 0.00000000
0.03772660 0.73491540 0.00334681 0.00000000
0.78315418 1.55308951 0.00168375 0.00000000
1.29867140 0.50895629 0.00169838 0.00000000
1.47940162 0.68652731 -0.00549172 0.00000000
0.28586669 1.34559639 -0.00184168 0.00000000
1.69561730 1.08697857 -0.00149754 0.00000000
2.67983088 0.92163744 -0.00044038 0.00000000
3.42938757 1.14865324 -0.00491148 0.00000000
3.49997995 1.28804463 -0.00342420 0.00000000
4.22464794 1.45846620 -0.00033663 0.00000000
1.12740961 0.96688854 -0.00008016 0.00000000
1.10056472 1.67447024 0.00143017 0.00000000
1.47326039 0.10823817 -0.00275992 0.00000000
0.38916847 1.48522415 -0.00109641 0.00000000
2.95839936 0.42459613 -0.00197882 0.00000000
3.06129727 1.67978114 0.00307612 0.00000000
1.12057709 1.18253937 -0.00335892 0.00000000
2.77750051 0.92924030 -0.00004865 0.00000000
1.58647637 0.44110681 0.00209574 0.00000000
0.06811190 0.50378358 -0.00033008 0.00000000
1.04629078 1.57074994 -0.00490020 0.00000000
0.10731403 0.03223478 -0.00090864 0.00000000
2.54758593 0.61101541 0.00361699 0.00000000
1.38366231 0.93448464 -0.00021459 0.00000000
1.85154063 0.49625296 0.00126675 0.00000000
0.92365530 1.39897044 -0.00015311 0.00000000
0.73737615 0.51802265 0.00230468 0.00000000
3.94278349 0.49496314 -0.00003768 0.00000000
2.70273723 0.23822972 0.00088076 0.00000000
0.33038528 0.04393337 0.00209326 0.00000000
3.73152864 0.76228828 0.00009942 0.00000000
2.33006445 0.50000377 0.00261849 0.00000000
3.27683615 1.38911997 0.00000039 0.00000000
1.65253012 1.47263401 -0.00168866 0.00000000
1.70675770 0.77048174 0.00403625 0.00000000
0.13837679 1.49681503 0.00132357 0.00000000
4.12477298 1.35913007 0.00010077 0.00000000
2.60977602 1.00501753 0.00056828 0.00000000
1.46504280 1.17885962 -0.00334509 0.00000000
2.38020852 0.19401855 -0.00238238 0.00000000
2.09246868 0.24787608 -0.00093225 0.00000000
3.44322947 0.20235407 0.00264266 0.00000000
1.07436205 0.46921113 -0.00101256 0.00000000
1.70455438 1.52492464 -0.00293451 0.00000000
3.05328982 1.55789616 0.00305769 0.00000000
2.63561116 1.07099414 0.00632418 0.00000000
0.50077351 1.37905143 0.00014321 0.00000000
0.45379385 0.22420409 0.00057076 0.00000000
0.43360251 1.35076464 -0.00450820 0.00000000
1.49340527 0.62234647 0.00356705 0.00000000
0.34445210 0.01047206 0.00006715 0.00000000
1.98172888 0.30430544 -0.00248059 0.00000000
4.15622393 1.22249339 0.00064219 0.00000000
0.00007335 0.07115240 0.00276631 0.00000000
3.53948299 1.05137438 0.00061973 0.00000000
2.05069042 0.16100490 -0.00391976 0.00000000
2.97954641 0.97389861 -0.00148540 0.00000000
2.58747765 0.60280475 -0.00399146 0.00000000
2.06202041 1.08283876 0.00051883 0.00000000
2.77585452 1.52707699 -0.00028517 0.00000000
1.14700637 1.41093154 -0.00330762 0.00000000
2.10011388 0.69524375 0.00157978 0.00000000
1.65559982 0.53440781 0.00344052 0.00000000
2.85479387 1.46446226 0.00347937 0.00000000
3.12356168 0.53934236 0.00114082 0.00000000
0.64093938 1.53597423 0.00114217 0.00000000
3.21195396 1.65936592 -0.00002280 0.00000000
3.02537990 1.51442649 0.00006529 0.00000000
0.40786534 1.57587054 0.00462207 0.00000000
3.68016503 0.97260980 -0.00266270 0.00000000
4.15095209 1.26662539 0.00407296 0.00000000
3.48811954 1.46569628 -0.00002600 0.00000000
1.71598963 1.32707008 -0.00458509 0.00000000
0.53497915 1.44358327 0.00406034 0.00000000
2.38985365 0.38797300 -0.00385237 0.00000000
3.51185971 0.81504299 0.00246576 0.00000000
1.53799042 0.96550176 0.00189339 0.00000000
0.49560888 0.22139803 0.00240805 0.00000000
3.63508182 0.47685208 0.00186649 0.00000000
2.79066374 0.00749902 0.00126011 0.00000000
4.20641296 0.24540579 -0.00230510 0.00000000
3.44448463 1.34243171 -0.00069290 0.00000000
3.94032391 0.98205629 0.00327515 0.00000000
0.43711269 0.98434324 0.00270891 0.00000000
2.03165637 1.33352998 0.00134719 0.00000000
0.23050436 0.33562023 0.00120816 0.00000000
3.41298599 0.22576313 0.00057259 0.00000000
1.20994393 1.19040347 0.00193599 0.00000000
1.53414609 0.64671615 -0.00038774 0.00000000
3.38151504 0.05242816 -0.00252386 0.00000000
1.84540925 0.47765063 -0.00122709 0.00000000
3.48214438 0.58895910 0.00217605 0.00000000
1.10724063 0.40188067 0.00498390 0.00000000
2.38024166 1.52959778 -0.00033984 0.00000000
2.45620018 0.66204705 0.00105302 0.00000000
0.10457526 0.22948290 0.00159156 0.00000000
3.94097881 1.27777025 0.00113520 0.00000000
2.00488306 0.75788970 -0.00060485 0.00000000
3.21311783 0.51209421 0.00282789 0.00000000
1.09460182 1.54132840 -0.00018145 0.00000000
0.51228804 0.31756066 0.00014111 0.00000000
2.62628188 1.45920387 -0.00380877 0.00000000
2.36113253 1.66917374 0.00318501 0.00000000
2.18655598 0.56449338 0.00034919 0.00000000
1.56045505 0.37942512 -0.00488129 0.00000000
4.33599219 0.23615168 -0.00097176 0.00000000
3.53068539 0.23220082 0.00095340 0.00000000
3.46051077 0.86183267 -0.00281315 0.00000000
0.87353105 0.08725580 -0.00155840 0.00000000
2.35107264 0.15911561 0.00390967 0.00000000
2.27183554 0.60305992 0.00227461 0.00000000
3.97296091 0.83312039 -0.00247749 0.00000000
2.85186149 0.37981482 -0.00026774 0.00000000
1.97052050 0.71612811 -0.00362932 0.00000000
4.27266570 0.76331737 0.00396497 0.00000000
0.78583364 1.58082086 -0.00098130 0.00000000
2.59269265 1.28499528 -0.00250531 0.00000000
0.47121511 1.31666003 -0.00090910 0.00000000
1.32060294 1.07675995 -0.00371583 0.00000000
3.97538853 0.87574565 -0.00200431 0.00000000
0.19269058 1.14701822 0.00157056 0.00000000
3.87748725 1.51839388 -0.00040646 0.00000000
1.60197994 1.02515477 0.00326573 0.00000000
2.07576187 1.05038088 0.00052989 0.00000000
1.09976293 0.83273421 0.00345415 0.00000000
1.40532974 0.46102733 0.00143628 0.00000000
0.75941695 0.79075532 -0.00360315 0.00000000
1.88445455 0.48286729 -0.00240538 0.00000000
1.29386515 0.40296604 -0.00255097 0.00000000
3.86201962 0.16895415 0.00012103 0.00000000
1.43162311 1.23575601 -0.00166878 0.00000000
4.05786428 0.23077486 -0.00254227 0.00000000
2.45338876 0.65272085 0.00107111 0.00000000
2.30458718 1.50820211 0.00483672 0.00000000
2.12255254 0.32154972 0.00282159 0.00000000
2.38948734 0.89376848 -0.00478961 0.00000000
2.66920329 0.04398035 0.00033130 0.00000000
3.20834654 0.76213594 0.00573136 0.00000000
2.22804060 0.23196582 -0.00046592 0.00000000
1.54893766 1.24082587 0.00031064 0.00000000
2.11971662 1.41500099 -0.00091818 0.00000000
2.17589303 0.29639021 -0.00235465 0.00000000
3.63247215 0.65727798 0.00027629 0.00000000
0.74407658 1.43565644 0.00047492 0.00000000
0.16767616 1.42841770 0.00002662 0.00000000
1.94814946 0.42885087 0.00078039 0.00000000
3.90126928 1.44830457 -0.00137828 0.00000000
0.20173396 1.28876434 -0.00034236 0.00000000
2.11083026 0.37299131 0.00415495 0.00000000
2.64510992 0.72721449 -0.00009619 0.00000000
0.71008642 0.59290591 -0.00144108 0.00000000
1.30315321 1.28733176 0.00273637 0.00000000
4.36571245 0.71189738 0.00226869 0.00000000
2.14886715 0.62292109 0.00294023 0.00000000
0.01202032 1.66669709 -0.00088839 0.00000000
4.36337026 1.54279258 0.00435800 0.00000000
1.60045403 0.59942686 -0.00189632 0.00000000
4.11432694 1.05945262 0.00297096 0.00000000
3.92873448 1.59823813 -0.00236740 0.00000000
1.65381112 1.11785734 0.00264066 0.00000000
3.22277798 0.37624542 -0.00219747 0.00000000
3.13592892 1.57614534 0.00166015 0.00000000
0.43828654 0.34592430 -0.00117794 0.00000000
0.94731293 1.65021492 0.00101071 0.00000000
4.39793308 1.36776027 -0.00062223 0.00000000
0.80181923 0.70693217 0.00028318 0.00000000
1.78830840 0.76947373 0.00105989 0.00000000
2.40059290 0.41982410 -0.00112137 0.00000000
3.13761599 0.36118963 -0.00047665 0.00000000
1.47012768 1.08963822 0.00220991 0.00000000
0.07692078 0.74922299 -0.00037515 0.00000000
2.03910768 1.46838022 -0.00433417 0.00000000
2.03229565 1.22376949 -0.00180534 0.00000000
2.68525662 1.58101896 -0.00175300 0.00000000
0.97519275 0.24261737 -0.00099796 0.00000000
3.20245146 1.37334478 -0.00145639 0.00000000
1.13030348 0.31244147 0.00199068 0.00000000
0.00359611 0.34175046 -0.00248877 0.00000000
3.53372926 0.32606920 0.00138120 0.00000000
1.96257482 1.33042223 0.00053123 0.00000000
3.96649451 0.08898347 -0.00446879 0.00000000
1.27652498 1.45185471 0.00201541 0.00000000
0.62208758 0.94785577 -0.00550143 0.00000000
0.03289879 1.12898597 0.00162192 0.00000000
3.85509286 0.10933185 -0.00185685 0.00000000
0.77983914 0.76845416 0.00451064 0.00000000
3.80338821 1.31804241 0.00073195 0.00000000
2.93729448 0.89726014 -0.00666084 0.00000000
1.47712618 0.60683348 -0.00056076 0.00000000
2.31897229 0.66788245 -0.00050060 0.00000000
3.95042145 1.21298944 -0.00100086 0.00000000
3.75121423 0.59712125 -0.00348653 0.00000000
3.36464300 0.72191161 -0.00025006 0.00000000
2.04140854 1.66112379 0.00026791 0.00000000
0.42002465 0.46321947 0.00663819 0.00000000
1.69450646 0.13714279 -0.00282103 0.00000000
0.07090263 1.13450821 0.00160758 0.00000000
1.96716448 0.90142023 -0.00023617 0.00000000
0.03998734 0.11051654 0.00428659 0.00000000
0.38298770 1.15863829 -0.00124283 0.00000000
2.03534250 0.35521021 0.00007943 0.00000000
4.43648803 0.75572633 0.00026987 0.00000000
2.42075803 0.52731874 -0.00030570 0.00000000
4.41148414 1.64801912 -0.00004139 0.00000000
2.93959070 0.63140232 0.00103141 0.00000000
0.17900420 0.92492098 0.00358673 0.00000000
4.32969293 1.32370856 0.00214145 0.00000000
2.20018360 1.19180112 -0.00151464 0.00000000
1.68560391 0.00916847 -0.00122614 0.00000000
1.11081863 1.66499903 0.00432484 0.00000000
3.30406207 1.46042504 0.00057598 0.00000000
4.37391051 0.70853064 -0.00113465 0.00000000
1.27288067 1.42614736 0.00286445 0.00000000
2.07790073 0.12510624 0.00062928 0.00000000
2.71334845 1.38504028 -0.00032616 0.00000000
3.55008712 1.24349552 0.00340996 0.00000000
3.71823586 1.09683371 0.00135733 0.00000000
0.84972245 1.20232800 -0.00428600 0.00000000
0.91953968 1.01221830 -0.00162174 0.00000000
1.38361072 1.51084691 -0.00006642 0.00000000
3.31771903 0.03482231 0.00137590 0.00000000
1.21251304 0.97588796 0.00129294 0.00000000
0.05645310 0.57750451 -0.00141144 0.00000000
4.24059238 0.01871743 0.00086878 0.00000000
3.51473812 1.42452371 -0.00301435 0.00000000
4.22049330 0.40727757 0.00087771 0.00000000
0.33737359 0.41170182 -0.00453576 0.00000000
0.04420892 0.82973751 -0.00306641 0.00000000
1.11116564 0.91891704 -0.00185109 0.00000000
2.56831638 1.36428114 0.00047785 0.00000000
1.50522433 0.55348382 -0.00306328 0.00000000
4.30807672 1.45383753 -0.00096838 0.00000000
4.21577859 0.62354683 0.00417484 0.00000000
0.60652451 0.64047995 0.00011580 0.00000000
4.25711384 1.38259981 0.00200499 0.00000000
1.76173593 1.11097882 0.00147922 0.00000000
0.01876614 1.53923107 -0.00002187 0.00000000
2.16168053 1.26857427 -0.00156833 0.00000000
2.56538630 0.43261271 -0.00067580 0.00000000
0.74785562 0.41895246 0.00156939 0.00000000
1.96717888 0.85884193 0.00236365 0.00000000
2.51828136 0.06171491 -0.00452306 0.00000000
3.02596379 0.48191227 0.00100227 0.00000000
2.16163550 0.24930653 0.00311568 0.00000000
3.00054900 0.16158288 -0.00104660 0.00000000
3.38895534 0.46765426 -0.00420520 0.00000000
3.64915018 0.28383330 0.00305848 0.00000000
3.59011917 0.31281742 -0.00009078 0.00000000
0.36505585 1.05598752 0.00153503 0.00000000
3.03190790 1.56760378 -0.00231153 0.00000000
0.78058668 1.52163299 0.00098832 0.00000000
1.34546790 1.11314380 0.00049337 0.00000000
1.52264063 0.82617314 0.00065400 0.00000000
0.53227940 1.16989059 0.00155148 0.00000000
3.64762196 0.62570208 0.00160619 0.00000000
3.80852016 0.60458094 0.00303550 0.00000000
0.28400601 0.92643055 0.00091265 0.00000000
4.23688977 0.74374319 -0.00156008 0.00000000
1.05941663 1.03616237 -0.00056562 0.00000000
2.42369734 0.31617196 -0.00052420 0.00000000
4.21761209 0.13550926 0.00139236 0.00000000
0.05143380 0.37850044 -0.00416291 0.00000000
1.43929238 0.74790655 0.00040488 0.00000000
3.53447215 0.24177125 0.00225768 0.00000000
3.58471819 0.28942088 0.00058507 0.00000000
3.32134938 0.90707915 -0.00044530 0.00000000
1.53982085 0.71917066 0.00145037 0.00000000
1.83008402 0.71375218 0.00066828 0.00000000
0.04869948 0.29264386 0.00537153 0.00000000
0.88686299 1.41153295 -0.00291602 0.00000000
3.09660988 0.09500308 0.00146119 0.00000000
3.57842028 0.08305333 0.00086397 0.00000000
0.92947830 0.56645218 -0.00313566 0.00000000
3.04517763 0.48069985 -0.00081413 0.00000000
3.02323487 1.14450372 -0.00048296 0.00000000
0.83333500 0.63656021 0.00111964 0.00000000
2.96508259 0.48971683 -0.00172594 0.00000000
2.24009828 0.76436994 -0.00260255 0.00000000
2.21956333 1.16818139 -0.00070813 0.00000000
2.27528210 0.09440501 -0.00029873 0.00000000
0.86382724 1.11614299 -0.00284018 0.00000000
0.66750849 0.61965675 -0.00686720 0.00000000
2.98843252 1.50702566 0.00224385 0.00000000
1.37695492 1.22673778 0.00039189 0.00000000
4.41771415 0.32898098 0.00122956 0.00000000
4.41191402 0.81861540 -0.00353404 0.00000000
0.64957528 0.46142948 -0.00268763 0.00000000
3.13928800 1.02745880 0.00094981 0.00000000
3.88878381 0.34107369 0.00173868 0.00000000
2.73336749 0.88285691 0.00191848 0.00000000
0.59072483 0.14240058 0.00092325 0.00000000
2.17110055 0.63954741 -0.00287795 0.00000000
2.67936612 1.32630062 0.00073181 0.00000000
1.81707714 1.34920399 -0.00226684 0.00000000
2.35818147 1.62844970 -0.00025759 0.00000000
0.00807728 1.44777473 -0.00203743 0.00000000
4.04740116 1.12615625 0.00260066 0.00000000
0.10240713 0.30923878 -0.00479503 0.00000000
3.61853321 0.65844785 0.00104990 0.00000000
2.90569736 0.90790086 0.00116241 0.00000000
1.82963837 1.22425429 0.00051372 0.00000000
0.27567320 0.57902954 0.00344172 0.00000000
4.21057570 1.59579804 -0.00212274 0.00000000
1.08788983 1.05220880 0.00024107 0.00000000
1.62957883 1.45191526 -0.00160438 0.00000000
3.39808922 0.62844677 0.00087381 0.00000000
3.86490945 0.47560268 -0.00103272 0.00000000
2.36443940 0.49900328 -0.00400663 0.00000000
0.43739804 1.28008487 -0.00442783 0.00000000
0.38475431 0.13165389 -0.00102833 0.00000000
2.84754940 1.32988088 0.00121555 0.00000000
3.02260150 0.29005897 0.00244387 0.00000000
2.48371412 0.80970165 -0.00062834 0.00000000
4.09199707 0.57169480 -0.00196334 0.00000000
0.60261009 1.56083072 -0.00200718 0.00000000
3.07632656 0.06797584 -0.00095533 0.00000000
4.36437841 1.26995059 0.00408404 0.00000000
4.37947176 1.61304762 -0.00239731 0.00000000
2.66879549 0.05179125 -0.00169243 0.00000000
0.29854985 0.51580518 -0.00122096 0.00000000
1.59443173 1.16692008 -0.00026307 0.00000000
1.93407151 0.79631121 0.00349153 0.00000000
3.42402363 1.02205492 -0.00074237 0.00000000
3.12815756 0.78421332 -0.00385597 0.00000000
4.18953384 1.01272766 0.00246531 0.00000000
0.69363958 0.57205561 0.00063959 0.00000000
3.09448275 0.25458982 -0.00488206 0.00000000
0.50967631 0.40378122 0.00027727 0.00000000
1.21730034 1.12347463 0.00180422 0.00000000
4.23024625 0.30595375 0.00358124 0.00000000
3.12957581 0.19670071 0.00280619 0.00000000
3.38660537 0.63786009 0.00247172 0.00000000
0.24692288 1.51765836 -0.00232614 0.00000000
4.08425980 0.49806040 0.00230486 0.00000000
1.64930575 0.23974578 -0.00014637 0.00000000
3.57403012 1.50555166 0.00080835 0.00000000
4.24669773 0.64231228 -0.00404716 0.00000000
1.32854760 0.03735109 -0.00296053 0.00000000
1.76349665 0.11475440 0.00261568 0.00000000
0.67119237 1.23331524 -0.00075668 0.00000000
0.18445371 0.71798568 -0.00066775 0.00000000
3.28293897 1.23140812 0.00180879 0.00000000
1.60768594 0.95814579 -0.00114216 0.00000000
3.58618499 1.08905735 0.00161238 0.00000000
1.56643618 0.05876006 -0.00126329 0.00000000
0.01004493 1.49071425 -0.00194562 0.00000000
1.03288985 1.49989969 0.00249377 0.00000000
1.73376473 0.04989918 0.00143326 0.00000000
0.08571807 1.46067332 -0.00158591 0.00000000
3.80414233 0.38771850 0.00127534 0.00000000
1.21127109 1.64141601 -0.00417063 0.00000000
3.38098063 0.84440115 -0.00330387 0.00000000
0.16913027 0.06708393 0.00104740 0.00000000
4.39296703 0.66027781 -0.00340198 0.00000000
3.18851212 0.70704713 0.00277278 0.00000000
0.19202494 0.09485812 -0.00113933 0.00000000
0.24836324 0.89288666 -0.00128179 0.00000000
2.47575679 1.01077995 0.00200359 0.00000000
3.40741551 0.00795760 -0.00134501 0.00000000
4.18127375 0.29394475 0.00018411 0.00000000
3.36185683 0.16629588 0.00602814 0.00000000
0.83123834 0.57100221 0.00051833 0.00000000
1.94176179 1.03045004 -0.00223286 0.00000000
3.93495782 0.43084828 0.00102320 0.00000000
4.19496065 1.67993441 -0.00219423 0.00000000
1.67343402 1.63992166 -0.00224491 0.00000000
4.19058182 1.62721994 -0.00026930 0.00000000
0.79604968 0.92563943 0.00152920 0.00000000
1.24692983 1.05116083 0.00419336 0.00000000
2.56323393 1.18207909 0.00149701 0.00000000
4.03437779 1.08603452 0.00163114 0.00000000
2.75663091 0.20066558 -0.00023452 0.00000000
0.87606401 1.63930535 0.00097408 0.00000000
1.60188999 1.61470115 0.00259526 0.00000000
3.30547577 0.69237950 -0.00132609 0.00000000
2.25096775 1.05463096 -0.00069262 0.00000000
2.23254036 1.66944155 -0.00058585 0.00000000
0.50299019 1.07248134 -0.00187880 0.00000000
2.35944436 0.56969567 0.00056997 0.00000000
2.39537938 1.28719032 -0.00007232 0.00000000
2.71312250 1.15194622 0.00240061 0.00000000
1.56494923 0.80668872 0.00233915 0.00000000
0.91731294 1.41221107 0.00184271 0.00000000
0.46329051 1.62812591 0.00031763 0.00000000
1.33669795 0.93444517 -0.00103917 0.00000000
0.75124208 0.27217989 0.00012752 0.00000000
1.14980092 0.68576785 -0.00092433 0.00000000
1.83594826 0.52941954 -0.00222678 0.00000000
1.81889984 0.72885052 0.00006675 0.00000000
1.98319837 1.46626216 -0.00319904 0.00000000
1.94596203 0.91732043 -0.00059854 0.00000000
0.42299197 0.70627798 0.00274256 0.00000000
2.66016650 0.62116203 0.00196305 0.00000000
1.03359980 0.37492423 0.00105991 0.00000000
0.94584844 0.76278325 -0.00329858 0.00000000
0.64843430 0.38038667 -0.00016465 0.00000000
2.89704228 1.48100465 -0.00041790 0.00000000
3.20533489 0.79450842 -0.00204632 0.00000000
4.39392430 1.22408477 -0.00486223 0.00000000
0.99158094 0.60165588 0.00078215 0.00000000
3.99737158 1.40258417 -0.00207636 0.00000000
1.97334586 1.45411093 -0.00021246 0.00000000
3.74295194 0.64198640 0.00042203 0.00000000
3.03446885 1.51340035 0.00242312 0.00000000
0.93424079 1.44024236 0.00389411 0.00000000
3.77741763 0.10835523 -0.00277500 0.00000000
3.31132750 1.01321119 0.00353138 0.00000000
1.66485470 1.02296147 0.00099686 0.00000000
2.75483107 1.67438990 -0.00087814 0.00000000
4.04636389 1.36783400 -0.00343404 0.00000000
1.70013026 0.97484773 0.00247575 0.00000000
1.92796638 0.44111258 -0.00387362 0.00000000
2.54422742 1.07320873 0.00203025 0.00000000
0.72167882 1.05250984 -0.00015629 0.00000000
0.01038653 1.43817276 -0.00181040 0.00000000
3.28215004 1.22394017 0.00291092 0.00000000
3.19686883 1.13000570 -0.00031481 0.00000000
3.05971844 0.37064111 -0.00101406 0.00000000
1.56638487 0.90925789 -0.00109606 0.00000000
4.19254355 1.14944112 0.00002239 0.00000000
3.05038421 1.51466899 0.00118936 0.00000000
0.24406695 0.75356095 -0.00380746 0.00000000
3.12434919 0.87876372 -0.00090804 0.00000000
1.21810032 1.63793983 0.00342145 0.00000000
2.63374448 0.14989742 -0.00257455 0.00000000
2.31863607 1.28214714 -0.00205009 0.00000000
1.57324211 0.13086193 0.00119654 0.00000000
3.29300290 1.27758045 0.00280781 0.00000000
3.36241979 1.64795019 -0.00151772 0.00000000
2.77696342 0.23725242 -0.00475633 0.00000000
1.15263393 0.17704742 -0.00145691 0.00000000
1.39137770 0.62687566 -0.00231261 0.00000000
0.41141494 0.28980105 -0.00310651 0.00000000
0.85230773 0.85534852 0.00090755 0.00000000
3.52792929 0.01355697 0.00006912 0.00000000
2.74899537 0.63307816 -0.00199026 0.00000000
2.77989935 1.32814465 -0.00063639 0.00000000
2.36689908 0.48039961 0.00057137 0.00000000
2.27387780 0.03460900 -0.00238673 0.00000000
0.53167532 0.11835840 -0.00016595 0.00000000
1.78020682 0.51977973 -0.00279962 0.00000000
1.21194465 0.07214398 0.00062989 0.00000000
0.90135484 1.58560343 0.00181661 0.00000000
1.55474266 0.18492996 -0.00390400 0.00000000
1.47823983 0.96693787 0.00186306 0.00000000
1.10243847 1.36765946 0.00224020 0.00000000
3.18957465 0.31515784 -0.00318399 0.00000000
2.65495093 1.21126945 0.00236345 0.00000000
4.05692503 0.86513120 0.00035548 0.00000000
0.32231658 0.32233236 0.00017371 0.00000000
1.35519086 0.55829959 0.00168455 0.00000000
3.06140393 1.06949734 0.00487826 0.00000000
3.25528876 0.81099987 -0.00047303 0.00000000
3.79964748 0.95769801 0.00107505 0.00000000
1.11933860 1.22759071 0.00242243 0.00000000
2.48326887 1.47873809 0.00010649 0.00000000
3.88581315 0.84537245 -0.00159090 0.00000000
2.84240059 1.63719015 0.00063548 0.00000000
1.55519575 0.48491674 -0.00038965 0.00000000
3.85288694 1.22939508 -0.00358527 0.00000000
1.29297957 1.67056644 0.00001304 0.00000000
2.90754103 0.15619001 0.00285078 0.00000000
4.04355107 0.09392003 -0.00248280 0.00000000
2.48882513 0.88316167 0.00122189 0.00000000
3.29259348 0.56905794 -0.00012746 0.00000000
0.96749028 0.66794073 0.00181603 0.00000000
2.58664669 1.12035797 0.00107780 0.00000000
3.77766390 1.39634617 -0.00154256 0.00000000
0.02665140 0.12088621 0.00157830 0.00000000
3.59560178 0.65581714 -0.00367464 0.00000000
4.12840515 0.67178067 -0.00179199 0.00000000
2.64081407 1.51507909 -0.00097958 0.00000000
0.44769273 0.05010972 0.00063720 0.00000000
0.55937086 1.15925189 0.00453448 0.00000000
3.67412688 0.93859763 0.00077883 0.00000000
3.74313494 0.58834218 -0.00054490 0.00000000
1.27891472 0.65652846 -0.00133652 0.00000000
2.03878776 1.36526797 0.00071888 0.00000000
3.12462635 0.93835398 -0.00217631 0.00000000
2.76608991 0.39800056 0.00135685 0.00000000
2.28240012 1.44075349 -0.00291054 0.00000000
3.54603781 1.24013448 -0.00136052 0.00000000
0.28678297 1.29952879 -0.00072109 0.00000000
2.11107259 1.41382262 0.00516017 0.00000000
2.13053519 1.45424788 0.00668946 0.00000000
3.94396219 0.60978263 -0.00147101 0.00000000
3.80925072 0.17874225 -0.00153597 0.00000000
2.66017344 1.37699707 0.00030501 0.00000000
4.15156917 1.16353995 0.00396434 0.00000000
4.30170692 0.79598854 0.00259395 0.00000000
0.51731546 0.35553088 -0.00146501 0.00000000
3.61202656 0.54264244 0.00275290 0.00000000
3.09597428 0.45407481 -0.00088700 0.00000000
1.62703919 0.95072411 0.00190937 0.00000000
2.48439796 0.19519885 0.00349155 0.00000000
1.41199737 1.37225886 0.00049286 0.00000000
0.47291292 0.36037926 0.00174665 0.00000000
0.72940512 1.27958718 0.00396483 0.00000000
3.38223805 1.44440424 0.00097132 0.00000000
1.16914423 0.48583120 0.00098796 0.00000000
0.43845598 1.32156929 -0.00408098 0.00000000
4.27678102 1.46847675 0.00133421 0.00000000
1.42975252 1.44399485 0.00266542 0.00000000
2.16478583 1.20661447 0.00029160 0.00000000
3.94511004 1.43360751 -0.00153041 0.00000000
2.65493749 1.67699832 0.00293548 0.00000000
4.30703435 0.18904042 0.00006063 0.00000000
1.31517932 0.67235205 -0.00088912 0.00000000
3.36074520 1.46734231 0.00133669 0.00000000
2.96299442 0.50638476 -0.00353291 0.00000000
4.38825936 0.53047502 0.00031496 0.00000000
4.14458966 1.49539763 -0.00072819 0.00000000
2.99751342 0.64756360 0.00135087 0.00000000
2.38023657 0.82099929 -0.00327867 0.00000000
2.47031303 1.11200233 0.00218127 0.00000000
3.57124338 1.45184641 0.00509968 0.00000000
1.87011370 0.83466103 -0.00103328 0.00000000
2.87080784 0.20672939 -0.00276909 0.00000000
3.71152999 1.47571385 0.00092525 0.00000000
3.84047808 0.18936073 -0.00038703 0.00000000
0.11394003 0.77852300 0.00003256 0.00000000
4.26774886 0.21024527 0.00087296 0.00000000
1.75659219 1.16259547 -0.00107337 0.00000000
4.21096915 0.08538226 0.00239017 0.00000000
1.38796844 0.98508014 -0.00053763 0.00000000
1.21259763 1.51367251 -0.00234489 0.00000000
0.99370933 1.36674179 0.00024455 0.00000000
4.08666268 0.14221765 -0.00087478 0.00000000
3.84406669 1.36227112 -0.00081249 0.00000000
3.61233171 1.21503379 0.00149222 0.00000000
4.28498418 1.43153700 -0.00083857 0.00000000
2.96513092 1.28039310 -0.00243212 0.00000000
1.13402517 0.77847132 -0.00249619 0.00000000
2.64226258 1.09865354 0.00306772 0.00000000
4.16927017 0.39860466 -0.00202863 0.00000000
3.49719787 0.85141263 -0.00074999 0.00000000
1.22547782 0.61314873 -0.00596022 0.00000000
2.00084934 0.36517481 0.00012928 0.00000000
3.49510578 1.10327678 -0.00025242 0.00000000
3.76322974 0.33920101 -0.00130430 0.00000000
4.04310666 1.48425607 0.00259973 0.00000000
3.75679057 1.30662704 0.00041578 0.00000000
0.98345375 0.49348933 -0.00011087 0.00000000
4.09746693 0.93297519 -0.00096301 0.00000000
3.93738033 1.27276875 0.00059896 0.00000000
2.27914755 1.15927157 0.00069357 0.00000000
2.03668624 1.08381115 0.00324445 0.00000000
0.00986428 0.90024745 0.00039458 0.00000000
0.03920207 0.15276596 -0.00319124 0.00000000
2.15905491 0.44926420 0.00696147 0.00000000
1.77838831 1.58083755 -0.00207733 0.00000000
3.53028239 0.60502012 -0.00085027 0.00000000
2.37250059 0.68264488 0.00128234 0.00000000
0.54901164 0.52991859 -0.00005383 0.00000000
3.23742273 0.53938219 -0.00008504 0.00000000
3.37292749 0.48647251 0.00298122 0.00000000
2.95309020 1.28445999 0.00134328 0.00000000
3.68156877 0.93326728 -0.00023685 0.00000000
1.40909039 1.09706337 -0.00350599 0.00000000
3.61750965 0.39407190 0.00081001 0.00000000
2.53561286 1.02486259 -0.00044611 0.00000000
3.95976931 1.04284723 -0.00004505 0.00000000
0.20343209 0.60809214 0.00320829 0.00000000
2.12553433 1.21507390 0.00000138 0.00000000
1.88586945 0.85347065 -0.00130319 0.00000000
0.20695076 1.66538300 -0.00105502 0.00000000
1.57081574 0.22604163 -0.00053979 0.00000000
2.03571561 0.22358586 0.00068011 0.00000000
1.50430736 1.25671767 -0.00100314 0.00000000
2.69840137 1.00070729 -0.00163977 0.00000000
2.11483598 1.37874828 0.00436062 0.00000000
3.31043710 1.47304336 -0.00451322 0.00000000
0.41145896 0.24993983 -0.00245151 0.00000000
2.82770093 1.17217006 0.00341539 0.00000000
1.29021472 1.48796385 0.00010763 0.00000000
2.70275343 0.52276818 0.00199790 0.00000000
2.98051089 0.61555212 -0.00421943 0.00000000
1.35931558 0.21285021 -0.00303232 0.00000000
3.89578099 0.74798835 0.00057448 0.00000000
3.63702425 0.27633431 -0.00064466 0.00000000
0.71771392 0.26679107 0.00208973 0.00000000
4.39277678 0.63754876 -0.00137674 0.00000000
0.52661199 0.23844035 0.00060203 0.00000000
2.17592810 0.94209664 0.00112404 0.00000000
0.67332978 0.00432224 0.00193420 0.00000000
2.73939153 1.29887056 0.00658859 0.00000000
0.10772234 1.36574270 0.00206906 0.00000000
4.40811409 1.54480603 0.00195753 0.00000000
1.67072824 0.11349147 -0.00443854 0.00000000
0.87761135 0.76998196 0.00298567 0.00000000
3.82992693 0.80329222 0.00021835 0.00000000
0.49086325 0.56947092 0.00350435 0.00000000
4.40510017 1.21188628 -0.00088095 0.00000000
2.37312406 1.24734218 0.00221693 0.00000000
0.29555569 1.29981413 0.00010054 0.00000000
3.32379890 1.16920094 -0.00220924 0.00000000
3.78274182 0.36702402 0.00033881 0.00000000
3.38445169 0.47352013 -0.00217607 0.00000000
4.44414189 0.95721230 0.00247397 0.00000000
1.80488205 0.41598605 0.00050428 0.00000000
0.36712116 1.06821317 -0.00220343 0.00000000
1.21995473 0.49821262 0.00104955 0.00000000
3.80243180 0.69606911 -0.00293958 0.00000000
3.08392711 1.58105604 0.00024401 0.00000000
1.51958516 1.08085301 0.00108190 0.00000000
0.18676050 0.39409763 0.00138881 0.00000000
3.12368118 1.00853937 0.00042069 0.00000000
4.22859181 0.17705566 -0.00148286 0.00000000
4.16387155 1.36736636 -0.00098436 0.00000000
2.62036010 1.24684531 0.00422446 0.00000000
4.28954674 0.85768517 0.00011571 0.00000000
0.68270850 0.18102109 0.00037756 0.00000000
0.70945297 1.14351783 0.00467971 0.00000000
1.64444963 1.57755230 0.00053745 0.00000000
2.07011771 0.81417665 0.00394192 0.00000000
2.77645875 1.23682901 0.00030174 0.00000000
0.11959685 1.48193672 -0.00140960 0.00000000
1.58569526 1.26141934 0.00182718 0.00000000
0.12004049 0.84407122 -0.00064225 0.00000000
3.64903480 0.98823686 -0.00098447 0.00000000
2.31104315 1.39909698 0.00253638 0.00000000
2.09249222 1.17408538 0.00025024 0.00000000
0.15411739 0.48785422 0.00033231 0.00000000
3.92353492 0.37935189 -0.00434235 0.00000000
3.09467045 0.04905576 0.00452997 0.00000000
2.69376569 1.62569654 0.00026014 0.00000000
2.97861554 1.23364658 -0.00619849 0.00000000
1.12163674 1.42982076 0.00133039 0.00000000
1.62152303 0.38399379 -0.00457722 0.00000000
2.84320471 0.04500112 -0.00120543 0.00000000
3.13741645 0.34237473 0.00461158 0.00000000
2.84703851 1.15747792 0.00308944 0.00000000
2.25552009 0.79639929 -0.00118783 0.00000000
3.16291339 1.67759135 0.00087508 0.00000000
1.49298702 0.47490464 -0.00255151 0.00000000
3.44746876 0.77755688 0.00199643 0.00000000
1.56962391 0.93134027 0.00107824 0.00000000
3.17553867 1.47083628 -0.00393906 0.00000000
1.60437630 0.17615123 -0.00225792 0.00000000
1.78982431 0.79013910 -0.00173095 0.00000000
0.66378861 0.71605250 0.00147197 0.00000000
4.11506857 1.63691976 0.00658771 0.00000000
1.88671288 0.47049206 -0.00071910 0.00000000
3.01193892 1.18662393 -0.00255685 0.00000000
3.65498419 0.85655170 0.00034441 0.00000000
0.79770223 0.99148136 -0.00098001 0.00000000
3.56821265 0.89238070 0.00641867 0.00000000
4.03272556 1.48820441 0.00172647 0.00000000
2.38383024 1.16547734 0.00164682 0.00000000
1.31789837 0.90291038 -0.00029543 0.00000000
3.90781435 1.24671559 -0.00095556 0.00000000
4.21911461 0.04370711 0.00185505 0.00000000
3.57397372 0.62774251 0.00279789 0.00000000
0.31169352 0.61420880 0.00010842 0.00000000
3.65507754 1.65039569 -0.00501769 0.00000000
1.58669399 0.73506689 0.00173240 0.00000000
3.19061353 1.08821805 -0.00068033 0.00000000
0.32969001 1.05805294 -0.00183598 0.00000000
2.65853928 1.44607415 0.00196788 0.00000000
2.25782065 0.00964587 -0.00327455 0.00000000
0.54273887 0.10120045 -0.00056101 0.00000000
3.14138268 0.73929805 0.00228620 0.00000000
2.21245701 0.97775570 0.00047336 0.00000000
3.01826823 1.61291809 0.00126862 0.00000000
1.73787324 1.07166577 0.00522300 0.00000000
3.34472724 0.91280328 0.00334364 0.00000000
4.35945480 0.79839444 0.00228506 0.00000000
2.40132069 0.17391839 0.00003866 0.00000000
0.11000912 1.54170245 0.00469149 0.00000000
3.31314818 0.34427698 0.00017744 0.00000000
0.56266020 0.18429107 0.00026444 0.00000000
2.01297402 0.30385776 -0.00629721 0.00000000
4.31764767 1.19696896 0.00105250 0.00000000
4.30652058 0.61928576 -0.00359056 0.00000000
1.56853720 1.01823844 0.00221179 0.00000000
3.10027380 1.18710105 0.00015686 0.00000000
2.99740575 0.63891166 0.00294338 0.00000000
3.97721133 1.46638132 -0.00011428 0.00000000
2.34509570 0.69579219 0.00198957 0.00000000
0.90519342 1.30184532 -0.00270733 0.00000000
2.78789779 0.94403404 0.00129557 0.00000000
4.24171306 0.86310937 0.00019645 0.00000000
0.28161679 0.83966925 -0.00198799 0.00000000
3.45214478 0.22886374 0.00306607 0.00000000
1.41958569 0.98315890 0.00139508 0.00000000
1.51007447 0.66491359 0.00226212 0.00000000
1.40492623 0.65329797 0.00138601 0.00000000
4.24901171 1.52475704 0.00119036 0.00000000
1.02123944 1.56030358 -0.00142056 0.00000000
1.93893036 0.51580019 0.00309677 0.00000000
2.72391747 1.29038976 -0.00181337 0.00000000
1.02142088 0.86154443 0.00519316 0.00000000
3.16750138 0.73474445 -0.00202022 0.00000000
3.12642313 0.24398570 -0.00073779 0.00000000
1.78772086 0.41666602 0.00030223 0.00000000
3.17965703 1.67398440 -0.00081837 0.00000000
0.11483795 0.31381485 -0.00123542 0.00000000
3.12132658 1.31477632 -0.00038373 0.00000000
3.69684761 0.07874071 -0.00211706 0.00000000
2.76060881 1.25902857 0.00086672 0.00000000
2.40166155 0.36854463 -0.00006820 0.00000000
3.04903570 1.43415149 0.00243731 0.00000000
2.74709351 0.05696112 -0.00061611 0.00000000
1.98774474 0.95960533 0.00246015 0.00000000
1.77133605 0.89203398 0.00262273 0.00000000
2.04968218 1.22290907 0.00299386 0.00000000
1.77129261 0.93711744 -0.00385780 0.00000000
0.25829628 0.95381258 -0.00256432 0.00000000
3.06480102 0.49233890 -0.00276323 0.00000000
2.15284361 1.62757737 -0.00064378 0.00000000
1.93775903 0.06702736 -0.00383676 0.00000000
4.16598501 0.10027669 -0.00080913 0.00000000
3.49951270 0.08289671 0.00112260 0.00000000
1.42257806 1.47996935 0.00482919 0.00000000
1.12474422 0.96203169 0.00024101 0.00000000
3.61371504 0.27252463 -0.00090732 0.00000000
0.32600897 0.07923888 0.00074874 0.00000000
1.02740837 1.08259336 0.00336504 0.00000000
4.05368206 1.26772298 -0.00126473 0.00000000
3.31996274 1.25950932 -0.00288799 0.00000000
0.63290096 0.57197219 -0.00018015 0.00000000
4.33348943 1.38803482 -0.00079213 0.00000000
3.18539222 0.73159071 -0.00435253 0.00000000
1.37294717 0.87921403 -0.00097097 0.00000000
2.29570712 0.22786330 -0.00109776 0.00000000
3.94953647 1.05557520 0.00169714 0.00000000
2.37061473 1.34220509 0.00191847 0.00000000
1.41538066 1.20424567 -0.00332118 0.00000000
3.37291425 1.47696093 -0.00126089 0.00000000
0.11012793 1.67259244 0.00277202 0.00000000
4.09104058 1.52347440 -0.00206180 0.00000000
2.21005992 0.88349376 0.00309152 0.00000000
4.00624263 1.46534640 -0.00074969 0.00000000
1.06701763 1.52768549 -0.00164650 0.00000000
3.98347364 1.67574975 0.00185066 0.00000000
3.17342119 0.37033051 -0.00092904 0.00000000
2.90052674 1.02044599 0.00038344 0.00000000
0.73913888 1.46815509 0.00290560 0.00000000
1.67383059 0.62420687 0.00237870 0.00000000
0.45604607 0.21189521 -0.00004230 0.00000000
1.00571766 0.16726077 -0.00153058 0.00000000
0.59322389 0.06818105 -0.00567628 0.00000000
3.82891795 0.66563839 0.00054635 0.00000000
2.43989495 1.67387874 0.00547073 0.00000000
1.17551431 0.86978672 0.00009364 0.00000000
1.56499574 0.71880898 -0.00171731 0.00000000
3.91868719 1.65633539 0.00190940 0.00000000
4.37259985 0.97832012 0.00184556 0.00000000
3.17192018 0.96014796 -0.00336420 0.00000000
1.31318743 0.84044832 -0.00382138 0.00000000
2.91677682 0.71402170 -0.00254786 0.00000000
2.90133140 0.24387135 0.00160678 0.00000000
2.07548922 0.04849331 0.00179452 0.00000000
4.32410452 1.56222084 0.00290447 0.00000000
2.31207031 0.67552783 0.00564847 0.00000000
0.66907626 0.95381281 -0.00107339 0.00000000
1.87301336 1.28303025 0.00119087 0.00000000
0.69109252 0.79045683 0.00048332 0.00000000
4.03434129 0.38325152 -0.00228397 0.00000000
2.65007741 0.43458944 0.00268716 0.00000000
4.18446180 0.32146393 -0.00396566 0.00000000
3.02783706 1.03067752 0.00207441 0.00000000
3.62819227 0.90851447 0.00008804 0.00000000
4.28042883 1.11894988 0.00182454 0.00000000
2.10898195 0.20265685 0.00100311 0.00000000
3.87292726 0.18897022 0.00030016 0.00000000
0.66120391 1.54814671 -0.00059119 0.00000000
3.24050595 1.41895852 0.00214610 0.00000000
3.43102367 1.60688695 -0.00078965 0.00000000
1.30395107 0.50006960 -0.00010003 0.00000000
0.03116799 0.12527363 0.00019552 0.00000000
2.63619019 0.40341948 -0.00285100 0.00000000
