2.46896659 1.75347941 0.00387057 0.00000000
0.79410441 1.68042279 0.00138460 0.00000000
0.61898487 1.63440752 -0.00341621 0.00000000
0.63251405 0.20520166 0.00180337 0.00000000
1.28292292 0.61204394 0.00008812 0.00000000
0.22723416 2.22665699 0.00122162 0.00000000
0.07012093 0.48479704 0.00247272 0.00000000
0.34021925 1.37777089 0.00133073 0.00000000
1.37189555 2.32539572 0.00143250 0.00000000
3.50824475 2.27625618 -0.00003466 0.00000000
1.50754061 0.09051000 0.00023070 0.00000000
0.24878803 1.84568491 -0.00070784 0.00000000
1.65054238 1.09371363 0.00315794 0.00000000
3.23714378 1.82845277 0.00332064 0.00000000
1.97942647 2.09645083 -0.00026798 0.00000000
1.56495747 0.51045695 0.00123493 0.00000000
3.04055238 1.28869230 -0.00035363 0.00000000
4.29212298 1.52447921 -0.00231027 0.00000000
1.82839881 2.05012914 -0.00385581 0.00000000
2.28543994 2.38015480 -0.00012510 0.00000000
2.61717167 1.75066397 0.00147962 0.00000000
4.03979590 2.06629699 0.00122223 0.00000000
0.56642309 0.63109653 0.00081633 0.00000000
2.16874729 2.06837388 0.00138043 0.00000000
1.57108570 1.34084112 0.00219503 0.00000000
0.04048728 2.36192577 0.00105181 0.00000000
0.40456125 1.65571654 -0.00136403 0.00000000
1.49576790 1.78088065 -0.00127954 0.00000000
1.40888846 0.20932918 -0.00582775 0.00000000
1.60245234 1.30700021 0.00006287 0.00000000
3.20150550 1.23826957 -0.00468599 0.00000000
1.17777274 1.25474143 -0.00221612 0.00000000
1.84175493 0.60994500 0.00006194 0.00000000
2.25826126 0.05589683 0.00044618 0.00000000
2.69585848 1.29638773 -0.00063776 0.00000000
3.43106089 2.10287777 0.00264695 0.00000000
2.36988892 1.93892039 -0.00122275 0.00000000
2.50934749 1.94483330 0.00575738 0.00000000
1.17391077 0.73351428 -0.00405114 0.00000000
0.57915690 1.29923217 -0.00037099 0.00000000
2.72132720 2.19079209 0.00292256 0.00000000
1.61355041 1.22575383 0.00015143 0.00000000
2.50983070 1.58730315 0.00386712 0.00000000
3.33483334 2.32726477 -0.00127039 0.00000000
3.22042843 0.83768052 0.00528335 0.00000000
2.88530167 2.05699676 -0.00014592 0.00000000
0.18929754 0.78400539 -0.00214165 0.00000000
2.94450103 0.02058024 -0.00466928 0.00000000
2.30164147 2.27621885 0.00137340 0.00000000
1.64133777 0.39209968 -0.00267872 0.00000000
0.42020600 1.44877437 -0.00456269 0.00000000
0.45249020 0.95720741 0.00079827 0.00000000
3.48502355 1.63060669 -0.00093550 0.00000000
0.66866876 0.90881933 -0.00058294 0.00000000
0.11496234 1.11268415 -0.00227723 0.00000000
1.52484908 2.27896016 0.00161489 0.00000000
3.11966430 0.88894353 0.00600073 0.00000000
0.99957938 1.93722720 0.00433485 0.00000000
2.78463787 0.04262813 -0.00078813 0.00000000
2.01438105 1.54373050 -0.00188848 0.00000000
3.03283604 2.30968615 -0.00018768 0.00000000
0.22775785 2.28800342 -0.00050557 0.00000000
0.21750948 1.03832756 -0.00647257 0.00000000
3.09499542 2.33246481 -0.00172153 0.00000000
0.99464400 2.11092716 -0.00217781 0.00000000
1.56319823 1.82820520 -0.00452169 0.00000000
1.95560805 0.74915118 0.00424470 0.00000000
2.36799751 2.29854777 0.00267382 0.00000000
2.45673964 1.18161213 0.00309427 0.00000000
4.01161132 1.92331891 0.00268999 0.00000000
1.73485515 1.89265786 -0.00205518 0.00000000
3.53323621 1.71635489 0.00100538 0.00000000
3.80706496 0.24758861 -0.00001507 0.00000000
0.64768694 2.04187211 0.00470374 0.00000000
3.58732803 1.33486001 0.00038641 0.00000000
0.70479676 1.78941634 -0.00094939 0.00000000
0.85296951 1.78095783 -0.00129011 0.00000000
3.45163745 2.15519204 -0.00223021 0.00000000
2.93216925 0.33540143 -0.00320941 0.00000000
4.12580063 0.82687425 -0.00380796 0.00000000
0.49943087 1.89110396 -0.00114823 0.00000000
0.67374208 2.03259243 -0.00026340 0.00000000
0.26930432 1.26209886 0.00019495 0.00000000
0.71305371 1.01301461 -0.00080605 0.00000000
2.79970010 0.56845854 -0.00331490 0.00000000
3.12092579 1.75345371 -0.00006901 0.00000000
2.91740125 1.29267292 -0.00449377 0.00000000
1.44557829 1.34742970 0.00185352 0.00000000
0.53460711 0.10640884 -0.00264600 0.00000000
3.81000064 0.49930502 -0.00206668 0.00000000
0.75599431 0.40484167 0.00501324 0.00000000
3.07414976 0.24450629 -0.00199331 0.00000000
3.91336836 2.24164602 0.00118423 0.00000000
2.23931893 1.38456887 -0.00094989 0.00000000
3.28931254 0.16347460 -0.00035140 0.00000000
4.03002291 1.96627833 -0.00212924 0.00000000
1.19554961 2.21754954 0.00098797 0.00000000
3.46357248 2.10198629 0.00395619 0.00000000
2.82808369 0.69892837 0.00018823 0.00000000
3.95419192 2.15776125 -0.00461606 0.00000000
1.53752687 0.39728326 0.00054063 0.00000000
0.84390619 1.23716382 -0.00128454 0.00000000
0.86841119 0.63520472 0.00068129 0.00000000
2.96709170 2.36427010 0.00016264 0.00000000
0.63490739 0.81564513 -0.00178453 0.00000000
0.03868567 1.25744142 0.00184850 0.00000000
1.17832412 1.63545028 -0.00486454 0.00000000
3.39336365 2.15201333 0.00238501 0.00000000
2.41065557 0.62339137 -0.00180003 0.00000000
1.21506382 1.50281222 0.00056569 0.00000000
4.08849880 1.54461264 -0.00093096 0.00000000
0.73454155 1.51820433 -0.00094547 0.00000000
0.92098235 2.35722192 -0.00229857 0.00000000
3.21113382 2.22607366 -0.00134604 0.00000000
1.83479504 1.84420312 -0.00277108 0.00000000
4.01583506 0.94371541 0.00602098 0.00000000
1.73898092 1.87997886 0.00285909 0.00000000
3.26145630 1.99103089 0.00112396 0.00000000
3.97129609 0.00563746 0.00070094 0.00000000
1.55247042 0.39022684 0.00156977 0.00000000
1.07446188 1.45276822 0.00391558 0.00000000
3.31995078 2.11380159 -0.00213045 0.00000000
0.95506808 1.10927191 0.00022231 0.00000000
1.93597763 0.64743850 0.00276736 0.00000000
0.45456941 0.36791363 -0.00032329 0.00000000
0.85859682 0.88911515 0.00364321 0.00000000
3.02524989 1.31094753 0.00488231 0.00000000
0.50167930 2.38039300 0.00331835 0.00000000
1.54655522 1.92696705 0.00008342 0.00000000
0.72040842 2.24202150 0.00175108 0.00000000
1.16556574 1.24034310 -0.00507760 0.00000000
3.27281262 2.33596894 0.00120358 0.00000000
0.85710154 0.99116156 0.00202158 0.00000000
0.60511286 2.13904089 -0.00349422 0.00000000
1.65590776 0.93758140 -0.00307292 0.00000000
1.35825104 2.28823246 0.00171025 0.00000000
0.97060574 0.44528980 0.00324627 0.00000000
3.67244937 0.65169909 -0.00148533 0.00000000
3.11245471 1.22664267 -0.00434488 0.00000000
2.39954539 1.59586254 0.00133721 0.00000000
2.25561493 0.80450470 0.00043781 0.00000000
1.90826720 0.26217775 -0.00263555 0.00000000
0.51802913 2.06788316 0.00000878 0.00000000
1.22091094 1.64463934 0.00056727 0.00000000
4.02270252 1.07279165 0.00443079 0.00000000
0.54310569 2.04982014 0.00422775 0.00000000
1.63167346 1.69342467 0.00157600 0.00000000
0.63264242 2.32178886 -0.00205779 0.00000000
4.26171812 1.82729612 -0.00126582 0.00000000
1.14792418 1.82532787 0.00367726 0.00000000
1.66964108 0.80927280 0.00083974 0.00000000
2.45611422 1.95829211 -0.00348455 0.00000000
1.66847582 2.25933138 -0.00343827 0.00000000
3.00204721 0.49326728 -0.00066632 0.00000000
0.31729163 0.79049423 -0.00472856 0.00000000
1.61444502 2.22383991 -0.00330099 0.00000000
0.82247510 2.28170288 -0.00131503 0.00000000
2.34390523 2.35665426 -0.00106117 0.00000000
2.38709129 1.72993326 0.00040152 0.00000000
1.41432546 1.08287151 0.00161859 0.00000000
0.84497506 1.06437681 -0.00022200 0.00000000
3.32538698 1.77849075 0.00254729 0.00000000
3.67950363 1.85323054 -0.00404458 0.00000000
4.26909335 2.10660222 -0.00051537 0.00000000
0.28935910 0.85237094 0.00037133 0.00000000
2.77559770 1.13786918 -0.00246554 0.00000000
0.79877569 2.07173366 -0.00361060 0.00000000
0.15531506 0.13922156 0.00229815 0.00000000
1.40901818 1.23448366 -0.00254448 0.00000000
2.25585324 1.23316518 -0.00012841 0.00000000
0.59460046 2.18393808 -0.00295067 0.00000000
2.14200788 1.07852735 -0.00044964 0.00000000
3.88372314 1.82650553 0.00085316 0.00000000
2.20321554 0.18332263 -0.00321554 0.00000000
1.50307937 1.82850315 0.00055527 0.00000000
1.34528644 1.40167372 -0.00250654 0.00000000
0.73759027 2.16910095 -0.00060857 0.00000000
2.24999932 1.84025567 -0.00072723 0.00000000
0.37873409 0.01071514 0.00139686 0.00000000
2.40058895 1.50311352 -0.00052913 0.00000000
2.29769031 0.23872385 -0.00063598 0.00000000
3.83360109 0.65645255 -0.00230562 0.00000000
1.74592082 1.16081590 0.00392015 0.00000000
0.79745264 1.81890651 0.00099432 0.00000000
1.81675782 1.71783557 -0.00337037 0.00000000
3.14941226 0.72029104 0.00094599 0.00000000
0.88820596 2.07365304 0.00319891 0.00000000
2.87732132 0.79846434 0.00165882 0.00000000
1.35660702 0.30942707 0.00007570 0.00000000
2.69396340 2.05825994 0.00232486 0.00000000
4.25390776 2.28224727 -0.00481029 0.00000000
3.45302958 2.07012674 0.00348007 0.00000000
3.17222192 1.33234296 -0.00175405 0.00000000
0.00466635 1.41280154 -0.00114392 0.00000000
3.02430338 1.71527204 -0.00150928 0.00000000
1.57363107 1.85939800 0.00519376 0.00000000
2.11955447 1.77669547 0.00002395 0.00000000
1.79854993 1.39066696 0.00363697 0.00000000
0.69303769 0.51635654 0.00196383 0.00000000
0.40641405 2.08787284 0.00063830 0.00000000
1.63328900 0.25700057 0.00240959 0.00000000
0.90748016 0.39545553 0.00557416 0.00000000
2.42000659 0.65968068 0.00114188 0.00000000
2.34857980 1.28539631 -0.00067182 0.00000000
4.19038700 1.51558687 0.00458036 0.00000000
4.16473745 0.81117490 -0.00219604 0.00000000
3.90518355 1.80353755 -0.00018131 0.00000000
0.69942511 1.98379203 0.00546337 0.00000000
2.91722415 0.83502670 0.00165769 0.00000000
2.19343613 0.91251509 0.00423698 0.00000000
2.58678072 1.86956162 0.00190027 0.00000000
2.78511847 1.73133431 -0.00219826 0.00000000
1.20549433 1.68710832 0.00467059 0.00000000
3.46120703 0.85078027 0.00092566 0.00000000
1.40061996 0.85254805 0.00002835 0.00000000
3.76562039 0.73665659 0.00106443 0.00000000
1.24128366 0.91186874 -0.00431594 0.00000000
3.08432745 1.11557460 0.00099942 0.00000000
3.94926130 0.71518862 0.00185413 0.00000000
3.72471513 1.36088189 0.00387783 0.00000000
1.08992063 1.77763158 -0.00131691 0.00000000
0.91090549 0.64388029 -0.00109359 0.00000000
3.90103925 0.22281053 0.00286097 0.00000000
1.69420666 1.95354314 -0.00346920 0.00000000
0.28784958 0.39544115 0.00022427 0.00000000
0.47475590 0.39787857 0.00204551 0.00000000
4.02047731 0.29055144 -0.00020165 0.00000000
1.85815473 2.22812170 -0.00500632 0.00000000
0.12626385 0.35376145 0.00088034 0.00000000
2.72871936 1.81169087 -0.00122964 0.00000000
2.79188807 2.16641140 0.00278999 0.00000000
3.56946980 1.56536392 0.00089105 0.00000000
4.21486470 1.14009908 -0.00506083 0.00000000
3.53822663 1.01609445 -0.00190115 0.00000000
0.61467083 1.12994588 -0.00109889 0.00000000
0.00817611 2.35897606 -0.00367942 0.00000000
2.25479738 1.71857203 0.00289751 0.00000000
4.26503758 1.45808415 0.00109098 0.00000000
3.40725595 2.12264643 0.00287214 0.00000000
4.02236074 1.05015190 0.00306621 0.00000000
1.37211193 1.07167782 -0.00317274 0.00000000
1.96291734 0.72644594 0.00015475 0.00000000
0.45803179 1.35666855 -0.00290972 0.00000000
3.42307390 1.50214836 0.00168624 0.00000000
2.80389601 0.32737099 -0.00048207 0.00000000
2.13845727 0.09755069 0.00027884 0.00000000
0.35295028 1.14194558 0.00042459 0.00000000
2.48395766 1.08984801 0.00098317 0.00000000
0.58007449 1.95583872 0.00081595 0.00000000
0.44944174 0.78581751 0.00359519 0.00000000
3.66473196 0.44832802 0.00559464 0.00000000
3.46539469 0.97958459 -0.00052236 0.00000000
3.43055870 1.85273320 -0.00117313 0.00000000
4.10198158 0.57575884 0.00390323 0.00000000
3.42440739 1.80269787 0.00267310 0.00000000
1.05159341 0.61692715 0.00246948 0.00000000
4.26524644 2.16270169 0.00004006 0.00000000
1.41179833 1.86920236 -0.00059036 0.00000000
1.49485409 1.57639062 0.00292474 0.00000000
3.95505102 1.67198440 0.00028007 0.00000000
3.71871391 1.10247471 0.00377660 0.00000000
3.55500036 1.91307102 -0.00102098 0.00000000
2.56666271 1.52606862 0.00064473 0.00000000
1.15089676 0.27818978 0.00149271 0.00000000
0.05304698 0.86050245 0.00195411 0.00000000
1.71794556 0.86460831 -0.00075035 0.00000000
4.00683078 2.03870456 0.00586892 0.00000000
3.70508656 2.26882661 -0.00162672 0.00000000
3.31652334 0.79896011 -0.00199152 0.00000000
0.37224887 0.09781068 0.00076916 0.00000000
1.04987201 1.06261242 -0.00427103 0.00000000
3.92915698 1.55339290 -0.00514615 0.00000000
2.71705915 0.57096906 -0.00330387 0.00000000
3.58742079 0.17225556 -0.00205662 0.00000000
2.42664056 0.50067909 0.00236435 0.00000000
2.24160130 0.91249982 -0.00149663 0.00000000
3.66855293 0.75808680 -0.00261905 0.00000000
4.20115806 1.54424832 0.00160524 0.00000000
3.93711973 1.86474035 0.00054493 0.00000000
0.65669436 1.29246933 -0.00016967 0.00000000
2.32473067 1.21967447 -0.00062900 0.00000000
2.91066902 1.82068314 -0.00297049 0.00000000
0.74450009 1.56732781 0.00364567 0.00000000
0.38634206 2.30574407 0.00307799 0.00000000
1.35374596 0.41368956 0.00160369 0.00000000
0.42705489 0.72440196 0.00291057 0.00000000
3.25119308 0.11422973 0.00161085 0.00000000
3.98639037 1.10834463 0.00076579 0.00000000
2.35073439 0.85320054 0.00150965 0.00000000
0.99353298 1.65662370 0.00257984 0.00000000
0.30812468 0.56463651 0.00422781 0.00000000
2.37168711 0.81437559 -0.00164828 0.00000000
2.36867329 0.17016580 -0.00022509 0.00000000
0.14015447 0.63529748 -0.00417710 0.00000000
1.78459771 1.38100823 -0.00059661 0.00000000
3.50981870 1.92952406 0.00027291 0.00000000
3.11946157 0.69922212 0.00119111 0.00000000
3.26457571 2.01512686 -0.00275454 0.00000000
0.97435243 0.89491314 0.00153193 0.00000000
1.39293213 0.09653091 0.00053318 0.00000000
3.86126292 1.49966952 -0.00485953 0.00000000
3.75632157 1.32874018 -0.00353360 0.00000000
2.13663257 0.62304523 0.00048417 0.00000000
2.16757992 0.84153714 -0.00329123 0.00000000
0.83509509 1.57754298 0.00184662 0.00000000
0.20881355 1.89735609 0.00043263 0.00000000
2.40640015 0.34423025 0.00059801 0.00000000
3.55398060 0.90072424 -0.00241660 0.00000000
4.03843755 1.18007090 -0.00371750 0.00000000
3.65878996 2.23342968 -0.00382780 0.00000000
2.25758126 1.00126502 -0.00245826 0.00000000
2.56077682 2.07911051 -0.00020912 0.00000000
3.40290844 1.20239744 0.00059100 0.00000000
1.69306085 1.78468940 -0.00354506 0.00000000
3.95969263 0.36368988 0.00181944 0.00000000
3.23014827 1.94314940 0.00195347 0.00000000
3.89129927 0.24655560 0.00051760 0.00000000
3.55854315 2.18387695 0.00314879 0.00000000
0.50198771 0.83528251 0.00243359 0.00000000
0.25595858 0.75155177 -0.00245465 0.00000000
2.37303826 1.03251893 0.00141110 0.00000000
0.89873059 1.28719604 0.00094902 0.00000000
4.05698882 1.12052592 0.00192327 0.00000000
2.49171774 0.09266095 0.00483454 0.00000000
2.28537836 2.04260455 0.00147859 0.00000000
1.94185257 0.33335081 -0.00225792 0.00000000
0.63493789 0.05128185 0.00432734 0.00000000
3.85625514 1.02703552 0.00217913 0.00000000
2.68390760 0.50056448 0.00210475 0.00000000
3.80124568 1.23250588 0.00137421 0.00000000
2.21176838 0.41990122 -0.00231607 0.00000000
3.85692611 1.32230169 0.00105730 0.00000000
3.72460489 0.33812096 -0.00190398 0.00000000
0.06699236 0.77794234 -0.00403357 0.00000000
3.14314909 1.21026025 -0.00162728 0.00000000
2.92522543 0.51104621 -0.00016381 0.00000000
2.96258286 0.49181658 -0.00170866 0.00000000
1.84786750 1.91768877 -0.00171592 0.00000000
0.17311003 1.68745486 -0.00226383 0.00000000
1.60163090 1.91098923 -0.00502042 0.00000000
1.61009977 1.98218084 0.00238106 0.00000000
1.03742242 1.98623302 -0.00061059 0.00000000
4.28100521 0.72839243 -0.00361924 0.00000000
3.76255669 1.25326846 0.00055544 0.00000000
1.09993479 1.64282008 0.00113339 0.00000000
2.45620335 0.28050617 0.00374870 0.00000000
2.48646302 1.11636370 0.00131378 0.00000000
0.75141877 2.31519579 0.00268277 0.00000000
2.56941423 1.63581416 0.00080330 0.00000000
1.58801284 1.70109938 -0.00348217 0.00000000
1.85638660 0.44119324 0.00283536 0.00000000
1.98297061 2.27559795 -0.00382266 0.00000000
1.68790147 1.39715816 0.00092431 0.00000000
0.61583414 0.88329266 -0.00205749 0.00000000
0.93728701 1.99998359 0.00229017 0.00000000
0.39675859 1.90134054 -0.00113651 0.00000000
1.09338609 1.04489551 -0.00133051 0.00000000
3.00811082 0.21597381 0.00400679 0.00000000
3.76309926 0.32724427 0.00263649 0.00000000
1.21767570 0.31665412 -0.00302667 0.00000000
3.78280542 2.22085192 -0.00230649 0.00000000
1.08891642 2.13967324 0.00316684 0.00000000
3.35333608 0.74851632 0.00333149 0.00000000
3.77711424 1.31863023 0.00029103 0.00000000
2.47973165 1.07857339 -0.00222358 0.00000000
0.07234605 2.06140470 -0.00346352 0.00000000
0.31988212 2.18467553 0.00040282 0.00000000
1.10670931 2.13129153 0.00135897 0.00000000
3.59186151 0.76760251 -0.00086380 0.00000000
3.95178286 1.32150503 -0.00304994 0.00000000
3.67002144 2.33708365 0.00040499 0.00000000
1.33070713 0.79375224 -0.00272174 0.00000000
2.42795832 1.78424748 0.00399062 0.00000000
1.50920352 0.41148547 -0.00089196 0.00000000
2.29926782 0.76720776 -0.00101255 0.00000000
3.99939942 0.00783304 -0.00230105 0.00000000
4.11185987 0.97912741 0.00150232 0.00000000
3.38160139 1.11103167 0.00171198 0.00000000
1.38938919 1.69812322 -0.00204102 0.00000000
1.40481671 2.19307908 0.00016493 0.00000000
1.74742339 1.71822069 0.00340769 0.00000000
0.47636640 2.13721383 0.00064220 0.00000000
3.99161428 1.01715658 0.00071820 0.00000000
2.36218557 0.64196672 0.00222677 0.00000000
2.03917511 0.02675632 -0.00305042 0.00000000
2.03014454 0.42936184 -0.00015255 0.00000000
1.44283807 1.53823287 -0.00134546 0.00000000
0.43986502 0.56085836 0.00170478 0.00000000
0.73598106 2.24117696 0.00232688 0.00000000
0.93144827 0.90301402 0.00294652 0.00000000
2.99192668 0.38684081 0.00035288 0.00000000
2.97487558 1.55280847 -0.00193014 0.00000000
1.96625721 1.71986677 0.00177291 0.00000000
0.73068016 1.75834162 0.00319810 0.00000000
0.58171738 1.66094769 -0.00229576 0.00000000
3.40571653 0.70590628 0.00000895 0.00000000
1.75056305 1.33515795 -0.00178872 0.00000000
1.51232356 0.18821868 -0.00323813 0.00000000
4.01252503 1.36979621 -0.00234243 0.00000000
0.03904823 0.66029191 0.00001451 0.00000000
1.12520238 1.68183234 -0.00182127 0.00000000
3.27217916 1.92666539 -0.00076248 0.00000000
0.00736042 1.52548115 0.00036256 0.00000000
2.87542136 2.16902085 -0.00045453 0.00000000
3.52565757 0.65980204 -0.00233618 0.00000000
3.36577879 1.29187838 -0.00501019 0.00000000
0.38089063 0.61000402 -0.00057928 0.00000000
0.60371893 0.05026596 -0.00263071 0.00000000
4.07405558 0.20451616 -0.00034547 0.00000000
2.15352447 1.84925921 -0.00396037 0.00000000
2.41831824 0.98618021 -0.00078549 0.00000000
3.38674739 0.34966403 -0.00299820 0.00000000
3.54266998 0.96724394 -0.00126920 0.00000000
2.72988829 2.01779831 0.00548396 0.00000000
1.69068708 0.31305981 0.00134166 0.00000000
0.92210078 0.86417440 0.00483673 0.00000000
3.92120471 2.11874310 -0.00044553 0.00000000
1.79160781 0.65172093 0.00079679 0.00000000
2.55015421 2.12521459 -0.00213160 0.00000000
0.83442028 0.50692227 0.00251661 0.00000000
1.07360839 1.33680121 0.00304373 0.00000000
3.08349285 0.25974982 -0.00304462 0.00000000
3.99096623 0.80519147 0.00063405 0.00000000
0.29089183 1.27306918 -0.00088524 0.00000000
3.54434093 0.46588183 0.00022213 0.00000000
4.05419797 1.16862529 0.00383182 0.00000000
1.42541488 1.19375138 0.00517839 0.00000000
3.16549903 2.00959414 0.00192403 0.00000000
3.31692029 1.09094000 -0.00121414 0.00000000
0.39202612 0.02364449 0.00250030 0.00000000
3.10112333 0.85188701 0.00048828 0.00000000
3.02677232 0.86019118 -0.00192729 0.00000000
0.49118881 0.26287980 0.00150390 0.00000000
4.02759734 2.23150460 -0.00382831 0.00000000
1.55371675 0.57604790 -0.00480448 0.00000000
2.17826974 0.56823024 -0.00351398 0.00000000
3.65853797 2.33979298 0.00138505 0.00000000
3.57967850 1.91469169 0.00202587 0.00000000
1.39535955 0.32439771 -0.00124303 0.00000000
0.02884664 2.30020392 -0.00139587 0.00000000
2.04838714 0.00241583 -0.00344456 0.00000000
2.69005140 2.35876013 0.00361057 0.00000000
2.64886417 1.12020296 -0.00041120 0.00000000
2.27480708 1.16034961 0.00248723 0.00000000
2.01447281 0.73720475 0.00743773 0.00000000
2.78326485 0.52474657 0.00081810 0.00000000
1.25212004 1.24199839 -0.00154404 0.00000000
2.98227681 1.18743464 0.00317290 0.00000000
1.62364127 0.96691563 0.00059607 0.00000000
3.23127031 0.19333759 0.00089592 0.00000000
2.79299749 0.01134330 0.00098603 0.00000000
1.41062959 2.12300661 0.00062558 0.00000000
3.50961814 0.72993514 -0.00091310 0.00000000
1.61167266 1.56621204 0.00326224 0.00000000
0.74541407 1.04992998 -0.00101862 0.00000000
2.99488121 1.70835195 0.00327390 0.00000000
0.49108689 1.64648983 -0.00391291 0.00000000
0.85942756 0.41999697 -0.00325659 0.00000000
2.80359522 0.99693128 0.00095853 0.00000000
3.69052847 1.34357862 0.00000244 0.00000000
3.84999662 2.04871484 0.00107855 0.00000000
4.25841153 0.25972654 0.00127817 0.00000000
3.16358514 1.45979048 0.00201736 0.00000000
0.89521348 1.68128514 0.00131391 0.00000000
1.39785765 1.98118527 0.00043710 0.00000000
0.69329510 0.60185813 0.00083769 0.00000000
0.34642697 1.72686621 -0.00175610 0.00000000
0.40503072 2.00615085 0.00082963 0.00000000
0.07273808 1.52843099 0.00013222 0.00000000
2.15747325 1.32120020 0.00162496 0.00000000
2.69413813 0.36552572 -0.00488817 0.00000000
3.50392617 1.13153656 0.00046506 0.00000000
1.32901376 1.42072787 0.00074205 0.00000000
4.27001244 1.84812249 0.00088410 0.00000000
0.50518234 0.03483635 -0.00562037 0.00000000
1.92323001 1.11079421 0.00332046 0.00000000
3.20337860 0.83088915 -0.00368352 0.00000000
0.85892902 0.67710888 0.00438682 0.00000000
0.96208888 1.35326356 0.00387206 0.00000000
0.11374581 0.39503192 -0.00456634 0.00000000
1.22309456 0.83140666 0.00267491 0.00000000
0.91258982 0.57455762 0.00321948 0.00000000
4.24813146 0.45983988 0.00056791 0.00000000
3.62196423 2.16091146 -0.00220680 0.00000000
3.22602309 2.02104548 0.00062142 0.00000000
3.02218446 1.91302493 0.00066195 0.00000000
1.19949274 0.87755882 0.00033228 0.00000000
3.19891868 1.28913921 0.00387352 0.00000000
2.19601508 0.47259226 0.00121108 0.00000000
3.92003337 2.00744704 0.00293692 0.00000000
1.44132604 2.21446951 0.00144423 0.00000000
0.78705957 1.74243971 -0.00343187 0.00000000
2.27760238 0.60415954 -0.00059552 0.00000000
2.18533937 0.28302333 0.00193438 0.00000000
0.75925760 0.77419510 0.00043923 0.00000000
0.22107674 0.26568268 -0.00032174 0.00000000
1.57751741 0.13888710 0.00476891 0.00000000
0.12990528 1.63109172 0.00462363 0.00000000
0.56128353 1.22451271 -0.00079848 0.00000000
2.04641845 1.69299186 0.00110322 0.00000000
3.60193887 2.27027483 0.00257601 0.00000000
1.60939025 0.48470245 0.00108418 0.00000000
3.73236440 1.00568684 0.00345782 0.00000000
0.07964722 2.28424099 -0.00395330 0.00000000
0.17522612 2.02782787 0.00522569 0.00000000
1.04144129 1.04218817 -0.00100645 0.00000000
2.82550053 0.55395473 -0.00172857 0.00000000
2.76243399 1.03252939 0.00121911 0.00000000
0.43901902 0.05420407 -0.00390911 0.00000000
2.33333982 2.00580643 -0.00068590 0.00000000
3.63757528 2.29093668 0.00156388 0.00000000
2.08946162 0.11922990 -0.00062478 0.00000000
1.60464962 1.84523123 -0.00139163 0.00000000
3.88831967 1.64993369 -0.00225642 0.00000000
1.28528835 0.73007198 -0.00320380 0.00000000
3.33522854 2.12838217 -0.00446931 0.00000000
0.80279462 0.40184365 0.00417774 0.00000000
0.30882505 1.24743010 0.00240817 0.00000000
3.34848285 1.31846034 -0.00273087 0.00000000
3.27746039 1.20573073 -0.00241222 0.00000000
1.48744078 1.31908001 -0.00041549 0.00000000
3.04707716 0.85934423 -0.00239090 0.00000000
2.93986291 0.77263141 0.00230070 0.00000000
0.27070462 0.74231558 0.00312146 0.00000000
3.91687020 0.72053219 0.00266514 0.00000000
1.46602891 1.23184365 0.00162208 0.00000000
0.79286544 0.18184945 0.00097101 0.00000000
0.65804655 2.28766468 -0.00415942 0.00000000
1.44394397 1.66744366 0.00127318 0.00000000
0.68806845 1.22867918 -0.00439396 0.00000000
2.43579085 1.57580103 -0.00531521 0.00000000
0.27262516 0.70043158 -0.00056024 0.00000000
0.15103352 1.07536114 0.00138240 0.00000000
0.38122788 0.37544988 0.00383749 0.00000000
1.96392729 0.57243488 -0.00067134 0.00000000
1.62393345 0.66315295 -0.00203008 0.00000000
0.03387963 0.39756670 0.00014502 0.00000000
0.76388132 2.24489967 0.00526004 0.00000000
2.52012077 0.10462780 -0.00232487 0.00000000
1.93687868 1.29312370 0.00414545 0.00000000
2.88269766 0.39344605 -0.00025855 0.00000000
1.37452489 0.00654596 0.00034269 0.00000000
3.00268205 2.10798375 0.00011002 0.00000000
3.97978939 0.91541401 0.00034625 0.00000000
3.80162476 0.19042009 -0.00133079 0.00000000
0.07235025 0.43670847 -0.00127368 0.00000000
0.69751724 2.37467557 0.00054744 0.00000000
0.18396252 1.56709456 -0.00002249 0.00000000
2.75673526 0.72960306 -0.00106768 0.00000000
2.22054157 2.33133893 -0.00338027 0.00000000
2.67617676 0.14297438 0.00189632 0.00000000
0.25467490 1.21524656 -0.00103570 0.00000000
2.10274648 1.05822448 0.00139810 0.00000000
2.82507978 0.37093798 0.00318276 0.00000000
2.77795563 1.37501266 -0.00127749 0.00000000
3.92340157 0.74993878 -0.00027793 0.00000000
1.49511424 0.35312676 -0.00041713 0.00000000
0.12087432 1.76041167 0.00073248 0.00000000
2.33262156 1.17754318 0.00267919 0.00000000
0.25375113 1.97930681 -0.00057005 0.00000000
2.62769217 0.95226164 -0.00224257 0.00000000
2.28683317 1.66202511 0.00207362 0.00000000
1.70437472 1.56081248 -0.00468378 0.00000000
1.68566088 2.37230349 -0.00167065 0.00000000
2.39242475 0.51991798 -0.00248406 0.00000000
0.43895142 0.79660984 0.00167390 0.00000000
2.93778071 0.83612382 -0.00105774 0.00000000
1.30564481 1.20648566 -0.00067789 0.00000000
2.60507701 0.09387059 0.00131775 0.00000000
0.23791934 1.85350201 0.00428892 0.00000000
0.39350189 0.98318940 -0.00110500 0.00000000
4.07768738 0.91846218 -0.00171240 0.00000000
1.32157701 0.94859376 0.00170799 0.00000000
3.35762009 0.11212476 -0.00051689 0.00000000
4.18714915 2.30193713 -0.00460102 0.00000000
1.15869996 2.01522159 0.00110402 0.00000000
0.86818691 0.59331089 -0.00084685 0.00000000
0.65139918 0.90948776 -0.00502676 0.00000000
2.81210301 1.27792071 0.00087478 0.00000000
1.11787737 1.68941358 0.00093451 0.00000000
1.59078103 1.81551212 -0.00482898 0.00000000
0.91825843 1.57081691 -0.00058431 0.00000000
4.10460522 0.28456647 -0.00383191 0.00000000
0.72055838 1.01733253 -0.00125511 0.00000000
3.64908269 0.76770824 -0.00190037 0.00000000
0.55572979 0.01050930 0.00268277 0.00000000
0.57832512 1.45950177 0.00011045 0.00000000
0.75150308 1.90892195 0.00315565 0.00000000
0.88913580 1.31404049 -0.00125835 0.00000000
0.21864403 0.49751795 -0.00114843 0.00000000
3.18077533 1.29361593 0.00185643 0.00000000
1.72711694 0.07471309 -0.00329001 0.00000000
1.42345767 0.33835414 0.00355912 0.00000000
3.47219251 0.87427307 -0.00064441 0.00000000
0.16983707 1.33614374 -0.00027102 0.00000000
3.34583918 0.73072966 -0.00093208 0.00000000
3.14531605 0.27083480 -0.00368040 0.00000000
3.37861342 1.70514460 -0.00110799 0.00000000
1.61567930 0.90312147 -0.00120142 0.00000000
2.53609443 1.79414793 0.00471506 0.00000000
3.04522100 0.85834952 -0.00084508 0.00000000
0.53240254 0.55611489 -0.00376989 0.00000000
3.71117598 1.19170800 -0.00281106 0.00000000
0.71589019 1.49735793 -0.00337570 0.00000000
1.57237453 0.91368280 -0.00000442 0.00000000
2.05867993 0.35037185 0.00345211 0.00000000
1.47667708 1.10790814 0.00491869 0.00000000
3.08196894 0.04404609 -0.00267731 0.00000000
0.54790725 0.71752617 -0.00128750 0.00000000
1.73055176 1.55018784 -0.00003245 0.00000000
2.92832429 1.17334383 0.00329584 0.00000000
3.87011507 0.28740300 -0.00110484 0.00000000
1.64954126 0.08500305 -0.00094525 0.00000000
1.50785403 1.45022465 0.00324390 0.00000000
3.10887344 1.13807245 0.00270722 0.00000000
2.51634380 2.18177048 0.00129581 0.00000000
0.03910544 0.14662579 -0.00385405 0.00000000
0.08130609 1.83418525 0.00181905 0.00000000
4.03842853 0.25869224 0.00099736 0.00000000
3.41988924 0.01574672 -0.00323102 0.00000000
2.78391119 1.35024141 0.00331745 0.00000000
2.08537609 0.53320170 -0.00016351 0.00000000
1.85127973 1.78270987 -0.00221145 0.00000000
2.51727898 1.18292939 0.00008179 0.00000000
2.24385879 1.93266123 -0.00260983 0.00000000
1.02035022 1.28709994 0.00027082 0.00000000
1.83762417 2.33127378 0.00079623 0.00000000
3.80869845 1.26319587 -0.00086355 0.00000000
3.15666641 0.06360474 0.00163032 0.00000000
2.56210405 1.41852162 -0.00159704 0.00000000
3.88484344 0.01092574 0.00180664 0.00000000
1.15017505 2.37052841 -0.00155098 0.00000000
1.20095783 2.26057768 -0.00226175 0.00000000
1.60093605 1.11575393 -0.00061050 0.00000000
1.96881284 0.69401686 0.00239835 0.00000000
2.36042186 0.14945016 -0.00362851 0.00000000
0.48272865 0.02968992 0.00129744 0.00000000
3.74571875 2.25369816 0.00130397 0.00000000
3.52109147 1.30486423 0.00272199 0.00000000
3.90874049 0.83071406 0.00010963 0.00000000
3.47205111 2.27559183 -0.00103550 0.00000000
0.66806231 1.43284219 -0.00065885 0.00000000
1.60109576 1.14055463 0.00135723 0.00000000
0.10925201 1.88135709 -0.00292125 0.00000000
1.33032958 1.15561123 0.00273681 0.00000000
2.70906483 1.56089193 0.00326851 0.00000000
2.39277975 0.59641463 0.00351346 0.00000000
4.07569742 1.03169986 0.00293981 0.00000000
2.20632962 0.77256882 -0.00253356 0.00000000
2.82425169 0.83432754 -0.00060889 0.00000000
0.54012445 0.53787416 0.00216629 0.00000000
3.80700275 1.60537281 0.00209773 0.00000000
0.30190481 1.27429496 0.00413524 0.00000000
2.72085263 0.38595324 0.00730619 0.00000000
1.25346082 0.85194852 -0.00052422 0.00000000
2.31809510 0.26751258 0.00326231 0.00000000
4.27539559 2.17494785 -0.00066137 0.00000000
0.02153609 1.71475772 -0.00142357 0.00000000
0.99540820 2.12720064 -0.00530281 0.00000000
0.95588011 0.93622702 -0.00123446 0.00000000
3.61159663 2.02593900 0.00009352 0.00000000
3.16713130 0.42351315 -0.00075319 0.00000000
3.78122955 1.75607665 0.00207287 0.00000000
1.78010353 0.97615383 0.00312066 0.00000000
3.82612292 0.58441734 -0.00237278 0.00000000
1.11643061 2.12433448 0.00107529 0.00000000
3.39456759 1.15353506 -0.00592320 0.00000000
1.51348816 1.20996661 0.00022024 0.00000000
2.13270453 1.75785216 0.00005474 0.00000000
2.76389916 1.90631004 0.00105464 0.00000000
1.85529114 1.16307541 -0.00029595 0.00000000
3.93378527 0.96755335 0.00101600 0.00000000
2.80541555 0.19591474 -0.00038934 0.00000000
3.94900092 1.41904151 -0.00123270 0.00000000
1.30496300 0.34971882 0.00316989 0.00000000
0.41010044 1.83983153 0.00280679 0.00000000
1.83887797 0.54715979 -0.00599432 0.00000000
1.64905711 1.75704603 -0.00022227 0.00000000
0.67577309 1.92639209 0.00071417 0.00000000
3.13562764 2.37588166 -0.00128641 0.00000000
3.46627273 0.11485049 0.00134891 0.00000000
3.05363393 0.23761571 -0.00352868 0.00000000
0.22259464 0.94016223 0.00058457 0.00000000
1.57559595 1.98688392 0.00110874 0.00000000
4.23766683 0.28324214 0.00206824 0.00000000
0.66889305 1.79962332 0.00263595 0.00000000
2.74834797 0.91962361 -0.00213882 0.00000000
3.32414759 0.22889602 -0.00433935 0.00000000
1.25671723 1.36772154 0.00119075 0.00000000
0.51461817 0.86187669 -0.00158175 0.00000000
1.06903532 0.57755001 -0.00216098 0.00000000
2.25179595 2.10820463 -0.00053028 0.00000000
3.93208037 0.79562064 0.00313571 0.00000000
1.84082313 0.40461037 0.00041010 0.00000000
2.37872055 0.85482038 -0.00304555 0.00000000
2.05292522 1.19132909 -0.00054837 0.00000000
4.05500036 1.12325983 0.00072552 0.00000000
3.33801428 0.75177928 -0.00516075 0.00000000
3.08677130 0.73802189 0.00286761 0.00000000
1.02784238 2.13867774 -0.00716054 0.00000000
1.78028058 0.00627464 0.00104339 0.00000000
2.86959222 1.61032703 -0.00209031 0.00000000
4.24847959 1.70188884 0.00048207 0.00000000
2.73467245 1.32255875 0.00068564 0.00000000
1.39939043 0.03812732 0.00270103 0.00000000
1.28671140 0.99002109 -0.00315815 0.00000000
2.58786090 0.32053116 0.00045119 0.00000000
0.80910605 1.83043004 0.00227525 0.00000000
1.88429602 0.65571319 -0.00174891 0.00000000
0.78351790 1.16885931 -0.00274379 0.00000000
1.78726876 0.89841879 0.00268542 0.00000000
3.96096739 0.57290278 0.00322023 0.00000000
2.04654972 2.00508278 0.00400974 0.00000000
1.51029219 0.51818629 -0.00325264 0.00000000
1.11015629 0.25400592 0.00004958 0.00000000
3.74311667 2.25516173 -0.00074274 0.00000000
1.83154251 1.60212413 -0.00035564 0.00000000
1.21401033 1.86532046 0.00107837 0.00000000
3.11703686 1.99562204 -0.00139254 0.00000000
3.06180135 0.89010568 -0.00227836 0.00000000
2.27996432 1.21805165 -0.00270284 0.00000000
0.02622308 1.47492658 0.00223031 0.00000000
4.18204809 0.14613485 -0.00245164 0.00000000
3.79184039 1.80996274 0.00265821 0.00000000
1.01714029 0.44202261 0.00069994 0.00000000
0.83391110 1.99573188 -0.00063834 0.00000000
0.49200896 0.69996823 -0.00141846 0.00000000
1.99029543 1.35114212 0.00339314 0.00000000
4.10071756 1.17636796 -0.00311646 0.00000000
0.27228474 1.04111194 -0.00044606 0.00000000
3.22333325 1.13588689 0.00209871 0.00000000
3.34637826 0.01338776 -0.00378063 0.00000000
4.03898812 1.97370218 0.00351255 0.00000000
3.95316689 0.45734909 0.00239229 0.00000000
2.22040400 0.26289347 0.00328958 0.00000000
0.58064514 0.66456974 -0.00112668 0.00000000
4.12463923 0.97912059 0.00005781 0.00000000
2.74893252 1.07189487 -0.00277044 0.00000000
4.06444699 0.94061030 -0.00074753 0.00000000
3.56751776 1.78373365 0.00146090 0.00000000
0.71474500 2.34631643 0.00073622 0.00000000
3.14171000 1.35306995 -0.00093593 0.00000000
1.01176677 1.49613449 0.00095784 0.00000000
2.47594475 0.62217527 0.00214710 0.00000000
0.43648770 1.63491082 0.00385811 0.00000000
1.29765441 0.18217415 -0.00013548 0.00000000
1.58831595 1.54872661 -0.00099812 0.00000000
0.68426412 0.20289393 -0.00071596 0.00000000
2.67279704 0.10425543 0.00248231 0.00000000
2.67589547 0.83276916 -0.00035608 0.00000000
2.99967314 1.36943481 0.00189278 0.00000000
2.31070868 0.70092087 -0.00010900 0.00000000
4.15232773 0.63819345 -0.00124275 0.00000000
3.39665089 1.45464713 0.00042337 0.00000000
2.65374744 0.15389285 0.00283980 0.00000000
4.04927748 1.15469517 -0.00355272 0.00000000
1.81638013 2.28504554 -0.00382144 0.00000000
1.38135100 2.36924747 0.00270911 0.00000000
0.86234517 2.32926413 -0.00369169 0.00000000
1.65999417 0.06448691 -0.00034862 0.00000000
2.04136246 1.95799648 0.00210206 0.00000000
2.37733614 0.10750434 0.00301556 0.00000000
3.60685894 1.59595560 -0.00424432 0.00000000
3.79008794 0.33406096 -0.00086332 0.00000000
1.49407338 0.43009760 0.00080432 0.00000000
1.54154483 2.02939153 -0.00205052 0.00000000
2.51860963 0.44135428 0.00069859 0.00000000
1.61357810 2.00078826 0.00074282 0.00000000
3.31136804 0.74626405 -0.00055420 0.00000000
3.30900142 1.24798047 -0.00046734 0.00000000
4.08307811 1.73551096 -0.00106180 0.00000000
1.20667214 1.58347571 -0.00118271 0.00000000
3.81751271 0.08180469 0.00296254 0.00000000
3.22346984 1.03140917 -0.00233383 0.00000000
3.21748597 1.26189410 0.00451455 0.00000000
3.89835891 2.07451514 -0.00434131 0.00000000
3.66394224 0.71484713 0.00383668 0.00000000
0.71025239 0.48750053 -0.00337643 0.00000000
1.05297265 0.14737047 -0.00009193 0.00000000
4.26040046 1.28579962 0.00081915 0.00000000
2.98716935 1.57920760 -0.00102192 0.00000000
1.45183134 2.25279868 -0.00036315 0.00000000
3.77906769 1.53425235 -0.00133427 0.00000000
1.69129868 0.09529183 0.00024162 0.00000000
0.74975701 2.13984552 0.00274198 0.00000000
2.28361206 1.40109418 -0.00140080 0.00000000
0.92163830 0.02912731 -0.00286153 0.00000000
3.95194935 0.63576360 0.00068271 0.00000000
3.35854237 1.05876979 -0.00220877 0.00000000
3.04879995 0.36716098 -0.00369682 0.00000000
0.41964759 0.83221597 0.00124440 0.00000000
0.87335755 1.62448514 0.00135015 0.00000000
1.38417571 2.06825766 -0.00461463 0.00000000
3.42002215 1.90897114 -0.00109642 0.00000000
2.68726433 0.93128892 0.00051739 0.00000000
0.68103706 1.60334704 0.00052189 0.00000000
3.97894876 0.07951535 0.00275641 0.00000000
2.74140891 2.00846259 0.00007166 0.00000000
2.05719649 1.46127266 -0.00163759 0.00000000
0.36010443 0.07001435 0.00008739 0.00000000
2.87520332 0.99368519 0.00052417 0.00000000
1.34510459 0.95079312 -0.00007368 0.00000000
4.16088233 0.72720630 0.00012084 0.00000000
3.99741957 1.12980360 -0.00423026 0.00000000
1.30325853 1.16471588 0.00193788 0.00000000
2.12531976 1.24663216 -0.00387271 0.00000000
0.40015705 0.40415534 -0.00073579 0.00000000
3.99043832 2.21310125 -0.00019046 0.00000000
3.20733360 2.24756229 -0.00357115 0.00000000
1.73650011 1.94384890 -0.00010742 0.00000000
3.45297281 2.35150936 0.00063005 0.00000000
1.48149698 1.62285970 0.00045506 0.00000000
2.60572007 0.93213317 -0.00183675 0.00000000
1.56071796 2.25856527 0.00036162 0.00000000
2.35843561 1.45659938 0.00028611 0.00000000
1.12804150 1.64010010 0.00392479 0.00000000
3.28443612 0.49661763 -0.00256225 0.00000000
0.85956861 0.11945051 -0.00709781 0.00000000
0.16209207 0.33332001 0.00309151 0.00000000
3.92317531 1.22170438 -0.00230690 0.00000000
0.29761686 0.75042232 -0.00001043 0.00000000
2.33652321 0.54834244 0.00719270 0.00000000
1.92262194 2.36100269 -0.00088532 0.00000000
2.04587631 0.69052087 -0.00208964 0.00000000
1.13987502 0.58760660 -0.00022142 0.00000000
1.24405017 0.65852283 0.00135580 0.00000000
1.02826420 1.15410962 0.00182399 0.00000000
0.35867392 0.67933578 -0.00411750 0.00000000
2.55002801 0.25840575 -0.00195460 0.00000000
0.78046409 1.69213059 0.00030546 0.00000000
1.91585910 1.39851205 0.00119543 0.00000000
2.20208608 0.04827367 0.00150502 0.00000000
2.59230954 1.97022912 -0.00117047 0.00000000
1.11862345 0.45113925 0.00029288 0.00000000
1.19469237 1.12558851 -0.00047432 0.00000000
4.26901143 0.15901665 -0.00420097 0.00000000
2.53566527 0.82831916 0.00053364 0.00000000
2.16853576 0.96102678 0.00110939 0.00000000
3.49350655 1.00517772 -0.00135281 0.00000000
1.41015780 2.32946311 -0.00362699 0.00000000
1.02994085 1.98064015 0.00307793 0.00000000
3.92934638 0.04363955 0.00148553 0.00000000
0.79509211 0.84748287 -0.00048888 0.00000000
1.01825423 0.78993557 -0.00197127 0.00000000
4.01531429 0.56448800 -0.00044075 0.00000000
2.19207979 0.92447645 0.00087810 0.00000000
1.66833250 0.30650400 -0.00331247 0.00000000
1.26480341 1.21108355 -0.00292757 0.00000000
0.76154439 2.36774221 -0.00293118 0.00000000
3.51466467 1.96690630 -0.00294103 0.00000000
4.13900237 0.07977663 -0.00514975 0.00000000
0.80026731 1.95235868 0.00263128 0.00000000
2.15127798 1.51708938 -0.00161820 0.00000000
3.03100341 0.70666987 -0.00199189 0.00000000
2.37869242 1.89594630 -0.00027243 0.00000000
3.30632801 0.08784265 0.00187036 0.00000000
2.36495881 0.59374080 0.00015112 0.00000000
1.84378365 0.97718442 0.00033930 0.00000000
2.10807143 1.71886933 0.00189489 0.00000000
1.31427051 1.13019105 0.00140635 0.00000000
3.60132055 2.20049160 0.00116774 0.00000000
4.28707952 0.13619834 -0.00397269 0.00000000
1.95572764 0.35462173 0.00312306 0.00000000
2.57415582 0.51090594 0.00030594 0.00000000
1.44555832 0.37239969 0.00206662 0.00000000
1.97587433 1.42075178 -0.00235569 0.00000000
2.45176182 1.18124468 0.00153559 0.00000000
0.27684015 1.53876553 0.00151583 0.00000000
3.05519293 0.43260659 -0.00129609 0.00000000
0.06208899 1.58202353 -0.00178083 0.00000000
1.14837901 0.18786269 0.00288451 0.00000000
0.76020250 2.22005643 -0.00223053 0.00000000
0.85219413 1.16403692 0.00121335 0.00000000
2.75919710 0.45754144 0.00186870 0.00000000
0.46039723 1.36905525 0.00143282 0.00000000
3.70455646 0.23610303 0.00057583 0.00000000
1.46387114 0.19244280 0.00120940 0.00000000
3.36016505 2.37431718 -0.00031424 0.00000000
3.33236053 0.18474466 0.00522765 0.00000000
2.91203067 1.02600883 -0.00076914 0.00000000
0.53644378 1.46282822 -0.00304024 0.00000000
3.42043294 1.43711197 0.00488065 0.00000000
0.03775759 0.23232649 -0.00211222 0.00000000
0.06722420 2.20895787 -0.00413079 0.00000000
2.81213985 0.43283476 0.00469949 0.00000000
3.76308462 0.92856561 0.00263201 0.00000000
2.54994471 0.42589033 0.00039540 0.00000000
2.99993749 1.32566185 -0.00054828 0.00000000
2.54029934 0.38528743 0.00364161 0.00000000
3.44607382 1.94032751 -0.00252310 0.00000000
3.95095555 1.85418066 0.00063152 0.00000000
2.19104062 0.34838017 -0.00048987 0.00000000
0.01029065 1.08185905 0.00083904 0.00000000
2.89745321 1.48667403 0.00404539 0.00000000
2.02535485 0.38890860 0.00049562 0.00000000
2.98600329 2.20595685 0.00163436 0.00000000
1.91682634 1.47835003 0.00218012 0.00000000
2.05581765 2.19041168 0.00463454 0.00000000
3.99324439 1.70291440 0.00230410 0.00000000
1.53050861 1.76056227 -0.00017680 0.00000000
3.63283414 0.89286311 -0.00506317 0.00000000
2.22415469 0.56298429 -0.00302126 0.00000000
2.54634701 1.76703234 -0.00053669 0.00000000
0.39603214 0.91946199 -0.00275547 0.00000000
3.59177403 1.74346195 0.00136639 0.00000000
0.55607703 1.51713452 -0.00028462 0.00000000
3.19519101 2.29349993 0.00108385 0.00000000
0.44306024 2.37410029 -0.00134803 0.00000000
1.93491555 1.34173764 0.00361766 0.00000000
0.55025720 2.26013903 0.00138300 0.00000000
1.86709069 0.73318758 0.00007930 0.00000000
0.22554657 1.86972913 0.00119647 0.00000000
1.05484989 1.63435931 -0.00719583 0.00000000
2.81401520 1.21240865 0.00071570 0.00000000
2.14659010 2.37241699 -0.00282263 0.00000000
2.91524087 1.21144617 -0.00044233 0.00000000
3.76897937 0.81374754 -0.00248411 0.00000000
4.02732349 0.29137256 -0.00022934 0.00000000
1.25782382 0.59623530 0.00027898 0.00000000
0.58052925 1.08565028 -0.00016439 0.00000000
2.79220802 2.32140879 -0.00406552 0.00000000
1.61790028 1.10941417 -0.00175277 0.00000000
1.46512459 0.59064247 0.00275378 0.00000000
0.35916191 0.22184497 0.00059635 0.00000000
1.33278795 1.18365877 -0.00042162 0.00000000
0.57679163 0.06535106 -0.00111143 0.00000000
0.93615824 1.50617404 -0.00250578 0.00000000
3.97158445 2.23396041 -0.00349193 0.00000000
3.62556875 1.14395621 -0.00460507 0.00000000
2.87390672 1.45862543 0.00316935 0.00000000
3.83652790 1.72359332 -0.00160606 0.00000000
0.69747563 1.03496996 0.00310873 0.00000000
3.20497701 2.28363888 -0.00273805 0.00000000
0.59902279 0.39616587 0.00208693 0.00000000
2.60894335 1.17148091 0.00050936 0.00000000
0.96506179 2.29304918 -0.00043434 0.00000000
0.09695177 0.27256197 -0.00234234 0.00000000
2.57180388 2.20302441 0.00010021 0.00000000
3.01493458 1.53768459 0.00280603 0.00000000
3.48531786 1.23519201 -0.00083487 0.00000000
0.57922937 2.27551270 0.00054417 0.00000000
3.73134258 0.20817284 0.00177939 0.00000000
0.47633717 2.13637098 -0.00257865 0.00000000
1.34437161 0.69644743 -0.00192331 0.00000000
0.81409640 0.79089994 0.00030362 0.00000000
1.96377692 0.03313623 -0.00400200 0.00000000
0.95557342 1.14231142 -0.00253511 0.00000000
1.69889456 0.96675775 0.00214785 0.00000000
3.51580484 1.52753723 0.00269331 0.00000000
3.56046739 0.70328387 -0.00089423 0.00000000
1.91850826 1.24413819 -0.00126477 0.00000000
0.79820664 1.31844427 -0.00333342 0.00000000
2.55154137 1.44583223 0.00398687 0.00000000
2.28468989 0.85952344 -0.00158906 0.00000000
4.12705950 1.69450999 0.00117473 0.00000000
1.45314048 0.36097465 0.00307856 0.00000000
0.21471379 1.37703757 0.00062376 0.00000000
3.04482717 1.20398078 0.00130663 0.00000000
1.95062618 1.98906677 -0.00456515 0.00000000
3.17447485 1.71512126 0.00369144 0.00000000
1.10685127 2.15432170 0.00073335 0.00000000
2.91306389 1.20067303 -0.00372356 0.00000000
1.28915124 0.54288111 -0.00105079 0.00000000
3.09219794 1.65753494 0.00084218 0.00000000
1.09362227 0.59006830 -0.00038460 0.00000000
0.94464108 1.65827872 -0.00150419 0.00000000
0.24373242 0.64130907 0.00004873 0.00000000
0.97837905 0.07141112 -0.00402440 0.00000000
1.21334542 2.11944063 0.00196215 0.00000000
3.64795495 1.61009300 -0.00007260 0.00000000
2.46238542 1.48365357 0.00038621 0.00000000
0.16653288 1.15505331 -0.00609355 0.00000000
2.22639243 0.07972283 -0.00002766 0.00000000
2.63926953 1.36706228 0.00242802 0.00000000
3.52127952 0.78353155 -0.00132620 0.00000000
3.56987949 1.11311613 0.00123748 0.00000000
0.18935481 0.05277090 0.00186869 0.00000000
2.46786740 0.98599057 0.00037625 0.00000000
2.13967920 0.79830647 0.00327413 0.00000000
1.49922409 1.69746949 0.00001887 0.00000000
0.19579554 0.77509858 0.00106802 0.00000000
2.44103304 0.68779703 -0.00446094 0.00000000
2.27421618 1.48653609 0.00317611 0.00000000
4.18421684 1.09134944 0.00098209 0.00000000
1.96904323 2.11586357 -0.00020112 0.00000000
1.85069650 1.12910457 0.00028809 0.00000000
1.59160253 0.35838151 0.00126601 0.00000000
0.38747831 0.13844256 0.00022662 0.00000000
3.86272552 0.13845281 -0.00194487 0.00000000
4.27012608 0.64559006 0.00219748 0.00000000
1.61971016 2.32785962 0.00010943 0.00000000
0.67786111 0.42317432 -0.00169329 0.00000000
2.52590754 0.70224746 -0.00194126 0.00000000
1.94118525 2.26833981 -0.00082305 0.00000000
1.73039839 1.63793500 -0.00132072 0.00000000
0.93071241 2.29521732 0.00240471 0.00000000
1.55406260 1.60465860 -0.00427853 0.00000000
3.07853596 0.63821905 -0.00188649 0.00000000
0.88288770 1.07320717 -0.00281459 0.00000000
3.55162860 0.15269592 0.00134323 0.00000000
4.04116432 1.44938267 0.00146548 0.00000000
3.42805720 0.78666286 0.00280756 0.00000000
0.21432070 1.04668060 -0.00117362 0.00000000
3.26145903 0.76635775 -0.00079485 0.00000000
3.69212458 1.28203791 -0.00049223 0.00000000
2.48512062 0.64534957 -0.00109980 0.00000000
4.00540817 1.32675152 -0.00083536 0.00000000
0.65134198 2.07940716 0.00493630 0.00000000
2.15394500 1.46753552 -0.00115390 0.00000000
3.96602425 2.16931875 -0.00171479 0.00000000
3.01855752 0.87009574 -0.00261648 0.00000000
3.86722259 1.78281024 -0.00543166 0.00000000
1.36995729 1.58959017 -0.00156806 0.00000000
0.42841898 1.23169090 0.00159111 0.00000000
2.90482594 0.56036421 -0.00133795 0.00000000
0.38346869 0.75561036 -0.00207829 0.00000000
3.18334170 0.80188228 -0.00199641 0.00000000
3.61339122 2.19953447 -0.00321865 0.00000000
0.65659546 1.80305874 0.00477765 0.00000000
0.98599227 1.94294561 0.00285800 0.00000000
0.17569229 1.06513769 -0.00142072 0.00000000
3.94245466 0.27270834 0.00322713 0.00000000
2.02640395 2.32479215 -0.00074793 0.00000000
1.71192416 1.48732791 0.00124344 0.00000000
0.48740981 1.03650759 0.00264359 0.00000000
2.29966789 0.79910636 -0.00213826 0.00000000
4.27432779 1.04899790 -0.00059381 0.00000000
3.84170175 1.99899926 -0.00447701 0.00000000
0.45179110 0.72675396 -0.00251610 0.00000000
2.58696320 2.01940090 0.00283782 0.00000000
2.78546623 1.30642003 -0.00324343 0.00000000
3.96660770 0.09002047 -0.00087552 0.00000000
2.53824931 0.42254072 0.00353512 0.00000000
0.30050835 0.90643966 -0.00283178 0.00000000
1.20748198 0.57957737 0.00195568 0.00000000
0.03442319 0.26416430 -0.00095480 0.00000000
0.40092718 1.22874716 0.00353627 0.00000000
4.09658031 1.47376130 0.00093076 0.00000000
0.08035947 1.84661815 -0.00029604 0.00000000
0.01688650 0.95934141 0.00302880 0.00000000
1.89930030 0.07173454 0.00221306 0.00000000
2.93808351 1.70181762 -0.00146169 0.00000000
0.38521280 1.45660095 -0.00016671 0.00000000
1.40590030 1.73934082 -0.00460547 0.00000000
2.27487738 0.74787608 -0.00063413 0.00000000
0.28389496 0.21162342 -0.00023042 0.00000000
1.85319983 0.09760978 -0.00243659 0.00000000
3.75372615 2.35574689 0.00216021 0.00000000
1.94869050 2.20270893 0.00074067 0.00000000
3.39737677 1.57311867 0.00483137 0.00000000
3.44079546 0.07750625 0.00856464 0.00000000
3.01604538 2.24738999 0.00109075 0.00000000
3.39471985 1.92454068 0.00299721 0.00000000
3.34869476 0.10952715 -0.00062590 0.00000000
3.91692914 2.02074224 0.00318051 0.00000000
3.09132709 0.12927486 -0.00189363 0.00000000
2.98321377 0.93891899 0.00035875 0.00000000
1.41859290 0.33956781 0.00283393 0.00000000
0.74831536 0.37431398 -0.00071963 0.00000000
1.54623704 0.22443616 0.00333179 0.00000000
0.29086686 0.18239827 -0.00201201 0.00000000
0.91028230 0.45925551 -0.00162239 0.00000000
2.33001515 2.17438959 -0.00266480 0.00000000
1.24989979 1.78587296 0.00262549 0.00000000
3.68055022 1.58232064 0.00192601 0.00000000
2.85870963 0.17342515 0.00172833 0.00000000
2.66732586 1.75168826 0.00074495 0.00000000
1.94959365 1.64172437 0.00041524 0.00000000
2.72191569 0.06408476 -0.00026704 0.00000000
3.92349677 0.80841953 0.00177815 0.00000000
4.12766707 1.05940655 -0.00254216 0.00000000
0.73375702 0.05490643 -0.00156984 0.00000000
2.29903768 1.75863252 0.00142052 0.00000000
3.41991257 1.68857119 -0.00474584 0.00000000
0.40688656 0.97259977 0.00246572 0.00000000
1.76649213 2.12302274 0.00182592 0.00000000
1.99708687 1.48691682 0.00457006 0.00000000
0.09579193 0.16375392 0.00031461 0.00000000
