3.699746 1.128640 0.000318 0.0
0.404686 1.332520 0.000543 0.0
0.799365 1.668465 0.001658 0.0
2.337734 0.307072 -0.000485 0.0
3.735361 0.699805 0.000003 0.0
0.278458 0.603851 0.000364 0.0
1.990641 1.668592 0.005844 0.0
2.132161 0.624294 -0.002367 0.0
3.631430 1.560227 0.000521 0.0
1.824570 1.622574 -0.000060 0.0
0.966583 1.771877 0.002208 0.0
1.164200 0.153865 -0.000141 0.0
3.126901 1.284584 -0.002058 0.0
3.853389 0.726680 -0.000727 0.0
3.557502 1.265589 0.000999 0.0
3.936310 0.069282 0.000750 0.0
1.995086 0.941883 -0.000124 0.0
3.795201 1.404512 -0.004943 0.0
2.117241 1.201294 0.003142 0.0
0.848986 1.699824 -0.001636 0.0
3.571928 1.395219 -0.005511 0.0
3.900111 0.947755 -0.002176 0.0
0.875340 0.568717 -0.000499 0.0
2.332817 0.231354 0.000140 0.0
0.364432 0.205901 -0.001673 0.0
1.139141 1.111714 0.004316 0.0
3.695920 0.682053 -0.005115 0.0
0.248037 1.665451 -0.003763 0.0
0.629302 1.048681 0.001225 0.0
1.670276 0.529806 0.000135 0.0
2.112897 0.689441 -0.003500 0.0
1.596723 1.263488 -0.002960 0.0
0.122604 0.851590 0.001246 0.0
1.511079 1.247525 -0.003462 0.0
0.626742 1.399178 0.002471 0.0
0.426176 0.376617 0.001334 0.0
0.701979 0.041170 0.002010 0.0
2.681812 0.975410 -0.000516 0.0
3.426502 1.726728 -0.000326 0.0
1.823343 0.937442 0.003663 0.0
3.515439 1.656726 -0.000855 0.0
1.567026 1.056718 0.004436 0.0
2.148573 1.779141 0.000332 0.0
1.562843 0.387006 0.002355 0.0
1.476080 0.039904 0.000998 0.0
3.631134 1.115985 0.000053 0.0
3.883490 1.136516 -0.001988 0.0
4.203754 0.912014 0.001975 0.0
2.732351 1.403730 -0.003325 0.0
3.880629 1.006506 -0.003057 0.0
0.377609 1.598067 -0.002983 0.0
2.868204 1.496819 -0.000222 0.0
2.041956 0.709964 0.000581 0.0
2.106570 1.706803 0.001539 0.0
0.138374 1.006256 -0.002442 0.0
3.954570 0.860297 0.001737 0.0
2.674004 0.210958 -0.000537 0.0
1.059607 0.900456 -0.001196 0.0
2.041696 1.203084 -0.000502 0.0
0.539553 1.155916 0.000072 0.0
4.103464 0.362397 -0.000216 0.0
0.371116 1.607581 -0.002182 0.0
1.640316 1.616212 0.000022 0.0
2.092799 1.553927 -0.001050 0.0
4.160347 0.484827 0.000249 0.0
4.082363 0.967993 0.005894 0.0
1.813685 1.718081 -0.003541 0.0
2.753354 0.259565 0.000383 0.0
1.522975 0.131341 -0.002533 0.0
3.004649 0.249207 -0.003530 0.0
0.134502 0.003406 0.002217 0.0
0.868058 0.833549 -0.002122 0.0
2.424850 1.166264 -0.001526 0.0
2.419034 0.501094 -0.000627 0.0
1.616852 0.968070 0.002100 0.0
3.234680 1.374615 -0.000943 0.0
1.640630 0.801681 -0.001448 0.0
1.717891 1.267878 -0.000348 0.0
3.623783 0.909577 -0.000235 0.0
0.314553 1.238852 0.003529 0.0
2.031047 1.634528 0.002698 0.0
3.199510 0.367147 -0.003209 0.0
1.258958 0.651722 -0.000445 0.0
3.791423 1.080317 0.003500 0.0
2.804848 1.358079 -0.001545 0.0
1.305173 0.057200 0.000818 0.0
0.731103 0.905292 -0.000752 0.0
0.363018 0.796949 -0.003679 0.0
0.220621 1.082487 0.002412 0.0
0.790843 1.255411 -0.002908 0.0
0.898591 0.337028 0.003679 0.0
0.727055 1.407788 -0.003294 0.0
1.230380 0.365933 -0.001920 0.0
0.793639 0.939373 -0.002330 0.0
2.333976 1.564373 0.003703 0.0
2.538749 0.506022 -0.000469 0.0
0.086602 0.881912 0.004977 0.0
2.629592 0.305250 -0.001797 0.0
3.080753 1.037419 0.002730 0.0
3.846732 0.131668 -0.002048 0.0
1.677821 0.313473 -0.000029 0.0
1.979336 1.490317 -0.004683 0.0
0.383393 0.386590 0.001830 0.0
0.455668 1.163162 0.002793 0.0
2.980817 0.804126 0.000252 0.0
1.042342 1.714404 -0.001270 0.0
3.435903 1.240863 0.002176 0.0
3.666886 1.744942 -0.003118 0.0
2.831268 1.159432 -0.001418 0.0
2.858798 1.027395 -0.002566 0.0
0.811477 1.091880 -0.000166 0.0
1.147307 1.666737 0.001112 0.0
3.327309 1.223506 0.004020 0.0
3.770466 0.258844 -0.000902 0.0
3.741616 0.737635 -0.000527 0.0
1.847054 0.012307 -0.003127 0.0
1.459098 0.122621 -0.005834 0.0
3.984172 0.130267 0.001253 0.0
0.982417 0.597055 -0.006234 0.0
3.353493 1.093267 0.003715 0.0
3.341323 1.616958 -0.000671 0.0
2.774956 0.883154 -0.001185 0.0
0.832329 0.535571 -0.000624 0.0
2.701879 1.759107 0.001997 0.0
3.629769 1.016817 -0.003094 0.0
2.147696 0.184879 -0.001056 0.0
1.857145 1.132340 -0.002042 0.0
3.231451 0.217342 -0.001685 0.0
3.299593 1.411556 -0.001085 0.0
1.680665 1.571393 -0.001239 0.0
2.403377 0.073744 -0.003940 0.0
1.956234 1.500193 -0.002547 0.0
1.590401 0.937182 0.003717 0.0
1.078726 0.693629 0.000966 0.0
0.806572 1.725008 -0.000605 0.0
0.587874 1.521165 -0.002530 0.0
1.515242 0.207436 0.003590 0.0
2.300133 1.742864 -0.002650 0.0
0.887717 1.458016 0.003176 0.0
1.768672 0.469918 -0.003367 0.0
0.521171 0.373547 -0.000077 0.0
4.133129 1.184741 0.004985 0.0
0.215772 1.571238 -0.002056 0.0
0.307076 0.286368 -0.000485 0.0
0.662436 1.195286 -0.003013 0.0
3.365288 1.314275 0.004822 0.0
2.192543 1.352098 0.000168 0.0
4.070986 1.336343 -0.002017 0.0
0.303360 0.816324 -0.003335 0.0
1.043651 0.197588 -0.004789 0.0
3.331788 0.392120 -0.007365 0.0
2.135537 0.879161 -0.000409 0.0
2.377793 0.090454 0.000775 0.0
1.375410 0.483428 0.002341 0.0
2.942054 0.312201 -0.000617 0.0
1.880483 0.219391 -0.002788 0.0
3.446757 1.397255 -0.000761 0.0
2.207700 0.719543 0.001247 0.0
1.564578 0.335167 -0.001143 0.0
1.080677 0.457001 0.000116 0.0
3.051185 0.933337 0.003917 0.0
3.732139 0.960511 -0.002707 0.0
2.002426 0.545805 -0.000945 0.0
2.591714 1.357092 0.003548 0.0
1.551892 0.562049 -0.001926 0.0
1.232356 0.574458 -0.001073 0.0
0.545366 1.534679 0.000921 0.0
1.940324 0.697360 -0.001756 0.0
0.862339 1.082580 -0.000309 0.0
3.726070 1.445695 -0.001299 0.0
1.145514 1.455951 0.001231 0.0
0.663868 1.312787 -0.005065 0.0
4.201977 1.709576 0.002751 0.0
0.141277 1.534362 0.003328 0.0
2.627388 0.491043 0.001968 0.0
1.184331 0.034180 -0.001013 0.0
2.193907 0.678446 -0.001614 0.0
0.180890 0.699624 -0.002769 0.0
0.380802 1.036221 0.002208 0.0
3.878571 0.130022 0.002632 0.0
3.337852 0.560845 -0.001539 0.0
2.801776 0.073446 0.001480 0.0
0.984722 0.430642 0.001168 0.0
1.756905 0.989953 -0.000361 0.0
1.191369 1.665815 -0.001976 0.0
0.727453 1.017882 0.000973 0.0
4.228892 1.358503 0.001718 0.0
2.345416 1.446943 0.001933 0.0
1.864686 0.819273 0.001674 0.0
4.047879 0.607018 0.002134 0.0
3.339224 1.277667 0.002085 0.0
0.891843 0.200992 -0.001179 0.0
4.089198 0.774481 0.001109 0.0
0.550130 0.877968 -0.000523 0.0
0.112335 0.730003 0.000404 0.0
4.108146 1.310026 0.002495 0.0
0.200787 0.678530 -0.002727 0.0
3.978811 0.850211 -0.002286 0.0
2.152444 0.596746 -0.000913 0.0
3.477011 0.651885 0.000413 0.0
0.193373 0.649608 0.001577 0.0
2.451120 1.188969 -0.000930 0.0
0.762277 0.631225 -0.002893 0.0
1.292574 1.428138 0.004598 0.0
0.701719 0.260026 0.002590 0.0
0.468295 0.963712 0.002469 0.0
1.961051 1.332021 0.001981 0.0
1.256222 0.041927 0.001374 0.0
0.920595 1.494455 0.002426 0.0
2.816555 0.266930 0.000734 0.0
1.033767 1.450498 -0.001641 0.0
0.683683 0.920692 -0.006083 0.0
2.995525 1.355656 0.000682 0.0
1.432856 0.932791 0.003888 0.0
0.838875 1.316861 0.002011 0.0
3.964165 0.644072 0.003937 0.0
2.504231 1.707133 0.000076 0.0
0.306834 0.676070 -0.003081 0.0
0.763168 0.028929 -0.001731 0.0
0.904791 1.679353 -0.000662 0.0
1.307239 0.554401 -0.002147 0.0
2.653363 0.916602 0.001118 0.0
2.609260 0.288022 0.002747 0.0
0.361146 0.954870 0.006705 0.0
2.059729 0.765274 -0.000176 0.0
3.956176 0.504904 -0.000934 0.0
0.941409 1.100063 0.001954 0.0
2.978934 0.665225 0.000962 0.0
3.652027 0.102187 0.000854 0.0
2.052290 0.175563 0.001474 0.0
2.071416 1.721200 -0.001993 0.0
2.563470 0.059962 0.005903 0.0
2.680517 1.397529 0.000691 0.0
0.086753 0.223428 -0.003729 0.0
2.920429 1.708581 -0.000523 0.0
1.765335 1.581512 0.001767 0.0
1.877479 1.766932 0.001360 0.0
2.905971 0.672542 0.005972 0.0
3.123659 0.492109 0.001383 0.0
2.378086 0.958012 -0.000901 0.0
0.166925 0.240266 0.002204 0.0
0.866888 0.928932 0.000013 0.0
0.877823 0.179153 -0.001646 0.0
2.158653 0.448341 0.001078 0.0
0.777231 0.573947 0.004491 0.0
3.095954 0.660343 -0.002342 0.0
3.991256 1.532613 0.000218 0.0
4.196010 1.743837 -0.002160 0.0
3.752458 1.007572 0.000216 0.0
0.043624 0.207073 -0.003052 0.0
0.137491 0.710888 -0.001763 0.0
0.441482 1.010293 -0.001723 0.0
1.341536 0.145850 0.004076 0.0
3.997680 1.168958 0.000352 0.0
0.317127 0.394914 -0.000903 0.0
2.908241 0.885103 -0.000523 0.0
1.889550 0.205002 -0.000245 0.0
3.849575 0.405941 0.001376 0.0
0.957290 1.441563 0.000416 0.0
0.440416 0.459450 -0.003961 0.0
3.718172 0.367430 -0.002143 0.0
2.047633 0.403968 -0.005699 0.0
1.902618 0.927228 0.002536 0.0
0.721638 0.220413 0.002980 0.0
3.220969 1.005275 -0.001972 0.0
0.705422 0.575091 0.000195 0.0
2.416272 1.678915 -0.000513 0.0
1.367552 0.957852 -0.000037 0.0
0.343893 1.435343 0.003619 0.0
1.971956 0.905134 0.001063 0.0
2.324689 1.576880 0.000849 0.0
1.130061 1.114105 0.000104 0.0
1.808066 1.620172 0.000173 0.0
2.342935 1.343369 0.000220 0.0
0.788641 0.251304 -0.002727 0.0
2.581619 1.039605 -0.002568 0.0
0.254074 0.401270 -0.000460 0.0
1.576359 0.080728 -0.002086 0.0
2.704252 1.158699 -0.000134 0.0
3.388996 0.285180 -0.003546 0.0
1.693382 1.276503 -0.002730 0.0
2.219536 1.216638 -0.003835 0.0
0.689294 0.401201 0.002590 0.0
3.055779 0.374221 0.002257 0.0
3.939193 0.705842 -0.000680 0.0
0.242811 0.485203 0.000337 0.0
0.541782 0.593551 0.002840 0.0
2.335102 0.911111 0.001977 0.0
3.816422 1.153656 0.000947 0.0
3.523533 0.930519 -0.001764 0.0
2.963348 0.717402 -0.004654 0.0
4.075734 0.807722 0.002371 0.0
3.510368 0.504038 -0.000082 0.0
2.941168 1.432591 0.000639 0.0
2.200990 0.734892 0.002649 0.0
3.598824 1.122464 0.000578 0.0
4.098898 1.163123 -0.001189 0.0
3.963260 1.552640 -0.002217 0.0
1.749599 1.340830 -0.001380 0.0
3.567563 1.100871 0.001659 0.0
0.331057 1.792885 0.002574 0.0
0.913855 0.039953 -0.002870 0.0
4.048114 1.464785 0.000692 0.0
3.601270 0.207281 -0.001263 0.0
3.724800 1.600691 0.001520 0.0
0.254314 0.371350 -0.003580 0.0
0.997767 1.697305 -0.000113 0.0
1.640824 0.274307 -0.001883 0.0
0.744482 0.895036 -0.001222 0.0
3.062975 1.124130 -0.002724 0.0
0.559472 0.799253 0.002116 0.0
2.564514 1.304070 0.000752 0.0
3.831212 1.465914 -0.000576 0.0
1.910679 1.348408 -0.003030 0.0
2.438679 0.632335 0.001272 0.0
4.047992 1.457414 -0.002096 0.0
1.914265 0.549889 -0.004672 0.0
3.042717 1.285514 0.001261 0.0
3.410758 0.198041 -0.001146 0.0
1.491055 1.335986 0.001486 0.0
3.551152 0.497205 -0.003715 0.0
3.475526 1.665088 -0.001153 0.0
3.108767 1.398100 0.000468 0.0
0.747602 1.497573 0.004604 0.0
1.854876 0.776611 0.001463 0.0
0.895398 0.424963 -0.004273 0.0
1.450001 0.582197 0.002245 0.0
4.201084 0.334390 -0.001287 0.0
3.099512 1.476467 -0.002560 0.0
1.782775 0.661999 0.000313 0.0
0.886145 1.563440 -0.006068 0.0
2.830382 0.911185 0.003003 0.0
3.922728 0.885420 0.000939 0.0
1.502254 1.693140 -0.003248 0.0
2.022856 0.274217 0.004204 0.0
1.685631 0.960853 -0.001203 0.0
3.807043 0.430586 0.001239 0.0
2.379571 1.313207 0.000771 0.0
2.887357 1.791917 -0.005576 0.0
4.089379 0.306412 -0.001138 0.0
0.486016 1.704105 -0.004150 0.0
2.794546 0.499518 0.001453 0.0
2.733030 0.317406 0.000017 0.0
4.142691 1.601360 -0.003331 0.0
1.447878 1.532062 0.002100 0.0
1.449219 1.335454 -0.000159 0.0
1.441010 0.256968 0.002377 0.0
0.545521 1.149156 0.002461 0.0
2.268484 1.160810 -0.000337 0.0
0.725021 0.723802 -0.003171 0.0
0.980646 0.030428 0.003655 0.0
3.902764 0.940051 -0.000847 0.0
3.604197 0.668724 -0.002404 0.0
1.383990 1.176974 -0.003027 0.0
2.176622 1.337819 -0.004686 0.0
0.274608 0.941612 0.002428 0.0
3.824559 0.446394 0.004442 0.0
1.354789 0.070715 0.003203 0.0
3.858551 0.736070 -0.001433 0.0
0.051960 0.378746 0.000420 0.0
2.701318 0.586932 0.002796 0.0
0.976550 1.011845 -0.000475 0.0
3.310543 0.980142 0.000666 0.0
1.070380 0.542081 -0.000231 0.0
1.815583 1.191703 0.000856 0.0
0.345971 0.881079 0.000232 0.0
3.698151 0.491671 -0.003184 0.0
1.342700 0.521145 0.002453 0.0
0.309746 1.123841 0.000434 0.0
1.752419 1.377473 0.003770 0.0
3.292814 0.358663 -0.000227 0.0
2.338205 1.545432 0.000482 0.0
2.752699 0.708300 0.000650 0.0
3.926877 0.215101 0.003915 0.0
1.050974 0.090639 -0.002159 0.0
0.526709 0.534825 -0.000266 0.0
0.589325 0.684124 0.000634 0.0
0.273134 1.777410 -0.002382 0.0
1.456531 0.051689 0.004534 0.0
1.730500 0.567546 0.004334 0.0
3.568250 0.553733 -0.003770 0.0
0.993752 0.830400 -0.003074 0.0
4.114264 0.214835 0.000244 0.0
3.522598 1.647587 -0.002358 0.0
1.890362 1.316980 0.000833 0.0
0.471769 0.712886 0.000091 0.0
1.960478 0.949069 0.001825 0.0
4.214141 1.635604 0.000232 0.0
3.481585 0.582028 -0.001233 0.0
1.252125 0.281569 0.000475 0.0
2.874409 1.064847 0.002141 0.0
1.618354 1.016492 -0.003545 0.0
2.736887 0.251362 0.003742 0.0
3.205665 0.936806 -0.001470 0.0
0.006850 0.097548 0.001925 0.0
1.141985 0.636325 0.000844 0.0
4.091783 1.389163 0.002495 0.0
1.457665 1.299991 0.003765 0.0
1.125772 1.208051 -0.002916 0.0
0.895822 1.327869 0.003823 0.0
0.304507 1.309591 -0.002697 0.0
4.166333 1.363664 0.002459 0.0
3.086820 1.580395 -0.001224 0.0
3.339315 0.883300 0.000495 0.0
0.235904 1.108701 0.001894 0.0
3.392563 1.654535 0.000111 0.0
1.031863 0.598697 -0.001493 0.0
2.701891 1.181889 -0.000679 0.0
1.350727 1.799715 0.003389 0.0
0.146340 1.660093 -0.000055 0.0
1.551062 1.474709 0.000770 0.0
0.317631 0.948073 -0.001896 0.0
3.593963 0.843812 -0.000283 0.0
1.482677 0.401060 -0.002606 0.0
0.239811 0.330495 0.000964 0.0
1.752334 1.540942 -0.000333 0.0
2.556217 0.037354 0.002761 0.0
1.396513 1.668064 -0.001088 0.0
3.254076 1.359031 -0.003919 0.0
3.513637 0.598903 0.002102 0.0
3.272214 1.141117 -0.002884 0.0
2.035183 0.814932 0.003629 0.0
0.178672 0.201399 -0.001996 0.0
1.508677 0.895534 0.002127 0.0
0.481492 0.387129 0.005299 0.0
0.222756 1.030515 0.000522 0.0
4.032711 0.785418 -0.001555 0.0
3.673948 0.184829 0.000083 0.0
1.790426 0.289238 0.001307 0.0
3.155042 0.222610 0.000449 0.0
3.817942 1.379396 -0.001485 0.0
3.303233 0.331581 0.000638 0.0
2.679652 0.522754 -0.001061 0.0
0.642231 0.409890 -0.000192 0.0
1.262931 0.647073 -0.002708 0.0
0.160955 1.124686 0.001025 0.0
3.819672 0.958857 0.002230 0.0
0.868735 0.932465 0.000572 0.0
0.490823 0.942511 -0.001015 0.0
1.652403 0.860314 0.003792 0.0
2.532110 1.396706 -0.000734 0.0
2.984901 1.698834 0.004939 0.0
1.814382 0.609266 -0.001172 0.0
2.068206 0.576949 -0.006179 0.0
1.053627 1.278883 -0.004127 0.0
0.943029 1.044567 -0.002123 0.0
4.151070 0.448821 0.000082 0.0
1.826078 0.783284 -0.005116 0.0
3.909900 1.346368 -0.000432 0.0
2.792359 0.724509 -0.002432 0.0
3.889575 0.053677 -0.001274 0.0
2.619571 1.773660 0.002464 0.0
1.217619 0.423136 0.000537 0.0
0.608035 0.589670 -0.000240 0.0
3.899479 0.671211 -0.001098 0.0
2.006926 1.495251 0.004815 0.0
3.837795 0.809651 0.004124 0.0
2.689271 1.572810 0.001627 0.0
3.462396 0.808166 0.001415 0.0
0.854545 0.691244 -0.000176 0.0
1.178449 0.993529 -0.001907 0.0
3.727340 0.461505 0.002781 0.0
0.108732 1.754981 -0.001928 0.0
1.742727 0.202423 -0.000917 0.0
0.538558 1.659974 -0.001196 0.0
2.928105 0.957734 0.000063 0.0
3.267407 0.590526 0.001109 0.0
3.867054 0.223937 -0.001370 0.0
1.715446 1.094315 0.000897 0.0
3.859182 0.094407 -0.005478 0.0
3.688794 1.379989 -0.004836 0.0
3.582022 1.028457 0.002023 0.0
1.219325 1.135627 -0.002738 0.0
3.862758 1.214362 0.002470 0.0
1.742729 0.846506 -0.005949 0.0
0.673163 0.976522 0.000466 0.0
0.879643 0.003163 -0.000624 0.0
0.394739 0.958629 0.000862 0.0
4.003694 0.877826 -0.000369 0.0
1.495055 0.565773 -0.000324 0.0
0.546848 0.964289 -0.004142 0.0
2.909577 0.055197 0.000747 0.0
2.190207 0.890251 0.000537 0.0
0.524556 0.176017 -0.001051 0.0
1.521052 0.968094 0.001636 0.0
0.552949 1.354414 -0.002617 0.0
2.154205 0.017994 -0.002389 0.0
0.764237 0.977345 0.002136 0.0
4.057723 1.372096 -0.003151 0.0
3.460871 0.296972 0.000505 0.0
3.938827 0.666929 0.002783 0.0
3.714076 0.445685 -0.003879 0.0
4.109880 0.892306 -0.001535 0.0
1.240500 0.613367 -0.000016 0.0
1.612944 0.318205 0.000692 0.0
2.766333 1.215639 -0.000153 0.0
2.418368 1.717168 -0.001985 0.0
3.947848 0.915680 0.004060 0.0
1.361237 0.991098 -0.000373 0.0
3.708701 1.182907 0.001752 0.0
2.246290 1.609969 -0.002308 0.0
3.637794 0.720150 -0.000809 0.0
0.258893 0.162845 -0.001910 0.0
1.749878 1.352002 0.001314 0.0
1.837497 1.276265 -0.002575 0.0
1.198602 0.317013 -0.000829 0.0
3.966139 1.240136 0.001496 0.0
1.876058 1.738003 0.001311 0.0
1.607847 1.623856 0.001328 0.0
1.325034 1.412005 0.000474 0.0
3.402415 0.056601 -0.000920 0.0
3.744746 1.216305 -0.001331 0.0
3.777445 1.787357 -0.001556 0.0
3.257637 0.120529 0.000684 0.0
0.047399 0.126880 -0.000673 0.0
3.277462 0.554128 -0.003361 0.0
1.647131 0.902499 0.003160 0.0
1.161380 1.605761 -0.000408 0.0
3.602511 0.089076 -0.002131 0.0
3.535058 1.510423 -0.002362 0.0
3.876760 0.493465 -0.000021 0.0
2.767903 0.014915 0.000977 0.0
2.808836 1.730520 0.004665 0.0
1.141633 1.353329 0.000462 0.0
2.133087 1.788139 0.001798 0.0
3.685280 1.259856 -0.000450 0.0
2.980504 0.567132 0.004408 0.0
2.379069 1.736755 0.000264 0.0
3.567896 1.188929 -0.003355 0.0
3.635332 0.876167 0.000296 0.0
1.317732 1.042377 -0.001306 0.0
2.365633 1.377853 0.000400 0.0
4.170109 0.903305 -0.002098 0.0
3.472865 0.420658 -0.002991 0.0
3.023205 1.140033 0.001273 0.0
2.856298 1.065192 -0.003563 0.0
0.380452 0.830052 -0.006341 0.0
1.161902 1.070108 0.004964 0.0
0.308372 0.873223 0.001254 0.0
0.110387 1.328794 0.003361 0.0
1.846861 0.463599 -0.000005 0.0
1.145646 1.212246 -0.006781 0.0
2.519340 0.834564 0.000135 0.0
2.471982 1.048622 0.002984 0.0
1.351523 0.295621 0.000082 0.0
0.219520 0.556807 0.004053 0.0
3.785574 1.006196 -0.000571 0.0
0.844078 1.733660 -0.000215 0.0
0.004041 0.365918 -0.001386 0.0
0.536807 1.201154 0.000742 0.0
2.402786 0.057413 0.003258 0.0
1.059534 0.583608 -0.002262 0.0
3.468015 0.141197 -0.000404 0.0
2.795647 1.363267 -0.001022 0.0
0.715231 1.391984 0.000385 0.0
1.691089 0.264765 0.000779 0.0
3.451499 0.968017 0.001936 0.0
3.977451 0.066090 0.000370 0.0
0.386575 0.295783 -0.002892 0.0
3.055273 1.130574 -0.002431 0.0
1.412135 0.183124 -0.001158 0.0
3.791357 1.138775 -0.001637 0.0
0.018006 0.843921 -0.003097 0.0
3.438069 0.809525 0.002857 0.0
1.758090 1.051622 0.000091 0.0
0.015743 1.151231 -0.001916 0.0
2.350813 1.327387 -0.001421 0.0
1.063280 0.128079 -0.002806 0.0
1.304405 0.665314 -0.002258 0.0
3.432292 1.140885 0.000532 0.0
3.843253 0.583881 -0.002913 0.0
1.037602 0.164446 0.004049 0.0
2.395530 0.694132 -0.000890 0.0
2.642948 0.616952 0.000544 0.0
3.790888 1.688956 0.001670 0.0
3.319048 0.386863 -0.002836 0.0
1.032238 1.721837 0.000452 0.0
0.447659 0.066316 -0.002451 0.0
0.246073 1.649709 -0.000795 0.0
3.693652 0.988819 0.000345 0.0
2.357682 0.307334 0.003748 0.0
1.850917 0.414073 0.001314 0.0
0.159050 0.740887 -0.000075 0.0
0.641979 1.005712 0.000172 0.0
2.947524 1.535387 -0.000192 0.0
1.873375 0.263200 0.001201 0.0
1.500882 0.747291 0.001518 0.0
0.235350 0.891822 0.004740 0.0
1.265498 0.909086 0.002968 0.0
2.754280 0.448035 -0.000538 0.0
3.904719 0.919009 0.001695 0.0
2.666219 0.739419 0.000707 0.0
1.793037 1.074389 0.004294 0.0
1.062160 0.605348 -0.003659 0.0
0.894245 0.487500 0.001523 0.0
0.649726 0.372223 0.001372 0.0
1.311631 0.264681 -0.001185 0.0
0.821442 1.265895 -0.002710 0.0
0.589836 1.615628 0.001225 0.0
0.696117 0.939786 -0.007535 0.0
4.120977 1.050784 0.003490 0.0
2.880676 1.118513 -0.000715 0.0
1.954575 1.319096 0.000987 0.0
2.967617 0.640291 -0.000616 0.0
3.120152 0.716863 -0.003517 0.0
0.922143 1.095487 0.000906 0.0
4.104177 1.309465 -0.001980 0.0
3.556665 0.900511 -0.002099 0.0
3.650674 0.400237 0.002922 0.0
1.923018 1.223758 -0.000495 0.0
2.713742 0.351333 -0.006940 0.0
2.903430 1.567560 0.004429 0.0
1.580809 0.696779 -0.000768 0.0
4.164064 1.035618 -0.001539 0.0
3.276109 0.997106 -0.001184 0.0
0.538723 0.605649 -0.002622 0.0
2.779137 1.147228 -0.002610 0.0
1.168106 0.420804 0.000327 0.0
1.284592 1.534352 -0.000922 0.0
2.783085 1.614873 0.003154 0.0
3.412663 1.748787 -0.001614 0.0
4.225055 1.008648 -0.003954 0.0
4.160505 1.474294 0.000782 0.0
0.711725 0.979278 -0.001029 0.0
2.051343 0.596351 0.000090 0.0
3.018279 0.707058 -0.001042 0.0
2.129677 1.559025 -0.001706 0.0
1.331515 0.790962 -0.002442 0.0
0.175227 0.789883 -0.000890 0.0
3.027421 0.959728 -0.003009 0.0
4.183287 1.228256 -0.001778 0.0
1.155750 0.238086 -0.004558 0.0
0.932692 0.610589 0.000943 0.0
1.278536 0.062657 -0.000871 0.0
2.256247 1.605265 0.000437 0.0
2.464230 0.495572 0.000427 0.0
0.505402 1.179416 -0.003659 0.0
1.021049 1.040420 0.002230 0.0
1.381805 0.412702 -0.006696 0.0
0.854190 1.599229 0.004343 0.0
3.478919 0.861714 -0.000670 0.0
0.201281 1.742995 0.001175 0.0
1.351093 0.585914 -0.001802 0.0
0.933275 0.395899 -0.003820 0.0
0.497747 1.157487 -0.001804 0.0
0.120121 0.527427 -0.000676 0.0
2.717268 0.375780 0.000451 0.0
0.578104 1.505040 0.001237 0.0
2.874531 0.963374 -0.003650 0.0
3.364369 0.152238 0.002103 0.0
0.588264 1.610366 0.001888 0.0
3.233055 0.447505 0.001109 0.0
1.645073 1.066142 0.005455 0.0
0.322880 0.467335 -0.000463 0.0
3.988118 1.483887 -0.001937 0.0
3.240931 1.747478 -0.003119 0.0
1.259205 0.117352 -0.004272 0.0
3.695097 1.767931 0.001272 0.0
0.201703 1.744333 0.003017 0.0
2.573443 0.098865 -0.000929 0.0
3.751669 0.123092 -0.002177 0.0
0.543837 1.305099 -0.000268 0.0
0.210107 1.685085 -0.002721 0.0
0.229901 0.840207 -0.003663 0.0
1.765326 0.320072 -0.003727 0.0
2.577867 1.666787 0.000110 0.0
0.069319 0.975288 0.000535 0.0
0.854519 1.294686 0.002124 0.0
1.414878 0.472321 -0.000453 0.0
0.480446 1.484121 -0.001105 0.0
3.671059 0.823135 -0.001227 0.0
2.856064 1.761392 0.000196 0.0
0.094231 0.490079 0.001222 0.0
1.526467 0.622649 0.003762 0.0
1.354138 0.488619 -0.001746 0.0
2.389890 1.579888 0.003802 0.0
2.125302 0.233193 0.003948 0.0
2.194532 0.601521 0.005063 0.0
1.108297 0.107735 0.003853 0.0
0.379574 0.699454 -0.002508 0.0
2.451936 1.564140 -0.001087 0.0
1.827163 0.868042 -0.000973 0.0
2.232317 0.724121 -0.000090 0.0
3.147538 0.371769 -0.001277 0.0
1.640925 1.771720 -0.000675 0.0
0.685590 0.351416 -0.002550 0.0
1.514184 0.011538 0.002362 0.0
0.241859 0.095069 0.001392 0.0
1.847817 1.180759 -0.000956 0.0
2.241139 0.104974 -0.003737 0.0
3.393207 0.568559 0.000341 0.0
1.809785 0.340208 0.000041 0.0
2.088789 0.998071 0.000069 0.0
2.662027 0.970994 -0.001459 0.0
2.926899 1.283812 -0.002364 0.0
3.548100 1.627379 -0.001617 0.0
2.985225 1.158750 0.000554 0.0
1.977693 0.964338 -0.000990 0.0
2.657081 0.766997 0.001778 0.0
0.790451 0.164805 0.000285 0.0
2.646762 0.430183 0.003551 0.0
1.124444 1.532790 -0.001284 0.0
2.656401 0.257222 0.001522 0.0
2.005733 0.888846 -0.004535 0.0
1.546809 0.657340 -0.002201 0.0
3.984987 0.620779 0.001667 0.0
0.279726 1.430606 -0.000552 0.0
1.882754 1.000095 0.002575 0.0
0.482285 0.052980 -0.000382 0.0
3.870052 1.481442 0.000895 0.0
0.326197 0.854527 0.001029 0.0
3.417446 0.580094 -0.004405 0.0
4.124122 0.438130 -0.000427 0.0
1.242461 1.456470 0.001648 0.0
2.560856 1.232736 -0.004486 0.0
4.035984 1.048154 -0.000721 0.0
0.274067 1.703170 0.002537 0.0
1.677970 1.650550 -0.001568 0.0
3.997444 0.756416 0.001585 0.0
0.731363 0.474631 -0.000919 0.0
0.481486 1.778881 0.000845 0.0
1.649283 1.394527 -0.002528 0.0
1.438250 1.138060 -0.000330 0.0
2.922329 1.760932 -0.001269 0.0
0.086214 0.943123 0.002673 0.0
4.175429 0.350894 0.001360 0.0
2.414321 1.492528 -0.000605 0.0
2.814747 0.373694 0.001325 0.0
2.794239 0.473138 -0.000289 0.0
2.026709 1.484460 0.001788 0.0
0.310649 1.494610 0.000344 0.0
1.844212 1.535956 0.002115 0.0
0.524199 0.819259 0.002685 0.0
3.752924 0.869846 -0.001817 0.0
2.798971 0.700724 -0.000086 0.0
2.575322 0.229156 0.001887 0.0
0.936817 0.635214 0.003284 0.0
3.480172 0.117822 0.000263 0.0
3.106681 0.582751 0.001062 0.0
2.990617 0.854799 0.001320 0.0
3.255299 1.789320 0.003803 0.0
3.529575 0.985735 -0.001921 0.0
3.105204 1.423873 0.000181 0.0
2.968691 1.752715 0.004838 0.0
3.529488 1.471945 0.003851 0.0
2.670858 0.603019 -0.000815 0.0
0.394507 1.642619 0.001184 0.0
1.014819 1.246949 0.001749 0.0
1.549228 0.956352 0.000388 0.0
3.479963 0.093066 -0.001302 0.0
2.014354 0.020113 -0.004031 0.0
0.024937 1.002014 -0.000142 0.0
0.636626 0.194327 0.002141 0.0
3.903614 0.108211 -0.001741 0.0
2.747071 0.722411 -0.004380 0.0
0.612666 0.188859 0.001601 0.0
2.176298 0.112870 -0.003547 0.0
3.333989 1.189019 0.003956 0.0
1.564426 0.327614 0.004595 0.0
0.779319 1.785293 -0.004416 0.0
1.578362 0.035255 0.004050 0.0
0.969892 0.947864 -0.002219 0.0
3.388754 1.387178 -0.003721 0.0
0.373333 1.122587 -0.000126 0.0
3.826020 0.684554 -0.003883 0.0
2.164071 0.485336 -0.003071 0.0
2.334718 1.516926 0.000222 0.0
3.755072 0.546420 0.003227 0.0
2.954493 0.150337 -0.002094 0.0
2.165247 0.968624 -0.002619 0.0
1.213035 0.907533 0.001216 0.0
3.251238 0.871574 -0.001076 0.0
1.031781 1.794393 -0.000430 0.0
3.433386 0.446525 -0.001418 0.0
2.739255 0.708413 0.001237 0.0
1.305505 0.368323 -0.005335 0.0
1.704588 0.454664 0.001087 0.0
0.556638 0.435687 0.001523 0.0
1.257547 0.149193 0.001121 0.0
1.689579 1.648227 -0.001318 0.0
0.908187 0.653368 0.003620 0.0
2.987589 1.183309 -0.000734 0.0
2.138244 0.627919 0.002128 0.0
0.696763 1.149005 0.000979 0.0
2.192975 0.880217 0.000517 0.0
1.414543 0.120635 0.002634 0.0
2.501544 1.539588 0.000046 0.0
1.907812 1.080931 -0.000803 0.0
4.110519 0.395977 0.002470 0.0
2.022079 1.214413 -0.001754 0.0
0.657828 0.129282 0.001232 0.0
1.344387 0.991253 -0.000415 0.0
0.913200 0.613913 0.000195 0.0
3.172762 0.517486 0.003073 0.0
2.672537 0.695434 0.005090 0.0
0.920509 1.530941 0.001490 0.0
0.643399 1.664554 0.000589 0.0
4.102371 1.159429 -0.003697 0.0
2.914695 1.114897 0.003041 0.0
1.198875 1.221433 0.001746 0.0
0.603638 1.421085 -0.002986 0.0
0.261071 0.198523 0.001167 0.0
1.362871 0.254588 0.004555 0.0
3.221532 1.261138 -0.000534 0.0
1.472045 1.791642 0.004023 0.0
0.266973 1.208251 0.000059 0.0
0.030058 1.027169 0.001582 0.0
2.438936 1.471833 -0.002112 0.0
3.556485 1.033403 0.001176 0.0
0.312675 1.212753 -0.001758 0.0
1.201692 1.242808 -0.000086 0.0
2.425170 0.486732 -0.001225 0.0
0.829584 0.215823 0.001768 0.0
0.245042 1.688688 0.000370 0.0
0.680800 1.361987 0.002179 0.0
1.229922 0.599109 0.002988 0.0
2.147593 1.362120 -0.000017 0.0
1.619469 0.693937 -0.000311 0.0
0.714182 1.717762 0.003645 0.0
1.608222 0.705255 0.004631 0.0
1.118058 1.642084 0.002388 0.0
1.867017 1.146764 0.001958 0.0
1.166914 1.654959 -0.000363 0.0
0.143486 1.042100 0.000697 0.0
3.066340 1.742907 -0.001790 0.0
3.943398 0.248100 0.001375 0.0
1.819416 1.138297 0.003953 0.0
1.766743 0.059523 0.001159 0.0
0.636803 0.379163 -0.000755 0.0
1.751677 1.730450 -0.000732 0.0
4.035660 1.797799 -0.001379 0.0
0.617023 0.385349 0.003318 0.0
1.022288 1.471998 0.001975 0.0
2.200844 1.533799 -0.001616 0.0
1.276658 1.321599 0.003295 0.0
1.788512 0.000101 -0.002278 0.0
1.897434 0.273480 0.003386 0.0
0.051850 1.717043 0.001658 0.0
0.656395 0.994120 0.001804 0.0
2.248359 0.247037 0.000823 0.0
0.464824 0.830481 -0.002698 0.0
0.004058 0.747709 -0.005245 0.0
1.778695 0.777022 -0.002321 0.0
0.388273 0.648161 -0.001997 0.0
3.419919 0.881253 0.002322 0.0
0.869481 0.658883 0.002336 0.0
2.883411 1.626541 -0.002161 0.0
2.467753 0.015987 -0.002133 0.0
0.995925 0.847918 -0.000573 0.0
3.099451 1.100421 0.001355 0.0
0.482804 1.386022 0.001296 0.0
3.737427 0.425320 0.004694 0.0
3.776322 0.849723 0.001760 0.0
3.499472 0.181140 0.000243 0.0
3.605244 1.548753 0.003621 0.0
2.804245 1.748095 -0.000382 0.0
1.610721 1.240153 0.000161 0.0
2.840494 0.849163 0.005135 0.0
1.367387 1.735299 -0.001781 0.0
0.438413 1.543330 0.000610 0.0
2.789843 1.733165 0.002480 0.0
3.813559 1.459273 -0.006906 0.0
4.201782 1.165480 -0.003479 0.0
0.493517 1.402030 0.002619 0.0
0.362257 1.744437 -0.001906 0.0
3.981721 1.373904 0.003893 0.0
0.997601 1.242924 -0.001873 0.0
2.675539 0.933352 -0.000862 0.0
2.131330 0.067429 0.000225 0.0
2.068229 1.694221 -0.000108 0.0
2.548271 0.961269 0.005436 0.0
1.587561 0.027579 -0.006453 0.0
3.269449 0.829502 -0.000500 0.0
3.053007 1.196797 0.000368 0.0
1.989453 1.108517 -0.000135 0.0
3.075559 0.102197 -0.000686 0.0
1.450914 0.863719 -0.000223 0.0
3.009126 1.074594 0.001455 0.0
3.954847 1.730742 -0.002591 0.0
0.654079 1.579544 0.002648 0.0
2.175764 0.035950 -0.003884 0.0
1.103158 0.626743 0.000792 0.0
0.570725 1.277546 -0.001367 0.0
3.379291 1.208553 0.006401 0.0
3.217735 0.843602 0.000800 0.0
0.009178 0.558653 -0.004594 0.0
3.660346 1.634258 0.000971 0.0
2.288632 0.753257 -0.002423 0.0
4.130118 1.728939 -0.001500 0.0
1.095815 1.778818 -0.001147 0.0
3.714206 0.746710 -0.001923 0.0
1.495790 1.651157 0.000200 0.0
1.816143 1.798999 0.001579 0.0
1.551227 1.457516 -0.000734 0.0
0.185098 1.472751 -0.002264 0.0
2.196419 0.988154 0.001130 0.0
3.807050 0.180448 0.000897 0.0
3.673672 1.785318 0.001549 0.0
2.411353 0.286183 0.001158 0.0
0.965804 1.064003 0.001547 0.0
0.644900 0.748149 -0.001805 0.0
3.541975 0.581707 -0.000718 0.0
1.774545 1.740614 -0.001548 0.0
2.355763 0.609874 -0.003320 0.0
3.458777 1.172096 0.002781 0.0
2.580179 1.654230 0.000390 0.0
1.121060 1.725682 -0.000970 0.0
4.033368 0.887219 0.000308 0.0
0.434154 0.943695 0.001155 0.0
3.114961 1.190387 -0.001410 0.0
0.520315 1.748649 0.002578 0.0
1.261995 1.581909 0.001457 0.0
2.907274 1.457372 0.003143 0.0
0.340976 0.770930 -0.000211 0.0
1.455332 0.386107 -0.002967 0.0
2.808232 1.442884 -0.000781 0.0
0.518086 0.632880 -0.002900 0.0
2.918421 0.472572 0.002282 0.0
1.256037 1.783828 0.001287 0.0
3.170153 1.347580 0.002661 0.0
0.043016 0.024925 0.000704 0.0
0.863694 1.570911 -0.004534 0.0
2.384051 1.445214 0.004053 0.0
1.947008 1.451113 -0.002264 0.0
1.247718 1.717664 0.001177 0.0
2.422529 1.703043 -0.001462 0.0
2.675316 0.975232 -0.000056 0.0
3.173383 0.732459 -0.000487 0.0
0.400174 0.239516 0.000662 0.0
1.282098 0.898237 -0.002511 0.0
0.564087 0.774767 0.001042 0.0
3.945678 1.360210 -0.001567 0.0
3.628677 -0.003959 0.000948 0.0
0.083876 0.209030 -0.001396 0.0
1.651200 0.436951 0.002322 0.0
1.220399 1.210289 0.001707 0.0
1.401895 1.197110 0.001657 0.0
0.564900 0.834656 -0.000144 0.0
3.195567 0.720497 -0.003523 0.0
0.478673 0.550746 -0.003208 0.0
0.992045 0.961195 -0.001201 0.0
0.019328 0.154385 0.003139 0.0
2.509344 0.678776 0.000063 0.0
2.107764 0.200132 -0.002679 0.0
3.313059 0.029075 0.001333 0.0
4.027922 0.318328 0.005836 0.0
0.012339 0.528523 -0.004250 0.0
2.843677 1.216817 -0.003146 0.0
2.184432 0.368885 0.002487 0.0
1.576977 0.017381 -0.003879 0.0
1.096034 1.197022 -0.002056 0.0
0.282342 1.106138 -0.002666 0.0
1.659896 0.925210 0.000501 0.0
2.976369 0.808018 -0.003857 0.0
2.717888 1.614779 -0.002167 0.0
3.437842 0.579313 0.002799 0.0
1.103940 0.329951 0.001452 0.0
0.047699 0.552208 0.001073 0.0
2.713920 0.322653 -0.000237 0.0
3.875117 0.866057 -0.002524 0.0
2.663732 0.548265 0.000682 0.0
1.924138 1.062547 0.000026 0.0
3.284979 0.667947 0.001058 0.0
1.198211 1.028255 -0.001547 0.0
2.610397 0.471884 -0.003342 0.0
1.568398 0.137119 -0.001073 0.0
2.320291 1.408869 -0.003766 0.0
2.693910 0.351893 0.000624 0.0
2.418365 0.482694 0.001888 0.0
0.730997 0.974833 -0.001723 0.0
2.050845 0.011607 -0.001308 0.0
3.394395 1.524262 0.005306 0.0
3.812567 1.568980 -0.000933 0.0
1.218924 0.008794 0.000036 0.0
2.083527 0.487267 -0.002304 0.0
3.160382 1.454515 -0.002897 0.0
3.881171 1.609903 -0.001757 0.0
2.974085 1.240662 -0.003843 0.0
1.986708 0.152787 -0.000261 0.0
3.289108 0.353484 0.000508 0.0
2.293426 0.969934 0.003030 0.0
1.886589 0.637916 -0.002729 0.0
4.113594 0.654921 -0.000486 0.0
0.360274 0.416201 0.003617 0.0
2.610434 1.113896 -0.002285 0.0
2.400332 0.623764 0.002370 0.0
1.256201 0.841351 -0.000102 0.0
0.942278 1.243261 -0.002801 0.0
3.910526 0.276592 -0.002612 0.0
0.116019 1.432002 -0.002507 0.0
0.547323 1.238567 -0.005925 0.0
1.119176 1.294976 -0.000398 0.0
3.512017 1.755386 -0.001964 0.0
2.443152 0.168118 -0.000510 0.0
1.101044 1.605065 -0.002111 0.0
3.939691 0.517704 -0.002788 0.0
3.932540 0.553364 0.001531 0.0
3.328769 0.088467 0.000103 0.0
3.301740 0.806857 0.003636 0.0
1.411074 1.269262 -0.000208 0.0
1.609394 0.748954 0.001246 0.0
2.343048 0.001567 0.000912 0.0
2.441967 1.628046 -0.003613 0.0
0.639014 1.176958 0.000390 0.0
1.509492 0.059021 -0.000431 0.0
2.306004 1.041317 0.000672 0.0
2.321455 0.030238 -0.001046 0.0
2.653705 1.532787 -0.005035 0.0
2.326103 1.729606 0.001803 0.0
1.548988 0.525527 0.004221 0.0
3.918870 1.628684 0.001381 0.0
1.371463 0.556792 -0.001410 0.0
1.216221 1.107227 -0.003950 0.0
0.324595 1.469966 -0.001113 0.0
4.165927 1.695952 0.002779 0.0
2.644527 0.158323 -0.001803 0.0
0.108952 0.350811 -0.003956 0.0
2.782762 1.675240 -0.003181 0.0
4.001625 0.614017 0.000267 0.0
1.459072 1.665858 0.001029 0.0
0.070819 1.378869 0.003132 0.0
0.671666 0.290712 -0.002007 0.0
1.184245 0.607536 -0.001612 0.0
3.515607 1.780673 0.001880 0.0
1.703476 1.119734 0.004815 0.0
3.744446 0.396668 0.001497 0.0
1.223135 0.341904 -0.002089 0.0
3.591674 0.977412 -0.000945 0.0
1.862458 1.684493 0.002521 0.0
3.728199 1.147089 -0.003194 0.0
0.773136 0.618215 0.000038 0.0
0.232287 1.255503 0.000469 0.0
3.908120 0.428639 -0.000344 0.0
3.193903 0.776007 0.000014 0.0
0.620137 1.430712 -0.000300 0.0
2.969151 1.758238 -0.000770 0.0
2.372651 1.218030 -0.002894 0.0
2.923690 1.255674 0.000092 0.0
2.696062 0.315007 -0.000682 0.0
0.159200 0.919324 0.000605 0.0
1.957669 0.653976 -0.001561 0.0
3.666267 1.383517 0.000703 0.0
0.564802 0.047296 0.000879 0.0
2.873481 1.023132 0.001959 0.0
2.917039 0.487614 -0.000623 0.0
1.102025 0.517815 0.000750 0.0
1.154833 0.168828 0.001415 0.0
0.566098 0.238124 0.005487 0.0
0.775646 1.696664 -0.000834 0.0
2.422530 1.579705 -0.001688 0.0
1.619703 0.819274 -0.003645 0.0
3.333061 1.407102 0.000218 0.0
1.749489 0.004172 0.002058 0.0
2.688814 0.590502 -0.003523 0.0
2.133014 0.772059 -0.001621 0.0
2.204903 0.330249 0.005071 0.0
2.626935 0.145078 0.000167 0.0
0.271450 1.193116 -0.003479 0.0
1.318751 1.454355 0.000601 0.0
3.285718 1.344061 -0.000048 0.0
0.391780 1.574925 0.000352 0.0
0.758889 0.311291 0.001482 0.0
3.900843 0.023759 -0.000594 0.0
0.327591 0.537427 -0.001205 0.0
0.994161 0.931278 0.002032 0.0
3.709473 1.203189 -0.002945 0.0
3.008380 0.496323 0.000994 0.0
3.975126 0.999610 0.003968 0.0
0.456788 1.239738 -0.005541 0.0
4.041957 1.706529 0.001877 0.0
1.445368 0.810386 0.001045 0.0
3.112721 0.462401 -0.003308 0.0
1.860560 0.818483 0.001818 0.0
2.884327 0.845252 -0.001282 0.0
3.681334 0.821053 -0.001273 0.0
4.065165 0.240754 0.001992 0.0
1.908826 0.787591 0.003824 0.0
3.212485 0.451321 0.000805 0.0
3.759281 0.673509 -0.002625 0.0
0.729402 1.702026 0.001815 0.0
3.406753 0.381906 0.000156 0.0
0.703054 0.182894 -0.002016 0.0
0.167121 0.521124 0.003297 0.0
3.829574 0.710222 0.003175 0.0
2.851675 1.001183 -0.001814 0.0
1.554514 0.555493 -0.001864 0.0
2.248689 0.834133 0.002516 0.0
1.184015 1.721134 0.007567 0.0
3.905104 1.278713 0.002448 0.0
3.341767 1.234189 -0.000825 0.0
1.482781 1.625075 0.000998 0.0
3.440339 0.531981 -0.000217 0.0
2.015958 0.713570 -0.000437 0.0
1.917507 1.624399 0.006758 0.0
1.315522 0.034144 0.000005 0.0
1.976111 0.581559 0.001578 0.0
2.039222 1.140766 -0.003645 0.0
3.262366 0.450423 0.000093 0.0
2.344442 1.462147 -0.002396 0.0
1.990661 1.710680 0.003044 0.0
1.087900 1.450628 0.003263 0.0
3.326981 0.711076 -0.002784 0.0
0.705893 0.016810 -0.000866 0.0
3.130489 0.714446 -0.004125 0.0
3.727687 0.919907 0.004770 0.0
0.490990 0.919965 0.001009 0.0
3.607625 0.822645 0.000337 0.0
1.132765 1.617501 0.000758 0.0
0.446709 0.195635 0.002122 0.0
2.291301 1.160285 0.001023 0.0
2.411828 0.090358 0.000418 0.0
0.165754 1.371716 0.002877 0.0
3.962093 1.418730 0.002536 0.0
3.572373 1.309585 0.001693 0.0
3.294625 1.111115 -0.000929 0.0
2.551240 0.134981 0.000193 0.0
2.458270 0.936555 0.003314 0.0
3.530294 1.706759 0.002504 0.0
0.854214 0.284918 -0.000935 0.0
4.154000 1.163564 0.000964 0.0
1.999301 0.069036 0.000108 0.0
3.687740 0.117172 0.003349 0.0
3.301315 1.756485 -0.004384 0.0
2.256830 0.745831 0.001259 0.0
2.173427 0.258113 -0.004063 0.0
0.626942 0.159948 -0.002848 0.0
3.793559 0.768234 0.004436 0.0
0.622505 1.532251 -0.001211 0.0
0.137719 0.514501 0.002405 0.0
3.896626 0.955006 0.001533 0.0
1.429189 0.203405 -0.001827 0.0
3.609541 0.150036 -0.000633 0.0
1.396333 1.299481 0.000239 0.0
1.107690 1.106828 -0.002140 0.0
2.194658 0.217957 -0.000307 0.0
3.170679 0.511146 0.002207 0.0
1.375502 1.631108 0.000802 0.0
3.758556 1.231049 0.004637 0.0
4.186906 0.618787 0.002908 0.0
1.439018 0.208712 0.000454 0.0
0.951825 1.464669 -0.003723 0.0
3.487184 1.009084 -0.006024 0.0
1.133843 1.212031 0.006013 0.0
2.948339 0.481028 -0.004222 0.0
0.576594 0.981946 -0.002315 0.0
2.449760 0.047130 -0.001767 0.0
1.075338 1.756065 0.000714 0.0
2.519068 0.012012 0.000594 0.0
1.308467 1.710632 0.002536 0.0
0.424378 1.679441 0.002269 0.0
0.708298 0.288524 0.003428 0.0
3.726533 0.692832 -0.000833 0.0
3.172888 1.587269 0.002891 0.0
3.525818 1.124801 -0.001526 0.0
2.642770 1.465722 -0.001414 0.0
0.152251 0.981518 -0.000378 0.0
2.168207 1.144946 0.002333 0.0
3.841166 1.758747 -0.000397 0.0
0.336174 0.632185 -0.002027 0.0
1.233215 1.453763 0.003426 0.0
1.795177 0.669154 -0.000972 0.0
1.667859 1.585923 -0.000237 0.0
2.841861 0.072797 -0.002394 0.0
3.835546 0.466419 -0.002358 0.0
1.429263 1.260868 0.001163 0.0
2.965055 1.441363 -0.001051 0.0
3.028669 0.634268 -0.000069 0.0
0.308178 0.505469 0.002356 0.0
2.413980 1.179620 0.001393 0.0
0.373830 0.288700 -0.000269 0.0
3.219455 1.203168 0.000361 0.0
3.935248 0.749616 0.004096 0.0
3.069887 1.317034 -0.002877 0.0
2.928795 1.676559 -0.000258 0.0
1.999225 0.797470 0.000470 0.0
2.925206 1.503407 0.000552 0.0
3.524907 1.389563 0.004289 0.0
2.221115 0.407721 0.000170 0.0
3.764257 1.322226 -0.002203 0.0
2.188612 0.234107 -0.001143 0.0
2.911288 1.206834 -0.001616 0.0
1.250270 0.740018 -0.004143 0.0
0.735173 0.126129 0.000172 0.0
3.514007 0.983261 0.003549 0.0
3.906172 1.488476 -0.001419 0.0
3.947017 0.667241 -0.003107 0.0
1.044056 1.238619 0.002958 0.0
2.158030 0.799926 -0.003166 0.0
0.161195 0.378287 0.000714 0.0
1.469405 0.684339 0.000497 0.0
0.996763 1.348420 -0.001897 0.0
2.817318 1.406564 -0.000033 0.0
1.687796 0.264790 -0.000047 0.0
1.916692 1.589899 0.000679 0.0
0.163662 1.018984 0.003320 0.0
3.796183 0.838170 0.004689 0.0
3.078740 0.242035 -0.003759 0.0
3.002646 0.453905 -0.002333 0.0
0.403180 0.783335 0.005098 0.0
2.469984 1.094329 0.000402 0.0
2.268414 0.918521 -0.000204 0.0
0.687534 0.374923 -0.004054 0.0
2.399267 1.661120 -0.003924 0.0
3.776857 1.548909 0.002011 0.0
0.946638 1.198978 -0.002982 0.0
0.927093 1.020054 -0.002080 0.0
2.853994 1.571123 -0.000613 0.0
2.390986 1.559239 0.005635 0.0
1.926423 1.221482 0.003238 0.0
0.439418 0.600585 -0.000498 0.0
3.435564 0.620945 -0.001202 0.0
3.395116 0.499136 0.003363 0.0
3.144539 1.433823 0.002075 0.0
0.393250 1.149251 -0.000729 0.0
0.782325 0.250245 -0.001494 0.0
1.522854 0.025047 0.000578 0.0
2.361462 0.929829 -0.005910 0.0
1.801264 0.540466 -0.001687 0.0
0.313520 0.509586 0.000155 0.0
2.564250 0.218463 -0.000270 0.0
0.904388 1.716633 0.004166 0.0
2.918310 0.228525 -0.000145 0.0
2.901614 1.711159 -0.001730 0.0
3.289482 1.730585 -0.002253 0.0
1.267546 0.489790 0.000627 0.0
0.482909 0.993339 -0.001586 0.0
4.187237 1.529940 0.003686 0.0
0.778716 1.029186 -0.000484 0.0
2.372125 0.906332 0.001910 0.0
0.724070 0.699573 -0.002137 0.0
0.239429 0.686591 -0.000194 0.0
2.713185 1.649024 0.000083 0.0
3.036945 0.153282 0.002345 0.0
1.109314 0.050961 -0.000721 0.0
3.531803 1.013386 0.001016 0.0
0.678872 0.853769 0.000384 0.0
0.269617 1.109832 -0.001576 0.0
3.921914 0.111674 -0.004251 0.0
1.874355 0.214944 -0.001548 0.0
0.036887 0.388772 0.001095 0.0
2.232522 0.890240 0.002829 0.0
2.818290 0.482068 0.002958 0.0
2.345798 0.938784 -0.003499 0.0
3.517274 0.193388 0.001561 0.0
1.237071 1.788273 0.006806 0.0
0.152014 0.300177 0.001714 0.0
3.071529 0.857518 0.002041 0.0
1.047358 1.307260 -0.000457 0.0
2.757243 0.396717 0.003669 0.0
0.498221 0.200965 0.002060 0.0
0.216744 0.855731 0.001717 0.0
1.812857 0.279154 -0.004555 0.0
2.902646 1.074019 0.000556 0.0
2.214994 0.757433 0.001507 0.0
4.040332 0.756709 0.000310 0.0
1.141730 1.494212 0.006641 0.0
1.398387 1.637941 0.004081 0.0
2.980002 1.406548 0.002134 0.0
2.221842 1.734261 0.003471 0.0
1.211162 1.275922 0.000566 0.0
1.580672 0.956373 0.001330 0.0
1.806102 0.206021 0.002254 0.0
3.959390 0.125902 0.000928 0.0
3.279923 1.448728 0.002319 0.0
2.906879 0.366962 0.002716 0.0
3.644050 0.630011 0.003838 0.0
1.248090 1.196133 0.006066 0.0
0.795871 1.627391 0.004111 0.0
2.505025 0.897441 -0.004789 0.0
1.249183 0.307084 0.000000 0.0
3.758069 0.048322 -0.001830 0.0
2.064801 0.220646 -0.002646 0.0
3.716261 0.926027 0.002557 0.0
3.534397 1.766362 -0.000730 0.0
3.608018 0.509211 0.002507 0.0
0.794283 1.098695 -0.001169 0.0
4.117049 1.263342 -0.003182 0.0
2.401356 0.639758 -0.001663 0.0
0.649194 0.156496 -0.004508 0.0
3.957268 0.827005 -0.001233 0.0
1.490903 0.438336 -0.000874 0.0
1.800900 0.954218 -0.001359 0.0
2.562605 1.349890 -0.002419 0.0
2.578576 0.214302 -0.001766 0.0
1.499798 1.512398 0.003919 0.0
1.244130 0.827454 -0.002282 0.0
3.662944 1.364549 0.000618 0.0
0.724648 0.108859 -0.003422 0.0
3.585816 1.480876 0.001558 0.0
0.417813 1.261402 -0.001839 0.0
2.424047 0.374935 0.000401 0.0
1.703600 0.228139 -0.001208 0.0
0.714266 1.062826 -0.001299 0.0
3.649424 0.886576 0.002489 0.0
0.319613 0.982511 -0.002373 0.0
0.944946 0.316921 0.001069 0.0
1.045383 0.826774 -0.000093 0.0
0.710391 1.535262 -0.003147 0.0
1.891020 1.663639 -0.000148 0.0
1.070071 0.271440 -0.004415 0.0
1.423323 0.308141 0.004995 0.0
0.678371 1.408253 0.002101 0.0
1.494529 0.353588 0.001217 0.0
0.332834 0.397365 0.001199 0.0
2.634607 0.971598 -0.004479 0.0
0.470245 0.323209 0.004576 0.0
3.985017 1.261511 0.002065 0.0
1.419624 0.216828 -0.001046 0.0
0.848993 0.842888 -0.000616 0.0
0.561059 0.420601 -0.003115 0.0
1.871632 0.028560 0.000660 0.0
0.854395 1.725235 -0.000744 0.0
3.189403 1.608094 0.001259 0.0
3.984813 1.368906 -0.000021 0.0
2.392962 1.428340 0.004860 0.0
3.926044 0.256973 -0.003183 0.0
2.830077 1.234027 0.000420 0.0
4.013807 0.667177 -0.001817 0.0
0.279179 0.208627 0.000084 0.0
2.521166 0.651020 0.000823 0.0
3.868699 0.317650 -0.003544 0.0
1.534912 0.119380 -0.000356 0.0
0.321699 1.092742 -0.001322 0.0
1.687704 1.355757 0.001810 0.0
3.939009 0.741423 0.002751 0.0
2.155488 0.874560 0.002118 0.0
1.791555 0.125496 -0.002283 0.0
1.525528 1.065098 0.006723 0.0
2.481821 0.535798 -0.004853 0.0
2.701371 0.956028 -0.000375 0.0
1.139268 0.196082 -0.000130 0.0
0.108009 1.537979 0.003676 0.0
3.595882 1.514222 0.000016 0.0
2.799632 1.609000 -0.002575 0.0
4.186381 1.734754 -0.001257 0.0
2.571231 1.320637 -0.001508 0.0
0.487139 1.137016 0.000088 0.0
3.903520 1.376965 0.002896 0.0
0.015907 0.912262 0.002757 0.0
0.073333 0.266841 -0.000259 0.0
2.215279 0.824816 -0.001004 0.0
1.043486 0.440256 -0.002748 0.0
0.935846 0.305350 -0.000518 0.0
3.781245 0.167681 0.000099 0.0
0.795227 1.085580 -0.002725 0.0
3.141131 0.793703 0.000810 0.0
2.721513 1.450305 -0.000404 0.0
2.867191 0.053729 0.002035 0.0
0.638710 0.590180 0.001885 0.0
3.809528 0.937911 -0.002802 0.0
0.233417 1.606984 -0.006571 0.0
2.508418 0.568128 -0.000846 0.0
0.966978 0.512774 -0.002677 0.0
2.756254 0.371755 0.003803 0.0
2.306242 0.232124 -0.002170 0.0
3.329546 0.494434 0.001221 0.0
3.074686 1.074116 0.002151 0.0
1.480215 0.674467 -0.000632 0.0
1.716935 0.435579 -0.003438 0.0
3.438221 0.855176 0.003682 0.0
2.976868 1.329173 -0.000489 0.0
2.725623 1.193238 0.002756 0.0
0.184578 0.247410 -0.002069 0.0
0.283309 0.956435 0.002592 0.0
0.624935 0.045948 0.000224 0.0
2.907451 1.241345 0.002602 0.0
0.724706 1.454073 0.002276 0.0
1.607570 0.864248 0.001090 0.0
0.589522 1.146535 -0.003430 0.0
2.815222 1.313069 -0.000268 0.0
2.480461 0.807821 0.001382 0.0
3.194756 1.190507 0.003164 0.0
4.172251 1.313258 0.003852 0.0
2.371125 0.394240 -0.001805 0.0
3.902936 1.353493 -0.002111 0.0
3.400629 0.814383 -0.004101 0.0
2.084339 0.914649 0.000990 0.0
3.331137 0.258429 0.000663 0.0
1.189321 0.349382 0.000150 0.0
3.764673 0.640322 -0.002000 0.0
2.421025 1.216914 0.000478 0.0
1.737739 0.260074 -0.000502 0.0
1.492466 1.408204 -0.000662 0.0
3.218698 1.374747 -0.000254 0.0
2.592450 1.633249 -0.001546 0.0
3.599199 1.408624 0.000806 0.0
0.451392 0.577332 -0.003027 0.0
1.332630 1.031598 -0.000268 0.0
2.082900 0.207051 0.001581 0.0
3.153919 0.129140 0.001102 0.0
1.881718 1.696501 0.000968 0.0
2.104274 1.216863 0.001256 0.0
2.225616 1.447801 -0.001734 0.0
3.079880 1.093787 -0.003681 0.0
2.895870 0.268563 -0.000249 0.0
4.068339 0.009585 -0.002032 0.0
1.569665 1.621468 -0.002686 0.0
2.153774 0.219289 -0.000520 0.0
2.265278 1.788953 0.001749 0.0
3.541438 1.203300 0.001440 0.0
0.021853 1.244005 0.002010 0.0
1.203733 0.352995 0.000205 0.0
2.838767 0.051837 -0.000427 0.0
3.655574 1.573606 0.000587 0.0
1.839651 0.182060 -0.002448 0.0
0.957177 0.058279 0.002612 0.0
0.694051 0.531171 -0.002018 0.0
0.047971 0.511573 0.004005 0.0
0.982955 0.556734 0.000643 0.0
1.941989 0.762253 0.004314 0.0
3.615812 0.043813 0.003849 0.0
2.413105 0.311034 0.000191 0.0
0.770473 0.722732 -0.002946 0.0
1.524227 1.556626 0.002979 0.0
1.048547 1.645370 0.002344 0.0
0.933143 1.045198 -0.000019 0.0
2.471454 1.557949 -0.001635 0.0
1.235605 0.980840 -0.004004 0.0
4.118270 0.064693 0.001439 0.0
1.873512 0.909923 0.000723 0.0
3.783163 0.568502 0.001821 0.0
3.564822 0.415174 -0.000835 0.0
0.277213 1.388268 0.002561 0.0
2.645179 0.154024 -0.002479 0.0
0.642408 0.142452 -0.003208 0.0
2.732819 0.184791 -0.000652 0.0
1.598784 1.338327 0.000087 0.0
0.015872 0.666765 0.000205 0.0
0.662638 1.246796 -0.003501 0.0
2.490959 1.025306 -0.003325 0.0
3.090768 0.743692 0.000636 0.0
2.762649 0.061551 0.001520 0.0
2.868330 1.295676 -0.003117 0.0
3.226738 1.242588 0.000934 0.0
3.215838 1.532063 0.002732 0.0
3.177413 0.006829 -0.001445 0.0
3.512918 0.874575 -0.001915 0.0
1.988756 0.722550 -0.002615 0.0
0.050245 1.429457 0.005406 0.0
3.632993 0.167444 -0.000090 0.0
3.086529 1.547257 -0.000972 0.0
1.579111 1.735475 0.000598 0.0
2.702776 0.126686 -0.001978 0.0
2.067240 1.345957 -0.000184 0.0
1.600906 0.347029 -0.001345 0.0
0.621944 0.382184 0.000713 0.0
1.608314 1.347431 0.000593 0.0
3.126379 1.035361 0.001149 0.0
0.404536 0.624338 0.003878 0.0
2.134745 0.181881 -0.003064 0.0
3.163770 0.501366 0.003770 0.0
3.906524 0.834663 0.003315 0.0
0.559805 0.571761 -0.000678 0.0
3.457851 0.506116 0.002430 0.0
0.601139 0.077141 0.000422 0.0
0.881478 0.968235 0.006009 0.0
0.107660 1.498030 -0.002633 0.0
3.403648 1.301958 0.000489 0.0
2.421466 0.074444 -0.001308 0.0
3.144609 0.518916 -0.005408 0.0
2.938472 1.447774 0.001225 0.0
0.418710 1.732998 0.000571 0.0
0.818550 1.171415 -0.002730 0.0
0.159724 0.234634 -0.001138 0.0
3.128554 0.374394 0.002085 0.0
3.395771 1.227839 -0.000813 0.0
0.407340 0.895208 0.000966 0.0
2.771254 0.545811 0.000383 0.0
0.253211 0.445661 -0.000293 0.0
1.190106 1.498855 -0.001435 0.0
3.920253 1.526251 -0.001723 0.0
0.435225 1.619491 -0.000428 0.0
1.089389 0.620330 -0.001671 0.0
0.084413 0.324560 0.004738 0.0
1.016754 0.741683 0.002064 0.0
0.776556 0.911138 0.001769 0.0
1.394559 0.878511 -0.001726 0.0
2.809067 1.509692 -0.000230 0.0
3.691197 1.566982 0.003203 0.0
1.368844 1.241682 -0.003076 0.0
2.270852 0.248918 0.001604 0.0
1.039669 0.670641 -0.000431 0.0
2.814368 0.286582 0.000498 0.0
0.797900 1.295616 0.000149 0.0
1.046139 1.670162 0.001472 0.0
0.937529 0.861795 -0.005139 0.0
4.034557 0.129996 -0.001593 0.0
2.856517 0.213790 -0.002445 0.0
4.007518 1.748895 0.005522 0.0
3.767876 0.361497 0.001675 0.0
3.102377 1.007287 0.001629 0.0
2.243777 1.285889 -0.000997 0.0
1.468210 0.418980 -0.003176 0.0
4.164156 1.418446 0.002633 0.0
1.309422 1.297873 -0.001141 0.0
0.961338 0.500316 -0.000044 0.0
1.320144 0.909687 -0.002386 0.0
2.996232 1.042550 0.000808 0.0
0.186916 1.396082 -0.000038 0.0
1.574533 0.898233 -0.001008 0.0
3.448487 1.109027 -0.001095 0.0
3.169294 0.221525 -0.001723 0.0
3.537633 0.721256 -0.004285 0.0
0.271050 1.754881 0.003634 0.0
3.719699 0.070002 0.002300 0.0
3.693512 1.646053 -0.000262 0.0
3.537009 1.241396 -0.001913 0.0
3.802750 1.317831 -0.000298 0.0
4.150917 0.601706 -0.002764 0.0
3.839449 1.481279 -0.002629 0.0
1.544255 1.699822 0.000100 0.0
1.782684 0.344356 0.000449 0.0
1.959991 0.804060 -0.001242 0.0
0.562112 0.419305 -0.000973 0.0
4.215251 0.279270 -0.001645 0.0
0.646705 0.927526 -0.000669 0.0
3.953723 1.728241 -0.004394 0.0
2.796396 0.940465 -0.003850 0.0
3.322488 0.614325 0.000369 0.0
1.196053 0.143152 -0.001126 0.0
2.417891 1.326572 -0.003491 0.0
0.323986 0.418973 -0.001434 0.0
1.302955 0.639838 0.001281 0.0
