0.18424981 1.17295943 -0.00234168 0.00000000
0.82063212 1.01213980 -0.00296779 0.00000000
3.63819865 2.00810478 0.00271627 0.00000000
3.31326558 1.16779912 0.00185069 0.00000000
2.66163798 2.16992270 -0.00163137 0.00000000
2.67738265 1.70455642 0.00382506 0.00000000
4.00808420 0.06333432 -0.00216444 0.00000000
1.28362252 0.28146192 -0.00136752 0.00000000
0.74770812 0.98864712 -0.00111506 0.00000000
1.73522246 0.94155015 -0.00188265 0.00000000
2.09755932 0.87730536 -0.00379916 0.00000000
1.97634562 1.47792606 -0.00306660 0.00000000
3.80673610 2.12001416 0.00361359 0.00000000
0.52944313 0.13632874 -0.00255765 0.00000000
2.26134867 1.91762707 -0.00122598 0.00000000
0.91040719 1.67683205 -0.00246090 0.00000000
2.55601189 0.24597929 -0.00283022 0.00000000
0.90210146 1.39846244 0.00097449 0.00000000
0.77241021 1.64480997 0.00221043 0.00000000
1.12357230 1.86677605 -0.00472294 0.00000000
2.37748195 1.50248647 -0.00014795 0.00000000
3.97556375 1.85032295 -0.00078007 0.00000000
1.09105258 0.19706943 -0.00366817 0.00000000
2.76089432 0.06138045 0.00222572 0.00000000
2.18030761 2.10340578 -0.00221942 0.00000000
3.61896584 0.68984360 0.00168129 0.00000000
0.97809237 1.21943984 -0.00343870 0.00000000
3.67432738 0.04580714 0.00329165 0.00000000
0.00994269 1.33382589 0.00269132 0.00000000
1.00280783 1.21359999 -0.00063952 0.00000000
2.26842886 0.50237416 0.00112806 0.00000000
0.29241629 1.73046910 -0.00461355 0.00000000
1.12944097 1.12559759 0.00080400 0.00000000
1.20546792 1.36091816 -0.00527894 0.00000000
0.07559827 1.50267464 0.00192899 0.00000000
0.74503584 1.15339557 -0.00078149 0.00000000
1.41651179 0.30771442 -0.00310885 0.00000000
2.69758479 2.17113973 -0.00310714 0.00000000
1.02499537 1.30072446 -0.00084144 0.00000000
3.02331060 0.59795219 -0.00233930 0.00000000
0.79337873 0.78106542 0.00135601 0.00000000
2.22430740 0.55242276 0.00460484 0.00000000
1.18857133 0.95573555 -0.00196545 0.00000000
1.20503442 0.24183916 -0.00180789 0.00000000
1.89644658 0.94045704 -0.00435600 0.00000000
3.50618892 0.00196291 0.00121942 0.00000000
3.11396319 1.68296603 0.00041726 0.00000000
2.05306199 1.20159024 -0.00268927 0.00000000
3.96920459 2.19644167 -0.00038786 0.00000000
2.16260451 0.59083729 0.00438643 0.00000000
2.65384818 0.37977328 -0.00224506 0.00000000
2.81536203 1.20915463 0.00272176 0.00000000
1.47787542 0.77969033 0.00058009 0.00000000
2.26577722 1.95679080 0.00157455 0.00000000
1.28596686 0.50668927 0.00211228 0.00000000
0.76098868 1.19590171 0.00003761 0.00000000
0.24530699 1.40039775 0.00094434 0.00000000
1.93338601 1.13695012 -0.00236583 0.00000000
1.54303120 1.18407017 -0.00084612 0.00000000
3.03960029 0.30072468 -0.00108424 0.00000000
1.64329702 1.45129449 0.00444351 0.00000000
2.98494436 0.41029142 0.00070796 0.00000000
4.14201599 2.00344982 -0.00388902 0.00000000
2.33618278 1.19079573 0.00043662 0.00000000
0.31764458 0.67839530 0.00526590 0.00000000
2.87383998 1.70602361 -0.00295486 0.00000000
3.52279111 1.17294826 0.00436515 0.00000000
3.07502328 1.07868391 -0.00270293 0.00000000
2.09636813 0.19985994 -0.00408079 0.00000000
0.49482321 1.63237879 0.00265061 0.00000000
3.57016594 0.63039777 0.00193429 0.00000000
3.53602631 1.01445400 0.00281921 0.00000000
0.91308553 1.21195085 -0.00244874 0.00000000
2.55371372 2.09872325 0.00318657 0.00000000
3.56805763 0.58149489 -0.00061957 0.00000000
3.42177914 0.45546162 0.00248592 0.00000000
3.68870227 1.23173541 -0.00024320 0.00000000
2.38797149 2.16457070 0.00094765 0.00000000
0.08984025 1.53037686 -0.00267539 0.00000000
1.43155164 1.35307218 -0.00422660 0.00000000
1.41853785 0.62039313 -0.00228130 0.00000000
3.27197493 1.57249932 0.00043216 0.00000000
2.57716843 0.99937957 -0.00095679 0.00000000
1.15189676 0.91469156 0.00084635 0.00000000
1.21889740 1.61900570 0.00176619 0.00000000
1.08566756 1.49174599 0.00354766 0.00000000
2.64142126 1.27914565 -0.00186578 0.00000000
3.44499206 1.99202626 0.00021193 0.00000000
1.22001677 0.81849827 0.00040542 0.00000000
3.19954686 0.83047981 0.00182584 0.00000000
0.73125506 1.48930865 -0.00197482 0.00000000
1.22269503 1.09455550 0.00063084 0.00000000
0.40588189 1.45953767 0.00101579 0.00000000
1.01233922 0.50566411 0.00409567 0.00000000
3.42530830 1.69126377 0.00390744 0.00000000
2.86320381 1.67965290 0.00454557 0.00000000
2.13064162 1.32040726 0.00114171 0.00000000
1.04207813 1.61632362 0.00159211 0.00000000
3.99740170 1.90142271 -0.00321751 0.00000000
0.26237057 0.63458438 -0.00208487 0.00000000
1.35337162 0.51951469 0.00182116 0.00000000
2.00906553 0.42584319 -0.00049459 0.00000000
3.26164754 1.15186773 -0.00176292 0.00000000
0.07706222 0.03802540 -0.00180848 0.00000000
3.32786033 1.82340238 -0.00120139 0.00000000
3.86895016 1.46754645 -0.00699202 0.00000000
3.05057709 0.45434324 -0.00220364 0.00000000
3.09846717 0.69984892 0.00130475 0.00000000
3.38348120 0.50382134 -0.00138892 0.00000000
2.07569243 1.90100094 0.00171689 0.00000000
1.66212547 1.46660745 -0.00288568 0.00000000
3.24864189 0.49464785 -0.00400562 0.00000000
1.97630761 2.01769373 0.00103627 0.00000000
1.37208741 0.01578448 0.00338137 0.00000000
3.58119597 1.00251334 0.00348119 0.00000000
2.91281540 1.64927030 -0.00003837 0.00000000
0.92679348 1.11445234 0.00169988 0.00000000
1.21477950 0.81880781 0.00233569 0.00000000
1.06167703 2.19542346 0.00317077 0.00000000
3.11306900 0.53207502 -0.00670225 0.00000000
3.31857784 1.40634002 0.00172275 0.00000000
1.88165862 1.67722482 0.00146731 0.00000000
4.01379155 2.07984829 0.00198150 0.00000000
3.54967366 1.00766269 -0.00031424 0.00000000
1.24806643 0.01086448 0.00225722 0.00000000
4.02470354 2.19721043 0.00207019 0.00000000
2.99964009 0.82299521 0.00650651 0.00000000
2.42127784 0.37849637 0.00205312 0.00000000
1.17742632 1.65570563 -0.00090791 0.00000000
0.00268932 0.20413423 0.00314963 0.00000000
0.82087893 0.70126181 0.00145298 0.00000000
2.45226611 0.78853194 -0.00152442 0.00000000
2.86448005 0.72404678 0.00023528 0.00000000
1.81501244 1.66099756 -0.00233765 0.00000000
3.11917792 2.12823766 -0.00030848 0.00000000
3.49733529 1.38079019 -0.00065886 0.00000000
2.23123161 1.24291054 0.00138991 0.00000000
3.65783918 0.01995641 0.00252968 0.00000000
1.34771899 0.00441921 -0.00295159 0.00000000
1.66302546 1.91925282 0.00069188 0.00000000
3.86384876 0.62024374 -0.00012386 0.00000000
0.46767213 0.99325776 -0.00147957 0.00000000
3.02756570 2.09326783 -0.00015197 0.00000000
1.58732098 1.37967581 0.00353781 0.00000000
0.09111077 1.49553564 -0.00082489 0.00000000
2.18565125 1.18004378 -0.00349453 0.00000000
0.09151186 0.97458607 0.00021154 0.00000000
2.33946086 0.79020236 0.00072916 0.00000000
2.26580194 2.16139537 -0.00550113 0.00000000
0.20870931 0.89108586 -0.00152019 0.00000000
1.26941288 1.18182288 0.00317612 0.00000000
2.16969664 1.67911255 0.00286526 0.00000000
0.03210176 1.84077824 -0.00151628 0.00000000
0.52504231 1.27492476 -0.00263736 0.00000000
2.90957461 0.12334134 0.00328069 0.00000000
1.15192154 0.57321116 -0.00177756 0.00000000
2.50634083 0.47681230 0.00036801 0.00000000
0.77591345 1.65707352 -0.00230033 0.00000000
2.77895943 1.13607999 -0.00184255 0.00000000
1.53433367 0.17464406 -0.00324503 0.00000000
0.59693855 1.28320412 0.00349451 0.00000000
3.09274553 0.99780592 0.00243227 0.00000000
3.88619454 0.57589277 0.00306836 0.00000000
0.84233903 0.60959132 -0.00027186 0.00000000
0.72333682 0.70139248 -0.00058553 0.00000000
3.75805703 2.19144101 0.00154217 0.00000000
2.63352637 1.10945928 -0.00384867 0.00000000
3.52363665 2.19806894 0.00218434 0.00000000
1.81965963 0.52079914 -0.00635284 0.00000000
0.62020978 1.59384061 0.00297076 0.00000000
1.38200760 2.13332731 -0.00261849 0.00000000
2.97298997 1.52006897 -0.00061909 0.00000000
1.98026618 0.63753201 0.00440541 0.00000000
1.30173704 0.91856534 0.00352076 0.00000000
3.98196510 2.01889811 -0.00158703 0.00000000
2.91198905 0.11013269 -0.00118371 0.00000000
0.88579712 0.33935427 -0.00370028 0.00000000
2.06927404 0.15969664 0.00176716 0.00000000
3.38899213 1.91158484 -0.00117049 0.00000000
3.00284913 0.47795168 -0.00289272 0.00000000
2.86356837 1.70330591 0.00069858 0.00000000
2.02313251 0.32028230 -0.00115734 0.00000000
0.74676130 0.75500285 0.00013781 0.00000000
3.98604829 1.51038960 -0.00312376 0.00000000
0.95668271 1.81942201 0.00111101 0.00000000
1.79272581 1.40686018 -0.00070931 0.00000000
0.73181180 0.19313772 0.00210356 0.00000000
0.90218723 1.26221092 -0.00119675 0.00000000
3.92595810 0.57438556 0.00005805 0.00000000
2.87683931 1.79470439 -0.00236491 0.00000000
3.41929814 1.67468406 0.00133072 0.00000000
0.75007848 0.85460050 -0.00107708 0.00000000
2.98715598 1.22664683 0.00097231 0.00000000
1.31396271 1.64442719 -0.00169791 0.00000000
2.59546632 1.14429428 0.00079376 0.00000000
2.76689254 1.13846783 -0.00260981 0.00000000
3.06733397 1.20675043 0.00115953 0.00000000
0.69245619 2.11633903 -0.00063734 0.00000000
0.10441401 0.23555585 -0.00051807 0.00000000
3.85118451 0.27435208 0.00117106 0.00000000
1.09619682 2.05840962 -0.00103022 0.00000000
0.17152654 0.18850220 -0.00117058 0.00000000
1.54606013 1.22241785 -0.00134648 0.00000000
0.81493528 2.05487093 0.00015648 0.00000000
3.14875623 0.58836694 0.00061244 0.00000000
3.88715243 1.59908038 -0.00279833 0.00000000
3.14085331 0.81973237 -0.00186948 0.00000000
0.23605921 1.65132600 0.00522503 0.00000000
2.84835881 0.52269723 0.00281726 0.00000000
2.59317527 1.54479239 0.00436931 0.00000000
0.79541415 0.37714037 -0.00096467 0.00000000
1.52566165 0.76474522 -0.00023070 0.00000000
1.21652154 0.43848141 -0.00093763 0.00000000
2.39843624 1.16414117 0.00019893 0.00000000
0.96293313 1.25162866 -0.00206762 0.00000000
1.04163734 0.57212760 0.00335947 0.00000000
0.31927650 0.53774523 -0.00215811 0.00000000
1.05391998 0.68368953 -0.00220531 0.00000000
1.73514842 0.13146895 -0.00159847 0.00000000
2.57176478 1.36139582 -0.00043168 0.00000000
3.62388652 0.29674653 0.00135964 0.00000000
3.27341560 0.24268044 -0.00112766 0.00000000
2.15635297 2.14328374 0.00263179 0.00000000
2.72272368 0.58898769 0.00182049 0.00000000
0.83855613 0.95852315 0.00086738 0.00000000
1.71699057 1.86537890 -0.00347342 0.00000000
3.07308249 1.06692295 0.00364537 0.00000000
1.05225260 0.23115087 0.00149676 0.00000000
1.46598782 0.20629132 -0.00041283 0.00000000
3.04185105 0.11494452 0.00221852 0.00000000
0.64974682 0.26695520 -0.00327837 0.00000000
1.99818258 1.88416533 0.00127159 0.00000000
2.99934591 1.54632952 -0.00403562 0.00000000
0.53716693 1.32901073 -0.00043715 0.00000000
3.41143186 0.46071623 0.00128965 0.00000000
2.61678531 0.64115051 -0.00385187 0.00000000
3.37860457 0.92063937 0.00474474 0.00000000
4.05839821 1.28270908 0.00054733 0.00000000
2.67247784 1.93497039 -0.00078739 0.00000000
2.17769198 1.74091277 0.00323313 0.00000000
0.69262854 0.44451909 0.00167618 0.00000000
3.17879718 0.79821523 -0.00104088 0.00000000
0.10070508 1.20284192 0.00377794 0.00000000
3.29051943 0.38920433 -0.00075180 0.00000000
0.20419247 0.64749467 0.00053657 0.00000000
3.91177736 0.06976676 0.00126682 0.00000000
0.93715260 1.69439642 -0.00232170 0.00000000
0.86999891 1.07250961 0.00095014 0.00000000
2.23910188 1.51887087 0.00258218 0.00000000
1.45989543 1.29589891 -0.00117235 0.00000000
0.37869232 1.43842344 0.00445862 0.00000000
0.63245500 0.01390102 0.00102033 0.00000000
1.20489954 1.85379396 -0.00146118 0.00000000
4.08917884 1.69072043 -0.00301313 0.00000000
2.10805901 0.09640998 0.00046125 0.00000000
1.01326379 2.04383798 -0.00093531 0.00000000
1.26241823 1.81005474 0.00205420 0.00000000
0.55294044 0.42769497 -0.00120840 0.00000000
3.99448081 0.72916366 0.00317374 0.00000000
1.65908821 0.23842416 0.00415241 0.00000000
4.01099389 1.46029390 -0.00081362 0.00000000
1.62083686 2.18958940 -0.00018503 0.00000000
1.60448752 0.61026714 -0.00132182 0.00000000
0.24468486 0.73655290 -0.00202539 0.00000000
0.84982528 1.62925845 -0.00481439 0.00000000
0.62388193 1.30838339 0.00277027 0.00000000
0.06282462 0.88164582 -0.00509776 0.00000000
2.64464735 1.28143703 -0.00278970 0.00000000
1.23159968 0.85888060 0.00043922 0.00000000
3.10967692 0.02425623 -0.00288203 0.00000000
3.91196136 0.47532392 -0.00374119 0.00000000
3.96344639 0.77451439 0.00171730 0.00000000
3.40589169 1.29952705 -0.00222231 0.00000000
1.33009751 1.42002241 -0.00014838 0.00000000
3.60234243 0.56609178 -0.00068222 0.00000000
2.09100155 0.88901809 0.00258679 0.00000000
3.45145237 0.63342027 -0.00024772 0.00000000
3.72619068 1.06431777 0.00431402 0.00000000
2.64256125 1.45840138 0.00268135 0.00000000
0.76161117 1.05230519 0.00497156 0.00000000
0.25702190 1.66707093 0.00451262 0.00000000
0.66940142 0.39565719 -0.00015182 0.00000000
2.59783439 0.50503950 -0.00050702 0.00000000
2.01930889 0.14234697 -0.00232611 0.00000000
0.91179500 2.18408396 -0.00213328 0.00000000
0.79846256 0.69538520 0.00363481 0.00000000
1.74531643 0.33975960 -0.00071322 0.00000000
1.92017724 0.41888571 0.00305321 0.00000000
1.00362818 0.44976569 0.00029480 0.00000000
0.72843666 0.21160214 0.00012834 0.00000000
2.00107626 1.88246935 0.00083390 0.00000000
2.27141731 1.18312659 0.00191515 0.00000000
0.48519859 1.07223678 -0.00038755 0.00000000
0.42636521 1.76874731 -0.00239982 0.00000000
2.99507581 0.17440750 -0.00200579 0.00000000
4.01241270 1.85087406 0.00205987 0.00000000
2.83832979 1.66217704 -0.00204801 0.00000000
0.97501333 0.83723692 0.00342258 0.00000000
3.64340606 1.27163708 0.00550413 0.00000000
4.10491611 0.74506048 0.00583323 0.00000000
2.65776639 1.46865187 0.00068324 0.00000000
0.72776683 0.79693439 -0.00202015 0.00000000
0.54497830 0.76609556 0.00188768 0.00000000
3.94675456 1.44984249 0.00067705 0.00000000
1.38261925 1.20705412 0.00279391 0.00000000
1.10726988 1.32157447 0.00211318 0.00000000
3.99975257 0.84009647 0.00029150 0.00000000
2.62760666 0.44073138 0.00003227 0.00000000
0.67540440 2.06873448 -0.00253241 0.00000000
2.89007133 1.78076927 0.00148772 0.00000000
1.22569607 0.64807247 0.00150988 0.00000000
2.02189516 1.59613588 -0.00075021 0.00000000
2.52615945 1.00229584 0.00095439 0.00000000
3.05515285 0.20314117 0.00617631 0.00000000
3.78667360 1.23632776 -0.00058570 0.00000000
1.73400312 1.60222048 0.00272969 0.00000000
1.77410615 0.74799470 0.00107961 0.00000000
0.54546599 0.17496931 0.00076647 0.00000000
1.20267015 0.07343573 -0.00209780 0.00000000
1.87928219 1.57640275 0.00105327 0.00000000
2.44484426 1.78695773 0.00395913 0.00000000
0.22936871 1.26012917 -0.00168496 0.00000000
1.84025289 1.61138740 0.00086253 0.00000000
4.10148742 0.25022877 -0.00114903 0.00000000
1.43850974 0.89650338 0.00178586 0.00000000
1.81635347 0.50470875 0.00616334 0.00000000
0.09711431 1.35113237 -0.00070021 0.00000000
3.00208957 1.03775092 0.00060325 0.00000000
2.58208475 1.51997926 0.00057471 0.00000000
1.78139191 1.32356588 -0.00046749 0.00000000
2.62115645 1.81254142 -0.00091877 0.00000000
2.69820817 1.56966732 0.00134876 0.00000000
0.01339962 2.06153018 -0.00154907 0.00000000
1.02445293 1.72785700 0.00437872 0.00000000
0.25736274 0.65875275 0.00141963 0.00000000
2.63278316 1.11860637 0.00199706 0.00000000
3.34018647 0.20495806 0.00281653 0.00000000
0.78643225 2.02645105 0.00023579 0.00000000
0.66648642 0.92678169 -0.00108923 0.00000000
1.12277840 2.06803365 -0.00052486 0.00000000
1.55226319 1.79852860 0.00227757 0.00000000
3.11424046 0.27304275 0.00072834 0.00000000
2.81296569 2.09959315 0.00286848 0.00000000
2.04890159 2.18462354 -0.00149663 0.00000000
2.58808456 0.39205037 -0.00243285 0.00000000
0.99773393 0.61446513 -0.00302416 0.00000000
4.05233896 0.04618298 -0.00083754 0.00000000
3.77889863 0.05517648 0.00239873 0.00000000
3.02435583 0.18524021 -0.00192026 0.00000000
2.93215333 1.42277365 0.00127528 0.00000000
3.25477088 0.17842051 0.00698407 0.00000000
1.37804608 2.07110015 0.00042831 0.00000000
0.25099871 1.53963540 0.00429481 0.00000000
1.69255204 0.38143102 0.00172607 0.00000000
3.84485704 1.63583060 -0.00107343 0.00000000
1.84374573 1.72313912 0.00506635 0.00000000
2.79518330 2.14759904 0.00192263 0.00000000
0.61975942 0.48436854 -0.00079054 0.00000000
2.04947734 0.39938283 -0.00043498 0.00000000
2.60514955 0.36794682 -0.00460658 0.00000000
3.51176136 0.28701113 0.00112361 0.00000000
3.94065933 1.04168941 0.00099169 0.00000000
1.21341730 0.88244000 -0.00102795 0.00000000
0.37843246 1.95410562 -0.00360730 0.00000000
3.47794787 2.09727157 -0.00178731 0.00000000
0.56951478 1.56299369 0.00036324 0.00000000
2.58262507 1.79311536 -0.00027884 0.00000000
0.18322069 2.05826507 -0.00136198 0.00000000
2.70477800 1.44876655 -0.00147937 0.00000000
4.13513300 0.35462409 -0.00213327 0.00000000
0.13009519 1.40085176 -0.00046665 0.00000000
1.08105792 1.90566970 0.00002537 0.00000000
0.33059253 0.38396699 0.00189011 0.00000000
3.62214432 1.27468892 0.00242288 0.00000000
1.21623959 1.70260089 0.00154286 0.00000000
3.10669948 1.77139905 0.00099194 0.00000000
3.40265701 1.32810357 -0.00371884 0.00000000
2.86753050 1.60618094 -0.00251578 0.00000000
2.37546677 1.93451348 0.00191691 0.00000000
2.37576714 0.39264537 0.00134338 0.00000000
1.57806588 1.00808218 -0.00112921 0.00000000
3.60109206 1.25319849 -0.00013214 0.00000000
2.11164143 0.23632439 -0.00310823 0.00000000
2.57491469 1.91095970 -0.00509589 0.00000000
1.31197877 1.06512372 0.00123609 0.00000000
2.25741063 1.01259992 0.00138053 0.00000000
2.57712227 1.67258529 -0.00001051 0.00000000
2.85432051 0.26531825 0.00166100 0.00000000
3.20631973 0.12410414 -0.00013669 0.00000000
2.39597617 0.52677874 -0.00351831 0.00000000
1.56884642 1.82690650 0.00481849 0.00000000
0.59260554 2.14450718 -0.00053809 0.00000000
0.94370566 0.16573061 -0.00090293 0.00000000
2.74482174 1.31686886 0.00213824 0.00000000
3.53324466 1.64710073 0.00265583 0.00000000
1.80264794 0.76138624 0.00235919 0.00000000
2.64488669 0.63182108 -0.00138932 0.00000000
2.55247833 1.84285570 -0.00228010 0.00000000
1.31473935 2.12803956 -0.00034791 0.00000000
2.33716177 0.36604825 0.00053928 0.00000000
2.26746163 1.93885845 0.00016970 0.00000000
3.51981558 0.76055490 -0.00225970 0.00000000
4.14004931 1.84697862 0.00568559 0.00000000
1.10271236 1.17791020 0.00288664 0.00000000
4.12027496 0.09304901 0.00379989 0.00000000
0.91765130 1.58645102 0.00206534 0.00000000
0.30324122 0.60424697 0.00418104 0.00000000
4.15098906 1.36415853 0.00036858 0.00000000
0.55056579 0.86702936 0.00167237 0.00000000
0.06235067 2.12164479 0.00113074 0.00000000
3.97607326 1.47449510 0.00126222 0.00000000
0.39298017 2.07029202 -0.00091841 0.00000000
3.89695602 1.20934455 0.00077292 0.00000000
3.75022640 1.00418353 0.00053246 0.00000000
1.79922993 0.03107400 0.00459745 0.00000000
3.86039811 0.91313568 -0.00078138 0.00000000
2.23526113 0.73509791 0.00011620 0.00000000
2.77432001 0.67926821 0.00055570 0.00000000
2.75193203 1.36224520 0.00197879 0.00000000
2.16709596 0.86885713 -0.00165997 0.00000000
3.95772399 1.67735634 -0.00159988 0.00000000
3.50609087 0.13646130 0.00274659 0.00000000
1.75729006 0.80688500 0.00060206 0.00000000
1.62899133 1.89183207 -0.00037705 0.00000000
2.73136829 2.11807634 0.00135769 0.00000000
0.37787437 0.06724940 0.00094978 0.00000000
2.12666852 0.89040576 -0.00395983 0.00000000
3.42240279 0.26345185 -0.00130088 0.00000000
3.35957890 0.72424343 0.00678197 0.00000000
3.05434497 0.65330289 0.00148204 0.00000000
1.44638350 0.65355880 0.00024889 0.00000000
3.65059713 0.78853832 0.00122163 0.00000000
1.07908189 0.00634223 -0.00370356 0.00000000
4.14854506 1.85737599 0.00198310 0.00000000
2.72755997 0.20857054 -0.00008852 0.00000000
3.23152714 0.79192064 -0.00198086 0.00000000
3.88929163 0.55643747 0.00166791 0.00000000
3.95482884 0.70527842 -0.00379363 0.00000000
1.32652720 1.04120513 0.00027999 0.00000000
1.98259567 0.98339296 -0.00200463 0.00000000
3.97958921 0.31367161 -0.00451123 0.00000000
0.84184846 0.33192873 0.00033266 0.00000000
1.79581469 0.85282109 0.00177259 0.00000000
0.99943990 0.93782246 0.00210359 0.00000000
3.35330496 2.00637707 0.00384894 0.00000000
0.76983980 0.41772778 0.00080064 0.00000000
1.71602020 0.41837251 0.00189776 0.00000000
1.47835248 1.45369732 -0.00047936 0.00000000
0.77485356 1.18920632 -0.00070693 0.00000000
3.37195040 2.04611585 -0.00067059 0.00000000
1.63578539 1.58420942 -0.00389327 0.00000000
0.39217312 1.79675432 -0.00624629 0.00000000
2.92568024 1.51397199 0.00006430 0.00000000
0.16188592 1.92435749 0.00270039 0.00000000
3.10015996 0.75887707 0.00137797 0.00000000
0.37611949 1.00257484 0.00277517 0.00000000
3.94777642 0.36251082 -0.00123832 0.00000000
1.85208106 0.96290552 0.00245072 0.00000000
0.96366301 1.32854877 0.00023694 0.00000000
0.14678087 1.50274729 -0.00296738 0.00000000
3.15055952 2.11607642 0.00613702 0.00000000
1.55210087 1.00322362 -0.00271447 0.00000000
2.78922474 0.82170233 0.00429774 0.00000000
2.15847864 1.66053234 0.00211499 0.00000000
1.79676805 0.46692453 -0.00249551 0.00000000
1.03653890 1.74057230 0.00057088 0.00000000
2.33488743 1.82227222 -0.00115933 0.00000000
2.97491457 2.03996891 -0.00094762 0.00000000
3.02135927 1.93957899 -0.00170317 0.00000000
4.01172922 1.83031287 -0.00183231 0.00000000
1.14261817 2.18840726 0.00022675 0.00000000
3.56476311 1.74879278 0.00490819 0.00000000
2.72923170 0.71193359 -0.00068048 0.00000000
0.23859592 0.24945380 -0.00245175 0.00000000
3.91688213 1.43277982 0.00650103 0.00000000
1.11337827 0.98283565 0.00046489 0.00000000
3.23477625 1.21251047 0.00058360 0.00000000
1.24724537 1.01468431 0.00193080 0.00000000
1.35949740 0.96356668 0.00187201 0.00000000
2.97720542 0.46307096 -0.00282314 0.00000000
1.69459591 1.81508472 -0.00322496 0.00000000
1.04111517 1.81396097 0.00357088 0.00000000
4.09633861 0.14339694 -0.00061773 0.00000000
0.06699832 0.86549203 0.00235995 0.00000000
2.73078600 1.55264280 0.00208847 0.00000000
0.63432737 1.15537936 -0.00199441 0.00000000
2.59692566 1.26522109 -0.00163054 0.00000000
2.23316125 0.34025545 -0.00176592 0.00000000
0.82436206 1.04890081 0.00231766 0.00000000
0.40369920 0.78111457 0.00206597 0.00000000
1.10978634 0.33065396 0.00282854 0.00000000
3.30425789 0.55996951 -0.00365259 0.00000000
1.62244243 1.87290918 0.00178481 0.00000000
0.29256438 0.42742019 -0.00431215 0.00000000
0.98576809 0.18051747 -0.00286168 0.00000000
3.25376877 1.97315494 0.00312389 0.00000000
3.06064843 0.93363897 0.00169245 0.00000000
0.00802987 0.67941626 -0.00074325 0.00000000
4.05595601 0.78714469 0.00350630 0.00000000
2.15905102 2.17994084 -0.00159118 0.00000000
1.66145133 1.77435989 0.00217381 0.00000000
2.75084088 1.45910132 -0.00356506 0.00000000
3.48722439 1.80895093 0.00283908 0.00000000
0.66212965 0.08104399 0.00137177 0.00000000
3.29263234 0.13196672 0.00103379 0.00000000
3.86167434 1.56204711 -0.00127546 0.00000000
0.51324570 1.66589226 -0.00070798 0.00000000
2.43352978 0.68586570 0.00090128 0.00000000
0.99847895 1.49723959 0.00460234 0.00000000
2.32137660 0.84934760 -0.00247034 0.00000000
1.87047417 1.46144238 -0.00199272 0.00000000
1.15940915 1.40068735 -0.00274234 0.00000000
2.85225078 1.68344765 -0.00369803 0.00000000
4.05173297 0.06420635 0.00244610 0.00000000
1.26812494 0.36842376 -0.00203637 0.00000000
2.05142283 0.14794787 0.00032431 0.00000000
0.31315337 0.53706509 -0.00107330 0.00000000
1.08336769 0.20110967 0.00209776 0.00000000
2.74694697 0.74221821 0.00252052 0.00000000
2.71838313 1.10054410 -0.00375658 0.00000000
1.10045466 1.04533984 0.00219907 0.00000000
1.00637130 1.92843947 -0.00208381 0.00000000
2.63208426 1.14160343 0.00550768 0.00000000
2.42184032 0.11836100 -0.00271602 0.00000000
3.10400085 1.88661702 0.00070407 0.00000000
2.62354654 0.70561807 -0.00053094 0.00000000
4.04557119 1.49907599 -0.00167955 0.00000000
2.90930077 0.02319350 -0.00275620 0.00000000
2.24526714 1.68916003 0.00207650 0.00000000
2.94677380 0.15806049 0.00233945 0.00000000
3.10290203 1.43141396 0.00559629 0.00000000
0.21629788 1.70504023 -0.00269176 0.00000000
1.29889139 0.66015376 -0.00176006 0.00000000
1.10572412 0.77620342 0.00094188 0.00000000
0.11256191 0.46499894 0.00079503 0.00000000
2.07435075 1.76361736 -0.00003623 0.00000000
0.66615106 0.44135068 0.00130917 0.00000000
3.99604423 1.39065673 0.00295109 0.00000000
3.73371499 1.80582001 0.00436317 0.00000000
0.18220719 0.45898403 -0.00161253 0.00000000
0.57924327 0.00387231 -0.00432852 0.00000000
3.19013658 0.42925634 0.00082454 0.00000000
3.03935750 1.73506260 -0.00335757 0.00000000
1.23164467 1.51338623 0.00166575 0.00000000
1.71944781 2.00998712 0.00284769 0.00000000
1.34903631 2.17000928 -0.00190496 0.00000000
3.10342710 0.82248709 -0.00079749 0.00000000
2.59976417 0.40426268 -0.00317156 0.00000000
0.50341136 1.21621600 0.00546341 0.00000000
3.76802290 0.69951924 0.00026603 0.00000000
3.01282942 0.66961738 0.00473647 0.00000000
3.68453190 1.99570748 -0.00246400 0.00000000
0.82113374 1.63889316 -0.00182736 0.00000000
3.96121438 2.02185644 -0.00189979 0.00000000
1.87363950 1.57893022 0.00323037 0.00000000
1.31568660 1.82387138 -0.00126577 0.00000000
2.59082197 1.69761785 0.00318376 0.00000000
3.10505564 0.90027438 -0.00095259 0.00000000
2.71653418 1.35022725 -0.00409635 0.00000000
1.28235278 0.62484897 -0.00024008 0.00000000
2.24790110 1.40174739 -0.00279167 0.00000000
0.19857990 1.48726701 -0.00187269 0.00000000
4.05719350 1.24396264 0.00027609 0.00000000
1.53613231 0.05397307 0.00043158 0.00000000
1.84684955 1.52192452 0.00136872 0.00000000
3.56361484 0.15446484 -0.00019442 0.00000000
3.65137826 0.22530787 0.00353227 0.00000000
1.60612302 1.42354333 0.00267702 0.00000000
2.27295002 1.40007585 -0.00274444 0.00000000
3.78729530 1.32526016 -0.00330494 0.00000000
0.66899529 0.27840076 0.00086649 0.00000000
1.27725855 0.59252219 0.00224106 0.00000000
2.96431102 1.06382769 -0.00024506 0.00000000
0.33160570 0.56172537 0.00689106 0.00000000
3.55698134 1.94788942 0.00221500 0.00000000
4.00731534 0.59123116 -0.00041133 0.00000000
2.06374406 1.70916556 -0.00113940 0.00000000
2.98015365 1.73911610 0.00309361 0.00000000
0.65160314 0.09243286 0.00335269 0.00000000
2.87658758 1.99045524 0.00119784 0.00000000
1.28545609 1.50985522 0.00385076 0.00000000
1.21901371 1.20714069 -0.00122602 0.00000000
3.55744318 0.57563246 0.00476831 0.00000000
1.54228650 1.83053507 0.00618860 0.00000000
2.71496214 1.43601364 0.00126729 0.00000000
2.92005219 1.50693903 0.00037623 0.00000000
1.84453377 0.63900139 -0.00088308 0.00000000
1.36979342 1.47259954 -0.00274412 0.00000000
2.11880920 0.20584470 -0.00085685 0.00000000
1.11885528 2.10204402 -0.00026197 0.00000000
2.34353176 1.42197428 -0.00259076 0.00000000
4.04566275 2.13641086 -0.00218538 0.00000000
1.48458537 0.87332894 -0.00218454 0.00000000
1.28252380 2.04647615 -0.00115205 0.00000000
0.32019827 1.21646650 -0.00054809 0.00000000
1.56175269 0.09914868 0.00145511 0.00000000
1.20294876 0.98578595 0.00080493 0.00000000
0.83214254 1.44860697 0.00138203 0.00000000
2.63201652 2.00050636 -0.00063770 0.00000000
1.77765405 1.77581133 -0.00126024 0.00000000
1.39617123 1.58449593 0.00711141 0.00000000
3.36927915 0.22544329 0.00174210 0.00000000
0.25144677 0.74587030 -0.00054784 0.00000000
0.92734834 1.88023168 0.00276890 0.00000000
3.08907686 1.04225112 -0.00256495 0.00000000
3.81648746 1.87597241 0.00303234 0.00000000
3.69792141 1.83250142 -0.00359941 0.00000000
2.82771644 0.64868777 -0.00168501 0.00000000
1.77399402 0.87638972 -0.00232711 0.00000000
3.87311527 1.89266173 0.00051472 0.00000000
3.44914726 1.81596910 -0.00180743 0.00000000
2.94090298 1.07116514 -0.00386567 0.00000000
3.23848600 0.66539996 -0.00446471 0.00000000
0.58710990 1.15328391 0.00104018 0.00000000
0.66949383 1.72343999 0.00040100 0.00000000
0.80855212 0.25054405 0.00247512 0.00000000
1.93424425 1.21640617 -0.00400129 0.00000000
3.91063916 1.10040454 0.00160745 0.00000000
1.68889413 0.35917596 -0.00038972 0.00000000
3.30159637 1.06237758 -0.00172876 0.00000000
3.92358271 0.23486101 -0.00152550 0.00000000
3.58106203 0.07238645 -0.00289065 0.00000000
2.65762516 0.02153321 -0.00268682 0.00000000
3.72607751 1.49290170 -0.00217091 0.00000000
1.02206078 1.90396988 -0.00140691 0.00000000
3.05637596 0.29882927 0.00151615 0.00000000
1.78728155 1.79380819 0.00052197 0.00000000
3.59273712 1.99315381 0.00243472 0.00000000
0.67487112 0.29722795 -0.00255492 0.00000000
0.05747523 1.78277773 -0.00109052 0.00000000
3.73714556 1.68524970 -0.00076917 0.00000000
2.58163907 0.75597856 0.00099746 0.00000000
1.60599547 1.47841288 0.00270825 0.00000000
3.72565768 1.50598052 0.00047823 0.00000000
0.93114849 0.95466985 -0.00179304 0.00000000
0.68681639 1.00978681 -0.00016188 0.00000000
1.18159258 1.73232977 -0.00411800 0.00000000
1.79260831 1.73406715 0.00195142 0.00000000
0.82976436 2.16958118 -0.00024949 0.00000000
2.47161063 1.94912352 -0.00268279 0.00000000
1.09237879 0.86923473 0.00241918 0.00000000
1.49316211 0.37231202 -0.00066918 0.00000000
1.48027489 1.66066871 0.00046055 0.00000000
2.75078351 2.11769963 0.00276817 0.00000000
2.65641352 1.47257241 -0.00230288 0.00000000
3.91449540 0.82311099 -0.00188319 0.00000000
4.10880214 1.07185673 -0.00185200 0.00000000
3.71130433 1.18997754 0.00120778 0.00000000
2.12960743 1.61912392 0.00131699 0.00000000
2.34247583 1.44562962 0.00010048 0.00000000
2.00233685 0.76174588 0.00021429 0.00000000
3.74398784 0.64554055 -0.00134004 0.00000000
2.45077406 1.29805767 -0.00119378 0.00000000
0.30437167 2.06912785 -0.00077546 0.00000000
0.46205233 1.88388011 -0.00011060 0.00000000
3.12292038 1.84844287 0.00137742 0.00000000
2.90477071 1.87383875 -0.00336371 0.00000000
0.59902677 0.17155188 0.00085306 0.00000000
2.68475380 0.39028750 -0.00095470 0.00000000
3.14930835 1.38613714 0.00143953 0.00000000
0.13918159 2.00226317 0.00087879 0.00000000
0.28653522 2.16627259 -0.00004062 0.00000000
3.21419023 1.01815270 0.00079533 0.00000000
3.99892589 0.71826824 -0.00257388 0.00000000
0.78148999 0.79088145 0.00251687 0.00000000
0.78853985 1.43860728 0.00363325 0.00000000
0.61708396 1.16548836 0.00193927 0.00000000
1.39892377 0.79427204 -0.00031204 0.00000000
0.35190979 0.54018637 -0.00155973 0.00000000
2.67120460 1.52222950 0.00166745 0.00000000
0.25919026 0.15780133 -0.00295061 0.00000000
3.67178292 0.26686578 0.00140342 0.00000000
1.32108619 2.11045453 -0.00181917 0.00000000
2.93652419 0.78292801 -0.00040098 0.00000000
2.68089948 0.29945546 0.00256905 0.00000000
3.05787542 2.07118070 0.00037127 0.00000000
0.29170528 1.19666432 0.00433375 0.00000000
2.23602357 2.03056310 0.00359410 0.00000000
0.67416612 0.55584739 -0.00107956 0.00000000
3.94722861 0.04918925 0.00123306 0.00000000
1.85791189 1.83578439 0.00180441 0.00000000
3.44647852 1.57607112 0.00033975 0.00000000
4.08988457 1.42513333 0.00125631 0.00000000
3.06018851 2.05695834 0.00040738 0.00000000
3.03791102 1.63939640 0.00415288 0.00000000
0.04278358 0.44965369 0.00079952 0.00000000
1.91289494 0.62644386 -0.00171213 0.00000000
2.09105972 1.98276493 -0.00347956 0.00000000
0.20224034 0.32535010 -0.00267888 0.00000000
0.35546058 0.63492124 -0.00138406 0.00000000
4.14543682 0.62153647 -0.00005223 0.00000000
4.08382850 1.53666432 -0.00165487 0.00000000
3.97254189 1.52076038 -0.00131063 0.00000000
4.02503733 1.34943361 -0.00263732 0.00000000
1.83370779 1.61649018 -0.00360934 0.00000000
4.10445440 1.23939351 -0.00212329 0.00000000
0.18247232 1.25160031 0.00386694 0.00000000
4.04685208 1.86467606 0.00063598 0.00000000
1.67001196 2.13300556 -0.00007806 0.00000000
1.44343131 0.49541554 0.00027330 0.00000000
0.65023700 1.52677009 0.00682677 0.00000000
0.85753902 0.03390538 0.00095361 0.00000000
0.22478171 1.10999173 -0.00042580 0.00000000
3.84178685 1.61823793 0.00126607 0.00000000
0.04996732 1.60518882 -0.00115999 0.00000000
3.48396982 2.05534980 -0.00051547 0.00000000
0.78572385 1.73609488 0.00226678 0.00000000
0.37484001 1.25624671 0.00024874 0.00000000
2.90381282 0.30031322 -0.00012297 0.00000000
1.17839959 0.47377462 -0.00112614 0.00000000
2.87956565 0.65139507 -0.00096712 0.00000000
2.92068578 1.26212239 0.00559761 0.00000000
0.28268397 1.96989779 -0.00199441 0.00000000
1.03505890 0.02079713 0.00154397 0.00000000
3.80251479 0.05151281 -0.00018114 0.00000000
0.51849928 0.52634344 -0.00618542 0.00000000
2.02725389 1.70885796 -0.00015616 0.00000000
2.39552448 0.03281393 0.00504801 0.00000000
1.41117127 0.10286107 -0.00115991 0.00000000
2.85687031 1.62071546 0.00033512 0.00000000
0.61803856 1.00059651 0.00260902 0.00000000
2.37876866 2.09067063 0.00497827 0.00000000
3.78388587 0.54190055 -0.00378640 0.00000000
0.76336213 1.66025676 0.00206715 0.00000000
2.39537374 1.89910875 0.00198318 0.00000000
1.66382048 1.57858465 -0.00162271 0.00000000
0.34118300 0.94230043 0.00004169 0.00000000
1.31169614 1.28970223 -0.00354292 0.00000000
2.64964813 0.77414272 0.00186696 0.00000000
1.52532621 1.28863296 0.00068211 0.00000000
2.58842172 1.13518305 -0.00192989 0.00000000
1.27281886 1.13382861 -0.00205814 0.00000000
2.62044918 0.89151446 0.00003800 0.00000000
3.17049685 0.68876903 -0.00015242 0.00000000
3.22865765 0.92090509 0.00190505 0.00000000
3.81077470 2.04663416 0.00391498 0.00000000
4.03712383 0.61146933 -0.00006828 0.00000000
1.40475406 0.74517539 0.00035119 0.00000000
3.28002455 0.15323858 -0.00083903 0.00000000
1.17948426 0.25036690 -0.00009123 0.00000000
1.73256301 0.74683652 -0.00192456 0.00000000
2.52907892 1.08872390 -0.00085564 0.00000000
0.07437774 1.18815575 0.00084506 0.00000000
0.12894344 0.45126274 0.00397936 0.00000000
0.85656409 0.78890205 0.00031689 0.00000000
2.00637669 1.70836616 -0.00211859 0.00000000
1.46148487 0.15238024 0.00227188 0.00000000
3.05134965 0.97067949 -0.00311539 0.00000000
1.24055595 0.98555604 -0.00395183 0.00000000
3.84257732 1.88991641 -0.00204318 0.00000000
3.55995752 1.94957770 -0.00383743 0.00000000
0.81414492 0.48435111 0.00011415 0.00000000
1.07386753 0.43780544 0.00076987 0.00000000
1.86368066 1.02679175 0.00036100 0.00000000
3.55793121 1.03983404 -0.00254129 0.00000000
0.99731288 0.28293781 0.00054323 0.00000000
2.84345334 0.33965096 -0.00023398 0.00000000
1.04996682 0.28617258 -0.00332805 0.00000000
3.50572943 0.57438734 0.00321493 0.00000000
3.32367395 0.25843502 0.00359212 0.00000000
2.41310060 2.01353769 -0.00127002 0.00000000
0.80930425 0.00575930 0.00032747 0.00000000
3.90487180 0.08456459 -0.00125882 0.00000000
4.00710399 1.32350124 0.00182245 0.00000000
2.19640012 2.00835708 0.00170278 0.00000000
1.09038806 1.06249097 0.00239483 0.00000000
0.89943023 0.15694555 0.00094505 0.00000000
3.71205791 1.79025022 0.00090004 0.00000000
2.89045222 0.23679304 0.00286241 0.00000000
2.75651389 0.96532830 0.00115660 0.00000000
3.22711100 0.89401344 -0.00477382 0.00000000
3.90557351 1.93660680 0.00027060 0.00000000
1.11575663 0.63168758 -0.00429615 0.00000000
2.07941617 0.92453338 -0.00198881 0.00000000
1.79710913 1.89705490 -0.00015123 0.00000000
3.27363985 1.56014789 0.00188390 0.00000000
1.12459801 2.00246791 0.00177377 0.00000000
3.97935224 0.60230061 -0.00022639 0.00000000
1.39321453 1.30969902 -0.00296835 0.00000000
0.24945691 1.78243673 -0.00445866 0.00000000
0.37484560 0.45861287 0.00255373 0.00000000
0.03647269 0.38699980 -0.00300688 0.00000000
2.13070914 1.76828675 0.00506091 0.00000000
0.37225866 2.09670992 0.00253733 0.00000000
1.49704879 0.87692901 -0.00246139 0.00000000
0.92433300 1.93864801 -0.00425290 0.00000000
1.81980904 0.40349320 0.00083451 0.00000000
4.08759333 0.54927355 0.00080009 0.00000000
1.91460264 0.24537165 -0.00169409 0.00000000
2.92783930 1.28248445 0.00039818 0.00000000
3.18475404 1.38792277 0.00017541 0.00000000
0.15079104 1.75204150 -0.00342305 0.00000000
2.37941075 0.32746335 0.00392956 0.00000000
2.59637922 1.28742356 -0.00254232 0.00000000
1.55363987 0.97502710 -0.00038795 0.00000000
0.75054384 1.68277178 0.00227429 0.00000000
0.18842137 1.64172036 -0.00088204 0.00000000
3.17897473 0.13442655 0.00400482 0.00000000
2.18764477 1.88693774 0.00102871 0.00000000
0.10558066 0.21342929 0.00170075 0.00000000
2.03347507 1.56140490 -0.00267079 0.00000000
1.63913933 2.16943799 0.00151493 0.00000000
1.01139358 0.47964337 -0.00151370 0.00000000
3.65528612 2.16837454 0.00328414 0.00000000
0.14266921 0.01450793 -0.00414325 0.00000000
3.09595190 0.63259410 0.00290776 0.00000000
0.84860892 0.51113242 0.00323204 0.00000000
3.03879876 0.35151683 0.00073571 0.00000000
0.49938429 1.03305439 -0.00244238 0.00000000
0.13780231 0.94850352 0.00181249 0.00000000
0.94399641 1.92751363 0.00055185 0.00000000
1.80924573 0.86538586 -0.00116800 0.00000000
1.42080916 2.07578848 -0.00350243 0.00000000
0.30675168 1.68744407 -0.00000614 0.00000000
3.61199861 1.63764620 0.00074055 0.00000000
0.19724410 0.39988344 -0.00286758 0.00000000
1.81055567 1.95183525 -0.00082838 0.00000000
0.35287965 1.48396609 -0.00487398 0.00000000
1.46129565 1.10717740 0.00149420 0.00000000
3.87015543 0.77841737 0.00336016 0.00000000
3.04431929 1.65712275 -0.00014068 0.00000000
2.97554591 0.74573190 -0.00019718 0.00000000
0.98712295 1.67433603 -0.00127025 0.00000000
1.37419607 1.61248653 0.00198002 0.00000000
2.83642408 0.28696420 -0.00048945 0.00000000
4.05115322 0.61890339 -0.00364199 0.00000000
0.10411036 0.32329828 -0.00072897 0.00000000
4.02055595 1.86309883 0.00279850 0.00000000
1.97671013 1.42728352 0.00123929 0.00000000
1.19381599 2.01313701 0.00154949 0.00000000
0.66826191 2.16929316 0.00194588 0.00000000
0.95494444 2.18136359 -0.00067302 0.00000000
3.63384910 0.39582601 -0.00012532 0.00000000
0.33177149 0.28023372 0.00045127 0.00000000
0.66288915 0.93515273 -0.00097440 0.00000000
1.30387670 0.59491755 -0.00115759 0.00000000
2.08844908 1.58898374 0.00212649 0.00000000
3.92356215 0.00861003 0.00099351 0.00000000
1.95687752 0.24337484 -0.00232792 0.00000000
2.68959649 1.64833929 -0.00139991 0.00000000
3.12208666 0.32031124 -0.00097907 0.00000000
0.27806277 1.34432751 -0.00144900 0.00000000
0.59992402 2.18413607 0.00294519 0.00000000
3.38437892 0.62798134 -0.00172728 0.00000000
0.33755631 0.97195535 -0.00194755 0.00000000
2.93793532 0.01359946 -0.00193716 0.00000000
1.14414546 1.01350693 -0.00127936 0.00000000
3.55200768 2.18549877 -0.00069598 0.00000000
2.66830679 1.53523683 0.00097709 0.00000000
0.23564874 1.61663008 -0.00411760 0.00000000
3.72787169 1.20994967 0.00032167 0.00000000
1.40750369 1.30979377 0.00090707 0.00000000
3.12728987 0.25656727 0.00227507 0.00000000
0.28560430 0.52991831 -0.00092117 0.00000000
3.26696119 1.39703317 -0.00067957 0.00000000
1.85453624 1.70546795 0.00549253 0.00000000
3.77499052 0.08070652 -0.00133536 0.00000000
1.19450948 1.03591855 0.00060656 0.00000000
2.61402557 1.64412252 -0.00207791 0.00000000
0.34925272 0.38015139 0.00004532 0.00000000
1.74895809 0.22179999 0.00377453 0.00000000
0.08612460 0.46509909 0.00156320 0.00000000
2.30402751 1.66377601 -0.00241215 0.00000000
2.46298566 1.27631091 0.00169229 0.00000000
3.09910232 1.74589182 -0.00209093 0.00000000
3.84015995 2.00527711 0.00043358 0.00000000
0.88632163 0.23065754 -0.00033409 0.00000000
3.52635677 1.94539092 0.00230218 0.00000000
0.92180009 1.14343075 -0.00016081 0.00000000
2.41659237 1.48815023 -0.00256501 0.00000000
1.37153083 1.48806985 0.00062321 0.00000000
2.29534372 1.56813796 -0.00010154 0.00000000
0.70649474 1.55312518 0.00241908 0.00000000
3.15261118 0.73051125 -0.00007457 0.00000000
2.44902099 0.41689824 -0.00300640 0.00000000
1.45374627 0.03706524 -0.00097424 0.00000000
1.50798966 1.08799550 -0.00054642 0.00000000
3.88123478 1.30133941 -0.00113926 0.00000000
2.17461591 1.60692481 0.00226889 0.00000000
2.15836978 0.81525770 0.00543658 0.00000000
1.09099896 0.22583189 0.00035401 0.00000000
3.84494355 2.20162336 0.00071086 0.00000000
2.22252137 0.83369638 -0.00453262 0.00000000
2.24718083 1.16011533 0.00160818 0.00000000
0.11866707 1.47042083 0.00230756 0.00000000
2.70628200 0.65517464 0.00098399 0.00000000
1.75438108 1.20625516 0.00137480 0.00000000
1.95290214 1.09064903 0.00385629 0.00000000
3.59171664 0.27515192 -0.00170715 0.00000000
1.90593465 1.36180353 0.00179500 0.00000000
3.19756233 0.59519174 0.00077297 0.00000000
0.51004579 0.43009433 0.00005113 0.00000000
0.10897734 0.95040830 -0.00255228 0.00000000
1.85478122 2.11393384 -0.00223543 0.00000000
2.77609978 1.67327306 -0.00107798 0.00000000
1.83915968 0.13894230 0.00150944 0.00000000
0.03929297 1.74020449 0.00063585 0.00000000
2.86091707 0.55938530 0.00378763 0.00000000
1.04332333 0.24366634 -0.00056518 0.00000000
0.88843429 1.57686147 0.00079088 0.00000000
0.97895519 0.61288003 0.00258167 0.00000000
2.79278246 0.80718681 -0.00472095 0.00000000
1.84679865 1.54673856 -0.00065543 0.00000000
0.96958134 0.73203829 0.00075529 0.00000000
2.91013278 1.81217953 0.00004180 0.00000000
3.75182849 0.30674842 -0.00124824 0.00000000
2.55533956 1.81716366 0.00350289 0.00000000
0.23669409 0.85268361 0.00256062 0.00000000
2.70446451 0.87443004 -0.00462734 0.00000000
3.71923031 0.24792110 0.00137330 0.00000000
1.42339039 0.32084058 0.00330306 0.00000000
0.87928685 1.64494061 -0.00041156 0.00000000
1.29801522 0.29679973 0.00042745 0.00000000
1.38757202 0.11984306 0.00063330 0.00000000
2.39094387 0.01976611 -0.00796674 0.00000000
3.98580450 1.65622092 0.00456146 0.00000000
2.38199397 0.06954184 0.00064616 0.00000000
3.04526471 0.00478156 0.00225218 0.00000000
1.05003308 1.53206199 0.00224304 0.00000000
3.67922728 0.75966319 0.00213915 0.00000000
0.80507059 0.70914005 0.00501223 0.00000000
3.31677461 1.39876014 0.00143025 0.00000000
3.01846820 0.03711392 -0.00315521 0.00000000
0.84025400 0.15350427 -0.00187847 0.00000000
2.05759671 1.68744154 0.00335131 0.00000000
1.02000120 0.22473201 0.00092570 0.00000000
2.17457186 1.28426322 -0.00338112 0.00000000
4.06954325 1.93992509 0.00354321 0.00000000
0.07177104 2.04631636 -0.00048371 0.00000000
0.55214610 0.76524405 0.00358434 0.00000000
3.96394467 2.03098130 0.00435892 0.00000000
1.45138387 0.22851146 0.00396947 0.00000000
1.01805260 0.73203231 0.00415309 0.00000000
2.22244378 1.90086824 0.00355478 0.00000000
1.48064455 1.42153442 0.00090853 0.00000000
0.99548385 2.13287746 0.00278582 0.00000000
3.41920647 0.22056081 0.00137253 0.00000000
0.60940470 0.43136334 0.00015564 0.00000000
0.32759605 0.92112938 0.00591838 0.00000000
0.04824056 1.45383507 -0.00022063 0.00000000
2.63858220 1.19528740 -0.00045957 0.00000000
0.50835169 0.43222764 -0.00132380 0.00000000
1.37180069 0.52701471 -0.00430779 0.00000000
2.87157113 1.82713564 -0.00240564 0.00000000
2.93125071 1.21374417 -0.00281482 0.00000000
1.79545997 1.33374211 -0.00158583 0.00000000
0.75681690 0.90306079 0.00165857 0.00000000
0.47638930 0.08692192 -0.00288759 0.00000000
3.13353301 2.18664082 0.00060366 0.00000000
0.09431350 0.37728456 -0.00171412 0.00000000
4.04896955 2.06055627 -0.00098978 0.00000000
3.61287358 2.00842868 0.00013004 0.00000000
2.85633979 1.95514652 -0.00026898 0.00000000
0.66986154 0.07067940 0.00006016 0.00000000
3.63753564 1.22040528 -0.00198169 0.00000000
2.65932990 1.16249701 -0.00214967 0.00000000
0.03821726 0.29315706 0.00064175 0.00000000
0.66998550 0.00343949 0.00145521 1.00000000
2.37767356 -0.00291632 -0.00123868 1.00000000
2.75978110 -0.00132489 -0.00136778 1.00000000
3.82104564 0.00278126 -0.00040469 1.00000000
0.87181324 -0.00155089 -0.00004769 1.00000000
1.41861268 -0.00177832 -0.00134746 1.00000000
1.06924890 0.00000909 -0.00209701 1.00000000
0.47279397 -0.00443020 0.00190441 1.00000000
2.36435759 0.00049233 -0.00336169 1.00000000
3.62406632 0.00322350 0.00359525 1.00000000
2.11097641 -0.00540316 -0.00116025 1.00000000
0.23022226 -0.00517575 0.00209884 1.00000000
1.19864369 0.00098073 0.00426349 1.00000000
2.59253201 -0.00454965 -0.00665179 1.00000000
1.69257364 0.00276658 0.00127734 1.00000000
3.12437032 0.00158003 -0.00042239 1.00000000
1.15238590 -0.00122743 0.00141032 1.00000000
3.14893404 0.00001572 0.00157262 1.00000000
2.56512799 -0.00092777 0.00033172 1.00000000
1.70008996 -0.00102682 0.00243701 1.00000000
0.51338902 -0.00033221 -0.00265068 1.00000000
4.13741335 -0.00031190 0.00481202 1.00000000
3.23134391 -0.00416556 -0.00379421 1.00000000
1.99849912 0.00222434 -0.00535104 1.00000000
1.97862485 0.00295377 -0.00065752 1.00000000
3.34302913 -0.00004130 -0.00249283 1.00000000
3.41469439 -0.00369051 0.00004113 1.00000000
3.38989063 0.00050584 0.00488411 1.00000000
3.31196578 -0.00221856 -0.00024467 1.00000000
2.06437798 0.00064509 -0.00024303 1.00000000
3.34897989 -0.00182929 0.00031042 1.00000000
3.07308406 0.00086655 -0.00203875 1.00000000
1.02372592 0.00036089 -0.00123562 1.00000000
0.16300646 0.00725059 -0.00146145 1.00000000
2.09018686 -0.00087886 -0.00065316 1.00000000
1.38944797 0.00003855 0.00007621 1.00000000
3.18884424 0.00074792 -0.00074017 1.00000000
3.21937826 -0.00342887 -0.00165026 1.00000000
3.58065266 -0.00312057 0.00023371 1.00000000
0.31404238 0.00011260 -0.00021627 1.00000000
0.61129074 -0.00007764 0.00278290 1.00000000
3.37725503 0.00237972 -0.00083046 1.00000000
2.25163929 0.00023206 0.00398693 1.00000000
0.93244599 0.00292091 0.00125363 1.00000000
0.96883844 -0.00417833 0.00089436 1.00000000
0.24252543 0.00056966 0.00034978 1.00000000
3.58971978 -0.00181858 -0.00274143 1.00000000
0.27017397 0.00353371 0.00393864 1.00000000
1.70699845 -0.00516088 -0.00156950 1.00000000
3.03903572 -0.00066674 -0.00291135 1.00000000
1.88281011 0.00458821 -0.00202997 1.00000000
0.85133390 0.00068915 -0.00016547 1.00000000
0.78053279 -0.00076724 -0.00148761 1.00000000
2.88020435 0.00106989 0.00119121 1.00000000
2.00263019 0.00128403 0.00204121 1.00000000
1.51180193 0.00030058 -0.00107981 1.00000000
3.12246388 0.00005993 0.00206539 1.00000000
3.61602172 -0.00107827 -0.00164191 1.00000000
2.45611635 0.00172640 -0.00323264 1.00000000
0.45162900 -0.00017926 -0.00235420 1.00000000
2.99167713 -0.00424746 -0.00073896 1.00000000
1.62036181 0.00110030 0.00383678 1.00000000
1.58675665 -0.00391037 0.00546957 1.00000000
3.74369898 -0.00009943 0.00169590 1.00000000
2.73277795 0.00165435 0.00078636 1.00000000
4.15265140 0.00384633 0.00171584 1.00000000
2.04002737 -0.00227445 -0.00040416 1.00000000
2.77375760 -0.00346158 0.00222069 1.00000000
3.39582810 -0.00157260 0.00399370 1.00000000
2.38113625 0.00506359 0.00375300 1.00000000
4.12861839 0.00170940 -0.00226289 1.00000000
0.02400980 0.00246799 -0.00050218 1.00000000
2.06439704 -0.00283867 -0.00085626 1.00000000
0.18762958 0.00016627 0.00050819 1.00000000
3.00562260 -0.00258579 0.00627813 1.00000000
0.19131237 -0.00241149 -0.00161017 1.00000000
0.08791911 -0.00001966 0.00927675 1.00000000
0.57247805 0.00126480 0.00112005 1.00000000
4.07066673 0.00157521 0.00205765 1.00000000
2.18968144 0.00344453 0.00077344 1.00000000
0.83192425 0.00122689 0.00111227 1.00000000
2.09949317 0.00052315 0.00173580 1.00000000
2.90772723 0.00070253 0.00180044 1.00000000
0.76725824 0.00163224 -0.00146344 1.00000000
3.66172080 -0.00316009 0.00198842 1.00000000
3.01793890 -0.00118914 -0.00412636 1.00000000
3.14031577 -0.00178536 -0.00466436 1.00000000
3.86261179 0.00115369 -0.00256358 1.00000000
2.85047920 -0.00207046 0.00181054 1.00000000
1.67248812 -0.00146302 0.00031080 1.00000000
2.87301975 -0.00361381 -0.00498501 1.00000000
2.58409672 0.00043027 -0.00395832 1.00000000
1.89386882 0.00129483 -0.00128704 1.00000000
2.83069956 0.00395075 -0.00232170 1.00000000
1.83752467 0.00176757 -0.00135550 1.00000000
1.54039406 0.00131836 -0.00025168 1.00000000
1.94197618 -0.00137189 0.00066551 1.00000000
0.52691702 0.00029230 0.00004128 1.00000000
1.27598979 -0.00080972 -0.00041609 1.00000000
3.30139208 -0.00000362 0.00143230 1.00000000
3.28419961 0.00435568 -0.00254323 1.00000000
0.52467788 0.00281484 0.00152432 1.00000000
1.69385998 0.00310453 0.00434928 1.00000000
0.55084402 -0.00115272 0.00142519 1.00000000
3.88939574 -0.00226746 -0.00154557 1.00000000
1.55514454 -0.00134205 0.00064027 1.00000000
2.48969246 0.00216619 -0.00148419 1.00000000
0.07121468 0.00086483 0.00037933 1.00000000
1.13721336 0.00000604 -0.00540390 1.00000000
1.37478206 -0.00438267 -0.00411626 1.00000000
0.34076799 0.00020529 -0.00172632 1.00000000
3.32800694 -0.00243438 -0.00053457 1.00000000
3.31114849 -0.00309096 -0.00088283 1.00000000
2.92229375 0.00128969 0.00347968 1.00000000
2.81723608 -0.00087400 0.00364962 1.00000000
3.68153747 0.00057163 0.00376606 1.00000000
2.86414226 0.00062415 -0.00217196 1.00000000
2.63746199 -0.00311497 0.00004185 1.00000000
2.30214373 0.00046366 0.00031059 1.00000000
0.37302095 0.00192476 0.00416066 1.00000000
