4.19671983 0.19978444 0.00770707 0.00000000
1.55719864 0.56185700 -0.00153073 0.00000000
4.04456996 0.41865828 -0.00174124 0.00000000
0.63154245 0.43785300 -0.00015103 0.00000000
0.49542776 1.05450021 0.00092681 0.00000000
2.02229578 1.03465748 -0.00307314 0.00000000
3.75854211 1.05036633 0.00253451 0.00000000
0.57803481 0.44117878 -0.00163367 0.00000000
0.04933637 0.05460798 -0.00160006 0.00000000
4.21211789 0.06712118 0.00323706 0.00000000
0.95519444 0.99627579 -0.00093265 0.00000000
1.24219184 0.57050434 -0.00195190 0.00000000
0.69776566 1.10161933 -0.00137037 0.00000000
3.81844417 0.79978814 0.00372083 0.00000000
0.15157827 0.47808884 0.00091856 0.00000000
0.31851120 0.05097483 -0.00127356 0.00000000
1.07461000 0.27546474 0.00222940 0.00000000
1.54216503 1.50767994 -0.00112460 0.00000000
2.18287484 0.99278701 -0.00032416 0.00000000
2.20402407 1.29684584 -0.00080727 0.00000000
3.58392956 0.72165308 -0.00040967 0.00000000
2.73696220 0.17323163 -0.00357348 0.00000000
2.85920167 0.89787044 0.00021812 0.00000000
2.27050422 0.28435288 0.00257477 0.00000000
1.00418376 1.42898798 0.00147406 0.00000000
3.40254373 1.30935416 0.00089009 0.00000000
0.01890398 0.59382242 -0.00113716 0.00000000
0.92519115 0.34105358 0.00321924 0.00000000
3.69342497 0.02372599 -0.00167833 0.00000000
2.25804311 0.57218747 -0.00086627 0.00000000
3.61901618 1.36971344 0.00088296 0.00000000
2.50802691 0.87913090 0.00211143 0.00000000
1.25065156 1.14456678 -0.00270082 0.00000000
4.09834028 0.32963096 -0.00149461 0.00000000
1.92359955 0.83378409 -0.00005584 0.00000000
2.46555748 0.18302257 0.00197515 0.00000000
3.13915064 1.05549351 0.00332135 0.00000000
3.67749232 0.12556840 -0.00531686 0.00000000
3.52156864 1.49258679 0.00354758 0.00000000
0.68709906 0.90972221 -0.00059216 0.00000000
1.06927729 1.14218923 -0.00075469 0.00000000
0.88140525 1.63952476 -0.00368687 0.00000000
4.02543855 0.74688127 -0.00160777 0.00000000
2.82784339 1.17835946 0.00159148 0.00000000
1.18613145 0.03936867 -0.00260695 0.00000000
1.04889438 0.42427011 -0.00236872 0.00000000
3.82777213 1.46964069 0.00234195 0.00000000
4.16297561 0.79699320 -0.00051051 0.00000000
1.28520970 1.11587136 0.00116476 0.00000000
1.48037963 1.19562365 0.00109065 0.00000000
0.44860706 1.45639880 -0.00052062 0.00000000
0.81794966 0.35691657 0.00540261 0.00000000
2.87540922 0.95191247 -0.00305005 0.00000000
3.60276469 0.72127255 0.00010592 0.00000000
1.62289297 1.31123047 0.00145555 0.00000000
1.82156523 0.69323925 -0.00092262 0.00000000
1.06621162 0.68663505 0.00066222 0.00000000
4.25793307 1.20624286 0.00201450 0.00000000
0.74091715 0.33192492 0.00105805 0.00000000
3.41818628 0.10083790 -0.00206827 0.00000000
0.49313553 0.11399505 0.00082130 0.00000000
0.69046276 0.88662191 -0.00193128 0.00000000
0.42665293 0.95792425 -0.00911231 0.00000000
2.73184214 1.03349614 -0.00042854 0.00000000
0.20213696 1.18824930 -0.00196834 0.00000000
1.91173263 0.15772153 0.00262155 0.00000000
2.49676333 0.49199422 0.00229639 0.00000000
3.31392665 0.73633616 0.00106576 0.00000000
2.31242025 0.84910353 -0.00028315 0.00000000
4.10619446 1.20244649 0.00145624 0.00000000
1.28591733 0.22115791 -0.00065265 0.00000000
4.01167260 1.11343681 -0.00225894 0.00000000
0.58238675 1.50399657 0.00080096 0.00000000
2.57433489 0.25426173 0.00532445 0.00000000
0.07800861 0.91201463 0.00248994 0.00000000
3.86741841 1.06464849 0.00221897 0.00000000
3.11856876 1.64910408 0.00135841 0.00000000
3.17891972 0.00822597 -0.00308296 0.00000000
1.97296525 1.27933543 0.00546811 0.00000000
2.94003249 0.85631579 -0.00346457 0.00000000
0.59604387 0.64978162 -0.00480010 0.00000000
1.24499689 0.39263835 0.00115157 0.00000000
4.05438597 0.53572575 -0.00256315 0.00000000
1.00395243 0.11969637 0.00132313 0.00000000
1.59400437 0.49864875 0.00244230 0.00000000
3.45436546 0.67253182 -0.00127736 0.00000000
2.99650379 1.15871572 0.00170137 0.00000000
2.28766132 0.99834132 -0.00156147 0.00000000
3.43473844 0.08375811 0.00056122 0.00000000
3.32523003 1.56574956 -0.00361297 0.00000000
0.20601980 1.09329223 -0.00417699 0.00000000
3.95941811 1.01464780 0.00113633 0.00000000
3.18725145 0.42053091 0.00174674 0.00000000
0.13835278 0.05362926 -0.00012421 0.00000000
3.18028985 1.61800197 -0.00169037 0.00000000
2.16450125 0.88603058 -0.00110484 0.00000000
2.33753336 1.43158580 -0.00314966 0.00000000
0.43118704 1.55736015 0.00065292 0.00000000
2.92760588 0.39381602 -0.00494648 0.00000000
1.48837827 1.63565212 -0.00095197 0.00000000
2.11933293 1.11539032 -0.00040008 0.00000000
1.90396532 0.21974047 0.00260584 0.00000000
1.72256519 0.24132359 -0.00287902 0.00000000
3.57764418 1.18475900 -0.00215618 0.00000000
1.98111729 1.00041389 0.00127666 0.00000000
0.85736964 0.03115907 -0.00277759 0.00000000
0.35755385 1.33831029 -0.00014113 0.00000000
3.23054271 0.76820661 0.00059744 0.00000000
1.02501003 0.60426063 0.00072772 0.00000000
4.21482874 0.25647435 -0.00175972 0.00000000
2.73491758 0.51119569 -0.00164242 0.00000000
2.08130686 1.52144555 0.00154995 0.00000000
3.67173291 0.34871061 -0.00339327 0.00000000
3.55761978 0.96372916 0.00073571 0.00000000
1.85059890 0.54474497 -0.00156933 0.00000000
3.70137354 1.12242206 -0.00394517 0.00000000
1.37576053 1.44691217 0.00067390 0.00000000
1.17772253 1.41654025 -0.00019636 0.00000000
1.96624298 0.61897621 0.00088304 0.00000000
1.52053610 0.67072328 -0.00053631 0.00000000
2.04964890 1.07583224 0.00703909 0.00000000
1.10238224 1.32157135 0.00092911 0.00000000
4.01674996 0.04765819 -0.00270878 0.00000000
2.32710543 0.12854667 0.00210760 0.00000000
2.36075187 0.02765541 0.00379459 0.00000000
1.18366617 1.15091899 -0.00040724 0.00000000
2.07456742 0.79709607 0.00136396 0.00000000
2.59220885 1.07492614 -0.00110015 0.00000000
2.56736819 1.06742298 -0.00147856 0.00000000
0.77977576 0.53320565 -0.00163387 0.00000000
1.49704126 0.24686905 0.00088574 0.00000000
1.68980650 0.45487394 -0.00204240 0.00000000
0.75172060 1.36544324 -0.00465407 0.00000000
3.15747452 0.80279136 0.00291288 0.00000000
1.95134931 0.67464888 0.00078228 0.00000000
3.43286175 0.30910426 -0.00177009 0.00000000
2.47176416 1.13734454 -0.00224155 0.00000000
1.79503518 1.46525328 0.00390518 0.00000000
4.13645055 0.72869640 -0.00072143 0.00000000
3.67148925 0.30938171 0.00032557 0.00000000
3.06420572 1.34828261 0.00249695 0.00000000
3.81320623 0.40672144 -0.00160346 0.00000000
4.10610512 1.58325098 -0.00234510 0.00000000
1.60969700 1.51544684 -0.00085492 0.00000000
3.04836159 1.36476295 -0.00344942 0.00000000
1.77461316 0.98867635 -0.00306406 0.00000000
1.20561177 0.74080333 -0.00028126 0.00000000
4.15771094 1.33601822 -0.00221603 0.00000000
0.05258812 1.38779123 -0.00285426 0.00000000
0.89871418 1.13052067 -0.00591520 0.00000000
0.05617805 0.64933437 -0.00374176 0.00000000
1.16587730 0.62501588 -0.00182456 0.00000000
1.70918078 0.21152670 0.00540920 0.00000000
3.53105143 0.78359047 -0.00240921 0.00000000
3.13002974 1.16787279 0.00040195 0.00000000
0.46684787 0.97224921 -0.00056031 0.00000000
2.76120823 1.36936660 0.00230673 0.00000000
3.73939051 0.75057161 -0.00427119 0.00000000
3.06793301 0.14760438 -0.00164207 0.00000000
0.72398199 0.05275189 -0.00112040 0.00000000
2.82953587 0.78310335 -0.00050796 0.00000000
0.50971305 0.57254229 -0.00073335 0.00000000
0.21162294 0.91984677 0.00024752 0.00000000
0.56987168 1.09766785 0.00350282 0.00000000
3.89654521 0.78219231 0.00423526 0.00000000
0.46068745 0.17325754 -0.00172420 0.00000000
0.90559480 0.38977302 -0.00103851 0.00000000
2.77487991 0.28073543 -0.00114144 0.00000000
0.20837915 0.22776286 0.00091968 0.00000000
2.89406195 1.24076060 0.00194039 0.00000000
2.48547680 1.41363119 0.00167551 0.00000000
2.54746236 1.09444991 0.00582536 0.00000000
0.35964579 1.64213644 -0.00242581 0.00000000
3.88123022 1.60381213 0.00107270 0.00000000
2.30057526 0.60232480 -0.00370591 0.00000000
3.04560771 0.11218366 -0.00334433 0.00000000
4.17218215 0.59243572 0.00413814 0.00000000
1.46727208 1.33264648 -0.00155498 0.00000000
0.90568251 0.82414872 0.00007840 0.00000000
0.66687444 1.42316672 -0.00180814 0.00000000
1.34390820 0.97428077 -0.00713158 0.00000000
0.06512550 0.69084935 0.00387648 0.00000000
3.33092611 1.33248412 -0.00304876 0.00000000
2.10698950 0.46441304 0.00410149 0.00000000
3.39586777 1.58898542 0.00138944 0.00000000
0.29726664 1.62070958 -0.00053433 0.00000000
0.51287392 1.15052348 -0.00284308 0.00000000
4.26577016 1.12934236 0.00175115 0.00000000
0.97858056 1.50271301 0.00407517 0.00000000
1.31698575 1.41881743 -0.00098696 0.00000000
3.14321460 0.51206966 0.00548165 0.00000000
2.87783719 0.16678020 0.00222620 0.00000000
0.02635579 0.68800153 0.00258834 0.00000000
0.09619541 1.26048348 -0.00019256 0.00000000
3.15186353 1.51014997 -0.00431532 0.00000000
3.42685965 0.00005151 -0.00078408 0.00000000
4.08845594 0.51294572 -0.00287883 0.00000000
2.29789666 1.38258264 0.00271118 0.00000000
0.16392750 1.01158750 -0.00168212 0.00000000
2.82283553 1.48524728 0.00239133 0.00000000
1.28324018 0.38367425 0.00047572 0.00000000
3.06154211 0.63551341 -0.00226218 0.00000000
2.62291992 0.92367307 -0.00215210 0.00000000
0.30304302 0.17164850 -0.00172707 0.00000000
0.47328964 0.65317363 0.00118820 0.00000000
1.80482014 1.47934676 0.00067906 0.00000000
0.69598259 0.06691076 -0.00056424 0.00000000
4.00545872 1.35064081 0.00222209 0.00000000
2.64802693 1.48148604 0.00340287 0.00000000
0.03139871 1.37226049 0.00019487 0.00000000
3.49991388 0.02023985 0.00515786 0.00000000
1.88419784 1.41039010 0.00328678 0.00000000
1.14214687 1.29873234 0.00004198 0.00000000
1.96159884 1.27206478 0.00017377 0.00000000
4.07804504 1.27310196 -0.00048499 0.00000000
0.88402369 1.63886767 0.00218676 0.00000000
0.23481540 0.14041173 -0.00328631 0.00000000
0.06416141 0.53237984 -0.00182001 0.00000000
2.58296770 1.44431789 0.00055621 0.00000000
2.52746029 1.17942623 0.00281840 0.00000000
3.32952143 0.47743685 -0.00087109 0.00000000
2.77703100 0.35479540 -0.00125502 0.00000000
0.02788176 0.24283042 -0.00039251 0.00000000
2.90700463 0.65201286 0.00072635 0.00000000
0.88917977 0.66953187 -0.00316677 0.00000000
0.66457012 1.31061435 -0.00134630 0.00000000
0.58509851 0.10412778 -0.00006304 0.00000000
1.23266027 1.11567586 0.00126367 0.00000000
1.64028926 0.60027488 0.00124594 0.00000000
1.27060412 0.37784412 -0.00342259 0.00000000
1.12317125 1.36261538 0.00093093 0.00000000
3.47607752 1.40976970 -0.00325181 0.00000000
3.54773440 1.42887843 -0.00028064 0.00000000
3.24758370 1.52634759 -0.00230214 0.00000000
3.24113164 0.26806038 0.00217259 0.00000000
2.98725772 0.84717886 0.00037027 0.00000000
3.10399033 0.58334745 -0.00066660 0.00000000
0.73787287 0.36961730 -0.00086193 0.00000000
1.06301829 0.02646852 -0.00164639 0.00000000
0.92791297 0.66776394 0.00349649 0.00000000
2.51060355 0.13127928 0.00063863 0.00000000
3.07398861 1.06499086 0.00299544 0.00000000
2.41264396 0.30059936 0.00270501 0.00000000
3.70197140 0.79137621 0.00282271 0.00000000
2.99261380 0.66916579 0.00587569 0.00000000
3.91519721 0.54446722 0.00651388 0.00000000
1.56897208 0.93298722 0.00628688 0.00000000
1.30228246 0.61956893 -0.00324625 0.00000000
2.80584185 0.87551048 0.00374191 0.00000000
2.95265814 1.10191894 -0.00355245 0.00000000
4.21709380 0.41616783 0.00170640 0.00000000
1.22637370 0.09585139 -0.00413269 0.00000000
3.00709971 0.86131935 -0.00261428 0.00000000
2.81754843 0.72859597 -0.00460777 0.00000000
1.63627459 1.05208836 0.00126864 0.00000000
0.63920326 1.40974797 0.00574562 0.00000000
3.62179263 0.27482038 -0.00288415 0.00000000
3.97890710 0.11359950 -0.00139077 0.00000000
1.26299010 0.43212561 0.00351814 0.00000000
1.74766753 0.86083129 0.00078693 0.00000000
3.33997836 1.53284579 -0.00192029 0.00000000
2.72822263 0.89270612 -0.00149635 0.00000000
0.40734933 1.03506453 0.00124883 0.00000000
2.67038023 0.00093545 -0.00178421 0.00000000
4.26637321 0.76292222 0.00102817 0.00000000
1.57084210 0.15661480 0.00293165 0.00000000
0.80694335 0.49080715 -0.00252722 0.00000000
0.27046871 0.52469166 0.00500688 0.00000000
2.35347054 1.02031059 0.00262281 0.00000000
2.00165349 0.14155600 -0.00020122 0.00000000
0.99539667 0.43508638 0.00072804 0.00000000
0.73437185 0.19025346 -0.00045873 0.00000000
1.84247695 0.27666317 -0.00054527 0.00000000
2.56940063 1.44670470 -0.00170805 0.00000000
3.83986931 0.77547262 -0.00316614 0.00000000
3.50417274 0.94933649 0.00147147 0.00000000
3.03879297 1.43606466 0.00042351 0.00000000
0.96148070 0.28865501 0.00177582 0.00000000
2.01957351 1.04773504 0.00148817 0.00000000
0.43025637 0.91392875 0.00179257 0.00000000
0.00819629 1.21607042 -0.00409445 0.00000000
3.21469094 0.09970467 0.00023259 0.00000000
1.21386930 0.64208472 -0.00058569 0.00000000
1.88258662 0.27320310 0.00082791 0.00000000
0.64812397 0.93365407 0.00097831 0.00000000
1.77651109 0.09070251 0.00018283 0.00000000
0.12283516 0.57262612 -0.00171182 0.00000000
3.59702210 1.19880072 -0.00139096 0.00000000
0.16536348 0.66329669 -0.00350296 0.00000000
0.94931655 1.24805724 -0.00222181 0.00000000
0.46398153 0.51227336 -0.00369820 0.00000000
2.80520368 0.76603507 -0.00160047 0.00000000
1.24678764 0.24601509 0.00188634 0.00000000
1.84377622 1.33238884 -0.00016491 0.00000000
4.07403828 0.09140775 0.00044350 0.00000000
1.57511284 0.99211612 0.00037558 0.00000000
1.20211355 0.07537622 0.00155860 0.00000000
1.58346863 1.15998429 -0.00102935 0.00000000
3.33744504 0.58153038 -0.00130037 0.00000000
3.68687230 0.49980212 -0.00100825 0.00000000
1.06639067 0.45683090 -0.00306221 0.00000000
1.44600576 0.10027154 0.00103998 0.00000000
1.58782791 0.55097734 -0.00248623 0.00000000
1.19610343 1.12308202 0.00455795 0.00000000
0.17362864 1.01382836 -0.00382790 0.00000000
2.96467007 1.56573974 -0.00037532 0.00000000
3.77950382 0.70674526 -0.00147802 0.00000000
2.02754433 0.66758148 -0.00346738 0.00000000
0.13685172 1.64161874 0.00430915 0.00000000
3.47746836 0.94973011 -0.00275210 0.00000000
3.34494271 1.17918039 -0.00210456 0.00000000
2.77857916 1.18489631 0.00038626 0.00000000
2.50987896 1.32339869 0.00028654 0.00000000
0.01037428 0.81405564 0.00143733 0.00000000
3.53337352 0.39511790 0.00100569 0.00000000
3.64149996 0.49634511 0.00033502 0.00000000
0.31040439 0.12323336 -0.00236082 0.00000000
2.86456484 0.87548820 0.00180816 0.00000000
3.16614696 0.65126359 0.00087779 0.00000000
0.83829315 1.40550550 0.00219621 0.00000000
1.51084545 1.10690685 -0.00256038 0.00000000
2.64670652 1.30772058 -0.00156107 0.00000000
3.27173874 0.62968859 -0.00026685 0.00000000
0.99764598 0.38824014 -0.00133501 0.00000000
1.03657574 1.04336495 -0.00162852 0.00000000
3.35925050 1.10649885 0.00058205 0.00000000
0.47993304 0.87722678 -0.00268155 0.00000000
2.48853461 0.32192069 0.00109555 0.00000000
3.00094282 0.17194813 -0.00573316 0.00000000
2.45839464 0.85003047 0.00275075 0.00000000
1.81288321 1.20066252 0.00326862 0.00000000
3.98232324 0.42843369 0.00025587 0.00000000
2.99513023 0.84288430 -0.00475584 0.00000000
1.64536316 0.09806906 0.00104718 0.00000000
3.52423418 0.79675018 0.00533916 0.00000000
3.42631006 0.55223009 0.00149390 0.00000000
2.90221334 0.20298295 -0.00034555 0.00000000
3.80488103 0.02886543 -0.00035480 0.00000000
3.28873941 0.33059093 -0.00012706 0.00000000
0.08555579 1.37132335 -0.00106989 0.00000000
1.65813042 0.44546875 -0.00020904 0.00000000
4.01966949 0.81719939 -0.00558545 0.00000000
0.98302802 0.57063643 0.00347452 0.00000000
2.18132357 0.65478679 0.00079850 0.00000000
3.70237786 1.60336014 -0.00135150 0.00000000
1.73253985 0.47704378 0.00373005 0.00000000
0.93494293 0.83160856 -0.00220924 0.00000000
2.18596327 0.84700157 -0.00225243 0.00000000
0.41830787 1.45286423 0.00040175 0.00000000
2.02274603 1.35550434 -0.00074878 0.00000000
2.18701982 0.35852212 0.00327612 0.00000000
2.81662621 0.02736064 0.00054228 0.00000000
3.92288254 1.38946986 -0.00311555 0.00000000
4.05113420 0.35079218 -0.00059344 0.00000000
3.30076346 0.34787853 0.00006745 0.00000000
1.53373307 0.01999380 -0.00014550 0.00000000
2.00879440 1.07182565 0.00343524 0.00000000
2.51886858 0.62818372 -0.00038546 0.00000000
4.06895051 1.00912898 -0.00253163 0.00000000
3.87210926 0.80616219 -0.00203522 0.00000000
3.87068705 0.25117694 -0.00373246 0.00000000
0.50276879 0.86659964 -0.00199194 0.00000000
3.17391183 1.34294966 0.00256758 0.00000000
3.40124152 1.16816871 -0.00193467 0.00000000
2.56175668 1.64913192 0.00014691 0.00000000
0.42660431 0.29242024 -0.00095193 0.00000000
1.87696314 1.54524446 -0.00123089 0.00000000
4.19158362 0.78878290 -0.00144169 0.00000000
1.08262225 0.38245367 0.00068943 0.00000000
0.89365384 0.23783926 0.00185624 0.00000000
3.90313254 0.57034026 -0.00087981 0.00000000
1.42282452 0.63230266 0.00590202 0.00000000
0.16069531 1.27105234 -0.00074934 0.00000000
2.71158925 0.86193197 -0.00023767 0.00000000
0.75905000 0.34059297 0.00138193 0.00000000
4.20936963 0.34357152 -0.00134512 0.00000000
1.01481483 0.07989093 0.00099202 0.00000000
0.45795574 0.35437733 0.00219217 0.00000000
0.02293226 1.41305805 -0.00226573 0.00000000
3.21734795 0.30691366 0.00321275 0.00000000
2.21431918 0.05361150 -0.00118935 0.00000000
2.19557435 1.41476480 -0.00068863 0.00000000
4.11111958 0.70473886 0.00266085 0.00000000
3.51848496 0.91524362 -0.00234900 0.00000000
2.43100791 1.09350084 -0.00106314 0.00000000
0.28686209 0.97171373 0.00092597 0.00000000
0.31877961 0.78197324 0.00553362 0.00000000
1.28425311 0.00023547 -0.00314227 0.00000000
0.62604162 0.69302313 -0.00269681 0.00000000
3.44689558 0.12553611 -0.00182663 0.00000000
3.66275624 0.33518068 -0.00447753 0.00000000
0.91938100 0.44873037 0.00157936 0.00000000
0.15650194 0.44065580 0.00199412 0.00000000
0.71426263 0.11787342 -0.00040456 0.00000000
3.86278887 1.16284957 0.00373522 0.00000000
0.59872218 0.48359390 -0.00291248 0.00000000
3.62947192 0.34991800 -0.00201589 0.00000000
0.85567995 0.87201667 0.00101693 0.00000000
3.63444710 0.76264844 -0.00187333 0.00000000
2.09392046 0.09380032 0.00264055 0.00000000
0.28860925 1.28341695 -0.00022602 0.00000000
2.88320716 1.10614923 0.00534101 0.00000000
2.00253178 0.08336629 0.00275920 0.00000000
3.05889516 0.98968974 -0.00359147 0.00000000
1.07630005 1.62025684 0.00227853 0.00000000
2.99331817 0.22202904 0.00382022 0.00000000
4.04068211 0.68538132 0.00030826 0.00000000
4.06747110 1.28739949 0.00150929 0.00000000
3.22357698 0.16641746 -0.00207448 0.00000000
3.52232887 1.37418178 0.00080997 0.00000000
3.85724903 1.12473077 0.00117282 0.00000000
3.04085878 0.15491508 0.00057896 0.00000000
1.83376609 0.70745187 -0.00170552 0.00000000
2.86828229 0.30466443 0.00036915 0.00000000
2.00045743 0.04243417 0.00266048 0.00000000
1.59935795 0.85618362 -0.00034514 0.00000000
3.29962848 0.08038325 -0.00302931 0.00000000
3.98758081 1.29307411 0.00200739 0.00000000
3.76393476 0.31308897 0.00422037 0.00000000
2.20738520 0.21225487 0.00268854 0.00000000
1.88463333 0.83083753 0.00056264 0.00000000
1.67664507 1.52450211 -0.00335365 0.00000000
0.08072470 1.50417650 -0.00120753 0.00000000
2.30175504 1.27668267 0.00077120 0.00000000
3.20030738 0.47483966 -0.00029745 0.00000000
0.43026875 0.97518629 0.00000946 0.00000000
0.70557025 0.64915733 -0.00284905 0.00000000
0.24121231 1.02421547 -0.00381443 0.00000000
2.03571571 0.96572189 -0.00171021 0.00000000
1.83834745 1.51388654 0.00621269 0.00000000
3.19219846 1.09060575 -0.00085781 0.00000000
2.53867490 0.41458781 -0.00015283 0.00000000
2.74128655 1.64781296 0.00165128 0.00000000
1.17664817 1.09701629 -0.00319560 0.00000000
1.86394581 0.54023694 -0.00087225 0.00000000
0.26465547 0.97582877 -0.00278577 0.00000000
0.61273139 1.31953329 0.00136575 0.00000000
0.03601594 0.39797470 0.00501840 0.00000000
1.94502976 0.47390476 0.00204959 0.00000000
4.07098211 0.68855320 0.00084615 0.00000000
3.27257047 0.07903225 -0.00241692 0.00000000
2.54803740 1.63967698 -0.00027963 0.00000000
1.77612143 0.60046835 0.00202765 0.00000000
3.93274058 0.29854884 -0.00228323 0.00000000
2.90903757 0.88271608 0.00200848 0.00000000
3.44629780 0.98954972 -0.00360993 0.00000000
3.89628242 0.62682928 -0.00247646 0.00000000
2.89217100 0.32076684 -0.00391657 0.00000000
0.51888474 0.89580502 -0.00074584 0.00000000
1.65105149 0.07885902 0.00117048 0.00000000
0.07090592 0.07984275 0.00197487 0.00000000
4.17471151 0.59356897 0.00258618 0.00000000
2.99661243 1.08019386 -0.00075469 0.00000000
1.94080514 1.41066755 0.00155935 0.00000000
0.84940859 1.18694813 -0.00298595 0.00000000
4.21400129 0.28695703 0.00191842 0.00000000
2.13591921 0.39722990 0.00029310 0.00000000
0.02112466 0.16003532 0.00117663 0.00000000
3.68155094 1.60824564 0.00188441 0.00000000
1.59751445 0.06310625 -0.00246983 0.00000000
1.61453625 0.41412950 0.00101982 0.00000000
0.41578359 0.25247209 -0.00407564 0.00000000
1.21925776 0.38024766 0.00126570 0.00000000
2.77331952 1.58644263 -0.00170067 0.00000000
1.61718412 1.64749276 -0.00054710 0.00000000
1.48717888 1.53180878 -0.00137059 0.00000000
2.77214672 1.62318729 0.00628664 0.00000000
3.27658245 0.70892112 0.00363548 0.00000000
1.06627707 0.19233521 0.00052527 0.00000000
2.98213445 1.63885711 0.00088038 0.00000000
3.82240601 0.32177252 -0.00056157 0.00000000
1.96152554 1.00196337 0.00388099 0.00000000
2.82814484 1.64135489 0.00203342 0.00000000
2.60455063 0.99893822 0.00174335 0.00000000
2.41668736 1.63550691 0.00262323 0.00000000
2.32439276 0.71257464 -0.00035476 0.00000000
3.67078211 0.21542456 0.00355365 0.00000000
2.14031892 1.02716128 -0.00161243 0.00000000
0.11492708 0.73098579 -0.00305610 0.00000000
1.06852795 1.10023584 -0.00291437 0.00000000
4.08742561 0.35486390 0.00839873 0.00000000
3.21201133 0.45372169 -0.00350249 0.00000000
2.37307723 0.50054116 0.00181867 0.00000000
2.26532795 1.48665990 -0.00137844 0.00000000
1.16009249 1.03825975 0.00194588 0.00000000
1.22724935 0.82736737 -0.00450731 0.00000000
2.22426983 0.13193004 0.00287814 0.00000000
1.93019876 1.23872009 -0.00285797 0.00000000
3.93090974 0.63668959 -0.00101403 0.00000000
3.61902617 0.87301758 0.00115935 0.00000000
1.26997933 1.62775146 -0.00174726 0.00000000
3.25019204 0.44193337 -0.00159922 0.00000000
2.28072943 1.40883634 -0.00204708 0.00000000
3.92703183 0.66815359 -0.00584604 0.00000000
3.55459272 0.27385824 -0.00143275 0.00000000
1.85713167 0.20234125 0.00446869 0.00000000
2.35708156 1.29667678 0.00043050 0.00000000
2.91840391 0.19643210 0.00287072 0.00000000
0.92771652 0.46645417 -0.00242524 0.00000000
1.60430237 1.60156211 -0.00331177 0.00000000
3.92444627 1.40062305 -0.00085867 0.00000000
1.33198977 1.27959000 -0.00173380 0.00000000
2.51889577 0.24623882 -0.00099601 0.00000000
0.85329954 0.11907057 0.00364508 0.00000000
1.03985694 0.58406445 0.00255709 0.00000000
2.29388128 0.15419674 0.00340830 0.00000000
0.68895901 1.09388655 -0.00770373 0.00000000
4.07824801 1.01820279 -0.00193610 0.00000000
1.06319167 1.22864498 0.00039021 0.00000000
0.57236598 0.58836318 0.00416543 0.00000000
1.91264416 0.23511482 0.00041966 0.00000000
0.23084030 1.13582746 -0.00029758 0.00000000
2.76092764 0.13788623 -0.00165489 0.00000000
3.05288955 0.66439835 0.00170881 0.00000000
2.80773972 1.49248746 -0.00028674 0.00000000
1.33740167 0.56197489 0.00123042 0.00000000
3.35729534 0.98643559 0.00519900 0.00000000
2.93607637 0.61935745 -0.00278454 0.00000000
1.78417120 0.18610187 -0.00169482 0.00000000
0.70204047 1.11981074 -0.00449763 0.00000000
1.51127420 0.88787730 -0.00170680 0.00000000
0.69121083 0.98561295 0.00351337 0.00000000
2.57112505 0.49656493 0.00330734 0.00000000
2.10428722 0.84702055 0.00266818 0.00000000
2.15476817 0.51978967 -0.00212767 0.00000000
1.82542944 0.90033029 -0.00023558 0.00000000
1.26738663 0.47044090 -0.00381054 0.00000000
0.97040010 0.19438139 -0.00583617 0.00000000
3.66649020 0.07808410 0.00110729 0.00000000
4.15155374 0.39946741 -0.00055969 0.00000000
2.97623176 0.12380756 -0.00186738 0.00000000
1.59575724 0.86714506 -0.00133162 0.00000000
2.76955702 0.72685484 -0.00563982 0.00000000
4.07539389 1.10067226 -0.00246002 0.00000000
2.59841743 0.66387603 -0.00183311 0.00000000
1.24449421 0.64804802 0.00199262 0.00000000
4.25971154 1.23685832 -0.00225548 0.00000000
1.49388460 0.15755791 0.00143755 0.00000000
2.80276434 0.39391648 -0.00208251 0.00000000
1.13659466 0.80110441 0.00218891 0.00000000
2.13756282 1.51876134 -0.00091268 0.00000000
2.53836695 1.23026195 -0.00129773 0.00000000
2.01590342 0.50848877 0.00022367 0.00000000
1.68825916 0.74610491 -0.00041023 0.00000000
1.19177289 0.26402511 -0.00020758 0.00000000
0.39179185 0.17445281 -0.00255710 0.00000000
2.77487183 0.63225467 -0.00069326 0.00000000
3.54214925 1.24936305 0.00150865 0.00000000
2.31658018 0.75083914 0.00190150 0.00000000
3.44917436 1.07256810 -0.00218474 0.00000000
0.05734003 0.39948694 -0.00310213 0.00000000
3.07513741 0.49308574 -0.00279890 0.00000000
0.12790885 1.19986520 -0.00095404 0.00000000
2.21330819 0.86754123 -0.00237280 0.00000000
0.25126779 0.63600893 0.00068612 0.00000000
1.76079412 0.59660311 0.00357567 0.00000000
2.93045888 1.19755881 0.00299568 0.00000000
4.09622045 0.58685194 -0.00046113 0.00000000
3.82921543 1.61574531 -0.00228910 0.00000000
1.10806690 0.89482844 0.00329103 0.00000000
3.62699192 0.20766597 -0.00082949 0.00000000
1.54380740 1.18103682 -0.00175607 0.00000000
1.13004451 1.07856235 0.00745454 0.00000000
4.13013077 0.98894143 -0.00123645 0.00000000
2.32312074 0.47377274 0.00452835 0.00000000
0.33805111 1.03480750 0.00234433 0.00000000
2.95306925 1.53327921 -0.00062429 0.00000000
4.00597407 1.57030918 -0.00085436 0.00000000
4.13584327 0.96697688 0.00212492 0.00000000
4.21346882 0.92113013 -0.00255684 0.00000000
2.04641829 1.62519409 -0.00201483 0.00000000
1.88129977 0.75524590 0.00115242 0.00000000
3.59708816 0.16643439 -0.00392958 0.00000000
0.62607211 0.62337599 0.00076314 0.00000000
0.74276671 1.36547792 0.00264216 0.00000000
0.95740484 1.60061070 -0.00304228 0.00000000
0.74708425 0.80467236 -0.00023451 0.00000000
2.81956628 1.02736201 0.00509351 0.00000000
2.22876534 0.66483170 -0.00008039 0.00000000
1.71554824 0.94318942 0.00512809 0.00000000
4.07070116 0.55263887 -0.00218443 0.00000000
0.67909152 0.33503241 -0.00094001 0.00000000
1.16635060 0.41331256 0.00233841 0.00000000
3.62795947 0.92153101 0.00345989 0.00000000
2.17043006 1.38767528 -0.00280359 0.00000000
1.36247718 0.67626430 -0.00186027 0.00000000
2.66533611 1.58418760 0.00098513 0.00000000
1.23911049 0.77147915 -0.00227998 0.00000000
0.26266558 0.85461962 0.00119824 0.00000000
0.65497178 1.49954174 -0.00020396 0.00000000
2.82383579 0.27085847 -0.00164684 0.00000000
1.34032975 0.86334056 -0.00180767 0.00000000
0.92293369 0.85589857 0.00251380 0.00000000
0.26601700 1.35328287 0.00369964 0.00000000
1.19823782 0.05303025 -0.00278889 0.00000000
1.03604288 0.92883755 0.00486628 0.00000000
2.52986675 0.19046447 -0.00008605 0.00000000
2.77429492 0.94391776 -0.00464139 0.00000000
2.54999987 1.56259670 -0.00022208 0.00000000
1.23308049 0.55656516 -0.00040116 0.00000000
0.06951291 0.36792161 0.00178674 0.00000000
1.58710527 0.95293288 -0.00233736 0.00000000
3.29142819 1.46398333 -0.00171753 0.00000000
1.96876472 0.51779444 -0.00175274 0.00000000
0.09063385 0.09982353 0.00062629 0.00000000
3.58031523 0.75088666 0.00143255 0.00000000
3.27903142 0.17180775 0.00234628 0.00000000
3.13355682 1.50986643 -0.00105003 0.00000000
2.91689681 1.36655788 -0.00164238 0.00000000
0.17480011 1.56700624 -0.00223841 0.00000000
1.33825452 0.06127086 0.00036321 0.00000000
3.46445954 1.09490742 0.00760337 0.00000000
1.80163276 1.28542529 0.00049114 0.00000000
3.31561925 0.83697048 0.00141544 0.00000000
2.40537494 0.24309335 0.00089106 0.00000000
2.22257663 1.21783384 0.00214496 0.00000000
3.92225510 0.88217184 0.00292837 0.00000000
3.02601402 1.25754858 -0.00371058 0.00000000
0.47075479 0.73038232 0.00077254 0.00000000
1.51603850 0.12157475 -0.00087149 0.00000000
3.39008756 1.61793807 0.00035077 0.00000000
1.20256650 0.78899600 0.00190628 0.00000000
2.46544989 0.57829515 0.00476815 0.00000000
0.78723655 0.09577884 -0.00146570 0.00000000
0.70224131 1.38232081 0.00274934 0.00000000
3.36405374 0.19828128 0.00545471 0.00000000
2.93459511 0.87126806 -0.00142124 0.00000000
1.09763939 0.30912916 0.00221620 0.00000000
2.80118725 0.21367234 -0.00045870 0.00000000
2.15254209 1.59779439 -0.00248138 0.00000000
0.23980583 0.40603795 -0.00095966 0.00000000
3.58550057 1.04504012 -0.00212923 0.00000000
2.36670853 0.69075774 0.00147117 0.00000000
2.71423725 1.23295583 0.00207545 0.00000000
1.67778008 0.44068298 -0.00031655 0.00000000
0.65114265 0.84973523 0.00040744 0.00000000
4.12952826 1.40091675 0.00252756 0.00000000
0.69563026 1.61166455 -0.00280749 0.00000000
2.09987007 1.54999054 0.00183672 0.00000000
1.50060582 0.21913677 -0.00264891 0.00000000
0.75767757 1.33518479 -0.00054998 0.00000000
1.55039635 1.21362065 0.00177179 0.00000000
2.87096176 1.41687060 0.00678930 0.00000000
3.10264452 0.26712974 -0.00223274 0.00000000
3.24722573 0.63271667 0.00087166 0.00000000
1.00340223 1.14729952 0.00053760 0.00000000
4.18302686 1.00143142 -0.00183869 0.00000000
4.24558613 0.18258069 -0.00129022 0.00000000
3.62211122 0.73160326 -0.00014157 0.00000000
3.60045611 0.30849775 -0.00295416 0.00000000
1.42019531 1.21460853 0.00169642 0.00000000
0.29195905 1.26377577 0.00145774 0.00000000
3.49505880 0.86015766 -0.00235637 0.00000000
2.69654083 0.51682500 -0.00045191 0.00000000
1.24073808 0.88518063 -0.00153293 0.00000000
1.93130893 0.18697063 -0.00035024 0.00000000
3.67712833 1.16873516 0.00157951 0.00000000
0.05846512 1.57307281 0.00125967 0.00000000
3.85158717 0.62897334 -0.00252967 0.00000000
2.66683705 0.80767360 -0.00017304 0.00000000
2.45406469 0.36399603 0.00475637 0.00000000
4.13904463 0.15834473 0.00404735 0.00000000
0.40594686 1.01641574 0.00409112 0.00000000
0.32591916 1.43254324 -0.00039894 0.00000000
1.15791809 0.66506773 0.00221185 0.00000000
2.84554248 1.04215202 -0.00380565 0.00000000
0.36258168 0.35482876 -0.00007337 0.00000000
2.18507518 1.57886734 -0.00545532 0.00000000
3.83704365 0.89525140 0.00092470 0.00000000
4.00757847 1.07773667 -0.00497026 0.00000000
3.25233535 0.72252268 0.00451723 0.00000000
0.50434861 1.43178062 -0.00106096 0.00000000
4.18825726 0.58520814 -0.00160863 0.00000000
0.37878945 0.58191881 0.00263789 0.00000000
2.48018494 1.59788269 -0.00575898 0.00000000
2.60597675 0.88864009 -0.00096612 0.00000000
2.63046706 0.82503807 -0.00212607 0.00000000
1.53384129 1.23541645 0.00165589 0.00000000
1.54876207 0.89802458 0.00000591 0.00000000
2.11743506 0.23491182 -0.00374759 0.00000000
0.20133746 1.01679890 0.00094937 0.00000000
2.79197542 0.02994389 -0.00224386 0.00000000
2.53218376 0.10230658 0.00202472 0.00000000
3.53875684 1.44491102 -0.00341292 0.00000000
0.24442675 1.29859538 0.00222483 0.00000000
1.78799554 0.09913717 -0.00169363 0.00000000
3.33047846 0.92828658 -0.00074855 0.00000000
3.47283435 1.14829926 0.00130071 0.00000000
4.19265586 0.97414911 -0.00119453 0.00000000
3.07529968 0.98571320 -0.00185198 0.00000000
3.14119139 1.55853852 -0.00127072 0.00000000
2.19454948 0.31057811 -0.00245943 0.00000000
4.10202228 0.72732910 0.00145694 0.00000000
0.48170293 0.79156451 0.00096982 0.00000000
1.91700691 0.24123126 0.00096254 0.00000000
0.05336026 1.61661886 0.00292837 0.00000000
3.70178632 0.92556579 -0.00277600 0.00000000
3.63634067 1.07863903 -0.00153006 0.00000000
3.16487261 0.61051929 0.00041919 0.00000000
1.01647621 1.18716299 0.00155172 0.00000000
2.56646423 1.52927491 0.00026846 0.00000000
0.73725367 0.10670834 -0.00022224 0.00000000
0.08541134 1.26900576 -0.00142653 0.00000000
0.06648175 0.82619807 0.00075215 0.00000000
3.38303270 0.28691228 0.00065517 0.00000000
0.90329807 1.61906107 0.00212506 0.00000000
0.66522980 0.65391490 0.00184773 0.00000000
4.11639025 1.09846987 0.00297470 0.00000000
3.45121428 1.00091426 -0.00287759 0.00000000
0.50629095 0.36007885 0.00219615 0.00000000
0.82308843 1.63155780 0.00022196 0.00000000
0.76558344 0.91053843 -0.00280896 0.00000000
3.37556393 1.51328095 -0.00177760 0.00000000
0.56594453 0.15164500 -0.00038534 0.00000000
2.45764930 1.20762579 -0.00050265 0.00000000
0.03925526 1.45400047 -0.00368113 0.00000000
2.30353746 1.29174621 -0.00196593 0.00000000
0.55792269 0.38526012 0.00056700 0.00000000
3.76812083 0.90339894 -0.00189028 0.00000000
1.47879999 0.03156731 0.00045525 0.00000000
3.76170777 0.65865898 0.00056188 0.00000000
3.51267184 1.36860208 0.00447527 0.00000000
2.12768505 0.59497845 0.00335436 0.00000000
3.20874339 0.26260494 -0.00066188 0.00000000
0.41764207 0.72468485 -0.00118135 0.00000000
0.61631725 0.80787439 0.00067010 0.00000000
3.68496379 0.71369149 -0.00204040 0.00000000
2.18887534 0.99255785 0.00023313 0.00000000
4.06735231 1.20918740 -0.00270608 0.00000000
1.92913784 0.07297237 0.00079103 0.00000000
4.21719925 0.92694025 0.00261048 0.00000000
1.74547115 0.08289885 -0.00626628 0.00000000
1.90383212 1.16392270 0.00155253 0.00000000
1.56130921 1.26924783 -0.00270182 0.00000000
2.12751597 0.64521492 0.00069492 0.00000000
1.07708829 1.15380102 0.00334613 0.00000000
0.93092976 1.15390622 -0.00202251 0.00000000
3.59646806 1.34193816 0.00261344 0.00000000
0.82170245 0.41764858 -0.00361737 0.00000000
2.93581146 1.33129232 0.00429431 0.00000000
3.42015393 1.20731713 -0.00382721 0.00000000
3.80231776 0.32735575 0.00128850 0.00000000
3.32266829 0.56728970 0.00218172 0.00000000
2.77355790 0.71277898 0.00034580 0.00000000
2.23143235 0.30138498 -0.00083038 0.00000000
1.25574298 1.50090577 -0.00037948 0.00000000
1.02429041 1.32232019 -0.00030639 0.00000000
3.98878170 1.40762754 -0.00177978 0.00000000
2.59182879 0.46270931 0.00086586 0.00000000
2.89720236 0.67738123 -0.00210436 0.00000000
0.64891450 0.04924617 -0.00781895 0.00000000
2.19268486 0.34828084 0.00161902 0.00000000
3.82349502 0.83857539 -0.00209941 0.00000000
4.05808782 0.22226044 0.00068115 0.00000000
0.01146951 0.70817651 0.00144946 0.00000000
0.02413144 0.61496163 -0.00071826 0.00000000
1.60546474 0.90614813 -0.00249613 0.00000000
3.14442069 1.10409895 0.00191468 0.00000000
3.68319073 1.08563436 -0.00036719 0.00000000
1.91058037 1.43396340 -0.00143775 0.00000000
3.20158649 1.13624728 -0.00291556 0.00000000
1.53549104 0.03012728 0.00099758 0.00000000
3.70031485 1.12444054 0.00157133 0.00000000
4.22366328 0.07120721 0.00152260 0.00000000
0.23941330 1.30897449 -0.00091650 0.00000000
1.16768577 0.98274900 -0.00754632 0.00000000
2.27005104 0.25550860 -0.00079647 0.00000000
0.59588068 0.26574828 0.00234730 0.00000000
0.38836350 0.25891515 0.00260908 0.00000000
2.31866190 0.82764774 -0.00231189 0.00000000
4.04387145 0.90461367 -0.00354938 0.00000000
3.35571096 0.74273221 -0.00089839 0.00000000
3.90670928 1.46094545 0.00218290 0.00000000
1.91039659 0.71030157 0.00209468 0.00000000
4.03867022 0.93369104 0.00617267 0.00000000
2.59233169 1.15250774 -0.00446571 0.00000000
0.29772669 1.34201824 0.00090675 0.00000000
1.29551664 0.47038654 0.00008061 0.00000000
1.68219636 0.68994631 0.00113013 0.00000000
1.16403277 1.51911771 -0.00029060 0.00000000
0.37628729 0.00961928 -0.00124361 0.00000000
2.74308360 1.64858887 0.00793228 0.00000000
3.90989653 1.19569864 -0.00374438 0.00000000
3.02515742 0.49663913 -0.00104671 0.00000000
3.18082421 0.69531446 -0.00054890 0.00000000
0.44188137 1.53264071 -0.00167223 0.00000000
3.42092412 0.69173466 0.00118565 0.00000000
1.58217207 1.23853805 -0.00472009 0.00000000
0.57515259 0.53873205 -0.00075882 0.00000000
0.95443888 0.93382133 -0.00245257 0.00000000
3.05584649 0.24954843 -0.00490431 0.00000000
0.32655080 0.53520310 0.00229827 0.00000000
2.17858382 0.69831555 -0.00150867 0.00000000
3.71260847 0.92185937 -0.00030396 0.00000000
0.85758005 0.35905864 0.00154246 0.00000000
1.40327441 1.27669948 -0.00199516 0.00000000
2.69469571 0.77291394 0.00037802 0.00000000
3.22929842 1.19779013 -0.00582761 0.00000000
3.59035897 1.40794375 -0.00024553 0.00000000
1.18503688 1.63110004 -0.00521832 0.00000000
2.11831511 1.50243800 -0.00010468 0.00000000
3.05169957 0.76604491 0.00030645 0.00000000
1.91659581 1.54156015 -0.00344416 0.00000000
0.21796429 1.29473180 -0.00178973 0.00000000
2.63848207 0.75377021 0.00155183 0.00000000
1.17249095 0.02720681 -0.00019131 0.00000000
1.87449121 0.72862113 -0.00441350 0.00000000
4.15107400 0.94194459 0.00178324 0.00000000
0.28803827 0.28740587 0.00028894 0.00000000
4.01896948 1.63631575 -0.00053200 0.00000000
3.63151871 0.22512237 -0.00090602 0.00000000
1.78702057 1.45428193 0.00515916 0.00000000
2.14309836 0.76600252 0.00246090 0.00000000
1.10458675 0.52730166 0.00199185 0.00000000
1.06322056 0.29204055 0.00304686 0.00000000
2.77065419 1.38885476 0.00110439 0.00000000
2.47406637 1.45585110 0.00012578 0.00000000
2.77995653 0.21262533 0.00159988 0.00000000
0.10886515 1.51744401 -0.00264493 0.00000000
2.35375677 1.45502770 0.00184057 0.00000000
1.46491518 1.25498096 0.00207487 0.00000000
0.59007105 1.26605765 -0.00081970 0.00000000
3.86534323 0.85354252 0.00288265 0.00000000
1.81176309 1.29114560 0.00266319 0.00000000
2.54184172 1.33796095 0.00027376 0.00000000
2.20073293 0.40380122 -0.00016210 0.00000000
0.75825502 1.43302216 -0.00552928 0.00000000
1.96571192 1.25199269 0.00682471 0.00000000
1.70982654 0.45368137 0.00252572 0.00000000
0.05492306 0.48093378 0.00127615 0.00000000
1.12092249 1.40658501 0.00118751 0.00000000
0.79061856 0.93833081 0.00431707 0.00000000
1.59178695 0.92587778 0.00156798 0.00000000
0.35766688 0.33012173 0.00134933 0.00000000
3.99915040 0.80271621 -0.00042966 0.00000000
2.96627074 1.37155169 0.00293405 0.00000000
1.05226345 1.21410145 -0.00214638 0.00000000
1.87691213 0.44061612 0.00084325 0.00000000
2.52869804 0.02354212 0.00254610 0.00000000
0.20418012 0.52065029 -0.00219574 0.00000000
1.62568658 0.48198728 -0.00314059 0.00000000
1.73477316 1.55964889 0.00287020 0.00000000
1.51069912 0.90882421 -0.00235816 0.00000000
1.14638442 0.39514318 0.00504082 0.00000000
3.94460086 0.86935711 -0.00155829 0.00000000
3.20067401 0.13589506 0.00222975 0.00000000
4.18645217 0.65730128 -0.00090587 0.00000000
4.00277399 1.20316954 0.00272742 0.00000000
2.95670607 0.82192702 0.00105692 0.00000000
2.20199639 0.93992908 -0.00188316 0.00000000
3.36835956 0.29614455 0.00238903 0.00000000
2.13363717 0.85436903 0.00135716 0.00000000
3.61802023 0.46473361 0.00230851 0.00000000
2.47800447 0.24870573 0.00105018 0.00000000
1.30680493 1.02870534 -0.00033188 0.00000000
0.61777288 1.45364743 0.00043960 0.00000000
3.31960071 0.30006627 0.00006660 0.00000000
2.11893354 1.10551361 -0.00062581 0.00000000
2.24015530 0.23738115 0.00554433 0.00000000
2.51681136 0.50056681 0.00099845 0.00000000
2.08137595 0.68733540 0.00445380 0.00000000
3.39194453 0.91193772 -0.00128005 0.00000000
1.55975084 1.22538298 0.00178995 0.00000000
4.01974674 1.25373721 -0.00025056 0.00000000
3.88866984 0.89480840 -0.00329254 0.00000000
2.02004445 1.50016515 -0.00438102 0.00000000
2.94787574 0.69474187 -0.00311079 0.00000000
4.21154439 0.38853925 0.00012847 0.00000000
0.68745902 0.99271543 -0.00083943 0.00000000
3.14744269 0.27207867 0.00051217 0.00000000
3.31612605 0.33397018 0.00600533 0.00000000
1.92792110 1.31586038 0.00114536 0.00000000
1.03776662 1.35909039 -0.00091911 0.00000000
0.09343486 0.17206327 -0.00102018 0.00000000
3.68677304 0.89674754 -0.00014177 0.00000000
0.41445080 1.09096613 -0.00183893 0.00000000
3.47163371 0.72775224 0.00256095 0.00000000
0.39247493 0.32292667 0.00251554 0.00000000
1.60995238 0.28960315 -0.00114545 0.00000000
4.13051173 1.05297012 0.00279085 0.00000000
3.19282373 0.97062241 0.00505083 0.00000000
2.76926481 0.27761621 0.00098121 0.00000000
1.79778504 0.90766065 0.00153203 0.00000000
1.99897638 0.63044160 -0.00059736 0.00000000
0.27205158 0.67678787 -0.00018819 0.00000000
2.98485786 0.01753020 0.00215708 0.00000000
2.05316352 1.43702451 -0.00240632 0.00000000
2.43987096 1.01596374 0.00199442 0.00000000
1.74140970 0.80865503 0.00093940 0.00000000
2.27957643 1.50583660 0.00129905 0.00000000
1.69013124 0.70470613 -0.00453816 0.00000000
2.44501876 1.13813551 0.00210368 0.00000000
3.56275790 1.04311058 0.00124588 0.00000000
0.71920245 1.00245107 0.00198464 0.00000000
3.60839841 0.18794329 -0.00079018 0.00000000
1.35030847 0.88627935 0.00321401 0.00000000
0.99783891 0.16519643 0.00222716 0.00000000
3.57763008 0.57410747 0.00235653 0.00000000
3.19272875 0.02308602 -0.00073282 0.00000000
3.57397807 0.91888361 -0.00203657 0.00000000
3.18971328 0.52936021 0.00182493 0.00000000
0.92849284 0.22624040 0.00063791 0.00000000
0.83818512 0.71994393 0.00107347 0.00000000
4.08049359 0.83454117 0.00007126 0.00000000
3.20410662 0.62449957 0.00022691 0.00000000
2.91729621 0.62787049 0.00188268 0.00000000
2.05423606 0.73969419 -0.00216558 0.00000000
0.54563330 1.40538238 -0.00185074 0.00000000
0.48622087 1.18272619 -0.00333858 0.00000000
1.92793522 0.10284888 0.00074502 0.00000000
3.16858757 0.69987829 0.00023042 0.00000000
2.45162419 1.50305181 0.00003596 0.00000000
2.44636809 0.67287127 0.00242240 0.00000000
3.32865829 1.23826184 0.00225062 0.00000000
3.22622504 0.38622024 0.00023117 0.00000000
2.29206629 1.04134014 0.00303768 0.00000000
1.67332806 0.83844790 -0.00290775 0.00000000
2.95336752 0.76508876 -0.00078361 0.00000000
1.42373986 0.64253891 0.00106657 0.00000000
1.52341575 1.10173952 -0.00436367 0.00000000
4.00972746 0.23019936 0.00420675 0.00000000
2.40465545 0.81416663 -0.00158744 0.00000000
0.03674680 0.31990125 -0.00427826 0.00000000
2.07946061 0.09468638 -0.00461096 0.00000000
1.56539105 0.90974454 -0.00308950 0.00000000
0.93775989 0.58150903 0.00195219 0.00000000
0.78332153 1.57835958 -0.00217595 0.00000000
0.19541019 0.64875087 0.00335056 0.00000000
0.34696234 0.48953402 -0.00363356 0.00000000
0.35931613 0.62469571 0.00460760 0.00000000
1.51464553 1.52681307 0.00263526 0.00000000
2.97335567 0.02313328 -0.00125150 0.00000000
3.80186400 0.98431820 -0.00086175 0.00000000
3.71603313 1.24382000 -0.00251116 0.00000000
3.20255469 0.55054729 -0.00173429 0.00000000
3.61798382 0.75006827 0.00326690 0.00000000
1.74675652 0.22901855 0.00158515 0.00000000
3.19377570 0.86247446 0.00234832 0.00000000
0.07399284 1.06466404 0.00273821 0.00000000
3.55634990 0.38483779 0.00063773 0.00000000
1.28291110 1.27534514 0.00395512 0.00000000
1.33644476 0.44537283 0.00015064 0.00000000
0.06951545 0.58860471 -0.00029295 0.00000000
1.82508466 1.41545534 0.00230543 0.00000000
3.09452562 1.58197513 -0.00428329 0.00000000
2.92795914 0.57327619 -0.00062600 0.00000000
3.75846858 0.63906127 -0.00014763 0.00000000
0.34695621 1.00862091 0.00083332 0.00000000
0.04971754 0.17715106 0.00022052 0.00000000
1.89976727 1.41890206 0.00352213 0.00000000
1.24498227 0.70066293 -0.00241228 0.00000000
2.06257115 0.79263549 -0.00456793 0.00000000
0.26858033 0.70055855 0.00045903 0.00000000
3.77640032 0.00570347 0.00449129 0.00000000
3.72521681 0.69826101 0.00149945 0.00000000
2.72447168 0.28997356 0.00076729 0.00000000
3.13527996 0.53481024 -0.00149830 0.00000000
1.36048533 1.10123708 -0.00238940 0.00000000
0.18118607 0.93286648 0.00268433 0.00000000
0.34800652 0.78962411 0.00027726 0.00000000
1.64861518 0.48202800 -0.00007883 0.00000000
1.65562101 0.65458432 0.00034365 0.00000000
0.10771007 1.47881208 0.00464260 0.00000000
0.23885787 0.51861262 0.00329629 0.00000000
2.08602238 1.32895238 -0.00204831 0.00000000
3.36748293 0.64286803 0.00645467 0.00000000
2.24222994 1.04267379 -0.00316402 0.00000000
3.98770966 0.33678901 0.00091513 0.00000000
3.95346226 0.86587406 0.00242742 0.00000000
4.14933692 0.33129591 0.00433107 0.00000000
0.41181800 0.54698790 0.00071672 0.00000000
0.58170553 1.59948351 0.00357109 0.00000000
1.21943807 0.19977862 0.00026757 0.00000000
1.20554789 0.69134661 -0.00091388 0.00000000
3.93952402 1.27507237 0.00170287 0.00000000
2.22626973 0.08888326 0.00169504 0.00000000
1.73306343 1.22190002 -0.00311567 0.00000000
2.75304854 0.49039853 -0.00074071 0.00000000
1.80825848 0.11545166 -0.00331010 0.00000000
3.23553639 1.32714509 -0.00181668 0.00000000
2.94089909 0.56515494 0.00195275 0.00000000
2.07486765 0.09792166 0.00436448 0.00000000
3.63703494 1.10635131 -0.00297819 0.00000000
0.44765886 0.13740880 0.00085902 0.00000000
2.66132149 1.05223430 0.00040110 0.00000000
0.59293819 1.48194714 -0.00026000 0.00000000
0.82323188 1.40305831 0.00060143 0.00000000
3.81814614 0.66387949 -0.00624425 0.00000000
1.02049153 1.31912792 -0.00143201 0.00000000
2.99441069 0.80411047 0.00766849 0.00000000
4.05902771 1.26999886 -0.00022052 0.00000000
4.18098193 0.73010532 0.00104810 0.00000000
0.42101497 0.63474995 0.00008243 0.00000000
1.80910815 1.62462673 0.00401846 0.00000000
1.79996007 0.67654126 0.00049983 0.00000000
2.75242186 1.58078873 -0.00017567 0.00000000
1.99957074 1.44172177 -0.00482169 0.00000000
0.70123653 0.92545946 0.00038404 0.00000000
2.74735788 1.00000858 -0.00028125 0.00000000
0.44169353 1.03272629 0.00096720 0.00000000
3.96773775 1.17958295 0.00021675 0.00000000
3.80946040 1.52809837 -0.00357608 0.00000000
0.21354299 0.11240659 0.00036059 0.00000000
0.24662681 0.57404145 -0.00176290 0.00000000
3.85680944 0.39608489 0.00195686 0.00000000
1.96597217 0.38976691 -0.00334144 0.00000000
0.54757183 0.13674576 -0.00232874 0.00000000
0.57003660 0.35967282 0.00001968 0.00000000
2.41625715 1.22000201 0.00658754 0.00000000
0.96639589 0.36071207 0.00542842 0.00000000
1.10964582 1.26856923 -0.00147484 0.00000000
0.36362492 1.57666161 0.00146241 0.00000000
1.75653545 1.03877403 -0.00115462 0.00000000
3.98982205 0.40709678 -0.00053089 0.00000000
2.33674626 0.81140556 -0.00082671 0.00000000
3.45350069 1.06271730 -0.00153108 0.00000000
1.55362267 0.20150910 -0.00218748 0.00000000
2.65593740 0.12440874 -0.00589760 0.00000000
1.24925612 0.02495887 0.00045889 0.00000000
2.54812808 1.32179341 -0.00044142 0.00000000
3.93853716 1.41396928 0.00267642 0.00000000
2.81981530 0.19210684 0.00175295 0.00000000
1.13621113 0.18301851 0.00267448 0.00000000
1.94897157 0.08642776 -0.00088853 0.00000000
1.26614674 1.08703724 -0.00021040 0.00000000
3.86918611 1.39301091 -0.00062148 0.00000000
2.49065157 1.59832403 0.00000941 0.00000000
3.78436828 1.03884489 0.00261155 0.00000000
1.71754407 0.81343709 -0.00187680 0.00000000
1.69217345 0.16195269 0.00010933 0.00000000
2.53384228 0.01283099 0.00029964 0.00000000
0.95925671 0.28199592 0.00008153 0.00000000
3.58134239 0.32710320 -0.00093929 0.00000000
1.96280507 0.88740800 0.00188301 0.00000000
1.51390977 1.56747830 0.00183194 0.00000000
3.89622107 0.68557515 -0.00476167 0.00000000
2.42771505 0.09468070 -0.00251341 0.00000000
3.05772019 1.12434995 -0.00015908 0.00000000
0.00229349 0.66893146 -0.00089780 0.00000000
2.09223717 1.29693087 0.00581187 0.00000000
2.30531408 0.97583361 -0.00279800 0.00000000
2.32019213 0.27227981 0.00084603 0.00000000
3.87177321 1.19780340 0.00288396 0.00000000
2.51040814 1.63925402 -0.00124647 0.00000000
1.16249235 1.01633395 0.00219062 0.00000000
3.66030374 0.35585641 0.00239575 0.00000000
1.57510847 1.44584790 0.00276540 0.00000000
3.90426593 0.29436973 -0.00162019 0.00000000
1.25576637 0.49478508 0.00352566 0.00000000
1.58656842 1.60723268 -0.00266521 0.00000000
2.08038334 0.13495420 0.00389208 0.00000000
1.02721712 0.95711046 -0.00393141 0.00000000
1.11196906 0.71689100 0.00281225 0.00000000
1.12637308 0.63407058 0.00091784 0.00000000
0.60849130 0.49737221 0.00162950 0.00000000
2.90180406 0.77331620 -0.00186060 0.00000000
2.79815722 0.62443946 -0.00221149 0.00000000
3.77293834 0.41024642 -0.00120734 0.00000000
0.11219131 0.47682377 -0.00415827 0.00000000
2.89226342 0.16507604 -0.00236230 0.00000000
0.33066237 1.39762613 -0.00164894 0.00000000
1.47408977 0.08619463 0.00033853 0.00000000
4.23534110 1.23960824 0.00237695 0.00000000
1.40172038 0.21271291 -0.00041647 0.00000000
2.24350738 0.61919475 0.00571688 0.00000000
1.42121633 1.44374526 0.00011457 0.00000000
3.93162947 1.29761709 -0.00205719 0.00000000
3.82849984 0.59572236 0.00294184 0.00000000
2.51134680 1.08254062 0.00025524 0.00000000
0.92333321 1.40667829 -0.00063254 0.00000000
2.60246288 0.01065508 0.00710399 0.00000000
2.83197969 1.10099047 -0.00187398 0.00000000
0.54123464 0.01924794 -0.00373849 0.00000000
3.63419711 0.41926136 0.00143511 0.00000000
0.38514078 1.05752168 0.00049356 0.00000000
1.49631087 1.35257959 -0.00095107 0.00000000
1.02695097 1.52239884 0.00183722 0.00000000
0.42139582 0.70750136 -0.00032306 0.00000000
