1.11039544 0.43688549 0.00182453 0.00000000
2.25662708 1.27606800 0.00509299 0.00000000
0.44254611 1.46427780 -0.00253107 0.00000000
2.03061600 1.50260988 -0.00201221 0.00000000
2.76995415 0.20409654 0.00096449 0.00000000
3.32017013 0.62334699 0.00070288 0.00000000
4.00612592 1.84653043 0.00138593 0.00000000
1.70763552 1.39970205 0.00108080 0.00000000
1.45052832 0.18884117 -0.00164596 0.00000000
2.10127819 1.50115849 -0.00098210 0.00000000
4.25199809 1.15599144 -0.00345700 0.00000000
1.04993770 0.23477427 -0.00149571 0.00000000
0.09405761 0.58224513 0.00203212 0.00000000
3.39369318 1.79985470 -0.00571239 0.00000000
3.69111768 1.66478513 -0.00028408 0.00000000
4.66971862 0.07402619 0.00043206 0.00000000
3.25889987 0.41154796 -0.00637507 0.00000000
1.89361154 0.51581386 -0.00066478 0.00000000
3.78292581 0.87769440 0.00605858 0.00000000
3.99029210 0.36783862 -0.00090197 0.00000000
2.87927359 2.01047231 -0.00245969 0.00000000
4.48816966 0.44078274 0.00187266 0.00000000
0.91069227 1.41823224 0.00474700 0.00000000
0.38092923 1.33207739 -0.00003250 0.00000000
2.67336922 0.17242922 -0.00082075 0.00000000
2.64195469 1.16059975 -0.00018463 0.00000000
0.16086153 1.46412407 -0.00235138 0.00000000
3.70915121 0.78253991 0.00039038 0.00000000
1.19699778 1.12402674 -0.00173100 0.00000000
2.93831785 0.57079423 -0.00138844 0.00000000
0.44245053 0.54685435 0.00564323 0.00000000
4.41256083 0.34255001 0.00025685 0.00000000
4.49996830 0.75923160 -0.00410470 0.00000000
1.73662229 1.28488080 0.00137089 0.00000000
2.28133409 1.26218533 0.00076898 0.00000000
3.19489412 0.04993658 0.00241792 0.00000000
4.11607901 0.98374186 0.00110903 0.00000000
0.95175066 1.78650187 -0.00375194 0.00000000
0.20496361 2.14863652 -0.00250444 0.00000000
4.67838863 1.59134715 -0.00403456 0.00000000
2.10512229 1.70615582 -0.00036484 0.00000000
4.33415728 2.22869874 -0.00253214 0.00000000
0.79145018 0.13218613 0.00012398 0.00000000
1.24482679 2.06117514 0.00416416 0.00000000
1.74649725 0.62001013 -0.00156756 0.00000000
1.36883348 1.14794527 -0.00106057 0.00000000
0.36777215 2.10230177 0.00035236 0.00000000
4.41714113 1.80184633 -0.00033349 0.00000000
1.96906827 1.81046397 0.00078557 0.00000000
1.21158845 0.10652845 -0.00068501 0.00000000
1.78363518 2.24543253 0.00159345 0.00000000
1.74011725 0.54357734 -0.00166888 0.00000000
3.24894897 1.32026255 0.00191912 0.00000000
2.76547930 2.29006912 -0.00048067 0.00000000
0.91796523 0.80341160 -0.00211094 0.00000000
0.79052504 1.16136371 -0.00206468 0.00000000
2.08715204 2.05794184 -0.00019349 0.00000000
1.63475570 1.99157558 0.00217725 0.00000000
0.50597267 0.56908327 -0.00351582 0.00000000
0.26757129 0.20824561 0.00028668 0.00000000
1.88390452 1.57512815 -0.00371014 0.00000000
2.45357814 1.54956716 0.00261824 0.00000000
3.97826113 1.31695085 0.00043816 0.00000000
0.08051223 1.21727348 -0.00059618 0.00000000
2.61586180 1.26513251 -0.00204876 0.00000000
3.36964633 2.17276980 -0.00337368 0.00000000
2.86822354 1.41881212 -0.00346168 0.00000000
0.84283012 0.04141818 0.00060229 0.00000000
3.03018618 0.93780160 -0.00046804 0.00000000
4.62641358 0.54118537 0.00036834 0.00000000
4.56973499 0.56583602 0.00127438 0.00000000
4.50279776 0.91719017 0.00206455 0.00000000
4.41320215 1.58368045 -0.00383995 0.00000000
1.76695446 1.51871732 -0.00360800 0.00000000
3.66891638 0.54600288 0.00175669 0.00000000
0.38957823 1.72415825 0.00178780 0.00000000
0.24455297 0.69809772 0.00029292 0.00000000
4.70537229 0.38930242 -0.00120536 0.00000000
3.74729602 1.08186644 0.00393701 0.00000000
1.21442197 1.01818003 -0.00015433 0.00000000
2.27874624 1.92730003 0.00223962 0.00000000
2.13098112 2.25820205 0.00294366 0.00000000
0.45701116 2.01488923 -0.00155807 0.00000000
3.59258971 0.71531010 0.00116095 0.00000000
4.19137073 2.27158999 -0.00390898 0.00000000
1.62102903 0.05466341 -0.00135451 0.00000000
0.01504978 2.15607774 0.00312923 0.00000000
2.94479669 1.86750722 0.00128237 0.00000000
1.96988121 2.16044024 -0.00570969 0.00000000
1.70340962 0.09079143 -0.00306193 0.00000000
3.72631426 1.90031510 -0.00383523 0.00000000
4.16136467 1.75921540 0.00210282 0.00000000
1.86563675 1.74524258 -0.00058429 0.00000000
1.74372514 1.13755490 -0.00468058 0.00000000
2.92493415 1.44274661 0.00121078 0.00000000
3.80186975 0.40454440 0.00434376 0.00000000
0.28475730 1.67294689 0.00325512 0.00000000
1.32941492 2.07581768 -0.00051266 0.00000000
4.17569622 2.15070488 0.00295837 0.00000000
3.84177996 0.58949289 -0.00007512 0.00000000
2.95653307 2.21688785 0.00003001 0.00000000
4.44187333 0.19730464 -0.00271449 0.00000000
0.34425249 1.74819949 -0.00029914 0.00000000
1.37389192 1.13172255 -0.00456772 0.00000000
1.66580527 0.94624448 -0.00470247 0.00000000
3.59839656 1.50743746 -0.00224815 0.00000000
3.93204243 1.25274139 0.00059904 0.00000000
0.47475930 2.27298587 -0.00033700 0.00000000
0.92990717 1.50909017 0.00055109 0.00000000
2.65664440 1.35927184 -0.00405208 0.00000000
0.05526716 0.29687569 -0.00169873 0.00000000
2.86387577 1.60373817 0.00035990 0.00000000
2.57120990 2.00137046 0.00335720 0.00000000
2.50559613 0.84738887 -0.00336742 0.00000000
1.24413425 0.77691567 0.00218792 0.00000000
1.04621036 1.65343484 -0.00370392 0.00000000
4.60658911 0.49208225 0.00303103 0.00000000
3.65953805 0.19841929 -0.00425155 0.00000000
2.92173409 1.03365027 -0.00290103 0.00000000
0.71180533 0.47559438 -0.00408662 0.00000000
1.12844149 2.23552382 -0.00079274 0.00000000
3.80337252 0.81443350 -0.00221204 0.00000000
0.26419843 1.49154826 0.00252232 0.00000000
3.97084093 1.33422016 0.00039392 0.00000000
4.58316656 0.25054691 0.00177560 0.00000000
1.82537506 0.20972297 0.00202316 0.00000000
0.40230412 2.05063785 -0.00362531 0.00000000
0.39367395 0.53196263 0.00180066 0.00000000
4.15314160 1.29987166 -0.00193740 0.00000000
0.44369759 0.07926359 -0.00176704 0.00000000
2.95129512 1.66719400 0.00335463 0.00000000
0.28287522 1.82121571 -0.00155893 0.00000000
0.12602765 0.66725571 0.00220522 0.00000000
3.50470647 0.60452590 -0.00027630 0.00000000
0.46506848 0.46132939 -0.00195006 0.00000000
1.90605649 0.18942647 -0.00051239 0.00000000
1.29768816 1.79422120 -0.00000561 0.00000000
1.50237196 0.99326544 0.00093268 0.00000000
4.12827485 1.62859660 0.00325208 0.00000000
3.46074669 1.89077002 0.00287156 0.00000000
3.47439878 1.87861085 -0.00048741 0.00000000
4.23664733 1.96718883 0.00112888 0.00000000
3.18556494 1.45669905 0.00031284 0.00000000
2.88263891 0.90825448 0.00453804 0.00000000
3.50408552 0.51287438 0.00194556 0.00000000
4.61854627 1.02672845 -0.00383223 0.00000000
3.58856644 0.99486257 0.00198510 0.00000000
3.95625873 1.86485830 -0.00206612 0.00000000
4.69043909 2.10487079 0.00129338 0.00000000
0.12254943 1.35235329 0.00299153 0.00000000
4.43042573 1.21695958 -0.00472028 0.00000000
1.04334219 1.24131151 0.00075162 0.00000000
3.49459709 0.55998992 -0.00053251 0.00000000
3.54633253 1.20179499 0.00191353 0.00000000
0.65605440 0.21464564 -0.00302928 0.00000000
3.26132909 0.56283360 -0.00202322 0.00000000
1.09477092 0.74865375 -0.00101256 0.00000000
4.51001395 1.10929017 -0.00140568 0.00000000
0.57320950 2.24091401 -0.00368096 0.00000000
3.01007490 1.01579850 0.00220951 0.00000000
0.07728082 2.11299076 0.00119531 0.00000000
4.68761510 1.48491058 -0.00185556 0.00000000
3.62331038 1.11845799 0.00476515 0.00000000
1.15881980 1.44683766 -0.00169319 0.00000000
2.09861202 1.68586171 0.00218394 0.00000000
3.99070852 0.13401802 0.00074856 0.00000000
0.53240361 2.23214909 0.00019157 0.00000000
1.52023896 0.04653824 -0.00094504 0.00000000
3.68522073 0.70121207 0.00289693 0.00000000
3.92224684 0.04647279 -0.00505649 0.00000000
2.47171744 0.22026985 -0.00503814 0.00000000
3.65051191 1.21688092 -0.00431271 0.00000000
0.57911325 2.22482510 -0.00003662 0.00000000
4.60762831 2.28385924 0.00261367 0.00000000
1.59677843 1.11782140 0.00463977 0.00000000
1.49787851 1.15832297 0.00141943 0.00000000
2.27571559 0.59166683 0.00140887 0.00000000
3.08173229 1.47563387 0.00225250 0.00000000
0.38068491 1.86351660 0.00048934 0.00000000
0.29515124 0.50844820 -0.00110536 0.00000000
4.57138225 1.81336700 0.00262961 0.00000000
2.71016876 1.32959985 0.00105283 0.00000000
1.25184333 0.30489194 0.00055619 0.00000000
2.55403578 0.98184369 -0.00238683 0.00000000
2.90404521 0.66079546 -0.00028547 0.00000000
3.34341963 0.51526512 -0.00104371 0.00000000
2.44399280 1.48554812 0.00181590 0.00000000
3.27860949 0.53013010 -0.00164412 0.00000000
3.33016258 1.23618005 0.00195586 0.00000000
4.06852483 1.13548613 -0.00001729 0.00000000
0.42991004 0.93150269 0.00121432 0.00000000
4.49119451 1.25730283 0.00085026 0.00000000
3.69532493 0.21991321 -0.00178174 0.00000000
2.34996380 0.52451419 0.00008615 0.00000000
0.70939742 0.24258787 -0.00217145 0.00000000
2.76152272 0.51057864 0.00345266 0.00000000
2.96039918 0.04763816 0.00304803 0.00000000
4.56993755 1.00807177 0.00074279 0.00000000
1.72842441 2.10938956 -0.00398032 0.00000000
2.84867361 2.02702349 0.00614782 0.00000000
3.72228881 1.25903531 0.00030598 0.00000000
3.68564992 0.36630281 -0.00402447 0.00000000
1.85395503 0.66353289 -0.00401173 0.00000000
1.21150271 0.14631284 -0.00223264 0.00000000
2.53896010 1.74633123 0.00000554 0.00000000
2.84459321 1.70717337 -0.00272770 0.00000000
3.09713247 0.87065982 0.00106349 0.00000000
1.90496404 1.54701021 0.00254928 0.00000000
2.85552408 2.18887266 0.00019147 0.00000000
0.43749569 1.11446589 -0.00471190 0.00000000
3.04673533 1.90155212 0.00288207 0.00000000
2.81609641 1.02528509 0.00241813 0.00000000
1.74114964 1.66962693 0.00015707 0.00000000
1.52450900 0.03995812 -0.00023966 0.00000000
4.37840318 1.16972568 -0.00088503 0.00000000
4.04136033 0.03437506 0.00250454 0.00000000
1.52927085 1.39565907 0.00420909 0.00000000
0.80143309 0.89946440 -0.00002161 0.00000000
3.80137343 2.12882145 0.00175719 0.00000000
0.29932427 1.90684888 0.00359814 0.00000000
3.75758122 1.77603159 0.00574294 0.00000000
2.78833398 1.39291444 -0.00563192 0.00000000
4.60646460 0.48013092 -0.00180788 0.00000000
3.45737895 0.42634163 0.00293192 0.00000000
2.19982418 1.96886809 0.00126242 0.00000000
0.47866975 2.12435939 -0.00007002 0.00000000
1.29057515 1.26751659 0.00076165 0.00000000
3.81060612 0.48984522 0.00157438 0.00000000
0.16069969 1.02575665 0.00066778 0.00000000
0.29017619 1.04421954 -0.00031086 0.00000000
0.90156678 0.42950205 0.00090869 0.00000000
2.16068405 0.76886817 -0.00282002 0.00000000
3.87138085 0.39755646 0.00045068 0.00000000
3.11205981 0.36158048 -0.00315089 0.00000000
4.18017145 0.29053812 -0.00187078 0.00000000
0.01450458 1.83422627 0.00115531 0.00000000
4.11925005 0.62077742 0.00146606 0.00000000
2.26352107 0.20839703 0.00158857 0.00000000
1.79776027 1.13133498 0.00226730 0.00000000
2.68362564 0.63029867 0.00118053 0.00000000
3.89235726 0.70178572 -0.00088654 0.00000000
0.70622907 1.29792101 0.00400396 0.00000000
3.97503122 1.69456165 -0.00132791 0.00000000
1.54790128 1.45688814 0.00342712 0.00000000
2.28545257 0.23968685 0.00170808 0.00000000
4.36779379 1.74021173 -0.00163289 0.00000000
2.13617067 1.02773563 0.00016395 0.00000000
3.48711734 1.37211657 0.00213257 0.00000000
0.14022299 1.32221190 -0.00206834 0.00000000
2.20287963 0.65005616 -0.00215522 0.00000000
1.39343596 1.51317532 -0.00222178 0.00000000
4.38305107 2.27787128 -0.00153888 0.00000000
0.44521689 0.36739486 0.00121695 0.00000000
1.37131713 0.03567862 0.00418449 0.00000000
1.48221618 0.78161023 0.00545793 0.00000000
0.64593116 1.56650372 -0.00285999 0.00000000
3.51653548 2.17467176 0.00109680 0.00000000
4.31174545 1.20156743 0.00155360 0.00000000
1.63221444 1.12317273 -0.00021183 0.00000000
1.49775537 0.80716834 0.00086936 0.00000000
3.62657746 0.36324170 0.00207871 0.00000000
1.04807561 1.80786014 -0.00034541 0.00000000
3.13780020 0.87805734 -0.00067811 0.00000000
3.92368125 1.83997897 0.00073179 0.00000000
2.05484910 1.66839847 -0.00011347 0.00000000
1.29142483 0.16969421 -0.00097955 0.00000000
4.56961574 0.12390396 0.00084534 0.00000000
3.09020479 0.86520295 -0.00300420 0.00000000
0.06554956 0.15934731 -0.00276468 0.00000000
3.97066957 1.12547993 0.00624488 0.00000000
3.38167910 1.10995961 0.00012938 0.00000000
0.50123069 1.32101976 -0.00153953 0.00000000
2.62304981 2.00985185 0.00154974 0.00000000
0.68487724 0.66789183 0.00358114 0.00000000
3.73350910 0.70905471 0.00479723 0.00000000
2.24015551 0.38635753 -0.00205878 0.00000000
1.07771704 1.14839834 -0.00131680 0.00000000
0.63234029 1.71773807 -0.00026855 0.00000000
3.20889525 0.02583378 0.00580350 0.00000000
3.87757782 0.71066559 -0.00309609 0.00000000
2.77452747 2.04931001 -0.00465497 0.00000000
2.10590035 0.92787098 -0.00129077 0.00000000
0.70407671 0.45285820 -0.00064227 0.00000000
4.03801296 1.14851492 -0.00051548 0.00000000
0.93213765 1.15641925 0.00271867 0.00000000
4.44072285 1.52636160 0.00227769 0.00000000
1.46314492 1.98065692 -0.00344482 0.00000000
2.12306722 1.60482082 0.00041440 0.00000000
3.57446135 1.45285781 -0.00414201 0.00000000
2.84049022 1.76123928 0.00168754 0.00000000
4.39160577 1.62026310 -0.00109419 0.00000000
0.84003923 1.68077523 -0.00118650 0.00000000
3.17034514 1.91450029 0.00314585 0.00000000
2.74893964 0.85602054 -0.00352842 0.00000000
2.24694610 1.58380760 -0.00093999 0.00000000
0.14066076 1.60318983 0.00359816 0.00000000
2.00906365 1.73720902 -0.00075871 0.00000000
0.97132946 0.29227637 0.00210345 0.00000000
0.11840589 1.62850489 0.00011355 0.00000000
1.13813206 1.93074924 -0.00091840 0.00000000
0.49931242 1.49964070 0.00067142 0.00000000
3.64789107 1.06325885 0.00160462 0.00000000
1.91952642 0.00554543 0.00153021 0.00000000
0.61428141 0.62219913 -0.00252078 0.00000000
2.22155741 0.95541220 -0.00600704 0.00000000
2.03082114 0.95275081 0.00535177 0.00000000
3.96167503 1.60385039 0.00130333 0.00000000
0.73725616 0.43541073 0.00152040 0.00000000
3.95009913 0.72137497 0.00244671 0.00000000
1.50629125 1.94905013 -0.00128517 0.00000000
4.39194392 0.14053139 -0.00010485 0.00000000
1.08819400 0.79916442 0.00081836 0.00000000
1.90330527 0.02934103 -0.00290566 0.00000000
0.24190977 1.31386464 -0.00026836 0.00000000
2.86652172 1.20611907 0.00140609 0.00000000
0.06835347 0.48242248 -0.00287292 0.00000000
1.31697853 1.99772875 -0.00138535 0.00000000
3.37247760 0.79273179 0.00201409 0.00000000
1.86480574 0.21494971 -0.00168594 0.00000000
4.63927129 1.51133085 -0.00453696 0.00000000
1.23069095 0.16851174 -0.00013399 0.00000000
4.43293427 1.27576844 -0.00157404 0.00000000
0.71377900 2.11698927 -0.00081602 0.00000000
3.61489501 0.79028063 -0.00192651 0.00000000
2.56431540 1.37644825 0.00046246 0.00000000
2.09542992 0.43096641 0.00007563 0.00000000
4.22276177 1.63418136 -0.00311890 0.00000000
0.62676384 1.99649067 0.00033915 0.00000000
0.66935376 0.51242895 -0.00316174 0.00000000
0.64978932 0.62023546 0.00217971 0.00000000
0.93710278 0.25700716 0.00148856 0.00000000
1.63824743 0.28624372 -0.00428844 0.00000000
1.76726262 1.80192788 -0.00000106 0.00000000
0.12080279 1.35480454 0.00055700 0.00000000
3.40430875 0.97344890 -0.00289689 0.00000000
2.83014915 0.74194169 0.00114940 0.00000000
0.80868102 1.41937561 -0.00279629 0.00000000
3.61228301 1.20666471 0.00414468 0.00000000
4.37736572 1.32139497 0.00030291 0.00000000
3.43255569 1.66041562 0.00205555 0.00000000
3.83759393 0.26445983 0.00448885 0.00000000
0.96335486 0.48152600 -0.00176224 0.00000000
0.83331898 0.60707076 0.00248957 0.00000000
3.08721072 0.60741083 -0.00358210 0.00000000
4.17408599 1.13900301 -0.00228277 0.00000000
0.94773657 1.23420572 0.00136805 0.00000000
3.54056779 2.09042205 0.00332336 0.00000000
4.38242506 1.14053320 0.00139087 0.00000000
2.99849566 1.34961833 -0.00119946 0.00000000
1.10141850 1.65983225 0.00110186 0.00000000
1.78294952 2.22607696 -0.00127583 0.00000000
3.07532437 0.74530853 0.00227099 0.00000000
0.58041310 1.04850625 0.00183666 0.00000000
2.41771640 1.34665291 -0.00124881 0.00000000
1.98404068 1.29757271 0.00283460 0.00000000
1.60514296 1.18883315 -0.00115562 0.00000000
4.61067723 1.05856567 0.00731841 0.00000000
4.13132686 0.55650406 0.00098247 0.00000000
0.28299169 1.31248146 -0.00432623 0.00000000
4.72551215 0.24816311 0.00176712 0.00000000
3.18926343 1.11111138 0.00391325 0.00000000
3.09534292 1.56051801 -0.00109537 0.00000000
2.34688181 0.01694903 -0.00398075 0.00000000
1.26501245 0.68826754 -0.00251481 0.00000000
3.64487215 0.36029567 0.00204375 0.00000000
1.76448508 1.46005299 -0.00438834 0.00000000
3.31717377 1.92139691 0.00417530 0.00000000
2.77346387 1.40349763 0.00557877 0.00000000
1.06204252 0.87814032 0.00004495 0.00000000
1.76709851 1.27891950 0.00055811 0.00000000
3.44062386 0.22764401 0.00129251 0.00000000
4.42897707 2.06482319 0.00098986 0.00000000
2.50776348 0.41663278 0.00467401 0.00000000
1.16272097 2.03252976 -0.00223374 0.00000000
2.88661542 1.12784460 0.00457346 0.00000000
3.86775211 1.76838719 -0.00226989 0.00000000
3.54312086 0.58158343 -0.00037316 0.00000000
3.28544530 1.12034489 0.00034390 0.00000000
0.80833521 0.32700847 0.00265312 0.00000000
3.31953744 0.99306228 -0.00092156 0.00000000
1.47015143 0.30047654 -0.00277668 0.00000000
2.35473727 0.80933836 -0.00438803 0.00000000
0.09252887 1.76179309 0.00178559 0.00000000
3.43705523 1.28046445 -0.00136782 0.00000000
3.21698075 1.14682157 -0.00315048 0.00000000
2.89476632 1.26035056 0.00303915 0.00000000
1.87602248 0.21232042 -0.00363197 0.00000000
2.25048453 2.27848139 -0.00489249 0.00000000
0.50225572 1.86370295 -0.00103927 0.00000000
3.08620742 1.43487751 -0.00118643 0.00000000
2.46664822 0.43599952 -0.00187311 0.00000000
0.87475372 2.25398913 0.00176526 0.00000000
0.40710347 0.83780193 0.00330633 0.00000000
1.11114292 1.37230383 -0.00117646 0.00000000
1.12413605 1.52178866 0.00423315 0.00000000
0.76392194 1.83291941 0.00309153 0.00000000
0.18254074 0.02490234 -0.00386076 0.00000000
0.36109896 0.93227807 0.00060932 0.00000000
0.25697858 1.21687854 0.00197912 0.00000000
0.45719655 1.42439643 -0.00096270 0.00000000
4.60736784 1.47120804 -0.00242377 0.00000000
4.56914660 1.27802255 0.00183236 0.00000000
4.20073906 1.23363052 -0.00054371 0.00000000
3.20031031 1.88185174 -0.00134739 0.00000000
4.47646695 1.87160132 0.00079062 0.00000000
4.41985970 2.23384039 0.00072716 0.00000000
1.18371900 0.71965213 0.00006630 0.00000000
1.99873266 0.71360289 0.00190924 0.00000000
2.71432952 0.35483872 -0.00152459 0.00000000
0.09682482 1.11437325 0.00211343 0.00000000
3.47671781 1.18930219 0.00122011 0.00000000
2.28138082 1.76780996 -0.00154045 0.00000000
1.93044753 0.63167827 -0.00077410 0.00000000
2.38271082 0.34017194 -0.00341213 0.00000000
3.82162673 0.47933700 0.00346790 0.00000000
4.26729026 1.17347579 0.00011338 0.00000000
0.09249769 1.94944089 0.00428550 0.00000000
0.94275916 1.42458051 0.00260034 0.00000000
1.98461223 0.80235664 -0.00301748 0.00000000
4.02283486 0.84322700 0.00021766 0.00000000
2.40022121 1.05642690 0.00248926 0.00000000
2.55657455 1.91666324 -0.00244217 0.00000000
1.79339044 1.11874941 -0.00243777 0.00000000
1.47151165 0.99350976 -0.00272858 0.00000000
4.03757213 0.08201746 -0.00153271 0.00000000
4.30530795 0.39600342 -0.00177859 0.00000000
2.91030150 1.82097516 0.00432716 0.00000000
3.69690348 1.79853400 0.00095897 0.00000000
3.76145417 0.38709089 0.00054030 0.00000000
2.42729055 1.65975902 0.00419826 0.00000000
1.75625260 1.27070173 -0.00066590 0.00000000
3.28904883 1.76143990 0.00154526 0.00000000
1.82215955 0.54333871 -0.00148925 0.00000000
1.16607536 0.17389134 0.00320183 0.00000000
1.58183363 0.42660326 -0.00225380 0.00000000
2.24849011 2.28511361 -0.00291166 0.00000000
3.20097866 1.15298651 0.00169812 0.00000000
0.09532821 1.85291715 -0.00340718 0.00000000
3.19739349 1.06934541 0.00133485 0.00000000
2.09463533 1.04201487 -0.00237839 0.00000000
2.72503466 1.95034401 -0.00231682 0.00000000
3.01595007 1.73572260 0.00146259 0.00000000
2.34420571 1.98104708 0.00000818 0.00000000
0.53046570 0.98322775 -0.00119130 0.00000000
0.79073577 1.89821393 -0.00073824 0.00000000
3.79185925 0.46796704 0.00115054 0.00000000
0.32094003 0.49753900 0.00160155 0.00000000
3.57088225 0.80040319 -0.00214885 0.00000000
4.32204108 1.84033077 -0.00121315 0.00000000
0.26735647 1.38936652 -0.00073718 0.00000000
3.32169449 1.58998368 -0.00203562 0.00000000
0.46061556 1.76358984 -0.00094306 0.00000000
1.27587315 0.72428859 -0.00256718 0.00000000
0.61029822 0.55075289 -0.00187755 0.00000000
0.33854645 1.41763698 0.00020435 0.00000000
2.71601348 1.00460447 0.00255907 0.00000000
1.01212544 1.30011229 -0.00055525 0.00000000
4.14413911 1.13846985 -0.00169056 0.00000000
0.88391702 1.53160128 0.00337489 0.00000000
4.32552677 1.52262199 0.00116062 0.00000000
3.34734469 0.06858512 0.00228911 0.00000000
4.58803478 2.05730320 0.00012338 0.00000000
1.46130862 1.09564467 -0.00017420 0.00000000
2.97630492 0.04541220 0.00177355 0.00000000
1.94847604 1.92326089 -0.00466396 0.00000000
1.00821709 0.03950474 -0.00125635 0.00000000
3.78443855 1.15967999 -0.00274478 0.00000000
4.11843192 1.25281871 -0.00257144 0.00000000
3.58022083 2.25206913 0.00249749 0.00000000
2.09732134 1.69209976 0.00095376 0.00000000
3.49962626 0.51899205 0.00042582 0.00000000
0.57026459 1.47484917 0.00508977 0.00000000
1.96444250 1.16023670 -0.00454621 0.00000000
3.52539397 1.00206630 0.00222096 0.00000000
0.46242058 0.78961489 -0.00146423 0.00000000
2.14490098 1.53819243 -0.00036939 0.00000000
4.52765128 1.76139752 -0.00196479 0.00000000
1.43681993 0.12680203 -0.00128498 0.00000000
1.70361862 0.50018970 0.00093942 0.00000000
4.35862432 0.58769334 0.00335943 0.00000000
2.44756776 0.50941016 -0.00175223 0.00000000
4.57953250 1.12399723 0.00055952 0.00000000
0.91811681 1.39541455 -0.00070639 0.00000000
4.23067985 2.20004439 0.00350016 0.00000000
3.89509370 1.74131983 0.00071268 0.00000000
1.80637528 1.96098564 0.00270619 0.00000000
0.88798205 0.61113748 0.00123571 0.00000000
2.74139705 1.84917886 -0.00004535 0.00000000
1.11935729 0.64763962 -0.00077483 0.00000000
0.70819737 0.93286241 -0.00719438 0.00000000
1.94458439 0.24140558 -0.00520234 0.00000000
1.44578179 1.20541000 0.00357252 0.00000000
0.90931315 0.03601551 0.00006270 0.00000000
2.58469309 1.21048458 -0.00106995 0.00000000
1.21472372 1.16487548 -0.00026745 0.00000000
1.66771468 1.90421219 0.00084010 0.00000000
1.35265378 1.40497598 0.00362655 0.00000000
1.67088528 1.18168334 0.00054384 0.00000000
3.63905249 1.79753679 0.00427447 0.00000000
3.49651001 1.99318963 -0.00217435 0.00000000
3.57402999 0.10483512 -0.00093583 0.00000000
2.16884892 1.13544945 0.00000279 0.00000000
2.32721619 1.87378925 0.00375581 0.00000000
2.33123230 1.78036731 -0.00428625 0.00000000
4.39204610 0.00483511 0.00015082 0.00000000
3.81821790 1.53711581 0.00080778 0.00000000
1.92601375 2.26921702 -0.00166580 0.00000000
4.26364869 1.05677020 -0.00071856 0.00000000
2.11420945 0.17698659 -0.00002512 0.00000000
0.46806099 0.67253650 0.00167402 0.00000000
4.55369627 0.61055119 0.00169791 0.00000000
4.39024193 1.22288102 -0.00432892 0.00000000
1.22513160 0.56256037 0.00056880 0.00000000
4.01520559 1.00016132 0.00099258 0.00000000
3.78502241 1.85050432 0.00317922 0.00000000
4.55410545 0.12633157 0.00210111 0.00000000
1.68232041 1.00359308 -0.00286028 0.00000000
0.85137315 0.91143774 0.00006286 0.00000000
3.24066623 0.73079161 0.00197702 0.00000000
2.11277964 1.90532316 -0.00720280 0.00000000
4.30204721 2.13274113 -0.00469770 0.00000000
2.41820268 0.78634745 -0.00162673 0.00000000
4.39383121 0.87406202 -0.00482282 0.00000000
0.11391498 1.62448209 0.00421244 0.00000000
1.87633511 0.63041087 -0.00054236 0.00000000
2.15292377 1.19442890 0.00381161 0.00000000
2.88256112 1.96318505 0.00116963 0.00000000
2.80332389 0.56922092 -0.00191176 0.00000000
0.36007010 0.00853911 -0.00028500 0.00000000
1.62687718 1.22890831 -0.00325120 0.00000000
0.72095940 2.21714339 0.00259142 0.00000000
1.12462467 2.18857118 0.00093729 0.00000000
0.16144153 1.18993955 -0.00031979 0.00000000
4.39077804 0.55267058 -0.00106015 0.00000000
4.36055618 0.28583151 0.00085649 0.00000000
0.32787102 0.61305155 0.00083955 0.00000000
3.83478097 0.01164066 -0.00013033 0.00000000
1.97062891 1.62895347 0.00238347 0.00000000
3.25071662 1.32520344 -0.00091283 0.00000000
2.02919755 1.00259791 -0.00238616 0.00000000
2.87615228 1.51612955 -0.00219277 0.00000000
1.82456798 1.52290664 0.00068192 0.00000000
0.94047860 1.35873409 -0.00145459 0.00000000
2.44149898 1.44231586 -0.00157317 0.00000000
3.77626230 0.85660985 -0.00144297 0.00000000
4.02342525 0.44179152 0.00030207 0.00000000
1.01433771 1.62384007 0.00375940 0.00000000
4.09372623 0.73451516 -0.00287310 0.00000000
1.04519358 1.18037078 0.00392000 0.00000000
2.55755081 2.27060609 -0.00044614 0.00000000
3.73963826 1.48124883 -0.00246178 0.00000000
1.13399606 1.91173890 -0.00262886 0.00000000
1.28213225 1.81130085 0.00002164 0.00000000
3.36691984 1.84230521 -0.00056449 0.00000000
2.92666877 1.95704995 0.00112340 0.00000000
0.58962415 0.69038892 0.00021240 0.00000000
1.78476615 1.42826440 -0.00418081 0.00000000
4.36094241 0.30477495 0.00473881 0.00000000
3.82152496 2.17625276 0.00297975 0.00000000
2.95509699 2.23881676 -0.00080898 0.00000000
4.19965144 1.66024198 0.00363215 0.00000000
1.76815269 0.48748883 -0.00104941 0.00000000
1.60095636 0.07077546 -0.00261594 0.00000000
2.45096329 2.14679612 -0.00209204 0.00000000
4.37391444 0.69594421 -0.00139117 0.00000000
0.26722656 0.01149397 0.00143722 0.00000000
0.77549118 1.62927353 -0.00000134 0.00000000
3.36295192 0.92269167 0.00069088 0.00000000
2.77126625 2.25052236 -0.00332759 0.00000000
4.19622188 1.96837119 0.00052276 0.00000000
1.02968355 0.61224444 -0.00399603 0.00000000
2.05839603 0.59940224 -0.00194996 0.00000000
0.49658794 1.96105459 -0.00279292 0.00000000
0.24229230 0.16004680 0.00098459 0.00000000
3.04654117 1.41215772 -0.00618437 0.00000000
1.71529246 1.59699155 0.00135042 0.00000000
4.25559047 0.76498006 0.00088228 0.00000000
1.39002261 0.83400551 -0.00396760 0.00000000
4.58426909 1.48266350 0.00049824 0.00000000
0.97421831 0.62943444 0.00158157 0.00000000
3.94655677 0.13681442 -0.00241578 0.00000000
1.15504454 1.63887027 -0.00405285 0.00000000
0.22839198 0.31884304 0.00386592 0.00000000
2.42959684 1.37034369 -0.00281612 0.00000000
4.64378854 1.34815615 0.00116649 0.00000000
0.89982241 1.53915225 0.00151306 0.00000000
1.46376550 0.92465051 -0.00094521 0.00000000
0.78805872 0.31959886 0.00001176 0.00000000
2.78571808 1.14306391 -0.00202559 0.00000000
3.33699659 1.53831732 -0.00260989 0.00000000
0.49516820 0.06879275 0.00586471 0.00000000
1.29701830 2.13101743 -0.00280287 0.00000000
3.87948376 1.19672669 0.00273539 0.00000000
3.49371524 0.57835734 0.00063564 0.00000000
3.83143500 0.37415152 0.00343018 0.00000000
3.16669643 1.09636434 -0.00253561 0.00000000
0.48487604 1.10750319 -0.00311112 0.00000000
2.58910784 1.12794696 -0.00166194 0.00000000
1.90645572 1.36511206 -0.00469246 0.00000000
2.08566370 1.23524695 -0.00042048 0.00000000
0.63343060 1.17412524 0.00129864 0.00000000
0.79720750 0.04798259 0.00444962 0.00000000
3.27396091 1.37329903 0.00091899 0.00000000
3.45033830 0.04499564 0.00183387 0.00000000
2.10003639 1.32734564 -0.00120747 0.00000000
1.04830453 0.62463972 -0.00026671 0.00000000
3.28467540 2.10540721 -0.00137832 0.00000000
2.90907406 0.53741965 -0.00109090 0.00000000
4.16389289 1.09940556 0.00063079 0.00000000
2.44388662 1.90597006 -0.00134882 0.00000000
1.29028587 0.49025261 -0.00263730 0.00000000
0.16218308 0.44741251 -0.00043336 0.00000000
4.47885058 1.72458087 -0.00086833 0.00000000
0.46106228 2.09441675 0.00036859 0.00000000
1.43024363 1.81619518 -0.00348543 0.00000000
3.10245755 2.14508624 -0.00145705 0.00000000
1.22528248 0.56464203 -0.00330892 0.00000000
2.55782457 1.97159451 -0.00060249 0.00000000
4.30838802 0.95509469 -0.00138115 0.00000000
0.75770408 0.14410575 -0.00323581 0.00000000
4.43152276 0.72271069 -0.00068224 0.00000000
3.66756147 1.75540762 0.00037142 0.00000000
0.16074242 0.74105946 0.00054796 0.00000000
1.74532521 1.94788548 -0.00117933 0.00000000
2.06841656 0.56288443 -0.00388617 0.00000000
0.97013570 2.08250804 -0.00276079 0.00000000
4.53616079 0.40588666 -0.00143230 0.00000000
0.63930732 1.83775176 -0.00109435 0.00000000
2.54022202 1.54522248 0.00386670 0.00000000
4.21901288 2.05951576 0.00007986 0.00000000
1.28434768 1.45803314 -0.00092404 0.00000000
1.97625258 2.21207516 -0.00050116 0.00000000
4.17691168 1.22750314 -0.00293551 0.00000000
4.63002469 0.08715019 -0.00046339 0.00000000
2.65147026 0.90882904 0.00421327 0.00000000
2.21362553 1.66678128 -0.00038817 0.00000000
4.59876231 0.82362039 -0.00247521 0.00000000
4.64896424 1.29039517 -0.00064440 0.00000000
3.65364703 1.53670767 0.00318752 0.00000000
3.41976682 1.52683702 0.00111330 0.00000000
2.31116584 0.37530698 -0.00170408 0.00000000
2.68151196 1.92578574 0.00154201 0.00000000
1.04781015 0.47151755 0.00091724 0.00000000
2.57980306 1.57078009 -0.00207548 0.00000000
2.93942005 0.88392086 -0.00260554 0.00000000
0.11834161 0.43052202 -0.00001702 0.00000000
0.13843575 0.71751571 0.00221580 0.00000000
2.77074230 1.00387550 -0.00099596 0.00000000
1.17313865 0.55660075 -0.00012222 0.00000000
3.27589092 0.72430674 -0.00168521 0.00000000
1.35473634 2.15864460 0.00494791 0.00000000
3.87655576 1.91315451 -0.00019221 0.00000000
3.61375684 2.00851946 0.00375541 0.00000000
2.89844532 0.72123211 0.00147741 0.00000000
1.53212165 1.24769645 -0.00294005 0.00000000
3.63618338 0.63821814 0.00187222 0.00000000
1.33556110 0.24459062 0.00177297 0.00000000
3.59035717 0.44111848 -0.00105540 0.00000000
4.64261538 0.23209851 0.00037219 0.00000000
2.56423655 0.96548679 -0.00172912 0.00000000
4.11011077 0.56818955 -0.00153357 0.00000000
1.30199116 0.27926793 -0.00011221 0.00000000
0.86993852 1.94583287 0.00084563 0.00000000
1.74649980 1.92643921 -0.00359834 0.00000000
3.38120791 2.27303755 -0.00025746 0.00000000
3.70748111 1.07241469 -0.00200486 0.00000000
1.76509895 1.61602920 0.00072104 0.00000000
3.74963264 0.97145188 -0.00071436 0.00000000
0.05504872 1.23540739 -0.00463036 0.00000000
2.71450767 0.27408688 -0.00062833 0.00000000
2.27322531 1.87535903 0.00162534 0.00000000
3.81743204 0.09763099 0.00117259 0.00000000
1.46089342 0.83227225 -0.00078226 0.00000000
3.01329294 0.92116479 0.00509062 0.00000000
0.35930959 0.94667649 0.00307468 0.00000000
2.74891903 1.14120994 -0.00005189 0.00000000
4.57679036 1.01958102 -0.00265836 0.00000000
0.40305956 1.57054517 -0.00009214 0.00000000
3.94845966 0.22388450 0.00191809 0.00000000
4.04340212 1.20575988 0.00072993 0.00000000
4.61755905 1.82033115 0.00018433 0.00000000
3.48128688 1.72183869 0.00100520 0.00000000
1.64484500 0.45212201 -0.00238863 0.00000000
3.63309986 1.70424915 -0.00382376 0.00000000
1.13282694 0.00306788 -0.00279668 0.00000000
2.72604745 0.68016591 -0.00285136 0.00000000
2.29623635 1.80124853 0.00220923 0.00000000
0.08181298 1.47438706 -0.00109976 0.00000000
0.92926369 1.23994841 -0.00242924 0.00000000
2.25348412 0.57718335 0.00121175 0.00000000
0.96479512 1.39541587 -0.00165159 0.00000000
4.18465129 0.62182612 -0.00142323 0.00000000
4.41020774 0.52177476 0.00086983 0.00000000
4.40032774 1.86131194 -0.00104975 0.00000000
2.65010662 0.93082666 0.00046323 0.00000000
4.47335002 1.78922126 0.00034419 0.00000000
1.20297671 1.02340210 -0.00129073 0.00000000
4.61301278 2.08297200 0.00057324 0.00000000
1.84588020 2.12988198 -0.00029247 0.00000000
3.53682668 0.54356046 -0.00012366 0.00000000
1.20456048 1.70820840 -0.00215372 0.00000000
1.50061425 1.99495165 0.00172247 0.00000000
2.31340362 1.62768177 -0.00108184 0.00000000
4.17306810 0.87206590 0.00232097 0.00000000
0.77626182 1.33796195 0.00142782 0.00000000
0.78799568 2.25571176 0.00218831 0.00000000
2.52472264 0.72316082 -0.00010450 0.00000000
2.48603771 1.52310861 -0.00233813 0.00000000
0.16117886 0.06280355 -0.00234669 0.00000000
0.22118033 1.89867923 -0.00289865 0.00000000
0.71234892 0.13366789 -0.00406702 0.00000000
0.21098394 0.64647084 0.00129009 0.00000000
0.30463486 1.65667644 0.00128405 0.00000000
2.62640528 0.95288530 0.00192656 0.00000000
3.76298572 0.43353272 0.00096829 0.00000000
0.45299980 1.96172090 -0.00062831 0.00000000
0.52522990 1.88218879 -0.00005709 0.00000000
2.74736582 1.36152467 0.00126540 0.00000000
4.13241352 1.10039409 0.00175016 0.00000000
0.62536233 0.70035729 0.00005295 0.00000000
2.10982908 0.56320600 -0.00416253 0.00000000
2.36044692 0.09320857 -0.00015298 0.00000000
0.03311245 2.11612782 -0.00290980 0.00000000
3.50094421 0.39053546 -0.00070132 0.00000000
3.01797605 1.32114637 0.00188247 0.00000000
2.94992499 1.43873175 -0.00062672 0.00000000
0.15466772 0.89039287 -0.00234524 0.00000000
1.77379102 1.75245976 0.00038619 0.00000000
0.09455265 0.61008700 0.00068340 0.00000000
0.08936814 0.80717308 -0.00022734 0.00000000
2.29240126 1.58631371 0.00193828 0.00000000
4.27399622 1.24763262 -0.00014425 0.00000000
2.29540517 2.07858859 0.00228132 0.00000000
0.98897291 1.05697232 0.00016917 0.00000000
3.89209788 0.05833146 -0.00044758 0.00000000
0.49391813 0.13481466 0.00152305 0.00000000
2.02501832 1.36068543 -0.00214362 0.00000000
2.12118090 1.20989869 -0.00055818 0.00000000
1.52748760 2.18727000 0.00158159 0.00000000
2.37234424 0.73253463 0.00128230 0.00000000
4.35446435 1.72937410 0.00023695 0.00000000
0.32516432 0.07336247 -0.00105259 0.00000000
3.87365151 1.10531545 0.00020995 0.00000000
1.59265892 1.67924082 0.00076595 0.00000000
4.23974474 1.22944747 -0.00438723 0.00000000
3.77229836 0.29298170 -0.00052122 0.00000000
1.91033183 1.92975650 -0.00261127 0.00000000
1.78426828 0.13034817 0.00396615 0.00000000
0.77134794 0.86125434 0.00813813 0.00000000
1.69576218 1.70377567 -0.00130652 0.00000000
3.78849242 1.45081210 -0.00213559 0.00000000
2.49482679 0.54255581 -0.00031522 0.00000000
2.66480987 1.56181268 0.00137035 0.00000000
2.32836642 2.07758446 0.00057021 0.00000000
3.49770654 1.64115642 0.00203471 0.00000000
0.20113617 0.14846861 0.00432312 0.00000000
3.87942316 1.84196984 -0.00048297 0.00000000
0.45927343 1.22935116 -0.00204244 0.00000000
3.43361588 1.25237609 -0.00198333 0.00000000
2.71265390 1.45075736 0.00030432 0.00000000
2.04558382 0.09803381 0.00017923 0.00000000
1.10820974 0.37297223 0.00298756 0.00000000
3.04998526 1.16575485 -0.00078961 0.00000000
4.31643919 0.68121358 0.00448757 0.00000000
3.91378848 0.35575496 -0.00017259 0.00000000
4.06290613 0.00009193 -0.00270764 0.00000000
0.97226804 0.47967155 0.00027792 0.00000000
0.03031843 1.37114924 0.00282974 0.00000000
0.80082290 0.93924790 -0.00263421 0.00000000
2.44241860 0.70459298 0.00175863 0.00000000
0.44275937 1.75564871 -0.00289603 0.00000000
1.04992053 0.51616743 -0.00038299 0.00000000
3.70722749 1.77633083 -0.00077903 0.00000000
2.89792634 2.06268527 -0.00135849 0.00000000
1.55703298 0.45812485 0.00120573 0.00000000
1.96259124 0.55981686 0.00433606 0.00000000
4.15835263 0.15040220 0.00074305 0.00000000
3.82862234 0.73052643 0.00141029 0.00000000
2.35263143 0.67310006 -0.00040923 0.00000000
3.09968759 1.02667368 0.00016853 0.00000000
3.59756287 1.11983408 -0.00012169 0.00000000
4.39037533 1.28393542 -0.00047316 0.00000000
4.59900139 1.48365267 0.00133462 0.00000000
2.91299317 0.39947146 0.00007885 0.00000000
3.64731767 0.44632737 0.00223341 0.00000000
0.78629301 1.85514533 0.00559102 0.00000000
1.00996933 1.54570805 0.00072261 0.00000000
4.25075215 1.89758804 -0.00094203 0.00000000
2.04223665 0.94983764 -0.00077859 0.00000000
0.49645816 1.30645553 0.00059358 0.00000000
4.30228471 0.83817911 -0.00000723 0.00000000
2.03847291 1.08329902 0.00482438 0.00000000
2.15595419 1.13602929 -0.00185353 0.00000000
1.53412642 0.23477422 0.00178226 0.00000000
2.57144598 0.04991225 -0.00221168 0.00000000
0.80857160 1.42187909 -0.00053503 0.00000000
3.51265993 1.31286173 0.00074523 0.00000000
1.55202901 2.04916839 -0.00568749 0.00000000
4.62298295 1.93538665 0.00086653 0.00000000
1.55816446 0.26736177 -0.00259591 0.00000000
4.25227682 0.86199618 0.00231729 0.00000000
1.05412029 1.14045014 0.00241166 0.00000000
0.92717893 2.15480284 -0.00144113 0.00000000
4.32540962 1.95236991 -0.00034250 0.00000000
1.38129276 1.33147878 -0.00237337 0.00000000
4.70657780 0.34417207 0.00024350 0.00000000
2.91161270 2.09143391 -0.00635541 0.00000000
3.36913833 0.32161274 0.00166961 0.00000000
1.58501320 0.48866232 -0.00025898 0.00000000
0.70544263 0.15839706 0.00159202 0.00000000
1.25986587 0.36275817 -0.00409240 0.00000000
2.21545053 2.04880587 0.00356127 0.00000000
3.96562489 2.13036742 -0.00042044 0.00000000
0.01014563 0.78469540 0.00303734 0.00000000
1.77483657 1.84051806 -0.00487419 0.00000000
1.12845662 0.91530206 -0.00131337 0.00000000
0.34041592 0.04036481 0.00036714 0.00000000
2.87815875 0.26704630 -0.00239292 0.00000000
0.75025271 2.24073839 -0.00055032 0.00000000
1.52649630 0.35527694 -0.00074190 0.00000000
4.52567185 0.85997699 0.00108539 0.00000000
0.11657186 1.89195329 0.00149871 0.00000000
1.59254280 2.10481979 0.00110306 0.00000000
1.52025533 1.06802094 0.00038287 0.00000000
1.48770951 0.92977310 -0.00042344 0.00000000
1.92909368 0.99576339 0.00688619 0.00000000
3.78670607 0.38980424 0.00180998 0.00000000
3.30631575 1.49775625 0.00190756 0.00000000
1.02772034 0.50861390 0.00173139 0.00000000
4.30638997 1.01333218 0.00171680 0.00000000
0.74234604 1.03902026 0.00246042 0.00000000
4.54444762 2.06839380 0.00566201 0.00000000
4.40660900 1.14480145 -0.00424104 0.00000000
0.25347915 1.39187593 -0.00303368 0.00000000
3.75939607 2.08606660 -0.00183005 0.00000000
3.76553262 2.09688818 0.00399768 0.00000000
2.59067839 2.24773818 -0.00133558 0.00000000
4.20715278 0.45330517 -0.00151498 0.00000000
0.00852166 2.24549818 -0.00032572 0.00000000
4.24547267 0.53273642 -0.00654844 0.00000000
0.00382178 0.17474859 0.00068789 0.00000000
1.84995866 0.04095415 -0.00025243 0.00000000
3.89766421 1.85695543 -0.00323076 0.00000000
2.04623208 1.03383486 0.00128660 0.00000000
1.92177541 2.11797740 0.00007972 0.00000000
1.31924777 1.11672866 -0.00403879 0.00000000
1.95880539 1.59544656 0.00447187 0.00000000
2.15312200 2.25174867 0.00375688 0.00000000
0.13377305 1.04806438 0.00155502 0.00000000
1.51318623 0.00228932 -0.00059522 0.00000000
4.02813928 0.56148665 0.00409681 0.00000000
4.71053974 0.99447284 -0.00146817 0.00000000
2.67162768 0.44356891 0.00062353 0.00000000
4.55168452 1.55747927 0.00041215 0.00000000
4.29869073 0.69904561 0.00008287 0.00000000
2.72403425 1.50548644 0.00004610 0.00000000
4.01270309 2.09684967 -0.00026426 0.00000000
3.91191325 2.11457025 -0.00184182 0.00000000
0.81115725 0.41708444 0.00212783 0.00000000
2.22903347 1.93330082 -0.00163004 0.00000000
2.00971632 0.61905597 0.00159992 0.00000000
2.46457495 2.01910752 -0.00377512 0.00000000
3.31065067 0.21148782 0.00158655 0.00000000
2.46750503 1.05007658 0.00220085 0.00000000
2.49510025 2.08889503 0.00071020 0.00000000
1.55171638 2.23327865 -0.00060719 0.00000000
0.28712282 0.90677905 0.00301181 0.00000000
0.78306234 1.14343532 -0.00054306 0.00000000
4.33287429 0.60835763 -0.00129024 0.00000000
4.43406004 0.61427869 -0.00130596 0.00000000
2.70690116 0.54418047 -0.00130585 0.00000000
4.71813043 1.80283289 0.00213059 0.00000000
0.24534346 1.44946851 0.00014844 0.00000000
0.76558653 1.32194052 -0.00033004 0.00000000
4.36147085 1.50839861 0.00066483 0.00000000
2.99939017 2.04913686 0.00007770 0.00000000
3.37567541 0.77221300 0.00181255 0.00000000
3.54956974 2.04920274 0.00140108 0.00000000
0.95070520 0.64675615 0.00093339 0.00000000
4.65772812 0.55171521 -0.00257370 0.00000000
0.49077550 1.41782843 0.00134911 0.00000000
1.39459989 1.70992074 -0.00129121 0.00000000
3.40653482 0.43730531 -0.00148198 0.00000000
1.29277243 1.51515982 0.00006816 0.00000000
3.47971377 1.22690622 0.00375177 0.00000000
4.56216098 1.30555610 -0.00059022 0.00000000
2.53276955 1.62052412 0.00042383 0.00000000
2.06689872 0.29384616 -0.00040350 0.00000000
1.89121763 2.06194144 -0.00410817 0.00000000
0.73207412 0.88912029 0.00257227 0.00000000
2.48591992 0.00760879 -0.00082996 0.00000000
3.89203783 0.06872065 0.00054674 0.00000000
2.36486077 1.81445025 0.00142312 0.00000000
3.15504867 0.87075959 -0.00348587 0.00000000
0.60213218 0.88586862 0.00090129 0.00000000
3.75939193 2.23016573 0.00000646 0.00000000
1.98765860 1.88038057 -0.00621744 0.00000000
2.56224777 0.09162521 0.00330173 0.00000000
4.65054000 0.71220802 -0.00139317 0.00000000
2.07234858 1.01736920 0.00156128 0.00000000
0.07779806 0.86652314 -0.00249331 0.00000000
4.65238227 1.45720723 0.00011363 0.00000000
1.27675016 1.55507117 -0.00196853 0.00000000
3.70493739 2.10355926 -0.00173537 0.00000000
1.78732996 0.53178329 0.00051795 0.00000000
1.13921986 1.45443253 0.00200216 0.00000000
1.58652189 1.09327797 0.00239094 0.00000000
3.63534956 0.58505461 0.00265346 0.00000000
1.72541225 0.18894619 -0.00147293 0.00000000
1.07664343 1.24684728 0.00082644 0.00000000
4.70701979 2.01029502 -0.00029608 0.00000000
1.98276836 2.24251805 -0.00000893 0.00000000
3.04083807 1.92619376 -0.00307222 0.00000000
4.32665540 2.19622507 -0.00037800 0.00000000
3.20672262 0.70637484 0.00034067 0.00000000
0.56627982 1.95816218 0.00135906 0.00000000
0.10010224 2.22878297 0.00077183 0.00000000
1.19054542 1.73848511 0.00258415 0.00000000
0.13432919 0.32459867 0.00277420 0.00000000
4.72108344 2.12255459 -0.00331503 0.00000000
4.58567300 0.92139152 -0.00289858 0.00000000
2.02925215 1.08145375 -0.00038864 0.00000000
0.44596690 0.32358480 0.00146130 0.00000000
3.31909420 1.07489783 0.00120208 0.00000000
0.27906391 0.99407537 0.00494908 0.00000000
0.98770548 2.11733613 -0.00240147 0.00000000
4.23080194 1.52333667 -0.00068946 0.00000000
3.48166249 2.02418452 0.00245371 0.00000000
0.40503758 0.38222900 -0.00369634 0.00000000
0.81181645 1.62619274 0.00052546 0.00000000
0.13092360 1.92637278 -0.00344055 0.00000000
2.03818198 0.77454514 0.00069699 0.00000000
0.52310367 1.62425949 0.00147733 0.00000000
1.90294742 0.45461728 0.00122133 0.00000000
1.38012045 0.77000290 0.00010457 0.00000000
4.16186532 1.55714655 -0.00282602 0.00000000
2.40495962 2.14183002 -0.00210094 0.00000000
0.86072113 1.73225117 0.00067542 0.00000000
4.45286754 0.80566869 -0.00423131 0.00000000
1.29112233 0.58430870 -0.00055287 0.00000000
2.89461105 1.39011303 -0.00260376 0.00000000
4.57534982 1.99574984 -0.00310394 0.00000000
2.49591431 2.14891517 0.00015392 0.00000000
2.67494384 0.89025099 -0.00207711 0.00000000
4.38455302 1.60718310 0.00081296 0.00000000
0.61139692 1.83353317 -0.00043060 0.00000000
1.29569630 1.46602142 -0.00447111 0.00000000
0.96889176 0.75008791 -0.00471546 0.00000000
3.87150251 0.75510859 -0.00237317 0.00000000
1.02099198 2.28688356 -0.00186422 0.00000000
0.62125034 2.08099521 0.00369304 0.00000000
0.32561871 0.53503527 0.00351949 0.00000000
1.03016746 1.95862574 -0.00347357 0.00000000
0.62583296 1.23217786 -0.00033899 0.00000000
0.57908196 2.15421300 0.00126561 0.00000000
3.85948120 1.98103992 -0.00067487 0.00000000
1.27514839 2.07923290 -0.00106679 0.00000000
1.27533136 0.77410578 -0.00284399 0.00000000
1.91307187 1.90837704 0.00247389 0.00000000
0.92769548 0.93061943 -0.00021686 0.00000000
2.45166583 0.75724886 0.00230659 0.00000000
1.01285381 2.12612172 -0.00037004 0.00000000
3.12862161 1.27909677 0.00399940 0.00000000
3.14142893 1.62841035 -0.00507179 0.00000000
2.44301561 1.37925311 -0.00133999 0.00000000
4.32935447 0.06974612 0.00062997 0.00000000
3.16176767 1.28001220 -0.00049572 0.00000000
0.56778697 0.68116636 0.00266212 0.00000000
1.63998120 0.76189645 -0.00648228 0.00000000
3.83007552 1.92314807 -0.00238063 0.00000000
1.51068172 0.05086375 -0.00531214 0.00000000
3.42214216 1.69949011 0.00307356 0.00000000
0.10768051 1.13751379 0.00004595 0.00000000
2.71770870 2.10218333 -0.00108208 0.00000000
0.62347596 1.89211666 -0.00226603 0.00000000
1.01971197 1.12526538 -0.00095178 0.00000000
2.48042729 1.02211812 0.00416439 0.00000000
2.14589720 1.54052189 0.00062497 0.00000000
0.13519381 2.10658905 -0.00496610 0.00000000
1.88537685 1.31813534 0.00360697 0.00000000
0.18635926 1.58007945 0.00211114 0.00000000
3.94785677 0.09714699 0.00474540 0.00000000
1.13095699 1.05444053 -0.00030751 0.00000000
4.44192524 0.66934543 -0.00052856 0.00000000
2.53900400 1.01229086 -0.00076941 0.00000000
1.14255431 1.50972231 0.00225091 0.00000000
3.35759811 1.36411492 -0.00043570 0.00000000
2.18573947 0.35522191 0.00132082 0.00000000
0.23999066 0.12047133 0.00219820 0.00000000
3.22271369 0.15216587 0.00041060 0.00000000
2.16029503 2.22146341 0.00175695 0.00000000
4.48379995 1.57079348 -0.00112132 0.00000000
3.98049905 1.53780588 -0.00030465 0.00000000
1.76413414 0.52382942 0.00515834 0.00000000
1.30913025 1.19103213 -0.00370808 0.00000000
1.20921738 0.41184701 0.00326401 0.00000000
1.27892619 2.21904294 0.00122906 0.00000000
3.02134224 1.87030727 0.00187474 0.00000000
3.33100807 1.61068685 0.00099610 0.00000000
4.43132888 1.41213449 0.00196875 0.00000000
4.23957912 1.11181489 -0.00118468 0.00000000
3.31398045 1.03610189 0.00322559 0.00000000
4.22700151 2.27401558 -0.00411460 0.00000000
2.99912063 1.40637632 0.00001414 0.00000000
1.63775963 0.98980514 -0.00306202 0.00000000
2.20362123 2.27842512 0.00010061 0.00000000
0.60587410 1.98469921 -0.00216221 0.00000000
3.56658647 0.09186561 0.00125267 0.00000000
1.14974799 1.47440234 -0.00297254 0.00000000
4.50135213 0.46879982 0.00297018 0.00000000
2.41865262 1.69915239 -0.00442665 0.00000000
3.40284375 1.78527697 0.00144759 0.00000000
3.01926486 1.14402445 -0.00428181 0.00000000
2.39570329 0.87435761 -0.00137735 0.00000000
0.56230858 0.89804950 -0.00354906 0.00000000
4.05486931 0.75946755 -0.00069045 0.00000000
0.77001658 0.61745575 -0.00078504 0.00000000
4.26443595 1.84329155 -0.00332099 0.00000000
1.75480474 2.14881898 0.00039901 0.00000000
0.71023347 1.29094834 0.00021185 0.00000000
1.57658976 2.01320447 0.00020303 0.00000000
3.63746763 0.17446411 0.00246009 0.00000000
4.70631379 0.50912338 0.00148214 0.00000000
1.96902106 0.56238237 0.00190161 0.00000000
1.35577141 1.01676562 -0.00396758 0.00000000
2.93040670 1.44750773 -0.00029667 0.00000000
3.80167101 2.20998527 -0.00358718 0.00000000
1.09180568 0.11114881 -0.00090303 0.00000000
0.12341153 0.70657478 -0.00408437 0.00000000
2.22893100 1.10280102 -0.00022039 0.00000000
1.00958471 1.88038074 -0.00204833 0.00000000
1.71403611 0.91917299 0.00300322 0.00000000
1.11135809 0.96400543 0.00172643 0.00000000
4.27408258 1.50782991 -0.00381728 0.00000000
2.93167390 0.60815851 -0.00084324 0.00000000
2.23471977 1.59806587 0.00032755 0.00000000
1.82097746 2.16270668 0.00125078 0.00000000
0.79849198 1.44084451 0.00212309 0.00000000
1.57687832 0.54812656 -0.00049179 0.00000000
3.69521925 0.21329711 -0.00093753 0.00000000
3.57254893 1.27287885 -0.00075685 0.00000000
1.40239620 0.11865254 -0.00206000 0.00000000
4.41326533 2.05183043 0.00216056 0.00000000
0.86839288 0.27777864 -0.00290308 0.00000000
3.84734301 0.99508939 -0.00004171 0.00000000
1.31169113 0.98162427 -0.00080812 0.00000000
3.40084781 2.07804083 0.00165008 0.00000000
3.35724617 1.14453213 0.00418271 0.00000000
4.16012256 1.50222768 -0.00040014 0.00000000
3.07710449 1.32906690 -0.00466243 0.00000000
1.48588194 0.78036898 -0.00079149 0.00000000
4.50925280 0.74571903 0.00236204 0.00000000
1.63662461 0.48689700 -0.00648028 0.00000000
1.63135979 1.64636396 -0.00329884 0.00000000
1.52582777 0.23857551 -0.00124903 0.00000000
3.18453064 1.14364639 0.00421284 0.00000000
2.35601926 1.16323417 -0.00260723 0.00000000
2.54188592 2.03632306 -0.00719967 0.00000000
0.45982767 0.75603009 0.00317328 0.00000000
4.40162944 1.96485975 -0.00088925 0.00000000
3.27384109 0.54935396 -0.00403182 0.00000000
3.42043927 0.33202862 -0.00006813 0.00000000
0.52332787 1.99329794 0.00012837 0.00000000
3.68665573 1.64939122 -0.00122815 0.00000000
4.61101850 0.70755166 0.00033713 0.00000000
2.84746455 0.76394029 -0.00011940 0.00000000
4.25876383 1.98179167 0.00149907 0.00000000
0.68710634 1.42263605 -0.00348701 0.00000000
1.09963240 0.53357533 -0.00062881 0.00000000
1.22500929 2.07485295 -0.00094237 0.00000000
4.00934898 1.28713385 0.00060403 0.00000000
4.21156385 1.33551727 -0.00000513 0.00000000
3.45473330 2.28818747 0.00091141 0.00000000
3.31905417 0.75393017 -0.00124636 0.00000000
4.56808751 0.41118043 0.00111141 0.00000000
2.70450617 0.12919258 0.00356051 0.00000000
0.70861125 0.44701829 0.00196891 0.00000000
3.38768583 1.10049823 -0.00646141 0.00000000
